ply
format ascii 1.0
element vertex 1730
property float x
property float y
property float z
end_header
0.203145 -0.17431 0.808064
0.204477 -0.173875 0.80684
0.205764 -0.173496 0.805201
0.208874 -0.174148 0.80192
0.207071 -0.173087 0.803803
0.208341 -0.172721 0.802081
0.209647 -0.172304 0.80076
0.210936 -0.171908 0.799297
0.212224 -0.171509 0.797873
0.213522 -0.171095 0.796567
0.214831 -0.170665 0.795392
0.216147 -0.170223 0.794318
0.217492 -0.169745 0.793518
0.218859 -0.169239 0.792928
0.220221 -0.168739 0.792301
0.221577 -0.168243 0.791648
0.222938 -0.167742 0.791034
0.224286 -0.167255 0.790329
0.225613 -0.166789 0.789469
0.226961 -0.166298 0.788794
0.228329 -0.165785 0.788286
0.229697 -0.165271 0.787791
0.231113 -0.164702 0.787674
0.232571 -0.164089 0.787874
0.234012 -0.163495 0.787939
0.235471 -0.162882 0.788139
0.236928 -0.162273 0.788303
0.238324 -0.161727 0.788022
0.239683 -0.161221 0.787473
0.241094 -0.16066 0.787303
0.242494 -0.160111 0.78705
0.243898 -0.159557 0.786835
0.245834 -0.160394 0.78667
0.245318 -0.158986 0.786727
0.24728 -0.159797 0.786747
0.246704 -0.158451 0.786382
0.248595 -0.159331 0.78593
0.248022 -0.157983 0.785582
0.249796 -0.158977 0.784365
0.249222 -0.157634 0.784004
0.250252 -0.157452 0.781321
0.251189 -0.157357 0.778087
0.25213 -0.157254 0.774934
0.253069 -0.157145 0.77183
0.254004 -0.157037 0.76876
0.255046 -0.156819 0.766424
0.256141 -0.156545 0.764464
0.257248 -0.156259 0.762608
0.258381 -0.155943 0.760948
0.259501 -0.155639 0.759232
0.260603 -0.155348 0.75744
0.261694 -0.155066 0.75561
0.262805 -0.154761 0.75393
0.263887 -0.154481 0.752111
0.265043 -0.15413 0.750748
0.266229 -0.15375 0.749579
0.267445 -0.15334 0.7486
0.26866 -0.15293 0.747628
0.269915 -0.152483 0.746891
0.271155 -0.152049 0.746082
0.272395 -0.151613 0.745286
0.273602 -0.151207 0.744317
0.274846 -0.150765 0.743564
0.276075 -0.150337 0.742741
0.277343 -0.149873 0.742134
0.278613 -0.149407 0.741545
0.279939 -0.148892 0.741252
0.281245 -0.148393 0.740862
0.282569 -0.147878 0.740567
0.283899 -0.147359 0.740302
0.285311 -0.146769 0.740453
0.286764 -0.146145 0.740802
0.2013 -0.173267 0.809784
0.202599 -0.172882 0.808166
0.203913 -0.172474 0.806749
0.205207 -0.17209 0.805162
0.20651 -0.171688 0.803713
0.20781 -0.171288 0.80227
0.209127 -0.170862 0.801028
0.210416 -0.17047 0.799551
0.211698 -0.170082 0.798051
0.21299 -0.169679 0.796676
0.214301 -0.169248 0.795511
0.215629 -0.168795 0.794526
0.216987 -0.168304 0.793829
0.218366 -0.167785 0.793337
0.219738 -0.167273 0.792789
0.221097 -0.166778 0.792136
0.22246 -0.166276 0.791527
0.223798 -0.165802 0.790725
0.225115 -0.16535 0.789769
0.226453 -0.164874 0.788997
0.227799 -0.164387 0.788303
0.229144 -0.163899 0.78762
0.230548 -0.163345 0.787402
0.231993 -0.162746 0.787504
0.233445 -0.162138 0.787657
0.234931 -0.161495 0.788055
0.236428 -0.160842 0.788517
0.237865 -0.160253 0.78853
0.239266 -0.159705 0.788269
0.240671 -0.159151 0.788041
0.242051 -0.158624 0.787636
0.243432 -0.158095 0.787243
0.244816 -0.157562 0.786879
0.246159 -0.157072 0.786232
0.247468 -0.156617 0.78536
0.248688 -0.15625 0.783911
0.249809 -0.155981 0.781822
0.250849 -0.15579 0.779243
0.25185 -0.155634 0.776453
0.252801 -0.155522 0.773403
0.253766 -0.155391 0.770492
0.254755 -0.155232 0.767793
0.25577 -0.155043 0.765298
0.25682 -0.154816 0.763072
0.257894 -0.154561 0.761037
0.258982 -0.154291 0.759114
0.260053 -0.154034 0.757127
0.261129 -0.153768 0.755202
0.262226 -0.153481 0.753437
0.26331 -0.153201 0.751625
0.264467 -0.152853 0.75026
0.265655 -0.152472 0.749101
0.266871 -0.152064 0.74812
0.2681 -0.151644 0.747222
0.269373 -0.151182 0.746584
0.270634 -0.150729 0.745889
0.271892 -0.150278 0.745191
0.273128 -0.149847 0.744374
0.274384 -0.149398 0.743678
0.27563 -0.148955 0.742939
0.276914 -0.148478 0.742413
0.278174 -0.148022 0.741762
0.279485 -0.14752 0.74139
0.280777 -0.147035 0.74092
0.282088 -0.146532 0.740552
0.283421 -0.146012 0.740298
0.284868 -0.14539 0.740624
0.286357 -0.144735 0.741149
0.290241 -0.143801 0.751192
0.28787 -0.144059 0.741786
0.199413 -0.172267 0.811143
0.200744 -0.171845 0.809808
0.202044 -0.171464 0.808184
0.203345 -0.171078 0.806614
0.204657 -0.170672 0.805198
0.20597 -0.17026 0.803834
0.207291 -0.169837 0.802584
0.208613 -0.169407 0.801375
0.209899 -0.169023 0.799851
0.211183 -0.168637 0.798346
0.212467 -0.168247 0.79688
0.21378 -0.167818 0.79572
0.215121 -0.16735 0.794841
0.216491 -0.166847 0.794233
0.217872 -0.166327 0.793747
0.219245 -0.165816 0.793193
0.220604 -0.165322 0.792528
0.221968 -0.164822 0.79191
0.223307 -0.164349 0.791103
0.224616 -0.16391 0.790066
0.225955 -0.163434 0.78929
0.227291 -0.16296 0.788509
0.228626 -0.162487 0.787726
0.230028 -0.161935 0.787491
0.231472 -0.161336 0.787584
0.232937 -0.160716 0.787822
0.234437 -0.160056 0.788323
0.235948 -0.159386 0.788888
0.237391 -0.158792 0.788928
0.238805 -0.158229 0.78876
0.240213 -0.157674 0.788542
0.24158 -0.157162 0.788035
0.242948 -0.156648 0.787541
0.244319 -0.156132 0.787065
0.245635 -0.155672 0.786225
0.246917 -0.155245 0.785171
0.248136 -0.154883 0.7837
0.249284 -0.15459 0.781784
0.250383 -0.154344 0.779579
0.25145 -0.154127 0.777206
0.252452 -0.153971 0.774462
0.253446 -0.153819 0.771712
0.254408 -0.153694 0.768811
0.255364 -0.153569 0.765928
0.256357 -0.153402 0.763332
0.257374 -0.15321 0.760926
0.258403 -0.153 0.758638
0.259441 -0.152777 0.756446
0.260502 -0.15253 0.754429
0.261589 -0.152255 0.752597
0.262692 -0.151962 0.750894
0.263866 -0.151599 0.749628
0.265056 -0.15122 0.748475
0.266271 -0.150814 0.747486
0.267512 -0.150383 0.74666
0.268814 -0.149895 0.746183
0.270094 -0.149426 0.745593
0.271387 -0.148944 0.745083
0.272641 -0.148497 0.744363
0.273916 -0.148033 0.743762
0.275165 -0.147589 0.743034
0.276466 -0.147097 0.742594
0.277724 -0.146644 0.741927
0.279051 -0.14613 0.741629
0.280344 -0.145645 0.741158
0.281644 -0.145153 0.740726
0.282979 -0.14463 0.740481
0.284445 -0.143993 0.740894
0.285934 -0.143335 0.74142
0.287465 -0.142642 0.742144
0.197517 -0.171265 0.812484
0.19888 -0.170806 0.811445
0.200219 -0.170378 0.810175
0.201521 -0.169997 0.808553
0.20282 -0.169619 0.806929
0.204124 -0.169228 0.805414
0.205438 -0.16882 0.804046
0.206761 -0.168397 0.802792
0.208084 -0.167969 0.80158
0.209365 -0.167595 0.79999
0.210659 -0.1672 0.798564
0.211954 -0.166799 0.797186
0.213269 -0.166371 0.796028
0.214612 -0.165904 0.795153
0.215984 -0.165398 0.794556
0.217358 -0.164891 0.793984
0.218731 -0.164381 0.793421
0.220101 -0.163877 0.792836
0.221465 -0.163377 0.792214
0.222808 -0.162902 0.791423
0.224129 -0.162452 0.790465
0.225458 -0.161991 0.789594
0.226783 -0.16153 0.788716
0.228108 -0.161072 0.787842
0.22951 -0.160521 0.787599
0.230944 -0.159933 0.787607
0.23241 -0.159311 0.78785
0.23391 -0.15865 0.788352
0.235422 -0.157977 0.788919
0.236864 -0.157386 0.788947
0.238279 -0.156823 0.788776
0.239676 -0.156279 0.788477
0.241033 -0.15578 0.787886
0.242388 -0.155281 0.787297
0.243742 -0.154782 0.786708
0.245046 -0.154337 0.785778
0.246339 -0.153901 0.784787
0.247585 -0.153513 0.783496
0.248773 -0.153182 0.781845
0.249946 -0.152866 0.780115
0.251076 -0.152589 0.778139
0.252131 -0.152386 0.775712
0.253129 -0.152236 0.772965
0.254074 -0.152136 0.769928
0.25497 -0.152078 0.766641
0.255906 -0.151976 0.763664
0.256853 -0.151857 0.760813
0.257826 -0.151708 0.758167
0.25882 -0.151533 0.7557
0.259853 -0.151316 0.753511
0.260928 -0.151055 0.751611
0.262049 -0.150748 0.750009
0.263253 -0.150357 0.748928
0.264444 -0.149977 0.747782
0.265659 -0.149574 0.746791
0.266913 -0.149133 0.746033
0.268215 -0.148644 0.745561
0.269497 -0.148175 0.74498
0.270807 -0.147677 0.744564
0.272109 -0.147188 0.744107
0.273407 -0.146702 0.743632
0.274677 -0.146241 0.74301
0.275996 -0.145735 0.742659
0.277253 -0.145284 0.74198
0.278576 -0.144773 0.74166
0.279867 -0.144291 0.741174
0.281168 -0.1438 0.740741
0.28252 -0.143262 0.740575
0.284001 -0.14261 0.741065
0.285477 -0.141964 0.741521
0.287007 -0.14127 0.742236
0.198358 -0.169324 0.811883
0.199695 -0.168904 0.810565
0.20101 -0.16851 0.809054
0.20229 -0.168163 0.807214
0.203596 -0.167774 0.805699
0.204905 -0.167376 0.804255
0.206238 -0.166943 0.80309
0.207565 -0.166514 0.801893
0.208857 -0.16613 0.800389
0.210155 -0.165734 0.798979
0.211462 -0.165322 0.797695
0.212779 -0.164894 0.796534
0.214123 -0.164429 0.795647
0.215486 -0.163937 0.794957
0.21686 -0.163431 0.794374
0.218225 -0.162934 0.79372
0.219596 -0.162429 0.793138
0.220963 -0.161928 0.792529
0.222319 -0.161439 0.791835
0.223643 -0.160989 0.790885
0.224983 -0.160516 0.790095
0.226308 -0.160059 0.789198
0.227634 -0.159602 0.788316
0.229028 -0.159061 0.788001
0.230453 -0.158485 0.787925
0.231908 -0.157875 0.788079
0.233396 -0.157228 0.788477
0.234882 -0.156584 0.788849
0.236321 -0.155995 0.788851
0.237723 -0.155446 0.788579
0.239107 -0.154918 0.788183
0.240452 -0.154433 0.787504
0.241819 -0.153923 0.786992
0.243162 -0.153438 0.786321
0.244479 -0.152979 0.785477
0.245786 -0.152529 0.784585
0.247061 -0.152113 0.783485
0.248294 -0.151739 0.78212
0.249555 -0.151333 0.780971
0.250764 -0.15098 0.77949
0.251868 -0.150732 0.777359
0.252869 -0.150587 0.7746
0.25377 -0.15054 0.771248
0.254608 -0.150551 0.767562
0.255459 -0.150541 0.764032
0.256325 -0.15051 0.760654
0.257239 -0.150425 0.757641
0.258201 -0.150286 0.754972
0.259192 -0.150116 0.752522
0.260268 -0.149857 0.750628
0.261418 -0.149523 0.749198
0.262638 -0.149119 0.748206
0.263845 -0.148726 0.747152
0.265074 -0.148309 0.746247
0.266329 -0.147869 0.745494
0.267632 -0.14738 0.745024
0.268928 -0.146898 0.744522
0.270268 -0.146373 0.744273
0.271602 -0.145855 0.743988
0.272935 -0.145337 0.743697
0.274226 -0.144858 0.743184
0.275546 -0.14435 0.742836
0.276802 -0.143903 0.742143
0.278126 -0.143393 0.74182
0.27942 -0.142908 0.741343
0.280736 -0.142403 0.740988
0.282102 -0.141854 0.740886
0.283566 -0.141217 0.741287
0.285026 -0.140583 0.741657
0.28654 -0.139903 0.74229
0.288539 -0.140576 0.742947
0.288072 -0.139208 0.743001
0.290003 -0.139944 0.743305
0.289551 -0.138561 0.743434
0.196468 -0.168299 0.813356
0.197835 -0.167842 0.812312
0.199177 -0.167418 0.811027
0.200482 -0.167044 0.809383
0.201755 -0.166712 0.807448
0.203064 -0.166323 0.805937
0.204374 -0.165928 0.804486
0.205707 -0.165497 0.803307
0.207035 -0.165069 0.802112
0.20834 -0.164672 0.800711
0.209651 -0.164262 0.799412
0.210969 -0.163839 0.798215
0.212298 -0.1634 0.797141
0.213644 -0.162935 0.796258
0.215007 -0.162446 0.795543
0.216381 -0.161942 0.794945
0.217747 -0.161448 0.794281
0.21912 -0.160941 0.793704
0.220492 -0.160436 0.793119
0.221852 -0.159945 0.792443
0.223168 -0.159508 0.791407
0.224497 -0.159052 0.790507
0.225813 -0.158608 0.78952
0.227139 -0.158153 0.788632
0.228525 -0.157623 0.788237
0.22995 -0.157047 0.788158
0.231403 -0.156439 0.788289
0.232866 -0.15582 0.78849
0.234327 -0.155205 0.788663
0.235752 -0.154632 0.788562
0.237151 -0.154087 0.788266
0.238535 -0.153561 0.787862
0.239891 -0.153063 0.787261
0.241271 -0.15254 0.78684
0.242629 -0.152038 0.786273
0.243975 -0.151551 0.785621
0.245289 -0.151096 0.784764
0.246595 -0.150649 0.783869
0.247863 -0.15024 0.782731
0.249172 -0.149788 0.78188
0.250428 -0.149388 0.780699
0.251593 -0.149084 0.778939
0.2526 -0.148941 0.776183
0.253512 -0.148889 0.772878
0.254268 -0.148994 0.768638
0.25502 -0.149093 0.764455
0.255798 -0.149161 0.760507
0.25665 -0.149144 0.757096
0.257544 -0.149081 0.754001
0.258543 -0.148905 0.751603
0.259634 -0.148636 0.749792
0.260784 -0.148303 0.748369
0.262006 -0.147898 0.747391
0.263227 -0.147493 0.746418
0.264472 -0.147062 0.745602
0.265716 -0.146632 0.744789
0.267019 -0.146145 0.744321
0.268328 -0.145651 0.743891
0.269681 -0.145114 0.743713
0.271033 -0.144578 0.743528
0.272397 -0.144031 0.743412
0.273719 -0.143524 0.743063
0.275039 -0.143018 0.742709
0.27631 -0.142557 0.742094
0.277637 -0.142045 0.741781
0.278919 -0.141572 0.74124
0.280225 -0.141078 0.740822
0.281603 -0.140516 0.740789
0.283035 -0.139907 0.741022
0.284478 -0.139289 0.741304
0.28599 -0.13861 0.741926
0.287536 -0.1379 0.742709
0.289018 -0.137249 0.743158
0.19737 -0.166266 0.813407
0.198703 -0.16586 0.811994
0.199992 -0.165517 0.810137
0.201257 -0.165202 0.808083
0.20255 -0.164842 0.80638
0.203851 -0.164463 0.804818
0.205176 -0.164048 0.803537
0.206505 -0.163625 0.802324
0.207821 -0.163213 0.801031
0.209145 -0.162789 0.799835
0.210478 -0.162351 0.798753
0.211818 -0.161899 0.79777
0.213165 -0.161436 0.796872
0.214511 -0.160972 0.795988
0.215876 -0.160483 0.79529
0.21724 -0.159992 0.794603
0.218616 -0.159485 0.794032
0.21999 -0.158979 0.79345
0.221362 -0.158475 0.792867
0.222689 -0.158027 0.79191
0.22402 -0.15757 0.79101
0.225347 -0.157117 0.790097
0.226678 -0.156659 0.789226
0.228054 -0.156143 0.788741
0.229467 -0.155583 0.788552
0.230894 -0.155007 0.788469
0.23232 -0.154431 0.788383
0.233756 -0.153843 0.788367
0.235169 -0.153283 0.788173
0.236557 -0.152753 0.787792
0.237941 -0.152226 0.787387
0.23931 -0.151716 0.786879
0.240693 -0.151189 0.786478
0.242067 -0.150672 0.786014
0.243441 -0.150153 0.785566
0.244784 -0.149668 0.784902
0.246135 -0.149175 0.784301
0.24746 -0.148709 0.783533
0.248799 -0.148224 0.782877
0.250112 -0.147768 0.782054
0.251337 -0.147405 0.78066
0.252405 -0.147204 0.778274
0.253393 -0.147084 0.775414
0.254089 -0.147262 0.770749
0.254738 -0.147481 0.765872
0.255392 -0.147685 0.761122
0.256109 -0.147815 0.756852
0.256864 -0.147899 0.752896
0.25788 -0.147712 0.750594
0.258973 -0.147442 0.748801
0.260138 -0.147096 0.747464
0.261361 -0.146693 0.746488
0.262595 -0.146276 0.745596
0.263841 -0.145846 0.744784
0.265087 -0.145415 0.743983
0.266403 -0.144914 0.743593
0.267726 -0.144407 0.743245
0.26908 -0.143869 0.743076
0.270448 -0.143318 0.742981
0.271828 -0.142755 0.742951
0.273135 -0.142262 0.742525
0.274438 -0.141772 0.742076
0.275736 -0.141286 0.74161
0.27708 -0.140758 0.741388
0.278374 -0.140276 0.740902
0.279694 -0.139768 0.740563
0.281088 -0.139193 0.740605
0.282486 -0.138614 0.740665
0.283895 -0.138026 0.740774
0.285403 -0.137348 0.74138
0.286964 -0.136623 0.742243
0.288467 -0.135953 0.742795
0.290496 -0.136602 0.743575
0.289969 -0.135283 0.743334
0.293914 -0.134241 0.753436
0.291415 -0.134665 0.743588
0.195533 -0.165139 0.815574
0.196885 -0.164714 0.814296
0.198227 -0.164299 0.812953
0.199508 -0.163972 0.810983
0.200769 -0.163672 0.808842
0.202044 -0.163342 0.806932
0.203335 -0.162984 0.805234
0.204642 -0.1626 0.803745
0.205971 -0.162178 0.802521
0.207292 -0.161766 0.801246
0.208629 -0.161327 0.800162
0.209982 -0.160863 0.799264
0.211335 -0.160398 0.798381
0.212686 -0.159933 0.7975
0.214034 -0.159469 0.796615
0.215399 -0.158983 0.7959
0.216756 -0.158505 0.795125
0.218141 -0.157987 0.794623
0.219518 -0.157481 0.79405
0.220892 -0.156976 0.793465
0.222218 -0.15653 0.792491
0.223551 -0.156076 0.791586
0.224871 -0.155635 0.790592
0.226203 -0.155177 0.789725
0.22757 -0.154675 0.789147
0.22896 -0.154143 0.788765
0.23036 -0.153598 0.78847
0.231761 -0.153053 0.78818
0.233173 -0.152495 0.787979
0.234575 -0.151949 0.787699
0.235964 -0.151417 0.787326
0.237351 -0.150888 0.786938
0.238735 -0.15036 0.786542
0.240133 -0.149817 0.786246
0.241521 -0.149284 0.785884
0.242922 -0.148738 0.78561
0.244306 -0.148209 0.785224
0.245686 -0.147684 0.784819
0.247039 -0.14719 0.784228
0.248405 -0.146678 0.78374
0.24976 -0.14618 0.783175
0.251031 -0.145771 0.782067
0.252168 -0.145504 0.780102
0.253226 -0.145316 0.777667
0.253835 -0.145599 0.772399
0.25436 -0.145961 0.766695
0.254843 -0.146354 0.760845
0.255417 -0.146642 0.75567
0.256183 -0.146722 0.751774
0.257218 -0.146517 0.749591
0.258327 -0.146235 0.747889
0.259509 -0.145875 0.746655
0.260731 -0.145474 0.745677
0.261977 -0.145045 0.744857
0.263224 -0.144615 0.744049
0.264456 -0.1442 0.743169
0.265771 -0.143699 0.74278
0.267106 -0.14318 0.742503
0.268464 -0.142638 0.742352
0.269849 -0.142071 0.742356
0.271245 -0.141492 0.742419
0.272551 -0.141 0.741985
0.273836 -0.140528 0.74144
0.275147 -0.14003 0.741042
0.276495 -0.139499 0.74084
0.277792 -0.139013 0.740375
0.279128 -0.138491 0.74012
0.280519 -0.137919 0.740145
0.281898 -0.137357 0.740109
0.283292 -0.136783 0.740139
0.284798 -0.136104 0.740741
0.286374 -0.135363 0.741684
0.287914 -0.134657 0.74242
0.289438 -0.133966 0.743068
0.290921 -0.133315 0.743502
0.195049 -0.163571 0.816535
0.196405 -0.163145 0.81527
0.197752 -0.162729 0.813945
0.199024 -0.162424 0.811829
0.200277 -0.162141 0.809582
0.201536 -0.161843 0.80746
0.20281 -0.161516 0.80556
0.204106 -0.161151 0.803941
0.205429 -0.160744 0.80263
0.20676 -0.160319 0.801445
0.208109 -0.159866 0.800464
0.209475 -0.159387 0.799676
0.210839 -0.158909 0.798885
0.212202 -0.15843 0.798101
0.213554 -0.157966 0.797223
0.214921 -0.157478 0.796512
0.216277 -0.157004 0.795715
0.217655 -0.156499 0.795128
0.219033 -0.155992 0.794554
0.220409 -0.155489 0.793967
0.221729 -0.155056 0.792915
0.223061 -0.154603 0.791994
0.224382 -0.154163 0.791001
0.225717 -0.153705 0.790136
0.227075 -0.153216 0.789474
0.228452 -0.152702 0.788977
0.229828 -0.152189 0.78848
0.231203 -0.151675 0.787986
0.232592 -0.151146 0.787597
0.233981 -0.150614 0.787224
0.235383 -0.150068 0.786944
0.236783 -0.149523 0.786658
0.238183 -0.148978 0.786369
0.239594 -0.14842 0.786168
0.240996 -0.147873 0.785895
0.242409 -0.147312 0.785704
0.243808 -0.146769 0.785415
0.245204 -0.146226 0.785113
0.246574 -0.145714 0.784631
0.247955 -0.145189 0.784228
0.249336 -0.144664 0.78383
0.250652 -0.144208 0.783008
0.251882 -0.143845 0.781634
0.252899 -0.143709 0.778898
0.253442 -0.144075 0.773169
0.253876 -0.144547 0.766857
0.254233 -0.145086 0.760187
0.254689 -0.145509 0.75426
0.255505 -0.145544 0.750667
0.256587 -0.145295 0.74877
0.257699 -0.145012 0.747088
0.258895 -0.144639 0.745936
0.260091 -0.144266 0.7448
0.261335 -0.143841 0.743973
0.262567 -0.143427 0.743078
0.263797 -0.143014 0.742192
0.265112 -0.142514 0.741803
0.266475 -0.141967 0.74169
0.267848 -0.141409 0.741633
0.26925 -0.140823 0.741734
0.270663 -0.140228 0.741887
0.271968 -0.139738 0.741446
0.273237 -0.139282 0.740815
0.27456 -0.138773 0.740485
0.275895 -0.138254 0.740213
0.277192 -0.137769 0.73975
0.278528 -0.137248 0.739494
0.279914 -0.136678 0.739497
0.281262 -0.136146 0.739301
0.282652 -0.135574 0.739321
0.28416 -0.134892 0.739931
0.285768 -0.134118 0.741041
0.287342 -0.133378 0.741957
0.2889 -0.132654 0.742779
0.290418 -0.13197 0.743381
0.194574 -0.161983 0.817611
0.19591 -0.161594 0.816088
0.197247 -0.161199 0.814618
0.198519 -0.160903 0.812464
0.199767 -0.160634 0.810132
0.201017 -0.160357 0.80788
0.202282 -0.160048 0.805863
0.203562 -0.159712 0.804055
0.204877 -0.159318 0.80266
0.206209 -0.158896 0.801464
0.207559 -0.158444 0.800487
0.208936 -0.157952 0.799791
0.210313 -0.157457 0.79911
0.211689 -0.156964 0.798429
0.21306 -0.156475 0.797722
0.214439 -0.155973 0.797105
0.215809 -0.155485 0.796408
0.217199 -0.154966 0.795913
0.21858 -0.154459 0.795338
0.219948 -0.153967 0.794673
0.221268 -0.153537 0.793603
0.222592 -0.153099 0.792591
0.223903 -0.152676 0.791494
0.225228 -0.152232 0.790535
0.226566 -0.151771 0.789695
0.227921 -0.151285 0.789016
0.229273 -0.150804 0.788319
0.230623 -0.150322 0.787622
0.231999 -0.149809 0.787132
0.233387 -0.149279 0.786749
0.2348 -0.148719 0.786555
0.236213 -0.14816 0.786361
0.237626 -0.1476 0.786167
0.239039 -0.14704 0.785973
0.240452 -0.14648 0.785779
0.241865 -0.145921 0.785585
0.243266 -0.145375 0.785305
0.244665 -0.144831 0.785019
0.246051 -0.144301 0.784639
0.247435 -0.143774 0.784251
0.248832 -0.143231 0.783956
0.25019 -0.142731 0.783406
0.251506 -0.142276 0.782585
0.252472 -0.142204 0.77949
0.252943 -0.142662 0.773266
0.253594 -0.143851 0.759342
0.25396 -0.144382 0.752833
0.254837 -0.144357 0.749622
0.255973 -0.144056 0.748053
0.257087 -0.143774 0.746375
0.258283 -0.143404 0.745224
0.259463 -0.143047 0.743999
0.260706 -0.142625 0.74316
0.261922 -0.142228 0.74218
0.263153 -0.141815 0.741298
0.264467 -0.141316 0.740906
0.265831 -0.140767 0.740802
0.267205 -0.140209 0.740751
0.268607 -0.139621 0.740861
0.270033 -0.139012 0.741094
0.27134 -0.13852 0.740667
0.272624 -0.13805 0.740115
0.273947 -0.137543 0.739782
0.275278 -0.137026 0.739499
0.276545 -0.136572 0.738873
0.277862 -0.136068 0.73852
0.279229 -0.135516 0.738432
0.28059 -0.13497 0.738309
0.281981 -0.134396 0.738339
0.283522 -0.133681 0.739123
0.285163 -0.132873 0.740405
0.286754 -0.132114 0.741412
0.288314 -0.131387 0.742245
0.289847 -0.130687 0.742925
0.194057 -0.160456 0.818225
0.195396 -0.160068 0.816703
0.196721 -0.159698 0.815066
0.197986 -0.159418 0.812814
0.199226 -0.15917 0.810361
0.200469 -0.158909 0.808012
0.201726 -0.158618 0.805889
0.203008 -0.158284 0.804082
0.204325 -0.157892 0.802683
0.205658 -0.157471 0.801493
0.207009 -0.157022 0.8005
0.208386 -0.156531 0.7998
0.209765 -0.156036 0.799125
0.211152 -0.155528 0.798544
0.212537 -0.155022 0.797954
0.213928 -0.154505 0.797434
0.215311 -0.154 0.796844
0.216714 -0.153466 0.796446
0.218107 -0.152945 0.79597
0.219477 -0.152453 0.795301
0.220799 -0.152025 0.794229
0.222123 -0.151591 0.793193
0.223434 -0.151171 0.792075
0.224739 -0.150757 0.790934
0.226054 -0.150326 0.789902
0.227397 -0.149858 0.789109
0.228736 -0.149394 0.788305
0.230065 -0.148942 0.787428
0.231429 -0.148444 0.786844
0.232828 -0.147902 0.786539
0.234241 -0.147342 0.786345
0.235644 -0.146795 0.786075
0.237057 -0.146235 0.785881
0.23847 -0.145677 0.785677
0.239882 -0.145117 0.785475
0.241296 -0.144557 0.785288
0.242723 -0.143981 0.785189
0.244137 -0.14342 0.785002
0.245537 -0.142876 0.784716
0.246923 -0.142347 0.784335
0.248333 -0.141789 0.784125
0.249721 -0.141259 0.78376
0.25112 -0.140714 0.783477
0.251972 -0.140774 0.779617
0.252403 -0.14129 0.773105
0.252707 -0.141931 0.765906
0.252937 -0.142638 0.758377
0.25321 -0.143282 0.751269
0.254211 -0.143131 0.748826
0.255348 -0.142829 0.747266
0.256461 -0.142551 0.745584
0.257657 -0.142183 0.744427
0.258833 -0.141833 0.743178
0.260062 -0.141426 0.742258
0.261276 -0.141032 0.741268
0.262509 -0.140619 0.740396
0.263823 -0.14012 0.740011
0.265187 -0.13957 0.739911
0.266558 -0.139014 0.739849
0.267973 -0.138413 0.740034
0.269414 -0.137787 0.740354
0.270738 -0.137278 0.740024
0.27204 -0.136792 0.739569
0.273377 -0.13627 0.739315
0.274706 -0.135755 0.739022
0.275969 -0.135305 0.738375
0.277285 -0.134804 0.738011
0.278638 -0.134265 0.737848
0.279997 -0.13372 0.737718
0.281406 -0.133129 0.73784
0.282947 -0.13241 0.738639
0.284594 -0.131595 0.739949
0.286201 -0.130818 0.741038
0.28776 -0.130091 0.741867
0.289276 -0.129403 0.742468
0.192087 -0.159497 0.819075
0.193491 -0.159008 0.818262
0.194846 -0.158596 0.816915
0.196174 -0.158226 0.815294
0.197449 -0.157936 0.813127
0.198691 -0.157692 0.810665
0.199928 -0.157447 0.808225
0.201195 -0.157148 0.806176
0.20248 -0.156814 0.804383
0.20379 -0.156437 0.802894
0.205125 -0.156016 0.801703
0.206475 -0.155572 0.80069
0.207843 -0.155096 0.799888
0.209214 -0.154616 0.799121
0.210603 -0.154107 0.798546
0.212 -0.153585 0.79806
0.213405 -0.153051 0.79766
0.214802 -0.152528 0.797185
0.216217 -0.151979 0.796888
0.217613 -0.151456 0.796418
0.218974 -0.15098 0.795652
0.220275 -0.150582 0.794386
0.221577 -0.150178 0.793161
0.222868 -0.149789 0.791859
0.224172 -0.149379 0.790698
0.225486 -0.148952 0.789647
0.226838 -0.148475 0.788924
0.228187 -0.147999 0.788195
0.229529 -0.147532 0.787413
0.230894 -0.147033 0.786836
0.232295 -0.14649 0.78654
0.233709 -0.14593 0.786345
0.235113 -0.145382 0.786074
0.236515 -0.144835 0.785794
0.237915 -0.144293 0.785491
0.239326 -0.143736 0.785278
0.240741 -0.143175 0.785094
0.242171 -0.142595 0.785017
0.243587 -0.142033 0.784839
0.244999 -0.141475 0.784629
0.246383 -0.140949 0.784231
0.247794 -0.140393 0.784021
0.249197 -0.139843 0.783758
0.250441 -0.139476 0.782435
0.251085 -0.139777 0.7772
0.251465 -0.140361 0.770357
0.251737 -0.14105 0.76295
0.251961 -0.141776 0.755384
0.252414 -0.142236 0.749411
0.253595 -0.141893 0.748094
0.254746 -0.141579 0.746618
0.255848 -0.141317 0.744862
0.257028 -0.140967 0.743613
0.25819 -0.140634 0.742274
0.259389 -0.140259 0.741184
0.260591 -0.13988 0.740121
0.261836 -0.139453 0.739331
0.263139 -0.138967 0.73888
0.264514 -0.138405 0.738852
0.265896 -0.137836 0.738856
0.267308 -0.137237 0.739032
0.26875 -0.136608 0.739364
0.270104 -0.136069 0.739203
0.271424 -0.135564 0.738854
0.272764 -0.135039 0.738619
0.274095 -0.134524 0.738329
0.27537 -0.134063 0.737749
0.276684 -0.133562 0.737383
0.278037 -0.133023 0.737221
0.279414 -0.132461 0.737185
0.280854 -0.131838 0.737473
0.2824 -0.131115 0.738292
0.284045 -0.130297 0.739597
0.28565 -0.12952 0.740679
0.287206 -0.128792 0.741496
0.288706 -0.128121 0.742012
0.190655 -0.160031 0.819567
0.189222 -0.160569 0.820043
0.188597 -0.159216 0.819394
0.190048 -0.158649 0.819133
0.191492 -0.158093 0.818786
0.192918 -0.157566 0.818242
0.194295 -0.157123 0.817122
0.195626 -0.156753 0.815513
0.196911 -0.156451 0.813439
0.198156 -0.156211 0.810975
0.199395 -0.155969 0.808531
0.200657 -0.155685 0.806402
0.201952 -0.15534 0.804692
0.203256 -0.154977 0.803119
0.204592 -0.154558 0.801927
0.205926 -0.154141 0.800736
0.207284 -0.153684 0.799814
0.208643 -0.153222 0.798931
0.210032 -0.152715 0.798351
0.211431 -0.152191 0.797877
0.212839 -0.151654 0.797496
0.214256 -0.151104 0.797199
0.215663 -0.150566 0.796825
0.217049 -0.150058 0.796262
0.21839 -0.149611 0.79531
0.21967 -0.149246 0.793849
0.220938 -0.148891 0.792329
0.222216 -0.14852 0.790923
0.223509 -0.148125 0.789676
0.224825 -0.147699 0.788633
0.226198 -0.147194 0.788091
0.227572 -0.146688 0.787556
0.22894 -0.146188 0.786986
0.230331 -0.145657 0.786607
0.231755 -0.145084 0.786488
0.233181 -0.14451 0.786379
0.234587 -0.14396 0.786117
0.23599 -0.143416 0.78583
0.237387 -0.142876 0.785506
0.238797 -0.142321 0.785284
0.240214 -0.141759 0.785102
0.241647 -0.141175 0.785045
0.243065 -0.140611 0.784874
0.244464 -0.140069 0.784571
0.245832 -0.139563 0.784055
0.247241 -0.139009 0.783828
0.248659 -0.138445 0.783656
0.249734 -0.138272 0.781207
0.25023 -0.138751 0.774985
0.250613 -0.139345 0.768149
0.250902 -0.140029 0.760844
0.251162 -0.140729 0.7535
0.251807 -0.140988 0.748734
0.252977 -0.140659 0.74735
0.25413 -0.140346 0.745881
0.255221 -0.140098 0.744057
0.256384 -0.139767 0.742708
0.257533 -0.139452 0.741287
0.258703 -0.139109 0.740023
0.259904 -0.138731 0.738964
0.261163 -0.138292 0.738254
0.262453 -0.137819 0.737734
0.263825 -0.137258 0.737698
0.265206 -0.136691 0.737701
0.266603 -0.136105 0.737798
0.268044 -0.135476 0.738134
0.269428 -0.134904 0.738149
0.270779 -0.134369 0.737971
0.272151 -0.13381 0.737917
0.273485 -0.133292 0.737646
0.274761 -0.13283 0.737073
0.276075 -0.13233 0.736707
0.277444 -0.131775 0.736632
0.278842 -0.131193 0.736702
0.280329 -0.130522 0.737237
0.28189 -0.129782 0.738135
0.283533 -0.128964 0.73943
0.285116 -0.128205 0.740405
0.286653 -0.127494 0.741126
0.288135 -0.126837 0.741556
0.187974 -0.15786 0.818773
0.189428 -0.157286 0.81855
0.190894 -0.156694 0.818464
0.192333 -0.156145 0.818065
0.193722 -0.155684 0.817084
0.195062 -0.155302 0.815559
0.196357 -0.154991 0.813575
0.197597 -0.154764 0.811037
0.198847 -0.154513 0.808681
0.200119 -0.154217 0.806646
0.201416 -0.153874 0.804935
0.202723 -0.153511 0.803368
0.20406 -0.153096 0.802165
0.205384 -0.152696 0.800863
0.206734 -0.152255 0.799844
0.208083 -0.151811 0.798849
0.209471 -0.151307 0.798248
0.210869 -0.150785 0.797762
0.212277 -0.150249 0.797376
0.213584 -0.149858 0.796063
0.214879 -0.149481 0.794669
0.216182 -0.149088 0.793383
0.217453 -0.148737 0.791848
0.218682 -0.14844 0.789977
0.220027 -0.147979 0.789154
0.221392 -0.147488 0.788516
0.222738 -0.147023 0.787726
0.224098 -0.146535 0.787076
0.22552 -0.145966 0.786938
0.226932 -0.14541 0.786716
0.228325 -0.144877 0.786351
0.229742 -0.144314 0.786172
0.231191 -0.143709 0.78625
0.232631 -0.143117 0.786243
0.234048 -0.142554 0.786063
0.235462 -0.141994 0.78586
0.236861 -0.141454 0.785542
0.238271 -0.1409 0.785311
0.239688 -0.140338 0.785127
0.241122 -0.139755 0.785067
0.242541 -0.13919 0.784895
0.24394 -0.138649 0.784586
0.245307 -0.138145 0.784059
0.246716 -0.137591 0.783827
0.248134 -0.137027 0.783656
0.249009 -0.137093 0.779846
0.249455 -0.137641 0.773285
0.249781 -0.138314 0.766061
0.25006 -0.139024 0.75868
0.250331 -0.139724 0.7514
0.251164 -0.13978 0.747829
0.252349 -0.139438 0.746534
0.253504 -0.139124 0.74508
0.254608 -0.138865 0.743333
0.255758 -0.138552 0.741902
0.256902 -0.138243 0.740454
0.258059 -0.137918 0.73911
0.259258 -0.137544 0.738038
0.260503 -0.137119 0.737251
0.261791 -0.136648 0.736728
0.263151 -0.1361 0.73662
0.264515 -0.135548 0.73654
0.265898 -0.134976 0.736565
0.267336 -0.134348 0.736891
0.268733 -0.133763 0.736981
0.270114 -0.133195 0.736979
0.271536 -0.132585 0.737201
0.272916 -0.132019 0.737186
0.274237 -0.131512 0.736852
0.275582 -0.130982 0.736648
0.276972 -0.130407 0.736679
0.278388 -0.129805 0.736844
0.279882 -0.129128 0.737408
0.281441 -0.128387 0.738294
0.283051 -0.127599 0.73942
0.284614 -0.126859 0.740292
0.286116 -0.12618 0.740839
0.287579 -0.12554 0.741178
0.190263 -0.15535 0.817754
0.191723 -0.154767 0.817599
0.193129 -0.154278 0.816809
0.194489 -0.153866 0.815506
0.195795 -0.153541 0.813628
0.197044 -0.153306 0.811168
0.198304 -0.153043 0.808908
0.199589 -0.152733 0.806976
0.200898 -0.152376 0.805373
0.202214 -0.152003 0.803881
0.203544 -0.151604 0.802578
0.20486 -0.151222 0.801169
0.2062 -0.150797 0.800048
0.207532 -0.150383 0.798866
0.208902 -0.149908 0.798078
0.210289 -0.149404 0.797481
0.211687 -0.148885 0.796992
0.212965 -0.148538 0.795404
0.214112 -0.148377 0.792659
0.215269 -0.148196 0.790064
0.216393 -0.148052 0.787251
0.21755 -0.147853 0.784805
0.218847 -0.147453 0.783624
0.220263 -0.146886 0.783484
0.221662 -0.146342 0.783203
0.223118 -0.14572 0.783399
0.224629 -0.145025 0.78404
0.226141 -0.144333 0.784658
0.227614 -0.143694 0.784945
0.229099 -0.143041 0.785316
0.230584 -0.142389 0.785674
0.232049 -0.141764 0.785867
0.233491 -0.141168 0.785878
0.23492 -0.140592 0.785776
0.236332 -0.140035 0.785556
0.237745 -0.139478 0.785339
0.239162 -0.138916 0.785151
0.240594 -0.138337 0.785067
0.242012 -0.137772 0.784889
0.243412 -0.137231 0.784583
0.244796 -0.136708 0.784165
0.246219 -0.136139 0.78402
0.247651 -0.135559 0.783936
0.248317 -0.135877 0.778709
0.248706 -0.136507 0.771747
0.248969 -0.137267 0.764092
0.249217 -0.138025 0.756505
0.249484 -0.138746 0.749181
0.250513 -0.138585 0.746867
0.251724 -0.138214 0.745739
0.252905 -0.137875 0.744448
0.25401 -0.137617 0.742705
0.255147 -0.137322 0.741184
0.25629 -0.137016 0.739731
0.257432 -0.136708 0.738299
0.258618 -0.136351 0.737144
0.259849 -0.135942 0.736279
0.261121 -0.135488 0.735666
0.262464 -0.134956 0.735472
0.263812 -0.134421 0.735304
0.265191 -0.133853 0.735309
0.266626 -0.133226 0.735629
0.26805 -0.132611 0.735879
0.269463 -0.132009 0.736063
0.270933 -0.131348 0.736552
0.272348 -0.130745 0.736729
0.273733 -0.130174 0.736735
0.275108 -0.129614 0.736688
0.276516 -0.12902 0.736815
0.277937 -0.128413 0.737
0.279431 -0.127735 0.737562
0.280976 -0.127006 0.738373
0.282552 -0.126249 0.739327
0.284097 -0.125525 0.740104
0.285579 -0.124863 0.740554
0.287025 -0.12424 0.740806
0.189666 -0.153948 0.817449
0.191133 -0.153353 0.817375
0.192545 -0.152853 0.816657
0.193913 -0.152431 0.815432
0.195236 -0.152082 0.81373
0.196496 -0.151835 0.811359
0.197768 -0.151559 0.80921
0.199065 -0.151235 0.807387
0.200386 -0.150863 0.805887
0.201697 -0.150504 0.804318
0.203026 -0.15011 0.802987
0.204334 -0.149746 0.801474
0.205667 -0.149336 0.80026
0.20699 -0.148939 0.798975
0.208353 -0.148478 0.798104
0.209601 -0.148189 0.796154
0.210847 -0.147896 0.794241
0.211927 -0.147843 0.790837
0.212925 -0.147901 0.786759
0.213955 -0.1479 0.783089
0.215068 -0.147768 0.780254
0.216283 -0.147482 0.77839
0.217635 -0.146998 0.777764
0.219076 -0.146385 0.777923
0.220516 -0.145777 0.778054
0.222017 -0.145086 0.778683
0.223544 -0.144361 0.779513
0.22508 -0.143627 0.780388
0.226657 -0.142843 0.781562
0.228231 -0.142066 0.782679
0.2298 -0.141299 0.783724
0.231361 -0.140547 0.784673
0.232905 -0.139819 0.785469
0.234348 -0.139224 0.785478
0.235776 -0.138648 0.785369
0.237202 -0.138074 0.785251
0.238632 -0.137496 0.78515
0.240063 -0.136918 0.78506
0.241482 -0.136354 0.784879
0.242884 -0.135811 0.784579
0.244284 -0.135269 0.78427
0.245713 -0.134694 0.784156
0.247147 -0.134112 0.784086
0.247605 -0.13469 0.777427
0.247951 -0.135385 0.770156
0.248163 -0.13622 0.762151
0.248391 -0.137017 0.754416
0.248649 -0.137761 0.747031
0.249884 -0.137366 0.746042
0.251111 -0.136979 0.74502
0.252321 -0.136609 0.743905
0.253429 -0.136351 0.742177
0.254578 -0.136044 0.740732
0.255709 -0.135755 0.739198
0.256838 -0.135465 0.73768
0.257997 -0.135138 0.736368
0.259226 -0.134734 0.73549
0.26047 -0.134311 0.734711
0.261807 -0.133786 0.734486
0.263152 -0.133252 0.734305
0.264514 -0.1327 0.734226
0.265934 -0.132088 0.734469
0.267385 -0.131444 0.734873
0.268828 -0.130809 0.735227
0.270335 -0.130107 0.735924
0.271801 -0.129451 0.736381
0.273249 -0.128813 0.736733
0.274661 -0.128215 0.73688
0.276087 -0.127602 0.737094
0.277506 -0.126998 0.73727
0.278995 -0.126323 0.7378
0.280523 -0.125611 0.738518
0.282067 -0.124885 0.739305
0.283582 -0.124189 0.739928
0.285044 -0.123546 0.740275
0.190513 -0.151991 0.816793
0.191916 -0.151509 0.815962
0.193286 -0.151084 0.814762
0.194627 -0.15071 0.813249
0.195897 -0.15045 0.810989
0.197198 -0.150131 0.809138
0.198507 -0.149789 0.80744
0.199848 -0.14939 0.806132
0.201168 -0.149019 0.804648
0.202501 -0.148625 0.803326
0.20381 -0.148263 0.801805
0.205149 -0.147848 0.800626
0.206342 -0.147661 0.798026
0.20755 -0.147441 0.795645
0.208631 -0.14741 0.792101
0.209723 -0.147351 0.788762
0.210591 -0.147619 0.783415
0.213744 -0.147516 0.773185
0.215004 -0.147157 0.771811
0.216408 -0.146588 0.771724
0.217868 -0.145941 0.772115
0.219339 -0.145279 0.772585
0.220855 -0.144556 0.77342
0.222397 -0.143802 0.774434
0.223954 -0.143031 0.775543
0.225564 -0.142192 0.777043
0.227235 -0.141275 0.778994
0.228913 -0.140355 0.780944
0.230574 -0.139464 0.782709
0.232219 -0.1386 0.784299
0.233763 -0.137873 0.785079
0.235204 -0.137279 0.785072
0.236633 -0.136702 0.78497
0.238064 -0.136123 0.784878
0.239496 -0.135543 0.784791
0.240915 -0.134979 0.784607
0.242318 -0.134434 0.784316
0.243746 -0.133861 0.784195
0.245203 -0.13325 0.784278
0.246669 -0.132631 0.78441
0.247107 -0.133249 0.777582
0.247413 -0.134008 0.770012
0.247577 -0.134916 0.761664
0.247765 -0.135778 0.753634
0.247988 -0.136579 0.746001
0.249242 -0.136163 0.745134
0.250497 -0.135746 0.744288
0.251724 -0.135358 0.743281
0.252849 -0.135084 0.741651
0.254002 -0.134776 0.740226
0.25513 -0.134492 0.738674
0.256258 -0.134206 0.737149
0.257417 -0.133882 0.735832
0.258633 -0.133493 0.734877
0.259888 -0.133059 0.734159
0.261209 -0.132552 0.733844
0.262538 -0.132036 0.73357
0.263886 -0.131499 0.733414
0.265318 -0.13087 0.733732
0.266772 -0.130222 0.734159
0.268245 -0.129553 0.734683
0.269799 -0.128801 0.73564
0.271314 -0.128091 0.73637
0.2728 -0.127413 0.736924
0.274248 -0.126778 0.737255
0.275675 -0.126164 0.737472
0.277092 -0.125562 0.737627
0.278563 -0.124907 0.738054
0.280087 -0.124196 0.738753
0.281615 -0.123484 0.739457
0.283128 -0.122788 0.740071
0.284574 -0.122161 0.740331
0.188443 -0.151194 0.816487
0.189876 -0.150663 0.815992
0.191273 -0.150194 0.815086
0.192648 -0.149763 0.813943
0.194006 -0.149358 0.812632
0.195289 -0.149081 0.810506
0.196611 -0.148729 0.808886
0.197947 -0.148346 0.807466
0.199306 -0.147918 0.806349
0.200638 -0.147532 0.804968
0.201981 -0.147124 0.803738
0.20331 -0.146736 0.802396
0.204648 -0.146327 0.801187
0.205673 -0.146418 0.796867
0.206676 -0.146526 0.792466
0.211355 -0.147363 0.769165
0.212498 -0.147177 0.766766
0.213806 -0.146742 0.765885
0.215253 -0.146102 0.766252
0.216711 -0.145448 0.766698
0.2182 -0.144752 0.767388
0.219729 -0.144001 0.768399
0.221271 -0.143237 0.769482
0.222836 -0.142442 0.770727
0.224469 -0.141561 0.77248
0.226204 -0.140546 0.775
0.227951 -0.139522 0.777551
0.229703 -0.138502 0.780063
0.231436 -0.137514 0.782369
0.233073 -0.136658 0.783885
0.234549 -0.136017 0.784153
0.236014 -0.135394 0.784319
0.237458 -0.134797 0.784324
0.238903 -0.1342 0.784337
0.240322 -0.133636 0.784155
0.241738 -0.133077 0.783948
0.24319 -0.132473 0.783997
0.244676 -0.131826 0.78428
0.246172 -0.131169 0.784619
0.246594 -0.131823 0.777646
0.246862 -0.132644 0.769792
0.246985 -0.133622 0.761128
0.247132 -0.13455 0.752804
0.247332 -0.135396 0.744993
0.248624 -0.134935 0.744376
0.249908 -0.134484 0.743717
0.251166 -0.134062 0.742901
0.252306 -0.133774 0.741366
0.253448 -0.133482 0.739865
0.254563 -0.133217 0.738222
0.25569 -0.132935 0.736684
0.256836 -0.132628 0.735288
0.258054 -0.132237 0.734342
0.25931 -0.131804 0.733631
0.26063 -0.131297 0.733312
0.261959 -0.130781 0.733041
0.26331 -0.130241 0.732898
0.26473 -0.129626 0.73315
0.266194 -0.128964 0.733639
0.267681 -0.128278 0.734246
0.269238 -0.127521 0.735218
0.2708 -0.126758 0.73621
0.272348 -0.126015 0.737098
0.27383 -0.125343 0.737612
0.275261 -0.124726 0.737841
0.276691 -0.12411 0.738057
0.278128 -0.123486 0.738312
0.279636 -0.122793 0.738919
0.281152 -0.122092 0.739554
0.282664 -0.121397 0.74016
0.28411 -0.12077 0.740417
0.18923 -0.149351 0.815089
0.190619 -0.1489 0.814079
0.192 -0.148459 0.81301
0.193375 -0.148026 0.811897
0.194678 -0.147716 0.810001
0.196021 -0.147331 0.808598
0.197375 -0.146919 0.807379
0.198753 -0.146462 0.806451
0.200101 -0.146054 0.805224
0.20146 -0.145623 0.804142
0.202796 -0.145229 0.802849
0.20396 -0.145109 0.799843
0.209226 -0.14747 0.775663
0.207094 -0.146935 0.773965
0.20798 -0.147176 0.768936
0.210265 -0.147461 0.772129
0.209182 -0.146912 0.767008
0.210375 -0.146656 0.765048
0.21159 -0.146359 0.76334
0.212948 -0.145847 0.762947
0.214329 -0.145298 0.762772
0.215699 -0.144766 0.762496
0.217147 -0.14412 0.762895
0.218642 -0.14341 0.763671
0.220173 -0.142651 0.764722
0.221738 -0.141848 0.766029
0.223392 -0.140925 0.76802
0.225161 -0.139851 0.770877
0.226952 -0.138756 0.773831
0.228769 -0.137634 0.776914
0.230583 -0.136527 0.779892
0.232295 -0.135565 0.782014
0.233843 -0.134827 0.782834
0.235356 -0.134136 0.783382
0.236836 -0.133493 0.783656
0.238293 -0.13288 0.783754
0.239723 -0.132301 0.783655
0.241139 -0.131742 0.783449
0.242605 -0.131119 0.783599
0.244106 -0.130452 0.783988
0.245631 -0.129758 0.784527
0.24604 -0.130445 0.777431
0.246287 -0.13131 0.769404
0.246372 -0.132354 0.760452
0.246491 -0.133334 0.751913
0.246657 -0.134236 0.743856
0.247975 -0.133746 0.743413
0.249286 -0.133263 0.742931
0.250583 -0.132795 0.742366
0.25174 -0.132492 0.740926
0.252881 -0.132203 0.739418
0.253993 -0.131944 0.737755
0.255118 -0.131668 0.736199
0.256254 -0.131375 0.734739
0.257488 -0.130967 0.733888
0.258761 -0.130517 0.733274
0.260084 -0.130007 0.732969
0.261415 -0.129489 0.732708
0.262764 -0.128951 0.732554
0.264183 -0.128336 0.732801
0.265647 -0.127673 0.73329
0.267149 -0.12697 0.733981
0.268703 -0.126212 0.734946
0.27028 -0.125432 0.736018
0.271829 -0.124685 0.736913
0.273328 -0.123994 0.737515
0.274774 -0.123358 0.737832
0.276223 -0.122724 0.738141
0.277677 -0.122082 0.738479
0.279204 -0.121368 0.73918
0.280734 -0.12065 0.739893
0.282252 -0.119949 0.740518
0.283714 -0.119305 0.740856
0.188581 -0.148052 0.814119
0.18996 -0.147619 0.812997
0.191343 -0.147175 0.81196
0.192735 -0.146711 0.811057
0.19406 -0.146365 0.809407
0.195421 -0.14595 0.808204
0.196794 -0.145507 0.807186
0.198184 -0.145034 0.806373
0.19954 -0.144613 0.805229
0.200923 -0.144143 0.804396
0.202267 -0.143738 0.803174
0.206264 -0.146588 0.779688
0.204908 -0.146498 0.771686
0.205881 -0.146617 0.767432
0.20694 -0.146584 0.764122
0.208285 -0.146095 0.763583
0.209608 -0.145636 0.762864
0.210925 -0.145186 0.762098
0.212242 -0.144733 0.761354
0.213598 -0.144221 0.760969
0.214925 -0.14375 0.760336
0.216339 -0.14315 0.760461
0.21778 -0.142513 0.76081
0.219255 -0.141828 0.761434
0.220765 -0.141096 0.762325
0.222375 -0.140224 0.764012
0.224111 -0.139184 0.766661
0.225908 -0.138068 0.769722
0.227754 -0.136893 0.773093
0.229629 -0.135689 0.776601
0.231436 -0.134589 0.779499
0.23307 -0.133729 0.781009
0.23466 -0.132933 0.782147
0.2362 -0.132208 0.782882
0.23768 -0.131563 0.783156
0.239123 -0.130968 0.783145
0.240539 -0.130408 0.782945
0.242007 -0.129783 0.783106
0.243521 -0.129097 0.783591
0.245074 -0.128367 0.784323
0.245731 -0.128759 0.778903
0.245983 -0.129639 0.77085
0.246145 -0.131757 0.75298
0.246258 -0.132745 0.744526
0.247325 -0.13256 0.74244
0.248652 -0.132057 0.742066
0.249951 -0.131587 0.741519
0.251132 -0.131258 0.74023
0.252284 -0.130958 0.738789
0.253398 -0.130701 0.737131
0.254537 -0.130411 0.735657
0.255687 -0.130105 0.734278
0.256936 -0.129682 0.733514
0.258225 -0.129213 0.732999
0.259565 -0.128685 0.732789
0.260908 -0.128154 0.732597
0.262258 -0.127616 0.732443
0.263675 -0.127001 0.732678
0.265125 -0.126353 0.733084
0.266625 -0.125651 0.733767
0.268165 -0.124906 0.734655
0.269754 -0.124111 0.735794
0.271301 -0.123363 0.736678
0.272816 -0.122654 0.737372
0.274281 -0.121998 0.737784
0.275749 -0.121341 0.738194
0.277222 -0.120681 0.738625
0.278766 -0.119945 0.739423
0.280317 -0.119206 0.740235
0.281838 -0.118499 0.740878
0.189292 -0.146358 0.811801
0.190684 -0.145897 0.810883
0.192078 -0.14543 0.810003
0.193419 -0.145059 0.808531
0.194794 -0.144619 0.8075
0.19619 -0.144136 0.806743
0.197591 -0.143643 0.806048
0.198973 -0.143181 0.805169
0.200379 -0.142674 0.804572
0.202824 -0.145911 0.770341
0.203925 -0.145836 0.767278
0.205113 -0.145608 0.765157
0.206327 -0.145331 0.763348
0.207657 -0.144864 0.762679
0.208948 -0.144458 0.761657
0.210245 -0.144039 0.760716
0.211533 -0.143631 0.759716
0.212866 -0.143151 0.759143
0.21418 -0.142699 0.758411
0.21558 -0.142116 0.758445
0.217019 -0.141477 0.758801
0.218509 -0.140767 0.75957
0.220026 -0.140019 0.760543
0.221583 -0.139217 0.761819
0.223262 -0.138248 0.764043
0.224998 -0.137206 0.76666
0.22677 -0.136121 0.769496
0.228618 -0.134943 0.772846
0.230489 -0.133743 0.77629
0.232213 -0.132753 0.778525
0.233879 -0.131848 0.780267
0.235494 -0.131018 0.781582
0.237011 -0.130322 0.782135
0.238477 -0.129696 0.782304
0.239905 -0.129119 0.782195
0.241385 -0.128475 0.782452
0.242924 -0.127758 0.783112
0.244244 -0.127322 0.782228
0.244867 -0.127767 0.776568
0.245096 -0.128692 0.768353
0.246067 -0.130707 0.761841
0.24518 -0.129776 0.759329
0.245245 -0.130862 0.750368
0.24561 -0.131555 0.743564
0.246696 -0.13135 0.741602
0.248049 -0.130815 0.741401
0.249362 -0.130329 0.740943
0.250558 -0.129984 0.739747
0.251714 -0.129684 0.738319
0.252829 -0.129427 0.736671
0.253971 -0.129137 0.735209
0.255123 -0.128832 0.733835
0.256386 -0.128395 0.733152
0.257689 -0.12791 0.732718
0.259031 -0.127379 0.732522
0.260376 -0.126847 0.732335
0.261735 -0.126297 0.732239
0.263152 -0.125684 0.732468
0.264589 -0.125048 0.732805
0.266091 -0.124342 0.733496
0.267613 -0.123615 0.734283
0.269184 -0.122836 0.735327
0.270714 -0.122105 0.736126
0.272244 -0.121377 0.736902
0.273743 -0.120684 0.737495
0.275273 -0.119959 0.738243
0.276783 -0.119257 0.738871
0.278376 -0.118469 0.739918
0.279962 -0.117691 0.74091
0.281487 -0.11698 0.741562
0.190062 -0.144551 0.810245
0.191455 -0.144086 0.809361
0.192804 -0.143704 0.807968
0.194183 -0.143257 0.806989
0.195591 -0.142754 0.806357
0.196996 -0.142255 0.805709
0.198391 -0.141773 0.804956
0.201835 -0.145279 0.765785
0.203163 -0.144825 0.765033
0.204384 -0.144544 0.763247
0.205717 -0.144076 0.762593
0.207038 -0.143625 0.761837
0.208327 -0.143222 0.760803
0.209615 -0.142819 0.75978
0.210893 -0.142426 0.758698
0.212215 -0.141963 0.758028
0.213529 -0.141511 0.757303
0.214909 -0.140957 0.757174
0.216336 -0.140334 0.757437
0.217821 -0.139627 0.758183
0.219332 -0.138883 0.759124
0.220885 -0.138082 0.760384
0.222496 -0.137203 0.762079
0.224154 -0.136263 0.764105
0.225843 -0.135286 0.766316
0.227632 -0.134176 0.769261
0.229466 -0.133014 0.77247
0.231272 -0.131901 0.775383
0.233024 -0.130869 0.777818
0.234738 -0.129899 0.779901
0.236329 -0.129101 0.781019
0.237844 -0.128407 0.781559
0.239298 -0.127796 0.781634
0.240777 -0.127152 0.78189
0.242303 -0.12645 0.782459
0.243345 -0.126374 0.779638
0.243923 -0.126887 0.773665
0.244129 -0.127855 0.76529
0.244254 -0.128906 0.756535
0.244323 -0.130003 0.747591
0.244974 -0.130351 0.742684
0.24608 -0.130126 0.740846
0.247448 -0.129572 0.740744
0.248775 -0.12907 0.740375
0.249984 -0.128711 0.739258
0.251155 -0.128395 0.737926
0.252289 -0.12812 0.736384
0.253448 -0.127812 0.735025
0.2546 -0.127508 0.733648
0.255888 -0.127044 0.733108
0.257179 -0.126575 0.732599
0.258523 -0.126044 0.732404
0.259868 -0.125511 0.73222
0.261241 -0.124945 0.732201
0.262634 -0.124358 0.732288
0.26407 -0.123724 0.732619
0.265556 -0.123033 0.733223
0.267048 -0.122338 0.733844
0.268602 -0.121576 0.734795
0.27013 -0.120845 0.735586
0.271675 -0.120097 0.736448
0.273221 -0.119351 0.737302
0.274818 -0.118551 0.738407
0.276382 -0.11779 0.739314
0.27801 -0.116963 0.740546
0.279613 -0.116165 0.741617
0.28112 -0.115471 0.742176
0.192184 -0.142357 0.807355
0.193571 -0.141899 0.806448
0.194984 -0.141388 0.805873
0.19639 -0.140887 0.805241
0.199675 -0.144855 0.763506
0.201045 -0.144328 0.7632
0.202419 -0.143793 0.762937
0.203769 -0.143297 0.762447
0.205086 -0.142856 0.761635
0.206405 -0.142408 0.760866
0.207693 -0.142009 0.759821
0.208979 -0.141608 0.758794
0.210265 -0.141204 0.757783
0.211588 -0.140741 0.757126
0.212912 -0.140275 0.756488
0.214283 -0.139734 0.756284
0.215697 -0.139128 0.75645
0.217168 -0.138439 0.757083
0.218666 -0.137711 0.757929
0.220198 -0.136936 0.759033
0.221763 -0.136118 0.760372
0.22338 -0.135229 0.762093
0.225 -0.134344 0.763781
0.22673 -0.133307 0.766299
0.228519 -0.132196 0.769204
0.230362 -0.131019 0.772454
0.232163 -0.12991 0.7753
0.233963 -0.128812 0.778066
0.235632 -0.127904 0.779785
0.23721 -0.127121 0.780796
0.238689 -0.126475 0.781065
0.240169 -0.12583 0.781322
0.241668 -0.125161 0.781709
0.242656 -0.125161 0.7785
0.243194 -0.125737 0.772242
0.243348 -0.126793 0.763477
0.243487 -0.127843 0.7548
0.243623 -0.128873 0.746287
0.24433 -0.129161 0.74174
0.245446 -0.128925 0.739972
0.246827 -0.128355 0.739957
0.248168 -0.127836 0.739677
0.249404 -0.127445 0.738737
0.250603 -0.127097 0.737577
0.251765 -0.126793 0.7362
0.252939 -0.126469 0.734929
0.254106 -0.126152 0.733631
0.255394 -0.125687 0.733094
0.256685 -0.125219 0.732575
0.258029 -0.124688 0.73238
0.259375 -0.124155 0.732198
0.260751 -0.123587 0.732189
0.262144 -0.123 0.732275
0.263568 -0.122377 0.732534
0.265036 -0.121706 0.733035
0.266511 -0.121029 0.733559
0.268048 -0.120284 0.734419
0.269576 -0.119551 0.73521
0.271151 -0.118767 0.736242
0.272747 -0.117964 0.737366
0.274399 -0.117101 0.738769
0.276031 -0.116264 0.740038
0.277698 -0.115392 0.741463
0.279316 -0.114578 0.742603
0.280821 -0.113886 0.743143
0.199159 -0.143436 0.763716
0.200525 -0.142918 0.763355
0.201883 -0.142411 0.762928
0.203207 -0.141961 0.762162
0.204514 -0.141538 0.761256
0.205823 -0.141109 0.760386
0.207094 -0.140739 0.759177
0.208373 -0.140353 0.758069
0.209668 -0.139938 0.757138
0.210991 -0.139473 0.756491
0.212315 -0.139007 0.755858
0.213687 -0.138466 0.755657
0.215099 -0.137861 0.755811
0.216548 -0.137202 0.75627
0.218034 -0.136489 0.757024
0.219556 -0.135728 0.758045
0.221099 -0.134937 0.759219
0.22268 -0.134096 0.760663
0.224257 -0.133264 0.76204
0.22592 -0.132317 0.764047
0.227651 -0.131278 0.766537
0.229471 -0.130122 0.769651
0.23129 -0.128976 0.772678
0.233139 -0.1278 0.775852
0.234883 -0.12678 0.778161
0.236527 -0.125904 0.779674
0.238057 -0.125187 0.780319
0.239548 -0.124525 0.780665
0.241042 -0.12386 0.781024
0.242001 -0.123907 0.777594
0.242531 -0.124507 0.77126
0.242695 -0.125568 0.762542
0.242864 -0.126599 0.754037
0.243043 -0.127592 0.745787
0.243803 -0.127823 0.741574
0.24494 -0.127564 0.739935
0.24631 -0.12701 0.739841
0.247639 -0.126505 0.739487
0.248877 -0.126115 0.738549
0.25009 -0.125752 0.73747
0.251267 -0.125431 0.736188
0.252471 -0.125075 0.73509
0.253655 -0.124739 0.733888
0.254945 -0.124275 0.733349
0.256221 -0.123826 0.732737
0.257553 -0.123311 0.732461
0.258872 -0.122809 0.732116
0.260249 -0.12224 0.732111
0.261628 -0.121669 0.732113
0.263036 -0.121065 0.732278
0.264487 -0.120412 0.732683
0.265972 -0.119722 0.733266
