ply
format ascii 1.0
element vertex 1687
property float x
property float y
property float z
end_header
-0.0671106 0.0969275 0.832991
-0.0655601 0.0972437 0.833388
-0.0639967 0.0975412 0.833569
-0.0624321 0.097838 0.833721
-0.0608678 0.0981346 0.833883
-0.0593045 0.0984329 0.834062
-0.0577414 0.0987311 0.834251
-0.056191 0.0990525 0.834707
-0.0546536 0.0993985 0.835469
-0.0531517 0.0998158 0.837084
-0.0516621 0.100268 0.839108
-0.050205 0.1008 0.84208
-0.0487783 0.101419 0.846073
-0.0473381 0.102038 0.850041
-0.0458691 0.102621 0.853555
-0.0443828 0.10319 0.856877
-0.0428671 0.103711 0.859617
-0.0413246 0.104183 0.86175
-0.177273 0.0822063 0.870901
-0.175504 0.0824723 0.87034
-0.173689 0.0827198 0.869478
-0.171838 0.0829522 0.868375
-0.16999 0.0831827 0.867266
-0.168153 0.0834148 0.866201
-0.16644 0.0836948 0.865892
-0.164787 0.0839991 0.865958
-0.16316 0.0843131 0.86619
-0.161579 0.084647 0.866722
-0.160041 0.0850005 0.867548
-0.158473 0.0853429 0.868193
-0.156956 0.0857083 0.869191
-0.155438 0.0860741 0.870199
-0.153902 0.0864344 0.8711
-0.152341 0.0867845 0.871843
-0.150774 0.0871336 0.872564
-0.149176 0.0874667 0.87307
-0.147625 0.0878262 0.873923
-0.146074 0.088186 0.874796
-0.144514 0.0885428 0.875619
-0.142938 0.0888942 0.876344
-0.141355 0.0892407 0.877019
-0.126795 0.0896411 0.852927
-0.12506 0.0898691 0.852009
-0.123319 0.0900904 0.851011
-0.121548 0.0902901 0.849717
-0.119671 0.0904172 0.847433
-0.1178 0.0905415 0.845126
-0.115955 0.0906765 0.84299
-0.114153 0.0908344 0.841175
-0.112357 0.0909899 0.839355
-0.110653 0.0912041 0.838357
-0.108985 0.0914418 0.837676
-0.107342 0.0916952 0.83721
-0.105674 0.0919272 0.836472
-0.104033 0.0921784 0.835985
-0.102395 0.0924282 0.835502
-0.100725 0.0926513 0.834655
-0.0991035 0.0929103 0.834294
-0.0974927 0.0931768 0.834035
-0.0958775 0.0934378 0.833708
-0.0942543 0.09369 0.833272
-0.0926722 0.0939763 0.833295
-0.0910604 0.0942359 0.832955
-0.089468 0.0945114 0.832833
-0.0878765 0.094786 0.832708
-0.0862764 0.0950522 0.83246
-0.0846747 0.0953142 0.832177
-0.0830755 0.0955771 0.831905
-0.0814866 0.0958493 0.831752
-0.0798929 0.0961148 0.831521
-0.0783131 0.0963941 0.831465
-0.0767326 0.096672 0.831388
-0.0751543 0.0969511 0.831332
-0.073579 0.0972329 0.83131
-0.0720178 0.0975315 0.831498
-0.0704691 0.097847 0.831889
-0.0689259 0.0981705 0.832379
-0.0673763 0.0984864 0.832785
-0.065825 0.0988018 0.833168
-0.0642601 0.0990977 0.833326
-0.0626945 0.0993929 0.833465
-0.0611246 0.0996811 0.833521
-0.0595667 0.0999878 0.833806
-0.0580087 0.100296 0.834101
-0.0564639 0.100628 0.834677
-0.0549313 0.100984 0.83555
-0.0534375 0.10142 0.83736
-0.0519481 0.101876 0.839398
-0.0504867 0.102405 0.842273
-0.0490515 0.103012 0.846039
-0.0476034 0.103617 0.849787
-0.0461205 0.104171 0.852883
-0.0446281 0.104726 0.855988
-0.0431104 0.105241 0.858612
-0.0415729 0.105726 0.860862
-0.0399927 0.105294 0.871373
-0.0400179 0.10618 0.862741
-0.179095 0.0834863 0.869809
-0.17738 0.0837732 0.869574
-0.175621 0.0840421 0.869062
-0.173773 0.0842738 0.867991
-0.17192 0.0845013 0.866869
-0.170058 0.0847241 0.865665
-0.168205 0.0849463 0.864484
-0.166477 0.0852187 0.86407
-0.164825 0.0855212 0.864124
-0.163183 0.0858274 0.864246
-0.161588 0.086154 0.864666
-0.16005 0.0865068 0.865474
-0.158483 0.0868479 0.866099
-0.156969 0.0872143 0.867094
-0.15547 0.087589 0.868211
-0.153967 0.0879636 0.869325
-0.15244 0.0883295 0.870288
-0.150922 0.088701 0.871337
-0.149361 0.0890524 0.872096
-0.147831 0.0894227 0.873097
-0.146296 0.0897908 0.874079
-0.144734 0.0901477 0.874882
-0.143143 0.0904905 0.875488
-0.141543 0.0908285 0.876024
-0.12542 0.0915177 0.852476
-0.123675 0.0917359 0.851461
-0.121875 0.0919162 0.849924
-0.119983 0.0920309 0.847523
-0.118101 0.0921447 0.845129
-0.116256 0.0922768 0.842999
-0.114443 0.0924237 0.841096
-0.112654 0.0925823 0.839357
-0.110949 0.0927954 0.838359
-0.10928 0.0930317 0.837675
-0.107627 0.0932767 0.837115
-0.105956 0.0935055 0.836355
-0.104305 0.0937479 0.835765
-0.102656 0.0939882 0.835173
-0.100985 0.0942089 0.834323
-0.0993539 0.0944596 0.833859
-0.0977416 0.0947238 0.833583
-0.0961171 0.0949755 0.833153
-0.0944849 0.0952183 0.832613
-0.0928949 0.0954976 0.832535
-0.0912828 0.0957544 0.832187
-0.0896908 0.0960289 0.832061
-0.0881077 0.0963116 0.832032
-0.0865169 0.096585 0.831897
-0.0849251 0.0968568 0.831735
-0.0833332 0.0971269 0.83156
-0.0817447 0.0973988 0.831415
-0.0801521 0.097665 0.831197
-0.0785734 0.0979457 0.831159
-0.0769947 0.0982245 0.831111
-0.0754174 0.098505 0.831072
-0.0738484 0.0987946 0.831149
-0.0722929 0.0991011 0.83143
-0.0707431 0.0994153 0.83181
-0.0692046 0.0997465 0.832382
-0.0676537 0.100062 0.832772
-0.0660958 0.100369 0.833052
-0.0645247 0.100656 0.833104
-0.0629583 0.10095 0.833232
-0.0613828 0.101229 0.833188
-0.0598301 0.101545 0.833573
-0.0582777 0.101863 0.83398
-0.0567381 0.102205 0.834675
-0.0552107 0.102574 0.835666
-0.0537216 0.103022 0.837589
-0.0522318 0.103482 0.839625
-0.0507698 0.104014 0.842488
-0.0493268 0.104609 0.846058
-0.0478743 0.10521 0.849675
-0.046387 0.105757 0.852641
-0.0448914 0.106307 0.855635
-0.0433714 0.106819 0.858163
-0.0418379 0.107315 0.860515
-0.0402838 0.107773 0.862407
-0.179085 0.0850088 0.867805
-0.177403 0.0853047 0.867748
-0.175667 0.0855798 0.867359
-0.173818 0.0858091 0.866277
-0.171954 0.0860295 0.865075
-0.170112 0.0862557 0.863978
-0.168279 0.0864827 0.862912
-0.166537 0.0867465 0.862394
-0.164869 0.0870411 0.862337
-0.163228 0.0873466 0.862446
-0.161618 0.0876657 0.862754
-0.160066 0.0880114 0.86345
-0.158485 0.088344 0.863962
-0.156969 0.0887084 0.864923
-0.155471 0.0890834 0.866028
-0.153986 0.0894666 0.867239
-0.15248 0.0898412 0.868326
-0.151012 0.0902378 0.869708
-0.14949 0.0906088 0.870727
-0.147992 0.0909937 0.871946
-0.146477 0.0913746 0.873065
-0.144922 0.0917337 0.873908
-0.143321 0.0920715 0.874424
-0.127542 0.092959 0.85405
-0.125807 0.0931862 0.853166
-0.124061 0.0934037 0.852162
-0.122253 0.0935767 0.850571
-0.120356 0.0936859 0.848144
-0.118468 0.0937942 0.845726
-0.11661 0.0939145 0.843501
-0.114785 0.0940517 0.841501
-0.112994 0.0942065 0.839757
-0.111277 0.0944104 0.83866
-0.109588 0.0946308 0.837794
-0.107923 0.094867 0.837131
-0.106249 0.095093 0.836347
-0.104586 0.0953254 0.835649
-0.102927 0.0955564 0.834952
-0.101255 0.095776 0.834096
-0.0996126 0.0960157 0.833515
-0.0979817 0.0962624 0.833037
-0.0963467 0.0965042 0.832486
-0.094706 0.096738 0.831845
-0.0931075 0.0970077 0.831663
-0.091495 0.0972631 0.831298
-0.0899029 0.0975361 0.83116
-0.0883208 0.0978173 0.831135
-0.0867393 0.0980996 0.831107
-0.0851574 0.09838 0.831064
-0.0835758 0.0986598 0.831019
-0.0819962 0.098941 0.830986
-0.0804177 0.0992222 0.830964
-0.0788466 0.0995118 0.831035
-0.0772756 0.0998008 0.831103
-0.0757052 0.100089 0.831175
-0.0741417 0.100387 0.831345
-0.0725845 0.100693 0.831614
-0.0710331 0.101007 0.83198
-0.0694938 0.101338 0.832553
-0.0679367 0.101647 0.832852
-0.0663731 0.101946 0.833043
-0.0647955 0.102225 0.83299
-0.0632233 0.10251 0.833019
-0.0616476 0.102789 0.832977
-0.0600998 0.103114 0.83346
-0.0585526 0.103442 0.833979
-0.0570228 0.103803 0.834886
-0.0555084 0.104199 0.836175
-0.0540236 0.10466 0.838211
-0.0525373 0.105133 0.840351
-0.0510786 0.105679 0.84332
-0.0496265 0.106262 0.846681
-0.0481619 0.106843 0.849996
-0.0466658 0.107373 0.852731
-0.0451662 0.107918 0.855607
-0.0436401 0.108416 0.857949
-0.0421072 0.108917 0.860305
-0.0405503 0.109369 0.862094
-0.180816 0.0862519 0.866222
-0.179118 0.0865414 0.86606
-0.177431 0.0868343 0.865954
-0.175684 0.0871025 0.865487
-0.173823 0.0873231 0.864322
-0.171985 0.08755 0.863266
-0.170183 0.0877902 0.862405
-0.168388 0.0880305 0.861564
-0.166663 0.0883001 0.861144
-0.164998 0.0885938 0.861094
-0.163355 0.0888972 0.861183
-0.161731 0.0892093 0.861389
-0.160148 0.08954 0.861867
-0.158551 0.0898654 0.862262
-0.157006 0.0902155 0.863008
-0.155493 0.0905829 0.86399
-0.153996 0.0909593 0.865097
-0.152509 0.0913435 0.866297
-0.151078 0.0917579 0.86791
-0.149604 0.0921541 0.869262
-0.148143 0.0925593 0.870728
-0.146658 0.0929555 0.872052
-0.145107 0.0933172 0.872914
-0.143504 0.0936529 0.87341
-0.127929 0.0946309 0.854718
-0.126196 0.0948584 0.853866
-0.124439 0.0950687 0.852786
-0.122623 0.0952354 0.851145
-0.12072 0.0953387 0.848692
-0.118828 0.0954406 0.846255
-0.116958 0.0955503 0.843933
-0.115119 0.0956761 0.841825
-0.113325 0.0958265 0.840068
-0.111594 0.0960194 0.838851
-0.109884 0.0962234 0.837792
-0.108217 0.0964567 0.837119
-0.106551 0.0966884 0.836425
-0.104878 0.096912 0.83563
-0.103208 0.097134 0.834835
-0.101535 0.09735 0.833966
-0.0998722 0.0975719 0.833181
-0.0982312 0.0978098 0.832593
-0.0965862 0.0980411 0.831932
-0.0949361 0.0982638 0.831184
-0.0933281 0.0985236 0.830887
-0.0917161 0.098778 0.830522
-0.0901166 0.0990426 0.830287
-0.0885433 0.0993316 0.830358
-0.086971 0.099622 0.830436
-0.0853983 0.0999109 0.830507
-0.0838258 0.1002 0.830575
-0.0822539 0.10049 0.830645
-0.0806827 0.100779 0.830723
-0.0791185 0.101076 0.830893
-0.0775543 0.101374 0.831064
-0.0759901 0.101671 0.831234
-0.074426 0.101969 0.831405
-0.0728618 0.102266 0.831576
-0.0713042 0.102573 0.831847
-0.0697591 0.102898 0.832331
-0.0681965 0.103199 0.832542
-0.0666331 0.103499 0.832735
-0.0650659 0.103793 0.832868
-0.0634988 0.104087 0.832996
-0.0619284 0.104376 0.833063
-0.0603902 0.104718 0.833745
-0.0588519 0.105064 0.83446
-0.0573262 0.105437 0.835475
-0.0558206 0.105853 0.836983
-0.0543398 0.106329 0.839136
-0.0528569 0.106816 0.841389
-0.0513974 0.107368 0.844371
-0.0499359 0.107939 0.847537
-0.0484581 0.108496 0.850536
-0.0469564 0.109019 0.853136
-0.0454491 0.109549 0.855805
-0.0439197 0.110043 0.858059
-0.0423834 0.110539 0.860313
-0.0408255 0.11099 0.862077
-0.182365 0.0874236 0.863613
-0.180753 0.0877448 0.863933
-0.179088 0.088045 0.863947
-0.177403 0.0883363 0.863842
-0.175663 0.0886047 0.8634
-0.173843 0.0888391 0.862465
-0.172046 0.08908 0.861645
-0.17027 0.089328 0.860931
-0.168495 0.089575 0.860209
-0.166776 0.0898438 0.859814
-0.165112 0.0901376 0.85976
-0.163455 0.0904336 0.859746
-0.16183 0.0907437 0.859937
-0.160233 0.0910674 0.860315
-0.158622 0.0913848 0.860599
-0.157059 0.0917256 0.861212
-0.155532 0.0920851 0.862073
-0.154037 0.0924628 0.863174
-0.152583 0.0928629 0.864583
-0.151174 0.0932896 0.866333
-0.149733 0.0937029 0.867895
-0.148317 0.094133 0.869675
-0.146863 0.0945465 0.871219
-0.145319 0.0949139 0.872128
-0.14375 0.0952684 0.872862
-0.12833 0.0963138 0.855496
-0.126617 0.0965556 0.854831
-0.124872 0.0967727 0.853868
-0.123041 0.0969291 0.85213
-0.121122 0.0970196 0.849562
-0.119203 0.0971008 0.846906
-0.117306 0.0971894 0.84437
-0.115433 0.0972871 0.841961
-0.113633 0.0974317 0.840168
-0.111899 0.09762 0.838927
-0.110177 0.0978137 0.837763
-0.108499 0.0980383 0.836988
-0.106842 0.0982763 0.836388
-0.105159 0.0984901 0.835506
-0.103481 0.0987048 0.834633
-0.101815 0.0989261 0.833841
-0.100151 0.0991457 0.83305
-0.0985002 0.0993741 0.832361
-0.0968456 0.0995954 0.831599
-0.0951853 0.0998074 0.830741
-0.0935603 0.10005 0.830245
-0.0919403 0.100295 0.829783
-0.0903338 0.100551 0.829459
-0.0887619 0.10084 0.829537
-0.0871977 0.101138 0.829707
-0.0856335 0.101435 0.829878
-0.0840694 0.101733 0.830049
-0.0825052 0.102031 0.830219
-0.0809411 0.102328 0.83039
-0.0793769 0.102626 0.83056
-0.0778127 0.102923 0.830731
-0.0762485 0.103221 0.830901
-0.0746843 0.103518 0.831072
-0.0731201 0.103816 0.831243
-0.0715628 0.104123 0.831517
-0.0700176 0.104448 0.831996
-0.0684554 0.104749 0.832214
-0.0668965 0.105056 0.832486
-0.0653406 0.105369 0.832819
-0.0637796 0.105673 0.833068
-0.0622203 0.105981 0.833357
-0.0606919 0.106344 0.834242
-0.0591628 0.106709 0.835165
-0.0576364 0.107085 0.836197
-0.0561306 0.107507 0.837726
-0.0546449 0.107979 0.839798
-0.0531572 0.10846 0.84197
-0.0516928 0.109009 0.844848
-0.0502272 0.109577 0.847926
-0.0487441 0.110127 0.850797
-0.0472408 0.110651 0.853362
-0.0457323 0.111183 0.856006
-0.0441994 0.111672 0.858165
-0.0426602 0.112163 0.860333
-0.0411045 0.112624 0.862168
-0.0394982 0.112206 0.872109
-0.0395517 0.113114 0.864297
-0.182316 0.0889181 0.861434
-0.180696 0.0892342 0.861691
-0.179054 0.0895417 0.861824
-0.177366 0.0898292 0.861679
-0.175632 0.0900982 0.86126
-0.17387 0.0903521 0.860651
-0.172111 0.0906067 0.860049
-0.170355 0.0908614 0.859454
-0.168618 0.0911233 0.858956
-0.166902 0.0913915 0.858575
-0.165224 0.0916776 0.858422
-0.163568 0.091972 0.858401
-0.161928 0.0922746 0.858483
-0.160316 0.0925902 0.858749
-0.158691 0.0928988 0.858924
-0.157113 0.0932317 0.859421
-0.155585 0.09359 0.860262
-0.154105 0.0939749 0.861446
-0.152658 0.0943787 0.862883
-0.15128 0.094823 0.864835
-0.149859 0.0952472 0.86652
-0.148461 0.095689 0.868417
-0.147028 0.0961146 0.87009
-0.145504 0.0964934 0.871135
-0.14394 0.0968502 0.871908
-0.128667 0.0979576 0.85573
-0.126953 0.0981988 0.855076
-0.125219 0.0984232 0.854219
-0.123388 0.0985778 0.852491
-0.121467 0.0986631 0.84992
-0.119543 0.0987377 0.847246
-0.117641 0.0988202 0.844682
-0.115743 0.0988969 0.84206
-0.11393 0.0990291 0.840151
-0.112182 0.0992061 0.838794
-0.110457 0.0993957 0.837614
-0.10877 0.0996116 0.836753
-0.107123 0.0998568 0.836256
-0.10545 0.100077 0.835476
-0.103772 0.100292 0.834609
-0.102104 0.100511 0.833821
-0.100449 0.100737 0.833128
-0.0987976 0.100964 0.83244
-0.0971257 0.101169 0.8315
-0.0954635 0.101379 0.830622
-0.0938275 0.10161 0.830009
-0.0921984 0.101845 0.829443
-0.0905844 0.102092 0.829033
-0.0890203 0.10239 0.829204
-0.0874561 0.102687 0.829374
-0.0858919 0.102985 0.829545
-0.0843278 0.103282 0.829715
-0.0827636 0.10358 0.829886
-0.0811994 0.103877 0.830057
-0.0796353 0.104175 0.830227
-0.0780711 0.104472 0.830398
-0.0765069 0.10477 0.830568
-0.0749427 0.105068 0.830739
-0.0733785 0.105365 0.830909
-0.071821 0.105672 0.831181
-0.0702693 0.105988 0.831554
-0.0687117 0.106296 0.831842
-0.0671587 0.106612 0.832215
-0.0656105 0.106937 0.832683
-0.0640619 0.107263 0.833162
-0.0625196 0.107601 0.833777
-0.0609961 0.107975 0.834781
-0.0594711 0.108352 0.835808
-0.0579489 0.10874 0.836953
-0.056442 0.109165 0.838486
-0.0549458 0.109621 0.840356
-0.0534556 0.110104 0.842489
-0.0519852 0.110645 0.84525
-0.0505156 0.111209 0.848231
-0.0490249 0.111746 0.850917
-0.0475249 0.112283 0.85357
-0.0460122 0.11281 0.856101
-0.0444792 0.113302 0.858261
-0.0429369 0.113788 0.860335
-0.0413841 0.114261 0.862272
-0.0398313 0.114755 0.864411
-0.183887 0.090092 0.859026
-0.182306 0.0904224 0.85949
-0.180686 0.0907373 0.859732
-0.179058 0.091048 0.859923
-0.177352 0.0913265 0.85966
-0.175626 0.0915957 0.859272
-0.1739 0.0918634 0.858866
-0.172162 0.0921246 0.858383
-0.170428 0.0923863 0.8579
-0.168711 0.0926539 0.857515
-0.16701 0.0929281 0.857222
-0.165316 0.0932048 0.85696
-0.163659 0.0934977 0.856922
-0.162004 0.0937908 0.856896
-0.160379 0.0940993 0.857061
-0.15874 0.0943992 0.857126
-0.157147 0.0947229 0.857507
-0.155605 0.095074 0.858232
-0.154129 0.0954597 0.859422
-0.152686 0.0958659 0.860864
-0.151315 0.0963142 0.86284
-0.149925 0.0967566 0.864726
-0.148557 0.0972152 0.866815
-0.147134 0.0976471 0.868544
-0.145638 0.0980412 0.869773
-0.144116 0.0984232 0.870839
-0.128977 0.0995867 0.855751
-0.127268 0.0998297 0.855133
-0.125538 0.100057 0.854326
-0.123717 0.100216 0.852699
-0.121794 0.100297 0.850126
-0.119877 0.100373 0.847525
-0.117973 0.100451 0.844958
-0.116071 0.100521 0.842328
-0.114246 0.100643 0.84032
-0.112485 0.100808 0.838853
-0.11075 0.100987 0.837575
-0.109052 0.101193 0.836623
-0.107405 0.101439 0.836131
-0.105741 0.101666 0.835453
-0.104072 0.101886 0.834683
-0.102405 0.102106 0.833908
-0.100759 0.10234 0.833321
-0.099108 0.102567 0.832657
-0.0974431 0.102778 0.831805
-0.0957866 0.102994 0.83101
-0.0941485 0.103223 0.830388
-0.0925087 0.103448 0.829715
-0.090884 0.103685 0.829188
-0.0893023 0.103964 0.829156
-0.0877219 0.104245 0.829134
-0.0861503 0.104534 0.829212
-0.0845862 0.104832 0.829382
-0.083022 0.105129 0.829553
-0.0814578 0.105427 0.829724
-0.0798936 0.105724 0.829894
-0.0783295 0.106022 0.830065
-0.0767653 0.106319 0.830235
-0.0752011 0.106617 0.830406
-0.0736369 0.106914 0.830576
-0.0720847 0.107229 0.830932
-0.0705328 0.107545 0.831303
-0.0689809 0.107862 0.831686
-0.0674343 0.108188 0.832171
-0.0658977 0.108533 0.83285
-0.0643567 0.108874 0.833476
-0.0628246 0.109232 0.834298
-0.0613058 0.109618 0.835414
-0.0597852 0.110007 0.836554
-0.0582661 0.110406 0.83779
-0.0567575 0.110833 0.839322
-0.0552494 0.111272 0.840964
-0.0537554 0.111752 0.843034
-0.0522788 0.112285 0.845664
-0.0508012 0.112836 0.848464
-0.0493042 0.113364 0.850989
-0.0478039 0.113904 0.853642
-0.0462913 0.114434 0.856167
-0.0447586 0.114931 0.858344
-0.0432134 0.115412 0.860334
-0.0416614 0.115891 0.862298
-0.0401082 0.116387 0.864425
-0.185515 0.0912865 0.856983
-0.18396 0.0916266 0.857575
-0.182372 0.0919533 0.857983
-0.180748 0.0922649 0.858186
-0.179143 0.0925853 0.858508
-0.177442 0.0928639 0.858264
-0.175721 0.093133 0.857893
-0.174 0.0934011 0.857507
-0.172264 0.0936612 0.857026
-0.170516 0.0939136 0.85645
-0.168799 0.09418 0.856055
-0.167085 0.0944458 0.855664
-0.165375 0.094712 0.855288
-0.163701 0.0949959 0.855134
-0.162031 0.0952799 0.854991
-0.160408 0.0955864 0.855153
-0.158785 0.095893 0.85531
-0.157197 0.0962185 0.855702
-0.15567 0.0965762 0.856513
-0.154211 0.096971 0.857802
-0.152772 0.09738 0.859255
-0.151403 0.0978305 0.861229
-0.150045 0.0982912 0.863315
-0.148682 0.0987538 0.865422
-0.147263 0.0991889 0.867165
-0.145773 0.0995874 0.868428
-0.12924 0.101185 0.855375
-0.127532 0.101426 0.854771
-0.125813 0.10166 0.854054
-0.124003 0.101825 0.852533
-0.122093 0.101911 0.850081
-0.120188 0.101993 0.847598
-0.118295 0.102076 0.84514
-0.116393 0.102143 0.842523
-0.114566 0.102261 0.840517
-0.112793 0.102414 0.838951
-0.111055 0.102591 0.837661
-0.109346 0.102786 0.836607
-0.107689 0.103022 0.836023
-0.106024 0.103249 0.835338
-0.104355 0.103468 0.834576
-0.102688 0.103686 0.833816
-0.101051 0.103929 0.833328
-0.099409 0.104164 0.832767
-0.0977442 0.104374 0.831929
-0.0960968 0.104598 0.831247
-0.0944571 0.104826 0.830621
-0.0928235 0.105057 0.830032
-0.0911883 0.105284 0.829399
-0.0895958 0.105552 0.829246
-0.0880047 0.105821 0.8291
-0.0864235 0.1061 0.829065
-0.0848447 0.106382 0.829049
-0.0832805 0.106679 0.82922
-0.0817164 0.106977 0.82939
-0.0801522 0.107274 0.829561
-0.078588 0.107572 0.829731
-0.0770238 0.10787 0.829902
-0.075466 0.108176 0.830165
-0.0739022 0.108474 0.830344
-0.0723504 0.10879 0.83071
-0.0708046 0.109115 0.831181
-0.0692648 0.109451 0.831767
-0.067725 0.10979 0.832375
-0.0662004 0.110156 0.833275
-0.0646686 0.110515 0.834087
-0.0631351 0.110875 0.834909
-0.0616153 0.111263 0.836028
-0.0600929 0.111653 0.83716
-0.0585732 0.112056 0.838408
-0.057054 0.112466 0.839744
-0.0555392 0.112895 0.841259
-0.054035 0.113357 0.843114
-0.052549 0.113874 0.84552
-0.0510681 0.114421 0.84823
-0.0495752 0.114961 0.850849
-0.0480798 0.115517 0.853614
-0.046571 0.116061 0.856249
-0.0450421 0.116573 0.858534
-0.0434936 0.117047 0.860436
-0.0419442 0.117539 0.862491
-0.0403874 0.118028 0.864509
-0.187086 0.0924573 0.854656
-0.185558 0.0928063 0.855377
-0.184009 0.0931476 0.855983
-0.182404 0.0934654 0.856284
-0.180779 0.0937763 0.856469
-0.17917 0.0940932 0.856753
-0.177473 0.0943721 0.856518
-0.17577 0.0946463 0.856242
-0.174064 0.0949188 0.855937
-0.172313 0.0951695 0.855352
-0.170551 0.0954136 0.854678
-0.168836 0.095678 0.854286
-0.167107 0.0959341 0.853786
-0.165365 0.096183 0.853194
-0.163691 0.0964637 0.853019
-0.162022 0.0967453 0.852861
-0.160403 0.0970525 0.853029
-0.158787 0.0973604 0.853218
-0.157231 0.0977007 0.853804
-0.15571 0.0980607 0.854635
-0.154268 0.0984645 0.856018
-0.152845 0.0988825 0.857564
-0.15148 0.0993355 0.859542
-0.150123 0.0997983 0.86162
-0.148776 0.100272 0.863815
-0.147344 0.1007 0.865448
-0.145856 0.1011 0.866708
-0.129592 0.102843 0.85573
-0.127877 0.103081 0.85508
-0.126123 0.103289 0.854082
-0.124326 0.10346 0.852677
-0.122427 0.103552 0.850337
-0.120524 0.103633 0.847894
-0.118632 0.103713 0.845459
-0.11673 0.103778 0.842859
-0.114881 0.103876 0.840663
-0.113095 0.104017 0.838984
-0.111352 0.104188 0.837663
-0.109631 0.104372 0.836498
-0.107963 0.104598 0.835812
-0.106306 0.10483 0.835215
-0.104636 0.105049 0.834456
-0.10297 0.105267 0.833697
-0.101341 0.105516 0.833313
-0.0997069 0.105759 0.832841
-0.0980508 0.105977 0.83211
-0.0964132 0.10621 0.83155
-0.0947759 0.106441 0.830965
-0.09315 0.10668 0.830483
-0.0915118 0.106904 0.829831
-0.0899002 0.107153 0.829467
-0.088298 0.10741 0.829194
-0.0867058 0.107678 0.829031
-0.0851103 0.10794 0.828809
-0.0835389 0.108229 0.828887
-0.0819747 0.108526 0.829057
-0.0804106 0.108824 0.829228
-0.0788464 0.109121 0.829398
-0.0772822 0.109419 0.829569
-0.0757311 0.109734 0.829933
-0.0741739 0.110042 0.830214
-0.0726294 0.110369 0.830695
-0.0710908 0.110706 0.831287
-0.0695638 0.111065 0.832092
-0.0680295 0.111415 0.832811
-0.0665045 0.111784 0.833719
-0.0649712 0.112143 0.834522
-0.0634407 0.112511 0.835418
-0.0619137 0.112891 0.836424
-0.0603899 0.113281 0.837548
-0.0588695 0.113686 0.8388
-0.0573449 0.11409 0.840042
-0.0558213 0.114504 0.84138
-0.0543073 0.114948 0.843021
-0.0528083 0.115438 0.845124
-0.0513194 0.115969 0.847618
-0.0498308 0.116521 0.850319
-0.0483409 0.117092 0.853197
-0.0468412 0.117663 0.856056
-0.0453234 0.118209 0.858655
-0.0437816 0.118708 0.860765
-0.0422308 0.1192 0.862798
-0.0406697 0.119679 0.864685
-0.188661 0.0936266 0.852392
-0.187113 0.0939662 0.852977
-0.185576 0.0943111 0.853634
-0.184018 0.0946471 0.854175
-0.182406 0.0949616 0.854421
-0.180767 0.0952643 0.854514
-0.179162 0.095581 0.8548
-0.177466 0.0958585 0.854559
-0.175764 0.0961314 0.854274
-0.174059 0.0964011 0.853956
-0.172308 0.096649 0.853358
-0.170562 0.0968976 0.852771
-0.168866 0.0971686 0.852471
-0.16714 0.0974241 0.85198
-0.165401 0.0976708 0.85139
-0.163725 0.0979478 0.851192
-0.162042 0.098221 0.850931
-0.160412 0.09852 0.85101
-0.158802 0.0988302 0.851219
-0.157254 0.0991726 0.851835
-0.155737 0.0995334 0.852673
-0.154298 0.0999384 0.854054
-0.152878 0.100359 0.855599
-0.151529 0.100822 0.857664
-0.150175 0.101287 0.859744
-0.148831 0.101763 0.861935
-0.147379 0.102179 0.863403
-0.145895 0.102581 0.864669
-0.144395 0.102974 0.865841
-0.129962 0.104517 0.856233
-0.128185 0.104709 0.855078
-0.126405 0.104898 0.853872
-0.124633 0.105086 0.852682
-0.122759 0.105194 0.850577
-0.12088 0.10529 0.848352
-0.119007 0.105383 0.846112
-0.1171 0.105442 0.843497
-0.115236 0.105525 0.841178
-0.113425 0.105645 0.839287
-0.111669 0.105803 0.837849
-0.109934 0.105975 0.836565
-0.108254 0.10619 0.835778
-0.106596 0.106421 0.835177
-0.104934 0.106646 0.834505
-0.103258 0.106853 0.833653
-0.101619 0.107093 0.833166
-0.099993 0.107343 0.832787
-0.098346 0.107569 0.832162
-0.0967184 0.107813 0.831723
-0.0950901 0.108053 0.831253
-0.0934806 0.10831 0.830976
-0.0918508 0.108543 0.83044
-0.0902389 0.108794 0.830093
-0.0886179 0.109031 0.829612
-0.0870141 0.109286 0.82932
-0.0853994 0.109526 0.828868
-0.0838115 0.109795 0.82874
-0.0822331 0.110075 0.828724
-0.0806757 0.110381 0.828987
-0.079112 0.11068 0.829166
-0.0775544 0.110987 0.829432
-0.0760165 0.111322 0.829994
-0.0744666 0.111641 0.830392
-0.0729234 0.111972 0.830907
-0.0713959 0.112328 0.831686
-0.0698742 0.112697 0.832594
-0.0683346 0.113042 0.833244
-0.0668086 0.113413 0.834155
-0.065273 0.113771 0.834938
-0.0637351 0.114129 0.835715
-0.0622065 0.114509 0.836707
-0.0606821 0.114902 0.837835
-0.0591612 0.115309 0.839092
-0.057636 0.115715 0.840335
-0.0561114 0.11613 0.841669
-0.054588 0.116558 0.843114
-0.0530801 0.117032 0.845011
-0.051581 0.117541 0.847261
-0.0500889 0.118086 0.849849
-0.0485964 0.118653 0.852641
-0.0471034 0.119243 0.85565
-0.0455947 0.119817 0.858481
-0.0440601 0.12034 0.860798
-0.042509 0.120835 0.862827
-0.0409471 0.121315 0.864695
-0.190295 0.0948195 0.850486
-0.188741 0.0951548 0.851022
-0.187163 0.0954807 0.851429
-0.185599 0.0958132 0.85192
-0.184017 0.0961388 0.852318
-0.182378 0.0964394 0.852397
-0.180742 0.096741 0.852487
-0.179139 0.0970578 0.85277
-0.177446 0.0973338 0.85253
-0.175747 0.0976052 0.852244
-0.174044 0.0978744 0.851925
-0.172296 0.0981202 0.851329
-0.170553 0.0983676 0.850745
-0.168861 0.098637 0.850454
-0.167139 0.0988917 0.849973
-0.165404 0.0991373 0.84939
-0.163733 0.0994148 0.849203
-0.162066 0.0996932 0.849032
-0.16044 0.0999925 0.84912
-0.158848 0.10031 0.849426
-0.157303 0.100654 0.850044
-0.155787 0.101014 0.850876
-0.154351 0.101421 0.85226
-0.152948 0.101851 0.853896
-0.151589 0.10231 0.855875
-0.150253 0.102786 0.858053
-0.148909 0.103264 0.860228
-0.147459 0.103682 0.861691
-0.145971 0.104079 0.862903
-0.132082 0.105977 0.857605
-0.130352 0.106207 0.856889
-0.128532 0.106369 0.855404
-0.126729 0.106538 0.854011
-0.124969 0.106734 0.852939
-0.123107 0.106849 0.850949
-0.121237 0.10695 0.848828
-0.119371 0.107047 0.84667
-0.11746 0.107099 0.84403
-0.11558 0.107168 0.841592
-0.113754 0.107273 0.839574
-0.111973 0.107409 0.837913
-0.110226 0.107569 0.836529
-0.108546 0.107783 0.835745
-0.106879 0.108005 0.835059
-0.105226 0.108237 0.834478
-0.103557 0.108451 0.833713
-0.101917 0.108689 0.833222
-0.10029 0.108939 0.83285
-0.0986596 0.109182 0.832412
-0.0970401 0.109433 0.832076
-0.0954203 0.109683 0.831717
-0.0938266 0.109959 0.831639
-0.0922132 0.110211 0.831317
-0.0906023 0.110465 0.831008
-0.0889803 0.110703 0.830544
-0.0873722 0.110955 0.830225
-0.0857305 0.111164 0.829458
-0.0841165 0.111403 0.829012
-0.0825345 0.111679 0.828963
-0.0809767 0.111987 0.829233
-0.0794136 0.112287 0.829434
-0.0778632 0.112606 0.829817
-0.0763376 0.11296 0.830573
-0.0747872 0.113282 0.830985
-0.0732368 0.113605 0.831412
-0.0717085 0.113963 0.832198
-0.0701844 0.114332 0.833085
-0.0686367 0.114667 0.833621
-0.0671043 0.115029 0.83444
-0.0655674 0.115388 0.835216
-0.0640234 0.115738 0.8359
-0.0624945 0.11612 0.836896
-0.0609707 0.116517 0.838044
-0.059449 0.116925 0.839298
-0.0579187 0.117324 0.84045
-0.0563881 0.11773 0.841664
-0.0548545 0.118137 0.842889
-0.0533411 0.1186 0.844651
-0.0518332 0.11909 0.846674
-0.0503413 0.119637 0.849245
-0.048854 0.120218 0.852138
-0.0473705 0.120837 0.85538
-0.0458677 0.12143 0.858355
-0.044341 0.121981 0.860903
-0.0427908 0.122482 0.862959
-0.0414671 0.123779 0.872657
-0.192116 0.0960878 0.849609
-0.190486 0.096391 0.849724
-0.188853 0.0966932 0.849828
-0.18723 0.096999 0.849978
-0.185622 0.097312 0.850218
-0.183999 0.097618 0.850369
-0.182326 0.0979015 0.850239
-0.180672 0.0981932 0.850214
-0.179069 0.0985079 0.850478
-0.177381 0.0987829 0.850246
-0.175689 0.0990551 0.849984
-0.17401 0.0993325 0.849787
-0.172284 0.0995862 0.849304
-0.170546 0.0998324 0.848734
-0.168875 0.100111 0.848558
-0.167159 0.100365 0.848096
-0.165428 0.10061 0.84753
-0.16376 0.100887 0.847343
-0.162097 0.101165 0.847181
-0.160457 0.101455 0.84716
-0.15888 0.101778 0.847547
-0.15735 0.102129 0.848251
-0.155837 0.102491 0.849079
-0.154402 0.102899 0.850453
-0.153015 0.103337 0.852178
-0.151659 0.103799 0.854159
-0.150313 0.104271 0.856249
-0.148972 0.104751 0.858423
-0.147545 0.105183 0.860028
-0.146044 0.105573 0.861133
-0.134227 0.107454 0.85912
-0.13245 0.107654 0.858068
-0.130716 0.107882 0.857336
-0.128871 0.108023 0.855653
-0.127061 0.108186 0.854216
-0.125313 0.108391 0.853261
-0.123464 0.108513 0.851391
-0.121591 0.10861 0.849261
-0.119723 0.108703 0.847101
-0.117797 0.108741 0.84435
-0.115904 0.108796 0.841807
-0.114073 0.108895 0.839767
-0.11228 0.109019 0.838005
-0.11053 0.109175 0.836603
-0.10885 0.109388 0.835826
-0.107175 0.109602 0.835063
-0.105511 0.109823 0.834388
-0.103849 0.110044 0.83371
-0.10221 0.110282 0.833228
-0.100583 0.110531 0.83286
-0.0989612 0.110783 0.832528
-0.0973493 0.111043 0.832285
-0.0957368 0.111301 0.832023
-0.0941597 0.111596 0.832145
-0.0925625 0.111868 0.832034
-0.0909686 0.112142 0.831948
-0.0893624 0.112401 0.831706
-0.0877531 0.112654 0.831404
-0.086098 0.112849 0.830504
-0.0844708 0.113074 0.829917
-0.0828775 0.113339 0.829748
-0.0813112 0.113638 0.829928
-0.0797476 0.11394 0.830146
-0.0781975 0.114262 0.830556
-0.0766704 0.114618 0.831313
-0.0751182 0.114941 0.831726
-0.0735591 0.115254 0.832045
-0.0720273 0.11561 0.8328
-0.0704947 0.115969 0.833572
-0.0689451 0.116303 0.834096
-0.0674051 0.116656 0.834803
-0.0658672 0.117016 0.83558
-0.0643172 0.117358 0.836176
-0.0627881 0.117742 0.837182
-0.0612595 0.118133 0.838251
-0.0597377 0.118545 0.839516
-0.0582058 0.118944 0.840649
-0.0566736 0.119349 0.84184
-0.055134 0.119746 0.842945
-0.0536151 0.120199 0.84459
-0.0521025 0.12068 0.846499
-0.0506067 0.12122 0.848961
-0.0491199 0.121806 0.851853
-0.0476374 0.12243 0.855095
-0.0461357 0.12303 0.858087
-0.0446107 0.123588 0.860667
-0.0430612 0.124093 0.862736
-0.194041 0.0973997 0.849292
-0.192357 0.0976803 0.849123
-0.190651 0.0979506 0.848827
-0.188968 0.0982304 0.848655
-0.187311 0.0985205 0.848613
-0.18565 0.0988084 0.848545
-0.183971 0.0990877 0.848372
-0.182278 0.0993596 0.848113
-0.180605 0.09964 0.847959
-0.178969 0.0999374 0.848014
-0.177285 0.100211 0.847787
-0.175617 0.100492 0.847644
-0.173963 0.100779 0.847583
-0.172261 0.101042 0.847225
-0.170544 0.101295 0.846765
-0.168876 0.101572 0.846588
-0.167178 0.101833 0.846225
-0.165468 0.102087 0.845774
-0.16382 0.102371 0.845698
-0.16216 0.10265 0.845545
-0.16052 0.102937 0.845508
-0.158929 0.103252 0.845791
-0.157385 0.103594 0.846383
-0.15586 0.103947 0.847111
-0.154425 0.104355 0.848465
-0.153056 0.104804 0.85029
-0.151704 0.105269 0.852272
-0.15036 0.105743 0.85436
-0.14902 0.106224 0.856514
-0.147586 0.106652 0.858045
-0.146086 0.107042 0.859132
-0.134526 0.109086 0.859019
-0.132741 0.109278 0.857906
-0.131015 0.10951 0.857242
-0.129177 0.109655 0.855627
-0.127378 0.109824 0.854288
-0.12563 0.110028 0.853343
-0.12379 0.110156 0.85157
-0.121916 0.110249 0.84944
-0.120045 0.110338 0.847275
-0.11813 0.110381 0.844636
-0.116237 0.110433 0.842112
-0.114407 0.11053 0.840085
-0.1126 0.110641 0.838217
-0.110847 0.110793 0.836796
-0.109156 0.110995 0.83592
-0.107479 0.111207 0.835157
-0.105816 0.111429 0.834498
-0.104162 0.111657 0.833913
-0.102522 0.111895 0.833435
-0.100896 0.112145 0.833083
-0.0992824 0.112406 0.832853
-0.0976787 0.112676 0.832715
-0.0960741 0.112943 0.832554
-0.0944966 0.113239 0.832691
-0.0929149 0.11353 0.832778
-0.0913284 0.113816 0.832802
-0.0897304 0.114086 0.832683
-0.0881276 0.11435 0.832494
-0.0864868 0.114565 0.831806
-0.0848486 0.114778 0.831116
-0.0832428 0.11503 0.830818
-0.0816727 0.115328 0.830977
-0.0801085 0.115633 0.831218
-0.0785564 0.115956 0.831634
-0.0770274 0.116314 0.832395
-0.0754765 0.116642 0.832861
-0.0739074 0.116944 0.833064
-0.0723613 0.117283 0.833629
-0.0708135 0.117621 0.834185
-0.0692553 0.117945 0.834596
-0.0677077 0.118288 0.835195
-0.0661641 0.118641 0.835888
-0.0646182 0.118993 0.836573
-0.063089 0.11938 0.837597
-0.0615582 0.119771 0.838644
-0.0600257 0.120164 0.839714
-0.0584924 0.120563 0.840831
-0.056955 0.12096 0.841925
-0.0554106 0.121348 0.842935
-0.0538874 0.121794 0.844484
-0.052371 0.122269 0.846302
-0.0508672 0.122791 0.848559
-0.0493767 0.123369 0.851333
-0.0478946 0.123996 0.854557
-0.0463942 0.1246 0.857549
-0.0448729 0.125171 0.860207
-0.0433237 0.125678 0.862264
-0.196019 0.0987343 0.849249
-0.194281 0.0989918 0.848799
-0.192587 0.0992677 0.84858
-0.190835 0.0995168 0.848034
-0.189119 0.0997808 0.847677
-0.187421 0.100052 0.847407
-0.185739 0.100329 0.847214
-0.184025 0.10059 0.846841
-0.182314 0.100852 0.846467
-0.180621 0.101121 0.846189
-0.178965 0.101407 0.846115
-0.177283 0.101679 0.845886
-0.175638 0.101969 0.845865
-0.174007 0.102265 0.845917
-0.172325 0.102536 0.84567
-0.170626 0.102796 0.845307
-0.16896 0.103073 0.845134
-0.167249 0.103324 0.844676
-0.16554 0.103576 0.84422
-0.163878 0.103851 0.844045
-0.162204 0.10412 0.843789
-0.160551 0.104398 0.843653
-0.158976 0.10472 0.844025
-0.157421 0.105054 0.844527
-0.1559 0.105409 0.845268
-0.154468 0.105818 0.84662
-0.153098 0.106268 0.84842
-0.151748 0.106734 0.85039
-0.150408 0.107211 0.852484
-0.149071 0.107695 0.854635
-0.147658 0.108137 0.856301
-0.146201 0.108554 0.85768
-0.144688 0.108937 0.858676
-0.134773 0.110679 0.858501
-0.132982 0.110865 0.857348
-0.131259 0.111098 0.856705
-0.129418 0.111238 0.855068
-0.127656 0.111433 0.854041
-0.125909 0.111637 0.853104
-0.12408 0.11177 0.851431
-0.122216 0.111869 0.849402
-0.120366 0.111972 0.847431
-0.118463 0.112023 0.844917
-0.116592 0.112092 0.842612
-0.114764 0.112189 0.84062
-0.112954 0.112295 0.838738
-0.111187 0.112434 0.837209
-0.109481 0.112622 0.836203
-0.107793 0.112824 0.835343
-0.106128 0.113044 0.83468
-0.104474 0.113271 0.8341
-0.102833 0.113509 0.833627
-0.101206 0.113758 0.833278
-0.0996011 0.114028 0.833148
-0.0980067 0.114309 0.833123
-0.0964119 0.114588 0.833088
-0.0948342 0.114886 0.833239
-0.0932583 0.115186 0.833411
-0.0916764 0.115478 0.833509
-0.0900858 0.11576 0.833502
-0.0884921 0.116037 0.833448
-0.0868592 0.116264 0.832892
-0.0852189 0.116477 0.832209
-0.0836116 0.11673 0.831922
-0.0820379 0.117026 0.832066
-0.08047 0.11733 0.832288
-0.0789219 0.117663 0.832793
-0.0773902 0.118022 0.833548
-0.0758305 0.118341 0.833917
-0.0742513 0.118632 0.834004
-0.0726964 0.118961 0.834462
-0.0711351 0.119281 0.834835
-0.0695692 0.119594 0.835142
-0.068019 0.119936 0.835722
-0.0664689 0.120281 0.836326
-0.0649169 0.120625 0.836921
-0.0633854 0.121011 0.837919
-0.0618473 0.12139 0.838844
-0.0603079 0.121773 0.839793
-0.0587789 0.122183 0.841005
-0.0572425 0.122585 0.84213
-0.055699 0.122979 0.843173
-0.0541798 0.123438 0.844825
-0.0526622 0.123915 0.846633
-0.0511491 0.124417 0.848676
-0.0496544 0.124988 0.851343
-0.0481678 0.125607 0.85444
-0.0466598 0.126192 0.857212
-0.0451346 0.126753 0.85974
-0.0435817 0.127248 0.86166
-0.196323 0.100354 0.84909
-0.194588 0.100613 0.848666
-0.192861 0.100874 0.848271
-0.191075 0.101107 0.847547
-0.18932 0.101352 0.846973
-0.187602 0.101612 0.846589
-0.185889 0.101874 0.846224
-0.184159 0.102127 0.845754
-0.182429 0.102378 0.845273
-0.180716 0.102635 0.844873
-0.179044 0.102912 0.844699
-0.17738 0.103191 0.844559
-0.175737 0.103481 0.84454
-0.174109 0.103778 0.844607
-0.172413 0.104039 0.844262
-0.170697 0.104288 0.843787
-0.168997 0.104545 0.843396
-0.167285 0.104794 0.842922
-0.165578 0.105044 0.842466
-0.163936 0.105327 0.842399
-0.162279 0.105603 0.842239
-0.160642 0.105888 0.842193
-0.159068 0.10621 0.842558
-0.157502 0.106537 0.842978
-0.155968 0.106883 0.843613
-0.154523 0.107284 0.844856
-0.153155 0.107736 0.846652
-0.151807 0.108204 0.848622
-0.150485 0.108693 0.850814
-0.149164 0.109189 0.85306
-0.147805 0.109665 0.855085
-0.146391 0.110111 0.856763
-0.144896 0.110507 0.857883
-0.143415 0.110915 0.859135
-0.13146 0.112652 0.855817
-0.129656 0.112817 0.854482
-0.127923 0.113034 0.853697
-0.126175 0.113235 0.85276
-0.124347 0.113367 0.851099
-0.122484 0.113463 0.849077
-0.120646 0.113574 0.847223
-0.118765 0.11364 0.844915
-0.116907 0.113717 0.842741
-0.1151 0.113831 0.840965
-0.1133 0.113944 0.839186
-0.111529 0.114078 0.837627
-0.109808 0.114252 0.836499
-0.108117 0.114451 0.835624
-0.106441 0.11466 0.834861
-0.104796 0.114896 0.83438
-0.103162 0.115141 0.833994
-0.101543 0.115399 0.833742
-0.0999459 0.11568 0.833717
-0.0983596 0.115971 0.8338
-0.0967729 0.116262 0.833874
-0.0951859 0.116551 0.83394
-0.0935993 0.116841 0.834007
-0.0920055 0.117121 0.833985
-0.09042 0.117411 0.834055
-0.0888264 0.11769 0.834023
-0.0872027 0.117929 0.833604
-0.0855704 0.118155 0.83305
-0.083975 0.118426 0.832946
-0.0823914 0.118712 0.832987
-0.0808211 0.119016 0.833205
-0.0792722 0.119352 0.833726
-0.077732 0.119702 0.834387
-0.0761637 0.120012 0.834659
-0.0745824 0.120302 0.834741
-0.0730198 0.120622 0.835108
-0.0714571 0.120943 0.835482
-0.0698944 0.121265 0.835867
-0.0683433 0.12161 0.836459
-0.0667849 0.121943 0.836949
-0.0652263 0.122279 0.837453
-0.0636815 0.122643 0.838231
-0.0621314 0.123002 0.838948
-0.0605849 0.123371 0.839767
-0.059061 0.123795 0.841084
-0.0575254 0.124201 0.842236
-0.0559921 0.124622 0.843509
-0.0544816 0.125106 0.84537
-0.0529667 0.125595 0.847261
-0.051452 0.1261 0.849294
-0.0499595 0.126683 0.852037
-0.0484649 0.127287 0.854945
-0.0469444 0.127842 0.857399
-0.045411 0.12838 0.859692
-0.0441216 0.129753 0.869538
-0.19664 0.101981 0.849004
-0.194902 0.102238 0.848564
-0.193139 0.102482 0.847982
-0.191297 0.102688 0.84696
-0.189521 0.102922 0.846273
-0.187804 0.103182 0.845894
-0.186076 0.103435 0.845445
-0.184348 0.103687 0.844983
-0.182619 0.103937 0.8445
-0.180905 0.104193 0.844093
-0.179217 0.104461 0.843822
-0.177538 0.104732 0.843594
-0.175878 0.105011 0.843469
-0.174232 0.105297 0.84342
-0.172517 0.105547 0.842955
-0.170784 0.105785 0.842371
-0.169082 0.106038 0.841959
-0.167371 0.106285 0.841479
-0.165666 0.106534 0.841022
-0.164025 0.106817 0.840954
-0.162357 0.107084 0.840706
-0.160706 0.10736 0.840565
-0.159134 0.107681 0.840926
-0.157568 0.108007 0.84133
-0.156022 0.108345 0.841873
-0.154577 0.108745 0.843098
-0.153208 0.109196 0.844863
-0.151862 0.109667 0.846831
-0.150531 0.110152 0.84894
-0.149244 0.11067 0.851403
-0.147946 0.111188 0.853838
-0.146594 0.111676 0.855946
-0.145152 0.112109 0.857447
-0.14372 0.112552 0.859055
-0.131647 0.114195 0.854824
-0.129892 0.114395 0.853883
-0.12819 0.114634 0.853352
-0.126442 0.114834 0.852416
-0.124637 0.114982 0.850955
-0.122785 0.115086 0.849049
-0.120961 0.115205 0.847319
-0.119112 0.115297 0.845313
-0.117276 0.115391 0.843355
-0.115468 0.115503 0.841584
-0.113666 0.115615 0.839815
-0.111891 0.115744 0.83824
-0.110147 0.115896 0.836913
-0.108443 0.116082 0.835921
-0.106756 0.116279 0.835058
-0.105109 0.116514 0.834576
-0.103475 0.116759 0.834194
-0.101855 0.117018 0.833949
-0.100275 0.117318 0.834115
-0.0986978 0.11762 0.834308
-0.0971202 0.117922 0.834499
-0.0955303 0.118211 0.834551
-0.0939397 0.118497 0.834591
-0.0923257 0.118755 0.834353
-0.0907298 0.119034 0.834312
-0.0891276 0.119303 0.834186
-0.0875178 0.119561 0.833952
-0.0858924 0.119796 0.833504
-0.0842964 0.120068 0.833411
-0.0827127 0.120356 0.83347
-0.0811413 0.120661 0.833691
-0.0795842 0.120987 0.834115
-0.0780373 0.12133 0.834696
-0.076468 0.121641 0.834968
-0.0748916 0.12194 0.83514
-0.0733278 0.122261 0.835507
-0.0717647 0.122584 0.835892
-0.0702072 0.122917 0.83638
-0.0686552 0.123263 0.836978
-0.0670839 0.123576 0.837271
-0.0655229 0.12391 0.83775
-0.0639655 0.124252 0.838313
-0.0624093 0.124601 0.838925
-0.0608623 0.124971 0.839742
-0.0593483 0.125419 0.841261
-0.0578228 0.125851 0.842635
-0.0562991 0.126298 0.844132
-0.0547878 0.126787 0.846003
-0.0532759 0.127289 0.847985
-0.0517601 0.127798 0.850023
-0.0502599 0.128367 0.852598
-0.048757 0.128954 0.85531
-0.0472308 0.129497 0.857621
-0.045689 0.130014 0.859689
-0.198726 0.103366 0.849503
-0.196978 0.103618 0.849026
-0.195232 0.10387 0.848545
-0.193431 0.104096 0.847769
-0.191568 0.104291 0.84664
-0.189785 0.10452 0.845913
-0.188032 0.104762 0.845338
-0.186284 0.105005 0.844779
-0.184539 0.105247 0.844217
-0.182824 0.105502 0.843811
-0.181114 0.105759 0.843426
-0.179429 0.106027 0.843171
-0.177751 0.106298 0.842947
-0.176087 0.106575 0.842799
-0.174405 0.106841 0.84253
-0.172652 0.107069 0.84184
-0.170901 0.107295 0.841137
-0.169182 0.107538 0.840619
-0.167458 0.107775 0.840048
-0.165756 0.108022 0.839597
-0.164119 0.108306 0.839547
-0.162454 0.108573 0.839306
-0.160805 0.108848 0.839162
-0.159218 0.109159 0.839419
-0.157637 0.109474 0.839711
-0.156089 0.10981 0.840221
-0.154629 0.110202 0.841335
-0.153248 0.110645 0.842996
-0.151919 0.111127 0.845053
-0.150606 0.111624 0.847265
-0.149325 0.112148 0.849756
-0.148046 0.11268 0.852307
-0.146751 0.113208 0.854802
-0.145348 0.113669 0.856576
-0.143959 0.114143 0.858485
-0.131822 0.115725 0.853735
-0.130128 0.115971 0.85328
-0.128445 0.116225 0.852912
-0.126696 0.116422 0.851968
-0.124914 0.116587 0.850704
-0.123076 0.1167 0.848925
-0.121277 0.116839 0.847421
-0.119462 0.116958 0.845727
-0.117646 0.117069 0.843969
-0.115836 0.117179 0.842206
-0.114052 0.117306 0.840627
-0.112267 0.117425 0.838977
-0.11051 0.117565 0.837541
-0.108802 0.117747 0.836534
-0.107101 0.117931 0.835554
-0.105434 0.118146 0.834886
-0.1038 0.118392 0.834516
-0.102188 0.118659 0.834367
-0.100609 0.118962 0.834555
-0.0990399 0.119275 0.834853
-0.0974609 0.119578 0.835045
-0.0958691 0.119866 0.835094
-0.0942673 0.120141 0.835022
-0.0926412 0.120386 0.834657
-0.0910268 0.120642 0.834411
-0.0894219 0.120909 0.834261
-0.08781 0.121164 0.834012
-0.0861836 0.121399 0.83356
-0.0845878 0.121672 0.83348
-0.0830108 0.12197 0.833636
-0.0814456 0.122285 0.833954
-0.079888 0.122612 0.834383
-0.0783468 0.122966 0.835057
-0.0767761 0.123277 0.835326
-0.0751982 0.123576 0.835495
-0.0736274 0.123887 0.835768
-0.0720637 0.124211 0.836159
-0.070501 0.124538 0.83658
-0.0689484 0.124885 0.83718
-0.0673759 0.125198 0.837468
-0.0658127 0.12553 0.837922
-0.0642537 0.125871 0.838471
-0.062697 0.126221 0.839085
-0.0611503 0.126595 0.839921
-0.0596415 0.127057 0.841551
-0.0581209 0.127504 0.84304
-0.0565974 0.127956 0.844558
-0.0550857 0.128448 0.846436
-0.0535735 0.128955 0.848433
-0.0520577 0.129469 0.850484
-0.0505536 0.130034 0.852983
-0.04905 0.130624 0.855689
-0.0475189 0.131158 0.857884
-0.0459751 0.131674 0.859908
-0.19911 0.105025 0.849753
-0.197369 0.10528 0.849318
-0.195601 0.105522 0.848734
-0.193768 0.105732 0.84779
-0.191882 0.105915 0.846542
-0.190076 0.106132 0.845699
-0.188283 0.106354 0.84491
-0.186512 0.106584 0.844224
-0.184762 0.106822 0.843638
-0.183047 0.107076 0.843232
-0.181341 0.107334 0.842864
-0.179677 0.107612 0.842725
-0.177998 0.107881 0.842499
-0.176298 0.108138 0.842136
-0.174575 0.108382 0.841628
-0.172803 0.108597 0.84082
-0.171035 0.108812 0.840014
-0.169305 0.109046 0.839418
-0.167583 0.109282 0.838852
-0.165882 0.109528 0.838401
-0.16423 0.109802 0.838247
-0.162566 0.110067 0.838004
-0.160918 0.110341 0.837861
-0.159331 0.110651 0.838101
-0.15775 0.110965 0.838379
-0.156188 0.111291 0.838791
-0.154701 0.111665 0.839702
-0.153304 0.1121 0.841247
-0.151976 0.112583 0.843291
-0.150665 0.113082 0.845495
-0.149417 0.11363 0.848188
-0.148158 0.114177 0.850865
-0.146897 0.11473 0.853582
-0.145543 0.115226 0.855695
-0.144205 0.115739 0.857973
-0.142818 0.116224 0.859939
-0.132204 0.117419 0.854312
-0.130411 0.117586 0.853066
-0.128724 0.117836 0.852669
-0.126974 0.11803 0.851719
-0.125202 0.118202 0.850553
-0.123378 0.118324 0.848896
-0.121605 0.118485 0.847633
-0.119804 0.118615 0.846074
-0.118007 0.118743 0.844509
-0.116207 0.11886 0.84285
-0.114432 0.118995 0.841373
-0.112644 0.119112 0.839729
-0.110885 0.119249 0.838292
-0.109163 0.119418 0.837171
-0.107449 0.119588 0.836077
-0.105769 0.11979 0.835288
-0.104124 0.120025 0.834827
-0.102521 0.120303 0.834779
-0.10095 0.120617 0.835072
-0.0993901 0.120942 0.835481
-0.0978025 0.121237 0.835596
-0.096208 0.121524 0.835631
-0.0945949 0.121787 0.835448
-0.0929592 0.122021 0.834986
-0.0913267 0.122255 0.834539
-0.0897104 0.122508 0.834263
-0.0880888 0.122751 0.833902
-0.0864613 0.122983 0.833443
-0.0848663 0.123258 0.833379
-0.0832959 0.123566 0.833629
-0.0817376 0.123893 0.834046
-0.0801854 0.124229 0.834558
-0.0786437 0.124584 0.835235
-0.0770723 0.124895 0.835507
-0.0754936 0.125195 0.835674
-0.0739215 0.125506 0.835941
-0.0723568 0.12583 0.83633
-0.0707928 0.126157 0.836743
-0.0692344 0.126495 0.837258
-0.0676613 0.126808 0.837545
-0.0660909 0.127128 0.837888
-0.0645323 0.127472 0.83845
-0.0629809 0.127834 0.83917
-0.0614501 0.128244 0.840318
-0.0599472 0.128724 0.842082
-0.058431 0.129186 0.843678
-0.0569103 0.12965 0.845283
-0.0553929 0.130135 0.847064
-0.0538749 0.130633 0.848954
-0.0523583 0.13115 0.851009
-0.0508536 0.13172 0.85351
-0.0493417 0.132293 0.856024
-0.0478057 0.132816 0.8581
-0.0465485 0.134258 0.86815
-0.199512 0.106694 0.850095
-0.197768 0.106948 0.849655
-0.195999 0.107189 0.849069
-0.194162 0.107396 0.848111
-0.192251 0.107565 0.846744
-0.190408 0.107764 0.845706
-0.188588 0.107971 0.844774
-0.186777 0.10818 0.843875
-0.185004 0.108406 0.843161
-0.183291 0.10866 0.842766
-0.181587 0.108917 0.842408
-0.179926 0.109196 0.842286
-0.178246 0.109464 0.842052
-0.17651 0.109701 0.841481
-0.174748 0.109922 0.840747
-0.172957 0.110125 0.839818
-0.171173 0.110328 0.838911
-0.169433 0.110554 0.838249
-0.167728 0.110798 0.83778
-0.166041 0.111051 0.837412
-0.164387 0.111322 0.837235
-0.162723 0.111586 0.83699
-0.161092 0.111869 0.836945
-0.159493 0.112171 0.837102
-0.157897 0.112474 0.837277
-0.156319 0.11279 0.837573
-0.154817 0.113154 0.838376
-0.153394 0.113572 0.839727
-0.152064 0.114055 0.84174
-0.150768 0.114566 0.84403
-0.149539 0.115128 0.846834
-0.148327 0.11571 0.849825
-0.147096 0.116288 0.852751
-0.145797 0.116824 0.855244
-0.144512 0.117379 0.857907
-0.143192 0.117915 0.860361
-0.141842 0.118436 0.862659
-0.132867 0.119344 0.85714
-0.130938 0.119401 0.854837
-0.12913 0.119553 0.853467
-0.127315 0.119692 0.851994
-0.125528 0.11985 0.850711
-0.123705 0.119971 0.849074
-0.121946 0.120143 0.847947
-0.120168 0.120293 0.84661
-0.118383 0.120431 0.845168
-0.116589 0.120555 0.843595
-0.114813 0.120688 0.842125
-0.113024 0.120803 0.840489
-0.111253 0.120929 0.838965
-0.109516 0.121082 0.837711
-0.107796 0.121247 0.836587
-0.106114 0.121447 0.835789
-0.104466 0.12168 0.835318
-0.102871 0.121969 0.835371
-0.101299 0.122282 0.835664
-0.0997391 0.122611 0.836089
-0.0981402 0.122894 0.836097
-0.0965363 0.123171 0.836044
-0.094912 0.123422 0.835747
-0.0932746 0.123654 0.835282
-0.0916248 0.123867 0.834643
-0.0900075 0.124119 0.834367
-0.0883911 0.12437 0.834081
-0.0867707 0.124612 0.833724
-0.0851759 0.124889 0.833677
-0.0836129 0.125209 0.834038
-0.0820525 0.125535 0.834442
-0.080492 0.125862 0.834857
-0.0789438 0.126209 0.835455
-0.0773715 0.12652 0.835726
-0.0757924 0.126821 0.8359
-0.0742182 0.12713 0.836151
-0.0726518 0.127453 0.836525
-0.0710864 0.12778 0.836929
-0.0695198 0.128105 0.837322
-0.0679464 0.128419 0.837614
-0.0663708 0.12873 0.837877
-0.0648178 0.129087 0.838547
-0.0632719 0.129463 0.839379
-0.0617526 0.129901 0.84076
-0.0602551 0.130397 0.84264
-0.0587478 0.130886 0.844445
-0.0572254 0.131352 0.846042
-0.0557053 0.131836 0.847795
-0.054185 0.132335 0.849662
-0.0526625 0.132843 0.851605
-0.0511523 0.133404 0.853993
-0.0496355 0.133968 0.856399
-0.0480949 0.134483 0.858373
-0.199866 0.108343 0.850186
-0.198129 0.1086 0.849789
-0.196332 0.108827 0.849066
-0.194493 0.109032 0.848102
-0.192564 0.10919 0.846639
-0.190717 0.109385 0.845588
-0.188858 0.109571 0.84445
-0.187044 0.109777 0.843531
-0.185251 0.109991 0.842711
-0.183538 0.110245 0.842319
-0.181835 0.110502 0.841968
-0.180191 0.110789 0.841944
-0.178495 0.111048 0.841615
-0.176739 0.111273 0.84093
-0.174957 0.111481 0.840076
-0.173162 0.111679 0.839124
-0.171381 0.111883 0.838235
-0.169643 0.112108 0.837583
-0.167939 0.112351 0.837115
-0.166248 0.1126 0.836721
-0.164578 0.11286 0.836441
-0.1629 0.113115 0.836104
-0.161272 0.113398 0.836074
-0.159675 0.113701 0.836237
-0.15808 0.114004 0.836411
-0.156501 0.114319 0.836698
-0.154984 0.114673 0.837391
-0.153529 0.115071 0.838516
-0.152184 0.115545 0.840414
-0.150889 0.116058 0.842694
-0.149663 0.116625 0.845504
-0.148487 0.117235 0.848727
-0.147302 0.117848 0.851966
-0.14607 0.118436 0.854933
-0.144833 0.119029 0.857937
-0.14356 0.119605 0.860747
-0.142225 0.120141 0.863159
-0.140863 0.120664 0.865419
-0.133484 0.121239 0.859582
-0.131481 0.121237 0.856728
-0.129575 0.121306 0.854586
-0.127701 0.121395 0.852647
-0.125909 0.121549 0.851343
-0.124093 0.121675 0.849784
-0.122334 0.121848 0.848676
-0.120567 0.122008 0.847459
-0.118779 0.122143 0.846009
-0.116983 0.122263 0.84443
-0.115194 0.122384 0.842871
-0.113402 0.122495 0.841223
-0.111628 0.122618 0.839692
-0.109888 0.122768 0.838435
-0.108155 0.12292 0.837199
-0.106459 0.123107 0.836295
-0.1048 0.123328 0.835722
-0.103205 0.123618 0.835784
-0.101622 0.123921 0.835972
-0.100061 0.124249 0.836394
-0.098459 0.124531 0.836386
-0.0968527 0.124806 0.836317
-0.0952179 0.125045 0.835916
-0.0935796 0.125276 0.835453
-0.0919285 0.125488 0.834811
