ply
format ascii 1.0
element vertex 1743
property float x
property float y
property float z
end_header
0.0818575 0.0754413 0.775859
0.0832484 0.075791 0.775299
0.0846625 0.0761613 0.775006
0.0860672 0.0765246 0.774621
0.0874626 0.0768806 0.774147
0.0888384 0.0772201 0.773481
0.0902375 0.0775793 0.77307
0.0916821 0.0779777 0.773128
0.0931704 0.0784112 0.773612
0.09466 0.0788441 0.774089
0.0961978 0.0793149 0.775009
0.097734 0.0797829 0.775882
0.0992497 0.0802338 0.776537
0.100813 0.0807185 0.7776
0.102446 0.0812564 0.779264
0.109586 0.0838295 0.79059
0.111226 0.0843547 0.792001
0.112819 0.0848436 0.792984
0.114369 0.0852998 0.79358
0.11586 0.0857144 0.793694
0.123078 0.085842 0.760017
0.124506 0.0862343 0.760036
0.125938 0.0866276 0.760076
0.1273 0.0869752 0.759624
0.128633 0.0873046 0.758974
0.12995 0.0876226 0.75822
0.131241 0.0879259 0.757316
0.132568 0.0882533 0.756662
0.133896 0.0885812 0.756029
0.135249 0.0889268 0.755579
0.13659 0.0892642 0.755048
0.137952 0.0896155 0.754665
0.139301 0.0899596 0.754206
0.140728 0.0903513 0.754248
0.142177 0.0907577 0.754425
0.1437 0.0912083 0.755049
0.145308 0.0917097 0.756182
0.146993 0.0922569 0.75776
0.148737 0.0928374 0.759657
0.150521 0.0934403 0.761751
0.152325 0.0940523 0.763921
0.154133 0.0946638 0.766071
0.15598 0.0952968 0.768404
0.15788 0.0959579 0.770995
0.159788 0.0966212 0.773578
0.163324 0.0965785 0.78333
0.161654 0.0972573 0.775876
0.0730928 0.0747465 0.779053
0.0744884 0.0750927 0.778432
0.0758929 0.07545 0.777945
0.0772969 0.0758067 0.777464
0.0786776 0.0761424 0.776723
0.080086 0.0765048 0.776326
0.0815068 0.0768797 0.776082
0.0829004 0.0772303 0.775539
0.0843155 0.0776013 0.775248
0.0857294 0.0779714 0.77495
0.087135 0.0783334 0.774568
0.0885133 0.0786733 0.773913
0.0899139 0.0790338 0.773505
0.0913487 0.0794233 0.773452
0.0928184 0.0798411 0.773741
0.0942903 0.0802616 0.774043
0.0958102 0.0807189 0.774789
0.0973469 0.0811887 0.775669
0.0988705 0.0816467 0.776397
0.112415 0.0862703 0.79267
0.123009 0.0874397 0.762066
0.124427 0.0878222 0.761976
0.125826 0.0881928 0.761759
0.127209 0.0885518 0.761421
0.128506 0.0888537 0.760496
0.12979 0.0891489 0.759497
0.131082 0.0894509 0.758577
0.132411 0.0897769 0.75792
0.133741 0.0901045 0.757283
0.135084 0.0904417 0.756745
0.136438 0.0907857 0.756284
0.13779 0.0911292 0.755819
0.13914 0.0914714 0.755347
0.14057 0.0918654 0.755392
0.142022 0.0922727 0.755572
0.143535 0.0927177 0.756124
0.145145 0.0932221 0.757257
0.146832 0.0937735 0.758841
0.148551 0.0943405 0.760568
0.150306 0.0949293 0.76249
0.0740704 0.0764735 0.777885
0.0754923 0.0768465 0.77761
0.0770624 0.0773647 0.779139
0.0785915 0.0778399 0.780116
0.0801501 0.078341 0.781399
0.0815975 0.078735 0.781357
0.0829958 0.0790832 0.780762
0.0842629 0.0793123 0.778739
0.0855312 0.0795456 0.776793
0.0867797 0.0797662 0.774704
0.0881594 0.080105 0.774051
0.0895642 0.0804682 0.773678
0.0909889 0.0808488 0.773514
0.0924411 0.0812516 0.773623
0.0938959 0.0816577 0.773754
0.0954091 0.0821112 0.774438
0.123019 0.0890999 0.764699
0.124402 0.0894562 0.76432
0.125742 0.089784 0.763648
0.127111 0.0901317 0.763188
0.12837 0.0904057 0.761971
0.129632 0.0906825 0.760796
0.130929 0.0909852 0.75989
0.132273 0.0913192 0.759314
0.133618 0.0916542 0.758753
0.134962 0.0919902 0.758204
0.136318 0.0923332 0.757733
0.137671 0.0926766 0.757257
0.139024 0.0930192 0.756787
0.140456 0.0934139 0.756828
0.141911 0.0938219 0.757008
0.143413 0.0942607 0.757477
0.144998 0.09475 0.758441
0.146659 0.095286 0.759846
0.148348 0.0958385 0.761391
0.150075 0.0964126 0.763133
0.0612769 0.0758715 0.827707
0.0597753 0.0754788 0.828019
0.0593722 0.0769771 0.828
0.0608677 0.0773611 0.827577
0.0623683 0.0777524 0.827252
0.0773917 0.0794961 0.787693
0.0787743 0.0798189 0.786758
0.0802218 0.0802068 0.786613
0.0815522 0.0804818 0.785123
0.0828157 0.0806967 0.782931
0.0840401 0.0808782 0.780377
0.0852598 0.0810621 0.777864
0.0864544 0.0812273 0.775163
0.0878334 0.0815648 0.774489
0.0892335 0.081922 0.774052
0.0906458 0.0822899 0.773748
0.0920727 0.0826718 0.773599
0.0935022 0.0830554 0.773474
0.0949885 0.0834875 0.773901
0.124267 0.0910232 0.765887
0.125592 0.0913377 0.765076
0.12695 0.0916754 0.764518
0.128196 0.0919368 0.763188
0.129448 0.0922042 0.761924
0.130761 0.0925147 0.761106
0.13212 0.0928578 0.760615
0.13347 0.0931941 0.760069
0.134831 0.093539 0.759608
0.136203 0.0938915 0.759226
0.137558 0.0942341 0.758745
0.138915 0.0945781 0.758281
0.140349 0.0949719 0.758312
0.141806 0.0953823 0.75849
0.14331 0.0958212 0.758949
0.144869 0.0962951 0.759737
0.146498 0.0968128 0.760939
0.148156 0.0973474 0.76229
0.149854 0.0979054 0.763848
0.0589454 0.0784466 0.827586
0.0604401 0.0788285 0.827147
0.0619389 0.0792183 0.826798
0.0638603 0.0781349 0.826806
0.063425 0.079592 0.826257
0.0653225 0.0784817 0.825921
0.064889 0.0799401 0.8254
0.0667958 0.0788441 0.825238
0.0663615 0.0803004 0.824705
0.0682773 0.0792172 0.824701
0.0678302 0.0806577 0.823983
0.0692887 0.0810057 0.823143
0.124071 0.092553 0.767012
0.125387 0.0928585 0.766124
0.126739 0.0931902 0.765501
0.127987 0.09345 0.764165
0.129255 0.0937254 0.762994
0.130596 0.0940526 0.762352
0.131973 0.0944063 0.761961
0.133339 0.0947522 0.76151
0.134706 0.0950995 0.761068
0.136083 0.0954539 0.760696
0.137456 0.0958062 0.760308
0.138827 0.0961575 0.759918
0.140267 0.0965543 0.759963
0.14174 0.0969738 0.760222
0.143233 0.0974057 0.760598
0.144765 0.0978628 0.761201
0.146379 0.0983723 0.762292
0.148034 0.0989064 0.763612
0.149709 0.0994511 0.765014
0.06002 0.0803063 0.826845
0.0615159 0.0806907 0.826441
0.0629932 0.0810527 0.82576
0.0644571 0.0813991 0.8249
0.0659309 0.0817591 0.82422
0.0673994 0.0821163 0.823497
0.0688529 0.0824576 0.822587
0.0703017 0.0827943 0.821643
0.122588 0.0938079 0.769293
0.123856 0.0940741 0.76801
0.125155 0.094365 0.766981
0.126493 0.0946845 0.766242
0.127724 0.094929 0.764773
0.128987 0.0951979 0.76355
0.130354 0.095543 0.763077
0.131747 0.0959053 0.762781
0.13314 0.0962696 0.7625
0.134536 0.0966352 0.762235
0.135928 0.0969984 0.761951
0.137319 0.0973609 0.761659
0.138721 0.097732 0.761445
0.140166 0.0981315 0.761507
0.141657 0.0985624 0.761858
0.143142 0.0989886 0.762163
0.144675 0.0994464 0.762755
0.146278 0.0999489 0.763763
0.147923 0.100479 0.765007
0.149588 0.101019 0.766339
0.0610812 0.0821483 0.825897
0.0625532 0.0825023 0.825132
0.0640145 0.0828441 0.824232
0.0654857 0.0832004 0.823519
0.0669578 0.0835602 0.822849
0.0684218 0.0839128 0.822092
0.0698874 0.0842688 0.821384
0.0717538 0.0831373 0.820783
0.0713469 0.0846193 0.82062
0.0732108 0.0834889 0.820022
0.0728089 0.0849744 0.819917
0.0745053 0.0836629 0.817163
0.0742839 0.085346 0.819411
0.0758144 0.0838592 0.814604
0.0757712 0.0857314 0.819077
0.0771333 0.0840724 0.812268
0.0772582 0.0861186 0.818752
0.0784648 0.084305 0.810176
0.0787423 0.0865015 0.818396
0.103906 0.0912271 0.809401
0.102085 0.092353 0.809962
0.103553 0.0927337 0.809628
0.105016 0.0931107 0.809251
0.118877 0.0952884 0.808754
0.117036 0.096393 0.809061
0.1185 0.0967719 0.808716
0.123449 0.0954568 0.767608
0.124772 0.0957632 0.766749
0.126119 0.0960889 0.766078
0.127391 0.0963606 0.764887
0.128668 0.0966367 0.763755
0.130062 0.097 0.763461
0.131458 0.0973645 0.763179
0.132866 0.0977375 0.762986
0.134299 0.0981291 0.76296
0.135707 0.0985033 0.762773
0.137127 0.0988845 0.762658
0.138572 0.099283 0.762704
0.140048 0.0997049 0.762956
0.141559 0.100148 0.763411
0.143072 0.100593 0.763875
0.144625 0.101064 0.764572
0.146248 0.101581 0.765682
0.147902 0.102118 0.766962
0.149572 0.102664 0.768309
0.163857 0.106938 0.798083
0.161863 0.107915 0.797265
0.161918 0.107396 0.789048
0.16229 0.105417 0.780829
0.162011 0.106912 0.781196
0.0621051 0.0839393 0.824369
0.0635713 0.0842867 0.823552
0.065045 0.084646 0.822881
0.0665207 0.08501 0.822268
0.0679936 0.0853724 0.82164
0.0694727 0.0857426 0.821119
0.0709351 0.0860948 0.820387
0.0724022 0.086455 0.819749
0.073876 0.0868236 0.819219
0.0753581 0.0872038 0.818817
0.0768335 0.0875762 0.818338
0.0783105 0.0879526 0.817898
0.0802029 0.0868618 0.817769
0.0797724 0.088312 0.817282
0.0816595 0.0872186 0.817112
0.0812294 0.0886681 0.816631
0.0831209 0.0875815 0.816532
0.0826853 0.0890243 0.815985
0.084588 0.0879503 0.816032
0.0841554 0.0893963 0.815523
0.0856553 0.0898002 0.815411
0.100639 0.0919922 0.810516
0.0988769 0.0931807 0.811714
0.100258 0.0934779 0.810505
0.101699 0.0938333 0.809905
0.103159 0.0942064 0.809488
0.104615 0.0945758 0.809044
0.106512 0.0935152 0.809176
0.10611 0.0949798 0.808955
0.108056 0.0939619 0.809528
0.107654 0.0954272 0.809306
0.109553 0.0943669 0.809453
0.109166 0.0958447 0.809358
0.111071 0.0947908 0.809564
0.110695 0.0962771 0.809555
0.112236 0.0967206 0.809851
0.115554 0.095999 0.809255
0.113752 0.0971403 0.809921
0.115182 0.0974892 0.809272
0.116653 0.0978726 0.808975
0.118107 0.0982431 0.808549
0.119603 0.0986475 0.808464
0.122984 0.0967939 0.766779
0.124351 0.0971331 0.766238
0.125723 0.0974769 0.76575
0.127052 0.0977887 0.764961
0.128371 0.098094 0.764116
0.129791 0.098475 0.763992
0.131188 0.0988396 0.763712
0.132599 0.0992148 0.763526
0.134034 0.0996066 0.763506
0.135483 0.100008 0.763572
0.136946 0.100421 0.763732
0.138438 0.100853 0.764073
0.139947 0.101295 0.764511
0.1415 0.101769 0.765224
0.143018 0.102217 0.765696
0.144605 0.102711 0.766583
0.146265 0.103255 0.767902
0.14793 0.1038 0.769225
0.149603 0.104347 0.770565
0.152849 0.104271 0.779218
0.151358 0.10495 0.77237
0.158466 0.10739 0.779731
0.160172 0.107947 0.781074
0.161816 0.108463 0.782039
0.0636015 0.0863652 0.83028
0.0648929 0.0864708 0.826646
0.0662313 0.0866495 0.823885
0.067593 0.0868661 0.821587
0.0690797 0.0872455 0.821169
0.0705447 0.0875983 0.820457
0.0720128 0.0879582 0.819821
0.0734795 0.0883168 0.819184
0.0749603 0.0886942 0.818756
0.07642 0.0890476 0.81807
0.0778832 0.0894061 0.81745
0.0793349 0.0897547 0.816712
0.0807847 0.0901013 0.815973
0.0822433 0.0904603 0.815364
0.0837257 0.0908456 0.815049
0.0852254 0.0912492 0.814936
0.0871553 0.0902042 0.815299
0.0867256 0.091653 0.814827
0.0886552 0.0906081 0.815187
0.0882349 0.092067 0.814819
0.0901551 0.091012 0.815075
0.0897348 0.0924709 0.814707
0.091655 0.0914159 0.814962
0.0912347 0.0928748 0.814595
0.0931394 0.0918049 0.814689
0.0927233 0.0932679 0.814365
0.0945909 0.0921629 0.814088
0.0941762 0.0936251 0.813773
0.0960355 0.0925159 0.813434
0.0956229 0.0939791 0.813137
0.0974599 0.0928502 0.812596
0.0970516 0.0943163 0.812339
0.0984758 0.0946507 0.811518
0.0998947 0.094982 0.81067
0.101346 0.0953449 0.810148
0.102808 0.0957186 0.809743
0.104269 0.0960912 0.809331
0.105764 0.0964944 0.809234
0.107279 0.0969164 0.809326
0.108792 0.0973358 0.809381
0.110327 0.097774 0.80963
0.111871 0.0982184 0.809937
0.113395 0.0986457 0.810069
0.114868 0.0990292 0.809773
0.116344 0.0994163 0.809509
0.117793 0.0997811 0.809023
0.119278 0.100176 0.808841
0.12107 0.0990289 0.808147
0.120751 0.100561 0.808561
0.12266 0.0995078 0.808791
0.122565 0.101222 0.810936
0.124595 0.0990178 0.770585
0.125821 0.0992443 0.768981
0.127117 0.0995265 0.767917
0.128085 0.099563 0.764562
0.129545 0.0999735 0.764704
0.130982 0.100367 0.764688
0.132433 0.100769 0.764756
0.133895 0.10118 0.764902
0.13535 0.101585 0.764991
0.136821 0.102003 0.765186
0.138333 0.102448 0.765641
0.139861 0.102906 0.766186
0.141434 0.103393 0.767001
0.14297 0.103853 0.767566
0.144603 0.10438 0.76872
0.146287 0.104941 0.770165
0.147958 0.105491 0.771497
0.149634 0.106043 0.772838
0.151371 0.106633 0.774518
0.153135 0.105563 0.774264
0.15309 0.10721 0.776045
0.154915 0.106176 0.776138
0.15484 0.107805 0.777727
0.15672 0.106804 0.778124
0.156603 0.108407 0.779457
0.158307 0.108967 0.780806
0.160001 0.109518 0.782065
0.161647 0.110036 0.783034
0.0650127 0.0886819 0.834647
0.0661962 0.0886347 0.829341
0.0674353 0.0886765 0.825094
0.0688145 0.0889116 0.823046
0.0701806 0.0891365 0.820901
0.0716502 0.0894949 0.82026
0.0731108 0.0898439 0.819523
0.074578 0.090204 0.8189
0.0760293 0.0905456 0.818094
0.0774772 0.0908852 0.817271
0.0789203 0.0912218 0.81642
0.0803631 0.0915598 0.815592
0.0818218 0.0919168 0.81498
0.0833052 0.0923033 0.814676
0.0848054 0.0927075 0.814569
0.0863062 0.0931123 0.814468
0.0878148 0.093525 0.814451
0.0893147 0.0939289 0.814339
0.0908146 0.0943328 0.814227
0.0923059 0.0947286 0.814026
0.0937594 0.095086 0.813438
0.0952068 0.0954392 0.812806
0.0966498 0.0957898 0.812149
0.098086 0.0961333 0.811438
0.0995127 0.0964701 0.810657
0.100974 0.0968424 0.81023
0.102444 0.0972206 0.809881
0.103906 0.0975938 0.809474
0.1054 0.0979967 0.809368
0.106918 0.0984203 0.809468
0.108438 0.0988446 0.809576
0.109988 0.0992965 0.809946
0.111541 0.0997494 0.810329
0.113074 0.100185 0.810532
0.114573 0.100589 0.810437
0.116042 0.10097 0.8101
0.117472 0.101316 0.80945
0.118938 0.101694 0.809104
0.120586 0.102223 0.810196
0.122559 0.103016 0.81378
0.128226 0.101364 0.768024
0.129343 0.101509 0.765734
0.130813 0.101926 0.765922
0.132293 0.10235 0.766179
0.133772 0.102773 0.766415
0.135241 0.103188 0.766584
0.136729 0.103616 0.766864
0.138261 0.104076 0.767428
0.13982 0.104555 0.768154
0.14141 0.105055 0.769053
0.142964 0.105528 0.769709
0.144615 0.106068 0.770958
0.146305 0.106634 0.772418
0.147954 0.107169 0.773594
0.149616 0.107712 0.774829
0.151325 0.108286 0.776315
0.153001 0.108834 0.777572
0.154737 0.109422 0.779157
0.156502 0.110027 0.780884
0.158212 0.110593 0.78225
0.15991 0.111148 0.783527
0.161576 0.11168 0.784592
0.0672894 0.0905207 0.828825
0.0685558 0.0905968 0.825045
0.0698158 0.0906779 0.821345
0.0712941 0.0910439 0.8208
0.072757 0.0913944 0.820074
0.0742186 0.0917431 0.81935
0.0756625 0.0920731 0.818427
0.0771023 0.0924017 0.817486
0.0785312 0.0927188 0.816442
0.0799661 0.0930456 0.815508
0.0814166 0.0933933 0.814793
0.0828915 0.0937684 0.814384
0.0843849 0.0941652 0.814197
0.0858858 0.0945705 0.814097
0.0873944 0.094984 0.814084
0.0888943 0.0953879 0.813972
0.0903943 0.0957918 0.81386
0.0918943 0.0961957 0.813747
0.0933572 0.0965623 0.813255
0.0948153 0.0969238 0.812723
0.0962596 0.0972742 0.812072
0.0977048 0.0976255 0.811444
0.099133 0.0979622 0.810669
0.100598 0.0983355 0.81026
0.10207 0.0987167 0.809939
0.103554 0.0991084 0.809722
0.10506 0.099521 0.809709
0.106588 0.0999545 0.809894
0.108129 0.100398 0.810177
0.109693 0.100862 0.810658
0.11125 0.101318 0.811061
0.112788 0.101757 0.811286
0.114311 0.102182 0.811379
0.115795 0.102573 0.811146
0.117241 0.102932 0.810609
0.118847 0.103427 0.81136
0.120693 0.104123 0.813986
0.122848 0.105071 0.818956
0.129913 0.10365 0.772168
0.131031 0.103789 0.769843
0.132188 0.103964 0.767844
0.133696 0.104408 0.768257
0.13518 0.104833 0.7685
0.136693 0.105279 0.768928
0.138226 0.105739 0.76947
0.139789 0.106221 0.7702
0.141372 0.106715 0.77103
0.142942 0.1072 0.771771
0.144583 0.107734 0.772933
0.146263 0.108294 0.774305
0.147899 0.108821 0.775388
0.14956 0.109364 0.776594
0.151231 0.109912 0.777835
0.152894 0.110453 0.779002
0.154634 0.111045 0.780596
0.156404 0.111656 0.782335
0.158134 0.112237 0.783805
0.159851 0.112807 0.785172
0.161521 0.113342 0.786247
0.0618858 0.0917258 0.866253
0.0599784 0.0930173 0.867997
0.0615652 0.0934487 0.867928
0.0630002 0.0914779 0.858539
0.062874 0.0934664 0.86329
0.0672257 0.0924955 0.833829
0.0683893 0.0924163 0.828411
0.0695529 0.0923553 0.823235
0.0709457 0.0926069 0.821457
0.0724044 0.0929483 0.820646
0.07386 0.0932882 0.819823
0.0752914 0.0935994 0.818715
0.0767231 0.0939147 0.817652
0.0781376 0.094213 0.816416
0.0795643 0.0945276 0.815369
0.0810065 0.0948639 0.814547
0.082481 0.0952373 0.814127
0.083973 0.0956326 0.813924
0.0854744 0.0960383 0.813829
0.0869833 0.0964518 0.813816
0.088483 0.0968562 0.813701
0.0899825 0.0972593 0.813582
0.0914742 0.0976537 0.81338
0.0929466 0.0980296 0.812984
0.0944151 0.0984017 0.812558
0.095862 0.098752 0.811924
0.0973076 0.0991034 0.811295
0.0987447 0.099447 0.810601
0.10021 0.0998193 0.810191
0.101685 0.100203 0.809885
0.103191 0.100615 0.80987
0.104709 0.10104 0.809963
0.106249 0.101483 0.810244
0.107822 0.101957 0.810807
0.109411 0.102444 0.811495
0.110985 0.102915 0.812027
0.112559 0.103385 0.812536
0.114117 0.103841 0.812905
0.115619 0.104246 0.812794
0.117096 0.104628 0.812477
0.118845 0.105246 0.814348
0.120838 0.10607 0.818105
0.12309 0.107108 0.823795
0.125098 0.10609 0.82453
0.125395 0.108179 0.829741
0.127105 0.106898 0.828107
0.127384 0.108974 0.833124
0.129463 0.109838 0.837104
0.130546 0.105867 0.779082
0.131292 0.105705 0.77409
0.1321 0.105599 0.769638
0.133626 0.106056 0.77015
0.135112 0.106482 0.770386
0.136628 0.10693 0.77081
0.138163 0.107391 0.771346
0.139732 0.107877 0.772088
0.141315 0.108371 0.772904
0.142876 0.108849 0.773559
0.144504 0.109374 0.77462
0.146143 0.109906 0.775726
0.147764 0.110423 0.776698
0.149427 0.110968 0.777903
0.151088 0.111511 0.779068
0.152756 0.112056 0.780253
0.15453 0.112675 0.782035
0.15632 0.113301 0.783877
0.158072 0.1139 0.785463
0.159826 0.114496 0.787025
0.1615 0.115036 0.788106
0.0520874 0.0909345 0.869166
0.051639 0.0924685 0.868691
0.0531818 0.0928209 0.867744
0.0552046 0.0917008 0.867936
0.054746 0.0932147 0.867261
0.0563208 0.0936283 0.866997
0.058386 0.092577 0.867963
0.0579228 0.094085 0.867223
0.0595049 0.0945102 0.867089
0.0610843 0.094931 0.866908
0.0625362 0.0951583 0.864625
0.0641912 0.0935143 0.859023
0.0639808 0.0953822 0.862332
0.0682182 0.094246 0.831756
0.0692945 0.0940499 0.825222
0.070605 0.0941851 0.822236
0.0720659 0.0945257 0.821423
0.0735159 0.0948543 0.820496
0.0749398 0.0951524 0.819261
0.0763587 0.0954491 0.818014
0.0777589 0.0957254 0.816575
0.0791715 0.0960208 0.815342
0.080612 0.0963527 0.814489
0.082086 0.0967253 0.814058
0.083579 0.0971211 0.813859
0.0850815 0.0975277 0.813772
0.0865898 0.0979404 0.813747
0.0880807 0.0983341 0.81353
0.0895713 0.0987273 0.813311
0.0910538 0.0991126 0.813012
0.0925361 0.0994973 0.812715
0.094016 0.0998803 0.812402
0.0954749 0.100242 0.811884
0.0969309 0.100603 0.811352
0.0983762 0.100953 0.810727
0.0998499 0.101333 0.810391
0.101336 0.101725 0.810177
0.102855 0.10215 0.810274
0.104387 0.102587 0.810481
0.105951 0.103055 0.810974
0.10755 0.103553 0.811754
0.109166 0.104065 0.812658
0.110767 0.10456 0.813397
0.112375 0.105062 0.814186
0.113983 0.105561 0.814942
0.115517 0.105992 0.815058
0.117119 0.106483 0.815729
0.119014 0.107229 0.818735
0.121105 0.108142 0.823224
0.123374 0.1092 0.828994
0.125608 0.110217 0.83434
0.12776 0.111153 0.838917
0.129605 0.111823 0.841068
0.132254 0.107435 0.773113
0.133479 0.107653 0.771533
0.134972 0.108082 0.771794
0.136505 0.108544 0.772312
0.138057 0.109017 0.772941
0.139642 0.109516 0.773773
0.141217 0.110005 0.774518
0.142791 0.110491 0.775235
0.144406 0.111007 0.776191
0.146005 0.11151 0.777032
0.147598 0.112007 0.77782
0.149261 0.112555 0.779013
0.15094 0.113112 0.78028
0.152648 0.113686 0.781685
0.154456 0.114332 0.783661
0.156282 0.114989 0.785702
0.158054 0.115602 0.787385
0.1598 0.116195 0.788889
0.161465 0.116729 0.789896
0.0511918 0.0940038 0.868238
0.0527317 0.0943486 0.867226
0.0542938 0.0947391 0.866707
0.0558705 0.0951542 0.866477
0.0574579 0.0955898 0.866453
0.0590224 0.0959854 0.866013
0.0605836 0.0963795 0.865543
0.0621114 0.0967215 0.86453
0.063635 0.097061 0.8635
0.0651808 0.0952601 0.85632
0.0649495 0.0970923 0.859212
0.0691017 0.0958446 0.828175
0.0703318 0.0958591 0.823971
0.0717396 0.096124 0.822382
0.0731836 0.0964407 0.821339
0.0745937 0.0967175 0.819895
0.075999 0.0969928 0.818445
0.0773852 0.0972468 0.816805
0.0787971 0.0975394 0.81555
0.0802317 0.0978608 0.814607
0.0817075 0.0982348 0.814188
0.0832027 0.0986316 0.814003
0.0847138 0.0990473 0.814004
0.0862157 0.0994519 0.813897
0.0877054 0.0998436 0.813656
0.0891955 0.100235 0.813424
0.0906781 0.10062 0.813116
0.0921616 0.101005 0.812826
0.0936435 0.101389 0.812521
0.0951046 0.101752 0.812017
0.0965628 0.102113 0.811495
0.0980088 0.102463 0.81087
0.0994832 0.102842 0.810529
0.10097 0.103234 0.810316
0.10249 0.10366 0.810417
0.104035 0.10411 0.810734
0.105643 0.104619 0.811611
0.1073 0.105174 0.812901
0.108968 0.105736 0.814238
0.110618 0.106278 0.815384
0.112274 0.106824 0.816552
0.113911 0.107348 0.817518
0.115535 0.107858 0.818341
0.117238 0.108439 0.819796
0.119251 0.109294 0.823709
0.121438 0.110295 0.828905
0.123627 0.111288 0.833983
0.125721 0.112189 0.838192
0.127691 0.112972 0.841338
0.129335 0.11347 0.84193
0.130841 0.111977 0.838606
0.130786 0.113802 0.841058
0.13147 0.111632 0.831725
0.13188 0.113833 0.837565
0.132689 0.109512 0.778537
0.133555 0.109435 0.774448
0.13477 0.109641 0.772796
0.136345 0.110135 0.773586
0.137932 0.110636 0.774425
0.139524 0.11114 0.775281
0.141116 0.111643 0.776121
0.14269 0.112131 0.776826
0.14428 0.112628 0.777611
0.145852 0.11311 0.778262
0.147458 0.113619 0.779116
0.149125 0.114169 0.780317
0.150827 0.114744 0.781707
0.152571 0.115348 0.783322
0.154401 0.116012 0.785415
0.156248 0.116686 0.787559
0.158052 0.117325 0.789416
0.159808 0.117926 0.790949
0.161461 0.118451 0.791871
0.049503 0.0957849 0.875248
0.0507428 0.095535 0.867745
0.052277 0.095868 0.866618
0.0538326 0.0962444 0.865968
0.0554091 0.0966616 0.86575
0.0569909 0.0970875 0.865632
0.058549 0.0974734 0.865091
0.060091 0.0978359 0.8643
0.0616029 0.0981527 0.86304
0.0631098 0.098466 0.861758
0.0645118 0.0986251 0.85887
0.0660666 0.0968513 0.852096
0.0657215 0.0985061 0.853138
0.0670879 0.0964995 0.84388
0.0667976 0.0982138 0.845665
0.068902 0.0976438 0.831066
0.0700537 0.0975355 0.825662
0.0714003 0.0977103 0.823175
0.0728436 0.0980222 0.822094
0.0742337 0.0982684 0.820355
0.0756239 0.0985186 0.818682
0.0770025 0.0987596 0.816928
0.0784149 0.0990492 0.81566
0.079844 0.0993621 0.81464
0.0813298 0.0997466 0.81433
0.0828354 0.100155 0.814257
0.0843487 0.100572 0.814272
0.0858508 0.100977 0.814156
0.0873411 0.101367 0.813907
0.0888312 0.101758 0.813665
0.0903062 0.102133 0.813267
0.0917986 0.102527 0.813059
0.0932812 0.10291 0.812751
0.0947433 0.103273 0.812244
0.0962027 0.103634 0.811725
0.0976604 0.103994 0.8112
0.0991381 0.104375 0.81088
0.100636 0.104778 0.810763
0.102168 0.105215 0.810957
0.103781 0.105733 0.811897
0.105458 0.106311 0.813384
0.107182 0.106931 0.815236
0.108904 0.107546 0.817026
0.110614 0.108144 0.818653
0.112279 0.108697 0.819843
0.113925 0.109227 0.820835
0.115617 0.1098 0.82219
0.11741 0.110461 0.824324
0.119503 0.111392 0.828839
0.121598 0.112316 0.833245
0.123663 0.113203 0.837297
0.125587 0.113956 0.840144
0.127394 0.114601 0.842015
0.128873 0.114955 0.841338
0.13031 0.115274 0.840367
0.131729 0.115578 0.839279
0.132947 0.11385 0.833959
0.133158 0.115894 0.838288
0.133047 0.111547 0.783465
0.133549 0.111162 0.776818
0.134464 0.111122 0.773107
0.136082 0.111651 0.774175
0.137711 0.112187 0.775286
0.139323 0.112708 0.776267
0.140948 0.113237 0.777301
0.142566 0.113758 0.778268
0.144186 0.11428 0.779234
0.145763 0.114766 0.779896
0.147399 0.115297 0.780924
0.149097 0.115872 0.782298
0.150821 0.116465 0.783803
0.152577 0.117079 0.785464
0.154415 0.117752 0.787584
0.156247 0.118416 0.789626
0.158039 0.119048 0.791385
0.159782 0.119642 0.792829
0.161426 0.12016 0.79368
0.0475115 0.0970142 0.87614
0.0487593 0.0967382 0.86844
0.0502984 0.0970745 0.867346
0.0518233 0.0973879 0.866023
0.0533787 0.0977633 0.865373
0.054955 0.0981798 0.865153
0.0565308 0.0985958 0.864932
0.0580828 0.098971 0.864289
0.0596178 0.0993208 0.863382
0.0611103 0.0996049 0.861801
0.0626014 0.0998928 0.860274
0.0640654 0.100144 0.858388
0.0653553 0.100135 0.853873
0.0664948 0.0999201 0.847292
0.0678525 0.0979201 0.838237
0.0676215 0.0997107 0.84083
0.0687166 0.0994795 0.83421
0.0698248 0.0992902 0.828074
0.0711155 0.099377 0.824736
0.0725394 0.0996581 0.823347
0.0739438 0.0999155 0.821748
0.0753101 0.100129 0.819723
0.0766756 0.100347 0.817766
0.078081 0.100623 0.816379
0.0795021 0.100922 0.815234
0.0809458 0.101252 0.814401
0.0824669 0.10168 0.814504
0.0839818 0.102099 0.814526
0.0854933 0.102513 0.814504
0.0869946 0.102915 0.814365
0.0884954 0.103316 0.814221
0.0899644 0.103683 0.813743
0.0914574 0.104076 0.813525
0.0929391 0.104457 0.813194
0.0944009 0.104817 0.812669
0.0958617 0.105178 0.812149
0.0973318 0.105548 0.81173
0.0988404 0.105961 0.811695
0.100363 0.106389 0.811794
0.101908 0.106837 0.81209
0.103587 0.107422 0.813619
0.105335 0.108074 0.81573
0.107106 0.108742 0.817973
0.108875 0.109403 0.820141
0.110635 0.11005 0.822157
0.112304 0.110603 0.823332
0.113967 0.111149 0.824426
0.115696 0.111754 0.826029
0.117524 0.112449 0.828412
0.119536 0.113309 0.832217
0.121502 0.114119 0.835555
0.123422 0.11488 0.838441
0.125206 0.11551 0.840178
0.126887 0.116045 0.841077
0.128368 0.116401 0.840427
0.129807 0.11672 0.839466
0.131213 0.117013 0.838287
0.132637 0.117322 0.837267
0.133855 0.115592 0.832015
0.133682 0.117308 0.833512
0.135189 0.11345 0.780402
0.136532 0.113752 0.779551
0.137915 0.114086 0.778973
0.139305 0.114427 0.778455
0.14095 0.114971 0.779597
0.142578 0.1155 0.780604
0.14421 0.116032 0.781614
0.145794 0.116523 0.782297
0.147437 0.117058 0.783334
0.149114 0.117618 0.784554
0.150845 0.118218 0.786082
0.15259 0.118825 0.787656
0.154429 0.119501 0.789765
0.156246 0.120157 0.791698
0.158024 0.120778 0.793356
0.0452264 0.0976107 0.870251
0.0467667 0.0979349 0.869029
0.0483009 0.0982511 0.867744
0.0498401 0.0985856 0.866651
0.0513647 0.0988966 0.865323
0.052919 0.09927 0.864658
0.0544886 0.0996748 0.86432
0.056058 0.10008 0.863992
0.0576091 0.100454 0.863347
0.0591437 0.100802 0.862441
0.0606358 0.101084 0.860859
0.0621208 0.101358 0.859233
0.0635648 0.101576 0.857032
0.064911 0.101648 0.853396
0.0661107 0.101509 0.847693
0.0672982 0.101375 0.84208
0.0684511 0.101212 0.836226
0.0696316 0.10111 0.83103
0.0709097 0.101166 0.827423
0.0723302 0.101432 0.825909
0.0737476 0.1017 0.824413
0.0751194 0.101912 0.822386
0.0764896 0.102127 0.820416
0.0778761 0.102369 0.818722
0.0792749 0.102634 0.817248
0.0806853 0.102916 0.815962
0.0821846 0.103314 0.815771
0.0836698 0.103694 0.81542
0.0851765 0.104101 0.815321
0.086672 0.104494 0.815095
0.0881678 0.104888 0.814879
0.0896307 0.105244 0.814311
0.0911157 0.105628 0.813995
0.0925976 0.106007 0.81365
0.0940787 0.106387 0.813307
0.0955602 0.106768 0.812977
0.0970626 0.107172 0.812858
0.0986135 0.107629 0.813213
0.100172 0.108091 0.813623
0.101734 0.108557 0.814051
0.103463 0.109195 0.816019
0.105266 0.109902 0.818588
0.107065 0.110601 0.821053
0.108851 0.111279 0.823323
0.110633 0.111948 0.825495
0.112305 0.112503 0.826642
0.113976 0.113055 0.827756
0.115735 0.113689 0.829573
0.117586 0.114406 0.832098
0.119489 0.115166 0.834976
0.121324 0.115856 0.837221
0.123107 0.116493 0.838996
0.124769 0.117014 0.839771
0.126342 0.117454 0.839845
0.127837 0.117821 0.839305
0.129289 0.11815 0.838452
0.130707 0.118452 0.837364
0.132119 0.11875 0.836258
0.133489 0.119013 0.834867
0.134386 0.11701 0.827396
0.134539 0.119001 0.831204
0.136029 0.115905 0.788525
0.137114 0.115983 0.78584
0.138236 0.116097 0.783454
0.139391 0.11624 0.781337
0.141076 0.116817 0.782708
0.142699 0.117342 0.783651
0.144327 0.117868 0.784601
0.14592 0.118366 0.785309
0.147556 0.118895 0.786274
0.149208 0.119435 0.787312
0.150927 0.120026 0.788732
0.152629 0.1206 0.790023
0.15444 0.121256 0.791938
0.156226 0.12189 0.793666
0.157988 0.122504 0.795222
0.0442342 0.098544 0.884946
0.0421932 0.0997364 0.885283
0.0434924 0.099433 0.877398
0.0447716 0.0991343 0.869635
0.0463115 0.0994542 0.868396
0.0478456 0.099769 0.86711
0.0493806 0.100094 0.86593
0.0509051 0.100402 0.8646
0.0524582 0.100773 0.863915
0.0540204 0.101164 0.863447
0.0555838 0.101558 0.863015
0.0571338 0.10193 0.862361
0.0586681 0.102279 0.861467
0.0601618 0.102559 0.859911
0.0616412 0.102824 0.858203
0.0630719 0.103015 0.855784
0.0644689 0.103163 0.852953
0.0657306 0.103108 0.84817
0.0669865 0.103065 0.843529
0.06821 0.102993 0.838634
0.0694681 0.102988 0.834449
0.0707476 0.103031 0.830756
0.0721733 0.103295 0.829225
0.073599 0.103564 0.827752
0.0749726 0.103767 0.825655
0.0763446 0.103975 0.823623
0.0777128 0.104183 0.821619
0.079074 0.10439 0.819607
0.080451 0.104622 0.817858
0.0819331 0.104995 0.817421
0.083402 0.10535 0.816839
0.0849035 0.105748 0.816646
0.0864097 0.106152 0.816512
0.0879094 0.106548 0.816305
0.0893735 0.106902 0.815717
0.0908515 0.107274 0.815295
0.0923263 0.107642 0.814847
0.0938036 0.108015 0.814436
0.0952923 0.108402 0.814154
0.0968087 0.108818 0.814148
0.0983748 0.10929 0.814625
0.0999574 0.109779 0.815244
0.101548 0.110273 0.815916
0.103336 0.110974 0.8184
0.105178 0.111726 0.821306
0.107004 0.112452 0.823971
0.108802 0.113145 0.826313
0.110595 0.113825 0.828538
0.112259 0.114371 0.829578
0.113928 0.114918 0.830625
0.115701 0.115566 0.832523
0.117476 0.11621 0.834376
0.119272 0.116871 0.836353
0.120985 0.117448 0.837606
0.122661 0.117987 0.838519
0.124226 0.118419 0.838537
0.125797 0.118858 0.838603
0.127303 0.119235 0.838157
0.128768 0.119576 0.837411
0.130188 0.119879 0.836349
0.131602 0.120177 0.835257
0.132971 0.120438 0.833867
0.134325 0.120687 0.832394
0.134948 0.118446 0.823068
0.135104 0.120437 0.82685
0.138875 0.118391 0.790081
0.139769 0.118309 0.786164
0.141237 0.118706 0.786071
0.142837 0.11921 0.786829
0.144442 0.119717 0.787598
0.146036 0.120214 0.788283
0.147673 0.120743 0.789214
0.1493 0.121262 0.790062
0.150975 0.121819 0.791196
0.152658 0.122378 0.79234
0.15444 0.123013 0.794055
0.156187 0.123619 0.795534
0.15794 0.124227 0.797017
0.0412169 0.0999933 0.871252
0.0427716 0.100333 0.870212
0.0443108 0.100643 0.86887
0.0458501 0.10096 0.867621
0.0473844 0.101274 0.866345
0.048916 0.101589 0.865089
0.0504404 0.101895 0.863761
0.0519917 0.102262 0.863053
0.0535483 0.102642 0.862481
0.0551098 0.103035 0.862034
0.0566595 0.103407 0.861392
0.0581941 0.103754 0.860507
0.0596932 0.104043 0.859055
0.0611684 0.104297 0.857275
0.0625863 0.104463 0.854646
0.0639806 0.104602 0.851773
0.0652946 0.104623 0.847792
0.0666 0.104647 0.843871
0.0678879 0.10466 0.839876
0.0692243 0.104762 0.836762
0.0705664 0.104884 0.833866
0.0720014 0.105152 0.832373
0.0734492 0.105444 0.831117
0.0748441 0.105664 0.829207
0.0762262 0.105875 0.827212
0.0775873 0.106063 0.825027
0.0789352 0.106241 0.822764
0.0802881 0.106432 0.820644
0.0817463 0.106767 0.819857
0.0831846 0.107079 0.818866
0.0846787 0.107463 0.818544
0.0861794 0.107855 0.818302
0.0876641 0.10823 0.81789
0.0891385 0.108592 0.817378
0.0906357 0.108984 0.817124
0.0921156 0.109354 0.81669
0.093598 0.109729 0.816296
0.0951008 0.110128 0.816115
0.0966132 0.110538 0.816034
0.0981838 0.111013 0.816523
0.0998008 0.111537 0.817438
0.101437 0.11208 0.818508
0.103273 0.112834 0.821402
0.105131 0.113604 0.824416
0.106936 0.11431 0.82685
0.108702 0.114969 0.828866
0.110452 0.115607 0.830677
0.112089 0.116125 0.831457
0.113754 0.116669 0.832447
0.115476 0.117267 0.833885
0.117198 0.117861 0.835285
0.118927 0.118459 0.836693
0.120561 0.11896 0.837297
0.12217 0.119437 0.837686
0.123732 0.119868 0.837683
0.125278 0.120283 0.837557
0.126771 0.12065 0.837025
0.128235 0.120989 0.83628
0.129656 0.121291 0.835223
0.131069 0.121586 0.834133
0.132453 0.121859 0.832859
0.133819 0.122117 0.831479
0.134918 0.12214 0.828211
0.135861 0.120178 0.821281
0.136009 0.122164 0.824968
0.136606 0.119919 0.815753
0.137112 0.122204 0.821884
0.138028 0.118521 0.794403
0.139547 0.120742 0.79697
0.140226 0.120464 0.791539
0.141457 0.120658 0.789837
0.142989 0.121103 0.790103
0.144564 0.121584 0.790648
0.146144 0.122067 0.791208
0.147741 0.122564 0.791862
0.14934 0.12306 0.79251
0.150986 0.123592 0.793433
0.152655 0.124142 0.794475
0.154411 0.124758 0.796016
0.156148 0.125357 0.797416
0.157891 0.125958 0.798818
0.0367412 0.0995547 0.880529
0.034493 0.100098 0.874158
0.0360609 0.100445 0.873182
0.0380909 0.099291 0.873119
0.0376324 0.10081 0.872393
0.0396596 0.0996553 0.87231
0.0391964 0.101158 0.871449
0.0407493 0.101486 0.870295
0.0422994 0.101814 0.86915
0.043838 0.102119 0.867802
0.0453808 0.102444 0.86665
0.0469152 0.102759 0.86539
0.0484474 0.103072 0.864151
0.0499762 0.103387 0.862925
0.0515268 0.103752 0.86221
0.0530777 0.104122 0.861542
0.0546389 0.104515 0.861106
0.0561883 0.104886 0.860467
0.0577219 0.105231 0.859576
0.0592209 0.105518 0.858126
0.0606895 0.105758 0.856237
0.0620953 0.105899 0.853411
0.0634886 0.106031 0.850522
0.0648535 0.106129 0.847333
0.0662113 0.106229 0.844189
0.0675645 0.106333 0.841119
0.0689767 0.106542 0.83905
0.0703817 0.106748 0.836966
0.071825 0.107018 0.835502
0.073293 0.107329 0.834433
0.0747011 0.107559 0.832614
0.0760876 0.107765 0.830585
0.0774482 0.10794 0.828303
0.0787946 0.108105 0.825936
0.0801412 0.108278 0.823659
0.0815784 0.108577 0.822551
0.083003 0.108864 0.821334
0.0844909 0.109235 0.820887
0.085979 0.109607 0.820454
0.0874494 0.109959 0.819836
0.0889441 0.110342 0.819502
0.0904551 0.110745 0.819349
0.0919598 0.111142 0.819133
0.0934748 0.111551 0.819026
0.0949897 0.111959 0.818917
0.0964935 0.112354 0.818697
0.0980649 0.112827 0.819146
0.0996869 0.113355 0.820069
0.101342 0.113916 0.821271
0.103165 0.114659 0.824016
0.105005 0.115411 0.826822
0.106766 0.116072 0.828829
0.108476 0.116673 0.830311
0.110163 0.117247 0.831547
0.111802 0.117766 0.832325
0.113468 0.118312 0.833307
0.115168 0.11889 0.834556
0.116865 0.119461 0.835736
0.118554 0.120021 0.83681
0.120136 0.120472 0.836983
0.121695 0.120901 0.836973
0.123243 0.121319 0.836865
0.124764 0.12171 0.836547
0.126256 0.122075 0.836009
0.12773 0.122424 0.83535
0.129149 0.122723 0.834288
0.130563 0.123019 0.833209
0.131959 0.1233 0.832021
0.133339 0.123569 0.830742
0.134717 0.123838 0.82948
0.136106 0.12412 0.82832
0.137508 0.124416 0.827279
0.138344 0.121462 0.809251
0.139261 0.124094 0.818053
0.139735 0.123596 0.810859
0.140679 0.122639 0.796919
0.141741 0.122681 0.794038
0.143163 0.12303 0.793553
0.144658 0.123442 0.793546
0.146211 0.123901 0.793898
0.147768 0.124363 0.794269
0.14933 0.124829 0.794667
0.150952 0.12534 0.795412
0.15261 0.125882 0.796368
0.154339 0.126477 0.797728
0.156069 0.127071 0.799064
0.157797 0.127662 0.800368
0.0331158 0.100367 0.881597
0.0310837 0.101591 0.882279
0.03247 0.101287 0.874576
0.0340456 0.101649 0.873757
0.03561 0.101983 0.872664
0.0371811 0.102344 0.871855
0.0387408 0.102681 0.870798
0.04029 0.102996 0.869538
0.0418317 0.103301 0.868183
0.0433699 0.103606 0.866843
0.0449126 0.10393 0.865699
0.0464477 0.104242 0.864456
0.0479795 0.104556 0.863226
0.0495171 0.104888 0.862192
0.051068 0.105254 0.861491
0.0526142 0.105613 0.860735
0.0541756 0.106005 0.860306
0.055724 0.106376 0.85966
0.0572514 0.106707 0.858661
0.0587494 0.106991 0.8572
0.060205 0.107205 0.855093
0.0616103 0.107341 0.852259
0.0630031 0.107467 0.849366
0.0644011 0.107614 0.846692
0.0657896 0.107758 0.844005
0.0671941 0.107939 0.841684
0.0686517 0.108213 0.84024
0.0701082 0.10849 0.838844
0.0715717 0.108783 0.837602
0.0730374 0.109085 0.836444
0.0744683 0.109339 0.834864
0.075874 0.109563 0.833018
0.0772437 0.109741 0.830784
0.0785998 0.109909 0.828466
0.0799826 0.110122 0.826565
0.0814114 0.110402 0.825288
0.0828338 0.110678 0.823978
0.0843094 0.111028 0.823331
0.0857925 0.111388 0.822786
0.0872579 0.111728 0.822063
0.0887666 0.112124 0.821834
0.0902863 0.112534 0.821728
0.0918101 0.112949 0.821663
0.0933398 0.113371 0.821661
0.0948641 0.113786 0.821597
0.0963775 0.114187 0.821423
0.0979426 0.114649 0.821761
0.0995775 0.11519 0.822767
0.101239 0.115758 0.823991
0.103019 0.116453 0.826285
0.104798 0.117142 0.828503
0.106509 0.11775 0.830027
0.108161 0.11829 0.830974
0.109793 0.118806 0.831709
0.111441 0.119337 0.832564
0.113085 0.11986 0.833352
0.114772 0.120427 0.834486
0.116455 0.120986 0.835548
0.11812 0.121523 0.836422
0.119667 0.12194 0.836314
0.121224 0.122369 0.836293
0.122771 0.122785 0.836177
0.124279 0.123164 0.835762
0.125769 0.123526 0.835214
0.127228 0.12386 0.834443
0.128646 0.124156 0.833371
0.130035 0.124426 0.832109
0.131429 0.124705 0.83092
0.13281 0.124973 0.829649
0.134186 0.12524 0.828377
0.135574 0.12552 0.827218
0.136972 0.12581 0.826153
0.138651 0.124485 0.82446
0.138287 0.126029 0.824532
0.139085 0.125791 0.819389
0.139751 0.125447 0.813466
0.140987 0.124711 0.801366
0.141914 0.124626 0.797541
0.143266 0.12491 0.796554
0.144707 0.125274 0.796161
0.146221 0.125698 0.796239
0.147754 0.126138 0.796427
0.149317 0.126604 0.796812
0.150916 0.127096 0.797391
0.152581 0.127643 0.798367
0.154285 0.128219 0.79956
0.155984 0.12879 0.800692
0.15768 0.129354 0.801785
0.0297586 0.102201 0.893244
0.027546 0.102823 0.88761
0.0290673 0.10289 0.883718
0.030447 0.102488 0.875101
0.0320223 0.102841 0.874184
0.0335952 0.103192 0.873268
0.0351564 0.103511 0.872056
0.0367265 0.10387 0.871229
0.0382827 0.104194 0.870068
0.0398314 0.104507 0.868799
0.0413735 0.10481 0.86745
0.0429156 0.105123 0.866206
0.0444582 0.105445 0.865062
0.045994 0.105758 0.863836
0.0475263 0.10607 0.86261
0.0490689 0.106411 0.86168
0.0506202 0.106776 0.860986
0.0521618 0.107124 0.860137
0.0537171 0.107505 0.859599
0.0552588 0.107861 0.85883
0.056774 0.108169 0.857619
0.05826 0.108428 0.855953
0.0597086 0.108627 0.853736
0.0611182 0.108766 0.850979
0.0625177 0.1089 0.848199
0.0639301 0.109067 0.845757
0.0653401 0.109242 0.843398
0.0667797 0.109476 0.841595
0.0682606 0.109785 0.840481
0.0697345 0.110085 0.839311
0.0712127 0.110396 0.838249
0.0726872 0.110707 0.837182
0.074114 0.110949 0.835514
0.0755236 0.111172 0.833685
0.0769186 0.111382 0.831747
0.0783034 0.111582 0.82975
0.0797163 0.11183 0.828177
0.0811748 0.112145 0.827214
0.0826258 0.112452 0.82619
0.0841054 0.112802 0.825539
0.0855919 0.113162 0.824984
0.0870617 0.113502 0.82426
0.0885831 0.113909 0.824123
0.0901185 0.114335 0.824139
0.091659 0.114766 0.824203
0.0931965 0.115193 0.824232
0.0947271 0.115612 0.824187
0.0962369 0.116004 0.823925
0.0977859 0.116445 0.824061
0.0993965 0.116955 0.824787
0.101048 0.117511 0.825888
0.102778 0.118151 0.82768
0.104501 0.11878 0.829361
0.106174 0.119347 0.83052
0.107799 0.119858 0.831213
0.109386 0.120326 0.831545
0.111023 0.120846 0.832299
0.112653 0.121357 0.832965
0.114315 0.1219 0.833889
0.115985 0.122448 0.834849
0.117649 0.122988 0.835734
0.119209 0.123419 0.835732
0.12078 0.12386 0.835819
0.122337 0.124289 0.835799
0.123833 0.124654 0.835282
0.12531 0.125002 0.83463
0.126754 0.125321 0.833744
0.128158 0.125602 0.832572
0.129546 0.12587 0.831304
0.130942 0.126148 0.830123
0.132335 0.126426 0.828947
0.133711 0.126691 0.827677
0.135097 0.126967 0.826505
0.136478 0.127241 0.825321
0.137786 0.12745 0.82365
0.138732 0.127336 0.819519
0.139556 0.127121 0.814651
0.14035 0.125056 0.80722
0.140333 0.126875 0.809575
0.141116 0.126644 0.804645
0.142011 0.126519 0.800556
0.143306 0.126751 0.799163
0.144719 0.127086 0.798558
0.146207 0.127486 0.798441
0.147729 0.127914 0.798537
0.149299 0.128384 0.79893
0.150886 0.128866 0.79942
0.152551 0.129412 0.800373
0.154227 0.129966 0.801373
0.155893 0.130509 0.802288
0.0268593 0.103421 0.87737
0.0284319 0.103735 0.876069
0.0300022 0.104055 0.874828
0.0315748 0.104394 0.873793
0.0331449 0.104732 0.872768
0.0347059 0.105052 0.871557
0.0362732 0.105399 0.870631
0.0378258 0.10571 0.869363
0.039375 0.106021 0.868103
0.0409164 0.106321 0.866742
0.0424585 0.106631 0.865494
0.0440052 0.106962 0.864449
0.0455415 0.107274 0.863232
0.0470739 0.107584 0.86201
0.0486213 0.107935 0.861184
0.050173 0.108299 0.860493
0.0517095 0.108636 0.859542
0.0532581 0.109002 0.858875
0.0547917 0.109341 0.85796
0.0562895 0.109613 0.856432
0.0577578 0.109837 0.854466
0.0591997 0.110021 0.852146
0.0606142 0.110165 0.849485
0.0620201 0.110307 0.84682
0.0634462 0.110496 0.844609
0.0648771 0.110704 0.842582
0.0663314 0.110958 0.840998
0.0678203 0.111277 0.84
0.0692953 0.111578 0.838843
0.0707809 0.111899 0.837882
0.072263 0.11222 0.836915
0.073705 0.112481 0.835439
0.075132 0.112725 0.833826
0.0765519 0.112966 0.832184
0.0779699 0.11321 0.830584
0.0794104 0.113491 0.82932
0.0808911 0.113831 0.828589
0.0823629 0.114163 0.827778
0.0838473 0.114514 0.827141
0.0853289 0.114863 0.82649
0.086801 0.115202 0.825755
0.0883344 0.115622 0.825717
0.0898818 0.116059 0.825829
0.0914424 0.116513 0.826074
0.0930023 0.116965 0.826298
0.0945487 0.117399 0.826373
0.0960668 0.117798 0.826155
0.0976143 0.118233 0.826234
0.0992071 0.11872 0.826749
0.100837 0.11925 0.827601
0.102502 0.119816 0.82876
0.104158 0.120369 0.829791
0.105772 0.120872 0.830406
0.107352 0.121335 0.83069
0.108899 0.12176 0.830662
0.110524 0.12227 0.831328
0.11214 0.122767 0.831881
0.113786 0.123296 0.832684
0.115451 0.123843 0.83362
0.117128 0.124398 0.834618
0.118713 0.124857 0.83484
0.12031 0.125326 0.835145
0.121893 0.12578 0.835325
0.123388 0.126145 0.83481
0.124864 0.126491 0.834149
0.126307 0.126807 0.833252
0.127711 0.127086 0.832076
0.129098 0.127351 0.830801
0.130495 0.127629 0.82963
0.131887 0.127904 0.828445
0.133252 0.128155 0.827093
0.134626 0.128417 0.825827
0.135994 0.128677 0.824551
0.137302 0.128885 0.822886
0.138368 0.128874 0.819581
0.13932 0.128765 0.815567
0.140229 0.128627 0.811354
0.141138 0.128496 0.807228
0.142136 0.128452 0.803776
0.143393 0.128643 0.802091
0.144792 0.128962 0.80136
0.146256 0.129337 0.801055
0.147752 0.129742 0.800959
0.14931 0.130199 0.801247
0.150885 0.13067 0.801637
0.152522 0.131193 0.802395
0.154152 0.131708 0.803095
0.155771 0.132212 0.803711
0.0252708 0.103053 0.87813
0.0248322 0.104664 0.878238
0.0264182 0.105013 0.877312
0.0279887 0.105314 0.875893
0.0295582 0.105622 0.874574
0.0311246 0.105937 0.873303
0.0326917 0.106261 0.872161
0.0342525 0.106578 0.87094
0.0358191 0.106923 0.870003
0.0373726 0.107234 0.868758
0.038926 0.107555 0.86761
0.0404718 0.107864 0.866354
0.0420142 0.108173 0.865106
0.0435614 0.108502 0.864061
0.0451025 0.108822 0.862942
0.0466359 0.109132 0.861728
0.048184 0.109482 0.860906
0.0497358 0.109845 0.860213
0.0512675 0.110168 0.859149
0.0527998 0.110498 0.858158
0.0543259 0.110821 0.857102
0.0558155 0.111074 0.855429
0.0572721 0.111271 0.853253
0.0587134 0.111452 0.850934
0.0601342 0.111604 0.848385
0.0615482 0.111756 0.845852
0.0629764 0.111946 0.843677
0.0644213 0.112174 0.841865
0.0658814 0.112437 0.840373
0.0673713 0.112756 0.839389
0.0688335 0.113033 0.838046
0.0703117 0.113342 0.836986
0.0717795 0.113638 0.835822
0.0732211 0.113897 0.834351
0.0746564 0.114152 0.832854
0.0761068 0.114437 0.831615
0.0775583 0.114726 0.830433
0.0790332 0.115055 0.82959
0.0805408 0.115432 0.829173
0.0820396 0.115799 0.828664
0.0835275 0.11615 0.82804
0.0850108 0.116498 0.827381
0.0864931 0.116847 0.826735
0.0880188 0.117255 0.826588
0.089559 0.117682 0.826601
0.0911377 0.118157 0.82702
0.0927173 0.118632 0.82743
0.0942791 0.119083 0.827639
0.095821 0.119509 0.827635
0.0973722 0.119946 0.827721
0.0989353 0.120397 0.827918
0.100522 0.120875 0.828338
0.102131 0.121376 0.82894
0.103731 0.121867 0.829451
0.10531 0.122329 0.82974
0.106869 0.12277 0.829838
0.108406 0.123184 0.829726
0.110009 0.123672 0.830207
0.111599 0.124144 0.830552
0.113216 0.124645 0.831119
0.114867 0.125179 0.831949
0.116542 0.125736 0.832957
0.118166 0.126237 0.833514
0.119801 0.12675 0.834152
0.121423 0.127245 0.834651
0.122943 0.127636 0.834336
0.124431 0.127993 0.833771
0.125874 0.128308 0.832873
0.127279 0.128585 0.831698
0.128667 0.128848 0.830426
0.130065 0.129125 0.829259
0.131459 0.1294 0.828084
0.132811 0.129636 0.82663
0.134184 0.129896 0.825363
0.135553 0.130154 0.824094
0.136856 0.130353 0.822384
0.138023 0.130429 0.81977
0.139122 0.130448 0.816748
0.140157 0.130415 0.813358
0.141191 0.130388 0.810036
0.142305 0.130438 0.807313
0.143564 0.130624 0.805594
0.144927 0.130905 0.80458
0.146362 0.131253 0.804057
0.147835 0.131633 0.803776
0.149367 0.132065 0.803869
0.150885 0.132486 0.803874
0.152463 0.132956 0.804242
0.154029 0.133417 0.804538
0.155586 0.133868 0.804762
0.0228071 0.10594 0.879431
0.0243923 0.10627 0.878298
0.0259763 0.106606 0.877243
0.0275449 0.10689 0.875688
0.0291128 0.10719 0.87429
0.0306742 0.107479 0.872804
0.0322407 0.107802 0.871652
0.0338018 0.108113 0.870412
0.0353687 0.108456 0.869475
0.036926 0.108778 0.868341
0.0384838 0.109109 0.867304
0.0400351 0.10943 0.866176
0.0415788 0.109738 0.86494
0.0431269 0.110066 0.863898
0.0446688 0.110385 0.862779
0.0462031 0.110693 0.861566
0.0477473 0.111031 0.860644
0.0492945 0.111382 0.859845
0.0508209 0.111691 0.858665
0.0523422 0.111995 0.857451
0.0538623 0.112302 0.856279
0.0553457 0.112541 0.854494
0.0568014 0.112733 0.852302
0.058237 0.112897 0.849878
0.0596582 0.113046 0.847337
0.0610794 0.113208 0.844927
0.062509 0.113397 0.842776
0.0639611 0.113635 0.841078
0.0654269 0.113906 0.839675
0.0669029 0.1142 0.838487
0.0683489 0.114449 0.83691
0.0698175 0.11474 0.835723
0.0712693 0.11501 0.834352
0.0727107 0.115268 0.832893
0.0741668 0.115555 0.831691
0.0756428 0.115878 0.830796
0.0771206 0.116206 0.829958
0.0786152 0.116561 0.829355
0.080139 0.116961 0.829134
0.081647 0.117339 0.828725
0.0831361 0.117691 0.828105
0.084629 0.11805 0.827548
0.0861277 0.118419 0.827073
0.0876466 0.118816 0.826837
0.0891789 0.119232 0.826754
0.0907495 0.119698 0.827079
0.0923119 0.120151 0.827302
0.0938735 0.120602 0.827507
0.0954338 0.121051 0.827688
0.0969955 0.1215 0.827871
0.0985581 0.121949 0.828055
0.100132 0.122412 0.82834
0.101697 0.122863 0.828524
0.103253 0.123302 0.828615
0.104808 0.12374 0.828699
0.106355 0.124166 0.82869
0.107891 0.12458 0.828586
0.109481 0.125057 0.828963
0.111055 0.125513 0.829184
0.112644 0.125984 0.82952
0.114267 0.126492 0.830136
0.115928 0.127039 0.831054
0.117576 0.12757 0.831837
0.11924 0.128116 0.832722
0.120889 0.128642 0.833463
0.122447 0.129073 0.833457
0.12396 0.129456 0.833094
0.125418 0.129784 0.832311
0.126849 0.130086 0.831337
0.128254 0.130363 0.830186
0.129652 0.130638 0.829013
0.131045 0.130909 0.827831
0.132395 0.131141 0.826359
0.133768 0.131399 0.825086
0.135152 0.13167 0.823917
0.136511 0.131918 0.822596
0.137768 0.132073 0.820592
0.138963 0.132175 0.818208
0.14011 0.132237 0.81555
0.141241 0.132289 0.812833
0.142407 0.132378 0.810413
0.143673 0.132565 0.808704
0.145037 0.132842 0.807662
0.146433 0.133149 0.806845
0.147876 0.133499 0.806341
0.149365 0.133891 0.806134
0.150839 0.13427 0.805837
0.15237 0.134699 0.805896
0.0207545 0.107094 0.879403
0.0223514 0.107472 0.878742
0.0239401 0.107817 0.877776
0.0255227 0.108144 0.876654
0.0270911 0.108424 0.875079
0.0286622 0.108732 0.87379
0.0302237 0.109018 0.872294
0.0317873 0.109326 0.871025
0.0333474 0.109636 0.869766
0.0349147 0.109979 0.868843
0.0364765 0.110312 0.867835
0.0380392 0.110657 0.866935
0.0395987 0.110999 0.866017
0.0411439 0.111306 0.864791
0.0426932 0.111633 0.863758
0.0442352 0.111949 0.862626
0.0457748 0.112266 0.861512
0.0473158 0.112594 0.860503
0.0488584 0.112931 0.859586
0.0503842 0.113234 0.858377
0.0518953 0.113514 0.856951
0.0534057 0.113797 0.855586
0.0548846 0.114023 0.853711
0.0563356 0.114201 0.851429
0.0577711 0.114361 0.848999
0.0591922 0.114506 0.846455
0.0606132 0.114663 0.84404
0.0620434 0.114848 0.841894
0.0635008 0.115095 0.840288
0.0649546 0.115341 0.838697
0.0664157 0.115608 0.837291
0.0678511 0.115837 0.83557
0.0693023 0.116099 0.834149
0.0707355 0.116338 0.832536
0.0721813 0.116604 0.831165
0.0736524 0.116915 0.830187
0.0751544 0.117278 0.829652
0.0766657 0.117657 0.829254
0.0781854 0.118051 0.828976
0.0797173 0.118462 0.828851
0.0812316 0.118849 0.828517
0.0827206 0.1192 0.82789
0.0842072 0.119548 0.827254
0.0856993 0.119907 0.826701
0.0872099 0.120292 0.82637
0.0887322 0.120695 0.826178
0.0902925 0.121147 0.826397
0.0918536 0.121601 0.826616
0.0934142 0.122052 0.826816
0.0949735 0.122501 0.826993
0.0965341 0.122949 0.82717
0.0980777 0.123377 0.827175
0.0996408 0.123828 0.827363
0.101204 0.124278 0.827547
0.102759 0.124716 0.827631
0.104313 0.125154 0.827713
0.105867 0.125591 0.827787
0.107402 0.126005 0.827679
0.108968 0.126455 0.82785
0.110527 0.126896 0.827947
0.112087 0.127337 0.828053
0.113682 0.127817 0.828447
0.115327 0.128351 0.829252
0.116996 0.128908 0.830229
0.118673 0.129471 0.831243
0.12035 0.13003 0.83222
0.121946 0.130502 0.832533
0.123497 0.130926 0.832478
0.124985 0.131282 0.831921
0.126445 0.131613 0.831174
0.127878 0.131918 0.83023
0.129289 0.132203 0.829151
0.130671 0.13246 0.827869
0.132019 0.132687 0.826378
0.13338 0.132928 0.825003
