ply
format ascii 1.0
element vertex 1693
property float x
property float y
property float z
end_header
-0.133975 0.281505 0.663128
-0.132387 0.28195 0.662164
-0.130804 0.282401 0.66122
-0.129263 0.282948 0.660566
-0.12771 0.28346 0.659811
-0.12611 0.283844 0.658679
-0.124519 0.284243 0.657598
-0.122941 0.284666 0.656593
-0.121371 0.285102 0.655628
-0.1198 0.285524 0.65463
-0.118276 0.286069 0.653991
-0.116763 0.286641 0.653435
-0.115254 0.287218 0.652897
-0.113751 0.287807 0.652394
-0.112293 0.288526 0.652267
-0.110835 0.289244 0.65214
-0.109377 0.289963 0.652013
-0.107919 0.290681 0.651887
-0.106471 0.291431 0.65185
-0.105086 0.292385 0.652395
-0.103789 0.293633 0.653773
-0.102562 0.295127 0.655843
-0.101406 0.296892 0.65867
-0.100302 0.29887 0.662086
-0.0991491 0.300721 0.665129
-0.0979637 0.302499 0.66795
-0.0967763 0.30431 0.670848
-0.0955358 0.305965 0.673296
-0.09425 0.307485 0.675356
-0.0929328 0.308915 0.677154
-0.0915395 0.310076 0.678194
-0.0900642 0.310927 0.678371
-0.0884689 0.311294 0.677203
-0.0868051 0.311363 0.675221
-0.0850897 0.311184 0.672563
-0.08335 0.310862 0.669523
-0.0816167 0.310522 0.666446
-0.0799601 0.31048 0.664201
-0.0783303 0.310528 0.66221
-0.0767307 0.310687 0.660528
-0.0751515 0.310918 0.659051
-0.0735401 0.310966 0.657084
-0.0719394 0.311035 0.65518
-0.0703358 0.311057 0.653159
-0.0687485 0.31113 0.651284
-0.0671633 0.311181 0.649359
-0.0656283 0.311478 0.6481
-0.0641037 0.311812 0.646946
-0.0626028 0.312266 0.646114
-0.0611177 0.3128 0.6455
-0.0596627 0.313512 0.645363
-0.0582034 0.314197 0.645151
-0.0567496 0.314915 0.64503
-0.0552745 0.315489 0.644525
-0.0537933 0.316009 0.643882
-0.0522976 0.316411 0.642932
-0.0507999 0.316776 0.641888
-0.0493014 0.31711 0.640768
-0.0478233 0.317582 0.640012
-0.0463572 0.318138 0.639475
-0.0448981 0.318742 0.639067
-0.0434561 0.319492 0.639039
-0.0420179 0.320282 0.639111
-0.0405865 0.321145 0.639372
-0.0391548 0.322018 0.639659
-0.0377317 0.323 0.640222
-0.0363043 0.323958 0.640722
-0.0348743 0.324913 0.641211
-0.0334333 0.325753 0.641403
-0.0319792 0.326435 0.64119
-0.0305183 0.327018 0.640729
-0.0290608 0.327634 0.640351
-0.0276098 0.328339 0.640202
-0.0261628 0.329113 0.640224
-0.0247339 0.330228 0.641107
-0.0233037 0.331388 0.642096
-0.0218706 0.332557 0.643106
-0.0204363 0.333795 0.644282
-0.0189992 0.335069 0.645542
-0.0175528 0.336205 0.646452
-0.0161097 0.337568 0.647923
-0.0146631 0.338993 0.649541
-0.0132095 0.340364 0.651019
-0.0117527 0.341849 0.652772
-0.010291 0.343432 0.654756
-0.149499 0.279606 0.673667
-0.147954 0.280218 0.673168
-0.146361 0.280724 0.672348
-0.144744 0.28117 0.671353
-0.143067 0.281473 0.669933
-0.141381 0.281747 0.66843
-0.139685 0.281983 0.666819
-0.137994 0.282219 0.665217
-0.136322 0.282485 0.663713
-0.134671 0.282791 0.662333
-0.133055 0.283169 0.661173
-0.131458 0.283583 0.660125
-0.129901 0.284089 0.659353
-0.128336 0.284567 0.658503
-0.126748 0.28498 0.657464
-0.125172 0.285415 0.656496
-0.123612 0.285883 0.655626
-0.122069 0.286391 0.654877
-0.120509 0.286845 0.653975
-0.118984 0.287388 0.653334
-0.117469 0.287954 0.652764
-0.115959 0.288529 0.65222
-0.114455 0.289117 0.651715
-0.112997 0.289835 0.651588
-0.111539 0.290554 0.651461
-0.110081 0.291272 0.651334
-0.108623 0.291991 0.651208
-0.107165 0.292709 0.651081
-0.105782 0.293665 0.651628
-0.104487 0.294916 0.653008
-0.103273 0.296454 0.655191
-0.102131 0.29826 0.658122
-0.10104 0.300279 0.661636
-0.0998974 0.302165 0.66476
-0.0987125 0.303944 0.667567
-0.0975067 0.305685 0.670257
-0.0962461 0.307264 0.672479
-0.0949612 0.308783 0.674526
-0.0936368 0.310183 0.67623
-0.0922466 0.311352 0.677288
-0.0907823 0.312244 0.677577
-0.0892415 0.312833 0.677026
-0.0875975 0.312991 0.675295
-0.0859096 0.312939 0.672996
-0.0842002 0.312761 0.670361
-0.0824848 0.312517 0.667559
-0.0808141 0.312431 0.665198
-0.0791859 0.312504 0.663278
-0.0775742 0.312624 0.661496
-0.0759749 0.312776 0.659806
-0.0743519 0.312783 0.657736
-0.072732 0.312772 0.655623
-0.0711121 0.312726 0.653424
-0.0695203 0.312788 0.651525
-0.0679318 0.312835 0.649596
-0.066394 0.313129 0.648332
-0.0648629 0.313438 0.647113
-0.0633661 0.313926 0.646375
-0.0618799 0.314465 0.645774
-0.0604237 0.315181 0.645643
-0.0589635 0.31587 0.645442
-0.0575131 0.316622 0.645407
-0.0560409 0.317228 0.644987
-0.0545575 0.31775 0.644349
-0.0530592 0.31815 0.643395
-0.0515535 0.318475 0.642246
-0.0500505 0.318793 0.641086
-0.0485566 0.319155 0.640045
-0.0470797 0.319632 0.639306
-0.0456107 0.320159 0.638699
-0.0441717 0.32094 0.638749
-0.04273 0.321704 0.638752
-0.0413074 0.322654 0.639237
-0.0398867 0.323646 0.639823
-0.0384741 0.32475 0.640694
-0.0370491 0.325753 0.641303
-0.0356241 0.326785 0.641981
-0.034184 0.327663 0.642266
-0.0327266 0.328337 0.642032
-0.0312632 0.328923 0.641577
-0.029803 0.329538 0.641195
-0.02835 0.330254 0.641068
-0.0269027 0.331063 0.641175
-0.0254697 0.33214 0.641953
-0.0240376 0.333295 0.642923
-0.0226024 0.334461 0.643916
-0.0211651 0.335662 0.644993
-0.0197241 0.33687 0.646079
-0.0182776 0.33804 0.647066
-0.0168342 0.339417 0.648563
-0.0153859 0.340815 0.650105
-0.0139335 0.342275 0.651791
-0.0124778 0.34387 0.653803
-0.0110156 0.345504 0.655901
-0.148724 0.281665 0.672808
-0.147131 0.28217 0.67199
-0.145538 0.282671 0.671162
-0.143861 0.282979 0.66976
-0.14219 0.283288 0.66837
-0.140478 0.283492 0.66667
-0.138783 0.283721 0.665051
-0.137091 0.283944 0.663424
-0.135423 0.284209 0.661931
-0.133777 0.284518 0.66057
-0.132176 0.284924 0.659502
-0.13058 0.285331 0.658445
-0.128988 0.285742 0.657401
-0.1274 0.286154 0.656364
-0.12584 0.286628 0.655515
-0.124283 0.287103 0.65467
-0.122767 0.287682 0.654133
-0.121219 0.288169 0.65333
-0.119693 0.28871 0.652685
-0.118177 0.289271 0.652102
-0.116665 0.289842 0.651548
-0.11516 0.290426 0.651036
-0.113702 0.291145 0.650909
-0.112244 0.291864 0.650782
-0.110786 0.292582 0.650655
-0.109328 0.293301 0.650528
-0.10787 0.294019 0.650402
-0.106497 0.295008 0.651039
-0.105214 0.296296 0.652517
-0.104024 0.29791 0.654904
-0.102905 0.299795 0.658039
-0.101819 0.301828 0.661573
-0.100667 0.303684 0.664595
-0.099472 0.305425 0.667283
-0.0982473 0.307098 0.669766
-0.0969594 0.308575 0.671696
-0.0956647 0.310054 0.673622
-0.0943406 0.31145 0.675307
-0.0929535 0.312627 0.676383
-0.0914923 0.31353 0.6767
-0.090007 0.314342 0.676765
-0.0883947 0.314635 0.67541
-0.0867349 0.314711 0.673467
-0.0850469 0.314639 0.671129
-0.0833497 0.314491 0.668597
-0.081666 0.314366 0.666135
-0.0800416 0.314473 0.664313
-0.0784253 0.314589 0.662525
-0.0768198 0.31473 0.660809
-0.07519 0.314723 0.658705
-0.073551 0.314636 0.656394
-0.0719182 0.314541 0.654072
-0.0703152 0.314562 0.652069
-0.068709 0.314531 0.649935
-0.0671618 0.314785 0.64857
-0.0656327 0.315118 0.647417
-0.0641397 0.315641 0.646771
-0.0626406 0.316115 0.646
-0.0611879 0.316862 0.645948
-0.0597252 0.317547 0.645733
-0.0582738 0.318303 0.645705
-0.0567959 0.318884 0.645221
-0.0553261 0.319511 0.644858
-0.0538254 0.319913 0.64391
-0.0523167 0.320235 0.642756
-0.0508063 0.320517 0.641504
-0.0493007 0.320806 0.640276
-0.0478125 0.321206 0.639339
-0.0463363 0.321685 0.638608
-0.0448966 0.322468 0.63866
-0.0434508 0.323201 0.638584
-0.0420359 0.324231 0.639267
-0.0406223 0.325301 0.640049
-0.0392136 0.326454 0.641039
-0.0377914 0.327501 0.641755
-0.0363688 0.328577 0.642538
-0.0349266 0.329452 0.642812
-0.0334702 0.330165 0.642674
-0.0320103 0.330829 0.642413
-0.0305458 0.331423 0.641975
-0.0290928 0.332175 0.641934
-0.0276452 0.333018 0.642125
-0.0262078 0.334056 0.642798
-0.0247703 0.335143 0.643589
-0.0233373 0.336382 0.644757
-0.0218989 0.337595 0.645853
-0.0204564 0.338807 0.646942
-0.0190114 0.340061 0.64813
-0.0175687 0.341515 0.649803
-0.0161176 0.342882 0.651257
-0.0146644 0.344376 0.653016
-0.0132097 0.346092 0.655311
-0.0117482 0.347875 0.65776
-0.149459 0.283035 0.672212
-0.14787 0.28355 0.671429
-0.146301 0.284106 0.670767
-0.144643 0.284457 0.669501
-0.142988 0.284805 0.668228
-0.141289 0.28504 0.666629
-0.139574 0.285228 0.664897
-0.137865 0.285413 0.663164
-0.13618 0.285641 0.661565
-0.134518 0.285912 0.660098
-0.132901 0.28628 0.658926
-0.13129 0.286651 0.657765
-0.12967 0.286991 0.656521
-0.128091 0.287425 0.655551
-0.126543 0.287931 0.654798
-0.125 0.288446 0.654073
-0.123511 0.289097 0.653743
-0.121986 0.289647 0.653126
-0.120459 0.290187 0.652481
-0.11893 0.290716 0.651807
-0.117405 0.291253 0.651157
-0.115887 0.291802 0.650544
-0.114417 0.292486 0.65032
-0.112948 0.293173 0.650103
-0.11149 0.293892 0.649976
-0.110032 0.29461 0.649849
-0.108584 0.295361 0.649812
-0.107233 0.296417 0.650636
-0.105973 0.297781 0.652318
-0.104817 0.299507 0.655006
-0.103715 0.301446 0.658274
-0.102631 0.303488 0.661814
-0.10147 0.305314 0.664736
-0.100254 0.306985 0.667215
-0.0989904 0.308519 0.669299
-0.097691 0.309951 0.671096
-0.0963768 0.311356 0.672807
-0.0950445 0.312718 0.67439
-0.0936668 0.313928 0.675553
-0.0922272 0.314914 0.676093
-0.0907811 0.315884 0.676587
-0.0891984 0.316304 0.67558
-0.0875646 0.316498 0.673966
-0.0858984 0.316532 0.671923
-0.0842222 0.316491 0.669689
-0.082536 0.316374 0.667256
-0.0809251 0.31656 0.665652
-0.0793044 0.316677 0.663867
-0.0776784 0.316741 0.661947
-0.0760337 0.316683 0.65971
-0.0743801 0.316543 0.657266
-0.0727284 0.316372 0.654748
-0.0711136 0.316349 0.652633
-0.0695015 0.316303 0.650467
-0.0679497 0.316547 0.649078
-0.066417 0.316875 0.647913
-0.0649281 0.317434 0.647364
-0.0634305 0.317933 0.646656
-0.0619818 0.318717 0.6467
-0.0605103 0.319363 0.646382
-0.0590514 0.320086 0.646263
-0.0575715 0.320668 0.645779
-0.0561007 0.321305 0.645441
-0.0545938 0.321682 0.644427
-0.0530872 0.322039 0.643367
-0.0515745 0.322325 0.642128
-0.0500563 0.322538 0.640705
-0.0485645 0.322929 0.639747
-0.0470853 0.323401 0.638999
-0.0456436 0.324182 0.639042
-0.0441966 0.32492 0.638977
-0.0427883 0.326024 0.639844
-0.0413697 0.32706 0.640532
-0.0399598 0.328214 0.641517
-0.038537 0.329268 0.642244
-0.0371133 0.330347 0.643029
-0.0356668 0.331192 0.643222
-0.034209 0.33191 0.643094
-0.0327501 0.332615 0.642934
-0.0312868 0.333255 0.642611
-0.0298323 0.334016 0.642591
-0.0283827 0.33486 0.642776
-0.0269432 0.335893 0.643432
-0.0255046 0.336984 0.644226
-0.0240711 0.338237 0.64542
-0.0226357 0.339544 0.646742
-0.0211953 0.340849 0.64805
-0.0197531 0.342226 0.64953
-0.0183098 0.343722 0.651297
-0.0168551 0.345053 0.652651
-0.015401 0.346585 0.65449
-0.0139469 0.348403 0.657017
-0.0124865 0.350351 0.659853
-0.150144 0.2843 0.671302
-0.148573 0.284854 0.670638
-0.147037 0.28548 0.67019
-0.145408 0.285897 0.669124
-0.143773 0.286291 0.667992
-0.142084 0.286552 0.666477
-0.140366 0.286736 0.664739
-0.138655 0.28692 0.66301
-0.136957 0.287119 0.661331
-0.135293 0.287387 0.659863
-0.13366 0.287718 0.658586
-0.13203 0.288046 0.657303
-0.130406 0.288378 0.656039
-0.128836 0.288836 0.655145
-0.127287 0.289342 0.654395
-0.125746 0.289861 0.653684
-0.124256 0.290512 0.653356
-0.12273 0.291062 0.652738
-0.121203 0.291603 0.652097
-0.119663 0.292105 0.651349
-0.118138 0.292641 0.650698
-0.116617 0.293184 0.65007
-0.115133 0.29383 0.649738
-0.113653 0.294483 0.649424
-0.112195 0.295201 0.649297
-0.110737 0.29592 0.64917
-0.1093 0.296705 0.64923
-0.107972 0.297836 0.650257
-0.106759 0.299351 0.652351
-0.105653 0.30124 0.655478
-0.104577 0.303269 0.658977
-0.103494 0.305319 0.662519
-0.102319 0.307101 0.665303
-0.101069 0.308656 0.667446
-0.0997539 0.310011 0.669026
-0.098425 0.311338 0.67052
-0.09708 0.312626 0.671904
-0.0957274 0.313907 0.67326
-0.0943411 0.31508 0.674313
-0.092923 0.316145 0.675067
-0.0915165 0.317269 0.67598
-0.0899623 0.317808 0.675299
-0.0883548 0.318117 0.674
-0.0867122 0.318259 0.672258
-0.0850604 0.318337 0.670348
-0.0833732 0.31823 0.667951
-0.081786 0.318538 0.666676
-0.0801698 0.318693 0.664997
-0.0785381 0.318749 0.663063
-0.0768799 0.318646 0.660711
-0.0752201 0.318497 0.658247
-0.0735489 0.318247 0.655529
-0.0719286 0.318214 0.653394
-0.0703049 0.318125 0.651122
-0.0687489 0.318364 0.64972
-0.0672009 0.318622 0.648374
-0.0657046 0.319152 0.647747
-0.0642108 0.319686 0.647132
-0.0627719 0.320541 0.647357
-0.0612976 0.321184 0.647029
-0.0598434 0.321952 0.647025
-0.058375 0.322629 0.646785
-0.0568968 0.323236 0.646365
-0.0553814 0.323576 0.645259
-0.0538729 0.323941 0.64422
-0.0523606 0.324255 0.643054
-0.0508339 0.32443 0.641536
-0.0493387 0.324817 0.640569
-0.0478561 0.325286 0.639812
-0.0464087 0.326039 0.639781
-0.0449553 0.326741 0.639621
-0.0435371 0.327769 0.640285
-0.0421086 0.328723 0.640762
-0.0406937 0.329834 0.64163
-0.0392664 0.330852 0.64226
-0.0378426 0.331934 0.643049
-0.0363955 0.332784 0.643251
-0.0349421 0.33357 0.643291
-0.0334823 0.334282 0.643148
-0.032026 0.335039 0.643113
-0.0305703 0.33581 0.643117
-0.0291235 0.336726 0.643478
-0.0276829 0.337766 0.644144
-0.0262466 0.33893 0.645113
-0.0248125 0.340205 0.64635
-0.0233799 0.341602 0.647883
-0.0219403 0.342968 0.649331
-0.0205014 0.344475 0.651121
-0.0190551 0.345955 0.652835
-0.017597 0.34726 0.654114
-0.0161442 0.348909 0.656223
-0.0146924 0.350906 0.659172
-0.0132323 0.352979 0.662289
-0.149292 0.28619 0.669946
-0.147774 0.286857 0.669619
-0.146172 0.287335 0.668736
-0.144553 0.287767 0.667723
-0.142877 0.28806 0.666305
-0.141171 0.288273 0.664661
-0.139461 0.288463 0.662955
-0.137747 0.288629 0.661188
-0.136081 0.288895 0.659717
-0.13443 0.289186 0.658329
-0.13276 0.289416 0.656769
-0.131105 0.289673 0.655291
-0.129547 0.290159 0.654484
-0.127987 0.290638 0.653657
-0.126449 0.291165 0.652972
-0.124969 0.291841 0.652717
-0.123464 0.29245 0.652269
-0.121937 0.292993 0.651637
-0.120399 0.293502 0.65091
-0.118873 0.294038 0.65026
-0.117348 0.29457 0.649604
-0.11585 0.295176 0.649159
-0.114357 0.295793 0.648745
-0.112899 0.296511 0.648618
-0.111441 0.29723 0.648491
-0.110016 0.298051 0.648652
-0.108683 0.299164 0.649623
-0.107541 0.300902 0.652327
-0.106487 0.302962 0.655909
-0.105439 0.305089 0.659661
-0.104358 0.307149 0.66321
-0.103183 0.308938 0.665993
-0.101858 0.310237 0.667419
-0.100488 0.311399 0.668461
-0.0991273 0.312608 0.669628
-0.0977507 0.313778 0.670679
-0.0963795 0.314983 0.671824
-0.0950024 0.316184 0.672949
-0.093596 0.317288 0.673809
-0.092213 0.3185 0.674953
-0.0906803 0.319124 0.674506
-0.0890993 0.319543 0.67351
-0.087473 0.319759 0.671973
-0.0858466 0.319953 0.670381
-0.0841766 0.319932 0.668223
-0.0826136 0.320358 0.667266
-0.081017 0.320617 0.665869
-0.0793904 0.320715 0.664047
-0.0777339 0.320639 0.661775
-0.0760699 0.32049 0.659318
-0.0743928 0.320233 0.65659
-0.0727614 0.320164 0.654364
-0.0711384 0.3201 0.652164
-0.0695795 0.320343 0.650774
-0.0680355 0.320644 0.649542
-0.0665487 0.321248 0.649106
-0.065065 0.321862 0.648699
-0.0636307 0.322768 0.649048
-0.0621555 0.323432 0.64877
-0.0606957 0.32419 0.648736
-0.0592222 0.324861 0.648475
-0.0577273 0.325385 0.647839
-0.0561969 0.325652 0.646542
-0.0546784 0.325973 0.645391
-0.0531562 0.326242 0.64411
-0.0516204 0.326376 0.642491
-0.0501219 0.326765 0.641527
-0.0486418 0.32728 0.640887
-0.0471881 0.328003 0.640778
-0.0457269 0.328662 0.640505
-0.0442935 0.329571 0.640863
-0.0428578 0.330472 0.6412
-0.0414299 0.331468 0.641773
-0.0399977 0.332443 0.642289
-0.0385731 0.333524 0.64307
-0.0371281 0.334409 0.643357
-0.0356803 0.335276 0.643598
-0.0342277 0.336099 0.643727
-0.0327755 0.336939 0.643897
-0.0313206 0.337756 0.644009
-0.029875 0.33872 0.644484
-0.0284297 0.339724 0.645052
-0.0269897 0.340858 0.64594
-0.0255564 0.342174 0.647269
-0.0241232 0.343588 0.648833
-0.0226878 0.345078 0.650574
-0.021253 0.346725 0.652693
-0.0198082 0.348307 0.654641
-0.0183517 0.349747 0.656238
-0.0169011 0.351569 0.658751
-0.0154491 0.353667 0.661923
-0.0139846 0.355689 0.664897
-0.148513 0.288236 0.669054
-0.146937 0.288772 0.668346
-0.145332 0.289239 0.667437
-0.143669 0.289565 0.666122
-0.141977 0.289813 0.664584
-0.140266 0.290004 0.662889
-0.13855 0.290167 0.66112
-0.136879 0.290427 0.659638
-0.135211 0.290678 0.658137
-0.133524 0.29087 0.656473
-0.131867 0.291123 0.654992
-0.13031 0.291617 0.654206
-0.128751 0.292098 0.653389
-0.127211 0.292624 0.652705
-0.12573 0.293299 0.652445
-0.124223 0.293903 0.651983
-0.122695 0.294447 0.651355
-0.121157 0.294959 0.650639
-0.11963 0.295494 0.649989
-0.118091 0.295989 0.649229
-0.116579 0.296555 0.648674
-0.115073 0.297134 0.648156
-0.113604 0.297821 0.647939
-0.112146 0.298539 0.647812
-0.110722 0.299363 0.647979
-0.109379 0.300446 0.64886
-0.108317 0.302437 0.65225
-0.107328 0.304708 0.656398
-0.106325 0.306983 0.660535
-0.105255 0.309089 0.664189
-0.104093 0.310924 0.667083
-0.102696 0.311984 0.667843
-0.10127 0.312955 0.668356
-0.0998671 0.314015 0.669108
-0.0984492 0.315032 0.66974
-0.0970452 0.316111 0.670537
-0.0956496 0.317236 0.671452
-0.0942289 0.318278 0.67214
-0.0928435 0.319471 0.67323
-0.0913396 0.320204 0.673081
-0.0897869 0.320736 0.672392
-0.0881804 0.321035 0.671082
-0.0865894 0.321381 0.669904
-0.0849526 0.32151 0.668155
-0.0834131 0.322049 0.667499
-0.081832 0.322389 0.666319
-0.0802269 0.322599 0.664802
-0.0785916 0.322642 0.662849
-0.0769392 0.32257 0.660602
-0.0752716 0.322385 0.658067
-0.0736409 0.322344 0.655922
-0.0720201 0.322318 0.653825
-0.0704509 0.322531 0.652357
-0.0689089 0.322868 0.651219
-0.067412 0.323439 0.650695
-0.0659372 0.324129 0.650479
-0.0645074 0.325086 0.650955
-0.0630384 0.325816 0.65084
-0.0615751 0.326582 0.65082
-0.0601014 0.327283 0.650632
-0.0585927 0.32775 0.649844
-0.0570405 0.327903 0.648256
-0.055509 0.328166 0.646957
-0.0539704 0.328349 0.645458
-0.0524239 0.328436 0.643721
-0.0509229 0.328834 0.64278
-0.0494451 0.329397 0.64226
-0.0479789 0.330046 0.641957
-0.0465136 0.330697 0.641661
-0.0450671 0.331513 0.64178
-0.043613 0.332266 0.64174
-0.0421714 0.333143 0.642011
-0.0407371 0.334109 0.6425
-0.0393086 0.335158 0.643195
-0.0378664 0.336085 0.643583
-0.0364277 0.337075 0.644124
-0.0349835 0.338023 0.644559
-0.0335364 0.33896 0.644965
-0.0320847 0.339859 0.645273
-0.0306366 0.340831 0.645762
-0.0291881 0.341827 0.646303
-0.0277436 0.342928 0.647102
-0.0263082 0.344243 0.648419
-0.0248733 0.345661 0.649982
-0.0234423 0.347274 0.652012
-0.0220098 0.349018 0.65435
-0.02057 0.350784 0.65673
-0.0191155 0.352372 0.658673
-0.0176639 0.354262 0.661332
-0.0162071 0.356294 0.664323
-0.0147382 0.358233 0.66708
-0.0125652 0.360692 0.675039
-0.0132561 0.360044 0.669515
-0.149211 0.289528 0.668233
-0.147668 0.290136 0.667736
-0.146077 0.290633 0.666922
-0.144449 0.291042 0.665851
-0.142774 0.291331 0.66444
-0.14106 0.291518 0.662739
-0.139339 0.291675 0.660958
-0.137662 0.291921 0.659442
-0.135965 0.292105 0.657754
-0.134275 0.292293 0.656083
-0.13263 0.292576 0.654696
-0.131071 0.293067 0.653906
-0.129512 0.293552 0.653101
-0.127985 0.294112 0.652513
-0.126502 0.294786 0.65225
-0.124994 0.295391 0.651794
-0.123465 0.295935 0.651167
-0.121927 0.296447 0.650451
-0.120398 0.296981 0.649801
-0.118846 0.297442 0.648947
-0.11732 0.297972 0.648292
-0.115801 0.298514 0.647671
-0.114319 0.299163 0.64735
-0.11285 0.299849 0.647133
-0.111426 0.300671 0.647293
-0.110063 0.301692 0.647999
-0.109099 0.303989 0.652216
-0.108195 0.306534 0.657093
-0.107262 0.309043 0.661849
-0.106229 0.311281 0.66584
-0.105016 0.312955 0.668275
-0.103527 0.313708 0.668192
-0.102035 0.314449 0.668076
-0.100577 0.315314 0.668294
-0.0991184 0.31618 0.668515
-0.0976835 0.31714 0.668986
-0.0962875 0.318255 0.669874
-0.0948581 0.319256 0.670448
-0.0934668 0.320417 0.67145
-0.0919827 0.321221 0.671494
-0.0904506 0.321832 0.67102
-0.0888653 0.322216 0.669944
-0.0873038 0.322687 0.669103
-0.0857017 0.32297 0.667768
-0.0841791 0.323587 0.66732
-0.0826232 0.324047 0.666462
-0.0810343 0.324342 0.665172
-0.0794235 0.324515 0.663566
-0.0777919 0.32456 0.661632
-0.0761434 0.32449 0.659407
-0.0745156 0.324488 0.657367
-0.0729039 0.324534 0.65546
-0.0713291 0.324743 0.653983
-0.0697826 0.325081 0.652848
-0.0682931 0.325716 0.652486
-0.0668534 0.326634 0.652852
-0.065436 0.327693 0.65358
-0.0639867 0.328577 0.653855
-0.0625354 0.329459 0.654121
-0.0610601 0.330194 0.654012
-0.0595228 0.330522 0.652864
-0.0579499 0.330583 0.651041
-0.0563874 0.330677 0.649311
-0.0548194 0.33069 0.647381
-0.053251 0.330655 0.645336
-0.0517405 0.331014 0.644296
-0.0502597 0.331585 0.643793
-0.0487853 0.3322 0.6434
-0.0473193 0.332877 0.643166
-0.0458597 0.333607 0.643065
-0.04439 0.334246 0.642734
-0.042934 0.33501 0.642718
-0.0414941 0.335938 0.643109
-0.0400564 0.33691 0.643605
-0.0386169 0.337884 0.644104
-0.0371822 0.338937 0.644797
-0.0357447 0.33999 0.645485
-0.0343054 0.341057 0.646203
-0.0328573 0.342041 0.646715
-0.0314138 0.343123 0.647464
-0.02997 0.344243 0.648304
-0.0285263 0.345421 0.64928
-0.0270877 0.346746 0.650608
-0.0256529 0.348232 0.652322
-0.0242208 0.349896 0.654461
-0.0227861 0.351663 0.656838
-0.0213444 0.353468 0.659296
-0.0198882 0.355112 0.661357
-0.0184322 0.356977 0.663937
-0.0169653 0.358777 0.666354
-0.015487 0.360478 0.66852
-0.0140003 0.362093 0.670473
-0.14993 0.290864 0.66754
-0.148402 0.291506 0.667146
-0.146824 0.292034 0.666422
-0.145218 0.292493 0.665503
-0.14357 0.292848 0.664286
-0.141869 0.293067 0.662682
-0.140145 0.29322 0.660898
-0.138451 0.293428 0.659277
-0.136749 0.293604 0.657573
-0.135056 0.293786 0.655894
-0.13341 0.294073 0.654521
-0.131839 0.294536 0.653652
-0.13029 0.295048 0.652927
-0.128759 0.295601 0.65232
-0.127265 0.296249 0.651985
-0.125757 0.296856 0.651533
-0.124228 0.297402 0.650913
-0.122686 0.297907 0.650182
-0.121156 0.29844 0.649528
-0.119604 0.298903 0.648683
-0.118066 0.299399 0.647935
-0.116543 0.299935 0.647298
-0.115047 0.300543 0.646865
-0.113566 0.301192 0.646547
-0.112119 0.301948 0.646521
-0.110726 0.302868 0.646948
-0.109882 0.30554 0.652173
-0.109077 0.308405 0.6579
-0.108166 0.310991 0.662839
-0.107186 0.313409 0.667297
-0.105913 0.31489 0.669192
-0.104343 0.315375 0.668377
-0.102814 0.315991 0.667921
-0.101301 0.316662 0.667614
-0.0997984 0.317369 0.667404
-0.0983321 0.318209 0.667552
-0.0969253 0.319276 0.668309
-0.095478 0.320201 0.66868
-0.0940765 0.321313 0.669547
-0.0926101 0.322179 0.669756
-0.0911252 0.322975 0.669779
-0.0895921 0.323574 0.669276
-0.0880634 0.324185 0.668809
-0.0864967 0.324626 0.667896
-0.08498 0.325276 0.667536
-0.0834225 0.325738 0.666683
-0.0818424 0.326084 0.66553
-0.0802632 0.326418 0.664347
-0.0786551 0.326593 0.662759
-0.077042 0.326719 0.661047
-0.0754242 0.326793 0.659207
-0.0738149 0.326879 0.657406
-0.0722463 0.327149 0.656089
-0.0707142 0.327594 0.655228
-0.0692274 0.328276 0.65498
-0.0678047 0.32932 0.655662
-0.0663964 0.330467 0.656602
-0.06495 0.331406 0.657008
-0.0634999 0.332334 0.657383
-0.062024 0.33311 0.657368
-0.0604745 0.333407 0.656139
-0.0588976 0.333495 0.654384
-0.0573102 0.33347 0.652349
-0.0557048 0.333271 0.649885
-0.0541054 0.333056 0.647389
-0.0525718 0.33328 0.646006
-0.0510723 0.333737 0.645216
-0.0495823 0.334254 0.644574
-0.0481168 0.334963 0.644415
-0.0466497 0.335658 0.644223
-0.0451761 0.33629 0.643874
-0.0437094 0.336981 0.643672
-0.0422738 0.337978 0.644225
-0.0408336 0.33895 0.644717
-0.0393995 0.340011 0.645424
-0.0379696 0.341152 0.646323
-0.0365408 0.342344 0.647346
-0.035102 0.343463 0.648184
-0.0336534 0.344496 0.648807
-0.0322146 0.345698 0.649839
-0.0307705 0.346881 0.650819
-0.0293264 0.348122 0.651938
-0.0278866 0.349504 0.653392
-0.026452 0.351074 0.655294
-0.0250144 0.352717 0.657363
-0.0235743 0.354462 0.659669
-0.0221274 0.356239 0.662041
-0.0206672 0.357886 0.664092
-0.019203 0.359629 0.666365
-0.0177258 0.361204 0.668226
-0.0162398 0.362713 0.66992
-0.0147477 0.364186 0.671521
-0.149137 0.29288 0.666565
-0.147562 0.293413 0.665858
-0.145968 0.293902 0.665027
-0.144339 0.294301 0.663941
-0.142665 0.294586 0.662534
-0.140938 0.294735 0.660745
-0.139242 0.294941 0.659126
-0.137538 0.295117 0.657426
-0.135843 0.295296 0.655745
-0.134184 0.295553 0.654293
-0.132609 0.296008 0.653404
-0.131045 0.296485 0.652583
-0.129512 0.297034 0.651966
-0.128018 0.297683 0.651632
-0.126523 0.298327 0.651287
-0.124981 0.29884 0.650574
-0.123448 0.299372 0.64992
-0.121916 0.299902 0.64926
-0.120363 0.300367 0.648423
-0.118814 0.300835 0.647598
-0.117288 0.301363 0.646942
-0.115777 0.301928 0.646392
-0.114283 0.302542 0.645976
-0.112813 0.303224 0.64575
-0.111372 0.303995 0.645765
-0.110566 0.306781 0.651278
-0.109093 0.313008 0.664002
-0.108106 0.315412 0.668395
-0.106774 0.316704 0.669764
-0.105172 0.317084 0.668669
-0.103604 0.317573 0.667868
-0.102044 0.318078 0.667116
-0.100507 0.318664 0.666584
-0.09901 0.319387 0.666419
-0.097584 0.320379 0.66697
-0.0961174 0.321225 0.667129
-0.0946966 0.322253 0.667772
-0.0932485 0.323184 0.668154
-0.0918129 0.324173 0.668686
-0.0903347 0.324996 0.668779
-0.0888663 0.325864 0.668988
-0.0873523 0.32654 0.668694
-0.0858406 0.327225 0.668421
-0.0842768 0.327673 0.667532
-0.0827238 0.328158 0.666742
-0.0811608 0.328585 0.665804
-0.0795755 0.328892 0.664558
-0.07799 0.329179 0.663264
-0.0763821 0.329332 0.661631
-0.0747509 0.329339 0.659627
-0.073183 0.329642 0.658395
-0.0716661 0.330199 0.657818
-0.0701983 0.331018 0.657913
-0.0687819 0.332132 0.658763
-0.0673716 0.333302 0.659749
-0.06591 0.334189 0.660011
-0.0644411 0.335041 0.660182
-0.0629442 0.335722 0.65992
-0.0613896 0.336027 0.658707
-0.0598081 0.336129 0.656986
-0.0582041 0.336037 0.654786
-0.0565661 0.335654 0.651864
-0.0549295 0.335211 0.648802
-0.0533746 0.335307 0.647101
-0.0518847 0.335867 0.646564
-0.0503928 0.3364 0.645961
-0.0489208 0.337085 0.645739
-0.0474618 0.337879 0.645787
-0.0459843 0.338513 0.64544
-0.0445105 0.339175 0.645159
-0.0430763 0.340216 0.645816
-0.0416399 0.341262 0.646481
-0.04021 0.342405 0.647382
-0.0387808 0.343595 0.648391
-0.0373525 0.34484 0.649531
-0.0359061 0.345917 0.650257
-0.0344649 0.347099 0.651234
-0.0330267 0.34837 0.652422
-0.0315835 0.349633 0.653587
-0.0301428 0.351002 0.655
-0.0287054 0.352507 0.656737
-0.0272598 0.353979 0.658386
-0.0258133 0.355546 0.660254
-0.0243656 0.357223 0.66238
-0.0229111 0.358914 0.664529
-0.0214439 0.360498 0.666413
-0.0199684 0.362017 0.668134
-0.0184841 0.363453 0.669652
-0.0169948 0.364916 0.671224
-0.0154981 0.366311 0.67263
-0.14988 0.294269 0.666025
-0.148275 0.294738 0.665138
-0.146674 0.295209 0.66426
-0.145044 0.295606 0.663174
-0.143394 0.295947 0.661933
-0.141689 0.296148 0.660298
-0.140007 0.296391 0.65879
-0.138315 0.296596 0.65718
-0.136644 0.296839 0.655686
-0.134996 0.297127 0.654324
-0.133421 0.297586 0.653451
-0.131865 0.298088 0.6527
-0.130342 0.298667 0.652168
-0.128845 0.299314 0.651828
-0.127339 0.299932 0.651408
-0.125793 0.30044 0.650684
-0.124247 0.300939 0.649938
-0.12271 0.301461 0.649258
-0.121146 0.301897 0.648344
-0.119596 0.302366 0.647522
-0.118069 0.302895 0.646871
-0.116554 0.303452 0.646299
-0.115043 0.304017 0.645748
-0.113548 0.304627 0.645326
-0.111273 0.308093 0.650578
-0.110101 0.315288 0.665856
-0.109067 0.317545 0.669826
-0.107632 0.3185 0.670278
-0.106022 0.318863 0.669137
-0.104417 0.31923 0.668011
-0.102819 0.31961 0.666925
-0.101249 0.320076 0.666073
-0.0997193 0.320683 0.665601
-0.0982636 0.321562 0.665848
-0.096777 0.322328 0.665796
-0.0953374 0.323277 0.666229
-0.0939103 0.324284 0.666812
-0.0925002 0.325371 0.667598
-0.091067 0.326375 0.668167
-0.0896527 0.327471 0.66897
-0.0881762 0.328313 0.669108
-0.0866774 0.329063 0.669004
-0.0851234 0.329567 0.66826
-0.0836074 0.330234 0.667942
-0.0820598 0.33075 0.667236
-0.0805218 0.331303 0.666624
-0.0789797 0.331827 0.665943
-0.0774111 0.33221 0.664898
-0.0757791 0.332252 0.662985
-0.074219 0.332637 0.661959
-0.0726892 0.333167 0.661305
-0.0711991 0.333904 0.661181
-0.0697581 0.334916 0.661757
-0.0683203 0.335962 0.662416
-0.0668501 0.336832 0.662626
-0.0653735 0.337671 0.662756
-0.0638709 0.338353 0.66249
-0.0623108 0.338663 0.661288
-0.0607364 0.338855 0.659795
-0.0591155 0.338698 0.657432
-0.0574295 0.338032 0.653805
-0.0557328 0.337199 0.64978
-0.0541541 0.337147 0.647713
-0.0526602 0.337695 0.647144
-0.0511723 0.338279 0.646668
-0.0497143 0.339099 0.646778
-0.0482647 0.34 0.647084
-0.046798 0.34076 0.647043
-0.0453376 0.341581 0.647153
-0.0439132 0.342756 0.648128
-0.0424894 0.343973 0.649202
-0.0410713 0.345293 0.650523
-0.0396486 0.346617 0.651847
-0.0382138 0.347859 0.652966
-0.0367637 0.348968 0.653755
-0.0353161 0.350149 0.654716
-0.0338704 0.351403 0.655849
-0.0324204 0.352655 0.656973
-0.0309752 0.354043 0.658418
-0.0295301 0.355516 0.66006
-0.0280769 0.356952 0.661607
-0.0266188 0.358401 0.663179
-0.0251611 0.359961 0.665007
-0.0236951 0.361502 0.666782
-0.0222178 0.362915 0.668244
-0.0207295 0.364182 0.669356
-0.0192391 0.365533 0.67066
-0.0177484 0.367003 0.67224
-0.0162511 0.36843 0.67371
-0.0140626 0.370728 0.681172
-0.0147512 0.369983 0.675473
-0.147367 0.296488 0.66341
-0.145757 0.296929 0.662456
-0.144134 0.297334 0.6614
-0.14246 0.29761 0.659986
-0.140794 0.297893 0.658596
-0.139115 0.298133 0.657092
-0.137445 0.298383 0.655623
-0.135794 0.298667 0.654255
-0.134219 0.299128 0.653389
-0.132661 0.299628 0.652634
-0.131138 0.300212 0.652116
-0.12964 0.300859 0.651775
-0.128145 0.301509 0.651446
-0.126598 0.302018 0.650723
-0.125048 0.302512 0.649964
-0.123509 0.303031 0.649278
-0.121954 0.303498 0.648451
-0.120392 0.303937 0.64755
-0.118864 0.304467 0.646902
-0.117347 0.305024 0.646328
-0.115826 0.305561 0.645704
-0.114311 0.306114 0.645127
-0.110014 0.319628 0.671103
-0.108431 0.320097 0.670245
-0.106807 0.320419 0.669001
-0.105199 0.32078 0.667862
-0.103568 0.321047 0.66648
-0.101974 0.321429 0.665406
-0.100432 0.321991 0.664815
-0.0989644 0.322825 0.664944
-0.0974763 0.323583 0.664872
-0.0960473 0.324572 0.665405
-0.0946418 0.325662 0.666202
-0.0932552 0.326842 0.667229
-0.0918537 0.327978 0.668137
-0.0904692 0.3292 0.669265
-0.0890193 0.330164 0.669717
-0.0875246 0.330941 0.669679
-0.0859841 0.331517 0.669122
-0.0845005 0.332344 0.669214
-0.0829763 0.332987 0.668833
-0.081482 0.333767 0.668804
-0.0799845 0.334533 0.668738
-0.0784439 0.335086 0.668127
-0.0768189 0.335205 0.666408
-0.0752737 0.335708 0.665676
-0.0737429 0.336275 0.66511
-0.0722504 0.337043 0.665054
-0.0707932 0.338007 0.665498
-0.0693308 0.338954 0.665893
-0.067836 0.339722 0.665835
-0.0663378 0.340471 0.66573
-0.0648106 0.341042 0.665177
-0.0632416 0.341337 0.663934
-0.0616813 0.341664 0.662777
-0.0600562 0.341531 0.660476
-0.0549543 0.339127 0.64866
-0.0519491 0.340124 0.647279
-0.0505635 0.34155 0.648878
-0.0491651 0.34292 0.650331
-0.0477265 0.343985 0.651029
-0.04629 0.345095 0.651834
-0.0448802 0.346489 0.653327
-0.0434334 0.347572 0.654056
-0.0419899 0.348718 0.654936
-0.0405515 0.349957 0.656038
-0.0390987 0.351081 0.656854
-0.0376303 0.35206 0.657317
-0.0361692 0.353153 0.658053
-0.0347148 0.354371 0.659084
-0.0332602 0.355642 0.660239
-0.031808 0.357008 0.661618
-0.0303542 0.358428 0.663118
-0.0288904 0.359772 0.66443
-0.0274187 0.361062 0.665606
-0.0259491 0.362485 0.667095
-0.0244704 0.363817 0.668363
-0.0229821 0.365055 0.6694
-0.0214865 0.366197 0.670206
-0.0199942 0.367524 0.671445
-0.0185031 0.369022 0.673079
-0.0170072 0.370553 0.674786
-0.0155064 0.372116 0.676557
-0.14647 0.298254 0.661744
-0.144874 0.298722 0.660871
-0.143232 0.299074 0.659678
-0.141566 0.299361 0.658304
-0.139901 0.299637 0.656906
-0.138244 0.29992 0.655534
-0.136594 0.300208 0.654182
-0.135018 0.300672 0.653325
-0.13346 0.301176 0.652583
-0.131935 0.301757 0.652058
-0.130426 0.302377 0.651644
-0.128942 0.303061 0.651406
-0.127406 0.303604 0.65078
-0.125854 0.304097 0.650019
-0.124315 0.304618 0.649339
-0.122767 0.30511 0.648581
-0.121204 0.305551 0.647689
-0.119675 0.306083 0.647045
-0.118158 0.306646 0.646489
-0.116649 0.307227 0.645985
-0.115128 0.307765 0.645363
-0.110758 0.321036 0.670561
-0.109172 0.3215 0.669692
-0.107558 0.321857 0.668543
-0.105957 0.322244 0.66748
-0.104327 0.322517 0.666116
-0.102719 0.322855 0.664932
-0.101166 0.323377 0.664236
-0.0996772 0.324133 0.664159
-0.0981977 0.324924 0.664172
-0.0967987 0.326026 0.665
-0.0954259 0.327245 0.66613
-0.0940705 0.328553 0.667482
-0.0927023 0.32983 0.668751
-0.091341 0.331156 0.670138
-0.0898999 0.332169 0.67071
-0.0884055 0.332961 0.670709
-0.0868858 0.333642 0.67042
-0.0854292 0.334607 0.670863
-0.0839222 0.33535 0.670732
-0.082454 0.336273 0.671063
-0.080987 0.337211 0.671431
-0.0794688 0.337907 0.671179
-0.0778639 0.338164 0.66981
-0.0763362 0.338793 0.669392
-0.0748103 0.33943 0.668993
-0.0732975 0.340131 0.668761
-0.0718139 0.340994 0.668935
-0.0703146 0.341769 0.668887
-0.0687853 0.342375 0.668414
-0.067255 0.342969 0.667914
-0.0657105 0.343463 0.667164
-0.0641371 0.343767 0.665945
-0.0626004 0.34428 0.665247
-0.0515474 0.345059 0.653547
-0.0501784 0.346741 0.655746
-0.0487502 0.347984 0.656861
-0.0473221 0.349263 0.658062
-0.0458735 0.350397 0.6589
-0.0444033 0.351351 0.659302
-0.0429309 0.352302 0.659692
-0.0414733 0.353428 0.660504
-0.0399971 0.354386 0.660905
-0.0385098 0.355234 0.66104
-0.0370317 0.356206 0.661473
-0.0355614 0.357302 0.662198
-0.0340905 0.358428 0.662994
-0.0326266 0.359691 0.664111
-0.031159 0.360973 0.665269
-0.0296775 0.362101 0.666058
-0.0281959 0.363267 0.666929
-0.0267162 0.364554 0.668085
-0.0252295 0.365758 0.669039
-0.023738 0.366948 0.669955
-0.0222393 0.368057 0.670678
-0.0207482 0.369438 0.672035
-0.0192578 0.370982 0.673769
-0.0177632 0.372565 0.675584
-0.0162605 0.374127 0.677344
-0.0140529 0.376188 0.684192
-0.0147452 0.375388 0.678396
-0.147146 0.299493 0.66079
-0.14557 0.300007 0.660051
-0.14396 0.300434 0.659072
-0.142314 0.300768 0.657837
-0.140663 0.301079 0.656543
-0.139018 0.301396 0.655271
-0.137395 0.301755 0.654122
-0.13583 0.302249 0.65335
-0.134285 0.302789 0.652709
-0.132771 0.303404 0.652276
-0.131273 0.304059 0.651956
-0.129776 0.304712 0.651632
-0.12824 0.305258 0.651016
-0.126687 0.305755 0.650267
-0.125146 0.306276 0.649585
-0.123597 0.306772 0.64884
-0.122043 0.307244 0.648032
-0.120513 0.307779 0.647396
-0.118994 0.308339 0.646833
-0.117483 0.308921 0.64633
-0.115971 0.309494 0.645805
-0.109931 0.322959 0.669286
-0.108321 0.323332 0.668182
-0.106713 0.323701 0.667076
-0.105083 0.323978 0.665727
-0.103462 0.324272 0.664432
-0.101896 0.324752 0.663629
-0.1004 0.325479 0.663475
-0.0989423 0.326351 0.663699
-0.0975845 0.327612 0.664935
-0.096255 0.329003 0.666504
-0.0949129 0.330368 0.667997
-0.0935621 0.331723 0.669457
-0.0922208 0.333141 0.671074
-0.0907961 0.334232 0.671839
-0.0893205 0.335119 0.672077
-0.0878462 0.336018 0.672343
-0.0864123 0.337105 0.67309
-0.0849129 0.337904 0.673097
-0.0834388 0.338827 0.673418
-0.0819812 0.339834 0.673951
-0.0804676 0.34058 0.67382
-0.0788822 0.340968 0.672783
-0.0773413 0.341567 0.672282
-0.0758103 0.34221 0.671892
-0.0742835 0.34287 0.671548
-0.0727725 0.343614 0.671417
-0.0712388 0.34423 0.670963
-0.0696965 0.34479 0.67037
-0.0681486 0.345304 0.669667
-0.0665845 0.345711 0.668696
-0.0650307 0.346164 0.667846
-0.0635168 0.346854 0.667586
-0.0498057 0.352183 0.663126
-0.0483565 0.353379 0.664103
-0.0468629 0.354195 0.664156
-0.0453573 0.354905 0.663952
-0.0438569 0.355669 0.663876
-0.0423762 0.356638 0.664297
-0.0408776 0.357425 0.664277
-0.039374 0.358174 0.664165
-0.0378859 0.3591 0.664475
-0.0363974 0.360034 0.664804
-0.0349111 0.361026 0.665271
-0.0334323 0.362152 0.66605
-0.0319503 0.363263 0.666792
-0.0304529 0.364189 0.667093
-0.0289635 0.365264 0.667743
-0.0274777 0.366461 0.668677
-0.0259869 0.36762 0.669519
-0.0244915 0.368773 0.670343
-0.0229936 0.369928 0.671167
-0.0215041 0.371352 0.672614
-0.0200126 0.372899 0.674346
-0.0185176 0.374482 0.67615
-0.017013 0.376 0.677799
-0.015495 0.377182 0.678657
-0.147924 0.300966 0.660494
-0.146344 0.301472 0.659736
-0.144753 0.301947 0.658893
-0.143121 0.302318 0.657767
-0.141482 0.302662 0.656567
-0.139822 0.302944 0.655203
-0.138212 0.30334 0.654156
-0.136647 0.303838 0.653398
-0.135113 0.304408 0.652841
-0.133597 0.305023 0.652409
-0.132111 0.305712 0.65218
-0.130613 0.306368 0.651862
-0.129099 0.306981 0.65143
-0.127547 0.307484 0.650697
-0.126005 0.30801 0.65003
-0.124454 0.308505 0.649283
-0.122908 0.309007 0.648556
-0.121365 0.309511 0.647838
-0.119844 0.310073 0.647279
-0.118333 0.310663 0.646796
-0.11682 0.311239 0.646276
-0.109049 0.324689 0.667508
-0.107436 0.325042 0.666362
-0.105815 0.325353 0.665111
-0.104201 0.325675 0.663892
-0.102666 0.326268 0.663387
-0.101185 0.327053 0.663382
-0.0997582 0.328046 0.663918
-0.0984437 0.329476 0.665587
-0.0971396 0.330974 0.667419
-0.0957937 0.332333 0.668887
-0.0944514 0.33373 0.670447
-0.0930995 0.335113 0.67196
-0.0916631 0.336167 0.672623
-0.0902056 0.337143 0.673083
-0.0887587 0.338174 0.673681
-0.0873231 0.339267 0.674436
-0.0858345 0.340134 0.674608
-0.0843599 0.34107 0.674956
-0.0829041 0.342105 0.675554
-0.0814026 0.342929 0.675615
-0.0798613 0.34356 0.675188
-0.0783253 0.344212 0.674816
-0.0767908 0.344868 0.674454
-0.0752523 0.345498 0.674027
-0.0737226 0.346171 0.67371
-0.0721638 0.346677 0.672979
-0.0706154 0.347231 0.672368
-0.0690605 0.347736 0.671637
-0.0674809 0.34808 0.67051
-0.065936 0.348616 0.669863
-0.0644191 0.349319 0.66963
-0.052425 0.355994 0.670327
-0.0508855 0.356516 0.669653
-0.0493756 0.35728 0.669567
-0.0478445 0.357857 0.669031
-0.0463091 0.35838 0.668366
-0.044785 0.358991 0.667912
-0.0432772 0.359766 0.667854
-0.0417571 0.360403 0.667466
-0.0402355 0.361023 0.66704
-0.0387251 0.361756 0.666881
-0.0372212 0.362565 0.666906
-0.0357234 0.363468 0.667152
-0.0342301 0.364438 0.667553
-0.0327327 0.365388 0.667908
-0.03123 0.36627 0.668098
-0.0297344 0.367289 0.668609
-0.0282425 0.368406 0.66935
-0.0267475 0.369529 0.670099
-0.025252 0.370689 0.670931
-0.0237528 0.37185 0.671763
-0.0222589 0.373198 0.673026
-0.0207654 0.374698 0.674637
-0.0192702 0.376312 0.676504
-0.0177644 0.377798 0.678068
-0.0162469 0.379033 0.679044
-0.147152 0.303018 0.659642
-0.145567 0.303508 0.658844
-0.14394 0.303894 0.657762
-0.142319 0.304285 0.656697
-0.140657 0.304568 0.655336
-0.139059 0.304997 0.654387
-0.137494 0.305499 0.65364
-0.135973 0.306109 0.65319
-0.134443 0.306692 0.652672
-0.132942 0.307347 0.652347
-0.13144 0.307998 0.652016
-0.129925 0.308612 0.651584
-0.128371 0.309114 0.650851
-0.126828 0.309643 0.650193
-0.125288 0.310172 0.649537
-0.12374 0.310675 0.648813
-0.122194 0.311177 0.64809
-0.120662 0.311712 0.647458
-0.119156 0.312321 0.647025
-0.117634 0.312875 0.646448
-0.109734 0.325902 0.666456
-0.108149 0.326352 0.665569
-0.106554 0.326752 0.664555
-0.104972 0.327188 0.66364
-0.103505 0.32803 0.66378
-0.102063 0.328969 0.664173
-0.100676 0.330118 0.665106
-0.0993928 0.331679 0.6671
-0.0981002 0.333233 0.669066
-0.0967454 0.334572 0.670467
-0.0954025 0.335981 0.672044
-0.0940394 0.337332 0.673463
-0.0925913 0.338352 0.674033
-0.0911336 0.339342 0.67452
-0.0896845 0.340379 0.675126
-0.0882207 0.341363 0.675594
-0.086731 0.342238 0.675784
-0.0852315 0.343074 0.675874
-0.0837551 0.344024 0.676249
-0.0822337 0.344765 0.676098
-0.0807059 0.345474 0.675865
-0.0791693 0.346135 0.675511
-0.0776565 0.346916 0.675462
-0.0761384 0.347672 0.675348
-0.0746293 0.348476 0.675354
-0.0730878 0.349103 0.674918
-0.0715487 0.349736 0.6745
-0.0699957 0.350283 0.673871
-0.0684092 0.350621 0.672726
-0.066851 0.35111 0.671958
-0.0653204 0.351759 0.671587
-0.0637645 0.352239 0.670802
-0.0535367 0.360407 0.676998
-0.051954 0.360681 0.675716
-0.0503745 0.36095 0.674425
-0.0488042 0.361264 0.673244
-0.0472306 0.361514 0.671917
-0.0456696 0.361843 0.670784
-0.0441258 0.362317 0.669999
-0.0425831 0.362774 0.669179
-0.0410398 0.363195 0.668275
-0.0395185 0.36384 0.667905
-0.0380114 0.364647 0.66792
-0.0365141 0.365587 0.668248
-0.0350182 0.366563 0.668658
-0.0335165 0.367481 0.66893
-0.0320098 0.368352 0.669092
-0.0305064 0.369283 0.669391
-0.0290091 0.370356 0.670021
-0.0275117 0.371446 0.670687
-0.0260143 0.372616 0.671536
-0.024516 0.373823 0.672468
-0.0230186 0.375126 0.673619
-0.0215233 0.376591 0.675137
-0.0200272 0.378208 0.677002
-0.0185227 0.379746 0.678675
-0.0170053 0.381035 0.67977
-0.147914 0.304454 0.659239
-0.146323 0.304933 0.658412
-0.144715 0.305366 0.657464
-0.143122 0.305828 0.656596
-0.141497 0.306203 0.655496
-0.139913 0.30667 0.654649
-0.138358 0.307205 0.653993
-0.136836 0.307816 0.653548
-0.135304 0.3084 0.65303
-0.1338 0.309054 0.652701
-0.132296 0.309702 0.65236
-0.130778 0.310314 0.651922
-0.129222 0.310817 0.651193
-0.127677 0.311346 0.650534
-0.12612 0.311836 0.649774
-0.124569 0.312335 0.649039
-0.123021 0.312835 0.648312
-0.121488 0.313373 0.64769
-0.119975 0.313965 0.647212
-0.118461 0.314549 0.646715
-0.105911 0.329299 0.664932
-0.104506 0.330374 0.66567
-0.103089 0.331423 0.666339
-0.101725 0.332675 0.667528
-0.100417 0.33416 0.669307
-0.0990812 0.335565 0.670874
-0.0977097 0.336853 0.672136
-0.0963517 0.338216 0.673582
-0.0949675 0.339495 0.674806
-0.0934976 0.340439 0.675172
-0.0920449 0.341463 0.675741
-0.0905841 0.342463 0.676245
-0.0890914 0.343332 0.676417
-0.0875789 0.344118 0.676377
-0.0860583 0.344867 0.676245
-0.084562 0.34573 0.676398
-0.0830332 0.346443 0.676174
-0.0815208 0.347234 0.676142
-0.079999 0.347979 0.676001
-0.0785079 0.348884 0.676256
-0.0770046 0.349731 0.676363
-0.075509 0.350622 0.67658
-0.0739804 0.351339 0.676364
-0.072461 0.352108 0.676278
-0.0709336 0.352832 0.676081
-0.069361 0.353283 0.675213
-0.0678026 0.353807 0.674528
-0.0558765 0.36162 0.677854
-0.0543184 0.362132 0.677142
-0.0527564 0.362593 0.676311
-0.0511885 0.362988 0.675324
-0.0496269 0.363409 0.674401
-0.0480614 0.363767 0.673332
-0.0465088 0.364215 0.672483
-0.0449595 0.364682 0.671681
-0.0434082 0.365094 0.67075
-0.0418593 0.365504 0.669819
-0.0403298 0.366104 0.669339
-0.0388146 0.366859 0.669225
-0.0373076 0.367719 0.669359
-0.0358065 0.368658 0.669677
-0.034296 0.369495 0.669756
-0.0327841 0.370325 0.669816
-0.0312774 0.371246 0.670088
-0.0297764 0.372278 0.670616
-0.0282746 0.373331 0.67119
-0.0267769 0.374503 0.672038
-0.0252769 0.375709 0.672959
-0.0237764 0.376976 0.674018
-0.0222815 0.378443 0.675534
-0.0207876 0.380113 0.677508
-0.0192837 0.381706 0.679298
-0.0177662 0.383058 0.680529
-0.14706 0.306315 0.65786
-0.145494 0.306847 0.657186
-0.143932 0.307384 0.656527
-0.142329 0.307817 0.655587
-0.140768 0.308346 0.654913
-0.13924 0.308953 0.654452
-0.137729 0.3096 0.654101
-0.136195 0.310184 0.653584
-0.134689 0.310836 0.653249
-0.133179 0.311478 0.652889
-0.131645 0.312053 0.65235
-0.130074 0.312522 0.651528
-0.128527 0.313049 0.650866
-0.126966 0.313534 0.650094
-0.125411 0.314028 0.649347
-0.123861 0.314528 0.64862
-0.122337 0.315099 0.648084
-0.120826 0.315703 0.647636
-0.10564 0.333189 0.66875
-0.104204 0.33419 0.669283
-0.102814 0.335372 0.670277
-0.101445 0.336645 0.671501
-0.100037 0.337792 0.672393
-0.0986169 0.338903 0.673193
-0.0972339 0.340176 0.674398
-0.0958257 0.341367 0.67539
-0.0943434 0.342268 0.675645
-0.0928955 0.34332 0.676278
-0.0914221 0.344274 0.676661
-0.0899094 0.345064 0.67663
-0.0883864 0.34581 0.676489
-0.0868568 0.346524 0.676264
-0.0853425 0.34731 0.676224
-0.0838223 0.348068 0.67611
-0.0823178 0.348903 0.676189
-0.0808053 0.349702 0.676176
-0.0793318 0.350701 0.67666
-0.0778428 0.351634 0.676979
-0.0763558 0.352583 0.677334
-0.0748485 0.353432 0.67744
-0.0733666 0.354427 0.677905
-0.0718787 0.3554 0.678315
-0.0703407 0.356089 0.678026
-0.0687996 0.356759 0.677691
-0.0566502 0.363267 0.677804
-0.0550983 0.363837 0.67723
-0.0535487 0.364413 0.676674
-0.0519967 0.364958 0.676046
-0.050443 0.365475 0.675353
-0.0488888 0.365968 0.674606
-0.0473464 0.366545 0.67406
-0.0457936 0.367016 0.673267
-0.0442377 0.367433 0.672346
-0.0426835 0.36784 0.671406
-0.0411463 0.368394 0.670815
-0.0396191 0.369057 0.670482
-0.0381055 0.369868 0.670496
-0.0365982 0.370766 0.670712
-0.0350788 0.371522 0.670598
-0.0335635 0.372346 0.67064
-0.0320521 0.373222 0.670801
-0.0305468 0.374212 0.671227
-0.0290396 0.375215 0.671681
-0.0275386 0.376346 0.672428
-0.0260358 0.377511 0.673248
-0.0245343 0.378772 0.674287
-0.0230386 0.380247 0.675811
-0.0215445 0.381924 0.677792
-0.0200428 0.383577 0.679709
-0.0185266 0.384988 0.681067
-0.14628 0.308344 0.656947
-0.144743 0.308944 0.656462
-0.14316 0.30943 0.65567
-0.141596 0.309955 0.654985
-0.140079 0.310592 0.654606
-0.138553 0.311206 0.654165
-0.137006 0.311759 0.653562
-0.135497 0.312409 0.653223
-0.133999 0.313086 0.652956
-0.132464 0.31366 0.652415
-0.130903 0.314163 0.651686
-0.129354 0.31469 0.651022
-0.127792 0.315174 0.65025
-0.126233 0.315663 0.649489
-0.12468 0.31616 0.648756
-0.12316 0.316748 0.648266
-0.12166 0.31739 0.647917
-0.107058 0.337009 0.674373
-0.105456 0.337447 0.673448
-0.103949 0.338226 0.673399
-0.102502 0.339234 0.673931
-0.101011 0.340079 0.674047
-0.0995307 0.340972 0.674284
-0.0980923 0.342037 0.674953
-0.0966434 0.34307 0.675539
-0.0951292 0.343845 0.675471
-0.093659 0.344807 0.675873
-0.0921667 0.345681 0.676054
-0.0906542 0.346472 0.676023
-0.0891401 0.347259 0.675982
-0.0876187 0.348013 0.675859
-0.0861149 0.348848 0.675938
-0.0846099 0.349683 0.676017
-0.0831153 0.350571 0.676225
-0.0816188 0.351456 0.676424
-0.0801561 0.352517 0.677054
-0.0786761 0.353504 0.677501
-0.0772027 0.354537 0.678058
-0.0757184 0.355522 0.678494
-0.0742751 0.356749 0.67952
-0.0728072 0.357857 0.68025
-0.0713202 0.358872 0.680751
-0.0698403 0.359945 0.681389
-0.0574496 0.365094 0.678174
-0.0558959 0.365667 0.67761
-0.0543501 0.366294 0.677174
-0.0528112 0.366966 0.676848
-0.0512557 0.367491 0.676174
-0.0497088 0.368074 0.675638
-0.0481717 0.368737 0.675294
-0.0466209 0.369264 0.67463
-0.0450668 0.369735 0.673837
-0.0435093 0.370154 0.672925
-0.0419639 0.370663 0.672224
-0.0404282 0.371272 0.671762
-0.0389062 0.372026 0.671639
-0.0373886 0.372831 0.671634
-0.0358657 0.373582 0.671502
-0.0343459 0.374368 0.671452
-0.0328292 0.375201 0.671512
-0.0313155 0.376098 0.671718
-0.0298043 0.377056 0.672061
-0.0282983 0.378133 0.672679
-0.0267944 0.379296 0.673489
-0.0252925 0.380564 0.674536
-0.0237969 0.382046 0.676068
-0.0223029 0.383731 0.678057
-0.0208014 0.385388 0.679972
-0.0192864 0.386846 0.681429
-0.14683 0.313569 0.664706
-0.14384 0.310675 0.654747
-0.142301 0.311259 0.654227
-0.140815 0.311975 0.654061
-0.139317 0.312658 0.653807
-0.137796 0.313283 0.6534
-0.136287 0.313935 0.653065
-0.134801 0.314645 0.652886
-0.133266 0.315223 0.652354
-0.131719 0.315766 0.651734
-0.130183 0.316333 0.651177
-0.128631 0.316851 0.650495
-0.127058 0.317307 0.64965
-0.125514 0.317833 0.648993
-0.124006 0.318462 0.648609
-0.122503 0.319101 0.648252
-0.108377 0.340458 0.678991
-0.106689 0.34062 0.677357
-0.10505 0.340947 0.676147
-0.103515 0.341646 0.675885
-0.101951 0.342232 0.675339
-0.100425 0.342959 0.675151
-0.0989438 0.343866 0.675414
-0.0974607 0.344769 0.675669
-0.0959237 0.345457 0.67538
-0.094433 0.346335 0.675569
-0.0929211 0.347129 0.675547
-0.0913987 0.34788 0.675415
-0.089895 0.348711 0.675485
-0.0883822 0.349506 0.675463
-0.0868785 0.350346 0.675551
-0.0853837 0.35123 0.675749
-0.0838972 0.35216 0.676058
-0.0824107 0.353098 0.676385
-0.0809553 0.354201 0.677116
-0.0794844 0.355239 0.677681
-0.0780257 0.356356 0.678439
-0.0765783 0.35755 0.679381
-0.0751753 0.35901 0.680965
-0.0737303 0.360268 0.682053
-0.0722718 0.361472 0.683003
-0.0708214 0.362749 0.684126
-0.0567043 0.367574 0.678163
-0.0551601 0.368228 0.677791
-0.0536233 0.368944 0.677566
-0.052075 0.369551 0.677085
-0.0505197 0.370091 0.676448
-0.0489811 0.37076 0.676113
-0.0474323 0.371334 0.675558
-0.0458798 0.371856 0.674885
-0.0443241 0.372327 0.674093
-0.0427749 0.37284 0.673401
-0.0412316 0.373399 0.67282
-0.0396987 0.374056 0.672468
-0.0381705 0.374764 0.672234
-0.0366385 0.375428 0.6719
-0.0351165 0.376211 0.671841
-0.0335955 0.377002 0.6718
-0.0320794 0.377893 0.671987
-0.0305668 0.378844 0.672312
-0.0290577 0.379879 0.672828
-0.027553 0.381044 0.673637
-0.0260533 0.382362 0.674793
-0.0245562 0.383848 0.676324
-0.0230622 0.3855 0.678228
-0.0215599 0.387149 0.680114
-0.020045 0.388602 0.681551
-0.14419 0.31548 0.661306
-0.141495 0.313215 0.653132
-0.140015 0.313944 0.653003
-0.13969 0.317631 0.660768
-0.126333 0.319464 0.649111
-0.124808 0.320047 0.648606
-0.123278 0.32061 0.648051
-0.111188 0.342989 0.683283
-0.109508 0.343227 0.681833
-0.107795 0.343324 0.680034
-0.106108 0.3435 0.678438
