ply
format ascii 1.0
element vertex 1778
property float x
property float y
property float z
end_header
0.175182 0.14943 0.910591
0.177145 0.15007 0.91247
0.179106 0.150703 0.914293
0.181017 0.151291 0.915787
0.18287 0.151828 0.916911
0.184764 0.152394 0.918238
0.186713 0.153003 0.919855
0.188647 0.153597 0.921356
0.19196 0.153364 0.928692
0.190643 0.154237 0.923165
0.0433517 0.121842 0.914829
0.0449278 0.122086 0.913778
0.0464977 0.122316 0.91262
0.0480516 0.122503 0.911083
0.0496019 0.122692 0.909573
0.0511433 0.122865 0.907941
0.0526813 0.123042 0.906347
0.054219 0.12323 0.90486
0.0557744 0.123479 0.903902
0.0573326 0.123741 0.903063
0.0588996 0.124032 0.902474
0.0604742 0.124345 0.90207
0.0620486 0.124658 0.90168
0.0636015 0.124923 0.900874
0.0651503 0.125182 0.900031
0.0667009 0.12545 0.899263
0.0682413 0.1257 0.898348
0.0697751 0.12594 0.897354
0.0713216 0.126212 0.896628
0.0728709 0.126492 0.895979
0.0744155 0.126766 0.895278
0.0759615 0.127046 0.894626
0.0858553 0.132183 0.921819
0.0874207 0.132435 0.92087
0.088953 0.132636 0.919514
0.0904898 0.13285 0.918268
0.092003 0.133031 0.916767
0.0935378 0.133252 0.91559
0.0951111 0.133536 0.914924
0.0967461 0.133915 0.915016
0.098364 0.134267 0.914896
0.100037 0.1347 0.915414
0.101738 0.135169 0.916211
0.103464 0.13567 0.917251
0.105182 0.136155 0.918164
0.106925 0.136671 0.919309
0.108606 0.137096 0.919743
0.110238 0.137456 0.919658
0.111816 0.137745 0.919028
0.113462 0.138122 0.91908
0.115058 0.138435 0.918635
0.116691 0.138795 0.91856
0.11832 0.139151 0.918447
0.119888 0.139432 0.917758
0.121327 0.139558 0.915903
0.122876 0.139821 0.915087
0.124442 0.140106 0.914447
0.126068 0.140462 0.914345
0.127755 0.140888 0.914768
0.129438 0.141308 0.915141
0.131066 0.141664 0.915036
0.132688 0.142014 0.914881
0.134252 0.1423 0.914254
0.135726 0.142488 0.912901
0.137206 0.142687 0.911638
0.13853 0.142722 0.909171
0.141769 0.14211 0.896594
0.14479 0.142628 0.895052
0.146628 0.143218 0.896693
0.148452 0.143788 0.89818
0.150169 0.14425 0.898872
0.151905 0.144728 0.899676
0.153749 0.145307 0.901205
0.155481 0.145776 0.901929
0.15724 0.146267 0.902812
0.159037 0.146792 0.903929
0.160794 0.147275 0.904744
0.162496 0.147707 0.905187
0.164246 0.14818 0.905918
0.166047 0.148698 0.90696
0.167872 0.149235 0.908131
0.16974 0.149807 0.909539
0.171634 0.150398 0.911074
0.173501 0.150963 0.91241
0.17535 0.151508 0.913604
0.177259 0.152101 0.915127
0.179133 0.152662 0.916416
0.180972 0.153189 0.917463
0.182774 0.153681 0.918267
0.184657 0.154241 0.919526
0.186619 0.154862 0.9212
0.1886 0.155496 0.922951
0.190599 0.156142 0.924769
0.0445574 0.123669 0.913481
0.0461337 0.12392 0.912516
0.047696 0.124132 0.911212
0.049248 0.12432 0.909718
0.0507947 0.124505 0.908197
0.0523381 0.124691 0.906705
0.053878 0.12488 0.905234
0.0554352 0.125129 0.904287
0.0569951 0.125391 0.90346
0.0585632 0.125681 0.902862
0.0601353 0.125984 0.902382
0.0617154 0.126309 0.902088
0.0632747 0.126585 0.901384
0.0648249 0.126843 0.900538
0.0663774 0.127111 0.899777
0.0679235 0.127369 0.898934
0.0694593 0.127609 0.89795
0.0710077 0.127881 0.897227
0.0725598 0.128163 0.896597
0.0741139 0.128452 0.896023
0.0756587 0.128725 0.895324
0.0854925 0.13381 0.921707
0.0870576 0.134059 0.920746
0.0885981 0.134271 0.919489
0.0901419 0.134493 0.918324
0.0916574 0.134675 0.916841
0.093184 0.134879 0.915548
0.0947487 0.135149 0.91477
0.0963658 0.1355 0.914645
0.0979911 0.135864 0.914615
0.0996913 0.136339 0.915445
0.101423 0.136854 0.916593
0.10318 0.137401 0.917976
0.104935 0.137938 0.919272
0.106706 0.138493 0.920691
0.108401 0.138936 0.92125
0.110039 0.139301 0.921205
0.111649 0.139628 0.920857
0.113335 0.140054 0.921279
0.114961 0.140402 0.921097
0.116638 0.140814 0.921402
0.118321 0.141231 0.921746
0.119936 0.141562 0.921437
0.121422 0.141737 0.919949
0.123014 0.142044 0.919464
0.124608 0.142354 0.919
0.126221 0.142687 0.91871
0.127883 0.143077 0.91885
0.129518 0.143437 0.918755
0.131101 0.143735 0.918213
0.132679 0.14403 0.917642
0.134224 0.144288 0.916808
0.135705 0.144478 0.915478
0.137251 0.144743 0.914698
0.147034 0.145582 0.902063
0.148976 0.146268 0.904337
0.150765 0.146794 0.905468
0.152572 0.147335 0.906689
0.154329 0.147823 0.907529
0.156022 0.148247 0.907908
0.157715 0.148669 0.908276
0.159476 0.149155 0.909086
0.161175 0.14958 0.909465
0.162834 0.149966 0.909564
0.164541 0.150396 0.909975
0.166299 0.150871 0.910695
0.168072 0.151358 0.91149
0.169901 0.151895 0.912622
0.171742 0.152438 0.913796
0.173525 0.152926 0.914583
0.175325 0.153427 0.915456
0.177179 0.153973 0.916629
0.179 0.154489 0.917588
0.18082 0.155 0.918509
0.182608 0.155482 0.919225
0.184515 0.156063 0.920609
0.186497 0.156704 0.922389
0.188499 0.157359 0.924256
0.1905 0.158007 0.926063
0.193716 0.157699 0.932756
0.192372 0.158545 0.927125
0.0441794 0.125222 0.912929
0.0457598 0.125489 0.912105
0.0473298 0.125725 0.911027
0.0488876 0.125929 0.909678
0.0504392 0.126124 0.908268
0.0519875 0.126321 0.90688
0.053537 0.126533 0.905622
0.0550993 0.126791 0.904764
0.0566653 0.127066 0.904044
0.0582392 0.127367 0.903544
0.0598176 0.127682 0.903163
0.0613952 0.127996 0.902778
0.0629567 0.128273 0.902084
0.0645094 0.128532 0.901251
0.0660636 0.128799 0.900487
0.0676124 0.129058 0.899658
0.0691551 0.129308 0.898761
0.070706 0.12958 0.898047
0.0722596 0.129861 0.89741
0.0738157 0.130149 0.896836
0.0753689 0.130434 0.896238
0.0867058 0.135704 0.920778
0.0882506 0.13592 0.919568
0.0897918 0.136135 0.918357
0.0913097 0.136317 0.916889
0.0928278 0.136504 0.915479
0.0943839 0.136758 0.914587
0.0959943 0.137099 0.91438
0.0976385 0.137492 0.914574
0.0993759 0.138024 0.915835
0.101149 0.138603 0.917448
0.102921 0.139173 0.91898
0.104695 0.139739 0.920477
0.106491 0.140328 0.922139
0.108208 0.140801 0.922903
0.109874 0.141201 0.923111
0.111545 0.141604 0.923347
0.113267 0.142076 0.924091
0.114913 0.142444 0.924054
0.116595 0.142857 0.924349
0.118301 0.1433 0.924868
0.119934 0.143649 0.924684
0.121465 0.14387 0.923547
0.123055 0.144166 0.922974
0.124656 0.144478 0.922519
0.126262 0.144796 0.922112
0.127893 0.145145 0.921929
0.129484 0.145447 0.921406
0.131057 0.145728 0.920737
0.132614 0.145994 0.919951
0.134135 0.14622 0.918883
0.135668 0.146463 0.917942
0.137277 0.146792 0.917624
0.151422 0.149428 0.912527
0.153207 0.14994 0.913512
0.154857 0.150315 0.913524
0.156467 0.150651 0.913265
0.158098 0.151006 0.913141
0.159806 0.151436 0.913541
0.161446 0.1518 0.913476
0.163073 0.152149 0.913313
0.164767 0.152564 0.913597
0.166466 0.152982 0.913899
0.16819 0.15342 0.914347
0.169969 0.153908 0.915124
0.171743 0.154391 0.915861
0.173446 0.154806 0.916134
0.17521 0.155276 0.916774
0.177028 0.15579 0.917714
0.178832 0.156291 0.918557
0.180637 0.15679 0.91938
0.182446 0.15729 0.920202
0.18437 0.157888 0.921682
0.186354 0.158533 0.923461
0.188356 0.159191 0.925317
0.190337 0.159825 0.927008
0.192174 0.160335 0.927867
0.0438219 0.126858 0.913072
0.0454026 0.127121 0.912226
0.0469783 0.127373 0.911293
0.0485413 0.127588 0.910059
0.0500979 0.127793 0.908746
0.0516443 0.127977 0.907261
0.0531995 0.1282 0.906112
0.0547639 0.12846 0.905268
0.0563351 0.128744 0.904636
0.0579107 0.129045 0.904136
0.059495 0.129372 0.903851
0.0610745 0.129687 0.903473
0.0626474 0.129987 0.902974
0.064203 0.130247 0.902156
0.0657604 0.130516 0.901409
0.067311 0.130774 0.900575
0.0688608 0.131034 0.899765
0.0704091 0.131294 0.898964
0.0719651 0.131575 0.89833
0.0735245 0.131866 0.897777
0.0750802 0.132152 0.897186
0.0878786 0.137528 0.919317
0.0894169 0.137736 0.918063
0.0909431 0.137928 0.916698
0.0924681 0.138124 0.915367
0.0940501 0.138418 0.91479
0.0956743 0.13878 0.914741
0.0973472 0.139217 0.915264
0.099125 0.139812 0.916982
0.100924 0.140431 0.918874
0.102696 0.141001 0.92038
0.104483 0.141584 0.921984
0.10627 0.142163 0.923538
0.107979 0.142624 0.924194
0.109671 0.143056 0.924635
0.111378 0.143508 0.925222
0.113105 0.143983 0.925975
0.114773 0.144376 0.926113
0.11646 0.144795 0.926436
0.118177 0.145249 0.927023
0.119837 0.145627 0.927044
0.121442 0.145934 0.926548
0.123052 0.14625 0.926112
0.124662 0.146566 0.925685
0.126264 0.146874 0.92519
0.127878 0.147196 0.924812
0.129441 0.147459 0.923996
0.131016 0.147738 0.923307
0.132575 0.147999 0.922492
0.134081 0.148202 0.921259
0.135645 0.148475 0.920531
0.137262 0.148808 0.920242
0.15056 0.15186 0.920624
0.152113 0.152127 0.919868
0.153752 0.152483 0.919734
0.155324 0.152771 0.919124
0.156874 0.153038 0.918379
0.158455 0.153337 0.917857
0.160097 0.153697 0.917752
0.161686 0.154006 0.917297
0.16327 0.154309 0.916805
0.164894 0.154653 0.916593
0.166549 0.155026 0.916575
0.168242 0.155432 0.91679
0.169961 0.155864 0.917168
0.171675 0.156289 0.917499
0.173361 0.156688 0.917655
0.175105 0.157138 0.918149
0.176891 0.157625 0.918885
0.178681 0.158113 0.919631
0.180489 0.158616 0.920463
0.182301 0.159119 0.921295
0.184194 0.159692 0.922581
0.186157 0.160321 0.924233
0.188173 0.160993 0.926156
0.190139 0.161617 0.927759
0.192001 0.162149 0.928743
0.0450523 0.128782 0.912583
0.0466307 0.129039 0.911696
0.0481968 0.129258 0.910508
0.0497601 0.129479 0.909339
0.0513085 0.129661 0.907856
0.0528695 0.129896 0.906809
0.0544361 0.130156 0.905977
0.056014 0.130454 0.905458
0.0575874 0.130743 0.904867
0.0591689 0.131058 0.904481
0.0607493 0.131371 0.904088
0.0623238 0.131671 0.903588
0.0638812 0.13193 0.90277
0.0654406 0.1322 0.902032
0.0669981 0.132469 0.901296
0.0685501 0.132728 0.900488
0.0700998 0.132988 0.899681
0.071653 0.133259 0.89897
0.0732174 0.133556 0.89847
0.0747711 0.133834 0.897817
0.0874769 0.139084 0.918666
0.0890356 0.139325 0.917684
0.0905814 0.139549 0.91657
0.0921322 0.139785 0.915559
0.0937701 0.140168 0.915664
0.0954307 0.140586 0.916036
0.097141 0.141081 0.916978
0.0989509 0.141726 0.919041
0.100766 0.142368 0.921074
0.102535 0.142932 0.922511
0.104327 0.143523 0.924133
0.106109 0.144092 0.925589
0.107812 0.144541 0.926147
0.10951 0.144979 0.926617
0.111222 0.145435 0.927213
0.112922 0.145871 0.927663
0.114595 0.146268 0.92782
0.116258 0.14665 0.92787
0.117953 0.147074 0.928222
0.119591 0.147422 0.928019
0.12122 0.147758 0.927728
0.122835 0.148077 0.92731
0.124484 0.148439 0.927214
0.126127 0.148792 0.92705
0.127783 0.149163 0.927012
0.129386 0.149469 0.926507
0.13099 0.149777 0.926022
0.132567 0.150054 0.925313
0.134076 0.150253 0.92406
0.135631 0.150508 0.923206
0.137235 0.150822 0.92277
0.138783 0.151073 0.921897
0.151254 0.154607 0.928125
0.152732 0.154782 0.926728
0.154204 0.154956 0.925322
0.155688 0.155145 0.924032
0.157146 0.155311 0.922588
0.15863 0.155506 0.921348
0.160165 0.155755 0.920476
0.161692 0.155997 0.919566
0.163202 0.156226 0.918569
0.164797 0.156538 0.918135
0.166453 0.15691 0.918107
0.168162 0.157331 0.918408
0.169885 0.157765 0.918796
0.171588 0.158179 0.919039
0.173273 0.158575 0.919165
0.174983 0.158993 0.919436
0.176753 0.159464 0.920056
0.17853 0.159942 0.920714
0.180344 0.160449 0.921565
0.182176 0.160971 0.922502
0.184051 0.161529 0.923671
0.185998 0.162147 0.925227
0.188015 0.162822 0.927148
0.190004 0.163468 0.928867
0.191889 0.164022 0.929975
0.0446916 0.130406 0.912614
0.0462698 0.130657 0.911695
0.0478414 0.130893 0.910648
0.049413 0.131138 0.909687
0.0509731 0.131352 0.90848
0.0525401 0.131599 0.907541
0.0541125 0.13187 0.906804
0.0556924 0.132169 0.906291
0.057268 0.132458 0.905699
0.0588511 0.132772 0.905309
0.0604329 0.133084 0.904905
0.062009 0.133382 0.904399
0.0635686 0.133642 0.903585
0.0651299 0.133911 0.902846
0.0666837 0.134165 0.901999
0.0682367 0.134422 0.901179
0.0697882 0.13468 0.900367
0.0713437 0.134952 0.899666
0.072907 0.135243 0.899119
0.0744675 0.135531 0.89855
0.0919241 0.141665 0.917385
0.093616 0.142134 0.918122
0.0953049 0.142593 0.918785
0.0970425 0.143127 0.919999
0.0988379 0.143746 0.921836
0.100621 0.144337 0.923449
0.102381 0.144885 0.924739
0.104163 0.14546 0.926223
0.10593 0.146006 0.927473
0.107617 0.146428 0.927816
0.109326 0.146879 0.928373
0.11103 0.147322 0.928861
0.112703 0.147717 0.928999
0.114354 0.148081 0.928912
0.115995 0.148432 0.928728
0.117668 0.148825 0.928846
0.1193 0.149163 0.928565
0.120953 0.149529 0.928488
0.122593 0.149878 0.928294
0.124281 0.150286 0.928519
0.125952 0.150673 0.928588
0.127636 0.151077 0.928773
0.12927 0.151416 0.928501
0.130919 0.151774 0.928366
0.132555 0.152115 0.928114
0.134104 0.152356 0.927152
0.135675 0.152623 0.926385
0.149433 0.156107 0.929541
0.150998 0.15637 0.928745
0.152543 0.156614 0.927823
0.154063 0.156833 0.926737
0.15559 0.157061 0.925719
0.157091 0.157266 0.924546
0.158622 0.157505 0.923606
0.160159 0.15775 0.922715
0.161673 0.157975 0.921688
0.163183 0.158199 0.920662
0.164764 0.158493 0.920111
0.166403 0.158846 0.919947
0.168084 0.159238 0.920044
0.169795 0.15966 0.920335
0.171468 0.160044 0.920374
0.173139 0.160425 0.920394
0.174847 0.160839 0.920636
0.1766 0.161296 0.921148
0.178364 0.161761 0.921709
0.180179 0.162271 0.922559
0.182011 0.162793 0.923487
0.183872 0.163339 0.924559
0.185819 0.16396 0.926113
0.187858 0.164658 0.92815
0.18987 0.165327 0.929993
0.191784 0.165905 0.931246
0.0459048 0.132261 0.911567
0.0474865 0.132531 0.910811
0.0490669 0.132803 0.91007
0.0506345 0.133037 0.909032
0.0522101 0.133306 0.908276
0.0537925 0.133602 0.907745
0.0553787 0.133914 0.907331
0.0569566 0.134202 0.90674
0.0585417 0.134516 0.906343
0.0601248 0.134825 0.90592
0.0616981 0.13511 0.905306
0.0632549 0.135356 0.904393
0.0648181 0.135624 0.90365
0.0663732 0.135876 0.90279
0.0679275 0.136131 0.901957
0.0694808 0.136388 0.901145
0.0710438 0.136671 0.900536
0.0726108 0.136966 0.900019
0.0935604 0.144279 0.921841
0.0952441 0.144722 0.922361
0.0969706 0.145232 0.923369
0.0987217 0.145776 0.92462
0.100447 0.146273 0.925519
0.102168 0.146757 0.926321
0.10393 0.147302 0.927551
0.105677 0.147816 0.928557
0.107354 0.148223 0.928782
0.109072 0.148686 0.929407
0.110766 0.149113 0.929768
0.112419 0.149479 0.929691
0.114061 0.149829 0.929497
0.115694 0.150166 0.929216
0.117347 0.150531 0.929129
0.118992 0.150885 0.928965
0.120659 0.151268 0.929004
0.122315 0.151637 0.928947
0.12403 0.152081 0.929414
0.125728 0.1525 0.929706
0.127432 0.152926 0.930037
0.129107 0.153314 0.930105
0.130828 0.153757 0.930552
0.132543 0.154192 0.930941
0.134172 0.15452 0.930591
0.135795 0.154842 0.930193
0.149147 0.157844 0.929957
0.150733 0.158127 0.929306
0.15232 0.158414 0.928675
0.153895 0.158688 0.927967
0.155459 0.158952 0.927191
0.157013 0.159206 0.926358
0.158594 0.159493 0.925737
0.160137 0.159739 0.924855
0.161656 0.159965 0.923838
0.163171 0.160187 0.922802
0.164737 0.160464 0.922134
0.166345 0.160782 0.921737
0.168009 0.161156 0.921709
0.169706 0.161563 0.921892
0.17135 0.161917 0.921728
0.173021 0.162296 0.921728
0.174712 0.162694 0.921853
0.17645 0.163136 0.922259
0.178195 0.163583 0.922694
0.179994 0.164079 0.923437
0.181809 0.164587 0.924258
0.183668 0.165132 0.92531
0.185618 0.165758 0.926873
0.18766 0.166461 0.928919
0.189697 0.167155 0.930896
0.191636 0.167758 0.932284
0.0471326 0.134176 0.911015
0.0487202 0.134471 0.910458
0.0502949 0.134723 0.909576
0.0518716 0.13499 0.908808
0.053459 0.135297 0.908364
0.0550428 0.135596 0.907854
0.0566183 0.135873 0.907173
0.0582045 0.136186 0.906771
0.0597934 0.136508 0.906445
0.0613679 0.136792 0.90583
0.0629314 0.13705 0.905016
0.0644961 0.137317 0.90427
0.0660529 0.137568 0.903409
0.0676081 0.13782 0.902561
0.0691627 0.138076 0.901742
0.0707301 0.138365 0.901181
0.072305 0.138673 0.900769
0.0937159 0.146807 0.928254
0.0952854 0.147043 0.927232
0.0969289 0.147404 0.927136
0.0986245 0.147851 0.927655
0.100285 0.148238 0.927735
0.101957 0.148642 0.927941
0.103671 0.14911 0.928605
0.10538 0.149567 0.929181
0.107028 0.149927 0.929066
0.108723 0.150357 0.929447
0.110397 0.150755 0.929594
0.11205 0.151122 0.929517
0.113703 0.151486 0.92943
0.115347 0.151839 0.929255
0.117013 0.152223 0.929295
0.118681 0.152605 0.929335
0.120363 0.153008 0.92951
0.122045 0.15341 0.929676
0.123779 0.153878 0.930299
0.125493 0.154318 0.930727
0.127223 0.154776 0.931271
0.128941 0.155216 0.931689
0.130733 0.155747 0.932728
0.132493 0.156233 0.933456
0.134226 0.156685 0.933941
0.13598 0.157158 0.934571
0.14892 0.15965 0.930818
0.150509 0.159934 0.930177
0.152117 0.160239 0.929672
0.153739 0.160561 0.929283
0.155308 0.160828 0.928527
0.156896 0.161116 0.927916
0.158512 0.161434 0.927508
0.160079 0.161701 0.926762
0.161622 0.161947 0.92588
0.163145 0.162172 0.924873
0.164698 0.162432 0.924089
0.166289 0.16273 0.923556
0.167934 0.163082 0.923382
0.169598 0.163455 0.923333
0.171242 0.163806 0.923149
0.172899 0.164171 0.923051
0.174575 0.164554 0.92307
0.176278 0.164961 0.923244
0.178006 0.165391 0.923562
0.179784 0.165867 0.92417
0.181599 0.166376 0.92498
0.18346 0.166925 0.926041
0.185414 0.167556 0.927613
0.187458 0.168265 0.929668
0.189495 0.168963 0.931644
0.191455 0.169585 0.933138
0.0486721 0.137272 0.919654
0.0499169 0.136275 0.909055
0.0514998 0.136563 0.908461
0.053096 0.1369 0.908243
0.0546883 0.137224 0.90793
0.0562733 0.137527 0.907457
0.0578606 0.13784 0.907059
0.0594548 0.138174 0.906827
0.061031 0.138459 0.906221
0.0626013 0.138731 0.905521
0.0641733 0.139012 0.904889
0.0657368 0.139275 0.904124
0.0672891 0.139515 0.903185
0.06885 0.139781 0.902448
0.0704254 0.140084 0.901998
0.0720017 0.140392 0.901577
0.0937829 0.149212 0.933611
0.0953017 0.149343 0.931837
0.096852 0.149535 0.930512
0.098483 0.149867 0.930191
0.100088 0.150157 0.929569
0.101724 0.150499 0.929326
0.103403 0.150909 0.929561
0.105082 0.151318 0.929786
0.106709 0.151646 0.929437
0.108384 0.152045 0.929593
0.110038 0.152413 0.929526
0.111681 0.152764 0.929342
0.113346 0.153146 0.929372
0.115001 0.153515 0.929304
0.116669 0.153899 0.929354
0.118349 0.154301 0.92952
0.120044 0.154721 0.929802
0.121741 0.155143 0.930104
0.123488 0.155628 0.930833
0.125217 0.156088 0.931387
0.126973 0.156579 0.932145
0.128753 0.157098 0.933096
0.130616 0.157719 0.934727
0.132424 0.158263 0.935833
0.134219 0.158787 0.936793
0.13604 0.159339 0.937937
0.150311 0.161773 0.931231
0.151929 0.162088 0.930794
0.153569 0.162427 0.930512
0.15517 0.162724 0.929958
0.156746 0.162995 0.929241
0.158366 0.163316 0.928842
0.159952 0.1636 0.928212
0.161518 0.163864 0.927456
0.163063 0.164109 0.926575
0.164621 0.16437 0.9258
0.166196 0.164648 0.925141
0.167806 0.164964 0.924724
0.169435 0.165299 0.924434
0.171048 0.165617 0.924037
0.172705 0.165981 0.923929
0.174366 0.166349 0.923842
0.176068 0.166753 0.923995
0.177794 0.167182 0.924294
0.179555 0.167643 0.924795
0.181371 0.168153 0.925605
0.183253 0.168723 0.926781
0.185209 0.169357 0.928353
0.187237 0.170056 0.93032
0.189271 0.170754 0.932267
0.191227 0.171377 0.93374
0.0514348 0.139224 0.916424
0.0527172 0.138449 0.907714
0.0543144 0.13879 0.907535
0.0562622 0.140237 0.915725
0.0685296 0.141472 0.903027
0.0700993 0.141758 0.902449
0.0716646 0.142037 0.901819
0.0921525 0.151214 0.938672
0.0936984 0.151372 0.937092
0.09521 0.151477 0.935142
0.0967331 0.151611 0.933408
0.0983123 0.151847 0.932404
0.0998647 0.152043 0.931119
0.101474 0.152337 0.930535
0.103127 0.152703 0.930448
0.104778 0.153065 0.930342
0.106392 0.153369 0.929827
0.108055 0.153751 0.929857
0.1097 0.154104 0.929682
0.111346 0.154458 0.929517
0.113022 0.154856 0.929654
0.114689 0.15524 0.929694
0.116371 0.155644 0.929869
0.118064 0.156064 0.930151
0.119772 0.156502 0.93055
0.121481 0.156938 0.930939
0.123229 0.157425 0.931668
0.12496 0.157887 0.932221
0.126717 0.158379 0.932979
0.128501 0.158904 0.933949
0.130358 0.159518 0.935512
0.132174 0.160073 0.936675
0.133986 0.16062 0.937771
0.150158 0.16367 0.932633
0.151781 0.163986 0.932206
0.153434 0.164337 0.932001
0.155064 0.164663 0.931631
0.156628 0.164918 0.930807
0.158248 0.165234 0.930379
0.159834 0.165515 0.929729
0.161387 0.165763 0.928867
0.162938 0.16601 0.928004
0.164501 0.166272 0.927239
0.166045 0.166515 0.926358
0.167621 0.166792 0.925699
0.169214 0.16709 0.925166
0.17081 0.16739 0.924653
0.172438 0.167723 0.924353
0.1741 0.168091 0.924265
0.175801 0.168495 0.924408
0.177526 0.168923 0.924697
0.179273 0.16937 0.925101
0.181093 0.169886 0.92593
0.182996 0.170479 0.927232
0.184954 0.171117 0.928812
0.186963 0.171801 0.930663
0.188972 0.172479 0.932464
0.190923 0.1731 0.933908
0.194405 0.173097 0.942003
0.193988 0.174734 0.941551
0.0905565 0.15097 0.939648
0.090317 0.152881 0.941275
0.0919202 0.153131 0.940348
0.0934775 0.153302 0.938865
0.095004 0.153424 0.937052
0.0965188 0.153534 0.935162
0.0980798 0.153732 0.933895
0.0996239 0.153907 0.932473
0.101218 0.15417 0.931675
0.102855 0.154507 0.931384
0.104496 0.15485 0.931141
0.106098 0.155133 0.930479
0.10775 0.155496 0.930373
0.109387 0.155835 0.930101
0.111035 0.156191 0.929946
0.112722 0.156604 0.930179
0.114401 0.157006 0.930335
0.116077 0.157399 0.930433
0.117785 0.157839 0.930841
0.119503 0.158291 0.931327
0.121213 0.158727 0.931706
0.122961 0.159216 0.932434
0.124705 0.159694 0.933084
0.126451 0.160172 0.933734
0.128248 0.160714 0.934801
0.130123 0.161353 0.936509
0.131914 0.161877 0.937449
0.133727 0.162426 0.938543
0.151731 0.166003 0.934343
0.153379 0.166345 0.93407
0.155029 0.166689 0.933816
0.156564 0.166905 0.932749
0.158152 0.167184 0.932079
0.159671 0.167389 0.930945
0.16119 0.167596 0.929831
0.162709 0.167808 0.928746
0.164275 0.168069 0.927981
0.165822 0.168313 0.927109
0.167412 0.168604 0.926538
0.169005 0.168898 0.925986
0.170585 0.169179 0.925356
0.172197 0.169496 0.924949
0.173843 0.169845 0.924745
0.175529 0.170235 0.924792
0.177239 0.170648 0.924984
0.179007 0.171117 0.925514
0.180848 0.171653 0.926458
0.182771 0.172267 0.927874
0.184732 0.172911 0.929464
0.18674 0.173597 0.931304
0.18873 0.174261 0.932998
0.190659 0.174862 0.934306
0.192513 0.175392 0.93517
0.0884056 0.15443 0.94299
0.0900258 0.154703 0.942228
0.0916403 0.154969 0.941418
0.0932111 0.155157 0.940072
0.0947538 0.155301 0.938425
0.0962729 0.15541 0.936544
0.097837 0.155607 0.935278
0.0993811 0.155775 0.933817
0.100977 0.156036 0.933009
0.102607 0.156358 0.93261
0.104241 0.156686 0.93226
0.105834 0.15695 0.931472
0.107477 0.157295 0.931238
0.109108 0.157621 0.930879
0.110758 0.157979 0.930733
0.112457 0.158409 0.931074
0.114149 0.158828 0.931336
0.115836 0.159236 0.93153
0.117538 0.159666 0.931861
0.119259 0.160119 0.932346
0.120969 0.160555 0.932715
0.122708 0.16103 0.933336
0.124431 0.161479 0.933782
0.126191 0.161975 0.934538
0.127975 0.162502 0.935488
0.129807 0.163085 0.936806
0.131542 0.163538 0.937261
0.15165 0.167995 0.936265
0.153311 0.168347 0.936059
0.154975 0.168703 0.935873
0.156524 0.168931 0.934884
0.158063 0.16915 0.933836
0.159514 0.169276 0.932209
0.160977 0.169419 0.930698
0.162445 0.16957 0.929246
0.163979 0.169796 0.928268
0.165529 0.170041 0.927406
0.167124 0.170335 0.926854
0.168717 0.170629 0.926302
0.170313 0.170925 0.925769
0.171925 0.171238 0.925343
0.173571 0.171588 0.925138
0.175257 0.171978 0.925185
0.176985 0.172408 0.925473
0.178756 0.17288 0.926012
0.180618 0.173439 0.927081
0.182562 0.174073 0.928603
0.184543 0.174741 0.930318
0.186536 0.175415 0.93206
0.188508 0.176063 0.933638
0.190437 0.176668 0.934946
0.192273 0.17718 0.935694
0.195529 0.176985 0.942463
0.194113 0.177696 0.936461
0.0865491 0.156109 0.945582
0.0881551 0.156343 0.944547
0.0897511 0.156562 0.943415
0.0913602 0.156812 0.942497
0.0929351 0.157002 0.941171
0.0944962 0.157172 0.939719
0.0960201 0.157282 0.937858
0.0975889 0.15748 0.936611
0.0991354 0.157645 0.93514
0.100716 0.157875 0.934118
0.10232 0.158149 0.933398
0.103946 0.15846 0.932931
0.10554 0.158723 0.932143
0.107187 0.159071 0.931929
0.108829 0.159414 0.931676
0.110502 0.159804 0.931744
0.112202 0.160235 0.932084
0.113918 0.160687 0.93256
0.11562 0.161116 0.93288
0.117324 0.161546 0.9332
0.119047 0.162001 0.933685
0.120759 0.162439 0.934053
0.122479 0.162884 0.93447
0.124182 0.163303 0.934711
0.125917 0.163766 0.935234
0.127652 0.164225 0.935728
0.129423 0.16473 0.936522
0.13112 0.165133 0.936646
0.132885 0.165624 0.937342
0.151589 0.170018 0.938342
0.153256 0.170375 0.938155
0.15491 0.170716 0.937871
0.156446 0.170924 0.936755
0.157972 0.171123 0.935592
0.159355 0.171167 0.933472
0.160765 0.171246 0.931574
0.162196 0.171354 0.929861
0.163714 0.171559 0.928758
0.16525 0.171787 0.927799
0.16685 0.172084 0.927266
0.168447 0.17238 0.926733
0.17003 0.17266 0.926104
0.171642 0.172974 0.925678
0.173304 0.173339 0.92557
0.175007 0.173744 0.925703
0.176739 0.174179 0.92601
0.178509 0.17465 0.926539
0.180388 0.175227 0.927704
0.182337 0.17587 0.929255
0.184323 0.176545 0.930988
0.186337 0.177241 0.932845
0.188328 0.177911 0.934529
0.190279 0.178538 0.935951
0.192116 0.179052 0.936698
0.193975 0.179585 0.937551
0.0862086 0.157853 0.945929
0.0878315 0.158117 0.945109
0.0894329 0.158342 0.944026
0.0910364 0.158577 0.943011
0.0926206 0.158779 0.941782
0.0942005 0.15898 0.940544
0.0957393 0.15911 0.938839
0.097322 0.159327 0.937729
0.0988811 0.159508 0.936375
0.100462 0.159733 0.935324
0.102048 0.15997 0.93436
0.103665 0.160263 0.933776
0.105263 0.160527 0.932998
0.106912 0.160877 0.932793
0.108558 0.161223 0.932559
0.110252 0.161645 0.932831
0.111969 0.1621 0.933317
0.113699 0.162573 0.933919
0.115406 0.163006 0.934258
0.117111 0.163436 0.934568
0.118824 0.163873 0.934926
0.120515 0.164278 0.93507
0.122224 0.164707 0.93537
0.123914 0.165106 0.935475
0.125625 0.165534 0.935765
0.127272 0.165872 0.935472
0.128987 0.166304 0.935781
0.130618 0.166619 0.935343
0.153249 0.172468 0.940606
0.154877 0.172774 0.9401
0.156403 0.172965 0.938887
0.157887 0.173112 0.937405
0.159225 0.173097 0.934936
0.160602 0.173133 0.932788
0.162 0.173199 0.930834
0.1635 0.173381 0.929595
0.165022 0.173591 0.92853
0.166623 0.173887 0.927997
0.168224 0.174183 0.927464
0.169825 0.174482 0.92695
0.171443 0.174799 0.926543
0.173109 0.175166 0.926445
0.174799 0.175558 0.926491
0.176529 0.175991 0.926779
0.1783 0.176462 0.927297
0.180183 0.177045 0.928481
0.182134 0.177693 0.930041
0.184141 0.17839 0.931889
0.186176 0.17911 0.933861
0.188192 0.179806 0.935678
0.190165 0.180456 0.937216
0.192026 0.180992 0.938078
0.193909 0.181549 0.939055
0.0842547 0.159364 0.947292
0.0858696 0.159604 0.946306
0.0874953 0.15987 0.945505
0.0890867 0.160071 0.944266
0.0906811 0.160284 0.943115
0.0922731 0.160498 0.941974
0.0938634 0.160714 0.940853
0.0954156 0.160864 0.939294
0.0970045 0.161089 0.938242
0.0985832 0.1613 0.937103
0.100162 0.161516 0.936003
0.101746 0.161747 0.935
0.103373 0.162053 0.934504
0.104983 0.162334 0.933842
0.106637 0.162689 0.933667
0.108294 0.16305 0.93353
0.110001 0.16349 0.933918
0.111712 0.163935 0.934325
0.11345 0.164417 0.934975
0.115148 0.164835 0.935207
0.116842 0.165247 0.935391
0.118532 0.165649 0.935515
0.120221 0.16605 0.935631
0.121919 0.166462 0.935813
0.123596 0.166843 0.935792
0.125296 0.167255 0.935975
0.126928 0.16757 0.935537
0.128617 0.167966 0.935613
0.130222 0.168246 0.934952
0.154892 0.1749 0.942695
0.156392 0.175052 0.94125
0.157831 0.175141 0.939419
0.159141 0.175087 0.936729
0.160508 0.175104 0.934484
0.161863 0.175115 0.932211
0.163348 0.175277 0.930856
0.164868 0.175479 0.929753
0.166466 0.175769 0.929181
0.16807 0.176067 0.928657
0.169691 0.176384 0.92825
0.171329 0.17672 0.927958
0.173001 0.17709 0.927869
0.174677 0.177467 0.927819
0.176412 0.177902 0.928115
0.178183 0.178373 0.928624
0.180068 0.17896 0.929807
0.182005 0.179592 0.93126
0.184033 0.180314 0.933222
0.186073 0.181041 0.935213
0.188111 0.181761 0.937145
0.190115 0.182442 0.938845
0.192004 0.183007 0.939861
0.193875 0.183551 0.940751
0.0855459 0.16139 0.946906
0.0871683 0.161645 0.946037
0.0887515 0.161824 0.944662
0.0903322 0.162005 0.943306
0.0919253 0.162218 0.942166
0.0935252 0.162449 0.941152
0.0950974 0.162632 0.939827
0.0966992 0.162876 0.938911
0.0982896 0.163104 0.937889
0.099869 0.163316 0.936769
0.101454 0.163544 0.935757
0.103075 0.163837 0.935173
0.104688 0.164119 0.934521
0.106343 0.164474 0.934345
0.10801 0.164849 0.934296
0.10973 0.165309 0.9348
0.111443 0.165755 0.935207
0.113185 0.166243 0.935886
0.114893 0.166677 0.936205
0.116576 0.167067 0.936252
0.118241 0.167431 0.936124
0.11992 0.167815 0.936122
0.121595 0.168193 0.936082
0.123238 0.168523 0.935741
0.124931 0.168925 0.935855
0.126525 0.169187 0.935078
0.128145 0.169486 0.934543
0.129683 0.169673 0.93331
0.153269 0.17673 0.945805
0.154874 0.176999 0.945065
0.156339 0.177104 0.94334
0.157737 0.177136 0.941181
0.159049 0.177077 0.938481
0.160404 0.177072 0.936121
0.161747 0.177063 0.933742
0.16322 0.177206 0.932281
0.164722 0.177383 0.931032
0.166305 0.177653 0.930345
0.167893 0.177932 0.929705
0.169517 0.178248 0.929297
0.171174 0.178603 0.929112
0.172867 0.178995 0.929148
0.174562 0.179389 0.929193
0.176331 0.179858 0.929682
0.178108 0.180335 0.93021
0.17998 0.180907 0.931296
0.1819 0.181525 0.932641
0.183926 0.182246 0.934574
0.18595 0.182959 0.936458
0.187998 0.183691 0.938437
0.190046 0.184418 0.940377
0.191964 0.18501 0.941537
0.193821 0.185541 0.94233
0.0835903 0.162913 0.948306
0.0851956 0.163123 0.947135
0.0868206 0.16338 0.946286
0.0883995 0.163546 0.944833
0.0899814 0.163725 0.943478
0.0915772 0.163939 0.942357
0.0931933 0.164198 0.941538
0.0947841 0.164413 0.940427
0.0963892 0.164659 0.939531
0.097983 0.164889 0.938528
0.0995643 0.1651 0.937409
0.101143 0.16531 0.93629
0.102765 0.165604 0.935715
0.104393 0.165908 0.935209
0.10606 0.166282 0.93515
0.107739 0.166674 0.935207
0.109468 0.167148 0.935788
0.111173 0.167579 0.936088
0.112903 0.168049 0.93664
0.1146 0.168462 0.936823
0.116282 0.168851 0.93685
0.117937 0.169197 0.936606
0.119617 0.169581 0.936604
0.121293 0.169959 0.936563
0.12295 0.170308 0.936338
0.124625 0.170683 0.936278
0.126205 0.17092 0.935355
0.15318 0.178759 0.947701
0.15478 0.179016 0.946893
0.156212 0.179076 0.944908
0.157586 0.179073 0.942555
0.15891 0.179019 0.939904
0.160281 0.179028 0.937641
0.161629 0.179015 0.935262
0.163136 0.179191 0.934003
0.164639 0.179365 0.932746
0.166209 0.179617 0.931951
0.167784 0.179876 0.931196
0.169411 0.180195 0.930798
0.171072 0.18055 0.930611
0.172783 0.180959 0.930743
0.1745 0.181374 0.930904
0.176275 0.181848 0.931412
0.178058 0.18233 0.931958
0.179914 0.182886 0.932928
0.181815 0.183484 0.934138
0.183823 0.184188 0.935954
0.185846 0.184903 0.937818
0.187918 0.185662 0.939931
0.189991 0.186415 0.941995
0.191933 0.187032 0.943279
0.19379 0.187562 0.944052
0.0832109 0.164587 0.948126
0.0848136 0.164788 0.946907
0.0864368 0.16504 0.946028
0.0880316 0.165236 0.94479
0.0896072 0.165399 0.943338
0.0912036 0.165611 0.942217
0.0928201 0.16587 0.941398
0.0944192 0.166098 0.940385
0.0960266 0.166346 0.939509
0.0976309 0.166592 0.938622
0.0992319 0.166837 0.937727
0.100829 0.167078 0.936812
0.102464 0.167391 0.936364
0.104104 0.167714 0.935974
0.105784 0.168106 0.936031
0.107465 0.1685 0.936098
0.109186 0.168959 0.936572
0.11088 0.169371 0.936745
0.112598 0.16982 0.937151
0.114285 0.170217 0.937227
0.115957 0.170589 0.937147
0.117615 0.170938 0.936922
0.119296 0.171323 0.93692
0.120975 0.171704 0.936899
0.122645 0.172071 0.93678
0.124334 0.172465 0.936836
0.125944 0.172744 0.936175
0.153021 0.180713 0.949103
0.154633 0.180979 0.948353
0.156079 0.18105 0.946445
0.157467 0.181056 0.94416
0.15879 0.180993 0.941481
0.160149 0.180979 0.939101
0.161485 0.180946 0.936617
0.162995 0.18112 0.935358
0.164519 0.181313 0.934216
0.166107 0.181581 0.933518
0.167704 0.181861 0.932888
0.169351 0.182198 0.932596
0.171031 0.182571 0.932505
0.17273 0.182965 0.932541
0.174454 0.183384 0.93272
0.176237 0.183866 0.933256
0.178042 0.18437 0.933917
0.179867 0.184893 0.934684
0.181765 0.185487 0.935855
0.18377 0.18619 0.937641
0.185781 0.186894 0.939417
0.187838 0.187639 0.941424
0.189914 0.188398 0.943496
0.191833 0.188993 0.944635
0.193632 0.189463 0.945062
0.0828745 0.166361 0.948589
0.0844687 0.166537 0.947224
0.0860864 0.166773 0.946248
0.0876629 0.166926 0.944737
0.0892307 0.167068 0.943169
0.0908196 0.167263 0.941941
0.0924364 0.16752 0.941123
0.0940443 0.167763 0.940217
0.0956615 0.168029 0.939457
0.0972768 0.168294 0.938697
0.0988885 0.168556 0.937918
0.100496 0.168813 0.93711
0.102141 0.169141 0.936759
0.103792 0.169482 0.936486
0.105477 0.169883 0.936591
0.107171 0.170296 0.936774
0.108882 0.170738 0.937132
0.110556 0.171115 0.937081
0.112261 0.171543 0.937351
0.113959 0.171956 0.937524
0.115635 0.172334 0.937473
0.117309 0.172706 0.937394
0.119025 0.173145 0.937721
0.120717 0.173545 0.937806
0.122402 0.173931 0.937804
0.124114 0.174358 0.938053
0.12581 0.17476 0.938147
0.152767 0.182554 0.949808
0.154423 0.182872 0.949368
0.155869 0.182937 0.94744
0.15726 0.18294 0.945156
0.158616 0.182908 0.94268
0.159978 0.182891 0.940301
0.161304 0.18284 0.93773
0.162833 0.183031 0.936577
0.164376 0.183241 0.935542
0.165972 0.183516 0.934882
0.167606 0.183834 0.934473
0.169259 0.184174 0.93419
0.170959 0.184567 0.934215
0.172696 0.184999 0.934462
0.17446 0.185461 0.934872
0.176252 0.185951 0.935446
0.178096 0.186494 0.936318
0.179921 0.187015 0.937055
0.181788 0.187577 0.938023
0.18376 0.188245 0.939587
0.185738 0.188915 0.94115
0.187741 0.189606 0.942829
0.189758 0.190306 0.944544
0.191636 0.190861 0.945442
0.193393 0.19129 0.945628
0.0840757 0.16818 0.946839
0.0856839 0.168393 0.945728
0.0872613 0.168544 0.944227
0.08882 0.168665 0.942533
0.0904072 0.168854 0.941286
0.0920244 0.169112 0.940478
0.0936419 0.169374 0.939698
0.0952775 0.169676 0.939172
0.0969033 0.16996 0.938538
0.0985252 0.170239 0.937876
0.100142 0.170512 0.937176
0.101807 0.170876 0.937048
0.103471 0.171237 0.936901
0.105177 0.171675 0.937229
0.106873 0.172091 0.937421
0.108575 0.172517 0.937672
0.110238 0.172872 0.937485
0.111932 0.173281 0.937629
0.113632 0.173698 0.937821
0.115324 0.174099 0.937915
0.117033 0.174528 0.938175
0.118766 0.174992 0.938647
0.120483 0.175428 0.938945
0.122206 0.17587 0.939281
0.123988 0.176401 0.94015
0.125794 0.176963 0.941203
0.152404 0.184263 0.949721
0.154055 0.184574 0.949242
0.15553 0.18467 0.947508
0.156941 0.184692 0.94536
0.158336 0.184702 0.943144
0.159733 0.184722 0.940997
0.161107 0.18472 0.938735
0.162654 0.184928 0.937689
0.164218 0.18516 0.936779
0.165836 0.185455 0.936235
0.167543 0.185854 0.936289
0.169239 0.18624 0.936265
0.170966 0.18666 0.936434
0.17274 0.187131 0.936893
0.174543 0.187632 0.937514
0.176287 0.188067 0.93776
0.178103 0.188579 0.938439
0.179876 0.189041 0.938838
0.181688 0.189544 0.939458
0.183588 0.190137 0.940579
0.185528 0.190769 0.941911
0.187491 0.191421 0.943348
0.189482 0.192098 0.944919
0.191335 0.192627 0.945662
0.193087 0.193051 0.945818
0.0820588 0.16958 0.947382
0.083645 0.169734 0.945901
0.0852505 0.169941 0.94476
0.0868335 0.170104 0.943348
0.0883903 0.170218 0.941635
0.0899842 0.170422 0.940486
0.0916104 0.170698 0.939804
0.093238 0.170981 0.93916
0.0948828 0.1713 0.938751
0.0965267 0.17162 0.938341
0.0981594 0.171919 0.937805
0.0997893 0.172214 0.93725
0.101466 0.172599 0.937248
0.103149 0.172995 0.937315
0.104867 0.173453 0.937759
0.106574 0.173889 0.938068
0.108277 0.174314 0.938308
0.109939 0.174666 0.938102
0.111634 0.175075 0.938236
0.113336 0.175492 0.938427
0.115042 0.175917 0.938657
0.116768 0.176371 0.939062
0.118538 0.176892 0.939873
0.120282 0.17737 0.940413
0.122046 0.177873 0.941107
0.123876 0.178474 0.942382
0.125747 0.179133 0.943995
0.15223 0.186213 0.951024
0.153777 0.186391 0.949773
0.155215 0.186435 0.947759
0.156651 0.186483 0.945775
0.158068 0.186515 0.943705
0.159488 0.186555 0.941694
0.160897 0.18659 0.939654
0.162461 0.186816 0.938714
0.164047 0.187068 0.937929
0.16567 0.187366 0.937404
0.167448 0.187847 0.93791
0.169203 0.188297 0.938243
0.170977 0.188768 0.938691
0.172779 0.189269 0.939302
0.174618 0.189808 0.940125
0.176277 0.190144 0.939812
0.178053 0.19061 0.94022
0.179754 0.190992 0.940157
0.181509 0.191433 0.940421
0.183331 0.191943 0.94107
0.185222 0.192525 0.942112
0.187122 0.193114 0.943183
0.189089 0.193768 0.94461
0.190925 0.194281 0.945257
0.192678 0.194707 0.945423
0.083203 0.171259 0.944787
0.0848008 0.171448 0.94355
0.0863888 0.171623 0.942226
0.0879358 0.171714 0.940387
0.0895291 0.171917 0.939248
0.0911547 0.172194 0.938576
0.0927998 0.172515 0.938176
0.0944627 0.172873 0.938009
0.0961248 0.17323 0.937833
0.0977669 0.173547 0.937414
0.0994155 0.173878 0.937082
0.101095 0.174268 0.937109
0.10279 0.174687 0.937311
0.104519 0.175166 0.937881
0.106237 0.175621 0.938296
0.107942 0.176048 0.938546
0.109623 0.176433 0.938534
0.111329 0.17686 0.938774
0.113043 0.177298 0.939082
0.114763 0.177743 0.939428
0.116513 0.178235 0.940055
0.118298 0.178782 0.941001
0.120061 0.179287 0.941695
0.121853 0.179835 0.942641
0.123717 0.180488 0.944205
0.125597 0.181158 0.945866
0.127392 0.181693 0.946713
0.152111 0.188241 0.952741
0.153572 0.188302 0.950834
0.154982 0.188305 0.948598
0.15642 0.188351 0.946615
0.157847 0.188389 0.944593
0.159256 0.188411 0.942495
0.160713 0.188497 0.940764
0.162301 0.188748 0.939969
0.163894 0.189006 0.939212
0.165505 0.189287 0.938591
0.167331 0.189822 0.939395
0.169094 0.190281 0.939766
0.170869 0.19075 0.940194
0.17268 0.191259 0.940844
0.1745 0.191777 0.941532
0.176079 0.192021 0.940708
0.177775 0.192396 0.940606
0.179413 0.192709 0.940158
0.181087 0.193061 0.939931
0.18286 0.19352 0.940291
0.184704 0.194055 0.941064
0.186558 0.194598 0.941875
0.188488 0.195217 0.943099
0.190326 0.195737 0.943775
0.192062 0.196147 0.943855
0.082727 0.172698 0.943159
0.0843257 0.172891 0.941961
0.085912 0.173063 0.940638
0.0874665 0.173172 0.938926
0.0890668 0.173392 0.937904
0.0906997 0.173687 0.937349
0.0923538 0.174029 0.937085
0.0940337 0.174425 0.937151
0.0957136 0.17482 0.937208
0.0973649 0.175156 0.936905
0.0990328 0.175525 0.936807
0.100721 0.175933 0.936941
0.102426 0.176372 0.937259
0.104165 0.176868 0.937926
0.105886 0.17733 0.938379
0.107603 0.17778 0.938755
0.109298 0.178189 0.938888
0.111007 0.17862 0.939147
0.112723 0.179061 0.939464
0.114475 0.179559 0.94012
0.116238 0.180073 0.940863
0.118049 0.180663 0.942051
0.119839 0.181211 0.942986
0.12166 0.181802 0.944173
0.123523 0.182454 0.945708
0.125394 0.183112 0.947271
0.127172 0.183617 0.947934
0.12924 0.1823 0.947986
0.128979 0.184164 0.948838
0.150503 0.190194 0.95625
0.151997 0.190285 0.954515
0.153403 0.190268 0.952174
0.154765 0.190202 0.949562
0.156168 0.190197 0.947309
0.157579 0.190209 0.945163
0.15899 0.190228 0.943055
0.160465 0.190332 0.94144
0.162043 0.190567 0.940558
0.163623 0.190806 0.939705
0.165184 0.191026 0.938747
0.167037 0.191593 0.939715
0.168816 0.192072 0.940191
0.170599 0.192551 0.940667
0.172449 0.193106 0.941557
0.174247 0.193599 0.9421
0.175727 0.193727 0.940641
0.177338 0.194007 0.940019
0.178927 0.194264 0.939273
0.180514 0.194521 0.938527
0.182243 0.194935 0.938637
0.184041 0.195423 0.939151
0.185849 0.195921 0.939712
0.18774 0.196504 0.940734
0.189578 0.197028 0.941429
0.191316 0.197444 0.941538
0.0821378 0.173854 0.939821
0.083755 0.1741 0.938965
0.085383 0.174376 0.938293
0.086966 0.174553 0.937019
0.0885804 0.174807 0.936221
0.0902206 0.175122 0.935792
0.091889 0.175499 0.935742
0.0935769 0.175916 0.935935
0.0952662 0.176333 0.936127
0.0969264 0.176689 0.935951
0.0986184 0.177109 0.936153
0.100316 0.177536 0.936403
0.102041 0.178015 0.936954
0.103799 0.178552 0.937854
0.10554 0.179051 0.93852
0.107269 0.179523 0.939022
0.108979 0.179958 0.9393
0.110692 0.180394 0.939588
0.11242 0.180856 0.940021
0.114183 0.181374 0.940783
0.115961 0.181913 0.941661
0.117798 0.182546 0.94309
0.119614 0.183136 0.944257
0.121447 0.183747 0.94554
0.123304 0.184389 0.946997
0.125154 0.185014 0.948346
0.12691 0.185484 0.948796
0.128682 0.185977 0.949371
0.14904 0.19015 0.958265
0.14876 0.191994 0.958841
0.150236 0.192049 0.956904
0.151741 0.19215 0.955237
0.153129 0.192102 0.952741
0.154495 0.192035 0.95015
0.155919 0.192051 0.948032
0.157312 0.192035 0.945741
0.158706 0.192026 0.943499
0.160182 0.192126 0.941875
0.161724 0.192315 0.940742
0.163274 0.192515 0.939678
0.164798 0.192686 0.938459
0.166594 0.193189 0.939061
0.168349 0.19364 0.939383
0.17011 0.194096 0.939724
0.171926 0.194615 0.940412
0.173685 0.195065 0.940714
0.175137 0.19516 0.939092
0.176682 0.195367 0.938077
0.178234 0.195583 0.93712
0.179798 0.195815 0.936249
0.181513 0.196218 0.936302
0.183286 0.196683 0.936691
0.185087 0.197178 0.937233
0.186951 0.197738 0.938121
0.188764 0.198241 0.938701
0.190494 0.198652 0.938791
0.0815793 0.17507 0.936913
0.0832077 0.175351 0.93628
0.0848426 0.175651 0.935764
0.0864494 0.175888 0.934869
0.0880702 0.176162 0.934198
0.0897235 0.176511 0.933984
0.0914064 0.176925 0.934157
0.0931095 0.177379 0.934573
0.0948147 0.177834 0.934989
0.0965019 0.178249 0.935162
0.0982042 0.178691 0.9355
0.0999017 0.179121 0.93576
0.101635 0.179619 0.936417
0.103394 0.180159 0.937326
0.105145 0.180681 0.938119
0.106895 0.181195 0.938862
0.108625 0.181665 0.939344
0.110351 0.182126 0.939767
0.112099 0.182624 0.940403
0.113876 0.183167 0.9413
0.115679 0.183749 0.942419
0.117545 0.184433 0.944119
0.119376 0.185047 0.945412
0.121199 0.185641 0.946578
0.123029 0.18624 0.947772
0.124841 0.186804 0.948754
0.12657 0.187232 0.948951
0.128319 0.187689 0.949313
0.14848 0.193841 0.959417
0.14996 0.193896 0.957499
0.15147 0.193998 0.955851
0.152856 0.193942 0.953327
0.154218 0.193863 0.950688
0.155632 0.19386 0.948484
0.156994 0.193797 0.945953
0.158355 0.193742 0.94348
0.159796 0.193795 0.941606
0.161301 0.193935 0.940214
0.162809 0.194082 0.93887
0.164293 0.194204 0.937392
0.166003 0.194604 0.937435
0.167698 0.194985 0.937373
0.169416 0.195395 0.937464
0.17119 0.195869 0.937901
0.172911 0.196279 0.937992
0.174398 0.196416 0.936612
0.175956 0.196639 0.935693
0.177527 0.196878 0.934871
0.179113 0.197137 0.934155
0.18083 0.197545 0.934237
0.182582 0.197991 0.93452
0.184337 0.198439 0.934813
0.186133 0.198931 0.935336
0.187899 0.199387 0.935667
0.189601 0.199773 0.935623
0.0809074 0.175988 0.932257
0.0825792 0.176391 0.932373
0.0842413 0.176768 0.932334
0.0858839 0.177099 0.932013
0.0875274 0.177433 0.931711
0.0892037 0.177841 0.931856
0.0909071 0.178307 0.93234
0.0926323 0.178816 0.933076
0.0943468 0.179296 0.933638
0.0960512 0.17975 0.934044
0.0977638 0.180218 0.934527
0.0994788 0.180687 0.93501
0.101213 0.181189 0.935686
0.102979 0.181749 0.936702
0.104741 0.182292 0.93761
0.106501 0.182828 0.93847
0.10824 0.183319 0.939067
0.109975 0.183798 0.939587
0.111735 0.184317 0.940339
0.113534 0.184902 0.941468
0.115374 0.185551 0.942955
0.117246 0.186244 0.944692
0.119091 0.186885 0.94612
0.120913 0.187478 0.947266
0.122719 0.18804 0.948228
0.124505 0.188563 0.948967
0.126243 0.189004 0.949232
0.128019 0.189504 0.949836
0.152487 0.195657 0.953209
0.153873 0.195603 0.950735
0.155287 0.195596 0.948521
0.156651 0.19553 0.946
0.157998 0.195451 0.943413
0.159403 0.195455 0.941289
0.16087 0.195543 0.939627
0.162338 0.195638 0.938014
0.163804 0.195737 0.936421
0.165429 0.196034 0.935907
0.167064 0.196345 0.935469
0.168698 0.196656 0.935031
0.170413 0.197064 0.935113
0.172068 0.1974 0.93481
0.173591 0.197582 0.93369
0.175143 0.1978 0.932763
0.17675 0.198085 0.932191
0.17837 0.198385 0.931707
0.180103 0.198815 0.931904
0.181833 0.199241 0.932082
0.183578 0.199682 0.932336
0.185308 0.200105 0.932495
0.18704 0.200528 0.932653
0.188735 0.200911 0.9326
0.192255 0.201178 0.940954
0.190465 0.201331 0.932739
0.0802687 0.176968 0.928061
0.0819634 0.177443 0.928614
0.0836404 0.177871 0.928876
0.0853107 0.178278 0.929022
0.0869835 0.178689 0.929186
0.0886826 0.179159 0.92969
0.0903936 0.17965 0.93032
0.0921344 0.180201 0.931299
0.0938637 0.18072 0.932084
0.0955939 0.181234 0.932839
0.097316 0.181726 0.933457
0.0990571 0.182252 0.93427
0.100797 0.18277 0.935033
0.102564 0.183334 0.936058
0.104325 0.183881 0.936976
0.106094 0.184437 0.937942
0.107835 0.184932 0.938559
0.109589 0.185449 0.939291
0.111381 0.186031 0.940391
0.113204 0.186659 0.941752
0.11507 0.187356 0.9435
0.116955 0.188076 0.945362
0.118802 0.188721 0.946798
0.120601 0.189276 0.947712
0.122383 0.189799 0.948442
0.124155 0.1903 0.949045
0.125895 0.190745 0.949329
0.128133 0.191984 0.954067
0.151975 0.197179 0.952041
0.153408 0.197185 0.949914
0.154861 0.197224 0.947971
0.156244 0.19718 0.945586
0.157573 0.197073 0.942874
0.15893 0.197009 0.940403
0.160333 0.197014 0.938309
0.161764 0.197062 0.936457
0.163228 0.197155 0.934855
0.164785 0.19737 0.933907
0.166382 0.197637 0.933239
0.168001 0.197933 0.932725
0.16967 0.198289 0.932538
0.171303 0.198603 0.93212
0.172881 0.198852 0.931366
0.17449 0.199139 0.930814
0.176135 0.19947 0.930493
0.17779 0.199813 0.930239
0.179499 0.200217 0.930302
0.181206 0.20062 0.930355
0.182909 0.201017 0.930379
0.184594 0.201391 0.930288
0.1863 0.20179 0.930322
0.18801 0.202193 0.930375
0.189762 0.202641 0.930658
0.193154 0.202782 0.93825
0.191514 0.203087 0.930931
0.0655212 0.173988 0.930848
0.0638868 0.173678 0.931286
0.0634894 0.175251 0.930653
0.0651106 0.17552 0.929963
0.0667186 0.17575 0.929049
0.0734567 0.174907 0.924863
0.0714426 0.176188 0.924814
0.0730156 0.176351 0.923513
0.0746271 0.176631 0.922912
0.0779737 0.177529 0.92372
0.079682 0.178061 0.924614
0.081373 0.178542 0.925197
0.0830507 0.178983 0.925547
0.0847471 0.179467 0.926139
0.0864427 0.179942 0.926682
0.0881579 0.180458 0.927458
0.0898902 0.181007 0.928418
0.091645 0.181597 0.92962
0.0933808 0.182138 0.93052
0.0951287 0.182697 0.931527
0.0968664 0.183227 0.932359
0.0986253 0.183794 0.933404
0.100374 0.184334 0.934284
0.102139 0.1849 0.935308
0.103906 0.185462 0.936303
0.105675 0.186021 0.937279
0.107417 0.186523 0.937924
0.109182 0.187063 0.938783
0.110998 0.187691 0.940134
0.112834 0.188346 0.94163
0.114723 0.18909 0.943618
0.116619 0.189833 0.945596
0.118476 0.190497 0.947119
0.120273 0.19105 0.948013
0.122043 0.191552 0.948616
0.123802 0.192032 0.949094
0.1259 0.193066 0.952653
0.128583 0.195031 0.961368
0.152883 0.198682 0.948641
0.154399 0.198805 0.947171
0.155807 0.198789 0.944959
0.157133 0.198673 0.942219
0.158456 0.198562 0.939519
0.159842 0.198541 0.93731
0.161259 0.198568 0.935361
0.162739 0.198681 0.933875
0.164232 0.198816 0.932515
0.165791 0.199036 0.931607
0.167351 0.199259 0.930718
0.168946 0.199528 0.93007
0.170555 0.199816 0.929528
0.172181 0.200126 0.929101
0.173808 0.200437 0.928684
0.175471 0.200791 0.928488
0.177171 0.201189 0.928522
0.178876 0.201593 0.928586
0.180581 0.201995 0.928639
0.18228 0.202388 0.928644
0.18396 0.202763 0.928554
0.185663 0.20316 0.928578
0.187393 0.203587 0.928756
0.189184 0.204082 0.929278
0.190978 0.204579 0.929811
0.061769 0.17763 0.937149
0.0630763 0.176769 0.92969
0.0646868 0.177003 0.928806
0.0662867 0.177209 0.927756
0.0683101 0.175937 0.927874
0.0678728 0.177381 0.926503
0.0698833 0.176077 0.926426
0.0694472 0.177527 0.925105
0.0710082 0.177644 0.923542
0.0725856 0.177821 0.922339
0.0741933 0.178093 0.921699
0.0762913 0.177057 0.923185
0.0758265 0.178439 0.921496
0.0774737 0.178823 0.921517
0.0791526 0.179288 0.922013
0.0808219 0.179725 0.922334
0.0824911 0.180156 0.922626
0.0841849 0.180645 0.923248
0.0858918 0.181159 0.924015
0.087619 0.181715 0.925014
0.089372 0.182321 0.926303
0.0911485 0.182971 0.927834
0.0929071 0.18357 0.929064
0.0946706 0.18417 0.930294
0.0964253 0.184741 0.931359
0.0981938 0.185335 0.932539
0.0999414 0.185876 0.933418
0.101705 0.186444 0.934442
0.10347 0.187005 0.935427
0.105236 0.187565 0.936393
0.106987 0.188087 0.937145
0.108764 0.188654 0.938148
0.110602 0.189328 0.939741
0.112462 0.190032 0.941497
0.114383 0.190838 0.943814
0.116291 0.191606 0.945907
0.118158 0.19229 0.947526
0.119955 0.192844 0.94841
0.121724 0.193344 0.948993
0.123786 0.194335 0.952291
0.126264 0.196002 0.959296
0.150835 0.200047 0.94881
0.152375 0.200198 0.947494
0.153878 0.200303 0.945937
0.155291 0.20029 0.943765
0.156629 0.200186 0.941113
0.15795 0.200069 0.938403
0.159333 0.200042 0.936186
0.160767 0.200088 0.934353
0.162262 0.200218 0.932973
0.163757 0.200353 0.931623
0.165299 0.200552 0.93061
0.166822 0.200729 0.929491
0.168377 0.20095 0.928603
0.169964 0.201212 0.927926
0.171572 0.2015 0.927394
0.173198 0.201813 0.926987
0.174859 0.202168 0.926801
0.176557 0.202566 0.926835
0.178241 0.202948 0.926784
0.179926 0.203329 0.926732
0.181625 0.203727 0.926766
0.183324 0.204124 0.926791
0.185045 0.204545 0.92694
