ply
format ascii 1.0
element vertex 1694
property float x
property float y
property float z
end_header
0.0842937 0.0243163 0.764511
0.0859269 0.0247243 0.764011
0.108409 0.0353686 0.773625
0.110056 0.0355474 0.772358
0.111703 0.0356108 0.770714
0.11335 0.0354183 0.768227
0.114988 0.0353544 0.766176
0.116619 0.0352797 0.764097
0.118239 0.0354757 0.762916
0.119855 0.0357453 0.761982
0.121469 0.0361724 0.761567
0.123081 0.0366136 0.7612
0.124693 0.037089 0.760946
0.126304 0.0375992 0.760806
0.127917 0.03817 0.760864
0.129529 0.0387528 0.760961
0.131146 0.0394405 0.761397
0.132767 0.0401931 0.762042
0.134398 0.0411512 0.763348
0.136039 0.0421929 0.764919
0.137693 0.0433921 0.766991
0.139354 0.0446025 0.769091
0.141022 0.0457975 0.771134
0.142692 0.0469241 0.77295
0.144352 0.0478427 0.774095
0.146012 0.0487241 0.775116
0.0412021 0.0135476 0.771468
0.0428828 0.0139096 0.770768
0.0446001 0.0141332 0.769577
0.0463121 0.0143607 0.768404
0.0480046 0.0146456 0.76744
0.0496849 0.014964 0.766599
0.0513844 0.0151961 0.765455
0.0530521 0.0155391 0.764708
0.0547246 0.0158521 0.763858
0.0564008 0.0161373 0.762913
0.0580671 0.0164511 0.762072
0.0597041 0.0168826 0.761648
0.0613439 0.0172947 0.761157
0.0629542 0.0178389 0.761131
0.0645572 0.0184185 0.761227
0.0661297 0.0191529 0.761863
0.0677098 0.019861 0.762404
0.0692773 0.0206464 0.76321
0.0708662 0.0213314 0.763666
0.07247 0.0219401 0.763856
0.0740829 0.0224999 0.763877
0.0756902 0.0230953 0.764021
0.0773 0.02368 0.764126
0.0789226 0.0241795 0.763938
0.0805264 0.0248084 0.764195
0.0821663 0.025183 0.763582
0.0837952 0.0256263 0.763205
0.0854485 0.0258687 0.762147
0.106194 0.0373163 0.776256
0.107839 0.0377041 0.77568
0.109494 0.0377994 0.77414
0.111149 0.0377641 0.772175
0.112802 0.0375658 0.76968
0.114445 0.0374654 0.767517
0.11608 0.0373568 0.765335
0.117705 0.0375203 0.764051
0.119325 0.0377459 0.762975
0.120941 0.0381385 0.762447
0.122555 0.0385452 0.761966
0.12417 0.0390209 0.761713
0.125784 0.0395636 0.761677
0.127399 0.0401736 0.761858
0.129015 0.0407865 0.762048
0.130636 0.0415346 0.762673
0.13226 0.0422951 0.763336
0.133893 0.043227 0.764547
0.135534 0.0442398 0.766013
0.137189 0.0454344 0.768055
0.13885 0.0466166 0.77005
0.14052 0.0478306 0.772139
0.142197 0.0490351 0.774191
0.143862 0.0500013 0.775476
0.145523 0.0508557 0.776403
0.03892 0.0149534 0.772419
0.0406288 0.0152333 0.771426
0.0423092 0.0156 0.770746
0.0440341 0.0158007 0.76948
0.0457475 0.0160266 0.768307
0.0474397 0.0163155 0.767363
0.0491071 0.0166865 0.766711
0.0507932 0.0169762 0.765776
0.0524614 0.0173241 0.765049
0.0541345 0.0176417 0.764218
0.0558127 0.0179258 0.763273
0.0574878 0.018209 0.762329
0.0591257 0.0186432 0.761914
0.0607581 0.0190958 0.761566
0.0623631 0.0196732 0.761653
0.0639614 0.0202836 0.761853
0.0655311 0.0210419 0.762564
0.0671189 0.0217214 0.763001
0.0686945 0.0224731 0.763683
0.0702917 0.023121 0.764006
0.0718979 0.023725 0.764178
0.0735178 0.0242523 0.764085
0.0751263 0.0248484 0.764228
0.076737 0.0254338 0.764334
0.0783562 0.0259665 0.76426
0.0799688 0.0265464 0.764346
0.0816161 0.0268785 0.763591
0.105625 0.0395188 0.777845
0.107274 0.0398869 0.777204
0.108937 0.0399036 0.775409
0.110598 0.0398084 0.773256
0.112255 0.0396216 0.77081
0.1139 0.0395477 0.768742
0.11554 0.0394367 0.766561
0.117167 0.0396601 0.765476
0.118791 0.0398824 0.764391
0.120411 0.0402432 0.76376
0.122029 0.0406151 0.763166
0.123646 0.0410945 0.762922
0.125263 0.0416382 0.762885
0.126882 0.0422787 0.763161
0.128501 0.0429284 0.763465
0.130126 0.0436844 0.764108
0.131752 0.0444531 0.76479
0.133387 0.0453527 0.765887
0.135028 0.0463274 0.767219
0.136683 0.0474907 0.769147
0.138346 0.048671 0.771122
0.14002 0.0499311 0.773342
0.1417 0.0511787 0.775514
0.143371 0.0521868 0.776922
0.145035 0.0530379 0.77783
0.0383787 0.01653 0.771979
0.0400922 0.0167952 0.77094
0.0417753 0.0171529 0.770232
0.0434842 0.0174106 0.769174
0.045206 0.0176081 0.767908
0.046899 0.0178956 0.766964
0.0485669 0.0182658 0.766312
0.0502467 0.0185811 0.765472
0.0519143 0.0189336 0.764764
0.0535805 0.0192822 0.764047
0.0552448 0.0196278 0.763321
0.0569082 0.019967 0.762575
0.0585395 0.0204365 0.762284
0.0601666 0.0209218 0.762049
0.0617662 0.0215327 0.762249
0.0633658 0.0221469 0.762459
0.0649429 0.0228769 0.763065
0.0665391 0.0235219 0.763379
0.0681239 0.0242337 0.763919
0.0697278 0.0248521 0.764138
0.0713401 0.0254267 0.764206
0.0729601 0.0259597 0.764132
0.0745696 0.0265563 0.764275
0.0761803 0.0271478 0.764399
0.0777957 0.0277117 0.764429
0.0794042 0.0283258 0.764629
0.0810427 0.0287329 0.764129
0.10506 0.0415815 0.77895
0.106713 0.0419667 0.778366
0.108378 0.0420046 0.776648
0.110042 0.0419275 0.774562
0.111704 0.0417291 0.772089
0.113355 0.0416182 0.769909
0.114999 0.0414728 0.767625
0.11663 0.0416954 0.76654
0.118256 0.0419519 0.765569
0.119879 0.042342 0.765032
0.121501 0.0427522 0.764562
0.123121 0.0432648 0.764422
0.124742 0.043839 0.764479
0.126363 0.0444517 0.76466
0.127986 0.0451089 0.764983
0.129615 0.0458761 0.765654
0.131245 0.0466827 0.766448
0.13288 0.0475229 0.767346
0.134524 0.0484891 0.768641
0.136181 0.0496477 0.770539
0.137844 0.0508053 0.772427
0.139518 0.052037 0.774542
0.1412 0.0532921 0.776723
0.14287 0.0542584 0.777988
0.144528 0.0550036 0.778555
0.0377837 0.0182837 0.772163
0.039511 0.0185075 0.770983
0.0412032 0.0188377 0.770181
0.0429348 0.0190184 0.768858
0.0446666 0.0191818 0.76748
0.0463684 0.0194383 0.766432
0.0480367 0.0198072 0.765781
0.0497093 0.0201512 0.765045
0.0513692 0.0205353 0.764452
0.0530274 0.0209186 0.763858
0.0546849 0.021296 0.763245
0.0563424 0.0216645 0.762604
0.0579687 0.0221611 0.762407
0.0595897 0.0226795 0.762286
0.0611874 0.0233052 0.762533
0.0627813 0.0239534 0.762855
0.0643665 0.0246514 0.763348
0.0659762 0.025234 0.763444
0.0675689 0.0259083 0.763852
0.0691686 0.026555 0.764165
0.0707803 0.0271385 0.764261
0.0723941 0.0277136 0.764329
0.073989 0.028406 0.764793
0.0755964 0.0290292 0.765021
0.0772089 0.0296272 0.765164
0.0788109 0.0302988 0.765553
0.080421 0.0309255 0.76579
0.104506 0.0434407 0.779374
0.106156 0.0439184 0.779092
0.107825 0.0439486 0.777356
0.109492 0.043869 0.775271
0.111155 0.0437286 0.772998
0.112809 0.043615 0.770819
0.114458 0.0434406 0.768451
0.116091 0.0436945 0.767471
0.11772 0.0439828 0.766604
0.119346 0.0443849 0.766105
0.12097 0.0448629 0.765852
0.122594 0.0453793 0.765721
0.124218 0.0459903 0.765892
0.125844 0.0466697 0.76628
0.127472 0.0474 0.766829
0.129103 0.0481816 0.767537
0.130739 0.0490564 0.768538
0.132378 0.0498905 0.769407
0.134022 0.0507975 0.770503
0.135679 0.0518916 0.772183
0.137342 0.0529875 0.773863
0.139013 0.0541216 0.775656
0.14069 0.0552696 0.777486
0.142356 0.0561633 0.778515
0.14401 0.0568347 0.778846
0.0389867 0.0200276 0.770345
0.0406901 0.0203183 0.769411
0.0424213 0.0204998 0.768099
0.0441633 0.0206255 0.766598
0.0458665 0.0208747 0.765532
0.0475338 0.0212454 0.764891
0.049197 0.0216234 0.764278
0.0508403 0.0220724 0.763911
0.0524899 0.0224905 0.763441
0.0541401 0.0228999 0.762942
0.0557914 0.0232976 0.762405
0.057404 0.0238577 0.762425
0.059018 0.0244121 0.762427
0.0606029 0.0251024 0.762891
0.0621976 0.0257542 0.763223
0.0637902 0.0264233 0.763611
0.0654088 0.0269676 0.763575
0.0670096 0.0276065 0.76386
0.0686086 0.0282599 0.764192
0.0702139 0.0288857 0.764429
0.071812 0.0295594 0.764827
0.0734009 0.0302956 0.765432
0.0750006 0.0309816 0.765868
0.0765995 0.0316797 0.766341
0.0781776 0.0325335 0.767334
0.0797512 0.0334424 0.768506
0.103965 0.0450644 0.779023
0.105616 0.0455302 0.778703
0.107283 0.0456161 0.777157
0.108951 0.0455744 0.775205
0.110613 0.04551 0.773188
0.112267 0.0454639 0.771236
0.113916 0.0453804 0.769172
0.115552 0.045666 0.768296
0.117183 0.0459921 0.767552
0.118811 0.0464297 0.767167
0.120438 0.0470507 0.767366
0.122065 0.0476483 0.767489
0.123692 0.0483054 0.767802
0.125323 0.0490525 0.768397
0.126957 0.0498509 0.769153
0.12859 0.0505336 0.76954
0.130228 0.0513515 0.770352
0.131867 0.0520834 0.770891
0.13351 0.0528851 0.771646
0.135163 0.0538443 0.772891
0.136823 0.0548714 0.774344
0.13849 0.0559333 0.7759
0.140164 0.0570394 0.777588
0.141828 0.0578865 0.778466
0.143482 0.0585494 0.778768
0.0367713 0.0212051 0.770461
0.0385084 0.0213925 0.769169
0.0402136 0.0216732 0.768207
0.0419374 0.0218768 0.766981
0.0436808 0.0219944 0.765462
0.0453761 0.0222691 0.764491
0.0470334 0.0226743 0.763973
0.0486864 0.0230898 0.763493
0.0503212 0.0235706 0.763239
0.0519553 0.0240514 0.762986
0.0535972 0.0244961 0.76261
0.0552393 0.0249348 0.762215
0.0568443 0.025531 0.762358
0.0584455 0.026147 0.762567
0.0600241 0.0268717 0.763144
0.0616129 0.0275581 0.763589
0.0632075 0.0282255 0.763968
0.0648285 0.0287648 0.763913
0.066431 0.029402 0.764188
0.0680315 0.0300564 0.764519
0.069631 0.0307225 0.764889
0.0712231 0.0314397 0.765428
0.0727973 0.0322764 0.766363
0.0743873 0.0330349 0.767034
0.0759727 0.0338395 0.767856
0.0775358 0.0348154 0.769245
0.0790889 0.0358927 0.770963
0.103399 0.0471099 0.78003
0.105065 0.0473418 0.778956
0.106738 0.0473405 0.777137
0.108406 0.0473461 0.775347
0.110068 0.0473231 0.773472
0.111724 0.0473158 0.771653
0.113374 0.0472976 0.769807
0.115011 0.0476152 0.769035
0.116644 0.0479794 0.768414
0.118275 0.0484232 0.768047
0.119902 0.0491854 0.768689
0.121533 0.0498946 0.769162
0.123165 0.0506403 0.769747
0.124799 0.0514377 0.770492
0.126438 0.0523018 0.771445
0.128073 0.0528125 0.771286
0.129712 0.0535488 0.771834
0.13135 0.0541381 0.771919
0.13299 0.0548301 0.772325
0.134638 0.0556437 0.773108
0.136294 0.0565826 0.774278
0.137955 0.0575319 0.775475
0.139627 0.0585952 0.777021
0.141288 0.0594135 0.777803
0.142942 0.0600797 0.778115
0.0380453 0.0227062 0.767824
0.0397577 0.0229578 0.766768
0.0414736 0.0231838 0.765627
0.0432263 0.0232628 0.763987
0.0449199 0.0235381 0.763025
0.0465753 0.0239446 0.762517
0.048209 0.0244279 0.762273
0.0498253 0.0249773 0.762256
0.0514423 0.0255242 0.762229
0.0530761 0.0260013 0.761966
0.0547031 0.0265035 0.761788
0.0563062 0.0271086 0.76196
0.0578989 0.027764 0.762301
0.0594697 0.0285263 0.763
0.0610526 0.0292444 0.763549
0.0626471 0.0299155 0.763937
0.064258 0.0305112 0.76407
0.0658556 0.0311803 0.764449
0.0674507 0.0318696 0.764893
0.0690455 0.0325708 0.765376
0.0706276 0.0333549 0.766131
0.0721967 0.0342334 0.767198
0.0737813 0.0350393 0.76802
0.075357 0.0359204 0.769086
0.0769093 0.0369853 0.770756
0.0784629 0.0380808 0.772521
0.0800561 0.0389376 0.773493
0.102823 0.0492868 0.78144
0.104504 0.0493179 0.779726
0.106184 0.0492467 0.777691
0.107854 0.04925 0.775902
0.109519 0.0492396 0.774075
0.111179 0.0492034 0.772172
0.112829 0.0492781 0.770628
0.114467 0.0496399 0.769998
0.116103 0.050013 0.769405
0.117737 0.0504273 0.768945
0.119366 0.0512842 0.769879
0.120999 0.0520072 0.770388
0.122634 0.0527488 0.770954
0.124271 0.0535603 0.771737
0.125911 0.054385 0.772557
0.127545 0.0547363 0.771899
0.129183 0.0553138 0.771947
0.130817 0.0557823 0.771656
0.132453 0.0563205 0.771582
0.134097 0.057044 0.772082
0.135748 0.0578992 0.772987
0.137402 0.0587676 0.773929
0.139068 0.0597687 0.775276
0.140727 0.0605967 0.776087
0.142378 0.0612354 0.776313
0.0376263 0.0238721 0.765979
0.0393339 0.0241323 0.764962
0.0410483 0.0243558 0.763822
0.0427898 0.0244676 0.762305
0.0444729 0.024774 0.761457
0.046118 0.0252123 0.761063
0.0477402 0.0257336 0.760951
0.0493383 0.0263494 0.76116
0.0509378 0.0269627 0.761359
0.0525631 0.0274729 0.76121
0.0541741 0.0280418 0.761258
0.05577 0.028678 0.761533
0.0573551 0.0293678 0.761987
0.0589201 0.0301593 0.76278
0.0605007 0.0308899 0.763366
0.0620879 0.0315987 0.763877
0.0636911 0.0322373 0.764151
0.0652883 0.0329131 0.764549
0.0668839 0.0336064 0.765002
0.0684628 0.0343999 0.765786
0.0700403 0.0352198 0.766654
0.0715984 0.0361721 0.767956
0.0731728 0.0370517 0.769013
0.0747395 0.0380068 0.770314
0.076295 0.0390668 0.771955
0.0778547 0.0401375 0.773624
0.0794581 0.040942 0.774416
0.0816359 0.0399218 0.77488
0.081054 0.0418197 0.775444
0.100557 0.0514034 0.784449
0.102244 0.0514879 0.782905
0.103937 0.0513841 0.780767
0.105627 0.0511949 0.778366
0.107304 0.051113 0.776314
0.108972 0.0510615 0.774366
0.110634 0.0510199 0.772455
0.112286 0.0511285 0.771025
0.113926 0.0514629 0.77031
0.115565 0.0518056 0.769624
0.117202 0.0521145 0.768834
0.118831 0.0530243 0.769927
0.120464 0.0537817 0.77054
0.1221 0.0545398 0.771153
0.123738 0.0554287 0.77217
0.125379 0.0562098 0.772849
0.127012 0.0563602 0.77157
0.128646 0.0567739 0.771109
0.130277 0.0571473 0.770527
0.131907 0.0575204 0.769944
0.133545 0.0581646 0.770199
0.13519 0.0589379 0.770849
0.136837 0.0597273 0.771547
0.138496 0.0606649 0.772696
0.140152 0.0614995 0.773524
0.141799 0.0621468 0.773779
0.0373532 0.0245484 0.762477
0.0390281 0.024902 0.76179
0.0406859 0.0253079 0.761283
0.0423901 0.0255409 0.760191
0.0440536 0.0259092 0.759561
0.045687 0.0263823 0.759289
0.0472912 0.0269643 0.759385
0.0488781 0.0276163 0.759716
0.0504664 0.0282685 0.760047
0.0520815 0.0288147 0.76002
0.053671 0.0294703 0.760361
0.0552583 0.0301407 0.760749
0.0568276 0.0308989 0.761428
0.0583771 0.0317597 0.762447
0.0599446 0.0325536 0.76324
0.0615249 0.0333003 0.763873
0.0631202 0.0339824 0.764288
0.0647165 0.034668 0.764714
0.0663067 0.0353965 0.76528
0.0678809 0.0362232 0.766167
0.069452 0.0370854 0.767166
0.070999 0.0381121 0.768703
0.072564 0.039063 0.769985
0.074128 0.04005 0.77138
0.0756887 0.0410905 0.772945
0.0772593 0.0421011 0.774405
0.0788733 0.0428439 0.77499
0.080484 0.0436253 0.775697
0.0988584 0.0514026 0.786266
0.0982958 0.0532459 0.786559
0.0999953 0.053268 0.784818
0.101683 0.0533714 0.783341
0.103382 0.0532172 0.781054
0.105074 0.0530307 0.778673
0.106751 0.0529879 0.776754
0.108425 0.052889 0.774665
0.110091 0.052803 0.772624
0.111744 0.0529067 0.771185
0.113389 0.0531623 0.770226
0.11503 0.0534379 0.769333
0.116669 0.0536643 0.768289
0.118299 0.0544611 0.769024
0.119931 0.0551708 0.769486
0.121566 0.0558872 0.769967
0.123202 0.0567135 0.770786
0.12484 0.0574191 0.77123
0.126471 0.0575151 0.769791
0.1281 0.0578021 0.768945
0.129727 0.0581065 0.768156
0.131353 0.0584377 0.767451
0.132987 0.059063 0.76765
0.134627 0.0597962 0.768178
0.13627 0.0605794 0.768856
0.137922 0.0614745 0.769873
0.139572 0.0622719 0.770588
0.141213 0.062912 0.770824
0.0370469 0.0253372 0.759393
0.0386994 0.0257524 0.758923
0.0403408 0.0262007 0.758567
0.0420116 0.0265397 0.757843
0.0436624 0.0269421 0.757336
0.0452767 0.0274757 0.757271
0.0468615 0.0281216 0.757584
0.0484298 0.028838 0.758131
0.05 0.029555 0.758679
0.0515891 0.0302023 0.758991
0.0531682 0.0308979 0.759464
0.0547541 0.0315714 0.759861
0.0563154 0.0323618 0.760644
0.0578634 0.0332269 0.761672
0.0594222 0.0340591 0.762586
0.0609868 0.0348783 0.763454
0.0625703 0.0356211 0.764067
0.0641591 0.0363476 0.764624
0.0657382 0.0371377 0.765388
0.0673056 0.0380065 0.766406
0.0688649 0.0389426 0.76764
0.0703987 0.0400532 0.769439
0.0719591 0.0410445 0.770843
0.0735299 0.0419999 0.772124
0.0751043 0.0429654 0.773433
0.0766922 0.0438685 0.774536
0.0783177 0.044537 0.774875
0.0799378 0.0452556 0.775375
0.0977325 0.0550919 0.786851
0.0994338 0.0551177 0.78513
0.101124 0.0552253 0.783672
0.102825 0.0550591 0.781358
0.104521 0.0548543 0.778932
0.106202 0.0547819 0.776929
0.107881 0.0546051 0.774606
0.109552 0.0544437 0.77234
0.111209 0.054467 0.770657
0.112856 0.0546395 0.769445
0.114499 0.0548258 0.76828
0.116139 0.0549684 0.766983
0.11777 0.0555896 0.767172
0.119401 0.0561777 0.767258
0.121032 0.0568147 0.767494
0.122665 0.0575619 0.768068
0.124298 0.0581997 0.768304
0.125927 0.0583688 0.767102
0.127554 0.058684 0.766351
0.129179 0.0590291 0.765694
0.130804 0.0594074 0.76514
0.132435 0.0600414 0.765367
0.134069 0.0607405 0.765791
0.135706 0.0614432 0.766224
0.137347 0.0622209 0.766883
0.138988 0.0629373 0.767354
0.140623 0.0635328 0.767458
0.036893 0.0256161 0.754617
0.0384758 0.0262434 0.754873
0.0400724 0.0268262 0.754978
0.0416922 0.0273279 0.75481
0.04331 0.027835 0.754661
0.0448928 0.0284716 0.754945
0.046451 0.0292071 0.755558
0.0479926 0.0300168 0.756416
0.0495499 0.0307766 0.757105
0.0511207 0.0314917 0.757643
0.0526879 0.0322305 0.758256
0.0542574 0.0329698 0.75887
0.0558162 0.033767 0.759671
0.057356 0.034665 0.760802
0.0589064 0.0355329 0.761829
0.0604632 0.0363877 0.762809
0.0620392 0.037166 0.763535
0.0636221 0.0379222 0.764185
0.0651942 0.0387483 0.765061
0.0667486 0.0396881 0.766305
0.0682885 0.0407366 0.767896
0.0698209 0.0418621 0.769732
0.0713748 0.042897 0.771266
0.0729477 0.043849 0.772528
0.0745335 0.0447473 0.773611
0.076133 0.0455795 0.774477
0.077756 0.0462695 0.774882
0.0793668 0.0470625 0.775617
0.102282 0.0566842 0.780976
0.103976 0.0565269 0.77871
0.105659 0.0564486 0.776699
0.10734 0.0562712 0.774387
0.109014 0.0560702 0.772009
0.110675 0.0560121 0.770083
0.112325 0.0560977 0.768608
0.11397 0.0561968 0.767181
0.115611 0.0563006 0.765772
0.117242 0.0567446 0.765415
0.118872 0.0572129 0.765134
0.120501 0.0576808 0.764854
0.12213 0.0583144 0.76508
0.123759 0.0588252 0.764931
0.125383 0.059074 0.763983
0.127006 0.0593834 0.763223
0.12863 0.0598065 0.76281
0.130252 0.060257 0.762483
0.131881 0.0609274 0.762822
0.133511 0.0615919 0.763142
0.135143 0.0622817 0.763538
0.136775 0.0629409 0.76384
0.138409 0.0636005 0.764141
0.14004 0.0641918 0.764236
0.142372 0.0658749 0.772826
0.141674 0.0648456 0.764519
0.0367044 0.0260133 0.750288
0.0382438 0.0267653 0.750967
0.0398097 0.0274337 0.751364
0.0413866 0.0280686 0.751648
0.042963 0.0287097 0.751951
0.044514 0.0294502 0.752583
0.0460576 0.0302283 0.753337
0.0475778 0.0311095 0.75443
0.0491159 0.0319352 0.755335
0.0506594 0.0327532 0.756211
0.0522152 0.0335324 0.756956
0.0537606 0.0343695 0.757888
0.0553124 0.0351936 0.758774
0.0568503 0.0360962 0.759914
0.0583988 0.0369685 0.760949
0.059948 0.0378564 0.762032
0.061522 0.0386415 0.762777
0.0630917 0.0394623 0.763634
0.0646434 0.0403944 0.764848
0.066185 0.041406 0.766316
0.0677108 0.0425359 0.76816
0.0692369 0.0437029 0.770117
0.0707911 0.0447436 0.77166
0.0723761 0.0456281 0.772696
0.0739732 0.0464582 0.773552
0.0755793 0.0472512 0.774286
0.0772021 0.0479478 0.77471
0.0786375 0.0500034 0.779468
0.101758 0.0579805 0.779569
0.103446 0.0579281 0.777643
0.105125 0.0579313 0.775896
0.106805 0.0577927 0.773717
0.108481 0.0575484 0.771218
0.110147 0.0573774 0.768955
0.111801 0.057323 0.767058
0.113447 0.0573428 0.765396
0.115087 0.0574406 0.763979
0.116718 0.0577455 0.7632
0.118346 0.0581386 0.762694
0.119972 0.0585805 0.762338
0.121597 0.0591268 0.762301
0.123222 0.0595991 0.762039
0.124845 0.0599628 0.761449
0.126467 0.0603909 0.761056
0.12809 0.0608932 0.760888
0.129711 0.0614171 0.760786
0.131337 0.0620438 0.760993
0.132963 0.0626675 0.761192
0.134589 0.0632823 0.761362
0.136215 0.0638596 0.761419
0.137843 0.0644779 0.761598
0.139472 0.0651026 0.761797
0.141106 0.0658032 0.76222
0.143427 0.0672574 0.770062
0.142742 0.0665015 0.762634
0.0221753 0.021486 0.751703
0.020546 0.0210185 0.751984
0.0200579 0.0224419 0.75111
0.0217123 0.022837 0.750585
0.0233875 0.0231676 0.749844
0.0306615 0.0227325 0.746619
0.0285403 0.0237247 0.74617
0.0302397 0.0239395 0.745052
0.0318715 0.0243549 0.744612
0.0349537 0.0257664 0.745679
0.0364552 0.0266153 0.746687
0.0379866 0.0273753 0.747394
0.0395399 0.0280681 0.747876
0.0410751 0.0288322 0.748592
0.0426168 0.0295832 0.749261
0.0441425 0.0304032 0.750157
0.0456571 0.0312784 0.75123
0.0471573 0.0322262 0.752539
0.048684 0.0330868 0.753556
0.0502066 0.0339803 0.754676
0.0517455 0.0348232 0.755628
0.0532729 0.0357305 0.756785
0.0548154 0.0365904 0.757783
0.0563518 0.0374946 0.758922
0.0578942 0.0383914 0.760033
0.0594416 0.0392838 0.761125
0.0610126 0.0400788 0.761896
0.062574 0.0409385 0.762875
0.0641101 0.0419482 0.764333
0.0656434 0.0430032 0.765932
0.0671551 0.0442092 0.76801
0.0686746 0.0454148 0.770079
0.0702242 0.0464847 0.771706
0.0718107 0.0473654 0.772721
0.0734144 0.0481589 0.773455
0.0750267 0.048915 0.774067
0.0765036 0.0506148 0.777676
0.0777717 0.0539001 0.786302
0.102925 0.0591848 0.776134
0.104595 0.059334 0.774848
0.106273 0.0592467 0.772839
0.10795 0.058989 0.770314
0.109619 0.0587408 0.767827
0.111275 0.0586463 0.765818
0.112922 0.0586325 0.764064
0.11456 0.0587645 0.76276
0.116192 0.0589351 0.761578
0.117819 0.0592497 0.760837
0.119445 0.0595697 0.760115
0.121067 0.0599663 0.759628
0.122688 0.0603966 0.759245
0.124308 0.0608639 0.758974
0.125928 0.061334 0.758712
0.127548 0.0618756 0.758666
0.129171 0.0624923 0.758846
0.130793 0.0631185 0.759053
0.132417 0.0637419 0.759252
0.134041 0.0643499 0.759403
0.135663 0.0649265 0.75946
0.137289 0.0655412 0.75963
0.138918 0.0662067 0.75995
0.140554 0.0669864 0.760608
0.142192 0.0677697 0.761275
0.0172391 0.0253066 0.756988
0.0196043 0.0237698 0.749917
0.0212776 0.0241078 0.749204
0.0229655 0.0243979 0.748331
0.025086 0.0234224 0.748848
0.0246705 0.0246283 0.747261
0.0268075 0.023598 0.747589
0.0263861 0.0248154 0.74605
0.0281135 0.0249534 0.744679
0.0298027 0.0251939 0.743656
0.0314368 0.0255968 0.743178
0.0334235 0.0250224 0.745018
0.03303 0.0261262 0.743124
0.0346032 0.0267207 0.743285
0.0361358 0.0274542 0.743908
0.0376854 0.0281375 0.744361
0.0392391 0.0288125 0.744786
0.0407672 0.0295851 0.74553
0.0422862 0.0304013 0.746415
0.0437899 0.0312872 0.747526
0.0452749 0.0322604 0.748919
0.0467462 0.033307 0.750546
0.0482455 0.0342663 0.751882
0.0497494 0.0352272 0.753218
0.0512696 0.0361404 0.754394
0.0527857 0.0370899 0.755683
0.0543269 0.0379509 0.756681
0.0558617 0.0388566 0.757819
0.0574031 0.0397521 0.758919
0.0589493 0.0406431 0.760001
0.0605126 0.041471 0.760876
0.0620638 0.0423761 0.761995
0.0635846 0.0434611 0.763687
0.0651018 0.0445979 0.765539
0.0665949 0.0459073 0.767935
0.0681077 0.0471518 0.770115
0.0696525 0.0482543 0.771835
0.07124 0.0491341 0.772841
0.0728455 0.0499232 0.773555
0.0743265 0.0515467 0.776909
0.0756516 0.054315 0.783868
0.100732 0.0602814 0.775884
0.102403 0.0604783 0.774749
0.104074 0.0605973 0.773379
0.10575 0.0605186 0.771409
0.107426 0.0602842 0.76897
0.109095 0.0600285 0.766474
0.110751 0.0599272 0.764458
0.112396 0.0599473 0.762816
0.114033 0.060111 0.761616
0.115666 0.0602826 0.760445
0.117293 0.0605615 0.759601
0.118917 0.0608054 0.758655
0.120538 0.0611228 0.757933
0.122158 0.0615083 0.757419
0.123776 0.0619401 0.757045
0.125393 0.0624122 0.756792
0.127011 0.0629561 0.756756
0.12863 0.0635723 0.756936
0.13025 0.0641604 0.757031
0.13187 0.0647488 0.757125
0.133491 0.0653655 0.757305
0.135113 0.0659794 0.757475
0.136738 0.0666348 0.757767
0.138368 0.0673763 0.758312
0.140005 0.0681978 0.759091
0.141643 0.0690232 0.75988
0.14396 0.070389 0.767366
0.143286 0.0698434 0.76065
0.0175431 0.0245768 0.748826
0.0192079 0.0249389 0.748198
0.0208917 0.0252419 0.747373
0.0225728 0.0255438 0.746548
0.0242723 0.0257829 0.745516
0.0259695 0.0260181 0.744474
0.0276857 0.0261846 0.743207
0.0293685 0.0264399 0.742241
0.0310049 0.0268304 0.741726
0.0326214 0.0272798 0.741409
0.0342064 0.0278285 0.74142
0.0357677 0.0284567 0.741695
0.0373393 0.0290541 0.741865
0.0389092 0.0296603 0.742065
0.0404251 0.0304616 0.742903
0.0419306 0.0313125 0.7439
0.0434303 0.0321992 0.74501
0.0448953 0.0332339 0.7466
0.0463398 0.0343715 0.748517
0.0478163 0.0354103 0.750106
0.0492996 0.036445 0.751676
0.0507932 0.0374612 0.753181
0.0523015 0.0384384 0.754553
0.0538462 0.0392776 0.755475
0.0553864 0.0401527 0.756509
0.0569264 0.0410467 0.7576
0.0584721 0.0419331 0.758662
0.0600269 0.0427944 0.75964
0.0615558 0.0438037 0.761087
0.0630496 0.0450236 0.763201
0.0645457 0.0462727 0.765399
0.0660232 0.0476661 0.768047
0.067529 0.0489558 0.770357
0.0690736 0.0500645 0.772085
0.0706672 0.0509137 0.772987
0.0722782 0.0516747 0.773607
0.0736213 0.0541983 0.779775
0.101888 0.0616645 0.773046
0.103555 0.0618116 0.771771
0.105227 0.0618062 0.770036
0.106904 0.0615706 0.767607
0.108573 0.0613074 0.765104
0.110227 0.0612367 0.763192
0.111871 0.0612909 0.761664
0.113507 0.0614618 0.760493
0.115138 0.0616686 0.759434
0.116765 0.0619054 0.758469
0.11839 0.0621099 0.757411
0.120011 0.0623478 0.756455
0.121629 0.0626943 0.755828
0.123245 0.0630904 0.755351
0.124861 0.0635269 0.754996
0.126475 0.0640354 0.754857
0.128093 0.064645 0.755018
0.129709 0.0652356 0.755122
0.131327 0.0658328 0.755245
0.132947 0.0664904 0.755546
0.134569 0.0671422 0.755829
0.136193 0.0678387 0.756242
0.137825 0.0686538 0.757002
0.139462 0.0695177 0.757903
0.141105 0.0704211 0.758917
0.142753 0.0713576 0.760024
0.14493 0.0706614 0.76141
0.144404 0.0722889 0.761112
0.146734 0.0735502 0.768237
0.14607 0.0733536 0.762584
0.014678 0.0275409 0.754979
0.0171351 0.025783 0.74724
0.0188209 0.026082 0.746406
0.0205378 0.0262841 0.745252
0.0222285 0.0265501 0.744314
0.0239355 0.0267585 0.743189
0.025618 0.027028 0.742271
0.0273087 0.0272624 0.741239
0.0289674 0.0275838 0.740499
0.0306003 0.0279782 0.740003
0.0322068 0.0284522 0.739771
0.0337917 0.0289947 0.739763
0.0353604 0.0295914 0.739934
0.0369307 0.0301854 0.740095
0.0384901 0.0308201 0.740388
0.0400222 0.0315559 0.74101
0.041536 0.0323673 0.741876
0.0430512 0.0331855 0.74276
0.0445116 0.034225 0.744358
0.04595 0.0353734 0.746303
0.0474029 0.0364922 0.748144
0.0488652 0.0376014 0.749948
0.0503322 0.0387186 0.751771
0.0518374 0.0397006 0.753152
0.0533742 0.0405671 0.754157
0.0549144 0.0414347 0.755163
0.0564525 0.04233 0.756253
0.0579888 0.043253 0.757427
0.0595279 0.0441832 0.75862
0.0610412 0.0452655 0.760292
0.0625058 0.0466309 0.762855
0.0639859 0.0479636 0.765305
0.0654603 0.0493763 0.767999
0.0669648 0.0506732 0.770317
0.0685095 0.0517848 0.772044
0.0701083 0.0526061 0.772852
0.0715816 0.0542327 0.776183
0.101378 0.0627854 0.771156
0.103042 0.0629793 0.770032
0.10471 0.0630045 0.768401
0.106384 0.0628109 0.766115
0.108051 0.0625838 0.763735
0.109703 0.062553 0.761955
0.111346 0.0626421 0.76054
0.112981 0.06282 0.759398
0.114611 0.0630624 0.758452
0.116238 0.0632944 0.757479
0.117862 0.0634908 0.756402
0.119484 0.063686 0.755325
0.121101 0.0640344 0.754708
0.122716 0.0644263 0.754222
0.12433 0.0648303 0.753773
0.125944 0.0652972 0.753512
0.127558 0.0658335 0.753457
0.129172 0.0663795 0.75343
0.130788 0.0669699 0.753535
0.132408 0.0676689 0.753958
0.134029 0.0683652 0.754371
0.135653 0.0691035 0.754906
0.137284 0.0699545 0.755769
0.138922 0.070855 0.756772
0.140565 0.0718013 0.757907
0.142214 0.0727811 0.759135
0.143871 0.0737951 0.760457
0.14554 0.0749265 0.762115
0.0125376 0.0285326 0.754487
0.0150036 0.0267894 0.746827
0.0167387 0.0269577 0.745561
0.0184353 0.0272208 0.744615
0.0201619 0.0273895 0.743358
0.0218606 0.0276248 0.742327
0.023555 0.0278619 0.741306
0.0252242 0.0281634 0.7405
0.0269104 0.028404 0.739498
0.0285435 0.0287978 0.739002
0.0301624 0.0292313 0.738638
0.0317587 0.0297332 0.738499
0.0333432 0.0302723 0.738483
0.0349113 0.030866 0.738644
0.0364896 0.0314282 0.738702
0.038049 0.0320571 0.738976
0.039598 0.0327269 0.739382
0.0411286 0.0334696 0.740022
0.0426599 0.0342189 0.74068
0.0441122 0.0352773 0.742334
0.0455372 0.036466 0.744399
0.0469677 0.037663 0.746484
0.0484075 0.0388536 0.74854
0.0498496 0.040067 0.750662
0.0513614 0.0410156 0.75193
0.0529051 0.0418451 0.752813
0.0544447 0.0427081 0.753799
0.0559815 0.0436017 0.754879
0.0575069 0.0445677 0.756184
0.0590278 0.0455795 0.75763
0.0605246 0.0467385 0.759535
0.0619776 0.0481584 0.762256
0.0634539 0.049507 0.764742
0.0649267 0.0509241 0.767434
0.0664317 0.0522156 0.769723
0.0679762 0.0533242 0.77143
0.069575 0.0541437 0.772228
0.0708917 0.0567374 0.778558
0.100882 0.0637003 0.768659
0.10254 0.0639473 0.767704
0.1042 0.0640936 0.766449
0.105867 0.064014 0.76452
0.107529 0.0638667 0.762394
0.109179 0.0639047 0.760831
0.110818 0.0640726 0.759661
0.112453 0.0642549 0.758538
0.114082 0.0645334 0.757705
0.11571 0.0647607 0.756722
0.117335 0.0649206 0.755543
0.118957 0.0650793 0.754364
0.120573 0.0654233 0.753738
0.122188 0.0657476 0.753056
0.123801 0.0661094 0.752485
0.125413 0.066531 0.752093
0.127025 0.067019 0.751898
0.128636 0.0675228 0.751749
0.130251 0.068148 0.751957
0.131869 0.0688854 0.752492
0.13349 0.0696205 0.753017
0.135114 0.0703915 0.753646
0.136748 0.0713113 0.754705
0.138385 0.0722547 0.755829
0.140028 0.0732094 0.756982
0.141675 0.0741909 0.758209
0.143332 0.075239 0.759624
0.144995 0.0763048 0.761085
0.0111436 0.0275907 0.747557
0.0128532 0.0278437 0.746573
0.0145919 0.0280112 0.745308
0.0163491 0.0281147 0.743836
0.0180675 0.0283103 0.742675
0.0197915 0.0284792 0.741428
0.0214784 0.0287406 0.740492
0.0231604 0.0290068 0.739574
0.0248163 0.0293405 0.738882
0.0264787 0.0296479 0.738105
0.0280986 0.0300779 0.737732
0.0297154 0.0305132 0.737377
0.0313185 0.0309886 0.737154
0.0329025 0.0315243 0.737128
0.0344779 0.032089 0.737196
0.0360545 0.0326509 0.737254
0.0376205 0.0332507 0.737434
0.0391783 0.0338827 0.737717
0.0407178 0.034585 0.738226
0.0422592 0.035288 0.738734
0.0437252 0.036284 0.74018
0.0451387 0.0375045 0.742338
0.04655 0.0387656 0.744619
0.0479698 0.0400264 0.746889
0.0493909 0.0413164 0.749244
0.0508923 0.042302 0.750624
0.0524363 0.0431237 0.751478
0.053976 0.0439789 0.752436
0.055503 0.0449095 0.753628
0.0570169 0.0459217 0.755073
0.0585128 0.0470488 0.756874
0.0599854 0.0483241 0.759134
0.0614226 0.0498233 0.762088
0.0628993 0.0511701 0.764554
0.0643735 0.0525797 0.767207
0.0658856 0.0538301 0.769354
0.0674379 0.0548934 0.77091
0.0690416 0.0556811 0.771604
0.0702181 0.0591307 0.780554
0.100302 0.0659367 0.770154
0.102037 0.0649628 0.765538
0.103689 0.0652188 0.764621
0.10535 0.0652231 0.762955
0.107008 0.065188 0.761177
0.108651 0.0653362 0.759951
0.11029 0.06554 0.758894
0.111925 0.0657235 0.757781
0.113553 0.0660354 0.757052
0.115181 0.0662326 0.755985
0.116808 0.0663875 0.754798
0.118429 0.0665822 0.753732
0.120046 0.0669221 0.753096
0.121661 0.0672103 0.752311
0.123274 0.0675647 0.751723
0.124885 0.067944 0.751209
0.126495 0.0683547 0.750789
0.128105 0.0688164 0.750519
0.129717 0.0694383 0.750717
0.131335 0.0701764 0.751252
0.132955 0.0709216 0.751805
0.134579 0.0717288 0.752536
0.136212 0.0726888 0.753707
0.137848 0.0736338 0.754831
0.13949 0.0745901 0.755983
0.141136 0.0755736 0.757209
0.142791 0.0766139 0.758595
0.144446 0.0776036 0.759831
0.00946658 0.0272433 0.748231
0.00736939 0.0281529 0.747488
0.00901185 0.0285899 0.747115
0.0106824 0.0289499 0.746488
0.0124059 0.0291643 0.745383
0.0141588 0.0292895 0.743987
0.0159261 0.0293619 0.742423
0.0176569 0.029518 0.741139
0.0193788 0.0296872 0.739903
0.0210527 0.0299811 0.73908
0.0227308 0.030254 0.738191
0.024375 0.0306179 0.737602
0.026027 0.0309524 0.73692
0.0276467 0.0313786 0.736537
0.0292627 0.031813 0.736183
0.0308557 0.0323166 0.736054
0.0324379 0.032855 0.736037
0.0340123 0.0334195 0.736104
0.035587 0.0339842 0.736172
0.0371605 0.0345549 0.736258
0.038726 0.0351549 0.736438
0.0402745 0.0358196 0.736824
0.0418236 0.0364877 0.73722
0.043305 0.0374179 0.73845
0.0447176 0.0386324 0.740579
0.0461255 0.0398965 0.742858
0.047534 0.0411928 0.74523
0.0489427 0.0425244 0.747706
0.0504247 0.0435829 0.74931
0.0519655 0.0444116 0.750182
0.0534968 0.0452977 0.751233
0.0550162 0.0462567 0.752509
0.0565195 0.0473128 0.754084
0.0579967 0.0485234 0.756137
0.059446 0.0499102 0.758733
0.0608687 0.0514803 0.761891
0.0623458 0.0528253 0.764337
0.0638286 0.0541882 0.766829
0.065355 0.0553576 0.768713
0.0667744 0.0571827 0.772619
0.0682505 0.0587546 0.775729
0.099704 0.0684143 0.772348
0.101522 0.066202 0.764056
0.103171 0.0664874 0.763233
0.104831 0.0664982 0.761596
0.106484 0.0665449 0.760072
0.108125 0.0667668 0.759071
0.109763 0.0669749 0.758034
0.111397 0.0671883 0.757015
0.113025 0.0675308 0.75638
0.114653 0.0677611 0.755417
0.116278 0.0679905 0.754454
0.117899 0.0682251 0.75351
0.119517 0.0685675 0.752885
0.121133 0.0688482 0.752081
0.122747 0.069125 0.751269
0.124358 0.0694266 0.750531
0.125968 0.0698367 0.750111
0.127577 0.0703011 0.749851
0.129191 0.0709267 0.750058
0.130807 0.0716687 0.750601
0.132426 0.0724146 0.751154
0.13405 0.0732262 0.751894
0.135682 0.0741881 0.753065
0.137318 0.0751415 0.754206
0.138961 0.0761388 0.75547
0.140606 0.0771145 0.756668
0.142257 0.0781179 0.75794
0.143908 0.079057 0.759026
0.146112 0.0786797 0.76131
0.145567 0.0800567 0.76028
0.00689454 0.0295523 0.746551
0.00854969 0.0299543 0.746065
0.0102306 0.0302845 0.745345
0.0119614 0.0304771 0.744174
0.0137257 0.0305683 0.742676
0.0154945 0.030632 0.741094
0.0172228 0.0307916 0.73983
0.0189338 0.030987 0.738689
0.0206048 0.0312849 0.737885
0.0222695 0.0315937 0.737118
0.023913 0.0319564 0.73653
0.0255645 0.0322896 0.735847
0.0271863 0.0327061 0.735437
0.0288023 0.0331369 0.735074
0.0304045 0.0336079 0.734841
0.0319954 0.0341139 0.734721
0.0335694 0.0346753 0.734779
0.0351426 0.0352396 0.734847
0.0367146 0.03581 0.734933
0.038277 0.0364158 0.735132
0.0398175 0.0371042 0.735593
0.0413556 0.0378081 0.736101
0.0428432 0.0387105 0.737236
0.0442618 0.0398954 0.739261
0.0456709 0.0411479 0.741492
0.0470766 0.0424476 0.743863
0.0484875 0.043762 0.746271
0.049958 0.0448613 0.747996
0.0514813 0.0457597 0.749084
0.0529956 0.0467161 0.750349
0.0545043 0.047719 0.751755
0.0559853 0.0488766 0.753639
0.0574403 0.0501929 0.756009
0.0588796 0.0516294 0.758744
0.0603017 0.0532049 0.7619
0.0617864 0.0545118 0.764214
0.0632881 0.0557729 0.766377
0.0648322 0.0568423 0.767941
0.0662512 0.0586614 0.771808
0.0675944 0.0610117 0.777294
0.0991944 0.0695541 0.770535
0.101006 0.0674698 0.762669
0.102653 0.0677629 0.761875
0.104309 0.0678465 0.760463
0.105959 0.0679666 0.759164
0.107599 0.0681963 0.758192
0.109236 0.0684057 0.757165
0.11087 0.0686461 0.75623
0.112497 0.0689872 0.755596
0.114124 0.0692896 0.754848
0.115747 0.0696358 0.754232
0.117368 0.0699524 0.753532
0.118988 0.0703005 0.752925
0.120605 0.0705708 0.752095
0.12222 0.0708016 0.751151
0.123831 0.0710667 0.750311
0.125443 0.0714475 0.749808
0.127053 0.071918 0.749566
0.128666 0.0725797 0.749875
0.130284 0.073323 0.750419
0.131903 0.074067 0.750962
0.133528 0.0749189 0.751814
0.135161 0.0758863 0.752992
0.136795 0.0768059 0.754031
0.138438 0.077799 0.755275
0.140081 0.078744 0.756379
0.141727 0.0796772 0.757445
0.143374 0.0805754 0.758408
0.14503 0.0815311 0.759531
0.00477187 0.0305289 0.746034
0.0064223 0.0309447 0.745595
0.00810711 0.0312686 0.744856
0.00979956 0.0315659 0.744033
0.0115437 0.0317188 0.742742
0.0133158 0.0317842 0.74117
0.0150732 0.0318736 0.739682
0.0167892 0.0320624 0.738522
0.018476 0.0323222 0.737597
0.0201435 0.0326273 0.736821
0.0217968 0.0329665 0.736158
0.0234499 0.033299 0.735476
0.0251141 0.0335901 0.734663
0.026754 0.0339474 0.734066
0.0283799 0.034342 0.73359
0.0299907 0.03478 0.733255
0.0315816 0.0352793 0.733116
0.0331457 0.0358667 0.733259
0.0347077 0.0364631 0.733429
0.0362773 0.0370361 0.733525
0.0378297 0.0376713 0.733817
0.039358 0.0383986 0.734399
0.0408939 0.0391058 0.734916
0.0423859 0.039986 0.735976
0.0437945 0.0412036 0.738094
0.0452027 0.0424534 0.740305
0.0466075 0.0437506 0.742656
0.0480102 0.0450923 0.745138
0.0494618 0.0462662 0.747086
0.0509734 0.0472111 0.748314
0.0524695 0.0482446 0.749812
0.0539623 0.0493191 0.751433
0.0554342 0.0505192 0.753437
0.0568803 0.0518788 0.755927
0.0583122 0.0533533 0.758764
0.0597388 0.0549069 0.761834
0.0612345 0.0561571 0.763959
0.0627429 0.0573823 0.765999
0.0642939 0.0584117 0.767431
0.0657154 0.0602126 0.771221
0.0669104 0.0634255 0.779314
0.098682 0.0707532 0.768911
0.100483 0.0688614 0.761657
0.102132 0.0691214 0.76077
0.103786 0.0692343 0.759453
0.105432 0.0693901 0.758266
0.107071 0.0696597 0.757417
0.108709 0.0698674 0.756389
0.110341 0.0701413 0.755558
0.111969 0.0704782 0.754915
0.113595 0.0707921 0.754205
0.115217 0.0712242 0.753842
0.116838 0.0716269 0.753394
0.118458 0.0720195 0.752919
0.120076 0.0723177 0.752172
0.121692 0.0725733 0.751305
0.123306 0.0727989 0.750353
0.124918 0.0731822 0.749858
0.12653 0.0736919 0.749729
0.128145 0.0743576 0.750048
0.129763 0.0750991 0.750581
0.131383 0.0758411 0.751115
0.13301 0.0767276 0.752059
0.134642 0.0776647 0.753144
0.136276 0.0785828 0.754173
0.137919 0.0795752 0.755407
0.139563 0.0805224 0.75651
0.141208 0.0814249 0.757482
0.142854 0.0822954 0.758361
0.144512 0.0832798 0.759557
0.003896 0.0329229 0.748356
0.00593572 0.0323731 0.744761
0.00765523 0.0326065 0.743733
0.00935838 0.0328735 0.742817
0.0111139 0.0329923 0.741423
0.0128866 0.0330518 0.739842
0.0146509 0.0331183 0.73829
0.0163547 0.0333366 0.737234
0.0180272 0.0336324 0.73643
0.019682 0.0339709 0.735768
0.0213337 0.0343117 0.735114
0.0229881 0.034637 0.734414
0.0246539 0.0349207 0.733583
0.0263149 0.0352093 0.73277
0.0279483 0.0355764 0.732211
0.0295679 0.0359811 0.731773
0.031159 0.0364738 0.731616
0.0327222 0.0370579 0.731749
0.0342729 0.0376866 0.732022
0.0358281 0.0383038 0.732258
0.0373699 0.0389717 0.732653
0.0388794 0.0397621 0.733432
0.0403964 0.0405355 0.734154
0.0418931 0.0413964 0.735148
0.0432992 0.0426203 0.737273
0.044708 0.0438646 0.739455
0.0461206 0.0451264 0.741683
0.0475365 0.0464088 0.743967
0.0489701 0.0476517 0.74612
0.0504727 0.0486316 0.74745
0.0519571 0.0497127 0.749088
0.0534395 0.0508321 0.750839
0.0548951 0.0521052 0.753057
0.0563317 0.0535084 0.755667
0.0577538 0.0550303 0.758633
0.0591722 0.0566257 0.761814
0.0606626 0.0579072 0.764021
0.0621851 0.0590596 0.765827
0.0637504 0.0600118 0.767015
0.0651778 0.0617729 0.770662
0.0963093 0.0742916 0.775856
0.0981564 0.0721488 0.767877
0.099944 0.0704998 0.761374
0.101599 0.0706629 0.760207
0.103258 0.0707035 0.758685
0.104905 0.0708543 0.75749
0.106542 0.0711607 0.756753
0.108181 0.0713347 0.755633
0.109813 0.0716393 0.754896
0.111441 0.0719754 0.754253
0.113067 0.0723269 0.753656
0.114686 0.0728453 0.753545
0.116307 0.0733349 0.753349
0.117927 0.0737691 0.752996
0.119547 0.0741382 0.752455
0.121164 0.0744252 0.751681
0.12278 0.074653 0.750739
0.124394 0.0750752 0.750357
0.126008 0.0756149 0.750311
0.127625 0.0762786 0.750621
0.129245 0.0770217 0.751154
0.130866 0.0777717 0.751706
0.132493 0.0786275 0.752557
0.134125 0.0795241 0.753519
0.135759 0.080402 0.754426
0.137399 0.0813567 0.755547
0.139045 0.0823033 0.75664
0.14069 0.0832143 0.75763
0.142339 0.0841262 0.75862
0.144006 0.0852296 0.760142
0.00338267 0.0344194 0.747726
0.00544126 0.0338206 0.743993
0.00719516 0.0339658 0.742685
0.00892882 0.03415 0.741507
0.0106851 0.0342633 0.740105
0.0124681 0.0342908 0.738432
0.0142199 0.0343863 0.736983
0.0159084 0.0346435 0.736058
0.0175678 0.0349726 0.735368
0.019221 0.0353128 0.734715
0.020863 0.0356785 0.734146
0.0225387 0.035938 0.73324
0.0242147 0.0361878 0.732307
0.0258873 0.0364364 0.731373
0.0275313 0.0367649 0.730696
0.02915 0.0371667 0.730253
0.0307289 0.0376932 0.730205
0.0322691 0.0383484 0.730562
0.0338058 0.0390203 0.730971
0.0353418 0.0397002 0.731403
0.0368803 0.0403776 0.731826
0.0383805 0.041199 0.732698
0.0398871 0.0420095 0.733532
0.0413742 0.0429049 0.734628
0.0427792 0.0441322 0.736752
0.0441868 0.0453801 0.738933
0.0455997 0.0466395 0.741141
0.0470296 0.0478622 0.743228
0.0484632 0.0491024 0.745361
0.0499554 0.0501238 0.746811
0.0514313 0.051241 0.748551
0.0529038 0.0524028 0.750422
0.0543356 0.0537862 0.752966
0.0557562 0.0552672 0.755799
0.0571689 0.0568371 0.758894
0.0585796 0.0584749 0.762185
0.0600715 0.0597543 0.764373
0.0616089 0.0608334 0.765944
0.063192 0.0616925 0.766842
0.0646301 0.0633918 0.770281
0.0958867 0.074329 0.770802
0.0976667 0.073058 0.765424
0.0993913 0.0723371 0.76167
0.101058 0.0723581 0.760093
0.102722 0.0723195 0.758348
0.104374 0.0723979 0.756948
0.106011 0.0727033 0.756211
0.10765 0.072911 0.755194
0.10928 0.0732564 0.754579
0.110908 0.0736272 0.754039
0.112533 0.0740136 0.753545
0.114153 0.0745647 0.753527
0.115774 0.0750542 0.753332
0.117396 0.0754948 0.752997
0.119017 0.0759058 0.752578
0.120636 0.0762411 0.751944
0.122253 0.0765135 0.751133
0.123869 0.0769685 0.750845
0.125486 0.0775415 0.750893
0.127104 0.0782066 0.751202
0.128725 0.0789608 0.751763
0.130348 0.0797124 0.752314
0.131977 0.0805672 0.753155
0.133609 0.0814264 0.754005
0.135243 0.0822666 0.754799
0.136882 0.0831806 0.755798
0.138527 0.0841291 0.75689
0.140171 0.0850056 0.757778
0.141827 0.0859936 0.758972
0.143504 0.0872698 0.760969
0.00284616 0.0359735 0.747284
0.00493231 0.0353051 0.743347
0.00672517 0.0353494 0.741721
0.00848547 0.0354617 0.74032
0.0102559 0.0355346 0.738797
0.0120394 0.0355561 0.737115
0.0137781 0.0356841 0.73578
0.015453 0.0359746 0.734968
0.0171005 0.0363347 0.73438
0.0187532 0.0366735 0.733728
0.0203837 0.0370706 0.733262
0.0220793 0.0372695 0.73217
0.0237664 0.037482 0.731125
0.0254318 0.0377495 0.730257
0.0270859 0.0380429 0.729474
0.0287124 0.0384153 0.728942
0.0302784 0.0389793 0.729013
0.0317966 0.0397032 0.729585
0.0333294 0.0403858 0.730026
0.0348438 0.0411374 0.73068
0.0363639 0.0418784 0.731299
0.0378544 0.0427344 0.732273
0.0393516 0.0435794 0.733209
0.0408385 0.0444768 0.734305
0.0422418 0.0457107 0.736437
0.0436571 0.0469289 0.738513
0.0450696 0.048189 0.740711
0.0465149 0.0493483 0.742591
0.0479478 0.0505889 0.744713
0.0494333 0.051637 0.746238
0.0508915 0.0528303 0.748201
0.052347 0.0540686 0.750295
0.0537478 0.0555973 0.753267
0.0551443 0.0571969 0.756445
0.0565411 0.0588524 0.759781
0.0579579 0.0604686 0.762986
0.0594506 0.0617523 0.765172
0.0610039 0.0627575 0.766509
0.0625744 0.0636961 0.767639
0.0641629 0.0645555 0.768527
0.0935368 0.0772862 0.775974
0.0954372 0.0747518 0.76692
0.0971583 0.0742366 0.763775
0.0988301 0.0742928 0.762301
0.100505 0.0742251 0.760473
0.102174 0.0741327 0.758579
0.103833 0.0741288 0.756947
0.105476 0.0743298 0.755912
0.107115 0.0745686 0.754989
0.108745 0.0749164 0.754383
0.110374 0.0752932 0.753862
0.111999 0.0757148 0.753471
0.11362 0.0762565 0.753425
0.115241 0.076772 0.753305
0.116864 0.0772453 0.753063
0.118485 0.0777048 0.752784
0.120106 0.0781249 0.752393
0.121725 0.0784757 0.751807
0.123343 0.0789047 0.751444
0.124961 0.0794816 0.751501
0.126582 0.0801446 0.7518
0.128205 0.0808973 0.752351
0.129829 0.0816603 0.752931
0.13146 0.0825536 0.753873
0.133092 0.0833782 0.75462
0.134726 0.0841737 0.755283
0.136362 0.0849736 0.755955
0.138005 0.0858809 0.756926
0.139652 0.0867928 0.757906
0.141314 0.0879132 0.759463
0.00209284 0.0380659 0.748571
0.00444787 0.0367281 0.742505
0.00625575 0.0367317 0.740758
0.00803078 0.0368035 0.739236
0.0098143 0.0368386 0.737602
0.0115869 0.0368865 0.736015
0.0133111 0.0370502 0.734801
0.014973 0.0373745 0.734102
0.016619 0.0377365 0.733525
0.0182738 0.0380683 0.732854
0.0199049 0.0384615 0.732379
0.0215994 0.0386615 0.731297
0.0232748 0.0389078 0.730364
0.0249303 0.0392046 0.729593
0.0265952 0.0394632 0.728706
0.0282225 0.0398317 0.728165
0.0297876 0.0403972 0.72824
0.0313023 0.041131 0.72884
0.0328327 0.0418199 0.729298
0.0343277 0.0426372 0.730153
0.035838 0.0434125 0.730874
0.0373265 0.0442761 0.731866
0.0388234 0.0451228 0.732802
0.040309 0.0460251 0.733906
0.0417121 0.0472595 0.736028
0.0431357 0.0484447 0.737991
0.0445471 0.0497083 0.740188
0.0459928 0.0508647 0.742048
0.0474245 0.0521087 0.744169
0.0489091 0.0531593 0.745693
0.050351 0.0544233 0.74786
0.0517797 0.0557819 0.750308
0.053161 0.0574019 0.75354
0.0545389 0.0590934 0.756977
0.0559197 0.0608321 0.760544
0.0573438 0.0624203 0.763645
0.0588439 0.0636742 0.765727
0.0603931 0.0647101 0.767147
0.0619385 0.0657943 0.768706
0.063489 0.0668835 0.770275
0.0948144 0.0773926 0.769506
0.0965628 0.0766002 0.76557
0.0982502 0.0765007 0.763649
0.0999326 0.0763762 0.761663
0.101611 0.0761977 0.759528
0.103278 0.0761078 0.757654
0.104929 0.076217 0.756358
0.106572 0.0763799 0.755221
0.108208 0.0766527 0.754402
0.109836 0.0770416 0.753918
0.111464 0.0774305 0.753433
0.113087 0.0779331 0.753276
0.114709 0.0784356 0.753118
0.116332 0.0789383 0.752961
0.117954 0.0794406 0.752803
0.119575 0.0799429 0.752645
0.121196 0.0803757 0.752292
0.122816 0.0808443 0.752041
0.124436 0.0814584 0.752201
0.126058 0.0821259 0.752509
0.127683 0.0828836 0.753069
0.12931 0.083642 0.753629
0.130942 0.0845041 0.754478
0.132573 0.085254 0.75501
0.134207 0.0860477 0.755664
0.135842 0.0868022 0.756205
0.137486 0.0877081 0.757166
0.13914 0.0887365 0.758462
0.140813 0.0900286 0.760484
0.00140456 0.0399975 0.749323
0.00395415 0.0381734 0.741738
0.00576399 0.0381713 0.739983
0.00755178 0.0382083 0.738359
0.00934895 0.0382052 0.736613
0.0111083 0.0382857 0.735139
0.0128294 0.0384563 0.733954
0.0144871 0.0387913 0.733293
0.016134 0.0391492 0.732706
0.0177811 0.0395006 0.732101
0.0194123 0.039893 0.731627
0.0210949 0.0401269 0.730657
0.0227575 0.0404105 0.729846
0.0243994 0.0407501 0.729213
0.026075 0.040976 0.728228
0.0277029 0.0413432 0.727686
0.0292719 0.0418959 0.727721
0.0307867 0.0426298 0.728318
0.0323168 0.0433195 0.728776
0.033802 0.0441703 0.729729
0.0353034 0.0449771 0.730543
0.0367984 0.0458182 0.73146
0.038285 0.046703 0.732507
0.0397712 0.0476042 0.733601
0.0411743 0.0488392 0.735713
0.0426066 0.0499911 0.737563
0.0440176 0.0512553 0.739748
0.0454782 0.0523503 0.741411
0.0469012 0.0536285 0.743625
0.0483756 0.0547215 0.745269
0.0497989 0.0560662 0.747668
0.0511993 0.0575524 0.750488
0.0525451 0.0593389 0.754203
0.0539062 0.0611173 0.757881
0.0552791 0.0629029 0.761568
0.0567115 0.0644597 0.764554
0.0582156 0.0657054 0.766598
0.0597651 0.0667507 0.768035
0.0612832 0.0679945 0.77006
0.0627905 0.0693409 0.772384
0.0910357 0.0816591 0.785225
0.0890872 0.0839854 0.793687
0.0886555 0.0843356 0.789487
0.0905378 0.0827085 0.7831
0.0929494 0.0793969 0.776978
0.0923855 0.0812226 0.777142
0.0942005 0.0798915 0.771651
0.0959618 0.0790136 0.767484
0.0976629 0.0787892 0.765209
0.0993521 0.0786337 0.76314
0.101038 0.0784073 0.760876
0.102714 0.0782341 0.75877
0.104372 0.0782508 0.757214
0.106022 0.0783507 0.7559
0.107665 0.0785051 0.754745
0.109298 0.0788218 0.754057
0.110927 0.0792135 0.753582
0.112551 0.0796801 0.753322
0.114176 0.0801467 0.753062
0.1158 0.0806494 0.752904
0.117421 0.0811582 0.752765
0.119044 0.0817003 0.75272
0.120666 0.0822092 0.752581
0.122287 0.0827146 0.752433
0.12391 0.083403 0.752797
0.125534 0.0841081 0.753208
0.127161 0.0849073 0.753879
0.12879 0.0856707 0.754448
0.130423 0.0864984 0.755194
0.132054 0.0872062 0.755605
0.13369 0.0879918 0.756229
0.135324 0.0887106 0.756668
0.136974 0.0896932 0.757833
0.138635 0.0908524 0.759482
0.000826337 0.0416572 0.749196
0.00330818 0.0400036 0.742194
0.00528376 0.0395806 0.739114
0.00707076 0.0396178 0.737501
0.00885613 0.0396444 0.735859
0.0106027 0.039758 0.734497
0.0123113 0.0399623 0.733425
0.0139786 0.0402695 0.73268
0.0156258 0.0406265 0.732094
0.0172744 0.0409739 0.73148
0.0189084 0.0413566 0.730977
0.0205976 0.041571 0.729952
0.0222357 0.0419283 0.729375
0.0238534 0.0423421 0.728976
0.0255289 0.04257 0.728002
0.027161 0.0429256 0.727426
0.0287245 0.043498 0.727521
0.0302501 0.0441977 0.728008
0.0317896 0.044857 0.728369
0.0332656 0.0457402 0.729416
0.0347574 0.0465819 0.730333
0.0362617 0.0473912 0.731146
0.0377556 0.0482503 0.732109
0.0392439 0.0491443 0.733175
0.0406556 0.050346 0.735173
0.0420947 0.0514702 0.736928
0.0434958 0.0527718 0.739216
0.0449389 0.0539373 0.741083
0.0463431 0.0552932 0.743519
0.0477848 0.0565284 0.745582
0.0491649 0.0580663 0.748549
0.0505386 0.0596821 0.75174
0.0518664 0.0615627 0.755714
0.0532195 0.0633917 0.75952
0.0546103 0.0651067 0.762972
0.0560745 0.0665195 0.765509
0.0575878 0.0677286 0.76743
0.0591318 0.0688147 0.768978
0.0606235 0.0702134 0.77145
0.0621135 0.0716716 0.774089
0.0640486 0.0721697 0.77911
0.0634804 0.0738888 0.778965
0.06526 0.0754175 0.787059
0.0648251 0.076342 0.784522
0.0918427 0.0827944 0.776569
0.0936134 0.0820323 0.772739
0.0953771 0.0811879 0.768686
0.0970849 0.0809249 0.766311
0.0987773 0.0807769 0.764271
0.100461 0.0806393 0.762268
0.102144 0.0804246 0.760051
0.103811 0.0803448 0.758226
0.105467 0.0803845 0.756746
0.107117 0.0804457 0.75533
0.108754 0.0807128 0.754502
0.110386 0.081068 0.753925
0.112014 0.0814952 0.753554
0.113641 0.0819222 0.753182
0.115266 0.0823917 0.752931
0.116889 0.082901 0.752792
0.118512 0.0834864 0.752868
0.120135 0.0840356 0.752841
0.121758 0.084578 0.752795
0.123382 0.0853474 0.753382
0.125008 0.0860611 0.753811
0.126637 0.0868721 0.75451
0.128267 0.0876369 0.755079
0.1299 0.0884161 0.755685
0.13153 0.0890408 0.755863
