ply
format ascii 1.0
element vertex 1691
property float x
property float y
property float z
end_header
-0.00778293 0.259021 0.631972
-0.00638673 0.259548 0.632016
-0.00498794 0.260161 0.632367
-0.0035878 0.260779 0.632736
-0.00218593 0.261406 0.633135
-0.000782314 0.262035 0.633542
0.000621196 0.262636 0.633843
0.00202435 0.263206 0.634034
0.00342953 0.263799 0.634304
0.00484103 0.264471 0.634854
0.00626053 0.265226 0.635702
0.0076835 0.265987 0.636564
0.00911063 0.266764 0.637482
0.0105297 0.267415 0.637947
0.0119451 0.268011 0.638217
0.0133544 0.268536 0.638232
0.0147644 0.269067 0.638267
0.016167 0.269528 0.638056
0.0175681 0.269981 0.637817
0.0189738 0.270475 0.637726
0.0203961 0.2711 0.638089
0.0218201 0.271728 0.638461
0.0232549 0.272422 0.639066
0.0246933 0.273128 0.639705
0.026136 0.273847 0.640389
0.027572 0.274509 0.640871
0.0290271 0.27528 0.641726
0.0304984 0.27613 0.642852
0.0319824 0.277033 0.644158
0.0334671 0.277917 0.645387
0.0349595 0.27882 0.646681
0.0364472 0.279677 0.647809
0.0379188 0.280431 0.648583
0.0393825 0.28113 0.649165
0.0408296 0.281745 0.649457
0.0422631 0.282283 0.649488
0.0436967 0.282821 0.649517
0.0451248 0.283336 0.649469
0.0465532 0.283849 0.649417
0.0479861 0.284385 0.64944
0.0494205 0.284924 0.64947
0.0508741 0.285541 0.649765
0.0523628 0.286298 0.650523
0.0538438 0.287017 0.651156
0.0553395 0.287784 0.651943
0.0568216 0.288489 0.652518
0.0582706 0.289059 0.652646
0.0597177 0.289623 0.652755
0.0611794 0.290235 0.653018
0.0626531 0.290892 0.653429
0.0641529 0.291632 0.654114
0.065702 0.292536 0.65533
0.0672578 0.293451 0.656579
0.0688684 0.294535 0.658379
0.0704994 0.295668 0.660327
0.072179 0.296943 0.66273
0.0744492 0.300081 0.671183
-0.0533746 0.254705 0.671784
-0.0518056 0.254612 0.669327
-0.0502522 0.254561 0.667043
-0.0486592 0.254224 0.663663
-0.0470847 0.253931 0.660469
-0.0455411 0.25377 0.657797
-0.0440175 0.253684 0.655427
-0.0425116 0.253669 0.65334
-0.0409958 0.253525 0.650767
-0.0394861 0.253362 0.648136
-0.0379817 0.25317 0.645403
-0.0364875 0.252986 0.642714
-0.0350109 0.252884 0.64035
-0.0335649 0.253011 0.638862
-0.0321289 0.253193 0.637589
-0.0307011 0.253421 0.636495
-0.0292832 0.253731 0.635712
-0.0278697 0.254067 0.63503
-0.0264619 0.254453 0.634541
-0.0250558 0.254846 0.634075
-0.0236519 0.255253 0.633667
-0.0222476 0.25563 0.633149
-0.0208458 0.256029 0.632712
-0.0194457 0.256435 0.632307
-0.0180482 0.256893 0.632091
-0.0166522 0.257395 0.632041
-0.0152559 0.257871 0.631892
-0.0138599 0.258366 0.631815
-0.012464 0.258816 0.631575
-0.0110685 0.259316 0.631518
-0.009673 0.259819 0.631472
-0.00827698 0.260369 0.631594
-0.00688038 0.260919 0.631717
-0.0054815 0.261538 0.632089
-0.00408113 0.262162 0.632475
-0.00267907 0.262791 0.632881
-0.00127569 0.263416 0.633266
0.000126752 0.26399 0.633472
0.00152966 0.264559 0.633655
0.00293766 0.265201 0.634099
0.00435414 0.26595 0.634919
0.0057782 0.266764 0.635971
0.00720584 0.267582 0.637031
0.00863816 0.268413 0.638128
0.010061 0.269092 0.638687
0.0114809 0.269719 0.63906
0.0128975 0.270298 0.639262
0.0143125 0.270854 0.639384
0.0157176 0.271314 0.639165
0.0171208 0.271763 0.63891
0.0185259 0.272232 0.638727
0.0199407 0.272781 0.63882
0.0213586 0.27335 0.638986
0.0227871 0.273992 0.6394
0.0242186 0.274644 0.639849
0.0256548 0.275317 0.640368
0.027095 0.276005 0.640936
0.0285547 0.276804 0.641883
0.0300269 0.277661 0.643023
0.0315151 0.278589 0.644403
0.033 0.279473 0.645627
0.0344888 0.280358 0.646846
0.0359723 0.281191 0.647888
0.0374447 0.28195 0.64867
0.0389033 0.282625 0.649165
0.0403519 0.283241 0.649461
0.0417855 0.283779 0.64949
0.0432245 0.28434 0.649593
0.0446595 0.28488 0.649628
0.0460945 0.28542 0.649664
0.0475342 0.285982 0.649771
0.048975 0.286543 0.649875
0.0504302 0.287162 0.650172
0.0519192 0.287921 0.650931
0.0534028 0.288646 0.651578
0.0549088 0.28945 0.652478
0.0564002 0.290187 0.653156
0.0578568 0.290784 0.653369
0.0593042 0.291342 0.653452
0.0607672 0.291956 0.653722
0.0622291 0.292562 0.653959
0.0637238 0.293282 0.65457
0.065266 0.294163 0.655707
0.0668313 0.295109 0.657045
0.0684355 0.296173 0.658768
0.07008 0.297356 0.660864
0.0717401 0.298569 0.663054
0.0739781 0.301628 0.671199
-0.0539256 0.256275 0.672018
-0.0523529 0.256173 0.669537
-0.0508044 0.256161 0.66742
-0.0492077 0.255817 0.664032
-0.047631 0.255525 0.660861
-0.0460761 0.255306 0.657981
-0.0445489 0.255209 0.655584
-0.0430342 0.255144 0.653316
-0.0415159 0.254994 0.650737
-0.0400041 0.254829 0.64811
-0.0385002 0.254655 0.645464
-0.0370039 0.25447 0.642789
-0.035528 0.254392 0.640528
-0.0340803 0.254518 0.639045
-0.0326423 0.254697 0.637764
-0.0312103 0.254897 0.636569
-0.0297909 0.255203 0.635776
-0.0283743 0.255512 0.634996
-0.0269653 0.255896 0.634502
-0.0255583 0.256288 0.634035
-0.0241536 0.256696 0.633633
-0.0227485 0.257076 0.633124
-0.0213447 0.25745 0.6326
-0.0199428 0.257832 0.632105
-0.018544 0.258264 0.631796
-0.0171472 0.258743 0.631662
-0.0157503 0.2592 0.631444
-0.0143544 0.259697 0.631373
-0.0129583 0.26015 0.631147
-0.0115628 0.260648 0.63108
-0.0101673 0.261148 0.631023
-0.00877138 0.261698 0.631142
-0.00737473 0.26225 0.631272
-0.00597563 0.262893 0.63173
-0.00457516 0.263523 0.632134
-0.00317334 0.264152 0.632535
-0.00176922 0.264796 0.632988
-0.000365933 0.26539 0.63326
0.00103744 0.265961 0.633451
0.00244835 0.266654 0.634069
0.00386824 0.267456 0.635075
0.00529465 0.268304 0.636237
0.00672658 0.269174 0.637469
0.00816329 0.270051 0.638725
0.0095899 0.270761 0.639385
0.0110163 0.271443 0.639947
0.0124403 0.272078 0.64034
0.0138606 0.272664 0.640561
0.0152711 0.27315 0.640429
0.0166798 0.27362 0.640247
0.0180872 0.274085 0.640044
0.0194987 0.274585 0.639966
0.0209117 0.275098 0.639931
0.0223344 0.275683 0.640145
0.0237607 0.276287 0.640423
0.0251888 0.276897 0.640719
0.0266301 0.277588 0.64129
0.0280868 0.278364 0.642152
0.0295553 0.279196 0.643201
0.0310398 0.280104 0.644501
0.0325195 0.28096 0.645619
0.0340035 0.281818 0.646743
0.0354862 0.282651 0.647774
0.036959 0.283412 0.648558
0.0384183 0.284088 0.649052
0.0398711 0.284727 0.649424
0.0413058 0.285264 0.649447
0.0427452 0.285827 0.649558
0.0441867 0.286395 0.649684
0.0456287 0.286965 0.649817
0.047071 0.287533 0.649943
0.0485132 0.288097 0.650054
0.0499737 0.288739 0.650423
0.0514635 0.289498 0.651177
0.0529551 0.290252 0.651912
0.0544739 0.29111 0.652985
0.0559733 0.291875 0.65375
0.0574389 0.292501 0.654055
0.0588954 0.293088 0.65423
0.0603626 0.293711 0.654522
0.0618199 0.294294 0.654682
0.0633155 0.295014 0.655287
0.0648504 0.295866 0.656317
0.0664086 0.29679 0.657579
0.067991 0.297782 0.659054
0.0696119 0.298886 0.660882
0.0712202 0.299932 0.662519
0.07339 0.302798 0.67
-0.0544852 0.25789 0.672411
-0.0529029 0.257746 0.669788
-0.051346 0.257698 0.66754
-0.0497352 0.257281 0.663895
-0.0481624 0.257024 0.660877
-0.0466093 0.256829 0.658104
-0.0450879 0.256783 0.655915
-0.0435613 0.25665 0.653401
-0.042038 0.256476 0.650749
-0.0405211 0.256285 0.648043
-0.0390148 0.256105 0.645389
-0.0375191 0.25594 0.642802
-0.0360432 0.255878 0.640614
-0.0345935 0.256001 0.639125
-0.0331537 0.256175 0.637835
-0.0317198 0.256369 0.636625
-0.0302972 0.256651 0.635746
-0.0288776 0.256936 0.63488
-0.0274662 0.257296 0.634299
-0.0260583 0.257685 0.633823
-0.0246531 0.258095 0.633429
-0.0232464 0.258457 0.632857
-0.0218422 0.258831 0.632333
-0.0204395 0.259209 0.631826
-0.0190394 0.259615 0.631423
-0.0176418 0.260071 0.631205
-0.0162452 0.26055 0.631071
-0.0148493 0.261049 0.631009
-0.0134531 0.261526 0.630866
-0.0120574 0.262046 0.630881
-0.0106614 0.262549 0.630832
-0.00926538 0.263073 0.63086
-0.00786867 0.263623 0.630979
-0.00647001 0.264243 0.63135
-0.00507026 0.264852 0.631678
-0.00366797 0.265503 0.632155
-0.00226325 0.266174 0.632698
-0.000858615 0.266795 0.633065
0.000547509 0.267417 0.633432
0.00196136 0.26816 0.634225
0.00338335 0.268993 0.635332
0.00481013 0.269842 0.636487
0.00624384 0.270733 0.637787
0.00768082 0.271612 0.639036
0.00911042 0.272347 0.639778
0.0105405 0.273061 0.640445
0.0119708 0.273751 0.641025
0.0133959 0.27437 0.641354
0.0148136 0.274905 0.641392
0.0162275 0.275402 0.641302
0.0176383 0.275873 0.641119
0.0190496 0.276352 0.640962
0.0204614 0.276838 0.640831
0.0218793 0.277371 0.640864
0.0233005 0.277927 0.640971
0.0247228 0.278487 0.641095
0.0261649 0.279176 0.641656
0.0276186 0.279929 0.642432
0.0290835 0.280738 0.643392
0.0305632 0.281617 0.644587
0.0320382 0.282445 0.645605
0.033517 0.283277 0.646629
0.0349949 0.284084 0.647568
0.0364627 0.28482 0.648261
0.0379212 0.285496 0.648752
0.0393797 0.286161 0.649206
0.0408149 0.286701 0.649238
0.0422604 0.287292 0.649444
0.0437087 0.28789 0.649666
0.0451529 0.288468 0.649825
0.0465973 0.289041 0.649965
0.0480458 0.289633 0.650166
0.0495075 0.290278 0.650542
0.0509977 0.291039 0.651296
0.052501 0.291842 0.652188
0.0540258 0.292723 0.65333
0.0555216 0.293471 0.654029
0.0570017 0.294153 0.654514
0.0584755 0.294802 0.654887
0.0599393 0.295407 0.655117
0.0613907 0.295965 0.655191
0.0628919 0.296701 0.655842
0.0644188 0.297521 0.656763
0.0659705 0.298421 0.657938
0.0675378 0.299363 0.659241
0.0691329 0.300384 0.660793
0.0707063 0.301315 0.66205
-0.0518659 0.259108 0.667173
-0.0502531 0.258688 0.663539
-0.0486919 0.25851 0.660835
-0.0471455 0.258368 0.658282
-0.0456326 0.258392 0.656368
-0.0441032 0.258256 0.653858
-0.0425733 0.258054 0.651112
-0.0410503 0.257833 0.64831
-0.0395407 0.257646 0.645643
-0.0380418 0.257472 0.64304
-0.036561 0.257384 0.640768
-0.0351093 0.257504 0.639274
-0.0336674 0.257672 0.63797
-0.0322299 0.257844 0.63668
-0.0308042 0.258103 0.635724
-0.0293817 0.258366 0.634781
-0.0279676 0.258701 0.63411
-0.0265588 0.259086 0.633621
-0.025153 0.259495 0.633226
-0.0237458 0.259858 0.632662
-0.0223418 0.260257 0.632231
-0.0209382 0.260631 0.631713
-0.0195365 0.261013 0.631222
-0.0181383 0.261464 0.630987
-0.0167413 0.261944 0.630854
-0.0153446 0.262423 0.630722
-0.0139481 0.262902 0.630586
-0.0125523 0.263444 0.630678
-0.011156 0.263948 0.630634
-0.00975954 0.264475 0.630671
-0.00836242 0.265023 0.630782
-0.00696371 0.265637 0.631126
-0.00556459 0.266217 0.631348
-0.00416225 0.266872 0.631835
-0.00275736 0.26755 0.632403
-0.00135145 0.268205 0.632883
5.73177e-05 0.268883 0.633445
0.00147413 0.269676 0.634408
0.00289639 0.270511 0.63551
0.00432176 0.271335 0.63657
0.00575518 0.272222 0.637847
0.00719032 0.273076 0.639
0.00862025 0.273815 0.639752
0.0100528 0.274555 0.640505
0.0114881 0.275296 0.641256
0.0129166 0.275942 0.641676
0.0143409 0.27653 0.641893
0.0157625 0.277084 0.641996
0.017179 0.27759 0.64193
0.0185933 0.278076 0.641798
0.0200102 0.278586 0.641746
0.0214297 0.279116 0.641763
0.0228496 0.279646 0.641781
0.0242733 0.280204 0.641891
0.0257165 0.280891 0.642439
0.0271668 0.281614 0.643105
0.028629 0.282397 0.643972
0.0301013 0.283228 0.644995
0.0315691 0.28401 0.645849
0.033039 0.284788 0.646687
0.0345121 0.285568 0.647528
0.0359752 0.286278 0.648131
0.037435 0.286958 0.64863
0.0388942 0.287629 0.6491
0.0403355 0.288197 0.649225
0.0417872 0.288817 0.649521
0.0432416 0.289443 0.649836
0.044693 0.29005 0.650086
0.0461436 0.29065 0.650314
0.0475995 0.291269 0.650602
0.0490635 0.291917 0.650981
0.0505547 0.292682 0.651742
0.0520597 0.293491 0.652645
0.0535809 0.294354 0.653717
0.0550896 0.295154 0.654584
0.0565852 0.295892 0.655245
0.0580704 0.296578 0.655733
0.0595435 0.297215 0.656062
0.0610039 0.297797 0.65621
0.0624966 0.2985 0.656749
0.0640169 0.299293 0.657573
0.0655619 0.300166 0.65865
0.0671153 0.301056 0.659779
0.0686925 0.302016 0.661125
0.0706225 0.304162 0.666244
-0.0491959 0.259838 0.660195
-0.0476613 0.259774 0.657953
-0.0461572 0.259862 0.656289
-0.0446338 0.259778 0.653991
-0.0431031 0.259586 0.651296
-0.0415768 0.259356 0.648476
-0.0400645 0.259164 0.645806
-0.0385629 0.258986 0.643203
-0.037077 0.258871 0.640841
-0.0356214 0.258966 0.639266
-0.0341734 0.259087 0.637793
-0.0327368 0.259278 0.636585
-0.03131 0.259538 0.635632
-0.0298886 0.259825 0.634784
-0.0284716 0.260137 0.634029
-0.0270628 0.260534 0.63359
-0.0256545 0.260919 0.633105
-0.0242465 0.261282 0.632544
-0.0228421 0.261685 0.632132
-0.0214377 0.26206 0.631617
-0.0200349 0.262438 0.631116
-0.018636 0.262887 0.630874
-0.0172378 0.263344 0.630659
-0.0158402 0.263802 0.630446
-0.0144436 0.264299 0.630376
-0.0130475 0.264843 0.630473
-0.0116508 0.265351 0.630444
-0.0102539 0.265886 0.630506
-0.00885678 0.266407 0.630523
-0.00745834 0.266993 0.630765
-0.00605978 0.267543 0.630882
-0.00465784 0.268198 0.631364
-0.00325239 0.268908 0.632038
-0.00184362 0.26964 0.632789
-0.000432521 0.270369 0.633523
0.000985889 0.271192 0.634582
0.00240747 0.272007 0.635607
0.00383131 0.272804 0.636566
0.00526262 0.273663 0.637734
0.00669413 0.27447 0.638721
0.0081221 0.275188 0.639396
0.00955629 0.275953 0.640226
0.0109934 0.276718 0.641055
0.0124224 0.277367 0.64148
0.0138543 0.27803 0.641955
0.0152848 0.278663 0.642322
0.0167092 0.279228 0.642456
0.0181315 0.27977 0.642512
0.0195593 0.280355 0.642715
0.0209781 0.280862 0.64265
0.0223999 0.281392 0.642663
0.0238257 0.281948 0.642766
0.025267 0.282611 0.643227
0.0267081 0.283262 0.643645
0.0281667 0.284018 0.644413
0.0296315 0.284798 0.645255
0.0310917 0.285531 0.64594
0.0325536 0.28626 0.64661
0.0340262 0.287039 0.647438
0.0354889 0.287747 0.64803
0.0369535 0.288454 0.648619
0.03842 0.289158 0.649191
0.0398723 0.289784 0.649506
0.041331 0.290433 0.649893
0.0427912 0.291084 0.650287
0.0442432 0.291688 0.650522
0.0456949 0.292287 0.650745
0.0471523 0.292908 0.651033
0.0486169 0.293557 0.651415
0.0501113 0.294329 0.652193
0.0516174 0.295142 0.6531
0.0531342 0.295985 0.6541
0.0546571 0.296843 0.655144
0.0561617 0.297613 0.655904
0.057656 0.298332 0.656493
0.0591316 0.298972 0.656825
0.0605997 0.299579 0.657052
0.0620803 0.300228 0.657411
0.0635944 0.300996 0.658151
0.0651268 0.301822 0.659069
0.0666649 0.302658 0.660019
0.0682172 0.303533 0.661083
-0.0497032 0.261186 0.659633
-0.0481687 0.261126 0.657421
-0.0466612 0.261196 0.655699
-0.0451338 0.261088 0.653324
-0.043607 0.260928 0.650768
-0.0420854 0.260741 0.648122
-0.0405748 0.260572 0.645554
-0.0390771 0.260438 0.643127
-0.0375942 0.260362 0.640926
-0.0361339 0.26043 0.639258
-0.0346841 0.260546 0.637774
-0.0332481 0.260757 0.636646
-0.0318222 0.26104 0.63578
-0.0303997 0.261331 0.634951
-0.028981 0.26164 0.634191
-0.0275709 0.262035 0.633742
-0.026161 0.262414 0.633237
-0.0247505 0.262757 0.632606
-0.0233452 0.263162 0.6322
-0.0219399 0.263539 0.631696
-0.0205358 0.263915 0.631189
-0.0191351 0.264341 0.630864
-0.017736 0.264796 0.630644
-0.0163376 0.265253 0.63043
-0.0149402 0.265747 0.630347
-0.0135435 0.26629 0.630439
-0.0121461 0.266799 0.630412
-0.0107486 0.267337 0.630484
-0.00935087 0.26784 0.630434
-0.0079521 0.268424 0.630667
-0.0065531 0.26897 0.630765
-0.00515038 0.269649 0.631332
-0.0037439 0.270384 0.632088
-0.00233222 0.27119 0.633088
-0.000919136 0.271948 0.633917
0.000500152 0.272777 0.634987
0.00191991 0.273546 0.635845
0.00334128 0.274292 0.636623
0.00476941 0.275101 0.637609
0.00619747 0.275862 0.638429
0.00762375 0.276558 0.639023
0.00905754 0.277324 0.639853
0.0104942 0.278091 0.640684
0.0119228 0.278739 0.641102
0.0133595 0.279453 0.641747
0.0147957 0.280142 0.6423
0.0162269 0.280765 0.642631
0.0176561 0.28136 0.642863
0.019091 0.281995 0.643231
0.0205121 0.282508 0.643184
0.0219391 0.283066 0.643291
0.0233672 0.283629 0.643411
0.0248101 0.284294 0.643874
0.0262494 0.284923 0.644213
0.0277082 0.285673 0.644956
0.0291699 0.286427 0.645705
0.0306307 0.287159 0.646381
0.0320894 0.287864 0.646964
0.0335582 0.288618 0.647705
0.0350208 0.289324 0.648285
0.036488 0.290038 0.648888
0.0379558 0.290749 0.649479
0.0394148 0.291405 0.649889
0.040875 0.292055 0.650277
0.0423304 0.292681 0.650583
0.0437786 0.293258 0.65073
0.0452249 0.293831 0.650861
0.0466825 0.29445 0.651143
0.0481483 0.295103 0.65153
0.0496426 0.295874 0.652301
0.0511555 0.296716 0.653294
0.0526718 0.29756 0.654292
0.0541958 0.29842 0.655337
0.0557147 0.299247 0.65627
0.0572252 0.300027 0.657051
0.0587098 0.3007 0.657485
0.0601938 0.301361 0.657878
0.0616766 0.302013 0.658244
0.0631861 0.302759 0.658905
0.0647041 0.303532 0.659649
0.0662199 0.304286 0.660329
0.0677333 0.305023 0.660952
-0.0486738 0.262465 0.656839
-0.0471572 0.262477 0.654916
-0.0456297 0.262371 0.652562
-0.0441065 0.262239 0.650126
-0.0425919 0.26211 0.647709
-0.0410875 0.261997 0.645364
-0.0395969 0.261933 0.643207
-0.0381146 0.261879 0.641094
-0.0366543 0.261962 0.639491
-0.0352045 0.262095 0.638079
-0.0337688 0.262328 0.637033
-0.0323415 0.262615 0.636189
-0.0309193 0.262932 0.635454
-0.0294987 0.26324 0.634691
-0.0280867 0.263635 0.634244
-0.0266719 0.263968 0.633574
-0.0252598 0.26431 0.632941
-0.0238516 0.264689 0.632444
-0.0224437 0.265042 0.631855
-0.0210383 0.265416 0.631345
-0.0196365 0.265844 0.631023
-0.0182358 0.26628 0.630735
-0.0168362 0.266734 0.630511
-0.0154379 0.267225 0.630419
-0.01404 0.267744 0.630425
-0.0126419 0.268253 0.630395
-0.0112437 0.26879 0.630462
-0.00984538 0.269293 0.630412
-0.00844577 0.269901 0.630725
-0.00704552 0.270476 0.630924
-0.00564152 0.271184 0.631582
-0.00423437 0.271923 0.632346
-0.00282142 0.272753 0.633423
-0.00140746 0.273513 0.634249
1.25777e-05 0.274346 0.635328
0.00143056 0.275067 0.636015
0.00285078 0.275784 0.636686
0.00427433 0.276516 0.637401
0.00569877 0.277225 0.63804
0.00712117 0.277875 0.638472
0.00855253 0.278619 0.639222
0.00998832 0.279385 0.640044
0.0114186 0.280058 0.640546
0.0128573 0.280801 0.641281
0.0142962 0.281521 0.641937
0.0157326 0.282196 0.642442
0.0171677 0.282843 0.642847
0.0186093 0.283533 0.643392
0.0200349 0.284075 0.643442
0.0214671 0.284666 0.643658
0.022903 0.28528 0.643945
0.0243517 0.285977 0.64451
0.0257961 0.286633 0.644932
0.0272564 0.287386 0.645677
0.0287191 0.288138 0.646414
0.0301767 0.288842 0.64699
0.0316287 0.2895 0.647412
0.0330941 0.290228 0.648062
0.0345581 0.290936 0.648643
0.0360259 0.291651 0.649246
0.0374946 0.292366 0.649846
0.0389605 0.293052 0.650348
0.0404165 0.293678 0.650654
0.0418686 0.294276 0.650864
0.0433102 0.294822 0.650908
0.0447521 0.295367 0.650947
0.0462105 0.295987 0.651227
0.0476776 0.296642 0.65162
0.0491668 0.297389 0.652306
0.0506782 0.298227 0.653281
0.0521931 0.299067 0.654258
0.0537173 0.299929 0.655303
0.0552438 0.300791 0.656342
0.0567692 0.301633 0.657315
0.058265 0.302343 0.657861
0.0597645 0.303064 0.658441
0.0612563 0.303744 0.658891
0.0627663 0.304492 0.659552
0.0642855 0.305263 0.660283
0.0658006 0.30601 0.660933
0.0676182 0.307833 0.664963
-0.0461395 0.263749 0.652153
-0.0446276 0.263704 0.650048
-0.0431265 0.263686 0.648051
-0.0416236 0.263601 0.645821
-0.0401313 0.263543 0.643697
-0.0386466 0.26349 0.641601
-0.0371814 0.263549 0.639917
-0.0357293 0.263681 0.638506
-0.0342895 0.263891 0.637381
-0.0328607 0.264181 0.636552
-0.0314368 0.264498 0.635819
-0.0300163 0.26483 0.635145
-0.0286025 0.265223 0.634692
-0.0271859 0.265557 0.634027
-0.0257717 0.265895 0.633381
-0.0243616 0.26627 0.632872
-0.0229516 0.266617 0.632261
-0.0215446 0.266991 0.631749
-0.0201403 0.267396 0.631352
-0.0187373 0.267808 0.630977
-0.017336 0.268239 0.630672
-0.0159367 0.268732 0.630583
-0.0145376 0.269229 0.630512
-0.0131385 0.269738 0.630478
-0.0117396 0.27029 0.630599
-0.0103402 0.270815 0.630623
-0.00893941 0.271454 0.631042
-0.00753763 0.272064 0.631356
-0.00613192 0.272802 0.632113
-0.00472353 0.273544 0.632881
-0.00330954 0.274376 0.633955
-0.00189553 0.275114 0.634699
-0.000475679 0.275925 0.635694
0.000941971 0.27662 0.636284
0.0023613 0.277306 0.636842
0.00378062 0.277959 0.637287
0.00520179 0.278616 0.637741
0.00662208 0.279236 0.638068
0.0080492 0.279931 0.638649
0.00948038 0.280651 0.639311
0.0109119 0.281347 0.639889
0.012352 0.282117 0.640709
0.0137933 0.282869 0.641469
0.015235 0.283599 0.642152
0.0166782 0.284322 0.642808
0.0181261 0.285065 0.643528
0.019559 0.285661 0.643759
0.0209992 0.286309 0.644157
0.0224433 0.286976 0.644618
0.0238972 0.287705 0.64528
0.025351 0.288416 0.645879
0.0268145 0.28918 0.646653
0.0282795 0.289937 0.647399
0.0297389 0.290642 0.647972
0.0311886 0.291272 0.648298
0.0326469 0.291949 0.648773
0.0341118 0.292655 0.649343
0.0355757 0.293344 0.649856
0.0370427 0.294039 0.650382
0.0385088 0.294722 0.650871
0.0399616 0.29532 0.651081
0.0414031 0.295862 0.65111
0.0428402 0.296377 0.651051
0.0442763 0.296892 0.650992
0.0457305 0.297489 0.651193
0.0471979 0.298147 0.651593
0.0486874 0.298896 0.652281
0.050198 0.299731 0.65324
0.0517123 0.300568 0.654201
0.0532367 0.301434 0.655249
0.0547709 0.302328 0.656386
0.0563053 0.303208 0.65747
0.0578168 0.303981 0.658213
0.0593266 0.304738 0.658902
0.0608346 0.30548 0.65954
0.062346 0.30623 0.660201
0.0638584 0.30697 0.660827
0.0653648 0.307685 0.661377
0.0675153 0.310718 0.669157
-0.0466183 0.26492 0.650986
-0.045128 0.265021 0.64943
-0.0436433 0.265127 0.647894
-0.0421506 0.265131 0.645998
-0.0406714 0.265194 0.644323
-0.0391867 0.265163 0.642315
-0.0377159 0.265197 0.64055
-0.0362611 0.265325 0.639132
-0.0348186 0.265533 0.638003
-0.0333876 0.265822 0.637173
-0.0319653 0.266182 0.636595
-0.0305444 0.266537 0.636005
-0.0291283 0.266933 0.635561
-0.0277108 0.267289 0.634976
-0.0262924 0.267601 0.63424
-0.0248769 0.267927 0.633555
-0.0234645 0.268271 0.632936
-0.0220552 0.268642 0.632414
-0.0206472 0.269003 0.63186
-0.0192424 0.269413 0.631478
-0.017839 0.269837 0.631147
-0.0164377 0.270306 0.630977
-0.0150364 0.270762 0.63076
-0.0136362 0.27127 0.630723
-0.0122362 0.271821 0.630836
-0.0108356 0.272371 0.630942
-0.00943391 0.273019 0.631386
-0.00803025 0.273682 0.631882
-0.00662298 0.274452 0.632744
-0.00521329 0.275196 0.633509
-0.00379835 0.276026 0.634566
-0.00238308 0.276763 0.635304
-0.000963896 0.27753 0.636136
0.000453597 0.278199 0.636636
0.00187244 0.27886 0.637102
0.00328823 0.279435 0.637279
0.0047064 0.280038 0.637546
0.00612303 0.280602 0.637681
0.00754609 0.281245 0.638084
0.00897445 0.281937 0.638646
0.010407 0.282656 0.639298
0.011847 0.283433 0.640141
0.0132904 0.284215 0.640996
0.0147369 0.284999 0.641853
0.0161831 0.285752 0.642607
0.0176314 0.286502 0.643345
0.0190714 0.287157 0.643764
0.0205181 0.287856 0.64433
0.021967 0.288557 0.644895
0.0234253 0.289314 0.645645
0.0248881 0.290084 0.646435
0.0263538 0.290858 0.647234
0.0278246 0.291648 0.648081
0.029286 0.292356 0.64866
0.03074 0.293006 0.649045
0.0321955 0.293656 0.649426
0.0336618 0.29436 0.649984
0.0351227 0.295025 0.650412
0.0365894 0.295714 0.650917
0.0380521 0.296371 0.651314
0.0394997 0.296941 0.65143
0.0409367 0.297451 0.651356
0.0423636 0.29791 0.651114
0.0437897 0.298367 0.65087
0.0452377 0.298936 0.650981
0.0467008 0.29957 0.651301
0.0481848 0.300297 0.651913
0.0496949 0.301134 0.652872
0.0512206 0.302025 0.653998
0.0527454 0.302896 0.65506
0.0542937 0.303852 0.65638
0.0558415 0.30479 0.657643
0.0573677 0.305622 0.658564
0.0588798 0.306386 0.659269
0.0603973 0.307163 0.660011
0.0619113 0.307919 0.660685
0.0634248 0.308662 0.661316
0.064933 0.309378 0.66186
-0.0471201 0.266246 0.650392
-0.0456511 0.266497 0.649386
-0.04418 0.26671 0.648247
-0.0426953 0.266792 0.64664
-0.0412262 0.266955 0.645333
-0.0397403 0.266941 0.643394
-0.0382684 0.266995 0.641708
-0.0368122 0.267142 0.640361
-0.0353657 0.267343 0.639211
-0.0339289 0.267605 0.638284
-0.0325016 0.267942 0.637625
-0.0310781 0.268298 0.637039
-0.0296577 0.268673 0.636519
-0.0282392 0.269052 0.636018
-0.0268178 0.269364 0.63528
-0.0253982 0.269667 0.634517
-0.0239818 0.269985 0.633806
-0.022569 0.270333 0.633204
-0.0211564 0.270645 0.632481
-0.0197487 0.271026 0.631998
-0.0183441 0.271466 0.631722
-0.0169409 0.271935 0.631549
-0.0155379 0.272394 0.631338
-0.0141358 0.272883 0.631234
-0.0127344 0.273456 0.631419
-0.0113321 0.274006 0.631526
-0.0099289 0.274662 0.631993
-0.00852373 0.275355 0.632583
-0.00711461 0.276147 0.633513
-0.00570341 0.27689 0.634267
-0.00428777 0.277699 0.635245
-0.00287185 0.278415 0.635902
-0.00145345 0.279133 0.636562
-3.58578e-05 0.279778 0.636977
0.00138163 0.280389 0.637271
0.00279557 0.280918 0.637288
0.00421127 0.281469 0.637379
0.00562765 0.282024 0.637485
0.00704882 0.282639 0.637789
0.00847492 0.283305 0.63826
0.00990921 0.284049 0.638989
0.0113511 0.28485 0.639909
0.0127949 0.285641 0.640787
0.0142442 0.286457 0.641745
0.0156934 0.28724 0.642589
0.0171423 0.287994 0.643335
0.0185856 0.288676 0.643842
0.0200335 0.289382 0.644423
0.0214869 0.290114 0.645091
0.0229524 0.290925 0.64601
0.0244232 0.291751 0.646975
0.0258944 0.292557 0.64787
0.0273749 0.293407 0.648906
0.028842 0.294144 0.649569
0.0302984 0.294797 0.649962
0.0317516 0.295422 0.650258
0.033215 0.2961 0.650724
0.0346721 0.296734 0.651049
0.0361359 0.297399 0.651469
0.0375902 0.298004 0.651697
0.0390347 0.298546 0.65172
0.0404669 0.299027 0.65155
0.0418879 0.299451 0.6512
0.0433093 0.299878 0.65086
0.0447571 0.300443 0.650956
0.0462197 0.301075 0.651267
0.0477049 0.301804 0.651882
0.0492101 0.30262 0.652767
0.0507431 0.303547 0.654
0.0522754 0.304453 0.655161
0.0538309 0.305444 0.656585
0.055387 0.306413 0.657935
0.0569325 0.307328 0.659108
0.058453 0.308123 0.659903
0.0599729 0.308906 0.660662
0.0614884 0.309663 0.661332
0.0630051 0.310414 0.661981
0.0647347 0.311959 0.665085
-0.0447437 0.268483 0.649269
-0.0432592 0.26859 0.647758
-0.0417922 0.268795 0.646603
-0.0402987 0.26875 0.644565
-0.0388237 0.268806 0.642892
-0.0373637 0.26895 0.641537
-0.0359139 0.269149 0.640384
-0.0344709 0.269381 0.639355
-0.0330403 0.269712 0.638675
-0.0316122 0.270049 0.638018
-0.0301894 0.270427 0.637511
-0.0287682 0.270805 0.637005
-0.0273439 0.271114 0.63626
-0.0259202 0.271395 0.635417
-0.024501 0.271711 0.634703
-0.0230855 0.272056 0.63409
-0.0216693 0.272342 0.633278
-0.0202573 0.272674 0.632624
-0.0188491 0.273064 0.632176
-0.0174438 0.273506 0.631909
-0.0160383 0.27392 0.631545
-0.0146348 0.274384 0.631352
-0.0132328 0.27498 0.631615
-0.0118296 0.275557 0.631807
-0.0104256 0.276216 0.632283
-0.00901915 0.276933 0.632951
-0.00760906 0.277747 0.633944
-0.00619685 0.278492 0.634701
-0.00478109 0.279277 0.63559
-0.0033649 0.279971 0.636165
-0.00194665 0.280664 0.636737
-0.000529468 0.281281 0.637052
0.000887349 0.281866 0.637257
0.0023009 0.282372 0.637197
0.00371559 0.282898 0.637203
0.00513248 0.283455 0.637311
0.00655202 0.284044 0.637527
0.0079782 0.28471 0.637997
0.00941438 0.285481 0.638811
0.0108585 0.286314 0.639827
0.0123027 0.287109 0.640714
0.0137542 0.287949 0.641744
0.015206 0.288757 0.642664
0.0166553 0.289513 0.64341
0.0181019 0.290221 0.643997
0.0195508 0.29093 0.644584
0.0210107 0.291715 0.645417
0.0224779 0.292534 0.646356
0.0239566 0.293416 0.647496
0.0254323 0.29425 0.648477
0.0269181 0.295131 0.649603
0.0283834 0.295848 0.650196
0.029846 0.296533 0.650685
0.031297 0.297134 0.6509
0.0327579 0.297791 0.651294
0.0342163 0.298423 0.651608
0.0356807 0.299084 0.652013
0.0371323 0.299663 0.652154
0.0385777 0.300206 0.652177
0.0400072 0.300661 0.651925
0.0414241 0.301058 0.651488
0.042841 0.301455 0.65105
0.044278 0.301961 0.65096
0.0457347 0.302563 0.651175
0.0472196 0.303294 0.651789
0.0487307 0.304137 0.652757
0.0502772 0.305127 0.654177
0.0518239 0.306096 0.655527
0.0533893 0.307129 0.657071
0.0549577 0.308157 0.658595
0.0565128 0.309105 0.659864
0.0580348 0.309901 0.660656
0.0595697 0.310741 0.661581
0.0610957 0.311533 0.662352
0.0627945 0.312987 0.665166
0.0647769 0.315487 0.671185
-0.0453267 0.270386 0.650736
-0.043837 0.270484 0.649198
-0.0423658 0.270684 0.648029
-0.0408677 0.270634 0.645978
-0.0393862 0.270668 0.644236
-0.0379208 0.270796 0.642827
-0.0364649 0.27097 0.641591
-0.0350154 0.271168 0.640442
-0.0335771 0.271448 0.639586
-0.0321438 0.271755 0.638826
-0.0307171 0.272112 0.638245
-0.0292952 0.272512 0.637815
-0.0278668 0.272798 0.63699
-0.0264404 0.273074 0.636135
-0.0250188 0.273389 0.635417
-0.0236009 0.27373 0.634792
-0.0221813 0.273993 0.633899
-0.0207661 0.274296 0.633152
-0.0193545 0.274638 0.632537
-0.0179467 0.27505 0.632167
-0.0165399 0.275463 0.631799
-0.0151351 0.275926 0.631605
-0.0137323 0.276547 0.631947
-0.0123283 0.277167 0.632286
-0.010923 0.277808 0.63269
-0.00951574 0.278504 0.633283
-0.00810491 0.279319 0.634274
-0.00669198 0.280064 0.635021
-0.00527636 0.280807 0.635763
-0.00385948 0.281502 0.636337
-0.00244086 0.282189 0.636884
-0.0010241 0.282778 0.637101
0.000393309 0.28336 0.637295
0.00180902 0.283892 0.63732
0.00322482 0.284423 0.637339
0.00464427 0.285007 0.637537
0.00606646 0.285624 0.637841
0.00749257 0.286276 0.63826
0.00892959 0.287052 0.639083
0.0103743 0.287886 0.640097
0.011817 0.288658 0.640899
0.0132689 0.289499 0.641926
0.0147209 0.290306 0.642836
0.016168 0.291037 0.643496
0.017615 0.291744 0.644074
0.019064 0.292452 0.644655
0.0205245 0.293239 0.645486
0.0219953 0.294088 0.646517
0.0234784 0.295004 0.647757
0.024959 0.295872 0.648841
0.0264522 0.296805 0.650126
0.0279226 0.297549 0.650801
0.0293912 0.298266 0.651387
0.030845 0.298874 0.65162
0.0323072 0.299529 0.652002
0.0337624 0.300133 0.652224
0.0352233 0.300768 0.65254
0.0366727 0.301324 0.652605
0.0381194 0.301869 0.652635
0.0395505 0.302323 0.652375
0.0409695 0.302719 0.651937
0.0423876 0.303116 0.6515
0.0438208 0.303597 0.65133
0.0452736 0.304171 0.65145
0.0467575 0.304895 0.652041
0.0482695 0.305743 0.653015
0.0498233 0.306767 0.654532
0.0513842 0.3078 0.656072
0.0529582 0.30887 0.657723
0.0545359 0.309938 0.659359
0.0560992 0.310917 0.660713
0.0576239 0.311723 0.661529
0.0591621 0.312569 0.662466
0.0608729 0.314097 0.665492
0.0627772 0.316343 0.670709
0.0649917 0.319726 0.67939
-0.0458936 0.272166 0.651743
-0.0444052 0.272295 0.650321
-0.0429358 0.272534 0.649295
-0.0414361 0.272502 0.647314
-0.0399533 0.272556 0.645648
-0.038482 0.272665 0.64418
-0.0370197 0.272813 0.642853
-0.0355634 0.272978 0.641591
-0.0341187 0.273223 0.640613
-0.0326784 0.273482 0.639688
-0.0312473 0.273815 0.639025
-0.0298228 0.274211 0.638581
-0.0283899 0.274469 0.63766
-0.0269595 0.274718 0.636714
-0.0255343 0.275006 0.635908
-0.0241135 0.275328 0.635218
-0.0226929 0.275612 0.634404
-0.0212757 0.275915 0.633654
-0.0198627 0.276272 0.633094
-0.018453 0.276682 0.632715
-0.0170443 0.27709 0.63233
-0.0156377 0.277556 0.632145
-0.0142336 0.278178 0.632485
-0.0128281 0.278781 0.632763
-0.0114214 0.279422 0.633164
-0.010013 0.280118 0.633751
-0.00860171 0.28089 0.634589
-0.007188 0.281636 0.635337
-0.00577197 0.282359 0.636003
-0.00435506 0.283027 0.636482
-0.00293581 0.283714 0.637025
-0.00151829 0.284302 0.637234
-9.99751e-05 0.284887 0.637433
0.00131909 0.28547 0.637627
0.00273892 0.286055 0.637822
0.00416162 0.286672 0.638125
0.00558897 0.287345 0.638609
0.00701863 0.288025 0.639116
0.00845745 0.288804 0.639943
0.00990191 0.289618 0.640881
0.0113435 0.290361 0.641581
0.0127917 0.291151 0.642433
0.0142422 0.291932 0.643253
0.0156854 0.292615 0.643753
0.0171332 0.293324 0.644331
0.0185827 0.29403 0.644898
0.0200495 0.294868 0.64589
0.021522 0.295726 0.646941
0.0230099 0.296677 0.648286
0.0244919 0.297551 0.649377
0.0259863 0.298489 0.650669
0.0274544 0.29921 0.651264
0.0289237 0.299925 0.651839
0.0303827 0.30056 0.652155
0.0318469 0.30122 0.65255
0.0333031 0.301824 0.652766
0.0347658 0.302459 0.653079
0.036216 0.303012 0.65313
0.0376644 0.303558 0.653162
0.0390975 0.304016 0.652916
0.0405191 0.304416 0.652487
0.0419395 0.304811 0.652045
0.0433687 0.305264 0.651787
0.0448164 0.305809 0.651816
0.046296 0.306506 0.652315
0.047803 0.307328 0.653204
0.0493624 0.308381 0.654801
0.0509379 0.309485 0.656551
0.0525197 0.310592 0.658304
0.0541127 0.311722 0.66012
0.0556899 0.312762 0.66165
0.0572257 0.313604 0.66257
0.0589316 0.315141 0.665614
0.0608434 0.317468 0.67106
0.0629716 0.320587 0.678902
-0.0465125 0.2743 0.653982
-0.0450146 0.274399 0.652454
-0.0435317 0.274572 0.651196
-0.0420226 0.274504 0.649096
-0.0405288 0.274503 0.647244
-0.039045 0.274538 0.64552
-0.0375756 0.274654 0.644088
-0.0361152 0.274811 0.642803
-0.0346598 0.274978 0.641557
-0.0332122 0.275185 0.640454
-0.031776 0.275489 0.63969
-0.0303459 0.275838 0.639086
-0.0289088 0.276064 0.638062
-0.0274762 0.27631 0.637106
-0.0260491 0.276597 0.636296
-0.0246253 0.276896 0.635532
-0.023203 0.27718 0.63472
-0.0217851 0.277506 0.634051
-0.0203714 0.277888 0.633578
-0.0189609 0.278326 0.633292
-0.0175515 0.278782 0.633072
-0.0161434 0.279276 0.632977
-0.0147368 0.279857 0.633174
-0.013329 0.280412 0.633287
-0.0119209 0.281023 0.633583
-0.0105116 0.281672 0.634008
-0.00909985 0.282419 0.634754
-0.00768513 0.283191 0.635581
-0.00626853 0.283914 0.636242
-0.00485069 0.284582 0.636719
-0.00342924 0.28532 0.637426
-0.00200931 0.285938 0.637732
-0.000588206 0.28656 0.638049
0.000834923 0.287198 0.638418
0.00225969 0.28784 0.638798
0.00368612 0.288487 0.639195
0.00511763 0.289193 0.63978
0.00654967 0.289876 0.640289
0.00798878 0.29063 0.641025
0.00943049 0.291386 0.641767
0.0108692 0.292075 0.642288
0.0123139 0.292811 0.642955
0.0137631 0.293569 0.643693
0.0152076 0.294253 0.644189
0.0166538 0.294937 0.644686
0.0181069 0.295669 0.645332
0.0195751 0.296514 0.646337
0.021052 0.297403 0.647479
0.0225416 0.298365 0.648848
0.0240281 0.299268 0.650023
0.0255164 0.300154 0.651141
0.0269884 0.300898 0.651804
0.0284558 0.301591 0.652304
0.0299203 0.302255 0.652708
0.0313865 0.302918 0.653108
0.0328486 0.303551 0.653412
0.0343083 0.304158 0.65363
0.0357588 0.304708 0.653673
0.0372048 0.305228 0.653619
0.0386398 0.305687 0.653375
0.0400685 0.306115 0.653033
0.0414956 0.30654 0.652687
0.0429275 0.306995 0.652432
0.0443817 0.307566 0.652539
0.0458617 0.30826 0.653025
0.0473705 0.309083 0.653906
0.0489376 0.310172 0.655606
0.0505212 0.311311 0.657451
0.0521061 0.31243 0.659227
0.0537139 0.313625 0.661229
0.0552991 0.314695 0.662841
0.0569827 0.316164 0.665666
0.058876 0.318468 0.671022
0.0609979 0.32164 0.678998
-0.0471192 0.276338 0.655847
-0.0456174 0.276441 0.654339
-0.0441273 0.276594 0.653013
-0.0426116 0.27651 0.650869
-0.0411083 0.27647 0.648884
-0.039613 0.276441 0.646946
-0.0381369 0.27653 0.645423
-0.0366725 0.276685 0.644134
-0.0352107 0.276822 0.642789
-0.0337549 0.276977 0.641511
-0.032311 0.277223 0.64055
-0.030874 0.277518 0.639759
-0.0294292 0.277671 0.638489
-0.0279943 0.27791 0.637516
-0.0265668 0.27822 0.636786
-0.0251422 0.278542 0.636102
-0.023718 0.278829 0.635299
-0.0223002 0.279203 0.634796
-0.0208846 0.279595 0.634356
-0.0194713 0.280018 0.634021
-0.0180602 0.280485 0.633834
-0.0166506 0.281002 0.633815
-0.0152411 0.281534 0.633846
-0.0138312 0.282059 0.633853
-0.0124215 0.282638 0.634041
-0.0110109 0.283255 0.634351
-0.00959844 0.283979 0.635017
-0.00818285 0.284778 0.635927
-0.00676562 0.285478 0.636508
-0.00534528 0.286222 0.63723
-0.00392117 0.287017 0.638116
-0.00249673 0.287726 0.638716
-0.00106998 0.288437 0.639321
0.000360399 0.289183 0.640036
0.00178983 0.289858 0.640518
0.00321977 0.29051 0.640922
0.00465325 0.291195 0.641431
0.00608633 0.291848 0.641836
0.00752437 0.292549 0.642393
0.00896248 0.293224 0.642863
0.0103987 0.293855 0.643191
0.0118403 0.294534 0.64367
0.0132883 0.295265 0.644315
0.0147315 0.295924 0.644724
0.0161794 0.296613 0.64523
0.0176341 0.297348 0.645882
0.0191067 0.298227 0.646987
0.0205825 0.299099 0.648066
0.0220728 0.300062 0.649427
0.0235628 0.300987 0.650666
0.0250519 0.301873 0.651774
0.0265257 0.30262 0.652441
0.0279978 0.303339 0.653015
0.0294685 0.304036 0.653518
0.0309368 0.304705 0.653932
0.0324024 0.305345 0.654252
0.0338591 0.305922 0.654376
0.0353061 0.306442 0.654322
0.0367489 0.306931 0.654167
0.0381759 0.307338 0.653762
0.0396059 0.307764 0.653416
0.0410344 0.308188 0.653065
0.0424688 0.308646 0.652819
0.0439258 0.309222 0.652938
0.0454072 0.309919 0.653428
0.0469208 0.310769 0.654388
0.0484947 0.31189 0.656174
0.0500808 0.313039 0.658036
0.0516739 0.314197 0.659919
0.0532939 0.315449 0.662084
0.0548893 0.316559 0.663804
0.0567304 0.318707 0.668672
0.0588144 0.321818 0.676438
-0.047806 0.278913 0.659556
-0.0462634 0.27878 0.657229
-0.0447393 0.278726 0.655187
-0.0432139 0.278609 0.652931
-0.0417001 0.278524 0.650798
-0.0401957 0.278459 0.648742
-0.0387095 0.278496 0.647047
-0.0372363 0.278605 0.645604
-0.0357659 0.278695 0.6441
-0.0343008 0.278788 0.642613
-0.0328488 0.278976 0.641456
-0.0314046 0.279214 0.640476
-0.0299551 0.279339 0.639114
-0.0285195 0.279601 0.638221
-0.0270897 0.279912 0.637498
-0.025663 0.280237 0.636824
-0.0242378 0.280548 0.636104
-0.0228198 0.280969 0.63576
-0.0214037 0.281416 0.6355
-0.0199881 0.281851 0.635206
-0.0185756 0.282368 0.635182
-0.0171634 0.282908 0.635236
-0.0157504 0.283412 0.635168
-0.014337 0.283881 0.634987
-0.0129244 0.284425 0.635053
-0.0115114 0.284988 0.635182
-0.0100974 0.28569 0.635766
-0.00868022 0.286496 0.636692
-0.0072617 0.28718 0.637213
-0.00583887 0.287977 0.638104
-0.00441224 0.288808 0.639099
-0.00298303 0.289608 0.639991
-0.00155131 0.290387 0.640809
-0.000114633 0.291223 0.641808
0.00132042 0.291949 0.642446
0.00275533 0.292627 0.642928
0.00419087 0.293285 0.643342
0.00562597 0.293912 0.643655
0.00706507 0.294582 0.644105
0.00849866 0.29515 0.644226
0.0099307 0.295695 0.64427
0.0113695 0.296314 0.644554
0.0128167 0.297018 0.645105
0.01426 0.297659 0.645453
0.0157121 0.298375 0.64604
0.0171715 0.299142 0.646784
0.0186427 0.299995 0.647799
0.0201172 0.300846 0.648803
0.0216047 0.301779 0.65006
0.023096 0.302707 0.651299
0.0245859 0.303594 0.6524
0.0260652 0.304373 0.653162
0.0275395 0.305099 0.653753
0.0290204 0.305856 0.654437
0.0304879 0.306504 0.654779
0.0319506 0.307119 0.655019
0.033404 0.307665 0.655043
0.0348481 0.308152 0.654882
0.0362772 0.308555 0.654462
0.0377052 0.308954 0.654031
0.0391358 0.309377 0.653677
0.0405666 0.309805 0.653338
0.0420082 0.310294 0.653187
0.0434725 0.310902 0.653401
0.0449556 0.311604 0.653902
0.046465 0.312431 0.654783
0.0480403 0.313557 0.656573
0.049626 0.31471 0.658437
0.0512146 0.315849 0.660252
0.0528358 0.317108 0.66242
0.0545714 0.318845 0.66603
0.0565766 0.321712 0.673037
-0.0484597 0.281243 0.662365
-0.046898 0.28102 0.659737
-0.0453503 0.280836 0.657248
-0.0438159 0.280689 0.654901
-0.0422929 0.280571 0.652661
-0.0407796 0.280471 0.650494
-0.0392862 0.280484 0.648721
-0.0378035 0.280544 0.647114
-0.0363261 0.280603 0.645509
-0.0348512 0.280632 0.643812
-0.0333906 0.28076 0.642455
-0.0319391 0.280945 0.641294
-0.0304866 0.281067 0.639929
-0.0290485 0.281331 0.639044
-0.0276193 0.281689 0.638479
-0.0261903 0.282022 0.637833
-0.0247635 0.282358 0.6372
-0.0233453 0.282831 0.637027
-0.0219282 0.283324 0.636918
-0.0205093 0.283759 0.63662
-0.0190952 0.284325 0.636757
-0.0176797 0.284864 0.636799
-0.0162628 0.285343 0.636648
-0.0148452 0.28576 0.636291
-0.0134296 0.286275 0.636258
-0.0120139 0.286813 0.636298
-0.0105975 0.287492 0.636804
-0.00917864 0.288282 0.637668
-0.00775802 0.288967 0.638185
-0.00633299 0.289797 0.639172
-0.00490479 0.290607 0.640091
-0.00347197 0.291471 0.641183
-0.00203705 0.292285 0.642106
-0.000596671 0.293158 0.643218
0.000842346 0.293913 0.64394
0.00228147 0.294617 0.644501
0.00371831 0.295247 0.644816
0.00515628 0.295874 0.645123
0.00659652 0.296517 0.645479
0.00802886 0.29703 0.64542
0.00946116 0.297541 0.645354
0.0108997 0.29813 0.645536
0.0123466 0.298808 0.645999
0.013792 0.299452 0.646352
0.0152491 0.300201 0.647037
0.0167131 0.300997 0.647866
0.0181861 0.301851 0.648874
0.0196587 0.30267 0.649768
0.0211474 0.303602 0.651012
0.0226369 0.304506 0.652164
0.0241226 0.305349 0.653122
0.0256044 0.306139 0.65391
0.0270811 0.306871 0.654514
0.0285638 0.307631 0.655202
0.0300282 0.308252 0.655456
0.0314928 0.308862 0.655676
0.0329391 0.309353 0.655526
0.0343789 0.309804 0.655255
0.0357996 0.310144 0.654641
0.0372224 0.310507 0.654099
0.0386495 0.310901 0.653655
0.0400807 0.311327 0.653311
0.0415189 0.311795 0.653097
0.0429828 0.312404 0.653312
0.0444614 0.31308 0.653731
0.0459661 0.313881 0.654526
0.0475345 0.314981 0.656228
0.0491186 0.316134 0.658082
0.0506999 0.317245 0.6598
0.0523134 0.318481 0.661888
0.0542014 0.320921 0.667593
0.0563749 0.324547 0.676839
-0.0506509 0.283522 0.666827
-0.0490869 0.283378 0.664467
-0.0475175 0.28314 0.661794
-0.0459552 0.282887 0.659082
-0.044416 0.28274 0.656744
-0.042885 0.282597 0.654427
-0.0413667 0.282495 0.652257
-0.0398707 0.282526 0.650552
-0.0383802 0.282555 0.648844
-0.0368924 0.282555 0.647046
-0.0354098 0.282546 0.645225
-0.0339378 0.282591 0.64359
-0.0324769 0.2827 0.642181
-0.0310213 0.282821 0.640817
-0.0295822 0.283108 0.640012
-0.0281524 0.283498 0.639554
-0.0267238 0.283884 0.639082
-0.0252954 0.284248 0.638543
-0.0238754 0.284747 0.638451
-0.0224551 0.285241 0.638344
-0.0210327 0.285674 0.638037
-0.0196156 0.28624 0.638168
-0.0181964 0.286753 0.638122
-0.0167748 0.287163 0.637738
-0.0153541 0.287554 0.637296
-0.0139354 0.288022 0.637106
-0.0125174 0.288508 0.636977
-0.0110995 0.289189 0.637479
-0.00967925 0.289979 0.638338
-0.00825705 0.290667 0.638858
-0.00683033 0.291521 0.639915
-0.00540093 0.292328 0.640819
-0.00396628 0.293216 0.641976
-0.00252905 0.294057 0.642977
-0.00108686 0.294938 0.644106
0.000353962 0.295695 0.644831
0.00179739 0.296454 0.645557
0.00323694 0.297091 0.645893
0.00467906 0.297749 0.646295
0.00612031 0.298372 0.646582
0.00755326 0.298857 0.646428
0.00898371 0.299311 0.646178
0.0104217 0.299868 0.646256
0.0118662 0.300499 0.646565
0.0133158 0.301174 0.647012
0.0147747 0.301931 0.647714
0.0162402 0.302728 0.64854
0.0177116 0.303558 0.649463
0.0191875 0.304398 0.650418
0.0206742 0.305305 0.651575
0.0221678 0.306238 0.652809
0.023659 0.307119 0.653875
0.0251464 0.307941 0.654755
0.026625 0.308676 0.655364
0.0281083 0.309432 0.656032
0.0295663 0.309993 0.6561
0.0310236 0.310545 0.656134
0.0324577 0.310944 0.655701
0.0338846 0.311306 0.655157
0.0352959 0.311584 0.654355
0.0367138 0.311914 0.653717
0.0381414 0.312306 0.653269
0.0395737 0.312737 0.65294
0.0410118 0.313201 0.652713
0.0424746 0.313805 0.652914
0.0439513 0.314475 0.653312
0.045445 0.31522 0.653932
0.0469991 0.316259 0.65544
0.0485747 0.31738 0.657188
0.0501407 0.31843 0.658715
0.0517332 0.319579 0.660533
0.053765 0.32271 0.668278
-0.0521976 0.283508 0.66865
-0.0537855 0.283704 0.67121
-0.0546327 0.28705 0.677419
-0.0529786 0.286521 0.673722
-0.0513294 0.285942 0.669866
-0.0497079 0.28546 0.666356
-0.0480878 0.284903 0.662607
-0.0465309 0.284713 0.660122
-0.044995 0.284618 0.657971
-0.0434693 0.284548 0.655909
-0.0419522 0.284491 0.653903
-0.040454 0.28454 0.652263
-0.0389563 0.284544 0.650475
-0.0374657 0.284559 0.648732
-0.0359754 0.284517 0.646807
-0.0344942 0.284506 0.64499
-0.0330244 0.284557 0.643391
-0.031563 0.284649 0.641934
-0.0301175 0.28489 0.640976
-0.0286837 0.285258 0.640446
-0.027254 0.285667 0.640051
-0.0258246 0.286061 0.639609
-0.024402 0.286562 0.639523
-0.0229795 0.287062 0.639431
-0.0215544 0.287495 0.63912
-0.0201329 0.288009 0.639079
-0.01871 0.288473 0.63887
-0.0172856 0.288853 0.638391
-0.0158627 0.289243 0.637941
-0.0144418 0.289687 0.637672
-0.0130219 0.290172 0.637538
-0.0116027 0.290852 0.638033
-0.0101814 0.291614 0.638794
-0.00875833 0.292274 0.639219
-0.00733097 0.293125 0.64026
-0.00590121 0.29391 0.641084
-0.00446559 0.294816 0.642291
-0.00302629 0.295705 0.64344
-0.00158256 0.296611 0.644639
-0.000139055 0.297405 0.645474
0.00130823 0.298222 0.646381
0.00275141 0.298894 0.646823
0.00419761 0.29959 0.647336
0.00564151 0.30022 0.647642
0.00707701 0.300705 0.647487
0.00850976 0.301154 0.647221
0.00994822 0.301689 0.647223
0.0113929 0.302295 0.64745
0.0128445 0.302973 0.647899
0.0143075 0.303756 0.648676
0.0157727 0.304534 0.649436
0.0172462 0.305369 0.650369
0.0187214 0.306189 0.65125
0.0202065 0.307072 0.652325
0.0216984 0.307982 0.653477
0.0231941 0.308891 0.654624
0.0246794 0.309689 0.655421
0.0261556 0.310395 0.655935
0.0276324 0.311092 0.656417
0.0290821 0.311586 0.656274
0.0305267 0.312048 0.656034
0.0319516 0.312383 0.655407
0.0333749 0.312713 0.654763
0.0347854 0.312981 0.653937
0.0361954 0.31326 0.653147
0.0376182 0.313624 0.652616
0.0390459 0.314025 0.6522
0.0404764 0.314455 0.651872
0.041929 0.315 0.651892
0.0433976 0.315633 0.652176
0.044881 0.316341 0.652686
0.0464093 0.317262 0.653832
0.0479679 0.318316 0.655372
0.0495164 0.319297 0.656686
0.0510853 0.320354 0.658224
-0.0520854 0.288842 0.674496
-0.0504119 0.288082 0.670052
-0.0487365 0.287202 0.665222
-0.0471346 0.286734 0.661804
-0.045564 0.286411 0.65889
-0.0440392 0.286373 0.656947
-0.0425243 0.286362 0.655103
-0.0410225 0.286411 0.653466
-0.0395183 0.286389 0.6516
-0.0380243 0.286405 0.649867
-0.0365353 0.286412 0.648111
-0.0350519 0.286418 0.646361
-0.0335759 0.286442 0.644675
-0.0321137 0.286568 0.643335
-0.030662 0.286776 0.642271
-0.0292215 0.287095 0.641575
-0.0277842 0.287429 0.640935
-0.0263533 0.287839 0.640544
-0.0249259 0.288295 0.640306
-0.0235003 0.288774 0.640144
-0.0220721 0.289185 0.639762
-0.0206478 0.28967 0.639621
-0.019222 0.2901 0.639304
-0.0177949 0.290446 0.63871
-0.0163704 0.290831 0.63825
-0.0149478 0.291248 0.637892
-0.0135268 0.291735 0.63776
-0.0121067 0.292387 0.638161
-0.0106849 0.293095 0.638741
-0.00926144 0.293754 0.639162
-0.00783429 0.294583 0.640125
-0.00640486 0.295347 0.640875
-0.00497026 0.296228 0.641998
-0.00353132 0.297119 0.643144
-0.00208881 0.298003 0.644267
-0.000643634 0.298855 0.645282
0.000807384 0.29976 0.646459
0.00225556 0.300523 0.647183
0.00370746 0.301309 0.647979
0.00515643 0.301997 0.648461
0.00659595 0.302509 0.648391
0.0080309 0.302956 0.648116
0.00947145 0.303491 0.648115
0.010916 0.304071 0.648256
0.0123671 0.304721 0.648613
0.0138312 0.305501 0.649377
0.0153003 0.306309 0.650221
0.0167735 0.307128 0.651095
0.0182506 0.307955 0.651992
0.0197369 0.308839 0.653059
0.0212267 0.309722 0.654121
0.0227167 0.310576 0.655091
0.0241965 0.311322 0.655721
0.0256656 0.311968 0.656046
0.0271337 0.312598 0.656319
0.0285717 0.313003 0.655904
0.0300036 0.313371 0.65538
0.0314236 0.31367 0.654647
0.032841 0.313967 0.65391
0.0342483 0.314209 0.653009
0.0356622 0.314513 0.652298
0.0370849 0.314878 0.651773
0.0385109 0.315274 0.651342
0.0399411 0.315701 0.651008
0.0413855 0.31621 0.65092
0.0428431 0.316787 0.651036
0.0443189 0.31746 0.651441
0.045827 0.318289 0.652305
0.0473684 0.319273 0.65363
0.0489 0.320187 0.654742
0.0504452 0.321149 0.655991
-0.0511442 0.290872 0.674265
-0.0494133 0.289679 0.668399
-0.0477705 0.288972 0.664189
-0.0461651 0.288437 0.660574
-0.0446099 0.288196 0.657957
-0.0430948 0.288209 0.656202
-0.0415893 0.288256 0.654566
-0.0400785 0.288204 0.652608
-0.0385815 0.288224 0.650894
-0.0370923 0.288262 0.649247
-0.0356087 0.288304 0.64762
-0.0341307 0.288346 0.646002
-0.0326663 0.28849 0.644724
-0.0312084 0.288664 0.643551
-0.0297603 0.288921 0.642653
-0.0283143 0.289168 0.641727
-0.0268774 0.289519 0.641142
-0.0254452 0.289918 0.640719
-0.0240155 0.290347 0.640393
-0.0225848 0.290732 0.639925
-0.021158 0.291184 0.639677
-0.0197295 0.291557 0.639173
-0.0182991 0.291816 0.638305
-0.0168732 0.292149 0.637677
-0.0154497 0.292513 0.63715
-0.0140284 0.292948 0.636856
-0.0126091 0.293547 0.637084
-0.0111887 0.294226 0.637569
-0.00976663 0.294883 0.63798
-0.00834128 0.295715 0.638948
-0.00691307 0.296513 0.639805
-0.00547993 0.297402 0.640945
-0.00404146 0.298346 0.642257
-0.00259855 0.29929 0.643563
-0.00115116 0.300231 0.644852
0.000302976 0.301229 0.646316
0.00175769 0.302133 0.647478
0.00321479 0.303006 0.64854
0.00466716 0.30373 0.649131
0.0061119 0.304298 0.649233
0.00755098 0.304774 0.649044
0.00899405 0.305309 0.649041
0.0104365 0.305836 0.649014
0.0118885 0.306477 0.649342
0.0133536 0.307254 0.650087
0.0148271 0.308095 0.651025
0.0163028 0.308925 0.651928
0.0177872 0.309811 0.652998
0.0192746 0.31069 0.654043
0.020756 0.311485 0.654825
0.0222368 0.312252 0.655519
0.0237067 0.312909 0.655875
0.0251655 0.313467 0.655926
0.0266187 0.31398 0.655841
0.0280473 0.314314 0.655213
0.0294664 0.31459 0.654412
0.0308784 0.314834 0.653518
0.0322899 0.315099 0.65269
0.0337018 0.315372 0.651887
0.0351155 0.315678 0.651186
0.0365414 0.31607 0.650746
0.0379713 0.316489 0.650389
0.0394008 0.316915 0.650053
0.0408407 0.317399 0.649892
0.0422908 0.317946 0.649919
0.0437539 0.318558 0.650139
0.0452418 0.319294 0.650727
0.0467627 0.320187 0.651776
0.0482768 0.321033 0.652683
0.0497945 0.321876 0.653577
