ply
format ascii 1.0
element vertex 1705
property float x
property float y
property float z
end_header
0.0492384 0.130241 0.787734
0.0507262 0.130636 0.788472
0.0522119 0.131023 0.789138
0.0536873 0.131393 0.789614
0.055167 0.131767 0.790131
0.0566251 0.132106 0.790307
0.0580782 0.132438 0.790405
0.0595131 0.132743 0.790244
0.0609389 0.133037 0.789964
0.0623428 0.1333 0.789406
0.0637258 0.133539 0.788598
0.0651 0.133768 0.787713
0.0664842 0.134014 0.78699
0.067875 0.13427 0.786378
0.0693148 0.134591 0.786378
0.0708166 0.134989 0.787112
0.0724668 0.135564 0.789533
0.0741682 0.136194 0.792454
0.0759208 0.136876 0.79584
0.0776402 0.137507 0.798731
0.0792926 0.138053 0.800804
0.0808241 0.138456 0.801529
0.0823639 0.138867 0.802312
0.0839034 0.139274 0.803069
0.0854621 0.1397 0.80399
0.087092 0.140201 0.805591
0.0887004 0.140673 0.806925
0.0903674 0.141204 0.808783
0.0920181 0.141714 0.810439
0.093707 0.142258 0.812386
0.0953624 0.142762 0.813973
0.0970541 0.1433 0.815841
0.0986542 0.143742 0.816838
0.100243 0.144171 0.817711
0.101789 0.144555 0.818189
0.103665 0.145255 0.821465
0.105762 0.146155 0.826503
0.11087 0.148766 0.843631
0.113274 0.149908 0.850664
0.115424 0.150801 0.855478
0.117205 0.151351 0.857265
0.118762 0.1517 0.85729
0.120333 0.152059 0.857404
0.121874 0.152392 0.857292
0.124401 0.153579 0.86455
-0.0147143 0.118566 0.799572
-0.0132568 0.118937 0.800104
-0.0118002 0.119334 0.800935
-0.0103424 0.119748 0.801951
-0.0088814 0.120165 0.803001
-0.00741659 0.120574 0.803948
-0.00593004 0.120384 0.798019
-0.00414697 0.118742 0.792129
-0.00446222 0.120113 0.791217
-0.00270422 0.118361 0.783971
-0.00301718 0.11976 0.783539
-0.00159712 0.119412 0.775982
-0.000199211 0.119123 0.769144
0.00121198 0.119404 0.768777
0.00262215 0.119688 0.768439
0.00402984 0.11996 0.767967
0.00543667 0.120237 0.767561
0.00684086 0.120505 0.767053
0.00824117 0.120757 0.766375
0.00964166 0.121024 0.765863
0.0110406 0.121291 0.765359
0.012444 0.121587 0.765179
0.0138438 0.121869 0.764848
0.0152436 0.122158 0.764586
0.0166407 0.122438 0.764233
0.0180469 0.122755 0.764289
0.0194567 0.123085 0.764475
0.0208729 0.123435 0.76487
0.022302 0.123821 0.765644
0.0237312 0.124201 0.766343
0.0251575 0.124565 0.766884
0.0265819 0.124921 0.767325
0.028013 0.125291 0.767912
0.0294407 0.125647 0.768357
0.0308705 0.126006 0.768823
0.0323111 0.126388 0.769512
0.0337543 0.126769 0.770203
0.0352259 0.127209 0.771482
0.0366934 0.127631 0.772576
0.0382206 0.12817 0.774842
0.0397699 0.128739 0.777399
0.0413406 0.129336 0.780208
0.0428851 0.129868 0.782352
0.0444394 0.130407 0.784547
0.0459417 0.130841 0.785693
0.0474228 0.131234 0.78641
0.0489076 0.131629 0.78715
0.0504005 0.132035 0.787984
0.0518914 0.132433 0.788742
0.0533719 0.132811 0.789301
0.0548464 0.133178 0.78974
0.0562987 0.13351 0.789835
0.0577453 0.133832 0.789843
0.0591675 0.134119 0.78951
0.0605803 0.134394 0.789059
0.0619824 0.134655 0.788488
0.0633704 0.1349 0.787756
0.0647375 0.135119 0.786786
0.0661143 0.135354 0.785979
0.0674876 0.135588 0.785162
0.0688946 0.135868 0.784786
0.0703426 0.136201 0.784911
0.0720307 0.136832 0.78782
0.0737862 0.137537 0.791391
0.0756039 0.138305 0.795532
0.077377 0.139005 0.799022
0.0790973 0.139635 0.801827
0.0806021 0.140008 0.802255
0.082116 0.140388 0.80275
0.0836294 0.140766 0.803228
0.0851777 0.141182 0.804039
0.0867878 0.141664 0.805446
0.0883873 0.142129 0.806692
0.0900365 0.142644 0.808386
0.0916867 0.143157 0.810033
0.0933732 0.143702 0.811974
0.0950271 0.144209 0.813552
0.0967197 0.144751 0.815431
0.0983271 0.145203 0.816508
0.0999172 0.145634 0.817392
0.101464 0.14602 0.817873
0.103162 0.146553 0.819641
0.108283 0.14744 0.834912
0.106205 0.148375 0.83267
-0.0149904 0.119717 0.795969
-0.0135424 0.120119 0.796855
-0.0120975 0.120576 0.798365
-0.0106469 0.121024 0.799768
-0.00919145 0.12147 0.801132
-0.00773128 0.121914 0.802467
-0.00624585 0.121755 0.797006
-0.00477717 0.121507 0.790592
-0.0033298 0.121169 0.783222
-0.00190681 0.120834 0.775939
-0.000505249 0.120548 0.769265
0.000905712 0.120814 0.768731
0.0023151 0.121081 0.768212
0.00372225 0.121343 0.767641
0.00512933 0.121619 0.767234
0.0065339 0.121889 0.766749
0.00793688 0.122155 0.76625
0.00934147 0.122445 0.765983
0.0107428 0.122719 0.76557
0.0121489 0.123023 0.765481
0.0135513 0.123313 0.765233
0.0149561 0.123617 0.765135
0.0163551 0.123899 0.764804
0.0177647 0.124225 0.764947
0.0191783 0.124564 0.765217
0.0205981 0.124922 0.765685
0.0220271 0.125303 0.766399
0.0234575 0.125684 0.767091
0.0248842 0.126047 0.767604
0.0263044 0.126388 0.767879
0.0277339 0.126751 0.768385
0.0291658 0.127117 0.768914
0.0306001 0.127484 0.769458
0.0320587 0.127908 0.770553
0.0335259 0.128342 0.771757
0.0350171 0.128821 0.773413
0.0364972 0.129268 0.774716
0.038024 0.129804 0.776904
0.0395478 0.13032 0.778885
0.0410848 0.13085 0.780993
0.042597 0.131323 0.78251
0.0441218 0.13181 0.784162
0.0456129 0.132227 0.785117
0.0470932 0.13262 0.785832
0.0485823 0.133026 0.786656
0.0500801 0.133442 0.787579
0.0515758 0.133849 0.788418
0.0530568 0.13423 0.788991
0.0545313 0.134597 0.789433
0.0559837 0.13493 0.789531
0.0574304 0.135253 0.789539
0.0588528 0.135539 0.789206
0.0602655 0.135813 0.788754
0.0616682 0.136073 0.788186
0.063051 0.13631 0.787383
0.0644056 0.13651 0.786252
0.0657605 0.136714 0.785168
0.0671031 0.136906 0.783977
0.0684712 0.137136 0.783145
0.069876 0.137416 0.782783
0.0716007 0.138102 0.786165
0.0734107 0.138885 0.790404
0.0752939 0.139742 0.795301
0.07712 0.140515 0.799394
0.0789086 0.14123 0.802939
0.0803896 0.141572 0.803076
0.08187 0.141913 0.803207
0.0833505 0.142254 0.803335
0.0848854 0.142657 0.804016
0.086462 0.143103 0.805076
0.0880408 0.143548 0.806131
0.0896786 0.144054 0.807721
0.0913248 0.144567 0.809347
0.0930003 0.145105 0.811196
0.0946615 0.145622 0.812851
0.0963534 0.146168 0.814737
0.0979714 0.146633 0.815907
0.0995712 0.147077 0.816889
0.101129 0.147475 0.817473
0.102665 0.147851 0.817852
-0.0167064 0.120475 0.791692
-0.0152683 0.120887 0.792703
-0.0138288 0.121314 0.793868
-0.012392 0.1218 0.795697
-0.0109482 0.122276 0.797397
-0.00949806 0.122742 0.79897
-0.0080377 0.123122 0.799565
-0.00655665 0.123002 0.794646
-0.00508977 0.122776 0.788589
-0.00364261 0.122464 0.781649
-0.00221835 0.12215 0.774736
-0.000812135 0.121964 0.769269
0.000598814 0.122214 0.768573
0.00200751 0.122463 0.767876
0.00341321 0.122707 0.767117
0.0048198 0.12298 0.766681
0.00622398 0.123247 0.76618
0.00762757 0.123521 0.765761
0.00903453 0.123823 0.765655
0.0104389 0.124115 0.765421
0.0118469 0.12443 0.765439
0.0132534 0.124737 0.765373
0.0146628 0.125058 0.765457
0.016065 0.125348 0.765216
0.0174781 0.125684 0.76545
0.0188949 0.126031 0.765802
0.0203164 0.126391 0.766279
0.0217444 0.126766 0.766917
0.023173 0.127139 0.767515
0.0246006 0.127503 0.768024
0.0260242 0.127851 0.768369
0.0274579 0.128223 0.768958
0.0289031 0.128623 0.769809
0.0303526 0.129026 0.770693
0.0318291 0.129489 0.772167
0.0333089 0.129949 0.773605
0.0348086 0.130446 0.775391
0.0362972 0.130906 0.776803
0.0378188 0.131428 0.778814
0.0393234 0.131903 0.780345
0.040837 0.132387 0.781958
0.0423298 0.13282 0.783068
0.043823 0.133248 0.784119
0.0452992 0.13364 0.784808
0.0467787 0.134034 0.785515
0.0482677 0.13444 0.786343
0.0497665 0.134859 0.787286
0.0512671 0.135278 0.788211
0.0527475 0.135659 0.788772
0.0542165 0.136018 0.789131
0.055669 0.136349 0.789226
0.0571156 0.136672 0.789235
0.0585383 0.136959 0.788907
0.0599516 0.137233 0.78846
0.061355 0.137494 0.7879
0.0627385 0.137728 0.787101
0.0640873 0.137917 0.785885
0.0654283 0.138101 0.784626
0.0667544 0.138268 0.783231
0.0680905 0.138455 0.782015
0.0694494 0.138675 0.781117
0.071203 0.139408 0.784874
0.0730523 0.14025 0.789596
0.0749754 0.14117 0.794981
0.0768519 0.142014 0.799649
0.078701 0.142807 0.803841
0.0801656 0.143128 0.80379
0.0816317 0.143452 0.803754
0.0830872 0.143762 0.803608
0.0846039 0.144143 0.804092
0.0861576 0.144566 0.804934
0.0877177 0.144992 0.805801
0.0893362 0.145481 0.807211
0.0909711 0.145983 0.808733
0.0926334 0.146512 0.810464
0.0942938 0.147032 0.812125
0.0959855 0.147583 0.814025
0.0976149 0.148062 0.815306
0.0992347 0.148529 0.816471
0.100813 0.148949 0.817235
0.102359 0.149337 0.817709
-0.0169868 0.121692 0.789067
-0.0155482 0.122073 0.789729
-0.014112 0.12249 0.790771
-0.0126784 0.12296 0.792402
-0.0112381 0.123416 0.793849
-0.00978854 0.123816 0.794694
-0.00833081 0.124126 0.794532
-0.00685782 0.124048 0.790175
-0.00539715 0.123876 0.784825
-0.00395366 0.123645 0.778904
-0.00252909 0.123453 0.773433
-0.00111892 0.123387 0.769344
0.000292559 0.123627 0.76856
0.00170124 0.123868 0.767775
0.00310683 0.124101 0.766909
0.00451191 0.124355 0.766286
0.00591409 0.124603 0.765598
0.00731713 0.124876 0.765169
0.00872504 0.125187 0.765158
0.0101321 0.125496 0.765108
0.0115434 0.125828 0.765309
0.0129551 0.126159 0.765494
0.0143686 0.126498 0.765753
0.0157745 0.126798 0.765618
0.0171889 0.127136 0.765866
0.0186086 0.127491 0.766286
0.0200309 0.12785 0.766751
0.0214574 0.12822 0.767313
0.0228873 0.128594 0.767919
0.0243234 0.128982 0.768656
0.0257597 0.129365 0.769333
0.027211 0.129783 0.770363
0.0286787 0.13024 0.771753
0.0301496 0.130691 0.773097
0.031642 0.131189 0.774869
0.0331314 0.131665 0.776431
0.0346237 0.132137 0.77794
0.036107 0.132579 0.779143
0.0376104 0.133058 0.780693
0.0390912 0.133478 0.781674
0.0405759 0.133901 0.782668
0.0420581 0.134313 0.783551
0.0435325 0.134705 0.784239
0.0450002 0.13508 0.784764
0.0464803 0.135476 0.785477
0.0479704 0.135886 0.78632
0.049464 0.136297 0.787176
0.0509595 0.136708 0.788017
0.0524338 0.13708 0.788484
0.0538913 0.13742 0.788667
0.0553369 0.137742 0.788666
0.0567771 0.138056 0.788588
0.0581998 0.138342 0.788264
0.0596133 0.138615 0.787826
0.0610229 0.138886 0.787357
0.0624059 0.139118 0.786551
0.0637541 0.139304 0.785329
0.0650876 0.139475 0.783972
0.0664132 0.13964 0.782574
0.0677223 0.139787 0.781027
0.0690571 0.139975 0.779852
0.0708339 0.140749 0.783923
0.0727059 0.141631 0.788934
0.0746488 0.142587 0.794558
0.0765708 0.143498 0.799755
0.0784559 0.144345 0.804359
0.0799067 0.144647 0.804141
0.0813595 0.144952 0.803948
0.0828045 0.145249 0.803684
0.0843012 0.145608 0.803963
0.0858357 0.14601 0.804606
0.0873777 0.146417 0.805299
0.088984 0.146895 0.806599
0.0906074 0.147389 0.808025
0.092259 0.147909 0.809665
0.0939356 0.148451 0.811491
0.0956377 0.149016 0.813493
0.0972893 0.149522 0.81498
0.0989298 0.150013 0.816328
0.100529 0.150458 0.817287
0.103139 0.151932 0.8269
-0.0272998 0.120016 0.795716
-0.0287875 0.11978 0.796728
-0.029096 0.121185 0.796094
-0.0276081 0.121418 0.795071
-0.0261209 0.121642 0.793938
-0.0187228 0.122649 0.787205
-0.0172838 0.123007 0.787606
-0.0158414 0.123351 0.787853
-0.0144041 0.123739 0.788563
-0.0129694 0.124168 0.789732
-0.011529 0.12458 0.79069
-0.0100796 0.124919 0.790865
-0.00862275 0.125148 0.789865
-0.00715727 0.125106 0.785981
-0.00570266 0.124986 0.781296
-0.00426337 0.124856 0.776547
-0.00283937 0.12477 0.772298
-0.001426 0.124815 0.769451
-1.39689e-05 0.125047 0.76859
0.00139524 0.125278 0.767723
0.00280092 0.1255 0.766765
0.00420483 0.125738 0.765976
0.00560552 0.125969 0.765122
0.00700941 0.126247 0.764763
0.00841717 0.12656 0.764762
0.00982561 0.126878 0.764813
0.0112399 0.127228 0.765186
0.0126547 0.127575 0.765534
0.0140692 0.127916 0.765805
0.0154774 0.128224 0.765755
0.0168942 0.12857 0.766077
0.0183147 0.128926 0.766499
0.0197377 0.129286 0.766961
0.0211646 0.129656 0.767515
0.0225997 0.130047 0.768272
0.0240475 0.130471 0.769354
0.0255013 0.130904 0.770504
0.026975 0.131384 0.772113
0.028467 0.131902 0.774074
0.0299559 0.132396 0.775792
0.0314545 0.132901 0.777607
0.0329472 0.133379 0.779141
0.0344268 0.133813 0.780257
0.0358993 0.134224 0.781138
0.0373809 0.134649 0.782149
0.0388389 0.135018 0.78261
0.0402988 0.135387 0.783079
0.0417721 0.13578 0.78377
0.043234 0.136147 0.784212
0.0446982 0.136516 0.784668
0.0461833 0.136922 0.785468
0.0476781 0.137342 0.78639
0.0491674 0.137747 0.787168
0.050652 0.13814 0.787828
0.0521192 0.138499 0.788181
0.053564 0.13882 0.788172
0.0549974 0.139122 0.787993
0.0564311 0.139425 0.787825
0.0578529 0.13971 0.787499
0.0592601 0.139974 0.786983
0.0606626 0.140233 0.786423
0.0620382 0.140454 0.785531
0.0633855 0.140638 0.784307
0.0647189 0.140808 0.78296
0.0660525 0.140982 0.781669
0.0673568 0.14112 0.780067
0.068685 0.141298 0.778824
0.0704781 0.142103 0.783112
0.0723629 0.143014 0.7883
0.0743126 0.14399 0.794035
0.0762633 0.144949 0.799575
0.0781836 0.14585 0.804574
0.0796301 0.146146 0.804298
0.0810831 0.14645 0.804101
0.08252 0.146736 0.803747
0.0840061 0.147082 0.803908
0.0855128 0.147453 0.804275
0.0870362 0.147839 0.804787
0.0886176 0.148291 0.805845
0.0902472 0.148796 0.807341
0.0918956 0.149317 0.808969
0.0935918 0.149884 0.810982
0.0953054 0.150467 0.813099
0.0969877 0.151008 0.81487
0.0986396 0.151513 0.816324
0.100251 0.151972 0.817378
-0.0308775 0.122304 0.795911
-0.029403 0.122585 0.795418
-0.0279169 0.122821 0.794451
-0.0264303 0.123044 0.793339
-0.0246187 0.121794 0.792013
-0.0249306 0.123204 0.791528
-0.0231308 0.121977 0.79046
-0.0234435 0.123389 0.790017
-0.0216461 0.122151 0.78881
-0.0219604 0.123568 0.788458
-0.0201788 0.12238 0.787785
-0.0204948 0.123805 0.787538
-0.0190341 0.124051 0.786719
-0.0175881 0.124366 0.786654
-0.016141 0.124672 0.786481
-0.0146988 0.125009 0.786649
-0.013259 0.125372 0.787087
-0.0118162 0.125719 0.787368
-0.0103655 0.125981 0.786734
-0.00890915 0.126124 0.78486
-0.00745246 0.126122 0.781482
-0.00600556 0.126077 0.777685
-0.00457139 0.126043 0.774017
-0.003149 0.126064 0.770956
-0.00173401 0.126211 0.769225
-0.000321541 0.126443 0.76837
0.00108807 0.126672 0.767499
0.00249376 0.126886 0.766474
0.00389798 0.127123 0.765688
0.00529903 0.127352 0.764837
0.00670405 0.127638 0.764557
0.00811204 0.127951 0.764562
0.00952191 0.128278 0.764698
0.0109363 0.128629 0.765077
0.0123543 0.128993 0.765581
0.0137707 0.129341 0.765921
0.0151814 0.129658 0.765952
0.016599 0.130005 0.766278
0.01802 0.130361 0.766696
0.0194412 0.130714 0.767073
0.0208687 0.131084 0.767622
0.0223141 0.131511 0.768712
0.0237774 0.131985 0.770254
0.0252547 0.132488 0.772065
0.0267517 0.133033 0.774266
0.0282616 0.133597 0.776625
0.0297592 0.134107 0.778461
0.0312562 0.134601 0.780131
0.0327372 0.135042 0.781281
0.0341988 0.135426 0.781897
0.035657 0.135799 0.782396
0.0371195 0.136177 0.782949
0.038567 0.136519 0.783155
0.0400197 0.136871 0.783452
0.0414898 0.137257 0.784067
0.0429486 0.137617 0.784437
0.044414 0.137989 0.784904
0.0458958 0.138387 0.78563
0.0473858 0.138799 0.78646
0.0488693 0.139195 0.787139
0.0503429 0.139568 0.787614
0.0517983 0.139908 0.787779
0.0532305 0.140207 0.787578
0.0546511 0.140487 0.78721
0.0560772 0.14078 0.786945
0.0574923 0.141054 0.786531
0.0588867 0.141298 0.785847
0.0602698 0.141528 0.78504
0.0616235 0.141717 0.783875
0.0629615 0.141887 0.782553
0.0643013 0.142065 0.781309
0.0656443 0.142253 0.78016
0.0669695 0.14242 0.778838
0.0683242 0.142633 0.777924
0.0701276 0.143463 0.782372
0.0720178 0.144393 0.787647
0.0739802 0.145398 0.793551
0.0759453 0.146388 0.799271
0.0778796 0.147317 0.804444
0.0793351 0.147623 0.804263
0.0807881 0.147928 0.804066
0.0822254 0.148213 0.803706
0.083694 0.148538 0.803689
0.085184 0.148888 0.803881
0.0866881 0.149253 0.804207
0.0882657 0.149704 0.805237
0.0898779 0.150191 0.806574
0.0915273 0.150716 0.808215
0.0932317 0.1513 0.810325
0.0949555 0.151897 0.812544
0.0966494 0.152455 0.814431
0.098332 0.152997 0.816157
0.099965 0.153479 0.817402
-0.0338276 0.121731 0.796777
-0.0356047 0.122834 0.796392
-0.0341265 0.123115 0.795912
-0.0323538 0.122023 0.796402
-0.0326535 0.123406 0.79554
-0.0311804 0.123693 0.795124
-0.0297059 0.123971 0.794614
-0.0282196 0.124204 0.79362
-0.0267325 0.124422 0.792472
-0.025237 0.124593 0.790826
-0.0237532 0.124789 0.789457
-0.0222711 0.12497 0.787948
-0.0208055 0.125205 0.787024
-0.0193417 0.125433 0.786033
-0.0178898 0.125711 0.785569
-0.0164376 0.125975 0.78497
-0.0149894 0.126254 0.784529
-0.0135452 0.126553 0.784303
-0.0120994 0.12683 0.78385
-0.0106477 0.127018 0.782482
-0.00919319 0.127095 0.779967
-0.00774573 0.127145 0.777203
-0.00630653 0.127171 0.774203
-0.00487794 0.127232 0.771594
-0.00345797 0.127355 0.769629
-0.00204215 0.127602 0.76894
-0.000629165 0.127839 0.768153
0.000780957 0.128068 0.767287
0.00218766 0.128288 0.766346
0.00359323 0.128533 0.765652
0.00499592 0.12877 0.764893
0.00640165 0.129056 0.764619
0.00781016 0.12937 0.764622
0.00922065 0.129696 0.764755
0.0106353 0.130047 0.765119
0.0120538 0.130413 0.765629
0.0134706 0.130761 0.765974
0.0148836 0.131087 0.766084
0.0163037 0.131442 0.766489
0.0177236 0.131792 0.766836
0.0191434 0.132137 0.767135
0.020584 0.132556 0.768139
0.0220461 0.133041 0.769761
0.023527 0.133571 0.771805
0.0250284 0.134147 0.774272
0.0265494 0.13476 0.777073
0.0280606 0.13532 0.779346
0.0295579 0.135821 0.78106
0.0310412 0.136271 0.782279
0.0325035 0.136656 0.782888
0.0339447 0.136984 0.782962
0.0353891 0.137318 0.783102
0.0368307 0.137646 0.78317
0.038275 0.137979 0.783294
0.0397282 0.138331 0.783587
0.0411988 0.138719 0.784205
0.0426549 0.139073 0.784509
0.0441209 0.139445 0.784976
0.045602 0.139844 0.785687
0.0470822 0.140237 0.786342
0.0485555 0.140614 0.786843
0.0500173 0.140968 0.787131
0.0514609 0.141287 0.787113
0.0528755 0.141556 0.786645
0.0542887 0.141825 0.786183
0.0557077 0.142105 0.785825
0.057099 0.142342 0.785086
0.0584726 0.142554 0.784131
0.0598265 0.142739 0.78295
0.0611509 0.142883 0.781423
0.0624723 0.14303 0.779923
0.0638285 0.143235 0.778938
0.0651978 0.143463 0.778157
0.0665582 0.143681 0.777301
0.0680253 0.144054 0.777773
0.0698626 0.144939 0.782628
0.0717694 0.145902 0.788111
0.0737379 0.146928 0.794098
0.0757117 0.147938 0.799924
0.0775669 0.148775 0.804227
0.0790234 0.149081 0.804053
0.0804782 0.149386 0.803868
0.0819155 0.149671 0.803509
0.0833768 0.149985 0.803403
0.0848644 0.150333 0.803575
0.0863743 0.150707 0.803964
0.0879425 0.151148 0.804905
0.0895526 0.151637 0.806227
0.0912014 0.152164 0.807868
0.0929076 0.152752 0.809995
0.0946321 0.153355 0.812229
0.0963446 0.153939 0.814291
0.0980384 0.154495 0.816125
0.0996927 0.155004 0.817555
-0.0373818 0.123937 0.796017
-0.0359055 0.124225 0.795612
-0.0344278 0.124505 0.795126
-0.0329557 0.124796 0.794763
-0.0314831 0.125082 0.794345
-0.030009 0.125358 0.793827
-0.0285257 0.125598 0.792924
-0.027037 0.125807 0.791709
-0.0255439 0.125984 0.790154
-0.0240622 0.126185 0.788868
-0.022582 0.126373 0.787451
-0.0211166 0.126608 0.78654
-0.0196528 0.126834 0.785551
-0.0181953 0.127078 0.784745
-0.016738 0.127305 0.783772
-0.015285 0.127538 0.782872
-0.0138337 0.127761 0.781872
-0.0123843 0.127968 0.780722
-0.0109318 0.128096 0.778769
-0.00948462 0.128207 0.776661
-0.00804376 0.128302 0.774406
-0.00661078 0.128406 0.772257
-0.00518563 0.12855 0.770528
-0.00376646 0.128763 0.7695
-0.00235031 0.129002 0.768737
-0.000936553 0.129246 0.768033
0.000474538 0.129481 0.767247
0.00188252 0.129708 0.766387
0.00328959 0.129961 0.765783
0.00469419 0.130207 0.765116
0.00610184 0.130501 0.764932
0.00751138 0.130815 0.764931
0.0089237 0.131148 0.765126
0.010338 0.131491 0.765409
0.0117573 0.131858 0.765918
0.0131737 0.1322 0.766195
0.0145892 0.132535 0.766396
0.0160106 0.132894 0.766819
0.0174314 0.133244 0.767161
0.018858 0.133613 0.767681
0.0203159 0.134097 0.769275
0.0217967 0.134646 0.771472
0.0232962 0.135235 0.774038
0.0248156 0.135865 0.776952
0.0263446 0.136496 0.779868
0.027843 0.137009 0.781669
0.0293263 0.137463 0.782909
0.0307924 0.137859 0.783606
0.0322392 0.138198 0.783779
0.0336649 0.138481 0.783441
0.035103 0.138798 0.783411
0.0365348 0.1391 0.783247
0.0379792 0.139433 0.783359
0.039433 0.139786 0.783656
0.0409045 0.140175 0.784281
0.0423611 0.14053 0.784585
0.0438266 0.140901 0.785036
0.0453025 0.14129 0.785647
0.0467725 0.141664 0.786117
0.0482349 0.142021 0.786437
0.0496856 0.142355 0.786545
0.0511128 0.142645 0.786273
0.0525102 0.142883 0.785547
0.0538952 0.143103 0.784671
0.0552732 0.143316 0.783731
0.0566249 0.143489 0.782456
0.0579693 0.143657 0.781139
0.0592927 0.143796 0.77959
0.0606101 0.143933 0.778031
0.0619428 0.144101 0.77674
0.0633211 0.144343 0.776098
0.064716 0.144613 0.775693
0.0661197 0.144897 0.775415
0.0677133 0.145456 0.777461
0.0696071 0.146432 0.783014
0.0715597 0.147469 0.789046
0.073562 0.148551 0.795415
0.0754693 0.149481 0.800479
0.0772397 0.150211 0.80384
0.0787035 0.150528 0.803753
0.0801509 0.150823 0.803487
0.0815875 0.151106 0.803123
0.0830397 0.15141 0.802928
0.0845108 0.151737 0.802929
0.0860098 0.152099 0.803214
0.0875759 0.152541 0.80415
0.0891855 0.153031 0.805472
0.0908335 0.153562 0.807121
0.0925332 0.154149 0.809207
0.0942646 0.154764 0.811513
0.095995 0.155372 0.813746
0.0977019 0.155948 0.815703
0.099378 0.156484 0.817341
-0.0388567 0.123643 0.796351
-0.0391608 0.125045 0.795692
-0.0376839 0.125333 0.795292
-0.0362096 0.125624 0.794929
-0.0347337 0.125907 0.794482
-0.0332639 0.126202 0.794174
-0.0317889 0.126479 0.793673
-0.0303149 0.126754 0.793147
-0.0288317 0.126991 0.792235
-0.0273435 0.127199 0.791034
-0.0258528 0.127382 0.789569
-0.024373 0.127589 0.788364
-0.0228946 0.127783 0.787041
-0.0214292 0.128017 0.786134
-0.0199654 0.128243 0.785157
-0.0185048 0.128468 0.784173
-0.0170435 0.128667 0.782936
-0.0155861 0.128863 0.781681
-0.0141315 0.129049 0.780326
-0.0126825 0.129243 0.779064
-0.0112343 0.129398 0.77742
-0.00979081 0.129541 0.775669
-0.00835281 0.129679 0.773879
-0.00692078 0.129816 0.772097
-0.00549542 0.129983 0.770617
-0.00407516 0.130188 0.769528
-0.00265822 0.130418 0.768693
-0.0012438 0.130662 0.767999
0.000168306 0.130904 0.767296
0.00157775 0.131139 0.766525
0.00298649 0.1314 0.766006
0.00439359 0.131662 0.765509
0.00580352 0.131966 0.76541
0.00721444 0.13228 0.765417
0.00862663 0.132605 0.765526
0.0100406 0.132939 0.765719
0.0114592 0.133299 0.766146
0.0128751 0.133635 0.766355
0.0142914 0.13397 0.766555
0.0157169 0.134346 0.767139
0.0171447 0.134725 0.767736
0.0185876 0.135158 0.768844
0.0200651 0.135714 0.771082
0.0215654 0.13633 0.773857
0.0230767 0.136954 0.776686
0.0245961 0.137576 0.779485
0.0261068 0.138143 0.781757
0.0275845 0.138587 0.782889
0.02905 0.138985 0.783597
0.0305042 0.139345 0.783956
0.031942 0.139656 0.783877
0.0333678 0.139938 0.783526
0.0348058 0.140253 0.78348
0.0362346 0.140546 0.783232
0.0376797 0.140879 0.78335
0.0391374 0.141241 0.783719
0.040605 0.141622 0.78426
0.0420574 0.141967 0.784477
0.0435223 0.142337 0.784913
0.0449886 0.142707 0.785348
0.0464481 0.143062 0.785639
0.0478995 0.143398 0.785775
0.0493381 0.14371 0.785695
0.0507435 0.14396 0.785082
0.0521132 0.144149 0.78394
0.0534614 0.144305 0.782528
0.0548048 0.14446 0.781113
0.0561159 0.144567 0.779297
0.0574412 0.144706 0.777767
0.0587583 0.144839 0.776193
0.0600787 0.144984 0.774735
0.0614155 0.145162 0.773562
0.0628097 0.145434 0.773184
0.0642098 0.145716 0.772899
0.06572 0.146164 0.774
0.0674495 0.146929 0.777741
0.0694006 0.147998 0.783987
0.0714039 0.149118 0.790619
0.0734215 0.150231 0.79715
0.0752212 0.15102 0.800979
0.0769027 0.151635 0.803351
0.0783748 0.151962 0.803348
0.0798207 0.152256 0.803074
0.0812567 0.152537 0.802699
0.0827074 0.152839 0.802495
0.084161 0.153145 0.802322
0.0856524 0.153498 0.802532
0.0872081 0.15393 0.803377
0.0888087 0.154413 0.804625
0.0904537 0.154944 0.806255
0.0921601 0.155544 0.80842
0.0938966 0.156171 0.810788
0.0956351 0.156794 0.813115
0.0973528 0.157386 0.815181
0.0990526 0.157951 0.817023
-0.0394762 0.126473 0.795319
-0.0379931 0.126745 0.79476
-0.0365196 0.127037 0.794412
-0.0350456 0.127324 0.794014
-0.0335756 0.127618 0.793697
-0.0321006 0.127894 0.79319
-0.030629 0.128174 0.79274
-0.0291456 0.12841 0.791829
-0.0276551 0.128609 0.79055
-0.026166 0.128797 0.789162
-0.0246861 0.129001 0.787961
-0.0232075 0.129194 0.786646
-0.0217422 0.129428 0.785756
-0.0202768 0.129645 0.784699
-0.0188128 0.12985 0.783534
-0.0173486 0.130028 0.782108
-0.0158878 0.130195 0.780585
-0.0144311 0.130354 0.778985
-0.0129832 0.130544 0.777709
-0.0115368 0.130703 0.776141
-0.0100956 0.130861 0.77457
-0.00866036 0.131032 0.773134
-0.00722976 0.131195 0.771636
-0.00580451 0.131378 0.770335
-0.00438404 0.131598 0.769407
-0.00296647 0.131835 0.768651
-0.00155121 0.13208 0.767975
-0.000138083 0.13233 0.767356
0.00127261 0.132573 0.766671
0.00268297 0.132842 0.766238
0.00409197 0.133113 0.765828
0.00550311 0.133418 0.76575
0.00691488 0.133733 0.765754
0.00832824 0.134058 0.765862
0.00974302 0.134392 0.766046
0.0111624 0.134751 0.766466
0.0125804 0.135094 0.766738
0.0139994 0.135438 0.767013
0.0154382 0.135876 0.768151
0.0168808 0.136315 0.769294
0.0183415 0.136815 0.770993
0.0198402 0.137449 0.773899
0.021358 0.138122 0.77714
0.0228638 0.138714 0.779629
0.0243727 0.139291 0.78196
0.025865 0.139789 0.783571
0.0273208 0.140157 0.783995
0.028769 0.140498 0.784179
0.0302145 0.140829 0.784275
0.0316465 0.141122 0.784029
0.0330762 0.141411 0.783748
0.0345152 0.141726 0.783702
0.0359411 0.142009 0.783371
0.0373863 0.142342 0.783476
0.0388441 0.142703 0.783834
0.0403042 0.143067 0.784217
0.0417525 0.143403 0.784347
0.0432171 0.143772 0.784775
0.0446741 0.144124 0.785038
0.046119 0.144449 0.785074
0.047554 0.144754 0.784939
0.0489755 0.145034 0.784587
0.0503481 0.145222 0.783459
0.0516821 0.145346 0.781784
0.0529909 0.145432 0.779804
0.0543031 0.145534 0.777971
0.0555829 0.14559 0.775756
0.0569021 0.145723 0.774207
0.0582251 0.14587 0.772786
0.0595638 0.14605 0.771641
0.0609137 0.146252 0.770699
0.0623187 0.146546 0.770515
0.0638207 0.14699 0.771583
0.0654599 0.147639 0.774328
0.0673301 0.14862 0.779799
0.071368 0.150947 0.793618
0.0732911 0.151934 0.799022
0.0749836 0.152576 0.801596
0.0765653 0.153058 0.80285
0.0780357 0.153384 0.80284
0.0794728 0.153665 0.802467
0.0809081 0.153945 0.802088
0.0823505 0.154236 0.801803
0.0837942 0.15453 0.80154
0.0852824 0.15488 0.801723
0.0868437 0.155321 0.802634
0.0884278 0.155787 0.80373
0.0900637 0.156311 0.805287
0.0917591 0.156904 0.807366
0.0934906 0.157531 0.809711
0.0952289 0.158159 0.812048
0.0969673 0.15878 0.814315
0.0986885 0.159375 0.816367
0.100753 0.158513 0.818827
0.10041 0.159964 0.818357
-0.0368319 0.128456 0.793959
-0.0353552 0.128735 0.793487
-0.0338848 0.129026 0.79315
-0.032409 0.129298 0.792612
-0.0309382 0.129579 0.792178
-0.0294551 0.129814 0.791276
-0.0279648 0.130012 0.790005
-0.0264776 0.130205 0.788695
-0.0249995 0.130416 0.787573
-0.0235226 0.130615 0.786344
-0.0220572 0.130849 0.785469
-0.0205912 0.131063 0.784408
-0.019125 0.131256 0.783143
-0.0176587 0.13142 0.781603
-0.016195 0.131567 0.779903
-0.014737 0.131713 0.778209
-0.0132887 0.131894 0.776864
-0.0118436 0.132061 0.775395
-0.0104041 0.132235 0.774011
-0.00896996 0.132424 0.772769
-0.00753976 0.132603 0.771448
-0.00611463 0.132809 0.770393
-0.00469338 0.133043 0.769612
-0.00327472 0.133279 0.768865
-0.00185828 0.133531 0.768265
-0.000443621 0.13379 0.767731
0.000968966 0.134041 0.76713
0.00238069 0.13431 0.766708
0.00379188 0.13459 0.766387
0.00520368 0.134888 0.766231
0.00661677 0.135203 0.766236
0.00803117 0.135527 0.766331
0.00944715 0.135862 0.766516
0.0108678 0.136222 0.76694
0.0122927 0.1366 0.767523
0.013723 0.136998 0.768283
0.0151761 0.137499 0.769974
0.0166354 0.138004 0.771694
0.0181148 0.138575 0.773994
0.0196217 0.139231 0.777043
0.0211329 0.139866 0.779885
0.0226247 0.140395 0.781766
0.0241157 0.140903 0.783436
0.0255893 0.141332 0.784409
0.0270347 0.141662 0.784488
0.0284776 0.141983 0.78449
0.0299204 0.142304 0.784491
0.031353 0.142596 0.784237
0.0327838 0.142885 0.783959
0.0342204 0.143192 0.783839
0.0356472 0.143474 0.783508
0.0370891 0.143797 0.783528
0.0385427 0.144148 0.783791
0.0399985 0.144502 0.784079
0.0414426 0.144828 0.784124
0.0428988 0.14518 0.784391
0.0443417 0.145502 0.784401
0.0457663 0.145785 0.784087
0.0471739 0.146037 0.783498
0.0485673 0.146263 0.782705
0.0499096 0.146395 0.781118
0.051217 0.146469 0.779064
0.0525021 0.146514 0.776769
0.0537906 0.146576 0.774638
0.0550612 0.146618 0.772349
0.0563853 0.146764 0.770939
0.0577258 0.146945 0.769822
0.0590842 0.147161 0.769004
0.0604521 0.147396 0.76835
0.0618596 0.147698 0.768245
0.0634684 0.148318 0.770732
0.0652291 0.149161 0.775028
0.0672286 0.150349 0.782097
0.0692773 0.15158 0.789472
0.0713297 0.152787 0.796615
0.0731412 0.153617 0.800676
0.0747231 0.154105 0.801975
0.0762117 0.154457 0.802173
0.0776807 0.154781 0.802145
0.0791089 0.15505 0.801684
0.0805433 0.15533 0.801311
0.0819864 0.155622 0.801037
0.0834212 0.155904 0.800684
0.084897 0.156239 0.800754
0.0864458 0.156668 0.801552
0.0880353 0.157144 0.802718
0.0896635 0.157663 0.804218
0.0913572 0.158259 0.806297
0.0930868 0.15889 0.808645
0.0948317 0.159532 0.811059
0.0965598 0.160147 0.813252
0.0983001 0.160769 0.815487
0.10004 0.161384 0.817661
-0.0371483 0.129885 0.79362
-0.0356616 0.130136 0.792874
-0.0341872 0.130414 0.792409
-0.0327108 0.130682 0.79184
-0.0312421 0.130967 0.791453
-0.0297617 0.131208 0.790632
-0.0282764 0.131422 0.789537
-0.0267935 0.131629 0.788393
-0.0253168 0.131846 0.787348
-0.0238415 0.132053 0.786212
-0.0223758 0.132286 0.785349
-0.0209073 0.13249 0.784203
-0.0194387 0.132671 0.782837
-0.0179685 0.132812 0.781104
-0.0165021 0.132939 0.779235
-0.0150432 0.133074 0.777464
-0.0135961 0.133262 0.776208
-0.0121528 0.133444 0.774914
-0.0107146 0.133636 0.773719
-0.00928236 0.133859 0.77282
-0.00785228 0.134063 0.771759
-0.00642632 0.134286 0.770876
-0.00500387 0.134536 0.770252
-0.00358332 0.13478 0.769584
-0.00216514 0.135023 0.768911
-0.00074852 0.13529 0.768458
0.000666319 0.135548 0.76793
0.00208008 0.135818 0.767516
0.00349328 0.136099 0.767201
0.0049068 0.136395 0.767031
0.00632157 0.136708 0.76702
0.00773851 0.137041 0.767185
0.00915908 0.137395 0.767545
0.0105861 0.137787 0.768239
0.0120202 0.138208 0.769196
0.013461 0.13865 0.770333
0.0149243 0.139191 0.772352
0.016395 0.139737 0.774399
0.0178864 0.140348 0.777014
0.0193863 0.140961 0.77963
0.020884 0.141532 0.781858
0.0223607 0.141996 0.783125
0.0238337 0.142433 0.784147
0.0252872 0.142791 0.784471
0.0267331 0.14312 0.784544
0.0281732 0.143431 0.784454
0.0296132 0.143742 0.78437
0.0310462 0.144034 0.784117
0.0324811 0.144333 0.78393
0.0339156 0.144632 0.783749
0.0353432 0.144915 0.783424
0.0367808 0.145226 0.783342
0.0382258 0.145556 0.783423
0.0396724 0.145889 0.783531
0.0411117 0.146205 0.783487
0.0425581 0.146536 0.783584
0.0439857 0.146826 0.783328
0.0453842 0.147056 0.782569
0.0467585 0.147241 0.781432
0.0481161 0.147398 0.78008
0.0494327 0.147482 0.778127
0.0507251 0.14753 0.775892
0.0520021 0.147562 0.773532
0.0532891 0.147625 0.771441
0.0545746 0.147696 0.769432
0.0559156 0.147875 0.768319
0.0572792 0.148099 0.76758
0.0586711 0.148375 0.767262
0.0601491 0.148796 0.768123
0.0616536 0.149255 0.769296
0.0633679 0.150046 0.773127
0.065243 0.151073 0.778833
0.0672626 0.152298 0.786094
0.0692068 0.153378 0.792152
0.0711593 0.154445 0.798074
0.0728676 0.155128 0.800907
0.0743636 0.155493 0.801217
0.0758505 0.155844 0.801403
0.0773258 0.156178 0.801458
0.0787605 0.156456 0.801078
0.0802047 0.156748 0.800803
0.0816487 0.157041 0.800539
0.0830746 0.157311 0.800098
0.0845299 0.157621 0.799974
0.0860589 0.158025 0.800577
0.0876364 0.15849 0.801644
0.0892546 0.159002 0.803068
0.0909376 0.159589 0.805059
0.0926539 0.160211 0.8073
0.0943906 0.16085 0.809669
0.0961076 0.161458 0.811781
0.0978467 0.162085 0.814033
0.099595 0.162716 0.816299
0.101727 0.161933 0.81931
0.101289 0.163277 0.818026
-0.034489 0.131801 0.791665
-0.0330087 0.132054 0.790961
-0.0315461 0.132355 0.790743
-0.0300712 0.132612 0.79009
-0.0285923 0.132846 0.789219
-0.0271141 0.133072 0.788267
-0.0256387 0.133295 0.787301
-0.0241625 0.133499 0.786163
-0.0226944 0.133724 0.785226
-0.0212238 0.133919 0.784007
-0.0197541 0.134095 0.782624
-0.0182817 0.134225 0.7808
-0.0168119 0.13433 0.778761
-0.0153525 0.134461 0.776985
-0.0139062 0.134655 0.77581
-0.0124645 0.134854 0.774691
-0.0110286 0.135081 0.773832
-0.00959846 0.135348 0.773371
-0.00816896 0.135599 0.772752
-0.00674191 0.135858 0.772218
-0.00531698 0.136136 0.771862
-0.00389327 0.136399 0.771361
-0.00247133 0.136642 0.770686
-0.00105155 0.136889 0.77006
0.000366478 0.137146 0.769523
0.00178257 0.137399 0.768949
0.00319807 0.13767 0.768547
0.00461422 0.137965 0.768364
0.0060323 0.138285 0.768413
0.00745224 0.138621 0.768591
0.00888049 0.139016 0.769307
0.0103155 0.139443 0.770299
0.0117572 0.139892 0.771482
0.0132064 0.140363 0.772852
0.0146782 0.140932 0.775085
0.0161535 0.141485 0.777149
0.0176411 0.142065 0.779444
0.01913 0.142618 0.781491
0.0206137 0.143124 0.783109
0.0220729 0.143514 0.783713
0.0235286 0.143883 0.784132
0.0249721 0.144205 0.784141
0.0264211 0.144545 0.784308
0.0278622 0.144859 0.784244
0.0293031 0.145172 0.784177
0.0307394 0.145472 0.784
0.032178 0.14578 0.783895
0.0336066 0.146062 0.783561
0.0350342 0.146344 0.783232
0.0364639 0.146633 0.782972
0.0378962 0.146932 0.782787
0.0393288 0.147232 0.782621
0.0407618 0.147535 0.782473
0.0421896 0.147827 0.782238
0.0435925 0.148064 0.781554
0.0449663 0.148243 0.78039
0.0463099 0.148366 0.778766
0.047637 0.148464 0.776953
0.0489395 0.148524 0.774836
0.0502304 0.148572 0.772641
0.0515142 0.14862 0.770453
0.0528227 0.148726 0.76875
0.054205 0.148977 0.768228
0.0556452 0.149335 0.768574
0.0571198 0.149751 0.769391
0.0586238 0.150215 0.770579
0.0602083 0.150809 0.772804
0.0617376 0.1513 0.774202
0.0634796 0.152132 0.778297
0.065356 0.153161 0.783929
0.0672715 0.154227 0.789815
0.0690951 0.155124 0.794347
0.0709327 0.156024 0.798868
0.072536 0.156554 0.800463
0.0740326 0.156921 0.800782
0.0755187 0.157271 0.800961
0.0769947 0.157606 0.801024
0.0784398 0.157898 0.800754
0.079901 0.158213 0.800664
0.0813457 0.158507 0.800409
0.0827637 0.158765 0.799882
0.0842087 0.159061 0.799649
0.0857098 0.15943 0.799978
0.0872583 0.15986 0.800767
0.0888555 0.16035 0.802001
0.0905171 0.160915 0.803809
0.0921996 0.161501 0.805756
0.0939214 0.162129 0.80801
0.0956303 0.162733 0.810078
0.0973584 0.163353 0.812249
0.0991044 0.163989 0.814529
0.100806 0.164565 0.816349
-0.0333126 0.133443 0.790275
-0.0318619 0.13378 0.790407
-0.0303948 0.134063 0.790015
-0.0289228 0.134324 0.789409
-0.0274491 0.13457 0.788669
-0.0259723 0.134792 0.787705
-0.0244941 0.134993 0.786551
-0.0230226 0.135207 0.785526
-0.021549 0.135392 0.784231
-0.0200779 0.135566 0.782846
-0.0186037 0.135692 0.781013
-0.017131 0.135784 0.778885
-0.0156701 0.135912 0.777103
-0.0142218 0.136096 0.775847
-0.0127798 0.136302 0.774809
-0.0113455 0.136556 0.774221
-0.00991682 0.136864 0.77413
-0.00848801 0.137164 0.773977
-0.00706051 0.137484 0.773997
-0.00563287 0.137801 0.773997
-0.00420502 0.138082 0.773668
-0.0027786 0.138325 0.772989
-0.00135458 0.138561 0.772259
6.73747e-05 0.138806 0.771619
0.00148707 0.139048 0.770945
0.00290528 0.1393 0.770378
0.00432487 0.139595 0.770188
0.00574662 0.139917 0.770239
0.00717114 0.140264 0.770513
0.00860453 0.140675 0.771353
0.0100465 0.141129 0.772558
0.0114941 0.141594 0.773862
0.0129501 0.142087 0.775388
0.014423 0.142646 0.777489
0.0158969 0.143176 0.779321
0.0173745 0.143696 0.781056
0.0188511 0.144187 0.782534
0.0203215 0.144632 0.783601
0.021772 0.144983 0.783863
0.0232185 0.145316 0.783967
0.0246623 0.145638 0.783975
0.0261117 0.14598 0.784149
0.0275506 0.146285 0.784014
0.0289891 0.14659 0.783879
0.0304286 0.146899 0.783785
0.0318676 0.147208 0.783683
0.0332927 0.147478 0.783259
0.0347164 0.147748 0.782838
0.0361336 0.148005 0.782306
0.0375483 0.148259 0.781757
0.0389622 0.148515 0.781232
0.040376 0.148775 0.780739
0.0417792 0.149013 0.780072
0.0431598 0.149205 0.779028
0.0445099 0.149336 0.777492
0.0458378 0.149429 0.77566
0.0471544 0.149509 0.773736
0.0484642 0.149588 0.771807
0.0497801 0.14969 0.770078
0.0511566 0.14992 0.769393
0.0525614 0.150209 0.769177
0.0540547 0.150664 0.770295
0.0555942 0.151198 0.772034
0.0571583 0.151767 0.774042
0.0586917 0.152273 0.775532
0.0603073 0.152912 0.77807
0.0618669 0.153445 0.779756
0.0636429 0.154329 0.784186
0.06545 0.155243 0.788826
0.0672557 0.156133 0.79326
0.0689803 0.156876 0.796519
0.0707111 0.157615 0.799728
0.0722216 0.158006 0.800225
0.0737255 0.158384 0.800618
0.0752203 0.158747 0.800896
0.0766984 0.159085 0.800983
0.078154 0.159391 0.80082
0.0796249 0.159719 0.800828
0.0810716 0.160013 0.800576
0.0824899 0.160269 0.800041
0.0839269 0.160553 0.799725
0.0853997 0.160886 0.799767
0.0869278 0.16129 0.800352
0.0884922 0.16174 0.801277
0.0901145 0.16226 0.802725
0.0917553 0.162799 0.804298
0.09346 0.163412 0.806416
0.0951542 0.164004 0.808368
0.0968685 0.164615 0.810454
0.0986135 0.165255 0.812742
0.100321 0.165845 0.814642
-0.0321863 0.135234 0.790337
-0.0307295 0.135553 0.790295
-0.0292657 0.135847 0.790012
-0.0277964 0.136115 0.789494
-0.0263171 0.136335 0.78852
-0.0248336 0.136521 0.787241
-0.0233558 0.136714 0.786029
-0.0218786 0.136888 0.784648
-0.0204044 0.137052 0.783189
-0.0189286 0.137175 0.781363
-0.0174525 0.137254 0.77914
-0.0159899 0.137378 0.777346
-0.0145391 0.13755 0.776001
-0.0130977 0.137772 0.775125
-0.0116654 0.138063 0.774881
-0.010238 0.138414 0.775173
-0.0088104 0.138777 0.775584
-0.00738218 0.139157 0.776142
-0.00595157 0.139518 0.776523
-0.004519 0.139812 0.776302
-0.0030874 0.14007 0.775768
-0.00165813 0.140303 0.775015
-0.000231263 0.140537 0.774268
0.00119284 0.140766 0.773488
0.00261589 0.141017 0.772908
0.00403966 0.141303 0.772634
0.00546514 0.141619 0.772623
0.00689421 0.14197 0.772915
0.00833085 0.142375 0.773681
0.00977537 0.142822 0.774803
0.0112234 0.143268 0.775912
0.0126817 0.143757 0.777379
0.0141449 0.144247 0.778853
0.0156086 0.144715 0.780126
0.0170762 0.145183 0.78139
0.0185426 0.145627 0.782437
0.0199984 0.14601 0.782967
0.0214486 0.146363 0.783242
0.0228945 0.146696 0.783344
0.0243353 0.147008 0.783272
0.0257862 0.147358 0.783515
0.0272273 0.147671 0.783452
0.0286654 0.147976 0.783319
0.0301047 0.148286 0.783227
0.0315396 0.148583 0.783035
0.0329568 0.148831 0.782435
0.0343718 0.149078 0.781827
0.035779 0.149309 0.781097
0.0371799 0.149529 0.780282
0.0385783 0.149749 0.779471
0.0399716 0.149962 0.778611
0.0413491 0.150144 0.777502
0.0427072 0.150289 0.776099
0.0440433 0.150393 0.774378
0.0453679 0.150483 0.772557
0.0466941 0.150589 0.770869
0.0480323 0.15073 0.769471
0.0494419 0.151025 0.769307
0.0509196 0.151457 0.770233
0.0524243 0.151937 0.771525
0.0540226 0.152588 0.774163
0.0556511 0.15328 0.777114
0.0572416 0.153888 0.779381
0.0587963 0.15442 0.781045
0.0604345 0.155091 0.783776
0.0620154 0.155649 0.78562
0.0637035 0.156379 0.788787
0.0654162 0.157135 0.792134
0.0671188 0.157859 0.795215
0.0687455 0.158449 0.797248
0.0703792 0.159039 0.799273
0.0718973 0.159443 0.799865
0.0734089 0.159833 0.800353
0.0749115 0.160208 0.800717
0.0763991 0.160561 0.800907
0.0778644 0.160879 0.800845
0.0793441 0.161219 0.800945
0.0807998 0.161525 0.800779
0.0822265 0.161791 0.800326
0.0836566 0.162064 0.799923
0.0851028 0.162359 0.799691
0.0866093 0.162735 0.800057
0.088142 0.163145 0.800672
0.089733 0.163628 0.801827
0.0913519 0.164143 0.80321
0.0930517 0.164756 0.805305
0.0947335 0.165338 0.807163
0.0964446 0.165951 0.809234
0.0981768 0.166583 0.811438
0.0998709 0.167161 0.813236
-0.0310827 0.137106 0.791157
-0.0296185 0.137405 0.790925
-0.0281473 0.137675 0.790418
-0.0266681 0.137904 0.789542
-0.0251791 0.138076 0.788148
-0.0236965 0.138256 0.786832
-0.022215 0.138418 0.78536
-0.0207369 0.13857 0.783814
-0.0192572 0.138681 0.781896
-0.0177774 0.138746 0.779577
-0.0163128 0.138867 0.777777
-0.0148612 0.139045 0.776507
-0.0134221 0.139303 0.775962
-0.0119912 0.139633 0.776066
-0.0105651 0.140035 0.77681
-0.00913732 0.140451 0.777679
-0.00770712 0.140875 0.778612
-0.00627267 0.141259 0.779179
-0.00483545 0.141572 0.779123
-0.00339843 0.141831 0.778595
-0.00196387 0.142055 0.777762
-0.000532062 0.142278 0.776923
0.000896801 0.142497 0.776054
0.00232461 0.142746 0.775454
0.00375321 0.143033 0.775189
0.0051835 0.14335 0.775174
0.00661624 0.143691 0.775379
0.00805532 0.144084 0.776017
0.00949936 0.144499 0.776844
0.0109416 0.144883 0.777399
0.0123911 0.145302 0.778252
0.013845 0.145732 0.779186
0.0152981 0.146141 0.779942
0.0167558 0.146561 0.780787
0.0182197 0.146999 0.781768
0.0196772 0.147394 0.782395
0.02113 0.14776 0.782774
0.0225786 0.148105 0.782979
0.024019 0.148417 0.782902
0.0254662 0.148754 0.783035
0.0269006 0.149045 0.782793
0.0283343 0.149336 0.78255
0.0297699 0.149636 0.782382
0.0312006 0.149923 0.782104
0.0326133 0.150158 0.781414
0.0340222 0.150389 0.78069
0.035417 0.150587 0.779706
0.0368002 0.150762 0.778541
0.0381795 0.150936 0.777377
0.0395518 0.151101 0.776148
0.0409112 0.151244 0.77475
0.0422599 0.151372 0.773237
0.0435985 0.151487 0.771629
0.0449371 0.151612 0.770119
0.0462838 0.151765 0.768832
0.0476995 0.152074 0.768776
0.0492025 0.152564 0.770148
0.0507836 0.153205 0.77269
0.0523939 0.153889 0.775555
0.0540947 0.154733 0.779645
0.0557473 0.155462 0.782826
0.0573413 0.156065 0.785011
0.0589057 0.156603 0.786682
0.0605506 0.157276 0.78938
0.0621443 0.157846 0.791274
0.0637527 0.158432 0.793279
0.0653711 0.159025 0.795327
0.0669744 0.159584 0.797107
0.0685096 0.160022 0.797958
0.0700474 0.160462 0.798817
0.0715746 0.160881 0.799516
0.0731002 0.161295 0.800171
0.0746104 0.161683 0.800633
0.076106 0.162047 0.80091
0.0775802 0.162378 0.800935
0.079068 0.162729 0.801115
0.0805328 0.163045 0.801035
0.0819621 0.163313 0.800599
0.0833949 0.163587 0.800205
0.0848242 0.163859 0.799799
0.0863092 0.164206 0.799948
0.0878202 0.164588 0.800351
0.0893904 0.165047 0.801315
0.0910006 0.165553 0.80262
0.092702 0.166172 0.80473
0.0943814 0.166756 0.806584
0.096072 0.167347 0.808478
0.0977905 0.167967 0.810568
0.0994609 0.168521 0.812172
-0.0314621 0.13875 0.792815
-0.029986 0.139019 0.792303
-0.0285041 0.139258 0.79152
-0.0270219 0.139485 0.79063
-0.0255359 0.139681 0.789468
-0.0240422 0.139821 0.787812
-0.0225509 0.139945 0.786014
-0.0210668 0.140074 0.784276
-0.0195828 0.140168 0.78223
-0.018098 0.140209 0.77973
-0.0166323 0.140328 0.777945
-0.015183 0.140534 0.776941
-0.0137476 0.140841 0.776828
-0.01232 0.141231 0.777459
-0.0108939 0.141668 0.778499
-0.00946608 0.142135 0.779791
-0.00803348 0.142589 0.780966
-0.00659515 0.142983 0.781611
-0.00515327 0.143288 0.781473
-0.00371169 0.143556 0.78102
-0.00227239 0.143772 0.780118
-0.000835795 0.143996 0.779293
0.000597812 0.144214 0.778427
0.00203016 0.144463 0.77782
0.00346327 0.14475 0.777547
0.00489714 0.145058 0.777452
0.00633096 0.145369 0.777387
0.00776767 0.145709 0.777566
0.00920736 0.146068 0.777904
0.0106428 0.146389 0.777919
0.0120841 0.146748 0.778251
0.0135314 0.147137 0.778838
0.0149821 0.147537 0.779504
0.0164374 0.147948 0.780267
0.0179007 0.148388 0.781252
0.0193603 0.148796 0.781978
0.0208151 0.149173 0.782445
0.0222637 0.149519 0.782651
0.0237041 0.14983 0.782571
0.0251459 0.150148 0.782545
0.0265735 0.150415 0.782111
0.028003 0.150693 0.781767
0.0294342 0.15098 0.781501
0.0308576 0.151246 0.78106
0.0322691 0.151479 0.780366
0.0336766 0.151707 0.77963
0.0350631 0.151883 0.77848
0.0364335 0.152023 0.777063
0.0377991 0.152163 0.775643
0.0391553 0.152289 0.774127
0.0404989 0.152396 0.772466
0.0418411 0.152511 0.770879
0.0431915 0.152657 0.769544
0.044554 0.15284 0.768503
0.0459759 0.153161 0.768553
0.0474778 0.153657 0.76995
0.0490758 0.154347 0.77285
0.0507478 0.155173 0.776778
0.0524467 0.15603 0.780926
0.0541608 0.156893 0.785096
0.0558229 0.157632 0.788291
0.0574175 0.158225 0.790361
0.0589806 0.158749 0.791888
0.0605458 0.159269 0.793375
0.0620625 0.159695 0.794141
0.0635886 0.160134 0.795
0.0651234 0.160583 0.795933
0.066654 0.16102 0.796777
0.0681951 0.161471 0.797709
0.0697403 0.161924 0.798661
0.0712744 0.162356 0.799444
0.0728163 0.162796 0.800286
0.0743287 0.163187 0.800763
0.075833 0.163564 0.801128
0.0773144 0.163905 0.801233
0.0788041 0.164257 0.801414
0.0802625 0.164564 0.801259
0.0817017 0.164844 0.800916
0.0831363 0.165118 0.80053
0.0845603 0.16538 0.800052
0.0860266 0.165702 0.800018
0.0875273 0.166069 0.800313
0.0890885 0.166517 0.801184
0.0907012 0.16703 0.802514
0.0923967 0.167645 0.804576
0.0940868 0.168246 0.806526
0.0957745 0.168837 0.808398
0.0974695 0.169432 0.810284
0.0991264 0.169973 0.811776
-0.0303374 0.140574 0.793101
-0.0288433 0.140774 0.79197
-0.0273576 0.140991 0.791011
-0.02588 0.141229 0.790241
-0.0243891 0.141392 0.788806
-0.022902 0.141549 0.787324
-0.021409 0.141645 0.785309
-0.0199176 0.141709 0.78303
-0.0184251 0.141714 0.780241
-0.0169623 0.141867 0.778775
-0.0155154 0.14211 0.778104
-0.0140854 0.142491 0.778644
-0.0126595 0.142937 0.779749
-0.0112326 0.143417 0.781132
-0.00979867 0.143859 0.782181
-0.00836056 0.144285 0.783091
-0.00691702 0.144639 0.783375
-0.00547122 0.144922 0.783041
-0.00402631 0.14518 0.782503
-0.00258366 0.145404 0.781685
-0.00114366 0.14563 0.780881
0.00029411 0.145866 0.78017
0.00173064 0.146125 0.779651
0.00316604 0.146393 0.779217
0.00460161 0.146681 0.778953
0.00603537 0.14696 0.778608
0.00746794 0.147237 0.778258
0.00890135 0.147531 0.778053
0.010333 0.147818 0.777782
0.0117683 0.148136 0.777773
0.0132107 0.148498 0.778128
0.0146583 0.148886 0.778686
0.0161141 0.149307 0.779518
0.0175764 0.149748 0.78051
0.0190374 0.150169 0.781325
0.0204962 0.150568 0.781963
0.0219466 0.150923 0.782244
0.0233842 0.151224 0.782081
0.0248177 0.15151 0.781808
0.0262383 0.151753 0.781186
0.0276632 0.152017 0.780739
0.0290924 0.152301 0.780447
0.0305126 0.152559 0.779956
0.0319299 0.152812 0.779429
0.033337 0.15304 0.778703
0.0347191 0.153202 0.777469
0.0360778 0.153309 0.775807
0.0374369 0.153431 0.774271
0.0387794 0.153522 0.772504
0.0401173 0.153616 0.770762
0.0414634 0.153741 0.769284
0.0428781 0.154043 0.769172
0.0443133 0.154392 0.769433
0.0458209 0.154904 0.770942
0.047414 0.155596 0.773821
0.0491005 0.156471 0.778083
0.0508089 0.157366 0.782472
0.0525254 0.158251 0.786759
0.054183 0.158992 0.789936
0.0557749 0.159585 0.791976
0.0572918 0.160022 0.79283
0.0587628 0.160369 0.792994
0.0602375 0.160721 0.793201
0.0617512 0.161142 0.793927
0.0632763 0.161581 0.794774
0.0647985 0.16201 0.795547
0.0663419 0.162471 0.796551
0.0678873 0.162932 0.797551
0.0694252 0.163375 0.798419
0.0709599 0.163809 0.799203
0.0725162 0.164274 0.800223
0.0740231 0.164656 0.800624
0.0755287 0.165036 0.801007
0.0770182 0.165389 0.801192
0.0785006 0.16573 0.801292
0.0799592 0.166036 0.801136
0.0814154 0.166339 0.800962
0.0828598 0.166626 0.800672
0.0842847 0.166888 0.8002
0.0857537 0.167211 0.800175
0.0872543 0.167579 0.800467
0.0888161 0.168029 0.801339
0.0904501 0.168571 0.802868
0.092148 0.169193 0.804953
0.09384 0.1698 0.806914
0.0955241 0.17039 0.808753
0.0972074 0.170972 0.810526
0.098845 0.171491 0.811843
0.100729 0.170442 0.812749
0.100439 0.17195 0.812742
-0.0291577 0.142193 0.791548
-0.0276718 0.142409 0.790586
-0.0261998 0.142671 0.790039
-0.0247023 0.142804 0.788359
-0.0232117 0.142942 0.786736
-0.0217153 0.143018 0.784575
-0.0202212 0.143062 0.782159
-0.018737 0.143117 0.779848
-0.0172892 0.14338 0.779355
-0.0158547 0.143737 0.779676
-0.0144313 0.144209 0.780979
-0.0130074 0.14472 0.782617
-0.0115735 0.145176 0.783768
-0.0101329 0.145587 0.784528
-0.00868789 0.14596 0.784964
-0.00723892 0.146262 0.784794
-0.00578937 0.14651 0.78417
-0.004342 0.146764 0.783602
-0.00289662 0.146978 0.782706
-0.00145411 0.147204 0.781912
-1.35692e-05 0.147451 0.781294
0.00142589 0.147718 0.780851
0.00286341 0.147977 0.780338
0.00430067 0.148254 0.77998
0.00573382 0.148499 0.779368
0.0071648 0.148742 0.778733
0.00859457 0.148993 0.778172
0.0100231 0.149248 0.77765
0.0114546 0.149536 0.777394
0.0128964 0.149897 0.777736
0.0143434 0.150284 0.778281
0.0157987 0.150706 0.779114
0.0172608 0.151151 0.780119
0.0187216 0.151574 0.780945
0.0201777 0.151963 0.781495
0.0216273 0.152317 0.781762
0.0230647 0.152617 0.781597
0.0244951 0.152892 0.781238
0.0259153 0.153133 0.780607
0.0273386 0.153392 0.780127
0.0287647 0.153666 0.779762
0.030185 0.153924 0.779282
0.0316029 0.15418 0.778782
0.0330104 0.154408 0.778072
0.0343956 0.154578 0.77691
0.0357573 0.15469 0.775312
0.0371202 0.15482 0.773855
0.0384751 0.15494 0.772333
0.0398308 0.155074 0.770926
