ply
format ascii 1.0
element vertex 1614
property float x
property float y
property float z
end_header
0.0283552 -0.0184534 0.841988
0.029791 -0.0183812 0.841348
0.03122 -0.018306 0.840542
0.0326442 -0.0182292 0.83965
0.0340656 -0.0181525 0.838755
0.0354922 -0.0180801 0.838084
0.0369143 -0.0180064 0.837339
0.0383259 -0.0179287 0.836375
0.0397363 -0.017852 0.835453
0.0411432 -0.0177749 0.83451
0.042531 -0.017691 0.833191
0.0439113 -0.0176061 0.831796
0.0452794 -0.0175182 0.830234
0.0466299 -0.0174258 0.828407
0.0479819 -0.0173362 0.826724
0.0493382 -0.0172502 0.825228
0.0506891 -0.017164 0.823713
0.0520549 -0.0170842 0.822555
0.0534266 -0.0170077 0.821563
0.0545515 -0.016858 0.816415
0.0555001 -0.0166629 0.808628
0.0563942 -0.0164607 0.800382
0.0573519 -0.0162845 0.793563
0.0583674 -0.0161306 0.787975
0.0596298 -0.0160456 0.78634
0.06094 -0.0159742 0.785473
0.0622664 -0.0159073 0.784872
0.0636125 -0.0158454 0.784567
0.0649458 -0.015781 0.784098
0.066306 -0.0157227 0.783999
0.0676813 -0.0156678 0.784095
0.0690696 -0.0156154 0.784346
0.0704789 -0.0155672 0.784843
0.0719465 -0.01553 0.786021
0.0734482 -0.0154987 0.787551
0.0749777 -0.0154712 0.789342
0.0765323 -0.0154471 0.791345
0.0780271 -0.0154104 0.792596
0.0794594 -0.0153614 0.793108
0.080852 -0.0153051 0.793169
0.0822151 -0.0152434 0.79291
0.083555 -0.0151781 0.792414
0.0849388 -0.0151203 0.792382
0.086332 -0.0150639 0.792441
0.0877104 -0.015005 0.792347
0.0890773 -0.0149443 0.792141
0.0904487 -0.0148844 0.79198
0.0917847 -0.0148194 0.791488
0.0931042 -0.0147521 0.790855
0.0944327 -0.0146864 0.790319
0.0957664 -0.0146218 0.789843
0.0971044 -0.0145579 0.789416
0.0984788 -0.0144991 0.789315
0.0998638 -0.0144416 0.789306
0.101228 -0.0143815 0.78912
0.10257 -0.0143185 0.788747
0.103901 -0.0142543 0.788291
0.105216 -0.0141884 0.787714
0.106531 -0.0141227 0.787146
0.107842 -0.0140569 0.786565
0.109158 -0.0139918 0.786032
0.110493 -0.013929 0.785656
0.11185 -0.0138689 0.785455
0.113249 -0.0138134 0.785573
0.11468 -0.0137612 0.785918
0.116163 -0.0137141 0.786628
0.117704 -0.0136727 0.787741
0.119289 -0.013635 0.789132
0.120926 -0.0136018 0.790856
0.122613 -0.0135726 0.79288
0.124319 -0.0135443 0.794988
0.126022 -0.0135147 0.797024
0.127732 -0.0134847 0.799058
0.129414 -0.0134512 0.800856
0.131055 -0.013413 0.802338
0.132639 -0.0133692 0.803416
0.134188 -0.0133217 0.804247
0.135693 -0.0132701 0.804775
0.137191 -0.0132175 0.805241
0.138701 -0.0131658 0.805777
0.140214 -0.013114 0.806315
0.141691 -0.0130591 0.806618
0.143177 -0.0130046 0.806971
0.144625 -0.012947 0.807082
0.146086 -0.0128903 0.807265
0.147551 -0.0128337 0.807469
0.149061 -0.0127805 0.807924
0.150576 -0.0127273 0.808398
0.152132 -0.0126769 0.809091
0.153678 -0.0126254 0.809714
0.155253 -0.0125758 0.810483
0.156849 -0.0125271 0.81135
0.158467 -0.0124796 0.812317
0.160177 -0.0124378 0.813764
0.161971 -0.0124011 0.815631
0.16386 -0.0123697 0.817962
0.166936 -0.0124132 0.82648
0.0282397 -0.0169628 0.840107
0.0296753 -0.0168933 0.839565
0.0311039 -0.0168206 0.838839
0.0325252 -0.0167454 0.837947
0.0339463 -0.0166712 0.837124
0.0353729 -0.0166011 0.836528
0.0367902 -0.0165275 0.835722
0.0382025 -0.0164528 0.834842
0.0396177 -0.0163805 0.834102
0.041031 -0.0163083 0.833363
0.0424292 -0.0162313 0.832327
0.0438314 -0.0161569 0.831442
0.0452185 -0.0160783 0.830295
0.0465896 -0.0159956 0.828887
0.0479552 -0.0159128 0.827458
0.0493215 -0.0158316 0.826125
0.050678 -0.0157489 0.824685
0.0520519 -0.0156727 0.823643
0.0534375 -0.0156008 0.822858
0.0544852 -0.0154379 0.816349
0.0553898 -0.0152441 0.807823
0.0571802 -0.0148762 0.791818
0.0582518 -0.0147456 0.787125
0.0595713 -0.0146768 0.786361
0.0608811 -0.0146065 0.785485
0.0621976 -0.0145382 0.784743
0.0635382 -0.0144756 0.784362
0.0648708 -0.0144116 0.783887
0.0662247 -0.0143522 0.783709
0.0675892 -0.0142948 0.78367
0.068964 -0.0142394 0.783759
0.070347 -0.0141854 0.783942
0.0717802 -0.0141402 0.78472
0.0732519 -0.0141012 0.785921
0.0747519 -0.0140661 0.7874
0.0762959 -0.0140372 0.78932
0.0777896 -0.0139987 0.790598
0.0792413 -0.0139525 0.791361
0.0806407 -0.0138974 0.791527
0.0820227 -0.0138395 0.791498
0.0833674 -0.013776 0.791077
0.0847765 -0.0137222 0.791325
0.0861912 -0.0136689 0.791619
0.0875929 -0.0136134 0.791769
0.0889832 -0.0135563 0.791798
0.0903766 -0.0134995 0.791854
0.0916974 -0.013433 0.791219
0.0929909 -0.0133633 0.790348
0.0942995 -0.013296 0.789637
0.0956045 -0.0132287 0.788914
0.0969159 -0.0131623 0.788265
0.0982731 -0.0131017 0.78803
0.0996548 -0.013044 0.788011
0.101017 -0.012984 0.787818
0.102357 -0.0129216 0.787449
0.103685 -0.0128581 0.78699
0.105015 -0.0127949 0.786552
0.106338 -0.0127311 0.786067
0.107668 -0.0126682 0.785647
0.109013 -0.0126069 0.785348
0.110376 -0.0125476 0.785199
0.111764 -0.0124908 0.785238
0.113206 -0.0124389 0.785676
0.114671 -0.0123891 0.786272
0.116189 -0.0123438 0.787236
0.117764 -0.0123031 0.788582
0.119383 -0.0122658 0.790209
0.121046 -0.0122316 0.792104
0.122756 -0.0122005 0.794277
0.124463 -0.0121681 0.796374
0.126133 -0.0121318 0.798167
0.127795 -0.012094 0.799865
0.129428 -0.012053 0.80133
0.131011 -0.0120075 0.802432
0.132574 -0.0119599 0.803368
0.134125 -0.011911 0.80421
0.135633 -0.0118584 0.804758
0.137128 -0.0118047 0.80521
0.138635 -0.0117517 0.805724
0.14012 -0.0116967 0.806091
0.141585 -0.0116402 0.806322
0.143059 -0.0115842 0.806604
0.144508 -0.0115263 0.806726
0.145968 -0.0114691 0.806911
0.147419 -0.0114112 0.807032
0.148923 -0.0113565 0.807458
0.150434 -0.0113022 0.807912
0.15199 -0.0112506 0.808615
0.153538 -0.0111979 0.809248
0.155128 -0.0111477 0.810109
0.156724 -0.0110974 0.810977
0.158341 -0.0110481 0.811943
0.160022 -0.0110021 0.813238
0.161799 -0.010961 0.815016
0.163683 -0.0109251 0.817326
0.0295643 -0.0154136 0.837937
0.0309952 -0.0153447 0.83738
0.0324119 -0.0152697 0.836413
0.0338281 -0.0151958 0.83552
0.0352521 -0.0151266 0.834922
0.0366671 -0.0150543 0.834121
0.0380804 -0.0149824 0.833339
0.0395038 -0.0149152 0.832861
0.0409261 -0.0148481 0.832388
0.0423378 -0.0147778 0.831694
0.0437506 -0.0147086 0.831072
0.0451492 -0.0146355 0.830179
0.0465328 -0.0145588 0.829031
0.0479116 -0.0144817 0.827853
0.0492877 -0.0144051 0.826693
0.0506534 -0.0143268 0.825407
0.0520349 -0.0142537 0.824476
0.0534267 -0.0141841 0.823773
0.0561093 -0.013639 0.797752
0.0570312 -0.0134786 0.790424
0.0581791 -0.0133725 0.78693
0.0594938 -0.0133039 0.786096
0.0607983 -0.0132338 0.785149
0.0621137 -0.0131665 0.784397
0.0634433 -0.0131024 0.783872
0.0647742 -0.0130388 0.783381
0.0661219 -0.0129786 0.783132
0.0674793 -0.0129201 0.783014
0.0688414 -0.0128624 0.782956
0.0702102 -0.0128058 0.782977
0.0716103 -0.0127541 0.783375
0.0730527 -0.0127086 0.784253
0.0745276 -0.0126675 0.785473
0.0760537 -0.0126332 0.787226
0.0775424 -0.0125923 0.788489
0.0790114 -0.0125476 0.789483
0.0804292 -0.0124953 0.789881
0.0818182 -0.0124386 0.789955
0.083168 -0.0123768 0.789613
0.0845757 -0.0123225 0.789873
0.0859885 -0.0122686 0.790172
0.0873832 -0.0122123 0.790276
0.0887732 -0.0121552 0.790327
0.0901734 -0.0120994 0.790471
0.091499 -0.0120347 0.789903
0.0927898 -0.0119664 0.789027
0.0941014 -0.0119007 0.788363
0.0954118 -0.0118352 0.787707
0.0967201 -0.0117697 0.787047
0.0980659 -0.0117084 0.78673
0.0994358 -0.0116496 0.786627
0.100786 -0.0115889 0.786358
0.102132 -0.0115279 0.786058
0.103469 -0.011466 0.785686
0.104816 -0.0114053 0.785406
0.106165 -0.0113448 0.785142
0.107522 -0.011285 0.784944
0.108886 -0.0112259 0.78481
0.110271 -0.0111687 0.784837
0.1117 -0.011115 0.785184
0.113184 -0.0110659 0.785941
0.114703 -0.0110191 0.786933
0.116266 -0.0109754 0.788218
0.117885 -0.0109355 0.78987
0.119528 -0.0108968 0.791652
0.121194 -0.0108591 0.793549
0.122885 -0.0108223 0.795578
0.124571 -0.0107844 0.797513
0.126197 -0.0107414 0.798995
0.127815 -0.0106973 0.800389
0.129426 -0.010652 0.801699
0.130996 -0.0106035 0.802709
0.132548 -0.0105533 0.803577
0.134099 -0.0105027 0.804416
0.135606 -0.0104489 0.804955
0.137076 -0.0103925 0.805248
0.138556 -0.0103367 0.805593
0.140013 -0.0102793 0.805789
0.141462 -0.0102213 0.805926
0.142937 -0.0101647 0.806216
0.1444 -0.0101073 0.806427
0.145863 -0.0100497 0.806628
0.147312 -0.00999131 0.806747
0.148814 -0.00993576 0.807164
0.15031 -0.00987964 0.807535
0.151867 -0.00982652 0.80824
0.153415 -0.00977286 0.808884
0.155006 -0.00972096 0.80975
0.156599 -0.00966896 0.810606
0.158214 -0.00961767 0.811564
0.159863 -0.00956768 0.812689
0.161623 -0.00952262 0.814382
0.163487 -0.00948183 0.816591
0.0294599 -0.0139426 0.836543
0.0308904 -0.0138752 0.836042
0.0323046 -0.0138016 0.835066
0.0337186 -0.0137289 0.834166
0.035141 -0.0136609 0.833587
0.0365544 -0.0135901 0.832802
0.0379718 -0.0135215 0.832178
0.0393993 -0.013457 0.831852
0.0408271 -0.0133928 0.83155
0.0422454 -0.0133259 0.831041
0.0436683 -0.0132609 0.830663
0.045078 -0.0131923 0.830021
0.0464737 -0.0131206 0.829126
0.0478624 -0.0130478 0.828139
0.0492487 -0.0129753 0.827165
0.0506194 -0.0128999 0.825954
0.0520024 -0.0128283 0.825032
0.0533963 -0.0127598 0.824348
0.0544585 -0.0126208 0.818026
0.0559972 -0.0122405 0.796922
0.0568787 -0.0120847 0.788972
0.0581081 -0.0120002 0.78676
0.059421 -0.0119326 0.785902
0.0607191 -0.0118628 0.784864
0.0620292 -0.0117957 0.784041
0.0633481 -0.0117306 0.783375
0.0646776 -0.0116676 0.782876
0.0660238 -0.0116075 0.782617
0.0673691 -0.0115473 0.782353
0.068719 -0.0114879 0.782152
0.0700795 -0.0114301 0.782088
0.0714602 -0.0113751 0.782266
0.0728811 -0.0113254 0.782913
0.074338 -0.0112801 0.783949
0.0758515 -0.0112413 0.785588
0.0773224 -0.0111963 0.786682
0.0787939 -0.0111506 0.787737
0.0802099 -0.0110976 0.788148
0.0816111 -0.0110425 0.788382
0.0829595 -0.0109813 0.788053
0.0843649 -0.0109265 0.788317
0.0857606 -0.0108704 0.788468
0.0871651 -0.0108152 0.788698
0.0885459 -0.0107573 0.788686
0.089937 -0.0107004 0.788768
0.0912682 -0.0106374 0.78828
0.0925723 -0.010572 0.787551
0.0938771 -0.0105071 0.786849
0.0951955 -0.0104435 0.786285
0.0965103 -0.0103798 0.785704
0.0978523 -0.0103188 0.785374
0.0992174 -0.0102599 0.785248
0.100564 -0.0101995 0.784971
0.10191 -0.010139 0.784689
0.103265 -0.0100793 0.784484
0.104631 -0.0100205 0.784369
0.105998 -0.00996186 0.784265
0.107373 -0.00990383 0.784224
0.108766 -0.00984707 0.784318
0.110171 -0.00979112 0.784507
0.11164 -0.00973968 0.785166
0.113164 -0.00969178 0.786226
0.114736 -0.0096468 0.787606
0.116345 -0.00960364 0.789212
0.118008 -0.00956344 0.791176
0.119665 -0.00952223 0.793045
0.121321 -0.00948013 0.794853
0.122991 -0.00943826 0.796717
0.124645 -0.00939457 0.798418
0.12625 -0.00934749 0.799753
0.127848 -0.00929949 0.801002
0.129448 -0.00925108 0.802233
0.131009 -0.00919992 0.803174
0.132558 -0.00914779 0.804021
0.134086 -0.00909429 0.804707
0.13558 -0.0090386 0.805156
0.137024 -0.00898022 0.805287
0.138478 -0.00892216 0.805467
0.139909 -0.00886282 0.805501
0.141342 -0.00880364 0.805545
0.142814 -0.00874628 0.805822
0.14429 -0.00868891 0.806113
0.145757 -0.00863112 0.806342
0.147208 -0.00857242 0.806474
0.148722 -0.00851644 0.806964
0.150218 -0.00845954 0.807334
0.151775 -0.00840505 0.808048
0.153337 -0.0083507 0.808769
0.15494 -0.00829764 0.809699
0.156517 -0.00824326 0.810471
0.158127 -0.00819002 0.811405
0.159747 -0.0081368 0.81237
0.161489 -0.00808793 0.81397
0.16332 -0.008042 0.816012
0.0307926 -0.0124129 0.834935
0.0322061 -0.0123411 0.83399
0.0336209 -0.0122708 0.833169
0.0350417 -0.0122036 0.832588
0.0364538 -0.012134 0.831807
0.0378724 -0.0120672 0.83126
0.0392989 -0.0120033 0.830943
0.0407286 -0.0119403 0.830722
0.0421495 -0.0118752 0.830304
0.0435753 -0.0118116 0.830016
0.0449918 -0.0117459 0.82954
0.0463984 -0.0116782 0.828884
0.0477965 -0.011609 0.828093
0.0491922 -0.01154 0.827302
0.0505726 -0.0114684 0.826263
0.0519601 -0.0113989 0.825412
0.0533534 -0.011331 0.824703
0.054434 -0.0112057 0.818677
0.0560383 -0.0108714 0.798573
0.056923 -0.0107287 0.790619
0.0581313 -0.0106437 0.788035
0.0593531 -0.0105624 0.785781
0.0606448 -0.0104933 0.78465
0.0619396 -0.0104252 0.783614
0.0632518 -0.0103602 0.782863
0.064576 -0.0102973 0.782302
0.0659154 -0.0102366 0.781965
0.0672545 -0.0101761 0.781633
0.0686024 -0.0101168 0.781422
0.069956 -0.0100582 0.781287
0.0713291 -0.0100019 0.781389
0.0727414 -0.00995015 0.78195
0.0741778 -0.00990079 0.782765
0.0756684 -0.0098569 0.784167
0.0771167 -0.00980766 0.785033
0.0785766 -0.00975925 0.785992
0.0799835 -0.00970484 0.786336
0.0813882 -0.00964993 0.78664
0.0827415 -0.00958992 0.786392
0.0841421 -0.00953439 0.786634
0.0855317 -0.00947771 0.786753
0.0869442 -0.00942294 0.78709
0.0883217 -0.00936501 0.787072
0.0897103 -0.00930783 0.787156
0.0910462 -0.00924626 0.786736
0.0923648 -0.00918335 0.786166
0.0936731 -0.00911986 0.785516
0.0950027 -0.00905824 0.785074
0.0963261 -0.00899638 0.784586
0.0976735 -0.00893633 0.784319
0.0990277 -0.00887682 0.784115
0.100372 -0.0088167 0.783831
0.101726 -0.00875724 0.78363
0.103099 -0.00869908 0.783587
0.104484 -0.00864181 0.783646
0.105871 -0.00858439 0.783706
0.107273 -0.00852807 0.783887
0.108703 -0.00847325 0.784275
0.110138 -0.00841865 0.784694
0.111647 -0.00836813 0.785655
0.113221 -0.00832109 0.787083
0.114829 -0.00827535 0.788717
0.116464 -0.0082305 0.790504
0.118144 -0.00818764 0.792577
0.119794 -0.00814226 0.79437
0.121429 -0.00809565 0.796017
0.123077 -0.00804908 0.797713
0.124697 -0.00800052 0.799177
0.126292 -0.00795031 0.800432
0.127891 -0.0078998 0.801678
0.129482 -0.00784859 0.802841
0.131032 -0.00779509 0.80371
0.132572 -0.00774083 0.804483
0.134075 -0.00768473 0.805007
0.135542 -0.0076269 0.805284
0.136973 -0.00756751 0.805325
0.138402 -0.00750793 0.805353
0.139819 -0.00744784 0.805303
0.141237 -0.00738776 0.805259
0.142707 -0.00732974 0.805524
0.144171 -0.00727123 0.805749
0.145651 -0.00721335 0.806058
0.147116 -0.00715473 0.806274
0.148644 -0.00709823 0.806843
0.150154 -0.00704102 0.807298
0.151726 -0.00698563 0.808092
0.153289 -0.00692971 0.808818
0.15489 -0.00687486 0.809743
0.156453 -0.00681848 0.810433
0.158034 -0.00676248 0.811207
0.159623 -0.00670648 0.812009
0.161332 -0.00665384 0.813438
0.163117 -0.00660296 0.815243
0.0307095 -0.0109592 0.834321
0.0321236 -0.0108893 0.83342
0.0335396 -0.0108209 0.832663
0.0349574 -0.0107538 0.832017
0.0363662 -0.0106847 0.831168
0.0377835 -0.0106187 0.830613
0.0392052 -0.0105541 0.830202
0.0406307 -0.0104906 0.829906
0.0420509 -0.0104262 0.829499
0.0434792 -0.0103637 0.829298
0.0448984 -0.0102995 0.828904
0.046316 -0.0102351 0.828495
0.0477222 -0.0101688 0.82788
0.0491229 -0.0101018 0.827189
0.0505122 -0.0100333 0.826317
0.0519004 -0.009965 0.825474
0.0532874 -0.00989722 0.824652
0.0544946 -0.00980158 0.820788
0.0570565 -0.00937934 0.793673
0.0581482 -0.00928176 0.789219
0.0592765 -0.00919159 0.78553
0.0605667 -0.00912392 0.784381
0.0618544 -0.00905664 0.783249
0.0631613 -0.00899213 0.78243
0.0644797 -0.00892936 0.7818
0.065813 -0.00886852 0.781392
0.0671453 -0.00880776 0.780983
0.0684914 -0.00874854 0.780762
0.0698383 -0.00868943 0.780556
0.0712103 -0.00863296 0.780659
0.0726164 -0.00857959 0.78116
0.074045 -0.00852808 0.781901
0.07551 -0.00847947 0.783024
0.0769409 -0.00842732 0.783718
0.078384 -0.00837584 0.784515
0.0797803 -0.00832008 0.784771
0.0811831 -0.00826462 0.785083
0.0825404 -0.00820542 0.784904
0.0839313 -0.00814881 0.785072
0.0853219 -0.00809218 0.785228
0.0867381 -0.00803716 0.785627
0.0881072 -0.00797871 0.78555
0.0894953 -0.00792152 0.785655
0.0908485 -0.00786185 0.785422
0.0921724 -0.00780039 0.784921
0.0934884 -0.00773841 0.78436
0.0948354 -0.00767863 0.784091
0.0961749 -0.00761844 0.78376
0.0975218 -0.00755879 0.7835
0.0988752 -0.00749949 0.7833
0.100228 -0.00744024 0.783097
0.101589 -0.00738152 0.782971
0.102979 -0.00732424 0.783077
0.104382 -0.00726763 0.783286
0.105797 -0.00721144 0.783575
0.107219 -0.00715557 0.783917
0.108687 -0.00710174 0.784603
0.110154 -0.00704767 0.78526
0.111695 -0.0069967 0.786461
0.113294 -0.00694804 0.78806
0.114934 -0.00690064 0.789924
0.116574 -0.00685264 0.791736
0.11825 -0.00680556 0.793756
0.11988 -0.00675594 0.795397
0.121492 -0.00670527 0.796872
0.123117 -0.00665456 0.798395
0.124727 -0.00660288 0.799784
0.126313 -0.00654985 0.800969
0.127922 -0.0064974 0.802278
0.129515 -0.00644389 0.803445
0.131054 -0.00638827 0.804234
0.132572 -0.00633163 0.804859
0.134061 -0.00627404 0.805289
0.135503 -0.00621467 0.805405
0.13692 -0.00615453 0.80536
0.138337 -0.00609426 0.80531
0.139743 -0.00603371 0.805189
0.141148 -0.00597317 0.805067
0.142616 -0.00591447 0.805325
0.144079 -0.0058554 0.805544
0.14556 -0.00579676 0.805857
0.14705 -0.00573822 0.806221
0.148591 -0.00568096 0.80687
0.150116 -0.00562302 0.807412
0.151691 -0.00556616 0.808218
0.153255 -0.00550875 0.808952
0.154843 -0.0054518 0.8098
0.156405 -0.00539405 0.810484
0.157959 -0.00533589 0.811111
0.159531 -0.00527805 0.811822
0.161223 -0.00522239 0.813163
0.162974 -0.0051675 0.814785
0.0320491 -0.00944153 0.833108
0.0334656 -0.00937449 0.832375
0.0348802 -0.00930757 0.831647
0.0362881 -0.0092396 0.83079
0.037702 -0.00917363 0.830157
0.0391225 -0.0091095 0.829733
0.0405469 -0.00904631 0.829426
0.0419657 -0.00898223 0.829006
0.043394 -0.00892003 0.828818
0.0448162 -0.00885693 0.828506
0.0462376 -0.0087937 0.828188
0.0476476 -0.00872901 0.827657
0.0490526 -0.00866367 0.827053
0.0504501 -0.00859758 0.82634
0.0518437 -0.00853133 0.825592
0.0532296 -0.00846443 0.824746
0.0545341 -0.00838749 0.822543
0.0555414 -0.00827522 0.815499
0.0572094 -0.00802194 0.797046
0.058194 -0.00791895 0.790848
0.0592996 -0.00783186 0.786771
0.0605043 -0.00775696 0.784342
0.0617862 -0.00769076 0.783123
0.063087 -0.00762693 0.782222
0.0643937 -0.00756402 0.781436
0.0657216 -0.0075032 0.780963
0.0670522 -0.00744283 0.780541
0.0683976 -0.00738383 0.78032
0.0697388 -0.00732453 0.78005
0.0711104 -0.00726773 0.780158
0.0725098 -0.00721287 0.78059
0.0739314 -0.00715953 0.781259
0.0753813 -0.00710778 0.782222
0.0768025 -0.00705376 0.782821
0.0782293 -0.00699978 0.783456
0.0796228 -0.00694341 0.783701
0.0810244 -0.00688733 0.784019
0.0823884 -0.00682886 0.783928
0.0837777 -0.00677189 0.784097
0.085168 -0.00671488 0.784265
0.086584 -0.00665917 0.784679
0.0879401 -0.00659998 0.784491
0.0893197 -0.00654212 0.784529
0.0906778 -0.00648308 0.78436
0.0920135 -0.00642304 0.783985
0.0933361 -0.0063623 0.783498
0.0947054 -0.00630398 0.783442
0.0960601 -0.00624493 0.783255
0.0974147 -0.00618585 0.78307
0.0987684 -0.00612679 0.782878
0.100122 -0.00606782 0.782684
0.101483 -0.00600912 0.782561
0.10288 -0.00595183 0.782738
0.104292 -0.00589501 0.783017
0.105725 -0.00583885 0.783458
0.107167 -0.00578292 0.78396
0.108657 -0.00572845 0.784816
0.110156 -0.00567419 0.785719
0.111739 -0.0056223 0.787233
0.113364 -0.00557139 0.789017
0.115035 -0.0055215 0.791101
0.116687 -0.00547039 0.792979
0.118349 -0.00541904 0.794892
0.119947 -0.00536551 0.796293
0.121537 -0.00531127 0.797598
0.123131 -0.0052569 0.798898
0.124732 -0.00520237 0.800215
0.12632 -0.00514712 0.801406
0.127931 -0.00509219 0.80273
0.129525 -0.00503642 0.803897
0.131065 -0.00497926 0.804684
0.132579 -0.00492125 0.805286
0.134046 -0.0048621 0.805562
0.135486 -0.00480224 0.805664
0.136892 -0.00474177 0.805545
0.138297 -0.00468113 0.805421
0.13969 -0.00462042 0.805223
0.141095 -0.00455976 0.805097
0.14254 -0.00449995 0.80521
0.143989 -0.00444015 0.805349
0.145467 -0.00438071 0.805653
0.14697 -0.0043216 0.806087
0.148515 -0.00426303 0.80676
0.150068 -0.0042044 0.807464
0.151656 -0.00414611 0.808349
0.15322 -0.00408729 0.809078
0.154808 -0.00402857 0.809923
0.15637 -0.00396943 0.810607
0.157897 -0.00390971 0.811084
0.159466 -0.00385035 0.811783
0.16114 -0.00379194 0.813024
0.162846 -0.00373369 0.814408
0.0319798 -0.00799588 0.83296
0.0333991 -0.00793039 0.832316
0.0348146 -0.00786467 0.831613
0.0362197 -0.00779742 0.830676
0.0376302 -0.00773173 0.829957
0.039047 -0.00766747 0.829444
0.0404671 -0.0076041 0.829044
0.0418818 -0.00753996 0.82854
0.043309 -0.0074779 0.828346
0.0447311 -0.00741517 0.828044
0.0461522 -0.00735248 0.827736
0.0475612 -0.00728833 0.827198
0.0489695 -0.00722426 0.826671
0.0503747 -0.00716022 0.826113
0.051778 -0.00709606 0.825547
0.0531661 -0.00703058 0.824737
0.0545606 -0.0069661 0.82408
0.0556828 -0.00687599 0.818901
0.0583268 -0.00655777 0.79382
0.059339 -0.00646925 0.788262
0.0604675 -0.00639197 0.784676
0.061745 -0.00632724 0.783385
0.0630405 -0.00626422 0.782402
0.0643361 -0.00620159 0.781459
0.0656524 -0.00614069 0.780829
0.0669717 -0.00608013 0.780262
0.0683115 -0.00602092 0.779974
0.0696465 -0.00596162 0.779635
0.0710176 -0.00590449 0.779744
0.0724151 -0.00584861 0.780161
0.0738293 -0.00579358 0.780752
0.0752697 -0.00573971 0.781616
0.0766828 -0.00568409 0.782136
0.0781003 -0.00562844 0.782679
0.0794934 -0.0055715 0.782934
0.0809006 -0.00551516 0.783325
0.0822786 -0.00545729 0.783393
0.0836839 -0.00540054 0.783734
0.0850897 -0.0053437 0.784065
0.0865204 -0.00528768 0.784628
0.087892 -0.00522928 0.784591
0.0892719 -0.00517115 0.784632
0.0906309 -0.00511229 0.784468
0.0919664 -0.0050525 0.784088
0.0932818 -0.00499228 0.783532
0.0946434 -0.00493355 0.783406
0.0959975 -0.00487458 0.783214
0.0973597 -0.00481589 0.783096
0.0987221 -0.0047572 0.782978
0.100084 -0.00469851 0.78286
0.101447 -0.00463981 0.782742
0.102844 -0.00458199 0.782914
0.104255 -0.00452451 0.783186
0.105706 -0.00446782 0.783772
0.10717 -0.00441134 0.784441
0.108692 -0.00435581 0.785543
0.110241 -0.00430071 0.78682
0.111859 -0.00424668 0.788586
0.11349 -0.00419244 0.790399
0.115155 -0.00413847 0.792418
0.116794 -0.00408363 0.79419
0.118415 -0.00402811 0.79579
0.11998 -0.00397126 0.796938
0.121558 -0.00391443 0.798153
0.123141 -0.00385738 0.799377
0.124735 -0.00380016 0.800634
0.126335 -0.0037428 0.801906
0.12795 -0.00368547 0.803249
0.129523 -0.00362726 0.804271
0.131051 -0.00356823 0.804974
0.132563 -0.00350895 0.805557
0.134018 -0.00344898 0.805756
0.13546 -0.0033888 0.805868
0.136879 -0.00332837 0.805827
0.138284 -0.00326774 0.805701
0.139665 -0.00320693 0.805419
0.141056 -0.0031463 0.80521
0.142486 -0.00308587 0.805234
0.14391 -0.0030254 0.805223
0.145399 -0.00296541 0.805591
0.146917 -0.00290544 0.806116
0.148465 -0.00284551 0.806802
0.150034 -0.00278555 0.8076
0.151634 -0.00272553 0.808549
0.153184 -0.00266515 0.809197
0.15477 -0.00260482 0.810032
0.156332 -0.00254426 0.810717
0.157845 -0.00248349 0.811117
0.159428 -0.00242272 0.811884
0.161086 -0.00236203 0.813042
0.162762 -0.00230105 0.81427
0.16577 -0.00368718 0.822183
0.164524 -0.00223997 0.815924
0.0333356 -0.00648687 0.832349
0.0347519 -0.0064222 0.831665
0.0361596 -0.00635666 0.830793
0.0375704 -0.00629193 0.830071
0.0389848 -0.00622801 0.82949
0.0404015 -0.00616453 0.829004
0.0418154 -0.00610102 0.82848
0.0432386 -0.00603868 0.828196
0.0446536 -0.0059756 0.827749
0.0460741 -0.00591318 0.827435
0.0474826 -0.00584974 0.826894
0.0488898 -0.00578643 0.826354
0.050299 -0.00572338 0.825881
0.0517076 -0.00566052 0.825417
0.0530976 -0.00559634 0.824641
0.0544914 -0.00553271 0.823971
0.0557155 -0.00545788 0.820494
0.0584425 -0.00518551 0.796535
0.0593918 -0.00510217 0.789957
0.0604434 -0.00502633 0.785197
0.0617176 -0.00496338 0.783846
0.0630072 -0.00490148 0.782765
0.0642914 -0.00483966 0.781657
0.0655912 -0.00477885 0.780802
0.0669044 -0.00471871 0.780154
0.0682435 -0.00465987 0.779859
0.0695727 -0.00460068 0.779448
0.0709374 -0.00454292 0.779483
0.0723273 -0.00448593 0.779814
0.0737276 -0.00442927 0.780249
0.075154 -0.00437327 0.780962
0.0765592 -0.00431639 0.781404
0.0779822 -0.00425993 0.782022
0.0793942 -0.00420302 0.782494
0.0808167 -0.00414619 0.783056
0.0822231 -0.00408886 0.783425
0.0836511 -0.00403184 0.783999
0.0850666 -0.0039744 0.784424
0.0864846 -0.003917 0.784854
0.0878602 -0.00385848 0.784851
0.0892325 -0.00379989 0.784813
0.0905999 -0.00374118 0.784727
0.0919468 -0.0036821 0.784448
0.0932866 -0.00362295 0.784109
0.0946571 -0.00356425 0.784055
0.0960199 -0.00350555 0.78393
0.0973835 -0.0034468 0.783811
0.0987392 -0.00338791 0.783625
0.100094 -0.003329 0.783433
0.101456 -0.00327034 0.783307
0.102863 -0.00321205 0.783543
0.104284 -0.00315398 0.783894
0.105765 -0.00309627 0.78471
0.10726 -0.00303858 0.785609
0.108814 -0.00298124 0.786942
0.110395 -0.0029239 0.788455
0.112029 -0.0028666 0.790314
0.113654 -0.00280894 0.792068
0.115302 -0.0027511 0.793938
0.1169 -0.00269269 0.79539
0.11847 -0.0026338 0.796601
0.120022 -0.00257475 0.797656
0.121582 -0.00251541 0.798735
0.123157 -0.00245604 0.799891
0.124761 -0.00239648 0.801217
0.126363 -0.00233674 0.802491
0.127958 -0.00227674 0.803692
0.129532 -0.00221659 0.804716
0.131057 -0.00215611 0.805401
0.132559 -0.00209559 0.805909
0.134015 -0.00203506 0.806112
0.135461 -0.00197439 0.806245
0.136881 -0.00191382 0.806207
0.138288 -0.00185314 0.806087
0.139666 -0.00179268 0.805786
0.141056 -0.0017321 0.805564
0.142473 -0.00167151 0.805502
0.143883 -0.00161086 0.805403
0.14537 -0.00154992 0.805759
0.14689 -0.00148879 0.806294
0.148442 -0.00142746 0.807003
0.150014 -0.00136593 0.807811
0.151612 -0.00130416 0.808751
0.15316 -0.00124245 0.809384
0.154732 -0.00118057 0.81014
0.156282 -0.00111864 0.810755
0.157794 -0.00105699 0.811153
0.159391 -0.000994532 0.811994
0.161037 -0.0009317 0.813087
0.162714 -0.000868458 0.814319
0.164461 -0.000804539 0.815893
0.167458 -0.00217937 0.823661
0.166258 -0.000739874 0.817705
0.0332703 -0.00504277 0.832324
0.0346875 -0.00497912 0.831661
0.0360997 -0.0049153 0.830913
0.037511 -0.00485157 0.830199
0.0389292 -0.0047888 0.829707
0.0403466 -0.004726 0.829226
0.0417638 -0.00466325 0.828768
0.0431837 -0.00460086 0.828395
0.044595 -0.00453807 0.827858
0.0460075 -0.00447543 0.827373
0.0474115 -0.00441248 0.82674
0.0488142 -0.0043496 0.826116
0.050224 -0.00428724 0.825659
0.0516291 -0.00422482 0.825135
0.0530233 -0.00416193 0.824443
0.054416 -0.00409918 0.823757
0.0557169 -0.00403311 0.821566
0.0567513 -0.00395788 0.815147
0.0585644 -0.00380404 0.799354
0.0595196 -0.00373153 0.792784
0.0604932 -0.003661 0.786802
0.0617059 -0.00359823 0.784529
0.0629908 -0.00353775 0.783366
0.0642692 -0.00347737 0.782163
0.0655575 -0.0034175 0.781142
0.0668653 -0.00335815 0.780413
0.0681934 -0.00329943 0.779972
0.0695168 -0.00324063 0.779485
0.0708688 -0.00318234 0.779363
0.0722406 -0.0031243 0.779479
0.0736324 -0.00306658 0.779821
0.0750526 -0.00300919 0.780471
0.0764631 -0.00295149 0.780981
0.0778942 -0.00289391 0.781697
0.0793274 -0.00283619 0.782405
0.0807715 -0.00277844 0.783199
0.0822082 -0.00272045 0.783883
0.0836528 -0.0026624 0.784621
0.0850769 -0.00260402 0.78512
0.0864859 -0.00254549 0.78545
0.0878595 -0.00248679 0.785417
0.0892311 -0.00242801 0.785363
0.0906101 -0.0023692 0.785375
0.0919762 -0.00231041 0.785265
0.093343 -0.0022516 0.78516
0.0947241 -0.0021928 0.785185
0.0960976 -0.00213389 0.785136
0.0974638 -0.00207508 0.785023
0.0988212 -0.0020163 0.784833
0.100177 -0.00195745 0.784631
0.101549 -0.0018986 0.784563
0.102958 -0.00183967 0.78481
0.104393 -0.00178061 0.78525
0.105905 -0.00172118 0.786293
0.107424 -0.00166155 0.787371
0.108994 -0.00160149 0.788806
0.110581 -0.00154122 0.790333
0.112207 -0.00148046 0.792111
0.113786 -0.00141978 0.79349
0.115401 -0.00135874 0.795099
0.116957 -0.00129781 0.796234
0.118495 -0.00123686 0.797203
0.12005 -0.00117572 0.79827
0.121612 -0.00111428 0.799357
0.12318 -0.00105278 0.800459
0.124795 -0.000990605 0.801847
0.126394 -0.000928471 0.803101
0.127956 -0.000866486 0.804071
0.129528 -0.000804265 0.805082
0.131053 -0.000742538 0.805757
0.132556 -0.000680887 0.806272
0.134027 -0.000619603 0.806563
0.135499 -0.000558146 0.806857
0.136935 -0.000497217 0.806907
0.138342 -0.000436502 0.806781
0.139709 -0.000376423 0.806408
0.141086 -0.000316131 0.806095
0.142477 -0.000255793 0.805878
0.143874 -0.000195286 0.805692
0.14535 -0.000133714 0.805978
0.146868 -7.1497e-05 0.806499
0.148422 -8.6295e-06 0.80722
0.149993 5.45347e-05 0.808021
0.151592 0.00011812 0.808959
0.153151 0.000181288 0.809659
0.154711 0.000244554 0.810345
0.156261 0.000307673 0.810956
0.157788 0.000370536 0.811429
0.1594 0.000434783 0.812355
0.161051 0.000499907 0.813468
0.162746 0.000565791 0.814794
0.164477 0.000632462 0.816285
0.166272 0.000700244 0.818074
0.0346298 -0.00353632 0.831859
0.0360462 -0.00347369 0.831216
0.037461 -0.00341116 0.830576
0.0388807 -0.00334886 0.830105
0.0402994 -0.00328662 0.829633
0.041717 -0.00322452 0.829169
0.0431373 -0.00316246 0.828788
0.044549 -0.00310031 0.828242
0.0459582 -0.00303819 0.827672
0.0473578 -0.00297598 0.826938
0.0487562 -0.00291384 0.826221
0.0501619 -0.00285204 0.825682
0.0515628 -0.00279014 0.825078
0.052957 -0.00272823 0.824386
0.0543441 -0.00266642 0.823602
0.0557152 -0.00260455 0.822591
0.0568371 -0.00254066 0.817563
0.0606403 -0.00229032 0.789842
0.0617774 -0.00223083 0.786408
0.0629834 -0.00217184 0.784095
0.0642571 -0.00211327 0.782809
0.0655353 -0.00205497 0.781635
0.0668384 -0.00199664 0.780834
0.0681555 -0.00193832 0.780241
0.0694731 -0.0018801 0.779675
0.0708126 -0.00182195 0.779395
0.0721713 -0.00176363 0.779352
0.0735505 -0.00170515 0.779548
0.0749639 -0.00164652 0.780124
0.0763684 -0.00158783 0.780575
0.0778313 -0.00152859 0.78165
0.0792999 -0.00146914 0.782744
0.0807775 -0.00140957 0.783891
0.082252 -0.00134975 0.784958
0.0837317 -0.00128987 0.786039
0.0851376 -0.0012306 0.786329
0.0865246 -0.00117146 0.786419
0.0878966 -0.00111253 0.786353
0.0892619 -0.0010537 0.786222
0.0906459 -0.000994522 0.786269
0.0920395 -0.000935348 0.786399
0.0934346 -0.000876023 0.786536
0.0948277 -0.000816766 0.786647
0.0962206 -0.000757489 0.786749
0.0975907 -0.000698445 0.786644
0.0989511 -0.000639569 0.786456
0.100317 -0.000580752 0.786313
0.101699 -0.000521496 0.786309
0.103122 -0.000461653 0.786641
0.104581 -0.000401151 0.78726
0.10612 -0.000339131 0.788488
0.107654 -0.000277217 0.789652
0.10922 -0.000214428 0.791026
0.110782 -0.000151709 0.79233
0.11237 -8.83396e-05 0.793795
0.113896 -2.60178e-05 0.794755
0.115457 3.69799e-05 0.795951
0.116981 9.95052e-05 0.796833
0.118499 0.000161853 0.797654
0.120057 0.000225137 0.798733
0.121633 0.000288837 0.799914
0.123205 0.000352636 0.801037
0.124818 0.000417343 0.802409
0.126416 0.000481836 0.803648
0.127954 0.000545185 0.804447
0.129513 0.000608992 0.805369
0.131039 0.000672186 0.806043
0.132544 0.000735023 0.806573
0.13403 0.000797369 0.806957
0.135526 0.000860026 0.807399
0.136964 0.000921331 0.807461
0.138373 0.000982128 0.807336
0.139741 0.00104181 0.806958
0.141106 0.00110153 0.806571
0.142474 0.00116119 0.806208
0.143858 0.00122124 0.805939
0.145318 0.00128322 0.80613
0.146822 0.00134616 0.806568
0.148374 0.00141044 0.807276
0.149945 0.00147512 0.808078
0.151559 0.00154097 0.809099
0.153132 0.00160589 0.809875
0.154694 0.00167058 0.810567
0.156245 0.00173502 0.811184
0.157798 0.00179951 0.811799
0.159428 0.00186611 0.812817
0.161099 0.00193385 0.814034
0.162811 0.00200265 0.815444
0.164542 0.00207204 0.81693
0.16632 0.00214279 0.818626
0.0345693 -0.00209271 0.831976
0.0359895 -0.00203099 0.831429
0.0374122 -0.00196924 0.830984
0.0388355 -0.0019075 0.830585
0.0402552 -0.00184584 0.830119
0.0416743 -0.00178414 0.829665
0.0430955 -0.00172259 0.829286
0.0445049 -0.00166113 0.828667
0.0459109 -0.00159979 0.828013
0.0473069 -0.00153867 0.827193
0.0487003 -0.00147754 0.82637
0.0501013 -0.00141647 0.825732
0.0514932 -0.00135555 0.82496
0.0528865 -0.00129459 0.824254
0.054267 -0.00123401 0.823357
0.0556349 -0.00117372 0.822295
0.0568447 -0.00111645 0.818705
0.0578634 -0.00247681 0.811281
0.0579847 -0.00106091 0.814191
0.0607864 -0.000909307 0.792872
0.0618435 -0.000857068 0.788214
0.0629655 -0.000803675 0.784678
0.0642403 -0.000746959 0.783391
0.0655134 -0.000690513 0.782134
0.0668118 -0.000633384 0.781259
0.0681192 -0.000576224 0.780531
0.0694302 -0.000518882 0.779876
0.0707576 -0.000461272 0.779442
0.0721029 -0.000403188 0.779237
0.073469 -0.000344534 0.77928
0.0748745 -0.000284912 0.77977
0.0763151 -0.000224292 0.780635
0.0778201 -0.000161895 0.782178
0.0793352 -9.91585e-05 0.783768
0.0808517 -3.63052e-05 0.785311
0.0823633 2.65711e-05 0.786744
0.0838278 8.81903e-05 0.787636
0.0852135 0.00014763 0.787695
0.0865868 0.000206706 0.787623
0.087959 0.000265804 0.787539
0.0893202 0.000324556 0.787349
0.0907228 0.000384441 0.787552
0.0921442 0.000444946 0.787922
0.0935588 0.00050525 0.788213
0.0949644 0.000565383 0.78841
0.0963847 0.000625909 0.78873
0.0977594 0.000685154 0.788634
0.099125 0.000744004 0.78846
0.100502 0.000803284 0.788386
0.101898 0.000863108 0.788466
0.103336 0.000924244 0.788894
0.10482 0.00098689 0.789681
0.106382 0.0010519 0.791066
0.107922 0.00111635 0.792237
0.109491 0.00118171 0.793605
0.111016 0.00124582 0.794593
0.112553 0.00131035 0.79564
0.114026 0.00137281 0.796172
0.115536 0.00143649 0.796965
0.117019 0.00149933 0.79754
0.118519 0.00156285 0.798223
0.120089 0.00162854 0.799378
0.121668 0.00169461 0.800576
0.123243 0.00176055 0.801708
0.124847 0.00182755 0.803015
0.126444 0.00189437 0.804235
0.12796 0.0019586 0.804879
0.129519 0.0020242 0.805798
0.131057 0.00208916 0.806551
0.132566 0.00215319 0.807091
0.134065 0.00221687 0.807557
0.135576 0.00228102 0.808087
0.137016 0.00234282 0.808152
0.138427 0.00240356 0.808031
0.139807 0.00246329 0.807726
0.141172 0.00252248 0.807327
0.142541 0.00258184 0.806958
0.143913 0.00264131 0.806616
0.145359 0.00270327 0.806713
0.146836 0.00276629 0.806987
0.148373 0.00283135 0.807601
0.149921 0.00289687 0.808265
0.151535 0.0029647 0.809293
0.153113 0.00303141 0.81009
0.154677 0.00309754 0.810794
0.156228 0.00316323 0.811407
0.157809 0.00323001 0.812177
0.159457 0.00329922 0.813289
0.161161 0.00337036 0.814676
0.162906 0.00344298 0.816258
0.164652 0.00351569 0.817813
0.16643 0.00358962 0.8195
0.0359364 -0.000587188 0.831742
0.0373662 -0.000525572 0.831473
0.0387942 -0.000464079 0.831167
0.0402171 -0.000402845 0.830755
0.041637 -0.00034178 0.830295
0.0430594 -0.000280577 0.829915
0.0444704 -0.000219829 0.829304
0.0458785 -0.000159356 0.828671
0.0472756 -9.9259e-05 0.827847
0.048666 -3.95934e-05 0.826937
0.0500579 2.02311e-05 0.82611
0.0514366 7.93925e-05 0.825082
0.0528208 0.000138913 0.824206
0.0541924 0.000197807 0.823158
0.0555597 0.000256482 0.822088
0.0568446 0.000311288 0.819723
0.0580788 0.000363839 0.816674
0.0589428 -0.00100927 0.807092
0.0591311 0.00040796 0.81096
0.0610824 0.000489166 0.798117
0.0620679 0.000530358 0.792295
0.0631152 0.000574428 0.787612
0.0643119 0.000625501 0.785184
0.0655082 0.00067655 0.782858
0.0668009 0.000732065 0.78189
0.0680924 0.00078752 0.780944
0.0693822 0.000842921 0.780012
0.0706969 0.000899427 0.779419
0.0720978 0.000959902 0.779881
0.0735277 0.00102175 0.780663
0.0749964 0.00108532 0.781854
0.076502 0.00115051 0.783416
0.078056 0.00121793 0.78545
0.0795473 0.00128254 0.786721
0.0810336 0.00134679 0.787888
0.0825157 0.00141098 0.788965
0.0839533 0.00147305 0.78954
0.0853185 0.00153181 0.789357
0.0866727 0.00159017 0.789066
0.0880391 0.00164899 0.7889
0.0894034 0.00170782 0.788717
0.0908102 0.00176842 0.788938
0.0922423 0.00183025 0.789385
0.0936757 0.00189212 0.789825
0.0950925 0.00195326 0.790098
0.0965254 0.00201516 0.790504
0.09792 0.0020753 0.790556
0.0992983 0.00213459 0.790463
0.100689 0.0021946 0.790474
0.102107 0.00225575 0.79071
0.103577 0.0023193 0.791371
0.105077 0.00238411 0.79225
0.106645 0.00245201 0.793652
0.108178 0.0025183 0.794734
0.10972 0.00258498 0.795852
0.111188 0.00264842 0.79637
0.112665 0.00271218 0.796938
0.114095 0.00277389 0.797134
0.115564 0.00283729 0.797611
0.117019 0.00290011 0.797965
0.11851 0.00296449 0.798575
0.120088 0.00303281 0.799794
0.12167 0.00310126 0.800997
0.123245 0.00316933 0.802127
0.124851 0.00323888 0.803443
0.126448 0.00330802 0.804658
0.127954 0.00337303 0.805237
0.129537 0.0034415 0.806305
0.13109 0.00350864 0.807151
0.132613 0.00357448 0.807779
0.134125 0.00363967 0.808319
0.135648 0.00370552 0.808914
0.137079 0.00376715 0.808914
0.138491 0.00382796 0.808797
0.139872 0.00388742 0.808482
0.141239 0.00394627 0.808088
0.142596 0.00400467 0.807642
0.143968 0.00406373 0.80729
0.145389 0.00412492 0.807232
0.146839 0.00418739 0.807341
0.148361 0.00425314 0.807865
0.149894 0.00431937 0.808446
0.151499 0.00438876 0.809411
0.15309 0.00445759 0.810287
0.154669 0.00452573 0.811068
0.156222 0.0045928 0.811691
0.157846 0.00466304 0.81269
0.159512 0.00473513 0.813897
0.161251 0.0048105 0.815469
0.163029 0.00488744 0.817216
0.164809 0.00496453 0.818941
0.166576 0.00504112 0.820565
0.0358763 0.000857209 0.831864
0.0373106 0.00091889 0.831703
0.0387426 0.000980442 0.831492
0.0401707 0.00104167 0.83119
0.0415932 0.00110235 0.83077
0.0430195 0.0011634 0.830458
0.0444344 0.00122354 0.829912
0.0458444 0.00128342 0.829293
0.0472402 0.00134208 0.82842
0.0486313 0.00140051 0.827505
0.0500192 0.00145871 0.826579
0.0513934 0.00151598 0.825449
0.0527689 0.00157351 0.824405
0.0541404 0.00163082 0.823346
0.0555042 0.00168759 0.822209
0.0568593 0.00174385 0.820989
0.0581744 0.0017973 0.819188
0.0593157 0.00183821 0.814781
0.0601658 0.000451287 0.80527
0.0604433 0.00187861 0.810388
0.0634619 0.00197652 0.793315
0.0646475 0.00202254 0.7906
0.0658343 0.00206899 0.78802
0.0671332 0.00212327 0.787017
0.0684208 0.00217679 0.785907
0.0697115 0.00223064 0.784879
0.0710327 0.00228658 0.784264
0.0724286 0.00234756 0.784567
0.0738488 0.00241011 0.785138
0.0753084 0.00247514 0.786139
0.0768015 0.00254231 0.787476
0.0783208 0.00261094 0.789049
0.079784 0.00267593 0.789947
0.0812332 0.00274002 0.790658
0.0826728 0.00280341 0.791238
0.0840743 0.0028643 0.791401
0.0854252 0.00292199 0.791039
0.0867665 0.00297919 0.79059
0.088129 0.00303767 0.790359
0.089511 0.0030974 0.790322
0.0909201 0.0031587 0.790539
0.0923549 0.0032216 0.790985
0.093791 0.00328457 0.791425
0.0952104 0.0033465 0.791697
0.0966467 0.00340941 0.792108
0.0980539 0.00347053 0.792246
0.0994609 0.0035316 0.792377
0.100882 0.0035935 0.792622
0.102323 0.00365659 0.793022
0.1038 0.00372176 0.793704
0.105303 0.00378851 0.794576
0.106848 0.00385754 0.795755
0.108355 0.00392432 0.796603
0.10986 0.00399095 0.797409
0.111288 0.00405304 0.797597
0.112726 0.00411572 0.79785
0.114135 0.0041768 0.797875
0.115586 0.00424013 0.798209
0.117043 0.00430384 0.79857
0.118544 0.00437004 0.799243
0.120104 0.00443957 0.800319
0.121672 0.0045095 0.801426
0.123226 0.00457856 0.802406
0.12481 0.00464924 0.803561
0.126397 0.0047201 0.804713
0.127937 0.00478821 0.805515
0.129537 0.00485967 0.806694
0.131117 0.00493003 0.807715
0.132666 0.00499851 0.808503
0.13419 0.0050655 0.809112
0.135713 0.00513254 0.809702
0.137144 0.00519436 0.80969
0.138559 0.00525538 0.809579
0.139929 0.00531395 0.809194
0.141285 0.00537168 0.808724
0.14263 0.00542878 0.808197
0.14399 0.00548685 0.807765
0.145387 0.00554684 0.807558
0.146833 0.00560958 0.807648
0.148342 0.00567565 0.80809
0.149859 0.00574219 0.808575
0.151461 0.00581331 0.809528
0.153052 0.0058837 0.810395
0.154632 0.0059536 0.811186
0.156213 0.00602343 0.811961
0.157869 0.00609725 0.81313
0.159554 0.00617268 0.814437
0.16134 0.0062534 0.816257
0.163137 0.0063346 0.818101
0.16494 0.00641615 0.819939
0.167392 0.0065321 0.825133
0.03726 0.00236508 0.832073
0.038692 0.00242631 0.831841
0.0401204 0.00248718 0.83153
0.0415444 0.00254756 0.83113
0.0429759 0.00260892 0.83092
0.044395 0.00266881 0.830448
0.0458099 0.0027283 0.82991
0.0472114 0.00278628 0.829129
0.0486048 0.00284351 0.828231
0.0499859 0.00289956 0.827149
0.0513554 0.00295457 0.825915
0.0527222 0.00300943 0.824699
0.0540896 0.00306467 0.823558
0.0554497 0.00311935 0.822349
0.0568101 0.00317431 0.82121
0.0581881 0.0032312 0.820404
0.0594134 0.00327308 0.817263
0.0606254 0.00331413 0.814075
0.0614388 0.00190992 0.80426
0.0617231 0.00334475 0.809354
0.0638255 0.00339966 0.799267
0.0650042 0.00344027 0.796316
0.0661898 0.0034819 0.793586
0.0674894 0.0035342 0.792467
0.06879 0.00358687 0.791404
0.0700845 0.00363905 0.790305
0.0714145 0.00369456 0.789681
0.0728133 0.00375599 0.789909
0.0742262 0.00381872 0.790287
0.0756731 0.00388426 0.79104
0.0771483 0.00395196 0.792079
0.0786351 0.00402048 0.793204
0.080058 0.00408364 0.793585
0.0814618 0.00414511 0.793743
0.0828511 0.00420537 0.793738
0.0842151 0.00426361 0.793468
0.0855317 0.00431811 0.792722
0.0868462 0.00437238 0.791975
0.0882034 0.00443025 0.791669
0.0895876 0.00449011 0.791629
0.0909922 0.00455164 0.791782
0.0924281 0.0046155 0.792219
0.0938643 0.00467939 0.79264
0.0952857 0.00474197 0.792911
0.0967251 0.00480594 0.793329
0.0981517 0.00486896 0.793621
0.0995796 0.00493192 0.793911
0.101025 0.00499618 0.794334
0.102479 0.0050611 0.794824
0.103968 0.00512838 0.795578
0.105464 0.0051961 0.796371
0.106981 0.00526532 0.797305
0.10846 0.0053317 0.797908
0.109927 0.00539707 0.798392
0.111327 0.00545774 0.798351
0.112736 0.00551892 0.798373
0.114138 0.00557965 0.798333
0.11558 0.00564315 0.798596
0.117058 0.00570911 0.799108
0.118572 0.00577759 0.79987
0.120114 0.00584788 0.800809
0.121679 0.00591967 0.801887
0.123229 0.00599024 0.802829
0.12479 0.00606158 0.803825
0.126379 0.00613478 0.804983
0.127954 0.00620685 0.806022
0.12957 0.00628166 0.807305
0.131167 0.00635488 0.808426
0.13272 0.0064252 0.809239
0.134233 0.00649278 0.809768
0.135745 0.00656021 0.810277
0.137163 0.00662142 0.810181
0.138578 0.00668242 0.810063
0.139962 0.00674136 0.809758
0.141331 0.0067993 0.809358
0.142689 0.00685665 0.808902
0.144061 0.00691479 0.808533
0.145458 0.00697473 0.808324
0.146895 0.00703714 0.808348
0.148377 0.00710242 0.808627
0.149878 0.007169 0.809015
0.151452 0.00724014 0.809801
0.153028 0.00731134 0.810585
0.154623 0.00738371 0.811456
0.156235 0.007457 0.812399
0.157925 0.0075352 0.813751
0.159628 0.0076142 0.815149
0.161446 0.00770021 0.817137
0.163247 0.00778506 0.818994
0.165723 0.00791186 0.824374
0.038641 0.00387349 0.832184
0.0400732 0.00393468 0.831947
0.0415011 0.00399508 0.831621
0.0429332 0.00405629 0.831405
0.0443564 0.0041161 0.831
0.0457688 0.00417438 0.83039
0.0471752 0.00423193 0.829689
0.0485738 0.00428849 0.828873
0.0499562 0.00434295 0.827792
0.0513231 0.00439561 0.826486
0.0526854 0.00444795 0.82517
0.0540488 0.00450083 0.823943
0.0554042 0.00455292 0.822643
0.056766 0.00460623 0.821515
0.0581391 0.0046613 0.820619
0.0594429 0.00470785 0.818688
0.0607353 0.00475356 0.816677
0.0619192 0.00478649 0.813159
0.0627898 0.00337327 0.804413
0.0630722 0.00481652 0.809363
0.0641955 0.00484411 0.805323
0.065375 0.00487912 0.802236
0.0665595 0.00491544 0.799355
0.0678631 0.0049659 0.798157
0.0691734 0.00501735 0.797092
0.0704779 0.00506837 0.795995
0.071812 0.00512271 0.795303
0.0732114 0.00518435 0.795421
0.0746143 0.0052462 0.795571
0.0760346 0.00530981 0.795911
0.0774877 0.00537675 0.796606
0.0789234 0.00544174 0.797078
0.0802994 0.00550055 0.796873
0.0816622 0.00555809 0.796531
0.0830027 0.00561341 0.795961
0.084328 0.00566747 0.79525
0.085644 0.00572055 0.794465
0.0869594 0.00577375 0.793698
0.088313 0.0058307 0.793327
0.0897 0.00589098 0.793287
0.0910986 0.00595216 0.793354
0.0925217 0.00601569 0.793645
0.0939438 0.00607905 0.793915
0.0953587 0.00614161 0.794106
0.0967911 0.00620574 0.794445
0.0982291 0.00627033 0.794817
0.0996704 0.00633518 0.795206
0.10112 0.00640065 0.79565
0.102588 0.00646765 0.796234
0.104069 0.00653574 0.796905
0.105547 0.00660338 0.797526
0.107035 0.00667173 0.798211
0.108494 0.00673758 0.798643
0.109932 0.00680145 0.798889
0.111323 0.00686142 0.798773
0.112723 0.00692211 0.79872
0.114135 0.0069838 0.798752
0.115579 0.00704807 0.799024
0.117081 0.00711706 0.799707
0.118601 0.00718745 0.800507
0.120133 0.00725878 0.801369
0.121687 0.00733169 0.80236
0.123241 0.00740438 0.803321
0.124793 0.00747697 0.804251
0.126406 0.0075541 0.80557
0.128019 0.00763114 0.806855
0.129661 0.0077103 0.8083
0.131262 0.00778601 0.809439
0.132815 0.00785793 0.810241
0.134307 0.00792485 0.810623
0.135794 0.0079914 0.81096
0.137199 0.00805164 0.810778
0.138615 0.00811261 0.810658
0.140003 0.00817148 0.810366
0.141387 0.00823009 0.810054
0.142757 0.00828777 0.809667
0.144131 0.00834562 0.809303
0.14553 0.00840542 0.809093
0.146969 0.00846831 0.809123
0.148439 0.00853337 0.809324
0.149929 0.00859979 0.809636
0.151486 0.0086712 0.810321
0.153062 0.00874399 0.8111
0.15466 0.00881818 0.811981
0.15629 0.00889473 0.813026
0.157999 0.00897684 0.814476
0.159721 0.0090597 0.815966
0.161554 0.00915037 0.818024
0.16337 0.00923958 0.819954
0.0400192 0.00538216 0.8322
0.04145 0.00544283 0.831931
0.0428833 0.00550405 0.831727
0.0443114 0.00556425 0.831417
0.0457281 0.00562241 0.830878
0.0471428 0.00568038 0.83033
0.0485469 0.0057366 0.829597
0.0499314 0.00578963 0.828531
0.0512988 0.00584019 0.82721
0.0526532 0.00588896 0.825724
0.0540078 0.00593835 0.824325
0.0553585 0.00598765 0.822932
0.0567207 0.00603928 0.8218
0.0580893 0.00609221 0.820824
0.0594667 0.0061468 0.820028
0.0608313 0.00619985 0.819075
0.0620994 0.00623889 0.816737
0.0633392 0.00627468 0.814098
0.0645498 0.00630705 0.81117
0.0657339 0.00633672 0.808007
0.0669212 0.00636784 0.805026
0.0682223 0.00641513 0.803668
0.0695363 0.00646465 0.802529
0.0708452 0.00651379 0.801369
0.072184 0.00656697 0.800621
0.0735851 0.00662845 0.800649
0.0749867 0.00668979 0.800678
0.0763856 0.00675086 0.80067
0.0777829 0.00681172 0.80064
0.079161 0.00687017 0.800391
0.080482 0.00692183 0.799524
0.0817904 0.00697222 0.798548
0.0830896 0.00702168 0.797506
0.0844112 0.00707396 0.796728
0.0857287 0.00712599 0.795931
0.0870395 0.00717738 0.795091
0.0883871 0.00723313 0.794636
0.0897686 0.0072927 0.794522
0.0911616 0.00735345 0.794515
0.0925695 0.00741585 0.794645
0.0939914 0.00747972 0.794896
0.0954072 0.0075429 0.79508
0.0968343 0.00760714 0.795355
0.0982822 0.00767353 0.795802
0.0997328 0.00774007 0.796256
0.101185 0.00780662 0.796709
0.102655 0.00787491 0.797291
0.104128 0.00794342 0.797879
0.105588 0.0080104 0.798343
0.107047 0.00807718 0.79878
0.108495 0.00814282 0.799116
0.109906 0.00820464 0.799147
0.111298 0.00826467 0.799028
0.112699 0.00832545 0.798977
0.11412 0.00838831 0.79908
0.115566 0.00845349 0.799363
0.11708 0.00852502 0.800132
0.118603 0.0085972 0.800947
0.120128 0.00866945 0.80175
0.12168 0.008744 0.80272
0.123234 0.0088186 0.803681
0.124811 0.00889505 0.804775
0.126442 0.00897649 0.806216
0.128093 0.00905927 0.80775
0.129748 0.00914218 0.809271
0.131347 0.00921984 0.810388
0.132888 0.00929204 0.811095
0.134377 0.00935963 0.811453
0.13584 0.00942477 0.811628
0.137233 0.0094838 0.811359
0.138637 0.00954365 0.811157
0.140014 0.00960133 0.810797
0.141389 0.0096588 0.810427
0.142765 0.00971639 0.810061
0.144165 0.00977605 0.809852
0.14558 0.009837 0.809729
0.147035 0.00990143 0.809845
0.148506 0.00996711 0.810048
0.150007 0.0100352 0.810415
0.151538 0.0101058 0.810949
0.153117 0.0101803 0.811735
0.154729 0.0102574 0.812691
0.156393 0.0103386 0.813911
0.15812 0.0104248 0.815455
0.160404 0.0105563 0.819992
0.162808 0.0106969 0.825084
0.0387364 0.00682463 0.837954
0.0399579 0.00682892 0.832275
0.0413957 0.00689095 0.832166
0.0428356 0.00695354 0.832103
0.0442724 0.00701531 0.831967
0.045698 0.00707456 0.831593
0.047122 0.00713368 0.831207
0.048532 0.00718987 0.83056
0.0499189 0.00724154 0.829507
0.0512842 0.00728926 0.828112
0.0526344 0.00733474 0.826523
0.0539794 0.00737985 0.824929
0.0553215 0.00742518 0.82337
0.0566751 0.00747331 0.822082
0.0580397 0.00752402 0.821031
0.0594174 0.00757751 0.820234
0.0607834 0.00762923 0.819294
0.0621154 0.00767552 0.817892
0.0634268 0.00771881 0.816255
0.0647079 0.00775762 0.814265
0.0659725 0.00779458 0.812133
0.0672341 0.00783193 0.810055
0.0685378 0.0078766 0.808615
0.0698636 0.00792511 0.807517
0.0711892 0.00797404 0.80646
0.0725292 0.00802557 0.805619
0.0738649 0.00807663 0.804755
0.0751983 0.00812755 0.803894
0.0765173 0.00817676 0.802896
0.0778345 0.00822598 0.801911
0.0791472 0.00827477 0.800908
0.0804765 0.00832619 0.800119
0.0818 0.00837713 0.799294
0.0831164 0.00842721 0.798417
0.0844558 0.00848058 0.797807
0.0857773 0.00853183 0.797031
0.087098 0.0085831 0.79627
0.0884412 0.00863752 0.795752
0.0898229 0.00869689 0.79562
0.0912083 0.00875676 0.795523
0.0926087 0.00881856 0.795566
0.094024 0.00888214 0.795741
0.0954407 0.0089457 0.79592
0.0968697 0.00901083 0.796199
0.0983187 0.00907816 0.796643
0.0997785 0.00914672 0.797163
0.10123 0.00921414 0.797599
0.102692 0.00928251 0.798098
0.104148 0.00935009 0.798533
