ply
format ascii 1.0
comment Created by CloudCompare v2.11.3 (Anoia)
comment Created 07/09/2022 23:59
obj_info Generated by CloudCompare!
element vertex 511
property float x
property float y
property float z
property float nx
property float ny
property float nz
end_header
-1520.43 -1574.6 -245.839 -0.992806 0.027732 -0.116475 
-1520.1 -1786.51 -293.559 -0.992806 0.027732 -0.116475 
-1522.3 -1353.52 -183.087 -0.992806 0.027732 -0.116475 
-1522.91 -1403.78 -188.543 -0.992806 0.027732 -0.116475 
-1511.59 -1738.27 -355.859 -0.992806 0.027732 -0.116475 
-1517.63 -1665.04 -288.909 -0.992806 0.027732 -0.116475 
-1514.97 -1678.1 -314.335 -0.992806 0.027732 -0.116475 
-1514.66 -1635.24 -307.868 -0.992806 0.027732 -0.116475 
-1520.57 -1515.66 -232.21 -0.992806 0.027732 -0.116475 
-1519.4 -1469.94 -232.436 -0.992806 0.027732 -0.116475 
-1523.26 -1762.96 -261.651 -0.992806 0.027732 -0.116475 
-1529.68 -1050.59 -56.0375 -0.992806 0.027732 -0.116475 
-1537.22 -971.188 25.0336 -0.992806 0.027732 -0.116475 
-1535.1 -1015.45 -2.42828 -0.992806 0.027732 -0.116475 
-1532.27 -1126.78 -50.1212 -0.992806 0.027732 -0.116475 
-1524.37 -1689.33 -236.615 -0.992806 0.027732 -0.116475 
-1531.79 -1053.87 -38.7551 -0.992806 0.027732 -0.116475 
-1530.29 -821.775 -2.42065 -0.992806 0.027732 -0.116475 
-1538.42 -895.763 51.2134 -0.992806 0.027732 -0.116475 
-1523.55 -1713.92 -248.841 -0.992806 0.027732 -0.116475 
-1484.53 -1775.52 -259.05 -0.117924 -0.337508 0.933907 
-1455.89 -1290.1 -79.8057 -0.117924 -0.337508 0.933907 
-1475.6 -1191.79 -46.7261 -0.117924 -0.337508 0.933907 
-1492.97 -811.615 88.6266 -0.117924 -0.337508 0.933907 
-1520.47 -864.029 66.1869 -0.117924 -0.337508 0.933907 
-1528.18 -1001.43 15.5008 -0.117924 -0.337508 0.933907 
-1513.51 -1318.07 -97.2076 -0.117924 -0.337508 0.933907 
-1406.51 -715.109 134.469 -0.117924 -0.337508 0.933907 
-1459.39 -725.784 123.924 -0.117924 -0.337508 0.933907 
-1395.05 -960.246 47.2277 -0.117924 -0.337508 0.933907 
-1396.48 -892.464 71.5704 -0.117924 -0.337508 0.933907 
-1399.74 -1627.76 -194.873 -0.117924 -0.337508 0.933907 
-1428.04 -445.253 -527.745 -0.0138981 0.941279 0.337344 
-1410.66 -414.4 -612.704 -0.0138981 0.941279 0.337344 
-1320.9 -448.894 -512.452 -0.0138981 0.941279 0.337344 
-1349.76 -490.207 -398.962 -0.0138981 0.941279 0.337344 
-1376.42 -523.959 -306.39 -0.0138981 0.941279 0.337344 
-1452.59 -527.103 -301.321 -0.0138981 0.941279 0.337344 
-1402.48 -567.43 -186.762 -0.0138981 0.941279 0.337344 
-1373.51 -547.225 -241.551 -0.0138981 0.941279 0.337344 
-1371.85 -603.667 -84.5201 -0.0138981 0.941279 0.337344 
-1473.88 -656.003 56.0949 -0.0138981 0.941279 0.337344 
-1457.65 -675.225 110.333 -0.0138981 0.941279 0.337344 
-1422.7 -628.204 -18.7397 -0.0138981 0.941279 0.337344 
-1459.46 -776.252 -1.43663 0.118224 0.338364 -0.933559 
-1481.78 -673.755 32.8267 0.118224 0.338364 -0.933559 
-1447.12 -1227.81 -163.252 0.118224 0.338364 -0.933559 
-1453.8 -1154.61 -137.61 0.118224 0.338364 -0.933559 
-1429.94 -1720.36 -339.285 0.118224 0.338364 -0.933559 
-1493.18 -1736.37 -353.07 0.118224 0.338364 -0.933559 
-1512.83 -1369.31 -222.751 0.118224 0.338364 -0.933559 
-1521.8 -797.534 -17.0146 0.118224 0.338364 -0.933559 
-1504.78 -1220.46 -167.878 0.118224 0.338364 -0.933559 
-1495.07 -1588.1 -299.663 0.118224 0.338364 -0.933559 
-1412.4 -1547.91 -1007.37 0.0164494 -0.940146 -0.340376 
-1293.46 -1556.46 -977.857 0.0164494 -0.940146 -0.340376 
-1330.33 -1641.43 -743.331 0.0164494 -0.940146 -0.340376 
-1407.56 -1685.35 -624.943 0.0164494 -0.940146 -0.340376 
-1440.21 -1684.99 -627.522 0.0164494 -0.940146 -0.340376 
-1381.35 -1785.46 -345.3 0.0164494 -0.940146 -0.340376 
-1498.87 -1789.22 -340.491 0.0164494 -0.940146 -0.340376 
-1464.52 -1802.36 -302.299 0.0164494 -0.940146 -0.340376 
-1339.32 -1598.66 -862.707 0.0164494 -0.940146 -0.340376 
-1383.38 -727.886 1.47624 0.992981 -0.0231953 0.115977 
-1382.96 -1505.68 -166.859 0.992981 -0.0231953 0.115977 
-1388.18 -685.544 51.3412 0.992981 -0.0231953 0.115977 
-1384.36 -1524.55 -158.87 0.992981 -0.0231953 0.115977 
-1385.97 -1112.89 -57.966 0.992981 -0.0231953 0.115977 
-1383.37 -1178.59 -94.0472 0.992981 -0.0231953 0.115977 
-1387.07 -1372.39 -103.592 0.992981 -0.0231953 0.115977 
-1384.82 -971.501 -37.7861 0.992981 -0.0231953 0.115977 
-1392.02 -1012.5 14.8263 0.992981 -0.0231953 0.115977 
-1392.25 -733.954 75.8081 0.992981 -0.0231953 0.115977 
-1381.88 -853.051 -37.763 0.992981 -0.0231953 0.115977 
-1389.19 -1261.92 -62.1633 0.992981 -0.0231953 0.115977 
-1381.91 -897.658 -46.989 0.992981 -0.0231953 0.115977 
-1382.1 -1621.13 -198.646 0.992981 -0.0231953 0.115977 
-1380.27 -927.38 -67.2342 0.992981 -0.0231953 0.115977 
-1380.17 -1218.41 -129.728 0.992981 -0.0231953 0.115977 
-1376 -1474.84 -219.607 0.992981 -0.0231953 0.115977 
-1373.85 -1287.83 -198.32 0.992981 -0.0231953 0.115977 
-1378.69 -1329.74 -165.926 0.992981 -0.0231953 0.115977 
-1371.64 -1418.7 -244.843 0.992981 -0.0231953 0.115977 
-1376.34 -1208.09 -160.167 0.992981 -0.0231953 0.115977 
-1366.58 -1667.76 -340.681 0.992981 -0.0231953 0.115977 
-1373.59 -1353.34 -214.351 0.992981 -0.0231953 0.115977 
-1379.92 -1449.83 -180.913 0.992981 -0.0231953 0.115977 
-1377.4 -1480.06 -208.74 0.992981 -0.0231953 0.115977 
-1379.92 -805.688 -44.4143 0.992981 -0.0231953 0.115977 
-1375.04 -1061.31 -140.17 0.992981 -0.0231953 0.115977 
-1371.33 -1783.72 -324.834 0.992981 -0.0231953 0.115977 
-1504.46 -1388.6 -153.768 0.992981 -0.0231953 0.115977 
-1502.91 -1640.3 -220.245 0.992981 -0.0231953 0.115977 
-1501.58 -1543.1 -211.035 0.992981 -0.0231953 0.115977 
-1497.33 -1510.38 -240.265 0.992981 -0.0231953 0.115977 
-1499.36 -1610.47 -244.159 0.992981 -0.0231953 0.115977 
-1497.83 -1495.79 -232.955 0.992981 -0.0231953 0.115977 
-1397.67 -1649.03 -296.911 -0.0138981 0.941279 0.337344 
-1374.16 -1591.56 -455.583 -0.0138981 0.941279 0.337344 
-1393.96 -1611.18 -401.968 -0.0138981 0.941279 0.337344 
-1334.71 -1458.83 -822.777 -0.0138981 0.941279 0.337344 
-1468.74 -1307.71 -118.999 0.0164494 -0.940146 -0.340376 
-1396.3 -1365.04 -212.168 -0.992806 0.027732 -0.116475 
-1401.96 -1369.88 -164.988 -0.992806 0.027732 -0.116475 
-1399.08 -1420.5 -200.227 -0.992806 0.027732 -0.116475 
-1404.03 -1498.51 -174.579 -0.992806 0.027732 -0.116475 
-1394.58 -1289.86 -210.893 -0.992806 0.027732 -0.116475 
-1395.53 -1622.5 -273.264 -0.992806 0.027732 -0.116475 
-1401.7 -1665.97 -229.872 -0.992806 0.027732 -0.116475 
-1397.9 -1602.43 -248.8 -0.992806 0.027732 -0.116475 
-1402.62 -1667.72 -222.409 -0.992806 0.027732 -0.116475 
-1400.43 -1561.66 -218.606 -0.992806 0.027732 -0.116475 
-1405.61 -1288.45 -169.489 0.0164494 -0.940146 -0.340376 
-1336.01 -1101.4 -686.293 0.0164494 -0.940146 -0.340376 
-1476.85 -1153.78 -118.868 -0.0138981 0.941279 0.337344 
-1446.96 -1157.21 -107.89 -0.0138981 0.941279 0.337344 
-1513.16 -1086.67 -15.689 0.992981 -0.0231953 0.115977 
-1512.38 -874.162 22.6996 0.992981 -0.0231953 0.115977 
-1516.8 -837.611 68.0952 0.992981 -0.0231953 0.115977 
-1509.08 -1156.65 -65.2747 0.992981 -0.0231953 0.115977 
-1507.66 -1159.96 -78.0685 0.992981 -0.0231953 0.115977 
-1502.97 -982.458 -80.3596 0.992981 -0.0231953 0.115977 
-1420.17 -792.793 10.5208 0.0164494 -0.940146 -0.340376 
-1362.55 -640.032 -411.497 0.0164494 -0.940146 -0.340376 
-1365.54 -615.233 -480.601 0.0164494 -0.940146 -0.340376 
-1408.53 -1060.89 -43.5059 -0.992806 0.027732 -0.116475 
-1403.43 -988.477 -71.6795 -0.992806 0.027732 -0.116475 
-1401.68 -1080.57 -106.04 -0.992806 0.027732 -0.116475 
-1401.11 -861.162 -64.453 -0.992806 0.027732 -0.116475 
-1404.17 -789.918 -23.2628 -0.992806 0.027732 -0.116475 
-1415.65 -937.206 43.3389 -0.992806 0.027732 -0.116475 
-1414.65 -1055.59 9.67662 -0.992806 0.027732 -0.116475 
-1410.09 -805.213 23.946 -0.992806 0.027732 -0.116475 
-1413.13 -982.564 12.2555 -0.992806 0.027732 -0.116475 
-1425.68 -1159.94 -99.2707 -0.0138981 0.941279 0.337344 
-1344.61 -957.86 -657.307 -0.0138981 0.941279 0.337344 
-1374.17 -1149.23 -176.469 0.118224 0.338364 -0.933559 
-1378.75 -1005.6 -125.084 0.118224 0.338364 -0.933559 
-1379.78 -1385.7 -262.735 0.118224 0.338364 -0.933559 
-1398.87 -665.282 -42.0256 0.992981 -0.0231953 0.115977 
-1369.76 -1694.35 -415.973 -0.117924 -0.337508 0.933907 
-1363.92 -1551.61 -363.595 -0.117924 -0.337508 0.933907 
-1365.07 -1451.96 -327.686 -0.117924 -0.337508 0.933907 
-1386.7 -1280.94 -268.544 -0.117924 -0.337508 0.933907 
-1366.94 -977.525 -191.458 0.992981 -0.0231953 0.115977 
-1362.95 -1001.13 -230.382 0.992981 -0.0231953 0.115977 
-1366.83 -1187.52 -236.869 0.992981 -0.0231953 0.115977 
-1365.87 -867.209 -177.14 0.992981 -0.0231953 0.115977 
-1366.32 -722.314 -142.612 0.992981 -0.0231953 0.115977 
-1367.47 -714.63 -131.171 0.992981 -0.0231953 0.115977 
-1370.95 -887.656 -138.18 0.992981 -0.0231953 0.115977 
-1372.65 -659.641 -75.4416 0.992981 -0.0231953 0.115977 
-1362.92 -1342.01 -302.878 0.992981 -0.0231953 0.115977 
-1362.89 -1036.32 -238.398 0.992981 -0.0231953 0.115977 
-1358.24 -1364.26 -347.434 0.992981 -0.0231953 0.115977 
-1354.34 -1393.42 -386.847 0.992981 -0.0231953 0.115977 
-1353.41 -1635.64 -446.137 0.992981 -0.0231953 0.115977 
-1347.07 -1687.37 -511.03 0.992981 -0.0231953 0.115977 
-1357.79 -1691.96 -420.683 0.992981 -0.0231953 0.115977 
-1359.16 -1190.05 -302.701 0.992981 -0.0231953 0.115977 
-1355.7 -1358.05 -367.742 0.992981 -0.0231953 0.115977 
-1361.31 -862.011 -214.925 0.992981 -0.0231953 0.115977 
-1359.07 -1360.02 -339.494 0.992981 -0.0231953 0.115977 
-1354.46 -1458.75 -399.653 0.992981 -0.0231953 0.115977 
-1350.96 -1566.4 -474.399 0.118224 0.338364 -0.933559 
-1372.34 -879.918 -228.729 0.118224 0.338364 -0.933559 
-1361.97 -1541.89 -466.92 0.118224 0.338364 -0.933559 
-1354.57 -1567.62 -518.134 -0.117924 -0.337508 0.933907 
-1356.85 -1577.62 -522.039 -0.117924 -0.337508 0.933907 
-1365.54 -1040.48 -328.799 -0.117924 -0.337508 0.933907 
-1376.53 -908.139 -282.307 -0.117924 -0.337508 0.933907 
-1352.1 -584.386 -234.539 0.992981 -0.0231953 0.115977 
-1352.99 -580.21 -226.112 0.992981 -0.0231953 0.115977 
-1348.7 -1171.08 -387.823 0.992981 -0.0231953 0.115977 
-1358.29 -666.431 -199.185 0.992981 -0.0231953 0.115977 
-1350.3 -1013.99 -340.868 0.992981 -0.0231953 0.115977 
-1349.72 -582.865 -254.525 0.992981 -0.0231953 0.115977 
-1348.36 -955.593 -345.039 0.992981 -0.0231953 0.115977 
-1350.52 -793.197 -292.262 0.992981 -0.0231953 0.115977 
-1346.65 -1050.25 -379.645 0.992981 -0.0231953 0.115977 
-1353.6 -833.962 -274.603 0.992981 -0.0231953 0.115977 
-1348.38 -693.234 -289.262 0.992981 -0.0231953 0.115977 
-1343.82 -1179.51 -431.155 0.992981 -0.0231953 0.115977 
-1349.1 -829.171 -311.948 0.992981 -0.0231953 0.115977 
-1348.33 -959.277 -346.106 0.992981 -0.0231953 0.115977 
-1334.46 -1075.67 -488.928 0.992981 -0.0231953 0.115977 
-1338.86 -1490.5 -539.303 0.992981 -0.0231953 0.115977 
-1329.14 -1608.14 -646.992 0.992981 -0.0231953 0.115977 
-1340.85 -725.451 -360.265 0.992981 -0.0231953 0.115977 
-1341.18 -800.646 -373.371 0.992981 -0.0231953 0.115977 
-1324.58 -1642.94 -693.204 0.992981 -0.0231953 0.115977 
-1343.19 -570.776 -307.526 0.992981 -0.0231953 0.115977 
-1340.67 -1655.44 -558.8 0.992981 -0.0231953 0.115977 
-1340.52 -1506.21 -528.479 0.992981 -0.0231953 0.115977 
-1334.84 -1353.57 -544.567 0.992981 -0.0231953 0.115977 
-1340.71 -1066.7 -433.75 0.992981 -0.0231953 0.115977 
-1340.25 -1482.75 -525.779 0.992981 -0.0231953 0.115977 
-1341.17 -1557.22 -533.735 0.992981 -0.0231953 0.115977 
-1341.06 -1574.26 -538.314 0.992981 -0.0231953 0.115977 
-1360.84 -554.27 -307.577 0.118224 0.338364 -0.933559 
-1341.62 -1492.87 -644.735 0.118224 0.338364 -0.933559 
-1342.73 -760.754 -379.994 0.118224 0.338364 -0.933559 
-1346.01 -803.36 -395.824 0.118224 0.338364 -0.933559 
-1352.74 -817.37 -401.743 0.118224 0.338364 -0.933559 
-1360.29 -632.007 -363.586 0.992981 -0.0231953 0.115977 
-1333.87 -1043.05 -523.849 -0.117924 -0.337508 0.933907 
-1341.82 -608.124 -367.494 -0.117924 -0.337508 0.933907 
-1340.29 -1486.98 -685.272 -0.117924 -0.337508 0.933907 
-1320.84 -1477.44 -690.049 0.992981 -0.0231953 0.115977 
-1329.56 -788.202 -469.719 0.992981 -0.0231953 0.115977 
-1323.59 -995.924 -564.566 0.992981 -0.0231953 0.115977 
-1328.41 -614.422 -442.692 0.992981 -0.0231953 0.115977 
-1326.04 -1237.77 -594.961 0.992981 -0.0231953 0.115977 
-1331.44 -783.324 -452.714 0.992981 -0.0231953 0.115977 
-1324.29 -918.356 -542.162 0.992981 -0.0231953 0.115977 
-1332.37 -724.801 -432.377 0.992981 -0.0231953 0.115977 
-1327.74 -787.307 -485.067 0.992981 -0.0231953 0.115977 
-1328.56 -998.649 -522.818 0.992981 -0.0231953 0.115977 
-1310.21 -1541.95 -794.216 0.992981 -0.0231953 0.115977 
-1313.12 -1559.08 -773.083 0.992981 -0.0231953 0.115977 
-1323.32 -758.626 -516.657 0.992981 -0.0231953 0.115977 
-1319.71 -988.971 -596.155 0.992981 -0.0231953 0.115977 
-1314.84 -1555.15 -757.617 0.992981 -0.0231953 0.115977 
-1321.36 -1292.55 -646.438 0.992981 -0.0231953 0.115977 
-1311.07 -1529.82 -784.398 0.992981 -0.0231953 0.115977 
-1314.81 -1578.61 -762.845 0.992981 -0.0231953 0.115977 
-1315.23 -1566.62 -756.747 0.992981 -0.0231953 0.115977 
-1316.55 -1152.61 -668.39 0.118224 0.338364 -0.933559 
-1325.33 -906.071 -580.301 0.118224 0.338364 -0.933559 
-1330.22 -1139.14 -665.243 0.118224 0.338364 -0.933559 
-1334.15 -841.706 -558.127 0.118224 0.338364 -0.933559 
-1336.88 -609.78 -474.561 0.118224 0.338364 -0.933559 
-1344.52 -547.005 -479.931 0.992981 -0.0231953 0.115977 
-1318.46 -1171.54 -718.318 -0.117924 -0.337508 0.933907 
-1326.97 -854.42 -604.657 -0.117924 -0.337508 0.933907 
-1324.37 -1064.88 -680.474 -0.117924 -0.337508 0.933907 
-1326.76 -1439.35 -816.259 -0.117924 -0.337508 0.933907 
-1304.88 -836.284 -690.164 0.992981 -0.0231953 0.115977 
-1310.72 -936.751 -661.69 0.992981 -0.0231953 0.115977 
-1303.14 -1402.62 -824.958 0.992981 -0.0231953 0.115977 
-1304.14 -1305.39 -795.867 0.992981 -0.0231953 0.115977 
-1309.1 -1088.15 -707.603 0.992981 -0.0231953 0.115977 
-1304.87 -917.357 -707.436 0.992981 -0.0231953 0.115977 
-1310.52 -613.809 -594.987 0.992981 -0.0231953 0.115977 
-1306.2 -964.438 -706.071 0.992981 -0.0231953 0.115977 
-1313.59 -555.34 -556.437 0.992981 -0.0231953 0.115977 
-1309.89 -669.33 -612.109 0.992981 -0.0231953 0.115977 
-1314.04 -454.37 -531.249 0.992981 -0.0231953 0.115977 
-1309.53 -697.333 -621.12 0.992981 -0.0231953 0.115977 
-1306.32 -766.946 -663.199 0.992981 -0.0231953 0.115977 
-1313.91 -840.622 -614.132 0.992981 -0.0231953 0.115977 
-1299.83 -959.953 -759.365 0.992981 -0.0231953 0.115977 
-1297.11 -1354.78 -866.204 0.992981 -0.0231953 0.115977 
-1297.25 -1010.18 -792.039 0.992981 -0.0231953 0.115977 
-1297.96 -1265.55 -840.075 0.992981 -0.0231953 0.115977 
-1302.46 -1290.4 -806.979 0.992981 -0.0231953 0.115977 
-1293.69 -1299.58 -883.633 0.992981 -0.0231953 0.115977 
-1297.76 -1266.19 -841.859 0.992981 -0.0231953 0.115977 
-1302.33 -1234.67 -796.253 0.992981 -0.0231953 0.115977 
-1299.98 -984.277 -763.221 0.992981 -0.0231953 0.115977 
-1296.6 -1473.07 -895.564 0.992981 -0.0231953 0.115977 
-1293.31 -1451.8 -919.124 0.992981 -0.0231953 0.115977 
-1298.01 -1313.03 -849.713 0.992981 -0.0231953 0.115977 
-1295.47 -1314.51 -871.633 0.992981 -0.0231953 0.115977 
-1294.74 -1515.88 -920.537 0.992981 -0.0231953 0.115977 
-1403.28 -1523.87 -1014.47 0.118224 0.338364 -0.933559 
-1319.08 -1527.68 -1005.21 0.118224 0.338364 -0.933559 
-1410.22 -1440.06 -985.027 0.118224 0.338364 -0.933559 
-1320.08 -1412.18 -963.544 0.118224 0.338364 -0.933559 
-1416.05 -1201.31 -899.381 0.118224 0.338364 -0.933559 
-1408.44 -980.577 -818.559 0.118224 0.338364 -0.933559 
-1398.99 -936.102 -801.273 0.118224 0.338364 -0.933559 
-1339.1 -953.662 -800.057 0.118224 0.338364 -0.933559 
-1419.92 -483.36 -640.115 0.118224 0.338364 -0.933559 
-1433.75 -505.042 -649.708 0.118224 0.338364 -0.933559 
-1424.09 -928.035 -801.527 0.118224 0.338364 -0.933559 
-1427.4 -1208.65 -903.473 0.118224 0.338364 -0.933559 
-1325.58 -493.606 -631.899 0.118224 0.338364 -0.933559 
-1387.44 -494.165 -639.919 0.118224 0.338364 -0.933559 
-1320.99 -459.78 -619.08 0.118224 0.338364 -0.933559 
-1311.24 -703.942 -706.187 0.118224 0.338364 -0.933559 
-1313.61 -586.885 -664.135 0.118224 0.338364 -0.933559 
-1294.6 -1316.5 -925.71 0.118224 0.338364 -0.933559 
-1306.01 -1368.64 -946.014 0.118224 0.338364 -0.933559 
-1435.04 -1319.75 -919.303 -0.992806 0.027732 -0.116475 
-1438.15 -1143.83 -855.562 -0.992806 0.027732 -0.116475 
-1431.79 -1405.88 -965.215 -0.992806 0.027732 -0.116475 
-1433.2 -1371.71 -945.932 -0.992806 0.027732 -0.116475 
-1434.05 -1387.27 -942.064 -0.992806 0.027732 -0.116475 
-1436.44 -1206.74 -883.437 -0.992806 0.027732 -0.116475 
-1439.17 -1183.46 -855.201 -0.992806 0.027732 -0.116475 
-1435.55 -1372.83 -926.216 -0.992806 0.027732 -0.116475 
-1441.06 -1057.48 -812.413 -0.992806 0.027732 -0.116475 
-1436.05 -1440.07 -936.167 -0.992806 0.027732 -0.116475 
-1447.6 -547.438 -648.678 -0.992806 0.027732 -0.116475 
-1446.18 -1050.35 -767.305 -0.992806 0.027732 -0.116475 
-1447.07 -989.152 -746.777 -0.992806 0.027732 -0.116475 
-1450.57 -577.311 -629.668 -0.992806 0.027732 -0.116475 
-1445.65 -1250.71 -814.3 -0.992806 0.027732 -0.116475 
-1444.75 -991.73 -767.099 -0.992806 0.027732 -0.116475 
-1442.65 -1232.4 -835.987 -0.992806 0.027732 -0.116475 
-1452.85 -612.088 -617.659 -0.992806 0.027732 -0.116475 
-1449.49 -608.254 -645.467 -0.992806 0.027732 -0.116475 
-1452.4 -849.331 -671.712 -0.992806 0.027732 -0.116475 
-1377.12 -480.014 -526.403 -0.117924 -0.337508 0.933907 
-1384.99 -450.818 -516.835 -0.117924 -0.337508 0.933907 
-1369.2 -1010.73 -717.418 -0.117924 -0.337508 0.933907 
-1422.29 -996.211 -718.874 -0.117924 -0.337508 0.933907 
-1380.85 -1449.39 -877.597 -0.117924 -0.337508 0.933907 
-1365.41 -1568.21 -918.634 -0.117924 -0.337508 0.933907 
-1411.85 -1572.72 -926.137 -0.117924 -0.337508 0.933907 
-1444.73 -1179.79 -788.129 -0.117924 -0.337508 0.933907 
-1441.56 -630.097 -588.847 -0.117924 -0.337508 0.933907 
-1439.69 -1044.81 -738.655 -0.117924 -0.337508 0.933907 
-1438.95 -1349.75 -848.89 -0.117924 -0.337508 0.933907 
-1429.51 -1135.32 -770.115 -0.117924 -0.337508 0.933907 
-1436.23 -1463.32 -889.635 -0.117924 -0.337508 0.933907 
-1367.7 -500.812 -461.465 -0.992806 0.027732 -0.116475 
-1368.38 -499.293 -455.318 -0.992806 0.027732 -0.116475 
-1362.37 -540.941 -515.34 -0.992806 0.027732 -0.116475 
-1377.8 -611.494 -398.892 -0.992806 0.027732 -0.116475 
-1370.23 -601.684 -461.312 -0.992806 0.027732 -0.116475 
-1444.43 -550.542 -316.792 0.118224 0.338364 -0.933559 
-1418.27 -630.99 -342.593 0.118224 0.338364 -0.933559 
-1451.47 -1022.37 -488.391 0.118224 0.338364 -0.933559 
-1425.91 -1122.77 -521.485 0.118224 0.338364 -0.933559 
-1385.92 -1576.55 -680.609 0.118224 0.338364 -0.933559 
-1440.85 -1635.47 -708.869 0.118224 0.338364 -0.933559 
-1474.66 -752.197 -393.572 0.118224 0.338364 -0.933559 
-1467.06 -1450.54 -645.276 0.118224 0.338364 -0.933559 
-1458.3 -978.863 -473.514 0.118224 0.338364 -0.933559 
-1451.75 -1437.11 -638.481 0.118224 0.338364 -0.933559 
-1473.08 -1436.84 -620.032 -0.992806 0.027732 -0.116475 
-1481.24 -1598.21 -584.734 -0.992806 0.027732 -0.116475 
-1483.06 -1512.41 -551.065 -0.992806 0.027732 -0.116475 
-1475.33 -1475.14 -608.976 -0.992806 0.027732 -0.116475 
-1482.27 -1480.64 -551.049 -0.992806 0.027732 -0.116475 
-1483.95 -1432.8 -526.604 -0.992806 0.027732 -0.116475 
-1477.54 -1501.11 -595.667 -0.992806 0.027732 -0.116475 
-1484.59 -1182.19 -468.009 -0.992806 0.027732 -0.116475 
-1469.03 -1546.23 -677.68 -0.992806 0.027732 -0.116475 
-1480.62 -960.269 -454.807 -0.992806 0.027732 -0.116475 
-1477.34 -1378.92 -571.52 -0.992806 0.027732 -0.116475 
-1473.42 -1668.73 -666.239 -0.992806 0.027732 -0.116475 
-1477.85 -1587.93 -611.428 -0.992806 0.027732 -0.116475 
-1492.91 -944.111 -346.763 -0.992806 0.027732 -0.116475 
-1487.41 -1138.56 -434.814 -0.992806 0.027732 -0.116475 
-1500.88 -701.967 -227.506 -0.992806 0.027732 -0.116475 
-1487.73 -609.564 -319.948 -0.992806 0.027732 -0.116475 
-1493.81 -1064.8 -364.623 -0.992806 0.027732 -0.116475 
-1486.4 -1174.37 -450.996 -0.992806 0.027732 -0.116475 
-1496.95 -668.85 -254.021 -0.992806 0.027732 -0.116475 
-1488.9 -1026.4 -398.353 -0.992806 0.027732 -0.116475 
-1500.69 -656.134 -219.439 -0.992806 0.027732 -0.116475 
-1498.06 -595.357 -229.012 -0.992806 0.027732 -0.116475 
-1486.12 -1124.67 -442.833 -0.992806 0.027732 -0.116475 
-1488.12 -1392.64 -482.539 -0.992806 0.027732 -0.116475 
-1500.92 -699.929 -226.761 -0.992806 0.027732 -0.116475 
-1487.72 -827.394 -366.191 -0.992806 0.027732 -0.116475 
-1430.81 -600.171 -177.743 -0.117924 -0.337508 0.933907 
-1421.64 -675.406 -203.805 -0.117924 -0.337508 0.933907 
-1457.37 -1160.95 -383.992 -0.117924 -0.337508 0.933907 
-1422.93 -1186.32 -388.817 -0.117924 -0.337508 0.933907 
-1412.71 -1648.01 -554.566 -0.117924 -0.337508 0.933907 
-1414.52 -1664.32 -560.694 -0.117924 -0.337508 0.933907 
-1466.18 -1662.41 -566.533 -0.117924 -0.337508 0.933907 
-1489.13 -1311.27 -442.39 -0.117924 -0.337508 0.933907 
-1497.46 -804.595 -260.128 -0.117924 -0.337508 0.933907 
-1479.84 -1180.04 -393.736 -0.117924 -0.337508 0.933907 
-1474.33 -1584.73 -539.458 -0.117924 -0.337508 0.933907 
-1404.87 -632.11 -172.602 -0.992806 0.027732 -0.116475 
-1409.7 -630.8 -131.184 -0.992806 0.027732 -0.116475 
-1412.04 -689.753 -123.809 -0.992806 0.027732 -0.116475 
-1428.24 -766.013 -1.91971 -0.992806 0.027732 -0.116475 
-1422.66 -674.879 -30.1104 -0.992806 0.027732 -0.116475 
-1402.8 -1195.93 -309.718 -0.992806 0.027732 -0.116475 
-1398.2 -1217.26 -353.439 -0.992806 0.027732 -0.116475 
-1398.59 -1117.04 -328.887 -0.992806 0.027732 -0.116475 
-1412.46 -1193.91 -227.032 -0.992806 0.027732 -0.116475 
-1405.23 -1138.24 -276.791 -0.992806 0.027732 -0.116475 
-1414.76 -1170.28 -202.405 -0.992806 0.027732 -0.116475 
-1389.36 -1635.21 -517.254 -0.992806 0.027732 -0.116475 
-1390.43 -1634.06 -507.923 -0.992806 0.027732 -0.116475 
-1397.87 -1622.44 -442.111 -0.992806 0.027732 -0.116475 
-1411.38 -1713.9 -346.355 -0.992806 0.027732 -0.116475 
-1406.87 -1669.44 -375.388 -0.992806 0.027732 -0.116475 
-1365.98 -1528.36 -693.779 -0.992806 0.027732 -0.116475 
-1354.32 -1524.25 -792.281 -0.992806 0.027732 -0.116475 
-1349.36 -1469.78 -822.996 -0.992806 0.027732 -0.116475 
-1344.3 -1536.36 -880.196 -0.992806 0.027732 -0.116475 
-1343.57 -1576.4 -894.901 -0.992806 0.027732 -0.116475 
-1347.86 -1502.59 -842.726 -0.992806 0.027732 -0.116475 
-1328.72 -1569.67 -831.24 0.992981 -0.0231953 0.115977 
-1347.28 -1559.44 -670.889 0.992981 -0.0231953 0.115977 
-1366.14 -1679.18 -535.657 0.992981 -0.0231953 0.115977 
-1384.14 -1670.23 -380.443 0.992981 -0.0231953 0.115977 
-1391.28 -1432.11 -899.818 -0.0138981 0.941279 0.337344 
-1423.59 -1554.37 -561.379 -0.0138981 0.941279 0.337344 
-1397.17 -1539.08 -602.625 -0.0138981 0.941279 0.337344 
-1384.04 -1417.63 -327.755 -0.992806 0.027732 -0.116475 
-1381.38 -1540.95 -376.513 -0.992806 0.027732 -0.116475 
-1382.96 -1392.42 -331.605 -0.992806 0.027732 -0.116475 
-1380.15 -1516.12 -381.743 -0.992806 0.027732 -0.116475 
-1375.02 -1495.13 -420.97 -0.992806 0.027732 -0.116475 
-1373.78 -1535.16 -440.078 -0.992806 0.027732 -0.116475 
-1366.71 -1392.62 -470.083 -0.992806 0.027732 -0.116475 
-1362.01 -1415.8 -515.046 -0.992806 0.027732 -0.116475 
-1363.99 -1426.28 -500.354 -0.992806 0.027732 -0.116475 
-1361.73 -1391.54 -512.252 -0.992806 0.027732 -0.116475 
-1363.98 -1257.97 -464.763 -0.992806 0.027732 -0.116475 
-1352.35 -1292.68 -571.216 -0.992806 0.027732 -0.116475 
-1361.35 -1423.87 -522.317 -0.992806 0.027732 -0.116475 
-1350.45 -1395.92 -609.282 -0.992806 0.027732 -0.116475 
-1355.88 -1348.64 -553.012 -0.992806 0.027732 -0.116475 
-1354.02 -1469.86 -594.555 -0.992806 0.027732 -0.116475 
-1344.29 -1354.45 -652.949 -0.992806 0.027732 -0.116475 
-1347.05 -1244.64 -606.234 -0.992806 0.027732 -0.116475 
-1339.81 -1177.85 -653.728 -0.992806 0.027732 -0.116475 
-1338.19 -1316.78 -696.915 -0.992806 0.027732 -0.116475 
-1338.88 -1438.61 -716.852 -0.992806 0.027732 -0.116475 
-1338.12 -1476.82 -731.481 -0.992806 0.027732 -0.116475 
-1329.81 -1165.18 -736.213 -0.992806 0.027732 -0.116475 
-1325.02 -1271.71 -799.567 -0.992806 0.027732 -0.116475 
-1327.06 -1293.19 -786.737 -0.992806 0.027732 -0.116475 
-1325.41 -1329.5 -808.543 -0.992806 0.027732 -0.116475 
-1324.73 -1335.3 -815.532 -0.992806 0.027732 -0.116475 
-1310.2 -1405.25 -954.126 -0.992806 0.027732 -0.116475 
-1320.34 -1362.46 -858.693 -0.992806 0.027732 -0.116475 
-1324.74 -1419.8 -833.326 -0.992806 0.027732 -0.116475 
-1313.37 -1291.34 -902.978 -0.992806 0.027732 -0.116475 
-1383.22 -1050.32 -830.613 0.0164494 -0.940146 -0.340376 
-1338.83 -986.9 -621.628 0.992981 -0.0231953 0.115977 
-1353.93 -1094.57 -515.768 0.992981 -0.0231953 0.115977 
-1374.02 -1107.93 -347.525 0.992981 -0.0231953 0.115977 
-1390.72 -1167.84 -217.914 0.992981 -0.0231953 0.115977 
-1391.37 -1134.97 -205.399 0.992981 -0.0231953 0.115977 
-1385.52 -1169.94 -498.083 0.0164494 -0.940146 -0.340376 
-1436.34 -1203.67 -406.74 0.0164494 -0.940146 -0.340376 
-1374.93 -1097.92 -526.354 -0.992806 0.027732 -0.116475 
-1375.59 -1146.42 -531.057 -0.992806 0.027732 -0.116475 
-1372.94 -1109.15 -545.685 -0.992806 0.027732 -0.116475 
-1363.14 -1096.26 -626.423 -0.992806 0.027732 -0.116475 
-1354.42 -979.606 -676.056 -0.992806 0.027732 -0.116475 
-1362.43 -1041.84 -620.967 -0.992806 0.027732 -0.116475 
-1389.29 -583.34 -570.435 0.0164494 -0.940146 -0.340376 
-1408.52 -562.758 -628.599 0.0164494 -0.940146 -0.340376 
-1428.8 -670.38 -330.302 0.0164494 -0.940146 -0.340376 
-1384.23 -947.897 -226.617 -0.992806 0.027732 -0.116475 
-1384.32 -855.998 -206.371 -0.992806 0.027732 -0.116475 
-1381.03 -954.896 -255.327 -0.992806 0.027732 -0.116475 
-1387.6 -763.195 -158.775 -0.992806 0.027732 -0.116475 
-1393.01 -801.947 -120.916 -0.992806 0.027732 -0.116475 
-1391.25 -858.799 -147.957 -0.992806 0.027732 -0.116475 
-1368.49 -949.397 -360.968 -0.992806 0.027732 -0.116475 
-1367.76 -999.37 -377.811 -0.992806 0.027732 -0.116475 
-1361.45 -859.024 -401.821 -0.992806 0.027732 -0.116475 
-1367.22 -1013.18 -385.342 -0.992806 0.027732 -0.116475 
-1366.41 -914.527 -371.344 -0.992806 0.027732 -0.116475 
-1367.77 -841.62 -344.31 -0.992806 0.027732 -0.116475 
-1370.75 -896.775 -330.597 -0.992806 0.027732 -0.116475 
-1370.36 -931.858 -341.373 -0.992806 0.027732 -0.116475 
-1377.03 -722.928 -240.28 -0.992806 0.027732 -0.116475 
-1363.85 -688.389 -345.213 -0.992806 0.027732 -0.116475 
-1345.87 -738.55 -509.008 -0.992806 0.027732 -0.116475 
-1343.6 -983.859 -580.339 -0.992806 0.027732 -0.116475 
-1343.57 -791.499 -539.839 -0.992806 0.027732 -0.116475 
-1352.45 -912.982 -489.912 -0.992806 0.027732 -0.116475 
-1350.99 -847.406 -488.468 -0.992806 0.027732 -0.116475 
-1350.24 -751.056 -474.414 -0.992806 0.027732 -0.116475 
-1331.1 -809.88 -649.992 -0.992806 0.027732 -0.116475 
-1327.93 -742.832 -662.749 -0.992806 0.027732 -0.116475 
-1322.72 -756.316 -710.024 -0.992806 0.027732 -0.116475 
-1325.79 -901.699 -714.624 -0.992806 0.027732 -0.116475 
-1335.46 -626.114 -573.931 -0.992806 0.027732 -0.116475 
-1336.07 -589.107 -560.817 -0.992806 0.027732 -0.116475 
-1334.4 -776.546 -614.828 -0.992806 0.027732 -0.116475 
-1337.27 -778.963 -590.88 -0.992806 0.027732 -0.116475 
-1337.35 -786.914 -591.861 -0.992806 0.027732 -0.116475 
-1400.48 -920.086 -765.043 -0.0138981 0.941279 0.337344 
-1443.62 -1062.51 -371.078 -0.0138981 0.941279 0.337344 
-1409.11 -1054.76 -390.956 -0.0138981 0.941279 0.337344 
-1430.22 -596.512 -618.349 0.992981 -0.0231953 0.115977 
-1434.3 -593.362 -582.953 0.992981 -0.0231953 0.115977 
-1428.05 -694.227 -657.551 0.992981 -0.0231953 0.115977 
-1424.11 -800.671 -713.701 0.992981 -0.0231953 0.115977 
-1427.97 -921.618 -706.422 0.992981 -0.0231953 0.115977 
-1430.08 -759.338 -654.073 0.992981 -0.0231953 0.115977 
-1412.21 -1317.86 -924.594 0.992981 -0.0231953 0.115977 
-1421.05 -1137.33 -811.038 0.992981 -0.0231953 0.115977 
-1415.58 -1159.27 -862.298 0.992981 -0.0231953 0.115977 
-1419.78 -1303.61 -857.124 0.992981 -0.0231953 0.115977 
-1417.55 -1260.18 -866.881 0.992981 -0.0231953 0.115977 
-1418.13 -1366.55 -884.473 0.992981 -0.0231953 0.115977 
-1458.32 -1180.72 -502.767 0.992981 -0.0231953 0.115977 
-1454.99 -1223.99 -540.28 0.992981 -0.0231953 0.115977 
-1448.36 -1484.22 -651.939 0.992981 -0.0231953 0.115977 
-1458.36 -1338.92 -535.974 0.992981 -0.0231953 0.115977 
-1467.74 -1250.53 -437.283 0.992981 -0.0231953 0.115977 
-1450.07 -1487.87 -638.138 0.992981 -0.0231953 0.115977 
-1466.71 -1299.15 -456.404 0.992981 -0.0231953 0.115977 
-1464.64 -1514.8 -519.675 0.992981 -0.0231953 0.115977 
-1467.62 -1341.61 -457.608 0.992981 -0.0231953 0.115977 
-1476.05 -752.359 -260.968 0.992981 -0.0231953 0.115977 
-1462.75 -924.076 -410.636 0.992981 -0.0231953 0.115977 
-1459.93 -830.376 -414.819 0.992981 -0.0231953 0.115977 
-1467.71 -830.738 -348.66 0.992981 -0.0231953 0.115977 
-1465.76 -789.984 -356.625 0.992981 -0.0231953 0.115977 
-1474.56 -783.914 -280.375 0.992981 -0.0231953 0.115977 
-1473.77 -1026.26 -338.452 0.992981 -0.0231953 0.115977 
-1471.23 -912.373 -335.905 0.992981 -0.0231953 0.115977 
-1472.2 -846.042 -313.636 0.992981 -0.0231953 0.115977 
