ply
format ascii 1.0
comment Created by CloudCompare v2.11.3 (Anoia)
comment Created 07/09/2022 23:52
obj_info Generated by CloudCompare!
element vertex 886
property float x
property float y
property float z
property float nx
property float ny
property float nz
end_header
1101.68 730.715 88.1287 -0.15581 0.736693 -0.658032 
1215.19 286.432 -438.028 -0.15581 0.736693 -0.658032 
1119.8 676.769 23.2068 -0.15581 0.736693 -0.658032 
1206.04 215.707 -515.293 -0.15581 0.736693 -0.658032 
1160.01 543.951 -135.585 -0.15581 0.736693 -0.658032 
1253.16 146.584 -604.183 -0.15581 0.736693 -0.658032 
1214.93 315.062 -405.806 -0.15581 0.736693 -0.658032 
1248.94 108.227 -646.263 -0.15581 0.736693 -0.658032 
1278.63 141.437 -616.042 -0.15581 0.736693 -0.658032 
1249.84 246.333 -491.34 -0.15581 0.736693 -0.658032 
1162.85 497.809 -188.096 -0.15581 0.736693 -0.658032 
1153.75 785.781 137.562 -0.15581 0.736693 -0.658032 
1303.18 125.847 -639.413 -0.15581 0.736693 -0.658032 
1173.84 703.687 40.5507 -0.15581 0.736693 -0.658032 
1211.92 504.259 -192.558 -0.15581 0.736693 -0.658032 
1167.52 796.796 146.65 -0.15581 0.736693 -0.658032 
1146.51 612.35 -55.5295 -0.15581 0.736693 -0.658032 
1144.25 818.683 176.789 -0.15581 0.736693 -0.658032 
1154.62 690.309 30.1091 -0.15581 0.736693 -0.658032 
1271.98 231.304 -513.505 -0.15581 0.736693 -0.658032 
1121.38 721.023 72.5433 -0.15581 0.736693 -0.658032 
1120.12 744.451 99.1604 -0.15581 0.736693 -0.658032 
1200.77 622.677 -56.8755 -0.15581 0.736693 -0.658032 
1157.53 738.041 83.0322 -0.15581 0.736693 -0.658032 
1122.29 768.899 126.106 -0.15581 0.736693 -0.658032 
1230.2 526.605 -171.818 -0.15581 0.736693 -0.658032 
1165.27 650.288 -17.3883 -0.15581 0.736693 -0.658032 
1134.99 672.184 14.4324 -0.15581 0.736693 -0.658032 
1270.59 307.737 -427.314 -0.15581 0.736693 -0.658032 
1183.82 581.139 -99.4922 -0.15581 0.736693 -0.658032 
1182.96 557.772 -125.535 -0.15581 0.736693 -0.658032 
1094.02 769.4 133.412 -0.15581 0.736693 -0.658032 
1195.78 581.447 -101.999 -0.15581 0.736693 -0.658032 
1208.74 524.481 -169.084 -0.15581 0.736693 -0.658032 
1198.25 674.5 1.93933 -0.15581 0.736693 -0.658032 
1244.3 327.281 -399.088 -0.15581 0.736693 -0.658032 
1220.16 483.956 -217.33 -0.15581 0.736693 -0.658032 
1176.12 682.164 15.8292 -0.15581 0.736693 -0.658032 
1157.14 739.38 84.6298 -0.15581 0.736693 -0.658032 
1115.98 735.214 89.7714 -0.15581 0.736693 -0.658032 
1170.91 676.705 10.9401 -0.15581 0.736693 -0.658032 
1095.17 813.478 182.652 -0.15581 0.736693 -0.658032 
1213.14 612.093 -71.7154 -0.15581 0.736693 -0.658032 
1143.9 661.226 -0.00201416 -0.15581 0.736693 -0.658032 
1243.14 359.742 -362.346 -0.15581 0.736693 -0.658032 
1164.94 742.717 86.5173 -0.15581 0.736693 -0.658032 
1141.95 689.95 32.7299 -0.15581 0.736693 -0.658032 
1257.41 350.429 -376.213 -0.15581 0.736693 -0.658032 
1186.46 580.907 -100.382 -0.15581 0.736693 -0.658032 
1201.91 641.004 -36.5613 -0.15581 0.736693 -0.658032 
1154.8 769.007 118.469 -0.15581 0.736693 -0.658032 
1169.76 705.481 43.5383 -0.15581 0.736693 -0.658032 
1166.78 751.063 95.4542 -0.15581 0.736693 -0.658032 
1237.55 321.425 -404.056 -0.15581 0.736693 -0.658032 
1229.57 496.271 -205.744 -0.15581 0.736693 -0.658032 
1195.52 631.297 -45.9398 -0.15581 0.736693 -0.658032 
1188.71 511.69 -178.672 -0.15581 0.736693 -0.658032 
1197.91 512.327 -180.153 -0.15581 0.736693 -0.658032 
1278.62 205.78 -543.762 -0.15581 0.736693 -0.658032 
1146.95 610.413 -57.8094 -0.15581 0.736693 -0.658032 
1118.6 749.718 105.438 -0.15581 0.736693 -0.658032 
1084.78 789.875 158.618 -0.15581 0.736693 -0.658032 
1176.08 704.921 41.4027 -0.15581 0.736693 -0.658032 
1200.36 634.328 -43.6909 -0.15581 0.736693 -0.658032 
1204.19 587.403 -97.3148 -0.15581 0.736693 -0.658032 
1239.22 376.766 -342.289 -0.15581 0.736693 -0.658032 
1247.03 418.926 -296.793 -0.15581 0.736693 -0.658032 
1244.64 374.448 -346.184 -0.15581 0.736693 -0.658032 
1147.75 727.232 73.2252 -0.15581 0.736693 -0.658032 
1145.24 689.69 31.6526 -0.15581 0.736693 -0.658032 
1288.44 176.591 -578.893 -0.15581 0.736693 -0.658032 
1133.43 706.747 53.6295 -0.15581 0.736693 -0.658032 
1198.95 525.577 -165.516 -0.15581 0.736693 -0.658032 
1268.43 245.805 -496.369 -0.15581 0.736693 -0.658032 
1156.35 611.902 -58.3799 -0.15581 0.736693 -0.658032 
1289.03 170.091 -586.335 -0.15581 0.736693 -0.658032 
1215.78 567.033 -122.964 -0.15581 0.736693 -0.658032 
1161.35 657.423 -8.43982 -0.15581 0.736693 -0.658032 
1183.63 605.51 -72.0689 -0.15581 0.736693 -0.658032 
1185.28 582.429 -98.3921 -0.15581 0.736693 -0.658032 
1196.55 560.471 -125.747 -0.15581 0.736693 -0.658032 
1228.54 471.577 -233.235 -0.15581 0.736693 -0.658032 
1244.89 422.328 -292.459 -0.15581 0.736693 -0.658032 
1106.18 749.2 107.821 -0.15581 0.736693 -0.658032 
1125.49 812.04 173.802 -0.15581 0.736693 -0.658032 
1239.4 426.268 -286.724 -0.15581 0.736693 -0.658032 
1131.79 735.312 86.1074 -0.15581 0.736693 -0.658032 
1179.43 763.578 106.495 -0.15581 0.736693 -0.658032 
1177.87 762.605 105.773 -0.15581 0.736693 -0.658032 
1231.55 356.536 -363.183 -0.15581 0.736693 -0.658032 
1206.68 523.607 -169.574 -0.15581 0.736693 -0.658032 
1151.45 793.94 147.275 -0.15581 0.736693 -0.658032 
1170.84 831.028 184.311 -0.15581 0.736693 -0.658032 
1135.94 699.629 45.0339 -0.15581 0.736693 -0.658032 
1227.4 495.819 -205.731 -0.15581 0.736693 -0.658032 
1124.63 733.6 85.894 -0.15581 0.736693 -0.658032 
1169.36 835.184 189.332 -0.15581 0.736693 -0.658032 
1175.69 638.72 -32.8712 -0.15581 0.736693 -0.658032 
1205.39 505.353 -189.771 -0.15581 0.736693 -0.658032 
1216.26 419.733 -288.544 -0.15581 0.736693 -0.658032 
1237.07 423.56 -289.211 -0.15581 0.736693 -0.658032 
1165.88 640.824 -28.1649 -0.15581 0.736693 -0.658032 
1235.71 451.655 -257.325 -0.15581 0.736693 -0.658032 
1136.91 812.967 172.119 -0.15581 0.736693 -0.658032 
1193.55 605.78 -74.1335 -0.15581 0.736693 -0.658032 
1250.44 299.211 -432.083 -0.15581 0.736693 -0.658032 
1319.19 68.7754 -703.06 0.979437 0.201478 -0.0104815 
1311.03 112.017 -637.187 0.979437 0.201478 -0.0104815 
1316.9 81.497 -672.237 0.979437 0.201478 -0.0104815 
1183.58 775.918 150.634 0.979437 0.201478 -0.0104815 
1178.6 801.672 177.916 0.979437 0.201478 -0.0104815 
1179.31 797.94 172.744 0.979437 0.201478 -0.0104815 
1292.04 211.201 -514.081 0.979437 0.201478 -0.0104815 
1259.4 380.824 -320.539 0.979437 0.201478 -0.0104815 
1264.71 352.963 -357.358 0.979437 0.201478 -0.0104815 
1304.58 144.722 -616.052 0.979437 0.201478 -0.0104815 
1308.88 122.711 -634.137 0.979437 0.201478 -0.0104815 
1210.45 634.791 -39.3929 0.979437 0.201478 -0.0104815 
1294.09 199.759 -542.688 0.979437 0.201478 -0.0104815 
1229.21 536.976 -157.513 0.979437 0.201478 -0.0104815 
1266.42 343.62 -377.568 0.979437 0.201478 -0.0104815 
1312.36 104.909 -648.846 0.979437 0.201478 -0.0104815 
1291.97 210.46 -536.977 0.979437 0.201478 -0.0104815 
1258.73 384.255 -318.043 0.979437 0.201478 -0.0104815 
1210.61 633.977 -39.2904 0.979437 0.201478 -0.0104815 
1259.19 381.55 -327.275 0.979437 0.201478 -0.0104815 
1293.76 202.249 -524.677 0.979437 0.201478 -0.0104815 
1250.29 428.095 -267.875 0.979437 0.201478 -0.0104815 
1248.04 439.778 -254.84 0.979437 0.201478 -0.0104815 
1291.9 211.093 -530.768 0.979437 0.201478 -0.0104815 
1236.05 501.725 -191.336 0.979437 0.201478 -0.0104815 
1294.87 195.463 -552.475 0.979437 0.201478 -0.0104815 
1270.09 324.947 -390.828 0.979437 0.201478 -0.0104815 
1262.73 364.017 -329.842 0.979437 0.201478 -0.0104815 
1269.53 328.658 -370.889 0.979437 0.201478 -0.0104815 
1271.41 318.496 -390.027 0.979437 0.201478 -0.0104815 
1252.46 416.986 -277.914 0.979437 0.201478 -0.0104815 
1204.83 664.163 -2.10193 0.979437 0.201478 -0.0104815 
1298.68 176.993 -548.054 0.979437 0.201478 -0.0104815 
1224.34 563.188 -109.83 0.979437 0.201478 -0.0104815 
1195.04 715.195 59.1378 0.979437 0.201478 -0.0104815 
1246.81 446.747 -235.425 0.979437 0.201478 -0.0104815 
1204.49 666.506 11.4939 0.979437 0.201478 -0.0104815 
1227.83 545.679 -117.513 0.979437 0.201478 -0.0104815 
1185.61 764.645 123.893 0.979437 0.201478 -0.0104815 
1199.69 691.927 50.1778 0.979437 0.201478 -0.0104815 
1203.34 673.138 32.2506 0.979437 0.201478 -0.0104815 
1190.02 741.594 94.6093 0.979437 0.201478 -0.0104815 
1348.4 87.0602 -660.273 -0.15581 0.736693 -0.658032 
1334.89 128.986 -609.952 -0.15581 0.736693 -0.658032 
1353.46 74.721 -675.34 -0.15581 0.736693 -0.658032 
1346.51 126.357 -615.679 -0.15581 0.736693 -0.658032 
1340.51 150.028 -587.655 -0.15581 0.736693 -0.658032 
1321.39 76.752 -665.407 -0.15581 0.736693 -0.658032 
1326.01 51.7404 -694.606 -0.15581 0.736693 -0.658032 
1309.39 129.651 -603.12 -0.15581 0.736693 -0.658032 
1312 131.205 -601.998 -0.15581 0.736693 -0.658032 
1329.59 71.8374 -672.885 -0.15581 0.736693 -0.658032 
1347.83 133.085 -610.062 -0.979532 -0.201019 0.0104576 
1348.26 130.717 -615.009 -0.979532 -0.201019 0.0104576 
1356.69 85.951 -685.287 -0.979532 -0.201019 0.0104576 
1217.96 808.237 165.527 -0.979532 -0.201019 0.0104576 
1224.9 772.626 133.213 -0.979532 -0.201019 0.0104576 
1269.02 542.616 -143.645 -0.979532 -0.201019 0.0104576 
1301.5 372.927 -354.531 -0.979532 -0.201019 0.0104576 
1250.77 637.383 -36.4854 -0.979532 -0.201019 0.0104576 
1306.41 347.362 -384.611 -0.979532 -0.201019 0.0104576 
1292.61 419.246 -299.092 -0.979532 -0.201019 0.0104576 
1328.49 232.253 -523.275 -0.979532 -0.201019 0.0104576 
1266.34 555.634 -146.656 -0.979532 -0.201019 0.0104576 
1265.92 558.916 -120.531 -0.979532 -0.201019 0.0104576 
1285.42 456.346 -262.433 -0.979532 -0.201019 0.0104576 
1285.34 457.646 -243.601 -0.979532 -0.201019 0.0104576 
1319.24 280.385 -466.588 -0.979532 -0.201019 0.0104576 
1262.11 578.393 -105.253 -0.979532 -0.201019 0.0104576 
1223.16 780.705 124.068 -0.979532 -0.201019 0.0104576 
1245.48 664.498 -13.185 -0.979532 -0.201019 0.0104576 
1223.3 780.035 124.515 -0.979532 -0.201019 0.0104576 
1236.75 710.353 48.7847 -0.979532 -0.201019 0.0104576 
1259.27 592.455 -102.503 -0.979532 -0.201019 0.0104576 
1219.55 799.176 139.008 -0.979532 -0.201019 0.0104576 
1280.01 484.448 -230.016 -0.979532 -0.201019 0.0104576 
1295.41 405.04 -308.944 -0.979532 -0.201019 0.0104576 
1303.52 362.802 -358.526 -0.979532 -0.201019 0.0104576 
1324.65 252.623 -491.798 -0.979532 -0.201019 0.0104576 
1270.56 535.077 -143.345 -0.979532 -0.201019 0.0104576 
1323.95 256.467 -483.527 -0.979532 -0.201019 0.0104576 
1297.9 392.172 -322.357 -0.979532 -0.201019 0.0104576 
1244.26 672.133 21.1089 -0.979532 -0.201019 0.0104576 
1315.53 300.352 -431.184 -0.979532 -0.201019 0.0104576 
1338.52 180.465 -576.001 -0.979532 -0.201019 0.0104576 
1301.6 373.613 -329.996 -0.979532 -0.201019 0.0104576 
1335.08 199.534 -530.762 -0.979532 -0.201019 0.0104576 
1345.11 146.536 -607.681 -0.979532 -0.201019 0.0104576 
1352.18 109.475 -656.349 -0.979532 -0.201019 0.0104576 
1332.82 211.26 -517.764 -0.979532 -0.201019 0.0104576 
1335.02 198.862 -550.573 -0.979532 -0.201019 0.0104576 
1336.58 190.96 -555.518 -0.979532 -0.201019 0.0104576 
1334.85 199.812 -548.64 -0.979532 -0.201019 0.0104576 
1396.4 176.129 -605.173 -0.15581 0.736693 -0.658032 
1378.04 397.378 -352.258 -0.15581 0.736693 -0.658032 
1415.57 296.255 -474.806 -0.15581 0.736693 -0.658032 
1367.05 326.339 -429.436 -0.15581 0.736693 -0.658032 
1423.58 101.176 -695.855 -0.15581 0.736693 -0.658032 
1361.15 117.08 -663.093 -0.15581 0.736693 -0.658032 
1254.47 688.948 4.75403 -0.15581 0.736693 -0.658032 
1353.93 161.14 -611.878 -0.15581 0.736693 -0.658032 
1373.17 217.348 -553.327 -0.15581 0.736693 -0.658032 
1418.63 202.5 -580.855 -0.15581 0.736693 -0.658032 
1289.13 600.436 -102.943 -0.15581 0.736693 -0.658032 
1274.38 637.993 -57.2352 -0.15581 0.736693 -0.658032 
1413.54 121.861 -670.222 -0.15581 0.736693 -0.658032 
1308.83 487.453 -234.561 -0.15581 0.736693 -0.658032 
1400.65 86.9818 -706.328 -0.15581 0.736693 -0.658032 
1358.94 359.155 -390.636 -0.15581 0.736693 -0.658032 
1311.36 504.881 -215.587 -0.15581 0.736693 -0.658032 
1322.8 508.474 -214.281 -0.15581 0.736693 -0.658032 
1342.83 227.578 -534.595 -0.15581 0.736693 -0.658032 
1367.39 422.377 -321.635 -0.15581 0.736693 -0.658032 
1362.31 175.354 -597.91 -0.15581 0.736693 -0.658032 
1320.68 497.069 -226.587 -0.15581 0.736693 -0.658032 
1322.18 310.519 -436.5 -0.15581 0.736693 -0.658032 
1377.06 259.037 -507.427 -0.15581 0.736693 -0.658032 
1348.01 484.136 -247.636 -0.15581 0.736693 -0.658032 
1367.07 114.019 -667.943 -0.15581 0.736693 -0.658032 
1336.39 354.661 -390.306 -0.15581 0.736693 -0.658032 
1369.24 125.064 -656.054 -0.15581 0.736693 -0.658032 
1425.58 121.795 -673.17 -0.15581 0.736693 -0.658032 
1427.08 128.496 -666.001 -0.15581 0.736693 -0.658032 
1441.77 240.85 -543.295 -0.15581 0.736693 -0.658032 
1400.81 178.368 -603.711 -0.15581 0.736693 -0.658032 
1396.55 337.57 -423.858 -0.15581 0.736693 -0.658032 
1396.31 105.958 -683.975 -0.15581 0.736693 -0.658032 
1490.07 109.578 -702.283 -0.15581 0.736693 -0.658032 
1413.09 149.445 -639.129 -0.15581 0.736693 -0.658032 
1391.1 169.472 -611.387 -0.15581 0.736693 -0.658032 
1326.84 509.917 -213.624 -0.15581 0.736693 -0.658032 
1426.25 133.133 -660.595 -0.15581 0.736693 -0.658032 
1428.73 254.769 -524.55 -0.15581 0.736693 -0.658032 
1424.59 192.555 -593.447 -0.15581 0.736693 -0.658032 
1281.04 591.349 -111.219 -0.15581 0.736693 -0.658032 
1398.84 338.314 -423.569 -0.15581 0.736693 -0.658032 
1409.13 219.836 -559.112 -0.15581 0.736693 -0.658032 
1353.65 124.875 -652.547 -0.15581 0.736693 -0.658032 
1345.54 386.53 -356.69 -0.15581 0.736693 -0.658032 
1377.66 303.596 -457.514 -0.15581 0.736693 -0.658032 
1272.23 628.002 -67.9451 -0.15581 0.736693 -0.658032 
1409.41 111.149 -681.269 -0.15581 0.736693 -0.658032 
1357.32 189.231 -581.13 -0.15581 0.736693 -0.658032 
1341.14 395.227 -345.87 -0.15581 0.736693 -0.658032 
1472.93 116.395 -690.534 -0.15581 0.736693 -0.658032 
1318 422.432 -309.789 -0.15581 0.736693 -0.658032 
1357.01 263.202 -497.962 -0.15581 0.736693 -0.658032 
1311.29 464.807 -260.585 -0.15581 0.736693 -0.658032 
1396.53 291.003 -476.164 -0.15581 0.736693 -0.658032 
1382.5 372.202 -381.603 -0.15581 0.736693 -0.658032 
1427.2 211.796 -572.458 -0.15581 0.736693 -0.658032 
1341.33 391.752 -349.819 -0.15581 0.736693 -0.658032 
1385.22 300.178 -463.157 -0.15581 0.736693 -0.658032 
1315.89 305.314 -440.844 -0.15581 0.736693 -0.658032 
1319.92 451.674 -277.397 -0.15581 0.736693 -0.658032 
1272.12 554.203 -150.819 -0.15581 0.736693 -0.658032 
1455.14 175.617 -619.765 -0.15581 0.736693 -0.658032 
1344.88 308.584 -444.089 -0.15581 0.736693 -0.658032 
1364.29 363.677 -386.833 -0.15581 0.736693 -0.658032 
1380.8 128.203 -655.286 -0.15581 0.736693 -0.658032 
1315.7 514.102 -206.265 -0.15581 0.736693 -0.658032 
1423.69 201.125 -583.607 -0.15581 0.736693 -0.658032 
1444.91 227.45 -559.097 -0.15581 0.736693 -0.658032 
1380.66 259.302 -507.986 -0.15581 0.736693 -0.658032 
1247.49 660.737 -25.2707 -0.15581 0.736693 -0.658032 
1295.33 444.989 -279.041 -0.15581 0.736693 -0.658032 
1364.27 452.305 -287.272 -0.15581 0.736693 -0.658032 
1368.02 216.842 -552.667 -0.15581 0.736693 -0.658032 
1424.73 250.122 -528.815 -0.15581 0.736693 -0.658032 
1438.37 231.265 -553.252 -0.15581 0.736693 -0.658032 
1382.72 240.972 -529.069 -0.15581 0.736693 -0.658032 
1384.76 331.555 -427.802 -0.15581 0.736693 -0.658032 
1328.58 390.246 -348.467 -0.15581 0.736693 -0.658032 
1344.56 214.759 -549.41 -0.15581 0.736693 -0.658032 
1413.43 206.111 -575.557 -0.15581 0.736693 -0.658032 
1299.28 554.197 -157.305 -0.15581 0.736693 -0.658032 
1327.6 516.686 -206.201 -0.15581 0.736693 -0.658032 
1415.55 209.275 -572.507 -0.15581 0.736693 -0.658032 
1432.99 241.122 -540.894 -0.15581 0.736693 -0.658032 
1312.05 429.509 -300.418 -0.15581 0.736693 -0.658032 
1315.74 388.831 -346.993 -0.15581 0.736693 -0.658032 
1282.89 594.362 -108.279 -0.15581 0.736693 -0.658032 
1314.54 313.878 -430.903 -0.15581 0.736693 -0.658032 
1481.48 115.427 -693.661 -0.15581 0.736693 -0.658032 
1303.1 372.307 -362.539 -0.15581 0.736693 -0.658032 
1402.71 264.104 -507.854 -0.15581 0.736693 -0.658032 
1316.19 561.17 -153.509 -0.15581 0.736693 -0.658032 
1453.52 126.211 -674.876 -0.15581 0.736693 -0.658032 
1450.62 110.46 -691.878 -0.15581 0.736693 -0.658032 
1414.29 176.164 -609.403 -0.15581 0.736693 -0.658032 
1433.41 124.253 -672.278 -0.15581 0.736693 -0.658032 
1364.41 193.812 -577.676 -0.15581 0.736693 -0.658032 
1410.64 91.2496 -703.919 -0.15581 0.736693 -0.658032 
1463.58 169.484 -628.667 -0.15581 0.736693 -0.658032 
1406.53 250.905 -523.592 -0.15581 0.736693 -0.658032 
1356.12 178.222 -593.211 -0.15581 0.736693 -0.658032 
1270.09 642.403 -51.257 -0.15581 0.736693 -0.658032 
1387.75 177.572 -601.487 -0.15581 0.736693 -0.658032 
1333.67 393.678 -345.827 -0.15581 0.736693 -0.658032 
1381.54 366.884 -387.348 -0.15581 0.736693 -0.658032 
1321.08 355.466 -385.747 -0.15581 0.736693 -0.658032 
1373.61 261.28 -504.082 -0.15581 0.736693 -0.658032 
1397.5 169.135 -613.291 -0.15581 0.736693 -0.658032 
1393.2 222.083 -552.788 -0.15581 0.736693 -0.658032 
1234.65 759.661 88.9184 -0.15581 0.736693 -0.658032 
1429.44 213.451 -571.131 -0.15581 0.736693 -0.658032 
1247.18 752.71 78.1184 -0.15581 0.736693 -0.658032 
1388.29 171.037 -608.958 -0.15581 0.736693 -0.658032 
1232.36 740.713 68.1796 -0.15581 0.736693 -0.658032 
1268.88 630.026 -64.8719 -0.15581 0.736693 -0.658032 
1296.17 493.862 -224.341 -0.15581 0.736693 -0.658032 
1378.73 301.229 -460.428 -0.15581 0.736693 -0.658032 
1364.1 99.2506 -683.825 -0.15581 0.736693 -0.658032 
1338.41 253.495 -504.428 -0.15581 0.736693 -0.658032 
1429.8 281.761 -494.483 -0.15581 0.736693 -0.658032 
1338.42 312.239 -438.442 -0.15581 0.736693 -0.658032 
1303.32 520.561 -196.055 -0.15581 0.736693 -0.658032 
1347.23 480.707 -251.3 -0.15581 0.736693 -0.658032 
1411.38 127.119 -663.799 -0.15581 0.736693 -0.658032 
1333.62 507.36 -218.112 -0.15581 0.736693 -0.658032 
1309.28 462.947 -262.196 -0.15581 0.736693 -0.658032 
1247.6 704.26 23.5946 -0.15581 0.736693 -0.658032 
1346.41 402.376 -339.096 -0.15581 0.736693 -0.658032 
1307.99 582.458 -127.639 -0.15581 0.736693 -0.658032 
1425.37 203.122 -581.764 -0.15581 0.736693 -0.658032 
1324.45 546.601 -171.845 -0.15581 0.736693 -0.658032 
1396.15 105.145 -684.851 -0.15581 0.736693 -0.658032 
1243.31 731.595 55.3232 -0.15581 0.736693 -0.658032 
1352.14 468.546 -266.134 -0.15581 0.736693 -0.658032 
1348.38 485.295 -246.421 -0.15581 0.736693 -0.658032 
1381.83 490.204 -248.89 -0.15581 0.736693 -0.658032 
1455.22 292.307 -488.701 -0.15581 0.736693 -0.658032 
1412.27 451.018 -300.169 -0.15581 0.736693 -0.658032 
1275.93 756.597 75.6255 -0.15581 0.736693 -0.658032 
1393.45 459.53 -286.119 -0.15581 0.736693 -0.658032 
1266.19 853.338 186.621 -0.15581 0.736693 -0.658032 
1375.46 617.98 -103.835 -0.15581 0.736693 -0.658032 
1280.04 843.999 172.827 -0.15581 0.736693 -0.658032 
1449.99 327.917 -447.452 -0.15581 0.736693 -0.658032 
1334.14 544.783 -176.199 -0.15581 0.736693 -0.658032 
1400 507.419 -233.887 -0.15581 0.736693 -0.658032 
1237.53 851.693 191.613 -0.15581 0.736693 -0.658032 
1292.21 836.331 161.309 -0.15581 0.736693 -0.658032 
1381.04 502.264 -235.153 -0.15581 0.736693 -0.658032 
1233.38 794.205 128.024 -0.15581 0.736693 -0.658032 
1333.52 682.572 -21.2691 -0.15581 0.736693 -0.658032 
1253.87 848.831 184.499 -0.15581 0.736693 -0.658032 
1412.24 434.957 -318.205 -0.15581 0.736693 -0.658032 
1368.94 605.982 -115.758 -0.15581 0.736693 -0.658032 
1282.21 792.694 114.674 -0.15581 0.736693 -0.658032 
1383.21 635.945 -85.5032 -0.15581 0.736693 -0.658032 
1321.63 736.987 42.6931 -0.15581 0.736693 -0.658032 
1375.33 442.278 -301.175 -0.15581 0.736693 -0.658032 
1380.65 663.043 -54.4529 -0.15581 0.736693 -0.658032 
1382.55 667.021 -50.438 -0.15581 0.736693 -0.658032 
1345.87 796.466 103.723 -0.15581 0.736693 -0.658032 
1479.31 165.82 -636.536 -0.15581 0.736693 -0.658032 
1324.02 580.073 -134.143 -0.15581 0.736693 -0.658032 
1333.4 655.144 -52.0513 -0.15581 0.736693 -0.658032 
1336.69 772.03 78.4636 -0.15581 0.736693 -0.658032 
1346.05 580.225 -139.228 -0.15581 0.736693 -0.658032 
1273.91 818.997 146.203 -0.15581 0.736693 -0.658032 
1299.35 822.068 143.583 -0.15581 0.736693 -0.658032 
1428.82 403.265 -357.76 -0.15581 0.736693 -0.658032 
1332.27 854.437 172.087 -0.15581 0.736693 -0.658032 
1365.38 799.877 102.9 -0.15581 0.736693 -0.658032 
1292.1 640.792 -58.3192 -0.15581 0.736693 -0.658032 
1417.4 335.71 -430.923 -0.15581 0.736693 -0.658032 
1296.78 640.49 -59.775 -0.15581 0.736693 -0.658032 
1306.96 613.472 -92.553 -0.15581 0.736693 -0.658032 
1381.21 420.52 -327.018 -0.15581 0.736693 -0.658032 
1317.96 640.956 -64.3057 -0.15581 0.736693 -0.658032 
1312.29 615.122 -91.9728 -0.15581 0.736693 -0.658032 
1411.45 348.858 -414.734 -0.15581 0.736693 -0.658032 
1374.94 613.435 -108.816 -0.15581 0.736693 -0.658032 
1396.16 500.934 -240.253 -0.15581 0.736693 -0.658032 
1466.52 278.118 -507.338 -0.15581 0.736693 -0.658032 
1252 776.966 104.217 -0.15581 0.736693 -0.658032 
1421.76 366.398 -397.489 -0.15581 0.736693 -0.658032 
1244 837.818 174.482 -0.15581 0.736693 -0.658032 
1302.96 823.702 144.557 -0.15581 0.736693 -0.658032 
1405.83 420.173 -333.283 -0.15581 0.736693 -0.658032 
1340.36 642.664 -67.7329 -0.15581 0.736693 -0.658032 
1343.36 762.987 66.7135 -0.15581 0.736693 -0.658032 
1367.47 561.507 -165.366 -0.15581 0.736693 -0.658032 
1264.39 842.074 174.399 -0.15581 0.736693 -0.658032 
1418.34 351.868 -412.996 -0.15581 0.736693 -0.658032 
1489.04 143.597 -663.821 -0.15581 0.736693 -0.658032 
1253.66 792.103 120.825 -0.15581 0.736693 -0.658032 
1287.5 694.336 2.92615 -0.15581 0.736693 -0.658032 
1344.95 516.794 -210.219 -0.15581 0.736693 -0.658032 
1384.2 433.977 -312.616 -0.15581 0.736693 -0.658032 
1252.64 812.744 144.254 -0.15581 0.736693 -0.658032 
1283.92 744.447 60.072 -0.15581 0.736693 -0.658032 
1345.87 855.188 169.686 -0.15581 0.736693 -0.658032 
1281.74 674.581 -17.8912 -0.15581 0.736693 -0.658032 
1258.29 794.271 122.155 -0.15581 0.736693 -0.658032 
1452.72 307.769 -470.738 -0.15581 0.736693 -0.658032 
1298.61 823.381 145.233 -0.15581 0.736693 -0.658032 
1273.28 713.541 27.8922 -0.15581 0.736693 -0.658032 
1317.63 592.04 -119.176 -0.15581 0.736693 -0.658032 
1382.92 665.987 -51.6874 -0.15581 0.736693 -0.658032 
1295.14 769.937 86.027 -0.15581 0.736693 -0.658032 
1300.78 651.119 -48.7894 -0.15581 0.736693 -0.658032 
1382.29 502.227 -235.493 -0.15581 0.736693 -0.658032 
1380.81 561.263 -168.822 -0.15581 0.736693 -0.658032 
1308.71 633.55 -70.4171 -0.15581 0.736693 -0.658032 
1239.23 844.37 182.98 -0.15581 0.736693 -0.658032 
1421.24 407.09 -351.657 -0.15581 0.736693 -0.658032 
1276.57 764.963 84.8714 -0.15581 0.736693 -0.658032 
1483.67 162.841 -640.922 -0.15581 0.736693 -0.658032 
1238.5 780.244 111.12 -0.15581 0.736693 -0.658032 
1425.69 364.556 -400.497 -0.15581 0.736693 -0.658032 
1452.8 231.537 -556.388 -0.15581 0.736693 -0.658032 
1376.39 557.967 -171.471 -0.15581 0.736693 -0.658032 
1358.02 713.295 7.39728 -0.15581 0.736693 -0.658032 
1306.2 626.319 -77.9407 -0.15581 0.736693 -0.658032 
1293.71 823.694 146.754 -0.15581 0.736693 -0.658032 
1363.83 796.082 99.005 -0.15581 0.736693 -0.658032 
1260.82 753.723 76.004 -0.15581 0.736693 -0.658032 
1405.89 361.46 -399.25 -0.15581 0.736693 -0.658032 
1361.45 649.848 -64.6934 -0.15581 0.736693 -0.658032 
1402.7 537.38 -200.875 -0.15581 0.736693 -0.658032 
1256.2 760.698 84.9407 -0.15581 0.736693 -0.658032 
1316.31 641.639 -63.1434 -0.15581 0.736693 -0.658032 
1277.68 789.157 111.783 -0.15581 0.736693 -0.658032 
1341.81 586.114 -131.602 -0.15581 0.736693 -0.658032 
1295.52 815.344 136.944 -0.15581 0.736693 -0.658032 
1372.31 502.089 -233.264 -0.15581 0.736693 -0.658032 
1427.25 380.188 -383.308 -0.15581 0.736693 -0.658032 
1444.5 322.314 -452.437 -0.15581 0.736693 -0.658032 
1394.68 637.445 -86.5555 -0.15581 0.736693 -0.658032 
1405.08 561.06 -174.842 -0.15581 0.736693 -0.658032 
1324.11 652.852 -52.4098 -0.15581 0.736693 -0.658032 
1429.63 330.237 -439.988 -0.15581 0.736693 -0.658032 
1334.09 813.257 125.397 -0.15581 0.736693 -0.658032 
1346.52 837.102 149.217 -0.15581 0.736693 -0.658032 
1353.16 712.798 7.99756 -0.15581 0.736693 -0.658032 
1342.5 702.346 -1.20056 -0.15581 0.736693 -0.658032 
1369.32 763.93 61.579 -0.15581 0.736693 -0.658032 
1336.8 529.29 -194.237 -0.15581 0.736693 -0.658032 
1303.07 737.253 47.4206 -0.15581 0.736693 -0.658032 
1255.87 825.444 157.75 -0.15581 0.736693 -0.658032 
1428.48 410.265 -349.816 -0.15581 0.736693 -0.658032 
1278.89 690.042 0.156738 -0.15581 0.736693 -0.658032 
1346.85 868.984 184.95 -0.15581 0.736693 -0.658032 
1273.4 718.383 33.3024 -0.15581 0.736693 -0.658032 
1299.76 777.588 93.5208 -0.15581 0.736693 -0.658032 
1306.03 608.039 -98.4346 -0.15581 0.736693 -0.658032 
1470.63 252.075 -537.573 -0.15581 0.736693 -0.658032 
1358.34 762.736 62.8575 -0.15581 0.736693 -0.658032 
1441.33 338.67 -433.308 -0.15581 0.736693 -0.658032 
1291.37 680.618 -13.4072 -0.15581 0.736693 -0.658032 
1308.81 800.867 117.511 -0.15581 0.736693 -0.658032 
1281.04 690.552 0.216309 -0.15581 0.736693 -0.658032 
1433.87 431.088 -327.711 -0.15581 0.736693 -0.658032 
1305.63 667.505 -31.5411 -0.15581 0.736693 -0.658032 
1338.75 812.483 123.415 -0.15581 0.736693 -0.658032 
1281.59 817.051 142.184 -0.15581 0.736693 -0.658032 
1332.26 848.912 165.886 -0.15581 0.736693 -0.658032 
1282.32 807.369 131.136 -0.15581 0.736693 -0.658032 
1321.39 743.915 50.5336 -0.15581 0.736693 -0.658032 
1398.54 529.69 -208.52 -0.15581 0.736693 -0.658032 
1312.78 706.485 10.541 -0.15581 0.736693 -0.658032 
1296.42 790.92 109.293 -0.15581 0.736693 -0.658032 
1257.01 733.107 53.7542 -0.15581 0.736693 -0.658032 
1394.59 545.898 -189.371 -0.15581 0.736693 -0.658032 
1495.19 134.236 -649.744 0.979437 0.201478 -0.0104815 
1490.12 160.79 -615.648 0.979437 0.201478 -0.0104815 
1496.3 128.254 -660.867 0.979437 0.201478 -0.0104815 
1361.99 827.662 164.947 0.979437 0.201478 -0.0104815 
1359.05 842.416 171.574 0.979437 0.201478 -0.0104815 
1376.52 752.135 79.2135 0.979437 0.201478 -0.0104815 
1461.3 309.432 -467.354 0.979437 0.201478 -0.0104815 
1478.43 220.193 -573.835 0.979437 0.201478 -0.0104815 
1464.52 292.898 -482.695 0.979437 0.201478 -0.0104815 
1468.95 269.882 -509.033 0.979437 0.201478 -0.0104815 
1485.03 185.856 -614.106 0.979437 0.201478 -0.0104815 
1417.3 538.948 -189.351 0.979437 0.201478 -0.0104815 
1451.89 358.711 -403.933 0.979437 0.201478 -0.0104815 
1383.18 717.089 30.09 0.979437 0.201478 -0.0104815 
1370.33 782.838 84.7159 0.979437 0.201478 -0.0104815 
1409.22 580.879 -141.995 0.979437 0.201478 -0.0104815 
1380.45 730.487 30.213 0.979437 0.201478 -0.0104815 
1374.75 759.834 58.0273 0.979437 0.201478 -0.0104815 
1482.48 199.073 -598.846 0.979437 0.201478 -0.0104815 
1439.42 423.936 -321.528 0.979437 0.201478 -0.0104815 
1363.79 817.16 130.996 0.979437 0.201478 -0.0104815 
1411.05 571.045 -160.124 0.979437 0.201478 -0.0104815 
1447.02 384.286 -369.575 0.979437 0.201478 -0.0104815 
1447.84 379.593 -383.271 0.979437 0.201478 -0.0104815 
1387.01 697.176 7.85968 0.979437 0.201478 -0.0104815 
1398.17 637.891 -85.1335 0.979437 0.201478 -0.0104815 
1440.16 420.511 -316.88 0.979437 0.201478 -0.0104815 
1472.67 250.553 -530.688 0.979437 0.201478 -0.0104815 
1420.34 524.005 -189.31 0.979437 0.201478 -0.0104815 
1437.06 436.688 -297.282 0.979437 0.201478 -0.0104815 
1416.01 546.308 -167.369 0.979437 0.201478 -0.0104815 
1405.4 601.67 -100.03 0.979437 0.201478 -0.0104815 
1414.18 555.926 -154.932 0.979437 0.201478 -0.0104815 
1442.63 408.017 -325.055 0.979437 0.201478 -0.0104815 
1448.74 376.018 -366.302 0.979437 0.201478 -0.0104815 
1490.11 160.466 -622.973 0.979437 0.201478 -0.0104815 
1467.81 276.341 -491.422 0.979437 0.201478 -0.0104815 
1467.74 277.223 -479.407 0.979437 0.201478 -0.0104815 
1484.02 192.508 -578.774 0.979437 0.201478 -0.0104815 
1487.27 174.928 -612.452 0.979437 0.201478 -0.0104815 
1459.79 318.595 -431.72 0.979437 0.201478 -0.0104815 
1454.29 347.319 -395.603 0.979437 0.201478 -0.0104815 
1515.43 113.036 -670.947 -0.15581 0.736693 -0.658032 
1512.32 126.127 -655.5 -0.15581 0.736693 -0.658032 
1512.61 138.464 -641.71 -0.15581 0.736693 -0.658032 
1537.46 100.266 -690.549 -0.15581 0.736693 -0.658032 
1533.88 101.953 -687.8 -0.15581 0.736693 -0.658032 
1526.86 134.915 -649.099 -0.15581 0.736693 -0.658032 
1538.77 103.026 -687.761 -0.15581 0.736693 -0.658032 
1519.14 149.918 -630.403 -0.15581 0.736693 -0.658032 
1527.51 165.72 -614.648 -0.15581 0.736693 -0.658032 
1523.41 146.589 -635.161 -0.15581 0.736693 -0.658032 
1531.28 158.345 -632.05 -0.979532 -0.201019 0.0104576 
1535.9 134.525 -655.54 -0.979532 -0.201019 0.0104576 
1532.53 151.47 -647.324 -0.979532 -0.201019 0.0104576 
1402.23 830.19 158.282 -0.979532 -0.201019 0.0104576 
1408.39 798.294 123.877 -0.979532 -0.201019 0.0104576 
1504.3 297.792 -487.158 -0.979532 -0.201019 0.0104576 
1518.01 226.697 -565.922 -0.979532 -0.201019 0.0104576 
1491.96 361.838 -416.046 -0.979532 -0.201019 0.0104576 
1435.83 653.987 -73.4452 -0.979532 -0.201019 0.0104576 
1495.94 342.12 -419.427 -0.979532 -0.201019 0.0104576 
1484.69 399.614 -373.378 -0.979532 -0.201019 0.0104576 
1453.7 561.439 -173.056 -0.979532 -0.201019 0.0104576 
1518.14 226.776 -551.03 -0.979532 -0.201019 0.0104576 
1433.2 667.499 -60.968 -0.979532 -0.201019 0.0104576 
1514.16 247.012 -536.594 -0.979532 -0.201019 0.0104576 
1498.13 330.391 -439.522 -0.979532 -0.201019 0.0104576 
1519.15 221.579 -555.941 -0.979532 -0.201019 0.0104576 
1461.68 519.299 -234.149 -0.979532 -0.201019 0.0104576 
1499.48 323.71 -440.969 -0.979532 -0.201019 0.0104576 
1532.53 151.011 -656.603 -0.979532 -0.201019 0.0104576 
1508.04 278.995 -496.734 -0.979532 -0.201019 0.0104576 
1530 164.247 -639.994 -0.979532 -0.201019 0.0104576 
1482.32 412.363 -350.106 -0.979532 -0.201019 0.0104576 
1511.48 261.479 -509.672 -0.979532 -0.201019 0.0104576 
1523.38 198.644 -600.671 -0.979532 -0.201019 0.0104576 
1519.65 217.738 -584.03 -0.979532 -0.201019 0.0104576 
1433.53 666.433 -49.4754 -0.979532 -0.201019 0.0104576 
1414.34 766.025 61.3235 -0.979532 -0.201019 0.0104576 
1425.46 708.324 -3.08246 -0.979532 -0.201019 0.0104576 
1495.08 347.026 -405.592 -0.979532 -0.201019 0.0104576 
1417.53 749.476 42.9567 -0.979532 -0.201019 0.0104576 
1498.47 329.19 -429.585 -0.979532 -0.201019 0.0104576 
1466.17 497.135 -236.839 -0.979532 -0.201019 0.0104576 
1444.03 612.347 -102.116 -0.979532 -0.201019 0.0104576 
1435.14 658.333 -54.2056 -0.979532 -0.201019 0.0104576 
1413.81 769.088 70.6308 -0.979532 -0.201019 0.0104576 
1410.79 785.673 106.498 -0.979532 -0.201019 0.0104576 
1432.19 674.401 -20.9515 -0.979532 -0.201019 0.0104576 
1423.09 721.333 25.3252 -0.979532 -0.201019 0.0104576 
1413.27 772.68 90.4256 -0.979532 -0.201019 0.0104576 
1401.53 832.701 139.065 -0.979532 -0.201019 0.0104576 
1413.51 776.062 64.6639 -0.15581 0.736693 -0.658032 
1583.59 204.181 -618.327 -0.15581 0.736693 -0.658032 
1502.21 390.777 -389.3 -0.15581 0.736693 -0.658032 
1491.17 382.625 -395.824 -0.15581 0.736693 -0.658032 
1492.76 433.623 -338.917 -0.15581 0.736693 -0.658032 
1581.85 192.68 -630.83 -0.15581 0.736693 -0.658032 
1482.14 546.124 -210.006 -0.15581 0.736693 -0.658032 
1414.7 803.032 94.6757 -0.15581 0.736693 -0.658032 
1567.48 208.263 -609.897 -0.15581 0.736693 -0.658032 
1515.99 374.743 -410.601 -0.15581 0.736693 -0.658032 
1441.42 647.245 -86.6989 -0.15581 0.736693 -0.658032 
1515.15 253.529 -546.562 -0.15581 0.736693 -0.658032 
1572.29 301.29 -506.544 -0.15581 0.736693 -0.658032 
1614.52 197.54 -633.165 -0.15581 0.736693 -0.658032 
1491.12 467.557 -300.405 -0.15581 0.736693 -0.658032 
1491.19 461.906 -306.771 -0.15581 0.736693 -0.658032 
1562.02 300.578 -504.894 -0.15581 0.736693 -0.658032 
1617.11 133.972 -705.193 -0.15581 0.736693 -0.658032 
1412.34 804.696 97.1076 -0.15581 0.736693 -0.658032 
1571.77 216.697 -601.446 -0.15581 0.736693 -0.658032 
1587.46 217.169 -604.661 -0.15581 0.736693 -0.658032 
1563.84 252.527 -559.307 -0.15581 0.736693 -0.658032 
1449.24 622.888 -115.926 -0.15581 0.736693 -0.658032 
1586.9 142.319 -688.608 -0.15581 0.736693 -0.658032 
1416.02 781.481 70.1521 -0.15581 0.736693 -0.658032 
1573.62 132.848 -696.077 -0.15581 0.736693 -0.658032 
1557.1 190.672 -627.182 -0.15581 0.736693 -0.658032 
1425.12 725.406 4.99176 -0.15581 0.736693 -0.658032 
1520.62 441.117 -337.145 -0.15581 0.736693 -0.658032 
1488.03 407.497 -367.136 -0.15581 0.736693 -0.658032 
1627.87 151.992 -687.517 -0.15581 0.736693 -0.658032 
1544.4 138.807 -682.412 -0.15581 0.736693 -0.658032 
1472.55 612.864 -132.748 -0.15581 0.736693 -0.658032 
1481.27 435.918 -333.596 -0.15581 0.736693 -0.658032 
1437.12 695.414 -31.5645 -0.15581 0.736693 -0.658032 
1437.62 653.896 -78.3215 -0.15581 0.736693 -0.658032 
1488.94 583.698 -169.421 -0.15581 0.736693 -0.658032 
1537.04 333.248 -462.235 -0.15581 0.736693 -0.658032 
1513.01 501.172 -267.867 -0.15581 0.736693 -0.658032 
1551.7 222.615 -590.009 -0.15581 0.736693 -0.658032 
1435.57 699.725 -26.3512 -0.15581 0.736693 -0.658032 
1436.96 731.671 9.20404 -0.15581 0.736693 -0.658032 
1507.79 497.843 -270.363 -0.15581 0.736693 -0.658032 
1562.49 217.299 -598.556 -0.15581 0.736693 -0.658032 
1496.37 486.137 -280.786 -0.15581 0.736693 -0.658032 
1597.98 202.17 -624.018 -0.15581 0.736693 -0.658032 
1607.65 137.174 -699.338 -0.15581 0.736693 -0.658032 
1508.52 473.359 -298.039 -0.15581 0.736693 -0.658032 
1545.54 360.433 -433.725 -0.15581 0.736693 -0.658032 
1635.28 136.516 -706.67 -0.15581 0.736693 -0.658032 
1481.14 571.514 -181.247 -0.15581 0.736693 -0.658032 
1559.3 175.479 -644.773 -0.15581 0.736693 -0.658032 
1502.15 461.82 -309.482 -0.15581 0.736693 -0.658032 
1577.8 209.28 -611.216 -0.15581 0.736693 -0.658032 
1560.9 233.906 -579.522 -0.15581 0.736693 -0.658032 
1544.16 196.502 -617.545 -0.15581 0.736693 -0.658032 
1537.01 194.701 -617.862 -0.15581 0.736693 -0.658032 
1521.51 425.196 -355.243 -0.15581 0.736693 -0.658032 
1475.48 521.212 -236.403 -0.15581 0.736693 -0.658032 
1611.39 169.152 -664.31 -0.15581 0.736693 -0.658032 
1513.62 392.475 -390.116 -0.15581 0.736693 -0.658032 
1600.79 135.861 -699.176 -0.15581 0.736693 -0.658032 
1436.81 651.846 -80.4298 -0.15581 0.736693 -0.658032 
1511.78 328.773 -461.235 -0.15581 0.736693 -0.658032 
1465.07 585.679 -161.501 -0.15581 0.736693 -0.658032 
1584.3 292.814 -518.932 -0.15581 0.736693 -0.658032 
1405.88 832.767 130.183 -0.15581 0.736693 -0.658032 
1428.5 733.577 13.3635 -0.15581 0.736693 -0.658032 
1483.53 507.802 -253.386 -0.15581 0.736693 -0.658032 
1547.54 181.829 -634.834 -0.15581 0.736693 -0.658032 
1590.3 239.467 -580.289 -0.15581 0.736693 -0.658032 
1536.4 273.325 -529.395 -0.15581 0.736693 -0.658032 
1544.06 114.525 -709.607 -0.15581 0.736693 -0.658032 
1451.38 675.106 -57.7772 -0.15581 0.736693 -0.658032 
1489.99 565.924 -189.638 -0.15581 0.736693 -0.658032 
1577.93 129.041 -701.382 -0.15581 0.736693 -0.658032 
1587.26 140.935 -690.248 -0.15581 0.736693 -0.658032 
1550.33 362.533 -432.511 -0.15581 0.736693 -0.658032 
1478.56 587.124 -163.096 -0.15581 0.736693 -0.658032 
1603.61 177.222 -653.386 -0.15581 0.736693 -0.658032 
1518.43 293.972 -501.913 -0.15581 0.736693 -0.658032 
1470.89 557.005 -195.1 -0.15581 0.736693 -0.658032 
1598.2 169.004 -661.329 -0.15581 0.736693 -0.658032 
1446.36 715.407 -11.311 -0.15581 0.736693 -0.658032 
1485.17 478.234 -286.993 -0.15581 0.736693 -0.658032 
1522.86 384.009 -401.83 -0.15581 0.736693 -0.658032 
1492.55 562.816 -193.741 -0.15581 0.736693 -0.658032 
1607.38 196.003 -633.189 -0.15581 0.736693 -0.658032 
1534.98 257.647 -546.668 -0.15581 0.736693 -0.658032 
1542.16 210.902 -600.891 -0.15581 0.736693 -0.658032 
1462.44 561.017 -188.576 -0.15581 0.736693 -0.658032 
1476.84 504.578 -255.412 -0.15581 0.736693 -0.658032 
1486.69 512.906 -248.407 -0.15581 0.736693 -0.658032 
1548.89 244.427 -564.837 -0.15581 0.736693 -0.658032 
1511.86 478.928 -292.581 -0.15581 0.736693 -0.658032 
1443.49 774.282 55.5114 -0.15581 0.736693 -0.658032 
1493.07 650.253 -95.6442 -0.15581 0.736693 -0.658032 
1501.35 724.629 -14.0734 -0.15581 0.736693 -0.658032 
1481.8 873.477 157.797 -0.15581 0.736693 -0.658032 
1528.76 625.14 -132.371 -0.15581 0.736693 -0.658032 
1436.41 846.463 138.281 -0.15581 0.736693 -0.658032 
1477.47 889.497 176.827 -0.15581 0.736693 -0.658032 
1450.74 892.941 187.074 -0.15581 0.736693 -0.658032 
1436.52 853.1 145.713 -0.15581 0.736693 -0.658032 
1407.75 851.522 150.803 -0.15581 0.736693 -0.658032 
1506.86 603.887 -151.019 -0.15581 0.736693 -0.658032 
1505.22 736.976 -1.12549 -0.15581 0.736693 -0.658032 
1426.36 784.222 70.764 -0.15581 0.736693 -0.658032 
1518.3 555.622 -207.965 -0.15581 0.736693 -0.658032 
1426.3 830.801 123.102 -0.15581 0.736693 -0.658032 
1442.93 874.801 168.559 -0.15581 0.736693 -0.658032 
1482.12 753.626 23.0903 -0.15581 0.736693 -0.658032 
1447.4 828.396 115.366 -0.15581 0.736693 -0.658032 
1507.35 541.2 -221.552 -0.15581 0.736693 -0.658032 
1465.4 693.863 -40.054 -0.15581 0.736693 -0.658032 
1507.63 726.878 -13.0427 -0.15581 0.736693 -0.658032 
1470.34 679.184 -57.7225 -0.15581 0.736693 -0.658032 
1595.12 299.645 -513.841 -0.15581 0.736693 -0.658032 
1504.8 744.557 7.49084 -0.15581 0.736693 -0.658032 
1581.67 333.688 -472.39 -0.15581 0.736693 -0.658032 
1465.04 852.835 138.61 -0.15581 0.736693 -0.658032 
1422.08 803.353 93.2753 -0.15581 0.736693 -0.658032 
1573.48 379.622 -418.837 -0.15581 0.736693 -0.658032 
1484.79 826.084 103.845 -0.15581 0.736693 -0.658032 
1494.92 758.769 25.8119 -0.15581 0.736693 -0.658032 
1440.25 756.393 36.1898 -0.15581 0.736693 -0.658032 
1482.96 793.237 67.3853 -0.15581 0.736693 -0.658032 
1488.7 641.472 -104.465 -0.15581 0.736693 -0.658032 
1501.1 774.132 41.5962 -0.15581 0.736693 -0.658032 
1523.05 504.077 -267.002 -0.15581 0.736693 -0.658032 
1484.11 696.749 -41.2749 -0.15581 0.736693 -0.658032 
1491.21 890.185 174.322 -0.15581 0.736693 -0.658032 
1463.43 841.657 126.437 -0.15581 0.736693 -0.658032 
1585.63 346.417 -459.035 -0.15581 0.736693 -0.658032 
1474.06 844.752 127.377 -0.15581 0.736693 -0.658032 
1405.08 887.569 191.934 -0.15581 0.736693 -0.658032 
1544.5 446.161 -337.177 -0.15581 0.736693 -0.658032 
1516.02 535.655 -229.851 -0.15581 0.736693 -0.658032 
1512.79 745.454 6.5918 -0.15581 0.736693 -0.658032 
1571.72 435.654 -355.475 -0.15581 0.736693 -0.658032 
1588.11 373.39 -429.328 -0.15581 0.736693 -0.658032 
1511.42 647.351 -103.283 -0.15581 0.736693 -0.658032 
1442.73 810.311 96.1626 -0.15581 0.736693 -0.658032 
1507.69 693.098 -51.0038 -0.15581 0.736693 -0.658032 
1520.74 561.809 -201.598 -0.15581 0.736693 -0.658032 
1444.57 882.805 177.16 -0.15581 0.736693 -0.658032 
1469.15 867.51 154.114 -0.15581 0.736693 -0.658032 
1468.46 650.017 -90.0367 -0.15581 0.736693 -0.658032 
1530.58 510.993 -261.029 -0.15581 0.736693 -0.658032 
1464.98 750.471 23.6366 -0.15581 0.736693 -0.658032 
1500.05 827.245 101.508 -0.15581 0.736693 -0.658032 
1503.32 673.5 -71.9764 -0.15581 0.736693 -0.658032 
1428.97 889.091 187.944 -0.15581 0.736693 -0.658032 
1475.58 812.671 90.9773 -0.15581 0.736693 -0.658032 
1516.87 754.515 15.7977 -0.15581 0.736693 -0.658032 
1611.68 224.711 -601.967 -0.15581 0.736693 -0.658032 
1542.99 570.237 -197.441 -0.15581 0.736693 -0.658032 
1507.8 566.196 -193.581 -0.15581 0.736693 -0.658032 
1577.77 339.955 -464.42 -0.15581 0.736693 -0.658032 
1479.87 666.242 -74.5338 -0.15581 0.736693 -0.658032 
1419.14 843.669 139.265 -0.15581 0.736693 -0.658032 
1576.98 360.145 -441.551 -0.15581 0.736693 -0.658032 
1518.45 587.326 -172.388 -0.15581 0.736693 -0.658032 
1567.13 355.048 -444.926 -0.15581 0.736693 -0.658032 
1512.46 607.058 -148.794 -0.15581 0.736693 -0.658032 
1565.17 381.59 -414.642 -0.15581 0.736693 -0.658032 
1500.78 668.988 -76.4379 -0.15581 0.736693 -0.658032 
1503.01 823.704 96.8264 -0.15581 0.736693 -0.658032 
1507.59 603.692 -151.411 -0.15581 0.736693 -0.658032 
1610.48 268.421 -552.58 -0.15581 0.736693 -0.658032 
1445.41 722.467 -3.15344 -0.15581 0.736693 -0.658032 
1544.82 565.472 -203.228 -0.15581 0.736693 -0.658032 
1525.51 654.31 -98.8281 -0.15581 0.736693 -0.658032 
1538.38 479.407 -298.371 -0.15581 0.736693 -0.658032 
1491.46 706.357 -32.2369 -0.15581 0.736693 -0.658032 
1491.79 707.544 -30.9835 -0.15581 0.736693 -0.658032 
1471.65 756.163 28.4382 -0.15581 0.736693 -0.658032 
1448.9 812.73 97.4097 -0.15581 0.736693 -0.658032 
1573.37 434.228 -357.47 -0.15581 0.736693 -0.658032 
1460.64 676.121 -58.8488 -0.15581 0.736693 -0.658032 
1531.34 585.215 -177.836 -0.15581 0.736693 -0.658032 
1444.57 840.514 129.652 -0.15581 0.736693 -0.658032 
1468.17 844.214 128.177 -0.15581 0.736693 -0.658032 
1498.95 561.596 -196.639 -0.15581 0.736693 -0.658032 
1568.89 365.223 -433.916 -0.15581 0.736693 -0.658032 
1427.43 884.563 183.224 -0.15581 0.736693 -0.658032 
1416.61 886.6 188.094 -0.15581 0.736693 -0.658032 
1427.62 861.276 157.019 -0.15581 0.736693 -0.658032 
1461.55 814.828 96.7469 -0.15581 0.736693 -0.658032 
1449.33 802.524 85.8428 -0.15581 0.736693 -0.658032 
1633.36 156.579 -665.838 0.979437 0.201478 -0.0104815 
1633.88 153.969 -666.948 0.979437 0.201478 -0.0104815 
1629.89 174.865 -640.168 0.979437 0.201478 -0.0104815 
1492.9 887.512 187.635 0.979437 0.201478 -0.0104815 
1499.82 851.681 149.616 0.979437 0.201478 -0.0104815 
1491.94 892.092 184.376 0.979437 0.201478 -0.0104815 
1546.46 609.109 -131.513 0.979437 0.201478 -0.0104815 
1523.01 731.019 8.70172 0.979437 0.201478 -0.0104815 
1524.13 725.241 2.57794 0.979437 0.201478 -0.0104815 
1513.51 780.704 71.6714 0.979437 0.201478 -0.0104815 
1531.09 688.466 -51.0001 0.979437 0.201478 -0.0104815 
1552.99 573.95 -194.896 0.979437 0.201478 -0.0104815 
1629.51 175.794 -659.361 0.979437 0.201478 -0.0104815 
1612.22 265.947 -550.793 0.979437 0.201478 -0.0104815 
1512.24 787.564 84.8701 0.979437 0.201478 -0.0104815 
1532.34 681.448 -68.6792 0.979437 0.201478 -0.0104815 
1536.57 660.682 -68.8442 0.979437 0.201478 -0.0104815 
1541.91 631.733 -125.066 0.979437 0.201478 -0.0104815 
1605.32 301.978 -506.621 0.979437 0.201478 -0.0104815 
1538.72 648.469 -102.864 0.979437 0.201478 -0.0104815 
1545.61 612.596 -145.435 0.979437 0.201478 -0.0104815 
1551.26 582.949 -184.924 0.979437 0.201478 -0.0104815 
1552.87 574.653 -193.145 0.979437 0.201478 -0.0104815 
1616.78 242.235 -578.309 0.979437 0.201478 -0.0104815 
1518.87 751.877 19.7341 0.979437 0.201478 -0.0104815 
1596.4 348.12 -457.749 0.979437 0.201478 -0.0104815 
1571.58 478.166 -288.345 0.979437 0.201478 -0.0104815 
1538.78 649.335 -79.3497 0.979437 0.201478 -0.0104815 
1554.97 564.78 -183.527 0.979437 0.201478 -0.0104815 
1564.27 516.632 -235.24 0.979437 0.201478 -0.0104815 
1556.73 555.761 -191.868 0.979437 0.201478 -0.0104815 
1546.39 609.692 -126.554 0.979437 0.201478 -0.0104815 
1574.74 462.206 -298.059 0.979437 0.201478 -0.0104815 
1611.32 271.082 -536.129 0.979437 0.201478 -0.0104815 
1625.01 200.516 -604.999 0.979437 0.201478 -0.0104815 
1621.99 215.663 -598.372 0.979437 0.201478 -0.0104815 
1605.01 304.479 -485.961 0.979437 0.201478 -0.0104815 
1597.11 345.467 -440.507 0.979437 0.201478 -0.0104815 
1617.6 239.337 -555.143 0.979437 0.201478 -0.0104815 
1626.36 192.531 -633.62 0.979437 0.201478 -0.0104815 
1622.23 214.725 -593.033 0.979437 0.201478 -0.0104815 
1640.94 182.243 -623.154 -0.15581 0.736693 -0.658032 
1658.44 155.862 -656.965 -0.15581 0.736693 -0.658032 
1640.55 155.94 -652.606 -0.15581 0.736693 -0.658032 
1658.08 129.099 -686.941 -0.15581 0.736693 -0.658032 
1677.89 130.104 -690.539 -0.15581 0.736693 -0.658032 
1649.31 212.057 -591.659 -0.15581 0.736693 -0.658032 
1648.95 183.462 -623.696 -0.15581 0.736693 -0.658032 
1638.57 194.15 -609.212 -0.15581 0.736693 -0.658032 
1659.35 158.431 -654.295 -0.15581 0.736693 -0.658032 
1675.05 150.935 -694.751 -0.979532 -0.201019 0.0104576 
1669.08 183.369 -630.113 -0.979532 -0.201019 0.0104576 
1676.6 142.789 -705.16 -0.979532 -0.201019 0.0104576 
1538.61 861.823 152.19 -0.979532 -0.201019 0.0104576 
1536.16 874.934 175.133 -0.979532 -0.201019 0.0104576 
1542.9 839.861 133.693 -0.979532 -0.201019 0.0104576 
1644.97 308.602 -488.164 -0.979532 -0.201019 0.0104576 
1655.82 251.193 -573.43 -0.979532 -0.201019 0.0104576 
1615.58 461.104 -318.498 -0.979532 -0.201019 0.0104576 
1626.08 406.065 -391.047 -0.979532 -0.201019 0.0104576 
1632.02 375.596 -417.322 -0.979532 -0.201019 0.0104576 
1606.85 506.508 -266.171 -0.979532 -0.201019 0.0104576 
1627.05 400.888 -399.88 -0.979532 -0.201019 0.0104576 
1607.05 504.617 -285.433 -0.979532 -0.201019 0.0104576 
1585.56 616.733 -148.338 -0.979532 -0.201019 0.0104576 
1662.12 219.008 -600.003 -0.979532 -0.201019 0.0104576 
1634.71 361.167 -442.6 -0.979532 -0.201019 0.0104576 
1655.58 253.39 -552.524 -0.979532 -0.201019 0.0104576 
1636.25 352.778 -460.526 -0.979532 -0.201019 0.0104576 
1629.17 390.047 -408.307 -0.979532 -0.201019 0.0104576 
1594.03 572.604 -200.911 -0.979532 -0.201019 0.0104576 
1608.76 496.487 -279.641 -0.979532 -0.201019 0.0104576 
1562.82 734.813 -15.2997 -0.979532 -0.201019 0.0104576 
1621.77 429.042 -353.531 -0.979532 -0.201019 0.0104576 
1542.88 838.652 107.287 -0.979532 -0.201019 0.0104576 
1643.37 316.2 -493.705 -0.979532 -0.201019 0.0104576 
1657.24 243.443 -589.895 -0.979532 -0.201019 0.0104576 
1628.62 393.923 -384.455 -0.979532 -0.201019 0.0104576 
1611.72 481.41 -290.856 -0.979532 -0.201019 0.0104576 
1641.3 327.809 -463.614 -0.979532 -0.201019 0.0104576 
1624.75 414.06 -360.244 -0.979532 -0.201019 0.0104576 
1622.82 423.89 -353.196 -0.979532 -0.201019 0.0104576 
1645.61 305.384 -489.832 -0.979532 -0.201019 0.0104576 
1565.92 719.271 -22.2478 -0.979532 -0.201019 0.0104576 
1544.32 831.362 102.682 -0.979532 -0.201019 0.0104576 
1556.39 768.811 34.4064 -0.979532 -0.201019 0.0104576 
1559.55 752.748 23.387 -0.979532 -0.201019 0.0104576 
1557.44 764.071 43.1791 -0.979532 -0.201019 0.0104576 
1571.95 688.618 -43.9108 -0.979532 -0.201019 0.0104576 
1572.15 687.578 -45.3328 -0.979532 -0.201019 0.0104576 
1557.06 766.115 46.7036 -0.979532 -0.201019 0.0104576 
1560.04 750.835 33.3601 -0.979532 -0.201019 0.0104576 
1561.66 742.048 16.1036 -0.979532 -0.201019 0.0104576 
1737.69 301.362 -545.931 -0.15581 0.736693 -0.658032 
1722.08 273.389 -573.63 -0.15581 0.736693 -0.658032 
1704.69 258.547 -586.153 -0.15581 0.736693 -0.658032 
1728.42 239.642 -613.049 -0.15581 0.736693 -0.658032 
1714.88 210.405 -642.661 -0.15581 0.736693 -0.658032 
1705.13 342.515 -491.932 -0.15581 0.736693 -0.658032 
1664.52 554.603 -244.001 -0.15581 0.736693 -0.658032 
1615.97 682.839 -88.3646 -0.15581 0.736693 -0.658032 
1605.95 510.914 -279.101 -0.15581 0.736693 -0.658032 
1631.74 610.013 -173.936 -0.15581 0.736693 -0.658032 
1727.64 237.452 -615.323 -0.15581 0.736693 -0.658032 
1628.67 600.411 -183.988 -0.15581 0.736693 -0.658032 
1644.43 533.849 -262.52 -0.15581 0.736693 -0.658032 
1658.72 484.536 -321.324 -0.15581 0.736693 -0.658032 
1678.53 165.209 -684.759 -0.15581 0.736693 -0.658032 
1629.14 612.562 -170.451 -0.15581 0.736693 -0.658032 
1645.12 470.72 -333.599 -0.15581 0.736693 -0.658032 
1667.09 353.342 -470.696 -0.15581 0.736693 -0.658032 
1644.91 379.316 -436.225 -0.15581 0.736693 -0.658032 
1662.91 360.132 -462.07 -0.15581 0.736693 -0.658032 
1613.12 492.926 -301.018 -0.15581 0.736693 -0.658032 
1777.74 237.091 -627.684 -0.15581 0.736693 -0.658032 
1568.25 709.36 -47.1866 -0.15581 0.736693 -0.658032 
1753.31 264.842 -590.68 -0.15581 0.736693 -0.658032 
1571.58 785.387 37.421 -0.15581 0.736693 -0.658032 
1676.62 249.234 -589.915 -0.15581 0.736693 -0.658032 
1598.48 634.983 -137.95 -0.15581 0.736693 -0.658032 
1668.06 377.524 -443.76 -0.15581 0.736693 -0.658032 
1666.78 472.18 -337.126 -0.15581 0.736693 -0.658032 
1699.97 472.982 -344.146 -0.15581 0.736693 -0.658032 
1782.56 233.695 -632.648 -0.15581 0.736693 -0.658032 
1593.56 652.214 -117.419 -0.15581 0.736693 -0.658032 
1791.19 206.064 -665.746 -0.15581 0.736693 -0.658032 
1686.1 203.008 -644.103 -0.15581 0.736693 -0.658032 
1607.49 680.919 -88.4973 -0.15581 0.736693 -0.658032 
1742.52 177.066 -686.707 -0.15581 0.736693 -0.658032 
1693.69 465.888 -350.616 -0.15581 0.736693 -0.658032 
