ply
format ascii 1.0
comment Created by CloudCompare v2.11.3 (Anoia)
comment Created 07/09/2022 23:54
obj_info Generated by CloudCompare!
element vertex 894
property float x
property float y
property float z
property float nx
property float ny
property float nz
end_header
-1352.01 2643.31 297.161 -0.452281 0.81728 -0.357064 
-757.545 3089.38 566.86 -0.452281 0.81728 -0.357064 
-1381.56 2621.21 283.922 -0.452281 0.81728 -0.357064 
-1239.2 2722.41 335.608 -0.452281 0.81728 -0.357064 
-1148.68 2783.43 360.846 -0.452281 0.81728 -0.357064 
-1059.39 2852.79 406.778 -0.452281 0.81728 -0.357064 
-1183.5 2760.98 353.479 -0.452281 0.81728 -0.357064 
-1307.24 2678.94 322.135 -0.452281 0.81728 -0.357064 
-835.623 3029.4 528.246 -0.452281 0.81728 -0.357064 
-1056.03 2854.88 407.295 -0.452281 0.81728 -0.357064 
-1166.06 2781.97 379.516 -0.452281 0.81728 -0.357064 
-657.951 3150.6 581.069 -0.452281 0.81728 -0.357064 
-893.022 2990.29 511.281 -0.452281 0.81728 -0.357064 
-919.573 2939.8 429.144 -0.452281 0.81728 -0.357064 
-1333.69 2646.47 281.198 -0.452281 0.81728 -0.357064 
-1477.19 2517.71 167.739 -0.452281 0.81728 -0.357064 
-648.719 3126.27 513.568 -0.452281 0.81728 -0.357064 
-1200 2740.6 327.662 -0.452281 0.81728 -0.357064 
-1339.81 2626.27 242.627 -0.452281 0.81728 -0.357064 
-1264.92 2683.07 277.999 -0.452281 0.81728 -0.357064 
-877.047 2956.62 413.831 -0.452281 0.81728 -0.357064 
-1509.45 2503.3 175.57 -0.452281 0.81728 -0.357064 
-977.005 2897.65 405.262 -0.452281 0.81728 -0.357064 
-955.499 2906.56 398.434 -0.452281 0.81728 -0.357064 
-1496.57 2503.34 159.353 -0.452281 0.81728 -0.357064 
-1529.77 2490.6 172.207 -0.452281 0.81728 -0.357064 
-923.13 2935.06 422.779 -0.452281 0.81728 -0.357064 
-1125.15 2783.62 331.477 -0.452281 0.81728 -0.357064 
-1030.08 2856.32 377.724 -0.452281 0.81728 -0.357064 
-1238.73 2693.72 269.231 -0.452281 0.81728 -0.357064 
-1421.11 2579.99 239.508 -0.452281 0.81728 -0.357064 
-975.865 2899.97 409.124 -0.452281 0.81728 -0.357064 
-652.614 3018.07 523.886 0.468351 -0.121743 -0.875115 
-644.448 3013.18 528.942 0.468351 -0.121743 -0.875115 
-599.813 3111.56 538.999 0.468351 -0.121743 -0.875115 
-678.863 3070.82 502.431 0.468351 -0.121743 -0.875115 
-560.88 3028.96 571.435 0.468351 -0.121743 -0.875115 
-699.037 3081.8 490.095 0.468351 -0.121743 -0.875115 
-714.966 3068.75 483.406 0.468351 -0.121743 -0.875115 
-994.582 2774.08 375.215 0.468351 -0.121743 -0.875115 
-1001.91 2777.1 370.87 0.468351 -0.121743 -0.875115 
-982.57 2753.96 384.469 0.468351 -0.121743 -0.875115 
-1022.97 2739.01 364.954 0.468351 -0.121743 -0.875115 
-1070.22 2754.81 337.455 0.468351 -0.121743 -0.875115 
-1053.63 2689.37 355.525 0.468351 -0.121743 -0.875115 
-1465.3 2480.87 164.579 0.468351 -0.121743 -0.875115 
-1380.51 2495.31 207.91 0.468351 -0.121743 -0.875115 
-1503.62 2490.92 142.662 0.468351 -0.121743 -0.875115 
-1226.23 2675.99 265.067 0.468351 -0.121743 -0.875115 
-949.7 2883.27 383.885 0.468351 -0.121743 -0.875115 
-1289.98 2648.57 234.81 0.468351 -0.121743 -0.875115 
-1053.08 2813.51 338.375 0.468351 -0.121743 -0.875115 
-1179.97 2718.29 283.868 0.468351 -0.121743 -0.875115 
-1382.5 2446.21 213.747 0.468351 -0.121743 -0.875115 
-1457.81 2419.23 177.246 0.468351 -0.121743 -0.875115 
-1422.3 2426.75 195.187 0.468351 -0.121743 -0.875115 
-1482.77 2461.08 158.015 0.468351 -0.121743 -0.875115 
-1429.62 2429.72 190.856 0.468351 -0.121743 -0.875115 
-1319.42 2482.72 242.367 0.468351 -0.121743 -0.875115 
-1157.93 2594.8 313.017 0.468351 -0.121743 -0.875115 
-1383.56 2428.54 215.664 0.468351 -0.121743 -0.875115 
-937.719 2755.31 408.274 0.468351 -0.121743 -0.875115 
-1124.6 2627.48 326.255 0.468351 -0.121743 -0.875115 
-661.823 2955.63 527.733 0.468351 -0.121743 -0.875115 
-668.545 2963.01 523.101 0.468351 -0.121743 -0.875115 
-1857.69 2549.23 802.146 -0.758649 -0.565363 -0.323755 
-1859.36 2546.02 811.534 -0.758649 -0.565363 -0.323755 
-1843.07 2503.74 846.37 -0.758649 -0.565363 -0.323755 
-1855.6 2515.47 855.296 -0.758649 -0.565363 -0.323755 
-1792.71 2469.33 788.644 -0.758649 -0.565363 -0.323755 
-1674.02 2520.21 425.806 -0.758649 -0.565363 -0.323755 
-1703.37 2524.4 486.715 -0.758649 -0.565363 -0.323755 
-1711.59 2487.35 569.454 -0.758649 -0.565363 -0.323755 
-1694.77 2456.77 582.962 -0.758649 -0.565363 -0.323755 
-1673.26 2455.36 535.476 -0.758649 -0.565363 -0.323755 
-1650.69 2433.98 519.829 -0.758649 -0.565363 -0.323755 
-1653.16 2420.81 548.205 -0.758649 -0.565363 -0.323755 
-1645.38 2425.27 522.481 -0.758649 -0.565363 -0.323755 
-1550.17 2471.5 222.128 -0.758649 -0.565363 -0.323755 
-1512.99 2448.16 175.954 -0.758649 -0.565363 -0.323755 
-1499.12 2419.05 193.79 -0.758649 -0.565363 -0.323755 
-1503.4 2419.12 203.584 -0.758649 -0.565363 -0.323755 
-1509.51 2399.49 251.506 -0.758649 -0.565363 -0.323755 
-1737.57 2464.56 668.892 -0.758649 -0.565363 -0.323755 
-1459.38 2472.75 283.165 -0.46718 0.121438 0.875783 
-1445.79 2510.51 285.129 -0.46718 0.121438 0.875783 
-1521.39 2459.34 251.875 -0.46718 0.121438 0.875783 
-1521.18 2491.06 247.527 -0.46718 0.121438 0.875783 
-1038.88 2817.47 459.699 -0.46718 0.121438 0.875783 
-1114.58 2793.18 422.613 -0.46718 0.121438 0.875783 
-1080.09 2810.38 438.647 -0.46718 0.121438 0.875783 
-733.637 3046.41 590.836 -0.46718 0.121438 0.875783 
-683.238 3045.48 617.931 -0.46718 0.121438 0.875783 
-652.898 3150.04 619.471 -0.46718 0.121438 0.875783 
-640.471 3099.93 633.16 -0.46718 0.121438 0.875783 
-1360.06 2624.54 314.972 -0.46718 0.121438 0.875783 
-1214.21 2740.28 376.742 -0.46718 0.121438 0.875783 
-1273.17 2703.23 350.401 -0.46718 0.121438 0.875783 
-1143.58 2795.08 406.83 -0.46718 0.121438 0.875783 
-790.506 3062.3 558.177 -0.46718 0.121438 0.875783 
-943.365 2936.88 494.021 -0.46718 0.121438 0.875783 
-709.404 3117.62 593.795 -0.46718 0.121438 0.875783 
-924.085 2947.86 502.793 -0.46718 0.121438 0.875783 
-934.618 3194.04 1219.01 0.759232 0.562573 0.327227 
-923.656 3179.32 1218.86 0.759232 0.562573 0.327227 
-928.809 3177.11 1234.62 0.759232 0.562573 0.327227 
-877.866 3130.31 1196.81 0.759232 0.562573 0.327227 
-932.143 3211.64 1183.02 0.759232 0.562573 0.327227 
-937.715 3237.19 1152.05 0.759232 0.562573 0.327227 
-768.973 3107.35 983.597 0.759232 0.562573 0.327227 
-728.181 3104.63 893.607 0.759232 0.562573 0.327227 
-786.239 3175.1 907.25 0.759232 0.562573 0.327227 
-769.591 3134.58 938.247 0.759232 0.562573 0.327227 
-711.797 3107.24 851.103 0.759232 0.562573 0.327227 
-760.789 3166.41 863.133 0.759232 0.562573 0.327227 
-780.233 3185.47 875.493 0.759232 0.562573 0.327227 
-655.285 3074.85 775.627 0.759232 0.562573 0.327227 
-653.71 3078.74 765.299 0.759232 0.562573 0.327227 
-573.567 3052.42 624.554 0.759232 0.562573 0.327227 
-609.866 3109.44 610.817 0.759232 0.562573 0.327227 
-608.805 3097.53 628.812 0.759232 0.562573 0.327227 
-601.108 3135.14 546.332 0.759232 0.562573 0.327227 
-820.441 3135.06 1055.4 0.759232 0.562573 0.327227 
-808.497 3124.5 1045.84 0.759232 0.562573 0.327227 
-650.035 3091.25 735.262 0.759232 0.562573 0.327227 
-1406 2448.72 323.156 0.452281 -0.81728 0.357064 
-964.784 2725.61 399.067 0.452281 -0.81728 0.357064 
-1232.4 2535.02 301.097 0.452281 -0.81728 0.357064 
-988.796 2728.49 436.098 0.452281 -0.81728 0.357064 
-1356.39 2463.41 293.973 0.452281 -0.81728 0.357064 
-1303.01 2484.56 274.851 0.452281 -0.81728 0.357064 
-1320.03 2489.73 308.265 0.452281 -0.81728 0.357064 
-1095.02 2655.78 403.953 0.452281 -0.81728 0.357064 
-963.885 2726.46 399.891 0.452281 -0.81728 0.357064 
-1218.39 2572.19 368.584 0.452281 -0.81728 0.357064 
-797.85 2863.71 504.254 0.452281 -0.81728 0.357064 
-1510.29 2379.55 296.667 0.452281 -0.81728 0.357064 
-1511.07 2379.46 297.458 0.452281 -0.81728 0.357064 
-1294.49 2527.56 362.658 0.452281 -0.81728 0.357064 
-1025.9 2706.53 432.758 0.452281 -0.81728 0.357064 
-705.475 2926.33 530.802 0.452281 -0.81728 0.357064 
-815.183 2848.99 492.451 0.452281 -0.81728 0.357064 
-949.919 2748.66 433.091 0.452281 -0.81728 0.357064 
-1473.48 2411.28 322.784 0.452281 -0.81728 0.357064 
-1181.99 2595.98 377.001 0.452281 -0.81728 0.357064 
-1235.46 2550.44 340.326 0.452281 -0.81728 0.357064 
-1367.62 2471.39 326.506 0.452281 -0.81728 0.357064 
-1020.09 2710.08 433.53 0.452281 -0.81728 0.357064 
-721.274 2909.4 512.003 0.452281 -0.81728 0.357064 
-1021.47 2701.53 415.69 0.452281 -0.81728 0.357064 
-1032.22 2684.61 390.509 0.452281 -0.81728 0.357064 
-741.857 2897.66 511.153 0.452281 -0.81728 0.357064 
-1015.83 2706.94 420.937 0.452281 -0.81728 0.357064 
-714.213 2967 635.141 0.452281 -0.81728 0.357064 
-574.827 3027.04 596.222 0.452281 -0.81728 0.357064 
-1210.08 2591.54 402.42 0.452281 -0.81728 0.357064 
-990.474 2770.42 534.379 0.452281 -0.81728 0.357064 
-1194.86 2602.99 409.395 0.452281 -0.81728 0.357064 
-711.34 2975.54 651.074 0.452281 -0.81728 0.357064 
-898.31 2815.24 520.391 0.452281 -0.81728 0.357064 
-840.25 2877.99 590.713 0.452281 -0.81728 0.357064 
-740.687 2954.96 641.06 0.452281 -0.81728 0.357064 
-963.735 2795.07 557.022 0.452281 -0.81728 0.357064 
-607.228 3021.55 624.667 0.452281 -0.81728 0.357064 
-646.677 2980.94 581.544 0.452281 -0.81728 0.357064 
-679.956 2959.44 574.387 0.452281 -0.81728 0.357064 
-804.487 2907.13 612.215 0.452281 -0.81728 0.357064 
-696.708 2946.12 565.07 0.452281 -0.81728 0.357064 
-771.408 2896.19 545.23 0.452281 -0.81728 0.357064 
-1266.61 2560.05 401.833 0.452281 -0.81728 0.357064 
-1239.14 2586.59 427.901 0.452281 -0.81728 0.357064 
-900.61 2831.06 559.577 0.452281 -0.81728 0.357064 
-803.007 2892.24 576.194 0.452281 -0.81728 0.357064 
-755.078 2929.58 601.109 0.452281 -0.81728 0.357064 
-1112.97 2673.32 466.921 0.452281 -0.81728 0.357064 
-588.734 3024.19 607.301 0.452281 -0.81728 0.357064 
-794.777 2877.21 531.323 0.452281 -0.81728 0.357064 
-1008.47 2733.61 472.763 0.452281 -0.81728 0.357064 
-712.046 2969.37 637.81 0.452281 -0.81728 0.357064 
-661.977 2996.39 636.338 0.452281 -0.81728 0.357064 
-586.037 3040.77 641.899 0.452281 -0.81728 0.357064 
-727.621 3034.67 569.46 -0.758649 -0.565363 -0.323755 
-713.16 3016.87 566.482 -0.758649 -0.565363 -0.323755 
-1013.35 2868.09 445.217 0.452281 -0.81728 0.357064 
-791.329 3001.59 470.05 0.452281 -0.81728 0.357064 
-946.052 2907.7 450.776 0.452281 -0.81728 0.357064 
-850.422 2956.95 442.552 0.452281 -0.81728 0.357064 
-1005.73 2874.5 450.252 0.452281 -0.81728 0.357064 
-1006.11 2849.67 393.816 0.452281 -0.81728 0.357064 
-848.058 2977.26 486.14 0.452281 -0.81728 0.357064 
-808.674 3008.64 508.197 0.452281 -0.81728 0.357064 
-835.91 3006.52 537.829 0.452281 -0.81728 0.357064 
-906.055 2937.1 467.523 0.452281 -0.81728 0.357064 
-737.788 3053.12 520.366 0.452281 -0.81728 0.357064 
-835.003 3002.46 527.366 0.452281 -0.81728 0.357064 
-718.404 2992.9 619.844 -0.758649 -0.565363 -0.323755 
-813.545 3027.41 781.32 -0.758649 -0.565363 -0.323755 
-848.501 3035.23 848.991 -0.758649 -0.565363 -0.323755 
-942.515 3057.01 1029.71 -0.758649 -0.565363 -0.323755 
-997.063 3070.65 1132.86 -0.758649 -0.565363 -0.323755 
-1028.9 3074.64 1199.86 -0.758649 -0.565363 -0.323755 
-995.773 2795.36 434.11 0.759232 0.562573 0.327227 
-1007.7 2791.22 468.903 0.759232 0.562573 0.327227 
-996.876 2827.66 381.173 0.759232 0.562573 0.327227 
-864.494 2827 442.821 -0.452281 0.81728 -0.357064 
-936.333 2785.26 438.121 -0.452281 0.81728 -0.357064 
-906.895 2831.86 507.688 -0.452281 0.81728 -0.357064 
-889.109 2812.29 440.277 -0.452281 0.81728 -0.357064 
-855.592 2846.92 477.221 -0.452281 0.81728 -0.357064 
-809.109 2886.15 508.27 -0.452281 0.81728 -0.357064 
-907.148 2800.73 436.614 -0.452281 0.81728 -0.357064 
-929.257 2805.63 475.87 -0.452281 0.81728 -0.357064 
-752.866 2919.56 513.627 -0.452281 0.81728 -0.357064 
-902.145 2846.01 534.095 -0.452281 0.81728 -0.357064 
-723.238 2979.14 612.72 -0.452281 0.81728 -0.357064 
-712.604 2968.1 573.937 -0.452281 0.81728 -0.357064 
-777.529 2946.38 606.381 -0.452281 0.81728 -0.357064 
-760.564 2960.73 617.791 -0.452281 0.81728 -0.357064 
-954.964 2822.37 546.825 -0.452281 0.81728 -0.357064 
-742.714 2954.71 581.376 -0.452281 0.81728 -0.357064 
-900.03 2863.9 572.444 -0.452281 0.81728 -0.357064 
-725.586 2959.6 570.891 -0.452281 0.81728 -0.357064 
-973.635 2775.48 416.899 0.759232 0.562573 0.327227 
-1018.23 2779.36 513.709 0.759232 0.562573 0.327227 
-1101.52 2807.95 657.864 0.759232 0.562573 0.327227 
-1070.04 2797.41 602.909 0.759232 0.562573 0.327227 
-1120.31 2805.88 705.014 0.759232 0.562573 0.327227 
-1149.57 2815.79 755.887 0.759232 0.562573 0.327227 
-1190.4 2830.95 824.563 0.759232 0.562573 0.327227 
-1271.07 2852.97 973.919 0.759232 0.562573 0.327227 
-1295.7 2862.99 1013.87 0.759232 0.562573 0.327227 
-1290.9 2861.69 1004.95 0.759232 0.562573 0.327227 
-1124.84 2723.4 414.186 -0.758649 -0.565363 -0.323755 
-1111.8 2748 341.663 -0.758649 -0.565363 -0.323755 
-1113.98 2709.88 412.221 -0.758649 -0.565363 -0.323755 
-1296.29 2637.74 275.489 0.452281 -0.81728 0.357064 
-1196.33 2702.25 296.765 0.452281 -0.81728 0.357064 
-1340.75 2605.45 257.758 0.452281 -0.81728 0.357064 
-1399.03 2553.32 212.073 0.452281 -0.81728 0.357064 
-1288.64 2650.61 295.3 0.452281 -0.81728 0.357064 
-1270.15 2642.7 253.743 0.452281 -0.81728 0.357064 
-1180.86 2748.82 383.948 0.452281 -0.81728 0.357064 
-1334.76 2636.2 320.686 0.452281 -0.81728 0.357064 
-1146.87 2754.02 352.808 0.452281 -0.81728 0.357064 
-1138.96 2751.68 337.42 0.452281 -0.81728 0.357064 
-1291.07 2659.68 319.173 0.452281 -0.81728 0.357064 
-1228.6 2717.05 371.587 0.452281 -0.81728 0.357064 
-1420.37 2519.08 282.237 0.759232 0.562573 0.327227 
-1390.57 2503.33 240.164 0.759232 0.562573 0.327227 
-1398.97 2513.92 241.436 0.759232 0.562573 0.327227 
-1494.33 2509.57 470.198 0.759232 0.562573 0.327227 
-1427.21 2492.72 343.404 0.759232 0.562573 0.327227 
-1521.99 2519.57 517.196 0.759232 0.562573 0.327227 
-1618.36 2531.96 719.536 0.759232 0.562573 0.327227 
-1635.07 2549.73 727.759 0.759232 0.562573 0.327227 
-1101.57 2678.9 403.575 -0.452281 0.81728 -0.357064 
-1189.44 2626.11 393.86 -0.452281 0.81728 -0.357064 
-1339.04 2535.49 375.584 -0.452281 0.81728 -0.357064 
-1096.96 2679.83 399.869 -0.452281 0.81728 -0.357064 
-1295.6 2566.05 390.639 -0.452281 0.81728 -0.357064 
-1088.03 2675.81 379.337 -0.452281 0.81728 -0.357064 
-1202.46 2636.07 433.193 -0.452281 0.81728 -0.357064 
-1261.06 2593.34 409.443 -0.452281 0.81728 -0.357064 
-1201.22 2634.38 427.743 -0.452281 0.81728 -0.357064 
-1236.71 2567.72 319.845 -0.452281 0.81728 -0.357064 
-1272.59 2560.17 347.99 -0.452281 0.81728 -0.357064 
-1208.53 2591.86 339.502 -0.452281 0.81728 -0.357064 
-1266.39 2536.99 286.998 -0.452281 0.81728 -0.357064 
-1207.84 2571.75 292.516 -0.452281 0.81728 -0.357064 
-1397.25 2478.63 318.962 -0.452281 0.81728 -0.357064 
-1288.07 2536.68 313.756 -0.452281 0.81728 -0.357064 
-1348.55 2475.89 250.985 -0.452281 0.81728 -0.357064 
-1237.49 2571.07 328.52 -0.452281 0.81728 -0.357064 
-1089.88 2696.98 378.456 -0.758649 -0.565363 -0.323755 
-1090.02 2689.77 391.175 -0.758649 -0.565363 -0.323755 
-1228.65 2725.2 651.975 -0.758649 -0.565363 -0.323755 
-1259.7 2729.52 716.605 -0.758649 -0.565363 -0.323755 
-1376.1 2766.12 923.798 -0.758649 -0.565363 -0.323755 
-1377.7 2774.33 913.413 -0.758649 -0.565363 -0.323755 
-1456.33 2454.73 341.61 -0.46718 0.121438 0.875783 
-1281.25 2579.45 417.755 -0.46718 0.121438 0.875783 
-863.146 2871.3 600.436 -0.46718 0.121438 0.875783 
-1011.67 2769.86 535.229 -0.46718 0.121438 0.875783 
-1426.12 2469 355.769 -0.46718 0.121438 0.875783 
-1312.78 2561.41 403.423 -0.46718 0.121438 0.875783 
-1177.61 2658.25 462.13 -0.46718 0.121438 0.875783 
-869.175 2877.86 596.288 -0.46718 0.121438 0.875783 
-688.85 3005.7 674.8 -0.46718 0.121438 0.875783 
-1447.37 2472.53 368.461 0.452281 -0.81728 0.357064 
-1516.4 2419.54 360.128 0.468351 -0.121743 -0.875115 
-1029.34 2768.22 571.718 0.468351 -0.121743 -0.875115 
-1032.95 2775.77 568.725 0.468351 -0.121743 -0.875115 
-727.141 3005.37 700.072 0.468351 -0.121743 -0.875115 
-893.696 2878.66 628.77 0.468351 -0.121743 -0.875115 
-1122.93 2711.04 529.681 0.468351 -0.121743 -0.875115 
-1281.21 2599.24 460.708 0.468351 -0.121743 -0.875115 
-1364.58 2520.88 436.151 0.452281 -0.81728 0.357064 
-1432.17 2496.81 466.58 0.452281 -0.81728 0.357064 
-1288.45 2599.68 520.383 0.452281 -0.81728 0.357064 
-863.349 2888.42 643.89 0.452281 -0.81728 0.357064 
-1409.13 2495.86 435.213 0.452281 -0.81728 0.357064 
-1203.24 2648.01 523.247 0.452281 -0.81728 0.357064 
-994.496 2794.29 594.198 0.452281 -0.81728 0.357064 
-1185.55 2659.43 527.023 0.452281 -0.81728 0.357064 
-1317.38 2571.52 492.441 0.452281 -0.81728 0.357064 
-1152.92 2693.7 564.26 0.452281 -0.81728 0.357064 
-933.455 2841.47 625.053 0.452281 -0.81728 0.357064 
-1335.5 2568.67 508.871 0.452281 -0.81728 0.357064 
-1028.63 2767.22 575.384 0.452281 -0.81728 0.357064 
-1339.59 2552.71 477.476 0.452281 -0.81728 0.357064 
-1008.54 2788.94 599.723 0.452281 -0.81728 0.357064 
-824.443 2920.27 667.639 0.452281 -0.81728 0.357064 
-1100.35 2724.43 568.117 0.452281 -0.81728 0.357064 
-1551.27 2406.58 410.576 0.452281 -0.81728 0.357064 
-1189.31 2672.69 562.179 0.452281 -0.81728 0.357064 
-1013.38 2796.38 622.926 0.452281 -0.81728 0.357064 
-1316.75 2589.4 532.649 0.452281 -0.81728 0.357064 
-1073.22 2775.81 651.555 0.452281 -0.81728 0.357064 
-743.728 3009.04 768.928 0.452281 -0.81728 0.357064 
-845.572 2932.79 723.114 0.452281 -0.81728 0.357064 
-1093.21 2756.9 633.527 0.452281 -0.81728 0.357064 
-1318.45 2597.23 552.77 0.452281 -0.81728 0.357064 
-785.73 2981.21 758.33 0.452281 -0.81728 0.357064 
-664.287 3068.25 804.043 0.452281 -0.81728 0.357064 
-787.825 2988.91 778.625 0.452281 -0.81728 0.357064 
-1252.5 2634.77 555.308 0.452281 -0.81728 0.357064 
-1319.28 2595.22 549.217 0.452281 -0.81728 0.357064 
-1447.79 2501.01 496.006 0.452281 -0.81728 0.357064 
-998.538 2812.26 640.525 0.452281 -0.81728 0.357064 
-786.957 2965.95 724.878 0.452281 -0.81728 0.357064 
-1173.39 2698.56 601.331 0.452281 -0.81728 0.357064 
-662.658 3046.77 752.72 0.452281 -0.81728 0.357064 
-782.956 2983.57 760.22 0.452281 -0.81728 0.357064 
-1436.46 2504.43 489.491 0.452281 -0.81728 0.357064 
-1485.8 2478.66 482.473 -0.46718 0.121438 0.875783 
-1325.49 2596.99 551.612 -0.46718 0.121438 0.875783 
-1522.65 2460.14 465.363 -0.46718 0.121438 0.875783 
-1140.32 2741.1 630.431 -0.46718 0.121438 0.875783 
-1399.53 2539.75 520.048 -0.46718 0.121438 0.875783 
-1077.97 2793.03 656.49 -0.46718 0.121438 0.875783 
-760.173 3024.36 794.012 -0.46718 0.121438 0.875783 
-1584.33 2428.75 441.606 0.452281 -0.81728 0.357064 
-1605.11 2405.65 474.615 0.468351 -0.121743 -0.875115 
-707.018 3090.16 858.916 0.468351 -0.121743 -0.875115 
-1076.83 2804.45 701.208 0.468351 -0.121743 -0.875115 
-1297.05 2640.63 606.407 0.468351 -0.121743 -0.875115 
-1148.93 2744.67 671.036 0.468351 -0.121743 -0.875115 
-927.778 2916.27 765.241 0.468351 -0.121743 -0.875115 
-1526.88 2465.54 508.052 0.468351 -0.121743 -0.875115 
-1401.4 2568.48 560.717 0.468351 -0.121743 -0.875115 
-1337.45 2627.21 586.679 0.468351 -0.121743 -0.875115 
-1162.25 2759.85 727.768 0.452281 -0.81728 0.357064 
-1465.78 2534.4 595.355 0.452281 -0.81728 0.357064 
-1546.35 2470.82 551.651 0.452281 -0.81728 0.357064 
-1525.1 2517.71 632.228 0.452281 -0.81728 0.357064 
-863.557 2962.61 814.26 0.452281 -0.81728 0.357064 
-1456.21 2534.75 584.032 0.452281 -0.81728 0.357064 
-1174.15 2725.78 664.704 0.452281 -0.81728 0.357064 
-1554.1 2464.2 546.281 0.452281 -0.81728 0.357064 
-1224.31 2687.42 640.31 0.452281 -0.81728 0.357064 
-1330.35 2616.22 611.384 0.452281 -0.81728 0.357064 
-1180.38 2743.14 712.427 0.452281 -0.81728 0.357064 
-1536.92 2468.55 534.491 0.452281 -0.81728 0.357064 
-1062.94 2808.82 714.236 0.452281 -0.81728 0.357064 
-1438.13 2560.54 620.255 0.452281 -0.81728 0.357064 
-1191.66 2719.1 671.583 0.452281 -0.81728 0.357064 
-1414.2 2555.93 579.369 0.452281 -0.81728 0.357064 
-1521.17 2473.4 525.656 0.452281 -0.81728 0.357064 
-1395.39 2596.42 648.387 0.452281 -0.81728 0.357064 
-1109.81 2772.35 689.998 0.452281 -0.81728 0.357064 
-1458.44 2535.51 588.595 0.452281 -0.81728 0.357064 
-1435.22 2574.42 648.406 0.452281 -0.81728 0.357064 
-1067.41 2816.78 738.152 0.452281 -0.81728 0.357064 
-1046.45 2824.1 728.379 0.452281 -0.81728 0.357064 
-1330.69 2634.14 652.896 0.452281 -0.81728 0.357064 
-1194.84 2733.91 709.572 0.452281 -0.81728 0.357064 
-1108.82 2773.7 691.817 0.452281 -0.81728 0.357064 
-978.89 2874.92 759.305 0.452281 -0.81728 0.357064 
-724.725 3078.91 905.055 0.452281 -0.81728 0.357064 
-885.983 2978.38 878.852 0.452281 -0.81728 0.357064 
-942.803 2957.9 903.875 0.452281 -0.81728 0.357064 
-823.729 3021.74 899.406 0.452281 -0.81728 0.357064 
-928.317 2957.51 884.619 0.452281 -0.81728 0.357064 
-848.882 2985.23 847.539 0.452281 -0.81728 0.357064 
-959.806 2913.18 822.858 0.452281 -0.81728 0.357064 
-984.678 2926.4 884.685 0.452281 -0.81728 0.357064 
-1534.08 2524.81 659.892 0.452281 -0.81728 0.357064 
-1227.51 2740.23 765.451 0.452281 -0.81728 0.357064 
-1024.25 2876.87 821.253 0.452281 -0.81728 0.357064 
-1394.16 2612.48 683.654 0.452281 -0.81728 0.357064 
-1530.34 2523.17 651.403 0.452281 -0.81728 0.357064 
-1087.86 2827.72 789.129 0.452281 -0.81728 0.357064 
-1092.94 2816.1 768.941 0.452281 -0.81728 0.357064 
-796.355 3012.97 844.603 0.452281 -0.81728 0.357064 
-1331.08 2667.26 729.35 0.452281 -0.81728 0.357064 
-1548.55 2513.52 652.343 0.452281 -0.81728 0.357064 
-1010.55 2889.16 832.071 0.452281 -0.81728 0.357064 
-768.826 3057.69 912.278 0.452281 -0.81728 0.357064 
-861.302 2980.71 852.925 0.452281 -0.81728 0.357064 
-1481.42 2555.8 664.228 0.452281 -0.81728 0.357064 
-823.386 2997.18 842.653 0.452281 -0.81728 0.357064 
-1095.81 2821.7 785.397 0.452281 -0.81728 0.357064 
-1273.5 2697.04 724.694 0.452281 -0.81728 0.357064 
-1049.31 2840.97 770.68 0.452281 -0.81728 0.357064 
-1572.3 2496.61 643.64 0.452281 -0.81728 0.357064 
-1025.88 2920.76 877.829 -0.46718 0.121438 0.875783 
-955.549 2969.48 908.612 -0.46718 0.121438 0.875783 
-1007.4 2918.67 888.009 -0.46718 0.121438 0.875783 
-1019.77 2922.87 880.803 -0.46718 0.121438 0.875783 
-1159.03 2811.7 821.918 -0.46718 0.121438 0.875783 
-1358.98 2667.72 735.176 -0.46718 0.121438 0.875783 
-1343.95 2684.64 740.838 -0.46718 0.121438 0.875783 
-1569.21 2518.97 643.601 -0.46718 0.121438 0.875783 
-1559.46 2524.23 648.078 -0.46718 0.121438 0.875783 
-1697.86 2445.78 624.488 0.452281 -0.81728 0.357064 
-1651.01 2476.55 635.683 0.452281 -0.81728 0.357064 
-1671.58 2451.05 644.088 0.468351 -0.121743 -0.875115 
-1010.88 2932.45 929.924 0.468351 -0.121743 -0.875115 
-1561.29 2532.53 691.646 0.468351 -0.121743 -0.875115 
-1272.03 2752.58 815.481 0.468351 -0.121743 -0.875115 
-1586.93 2515.5 680.32 0.468351 -0.121743 -0.875115 
-1393.43 2672.55 761.775 0.468351 -0.121743 -0.875115 
-1117.48 2863.67 882.558 0.468351 -0.121743 -0.875115 
-1201.07 2815.37 844.622 0.468351 -0.121743 -0.875115 
-1033.32 2937.96 917.146 0.468351 -0.121743 -0.875115 
-1056.54 2902.18 920.189 0.452281 -0.81728 0.357064 
-1167.39 2827.98 890.482 0.452281 -0.81728 0.357064 
-1082.82 2880.67 904.16 0.452281 -0.81728 0.357064 
-1425.17 2643.97 795.146 0.452281 -0.81728 0.357064 
-1091.45 2885.66 926.547 0.452281 -0.81728 0.357064 
-1415.76 2639.33 772.592 0.452281 -0.81728 0.357064 
-1305.58 2715.52 807.693 0.452281 -0.81728 0.357064 
-1519.68 2564.86 733.479 0.452281 -0.81728 0.357064 
-1524.65 2582.17 779.465 0.452281 -0.81728 0.357064 
-1613.15 2521.41 752.272 0.452281 -0.81728 0.357064 
-973.782 2960.56 949.213 0.452281 -0.81728 0.357064 
-1576.86 2550.81 773.716 0.452281 -0.81728 0.357064 
-1027.17 2930.79 948.577 0.452281 -0.81728 0.357064 
-1718.01 2443.15 705.66 0.452281 -0.81728 0.357064 
-1592.22 2538.28 764.438 0.452281 -0.81728 0.357064 
-1343.89 2688.29 793.796 0.452281 -0.81728 0.357064 
-1126.07 2850.22 889.156 0.452281 -0.81728 0.357064 
-1535.66 2544.68 707.452 0.452281 -0.81728 0.357064 
-1620.46 2500.92 714.532 0.452281 -0.81728 0.357064 
-919.945 3020.33 1018.07 0.452281 -0.81728 0.357064 
-1284.06 2767.31 899.183 0.452281 -0.81728 0.357064 
-1319.01 2739.35 879.35 0.452281 -0.81728 0.357064 
-1188.39 2827.72 916.501 0.452281 -0.81728 0.357064 
-936.685 3009.56 1014.57 0.452281 -0.81728 0.357064 
-833.591 3072.13 1027.43 0.452281 -0.81728 0.357064 
-1434.66 2662.79 850.314 0.452281 -0.81728 0.357064 
-1200.21 2817.45 907.932 0.452281 -0.81728 0.357064 
-1294.63 2765.05 907.391 0.452281 -0.81728 0.357064 
-1617.57 2524.4 764.736 0.452281 -0.81728 0.357064 
-1469.49 2633.58 827.458 0.452281 -0.81728 0.357064 
-984.565 2995.65 1043.34 0.452281 -0.81728 0.357064 
-1636.28 2515.42 767.836 0.452281 -0.81728 0.357064 
-896.211 3055.63 1068.94 0.452281 -0.81728 0.357064 
-1186.24 2848.42 961.234 0.452281 -0.81728 0.357064 
-1172.64 2844.92 935.995 0.452281 -0.81728 0.357064 
-1126.53 2867.77 929.959 0.452281 -0.81728 0.357064 
-837.599 3101.15 1099.06 0.452281 -0.81728 0.357064 
-853.791 3054.36 1012.29 0.452281 -0.81728 0.357064 
-925.352 3062.96 1071.62 -0.46718 0.121438 0.875783 
-934.918 3048.31 1068.56 -0.46718 0.121438 0.875783 
-1013.8 2999.43 1033.23 -0.46718 0.121438 0.875783 
-1100.59 2922.63 997.585 -0.46718 0.121438 0.875783 
-1274.49 2792.07 922.897 -0.46718 0.121438 0.875783 
-1380.43 2720.65 876.253 -0.46718 0.121438 0.875783 
-1470.31 2647.9 838.386 -0.46718 0.121438 0.875783 
-1445.09 2680.6 847.285 -0.46718 0.121438 0.875783 
-1464.41 2664.68 839.19 -0.46718 0.121438 0.875783 
-1721.65 2482.83 739.569 0.452281 -0.81728 0.357064 
-1715.52 2488.22 775.349 0.468351 -0.121743 -0.875115 
-927.15 3081.24 1113.8 0.468351 -0.121743 -0.875115 
-1408.66 2710.01 908.356 0.468351 -0.121743 -0.875115 
-1182.28 2873.81 1006.46 0.468351 -0.121743 -0.875115 
-1522.53 2627.85 858.981 0.468351 -0.121743 -0.875115 
-1075.98 2951.62 1052.39 0.468351 -0.121743 -0.875115 
-1756.94 2445.76 759.155 0.468351 -0.121743 -0.875115 
-1379.2 2745.7 919.102 0.468351 -0.121743 -0.875115 
-1257.49 2836.11 971.514 0.468351 -0.121743 -0.875115 
-1029.8 3006.65 1069.37 0.468351 -0.121743 -0.875115 
-1107.23 2950.71 1035.8 0.468351 -0.121743 -0.875115 
-1567.14 2607.71 891.848 0.452281 -0.81728 0.357064 
-1398.11 2723.43 943.049 0.452281 -0.81728 0.357064 
-971.668 3033.94 1114.78 0.452281 -0.81728 0.357064 
-1693.89 2513.55 836.524 0.452281 -0.81728 0.357064 
-1610.67 2582.05 888.179 0.452281 -0.81728 0.357064 
-1780.84 2492.95 899.452 0.452281 -0.81728 0.357064 
-1386.93 2753.91 998.792 0.452281 -0.81728 0.357064 
-1747.24 2482.13 832.083 0.452281 -0.81728 0.357064 
-1330.16 2792.26 1014.8 0.452281 -0.81728 0.357064 
-1611 2588.23 902.764 0.452281 -0.81728 0.357064 
-1656.96 2563.5 904.268 0.452281 -0.81728 0.357064 
-1280.7 2803.82 978.638 0.452281 -0.81728 0.357064 
-1799.77 2477.33 887.629 0.452281 -0.81728 0.357064 
-1304.99 2805.17 1012.52 0.452281 -0.81728 0.357064 
-1452.46 2680.36 913.163 0.452281 -0.81728 0.357064 
-1545.47 2616.23 883.955 0.452281 -0.81728 0.357064 
-1785.25 2483.05 882.349 0.452281 -0.81728 0.357064 
-1702.73 2535.92 899.042 0.452281 -0.81728 0.357064 
-1717.02 2534.75 914.451 0.452281 -0.81728 0.357064 
-1747.56 2489.66 849.747 0.452281 -0.81728 0.357064 
-1370.93 2755.71 982.633 0.452281 -0.81728 0.357064 
-1677.81 2504.58 795.586 0.452281 -0.81728 0.357064 
-1238.8 2854.96 1042.82 0.452281 -0.81728 0.357064 
-1754.28 2502.05 886.673 0.452281 -0.81728 0.357064 
-943.436 3049.31 1114.27 0.452281 -0.81728 0.357064 
-1077.05 2949.06 1053.68 0.452281 -0.81728 0.357064 
-1617.77 2559.8 846.163 0.452281 -0.81728 0.357064 
-1112.4 2934.06 1064.06 0.452281 -0.81728 0.357064 
-989.092 3079.75 1241.9 0.452281 -0.81728 0.357064 
-1187.44 2897.07 1074.31 0.452281 -0.81728 0.357064 
-1068.23 2993.16 1143.63 0.452281 -0.81728 0.357064 
-1038.76 3001.47 1125.35 0.452281 -0.81728 0.357064 
-1524 2668.37 976.298 0.452281 -0.81728 0.357064 
-991.579 3036 1144.75 0.452281 -0.81728 0.357064 
-1010.12 3036.86 1170.2 0.452281 -0.81728 0.357064 
-1289.6 2858.13 1114.46 0.452281 -0.81728 0.357064 
-943.998 3076.93 1178.31 0.452281 -0.81728 0.357064 
-1177.83 2901.71 1072.79 0.452281 -0.81728 0.357064 
-986.88 3027.86 1120.12 0.452281 -0.81728 0.357064 
-1605.92 2622.31 974.46 0.452281 -0.81728 0.357064 
-1467.21 2714.09 1009.17 0.452281 -0.81728 0.357064 
-1110.45 2951.07 1100.59 0.452281 -0.81728 0.357064 
-1425.5 2749.28 1037.05 0.452281 -0.81728 0.357064 
-906.567 3124.86 1240.79 0.452281 -0.81728 0.357064 
-1161.88 2928.68 1114.41 0.452281 -0.81728 0.357064 
-962.692 3051.05 1142.65 0.452281 -0.81728 0.357064 
-1371.8 2794.11 1071.79 0.452281 -0.81728 0.357064 
-1275.67 2846.22 1069.5 0.452281 -0.81728 0.357064 
-1261.83 2863.85 1092.39 0.452281 -0.81728 0.357064 
-1021.43 3043.28 1199.25 0.452281 -0.81728 0.357064 
-1237.28 2878.89 1095.77 0.452281 -0.81728 0.357064 
-1022.79 3032.52 1176.31 0.452281 -0.81728 0.357064 
-950.713 3052.1 1129.88 0.452281 -0.81728 0.357064 
-950.616 3069.71 1170.14 0.452281 -0.81728 0.357064 
-1227.44 2900.87 1133.7 0.452281 -0.81728 0.357064 
-1109.5 2991.48 1192.05 0.452281 -0.81728 0.357064 
-1000.18 3122.54 1237.49 -0.46718 0.121438 0.875783 
-997.521 3116.57 1239.75 -0.46718 0.121438 0.875783 
-977.649 3181.96 1241.2 -0.46718 0.121438 0.875783 
-1075.72 3144.33 1194.02 -0.46718 0.121438 0.875783 
-1045.05 3115.03 1214.54 -0.46718 0.121438 0.875783 
-1295.93 2999.22 1096.59 -0.46718 0.121438 0.875783 
-1385.67 2898.83 1062.69 -0.46718 0.121438 0.875783 
-1355.84 2901.55 1078.26 -0.46718 0.121438 0.875783 
-1417.53 2851.02 1052.36 -0.46718 0.121438 0.875783 
-1430.89 2830.64 1048.08 -0.46718 0.121438 0.875783 
-1369.78 2829.97 1080.86 -0.46718 0.121438 0.875783 
-1441.36 2788.67 1048.37 -0.46718 0.121438 0.875783 
-1776.28 2621.32 892.702 -0.46718 0.121438 0.875783 
-1809.16 2617.32 875.671 -0.46718 0.121438 0.875783 
-1773.88 2652.52 889.602 -0.46718 0.121438 0.875783 
-1563.08 2804.84 980.979 -0.46718 0.121438 0.875783 
-1225.7 3071.51 1124.01 -0.46718 0.121438 0.875783 
-1138.26 3134.52 1161.93 -0.46718 0.121438 0.875783 
-1488.59 2870.18 1011.65 -0.46718 0.121438 0.875783 
-1195.54 3091.41 1137.34 -0.46718 0.121438 0.875783 
-1822.3 2565.84 875.877 -0.46718 0.121438 0.875783 
-1807.2 2561.23 884.604 -0.46718 0.121438 0.875783 
-1748.45 2572.66 914.426 -0.46718 0.121438 0.875783 
-1836.7 2508.83 876.182 -0.46718 0.121438 0.875783 
-1425.44 2771.02 1059.37 -0.46718 0.121438 0.875783 
-1549.8 2669.49 1007.1 -0.46718 0.121438 0.875783 
-1492.65 2716.72 1031.04 -0.46718 0.121438 0.875783 
-1523.39 2690.68 1018.25 -0.46718 0.121438 0.875783 
-1429.88 2776.22 1056.26 -0.46718 0.121438 0.875783 
-1060 3046.72 1216.14 -0.46718 0.121438 0.875783 
-1109.31 3014.67 1194.27 -0.46718 0.121438 0.875783 
-1193.29 3067.03 1067.66 -0.452281 0.81728 -0.357064 
-1349.29 2966.78 1035.43 -0.452281 0.81728 -0.357064 
-1234 3042.91 1063.93 -0.452281 0.81728 -0.357064 
-976.99 3220.2 1144.85 -0.452281 0.81728 -0.357064 
-1224.2 3047.3 1061.59 -0.452281 0.81728 -0.357064 
-1010.34 3205.16 1152.61 -0.452281 0.81728 -0.357064 
-1665.81 2744.98 927.84 -0.452281 0.81728 -0.357064 
-1521.81 2851.11 988.757 -0.452281 0.81728 -0.357064 
-1077.11 3174.77 1167.51 -0.452281 0.81728 -0.357064 
-1185.24 3100.91 1135.14 -0.452281 0.81728 -0.357064 
-1774.9 2663.56 879.356 -0.452281 0.81728 -0.357064 
-1184.99 3085.68 1099.9 -0.452281 0.81728 -0.357064 
-1214.96 3060.02 1079.03 -0.452281 0.81728 -0.357064 
-1363.97 2959.97 1038.39 -0.452281 0.81728 -0.357064 
-1127.06 3141.33 1154.12 -0.452281 0.81728 -0.357064 
-1355.04 2972.41 1055.62 -0.452281 0.81728 -0.357064 
-1077.09 3150.38 1111.55 -0.452281 0.81728 -0.357064 
-1126.66 3143.95 1159.63 -0.452281 0.81728 -0.357064 
-1388.49 2948.06 1042.17 -0.452281 0.81728 -0.357064 
-1213.44 3036.42 1023.01 -0.452281 0.81728 -0.357064 
-1851.53 2589.21 805.95 -0.452281 0.81728 -0.357064 
-1598.94 2759.4 876.183 -0.452281 0.81728 -0.357064 
-1801.4 2624.24 822.767 -0.452281 0.81728 -0.357064 
-1507.45 2825.49 911.811 -0.452281 0.81728 -0.357064 
-1653.06 2733.12 884.497 -0.452281 0.81728 -0.357064 
-1233.12 3023.93 1019.28 -0.452281 0.81728 -0.357064 
-1686.74 2712.27 879.365 -0.452281 0.81728 -0.357064 
-1503.73 2845.47 952.931 -0.452281 0.81728 -0.357064 
-1806.29 2636.64 857.401 -0.452281 0.81728 -0.357064 
-1539.28 2810.27 917.255 -0.452281 0.81728 -0.357064 
-1702.57 2710.37 895.066 -0.452281 0.81728 -0.357064 
-1349.27 2937.22 967.606 -0.452281 0.81728 -0.357064 
-1704.9 2706.04 888.081 -0.452281 0.81728 -0.357064 
-1668.56 2712.34 856.487 -0.452281 0.81728 -0.357064 
-1449.5 2864.6 928.082 -0.452281 0.81728 -0.357064 
-1431.7 2880.33 941.592 -0.452281 0.81728 -0.357064 
-1047.75 3159.37 1095.01 -0.452281 0.81728 -0.357064 
-1256.9 3012.57 1023.36 -0.452281 0.81728 -0.357064 
-1705.58 2588.52 820.856 0.468351 -0.121743 -0.875115 
-1768.16 2579.71 788.612 0.468351 -0.121743 -0.875115 
-1817.29 2540.11 767.893 0.468351 -0.121743 -0.875115 
-1801.47 2508.73 780.766 0.468351 -0.121743 -0.875115 
-1349.74 2825.93 977.875 0.468351 -0.121743 -0.875115 
-1347.62 2830.77 978.328 0.468351 -0.121743 -0.875115 
-1419.76 2831.56 939.619 0.468351 -0.121743 -0.875115 
-1360.73 2871.08 965.649 0.468351 -0.121743 -0.875115 
-998.129 3093.05 1128.45 0.468351 -0.121743 -0.875115 
-988.607 3109.24 1131.27 0.468351 -0.121743 -0.875115 
-938.491 3197.17 1145.73 0.468351 -0.121743 -0.875115 
-955.163 3177.77 1139.54 0.468351 -0.121743 -0.875115 
-972.182 3171.1 1131.37 0.468351 -0.121743 -0.875115 
-1592.46 2752.59 858.323 0.468351 -0.121743 -0.875115 
-1493.05 2813.23 902.987 0.468351 -0.121743 -0.875115 
-1727.09 2644.59 801.471 0.468351 -0.121743 -0.875115 
-1349.6 2931.1 963.168 0.468351 -0.121743 -0.875115 
-1609.72 2725.99 852.822 0.468351 -0.121743 -0.875115 
-1691.84 2656.98 818.585 0.468351 -0.121743 -0.875115 
-1266.69 2976.9 1001.09 0.468351 -0.121743 -0.875115 
-1183.13 3041.78 1036.68 0.468351 -0.121743 -0.875115 
-1100.37 3106.54 1071.86 0.468351 -0.121743 -0.875115 
-1687.22 2470.5 606 -0.452281 0.81728 -0.357064 
-1726.94 2465.37 644.548 -0.452281 0.81728 -0.357064 
-1659.48 2485.65 605.597 -0.452281 0.81728 -0.357064 
-1753.81 2475.86 702.656 -0.452281 0.81728 -0.357064 
-1753.06 2472.31 693.548 -0.452281 0.81728 -0.357064 
-1772.67 2503.56 790.062 -0.452281 0.81728 -0.357064 
-1750.69 2503.23 761.441 -0.452281 0.81728 -0.357064 
-1766.02 2499.07 771.322 -0.452281 0.81728 -0.357064 
-1724.74 2506.29 735.603 -0.452281 0.81728 -0.357064 
-1636.24 2532.99 684.685 -0.452281 0.81728 -0.357064 
-1687.76 2485.79 584.838 -0.46718 0.121438 0.875783 
-1668.36 2563.05 584.363 -0.46718 0.121438 0.875783 
-1648.99 2500.64 603.495 -0.46718 0.121438 0.875783 
-1292.08 2782.22 754.878 -0.46718 0.121438 0.875783 
-1292.33 2836.12 747.169 -0.46718 0.121438 0.875783 
-1225.64 2865.94 778.658 -0.46718 0.121438 0.875783 
-1204.25 2838.53 793.955 -0.46718 0.121438 0.875783 
-826.198 3102.38 959.141 -0.46718 0.121438 0.875783 
-852.506 3082.33 947.883 -0.46718 0.121438 0.875783 
-804.562 3140.04 965.424 -0.46718 0.121438 0.875783 
-887.338 3124.38 923.34 -0.46718 0.121438 0.875783 
-1688.96 2574.24 571.767 -0.46718 0.121438 0.875783 
-1426.09 2760.34 686.258 -0.46718 0.121438 0.875783 
-1042.46 3054.15 850.216 -0.46718 0.121438 0.875783 
-1727.91 2547.01 554.758 -0.46718 0.121438 0.875783 
-1071.33 3024.77 838.897 -0.46718 0.121438 0.875783 
-848.581 3197.61 933.786 -0.46718 0.121438 0.875783 
-983.872 3085.56 877.147 -0.46718 0.121438 0.875783 
-1436.6 2756.09 662.915 -0.452281 0.81728 -0.357064 
-815.353 3204.94 905.066 -0.452281 0.81728 -0.357064 
-851.859 3143.32 810.033 -0.452281 0.81728 -0.357064 
-1311.58 2829.84 673.645 -0.452281 0.81728 -0.357064 
-1013.24 3067.99 841.752 -0.452281 0.81728 -0.357064 
-1374.52 2796.39 676.682 -0.452281 0.81728 -0.357064 
-1445.1 2753.21 667.095 -0.452281 0.81728 -0.357064 
-1596.47 2642.53 605.066 -0.452281 0.81728 -0.357064 
-1148.73 2969.98 788.656 -0.452281 0.81728 -0.357064 
-905.441 3134.46 857.591 -0.452281 0.81728 -0.357064 
-1004.69 3076.99 851.549 -0.452281 0.81728 -0.357064 
-1308.48 2850.85 717.897 -0.452281 0.81728 -0.357064 
-1069.44 3022.51 808.652 -0.452281 0.81728 -0.357064 
-1289.63 2848.1 687.711 -0.452281 0.81728 -0.357064 
-918.89 3140.91 889.429 -0.452281 0.81728 -0.357064 
-829.256 3151.66 800.52 -0.452281 0.81728 -0.357064 
-893.376 3118.44 805.579 -0.452281 0.81728 -0.357064 
-868.032 3136.87 815.717 -0.452281 0.81728 -0.357064 
-892.533 3137.56 848.353 -0.452281 0.81728 -0.357064 
-891.816 3166.66 914.175 -0.452281 0.81728 -0.357064 
-1567.79 2656.77 601.388 -0.452281 0.81728 -0.357064 
-955.993 3101.36 845.747 -0.452281 0.81728 -0.357064 
-1133.71 2964.6 757.293 -0.452281 0.81728 -0.357064 
-824.894 3183.93 868.981 -0.452281 0.81728 -0.357064 
-1170.64 2931.84 728.987 -0.452281 0.81728 -0.357064 
-821.009 3185.96 868.716 -0.452281 0.81728 -0.357064 
-1177.59 2948.83 776.73 -0.452281 0.81728 -0.357064 
-1187.91 2921.9 728.069 -0.452281 0.81728 -0.357064 
-1430.36 2704.73 537.239 -0.452281 0.81728 -0.357064 
-1326.93 2790.89 603.793 -0.452281 0.81728 -0.357064 
-1676.36 2553 500.994 -0.452281 0.81728 -0.357064 
-1422.1 2711.88 543.188 -0.452281 0.81728 -0.357064 
-1586.37 2628.82 560.833 -0.452281 0.81728 -0.357064 
-1543.47 2624.05 495.551 -0.452281 0.81728 -0.357064 
-1320.02 2804.68 626.662 -0.452281 0.81728 -0.357064 
-1168.54 2898.74 650.401 -0.452281 0.81728 -0.357064 
-1339.95 2805.49 653.749 -0.452281 0.81728 -0.357064 
-1285.38 2817.95 613.186 -0.452281 0.81728 -0.357064 
-1565.56 2631.98 541.717 -0.452281 0.81728 -0.357064 
-1523 2669.22 573.186 -0.452281 0.81728 -0.357064 
-1637.16 2578.42 509.625 -0.452281 0.81728 -0.357064 
-1267.5 2840.49 642.232 -0.452281 0.81728 -0.357064 
-1103.71 2963.8 717.463 -0.452281 0.81728 -0.357064 
-1118.36 2948.28 700.43 -0.452281 0.81728 -0.357064 
-1414.11 2719.62 550.814 -0.452281 0.81728 -0.357064 
-1425.27 2746.53 626.666 -0.452281 0.81728 -0.357064 
-1634.19 2576.76 502.057 -0.452281 0.81728 -0.357064 
-1597.72 2579.83 462.901 -0.452281 0.81728 -0.357064 
-1066.9 2979.69 707.254 -0.452281 0.81728 -0.357064 
-1467.74 2700.76 575.511 -0.452281 0.81728 -0.357064 
-1440.55 2729.9 607.879 -0.452281 0.81728 -0.357064 
-1579.96 2616.41 524.27 -0.452281 0.81728 -0.357064 
-1047.72 2988.44 703.04 -0.452281 0.81728 -0.357064 
-1304.95 2811.53 623.267 -0.452281 0.81728 -0.357064 
-1084.41 2967.25 700.927 -0.452281 0.81728 -0.357064 
-1591.93 2530.84 464.075 0.468351 -0.121743 -0.875115 
-1575.03 2555.11 469.706 0.468351 -0.121743 -0.875115 
-1569.79 2493 481.238 0.468351 -0.121743 -0.875115 
-1565.6 2490.36 483.849 0.468351 -0.121743 -0.875115 
-1232.92 2776.86 621.575 0.468351 -0.121743 -0.875115 
-1154.04 2818.11 657.984 0.468351 -0.121743 -0.875115 
-1195.79 2762.98 643.39 0.468351 -0.121743 -0.875115 
-820.071 3063.06 802.24 0.468351 -0.121743 -0.875115 
-802.337 3102.05 806.248 0.468351 -0.121743 -0.875115 
-769.043 3120.82 821.423 0.468351 -0.121743 -0.875115 
-790.55 3118.87 810.191 0.468351 -0.121743 -0.875115 
-741.345 3140.65 833.456 0.468351 -0.121743 -0.875115 
-1225.89 2842.89 616.062 0.468351 -0.121743 -0.875115 
-1400.61 2708.58 541.455 0.468351 -0.121743 -0.875115 
-932.469 3066.45 741.629 0.468351 -0.121743 -0.875115 
-1546.7 2602.34 478.225 0.468351 -0.121743 -0.875115 
-986.563 3017.84 719.519 0.468351 -0.121743 -0.875115 
-1285.59 2782.49 592.607 0.468351 -0.121743 -0.875115 
-1024.19 2985.6 703.92 0.468351 -0.121743 -0.875115 
-920.831 3052.21 749.856 0.468351 -0.121743 -0.875115 
-811.518 3145.93 795.17 0.468351 -0.121743 -0.875115 
-1469.5 2483.27 359.429 -0.452281 0.81728 -0.357064 
-1496.75 2493.14 416.594 -0.452281 0.81728 -0.357064 
-1565.47 2458.31 423.806 -0.452281 0.81728 -0.357064 
-1598.96 2456.88 462.945 -0.452281 0.81728 -0.357064 
-1493.93 2474.38 369.999 -0.452281 0.81728 -0.357064 
-1507.32 2509.31 467.084 -0.452281 0.81728 -0.357064 
-1466.16 2457.6 296.336 -0.452281 0.81728 -0.357064 
-1454.8 2471.94 314.833 -0.452281 0.81728 -0.357064 
-1555.58 2426.35 337.971 -0.452281 0.81728 -0.357064 
-1574.16 2435.07 381.517 -0.452281 0.81728 -0.357064 
-1499.09 2457.3 337.396 -0.452281 0.81728 -0.357064 
-1166.46 2755.52 599.802 -0.452281 0.81728 -0.357064 
-1142.97 2772.67 609.339 -0.452281 0.81728 -0.357064 
-1147.99 2773.54 617.695 -0.452281 0.81728 -0.357064 
-1072.74 2779.88 536.916 -0.452281 0.81728 -0.357064 
-1199.38 2749.81 628.406 -0.452281 0.81728 -0.357064 
-1147.96 2757.61 581.132 -0.452281 0.81728 -0.357064 
-1059.74 2761.56 478.42 -0.452281 0.81728 -0.357064 
-1119.57 2737.03 497.987 -0.452281 0.81728 -0.357064 
-1098.7 2733.75 464.013 -0.452281 0.81728 -0.357064 
-1124.54 2746.64 526.315 -0.452281 0.81728 -0.357064 
-1106.63 2749.54 510.271 -0.452281 0.81728 -0.357064 
-708.836 3084.3 773.899 -0.452281 0.81728 -0.357064 
-732.079 3097.37 833.321 -0.452281 0.81728 -0.357064 
-640.517 3079.17 675.591 -0.452281 0.81728 -0.357064 
-740.008 3079.4 802.167 -0.452281 0.81728 -0.357064 
-642.258 3084.72 690.526 -0.452281 0.81728 -0.357064 
-711.603 3032.05 657.611 -0.452281 0.81728 -0.357064 
-768.272 3035.52 737.35 -0.452281 0.81728 -0.357064 
-697.525 3033.03 642.026 -0.452281 0.81728 -0.357064 
-710.528 3024.97 640.01 -0.452281 0.81728 -0.357064 
-702.118 3044.62 674.417 -0.452281 0.81728 -0.357064 
-936.667 3071.72 1033.7 -0.452281 0.81728 -0.357064 
-830.547 3116.5 1001.94 -0.452281 0.81728 -0.357064 
-888.067 3071.43 971.471 -0.452281 0.81728 -0.357064 
-921.875 3080.73 1035.62 -0.452281 0.81728 -0.357064 
-863.539 3083.08 967.116 -0.452281 0.81728 -0.357064 
-809.408 3122.11 988.021 -0.452281 0.81728 -0.357064 
-817.973 3127.57 1011.4 -0.452281 0.81728 -0.357064 
-863.669 3117.85 1047 -0.452281 0.81728 -0.357064 
-889.175 3151.44 1156.33 -0.452281 0.81728 -0.357064 
-899.028 3138.1 1138.24 -0.452281 0.81728 -0.357064 
-927.038 3132.19 1160.16 -0.452281 0.81728 -0.357064 
-851.494 3124.54 1108.6 0.452281 -0.81728 0.357064 
-948.192 3051 1062.48 0.452281 -0.81728 0.357064 
-800.379 3094.23 974.33 0.452281 -0.81728 0.357064 
-881.987 3041.19 956.111 0.452281 -0.81728 0.357064 
-738.644 3066.4 832.311 0.452281 -0.81728 0.357064 
-756.813 3044.49 805.084 0.452281 -0.81728 0.357064 
-716.762 3020.03 698.278 0.452281 -0.81728 0.357064 
-698.465 3024.05 684.311 0.452281 -0.81728 0.357064 
-1013.9 3099.79 1121.85 -0.758649 -0.565363 -0.323755 
-1024.73 3103.03 1141.41 -0.758649 -0.565363 -0.323755 
-1030.45 3102.05 1156.38 -0.758649 -0.565363 -0.323755 
-863.122 3088.82 790.836 -0.758649 -0.565363 -0.323755 
-894.046 3082.57 873.325 -0.758649 -0.565363 -0.323755 
-883.374 3047.81 908.292 -0.758649 -0.565363 -0.323755 
-795.387 2965.26 672.294 -0.452281 0.81728 -0.357064 
-977.318 2836.13 606.694 -0.452281 0.81728 -0.357064 
-949.448 2863.3 633.672 -0.452281 0.81728 -0.357064 
-834.666 2945.83 677.506 -0.452281 0.81728 -0.357064 
-1076.95 2797.42 644.153 -0.452281 0.81728 -0.357064 
-957.696 2861.16 639.232 -0.452281 0.81728 -0.357064 
-792.95 2975.67 693.068 -0.452281 0.81728 -0.357064 
-999.767 2849.04 664.737 -0.452281 0.81728 -0.357064 
-813.647 2967.21 699.9 -0.452281 0.81728 -0.357064 
-1033.52 2828.96 661.45 -0.452281 0.81728 -0.357064 
-902.189 2906.21 672.192 -0.452281 0.81728 -0.357064 
-796.899 3005.04 765.428 -0.452281 0.81728 -0.357064 
-1107.87 2818.77 732.268 -0.452281 0.81728 -0.357064 
-834.858 3000.75 803.68 -0.452281 0.81728 -0.357064 
-1127.49 2824.13 769.433 -0.452281 0.81728 -0.357064 
-968.046 2906.49 756.278 -0.452281 0.81728 -0.357064 
-1103.77 2825.29 742.033 -0.452281 0.81728 -0.357064 
-1042.99 2881.74 794.47 -0.452281 0.81728 -0.357064 
-1016.55 2879.02 754.739 -0.452281 0.81728 -0.357064 
-1025.89 2875.6 758.738 -0.452281 0.81728 -0.357064 
-1149.03 2819.06 785.087 -0.452281 0.81728 -0.357064 
-869.618 3018.8 889.112 -0.452281 0.81728 -0.357064 
-851.147 3000.95 824.783 -0.452281 0.81728 -0.357064 
-1165.05 2823.25 814.992 -0.452281 0.81728 -0.357064 
-871.046 2989.96 824.785 -0.452281 0.81728 -0.357064 
-885.201 2980.61 821.268 -0.452281 0.81728 -0.357064 
-985.547 2929.98 832.315 -0.452281 0.81728 -0.357064 
-957.102 2969.72 887.391 -0.452281 0.81728 -0.357064 
-930.04 2952.93 814.616 -0.452281 0.81728 -0.357064 
-1175.69 2872.03 940.328 -0.452281 0.81728 -0.357064 
-1133.33 2894.91 939.112 -0.452281 0.81728 -0.357064 
-1107.98 2892.15 900.682 -0.452281 0.81728 -0.357064 
-1091.37 2906.72 913.042 -0.452281 0.81728 -0.357064 
-1077.03 2923.37 933.061 -0.452281 0.81728 -0.357064 
-1186.36 2834.29 867.312 -0.452281 0.81728 -0.357064 
-965.402 3030.69 1037.71 -0.452281 0.81728 -0.357064 
-975.156 2994.09 966.16 -0.452281 0.81728 -0.357064 
-1004.55 2982.7 977.266 -0.452281 0.81728 -0.357064 
-1149.11 2900.05 970.892 -0.452281 0.81728 -0.357064 
-1033.64 2962.15 967.007 -0.452281 0.81728 -0.357064 
-1193.41 2868.62 954.962 -0.452281 0.81728 -0.357064 
-1119.91 2961.16 1074.04 -0.452281 0.81728 -0.357064 
-1104.78 2953.58 1037.47 -0.452281 0.81728 -0.357064 
-1290.03 2852.03 1039.31 -0.452281 0.81728 -0.357064 
-1315.26 2860.25 1090.14 -0.452281 0.81728 -0.357064 
-1264.67 2872.76 1054.72 -0.452281 0.81728 -0.357064 
-1127.88 2966.36 1096.05 -0.452281 0.81728 -0.357064 
-1197.66 2901.76 1036.33 -0.452281 0.81728 -0.357064 
-1227.01 2906.6 1084.62 -0.452281 0.81728 -0.357064 
-1319.1 2856.88 1087.27 -0.452281 0.81728 -0.357064 
-1136.17 2973.21 1122.26 -0.452281 0.81728 -0.357064 
-1121.25 2985.13 1130.7 -0.452281 0.81728 -0.357064 
-1075.18 3031.43 1178.49 -0.452281 0.81728 -0.357064 
-1128.76 2996.35 1165.93 -0.452281 0.81728 -0.357064 
-1013.16 3032.14 1101.54 -0.452281 0.81728 -0.357064 
-1063.22 3018.71 1134.17 -0.452281 0.81728 -0.357064 
-1046.86 3048.09 1180.82 -0.452281 0.81728 -0.357064 
-1058.01 3045.81 1189.7 -0.452281 0.81728 -0.357064 
-1125.72 2974.78 1112.64 -0.452281 0.81728 -0.357064 
-1313.24 2871.56 1039.84 0.759232 0.562573 0.327227 
-1323.61 2901.05 1013.23 0.759232 0.562573 0.327227 
-1266.03 2818.15 931.222 0.452281 -0.81728 0.357064 
-1255.7 2836.58 960.395 0.452281 -0.81728 0.357064 
-1219.78 2787.17 801.598 0.452281 -0.81728 0.357064 
-1194.53 2807.21 815.557 0.452281 -0.81728 0.357064 
-1159.01 2759.76 661.762 0.452281 -0.81728 0.357064 
-1082.48 2745.98 533.205 0.452281 -0.81728 0.357064 
-1084.55 2733.61 507.464 0.452281 -0.81728 0.357064 
-1191.58 2850.32 794.013 0.759232 0.562573 0.327227 
-1184.66 2864.02 754.437 0.759232 0.562573 0.327227 
-1180.63 2873.85 728.194 0.759232 0.562573 0.327227 
-1366.34 2776.38 900.848 -0.452281 0.81728 -0.357064 
-1242.33 2815.48 833.401 -0.452281 0.81728 -0.357064 
-1311 2786.38 853.67 -0.452281 0.81728 -0.357064 
-1330.22 2773.14 847.667 -0.452281 0.81728 -0.357064 
-1314.24 2778.58 839.886 -0.452281 0.81728 -0.357064 
-1258.42 2844.18 919.577 -0.452281 0.81728 -0.357064 
-1283.91 2831.9 923.718 -0.452281 0.81728 -0.357064 
-1269.07 2843 930.382 -0.452281 0.81728 -0.357064 
-1205.01 2829.97 819.339 -0.452281 0.81728 -0.357064 
-1263.78 2824.44 881.117 -0.452281 0.81728 -0.357064 
-1699.53 2568.96 844.294 0.759232 0.562573 0.327227 
-1747.67 2595.72 910.026 0.759232 0.562573 0.327227 
-1610.12 2583.8 611.326 0.759232 0.562573 0.327227 
-1590.46 2577.88 575.879 0.759232 0.562573 0.327227 
-1595.38 2588.44 569.155 0.759232 0.562573 0.327227 
-1548.18 2553.92 518.957 0.759232 0.562573 0.327227 
-1209.87 2692.59 572.178 -0.452281 0.81728 -0.357064 
-1415.43 2545.95 496.359 -0.452281 0.81728 -0.357064 
-1299.05 2633.93 550.648 -0.452281 0.81728 -0.357064 
-1196.88 2707.45 589.781 -0.452281 0.81728 -0.357064 
-1192.89 2695.48 557.283 -0.452281 0.81728 -0.357064 
-1349.59 2584.73 501.855 -0.452281 0.81728 -0.357064 
-1243.55 2639.88 493.988 -0.452281 0.81728 -0.357064 
-1312.64 2589.05 464.95 -0.452281 0.81728 -0.357064 
-1372.63 2551.84 455.629 -0.452281 0.81728 -0.357064 
-1368.93 2565.89 483.182 -0.452281 0.81728 -0.357064 
-1447.73 2501.05 434.315 -0.452281 0.81728 -0.357064 
-1268.54 2626.31 494.527 -0.452281 0.81728 -0.357064 
-1362.71 2643.11 652.343 -0.452281 0.81728 -0.357064 
-1326.68 2687.99 709.621 -0.452281 0.81728 -0.357064 
-1358.97 2669.18 707.378 -0.452281 0.81728 -0.357064 
