ply
format ascii 1.0
comment Created by CloudCompare v2.11.3 (Anoia)
comment Created 07/09/2022 23:58
obj_info Generated by CloudCompare!
element vertex 511
property float x
property float y
property float z
property float nx
property float ny
property float nz
end_header
-1130.57 -1332.9 -34.9034 0.278615 0.301955 -0.9117 
-1106.11 -1130.51 40.0817 0.278615 0.301955 -0.9117 
-1144.26 -1549.24 -111.235 0.278615 0.301955 -0.9117 
-1133.11 -1503.58 -92.5915 0.278615 0.301955 -0.9117 
-1178.41 -1147.28 12.2967 0.278615 0.301955 -0.9117 
-1140.84 -1237.43 -6.22743 0.278615 0.301955 -0.9117 
-1159.84 -1215.95 -4.89915 0.278615 0.301955 -0.9117 
-1167.69 -1255.61 -20.531 0.278615 0.301955 -0.9117 
-1137.05 -1389.33 -55.708 0.278615 0.301955 -0.9117 
-1151.92 -1428.78 -73.4269 0.278615 0.301955 -0.9117 
-1084.57 -1163.66 35.6433 0.278615 0.301955 -0.9117 
-1125.57 -1862.13 -209.815 0.278615 0.301955 -0.9117 
-1077.1 -1963.27 -228.656 0.278615 0.301955 -0.9117 
-1087.94 -1913.99 -215.556 0.278615 0.301955 -0.9117 
-1095.73 -1798.6 -179.475 0.278615 0.301955 -0.9117 
-1085.35 -1237.37 10.8274 0.278615 0.301955 -0.9117 
-1108.75 -1866.21 -206.015 0.278615 0.301955 -0.9117 
-1150.07 -2081.5 -290.476 0.278615 0.301955 -0.9117 
-1077.42 -2038.98 -253.999 0.278615 0.301955 -0.9117 
-1088.61 -1211.2 18.5514 0.278615 0.301955 -0.9117 
-1093.55 -1164.71 75.4252 0.959857 -0.0832986 0.267837 
-1100.5 -1666.72 -53.0782 0.959857 -0.0832986 0.267837 
-1094.72 -1759.95 -102.304 0.959857 -0.0832986 0.267837 
-1088.96 -2139.94 -239.148 0.959857 -0.0832986 0.267837 
-1081.34 -2077.66 -247.476 0.959857 -0.0832986 0.267837 
-1079.48 -1935.69 -210.737 0.959857 -0.0832986 0.267837 
-1084.34 -1619.26 -96.5771 0.959857 -0.0832986 0.267837 
-1113.08 -2266.49 -191.249 0.959857 -0.0832986 0.267837 
-1098.22 -2238.15 -235.941 0.959857 -0.0832986 0.267837 
-1116.87 -2021.56 -102.772 0.959857 -0.0832986 0.267837 
-1116.31 -2089.86 -125.653 0.959857 -0.0832986 0.267837 
-1117.08 -1342.71 105.495 0.959857 -0.0832986 0.267837 
-1762.23 -2205.4 -485.665 0.00619068 -0.949651 -0.313249 
-1852.22 -2199.9 -504.212 0.00619068 -0.949651 -0.313249 
-1789.74 -2238.5 -386.306 0.00619068 -0.949651 -0.313249 
-1667.3 -2244.21 -366.438 0.00619068 -0.949651 -0.313249 
-1566.19 -2247.96 -352.95 0.00619068 -0.949651 -0.313249 
-1531.04 -2226.41 -417.273 0.00619068 -0.949651 -0.313249 
-1438.85 -2255.25 -328.213 0.00619068 -0.949651 -0.313249 
-1503.93 -2256.87 -324.71 0.00619068 -0.949651 -0.313249 
-1350.99 -2276.88 -261.007 0.00619068 -0.949651 -0.313249 
-1173.01 -2264.66 -294.103 0.00619068 -0.949651 -0.313249 
-1126.4 -2276.13 -258.462 0.00619068 -0.949651 -0.313249 
-1266.5 -2270.26 -279.205 0.00619068 -0.949651 -0.313249 
-1191.08 -2140.56 -246.658 -0.960258 0.0805543 -0.267236 
-1184.56 -2237.17 -299.589 -0.960258 0.0805543 -0.267236 
-1195.59 -1686.47 -91.6551 -0.960258 0.0805543 -0.267236 
-1193.54 -1758.53 -121.042 -0.960258 0.0805543 -0.267236 
-1201.55 -1192.39 80.7892 -0.960258 0.0805543 -0.267236 
-1183.79 -1155.21 28.3743 -0.960258 0.0805543 -0.267236 
-1177.41 -1521.14 -106.363 -0.960258 0.0805543 -0.267236 
-1173.58 -2098.33 -296.572 -0.960258 0.0805543 -0.267236 
-1179.34 -1674.84 -146.441 -0.960258 0.0805543 -0.267236 
-1182.92 -1305.03 -20.5508 -0.960258 0.0805543 -0.267236 
-1840.76 -1055.98 -140.985 -0.00870774 0.949144 0.314723 
-1859.05 -1094.3 -25.7057 -0.00870774 0.949144 0.314723 
-1615.05 -1112.72 35.1673 -0.00870774 0.949144 0.314723 
-1468.64 -1104.95 14.8502 -0.00870774 0.949144 0.314723 
-1458.22 -1095.12 -14.5976 -0.00870774 0.949144 0.314723 
-1205.51 -1147.36 148.553 -0.00870774 0.949144 0.314723 
-1154.22 -1113.73 48.117 -0.00870774 0.949144 0.314723 
-1130.49 -1128.49 93.1775 -0.00870774 0.949144 0.314723 
-1728.24 -1095.26 -19.9908 -0.00870774 0.949144 0.314723 
-1233.35 -2204.35 -198.9 -0.281802 -0.305163 0.90965 
-1137.36 -1464.22 77.3272 -0.281802 -0.305163 0.90965 
-1201.45 -2260.94 -207.976 -0.281802 -0.305163 0.90965 
-1124.02 -1451.1 85.7955 -0.281802 -0.305163 0.90965 
-1164.05 -1847.55 -58.6714 -0.281802 -0.305163 0.90965 
-1175.88 -1776.28 -38.5405 -0.281802 -0.305163 0.90965 
-1122.41 -1604.84 35.0336 -0.281802 -0.305163 0.90965 
-1191.01 -1977.92 -110.41 -0.281802 -0.305163 0.90965 
-1129.86 -1963.53 -86.8436 -0.281802 -0.305163 0.90965 
-1163.61 -2228.87 -185.665 -0.281802 -0.305163 0.90965 
-1228.99 -2080.38 -156.228 -0.281802 -0.305163 0.90965 
-1120.06 -1716.97 -1.6331 -0.281802 -0.305163 0.90965 
-1223.09 -2038.1 -140.323 -0.281802 -0.305163 0.90965 
-1129.31 -1351.64 117.333 -0.281802 -0.305163 0.90965 
-1232.02 -2004.29 -131.791 -0.281802 -0.305163 0.90965 
-1195.65 -1727.55 -28.3635 -0.281802 -0.305163 0.90965 
-1195.36 -1469.77 57.673 -0.281802 -0.305163 0.90965 
-1235.94 -1640.04 -11.5542 -0.281802 -0.305163 0.90965 
-1192.95 -1616.77 9.40181 -0.281802 -0.305163 0.90965 
-1236.39 -1508.22 32.2585 -0.281802 -0.305163 0.90965 
-1226.73 -1724.29 -36.8129 -0.281802 -0.305163 0.90965 
-1243.9 -1254.43 114.569 -0.281802 -0.305163 0.90965 
-1229.55 -1576.96 11.4418 -0.281802 -0.305163 0.90965 
-1168.09 -1506.9 53.6643 -0.281802 -0.305163 0.90965 
-1183.77 -1469.61 61.2835 -0.281802 -0.305163 0.90965 
-1250.25 -2118.68 -175.524 -0.281802 -0.305163 0.90965 
-1255.58 -1859.24 -90.6617 -0.281802 -0.305163 0.90965 
-1192.24 -1160.48 161.746 -0.281802 -0.305163 0.90965 
-1114.93 -1536.76 -73.918 -0.281802 -0.305163 0.90965 
-1094.81 -1292.45 13.711 -0.281802 -0.305163 0.90965 
-1117.6 -1380.2 -22.539 -0.281802 -0.305163 0.90965 
-1154.75 -1396.8 -39.4777 -0.281802 -0.305163 0.90965 
-1126.19 -1308.67 -1.3293 -0.281802 -0.305163 0.90965 
-1152.77 -1412.34 -44.0506 -0.281802 -0.305163 0.90965 
-1199.66 -1280.86 90.5441 0.00619068 -0.949651 -0.313249 
-1364.17 -1267.97 48.1025 0.00619068 -0.949651 -0.313249 
-1303.88 -1268.87 52.1177 0.00619068 -0.949651 -0.313249 
-1738.96 -1233.8 -63.1265 0.00619068 -0.949651 -0.313249 
-1123.95 -1631.1 -66.9465 -0.00870774 0.949144 0.314723 
-1215.14 -1561.59 -3.16617 0.278615 0.301955 -0.9117 
-1170.55 -1576.3 5.61783 0.278615 0.301955 -0.9117 
-1186.45 -1518.4 20.0383 0.278615 0.301955 -0.9117 
-1138.03 -1461.21 53.9715 0.278615 0.301955 -0.9117 
-1238.1 -1627.12 -32.0618 0.278615 0.301955 -0.9117 
-1188.27 -1314.45 87.4796 0.278615 0.301955 -0.9117 
-1134.74 -1294.23 110.651 0.278615 0.301955 -0.9117 
-1172.39 -1341.61 83.2997 0.278615 0.301955 -0.9117 
-1127.37 -1295.7 112.424 0.278615 0.301955 -0.9117 
-1157.93 -1388.96 71.9518 0.278615 0.301955 -0.9117 
-1198.36 -1643.21 -31.9893 -0.00870774 0.949144 0.314723 
-1731.42 -1599.21 -176.286 -0.00870774 0.949144 0.314723 
-1168.55 -1760.98 -136.942 0.00619068 -0.949651 -0.313249 
-1169.66 -1771.06 -106.553 0.00619068 -0.949651 -0.313249 
-1085.86 -1853.21 -170.497 -0.281802 -0.305163 0.90965 
-1119.02 -2052.37 -247.079 -0.281802 -0.305163 0.90965 
-1089.34 -2102.17 -254.57 -0.281802 -0.305163 0.90965 
-1108.63 -1772.82 -150.688 -0.281802 -0.305163 0.90965 
-1119.24 -1764.83 -151.278 -0.281802 -0.305163 0.90965 
-1178.28 -1917.44 -220.28 -0.281802 -0.305163 0.90965 
-1190.94 -2142.4 -202.418 -0.00870774 0.949144 0.314723 
-1626.55 -2106.7 -319.567 -0.00870774 0.949144 0.314723 
-1692.95 -2097.23 -349.564 -0.00870774 0.949144 0.314723 
-1158.88 -1892.19 -96.1205 0.278615 0.301955 -0.9117 
-1207.81 -1943.54 -128.26 0.278615 0.301955 -0.9117 
-1209.6 -1850.13 -97.6661 0.278615 0.301955 -0.9117 
-1242.06 -2056.55 -176.452 0.278615 0.301955 -0.9117 
-1227.35 -2134.66 -197.979 0.278615 0.301955 -0.9117 
-1119.35 -2033.95 -131.247 0.278615 0.301955 -0.9117 
-1112.07 -1918.07 -90.3804 0.278615 0.301955 -0.9117 
-1179.38 -2140.34 -185.148 0.278615 0.301955 -0.9117 
-1133.15 -1982.27 -118.254 0.278615 0.301955 -0.9117 
-1169.66 -1778.32 -84.6121 0.00619068 -0.949651 -0.313249 
-1747.61 -1732.54 -235.259 0.00619068 -0.949651 -0.313249 
-1260.01 -1768.33 -63.0261 -0.960258 0.0805543 -0.267236 
-1258.39 -1912.55 -112.925 -0.960258 0.0805543 -0.267236 
-1258.97 -1526.54 7.16399 -0.960258 0.0805543 -0.267236 
-1284.45 -2234.95 -248.941 -0.281802 -0.305163 0.90965 
-1299.61 -1198.14 103.856 0.959857 -0.0832986 0.267837 
-1300.92 -1344.9 63.7227 0.959857 -0.0832986 0.267837 
-1300.37 -1445.63 30.9465 0.959857 -0.0832986 0.267837 
-1293.89 -1612 -43.1741 0.959857 -0.0832986 0.267837 
-1329.24 -1911.17 -130.587 -0.281802 -0.305163 0.90965 
-1357.17 -1875.17 -127.157 -0.281802 -0.305163 0.90965 
-1303.29 -1711.36 -56.0023 -0.281802 -0.305163 0.90965 
-1351.57 -2012.31 -171.164 -0.281802 -0.305163 0.90965 
-1366.56 -2151.46 -222.158 -0.281802 -0.305163 0.90965 
-1358.59 -2162.69 -223.455 -0.281802 -0.305163 0.90965 
-1309.47 -2010.23 -157.548 -0.281802 -0.305163 0.90965 
-1325.4 -2232.57 -236.565 -0.281802 -0.305163 0.90965 
-1313.93 -1551.3 -5.90623 -0.281802 -0.305163 0.90965 
-1353.19 -1841.52 -114.719 -0.281802 -0.305163 0.90965 
-1347.43 -1514.22 -3.82603 -0.281802 -0.305163 0.90965 
-1374.03 -1473.22 1.68065 -0.281802 -0.305163 0.90965 
-1350.39 -1239.98 86.6968 -0.281802 -0.305163 0.90965 
-1392.99 -1169.25 97.2055 -0.281802 -0.305163 0.90965 
-1309.11 -1201.46 112.214 -0.281802 -0.305163 0.90965 
-1362.52 -1682.8 -64.6649 -0.281802 -0.305163 0.90965 
-1367.94 -1511.45 -9.20169 -0.281802 -0.305163 0.90965 
-1387.7 -2001.68 -178.709 -0.281802 -0.305163 0.90965 
-1341.55 -1521.06 -4.3033 -0.281802 -0.305163 0.90965 
-1364.75 -1411.58 25.0779 -0.281802 -0.305163 0.90965 
-1397.37 -1287.83 53.4924 -0.960258 0.0805543 -0.267236 
-1389.78 -1977.29 -184.518 -0.960258 0.0805543 -0.267236 
-1394.22 -1309.06 35.6823 -0.960258 0.0805543 -0.267236 
-1433.46 -1266.85 39.9186 0.959857 -0.0832986 0.267837 
-1432.84 -1255.95 41.0217 0.959857 -0.0832986 0.267837 
-1429.17 -1798.08 -137.9 0.959857 -0.0832986 0.267837 
-1425.77 -1928.72 -190.037 0.959857 -0.0832986 0.267837 
-1494.66 -2233.94 -288.978 -0.281802 -0.305163 0.90965 
-1488.32 -2240.93 -289.36 -0.281802 -0.305163 0.90965 
-1446.25 -1665.13 -84.4728 -0.281802 -0.305163 0.90965 
-1436.09 -2177.14 -252.062 -0.281802 -0.305163 0.90965 
-1453.82 -1819.79 -138.362 -0.281802 -0.305163 0.90965 
-1513.38 -2227.25 -292.494 -0.281802 -0.305163 0.90965 
-1476.36 -1868.63 -161.564 -0.281802 -0.305163 0.90965 
-1480.32 -2030.22 -216.656 -0.281802 -0.305163 0.90965 
-1477.55 -1772.91 -130.016 -0.281802 -0.305163 0.90965 
-1451.13 -2002.04 -198.3 -0.281802 -0.305163 0.90965 
-1509.66 -2117.88 -254.887 -0.281802 -0.305163 0.90965 
-1483.07 -1640.48 -87.5563 -0.281802 -0.305163 0.90965 
-1486.73 -1991.23 -205.623 -0.281802 -0.305163 0.90965 
-1476.15 -1865.02 -160.296 -0.281802 -0.305163 0.90965 
-1569.08 -1707.16 -136.189 -0.281802 -0.305163 0.90965 
-1481.94 -1328.2 16.9052 -0.281802 -0.305163 0.90965 
-1542.42 -1183.32 46.6426 -0.281802 -0.305163 0.90965 
-1564.08 -2061.58 -252.823 -0.281802 -0.305163 0.90965 
-1551.91 -1991.3 -225.654 -0.281802 -0.305163 0.90965 
-1573.41 -1134.72 53.3354 -0.281802 -0.305163 0.90965 
-1565.6 -2216.48 -304.933 -0.281802 -0.305163 0.90965 
-1446.8 -1177.73 77.8564 -0.281802 -0.305163 0.90965 
-1467.02 -1318.94 24.5711 -0.281802 -0.305163 0.90965 
-1530.67 -1444.52 -36.8345 -0.281802 -0.305163 0.90965 
-1521.63 -1737.01 -131.577 -0.281802 -0.305163 0.90965 
-1472.09 -1340.32 15.8892 -0.281802 -0.305163 0.90965 
-1455.45 -1272.72 43.5314 -0.281802 -0.305163 0.90965 
-1454.16 -1256.15 49.4528 -0.281802 -0.305163 0.90965 
-1563.88 -2225.74 -327.186 -0.960258 0.0805543 -0.267236 
-1571.45 -1279.76 -10.8537 -0.960258 0.0805543 -0.267236 
-1569.45 -2022.23 -244.97 -0.960258 0.0805543 -0.267236 
-1568.63 -1977.92 -234.387 -0.960258 0.0805543 -0.267236 
-1566.76 -1961.47 -236.046 -0.960258 0.0805543 -0.267236 
-1588.43 -2134.95 -308.91 -0.281802 -0.305163 0.90965 
-1609.7 -1720.18 -157.717 0.959857 -0.0832986 0.267837 
-1606.47 -2158.86 -303.424 0.959857 -0.0832986 0.267837 
-1608.91 -1267.63 -22.2153 0.959857 -0.0832986 0.267837 
-1623.62 -1279.12 -10.2241 -0.281802 -0.305163 0.90965 
-1643.78 -1963.48 -244.579 -0.281802 -0.305163 0.90965 
-1663.65 -1745.84 -178.115 -0.281802 -0.305163 0.90965 
-1674.88 -2124.6 -307.846 -0.281802 -0.305163 0.90965 
-1613.78 -1524.49 -89.0096 -0.281802 -0.305163 0.90965 
-1629.84 -1974.51 -243.975 -0.281802 -0.305163 0.90965 
-1668.1 -1821.9 -204.84 -0.281802 -0.305163 0.90965 
-1630.06 -2033.27 -263.636 -0.281802 -0.305163 0.90965 
-1658.07 -1958.11 -247.173 -0.281802 -0.305163 0.90965 
-1624.7 -1760.2 -170.947 -0.281802 -0.305163 0.90965 
-1697.94 -1181.61 -0.526337 -0.281802 -0.305163 0.90965 
-1673.17 -1175.26 9.19682 -0.281802 -0.305163 0.90965 
-1696.09 -1970.26 -262.895 -0.281802 -0.305163 0.90965 
-1694.7 -1739.2 -185.432 -0.281802 -0.305163 0.90965 
-1660.32 -1184.85 9.94206 -0.281802 -0.305163 0.90965 
-1643.17 -1456.5 -75.3616 -0.281802 -0.305163 0.90965 
-1692.88 -1196.03 -3.7795 -0.281802 -0.305163 0.90965 
-1657.56 -1162.47 18.2512 -0.281802 -0.305163 0.90965 
-1655.85 -1175.28 14.5067 -0.281802 -0.305163 0.90965 
-1707.59 -1568.39 -133.799 -0.960258 0.0805543 -0.267236 
-1704.56 -1815.64 -220.288 -0.960258 0.0805543 -0.267236 
-1703.71 -1577.54 -150.525 -0.960258 0.0805543 -0.267236 
-1701.93 -1878.03 -248.797 -0.960258 0.0805543 -0.267236 
-1700.62 -2112.45 -325.128 -0.960258 0.0805543 -0.267236 
-1721.82 -2161.87 -358.832 -0.281802 -0.305163 0.90965 
-1744.21 -1530.01 -140.201 0.959857 -0.0832986 0.267837 
-1741.08 -1848.96 -248.909 0.959857 -0.0832986 0.267837 
-1742.3 -1636.28 -179.532 0.959857 -0.0832986 0.267837 
-1742.48 -1255.53 -62.4857 0.959857 -0.0832986 0.267837 
-1829.43 -1833.61 -258.266 -0.281802 -0.305163 0.90965 
-1771.22 -1758.12 -215.231 -0.281802 -0.305163 0.90965 
-1770.68 -1289.8 -58.9249 -0.281802 -0.305163 0.90965 
-1775.34 -1385.55 -92.2785 -0.281802 -0.305163 0.90965 
-1764.53 -1608.79 -163.388 -0.281802 -0.305163 0.90965 
-1819.17 -1756.57 -229.433 -0.281802 -0.305163 0.90965 
-1813.99 -2064.14 -330.388 -0.281802 -0.305163 0.90965 
-1802.82 -1716.4 -211.02 -0.281802 -0.305163 0.90965 
-1797.59 -2130.15 -347.36 -0.281802 -0.305163 0.90965 
-1811.8 -2009.27 -311.418 -0.281802 -0.305163 0.90965 
-1807.01 -2227.57 -382.73 -0.281802 -0.305163 0.90965 
-1811.03 -1981.44 -301.905 -0.281802 -0.305163 0.90965 
-1827.08 -1904.38 -281.139 -0.281802 -0.305163 0.90965 
-1758.69 -1860.31 -245.452 -0.281802 -0.305163 0.90965 
-1852.87 -1698.93 -220.561 -0.281802 -0.305163 0.90965 
-1823.65 -1314.67 -83.4741 -0.281802 -0.305163 0.90965 
-1866.56 -1642.41 -205.918 -0.281802 -0.305163 0.90965 
-1828.44 -1402.3 -114.163 -0.281802 -0.305163 0.90965 
-1790.28 -1394.06 -99.7033 -0.281802 -0.305163 0.90965 
-1857.26 -1355.43 -107.38 -0.281802 -0.305163 0.90965 
-1829.87 -1401.04 -114.179 -0.281802 -0.305163 0.90965 
-1798.38 -1446.56 -119.691 -0.281802 -0.305163 0.90965 
-1848.58 -1676.35 -211.716 -0.281802 -0.305163 0.90965 
-1812.48 -1200.6 -42.0152 -0.281802 -0.305163 0.90965 
-1840.79 -1209.56 -53.6936 -0.281802 -0.305163 0.90965 
-1822 -1357.38 -97.2082 -0.281802 -0.305163 0.90965 
-1841.52 -1347.32 -99.8475 -0.281802 -0.305163 0.90965 
-1821.52 -1153.57 -29.1116 -0.281802 -0.305163 0.90965 
-1857.96 -1076.05 -144.578 -0.960258 0.0805543 -0.267236 
-1881.68 -1100.07 -66.7832 -0.960258 0.0805543 -0.267236 
-1855.82 -1158.79 -177.567 -0.960258 0.0805543 -0.267236 
-1881.13 -1216.93 -104.472 -0.960258 0.0805543 -0.267236 
-1853.63 -1399.11 -258.895 -0.960258 0.0805543 -0.267236 
-1855.26 -1625.6 -322.254 -0.960258 0.0805543 -0.267236 
-1857.82 -1673.85 -327.813 -0.960258 0.0805543 -0.267236 
-1874.72 -1675.86 -267.76 -0.960258 0.0805543 -0.267236 
-1850.89 -2126.3 -491 -0.960258 0.0805543 -0.267236 
-1847.05 -2099.72 -496.674 -0.960258 0.0805543 -0.267236 
-1850.73 -1673.73 -353.214 -0.960258 0.0805543 -0.267236 
-1850.45 -1387.9 -266.873 -0.960258 0.0805543 -0.267236 
-1877.47 -2147.14 -401.941 -0.960258 0.0805543 -0.267236 
-1860.06 -2126.09 -458.023 -0.960258 0.0805543 -0.267236 
-1878.69 -2182.98 -408.536 -0.960258 0.0805543 -0.267236 
-1881.99 -1938.47 -321.931 -0.960258 0.0805543 -0.267236 
-1881.06 -2056.45 -361.356 -0.960258 0.0805543 -0.267236 
-1888.08 -1322.44 -111.76 -0.960258 0.0805543 -0.267236 
-1884.99 -1265.76 -105.54 -0.960258 0.0805543 -0.267236 
-1826.61 -1283.61 -232.128 0.278615 0.301955 -0.9117 
-1824.91 -1461.29 -290.844 0.278615 0.301955 -0.9117 
-1840.86 -1190.74 -205.535 0.278615 0.301955 -0.9117 
-1834.23 -1228.01 -215.927 0.278615 0.301955 -0.9117 
-1825.71 -1216.11 -209.344 0.278615 0.301955 -0.9117 
-1830.15 -1395.72 -270.592 0.278615 0.301955 -0.9117 
-1811.87 -1427.17 -275.464 0.278615 0.301955 -0.9117 
-1815.89 -1234.94 -212.607 0.278615 0.301955 -0.9117 
-1813.26 -1553.26 -317.929 0.278615 0.301955 -0.9117 
-1803.39 -1172.8 -188.054 0.278615 0.301955 -0.9117 
-1827.55 -2059.96 -491.253 0.278615 0.301955 -0.9117 
-1774.4 -1577.49 -314.08 0.278615 0.301955 -0.9117 
-1775.31 -1638.64 -334.748 0.278615 0.301955 -0.9117 
-1800.62 -2041.74 -476.913 0.278615 0.301955 -0.9117 
-1752.99 -1385.38 -243.456 0.278615 0.301955 -0.9117 
-1793.02 -1628.27 -336.727 0.278615 0.301955 -0.9117 
-1778.64 -1392.53 -253.716 0.278615 0.301955 -0.9117 
-1778.51 -2016.47 -461.7 0.278615 0.301955 -0.9117 
-1805.11 -2008.65 -467.256 0.278615 0.301955 -0.9117 
-1751.7 -1789.63 -377.842 0.278615 0.301955 -0.9117 
-1770.17 -2190.23 -426.421 0.959857 -0.0832986 0.267837 
-1767.88 -2217.24 -442.875 0.959857 -0.0832986 0.267837 
-1773.61 -1654.35 -250.237 0.959857 -0.0832986 0.267837 
-1758.63 -1651.51 -303.151 0.959857 -0.0832986 0.267837 
-1771.34 -1205.41 -121.166 0.959857 -0.0832986 0.267837 
-1775.96 -1089.96 -69.2947 0.959857 -0.0832986 0.267837 
-1762.9 -1070.01 -110.093 0.959857 -0.0832986 0.267837 
-1752.74 -1457.81 -265.105 0.959857 -0.0832986 0.267837 
-1752.37 -2016.61 -437.238 0.959857 -0.0832986 0.267837 
-1753.85 -1596.44 -303.5 0.959857 -0.0832986 0.267837 
-1754.75 -1287.28 -205.734 0.959857 -0.0832986 0.267837 
-1756.92 -1507.97 -265.423 0.959857 -0.0832986 0.267837 
-1755.78 -1172.95 -167.1 0.959857 -0.0832986 0.267837 
-1711.13 -2203.1 -393.45 0.278615 0.301955 -0.9117 
-1706.01 -2206.87 -393.137 0.278615 0.301955 -0.9117 
-1747.4 -2146.81 -385.816 0.278615 0.301955 -0.9117 
-1618.55 -2132.43 -341.468 0.278615 0.301955 -0.9117 
-1678.63 -2115.91 -354.405 0.278615 0.301955 -0.9117 
-1540.34 -2201.85 -404.389 -0.960258 0.0805543 -0.267236 
-1547.89 -2128.89 -354.987 -0.960258 0.0805543 -0.267236 
-1539.44 -1720.78 -260.559 -0.960258 0.0805543 -0.267236 
-1546.87 -1627.37 -205.347 -0.960258 0.0805543 -0.267236 
-1559.16 -1180.18 -24.5056 -0.960258 0.0805543 -0.267236 
-1543.84 -1102.21 -55.6993 -0.960258 0.0805543 -0.267236 
-1532.29 -1987.24 -367.675 -0.960258 0.0805543 -0.267236 
-1536.03 -1281.17 -138.417 -0.960258 0.0805543 -0.267236 
-1537.42 -1762.66 -280.63 -0.960258 0.0805543 -0.267236 
-1540.31 -1299.87 -128.77 -0.960258 0.0805543 -0.267236 
-1516.08 -1302.19 -143 0.278615 0.301955 -0.9117 
-1432.11 -1176.76 -75.4049 0.278615 0.301955 -0.9117 
-1428.93 -1264.45 -103.666 0.278615 0.301955 -0.9117 
-1493.7 -1273.5 -126.567 0.278615 0.301955 -0.9117 
-1439.1 -1291.94 -115.954 0.278615 0.301955 -0.9117 
-1432.16 -1343.11 -130.881 0.278615 0.301955 -0.9117 
-1473.23 -1256.37 -114.571 0.278615 0.301955 -0.9117 
-1459.11 -1583.32 -219.245 0.278615 0.301955 -0.9117 
-1533.56 -1184.49 -109.126 0.278615 0.301955 -0.9117 
-1518.27 -1780.55 -303.158 0.278615 0.301955 -0.9117 
-1490.41 -1371.72 -158.302 0.278615 0.301955 -0.9117 
-1483.82 -1083.13 -60.0624 0.278615 0.301955 -0.9117 
-1459.75 -1174.96 -83.2937 0.278615 0.301955 -0.9117 
-1424.9 -1837.79 -293.585 0.278615 0.301955 -0.9117 
-1442.83 -1634.35 -231.26 0.278615 0.301955 -0.9117 
-1393.81 -2094.98 -369.789 0.278615 0.301955 -0.9117 
-1507.78 -2137.88 -419.073 0.278615 0.301955 -0.9117 
-1402.48 -1726.26 -249.515 0.278615 0.301955 -0.9117 
-1446.1 -1596.9 -219.779 0.278615 0.301955 -0.9117 
-1428.62 -2113 -386.483 0.278615 0.301955 -0.9117 
-1445.56 -1745.95 -269.306 0.278615 0.301955 -0.9117 
-1401.16 -2137.85 -386.338 0.278615 0.301955 -0.9117 
-1429.39 -2186.58 -411.251 0.278615 0.301955 -0.9117 
-1454.6 -1643.15 -237.809 0.278615 0.301955 -0.9117 
-1404.85 -1395.49 -139.963 0.278615 0.301955 -0.9117 
-1393.79 -2097.04 -370.468 0.278615 0.301955 -0.9117 
-1480.07 -1930.96 -341.581 0.278615 0.301955 -0.9117 
-1409.78 -2223.23 -337.454 0.959857 -0.0832986 0.267837 
-1412.53 -2149.93 -305.164 0.959857 -0.0832986 0.267837 
-1403.59 -1645.44 -183.064 0.959857 -0.0832986 0.267837 
-1413.34 -1631.1 -143.665 0.959857 -0.0832986 0.267837 
-1417.28 -1166.03 12.6386 0.959857 -0.0832986 0.267837 
-1416.81 -1148.89 16.1835 0.959857 -0.0832986 0.267837 
-1402.26 -1133.72 -31.4087 0.959857 -0.0832986 0.267837 
-1394.99 -1482.41 -164.082 0.959857 -0.0832986 0.267837 
-1391.48 -1993.75 -332.979 0.959857 -0.0832986 0.267837 
-1397.31 -1618.64 -197.419 0.959857 -0.0832986 0.267837 
-1399.79 -1209.84 -63.5553 0.959857 -0.0832986 0.267837 
-1405.53 -2205.22 -300.351 0.278615 0.301955 -0.9117 
-1368.17 -2222.94 -294.791 0.278615 0.301955 -0.9117 
-1342.53 -2174.91 -270.905 0.278615 0.301955 -0.9117 
-1206.89 -2157.76 -223.553 0.278615 0.301955 -0.9117 
-1261.84 -2225.29 -262.936 0.278615 0.301955 -0.9117 
-1349.71 -1662.66 -102.324 0.278615 0.301955 -0.9117 
-1382.74 -1626.71 -100.478 0.278615 0.301955 -0.9117 
-1392.5 -1723.22 -135.65 0.278615 0.301955 -0.9117 
-1274.94 -1697.52 -90.9952 0.278615 0.301955 -0.9117 
-1338.18 -1725.75 -119.821 0.278615 0.301955 -0.9117 
-1260.05 -1727.83 -96.5302 0.278615 0.301955 -0.9117 
-1398.07 -1199.62 37.2105 0.278615 0.301955 -0.9117 
-1389.93 -1204.35 38.1328 0.278615 0.301955 -0.9117 
-1333.63 -1240.76 43.2749 0.278615 0.301955 -0.9117 
-1216.94 -1200 92.6826 0.278615 0.301955 -0.9117 
-1257.69 -1226.83 71.2305 0.278615 0.301955 -0.9117 
-1593.36 -1221.34 -29.9782 0.278615 0.301955 -0.9117 
-1684.52 -1185.45 -45.993 0.278615 0.301955 -0.9117 
-1730.02 -1220.26 -71.5653 0.278615 0.301955 -0.9117 
-1760.83 -1139.77 -54.1866 0.278615 0.301955 -0.9117 
-1761.39 -1099.25 -40.85 0.278615 0.301955 -0.9117 
-1737.48 -1183.98 -61.761 0.278615 0.301955 -0.9117 
-1714.15 -1136.69 -14.6773 -0.281802 -0.305163 0.90965 
-1571.18 -1209.75 4.84988 -0.281802 -0.305163 0.90965 
-1409.41 -1160.35 70.9763 -0.281802 -0.305163 0.90965 
-1270.71 -1230.24 90.2476 -0.281802 -0.305163 0.90965 
-1791.89 -1207.74 -142.937 0.00619068 -0.949651 -0.313249 
-1448.06 -1240.42 -36.8826 0.00619068 -0.949651 -0.313249 
-1498.87 -1242.98 -30.2296 0.00619068 -0.949651 -0.313249 
-1303.7 -1469.82 0.247025 0.278615 0.301955 -0.9117 
-1308.6 -1343.64 40.811 0.278615 0.301955 -0.9117 
-1315.3 -1490.08 -10.0679 0.278615 0.301955 -0.9117 
-1321.34 -1363.02 30.4405 0.278615 0.301955 -0.9117 
-1363.85 -1365.46 16.5754 0.278615 0.301955 -0.9117 
-1368.44 -1323.19 29.2621 0.278615 0.301955 -0.9117 
-1441.54 -1434.45 -30.2717 0.278615 0.301955 -0.9117 
-1475.11 -1396.39 -27.89 0.278615 0.301955 -0.9117 
-1458.35 -1393.21 -21.6842 0.278615 0.301955 -0.9117 
-1480.35 -1418.49 -36.8642 0.278615 0.301955 -0.9117 
-1479.89 -1553.04 -81.5808 0.278615 0.301955 -0.9117 
-1565.85 -1480.39 -83.7443 0.278615 0.301955 -0.9117 
-1479.16 -1386.5 -25.8338 0.278615 0.301955 -0.9117 
-1567.44 -1375.85 -49.3818 0.278615 0.301955 -0.9117 
-1531.29 -1439.27 -59.4294 0.278615 0.301955 -0.9117 
-1530.29 -1317.8 -18.6237 0.278615 0.301955 -0.9117 
-1620.58 -1394.23 -71.8194 0.278615 0.301955 -0.9117 
-1613.2 -1507.91 -107.457 0.278615 0.301955 -0.9117 
-1677.95 -1546.66 -140.252 0.278615 0.301955 -0.9117 
-1672.77 -1409.2 -92.8314 0.278615 0.301955 -0.9117 
-1651.86 -1295.85 -48.6239 0.278615 0.301955 -0.9117 
-1652.95 -1256.94 -35.9852 0.278615 0.301955 -0.9117 
-1757.25 -1524.58 -157.232 0.278615 0.301955 -0.9117 
-1780.86 -1407.08 -125.302 0.278615 0.301955 -0.9117 
-1762.26 -1393.63 -115.113 0.278615 0.301955 -0.9117 
-1770.5 -1353.5 -104.26 0.278615 0.301955 -0.9117 
-1775.02 -1345.68 -103.041 0.278615 0.301955 -0.9117 
-1878.99 -1229.68 -96.2803 0.278615 0.301955 -0.9117 
-1805.67 -1304.9 -98.8546 0.278615 0.301955 -0.9117 
-1764.14 -1265.47 -72.9578 0.278615 0.301955 -0.9117 
-1868.88 -1348.68 -132.854 0.278615 0.301955 -0.9117 
-1853.87 -1567.51 -274.614 -0.00870774 0.949144 0.314723 
-1709.93 -1724.67 -209.416 -0.281802 -0.305163 0.90965 
-1578.83 -1673.94 -152.261 -0.281802 -0.305163 0.90965 
-1421.09 -1729.76 -122.451 -0.281802 -0.305163 0.90965 
-1283.65 -1729.85 -80.2921 -0.281802 -0.305163 0.90965 
-1282.78 -1763.29 -91.1747 -0.281802 -0.305163 0.90965 
-1527.71 -1608.19 -144.776 -0.00870774 0.949144 0.314723 
-1418.22 -1604.75 -152.82 -0.00870774 0.949144 0.314723 
-1578.75 -1660.68 -171.968 0.278615 0.301955 -0.9117 
-1567.48 -1616.85 -153.895 0.278615 0.301955 -0.9117 
-1592.78 -1643.22 -170.457 0.278615 0.301955 -0.9117 
-1670.55 -1622.03 -187.265 0.278615 0.301955 -0.9117 
-1753.25 -1703.05 -239.662 0.278615 0.301955 -0.9117 
-1683.04 -1671.29 -207.52 0.278615 0.301955 -0.9117 
-1771.41 -2079.15 -405.863 -0.00870774 0.949144 0.314723 
-1820.67 -2066.31 -445.671 -0.00870774 0.949144 0.314723 
-1520.87 -2097.5 -345.064 -0.00870774 0.949144 0.314723 
-1362.15 -1916.59 -166.65 0.278615 0.301955 -0.9117 
-1373.17 -2004.18 -199.235 0.278615 0.301955 -0.9117 
-1386.09 -1899.04 -168.147 0.278615 0.301955 -0.9117 
-1359.53 -2103.51 -228.164 0.278615 0.301955 -0.9117 
-1312.56 -2085.15 -207.628 0.278615 0.301955 -0.9117 
-1318.99 -2025.15 -189.596 0.278615 0.301955 -0.9117 
-1484.21 -1861.49 -185.747 0.278615 0.301955 -0.9117 
-1483.54 -1811.52 -168.882 0.278615 0.301955 -0.9117 
-1550.47 -1923.29 -226.69 0.278615 0.301955 -0.9117 
-1485.98 -1796.56 -164.644 0.278615 0.301955 -0.9117 
-1504.86 -1887.49 -200.756 0.278615 0.301955 -0.9117 
-1503.59 -1961.38 -225 0.278615 0.301955 -0.9117 
-1473.39 -1919.16 -201.655 0.278615 0.301955 -0.9117 
-1471.96 -1884.51 -189.662 0.278615 0.301955 -0.9117 
-1446.79 -2105.69 -255.678 0.278615 0.301955 -0.9117 
-1553.58 -2093.54 -284.408 0.278615 0.301955 -0.9117 
-1686.89 -1984.56 -288.993 0.278615 0.301955 -0.9117 
-1673.25 -1743.83 -204.545 0.278615 0.301955 -0.9117 
-1698.02 -1926.42 -273.026 0.278615 0.301955 -0.9117 
-1613.51 -1841.34 -218.719 0.278615 0.301955 -0.9117 
-1633.23 -1898.64 -243.875 0.278615 0.301955 -0.9117 
-1651.32 -1987.6 -279.089 0.278615 0.301955 -0.9117 
-1792.59 -1866.41 -282.049 0.278615 0.301955 -0.9117 
-1825.74 -1919.29 -309.854 0.278615 0.301955 -0.9117 
-1864.53 -1888.7 -311.562 0.278615 0.301955 -0.9117 
-1822.09 -1761.11 -255.995 0.278615 0.301955 -0.9117 
-1782.18 -2055.81 -341.997 0.278615 0.301955 -0.9117 
-1782.09 -2093.07 -354.392 0.278615 0.301955 -0.9117 
-1771.21 -1909.32 -289.794 0.278615 0.301955 -0.9117 
-1748.6 -1916.82 -285.351 0.278615 0.301955 -0.9117 
-1746.94 -1909.55 -282.419 0.278615 0.301955 -0.9117 
-1830.84 -1702.87 -326.633 0.00619068 -0.949651 -0.313249 
-1428.41 -1739.3 -207.993 0.00619068 -0.949651 -0.313249 
-1461.52 -1746.88 -185.831 0.00619068 -0.949651 -0.313249 
-1792.8 -2035.79 -448.374 -0.281802 -0.305163 0.90965 
-1761.53 -2052.69 -444.409 -0.281802 -0.305163 0.90965 
-1797.21 -1935.58 -416.316 -0.281802 -0.305163 0.90965 
-1814.28 -1821.03 -383.363 -0.281802 -0.305163 0.90965 
-1768.83 -1719.33 -335.51 -0.281802 -0.305163 0.90965 
-1773.15 -1880.65 -390.619 -0.281802 -0.305163 0.90965 
-1840.71 -1289.26 -214.183 -0.281802 -0.305163 0.90965 
-1795.05 -1490.87 -267.385 -0.281802 -0.305163 0.90965 
-1834.77 -1451.37 -266.406 -0.281802 -0.305163 0.90965 
-1783.74 -1328.6 -209.812 -0.281802 -0.305163 0.90965 
-1806.57 -1362.26 -228.043 -0.281802 -0.305163 0.90965 
-1788.49 -1263.21 -189.469 -0.281802 -0.305163 0.90965 
-1499.95 -1576.8 -205.451 -0.281802 -0.305163 0.90965 
-1520.28 -1524.35 -194.206 -0.281802 -0.305163 0.90965 
-1538.64 -1254.56 -109.892 -0.281802 -0.305163 0.90965 
-1479.48 -1426.67 -149.115 -0.281802 -0.305163 0.90965 
-1417.83 -1542.64 -168.855 -0.281802 -0.305163 0.90965 
-1524.88 -1256.94 -106.461 -0.281802 -0.305163 0.90965 
-1419.67 -1492.93 -152.845 -0.281802 -0.305163 0.90965 
-1408.19 -1281.08 -78.6922 -0.281802 -0.305163 0.90965 
-1407.14 -1455.73 -136.597 -0.281802 -0.305163 0.90965 
-1416.83 -2044.12 -335.744 -0.281802 -0.305163 0.90965 
-1498.25 -1835.66 -291.237 -0.281802 -0.305163 0.90965 
-1532.13 -1915.03 -328.097 -0.281802 -0.305163 0.90965 
-1471.67 -1941.21 -318.267 -0.281802 -0.305163 0.90965 
-1492.01 -1973.27 -335.199 -0.281802 -0.305163 0.90965 
-1424.41 -2009.05 -326.379 -0.281802 -0.305163 0.90965 
-1399.63 -1776.19 -241.135 -0.281802 -0.305163 0.90965 
-1433.85 -1875.71 -284.82 -0.281802 -0.305163 0.90965 
-1434.82 -1942 -307.217 -0.281802 -0.305163 0.90965 
