ply
format ascii 1.0
comment Created by CloudCompare v2.11.3 (Anoia)
comment Created 07/09/2022 23:52
obj_info Generated by CloudCompare!
element vertex 883
property float x
property float y
property float z
property float nx
property float ny
property float nz
end_header
329.746 1562.53 -1759.5 0.787584 0.508481 -0.348077 
560.786 1222.27 -1731.68 0.787584 0.508481 -0.348077 
394.654 1462 -1758.79 0.787584 0.508481 -0.348077 
550.836 1277.56 -1674.33 0.787584 0.508481 -0.348077 
344.419 1576.65 -1706.25 0.787584 0.508481 -0.348077 
386.915 1491.66 -1733.42 0.787584 0.508481 -0.348077 
207.546 1763.49 -1743.97 0.787584 0.508481 -0.348077 
230.856 1668.28 -1828.86 0.787584 0.508481 -0.348077 
424.292 1391.48 -1793.94 0.787584 0.508481 -0.348077 
-11.5113 2061.6 -1805.64 0.787584 0.508481 -0.348077 
372.787 1466.98 -1800.65 0.787584 0.508481 -0.348077 
-13.1983 2053.87 -1820.56 0.787584 0.508481 -0.348077 
-86.5002 2135.11 -1867.87 0.787584 0.508481 -0.348077 
448.379 1361.9 -1782.54 0.787584 0.508481 -0.348077 
-58.7495 2132.76 -1809.04 0.787584 0.508481 -0.348077 
374.567 1466.09 -1797.94 0.787584 0.508481 -0.348077 
-16.3958 2071.51 -1802.32 0.787584 0.508481 -0.348077 
-70.261 2081.23 -1909.08 0.787584 0.508481 -0.348077 
-43.7407 2066.39 -1870.99 0.787584 0.508481 -0.348077 
-69.8473 2131.73 -1835.41 0.787584 0.508481 -0.348077 
-60.498 2074.31 -1897.16 0.787584 0.508481 -0.348077 
374.176 1469.76 -1793.52 0.787584 0.508481 -0.348077 
-45.7915 2106.42 -1817.93 0.787584 0.508481 -0.348077 
-92.4032 2184.03 -1810.63 0.787584 0.508481 -0.348077 
-24.3574 2059.34 -1837.69 0.787584 0.508481 -0.348077 
51.6783 1930.7 -1852.55 0.787584 0.508481 -0.348077 
8.60456 2002.45 -1845.75 0.787584 0.508481 -0.348077 
-36.9951 2080.3 -1835.83 0.787584 0.508481 -0.348077 
217.974 1674.93 -1848.16 0.787584 0.508481 -0.348077 
82.125 1890.63 -1842 0.787584 0.508481 -0.348077 
-69.5163 2089.5 -1895.5 0.787584 0.508481 -0.348077 
-7.03619 2027.71 -1844.43 0.787584 0.508481 -0.348077 
41.9884 1957.66 -1835.43 0.787584 0.508481 -0.348077 
-50.008 2060.11 -1894.1 0.787584 0.508481 -0.348077 
395.394 1439.22 -1789.96 0.787584 0.508481 -0.348077 
366.071 1471.34 -1809.42 0.787584 0.508481 -0.348077 
298.647 1564.38 -1826.56 0.787584 0.508481 -0.348077 
76.5616 1922.53 -1808.52 0.787584 0.508481 -0.348077 
275.623 1604.69 -1820.1 0.787584 0.508481 -0.348077 
-16.3863 2011.5 -1888.74 0.787584 0.508481 -0.348077 
-68.0167 2086.72 -1896.14 0.787584 0.508481 -0.348077 
163.736 1762.04 -1844.27 0.787584 0.508481 -0.348077 
-73.5366 2149.98 -1817.37 0.787584 0.508481 -0.348077 
-38.623 2045.16 -1890.1 0.787584 0.508481 -0.348077 
-105.575 2130.18 -1917.75 0.787584 0.508481 -0.348077 
58.9478 1939.8 -1823.14 0.787584 0.508481 -0.348077 
256.383 1639.64 -1812.9 0.787584 0.508481 -0.348077 
116.176 1853.14 -1819.67 0.787584 0.508481 -0.348077 
291.79 1599.12 -1791.89 0.787584 0.508481 -0.348077 
190.858 1745.9 -1806.73 0.787584 0.508481 -0.348077 
-7.35967 1997.64 -1888.48 0.787584 0.508481 -0.348077 
380.486 1453.68 -1802.54 0.787584 0.508481 -0.348077 
35.0915 1936.34 -1881.61 0.787584 0.508481 -0.348077 
54.0308 1965.44 -1797.22 0.787584 0.508481 -0.348077 
-56.4051 2064.34 -1902.35 0.787584 0.508481 -0.348077 
-56.5748 2112.98 -1832.66 0.787584 0.508481 -0.348077 
228.494 1695.7 -1794.65 0.787584 0.508481 -0.348077 
-56.8564 2074.46 -1888.77 0.787584 0.508481 -0.348077 
-41.7744 2052.6 -1886.46 0.787584 0.508481 -0.348077 
-81.8907 2153.58 -1830.92 0.787584 0.508481 -0.348077 
330.698 1541.25 -1788.02 0.787584 0.508481 -0.348077 
141.348 1782.65 -1864.78 0.787584 0.508481 -0.348077 
96.6902 1867.99 -1841.96 0.787584 0.508481 -0.348077 
136.324 1821.51 -1820.07 0.787584 0.508481 -0.348077 
9.34486 2000.5 -1846.91 0.787584 0.508481 -0.348077 
35.8864 1985.65 -1808.79 0.787584 0.508481 -0.348077 
-0.198967 2023.19 -1835.61 0.787584 0.508481 -0.348077 
-48.3001 2116.77 -1808.65 0.787584 0.508481 -0.348077 
72.2947 1885.34 -1871.67 0.787584 0.508481 -0.348077 
6.63868 2019.44 -1825.68 0.787584 0.508481 -0.348077 
247.304 1652.16 -1815.21 0.787584 0.508481 -0.348077 
170.716 1768.65 -1819.11 0.787584 0.508481 -0.348077 
116.685 1872.04 -1791.3 0.787584 0.508481 -0.348077 
-98.7815 2185.54 -1822.76 0.787584 0.508481 -0.348077 
119.059 1842.93 -1827.92 0.787584 0.508481 -0.348077 
167.655 1772.62 -1820.25 0.787584 0.508481 -0.348077 
491.157 1292 -1787.34 0.787584 0.508481 -0.348077 
-92.1335 2194.06 -1795.57 0.787584 0.508481 -0.348077 
56.9856 1965.79 -1790.09 0.787584 0.508481 -0.348077 
126.036 1846.25 -1807.49 0.787584 0.508481 -0.348077 
283.868 1618.11 -1782.28 0.787584 0.508481 -0.348077 
404.641 1420.84 -1795.7 0.787584 0.508481 -0.348077 
12.1269 2035.54 -1790.18 0.787584 0.508481 -0.348077 
258.137 1656.53 -1784.63 0.787584 0.508481 -0.348077 
44.4562 1952.56 -1837.25 0.787584 0.508481 -0.348077 
252.166 1642.91 -1817.64 0.787584 0.508481 -0.348077 
388.989 1447.81 -1791.94 0.787584 0.508481 -0.348077 
230.456 1689.58 -1799.08 0.787584 0.508481 -0.348077 
-40.4614 2054.78 -1880.37 0.787584 0.508481 -0.348077 
-74.4111 2108.34 -1879.34 0.787584 0.508481 -0.348077 
-33.5538 2071.93 -1840.18 0.787584 0.508481 -0.348077 
-41.1737 2081.15 -1843.98 0.787584 0.508481 -0.348077 
101.127 1855.07 -1850.63 0.787584 0.508481 -0.348077 
-114.769 2163.14 -1890.87 0.787584 0.508481 -0.348077 
100.319 1877.57 -1820.02 0.787584 0.508481 -0.348077 
408.29 1414.99 -1795.95 0.787584 0.508481 -0.348077 
349.638 1491.74 -1816.88 0.787584 0.508481 -0.348077 
160.774 1801.74 -1793.73 0.787584 0.508481 -0.348077 
186.734 1729.99 -1838.89 0.787584 0.508481 -0.348077 
-15.7366 2067.28 -1806.93 0.787584 0.508481 -0.348077 
140.189 1801.66 -1839.99 0.787584 0.508481 -0.348077 
-1.98467 1999.5 -1873.75 0.787584 0.508481 -0.348077 
178.416 1778.22 -1788.06 0.787584 0.508481 -0.348077 
131.842 1828.53 -1820 0.787584 0.508481 -0.348077 
96.2866 1886.13 -1816.74 0.787584 0.508481 -0.348077 
-13.3208 2058.3 -1814.45 0.787584 0.508481 -0.348077 
-7.23739 1992.59 -1895.47 0.787584 0.508481 -0.348077 
380.272 1455.34 -1800.64 0.787584 0.508481 -0.348077 
129.998 1829.29 -1823.04 0.787584 0.508481 -0.348077 
69.0844 1943.62 -1794.91 0.787584 0.508481 -0.348077 
153.073 1767.16 -1860.81 0.787584 0.508481 -0.348077 
-48.4611 2057.86 -1893.87 0.787584 0.508481 -0.348077 
281.83 1619.34 -1785.09 0.787584 0.508481 -0.348077 
117.765 1815.22 -1870.73 0.787584 0.508481 -0.348077 
164.957 1758.99 -1845.94 0.787584 0.508481 -0.348077 
-60.8206 2082.98 -1885.39 0.787584 0.508481 -0.348077 
228.692 1661.5 -1843.49 0.787584 0.508481 -0.348077 
145.127 1778.13 -1862.83 0.787584 0.508481 -0.348077 
371.785 1480.73 -1783.09 0.787584 0.508481 -0.348077 
406.8 1426.74 -1782.35 0.787584 0.508481 -0.348077 
102.53 1883.75 -1806.17 0.787584 0.508481 -0.348077 
330.022 1522.27 -1816.88 0.787584 0.508481 -0.348077 
14.7789 1997.4 -1839.19 0.787584 0.508481 -0.348077 
17.091 1981.2 -1857.33 0.787584 0.508481 -0.348077 
180.83 1741.19 -1836 0.787584 0.508481 -0.348077 
-4.86004 2003.19 -1874.87 0.787584 0.508481 -0.348077 
-89.9589 2134.93 -1875.89 0.787584 0.508481 -0.348077 
26.9239 1985.92 -1828.49 0.787584 0.508481 -0.348077 
318.149 1553.82 -1798.04 0.787584 0.508481 -0.348077 
189.625 1735.64 -1824.26 0.787584 0.508481 -0.348077 
-105.59 2160.95 -1873.44 0.787584 0.508481 -0.348077 
111.467 1882.37 -1788.12 0.787584 0.508481 -0.348077 
293.026 1581.95 -1813.85 0.787584 0.508481 -0.348077 
-15.9235 2021.02 -1873.99 0.787584 0.508481 -0.348077 
173.781 1749.95 -1839.18 0.787584 0.508481 -0.348077 
-0.356041 1994.1 -1877.88 0.787584 0.508481 -0.348077 
-37.9736 2056.26 -1872.66 0.787584 0.508481 -0.348077 
274.594 1621.01 -1798.9 0.787584 0.508481 -0.348077 
126.014 1828.03 -1833.79 0.787584 0.508481 -0.348077 
47.8544 1914.3 -1884.74 0.787584 0.508481 -0.348077 
69.1057 1930.93 -1813.14 0.787584 0.508481 -0.348077 
-23.21 2049.65 -1849.09 0.787584 0.508481 -0.348077 
98.324 1900.74 -1791.12 0.787584 0.508481 -0.348077 
47.7961 1979.1 -1791.52 0.787584 0.508481 -0.348077 
83.1939 1878.14 -1857.61 0.787584 0.508481 -0.348077 
-148.215 2149.69 -1914.9 -0.22185 -0.298155 -0.928378 
-119.586 2091.98 -1903.19 -0.22185 -0.298155 -0.928378 
-136.309 2129.3 -1911.2 -0.22185 -0.298155 -0.928378 
-160.599 2094.4 -1894.16 -0.22185 -0.298155 -0.928378 
-112.946 2107.96 -1909.92 -0.22185 -0.298155 -0.928378 
-140.723 2148.95 -1916.46 -0.22185 -0.298155 -0.928378 
-165.876 2102.8 -1895.6 -0.22185 -0.298155 -0.928378 
-158.494 2129.54 -1905.96 -0.22185 -0.298155 -0.928378 
-175.044 2098.78 -1892.11 -0.22185 -0.298155 -0.928378 
-158.046 2143.6 -1910.59 -0.22185 -0.298155 -0.928378 
-176.599 2129.34 -1901.56 -0.22185 -0.298155 -0.928378 
-154.899 2056.02 -1883.18 -0.22185 -0.298155 -0.928378 
-125.284 2047.31 -1887.47 -0.22185 -0.298155 -0.928378 
-123.754 2002.22 -1873.33 -0.22185 -0.298155 -0.928378 
-111.357 2028.23 -1884.66 -0.22185 -0.298155 -0.928378 
-110.319 2010.18 -1879.11 -0.22185 -0.298155 -0.928378 
-141.214 2051.92 -1885.14 -0.22185 -0.298155 -0.928378 
-137.373 2035.5 -1880.77 -0.22185 -0.298155 -0.928378 
-135.591 2015.87 -1874.89 -0.22185 -0.298155 -0.928378 
-122.609 2057.74 -1891.46 -0.22185 -0.298155 -0.928378 
164.44 1699.16 -1844.85 -0.22185 -0.298155 -0.928378 
211.597 1645.96 -1839.03 -0.22185 -0.298155 -0.928378 
190.783 1654.24 -1836.71 -0.22185 -0.298155 -0.928378 
147.881 1674.3 -1832.89 -0.22185 -0.298155 -0.928378 
160.198 1665.78 -1833.1 -0.22185 -0.298155 -0.928378 
167.371 1705.7 -1847.65 -0.22185 -0.298155 -0.928378 
153.111 1712.76 -1846.51 -0.22185 -0.298155 -0.928378 
114.566 1694.08 -1831.28 -0.22185 -0.298155 -0.928378 
140.467 1702.65 -1840.23 -0.22185 -0.298155 -0.928378 
203.928 1618.81 -1828.46 -0.22185 -0.298155 -0.928378 
176.351 1587.77 -1811.88 -0.22185 -0.298155 -0.928378 
134.824 1656.48 -1824.04 -0.22185 -0.298155 -0.928378 
221.751 1617.34 -1832.26 -0.22185 -0.298155 -0.928378 
202.529 1615.27 -1826.99 -0.22185 -0.298155 -0.928378 
171.389 1626.68 -1823.2 -0.22185 -0.298155 -0.928378 
164.416 1647.21 -1828.14 -0.22185 -0.298155 -0.928378 
123.091 1668.54 -1825.1 -0.22185 -0.298155 -0.928378 
125.794 1667.2 -1825.32 -0.22185 -0.298155 -0.928378 
419.243 1241.28 -1758.59 -0.22185 -0.298155 -0.928378 
452.366 1280.65 -1779.18 -0.22185 -0.298155 -0.928378 
455.636 1200.86 -1754.3 -0.22185 -0.298155 -0.928378 
445.491 1269.83 -1774.05 -0.22185 -0.298155 -0.928378 
425.852 1276.59 -1771.53 -0.22185 -0.298155 -0.928378 
472.098 1162.86 -1746.02 -0.22185 -0.298155 -0.928378 
436.618 1236.69 -1761.27 -0.22185 -0.298155 -0.928378 
461.191 1198.34 -1754.82 -0.22185 -0.298155 -0.928378 
409.736 1244.47 -1757.34 -0.22185 -0.298155 -0.928378 
492.513 1263.56 -1783.29 -0.22185 -0.298155 -0.928378 
473.445 1273.14 -1781.81 -0.22185 -0.298155 -0.928378 
463.17 1263.64 -1776.3 -0.22185 -0.298155 -0.928378 
527.567 1207.7 -1773.72 -0.22185 -0.298155 -0.928378 
505.702 1233.18 -1776.68 -0.22185 -0.298155 -0.928378 
485.76 1152.82 -1746.06 -0.22185 -0.298155 -0.928378 
478.57 1268.21 -1781.45 -0.22185 -0.298155 -0.928378 
511.377 1186.21 -1762.93 -0.22185 -0.298155 -0.928378 
468.979 1278.14 -1782.35 -0.22185 -0.298155 -0.928378 
466.753 1246 -1771.48 -0.22185 -0.298155 -0.928378 
512.007 1225.59 -1775.75 -0.22185 -0.298155 -0.928378 
481.149 1263.54 -1780.57 -0.22185 -0.298155 -0.928378 
123.633 1801.8 -1868.09 -0.22185 -0.298155 -0.928378 
212.197 1662.94 -1844.64 -0.22185 -0.298155 -0.928378 
-86.4995 2080.05 -1907.28 -0.22185 -0.298155 -0.928378 
-90.2331 2097.64 -1912.04 -0.22185 -0.298155 -0.928378 
357.291 1473.94 -1818.58 -0.22185 -0.298155 -0.928378 
203.33 1675.44 -1846.53 -0.22185 -0.298155 -0.928378 
324.674 1522.64 -1826.44 -0.22185 -0.298155 -0.928378 
71.4545 1856.78 -1873.28 -0.22185 -0.298155 -0.928378 
-82.1608 2079.85 -1908.25 -0.22185 -0.298155 -0.928378 
267.524 1603.94 -1838.91 -0.22185 -0.298155 -0.928378 
203.578 1686.28 -1850.08 -0.22185 -0.298155 -0.928378 
-0.784019 1955.57 -1887.76 -0.22185 -0.298155 -0.928378 
133.917 1789.71 -1866.67 -0.22185 -0.298155 -0.928378 
-44.274 2009.27 -1894.62 -0.22185 -0.298155 -0.928378 
223.082 1653.59 -1844.23 -0.22185 -0.298155 -0.928378 
272.102 1588.81 -1835.13 -0.22185 -0.298155 -0.928378 
98.429 1841.44 -1874.81 -0.22185 -0.298155 -0.928378 
326.53 1512.58 -1823.65 -0.22185 -0.298155 -0.928378 
110.291 1809.14 -1867.26 -0.22185 -0.298155 -0.928378 
84.5061 1859.06 -1877.14 -0.22185 -0.298155 -0.928378 
428.53 1377.03 -1804.47 -0.22185 -0.298155 -0.928378 
94.6419 1814 -1865.08 -0.22185 -0.298155 -0.928378 
136.091 1760.68 -1857.85 -0.22185 -0.298155 -0.928378 
155.596 1730.61 -1852.85 -0.22185 -0.298155 -0.928378 
452.65 1336.54 -1797.22 -0.22185 -0.298155 -0.928378 
169.479 1719.74 -1852.67 -0.22185 -0.298155 -0.928378 
265.16 1588.84 -1833.48 -0.22185 -0.298155 -0.928378 
279.013 1559.05 -1827.22 -0.22185 -0.298155 -0.928378 
497.075 1275.51 -1788.23 -0.22185 -0.298155 -0.928378 
305.048 1525.89 -1822.78 -0.22185 -0.298155 -0.928378 
386.633 1411.35 -1805.48 -0.22185 -0.298155 -0.928378 
481.631 1282 -1786.62 -0.22185 -0.298155 -0.928378 
391.211 1403.07 -1803.91 -0.22185 -0.298155 -0.928378 
548.029 1206.36 -1778.18 -0.22185 -0.298155 -0.928378 
416.328 1373.88 -1800.53 -0.22185 -0.298155 -0.928378 
297.103 1527.06 -1821.26 -0.22185 -0.298155 -0.928378 
-144.662 1980.98 -1935.67 0.787584 0.508481 -0.348077 
-165.289 1956.66 -2016.96 0.787584 0.508481 -0.348077 
-174.056 2057.54 -1891.28 0.787584 0.508481 -0.348077 
-185.603 2068.3 -1901.67 0.787584 0.508481 -0.348077 
-181.442 2055.04 -1911.44 0.787584 0.508481 -0.348077 
-171.45 2018 -1942.4 0.787584 0.508481 -0.348077 
-130.645 2000.08 -1876.73 0.787584 0.508481 -0.348077 
-178.446 1942.3 -2067.15 0.787584 0.508481 -0.348077 
-182.177 1979.37 -2022.11 0.787584 0.508481 -0.348077 
-181.405 2056.32 -1909.52 0.787584 0.508481 -0.348077 
-173.747 2036.83 -1920.43 0.787584 0.508481 -0.348077 
-152.349 1987.09 -1944.11 0.787584 0.508481 -0.348077 
-199.178 2054.15 -1952.49 0.787584 0.508481 -0.348077 
-171.423 2029.94 -1925.13 0.787584 0.508481 -0.348077 
-188.693 2005.07 -1999.69 0.787584 0.508481 -0.348077 
-171.211 1943.41 -2049.32 0.787584 0.508481 -0.348077 
-157.008 2018.06 -1909.93 0.787584 0.508481 -0.348077 
-162.037 1963.91 -1999.22 0.787584 0.508481 -0.348077 
-180.259 2042.64 -1926.66 0.787584 0.508481 -0.348077 
-181.178 2046.28 -1923.47 0.787584 0.508481 -0.348077 
-176.753 2022.65 -1947.59 0.787584 0.508481 -0.348077 
-194.323 2090.53 -1889.2 0.787584 0.508481 -0.348077 
-189.554 2048.38 -1939.22 0.787584 0.508481 -0.348077 
-134.072 1991.43 -1896.88 0.787584 0.508481 -0.348077 
-145.583 1981.98 -1936.3 0.787584 0.508481 -0.348077 
-182.14 2064.59 -1899.24 0.787584 0.508481 -0.348077 
-222.565 2022.96 -2049.85 0.787584 0.508481 -0.348077 
-181.125 1940.26 -2076.08 0.787584 0.508481 -0.348077 
-206.57 2054.31 -1968.83 0.787584 0.508481 -0.348077 
-185.603 1948.41 -2074.39 0.787584 0.508481 -0.348077 
-205.63 1970.71 -2087.16 0.787584 0.508481 -0.348077 
-206.259 2010.94 -2030.62 0.787584 0.508481 -0.348077 
-253.855 2045.33 -2087.78 0.787584 0.508481 -0.348077 
-204.873 2077.11 -1932.18 0.787584 0.508481 -0.348077 
-223.614 2060 -1998.85 0.787584 0.508481 -0.348077 
-228.777 2003.92 -2091.22 0.787584 0.508481 -0.348077 
-237.336 2056.11 -2035.22 0.787584 0.508481 -0.348077 
-206.018 2028.2 -2005.21 0.787584 0.508481 -0.348077 
-202.345 2021.19 -2007.07 0.787584 0.508481 -0.348077 
-223.1 2014.19 -2063.7 0.787584 0.508481 -0.348077 
-213.793 2034.2 -2013.99 0.787584 0.508481 -0.348077 
-226.021 2020.18 -2061.61 0.787584 0.508481 -0.348077 
-221.035 2081.59 -1961.96 0.787584 0.508481 -0.348077 
-201.546 2039.69 -1978.63 0.787584 0.508481 -0.348077 
-227.681 2026.09 -2056.82 0.787584 0.508481 -0.348077 
-186.971 1977.17 -2036.02 0.787584 0.508481 -0.348077 
-228.331 2038.99 -2039.69 0.787584 0.508481 -0.348077 
-212.746 2026.95 -2022.1 0.787584 0.508481 -0.348077 
-203.898 2077.37 -1929.62 0.787584 0.508481 -0.348077 
-216.442 2054.52 -1990.66 0.787584 0.508481 -0.348077 
-222.208 2018.42 -2055.6 0.787584 0.508481 -0.348077 
-213.156 1981.68 -2088.23 0.787584 0.508481 -0.348077 
107.448 1626.49 -1881.12 0.787584 0.508481 -0.348077 
125.776 1535.29 -1971.42 0.787584 0.508481 -0.348077 
115.418 1596.57 -1906.35 0.787584 0.508481 -0.348077 
113.405 1595.77 -1912.01 0.787584 0.508481 -0.348077 
118.205 1637.63 -1840.95 0.787584 0.508481 -0.348077 
155.445 1582.09 -1837.47 0.787584 0.508481 -0.348077 
145.684 1568.41 -1879.06 0.787584 0.508481 -0.348077 
125.233 1590.39 -1893.25 0.787584 0.508481 -0.348077 
148.211 1589 -1843.74 0.787584 0.508481 -0.348077 
128.813 1582.15 -1897.09 0.787584 0.508481 -0.348077 
148.967 1587.85 -1843.69 0.787584 0.508481 -0.348077 
97.3232 1681.83 -1824.09 0.787584 0.508481 -0.348077 
129.177 1588.27 -1887.46 0.787584 0.508481 -0.348077 
108.941 1599.1 -1917.23 0.787584 0.508481 -0.348077 
124.543 1584.91 -1902.69 0.787584 0.508481 -0.348077 
121.388 1626.26 -1850.19 0.787584 0.508481 -0.348077 
130.919 1602.34 -1863.29 0.787584 0.508481 -0.348077 
142.667 1578.02 -1871.98 0.787584 0.508481 -0.348077 
155.993 1591.26 -1823.02 0.787584 0.508481 -0.348077 
116.451 1584.27 -1921.76 0.787584 0.508481 -0.348077 
107.121 1657.89 -1836.61 0.787584 0.508481 -0.348077 
98.9158 1669.85 -1837.78 0.787584 0.508481 -0.348077 
136.595 1531.44 -1952.7 0.787584 0.508481 -0.348077 
159.964 1550.03 -1873.53 0.787584 0.508481 -0.348077 
135.799 1603.19 -1851.12 0.787584 0.508481 -0.348077 
121.419 1640.58 -1829.49 0.787584 0.508481 -0.348077 
88.6535 1609.02 -1948.43 0.787584 0.508481 -0.348077 
70.5783 1630.81 -1957.56 0.787584 0.508481 -0.348077 
63.7871 1638.99 -1960.99 0.787584 0.508481 -0.348077 
92.8741 1599.75 -1952.32 0.787584 0.508481 -0.348077 
88.9953 1630.73 -1916.37 0.787584 0.508481 -0.348077 
78.8673 1584.89 -2005.13 0.787584 0.508481 -0.348077 
77.8048 1590.22 -1999.83 0.787584 0.508481 -0.348077 
101.532 1577.38 -1965.12 0.787584 0.508481 -0.348077 
58.0768 1625.77 -1992.85 0.787584 0.508481 -0.348077 
117.07 1520.06 -2012.87 0.787584 0.508481 -0.348077 
58.4615 1638.89 -1973.08 0.787584 0.508481 -0.348077 
97.5347 1604.33 -1935.27 0.787584 0.508481 -0.348077 
115.661 1559.1 -1959.79 0.787584 0.508481 -0.348077 
84.8436 1607.53 -1959.11 0.787584 0.508481 -0.348077 
55.2048 1607.14 -2026.13 0.787584 0.508481 -0.348077 
93.2896 1577.08 -1984.04 0.787584 0.508481 -0.348077 
60.6562 1610.69 -2008.79 0.787584 0.508481 -0.348077 
89.8426 1607.34 -1948.18 0.787584 0.508481 -0.348077 
94.687 1594.59 -1955.68 0.787584 0.508481 -0.348077 
109.98 1547.02 -1989.93 0.787584 0.508481 -0.348077 
77.0693 1650.24 -1915.02 0.787584 0.508481 -0.348077 
92.1621 1634.21 -1904.27 0.787584 0.508481 -0.348077 
92.0522 1643.82 -1890.66 0.787584 0.508481 -0.348077 
77.0339 1649.52 -1916.13 0.787584 0.508481 -0.348077 
108.058 1532.33 -2015.4 0.787584 0.508481 -0.348077 
59.6591 1627.43 -1986.91 0.787584 0.508481 -0.348077 
436.463 1108 -1890.39 0.787584 0.508481 -0.348077 
417.94 1148.94 -1872.95 0.787584 0.508481 -0.348077 
418.817 1178.69 -1828.11 0.787584 0.508481 -0.348077 
427.095 1202.61 -1775.1 0.787584 0.508481 -0.348077 
473.651 1140.71 -1759.9 0.787584 0.508481 -0.348077 
439.187 1165.9 -1800.88 0.787584 0.508481 -0.348077 
427.644 1171.2 -1819.12 0.787584 0.508481 -0.348077 
440.85 1166.41 -1796.42 0.787584 0.508481 -0.348077 
442.693 1147.49 -1819.54 0.787584 0.508481 -0.348077 
449.912 1105.92 -1863.24 0.787584 0.508481 -0.348077 
429.598 1169.3 -1817.48 0.787584 0.508481 -0.348077 
402.715 1236.75 -1780.58 0.787584 0.508481 -0.348077 
417.426 1181.99 -1826.48 0.787584 0.508481 -0.348077 
471.1 1154.53 -1745.7 0.787584 0.508481 -0.348077 
456.099 1154.62 -1779.21 0.787584 0.508481 -0.348077 
458.543 1131.67 -1806.8 0.787584 0.508481 -0.348077 
423.611 1199.12 -1787.94 0.787584 0.508481 -0.348077 
421.517 1135.5 -1884.29 0.787584 0.508481 -0.348077 
456.857 1161.74 -1767.26 0.787584 0.508481 -0.348077 
423.91 1220.91 -1755.88 0.787584 0.508481 -0.348077 
430.77 1170.22 -1813.52 0.787584 0.508481 -0.348077 
463.781 1161.51 -1752.05 0.787584 0.508481 -0.348077 
436.99 1171.85 -1797.23 0.787584 0.508481 -0.348077 
412.708 1214.1 -1790.81 0.787584 0.508481 -0.348077 
411.387 1203.89 -1808.48 0.787584 0.508481 -0.348077 
467.611 1158.04 -1748.47 0.787584 0.508481 -0.348077 
385.927 1222.51 -1838.73 0.787584 0.508481 -0.348077 
387.509 1217.57 -1842.3 0.787584 0.508481 -0.348077 
378.574 1176.98 -1920.81 0.787584 0.508481 -0.348077 
393.986 1252.18 -1777.92 0.787584 0.508481 -0.348077 
405.41 1141.72 -1911.43 0.787584 0.508481 -0.348077 
408.496 1137.81 -1910.15 0.787584 0.508481 -0.348077 
392.6 1175.11 -1892.06 0.787584 0.508481 -0.348077 
411.72 1112.04 -1940.05 0.787584 0.508481 -0.348077 
396.644 1226.14 -1809.47 0.787584 0.508481 -0.348077 
365.228 1200.35 -1917.06 0.787584 0.508481 -0.348077 
413.099 1124.32 -1919.27 0.787584 0.508481 -0.348077 
361.638 1191.07 -1938.49 0.787584 0.508481 -0.348077 
402.369 1131.05 -1933.64 0.787584 0.508481 -0.348077 
378.745 1193.24 -1897.01 0.787584 0.508481 -0.348077 
407.135 1115.09 -1945.94 0.787584 0.508481 -0.348077 
415.457 1134.31 -1899.59 0.787584 0.508481 -0.348077 
393.674 1256.56 -1772.31 0.787584 0.508481 -0.348077 
382.38 1172.1 -1919.31 0.787584 0.508481 -0.348077 
410.955 1128.11 -1918.62 0.787584 0.508481 -0.348077 
388.237 1190.16 -1880.16 0.787584 0.508481 -0.348077 
404.887 1200.88 -1827.38 0.787584 0.508481 -0.348077 
371.152 1173.86 -1941.94 0.787584 0.508481 -0.348077 
348.324 1190.68 -1968.9 0.787584 0.508481 -0.348077 
392.574 1228.68 -1814.94 0.787584 0.508481 -0.348077 
411.085 1117.98 -1932.91 0.787584 0.508481 -0.348077 
356.763 1183.76 -1959.94 0.787584 0.508481 -0.348077 
375.563 1176.44 -1928.34 0.787584 0.508481 -0.348077 
468.987 1341.44 -1481.17 0.787584 0.508481 -0.348077 
501.179 1211.79 -1595.77 0.787584 0.508481 -0.348077 
466.142 1328.99 -1505.48 0.787584 0.508481 -0.348077 
467.945 1314.25 -1522.68 0.787584 0.508481 -0.348077 
491.248 1255.47 -1555.1 0.787584 0.508481 -0.348077 
485.23 1280.57 -1532.45 0.787584 0.508481 -0.348077 
453.743 1299.53 -1575.73 0.787584 0.508481 -0.348077 
468.876 1256.23 -1604.17 0.787584 0.508481 -0.348077 
477.922 1319.31 -1493.02 0.787584 0.508481 -0.348077 
458.151 1277.24 -1597.95 0.787584 0.508481 -0.348077 
473.73 1297.2 -1534.27 0.787584 0.508481 -0.348077 
456.29 1290.84 -1582.54 0.787584 0.508481 -0.348077 
470.803 1285.02 -1558.37 0.787584 0.508481 -0.348077 
446.647 1306.63 -1581.4 0.787584 0.508481 -0.348077 
461.541 1334.72 -1507.54 0.787584 0.508481 -0.348077 
450.049 1319.66 -1555.01 0.787584 0.508481 -0.348077 
476.017 1337.98 -1470.4 0.787584 0.508481 -0.348077 
459.396 1301.87 -1559.68 0.787584 0.508481 -0.348077 
483.403 1240.08 -1594.86 0.787584 0.508481 -0.348077 
492.185 1288.56 -1505.34 0.787584 0.508481 -0.348077 
491.535 1269.65 -1534.04 0.787584 0.508481 -0.348077 
476.357 1317.83 -1498.65 0.787584 0.508481 -0.348077 
496.643 1254.58 -1544.29 0.787584 0.508481 -0.348077 
472.438 1260.08 -1590.64 0.787584 0.508481 -0.348077 
478.821 1237.89 -1608.3 0.787584 0.508481 -0.348077 
452.026 1331.52 -1533.49 0.787584 0.508481 -0.348077 
461.37 1265.71 -1607.35 0.787584 0.508481 -0.348077 
488.192 1331.46 -1452.48 0.787584 0.508481 -0.348077 
514.9 1313.73 -1418.14 0.787584 0.508481 -0.348077 
526.122 1268.13 -1458.68 0.787584 0.508481 -0.348077 
520.326 1292.65 -1436.36 0.787584 0.508481 -0.348077 
516.462 1234.91 -1528.2 0.787584 0.508481 -0.348077 
506.228 1291.24 -1470 0.787584 0.508481 -0.348077 
507.404 1308.91 -1441.9 0.787584 0.508481 -0.348077 
484.595 1340.23 -1447.92 0.787584 0.508481 -0.348077 
527.066 1295.89 -1416.57 0.787584 0.508481 -0.348077 
504.159 1321.92 -1430.43 0.787584 0.508481 -0.348077 
484.099 1346.47 -1440.05 0.787584 0.508481 -0.348077 
553.024 1248.36 -1426.85 0.787584 0.508481 -0.348077 
548.051 1269.16 -1408.03 0.787584 0.508481 -0.348077 
495.488 1325.22 -1445.11 0.787584 0.508481 -0.348077 
524.058 1242.51 -1500.22 0.787584 0.508481 -0.348077 
498.538 1341.2 -1415.26 0.787584 0.508481 -0.348077 
540.977 1267.85 -1425.78 0.787584 0.508481 -0.348077 
503.892 1330.37 -1418.86 0.787584 0.508481 -0.348077 
498.733 1330.96 -1429.58 0.787584 0.508481 -0.348077 
524.012 1301.64 -1415.13 0.787584 0.508481 -0.348077 
517.335 1231.52 -1531.12 0.787584 0.508481 -0.348077 
496.896 1317.24 -1453.46 0.787584 0.508481 -0.348077 
506.739 1307.05 -1446.07 0.787584 0.508481 -0.348077 
506.083 1286.31 -1477.42 0.787584 0.508481 -0.348077 
524.663 1255.19 -1480.6 0.787584 0.508481 -0.348077 
528.258 1269.63 -1451.73 0.787584 0.508481 -0.348077 
485.101 1349.54 -1433.37 0.787584 0.508481 -0.348077 
464.939 1305.83 -1478.93 -0.787982 -0.505528 0.351462 
513.439 1239.85 -1465.23 -0.787982 -0.505528 0.351462 
517.592 1245.53 -1447.74 -0.787982 -0.505528 0.351462 
490.854 1272.08 -1469.45 -0.787982 -0.505528 0.351462 
454.276 1326 -1473.78 -0.787982 -0.505528 0.351462 
451.135 1329.42 -1475.89 -0.787982 -0.505528 0.351462 
470.765 1313.75 -1454.46 -0.787982 -0.505528 0.351462 
446.392 1336.27 -1476.65 -0.787982 -0.505528 0.351462 
472.599 1210.53 -1599.04 -0.787982 -0.505528 0.351462 
465.054 1226.67 -1592.71 -0.787982 -0.505528 0.351462 
474.812 1218.38 -1582.78 -0.787982 -0.505528 0.351462 
456.452 1231.9 -1604.46 -0.787982 -0.505528 0.351462 
419.315 1283.83 -1612.92 -0.787982 -0.505528 0.351462 
451.945 1259.47 -1574.85 -0.787982 -0.505528 0.351462 
430.082 1274.55 -1602.13 -0.787982 -0.505528 0.351462 
494.067 1200.48 -1565.39 -0.787982 -0.505528 0.351462 
424.365 1287.46 -1596.36 -0.787982 -0.505528 0.351462 
465.734 1233.24 -1581.72 -0.787982 -0.505528 0.351462 
388.951 1233.31 -1753.77 -0.787982 -0.505528 0.351462 
437.285 1150.3 -1764.99 -0.787982 -0.505528 0.351462 
424.108 1185.98 -1743.13 -0.787982 -0.505528 0.351462 
430.643 1173.9 -1745.89 -0.787982 -0.505528 0.351462 
449.671 1139.72 -1752.47 -0.787982 -0.505528 0.351462 
427.834 1157.68 -1775.54 -0.787982 -0.505528 0.351462 
420.273 1176.43 -1765.49 -0.787982 -0.505528 0.351462 
407.283 1186.98 -1779.42 -0.787982 -0.505528 0.351462 
395.463 1204.21 -1781.09 -0.787982 -0.505528 0.351462 
388.548 1225.01 -1766.64 -0.787982 -0.505528 0.351462 
363.633 1183.14 -1882.82 -0.787982 -0.505528 0.351462 
394.633 1132.74 -1885.91 -0.787982 -0.505528 0.351462 
403.154 1123.23 -1880.51 -0.787982 -0.505528 0.351462 
387.114 1147.44 -1881.6 -0.787982 -0.505528 0.351462 
367.689 1162.95 -1902.8 -0.787982 -0.505528 0.351462 
389.101 1133.42 -1897.35 -0.787982 -0.505528 0.351462 
398.752 1114.34 -1903.19 -0.787982 -0.505528 0.351462 
348.155 1186.85 -1912.18 -0.787982 -0.505528 0.351462 
365.303 1167.85 -1901.1 -0.787982 -0.505528 0.351462 
523.825 1403.2 -1427.67 -0.574601 0.809731 -0.119035 
535.638 1414.58 -1407.91 -0.574601 0.809731 -0.119035 
521.686 1402.11 -1424.81 -0.574601 0.809731 -0.119035 
530.539 1414.15 -1386.86 -0.574601 0.809731 -0.119035 
521.605 1404.17 -1410.85 -0.574601 0.809731 -0.119035 
519.394 1406.31 -1386.38 -0.574601 0.809731 -0.119035 
532.898 1411.39 -1416.15 -0.574601 0.809731 -0.119035 
538.702 1427.09 -1339.78 -0.574601 0.809731 -0.119035 
493.987 1388 -1388.15 -0.574601 0.809731 -0.119035 
504.2 1399.22 -1361.97 -0.574601 0.809731 -0.119035 
496.38 1393.47 -1363.24 -0.574601 0.809731 -0.119035 
542.397 1428.05 -1350.74 -0.574601 0.809731 -0.119035 
501.571 1397.72 -1359.54 -0.574601 0.809731 -0.119035 
454.583 1305.24 -1749.42 -0.574601 0.809731 -0.119035 
443.723 1300.39 -1730.54 -0.574601 0.809731 -0.119035 
457.738 1304.47 -1769.28 -0.574601 0.809731 -0.119035 
451.437 1300.63 -1765.14 -0.574601 0.809731 -0.119035 
473.34 1329.89 -1674.69 -0.574601 0.809731 -0.119035 
441.099 1292.16 -1772.58 -0.574601 0.809731 -0.119035 
438.266 1289.61 -1776.1 -0.574601 0.809731 -0.119035 
455.485 1312.6 -1705.12 -0.574601 0.809731 -0.119035 
411.592 1274.83 -1748.63 -0.574601 0.809731 -0.119035 
406.444 1274.44 -1727.07 -0.574601 0.809731 -0.119035 
414.484 1285.6 -1691.15 -0.574601 0.809731 -0.119035 
450.117 1314.69 -1666.17 -0.574601 0.809731 -0.119035 
436.947 1301.31 -1692.78 -0.574601 0.809731 -0.119035 
447.015 1313.77 -1657.73 -0.574601 0.809731 -0.119035 
434.908 1296.76 -1713.2 -0.574601 0.809731 -0.119035 
447.857 1311.11 -1679.22 -0.574601 0.809731 -0.119035 
465.778 1328.03 -1651.54 -0.574601 0.809731 -0.119035 
159.63 1509.15 -1870.54 0.787584 0.508481 -0.348077 
273.72 1315.41 -1893.85 0.787584 0.508481 -0.348077 
140.041 1523.74 -1893.45 0.787584 0.508481 -0.348077 
159.646 1491.27 -1896.27 0.787584 0.508481 -0.348077 
212.915 1414.52 -1887.4 0.787584 0.508481 -0.348077 
240.912 1369.76 -1889.11 0.787584 0.508481 -0.348077 
162.496 1477.71 -1909.41 0.787584 0.508481 -0.348077 
164.24 1494.04 -1881.98 0.787584 0.508481 -0.348077 
148.345 1522.34 -1876.84 0.787584 0.508481 -0.348077 
239.467 1387.83 -1866.32 0.787584 0.508481 -0.348077 
169.705 1464.2 -1912.71 0.787584 0.508481 -0.348077 
249.856 1360.74 -1882.05 0.787584 0.508481 -0.348077 
189.257 1458.79 -1876.66 0.787584 0.508481 -0.348077 
150.399 1527.84 -1864.32 0.787584 0.508481 -0.348077 
162.048 1484.21 -1901.05 0.787584 0.508481 -0.348077 
281.909 1311.67 -1880.88 0.787584 0.508481 -0.348077 
150.804 1515.24 -1881.55 0.787584 0.508481 -0.348077 
179.65 1488.84 -1854.91 0.787584 0.508481 -0.348077 
165.128 1501.44 -1869.33 0.787584 0.508481 -0.348077 
239.798 1364.48 -1899.22 0.787584 0.508481 -0.348077 
236.25 1377.78 -1888.01 0.787584 0.508481 -0.348077 
188.53 1471.78 -1859.59 0.787584 0.508481 -0.348077 
163.836 1509.82 -1860.14 0.787584 0.508481 -0.348077 
176.361 1453.5 -1913.2 0.787584 0.508481 -0.348077 
184.863 1478.01 -1858.82 0.787584 0.508481 -0.348077 
290.727 1297.98 -1880.84 0.787584 0.508481 -0.348077 
178.82 1473.75 -1878.51 0.787584 0.508481 -0.348077 
192.844 1427.24 -1914.07 0.787584 0.508481 -0.348077 
237.259 1366.11 -1902.56 0.787584 0.508481 -0.348077 
167.2 1494.41 -1874.81 0.787584 0.508481 -0.348077 
244.33 1390.34 -1851.8 0.787584 0.508481 -0.348077 
345.925 1270.53 -1796.62 0.787584 0.508481 -0.348077 
262.684 1368.49 -1842.13 0.787584 0.508481 -0.348077 
317.816 1269.4 -1861.27 0.787584 0.508481 -0.348077 
323.062 1263.54 -1857.95 0.787584 0.508481 -0.348077 
321.199 1266.94 -1857.23 0.787584 0.508481 -0.348077 
236.756 1403.29 -1850.13 0.787584 0.508481 -0.348077 
253.821 1386.61 -1835.9 0.787584 0.508481 -0.348077 
352.238 1247.37 -1815.84 0.787584 0.508481 -0.348077 
287.231 1342.71 -1824.23 0.787584 0.508481 -0.348077 
273.76 1348.1 -1846.67 0.787584 0.508481 -0.348077 
350.883 1229.05 -1845.26 0.787584 0.508481 -0.348077 
313.54 1269.08 -1871.32 0.787584 0.508481 -0.348077 
250.672 1392.47 -1834.51 0.787584 0.508481 -0.348077 
310.938 1297.08 -1836.81 0.787584 0.508481 -0.348077 
347.059 1240.44 -1837.43 0.787584 0.508481 -0.348077 
324.091 1269.1 -1847.64 0.787584 0.508481 -0.348077 
310.387 1316.83 -1809.6 0.787584 0.508481 -0.348077 
257.401 1379.41 -1838.23 0.787584 0.508481 -0.348077 
284.289 1334.63 -1842.46 0.787584 0.508481 -0.348077 
191.621 1480.17 -1840.57 0.787584 0.508481 -0.348077 
333.007 1249.96 -1855.22 0.787584 0.508481 -0.348077 
367.136 1240.45 -1792.4 0.787584 0.508481 -0.348077 
332.612 1287.7 -1801.73 0.787584 0.508481 -0.348077 
333.382 1289.7 -1797.12 0.787584 0.508481 -0.348077 
290.321 1333.78 -1830.17 0.787584 0.508481 -0.348077 
227.976 1418.68 -1847.65 0.787584 0.508481 -0.348077 
230.792 1420.21 -1839.12 0.787584 0.508481 -0.348077 
203.223 1468.41 -1831.49 0.787584 0.508481 -0.348077 
281.842 1349.95 -1825.88 0.787584 0.508481 -0.348077 
222.611 1428.8 -1845.09 0.787584 0.508481 -0.348077 
223.692 1471.79 -1780.72 0.787584 0.508481 -0.348077 
224.036 1533.88 -1690.52 0.787584 0.508481 -0.348077 
260.518 1439.9 -1744.11 0.787584 0.508481 -0.348077 
270.434 1407.48 -1768.58 0.787584 0.508481 -0.348077 
279.073 1416.26 -1736.56 0.787584 0.508481 -0.348077 
170.411 1558.23 -1775.66 0.787584 0.508481 -0.348077 
360.646 1276.85 -1754.51 0.787584 0.508481 -0.348077 
254.978 1481.04 -1697.27 0.787584 0.508481 -0.348077 
256.871 1463.32 -1718.55 0.787584 0.508481 -0.348077 
227.507 1531.7 -1685.87 0.787584 0.508481 -0.348077 
183.575 1542.69 -1768.53 0.787584 0.508481 -0.348077 
214.331 1488.92 -1777.04 0.787584 0.508481 -0.348077 
236.568 1496.48 -1716.3 0.787584 0.508481 -0.348077 
228.378 1505.59 -1721.53 0.787584 0.508481 -0.348077 
216.439 1518.06 -1730.33 0.787584 0.508481 -0.348077 
292.94 1391.89 -1740.58 0.787584 0.508481 -0.348077 
177.287 1544.87 -1779.49 0.787584 0.508481 -0.348077 
190.115 1528.48 -1774.34 0.787584 0.508481 -0.348077 
249.496 1473.25 -1720.77 0.787584 0.508481 -0.348077 
327.591 1336.64 -1742.48 0.787584 0.508481 -0.348077 
205.04 1527.32 -1742.55 0.787584 0.508481 -0.348077 
300.261 1372.15 -1752.6 0.787584 0.508481 -0.348077 
169.11 1547.64 -1793.84 0.787584 0.508481 -0.348077 
238.245 1474.82 -1743.74 0.787584 0.508481 -0.348077 
196.697 1559.58 -1714.78 0.787584 0.508481 -0.348077 
240.68 1479.43 -1731.64 0.787584 0.508481 -0.348077 
258.578 1438.39 -1750.63 0.787584 0.508481 -0.348077 
175.03 1539.61 -1792.13 0.787584 0.508481 -0.348077 
245.809 1450.51 -1761.8 0.787584 0.508481 -0.348077 
273.426 1407.98 -1761.15 0.787584 0.508481 -0.348077 
173.976 1542.27 -1790.66 0.787584 0.508481 -0.348077 
180.701 1585.08 -1713.91 0.787584 0.508481 -0.348077 
205.158 1535.6 -1730.36 0.787584 0.508481 -0.348077 
222.736 1516.14 -1718.98 0.787584 0.508481 -0.348077 
288.618 1417.02 -1714.06 0.787584 0.508481 -0.348077 
203.887 1526.42 -1746.43 0.787584 0.508481 -0.348077 
194.58 1570.6 -1703.65 0.787584 0.508481 -0.348077 
174.252 1575.84 -1741.68 0.787584 0.508481 -0.348077 
238.871 1465.42 -1755.88 0.787584 0.508481 -0.348077 
233.681 1513.41 -1698.38 0.787584 0.508481 -0.348077 
181.062 1573.7 -1729.5 0.787584 0.508481 -0.348077 
191.524 1556.25 -1731.18 0.787584 0.508481 -0.348077 
207.517 1496.44 -1781.48 0.787584 0.508481 -0.348077 
238.524 1462.58 -1760.75 0.787584 0.508481 -0.348077 
391.432 1318.73 -1625.15 0.787584 0.508481 -0.348077 
345.123 1334.29 -1706.55 0.787584 0.508481 -0.348077 
297.617 1441.38 -1658.8 0.787584 0.508481 -0.348077 
356.653 1358.96 -1645.17 0.787584 0.508481 -0.348077 
349.568 1372.09 -1642.13 0.787584 0.508481 -0.348077 
276.935 1479.73 -1649.91 0.787584 0.508481 -0.348077 
368.349 1302.1 -1700.86 0.787584 0.508481 -0.348077 
363.381 1339.64 -1657.93 0.787584 0.508481 -0.348077 
317.75 1411.54 -1656.64 0.787584 0.508481 -0.348077 
387.403 1284.59 -1683.37 0.787584 0.508481 -0.348077 
373.396 1343.37 -1630.09 0.787584 0.508481 -0.348077 
381.3 1328.07 -1634.41 0.787584 0.508481 -0.348077 
368.635 1345.96 -1637.03 0.787584 0.508481 -0.348077 
263.888 1499.9 -1650.1 0.787584 0.508481 -0.348077 
359.752 1337.47 -1669.18 0.787584 0.508481 -0.348077 
301.899 1444.82 -1644.24 0.787584 0.508481 -0.348077 
259.073 1498.73 -1662.59 0.787584 0.508481 -0.348077 
307.706 1402.69 -1691.91 0.787584 0.508481 -0.348077 
353.208 1308.75 -1725.22 0.787584 0.508481 -0.348077 
359.06 1323.46 -1690.91 0.787584 0.508481 -0.348077 
310.208 1404.65 -1683.47 0.787584 0.508481 -0.348077 
261.817 1494.85 -1662.03 0.787584 0.508481 -0.348077 
272.213 1483.75 -1654.72 0.787584 0.508481 -0.348077 
350.435 1341.88 -1683.72 0.787584 0.508481 -0.348077 
343.043 1338.38 -1705.33 0.787584 0.508481 -0.348077 
274.747 1474.45 -1662.43 0.787584 0.508481 -0.348077 
319.5 1406.89 -1659.42 0.787584 0.508481 -0.348077 
309.316 1426.5 -1654 0.787584 0.508481 -0.348077 
393.364 1315.37 -1625.66 0.787584 0.508481 -0.348077 
399.712 1280.47 -1661.7 0.787584 0.508481 -0.348077 
286.835 1441.32 -1683.06 0.787584 0.508481 -0.348077 
409.749 1295.25 -1617.91 0.787584 0.508481 -0.348077 
279.786 1467.53 -1661.1 0.787584 0.508481 -0.348077 
365.628 1343.28 -1647.64 0.787584 0.508481 -0.348077 
357.156 1341.05 -1669.84 0.787584 0.508481 -0.348077 
339.069 1325.92 -1732.19 0.787584 0.508481 -0.348077 
369.556 1349.44 -1629.95 0.787584 0.508481 -0.348077 
303.554 1416.61 -1681.17 0.787584 0.508481 -0.348077 
376.871 1305.3 -1677.14 0.787584 0.508481 -0.348077 
387.714 1319.99 -1631.66 0.787584 0.508481 -0.348077 
348.464 1348.14 -1679.12 0.787584 0.508481 -0.348077 
378.558 1296.75 -1685.68 0.787584 0.508481 -0.348077 
377.761 1327.31 -1643.44 0.787584 0.508481 -0.348077 
279.63 1514.78 -1593.38 0.787584 0.508481 -0.348077 
274.951 1551.12 -1551.52 0.787584 0.508481 -0.348077 
214.135 1634.18 -1568.22 0.787584 0.508481 -0.348077 
316.62 1477.11 -1564.71 0.787584 0.508481 -0.348077 
283.373 1516.16 -1583.01 0.787584 0.508481 -0.348077 
231.935 1608.41 -1565.43 0.787584 0.508481 -0.348077 
234.208 1615.69 -1549.84 0.787584 0.508481 -0.348077 
286.255 1533.08 -1552.16 0.787584 0.508481 -0.348077 
256.538 1544 -1603.05 0.787584 0.508481 -0.348077 
246.488 1552.68 -1613.09 0.787584 0.508481 -0.348077 
222.176 1643.22 -1537.16 0.787584 0.508481 -0.348077 
239.613 1600.86 -1559.09 0.787584 0.508481 -0.348077 
280.681 1504.05 -1606.49 0.787584 0.508481 -0.348077 
255.107 1567.15 -1572.91 0.787584 0.508481 -0.348077 
343.859 1426.26 -1576.9 0.787584 0.508481 -0.348077 
240.756 1560.57 -1614.57 0.787584 0.508481 -0.348077 
226.543 1629.42 -1547.25 0.787584 0.508481 -0.348077 
215.94 1602.29 -1610.1 0.787584 0.508481 -0.348077 
253.064 1553.32 -1597.43 0.787584 0.508481 -0.348077 
371.955 1385.2 -1573.06 0.787584 0.508481 -0.348077 
224.099 1628.46 -1554.11 0.787584 0.508481 -0.348077 
366.711 1387.36 -1581.7 0.787584 0.508481 -0.348077 
368.922 1387.11 -1577.1 0.787584 0.508481 -0.348077 
292.292 1498.05 -1589.09 0.787584 0.508481 -0.348077 
368.328 1385.51 -1580.75 0.787584 0.508481 -0.348077 
299.593 1475.82 -1604.75 0.787584 0.508481 -0.348077 
237.039 1594.65 -1573.81 0.787584 0.508481 -0.348077 
302.246 1492.05 -1575.42 0.787584 0.508481 -0.348077 
277.373 1539.49 -1562.84 0.787584 0.508481 -0.348077 
255.833 1549.34 -1596.94 0.787584 0.508481 -0.348077 
408.972 1353.02 -1536.43 0.787584 0.508481 -0.348077 
411.908 1370.94 -1504.02 0.787584 0.508481 -0.348077 
369.963 1421.38 -1525.41 0.787584 0.508481 -0.348077 
341.691 1448.07 -1550.34 0.787584 0.508481 -0.348077 
408.841 1348.73 -1542.89 0.787584 0.508481 -0.348077 
338.951 1447.07 -1557.92 0.787584 0.508481 -0.348077 
349.617 1452.64 -1525.98 0.787584 0.508481 -0.348077 
383.968 1388.34 -1541.59 0.787584 0.508481 -0.348077 
422.652 1359.39 -1496.57 0.787584 0.508481 -0.348077 
319.636 1500.57 -1524.16 0.787584 0.508481 -0.348077 
269.786 1572.81 -1531.86 0.787584 0.508481 -0.348077 
373.436 1410.31 -1533.57 0.787584 0.508481 -0.348077 
416.423 1355.34 -1516.37 0.787584 0.508481 -0.348077 
227.158 1638.15 -1533.29 0.787584 0.508481 -0.348077 
394.471 1367.74 -1547.73 0.787584 0.508481 -0.348077 
344.725 1461.67 -1523.95 0.787584 0.508481 -0.348077 
337.917 1448.28 -1558.5 0.787584 0.508481 -0.348077 
369.275 1435.91 -1506.01 0.787584 0.508481 -0.348077 
415.348 1335.5 -1547.36 0.787584 0.508481 -0.348077 
343.497 1448.26 -1546.02 0.787584 0.508481 -0.348077 
317.239 1484.42 -1552.8 0.787584 0.508481 -0.348077 
385.985 1377.68 -1552.44 0.787584 0.508481 -0.348077 
405.087 1336.12 -1569.48 0.787584 0.508481 -0.348077 
414.079 1350.59 -1528.47 0.787584 0.508481 -0.348077 
363.012 1415.29 -1549.76 0.787584 0.508481 -0.348077 
312.531 1492.86 -1551.19 0.787584 0.508481 -0.348077 
270.018 1571.16 -1533.7 0.787584 0.508481 -0.348077 
259.919 1590 -1529.2 0.787584 0.508481 -0.348077 
407.491 1343.25 -1553.82 0.787584 0.508481 -0.348077 
241.342 1618.07 -1530.42 0.787584 0.508481 -0.348077 
367.923 1478.31 -1447.95 0.787584 0.508481 -0.348077 
247.736 1674.27 -1435.12 0.787584 0.508481 -0.348077 
290.257 1576.71 -1480.34 0.787584 0.508481 -0.348077 
308.088 1577.04 -1439.88 0.787584 0.508481 -0.348077 
277.423 1643.42 -1413 0.787584 0.508481 -0.348077 
331.994 1543.11 -1435.16 0.787584 0.508481 -0.348077 
352.281 1523.25 -1418.29 0.787584 0.508481 -0.348077 
346.474 1524.32 -1429.77 0.787584 0.508481 -0.348077 
268.815 1628.18 -1454.25 0.787584 0.508481 -0.348077 
258.384 1661.63 -1429.45 0.787584 0.508481 -0.348077 
281.364 1588.64 -1483.09 0.787584 0.508481 -0.348077 
270.679 1650.89 -1417.36 0.787584 0.508481 -0.348077 
337.593 1540.33 -1426.61 0.787584 0.508481 -0.348077 
244.986 1659.44 -1462.64 0.787584 0.508481 -0.348077 
337.232 1556.27 -1404.47 0.787584 0.508481 -0.348077 
317.734 1571.99 -1425.53 0.787584 0.508481 -0.348077 
362.576 1478.94 -1459.04 0.787584 0.508481 -0.348077 
344.713 1541.28 -1409.27 0.787584 0.508481 -0.348077 
284.541 1606.44 -1450.32 0.787584 0.508481 -0.348077 
296.973 1614.36 -1411.03 0.787584 0.508481 -0.348077 
274.199 1645.83 -1416.76 0.787584 0.508481 -0.348077 
339.347 1520.1 -1451.83 0.787584 0.508481 -0.348077 
331.091 1540.26 -1441.29 0.787584 0.508481 -0.348077 
261.073 1641.07 -1453.05 0.787584 0.508481 -0.348077 
241.98 1655.4 -1475.21 0.787584 0.508481 -0.348077 
271.908 1671.02 -1385.6 0.787584 0.508481 -0.348077 
312.096 1546.47 -1474.93 0.787584 0.508481 -0.348077 
264.923 1647.24 -1435.52 0.787584 0.508481 -0.348077 
241.249 1665.7 -1462.02 0.787584 0.508481 -0.348077 
356.666 1490.41 -1455.76 0.787584 0.508481 -0.348077 
344.46 1535.67 -1417.93 0.787584 0.508481 -0.348077 
325.594 1578.69 -1398.25 0.787584 0.508481 -0.348077 
297.024 1583.43 -1455.48 0.787584 0.508481 -0.348077 
362.389 1505.79 -1420.78 0.787584 0.508481 -0.348077 
273.488 1662.57 -1394.24 0.787584 0.508481 -0.348077 
299.797 1597.9 -1428.42 0.787584 0.508481 -0.348077 
393.644 1440.16 -1445.25 0.787584 0.508481 -0.348077 
354.673 1485.92 -1466.7 0.787584 0.508481 -0.348077 
296.651 1580 -1461.25 0.787584 0.508481 -0.348077 
393.384 1429.13 -1461.73 0.787584 0.508481 -0.348077 
298.007 1588.96 -1445.3 0.787584 0.508481 -0.348077 
286.179 1634.32 -1406.48 0.787584 0.508481 -0.348077 
244.317 1659.6 -1463.92 0.787584 0.508481 -0.348077 
290.68 1607.57 -1434.93 0.787584 0.508481 -0.348077 
292.865 1629.37 -1398.63 0.787584 0.508481 -0.348077 
453.114 1364.5 -1420.92 0.787584 0.508481 -0.348077 
419.118 1411.73 -1429.09 0.787584 0.508481 -0.348077 
449.074 1363.39 -1431.57 0.787584 0.508481 -0.348077 
381.476 1481.19 -1413.43 0.787584 0.508481 -0.348077 
397.228 1498.56 -1353.08 0.787584 0.508481 -0.348077 
402.546 1464.92 -1389.63 0.787584 0.508481 -0.348077 
408.605 1469.57 -1369.33 0.787584 0.508481 -0.348077 
440.699 1385.06 -1419.12 0.787584 0.508481 -0.348077 
334.22 1591.87 -1359.92 0.787584 0.508481 -0.348077 
422.56 1472.74 -1333.48 0.787584 0.508481 -0.348077 
416.702 1419.1 -1423.9 0.787584 0.508481 -0.348077 
464.116 1385 -1366.72 0.787584 0.508481 -0.348077 
459.546 1402.33 -1351.99 0.787584 0.508481 -0.348077 
377.949 1494.25 -1402.51 0.787584 0.508481 -0.348077 
318.141 1601.97 -1381.42 0.787584 0.508481 -0.348077 
437.047 1399.36 -1406.71 0.787584 0.508481 -0.348077 
464.465 1407.6 -1333.37 0.787584 0.508481 -0.348077 
463.994 1398.29 -1347.84 0.787584 0.508481 -0.348077 
446.314 1359.6 -1443.22 0.787584 0.508481 -0.348077 
396.954 1498.84 -1353.3 0.787584 0.508481 -0.348077 
285.678 1663.16 -1366.05 0.787584 0.508481 -0.348077 
416.436 1413.34 -1432.79 0.787584 0.508481 -0.348077 
410.704 1469.01 -1365.44 0.787584 0.508481 -0.348077 
414.651 1420.31 -1426.75 0.787584 0.508481 -0.348077 
470.875 1393.31 -1339.59 0.787584 0.508481 -0.348077 
419.427 1460.32 -1358.41 0.787584 0.508481 -0.348077 
354.497 1555.46 -1366.91 0.787584 0.508481 -0.348077 
412.755 1427.16 -1421.12 0.787584 0.508481 -0.348077 
379.459 1527 -1351.95 0.787584 0.508481 -0.348077 
446.546 1398.4 -1386.8 0.787584 0.508481 -0.348077 
312.638 1626.15 -1358.93 0.787584 0.508481 -0.348077 
420.114 1415.16 -1421.92 0.787584 0.508481 -0.348077 
427.651 1429.72 -1384.05 0.787584 0.508481 -0.348077 
447.093 1397.12 -1387.42 0.787584 0.508481 -0.348077 
456.706 1402.86 -1357.6 0.787584 0.508481 -0.348077 
392.262 1515.23 -1340.2 0.787584 0.508481 -0.348077 
451.662 1421.15 -1342.55 0.787584 0.508481 -0.348077 
425.811 1448.16 -1361.6 0.787584 0.508481 -0.348077 
469.188 1373.91 -1371.32 0.787584 0.508481 -0.348077 
369.342 1539.34 -1356.86 0.787584 0.508481 -0.348077 
425.576 1422.35 -1399.31 0.787584 0.508481 -0.348077 
405.608 1443.52 -1413.59 0.787584 0.508481 -0.348077 
410.903 1435.82 -1412.81 0.787584 0.508481 -0.348077 
328.372 1582.65 -1386.32 0.787584 0.508481 -0.348077 
283.086 1704.21 -1432.51 0.572215 -0.810516 0.125034 
278.666 1699.86 -1440.53 0.572215 -0.810516 0.125034 
282.468 1705.02 -1424.25 0.572215 -0.810516 0.125034 
321.135 1734.52 -1410.82 0.572215 -0.810516 0.125034 
292.975 1719.61 -1377.25 0.572215 -0.810516 0.125034 
289.14 1707.82 -1437.07 0.572215 -0.810516 0.125034 
316.325 1727.21 -1436.5 0.572215 -0.810516 0.125034 
307.767 1721.22 -1435.92 0.572215 -0.810516 0.125034 
289.859 1703.64 -1468 0.572215 -0.810516 0.125034 
311.245 1721.02 -1453.56 0.572215 -0.810516 0.125034 
310.073 1719.31 -1459.31 0.572215 -0.810516 0.125034 
314.817 1723.88 -1451.41 0.572215 -0.810516 0.125034 
151.445 1758.94 -1529.04 -0.787982 -0.505528 0.351462 
149.327 1757.51 -1535.85 -0.787982 -0.505528 0.351462 
154.36 1757.09 -1525.16 -0.787982 -0.505528 0.351462 
159.199 1735.88 -1544.87 -0.787982 -0.505528 0.351462 
183.595 1700.68 -1540.88 -0.787982 -0.505528 0.351462 
202.854 1689.25 -1514.17 -0.787982 -0.505528 0.351462 
219.186 1667.02 -1509.57 -0.787982 -0.505528 0.351462 
219.978 1656.33 -1523.2 -0.787982 -0.505528 0.351462 
218.391 1668.69 -1508.95 -0.787982 -0.505528 0.351462 
150.558 1665.5 -1665.64 -0.787982 -0.505528 0.351462 
186.29 1611.23 -1663.71 -0.787982 -0.505528 0.351462 
135.858 1698.3 -1651.34 -0.787982 -0.505528 0.351462 
137.033 1690.77 -1659.56 -0.787982 -0.505528 0.351462 
126.601 1715.55 -1647.24 -0.787982 -0.505528 0.351462 
179.211 1624.07 -1661.08 -0.787982 -0.505528 0.351462 
182.582 1631.75 -1642.45 -0.787982 -0.505528 0.351462 
193.499 1618.65 -1636.86 -0.787982 -0.505528 0.351462 
186.439 1615.18 -1657.69 -0.787982 -0.505528 0.351462 
136.148 1573.47 -1830.53 -0.787982 -0.505528 0.351462 
136.005 1589.62 -1807.58 -0.787982 -0.505528 0.351462 
89.7132 1656.99 -1814.31 -0.787982 -0.505528 0.351462 
122.745 1603.4 -1817.45 -0.787982 -0.505528 0.351462 
71.4026 1659.94 -1851.11 -0.787982 -0.505528 0.351462 
104.632 1617.46 -1837.82 -0.787982 -0.505528 0.351462 
99.2354 1620.59 -1845.4 -0.787982 -0.505528 0.351462 
83.1765 1651.49 -1836.9 -0.787982 -0.505528 0.351462 
106.038 1542.54 -1942.6 -0.787982 -0.505528 0.351462 
110.695 1525.73 -1956.37 -0.787982 -0.505528 0.351462 
124.635 1517.22 -1937.38 -0.787982 -0.505528 0.351462 
92.3803 1565.85 -1939.64 -0.787982 -0.505528 0.351462 
100.71 1539.87 -1958.39 -0.787982 -0.505528 0.351462 
50.6764 1606.98 -1973.88 -0.787982 -0.505528 0.351462 
75.3047 1567.79 -1975.13 -0.787982 -0.505528 0.351462 
58.0816 1611.86 -1950.25 -0.787982 -0.505528 0.351462 
60.4894 1598.11 -1964.66 -0.787982 -0.505528 0.351462 
42.8926 1613.43 -1982.05 -0.787982 -0.505528 0.351462 
231.116 1620.36 -1742.12 0.572215 -0.810516 0.125034 
229.601 1621.52 -1727.38 0.572215 -0.810516 0.125034 
189.701 1589.67 -1750.57 0.572215 -0.810516 0.125034 
218.254 1618.35 -1695.15 0.572215 -0.810516 0.125034 
187.205 1586.34 -1760.85 0.572215 -0.810516 0.125034 
233.219 1627.09 -1707.62 0.572215 -0.810516 0.125034 
201.55 1604.5 -1708.25 0.572215 -0.810516 0.125034 
219.732 1610.93 -1751 0.572215 -0.810516 0.125034 
229.207 1621.61 -1724.98 0.572215 -0.810516 0.125034 
219.82 1602.24 -1808.75 0.572215 -0.810516 0.125034 
241.541 1619.33 -1797.75 0.572215 -0.810516 0.125034 
232.566 1611.11 -1809.93 0.572215 -0.810516 0.125034 
215.212 1602.15 -1787.75 0.572215 -0.810516 0.125034 
246.465 1628.2 -1762.32 0.572215 -0.810516 0.125034 
266.405 1650.97 -1705.55 0.572215 -0.810516 0.125034 
194.198 1583.44 -1812.76 0.572215 -0.810516 0.125034 
203.993 1589.88 -1816.16 0.572215 -0.810516 0.125034 
256.145 1640.46 -1726.82 0.572215 -0.810516 0.125034 
178.946 1764.29 -1522.3 0.787584 0.508481 -0.348077 
160.257 1745.81 -1590.81 0.787584 0.508481 -0.348077 
