ply
format ascii 1.0
comment Created by CloudCompare v2.11.3 (Anoia)
comment Created 07/09/2022 23:41
obj_info Generated by CloudCompare!
element vertex 866
property float x
property float y
property float z
property float nx
property float ny
property float nz
end_header
-1319.42 -416.578 50.7134 0.513637 -0.214904 0.830658 
-1207.89 -359.101 -3.3974 0.513637 -0.214904 0.830658 
-1284.65 -346.301 47.4621 0.513637 -0.214904 0.830658 
-1230.41 -304.068 24.8586 0.513637 -0.214904 0.830658 
-1202.72 -270.233 16.513 0.513637 -0.214904 0.830658 
-1229.87 -264.693 34.7682 0.513637 -0.214904 0.830658 
-1393.62 -436.44 91.4904 0.513637 -0.214904 0.830658 
-1183.87 -304.779 -4.14063 0.513637 -0.214904 0.830658 
-1384.32 -455.425 80.7941 0.513637 -0.214904 0.830658 
-1173.83 -350.744 -22.3108 0.513637 -0.214904 0.830658 
-1406.04 -463.082 92.251 0.513637 -0.214904 0.830658 
-1265.51 -319.04 42.7018 0.513637 -0.214904 0.830658 
-1212.18 -323.932 8.4053 0.513637 -0.214904 0.830658 
-1221.86 -333.253 11.9798 0.513637 -0.214904 0.830658 
-1276.33 -316.734 50.0003 0.513637 -0.214904 0.830658 
-1189.37 -297.292 1.21255 0.513637 -0.214904 0.830658 
-1182.82 -302.111 -4.09631 0.513637 -0.214904 0.830658 
-1335.61 -428.649 57.5941 0.513637 -0.214904 0.830658 
-1311.93 -383.815 54.5935 0.513637 -0.214904 0.830658 
-1248.07 -284.1 40.9904 0.513637 -0.214904 0.830658 
-1353.24 -423.711 69.8001 0.513637 -0.214904 0.830658 
-1215.09 -335.734 7.1427 0.513637 -0.214904 0.830658 
-1175.88 -306.949 -9.65259 0.513637 -0.214904 0.830658 
-1240.91 -370.904 13.9777 0.513637 -0.214904 0.830658 
-1276.08 -389.768 30.849 0.513637 -0.214904 0.830658 
-1311.98 -423.39 44.3326 0.513637 -0.214904 0.830658 
-1190.11 -345.71 -10.9218 0.513637 -0.214904 0.830658 
-1201.72 -298.862 8.44821 0.513637 -0.214904 0.830658 
-1334.15 -406.297 62.5078 0.513637 -0.214904 0.830658 
-1300.3 -360.691 53.4058 0.513637 -0.214904 0.830658 
-1215.25 -341.25 5.8031 0.513637 -0.214904 0.830658 
-1406.59 -446.307 96.9554 0.513637 -0.214904 0.830658 
-1424.03 -462.481 103.544 0.513637 -0.214904 0.830658 
-1262.16 -338.232 35.6352 0.513637 -0.214904 0.830658 
-1425.8 -464.678 104.067 0.513637 -0.214904 0.830658 
-1247.44 -339.901 26.0855 0.513637 -0.214904 0.830658 
-1354.89 -389.993 79.5876 0.513637 -0.214904 0.830658 
-1204.58 -237.433 26.1954 0.513637 -0.214904 0.830658 
-1220.67 -352.462 6.2438 0.513637 -0.214904 0.830658 
-1223.47 -318.837 16.7226 0.513637 -0.214904 0.830658 
-1245.66 -374.656 15.9461 0.513637 -0.214904 0.830658 
-1427.86 -485.897 99.825 0.513637 -0.214904 0.830658 
-1201.08 -321.445 2.18457 0.513637 -0.214904 0.830658 
-1356.02 -394.588 79.09 0.513637 -0.214904 0.830658 
-1321.46 -357.321 67.3854 0.513637 -0.214904 0.830658 
-1200.38 -322.166 1.56192 0.513637 -0.214904 0.830658 
-1230.53 -266.409 34.7259 0.513637 -0.214904 0.830658 
-1426.06 -477.412 100.918 0.513637 -0.214904 0.830658 
-1311.1 -354.878 61.6046 0.513637 -0.214904 0.830658 
-1387.33 -433.905 88.2525 0.513637 -0.214904 0.830658 
-1170.09 -326.083 -18.215 0.513637 -0.214904 0.830658 
-1304.27 -405.981 44.0866 0.513637 -0.214904 0.830658 
-1218.89 -348.953 6.05365 0.513637 -0.214904 0.830658 
-1200.93 -283.786 11.8849 0.513637 -0.214904 0.830658 
-1416.64 -475.012 95.7103 0.513637 -0.214904 0.830658 
-1220.07 -312.461 16.2731 0.513637 -0.214904 0.830658 
-1246.84 -321.113 30.6021 0.513637 -0.214904 0.830658 
-1202.35 -336.31 -0.898132 0.513637 -0.214904 0.830658 
-1249.28 -328.139 30.2816 0.513637 -0.214904 0.830658 
-1192.94 -275.651 9.05313 0.513637 -0.214904 0.830658 
-1255.77 -371.826 22.9406 0.513637 -0.214904 0.830658 
-1213.03 -321.633 9.53119 0.513637 -0.214904 0.830658 
-1286.49 -343.415 49.3527 0.513637 -0.214904 0.830658 
-1287.92 -379.593 40.8283 0.513637 -0.214904 0.830658 
-1203.3 -241.13 24.44 0.513637 -0.214904 0.830658 
-1224.75 -373.065 3.41168 0.513637 -0.214904 0.830658 
-1251.39 -389.04 15.7504 0.513637 -0.214904 0.830658 
-1426.87 -465.023 104.641 0.513637 -0.214904 0.830658 
-1355.68 -429.148 69.8908 0.513637 -0.214904 0.830658 
-1256.5 -376.958 22.0586 0.513637 -0.214904 0.830658 
-1302.33 -347.41 58.1167 0.513637 -0.214904 0.830658 
-1393.66 -443.947 89.5611 0.513637 -0.214904 0.830658 
-1255.57 -303.153 40.6749 0.513637 -0.214904 0.830658 
-1295.01 -327.108 58.8687 0.513637 -0.214904 0.830658 
-1320.94 -362.616 65.6842 0.513637 -0.214904 0.830658 
-1228.8 -382.357 3.50348 0.513637 -0.214904 0.830658 
-1297.8 -338.771 57.5618 0.513637 -0.214904 0.830658 
-1207.34 -320.127 6.39853 0.513637 -0.214904 0.830658 
-1205.45 -332.719 1.95331 0.513637 -0.214904 0.830658 
-1255.83 -338.503 31.6468 0.513637 -0.214904 0.830658 
-1269.33 -375.631 30.3445 0.513637 -0.214904 0.830658 
-1366.41 -440.715 73.5321 0.513637 -0.214904 0.830658 
-1258.12 -380.191 22.2229 0.513637 -0.214904 0.830658 
-1249.63 -290.236 40.3549 0.513637 -0.214904 0.830658 
-1318.88 -414.837 50.8282 0.513637 -0.214904 0.830658 
-1221.79 -362.186 4.40918 0.513637 -0.214904 0.830658 
-1284.87 -361.581 43.6205 0.513637 -0.214904 0.830658 
-1329.59 -371.272 68.789 0.513637 -0.214904 0.830658 
-1319.08 -348.662 68.1634 0.513637 -0.214904 0.830658 
-1272.47 -349.438 39.1057 0.513637 -0.214904 0.830658 
-1333.03 -416.079 59.2688 0.513637 -0.214904 0.830658 
-1189.82 -287.8 3.96146 0.513637 -0.214904 0.830658 
-1289.26 -327.288 55.2575 0.513637 -0.214904 0.830658 
-1254.65 -388.642 17.8741 0.513637 -0.214904 0.830658 
-1260.07 -313.856 40.6763 0.513637 -0.214904 0.830658 
-1353.29 -423.071 69.9963 0.513637 -0.214904 0.830658 
-1217.59 -348.348 5.41034 0.513637 -0.214904 0.830658 
-1349.3 -396.715 74.3765 0.513637 -0.214904 0.830658 
-1321.04 -388.523 59.0124 0.513637 -0.214904 0.830658 
-1220.02 -243.934 34.066 0.513637 -0.214904 0.830658 
-1373.68 -425.383 82.0189 0.513637 -0.214904 0.830658 
-1394.4 -466.481 84.1577 0.513637 -0.214904 0.830658 
-1210.47 -371.823 -5.10492 0.513637 -0.214904 0.830658 
-1270.13 -367.843 32.867 0.513637 -0.214904 0.830658 
-1412.6 -463.936 96.0919 0.513637 -0.214904 0.830658 
-1338.48 -389.502 69.5543 0.513637 -0.214904 0.830658 
-1348.82 -421.452 67.6472 0.513637 -0.214904 0.830658 
-1244.46 -312.881 31.2649 0.513637 -0.214904 0.830658 
-1400.69 -460.449 89.6208 0.513637 -0.214904 0.830658 
-1223.67 -318.373 16.9701 0.513637 -0.214904 0.830658 
-1274.63 -347.224 41.0192 0.513637 -0.214904 0.830658 
-1231.46 -360.828 10.7502 0.513637 -0.214904 0.830658 
-1319.46 -355.869 66.524 0.513637 -0.214904 0.830658 
-1269.09 -379.363 29.2294 0.513637 -0.214904 0.830658 
-1189.18 -333.431 -8.30548 0.513637 -0.214904 0.830658 
-1316.5 -346.816 67.0487 0.513637 -0.214904 0.830658 
-1350.88 -398.968 74.7681 0.513637 -0.214904 0.830658 
-1164.39 -350.28 -28.0316 0.513637 -0.214904 0.830658 
-1392.59 -458.262 85.1779 0.513637 -0.214904 0.830658 
-1332.97 -415.378 59.4162 0.513637 -0.214904 0.830658 
-1248.35 -337.266 27.3335 0.513637 -0.214904 0.830658 
-1324.61 -361.401 68.2781 0.513637 -0.214904 0.830658 
-1369.22 -411.948 82.747 0.513637 -0.214904 0.830658 
-1229.67 -367.73 7.84668 0.513637 -0.214904 0.830658 
-1358.16 -394.131 80.5353 0.513637 -0.214904 0.830658 
-1239.57 -361.226 15.6693 0.513637 -0.214904 0.830658 
-1378.57 -449.404 78.8009 0.513637 -0.214904 0.830658 
-1385.54 -461.339 80.0111 0.513637 -0.214904 0.830658 
-1246.17 -318.135 30.9621 0.513637 -0.214904 0.830658 
-1293.9 -323.098 59.2187 0.513637 -0.214904 0.830658 
-1199.89 -324.124 0.748871 0.513637 -0.214904 0.830658 
-1301.15 -337.419 59.9837 0.513637 -0.214904 0.830658 
-1279.83 -324.203 50.2253 0.513637 -0.214904 0.830658 
-1289.85 -334.234 53.8195 0.513637 -0.214904 0.830658 
-1246.1 -293.088 37.4276 0.513637 -0.214904 0.830658 
-1262.47 -383.987 23.9255 0.513637 -0.214904 0.830658 
-1245.31 -358.949 19.8136 0.513637 -0.214904 0.830658 
-1335.13 -367.211 73.2755 0.513637 -0.214904 0.830658 
-1251.31 -350.55 25.7132 0.513637 -0.214904 0.830658 
-1337.54 -371.726 73.5926 0.513637 -0.214904 0.830658 
-1167.59 -340.732 -23.5716 0.513637 -0.214904 0.830658 
-1220.3 -268.583 27.8302 0.513637 -0.214904 0.830658 
-1202.84 -364.507 -7.92703 0.513637 -0.214904 0.830658 
-1315.45 -386.961 55.956 0.513637 -0.214904 0.830658 
-1253.17 -369.628 21.9023 0.513637 -0.214904 0.830658 
-1274.67 -336.863 43.7356 0.513637 -0.214904 0.830658 
-1199 -288.801 9.38159 0.513637 -0.214904 0.830658 
-1220.28 -348.814 6.95291 0.513637 -0.214904 0.830658 
-1425.14 -473.291 101.422 0.513637 -0.214904 0.830658 
-1302.62 -385.25 48.4593 0.513637 -0.214904 0.830658 
-1293.28 -362.896 48.4894 0.513637 -0.214904 0.830658 
-1250.77 -297.868 39.0807 0.513637 -0.214904 0.830658 
-1339.38 -387.104 70.7343 0.513637 -0.214904 0.830658 
-1281.45 -403.697 30.554 0.513637 -0.214904 0.830658 
-1212.63 -292.408 16.8843 0.513637 -0.214904 0.830658 
-1396.36 -442.386 91.6404 0.513637 -0.214904 0.830658 
-1188.15 -350.847 -13.4683 0.513637 -0.214904 0.830658 
-1196.33 -364.605 -11.9859 0.513637 -0.214904 0.830658 
-1411.11 -447.36 99.476 0.513637 -0.214904 0.830658 
-1280.49 -332.452 48.488 0.513637 -0.214904 0.830658 
-1224.53 -332.685 13.7776 0.513637 -0.214904 0.830658 
-1261.6 -323.477 39.1256 0.513637 -0.214904 0.830658 
-1306.96 -414.062 43.654 0.513637 -0.214904 0.830658 
-1297.79 -371.705 48.9919 0.513637 -0.214904 0.830658 
-1253.78 -385.464 18.1606 0.513637 -0.214904 0.830658 
-1384.89 -417.77 90.9412 0.513637 -0.214904 0.830658 
-1198.16 -266.137 14.7561 0.513637 -0.214904 0.830658 
-1255.69 -319.857 36.4054 0.513637 -0.214904 0.830658 
-1261.61 -380.908 24.1974 0.513637 -0.214904 0.830658 
-1200.57 -283.016 11.8582 0.513637 -0.214904 0.830658 
-1167.53 -325.341 -19.6047 0.513637 -0.214904 0.830658 
-1330.54 -428.012 54.6211 0.513637 -0.214904 0.830658 
-1388.47 -440.532 87.2352 0.513637 -0.214904 0.830658 
-1247.65 -365.471 19.5648 0.513637 -0.214904 0.830658 
-1232.46 -328.166 19.8622 0.513637 -0.214904 0.830658 
-1430.57 -470.306 105.561 0.513637 -0.214904 0.830658 
-1282.9 -402.317 31.811 0.513637 -0.214904 0.830658 
-1187.85 -263.093 9.16565 0.513637 -0.214904 0.830658 
-1199.31 -284.134 10.7876 0.513637 -0.214904 0.830658 
-1444.18 -483.232 110.623 0.513637 -0.214904 0.830658 
-1260.87 -359.882 29.2074 0.513637 -0.214904 0.830658 
-1201.22 -269.114 15.8752 0.513637 -0.214904 0.830658 
-1314 -407.846 49.6262 0.513637 -0.214904 0.830658 
-1356.59 -443.157 66.812 0.513637 -0.214904 0.830658 
-1253.05 -365.221 22.9736 0.513637 -0.214904 0.830658 
-1363.73 -410.803 79.6513 0.513637 -0.214904 0.830658 
-1208.22 -352.436 -1.45798 0.513637 -0.214904 0.830658 
-1173.51 -335.42 -18.5257 0.513637 -0.214904 0.830658 
-1220.17 -289.805 22.2289 0.513637 -0.214904 0.830658 
-1204.34 -344.165 -1.71106 0.513637 -0.214904 0.830658 
-1441.49 -491.879 106.708 0.513637 -0.214904 0.830658 
-1267.74 -384.384 27.0863 0.513637 -0.214904 0.830658 
-1195.98 -255.815 16.0943 0.513637 -0.214904 0.830658 
-1160.16 -341.88 -28.4683 0.513637 -0.214904 0.830658 
-1212.36 -281.697 19.5012 0.513637 -0.214904 0.830658 
-1175.62 -328.99 -15.5419 0.513637 -0.214904 0.830658 
-1370.19 -436.565 76.9519 0.513637 -0.214904 0.830658 
-1194.46 -287.809 6.83243 0.513637 -0.214904 0.830658 
-1279.03 -387.096 33.3697 0.513637 -0.214904 0.830658 
-1225.21 -279.541 28.0176 0.513637 -0.214904 0.830658 
-1265.47 -379.786 26.8781 0.513637 -0.214904 0.830658 
-1342.45 -437.852 59.4375 0.513637 -0.214904 0.830658 
-1220 -367.405 1.94687 0.513637 -0.214904 0.830658 
-1246.67 -287.66 39.1947 0.513637 -0.214904 0.830658 
-1279.01 -310.258 53.3413 0.513637 -0.214904 0.830658 
-1338.15 -422.694 60.7191 0.513637 -0.214904 0.830658 
-1339.92 -435.492 58.4844 0.513637 -0.214904 0.830658 
-1360.45 -410.658 77.6582 0.513637 -0.214904 0.830658 
-1296.87 -362.179 50.8973 0.513637 -0.214904 0.830658 
-1221.56 -325.112 13.9096 0.513637 -0.214904 0.830658 
-1343.04 -384.463 73.6908 0.513637 -0.214904 0.830658 
-1211.89 -276.409 20.5891 0.513637 -0.214904 0.830658 
-1328.56 -416.141 56.4847 0.513637 -0.214904 0.830658 
-1172.45 -334.878 -19.0363 0.513637 -0.214904 0.830658 
-1287.19 -412.294 31.8722 0.513637 -0.214904 0.830658 
-1258.86 -288.306 46.5756 0.513637 -0.214904 0.830658 
-1259.79 -370.973 25.6525 0.513637 -0.214904 0.830658 
-1212.68 -265.271 23.9751 0.513637 -0.214904 0.830658 
-1196.79 -323.058 -0.893768 0.513637 -0.214904 0.830658 
-1216.03 -289.841 19.6578 0.513637 -0.214904 0.830658 
-1419.16 -468.361 99.0025 0.513637 -0.214904 0.830658 
-1233.35 -303.087 26.9354 0.513637 -0.214904 0.830658 
-1257.95 -328.496 35.5587 0.513637 -0.214904 0.830658 
-1233.17 -292.151 29.6692 0.513637 -0.214904 0.830658 
-1440.33 -485.112 107.753 0.513637 -0.214904 0.830658 
-1286.3 -410.89 31.6858 0.513637 -0.214904 0.830658 
-1384.54 -430.689 87.3644 0.513637 -0.214904 0.830658 
-1225.8 -378.73 2.58865 0.513637 -0.214904 0.830658 
-1208.62 -361.535 -3.57849 0.513637 -0.214904 0.830658 
-1271.76 -371.924 32.8183 0.513637 -0.214904 0.830658 
-1219.96 -293.64 21.1053 0.513637 -0.214904 0.830658 
-1223.85 -320.481 16.5306 0.513637 -0.214904 0.830658 
-1166.37 -324.803 -20.183 0.513637 -0.214904 0.830658 
-1341.59 -425.404 62.1429 0.513637 -0.214904 0.830658 
-1201.24 -236.824 24.2874 0.513637 -0.214904 0.830658 
-1442.72 -448.228 237.947 0.816975 0.415654 -0.399729 
-1447.46 -456.54 219.505 0.816975 0.415654 -0.399729 
-1449.18 -474.931 196.698 0.816975 0.415654 -0.399729 
-1454.15 -415.236 249.024 0.816975 0.415654 -0.399729 
-1447.1 -434.157 243.697 0.816975 0.415654 -0.399729 
-1450.74 -472.357 196.19 0.816975 0.415654 -0.399729 
-1433.67 -482.217 220.941 0.816975 0.415654 -0.399729 
-1459.64 -473.177 177.032 0.816975 0.415654 -0.399729 
-1436.59 -471.965 225.669 0.816975 0.415654 -0.399729 
-1455.8 -450.678 208.503 0.816975 0.415654 -0.399729 
-1457.41 -414.101 243.525 0.816975 0.415654 -0.399729 
-1453.02 -464.07 200.171 0.816975 0.415654 -0.399729 
-1452.04 -449.346 217.625 0.816975 0.415654 -0.399729 
-1450.34 -476.257 192.921 0.816975 0.415654 -0.399729 
-1442.58 -451.062 235.274 0.816975 0.415654 -0.399729 
-1462.69 -438.174 207.432 0.816975 0.415654 -0.399729 
-1447.6 -457.146 218.571 0.816975 0.415654 -0.399729 
-1441.27 -460.769 227.78 0.816975 0.415654 -0.399729 
-1444.76 -449.418 232.514 0.816975 0.415654 -0.399729 
-1447.85 -431.359 245.079 0.816975 0.415654 -0.399729 
-1454.72 -419.308 243.587 0.816975 0.415654 -0.399729 
-1448.43 -454.298 219.862 0.816975 0.415654 -0.399729 
-1462.37 -448.284 197.499 0.816975 0.415654 -0.399729 
-1459.02 -418.491 235.609 0.816975 0.415654 -0.399729 
-1440.16 -474.176 216.025 0.816975 0.415654 -0.399729 
-1459.04 -416.185 237.981 0.816975 0.415654 -0.399729 
-1463.98 -467.235 174.345 0.816975 0.415654 -0.399729 
-1448.12 -453.202 221.649 0.816975 0.415654 -0.399729 
-1445.46 -470.364 209.115 0.816975 0.415654 -0.399729 
-1456.63 -470.276 186.25 0.816975 0.415654 -0.399729 
-1453.22 -430.165 235.297 0.816975 0.415654 -0.399729 
-1450.57 -422.878 248.388 0.816975 0.415654 -0.399729 
-1459.75 -433.363 218.534 0.816975 0.415654 -0.399729 
-1453.52 -444.379 219.793 0.816975 0.415654 -0.399729 
-1451.99 -440.067 227.449 0.816975 0.415654 -0.399729 
-1446.08 -450.779 228.365 0.816975 0.415654 -0.399729 
-1442.18 -470.259 215.966 0.816975 0.415654 -0.399729 
-1453.43 -413.855 251.954 0.816975 0.415654 -0.399729 
-1441.63 -479.927 206.972 0.816975 0.415654 -0.399729 
-1453.13 -434.449 230.994 0.816975 0.415654 -0.399729 
-1456.53 -410.07 249.556 0.816975 0.415654 -0.399729 
-1456.05 -451.891 206.71 0.816975 0.415654 -0.399729 
-1450.44 -451.608 218.549 0.816975 0.415654 -0.399729 
-1448.68 -448.564 225.348 0.816975 0.415654 -0.399729 
-1467.28 -462.076 172.96 0.816975 0.415654 -0.399729 
-1459.13 -467.742 183.769 0.816975 0.415654 -0.399729 
-1446.69 -462.321 215.019 0.816975 0.415654 -0.399729 
-1448.41 -479.535 193.457 0.816975 0.415654 -0.399729 
-1451.73 -447.152 220.561 0.816975 0.415654 -0.399729 
-1440.33 -474.892 214.917 0.816975 0.415654 -0.399729 
-1452.51 -477.258 187.412 0.816975 0.415654 -0.399729 
-1451.35 -425.379 244.159 0.816975 0.415654 -0.399729 
-1459.13 -422.074 231.628 0.816975 0.415654 -0.399729 
-1465.3 -450.32 189.355 0.816975 0.415654 -0.399729 
-1453.46 -428.655 236.393 0.816975 0.415654 -0.399729 
-1451.08 -438.488 230.967 0.816975 0.415654 -0.399729 
-1466.1 -446.479 191.721 0.816975 0.415654 -0.399729 
-1445.11 -467.897 212.434 0.816975 0.415654 -0.399729 
-1464.21 -455.745 185.904 0.816975 0.415654 -0.399729 
-1445.06 -452.154 229.019 0.816975 0.415654 -0.399729 
-1447.26 -432.059 245.555 0.816975 0.415654 -0.399729 
-1470.97 -396.622 233.968 0.816975 0.415654 -0.399729 
-1479.05 -403.366 210.29 0.816975 0.415654 -0.399729 
-1468.24 -452.916 180.585 0.816975 0.415654 -0.399729 
-1487.69 -399.482 196.597 0.816975 0.415654 -0.399729 
-1468.95 -450.238 181.944 0.816975 0.415654 -0.399729 
-1479.09 -393.352 220.7 0.816975 0.415654 -0.399729 
-1475.31 -398.713 222.857 0.816975 0.415654 -0.399729 
-1471.63 -449.087 177.624 0.816975 0.415654 -0.399729 
-1461.46 -406.625 243.035 0.816975 0.415654 -0.399729 
-1471.85 -434.007 192.986 0.816975 0.415654 -0.399729 
-1486.14 -411.019 187.699 0.816975 0.415654 -0.399729 
-1480.29 -397.167 214.245 0.816975 0.415654 -0.399729 
-1470.13 -436.255 194.167 0.816975 0.415654 -0.399729 
-1475.98 -431.634 186.976 0.816975 0.415654 -0.399729 
-1482.3 -425.894 180.01 0.816975 0.415654 -0.399729 
-1468.23 -396.544 239.67 0.816975 0.415654 -0.399729 
-1465.35 -433.872 206.485 0.816975 0.415654 -0.399729 
-1491.18 -397.172 191.841 0.816975 0.415654 -0.399729 
-1476.42 -429.314 188.514 0.816975 0.415654 -0.399729 
-1468.91 -396.315 238.521 0.816975 0.415654 -0.399729 
-1472.86 -435.904 188.925 0.816975 0.415654 -0.399729 
-1472.44 -420.638 205.781 0.816975 0.415654 -0.399729 
-1471.24 -444.938 182.772 0.816975 0.415654 -0.399729 
-1466.02 -401.313 239.225 0.816975 0.415654 -0.399729 
-1471.94 -407.766 220.3 0.816975 0.415654 -0.399729 
-1466.42 -425.075 213.506 0.816975 0.415654 -0.399729 
-1468.18 -440.504 193.719 0.816975 0.415654 -0.399729 
-1466.24 -419.54 219.669 0.816975 0.415654 -0.399729 
-1470.38 -416.996 213.83 0.816975 0.415654 -0.399729 
-1466.55 -437.058 200.671 0.816975 0.415654 -0.399729 
-1488.59 -403.654 190.379 0.816975 0.415654 -0.399729 
-1480.69 -420.878 188.578 0.816975 0.415654 -0.399729 
-1486.57 -392.109 206.621 0.816975 0.415654 -0.399729 
-1481.42 -389.869 219.559 0.816975 0.415654 -0.399729 
-1482.41 -409.579 196.87 0.816975 0.415654 -0.399729 
-1483.39 -414.617 189.59 0.816975 0.415654 -0.399729 
-1470.34 -396.948 234.911 0.816975 0.415654 -0.399729 
-1466.67 -419.297 219.031 0.816975 0.415654 -0.399729 
-1469.8 -447.329 183.236 0.816975 0.415654 -0.399729 
-1477 -431.038 185.516 0.816975 0.415654 -0.399729 
-1467.8 -433.687 201.647 0.816975 0.415654 -0.399729 
-1481.37 -427.16 180.599 0.816975 0.415654 -0.399729 
-1479.51 -437.125 173.975 0.816975 0.415654 -0.399729 
-1476.97 -428.69 188.029 0.816975 0.415654 -0.399729 
-1475.84 -447.678 170.463 0.816975 0.415654 -0.399729 
-1490.93 -400.35 189.037 0.816975 0.415654 -0.399729 
-1478.22 -424.034 190.336 0.816975 0.415654 -0.399729 
-1477.07 -412.054 205.262 0.816975 0.415654 -0.399729 
-1477.85 -423.961 191.17 0.816975 0.415654 -0.399729 
-1489.75 -399.988 191.832 0.816975 0.415654 -0.399729 
-1477.19 -393.104 224.871 0.816975 0.415654 -0.399729 
-1492.65 -386.022 200.504 0.816975 0.415654 -0.399729 
-1485.01 -405.935 195.343 0.816975 0.415654 -0.399729 
-1476.98 -391.151 227.347 0.816975 0.415654 -0.399729 
-1478.58 -418.088 195.825 0.816975 0.415654 -0.399729 
-1468.22 -429.072 205.607 0.816975 0.415654 -0.399729 
-1472.76 -438.198 186.728 0.816975 0.415654 -0.399729 
-1463.92 -400.565 244.328 0.816975 0.415654 -0.399729 
-1476.8 -444.185 172.147 0.816975 0.415654 -0.399729 
-1471.23 -408.05 221.458 0.816975 0.415654 -0.399729 
-1468.26 -419.341 215.719 0.816975 0.415654 -0.399729 
-1369.75 -799.812 19.525 0.816975 0.415654 -0.399729 
-1371.38 -699.44 121.345 0.816975 0.415654 -0.399729 
-1339 -809.092 72.9876 0.816975 0.415654 -0.399729 
-1352.31 -773.052 83.3992 0.816975 0.415654 -0.399729 
-1364.99 -734.172 98.0804 0.816975 0.415654 -0.399729 
-1351.71 -788.719 68.2174 0.816975 0.415654 -0.399729 
-1357.86 -744.526 101.892 0.816975 0.415654 -0.399729 
-1365.2 -733.397 98.4607 0.816975 0.415654 -0.399729 
-1365.42 -712.403 119.999 0.816975 0.415654 -0.399729 
-1362.77 -777.781 56.9472 0.816975 0.415654 -0.399729 
-1366.69 -780.042 46.5264 0.816975 0.415654 -0.399729 
-1348.9 -805.074 56.8661 0.816975 0.415654 -0.399729 
-1362.94 -792.777 40.8813 0.816975 0.415654 -0.399729 
-1347.99 -807.196 56.5008 0.816975 0.415654 -0.399729 
-1337.11 -812.083 73.7507 0.816975 0.415654 -0.399729 
-1360.82 -781.933 56.6153 0.816975 0.415654 -0.399729 
-1356.58 -755.523 92.9997 0.816975 0.415654 -0.399729 
-1361.1 -757.295 81.8484 0.816975 0.415654 -0.399729 
-1354.05 -758.489 95.0786 0.816975 0.415654 -0.399729 
-1363.31 -751.359 83.5242 0.816975 0.415654 -0.399729 
-1371.51 -749.915 68.1777 0.816975 0.415654 -0.399729 
-1371.92 -745.62 71.8529 0.816975 0.415654 -0.399729 
-1357.01 -787.001 59.128 0.816975 0.415654 -0.399729 
-1356.85 -771.428 75.7739 0.816975 0.415654 -0.399729 
-1366.02 -745.721 83.858 0.816975 0.415654 -0.399729 
-1369.28 -705.965 118.829 0.816975 0.415654 -0.399729 
-1370.87 -772.368 45.9694 0.816975 0.415654 -0.399729 
-1362.32 -761.649 74.783 0.816975 0.415654 -0.399729 
-1363.9 -738.021 96.2909 0.816975 0.415654 -0.399729 
-1346.35 -788.246 79.7227 0.816975 0.415654 -0.399729 
-1344.83 -805.361 64.9185 0.816975 0.415654 -0.399729 
-1370.56 -693.249 129.513 0.816975 0.415654 -0.399729 
-1370.52 -777.484 41.3425 0.816975 0.415654 -0.399729 
-1341.55 -809.507 67.3154 0.816975 0.415654 -0.399729 
-1367.88 -737.923 88.2047 0.816975 0.415654 -0.399729 
-1360.89 -786.251 51.9452 0.816975 0.415654 -0.399729 
-1350.83 -768.887 90.8004 0.816975 0.415654 -0.399729 
-1372.2 -775.936 39.4935 0.816975 0.415654 -0.399729 
-1367.69 -772.621 52.2411 0.816975 0.415654 -0.399729 
-1363.7 -742.853 91.6333 0.816975 0.415654 -0.399729 
-1358.89 -733.859 110.944 0.816975 0.415654 -0.399729 
-1366.82 -768.254 58.5995 0.816975 0.415654 -0.399729 
-1369.25 -749.53 73.2359 0.816975 0.415654 -0.399729 
-1357.57 -781.777 63.4474 0.816975 0.415654 -0.399729 
-1366.77 -729.364 99.4582 0.816975 0.415654 -0.399729 
-1365.71 -791.325 36.7075 0.816975 0.415654 -0.399729 
-1369.86 -749.874 71.6231 0.816975 0.415654 -0.399729 
-1371.12 -734.315 85.3251 0.816975 0.415654 -0.399729 
-1362.34 -730.041 107.85 0.816975 0.415654 -0.399729 
-1366.59 -769.802 57.4571 0.816975 0.415654 -0.399729 
-1358.73 -803.914 37.8792 0.816975 0.415654 -0.399729 
-1356.14 -800.466 46.8049 0.816975 0.415654 -0.399729 
-1360.69 -796.07 42.0644 0.816975 0.415654 -0.399729 
-1337.63 -805.835 79.2283 0.816975 0.415654 -0.399729 
-1373.58 -782.014 30.2872 0.816975 0.415654 -0.399729 
-1363.39 -753.524 81.0989 0.816975 0.415654 -0.399729 
-1371.02 -718.835 101.753 0.816975 0.415654 -0.399729 
-1365.75 -721.28 110.025 0.816975 0.415654 -0.399729 
-1368.79 -748.896 74.8467 0.816975 0.415654 -0.399729 
-1366.14 -769.455 58.7405 0.816975 0.415654 -0.399729 
-1357.62 -791.807 52.8409 0.816975 0.415654 -0.399729 
-1370.63 -736.27 84.2862 0.816975 0.415654 -0.399729 
-1367.63 -708.329 119.742 0.816975 0.415654 -0.399729 
-1359.2 -779.99 61.9668 0.816975 0.415654 -0.399729 
-1357.55 -794.318 50.3514 0.816975 0.415654 -0.399729 
-1357.99 -734.808 111.8 0.816975 0.415654 -0.399729 
-1341.75 -807.557 68.9553 0.816975 0.415654 -0.399729 
-1361.22 -784.137 53.4765 0.816975 0.415654 -0.399729 
-1362.23 -795.928 39.0393 0.816975 0.415654 -0.399729 
-1366.99 -753.355 73.8622 0.816975 0.415654 -0.399729 
-1340.74 -793.31 85.9612 0.816975 0.415654 -0.399729 
-1368.2 -722.503 103.72 0.816975 0.415654 -0.399729 
-1354.34 -768.109 84.3999 0.816975 0.415654 -0.399729 
-1355.09 -754.793 96.8251 0.816975 0.415654 -0.399729 
-1349.94 -773.295 88.0211 0.816975 0.415654 -0.399729 
-1368.21 -770.36 53.5466 0.816975 0.415654 -0.399729 
-1366.79 -709.224 120.529 0.816975 0.415654 -0.399729 
-1366.18 -772.876 55.0779 0.816975 0.415654 -0.399729 
-1351.36 -788.09 69.6071 0.816975 0.415654 -0.399729 
-1370.46 -728.293 93.009 0.816975 0.415654 -0.399729 
-1370.97 -731.984 88.0871 0.816975 0.415654 -0.399729 
-1349.54 -783.542 78.1094 0.816975 0.415654 -0.399729 
-1364.05 -797.79 33.343 0.816975 0.415654 -0.399729 
-1363.78 -756.747 76.9178 0.816975 0.415654 -0.399729 
-1372.61 -784.913 29.2602 0.816975 0.415654 -0.399729 
-1356.31 -754.782 94.3165 0.816975 0.415654 -0.399729 
-1370.37 -699.527 123.322 0.816975 0.415654 -0.399729 
-1372.44 -743.143 73.3766 0.816975 0.415654 -0.399729 
-1362.44 -790.998 43.7784 0.816975 0.415654 -0.399729 
-1368.46 -740.154 84.6874 0.816975 0.415654 -0.399729 
-1376.06 -723.968 86.0321 0.816975 0.415654 -0.399729 
-1377.68 -721.15 85.64 0.816975 0.415654 -0.399729 
-1379.07 -701.151 103.741 0.816975 0.415654 -0.399729 
-1378.94 -753.865 48.7862 0.816975 0.415654 -0.399729 
-1394 -716.573 56.8914 0.816975 0.415654 -0.399729 
-1383.31 -762.897 30.3281 0.816975 0.415654 -0.399729 
-1392.38 -700.892 76.6588 0.816975 0.415654 -0.399729 
-1374.4 -761.747 49.8553 0.816975 0.415654 -0.399729 
-1381.04 -727.931 71.6328 0.816975 0.415654 -0.399729 
-1401.45 -690.786 68.6143 0.816975 0.415654 -0.399729 
-1404.27 -681.378 72.6808 0.816975 0.415654 -0.399729 
-1391.31 -708.529 70.8508 0.816975 0.415654 -0.399729 
-1400.26 -682.181 80.0797 0.816975 0.415654 -0.399729 
-1401.98 -694.53 63.5888 0.816975 0.415654 -0.399729 
-1392.29 -722.07 54.6609 0.816975 0.415654 -0.399729 
-1386.22 -699.491 90.7809 0.816975 0.415654 -0.399729 
-1372.93 -709.563 107.548 0.816975 0.415654 -0.399729 
-1390.86 -697.937 82.8853 0.816975 0.415654 -0.399729 
-1377.71 -761.741 43.0577 0.816975 0.415654 -0.399729 
-1389.99 -740.254 40.3227 0.816975 0.415654 -0.399729 
-1375.23 -691.541 121.717 0.816975 0.415654 -0.399729 
-1397.91 -709.371 56.4147 0.816975 0.415654 -0.399729 
-1390.09 -714.092 67.53 0.816975 0.415654 -0.399729 
-1391.11 -708.459 71.3415 0.816975 0.415654 -0.399729 
-1393.78 -699.855 74.874 0.816975 0.415654 -0.399729 
-1395.51 -695.695 75.6729 0.816975 0.415654 -0.399729 
-1393.9 -686.816 88.2815 0.816975 0.415654 -0.399729 
-1374.88 -689.338 124.727 0.816975 0.415654 -0.399729 
-1384.39 -707.125 86.5437 0.816975 0.415654 -0.399729 
-1380.5 -731.932 68.5529 0.816975 0.415654 -0.399729 
-1406.78 -684.339 64.4089 0.816975 0.415654 -0.399729 
-1372.74 -700.1 117.862 0.816975 0.415654 -0.399729 
-1385.87 -699.192 91.8298 0.816975 0.415654 -0.399729 
-1375.7 -708.503 102.977 0.816975 0.415654 -0.399729 
-1382.03 -760.474 35.5014 0.816975 0.415654 -0.399729 
-1376.92 -741.689 65.6844 0.816975 0.415654 -0.399729 
-1388.45 -715.294 69.6555 0.816975 0.415654 -0.399729 
-1393.92 -718.285 55.2729 0.816975 0.415654 -0.399729 
-1408.86 -677.294 67.5258 0.816975 0.415654 -0.399729 
-1401.82 -698.557 59.7055 0.816975 0.415654 -0.399729 
-1378.28 -749.961 54.2215 0.816975 0.415654 -0.399729 
-1395.29 -711.636 59.4288 0.816975 0.415654 -0.399729 
-1379.97 -691.763 111.724 0.816975 0.415654 -0.399729 
-1372.98 -737.194 78.5009 0.816975 0.415654 -0.399729 
-1377.23 -747.252 59.2161 0.816975 0.415654 -0.399729 
-1379.59 -750.689 50.7713 0.816975 0.415654 -0.399729 
-1377.94 -705.543 101.469 0.816975 0.415654 -0.399729 
-1373.61 -711.026 104.617 0.816975 0.415654 -0.399729 
-1374.55 -698.843 115.453 0.816975 0.415654 -0.399729 
-1386.9 -751.782 34.6104 0.816975 0.415654 -0.399729 
-1402.64 -677.03 80.573 0.816975 0.415654 -0.399729 
-1372.56 -725.941 91.1543 0.816975 0.415654 -0.399729 
-1395.4 -693.563 78.1298 0.816975 0.415654 -0.399729 
-1375.38 -703.315 109.056 0.816975 0.415654 -0.399729 
-1379.22 -769.04 32.2952 0.816975 0.415654 -0.399729 
-1375.42 -768.307 40.8853 0.816975 0.415654 -0.399729 
-1393.59 -696.004 79.2977 0.816975 0.415654 -0.399729 
-1379.68 -715.926 87.0029 0.816975 0.415654 -0.399729 
-1373.9 -790.392 20.8518 0.816975 0.415654 -0.399729 
-1376.98 -707.261 101.643 0.816975 0.415654 -0.399729 
-1375.14 -773.928 35.5711 0.816975 0.415654 -0.399729 
-1393.76 -707.903 66.4828 0.816975 0.415654 -0.399729 
-1388.86 -707.971 76.475 0.816975 0.415654 -0.399729 
-1381.13 -707.904 92.436 0.816975 0.415654 -0.399729 
-1402.84 -692.272 64.1952 0.816975 0.415654 -0.399729 
-1384.28 -720.013 73.2784 0.816975 0.415654 -0.399729 
-1409.12 -675.592 68.7638 0.816975 0.415654 -0.399729 
-1371.86 -689.009 131.285 0.816975 0.415654 -0.399729 
-1389.43 -706.66 76.6791 0.816975 0.415654 -0.399729 
-1387.07 -748.459 37.7263 0.816975 0.415654 -0.399729 
-1391.84 -698.607 80.1726 0.816975 0.415654 -0.399729 
-1377.11 -779.758 25.4128 0.816975 0.415654 -0.399729 
-1377.02 -704.798 104.132 0.816975 0.415654 -0.399729 
-1384.17 -691.072 103.833 0.816975 0.415654 -0.399729 
-1399.82 -697.888 64.5204 0.816975 0.415654 -0.399729 
-1374.07 -757.604 54.8675 0.816975 0.415654 -0.399729 
-1374.24 -788.992 21.6353 0.816975 0.415654 -0.399729 
-1373.45 -690.679 126.27 0.816975 0.415654 -0.399729 
-1373.99 -765.356 46.9007 0.816975 0.415654 -0.399729 
-1387.26 -725.341 61.571 0.816975 0.415654 -0.399729 
-1383.34 -758.412 34.9759 0.816975 0.415654 -0.399729 
-1379.65 -723.937 78.6838 0.816975 0.415654 -0.399729 
-1386.14 -683.336 107.876 0.816975 0.415654 -0.399729 
-1394.55 -693.721 79.7149 0.816975 0.415654 -0.399729 
-1394.52 -694.608 78.8419 0.816975 0.415654 -0.399729 
-1384.11 -697.543 97.1637 0.816975 0.415654 -0.399729 
-1373.39 -698.917 117.758 0.816975 0.415654 -0.399729 
-1373.11 -700.826 116.338 0.816975 0.415654 -0.399729 
-1376.36 -764.359 43.0869 0.816975 0.415654 -0.399729 
-1394.4 -705.725 67.4552 0.816975 0.415654 -0.399729 
-1199.29 -284.259 131.201 -0.513298 0.217809 -0.830111 
-1235.09 -329.941 141.489 -0.513298 0.217809 -0.830111 
-1170.49 -273.84 116.076 -0.513298 0.217809 -0.830111 
-1172.5 -279.198 115.927 -0.513298 0.217809 -0.830111 
-1364.79 -356.249 214.947 -0.513298 0.217809 -0.830111 
-1137.67 -265.992 97.8013 -0.513298 0.217809 -0.830111 
-1266.61 -316.198 164.575 -0.513298 0.217809 -0.830111 
-1334.49 -359.599 195.318 -0.513298 0.217809 -0.830111 
-1165.7 -323.916 100.09 -0.513298 0.217809 -0.830111 
-1292.51 -347.866 172.377 -0.513298 0.217809 -0.830111 
-1175.21 -278.194 117.871 -0.513298 0.217809 -0.830111 
-1213.04 -289.905 138.244 -0.513298 0.217809 -0.830111 
-1256.75 -300.33 162.598 -0.513298 0.217809 -0.830111 
-1210.09 -343.84 122.394 -0.513298 0.217809 -0.830111 
-1306.49 -326.984 186.466 -0.513298 0.217809 -0.830111 
-1256.43 -351.756 149.026 -0.513298 0.217809 -0.830111 
-1178.83 -285.24 118.279 -0.513298 0.217809 -0.830111 
-1318.77 -328.577 193.654 -0.513298 0.217809 -0.830111 
-1262.52 -333.494 157.548 -0.513298 0.217809 -0.830111 
-1224.59 -341.711 131.926 -0.513298 0.217809 -0.830111 
-1144.23 -257.32 104.115 -0.513298 0.217809 -0.830111 
-1195.54 -270.677 132.412 -0.513298 0.217809 -0.830111 
-1396.45 -385.67 226.898 -0.513298 0.217809 -0.830111 
-1338.65 -348.092 200.886 -0.513298 0.217809 -0.830111 
-1295.02 -360.658 170.602 -0.513298 0.217809 -0.830111 
-1249.37 -305.053 156.803 -0.513298 0.217809 -0.830111 
-1172.79 -277.88 116.453 -0.513298 0.217809 -0.830111 
-1229.01 -306.02 143.94 -0.513298 0.217809 -0.830111 
-1286.67 -327.632 174.025 -0.513298 0.217809 -0.830111 
-1181.6 -293.003 117.977 -0.513298 0.217809 -0.830111 
-1179.75 -283.109 119.405 -0.513298 0.217809 -0.830111 
-1208.94 -284.483 137.12 -0.513298 0.217809 -0.830111 
-1283.08 -318.492 174.175 -0.513298 0.217809 -0.830111 
-1187.29 -325.845 112.954 -0.513298 0.217809 -0.830111 
-1196.76 -307.886 123.493 -0.513298 0.217809 -0.830111 
-1160.29 -264.634 112.156 -0.513298 0.217809 -0.830111 
-1163.04 -309.632 102.161 -0.513298 0.217809 -0.830111 
-1268.34 -341.403 159.093 -0.513298 0.217809 -0.830111 
-1272.58 -347.316 160.178 -0.513298 0.217809 -0.830111 
-1256.23 -355.622 147.895 -0.513298 0.217809 -0.830111 
-1190.08 -305.049 120.091 -0.513298 0.217809 -0.830111 
-1376.51 -380.783 215.823 -0.513298 0.217809 -0.830111 
-1290 -335.533 174.027 -0.513298 0.217809 -0.830111 
-1355.3 -351.841 210.223 -0.513298 0.217809 -0.830111 
-1207.99 -312.121 129.344 -0.513298 0.217809 -0.830111 
-1233.23 -309.056 145.766 -0.513298 0.217809 -0.830111 
-1313.83 -358.38 182.843 -0.513298 0.217809 -0.830111 
-1245.29 -296.926 156.386 -0.513298 0.217809 -0.830111 
-1317.49 -335.952 190.941 -0.513298 0.217809 -0.830111 
-1211.11 -308.81 132.136 -0.513298 0.217809 -0.830111 
-1190.97 -304.268 120.847 -0.513298 0.217809 -0.830111 
-1149.76 -291.519 98.649 -0.513298 0.217809 -0.830111 
-1151.37 -258.532 108.22 -0.513298 0.217809 -0.830111 
-1172.13 -267.859 118.649 -0.513298 0.217809 -0.830111 
-1232.49 -314.051 144.012 -0.513298 0.217809 -0.830111 
-1151.16 -259.115 107.937 -0.513298 0.217809 -0.830111 
-1225.87 -322.884 137.614 -0.513298 0.217809 -0.830111 
-1238.85 -314.18 147.913 -0.513298 0.217809 -0.830111 
-1182.94 -266.99 125.569 -0.513298 0.217809 -0.830111 
-1131.6 -312.521 81.9393 -0.513298 0.217809 -0.830111 
-1339.66 -346.168 202.009 -0.513298 0.217809 -0.830111 
-1276.03 -311.677 171.583 -0.513298 0.217809 -0.830111 
-1177.13 -289.564 116.103 -0.513298 0.217809 -0.830111 
-1190.93 -338.288 111.972 -0.513298 0.217809 -0.830111 
-1155.58 -314.094 96.3762 -0.513298 0.217809 -0.830111 
-1177.78 -279.495 119.122 -0.513298 0.217809 -0.830111 
-1171.89 -272.513 117.289 -0.513298 0.217809 -0.830111 
-1203.87 -290.408 132.44 -0.513298 0.217809 -0.830111 
-1173.88 -333.183 102.743 -0.513298 0.217809 -0.830111 
-1141.39 -322.463 85.4187 -0.513298 0.217809 -0.830111 
-1216.41 -305.313 136.328 -0.513298 0.217809 -0.830111 
-1301.37 -319.657 185.198 -0.513298 0.217809 -0.830111 
-1145.11 -297.593 94.187 -0.513298 0.217809 -0.830111 
-1135.21 -313.432 83.9365 -0.513298 0.217809 -0.830111 
-1193.66 -297.663 124.227 -0.513298 0.217809 -0.830111 
-1255.98 -348.418 149.614 -0.513298 0.217809 -0.830111 
-1230.67 -299.619 146.637 -0.513298 0.217809 -0.830111 
-1202.28 -343.91 117.54 -0.513298 0.217809 -0.830111 
-1199.8 -306.431 125.748 -0.513298 0.217809 -0.830111 
-1347.72 -348.347 206.433 -0.513298 0.217809 -0.830111 
-1259.08 -310.815 161.313 -0.513298 0.217809 -0.830111 
-1327.64 -357.719 191.566 -0.513298 0.217809 -0.830111 
-1229.38 -299.943 145.75 -0.513298 0.217809 -0.830111 
-1174.02 -269.409 119.415 -0.513298 0.217809 -0.830111 
-1148.23 -258.668 106.241 -0.513298 0.217809 -0.830111 
-1299.86 -327.416 182.244 -0.513298 0.217809 -0.830111 
-1216.99 -308.785 135.783 -0.513298 0.217809 -0.830111 
-1328.82 -368.659 189.448 -0.513298 0.217809 -0.830111 
-1226.03 -281.453 148.486 -0.513298 0.217809 -0.830111 
-1137.04 -266.833 97.1882 -0.513298 0.217809 -0.830111 
-1145.94 -301.974 93.5603 -0.513298 0.217809 -0.830111 
-1140.11 -261.074 100.59 -0.513298 0.217809 -0.830111 
-1281.82 -321.25 172.68 -0.513298 0.217809 -0.830111 
-1197.12 -278.833 131.271 -0.513298 0.217809 -0.830111 
-1404.48 -386.184 231.736 -0.513298 0.217809 -0.830111 
-1186.5 -330.575 111.238 -0.513298 0.217809 -0.830111 
-1186.77 -316.227 115.134 -0.513298 0.217809 -0.830111 
-1396.95 -383.093 227.878 -0.513298 0.217809 -0.830111 
-1245.26 -303.742 154.595 -0.513298 0.217809 -0.830111 
-1147.58 -266.126 103.897 -0.513298 0.217809 -0.830111 
-1296.58 -337.641 177.553 -0.513298 0.217809 -0.830111 
-1217.79 -303.823 137.567 -0.513298 0.217809 -0.830111 
-1183.49 -280.568 122.38 -0.513298 0.217809 -0.830111 
-1129.28 -313.122 80.3484 -0.513298 0.217809 -0.830111 
-1145.76 -323.066 87.9663 -0.513298 0.217809 -0.830111 
-1238.15 -306.209 149.55 -0.513298 0.217809 -0.830111 
-1133.24 -285.666 89.9381 -0.513298 0.217809 -0.830111 
-1246.56 -352.077 142.832 -0.513298 0.217809 -0.830111 
-1420.8 -381.436 243.075 -0.513298 0.217809 -0.830111 
-1358.91 -354.346 211.805 -0.513298 0.217809 -0.830111 
-1160.37 -309.409 100.563 -0.513298 0.217809 -0.830111 
-1221.26 -323.951 134.482 -0.513298 0.217809 -0.830111 
-1140 -282.221 95.0238 -0.513298 0.217809 -0.830111 
-1177.62 -311.09 110.805 -0.513298 0.217809 -0.830111 
-1336.44 -341.873 201.136 -0.513298 0.217809 -0.830111 
-1218.01 -284.858 142.637 -0.513298 0.217809 -0.830111 
-1343.08 -362.745 199.817 -0.513298 0.217809 -0.830111 
-1236.41 -298.572 150.463 -0.513298 0.217809 -0.830111 
-1239.78 -340.261 141.705 -0.513298 0.217809 -0.830111 
-1273.93 -336.016 163.956 -0.513298 0.217809 -0.830111 
-1405.73 -382.407 233.492 -0.513298 0.217809 -0.830111 
-1155.91 -324.569 93.856 -0.513298 0.217809 -0.830111 
-1167 -330.488 99.1874 -0.513298 0.217809 -0.830111 
-1290.19 -332.046 175.057 -0.513298 0.217809 -0.830111 
-1123.51 -320.056 74.974 -0.513298 0.217809 -0.830111 
-1188.38 -301.961 119.84 -0.513298 0.217809 -0.830111 
-1276.05 -344.438 163.078 -0.513298 0.217809 -0.830111 
-1225.53 -328.209 136.018 -0.513298 0.217809 -0.830111 
-1148.5 -242.859 110.522 -0.513298 0.217809 -0.830111 
-1153.2 -278.958 104.044 -0.513298 0.217809 -0.830111 
-1161.55 -303.313 102.879 -0.513298 0.217809 -0.830111 
-1373.85 -371.171 216.679 -0.513298 0.217809 -0.830111 
-1123.7 -328.498 72.896 -0.513298 0.217809 -0.830111 
-1267.71 -318.478 164.667 -0.513298 0.217809 -0.830111 
-1161.74 -291.564 106.052 -0.513298 0.217809 -0.830111 
-1159.41 -307.07 100.577 -0.513298 0.217809 -0.830111 
-1418 -385.97 240.166 -0.513298 0.217809 -0.830111 
-1245.81 -353.241 142.063 -0.513298 0.217809 -0.830111 
-1216.14 -321.214 132.022 -0.513298 0.217809 -0.830111 
-1332.21 -347.005 197.181 -0.513298 0.217809 -0.830111 
-1149.39 -273.872 103.009 -0.513298 0.217809 -0.830111 
-1193.06 -323.593 117.116 -0.513298 0.217809 -0.830111 
-1156 -273.045 107.313 -0.513298 0.217809 -0.830111 
-1369.44 -364.061 215.796 -0.513298 0.217809 -0.830111 
-1331.26 -364.157 192.135 -0.513298 0.217809 -0.830111 
-1235.24 -317.071 144.925 -0.513298 0.217809 -0.830111 
-1225.84 -333.697 134.784 -0.513298 0.217809 -0.830111 
-1267.91 -351.637 156.163 -0.513298 0.217809 -0.830111 
-1258.36 -301.268 163.354 -0.513298 0.217809 -0.830111 
-1145.44 -330.115 85.9356 -0.513298 0.217809 -0.830111 
-1155.34 -291.62 102.076 -0.513298 0.217809 -0.830111 
-1136.13 -330.444 80.0815 -0.513298 0.217809 -0.830111 
-1311.6 -330.172 188.799 -0.513298 0.217809 -0.830111 
-1375.73 -359.952 220.757 -0.513298 0.217809 -0.830111 
-1145.12 -274.041 100.316 -0.513298 0.217809 -0.830111 
-1272.24 -322.314 166.472 -0.513298 0.217809 -0.830111 
-1137.78 -313.806 85.4314 -0.513298 0.217809 -0.830111 
-1144.1 -257.023 104.114 -0.513298 0.217809 -0.830111 
-1410.29 -385.288 235.572 -0.513298 0.217809 -0.830111 
-1334.03 -357.615 195.551 -0.513298 0.217809 -0.830111 
-1269.14 -316.798 165.986 -0.513298 0.217809 -0.830111 
-1350.81 -356.061 206.344 -0.513298 0.217809 -0.830111 
-1134.89 -292.08 89.2939 -0.513298 0.217809 -0.830111 
-1263.55 -317.041 162.459 -0.513298 0.217809 -0.830111 
-1404.76 -377.12 234.272 -0.513298 0.217809 -0.830111 
-1217.07 -343.386 126.834 -0.513298 0.217809 -0.830111 
-1391.18 -376.283 226.077 -0.513298 0.217809 -0.830111 
-1261.67 -321.395 160.165 -0.513298 0.217809 -0.830111 
-1143.33 -287.298 95.7617 -0.513298 0.217809 -0.830111 
-1191.04 -303.555 121.072 -0.513298 0.217809 -0.830111 
-1150.72 -310.138 94.3962 -0.513298 0.217809 -0.830111 
-1252.55 -341.725 149.232 -0.513298 0.217809 -0.830111 
-1297.55 -329.369 180.305 -0.513298 0.217809 -0.830111 
-1277.24 -337.874 165.523 -0.513298 0.217809 -0.830111 
-1181.58 -333.67 107.389 -0.513298 0.217809 -0.830111 
-1198.91 -287.711 130.069 -0.513298 0.217809 -0.830111 
-1198.76 -334.376 117.839 -0.513298 0.217809 -0.830111 
-1357.44 -358.907 209.708 -0.513298 0.217809 -0.830111 
-1197.16 -272.659 132.896 -0.513298 0.217809 -0.830111 
-1386.58 -376.256 223.237 -0.513298 0.217809 -0.830111 
-1158 -295.201 102.788 -0.513298 0.217809 -0.830111 
-1156.69 -298.699 101.068 -0.513298 0.217809 -0.830111 
-1184.72 -318.057 113.391 -0.513298 0.217809 -0.830111 
-1247.62 -347.171 144.762 -0.513298 0.217809 -0.830111 
-1222.44 -297.667 142.048 -0.513298 0.217809 -0.830111 
-1204.73 -343.76 119.093 -0.513298 0.217809 -0.830111 
-1414.07 -377.375 239.967 -0.513298 0.217809 -0.830111 
-1216.56 -338.971 127.667 -0.513298 0.217809 -0.830111 
-1318.64 -365.843 183.879 -0.513298 0.217809 -0.830111 
-1351.06 -372.303 202.275 -0.513298 0.217809 -0.830111 
-1147.43 -280.206 100.147 -0.513298 0.217809 -0.830111 
-1243.07 -310.098 151.59 -0.513298 0.217809 -0.830111 
-1315.89 -329.181 191.709 -0.513298 0.217809 -0.830111 
-1406.66 -387.281 232.802 -0.513298 0.217809 -0.830111 
-1228.69 -338.777 135.224 -0.513298 0.217809 -0.830111 
-1149.35 -255.983 107.635 -0.513298 0.217809 -0.830111 
-1326.55 -345.453 194.083 -0.513298 0.217809 -0.830111 
-1361.62 -370.016 209.405 -0.513298 0.217809 -0.830111 
-1148.69 -312.136 92.62 -0.513298 0.217809 -0.830111 
-1243.33 -293.554 156.05 -0.513298 0.217809 -0.830111 
-1142.9 -318.075 87.4917 -0.513298 0.217809 -0.830111 
-1294.04 -352.479 172.122 -0.513298 0.217809 -0.830111 
-1204.73 -329.97 122.683 -0.513298 0.217809 -0.830111 
-1384.32 -379.249 221.061 -0.513298 0.217809 -0.830111 
-1121.41 -328.124 71.5719 -0.513298 0.217809 -0.830111 
-1298.58 -334.676 179.563 -0.513298 0.217809 -0.830111 
-1173.83 -291.869 113.46 -0.513298 0.217809 -0.830111 
-1260.31 -353.593 150.95 -0.513298 0.217809 -0.830111 
-1299.67 -330.237 181.395 -0.513298 0.217809 -0.830111 
-1298.34 -347.003 176.21 -0.513298 0.217809 -0.830111 
-1288.52 -320.975 176.898 -0.513298 0.217809 -0.830111 
-1189.9 -307.744 119.281 -0.513298 0.217809 -0.830111 
-1331.49 -369.021 191.01 -0.513298 0.217809 -0.830111 
-1379.98 -363.364 222.504 -0.513298 0.217809 -0.830111 
-1421.65 -384.968 242.687 -0.513298 0.217809 -0.830111 
-1124.49 -314.974 76.9003 -0.513298 0.217809 -0.830111 
-1287.99 -324.621 175.626 -0.513298 0.217809 -0.830111 
-1161.03 -264.423 112.673 -0.513298 0.217809 -0.830111 
-1310.51 -336.47 186.485 -0.513298 0.217809 -0.830111 
-1197.66 -301.497 125.71 -0.513298 0.217809 -0.830111 
-1296.59 -364.567 170.559 -0.513298 0.217809 -0.830111 
-1186.69 -328.301 111.945 -0.513298 0.217809 -0.830111 
-1197.59 -289.738 128.726 -0.513298 0.217809 -0.830111 
-1217.07 -328.691 130.657 -0.513298 0.217809 -0.830111 
-1154.84 -306.721 97.8409 -0.513298 0.217809 -0.830111 
-1370.03 -356.89 218.026 -0.513298 0.217809 -0.830111 
-1208.84 -288.808 135.932 -0.513298 0.217809 -0.830111 
-1174.12 -255.126 123.195 -0.513298 0.217809 -0.830111 
-1179.96 -318.86 110.231 -0.513298 0.217809 -0.830111 
-1300.11 -326.941 182.521 -0.513298 0.217809 -0.830111 
-1297.09 -326.4 180.795 -0.513298 0.217809 -0.830111 
-1242.36 -351.055 140.497 -0.513298 0.217809 -0.830111 
-1211.79 -288.596 137.812 -0.513298 0.217809 -0.830111 
-1166.63 -276.682 112.95 -0.513298 0.217809 -0.830111 
-1149.7 -309.618 93.902 -0.513298 0.217809 -0.830111 
-1141.75 -288.773 94.4013 -0.513298 0.217809 -0.830111 
-1242.71 -314.409 150.246 -0.513298 0.217809 -0.830111 
-1358.82 -361.093 209.996 -0.513298 0.217809 -0.830111 
-1131.71 -321.693 79.6256 -0.513298 0.217809 -0.830111 
-1218.19 -291.403 141.045 -0.513298 0.217809 -0.830111 
-1251.78 -332.652 151.118 -0.513298 0.217809 -0.830111 
-1148.19 -287.122 98.8152 -0.513298 0.217809 -0.830111 
-1191.87 -316.752 118.158 -0.513298 0.217809 -0.830111 
-1275.39 -310.437 171.51 -0.513298 0.217809 -0.830111 
-1189.02 -321.146 115.247 -0.513298 0.217809 -0.830111 
-1212.05 -303.194 134.179 -0.513298 0.217809 -0.830111 
-1205.24 -313.617 127.251 -0.513298 0.217809 -0.830111 
-1153.27 -257.342 109.71 -0.513298 0.217809 -0.830111 
-1133.68 -278.626 92.0407 -0.513298 0.217809 -0.830111 
-1258.09 -336.606 153.991 -0.513298 0.217809 -0.830111 
-1254.47 -319.781 156.13 -0.513298 0.217809 -0.830111 
-1150.89 -267.818 105.512 -0.513298 0.217809 -0.830111 
-1244.72 -301.604 154.819 -0.513298 0.217809 -0.830111 
-1295.53 -337.533 176.936 -0.513298 0.217809 -0.830111 
-1201.01 -304.679 126.954 -0.513298 0.217809 -0.830111 
-1217.93 -339.407 128.403 -0.513298 0.217809 -0.830111 
-1203.81 -275.247 136.342 -0.513298 0.217809 -0.830111 
-1282.4 -310.214 175.91 -0.513298 0.217809 -0.830111 
-1194.23 -338.903 113.858 -0.513298 0.217809 -0.830111 
-1207.03 -333.532 123.176 -0.513298 0.217809 -0.830111 
-1244.49 -339.219 144.894 -0.513298 0.217809 -0.830111 
-1219.27 -337.165 129.81 -0.513298 0.217809 -0.830111 
-1141.11 -321.9 85.3876 -0.513298 0.217809 -0.830111 
-1235.99 -321.581 144.22 -0.513298 0.217809 -0.830111 
-1175.15 -264.091 121.501 -0.513298 0.217809 -0.830111 
-1126.52 -315.839 77.9304 -0.513298 0.217809 -0.830111 
-1271.91 -358.918 156.749 -0.513298 0.217809 -0.830111 
-1237.96 -319.206 146.056 -0.513298 0.217809 -0.830111 
-1173.05 -328.181 103.53 -0.513298 0.217809 -0.830111 
-1134.91 -319.242 82.2394 -0.513298 0.217809 -0.830111 
-1224.34 -285.328 146.432 -0.513298 0.217809 -0.830111 
-1230.7 -312.776 143.233 -0.513298 0.217809 -0.830111 
-1234.39 -323.562 142.715 -0.513298 0.217809 -0.830111 
-1174.65 -266.352 120.601 -0.513298 0.217809 -0.830111 
-1214.41 -279.47 141.811 -0.513298 0.217809 -0.830111 
-1163.05 -277.129 110.614 -0.513298 0.217809 -0.830111 
-1178.06 -330.582 106.009 -0.513298 0.217809 -0.830111 
-1141.73 -296.191 92.4577 -0.513298 0.217809 -0.830111 
-1305.33 -351.082 179.48 -0.513298 0.217809 -0.830111 
-1199.48 -285.789 130.92 -0.513298 0.217809 -0.830111 
-1338.92 -359.442 198.101 -0.513298 0.217809 -0.830111 
-1222.46 -288.908 144.337 -0.513298 0.217809 -0.830111 
-1189.32 -311.595 117.918 -0.513298 0.217809 -0.830111 
-1180.39 -304.02 114.358 -0.513298 0.217809 -0.830111 
-1424.04 -387.22 243.581 -0.513298 0.217809 -0.830111 
-1183.79 -304.888 116.239 -0.513298 0.217809 -0.830111 
-1169.22 -270.697 116.11 -0.513298 0.217809 -0.830111 
-1235.9 -348.352 137.202 -0.513298 0.217809 -0.830111 
-1251.83 -339.254 149.43 -0.513298 0.217809 -0.830111 
-1173.97 -295.302 112.65 -0.513298 0.217809 -0.830111 
-1298.22 -331.558 180.153 -0.513298 0.217809 -0.830111 
-1210.41 -342.736 122.878 -0.513298 0.217809 -0.830111 
-1327.35 -368.376 188.612 -0.513298 0.217809 -0.830111 
-1135.46 -316.995 83.1685 -0.513298 0.217809 -0.830111 
-1314.59 -344.561 186.908 -0.513298 0.217809 -0.830111 
-1203.83 -284.085 134.059 -0.513298 0.217809 -0.830111 
-1150.79 -317.233 92.5974 -0.513298 0.217809 -0.830111 
-1161.18 -266.267 112.284 -0.513298 0.217809 -0.830111 
-1276.92 -359.948 159.58 -0.513298 0.217809 -0.830111 
-1292.58 -356.052 170.293 -0.513298 0.217809 -0.830111 
-1130.28 -322.641 78.4944 -0.513298 0.217809 -0.830111 
-1143.39 -281.38 97.3392 -0.513298 0.217809 -0.830111 
-1338.57 -353.585 199.408 -0.513298 0.217809 -0.830111 
-1426.55 -429.003 234.266 -0.513298 0.217809 -0.830111 
-1228.42 -366.266 127.911 -0.513298 0.217809 -0.830111 
-1429.85 -402.117 243.301 -0.513298 0.217809 -0.830111 
-1353.75 -382.365 201.323 -0.513298 0.217809 -0.830111 
-1374.26 -383.737 213.661 -0.513298 0.217809 -0.830111 
-1281.45 -368.803 160.082 -0.513298 0.217809 -0.830111 
-1307.79 -410.789 165.473 -0.513298 0.217809 -0.830111 
-1334.33 -436.064 175.332 -0.513298 0.217809 -0.830111 
-1399.42 -464.739 208.174 -0.513298 0.217809 -0.830111 
-1277.73 -375.571 156.019 -0.513298 0.217809 -0.830111 
-1223.32 -356.491 127.297 -0.513298 0.217809 -0.830111 
-1391.9 -452.354 206.744 -0.513298 0.217809 -0.830111 
-1340.99 -411.032 185.967 -0.513298 0.217809 -0.830111 
-1311.47 -394.768 171.92 -0.513298 0.217809 -0.830111 
-1321.7 -411.435 173.92 -0.513298 0.217809 -0.830111 
-1327.35 -393.805 182.004 -0.513298 0.217809 -0.830111 
-1220.49 -366.067 123.053 -0.513298 0.217809 -0.830111 
-1309.64 -369.58 177.337 -0.513298 0.217809 -0.830111 
-1240.58 -371.909 133.973 -0.513298 0.217809 -0.830111 
-1348.81 -418.048 188.981 -0.513298 0.217809 -0.830111 
-1360.12 -380.624 205.719 -0.513298 0.217809 -0.830111 
-1264.48 -397.862 142.019 -0.513298 0.217809 -0.830111 
-1276.81 -388.571 152.07 -0.513298 0.217809 -0.830111 
-1396.39 -400.399 223.033 -0.513298 0.217809 -0.830111 
-1251.5 -357.782 144.408 -0.513298 0.217809 -0.830111 
-1431.53 -418.85 239.989 -0.513298 0.217809 -0.830111 
