ply
format ascii 1.0
comment Created by CloudCompare v2.11.3 (Anoia)
comment Created 08/09/2022 00:21
obj_info Generated by CloudCompare!
element vertex 854
property float x
property float y
property float z
property float nx
property float ny
property float nz
end_header
170.802 -718.018 -698.933 -0.333036 0.345202 -0.877452 
572.434 -995.737 -960.867 -0.333036 0.345202 -0.877452 
-177.154 -719.908 -567.729 -0.333036 0.345202 -0.877452 
381.425 -970.92 -878.637 -0.333036 0.345202 -0.877452 
-74.2622 -947.151 -696.451 -0.333036 0.345202 -0.877452 
199.545 -689.238 -698.472 -0.333036 0.345202 -0.877452 
-196.039 -780.477 -584.477 -0.333036 0.345202 -0.877452 
614.993 -1038.71 -993.971 -0.333036 0.345202 -0.877452 
548.793 -1216.53 -1039.06 -0.333036 0.345202 -0.877452 
261.937 -576.122 -677.48 -0.333036 0.345202 -0.877452 
555.894 -908.11 -920.005 -0.333036 0.345202 -0.877452 
92.9448 -617.39 -629.686 -0.333036 0.345202 -0.877452 
234.9 -1039.83 -850.275 -0.333036 0.345202 -0.877452 
455.41 -1123 -966.727 -0.333036 0.345202 -0.877452 
398.742 -806.43 -820.272 -0.333036 0.345202 -0.877452 
-176.642 -809.591 -603.325 -0.333036 0.345202 -0.877452 
349.547 -561.076 -704.763 -0.333036 0.345202 -0.877452 
172.728 -936.79 -786.024 -0.333036 0.345202 -0.877452 
305.145 -503.223 -665.088 -0.333036 0.345202 -0.877452 
36.4651 -621.852 -610.029 -0.333036 0.345202 -0.877452 
-103.699 -809.299 -630.871 -0.333036 0.345202 -0.877452 
51.5146 -971.105 -753.604 -0.333036 0.345202 -0.877452 
295.49 -868.961 -805.802 -0.333036 0.345202 -0.877452 
399.427 -1098.69 -935.903 -0.333036 0.345202 -0.877452 
-294.993 -872.38 -583.23 -0.333036 0.345202 -0.877452 
81.2366 -878.845 -728.455 -0.333036 0.345202 -0.877452 
433.756 -868.067 -857.881 -0.333036 0.345202 -0.877452 
-19.1267 -757.54 -642.51 -0.333036 0.345202 -0.877452 
-98.3025 -893.872 -666.302 -0.333036 0.345202 -0.877452 
374.708 -761.369 -793.37 -0.333036 0.345202 -0.877452 
-58.6277 -849.697 -663.91 -0.333036 0.345202 -0.877452 
-206.366 -808.166 -591.491 -0.333036 0.345202 -0.877452 
-2.70288 -752.889 -646.903 -0.333036 0.345202 -0.877452 
260.483 -746.051 -744.008 -0.333036 0.345202 -0.877452 
0.204346 -624.222 -597.214 -0.333036 0.345202 -0.877452 
144.685 -910.829 -765.141 -0.333036 0.345202 -0.877452 
-10.4187 -938.673 -717.315 -0.333036 0.345202 -0.877452 
451.118 -804.796 -839.489 -0.333036 0.345202 -0.877452 
171.329 -1063.54 -835.528 -0.333036 0.345202 -0.877452 
380.99 -733.641 -784.807 -0.333036 0.345202 -0.877452 
395.092 -921.235 -864.207 -0.333036 0.345202 -0.877452 
-90.0027 -666.117 -579.544 -0.333036 0.345202 -0.877452 
182.437 -988.002 -809.921 -0.333036 0.345202 -0.877452 
614.682 -1149.43 -1037.56 -0.333036 0.345202 -0.877452 
513.696 -969.841 -928.371 -0.333036 0.345202 -0.877452 
258.452 -1066.84 -869.868 -0.333036 0.345202 -0.877452 
490.07 -1103.68 -972.246 -0.333036 0.345202 -0.877452 
363.618 -641.365 -741.793 -0.333036 0.345202 -0.877452 
115.613 -711.335 -675.366 -0.333036 0.345202 -0.877452 
72.5198 -690.51 -650.804 -0.333036 0.345202 -0.877452 
-292.781 -839.147 -570.951 -0.333036 0.345202 -0.877452 
334.396 -867.822 -820.106 -0.333036 0.345202 -0.877452 
78.5459 -958.611 -758.922 -0.333036 0.345202 -0.877452 
169.779 -1028.39 -821.065 -0.333036 0.345202 -0.877452 
467.219 -962.378 -907.8 -0.333036 0.345202 -0.877452 
-345.19 -789.837 -531.612 -0.333036 0.345202 -0.877452 
340.027 -779.886 -787.528 -0.333036 0.345202 -0.877452 
309.119 -799.656 -783.612 -0.333036 0.345202 -0.877452 
155.395 -786.441 -720.1 -0.333036 0.345202 -0.877452 
629.496 -1238.89 -1078.49 -0.333036 0.345202 -0.877452 
378.579 -1061.89 -913.47 -0.333036 0.345202 -0.877452 
232.524 -1083.14 -866.469 -0.333036 0.345202 -0.877452 
-101.422 -782.199 -621.037 -0.333036 0.345202 -0.877452 
448.666 -640.578 -773.734 -0.333036 0.345202 -0.877452 
98.8713 -713.093 -669.712 -0.333036 0.345202 -0.877452 
374.964 -852.399 -829.402 -0.333036 0.345202 -0.877452 
337.615 -838.337 -809.687 -0.333036 0.345202 -0.877452 
4.48218 -890.514 -703.955 -0.333036 0.345202 -0.877452 
316.847 -904.329 -827.862 -0.333036 0.345202 -0.877452 
537.569 -1142.51 -1005.59 -0.333036 0.345202 -0.877452 
570.18 -1025.49 -971.759 -0.333036 0.345202 -0.877452 
516.656 -1206.14 -1022.77 -0.333036 0.345202 -0.877452 
133.583 -927.727 -767.602 -0.333036 0.345202 -0.877452 
286.9 -766.434 -762.072 -0.333036 0.345202 -0.877452 
229.878 -540.219 -651.15 -0.333036 0.345202 -0.877452 
383.876 -1110.83 -934.794 -0.333036 0.345202 -0.877452 
527.282 -755.11 -848.758 -0.333036 0.345202 -0.877452 
265.379 -566.584 -675.02 -0.333036 0.345202 -0.877452 
685.546 -1250.06 -1104.15 -0.333036 0.345202 -0.877452 
94.5583 -1039.03 -796.739 -0.333036 0.345202 -0.877452 
71.8806 -990.854 -769.122 -0.333036 0.345202 -0.877452 
-143.99 -831.823 -624.484 -0.333036 0.345202 -0.877452 
357.934 -991.981 -878.043 -0.333036 0.345202 -0.877452 
303.003 -978.133 -851.746 -0.333036 0.345202 -0.877452 
-277.555 -881.383 -593.397 -0.333036 0.345202 -0.877452 
120.897 -863.155 -737.302 -0.333036 0.345202 -0.877452 
401.486 -996.782 -896.454 -0.333036 0.345202 -0.877452 
14.2415 -640.437 -608.938 -0.333036 0.345202 -0.877452 
72.4377 -965.127 -759.178 -0.333036 0.345202 -0.877452 
-0.989746 -629.936 -599.017 -0.333036 0.345202 -0.877452 
91.116 -1030.21 -791.952 -0.333036 0.345202 -0.877452 
288.819 -583.906 -690.746 -0.333036 0.345202 -0.877452 
409.71 -637.289 -757.663 -0.333036 0.345202 -0.877452 
-29.0334 -914.839 -700.847 -0.333036 0.345202 -0.877452 
252.81 -885.139 -796.003 -0.333036 0.345202 -0.877452 
-10.2336 -945.349 -720.02 -0.333036 0.345202 -0.877452 
74.1829 -900.428 -734.3 -0.333036 0.345202 -0.877452 
399.388 -857.938 -840.85 -0.333036 0.345202 -0.877452 
10.3816 -959.717 -733.51 -0.333036 0.345202 -0.877452 
189.906 -821.888 -747.18 -0.333036 0.345202 -0.877452 
504.923 -910.519 -901.627 -0.333036 0.345202 -0.877452 
238.478 -717.139 -724.25 -0.333036 0.345202 -0.877452 
365.11 -549.386 -706.051 -0.333036 0.345202 -0.877452 
-387.632 -821.294 -527.934 -0.333036 0.345202 -0.877452 
-23.0095 -921.579 -705.792 -0.333036 0.345202 -0.877452 
339.499 -796.146 -793.747 -0.333036 0.345202 -0.877452 
-220.297 -877.363 -613.523 -0.333036 0.345202 -0.877452 
379.506 -911.166 -854.322 -0.333036 0.345202 -0.877452 
505.69 -1194.08 -1013.85 -0.333036 0.345202 -0.877452 
650.123 -1169.1 -1058.76 -0.333036 0.345202 -0.877452 
-131.121 -709.737 -581.171 -0.333036 0.345202 -0.877452 
570.387 -1042.87 -978.697 -0.333036 0.345202 -0.877452 
269.361 -1012.33 -852.486 -0.333036 0.345202 -0.877452 
582.484 -1219.13 -1052.86 -0.333036 0.345202 -0.877452 
504.307 -768.405 -845.294 -0.333036 0.345202 -0.877452 
172.224 -714.591 -698.119 -0.333036 0.345202 -0.877452 
296.886 -891.429 -815.2 -0.333036 0.345202 -0.877452 
-114.317 -831.997 -635.804 -0.333036 0.345202 -0.877452 
263.218 -716.185 -733.255 -0.333036 0.345202 -0.877452 
-101.699 -765.432 -614.313 -0.333036 0.345202 -0.877452 
284.633 -1110.26 -896.937 -0.333036 0.345202 -0.877452 
-358.532 -808.333 -533.853 -0.333036 0.345202 -0.877452 
572.647 -1000.07 -962.657 -0.333036 0.345202 -0.877452 
221.635 -1016.12 -835.885 -0.333036 0.345202 -0.877452 
308.816 -591.428 -701.299 -0.333036 0.345202 -0.877452 
681.183 -1179.53 -1074.66 -0.333036 0.345202 -0.877452 
555.762 -1147.75 -1014.55 -0.333036 0.345202 -0.877452 
432.179 -1072.07 -937.815 -0.333036 0.345202 -0.877452 
338.733 -920.669 -842.611 -0.333036 0.345202 -0.877452 
249.484 -920.859 -808.842 -0.333036 0.345202 -0.877452 
271.323 -598.323 -689.803 -0.333036 0.345202 -0.877452 
317.532 -507.798 -671.591 -0.333036 0.345202 -0.877452 
65.3577 -929.494 -742.427 -0.333036 0.345202 -0.877452 
256.27 -891.917 -799.99 -0.333036 0.345202 -0.877452 
378.121 -888.923 -845.016 -0.333036 0.345202 -0.877452 
61.9187 -779.159 -681.778 -0.333036 0.345202 -0.877452 
573.28 -920.527 -931.5 -0.333036 0.345202 -0.877452 
-157.674 -830.56 -618.796 -0.333036 0.345202 -0.877452 
287.463 -1030.12 -866.374 -0.333036 0.345202 -0.877452 
-45.8103 -936.991 -703.23 -0.333036 0.345202 -0.877452 
481.77 -665.52 -796.134 -0.333036 0.345202 -0.877452 
120.264 -831.859 -724.707 -0.333036 0.345202 -0.877452 
-373.298 -799 -524.569 -0.333036 0.345202 -0.877452 
-82.5979 -884.117 -668.407 -0.333036 0.345202 -0.877452 
-281.057 -855.594 -581.889 -0.333036 0.345202 -0.877452 
641.713 -1116.86 -1034.95 -0.333036 0.345202 -0.877452 
520.374 -902.92 -904.486 -0.333036 0.345202 -0.877452 
442.856 -505.499 -718.208 -0.333036 0.345202 -0.877452 
240.949 -712.118 -723.205 -0.333036 0.345202 -0.877452 
122.275 -858.111 -735.832 -0.333036 0.345202 -0.877452 
365.399 -983.915 -877.69 -0.333036 0.345202 -0.877452 
514.293 -774.069 -851.316 -0.333036 0.345202 -0.877452 
498.896 -657.315 -799.389 -0.333036 0.345202 -0.877452 
587.475 -1021.88 -976.893 -0.333036 0.345202 -0.877452 
505.611 -1047.67 -956.028 -0.333036 0.345202 -0.877452 
263.232 -1105.25 -886.845 -0.333036 0.345202 -0.877452 
272.339 -883.219 -802.65 -0.333036 0.345202 -0.877452 
659.025 -1243.73 -1091.6 -0.333036 0.345202 -0.877452 
447.083 -899.01 -875.15 -0.333036 0.345202 -0.877452 
-4.71118 -806.09 -667.142 -0.333036 0.345202 -0.877452 
115.363 -588.639 -626.838 -0.333036 0.345202 -0.877452 
119.941 -801.733 -712.693 -0.333036 0.345202 -0.877452 
257.131 -913.416 -808.803 -0.333036 0.345202 -0.877452 
34.6814 -643.347 -617.838 -0.333036 0.345202 -0.877452 
226.411 -1045.22 -849.185 -0.333036 0.345202 -0.877452 
457.337 -897.174 -878.313 -0.333036 0.345202 -0.877452 
343.853 -557.513 -701.198 -0.333036 0.345202 -0.877452 
374.986 -557.746 -713.095 -0.333036 0.345202 -0.877452 
271.578 -808.752 -772.966 -0.333036 0.345202 -0.877452 
386.615 -939.493 -868.2 -0.333036 0.345202 -0.877452 
342.053 -926.83 -846.302 -0.333036 0.345202 -0.877452 
261.944 -841.998 -782.437 -0.333036 0.345202 -0.877452 
53.1099 -649.718 -627.341 -0.333036 0.345202 -0.877452 
72.2063 -841.485 -710.283 -0.333036 0.345202 -0.877452 
658.451 -1128.81 -1046.02 -0.333036 0.345202 -0.877452 
176.14 -987.775 -807.444 -0.333036 0.345202 -0.877452 
267.881 -601.724 -689.84 -0.333036 0.345202 -0.877452 
530.631 -925.012 -917.097 -0.333036 0.345202 -0.877452 
637.581 -1176.21 -1056.81 -0.333036 0.345202 -0.877452 
558.766 -990.434 -953.591 -0.333036 0.345202 -0.877452 
87.3704 -704.248 -661.859 -0.333036 0.345202 -0.877452 
426.349 -979.922 -899.227 -0.333036 0.345202 -0.877452 
490.555 -703.942 -814.632 -0.333036 0.345202 -0.877452 
26.519 -801.326 -677.104 -0.333036 0.345202 -0.877452 
162.556 -724.874 -698.512 -0.333036 0.345202 -0.877452 
-290.352 -861.038 -580.513 -0.333036 0.345202 -0.877452 
346.163 -1049.15 -896.145 -0.333036 0.345202 -0.877452 
357.116 -1077.64 -911.545 -0.333036 0.345202 -0.877452 
129.876 -618.68 -644.2 -0.333036 0.345202 -0.877452 
287.267 -790.672 -771.779 -0.333036 0.345202 -0.877452 
445.238 -743.115 -812.911 -0.333036 0.345202 -0.877452 
-175.755 -931.89 -651.939 -0.333036 0.345202 -0.877452 
-51.1223 -866.633 -673.441 -0.333036 0.345202 -0.877452 
473.587 -564.049 -752.975 -0.333036 0.345202 -0.877452 
356.204 -700.343 -762.263 -0.333036 0.345202 -0.877452 
445.558 -1036.58 -928.877 -0.333036 0.345202 -0.877452 
254.122 -882.871 -795.605 -0.333036 0.345202 -0.877452 
-272.715 -888.799 -598.16 -0.333036 0.345202 -0.877452 
104.406 -781.785 -698.927 -0.333036 0.345202 -0.877452 
-101.893 -705.733 -590.674 -0.333036 0.345202 -0.877452 
57.9719 -861.455 -712.768 -0.333036 0.345202 -0.877452 
-215.043 -841.343 -601.297 -0.333036 0.345202 -0.877452 
-22.4758 -861.554 -682.3 -0.333036 0.345202 -0.877452 
568.299 -1094.34 -998.222 -0.333036 0.345202 -0.877452 
-31.8337 -899.362 -693.676 -0.333036 0.345202 -0.877452 
59.6248 -987.479 -763.143 -0.333036 0.345202 -0.877452 
-271.909 -774.046 -553.167 -0.333036 0.345202 -0.877452 
406.408 -860.617 -844.569 -0.333036 0.345202 -0.877452 
235.99 -1042.24 -851.641 -0.333036 0.345202 -0.877452 
295.453 -533.217 -673.253 -0.333036 0.345202 -0.877452 
88.718 -945.307 -757.528 -0.333036 0.345202 -0.877452 
239.937 -546.394 -657.402 -0.333036 0.345202 -0.877452 
168.321 -565.325 -637.717 -0.333036 0.345202 -0.877452 
677.513 -1268.02 -1108.2 -0.333036 0.345202 -0.877452 
-227.269 -820.045 -588.254 -0.333036 0.345202 -0.877452 
301.675 -666.429 -728.198 -0.333036 0.345202 -0.877452 
477.305 -1004.02 -928.063 -0.333036 0.345202 -0.877452 
626.768 -1151.73 -1043.05 -0.333036 0.345202 -0.877452 
450.729 -714.753 -803.797 -0.333036 0.345202 -0.877452 
275.675 -679.133 -723.353 -0.333036 0.345202 -0.877452 
500.802 -985.173 -929.534 -0.333036 0.345202 -0.877452 
418.422 -643.639 -763.473 -0.333036 0.345202 -0.877452 
575.229 -1204.03 -1044.15 -0.333036 0.345202 -0.877452 
244.698 -576.503 -671.093 -0.333036 0.345202 -0.877452 
466.205 -965.602 -908.688 -0.333036 0.345202 -0.877452 
439.14 -818.154 -840.22 -0.333036 0.345202 -0.877452 
67.5637 -1004.54 -772.89 -0.333036 0.345202 -0.877452 
21.0549 -716.821 -641.674 -0.333036 0.345202 -0.877452 
303.945 -764.595 -767.809 -0.333036 0.345202 -0.877452 
506.386 -757.791 -841.893 -0.333036 0.345202 -0.877452 
460.92 -1130.46 -971.761 -0.333036 0.345202 -0.877452 
373.29 -536.846 -704.202 -0.333036 0.345202 -0.877452 
-109.685 -714.223 -591.07 -0.333036 0.345202 -0.877452 
-105.035 -732.878 -600.198 -0.333036 0.345202 -0.877452 
-115.535 -826.674 -633.241 -0.333036 0.345202 -0.877452 
180.034 -598.477 -655.246 -0.333036 0.345202 -0.877452 
348.574 -512.132 -685.074 -0.333036 0.345202 -0.877452 
470.991 -1171.4 -991.742 -0.333036 0.345202 -0.877452 
74.3916 -656.789 -638.203 -0.333036 0.345202 -0.877452 
411.142 -837.495 -837.237 -0.333036 0.345202 -0.877452 
526.606 -1032.58 -958.033 -0.333036 0.345202 -0.877452 
-209.539 -895.431 -624.736 -0.333036 0.345202 -0.877452 
-54.1763 -749.163 -625.913 -0.333036 0.345202 -0.877452 
110.256 -814.374 -714.01 -0.333036 0.345202 -0.877452 
300.804 -905.765 -822.345 -0.333036 0.345202 -0.877452 
443.526 -940.592 -890.215 -0.333036 0.345202 -0.877452 
556.722 -957.835 -939.948 -0.333036 0.345202 -0.877452 
38.1255 -989.607 -755.83 -0.333036 0.345202 -0.877452 
10.9326 -895.315 -708.296 -0.333036 0.345202 -0.877452 
136.303 -919.358 -765.329 -0.333036 0.345202 -0.877452 
-261.971 -744.874 -545.42 -0.333036 0.345202 -0.877452 
280.293 -678.378 -724.806 -0.333036 0.345202 -0.877452 
-96.9211 -781.247 -622.368 -0.333036 0.345202 -0.877452 
410.435 -849.478 -841.7 -0.333036 0.345202 -0.877452 
-196.216 -918.393 -638.852 -0.333036 0.345202 -0.877452 
-149.648 -935.716 -663.349 -0.333036 0.345202 -0.877452 
403.945 -1030.07 -910.525 -0.333036 0.345202 -0.877452 
582.671 -1132.74 -1018.83 -0.333036 0.345202 -0.877452 
490.233 -725.435 -822.994 -0.333036 0.345202 -0.877452 
278.018 -967.264 -837.981 -0.333036 0.345202 -0.877452 
351.344 -565.186 -707.067 -0.333036 0.345202 -0.877452 
319.581 -816.44 -794.205 -0.333036 0.345202 -0.877452 
-37.6726 -696.745 -611.479 -0.333036 0.345202 -0.877452 
381.996 -616.485 -738.941 -0.333036 0.345202 -0.877452 
-327.892 -778.474 -533.686 -0.333036 0.345202 -0.877452 
-310.34 -858.143 -571.791 -0.333036 0.345202 -0.877452 
302.154 -842.876 -798.031 -0.333036 0.345202 -0.877452 
-372.932 -790.271 -521.262 -0.333036 0.345202 -0.877452 
308.543 -1031.23 -874.806 -0.333036 0.345202 -0.877452 
169.198 -708.286 -694.484 -0.333036 0.345202 -0.877452 
309.194 -1047.06 -881.303 -0.333036 0.345202 -0.877452 
711.351 -1272.96 -1122.98 -0.333036 0.345202 -0.877452 
39.9553 -854.703 -703.271 -0.333036 0.345202 -0.877452 
414.638 -458.314 -688.882 -0.333036 0.345202 -0.877452 
96.6323 -810.184 -707.189 -0.333036 0.345202 -0.877452 
479.898 -952.864 -908.853 -0.333036 0.345202 -0.877452 
198.355 -928.753 -792.569 -0.333036 0.345202 -0.877452 
228.02 -818.578 -760.327 -0.333036 0.345202 -0.877452 
317.024 -1031.55 -878.149 -0.333036 0.345202 -0.877452 
330.216 -656.957 -735.282 -0.333036 0.345202 -0.877452 
388.194 -906.022 -855.586 -0.333036 0.345202 -0.877452 
489.03 -823.389 -861.205 -0.333036 0.345202 -0.877452 
459.476 -529.74 -734.08 -0.333036 0.345202 -0.877452 
-90.9731 -882.203 -664.476 -0.333036 0.345202 -0.877452 
666.401 -1212.86 -1082.21 -0.333036 0.345202 -0.877452 
318.951 -684.864 -742.026 -0.333036 0.345202 -0.877452 
464.284 -992.498 -918.577 -0.333036 0.345202 -0.877452 
529.838 -921.928 -915.578 -0.333036 0.345202 -0.877452 
328.311 -918.507 -837.806 -0.333036 0.345202 -0.877452 
323.298 -639.22 -725.656 -0.333036 0.345202 -0.877452 
268.846 -1064.94 -873.061 -0.333036 0.345202 -0.877452 
578.578 -1080 -996.46 -0.333036 0.345202 -0.877452 
486.033 -1095.84 -967.619 -0.333036 0.345202 -0.877452 
-175.143 -837.646 -614.968 -0.333036 0.345202 -0.877452 
497.431 -670.684 -804.111 -0.333036 0.345202 -0.877452 
418.993 -740.247 -801.826 -0.333036 0.345202 -0.877452 
13.8601 -896.209 -709.759 -0.333036 0.345202 -0.877452 
239.958 -1034.68 -850.159 -0.333036 0.345202 -0.877452 
307.952 -867.879 -810.1 -0.333036 0.345202 -0.877452 
301.504 -923.753 -829.711 -0.333036 0.345202 -0.877452 
536.612 -983.538 -942.468 -0.333036 0.345202 -0.877452 
384.193 -564.221 -719.143 -0.333036 0.345202 -0.877452 
-416.451 -821.301 -517.008 -0.333036 0.345202 -0.877452 
487.044 -844.151 -868.648 -0.333036 0.345202 -0.877452 
-203.249 -783.717 -583.022 -0.333036 0.345202 -0.877452 
638.464 -1077.29 -1018.1 -0.333036 0.345202 -0.877452 
553.667 -924.788 -925.744 -0.333036 0.345202 -0.877452 
234.172 -860.014 -779.017 -0.333036 0.345202 -0.877452 
525.752 -798.445 -865.285 -0.333036 0.345202 -0.877452 
443.847 -861.736 -859.209 -0.333036 0.345202 -0.877452 
533.143 -1136.35 -1001.48 -0.333036 0.345202 -0.877452 
-135.6 -900.95 -654.953 -0.333036 0.345202 -0.877452 
165.222 -1062.08 -832.633 -0.333036 0.345202 -0.877452 
483.821 -699.716 -810.41 -0.333036 0.345202 -0.877452 
464.643 -919.125 -889.749 -0.333036 0.345202 -0.877452 
125.292 -836.611 -728.489 -0.333036 0.345202 -0.877452 
316.56 -683.655 -740.642 -0.333036 0.345202 -0.877452 
121.108 -991.838 -788.179 -0.333036 0.345202 -0.877452 
186.323 -565.852 -644.751 -0.333036 0.345202 -0.877452 
-26.0144 -849.766 -676.304 -0.333036 0.345202 -0.877452 
149.086 -846.915 -741.58 -0.333036 0.345202 -0.877452 
20.2783 -772.982 -663.549 -0.333036 0.345202 -0.877452 
206.941 -700.653 -705.783 -0.333036 0.345202 -0.877452 
399.963 -637.979 -754.24 -0.333036 0.345202 -0.877452 
580.267 -1037.11 -980.172 -0.333036 0.345202 -0.877452 
115.706 -869.449 -737.817 -0.333036 0.345202 -0.877452 
-155.352 -917.415 -653.962 -0.333036 0.345202 -0.877452 
220.712 -957.527 -812.406 -0.333036 0.345202 -0.877452 
257.218 -567.77 -672.393 -0.333036 0.345202 -0.877452 
43.6621 -733.229 -656.724 -0.333036 0.345202 -0.877452 
279.529 -606.528 -696.153 -0.333036 0.345202 -0.877452 
264.703 -1049.51 -865.399 -0.333036 0.345202 -0.877452 
379.986 -983.723 -883.146 -0.333036 0.345202 -0.877452 
-77.5669 -738.763 -612.937 -0.333036 0.345202 -0.877452 
171.448 -608.841 -656.081 -0.333036 0.345202 -0.877452 
-256.608 -835.83 -583.359 -0.333036 0.345202 -0.877452 
-325.231 -771.125 -531.794 -0.333036 0.345202 -0.877452 
247.15 -731.097 -733.049 -0.333036 0.345202 -0.877452 
-136.051 -691.504 -572.103 -0.333036 0.345202 -0.877452 
522.95 -1069.01 -971.028 -0.333036 0.345202 -0.877452 
143.598 -791.573 -717.653 -0.333036 0.345202 -0.877452 
167.377 -1001.88 -809.687 -0.333036 0.345202 -0.877452 
377.383 -762.057 -794.656 -0.333036 0.345202 -0.877452 
423.103 -784.363 -820.799 -0.333036 0.345202 -0.877452 
580.947 -1018.32 -973.012 -0.333036 0.345202 -0.877452 
345.529 -559.863 -702.761 -0.333036 0.345202 -0.877452 
131.888 -716.435 -683.552 -0.333036 0.345202 -0.877452 
68.606 -654.3 -635.026 -0.333036 0.345202 -0.877452 
390.221 -677.17 -766.015 -0.333036 0.345202 -0.877452 
43.4053 -1002.24 -762.819 -0.333036 0.345202 -0.877452 
227.228 -944.276 -809.646 -0.333036 0.345202 -0.877452 
183.111 -762.673 -721.228 -0.333036 0.345202 -0.877452 
-52.7019 -783.904 -640.185 -0.333036 0.345202 -0.877452 
205.891 -1042.21 -840.212 -0.333036 0.345202 -0.877452 
369.77 -606.515 -730.369 -0.333036 0.345202 -0.877452 
676.036 -1227.42 -1091.61 -0.333036 0.345202 -0.877452 
143.476 -832.175 -733.634 -0.333036 0.345202 -0.877452 
582.096 -1210.37 -1049.26 -0.333036 0.345202 -0.877452 
-105.736 -795.789 -624.766 -0.333036 0.345202 -0.877452 
653.812 -1134.98 -1046.7 -0.333036 0.345202 -0.877452 
226.294 -758.549 -735.976 -0.333036 0.345202 -0.877452 
-118.056 -705.234 -584.347 -0.333036 0.345202 -0.877452 
374.277 -535.318 -703.973 -0.333036 0.345202 -0.877452 
230.958 -1008.35 -836.353 -0.333036 0.345202 -0.877452 
-384.754 -823.095 -529.737 -0.333036 0.345202 -0.877452 
-52.1125 -829.58 -658.439 -0.333036 0.345202 -0.877452 
438.302 -559.186 -737.675 -0.333036 0.345202 -0.877452 
623.618 -1103.39 -1022.77 -0.333036 0.345202 -0.877452 
592.453 -1129.3 -1021.18 -0.333036 0.345202 -0.877452 
163.498 -978.898 -799.146 -0.333036 0.345202 -0.877452 
205.816 -876.632 -774.823 -0.333036 0.345202 -0.877452 
437.568 -579.853 -745.554 -0.333036 0.345202 -0.877452 
-26.3635 -893.904 -693.596 -0.333036 0.345202 -0.877452 
711.482 -1275.71 -1124.11 -0.333036 0.345202 -0.877452 
260.044 -665.778 -712.153 -0.333036 0.345202 -0.877452 
560.775 -1034.74 -971.843 -0.333036 0.345202 -0.877452 
-55.4187 -922.947 -694.042 -0.333036 0.345202 -0.877452 
-53.4238 -707.927 -609.92 -0.333036 0.345202 -0.877452 
223.075 -588.581 -667.661 -0.333036 0.345202 -0.877452 
608.535 -1017.69 -983.225 -0.333036 0.345202 -0.877452 
-232.649 -889.056 -613.455 -0.333036 0.345202 -0.877452 
642.517 -1093.9 -1026.19 -0.333036 0.345202 -0.877452 
277.756 -1027.43 -861.63 -0.333036 0.345202 -0.877452 
410.393 -532.498 -716.556 -0.333036 0.345202 -0.877452 
630.803 -1123.37 -1033.39 -0.333036 0.345202 -0.877452 
38.887 -946.078 -738.935 -0.333036 0.345202 -0.877452 
-97.6677 -810.456 -633.615 -0.333036 0.345202 -0.877452 
525.909 -965.594 -931.326 -0.333036 0.345202 -0.877452 
366.296 -759.891 -789.597 -0.333036 0.345202 -0.877452 
227.67 -918.121 -799.489 -0.333036 0.345202 -0.877452 
715.715 -1286.38 -1129.93 -0.333036 0.345202 -0.877452 
536.169 -1154.39 -1009.74 -0.333036 0.345202 -0.877452 
292.465 -989.602 -852.277 -0.333036 0.345202 -0.877452 
181.365 -921.726 -783.352 -0.333036 0.345202 -0.877452 
412.118 -622.452 -752.719 -0.333036 0.345202 -0.877452 
416.042 -807.973 -827.441 -0.333036 0.345202 -0.877452 
489.667 -1169.93 -998.242 -0.333036 0.345202 -0.877452 
426.838 -809.8 -832.257 -0.333036 0.345202 -0.877452 
485.969 -1002.7 -930.828 -0.333036 0.345202 -0.877452 
63.2173 -704.276 -652.711 -0.333036 0.345202 -0.877452 
148.901 -1031.56 -814.4 -0.333036 0.345202 -0.877452 
-13.4941 -648.589 -601.638 -0.333036 0.345202 -0.877452 
-102.516 -767.003 -614.623 -0.333036 0.345202 -0.877452 
141.19 -635.911 -655.292 -0.333036 0.345202 -0.877452 
49.8386 -968.404 -751.901 -0.333036 0.345202 -0.877452 
245.532 -938.97 -814.493 -0.333036 0.345202 -0.877452 
-169.853 -698.979 -562.236 -0.333036 0.345202 -0.877452 
-146.58 -702.985 -572.642 -0.333036 0.345202 -0.877452 
263.38 -1017 -852.064 -0.333036 0.345202 -0.877452 
528.243 -1014.76 -951.618 -0.333036 0.345202 -0.877452 
304.977 -849.449 -801.697 -0.333036 0.345202 -0.877452 
307.563 -583.508 -697.697 -0.333036 0.345202 -0.877452 
466.437 -546.812 -743.459 -0.333036 0.345202 -0.877452 
432.986 -500.339 -712.429 -0.333036 0.345202 -0.877452 
409.04 -873.365 -850.599 -0.333036 0.345202 -0.877452 
570.882 -1086.11 -995.952 -0.333036 0.345202 -0.877452 
357.177 -1112.85 -925.47 -0.333036 0.345202 -0.877452 
20.7488 -717.861 -641.969 -0.333036 0.345202 -0.877452 
-106.754 -901.611 -666.153 -0.333036 0.345202 -0.877452 
432.903 -1128.39 -960.321 -0.333036 0.345202 -0.877452 
104.59 -975.235 -775.361 -0.333036 0.345202 -0.877452 
5.34131 -804.006 -670.132 -0.333036 0.345202 -0.877452 
280.283 -935.136 -826.157 -0.333036 0.345202 -0.877452 
330.021 -1073.54 -899.654 -0.333036 0.345202 -0.877452 
376.298 -484.345 -684.618 -0.333036 0.345202 -0.877452 
403.782 -704.113 -781.794 -0.333036 0.345202 -0.877452 
-160.157 -902.351 -646.194 -0.333036 0.345202 -0.877452 
477.216 -813.278 -852.734 -0.333036 0.345202 -0.877452 
157.875 -654.427 -668.928 -0.333036 0.345202 -0.877452 
489.748 -1132.15 -983.36 -0.333036 0.345202 -0.877452 
234.19 -1040.82 -850.395 -0.333036 0.345202 -0.877452 
242.936 -639.534 -695.306 -0.333036 0.345202 -0.877452 
-32.3335 -683.862 -608.418 -0.333036 0.345202 -0.877452 
-193.214 -730.279 -565.733 -0.333036 0.345202 -0.877452 
-81.6826 -745.956 -614.216 -0.333036 0.345202 -0.877452 
229.673 -720.844 -722.374 -0.333036 0.345202 -0.877452 
2.43286 -772.779 -656.702 -0.333036 0.345202 -0.877452 
218.705 -718.831 -717.42 -0.333036 0.345202 -0.877452 
89.4548 -857.584 -723.179 -0.333036 0.345202 -0.877452 
440.586 -757.801 -816.944 -0.333036 0.345202 -0.877452 
38.3684 -890.762 -716.903 -0.333036 0.345202 -0.877452 
261.632 -861.643 -790.073 -0.333036 0.345202 -0.877452 
441.837 -956.332 -895.788 -0.333036 0.345202 -0.877452 
506.339 -718.68 -826.435 -0.333036 0.345202 -0.877452 
-55.7505 -751.832 -626.369 -0.333036 0.345202 -0.877452 
391.183 -931.943 -866.952 -0.333036 0.345202 -0.877452 
-323.742 -853.316 -564.803 -0.333036 0.345202 -0.877452 
265.821 -774.515 -757.268 -0.333036 0.345202 -0.877452 
453.901 -798.514 -838.064 -0.333036 0.345202 -0.877452 
-304.548 -839 -566.43 -0.333036 0.345202 -0.877452 
215.776 -956.273 -810.039 -0.333036 0.345202 -0.877452 
117.367 -676.352 -662.222 -0.333036 0.345202 -0.877452 
46.0627 -911.495 -728.005 -0.333036 0.345202 -0.877452 
218.278 -791.439 -745.919 -0.333036 0.345202 -0.877452 
341.029 -1023.23 -883.968 -0.333036 0.345202 -0.877452 
362.267 -490.395 -681.686 -0.333036 0.345202 -0.877452 
-51.9001 -806.91 -649.571 -0.333036 0.345202 -0.877452 
402 -818.506 -826.274 -0.333036 0.345202 -0.877452 
492.95 -941.273 -909.226 -0.333036 0.345202 -0.877452 
298.992 -849.024 -799.259 -0.333036 0.345202 -0.877452 
27.0725 -907.045 -719.047 -0.333036 0.345202 -0.877452 
184.71 -637.37 -672.372 -0.333036 0.345202 -0.877452 
481.39 -959.262 -911.944 -0.333036 0.345202 -0.877452 
306.732 -513.485 -669.741 -0.333036 0.345202 -0.877452 
482.698 -1108.26 -971.256 -0.333036 0.345202 -0.877452 
575.344 -943.481 -941.343 -0.333036 0.345202 -0.877452 
308.959 -771.764 -772.54 -0.333036 0.345202 -0.877452 
135.329 -786.459 -712.498 -0.333036 0.345202 -0.877452 
225.326 -824.272 -761.553 -0.333036 0.345202 -0.877452 
112.743 -953.562 -769.897 -0.333036 0.345202 -0.877452 
532.837 -835.89 -882.752 -0.333036 0.345202 -0.877452 
530.434 -1110.17 -990.115 -0.333036 0.345202 -0.877452 
-190.805 -778.826 -585.81 -0.333036 0.345202 -0.877452 
-57.197 -693.184 -602.669 -0.333036 0.345202 -0.877452 
378.195 -722.498 -779.348 -0.333036 0.345202 -0.877452 
184.983 -859.571 -760.189 -0.333036 0.345202 -0.877452 
170.326 -623.144 -661.301 -0.333036 0.345202 -0.877452 
230.502 -687.749 -709.624 -0.333036 0.345202 -0.877452 
-339.08 -850.012 -557.683 -0.333036 0.345202 -0.877452 
-82.0354 -729.452 -607.567 -0.333036 0.345202 -0.877452 
487.284 -710.365 -815.927 -0.333036 0.345202 -0.877452 
519.467 -756.018 -846.153 -0.333036 0.345202 -0.877452 
520.615 -862.104 -888.466 -0.333036 0.345202 -0.877452 
121.143 -638.272 -648.622 -0.333036 0.345202 -0.877452 
-200.882 -801.64 -590.994 -0.333036 0.345202 -0.877452 
541.622 -983.469 -944.34 -0.333036 0.345202 -0.877452 
605.214 -976.215 -965.592 -0.333036 0.345202 -0.877452 
670.906 -1239.29 -1094.35 -0.333036 0.345202 -0.877452 
210.086 -783.211 -739.565 -0.333036 0.345202 -0.877452 
560.701 -923.534 -927.916 -0.333036 0.345202 -0.877452 
363.851 -659.029 -748.854 -0.333036 0.345202 -0.877452 
256.71 -864.692 -789.41 -0.333036 0.345202 -0.877452 
684.121 -1273.75 -1112.97 -0.333036 0.345202 -0.877452 
307.788 -670.886 -732.275 -0.333036 0.345202 -0.877452 
531.75 -1032.97 -960.138 -0.333036 0.345202 -0.877452 
579.368 -981.623 -957.926 -0.333036 0.345202 -0.877452 
-262.776 -871.202 -594.983 -0.333036 0.345202 -0.877452 
467.633 -519.422 -733.101 -0.333036 0.345202 -0.877452 
14.6992 -851.278 -692.341 -0.333036 0.345202 -0.877452 
242.449 -905.626 -800.161 -0.333036 0.345202 -0.877452 
592.231 -981.487 -962.75 -0.333036 0.345202 -0.877452 
333.634 -839.871 -808.783 -0.333036 0.345202 -0.877452 
376.862 -1062.64 -913.113 -0.333036 0.345202 -0.877452 
-278.068 -787.934 -556.314 -0.333036 0.345202 -0.877452 
380.285 -1152.33 -949.817 -0.333036 0.345202 -0.877452 
406.012 -798.65 -819.958 -0.333036 0.345202 -0.877452 
250.918 -1008.18 -843.855 -0.333036 0.345202 -0.877452 
552.032 -1100.88 -994.636 -0.333036 0.345202 -0.877452 
350.6 -956.268 -861.164 -0.333036 0.345202 -0.877452 
536.443 -752.286 -851.117 -0.333036 0.345202 -0.877452 
133.885 -877.75 -747.988 -0.333036 0.345202 -0.877452 
427.841 -800.129 -828.82 -0.333036 0.345202 -0.877452 
-67.394 -758.246 -624.486 -0.333036 0.345202 -0.877452 
417.461 -817.354 -831.683 -0.333036 0.345202 -0.877452 
625.782 -1199.14 -1061.39 -0.333036 0.345202 -0.877452 
327.568 -1052.06 -890.244 -0.333036 0.345202 -0.877452 
629.602 -1156.57 -1046.03 -0.333036 0.345202 -0.877452 
528.239 -993.469 -943.213 -0.333036 0.345202 -0.877452 
32.2292 -676.826 -630.124 -0.333036 0.345202 -0.877452 
16.6687 -697.821 -632.51 -0.333036 0.345202 -0.877452 
414.958 -454.032 -687.313 -0.333036 0.345202 -0.877452 
505.656 -695.561 -817.05 -0.333036 0.345202 -0.877452 
48.2141 -627.701 -616.793 -0.333036 0.345202 -0.877452 
113.98 -617.242 -637.604 -0.333036 0.345202 -0.877452 
578.088 -1056.44 -986.975 -0.333036 0.345202 -0.877452 
290.567 -500.784 -658.597 -0.333036 0.345202 -0.877452 
273.155 -588.56 -686.644 -0.333036 0.345202 -0.877452 
563.857 -1008.78 -962.762 -0.333036 0.345202 -0.877452 
529.469 -717.172 -834.612 -0.333036 0.345202 -0.877452 
-279.375 -755.567 -543.042 -0.333036 0.345202 -0.877452 
506.044 -807.887 -861.538 -0.333036 0.345202 -0.877452 
132.956 -594.581 -635.855 -0.333036 0.345202 -0.877452 
274.065 -804.115 -772.079 -0.333036 0.345202 -0.877452 
339.006 -829.82 -806.853 -0.333036 0.345202 -0.877452 
141.135 -1005.62 -801.213 -0.333036 0.345202 -0.877452 
393.221 -881.91 -847.974 -0.333036 0.345202 -0.877452 
357.994 -892.64 -838.851 -0.333036 0.345202 -0.877452 
-8.3562 -968.197 -729.751 -0.333036 0.345202 -0.877452 
56.8291 -632.704 -622.035 -0.333036 0.345202 -0.877452 
103.467 -941.067 -761.447 -0.333036 0.345202 -0.877452 
393.236 -1150.52 -954.014 -0.333036 0.345202 -0.877452 
628.424 -1246.74 -1081.18 -0.333036 0.345202 -0.877452 
54.6106 -938.634 -741.959 -0.333036 0.345202 -0.877452 
564.233 -1092.24 -995.85 -0.333036 0.345202 -0.877452 
579.302 -1233.71 -1057.41 -0.333036 0.345202 -0.877452 
197.737 -970.41 -808.779 -0.333036 0.345202 -0.877452 
-28.9058 -796.635 -654.235 -0.333036 0.345202 -0.877452 
562.548 -837.002 -894.458 -0.333036 0.345202 -0.877452 
83.8767 -847.421 -717.051 -0.333036 0.345202 -0.877452 
148.856 -651.796 -664.47 -0.333036 0.345202 -0.877452 
507.865 -641.68 -796.618 -0.333036 0.345202 -0.877452 
-0.32373 -895.446 -704.079 -0.333036 0.345202 -0.877452 
74.8328 -686.484 -650.092 -0.333036 0.345202 -0.877452 
258.159 -993.305 -840.729 -0.333036 0.345202 -0.877452 
307.128 -742.047 -760.116 -0.333036 0.345202 -0.877452 
5.16406 -960.617 -731.887 -0.333036 0.345202 -0.877452 
532.574 -834.7 -882.183 -0.333036 0.345202 -0.877452 
286.576 -979.311 -845.982 -0.333036 0.345202 -0.877452 
482.094 -889.843 -884.807 -0.333036 0.345202 -0.877452 
415.11 -874.133 -853.205 -0.333036 0.345202 -0.877452 
420.305 -601.963 -747.736 -0.333036 0.345202 -0.877452 
326.482 -517.62 -678.863 -0.333036 0.345202 -0.877452 
602.625 -942.26 -951.206 -0.333036 0.345202 -0.877452 
91.6565 -1031.47 -792.656 -0.333036 0.345202 -0.877452 
394.262 -586.267 -731.664 -0.333036 0.345202 -0.877452 
143.895 -991.182 -796.561 -0.333036 0.345202 -0.877452 
-171.604 -714.606 -567.74 -0.333036 0.345202 -0.877452 
-0.919678 -910.214 -709.683 -0.333036 0.345202 -0.877452 
590.808 -1159.14 -1032.34 -0.333036 0.345202 -0.877452 
-109.005 -863.09 -650.093 -0.333036 0.345202 -0.877452 
404.889 -479.19 -693.426 -0.333036 0.345202 -0.877452 
439.375 -857.54 -855.856 -0.333036 0.345202 -0.877452 
413.16 -945.644 -880.694 -0.333036 0.345202 -0.877452 
486.657 -781.119 -843.62 -0.333036 0.345202 -0.877452 
429.376 -1127.08 -958.466 -0.333036 0.345202 -0.877452 
570.644 -841.326 -899.235 -0.333036 0.345202 -0.877452 
365.778 -702.169 -766.615 -0.333036 0.345202 -0.877452 
257.8 -575.838 -675.799 -0.333036 0.345202 -0.877452 
284.388 -634.233 -708.932 -0.333036 0.345202 -0.877452 
590.089 -919.792 -937.584 -0.333036 0.345202 -0.877452 
152.845 -962.991 -788.826 -0.333036 0.345202 -0.877452 
369.959 -776.269 -797.451 -0.333036 0.345202 -0.877452 
-424.509 -824.99 -515.409 -0.333036 0.345202 -0.877452 
57.7776 -859.562 -711.947 -0.333036 0.345202 -0.877452 
-69.7217 -746.51 -618.97 -0.333036 0.345202 -0.877452 
473.662 -1140.69 -980.633 -0.333036 0.345202 -0.877452 
577.724 -1128.33 -1015.21 -0.333036 0.345202 -0.877452 
202.445 -831.535 -755.743 -0.333036 0.345202 -0.877452 
-193.752 -852.524 -613.785 -0.333036 0.345202 -0.877452 
132.785 -924.029 -765.84 -0.333036 0.345202 -0.877452 
379.334 -1125.18 -938.737 -0.333036 0.345202 -0.877452 
190.959 -1065.12 -843.595 -0.333036 0.345202 -0.877452 
242.668 -824.599 -768.259 -0.333036 0.345202 -0.877452 
295.884 -983.696 -851.242 -0.333036 0.345202 -0.877452 
-188.266 -835.087 -608.982 -0.333036 0.345202 -0.877452 
203.085 -614.003 -670.115 -0.333036 0.345202 -0.877452 
526.529 -805.99 -868.557 -0.333036 0.345202 -0.877452 
493.249 -838.363 -868.716 -0.333036 0.345202 -0.877452 
-62.3254 -869.604 -670.366 -0.333036 0.345202 -0.877452 
109.326 -785.651 -702.319 -0.333036 0.345202 -0.877452 
-137.178 -686.947 -569.877 -0.333036 0.345202 -0.877452 
517.479 -1029.63 -953.406 -0.333036 0.345202 -0.877452 
396.087 -547.186 -716.929 -0.333036 0.345202 -0.877452 
632.309 -1078.99 -1016.44 -0.333036 0.345202 -0.877452 
51.4714 -979.059 -756.727 -0.333036 0.345202 -0.877452 
533.914 -743.428 -846.662 -0.333036 0.345202 -0.877452 
328.044 -950.659 -850.397 -0.333036 0.345202 -0.877452 
184.536 -697.06 -695.868 -0.333036 0.345202 -0.877452 
58.1204 -695.191 -647.192 -0.333036 0.345202 -0.877452 
34.0447 -857.163 -702 -0.333036 0.345202 -0.877452 
367.239 -1140.16 -940.065 -0.333036 0.345202 -0.877452 
420.856 -787.34 -821.123 -0.333036 0.345202 -0.877452 
-50.1052 -712.83 -613.114 -0.333036 0.345202 -0.877452 
343.715 -488.96 -674.084 -0.333036 0.345202 -0.877452 
674.886 -1217.66 -1087.32 -0.333036 0.345202 -0.877452 
355.844 -558.286 -706.05 -0.333036 0.345202 -0.877452 
104.25 -1021.26 -793.401 -0.333036 0.345202 -0.877452 
92.925 -945.265 -759.107 -0.333036 0.345202 -0.877452 
252.701 -769.615 -750.359 -0.333036 0.345202 -0.877452 
554.022 -1074.5 -984.976 -0.333036 0.345202 -0.877452 
517.664 -1159.16 -1004.61 -0.333036 0.345202 -0.877452 
407.434 -468.272 -690.081 -0.333036 0.345202 -0.877452 
297.391 -657.013 -722.856 -0.333036 0.345202 -0.877452 
530.367 -925.335 -917.124 -0.333036 0.345202 -0.877452 
402.236 -457.341 -683.795 -0.333036 0.345202 -0.877452 
387.548 -908.957 -856.5 -0.333036 0.345202 -0.877452 
15.7227 -936.277 -726.282 -0.333036 0.345202 -0.877452 
147.965 -850.057 -742.396 -0.333036 0.345202 -0.877452 
-296.146 -779.24 -546.026 -0.333036 0.345202 -0.877452 
606.59 -1136.51 -1029.39 -0.333036 0.345202 -0.877452 
250.159 -707.864 -725.019 -0.333036 0.345202 -0.877452 
622.567 -1025.73 -991.719 -0.333036 0.345202 -0.877452 
332.943 -632.501 -726.662 -0.333036 0.345202 -0.877452 
-83.2585 -846.037 -653.125 -0.333036 0.345202 -0.877452 
441.063 -636.451 -769.222 -0.333036 0.345202 -0.877452 
148.098 -616.089 -650.087 -0.333036 0.345202 -0.877452 
350.42 -565.768 -706.947 -0.333036 0.345202 -0.877452 
320.995 -848.276 -807.308 -0.333036 0.345202 -0.877452 
282.803 -644.838 -712.518 -0.333036 0.345202 -0.877452 
47.1519 -879.459 -715.772 -0.333036 0.345202 -0.877452 
335.557 -624.577 -724.525 -0.333036 0.345202 -0.877452 
299.989 -1113.52 -904.047 -0.333036 0.345202 -0.877452 
356.628 -622.16 -731.562 -0.333036 0.345202 -0.877452 
627.177 -1052.67 -1004.1 -0.333036 0.345202 -0.877452 
62.4563 -719.311 -658.357 -0.333036 0.345202 -0.877452 
650.976 -1190.46 -1067.52 -0.333036 0.345202 -0.877452 
606.106 -1170.5 -1042.62 -0.333036 0.345202 -0.877452 
309.468 -1026.95 -873.469 -0.333036 0.345202 -0.877452 
-358.326 -823.962 -540.101 -0.333036 0.345202 -0.877452 
662.65 -1129.21 -1047.77 -0.333036 0.345202 -0.877452 
388.231 -1014.46 -898.404 -0.333036 0.345202 -0.877452 
-331.992 -857.946 -563.502 -0.333036 0.345202 -0.877452 
373.247 -1100.73 -926.779 -0.333036 0.345202 -0.877452 
385.616 -818.777 -820.169 -0.333036 0.345202 -0.877452 
-291.025 -847.663 -574.978 -0.333036 0.345202 -0.877452 
208.35 -628.488 -677.83 -0.333036 0.345202 -0.877452 
529.364 -960.238 -930.522 -0.333036 0.345202 -0.877452 
153.983 -957.624 -787.14 -0.333036 0.345202 -0.877452 
-105.281 -914.843 -671.934 -0.333036 0.345202 -0.877452 
494.562 -752.849 -835.457 -0.333036 0.345202 -0.877452 
211.049 -837.191 -761.239 -0.333036 0.345202 -0.877452 
89.5278 -1010.52 -783.578 -0.333036 0.345202 -0.877452 
493.703 -842.187 -870.398 -0.333036 0.345202 -0.877452 
221.882 -867.112 -777.158 -0.333036 0.345202 -0.877452 
375.053 -1056.07 -909.836 -0.333036 0.345202 -0.877452 
-367.432 -805.385 -529.315 -0.333036 0.345202 -0.877452 
603.233 -966.921 -961.172 -0.333036 0.345202 -0.877452 
387.224 -901.9 -853.591 -0.333036 0.345202 -0.877452 
-147.738 -782.419 -603.56 -0.333036 0.345202 -0.877452 
409.473 -726.634 -792.842 -0.333036 0.345202 -0.877452 
444.053 -979.388 -905.73 -0.333036 0.345202 -0.877452 
-44.1531 -794.951 -647.788 -0.333036 0.345202 -0.877452 
234.48 -951.206 -815.132 -0.333036 0.345202 -0.877452 
460.561 -1128.72 -970.938 -0.333036 0.345202 -0.877452 
398.258 -791.226 -814.087 -0.333036 0.345202 -0.877452 
331.665 -1065.68 -897.176 -0.333036 0.345202 -0.877452 
226.749 -908.184 -795.217 -0.333036 0.345202 -0.877452 
576.279 -1041.9 -980.547 -0.333036 0.345202 -0.877452 
592.049 -943.719 -947.772 -0.333036 0.345202 -0.877452 
308.316 -616.966 -711.19 -0.333036 0.345202 -0.877452 
209.363 -724.534 -716.128 -0.333036 0.345202 -0.877452 
85.373 -728.566 -670.701 -0.333036 0.345202 -0.877452 
201.468 -1060.94 -845.929 -0.333036 0.345202 -0.877452 
-0.536865 -733.949 -640.248 -0.333036 0.345202 -0.877452 
-67.605 -687.275 -596.39 -0.333036 0.345202 -0.877452 
116.118 -946.197 -768.27 -0.333036 0.345202 -0.877452 
-32.2229 -742.485 -631.601 -0.333036 0.345202 -0.877452 
-8.56714 -790.884 -659.677 -0.333036 0.345202 -0.877452 
446.678 -1090.61 -950.63 -0.333036 0.345202 -0.877452 
430.41 -1174.53 -977.587 -0.333036 0.345202 -0.877452 
287.518 -577.931 -687.894 -0.333036 0.345202 -0.877452 
177.479 -644.179 -672.317 -0.333036 0.345202 -0.877452 
200.246 -1046.23 -839.661 -0.333036 0.345202 -0.877452 
313.043 -998.887 -863.746 -0.333036 0.345202 -0.877452 
126.303 -678.411 -666.424 -0.333036 0.345202 -0.877452 
135.67 -1019.97 -804.807 -0.333036 0.345202 -0.877452 
95.7915 -595.51 -622.128 -0.333036 0.345202 -0.877452 
353.412 -498.149 -681.389 -0.333036 0.345202 -0.877452 
486.163 -1036.15 -944.105 -0.333036 0.345202 -0.877452 
429.995 -916.108 -875.419 -0.333036 0.345202 -0.877452 
517.046 -819.012 -870.102 -0.333036 0.345202 -0.877452 
249.052 -598.551 -681.447 -0.333036 0.345202 -0.877452 
439.293 -1020.41 -920.117 -0.333036 0.345202 -0.877452 
-305.628 -861.804 -575.023 -0.333036 0.345202 -0.877452 
-165.87 -745.602 -582.151 -0.333036 0.345202 -0.877452 
328.966 -1124.95 -919.548 -0.333036 0.345202 -0.877452 
356.083 -620.664 -730.764 -0.333036 0.345202 -0.877452 
480.766 -1064.94 -953.422 -0.333036 0.345202 -0.877452 
145.376 -645.728 -660.755 -0.333036 0.345202 -0.877452 
453.463 -733.68 -812.305 -0.333036 0.345202 -0.877452 
429.999 -495.388 -709.342 -0.333036 0.345202 -0.877452 
698.051 -1235.06 -1102.98 -0.333036 0.345202 -0.877452 
337.744 -853.481 -815.714 -0.333036 0.345202 -0.877452 
375.781 -736.381 -783.913 -0.333036 0.345202 -0.877452 
427.178 -971.696 -896.294 -0.333036 0.345202 -0.877452 
-13.989 -759.819 -645.359 -0.333036 0.345202 -0.877452 
644.702 -1139.02 -1044.83 -0.333036 0.345202 -0.877452 
-29.4124 -842.133 -672.003 -0.333036 0.345202 -0.877452 
549.081 -872.741 -903.459 -0.333036 0.345202 -0.877452 
419.789 -1067.05 -931.131 -0.333036 0.345202 -0.877452 
-336.232 -822.55 -547.922 -0.333036 0.345202 -0.877452 
387.459 -539.887 -710.776 -0.333036 0.345202 -0.877452 
434.376 -1094.31 -947.426 -0.333036 0.345202 -0.877452 
183.473 -859.676 -759.657 -0.333036 0.345202 -0.877452 
479.552 -1152.52 -987.536 -0.333036 0.345202 -0.877452 
307.365 -633.416 -717.323 -0.333036 0.345202 -0.877452 
393.282 -543.975 -714.598 -0.333036 0.345202 -0.877452 
475.768 -1083.52 -958.863 -0.333036 0.345202 -0.877452 
-408.068 -805.431 -513.923 -0.333036 0.345202 -0.877452 
-127.304 -916.007 -664.043 -0.333036 0.345202 -0.877452 
203.496 -1040.01 -838.438 -0.333036 0.345202 -0.877452 
511.127 -1111.84 -983.45 -0.333036 0.345202 -0.877452 
-48.4934 -702.563 -609.672 -0.333036 0.345202 -0.877452 
189.695 -994.946 -815.415 -0.333036 0.345202 -0.877452 
428.711 -933.395 -881.756 -0.333036 0.345202 -0.877452 
166.41 -697.48 -689.16 -0.333036 0.345202 -0.877452 
63.4524 -768.067 -677.981 -0.333036 0.345202 -0.877452 
274.138 -835.504 -784.498 -0.333036 0.345202 -0.877452 
57.2854 -882.527 -720.826 -0.333036 0.345202 -0.877452 
312.685 -848.461 -804.23 -0.333036 0.345202 -0.877452 
247.123 -805.151 -762.271 -0.333036 0.345202 -0.877452 
361.269 -1119.12 -929.496 -0.333036 0.345202 -0.877452 
350.156 -894.22 -836.502 -0.333036 0.345202 -0.877452 
49.301 -686.488 -640.412 -0.333036 0.345202 -0.877452 
133.404 -625.902 -648.389 -0.333036 0.345202 -0.877452 
207.182 -1054.29 -845.472 -0.333036 0.345202 -0.877452 
458.096 -1103.72 -960.137 -0.333036 0.345202 -0.877452 
645.191 -1096.44 -1028.21 -0.333036 0.345202 -0.877452 
-8.31909 -871.852 -691.733 -0.333036 0.345202 -0.877452 
603.708 -1017.64 -981.372 -0.333036 0.345202 -0.877452 
-151.496 -783.128 -602.415 -0.333036 0.345202 -0.877452 
233.181 -976.668 -824.69 -0.333036 0.345202 -0.877452 
27.615 -978.326 -747.391 -0.333036 0.345202 -0.877452 
429.951 -644.147 -768.046 -0.333036 0.345202 -0.877452 
483.465 -752.205 -830.995 -0.333036 0.345202 -0.877452 
628.178 -1208.85 -1066.13 -0.333036 0.345202 -0.877452 
633.575 -1205.96 -1067.04 -0.333036 0.345202 -0.877452 
613.955 -1043.08 -995.302 -0.333036 0.345202 -0.877452 
251.545 -672.873 -711.732 -0.333036 0.345202 -0.877452 
581.572 -894.827 -924.499 -0.333036 0.345202 -0.877452 
169.779 -880.166 -762.553 -0.333036 0.345202 -0.877452 
515.583 -1170.63 -1008.35 -0.333036 0.345202 -0.877452 
202.246 -1063.69 -847.312 -0.333036 0.345202 -0.877452 
306.631 -803.909 -784.347 -0.333036 0.345202 -0.877452 
-259.61 -754.668 -550.182 -0.333036 0.345202 -0.877452 
514.562 -776.925 -852.546 -0.333036 0.345202 -0.877452 
-16.8601 -884.686 -693.561 -0.333036 0.345202 -0.877452 
-241.623 -898.795 -613.897 -0.333036 0.345202 -0.877452 
442.75 -995.56 -911.62 -0.333036 0.345202 -0.877452 
93.519 -680.922 -654.983 -0.333036 0.345202 -0.877452 
395.244 -818.026 -823.523 -0.333036 0.345202 -0.877452 
60.3872 -735.381 -663.916 -0.333036 0.345202 -0.877452 
355.368 -654.102 -743.693 -0.333036 0.345202 -0.877452 
194.142 -651.12 -681.376 -0.333036 0.345202 -0.877452 
379.13 -1036.59 -903.69 -0.333036 0.345202 -0.877452 
578.238 -976.023 -955.287 -0.333036 0.345202 -0.877452 
287.088 -772.645 -764.595 -0.333036 0.345202 -0.877452 
330.046 -1020.09 -878.565 -0.333036 0.345202 -0.877452 
-292.396 -876.291 -585.759 -0.333036 0.345202 -0.877452 
284.767 -1049.22 -872.893 -0.333036 0.345202 -0.877452 
278.172 -786.243 -766.581 -0.333036 0.345202 -0.877452 
434.006 -473.2 -702.102 -0.333036 0.345202 -0.877452 
563.705 -1099.75 -998.617 -0.333036 0.345202 -0.877452 
317.747 -982.419 -859.029 -0.333036 0.345202 -0.877452 
489.017 -1126.94 -981.028 -0.333036 0.345202 -0.877452 
65.4666 -861.633 -715.68 -0.333036 0.345202 -0.877452 
630.011 -1114.87 -1029.73 -0.333036 0.345202 -0.877452 
22.9089 -721.061 -644.051 -0.333036 0.345202 -0.877452 
-74.5203 -903.665 -679.187 -0.333036 0.345202 -0.877452 
-217.768 -749.931 -564.179 -0.333036 0.345202 -0.877452 
237.177 -966.907 -822.352 -0.333036 0.345202 -0.877452 
418.804 -1131.86 -956.342 -0.333036 0.345202 -0.877452 
301.645 -583.885 -695.602 -0.333036 0.345202 -0.877452 
456.861 -784.905 -833.815 -0.333036 0.345202 -0.877452 
260.315 -1012.41 -849.088 -0.333036 0.345202 -0.877452 
358.866 -607.012 -726.43 -0.333036 0.345202 -0.877452 
163.351 -1010.9 -811.724 -0.333036 0.345202 -0.877452 
369.34 -1100.69 -925.281 -0.333036 0.345202 -0.877452 
244.572 -654.591 -701.87 -0.333036 0.345202 -0.877452 
28.0654 -631.889 -610.806 -0.333036 0.345202 -0.877452 
-32.6436 -928.504 -704.873 -0.333036 0.345202 -0.877452 
153.626 -1047.17 -822.353 -0.333036 0.345202 -0.877452 
434.449 -532.621 -725.727 -0.333036 0.345202 -0.877452 
447.348 -677.378 -787.761 -0.333036 0.345202 -0.877452 
278.195 -943.176 -828.539 -0.333036 0.345202 -0.877452 
197.113 -623.953 -671.778 -0.333036 0.345202 -0.877452 
-226.447 -741.805 -557.68 -0.333036 0.345202 -0.877452 
-133.184 -783.643 -609.562 -0.333036 0.345202 -0.877452 
535.58 -882.682 -902.263 -0.333036 0.345202 -0.877452 
44.7673 -793.17 -680.805 -0.333036 0.345202 -0.877452 
17.29 -639.529 -609.736 -0.333036 0.345202 -0.877452 
217.384 -868.623 -776.049 -0.333036 0.345202 -0.877452 
268.989 -604.405 -691.319 -0.333036 0.345202 -0.877452 
59.2668 -850.717 -709.02 -0.333036 0.345202 -0.877452 
138.194 -661.684 -664.33 -0.333036 0.345202 -0.877452 
233.848 -1069.77 -861.697 -0.333036 0.345202 -0.877452 
511.183 -802.727 -861.45 -0.333036 0.345202 -0.877452 
287.347 -867.307 -802.061 -0.333036 0.345202 -0.877452 
313.697 -571.799 -695.402 -0.333036 0.345202 -0.877452 
384.246 -1052.57 -911.94 -0.333036 0.345202 -0.877452 
257.73 -695.07 -722.839 -0.333036 0.345202 -0.877452 
-14.7839 -750.664 -641.443 -0.333036 0.345202 -0.877452 
414.429 -899.458 -862.944 -0.333036 0.345202 -0.877452 
436.88 -568.476 -740.803 -0.333036 0.345202 -0.877452 
108.01 -668.422 -655.543 -0.333036 0.345202 -0.877452 
435.224 -503.225 -714.417 -0.333036 0.345202 -0.877452 
371.496 -944.595 -864.481 -0.333036 0.345202 -0.877452 
132.694 -871.497 -745.067 -0.333036 0.345202 -0.877452 
484.161 -714.499 -816.375 -0.333036 0.345202 -0.877452 
234.871 -916.924 -801.747 -0.333036 0.345202 -0.877452 
544.049 -879.499 -904.219 -0.333036 0.345202 -0.877452 
462.415 -847.24 -860.528 -0.333036 0.345202 -0.877452 
385.941 -732.02 -786.045 -0.333036 0.345202 -0.877452 
604.561 -1101.59 -1014.84 -0.333036 0.345202 -0.877452 
461.669 -573.312 -752.112 -0.333036 0.345202 -0.877452 
-386.44 -806.082 -522.382 -0.333036 0.345202 -0.877452 
635.118 -1096.41 -1024.38 -0.333036 0.345202 -0.877452 
473.46 -761.105 -830.714 -0.333036 0.345202 -0.877452 
166.427 -738.643 -705.416 -0.333036 0.345202 -0.877452 
365.645 -891.214 -841.189 -0.333036 0.345202 -0.877452 
-168.724 -842.59 -619.354 -0.333036 0.345202 -0.877452 
445.891 -698.182 -795.42 -0.333036 0.345202 -0.877452 
400.624 -635.643 -753.568 -0.333036 0.345202 -0.877452 
-35.5002 -871.336 -681.222 -0.333036 0.345202 -0.877452 
627.283 -1091.6 -1019.51 -0.333036 0.345202 -0.877452 
399.469 -871.652 -846.294 -0.333036 0.345202 -0.877452 
569.659 -983.001 -954.787 -0.333036 0.345202 -0.877452 
-90.3198 -720.239 -600.788 -0.333036 0.345202 -0.877452 
77.4031 -756.929 -678.875 -0.333036 0.345202 -0.877452 
396.308 -1035.02 -909.587 -0.333036 0.345202 -0.877452 
473.374 -784.21 -839.802 -0.333036 0.345202 -0.877452 
574.663 -1077.42 -993.956 -0.333036 0.345202 -0.877452 
297.222 -750.398 -759.656 -0.333036 0.345202 -0.877452 
415.775 -843.2 -841.246 -0.333036 0.345202 -0.877452 
