ply
format ascii 1.0
comment Created by CloudCompare v2.11.3 (Anoia)
comment Created 07/09/2022 23:51
obj_info Generated by CloudCompare!
element vertex 884
property float x
property float y
property float z
property float nx
property float ny
property float nz
end_header
-1045.56 82.8773 552.816 0.261668 -0.626417 -0.734256 
-1127.52 51.4213 550.388 0.261668 -0.626417 -0.734256 
-1060.45 77.5399 552.057 0.261668 -0.626417 -0.734256 
-850.03 163.264 554.079 0.261668 -0.626417 -0.734256 
-800.629 181.045 556.544 0.261668 -0.626417 -0.734256 
-486.348 304.467 563.482 0.261668 -0.626417 -0.734256 
-649.685 237.011 562.687 0.261668 -0.626417 -0.734256 
-660.543 238.395 557.654 0.261668 -0.626417 -0.734256 
-538.342 287.161 559.692 0.261668 -0.626417 -0.734256 
-501.585 295.032 566.075 0.261668 -0.626417 -0.734256 
-719.488 214.434 557.042 0.261668 -0.626417 -0.734256 
-763.039 198.317 555.243 0.261668 -0.626417 -0.734256 
-419.297 325.698 547.816 0.26596 -0.686401 0.676845 
-438.455 318.449 547.948 0.26596 -0.686401 0.676845 
-454.778 310.008 545.761 0.26596 -0.686401 0.676845 
-390.365 323.256 534.033 0.26596 -0.686401 0.676845 
-394.548 323.913 536.335 0.26596 -0.686401 0.676845 
-442.355 305.26 536.091 0.26596 -0.686401 0.676845 
-393.347 320.746 532.653 0.26596 -0.686401 0.676845 
-466.555 299.037 539.233 0.26596 -0.686401 0.676845 
-483.152 284.221 530.687 0.26596 -0.686401 0.676845 
-459.808 299.137 536.698 0.26596 -0.686401 0.676845 
-464.071 285.843 532.849 -0.261059 0.62496 0.735713 
-433.595 300.322 531.391 -0.261059 0.62496 0.735713 
-447.859 288.559 536.305 -0.261059 0.62496 0.735713 
-1435.2 -100.513 515.64 -0.261059 0.62496 0.735713 
-1391.81 -81.6332 515.034 -0.261059 0.62496 0.735713 
-648.921 202.354 538.017 -0.261059 0.62496 0.735713 
-550.406 244.077 537.616 -0.261059 0.62496 0.735713 
-737.804 164.794 538.307 -0.261059 0.62496 0.735713 
-1159.16 -3.39565 531.313 -0.261059 0.62496 0.735713 
-726.6 179.547 529.768 -0.261059 0.62496 0.735713 
-790.863 142.765 538.148 -0.261059 0.62496 0.735713 
-1033.47 51.4206 529.457 -0.261059 0.62496 0.735713 
-563.439 246.581 530.858 -0.261059 0.62496 0.735713 
-1175.71 -11.7547 532.527 -0.261059 0.62496 0.735713 
-584.511 233.33 534.617 -0.261059 0.62496 0.735713 
-704.149 185.206 532.943 -0.261059 0.62496 0.735713 
-556.977 249.776 530.443 -0.261059 0.62496 0.735713 
-962.498 73.6693 535.795 -0.261059 0.62496 0.735713 
-700.089 190.153 530.187 -0.261059 0.62496 0.735713 
-439.567 287.318 540.306 -0.261059 0.62496 0.735713 
-632.693 215.322 532.777 -0.261059 0.62496 0.735713 
-459.605 279.885 539.493 -0.261059 0.62496 0.735713 
-816.514 136.859 534.044 -0.261059 0.62496 0.735713 
-614.068 226.716 529.726 -0.261059 0.62496 0.735713 
-508.33 259.908 539.132 -0.261059 0.62496 0.735713 
-530.849 247.925 541.3 -0.261059 0.62496 0.735713 
-1185.29 -8.9463 526.736 -0.261059 0.62496 0.735713 
-1323.7 -67.3134 527.087 -0.261059 0.62496 0.735713 
-1243.33 -33.533 526.98 -0.261059 0.62496 0.735713 
-740.731 178.114 525.961 -0.261059 0.62496 0.735713 
-1300.74 -57.6065 527.008 -0.261059 0.62496 0.735713 
-712.321 187.853 527.792 -0.261059 0.62496 0.735713 
-950.873 90.4431 525.69 -0.261059 0.62496 0.735713 
-1116.7 24.0489 523.108 -0.261059 0.62496 0.735713 
-1177.77 -3.46111 524.753 -0.261059 0.62496 0.735713 
-1333.11 -68.0919 524.404 -0.261059 0.62496 0.735713 
-1371.36 -74.8119 516.513 -0.261059 0.62496 0.735713 
-1213.53 -10.2295 517.79 -0.261059 0.62496 0.735713 
-1273.57 -38.7571 520.665 -0.261059 0.62496 0.735713 
-1351.89 -67.4759 517.206 -0.261059 0.62496 0.735713 
-1419.47 -105.775 525.695 -0.261059 0.62496 0.735713 
-1330.43 -75.0847 529.72 0.26596 -0.686401 0.676845 
-474.944 224.368 499.254 0.26596 -0.686401 0.676845 
-768.028 139.619 527.793 0.26596 -0.686401 0.676845 
-763.087 150.623 537.026 0.26596 -0.686401 0.676845 
-830.342 115.532 527.704 0.26596 -0.686401 0.676845 
-460.523 232.975 502.35 0.26596 -0.686401 0.676845 
-986.33 45.1964 517.297 0.26596 -0.686401 0.676845 
-1365.81 -93.8177 524.54 0.26596 -0.686401 0.676845 
-489.079 229.686 510.172 0.26596 -0.686401 0.676845 
-739.182 143.5 520.459 0.26596 -0.686401 0.676845 
-1143.34 -2.42471 530.332 0.26596 -0.686401 0.676845 
-577.739 225.436 540.503 0.26596 -0.686401 0.676845 
-610.739 164.723 491.801 0.26596 -0.686401 0.676845 
-449.409 213.356 478.103 0.26596 -0.686401 0.676845 
-876.554 93.5361 523.445 0.26596 -0.686401 0.676845 
-868.964 97.2972 524.296 0.26596 -0.686401 0.676845 
-615.322 170.34 499.291 0.26596 -0.686401 0.676845 
-363.105 254.805 486.432 0.26596 -0.686401 0.676845 
-1369.3 -93.7547 525.969 0.26596 -0.686401 0.676845 
-498.034 221.87 505.741 0.26596 -0.686401 0.676845 
-490.205 213.696 494.39 0.26596 -0.686401 0.676845 
-550.158 201.739 505.685 0.26596 -0.686401 0.676845 
-1106.59 10.0379 528.617 0.26596 -0.686401 0.676845 
-390.535 264.31 506.794 0.26596 -0.686401 0.676845 
-1336.31 -79.9838 527.05 0.26596 -0.686401 0.676845 
-385.045 277.329 517.857 0.26596 -0.686401 0.676845 
-471.175 246.709 520.447 0.26596 -0.686401 0.676845 
-1256.52 -46.8277 529.508 0.26596 -0.686401 0.676845 
-825.342 96.5527 506.495 0.26596 -0.686401 0.676845 
-797.998 135.469 535.293 0.26596 -0.686401 0.676845 
-381.378 237.304 475.817 0.26596 -0.686401 0.676845 
-408.747 287.942 537.886 0.26596 -0.686401 0.676845 
-1080.64 5.11328 513.481 0.26596 -0.686401 0.676845 
-839.602 119.74 535.592 0.26596 -0.686401 0.676845 
-1209.99 -32.669 525.691 0.26596 -0.686401 0.676845 
-1154.27 -4.99631 531.994 0.26596 -0.686401 0.676845 
-1032.85 16.5245 506.385 0.26596 -0.686401 0.676845 
-672.418 160.872 511.996 0.26596 -0.686401 0.676845 
-909.656 59.976 502.331 0.26596 -0.686401 0.676845 
-516.754 227.933 519.207 0.26596 -0.686401 0.676845 
-1216.58 -34.7889 526.118 0.26596 -0.686401 0.676845 
-1258.5 -56.9663 519.998 0.26596 -0.686401 0.676845 
-908.019 64.825 506.611 0.26596 -0.686401 0.676845 
-503.837 226.108 512.309 0.26596 -0.686401 0.676845 
-898.542 78.4147 516.696 0.26596 -0.686401 0.676845 
-464.507 218.521 489.242 0.26596 -0.686401 0.676845 
-372.483 257.388 492.718 0.26596 -0.686401 0.676845 
-874.927 80.9259 510.016 0.26596 -0.686401 0.676845 
-704.148 138.338 501.533 0.26596 -0.686401 0.676845 
-356.713 244.002 472.974 0.26596 -0.686401 0.676845 
-1020.78 28.6211 513.941 0.26596 -0.686401 0.676845 
-449.699 255.826 521.305 0.26596 -0.686401 0.676845 
-862.945 91.8711 516.438 0.26596 -0.686401 0.676845 
-484.878 223.839 502.598 0.26596 -0.686401 0.676845 
-526.873 215.733 510.784 0.26596 -0.686401 0.676845 
-485.937 249.265 528.808 0.26596 -0.686401 0.676845 
-487.383 254.054 534.232 0.26596 -0.686401 0.676845 
-803.595 106.811 508.405 0.26596 -0.686401 0.676845 
-956.642 65.2787 526.071 0.26596 -0.686401 0.676845 
-413.174 234.009 484.898 0.26596 -0.686401 0.676845 
-764.145 132.764 519.321 0.26596 -0.686401 0.676845 
-374.425 261.703 497.854 0.26596 -0.686401 0.676845 
-1151.97 -3.21097 532.907 0.26596 -0.686401 0.676845 
-680.054 176.524 530.86 0.26596 -0.686401 0.676845 
-1048.36 27.138 523.213 0.26596 -0.686401 0.676845 
-592.945 164.412 484.533 0.26596 -0.686401 0.676845 
-1410.28 -109.397 526.11 0.26596 -0.686401 0.676845 
-1265.61 -54.0143 525.769 0.26596 -0.686401 0.676845 
-934.397 70.2708 522.443 0.26596 -0.686401 0.676845 
-464.518 257.442 528.734 0.26596 -0.686401 0.676845 
-518.46 197.282 488.777 0.26596 -0.686401 0.676845 
-592.728 201.49 522.066 0.26596 -0.686401 0.676845 
-376.5 304.443 542.026 0.26596 -0.686401 0.676845 
-1175.18 -26.1454 518.71 0.26596 -0.686401 0.676845 
-1008.54 27.9518 508.481 0.26596 -0.686401 0.676845 
-377.637 277.732 515.371 0.26596 -0.686401 0.676845 
-388.493 265.062 506.759 0.26596 -0.686401 0.676845 
-704.367 134.525 497.749 0.26596 -0.686401 0.676845 
-1043.02 19.4164 513.293 0.26596 -0.686401 0.676845 
-428.15 232.479 489.198 0.26596 -0.686401 0.676845 
-629.99 196.598 531.663 0.26596 -0.686401 0.676845 
-1006.92 43.5081 523.631 0.26596 -0.686401 0.676845 
-420.086 240.711 494.399 0.26596 -0.686401 0.676845 
-1231.71 -50.7386 515.847 0.26596 -0.686401 0.676845 
-894.019 89.3333 526.006 0.26596 -0.686401 0.676845 
-747.858 133.833 514.041 0.26596 -0.686401 0.676845 
-1003.01 28.7584 507.138 0.26596 -0.686401 0.676845 
-451.202 217.962 483.477 0.26596 -0.686401 0.676845 
-572.552 212.743 525.599 0.26596 -0.686401 0.676845 
-506.248 240.583 527.936 0.26596 -0.686401 0.676845 
-1016.84 45.0414 529.061 0.26596 -0.686401 0.676845 
-933.694 75.786 527.764 0.26596 -0.686401 0.676845 
-939.51 65.256 519.354 0.26596 -0.686401 0.676845 
-547.4 214.672 517.728 0.26596 -0.686401 0.676845 
-880.563 75.5078 506.721 0.26596 -0.686401 0.676845 
-1311.89 -88.8909 508.472 0.26596 -0.686401 0.676845 
-1119.52 -30.3002 492.744 0.26596 -0.686401 0.676845 
-1214.39 -84.4612 474.867 0.26596 -0.686401 0.676845 
-1423.73 -174.772 465.042 0.26596 -0.686401 0.676845 
-1066.74 -31.2755 471.132 0.26596 -0.686401 0.676845 
-1412.11 -133.89 501.978 0.26596 -0.686401 0.676845 
-1447.47 -183.376 465.587 0.26596 -0.686401 0.676845 
-1466.47 -172.314 484.236 0.26596 -0.686401 0.676845 
-1420.92 -138.404 500.841 0.26596 -0.686401 0.676845 
-1434.32 -122.947 521.757 0.26596 -0.686401 0.676845 
-1050.16 -6.02158 490.274 0.26596 -0.686401 0.676845 
-1228.8 -94.6996 470.109 0.26596 -0.686401 0.676845 
-1334.4 -87.002 519.183 0.26596 -0.686401 0.676845 
-979.529 20.7123 489.799 0.26596 -0.686401 0.676845 
-1396.65 -118.295 511.757 0.26596 -0.686401 0.676845 
-1446.45 -156.209 492.752 0.26596 -0.686401 0.676845 
-1263.49 -94.3352 484.033 0.26596 -0.686401 0.676845 
-1382.06 -127.237 496.986 0.26596 -0.686401 0.676845 
-966.168 35.8911 499.978 0.26596 -0.686401 0.676845 
-1192.67 -45.7793 505.626 0.26596 -0.686401 0.676845 
-1214.02 -89.1127 470.001 0.26596 -0.686401 0.676845 
-1170.41 -38.3794 504.432 0.26596 -0.686401 0.676845 
-596.235 154.4 475.661 0.26596 -0.686401 0.676845 
-1239.15 -99.5868 469.196 0.26596 -0.686401 0.676845 
-648.954 138.24 479.866 0.26596 -0.686401 0.676845 
-1405.2 -152.502 480.394 0.26596 -0.686401 0.676845 
-1362.26 -97.725 519.189 0.26596 -0.686401 0.676845 
-714.717 111.447 478.38 0.26596 -0.686401 0.676845 
-1358.82 -144.399 470.493 0.26596 -0.686401 0.676845 
-1263.45 -104.202 474.011 0.26596 -0.686401 0.676845 
-1289.75 -75.239 513.669 0.26596 -0.686401 0.676845 
-1315.94 -121.391 477.079 0.26596 -0.686401 0.676845 
-1110.14 -22.2059 497.294 0.26596 -0.686401 0.676845 
-1280.65 -117.623 467.111 0.26596 -0.686401 0.676845 
-908.12 52.993 494.646 0.26596 -0.686401 0.676845 
-1186.45 -57.0807 491.728 0.26596 -0.686401 0.676845 
-1440.98 -190.716 455.606 0.26596 -0.686401 0.676845 
-1391.14 -144.177 483.345 0.26596 -0.686401 0.676845 
-663.822 127.698 474.98 0.26596 -0.686401 0.676845 
-1389.54 -151.581 475.21 0.26596 -0.686401 0.676845 
-1483.9 -145.852 517.893 0.26596 -0.686401 0.676845 
-819.208 81.2076 488.53 0.26596 -0.686401 0.676845 
-954.087 35.2776 494.635 0.26596 -0.686401 0.676845 
-1236.04 -104.19 463.312 0.26596 -0.686401 0.676845 
-790.504 74.6476 470.658 0.26596 -0.686401 0.676845 
-698.511 108.318 468.873 0.26596 -0.686401 0.676845 
-1105.75 -37.5319 480.028 0.26596 -0.686401 0.676845 
-1360.42 -112.742 503.235 0.26596 -0.686401 0.676845 
-1168.86 -66.4279 475.373 0.26596 -0.686401 0.676845 
-986.475 15.3282 487.051 0.26596 -0.686401 0.676845 
-1456.26 -162.409 490.294 0.26596 -0.686401 0.676845 
-1422.58 -164.427 475.089 0.26596 -0.686401 0.676845 
-1132.47 -17.8228 510.463 0.26596 -0.686401 0.676845 
-913.301 44.5756 488.131 0.26596 -0.686401 0.676845 
-1268.51 -83.6325 496.855 0.26596 -0.686401 0.676845 
-1352.15 -152.817 459.345 0.26596 -0.686401 0.676845 
-1145.04 -51.0618 481.654 0.26596 -0.686401 0.676845 
-1473.06 -158.829 500.492 0.26596 -0.686401 0.676845 
-1345.87 -130.768 479.263 0.26596 -0.686401 0.676845 
-1245.95 -112.323 458.931 0.26596 -0.686401 0.676845 
-487.228 196.505 475.785 0.26596 -0.686401 0.676845 
-985.739 -1.47647 469.714 0.26596 -0.686401 0.676845 
-999.311 18.8563 495.646 0.26596 -0.686401 0.676845 
-659.424 135.975 481.659 0.26596 -0.686401 0.676845 
-1147.99 -34.4435 499.665 0.26596 -0.686401 0.676845 
-1417.69 -123.365 514.836 0.26596 -0.686401 0.676845 
-686.819 122.795 478.991 0.26596 -0.686401 0.676845 
-1021.79 -0.687286 484.601 0.26596 -0.686401 0.676845 
-685.319 131.152 486.884 0.26596 -0.686401 0.676845 
-1051.37 -10.9575 485.741 0.26596 -0.686401 0.676845 
-721.827 114.285 484.037 0.26596 -0.686401 0.676845 
-1140.39 -46.7567 484.203 0.26596 -0.686401 0.676845 
-1345.83 -151.913 457.792 0.26596 -0.686401 0.676845 
-1049.51 -6.25287 489.784 0.26596 -0.686401 0.676845 
-546.255 167.71 469.636 0.26596 -0.686401 0.676845 
-1241.65 -55.01 515.398 0.26596 -0.686401 0.676845 
-978.393 0.815033 469.169 0.26596 -0.686401 0.676845 
-1107.45 -49.2643 468.79 0.26596 -0.686401 0.676845 
-866.91 61.9117 487.592 0.26596 -0.686401 0.676845 
-1195.32 -67.2198 484.907 0.26596 -0.686401 0.676845 
-1196.72 -68.1875 484.474 0.26596 -0.686401 0.676845 
-1272.52 -90.7984 491.151 0.26596 -0.686401 0.676845 
-1360.33 -117.452 498.422 0.26596 -0.686401 0.676845 
-787.712 74.7827 469.704 0.26596 -0.686401 0.676845 
-1171.54 -31.4649 511.891 0.26596 -0.686401 0.676845 
-1012.02 -5.71811 475.681 0.26596 -0.686401 0.676845 
-1399.77 -133.973 497.071 0.26596 -0.686401 0.676845 
-1391.99 -148.273 479.525 0.26596 -0.686401 0.676845 
-997.933 26.3768 502.737 0.26596 -0.686401 0.676845 
-697.961 123.429 483.989 0.26596 -0.686401 0.676845 
-1467.84 -155.016 502.321 0.26596 -0.686401 0.676845 
-1476.4 -150.969 509.769 0.26596 -0.686401 0.676845 
-1436.64 -139.452 505.918 0.26596 -0.686401 0.676845 
-1356.31 -125.197 488.994 0.26596 -0.686401 0.676845 
-1346.47 -110.804 499.75 0.26596 -0.686401 0.676845 
-400.172 234.623 463.139 0.261668 -0.626417 -0.734256 
-398.111 236.462 462.31 0.261668 -0.626417 -0.734256 
-430.235 224.824 460.771 0.261668 -0.626417 -0.734256 
-1451.15 -186.809 447.322 0.261668 -0.626417 -0.734256 
-1402.96 -165.492 446.354 0.261668 -0.626417 -0.734256 
-1450.22 -190.933 451.152 0.261668 -0.626417 -0.734256 
-1056.02 -25.2701 450.64 0.261668 -0.626417 -0.734256 
-1229.45 -95.9269 448.976 0.261668 -0.626417 -0.734256 
-1221.68 -92.4883 448.817 0.261668 -0.626417 -0.734256 
-1305.21 -123.72 445.639 0.261668 -0.626417 -0.734256 
-1159.52 -73.1173 454.468 0.261668 -0.626417 -0.734256 
-985.975 -8.84489 461.593 0.261668 -0.626417 -0.734256 
-413.869 220.795 470.007 0.261668 -0.626417 -0.734256 
-546.378 169.385 466.55 0.261668 -0.626417 -0.734256 
-1319.61 -126.782 443.122 0.261668 -0.626417 -0.734256 
-1141.15 -70.7044 458.949 0.261668 -0.626417 -0.734256 
-1132.31 -54.5834 448.406 0.261668 -0.626417 -0.734256 
-1071.12 -41.7545 459.266 0.261668 -0.626417 -0.734256 
-600.019 148.972 464.812 0.261668 -0.626417 -0.734256 
-1097.5 -50.9452 457.689 0.261668 -0.626417 -0.734256 
-1045.33 -30.3799 458.778 0.261668 -0.626417 -0.734256 
-998.446 -14.1257 461.643 0.261668 -0.626417 -0.734256 
-987.798 -9.09001 461.154 0.261668 -0.626417 -0.734256 
-512.433 183.085 466.985 0.261668 -0.626417 -0.734256 
-1247.81 -110.248 454.606 0.261668 -0.626417 -0.734256 
-661.995 121.505 466.098 0.261668 -0.626417 -0.734256 
-864.308 49.5494 455.27 0.261668 -0.626417 -0.734256 
-1118.39 -47.5688 447.399 0.261668 -0.626417 -0.734256 
-992.061 0.245224 451.715 0.261668 -0.626417 -0.734256 
-926.767 28.7817 450.699 0.261668 -0.626417 -0.734256 
-981.005 5.82239 450.91 0.261668 -0.626417 -0.734256 
-1060.59 -24.8692 448.674 0.261668 -0.626417 -0.734256 
-849.148 60.2879 451.544 0.261668 -0.626417 -0.734256 
-561.328 167.917 462.482 0.261668 -0.626417 -0.734256 
-471.672 210.933 457.835 0.261668 -0.626417 -0.734256 
-483.797 200.295 462.555 0.261668 -0.626417 -0.734256 
-619.101 150.585 456.66 0.261668 -0.626417 -0.734256 
-675.936 126.539 456.871 0.261668 -0.626417 -0.734256 
-531.443 189.33 454.928 0.261668 -0.626417 -0.734256 
-443.345 212.213 466.816 0.261668 -0.626417 -0.734256 
-488.065 201.944 459.638 0.261668 -0.626417 -0.734256 
-444.09 216.339 446.554 0.26596 -0.686401 0.676845 
-399.421 225.32 438.211 0.26596 -0.686401 0.676845 
-409.172 234.225 451.056 0.26596 -0.686401 0.676845 
-363.871 243.498 442.763 0.26596 -0.686401 0.676845 
-354.54 232.91 428.375 0.26596 -0.686401 0.676845 
-479.401 192.102 435.761 0.26596 -0.686401 0.676845 
-441.401 211.51 440.604 0.26596 -0.686401 0.676845 
-461.273 209.52 446.35 0.26596 -0.686401 0.676845 
-402.364 223.137 437.147 0.26596 -0.686401 0.676845 
-359.105 215.323 439.758 -0.261059 0.62496 0.735713 
-429.106 201.232 426.838 -0.261059 0.62496 0.735713 
-346.609 219.864 440.344 -0.261059 0.62496 0.735713 
-1395.99 -191.646 416.673 -0.261059 0.62496 0.735713 
-1421.51 -197.891 412.905 -0.261059 0.62496 0.735713 
-1370.65 -177.753 413.886 -0.261059 0.62496 0.735713 
-605.438 128.29 426.081 -0.261059 0.62496 0.735713 
-506.975 158.25 435.646 -0.261059 0.62496 0.735713 
-817.379 38.9151 426.617 -0.261059 0.62496 0.735713 
-731.01 69.2221 431.589 -0.261059 0.62496 0.735713 
-695.321 88.3917 428.002 -0.261059 0.62496 0.735713 
-882.062 12.6182 425.949 -0.261059 0.62496 0.735713 
-721.132 71.7266 432.974 -0.261059 0.62496 0.735713 
-864.455 10.7702 433.775 -0.261059 0.62496 0.735713 
-1031.06 -52.8068 428.526 -0.261059 0.62496 0.735713 
-470.308 178.703 431.318 -0.261059 0.62496 0.735713 
-667.214 95.2589 432.163 -0.261059 0.62496 0.735713 
-526.146 160.142 427.227 -0.261059 0.62496 0.735713 
-648.055 98.6956 436.055 -0.261059 0.62496 0.735713 
-709.239 78.706 431.277 -0.261059 0.62496 0.735713 
-966.696 -27.5439 429.959 -0.261059 0.62496 0.735713 
-866.109 18.0911 426.973 -0.261059 0.62496 0.735713 
-1196.62 -121.722 428.18 -0.261059 0.62496 0.735713 
-773.377 57.8151 426.214 -0.261059 0.62496 0.735713 
-1347.09 -181.361 425.321 -0.261059 0.62496 0.735713 
-603.781 121.427 432.496 -0.261059 0.62496 0.735713 
-489.359 161.441 439.199 -0.261059 0.62496 0.735713 
-731.683 79.8002 422.371 -0.261059 0.62496 0.735713 
-850.009 27.8844 424.383 -0.261059 0.62496 0.735713 
-634.908 117.582 424.697 -0.261059 0.62496 0.735713 
-761.247 68.3103 421.617 -0.261059 0.62496 0.735713 
-771.514 61.8795 423.426 -0.261059 0.62496 0.735713 
-602.635 130.505 425.198 -0.261059 0.62496 0.735713 
-1184.05 -110.831 423.404 -0.261059 0.62496 0.735713 
-1340.02 -176.485 423.696 -0.261059 0.62496 0.735713 
-1254.24 -139.599 422.875 -0.261059 0.62496 0.735713 
-1237.9 -129.006 419.692 -0.261059 0.62496 0.735713 
-1259.91 -134.402 416.448 -0.261059 0.62496 0.735713 
-1152.31 -90.7242 417.618 -0.261059 0.62496 0.735713 
-1150.63 -90.1601 417.735 -0.261059 0.62496 0.735713 
-1263.85 -135.384 415.884 -0.261059 0.62496 0.735713 
-1245.8 -125.8 414.161 -0.261059 0.62496 0.735713 
-1227.06 -121.938 417.545 -0.261059 0.62496 0.735713 
-521.696 81.8922 372.973 0.26596 -0.686401 0.676845 
-492.744 108.513 388.668 0.26596 -0.686401 0.676845 
-482.293 127.198 403.541 0.26596 -0.686401 0.676845 
-444.258 128.037 389.53 0.26596 -0.686401 0.676845 
-412.506 154.476 403.947 0.26596 -0.686401 0.676845 
-594.21 70.515 389.765 0.26596 -0.686401 0.676845 
-899.364 -51.787 384.921 0.26596 -0.686401 0.676845 
-1096.81 -113.721 399.236 0.26596 -0.686401 0.676845 
-872.578 6.90714 434.002 0.26596 -0.686401 0.676845 
-991.037 -72.6427 399.583 0.26596 -0.686401 0.676845 
-441.754 129.902 390.444 0.26596 -0.686401 0.676845 
-979.87 -64.6467 403.332 0.26596 -0.686401 0.676845 
-882.472 -27.7756 402.681 0.26596 -0.686401 0.676845 
-808.908 -1.7634 400.327 0.26596 -0.686401 0.676845 
-371.727 203.059 437.302 0.26596 -0.686401 0.676845 
-995.846 -73.0523 401.046 0.26596 -0.686401 0.676845 
-797.783 14.332 412.309 0.26596 -0.686401 0.676845 
-629.167 82.2687 415.348 0.26596 -0.686401 0.676845 
-675.813 75.9034 427.118 0.26596 -0.686401 0.676845 
-640.49 79.7952 417.263 0.26596 -0.686401 0.676845 
-844.69 15.4158 431.738 0.26596 -0.686401 0.676845 
-414.27 105.068 354.509 0.26596 -0.686401 0.676845 
-1157.95 -107.675 429.259 0.26596 -0.686401 0.676845 
-464.503 98.6344 367.611 0.26596 -0.686401 0.676845 
-1257.69 -160.469 414.674 0.26596 -0.686401 0.676845 
-484.983 147.51 425.2 0.26596 -0.686401 0.676845 
-1042.31 -72.7881 419.471 0.26596 -0.686401 0.676845 
-660.948 65.5251 410.78 0.26596 -0.686401 0.676845 
-788.062 2.51123 396.518 0.26596 -0.686401 0.676845 
-771.245 -14.6397 372.547 0.26596 -0.686401 0.676845 
-407.138 104.94 351.593 0.26596 -0.686401 0.676845 
-1067.98 -81.9102 420.246 0.26596 -0.686401 0.676845 
-365.583 119.203 349.826 0.26596 -0.686401 0.676845 
-418.135 173.853 425.805 0.26596 -0.686401 0.676845 
-1098.81 -108.185 405.637 0.26596 -0.686401 0.676845 
-353.081 163.061 389.437 0.26596 -0.686401 0.676845 
-765.154 -6.72766 378.194 0.26596 -0.686401 0.676845 
-670.115 22.7701 370.984 0.26596 -0.686401 0.676845 
-1015.02 -81.7597 399.703 0.26596 -0.686401 0.676845 
-476.588 137.263 411.523 0.26596 -0.686401 0.676845 
-940.264 -61.6103 390.936 0.26596 -0.686401 0.676845 
-794.002 1.51697 397.83 0.26596 -0.686401 0.676845 
-453.272 90.0309 354.494 0.26596 -0.686401 0.676845 
-482.087 138.688 415.118 0.26596 -0.686401 0.676845 
-951.104 -37.1266 420.012 0.26596 -0.686401 0.676845 
-509.983 90.1573 376.781 0.26596 -0.686401 0.676845 
-775.023 11.0094 400.045 0.26596 -0.686401 0.676845 
-439.021 121.276 380.624 0.26596 -0.686401 0.676845 
-1077.96 -93.1115 412.781 0.26596 -0.686401 0.676845 
-375.226 163.823 398.863 0.26596 -0.686401 0.676845 
-1379.89 -198.604 423.73 0.26596 -0.686401 0.676845 
-681.174 78.4803 431.827 0.26596 -0.686401 0.676845 
-395.974 171.138 414.391 0.26596 -0.686401 0.676845 
-727.861 24.2721 395.073 0.26596 -0.686401 0.676845 
-551.464 111.682 414.827 0.26596 -0.686401 0.676845 
-479.943 74.243 348.897 0.26596 -0.686401 0.676845 
-1014.87 -68.6565 412.941 0.26596 -0.686401 0.676845 
-631.003 67.3846 400.965 0.26596 -0.686401 0.676845 
-656.072 52.9451 396.111 0.26596 -0.686401 0.676845 
-397.737 118.384 361.558 0.26596 -0.686401 0.676845 
-1052.94 -76.038 420.327 0.26596 -0.686401 0.676845 
-930.222 -55.1626 393.554 0.26596 -0.686401 0.676845 
-366.858 111.642 342.653 0.26596 -0.686401 0.676845 
-821.438 22.5011 429.841 0.26596 -0.686401 0.676845 
-577.442 56.5829 369.078 0.26596 -0.686401 0.676845 
-322.473 144.248 358.39 0.26596 -0.686401 0.676845 
-702.754 40.4025 401.627 0.26596 -0.686401 0.676845 
-892.674 -5.86758 428.894 0.26596 -0.686401 0.676845 
-471.246 156.554 429.007 0.26596 -0.686401 0.676845 
-629.989 94.2481 427.823 0.26596 -0.686401 0.676845 
-554.958 131.229 436.024 0.26596 -0.686401 0.676845 
-686.05 32.0632 386.639 0.26596 -0.686401 0.676845 
-1129.75 -98.0652 427.993 0.26596 -0.686401 0.676845 
-708.503 28.2746 391.569 0.26596 -0.686401 0.676845 
-432.216 124.722 381.462 0.26596 -0.686401 0.676845 
-416.199 174.409 425.613 0.26596 -0.686401 0.676845 
-794.334 36.4645 433.416 0.26596 -0.686401 0.676845 
-369.159 199.702 432.893 0.26596 -0.686401 0.676845 
-497.115 132.741 414.957 0.26596 -0.686401 0.676845 
-767.151 0.570557 386.378 0.26596 -0.686401 0.676845 
-1203.71 -127.429 427.1 0.26596 -0.686401 0.676845 
-859.4 -5.25775 416.512 0.26596 -0.686401 0.676845 
-1004.73 -86.9594 390.409 0.26596 -0.686401 0.676845 
-433.186 143.951 401.35 0.26596 -0.686401 0.676845 
-829.78 12.8525 423.311 0.26596 -0.686401 0.676845 
-414.594 135.989 386.007 0.26596 -0.686401 0.676845 
-503.25 97.4559 381.555 0.26596 -0.686401 0.676845 
-1219.94 -136.372 424.368 0.26596 -0.686401 0.676845 
-1228.99 -139.439 424.794 0.26596 -0.686401 0.676845 
-350.582 138.471 363.512 0.26596 -0.686401 0.676845 
-880.014 -6.58002 423.225 0.26596 -0.686401 0.676845 
-483.36 109.202 385.7 0.26596 -0.686401 0.676845 
-856.451 5.20367 425.973 0.26596 -0.686401 0.676845 
-720.983 55.461 424.028 0.26596 -0.686401 0.676845 
-822.662 12.1622 419.829 0.26596 -0.686401 0.676845 
-538.645 137.138 435.645 0.26596 -0.686401 0.676845 
-399.286 168.54 413.049 0.26596 -0.686401 0.676845 
-588.337 105.08 422.537 0.26596 -0.686401 0.676845 
-570.109 49.6158 359.144 0.26596 -0.686401 0.676845 
-445.266 176.21 438.798 0.26596 -0.686401 0.676845 
-378.011 126.529 362.115 0.26596 -0.686401 0.676845 
-477.017 114.483 388.58 0.26596 -0.686401 0.676845 
-842.582 17.0342 432.556 0.26596 -0.686401 0.676845 
-718.14 17.1576 384.056 0.26596 -0.686401 0.676845 
-605.808 97.3766 421.549 0.26596 -0.686401 0.676845 
-660.686 45.537 390.398 0.26596 -0.686401 0.676845 
-1003.52 -85.0249 391.897 0.26596 -0.686401 0.676845 
-631.098 101.844 435.963 0.26596 -0.686401 0.676845 
-735.443 2.71066 376.16 0.26596 -0.686401 0.676845 
-881.434 -46.3753 383.405 0.26596 -0.686401 0.676845 
-529.935 112.074 406.813 0.26596 -0.686401 0.676845 
-423.365 168.433 422.35 0.26596 -0.686401 0.676845 
-1196.61 -136.899 414.719 0.26596 -0.686401 0.676845 
-689.379 44.1654 400.219 0.26596 -0.686401 0.676845 
-524.229 138.863 431.762 0.26596 -0.686401 0.676845 
-853.326 5.38434 424.935 0.26596 -0.686401 0.676845 
-406.895 173.525 421.081 0.26596 -0.686401 0.676845 
-577.407 106.027 419.228 0.26596 -0.686401 0.676845 
-840.659 -4.89758 409.554 0.26596 -0.686401 0.676845 
-576.915 52.8806 365.116 0.26596 -0.686401 0.676845 
-755.445 31.4312 413.114 0.26596 -0.686401 0.676845 
-1167.07 -136.337 403.746 0.26596 -0.686401 0.676845 
-846.321 4.73785 421.542 0.26596 -0.686401 0.676845 
-514.833 79.227 367.587 0.26596 -0.686401 0.676845 
-1269.5 -153.522 426.335 0.26596 -0.686401 0.676845 
-964.655 -69.8077 392.15 0.26596 -0.686401 0.676845 
-389.628 134.515 374.756 0.26596 -0.686401 0.676845 
-607.986 91.7438 416.685 0.26596 -0.686401 0.676845 
-478.397 104.634 379.127 0.26596 -0.686401 0.676845 
-602.143 49.231 371.271 0.26596 -0.686401 0.676845 
-549.777 93.0082 395.223 0.26596 -0.686401 0.676845 
-1170.83 -128.223 413.447 0.26596 -0.686401 0.676845 
-389.851 157.385 398.046 0.26596 -0.686401 0.676845 
-419.832 153.093 405.407 0.26596 -0.686401 0.676845 
-762.787 49.9553 434.776 0.26596 -0.686401 0.676845 
-528.783 113.86 408.175 0.26596 -0.686401 0.676845 
-892.607 -52.157 381.905 0.26596 -0.686401 0.676845 
-1185.48 -140.443 406.773 0.26596 -0.686401 0.676845 
-953.554 -61.7113 396.027 0.26596 -0.686401 0.676845 
-481.623 92.2651 367.838 0.26596 -0.686401 0.676845 
-660.147 -8.64148 335.221 0.26596 -0.686401 0.676845 
-1239.37 -189.165 378.401 0.26596 -0.686401 0.676845 
-1302.32 -220.852 370.848 0.26596 -0.686401 0.676845 
-888.015 -85.626 346.155 0.26596 -0.686401 0.676845 
-1245.86 -222.285 347.335 0.26596 -0.686401 0.676845 
-941.559 -122.573 329.593 0.26596 -0.686401 0.676845 
-1319.73 -271.606 326.162 0.26596 -0.686401 0.676845 
-1135.48 -173.901 353.293 0.26596 -0.686401 0.676845 
-1156.6 -162.004 373.613 0.26596 -0.686401 0.676845 
-1129.52 -168.142 356.805 0.26596 -0.686401 0.676845 
-1030.66 -132.694 354.138 0.26596 -0.686401 0.676845 
-598.273 12.0946 332.082 0.26596 -0.686401 0.676845 
-977.106 -99.8461 366.54 0.26596 -0.686401 0.676845 
-993.365 -91.8609 380.994 0.26596 -0.686401 0.676845 
-1099.98 -123.689 390.363 0.26596 -0.686401 0.676845 
-947.462 -110.457 344.191 0.26596 -0.686401 0.676845 
-1302.34 -255.157 336.054 0.26596 -0.686401 0.676845 
-1098.89 -178.826 333.996 0.26596 -0.686401 0.676845 
-1401.12 -212.554 417.874 0.26596 -0.686401 0.676845 
-1353.56 -246.496 364.856 0.26596 -0.686401 0.676845 
-1326.1 -280.996 319.122 0.26596 -0.686401 0.676845 
-863.377 -58.4587 364.091 0.26596 -0.686401 0.676845 
-1091.19 -147.938 362.327 0.26596 -0.686401 0.676845 
-1078.4 -168.658 336.307 0.26596 -0.686401 0.676845 
-1255.14 -203.371 370.15 0.26596 -0.686401 0.676845 
-942.247 -92.1225 360.755 0.26596 -0.686401 0.676845 
-955.684 -129.565 328.018 0.26596 -0.686401 0.676845 
-1176.93 -148.141 395.622 0.26596 -0.686401 0.676845 
-1385.21 -302.376 320.526 0.26596 -0.686401 0.676845 
-1294.62 -184.227 404.997 0.26596 -0.686401 0.676845 
-778.11 -56.2034 333.061 0.26596 -0.686401 0.676845 
-1063.66 -170.305 328.876 0.26596 -0.686401 0.676845 
-991.544 -100.93 371.082 0.26596 -0.686401 0.676845 
-881.684 -100.985 328.098 0.26596 -0.686401 0.676845 
-952.147 -72.6159 384.414 0.26596 -0.686401 0.676845 
-470.991 74.3325 345.49 0.26596 -0.686401 0.676845 
-1339.09 -225.989 380.005 0.26596 -0.686401 0.676845 
-1235.26 -222.746 342.724 0.26596 -0.686401 0.676845 
-833.403 -44.9524 366.081 0.26596 -0.686401 0.676845 
-1349.58 -241.285 368.587 0.26596 -0.686401 0.676845 
-820.61 -72.2744 333.363 0.26596 -0.686401 0.676845 
-1099.34 -127.637 386.107 0.26596 -0.686401 0.676845 
-1128.33 -126.13 398.966 0.26596 -0.686401 0.676845 
-1055.7 -124.946 371.786 0.26596 -0.686401 0.676845 
-1160.89 -195.917 340.886 0.26596 -0.686401 0.676845 
-1072.36 -156.214 346.573 0.26596 -0.686401 0.676845 
-912.314 -109.68 331.246 0.26596 -0.686401 0.676845 
-1106.55 -120.139 396.531 0.26596 -0.686401 0.676845 
-706.748 -8.96533 353.102 0.26596 -0.686401 0.676845 
-509.287 56.9712 342.84 0.26596 -0.686401 0.676845 
-906.258 -82.2409 356.718 0.26596 -0.686401 0.676845 
-1382.52 -253.921 368.636 0.26596 -0.686401 0.676845 
-960.214 -111.529 348.087 0.26596 -0.686401 0.676845 
-1041.35 -106.166 385.232 0.26596 -0.686401 0.676845 
-1051.61 -152.677 342.051 0.26596 -0.686401 0.676845 
-848.852 -72.9531 343.709 0.26596 -0.686401 0.676845 
-994.096 -140.164 332.274 0.26596 -0.686401 0.676845 
-840.556 -86.9619 326.255 0.26596 -0.686401 0.676845 
-923.634 -110.523 334.814 0.26596 -0.686401 0.676845 
-844.529 -56.5833 358.628 0.26596 -0.686401 0.676845 
-1268 -193.356 385.334 0.26596 -0.686401 0.676845 
-1245.04 -183.448 386.417 0.26596 -0.686401 0.676845 
-1006.52 -89.0251 389.011 0.26596 -0.686401 0.676845 
-1370.44 -218.124 400.235 0.26596 -0.686401 0.676845 
-1162.32 -207.863 329.324 0.26596 -0.686401 0.676845 
-585.686 18.0993 333.255 0.26596 -0.686401 0.676845 
-829.205 -57.8825 351.323 0.26596 -0.686401 0.676845 
-1356.19 -198.397 414.681 0.26596 -0.686401 0.676845 
-1333.76 -190.176 414.257 0.26596 -0.686401 0.676845 
-1206.75 -204.335 350.264 0.26596 -0.686401 0.676845 
-767.926 -43.3883 342.083 0.26596 -0.686401 0.676845 
-941.227 -113.962 338.2 0.26596 -0.686401 0.676845 
-1005.86 -129.162 348.032 0.26596 -0.686401 0.676845 
-1231.7 -201.054 363.34 0.26596 -0.686401 0.676845 
-759.781 -51.5517 330.618 0.26596 -0.686401 0.676845 
-632.703 5.01315 338.351 0.26596 -0.686401 0.676845 
-1205.55 -206.638 347.459 0.26596 -0.686401 0.676845 
-856.176 -57.3897 362.361 0.26596 -0.686401 0.676845 
-954.255 -119.699 337.47 0.26596 -0.686401 0.676845 
-981.657 -103.691 364.418 0.26596 -0.686401 0.676845 
-959.827 -116.346 343.048 0.26596 -0.686401 0.676845 
-630.357 20.5728 353.22 0.26596 -0.686401 0.676845 
-1427.42 -249.663 390.5 0.26596 -0.686401 0.676845 
-552.67 36.1644 338.683 0.26596 -0.686401 0.676845 
-600.246 9.78616 330.511 0.26596 -0.686401 0.676845 
-1147.13 -151.897 380.166 0.26596 -0.686401 0.676845 
-1370.1 -229.009 389.059 0.26596 -0.686401 0.676845 
-1143.96 -177.979 352.469 0.26596 -0.686401 0.676845 
-1405.73 -256.658 374.931 0.26596 -0.686401 0.676845 
-1296.65 -193 396.889 0.26596 -0.686401 0.676845 
-395.239 98.7651 340.679 0.26596 -0.686401 0.676845 
-750.646 -48.5977 330.046 0.26596 -0.686401 0.676845 
-1359.02 -198.059 416.13 0.26596 -0.686401 0.676845 
-873.405 -99.8845 325.98 0.26596 -0.686401 0.676845 
-1392.83 -283.028 343.136 0.26596 -0.686401 0.676845 
-1343.26 -214.353 393.441 0.26596 -0.686401 0.676845 
-810.584 -67.0988 334.696 0.26596 -0.686401 0.676845 
-720.315 -31.836 335.199 0.26596 -0.686401 0.676845 
-1185.44 -176.753 369.918 0.26596 -0.686401 0.676845 
-1267.23 -192.808 385.59 0.26596 -0.686401 0.676845 
-1051.37 -113.013 382.201 0.26596 -0.686401 0.676845 
-577.025 30.2841 342.233 0.26596 -0.686401 0.676845 
-1218.79 -184.101 375.495 0.26596 -0.686401 0.676845 
-1286.28 -257.657 327.242 0.26596 -0.686401 0.676845 
-1327.61 -267.219 333.691 0.26596 -0.686401 0.676845 
-1253.85 -221.131 351.629 0.26596 -0.686401 0.676845 
-861.772 -60.7464 361.142 0.26596 -0.686401 0.676845 
-1299.57 -239.633 350.721 0.26596 -0.686401 0.676845 
-1006.47 -119.489 358.085 0.26596 -0.686401 0.676845 
-849.775 -65.1107 352.027 0.26596 -0.686401 0.676845 
-604.031 21.3585 343.73 0.26596 -0.686401 0.676845 
-799.673 -56.0658 341.626 0.26596 -0.686401 0.676845 
-1027.02 -131.567 353.86 0.26596 -0.686401 0.676845 
-913.116 -71.9738 369.814 0.26596 -0.686401 0.676845 
-1406.21 -282.375 349.025 0.26596 -0.686401 0.676845 
-1106.74 -121.4 395.328 0.26596 -0.686401 0.676845 
-860.462 -53.2408 368.245 0.26596 -0.686401 0.676845 
-1216.54 -221.063 337.117 0.26596 -0.686401 0.676845 
-1082.21 -116.377 390.839 0.26596 -0.686401 0.676845 
-1162.81 -145.998 392.28 0.26596 -0.686401 0.676845 
-1028.04 -116.309 369.74 0.26596 -0.686401 0.676845 
-828.197 -49.1161 359.823 0.26596 -0.686401 0.676845 
-752.658 -22.8335 356.971 0.26596 -0.686401 0.676845 
-920.187 -74.3843 370.131 0.26596 -0.686401 0.676845 
-1103 -127.323 387.857 0.26596 -0.686401 0.676845 
-875.794 -83.8475 343.184 0.26596 -0.686401 0.676845 
-1200.66 -207.604 344.568 0.26596 -0.686401 0.676845 
-613.471 17.2852 343.286 0.26596 -0.686401 0.676845 
-754.07 -21.9031 358.467 0.26596 -0.686401 0.676845 
-759.338 -37.5096 344.691 0.26596 -0.686401 0.676845 
-1288.61 -192.084 394.679 0.26596 -0.686401 0.676845 
-1206.01 -155.721 399.297 0.26596 -0.686401 0.676845 
-744.388 -12.9445 363.772 0.26596 -0.686401 0.676845 
-1050.62 -111.915 383.02 0.26596 -0.686401 0.676845 
-510.346 62.1765 348.535 0.26596 -0.686401 0.676845 
-1047.2 -111.776 381.827 0.26596 -0.686401 0.676845 
-1308.35 -223.809 370.204 0.26596 -0.686401 0.676845 
-667.393 -4.4209 342.334 0.26596 -0.686401 0.676845 
-608.929 33.6329 358.097 0.26596 -0.686401 0.676845 
-1008.75 -116.851 361.651 0.26596 -0.686401 0.676845 
-1426.66 -221.738 230.87 0.261668 -0.626417 -0.734256 
-1383.11 -231.576 254.699 0.261668 -0.626417 -0.734256 
-1361.62 -228.498 259.721 0.261668 -0.626417 -0.734256 
-1416.9 -271.067 276.208 0.261668 -0.626417 -0.734256 
-1374.33 -288.729 306.329 0.261668 -0.626417 -0.734256 
-1351.94 -238.78 271.89 0.261668 -0.626417 -0.734256 
-1384.27 -267.709 284.954 0.261668 -0.626417 -0.734256 
-1434.44 -261.274 261.663 0.261668 -0.626417 -0.734256 
-1355.45 -246.097 276.852 0.261668 -0.626417 -0.734256 
-1323.49 -252.415 293.573 0.261668 -0.626417 -0.734256 
-1374.44 -251.158 274.402 0.261668 -0.626417 -0.734256 
-1369.67 -242.098 268.406 0.261668 -0.626417 -0.734256 
-1365.52 -256.833 282.388 0.261668 -0.626417 -0.734256 
-1399.44 -255.273 269.008 0.261668 -0.626417 -0.734256 
-1394.47 -243.126 260.465 0.261668 -0.626417 -0.734256 
-1383.39 -291.88 305.785 0.261668 -0.626417 -0.734256 
-1437.83 -255.157 255.266 0.261668 -0.626417 -0.734256 
-1386.99 -206.91 232.382 0.261668 -0.626417 -0.734256 
-1337.75 -229.04 268.667 0.261668 -0.626417 -0.734256 
-1331.62 -209.488 254.251 0.261668 -0.626417 -0.734256 
-1336.47 -206.59 250.068 0.261668 -0.626417 -0.734256 
-1434.41 -214.786 222.214 0.261668 -0.626417 -0.734256 
-1333.93 -212.562 256.039 0.261668 -0.626417 -0.734256 
-1332.41 -212.272 256.331 0.261668 -0.626417 -0.734256 
-1363.37 -218.169 250.334 0.261668 -0.626417 -0.734256 
-1312.22 -207.83 259.739 0.261668 -0.626417 -0.734256 
-1306.47 -253.479 300.526 0.261668 -0.626417 -0.734256 
-1369.19 -288.061 307.587 0.261668 -0.626417 -0.734256 
-1300.32 -240.305 291.529 0.261668 -0.626417 -0.734256 
-1385.34 -195.987 223.699 0.261668 -0.626417 -0.734256 
-1231.08 -142.82 233.397 0.261668 -0.626417 -0.734256 
-1307.43 -166.123 226.041 0.261668 -0.626417 -0.734256 
-1315.18 -174.317 230.239 0.261668 -0.626417 -0.734256 
-1308.66 -169.122 228.149 0.261668 -0.626417 -0.734256 
-1309.43 -173.359 231.472 0.261668 -0.626417 -0.734256 
-920.348 -33.3973 250.954 0.261668 -0.626417 -0.734256 
-926.419 -39.0308 253.578 0.261668 -0.626417 -0.734256 
-907.597 -57.2343 275.719 0.261668 -0.626417 -0.734256 
-899.413 -50.4323 272.854 0.261668 -0.626417 -0.734256 
-938.865 -39.4142 249.48 0.261668 -0.626417 -0.734256 
-919.176 -59.1609 273.239 0.261668 -0.626417 -0.734256 
-926.359 -33.5843 248.977 0.261668 -0.626417 -0.734256 
-947.944 -42.7814 249.112 0.261668 -0.626417 -0.734256 
-927.962 -31.9944 247.057 0.261668 -0.626417 -0.734256 
-839.6 -41.3646 286.415 0.261668 -0.626417 -0.734256 
-860.838 -50.7226 286.81 0.261668 -0.626417 -0.734256 
-813.828 -29.7404 285.708 0.261668 -0.626417 -0.734256 
-814.606 -34.4525 289.431 0.261668 -0.626417 -0.734256 
-867.875 -30.3667 267.031 0.261668 -0.626417 -0.734256 
-850.659 -37.7574 279.423 0.261668 -0.626417 -0.734256 
-808.601 -34.5031 291.608 0.261668 -0.626417 -0.734256 
-860.833 -28.9793 268.356 0.261668 -0.626417 -0.734256 
-856.232 -27.2747 268.545 0.261668 -0.626417 -0.734256 
-928.182 -90.698 296.806 0.261668 -0.626417 -0.734256 
-893.218 -91.2836 309.729 0.261668 -0.626417 -0.734256 
-900.785 -93.4508 308.879 0.261668 -0.626417 -0.734256 
-826.468 -53.8574 301.685 0.261668 -0.626417 -0.734256 
-922.453 -87.0411 295.738 0.261668 -0.626417 -0.734256 
-829.524 -49.2129 296.657 0.261668 -0.626417 -0.734256 
-452.065 141.428 268.995 0.261668 -0.626417 -0.734256 
-423.337 169.06 255.751 0.261668 -0.626417 -0.734256 
-432.149 144.989 273.051 0.261668 -0.626417 -0.734256 
-383.735 188.219 253.564 0.261668 -0.626417 -0.734256 
-380.902 186.456 256.068 0.261668 -0.626417 -0.734256 
-429.738 148.443 270.976 0.261668 -0.626417 -0.734256 
-397.09 168.475 265.577 0.261668 -0.626417 -0.734256 
-359.808 214.92 239.405 0.261668 -0.626417 -0.734256 
-405.768 160.81 268.998 0.261668 -0.626417 -0.734256 
-546.018 129.887 245.4 0.261668 -0.626417 -0.734256 
-520.194 142.612 243.777 0.261668 -0.626417 -0.734256 
-524.971 142.141 242.479 0.261668 -0.626417 -0.734256 
-645.122 87.5088 246.148 0.261668 -0.626417 -0.734256 
-466.051 170.791 239.102 0.261668 -0.626417 -0.734256 
-458.497 170.935 241.664 0.261668 -0.626417 -0.734256 
-545.425 130.099 245.431 0.261668 -0.626417 -0.734256 
-866.996 -0.815887 242.261 0.261668 -0.626417 -0.734256 
-787.517 34.3999 240.618 0.261668 -0.626417 -0.734256 
-954.447 -24.8985 231.622 0.261668 -0.626417 -0.734256 
-965.87 -30.4914 232.309 0.261668 -0.626417 -0.734256 
-827.11 28.086 231.905 0.261668 -0.626417 -0.734256 
-1001.86 -51.016 236.938 0.261668 -0.626417 -0.734256 
-842.226 19.021 234.227 0.261668 -0.626417 -0.734256 
-958.348 -32.2259 236.455 0.261668 -0.626417 -0.734256 
-1002.45 -40.4167 227.733 0.261668 -0.626417 -0.734256 
-626.405 108.238 235.206 0.261668 -0.626417 -0.734256 
-1033.19 -62.3232 235.401 0.261668 -0.626417 -0.734256 
-1171.13 -115.592 231.591 0.261668 -0.626417 -0.734256 
-1078.98 -78.7943 233.107 0.261668 -0.626417 -0.734256 
-1020.16 -52.6544 231.825 0.261668 -0.626417 -0.734256 
-807.857 33.5898 234.077 0.261668 -0.626417 -0.734256 
-1092.31 -86.1214 234.59 0.261668 -0.626417 -0.734256 
-767.082 49.2364 235.288 0.261668 -0.626417 -0.734256 
-1016.08 -44.3752 226.248 0.261668 -0.626417 -0.734256 
-1070.68 -69.2684 227.974 0.261668 -0.626417 -0.734256 
-905.553 -14.118 239.849 0.261668 -0.626417 -0.734256 
-929.587 -23.8511 239.568 0.261668 -0.626417 -0.734256 
-1196.05 -122.698 228.767 0.261668 -0.626417 -0.734256 
-646.605 96.6996 237.82 0.261668 -0.626417 -0.734256 
-386.957 108.867 319.772 0.261668 -0.626417 -0.734256 
-402.08 104.193 318.364 0.261668 -0.626417 -0.734256 
-379.818 170.105 270.331 0.261668 -0.626417 -0.734256 
-355.814 166.601 281.837 0.261668 -0.626417 -0.734256 
-319.859 174.22 288.148 0.261668 -0.626417 -0.734256 
-315.418 156.473 304.789 0.261668 -0.626417 -0.734256 
-358.817 189.787 261.089 0.261668 -0.626417 -0.734256 
-398.058 152.494 278.797 0.261668 -0.626417 -0.734256 
-331.223 131.285 320.552 0.261668 -0.626417 -0.734256 
-386.815 139.588 293.747 0.261668 -0.626417 -0.734256 
-336.787 141.914 309.552 0.261668 -0.626417 -0.734256 
-373.605 135.223 302.146 0.261668 -0.626417 -0.734256 
-356.414 139.702 304.455 0.261668 -0.626417 -0.734256 
-368.586 161.466 281.655 0.261668 -0.626417 -0.734256 
-398.181 127.713 299.787 0.261668 -0.626417 -0.734256 
-347.54 134.816 311.756 0.261668 -0.626417 -0.734256 
-330.294 133.338 319.139 0.261668 -0.626417 -0.734256 
-367.292 127.928 310.582 0.261668 -0.626417 -0.734256 
-341.426 157.144 294.977 0.261668 -0.626417 -0.734256 
-1066.06 -175.355 319.658 0.261668 -0.626417 -0.734256 
-599.135 13.6881 325.149 0.261668 -0.626417 -0.734256 
-761.671 -52.82 323.834 0.261668 -0.626417 -0.734256 
-1392.85 -308.548 316.568 0.261668 -0.626417 -0.734256 
-1082.16 -183.678 321.002 0.261668 -0.626417 -0.734256 
-787.464 -58.437 319.435 0.261668 -0.626417 -0.734256 
-897.963 -105.561 320.161 0.261668 -0.626417 -0.734256 
-512.048 58.051 318.446 0.261668 -0.626417 -0.734256 
-494.736 58.0536 324.596 0.261668 -0.626417 -0.734256 
-769.004 -56.8008 324.607 0.261668 -0.626417 -0.734256 
-1246.76 -248.91 317.871 0.261668 -0.626417 -0.734256 
-425.465 84.654 326.637 0.261668 -0.626417 -0.734256 
-1055.34 -168.225 317.416 0.261668 -0.626417 -0.734256 
-503.999 63.2077 316.929 0.261668 -0.626417 -0.734256 
-800.623 -62.4258 318.144 0.261668 -0.626417 -0.734256 
-995.165 -144.401 318.582 0.261668 -0.626417 -0.734256 
-770.149 -48.4326 317.097 0.261668 -0.626417 -0.734256 
-371.725 107.837 326.059 0.261668 -0.626417 -0.734256 
-603.87 14.3908 322.87 0.261668 -0.626417 -0.734256 
-648.706 1.63614 317.761 0.261668 -0.626417 -0.734256 
-698.621 -30.8177 327.567 0.261668 -0.626417 -0.734256 
-756.147 -40.9636 315.734 0.261668 -0.626417 -0.734256 
-930.917 -115.271 316.691 0.261668 -0.626417 -0.734256 
-531.257 52.7079 316.154 0.261668 -0.626417 -0.734256 
-637.895 10.7757 313.846 0.261668 -0.626417 -0.734256 
-1158.01 -210.254 316.603 0.261668 -0.626417 -0.734256 
-855.727 -78.9419 312.578 0.261668 -0.626417 -0.734256 
-836.2 -73.3686 314.787 0.261668 -0.626417 -0.734256 
-1152.55 -203.816 313.076 0.261668 -0.626417 -0.734256 
-1188.14 -219.553 313.787 0.261668 -0.626417 -0.734256 
-1234.88 -232.928 308.527 0.261668 -0.626417 -0.734256 
-1065.88 -162.771 309.043 0.261668 -0.626417 -0.734256 
-1263.54 -247.61 310.801 0.261668 -0.626417 -0.734256 
-1214.35 -229.096 312.572 0.261668 -0.626417 -0.734256 
-1312.73 -267.027 309.8 0.261668 -0.626417 -0.734256 
-1292.78 -253.801 305.664 0.261668 -0.626417 -0.734256 
-1332.31 -274.248 308.973 0.261668 -0.626417 -0.734256 
-1431.93 -144.412 286.334 -0.262429 0.685497 -0.679135 
-1409.99 -195.667 225.764 -0.262429 0.685497 -0.679135 
-947.816 20.6359 264.62 -0.262429 0.685497 -0.679135 
-945.903 -6.68054 236.158 -0.262429 0.685497 -0.679135 
-1420.11 -182.208 243.371 -0.262429 0.685497 -0.679135 
-1263.53 -121.874 243.402 -0.262429 0.685497 -0.679135 
-1431.74 -162.272 268.141 -0.262429 0.685497 -0.679135 
-851.176 27.4639 233.785 -0.262429 0.685497 -0.679135 
-767.366 72.3273 246.553 -0.262429 0.685497 -0.679135 
-1110.68 -36.8907 269.895 -0.262429 0.685497 -0.679135 
-584.965 140.238 244.179 -0.262429 0.685497 -0.679135 
-1231.55 -83.1393 270.203 -0.262429 0.685497 -0.679135 
-1355.33 -164.025 236.505 -0.262429 0.685497 -0.679135 
-1379.58 -157.017 253.093 -0.262429 0.685497 -0.679135 
-1026.84 -22.4772 251.758 -0.262429 0.685497 -0.679135 
-1338.31 -118.218 276.331 -0.262429 0.685497 -0.679135 
-1090.26 -53.9725 244.584 -0.262429 0.685497 -0.679135 
-1079.81 -64.2981 230.025 -0.262429 0.685497 -0.679135 
-1034.06 -26.1141 250.889 -0.262429 0.685497 -0.679135 
-900.02 23.7925 249.146 -0.262429 0.685497 -0.679135 
-823.011 53.8466 249.546 -0.262429 0.685497 -0.679135 
-1211.6 -120.972 224.024 -0.262429 0.685497 -0.679135 
-1409.21 -163.289 258.306 -0.262429 0.685497 -0.679135 
-1184.48 -90.2663 244.579 -0.262429 0.685497 -0.679135 
-772.709 75.1703 251.525 -0.262429 0.685497 -0.679135 
-948.447 11.8848 255.988 -0.262429 0.685497 -0.679135 
-1391.57 -161.46 253.269 -0.262429 0.685497 -0.679135 
-1429.38 -179.346 249.898 -0.262429 0.685497 -0.679135 
-1422.55 -177.791 248.806 -0.262429 0.685497 -0.679135 
-1409.93 -194.979 226.437 -0.262429 0.685497 -0.679135 
-1453.73 -196.789 241.715 -0.262429 0.685497 -0.679135 
-1266.85 -106.999 259.79 -0.262429 0.685497 -0.679135 
-690.151 91.8094 236.147 -0.262429 0.685497 -0.679135 
-1373.39 -144.174 263.705 -0.262429 0.685497 -0.679135 
-801.916 53.3103 240.759 -0.262429 0.685497 -0.679135 
-1262.28 -85.3204 279.998 -0.262429 0.685497 -0.679135 
-1459.98 -188.909 252.151 -0.262429 0.685497 -0.679135 
-757.099 78.0857 248.383 -0.262429 0.685497 -0.679135 
-772.081 71.1619 247.213 -0.262429 0.685497 -0.679135 
-974.319 -2.33395 251.671 -0.262429 0.685497 -0.679135 
-1276.58 -119.172 251.241 -0.262429 0.685497 -0.679135 
-737.369 79.1713 241.775 -0.262429 0.685497 -0.679135 
-1343.21 -141.373 254.75 -0.262429 0.685497 -0.679135 
-974.649 -23.3416 230.487 -0.262429 0.685497 -0.679135 
-1207.82 -83.4876 260.578 -0.262429 0.685497 -0.679135 
-1440.73 -154.424 279.618 -0.262429 0.685497 -0.679135 
-1243.19 -100.424 257.213 -0.262429 0.685497 -0.679135 
-1313.05 -162.13 221.908 -0.262429 0.685497 -0.679135 
-1091.82 -41.3606 257.992 -0.262429 0.685497 -0.679135 
-1058.86 -30.7261 255.902 -0.262429 0.685497 -0.679135 
-885.391 34.9623 254.762 -0.262429 0.685497 -0.679135 
-1055.49 -32.0083 253.283 -0.262429 0.685497 -0.679135 
-1362.15 -155.975 247.339 -0.262429 0.685497 -0.679135 
-1301.32 -100.524 279.827 -0.262429 0.685497 -0.679135 
-1453.73 -169.421 269.48 -0.262429 0.685497 -0.679135 
-1204.89 -98.8301 243.867 -0.262429 0.685497 -0.679135 
-1307.44 -118.098 264.39 -0.262429 0.685497 -0.679135 
-888.992 36.5228 257.752 -0.262429 0.685497 -0.679135 
-1376.54 -127.48 281.871 -0.262429 0.685497 -0.679135 
-1030.94 -42.053 233.499 -0.262429 0.685497 -0.679135 
-1219.91 -70.7617 278.211 -0.262429 0.685497 -0.679135 
-951.341 19.4539 264.797 -0.262429 0.685497 -0.679135 
-573.632 139.623 239.127 -0.262429 0.685497 -0.679135 
-945.042 -6.8735 235.626 -0.262429 0.685497 -0.679135 
-1144.92 -74.3647 245.254 -0.262429 0.685497 -0.679135 
-1375.89 -132.989 276.027 -0.262429 0.685497 -0.679135 
-781.598 59.7205 239.324 -0.262429 0.685497 -0.679135 
-423.189 197.875 239.442 -0.262429 0.685497 -0.679135 
-1258.29 -118.131 245.15 -0.262429 0.685497 -0.679135 
-1294.97 -147.871 229.312 -0.262429 0.685497 -0.679135 
-847.028 35.7044 240.525 -0.262429 0.685497 -0.679135 
-1135.18 -83.0764 232.608 -0.262429 0.685497 -0.679135 
-1140.22 -93.3495 224.157 -0.262429 0.685497 -0.679135 
-1257.04 -85.6545 277.612 -0.262429 0.685497 -0.679135 
-1186.4 -85.4272 250.24 -0.262429 0.685497 -0.679135 
-1043.41 -15.3369 265.475 -0.262429 0.685497 -0.679135 
-1048.26 -53.0266 229.134 -0.262429 0.685497 -0.679135 
-1279.32 -143.94 227.183 -0.262429 0.685497 -0.679135 
-1213.64 -76.6518 269.785 -0.262429 0.685497 -0.679135 
-1468.23 -176.79 267.672 -0.262429 0.685497 -0.679135 
-1044.65 -53.51 227.232 -0.262429 0.685497 -0.679135 
-1377.8 -131.619 278.165 -0.262429 0.685497 -0.679135 
-1079.57 -34.3246 260.343 -0.262429 0.685497 -0.679135 
-1409.55 -190.502 230.83 -0.262429 0.685497 -0.679135 
-1110.81 -68.8762 237.495 -0.262429 0.685497 -0.679135 
-1102.56 -65.5999 237.596 -0.262429 0.685497 -0.679135 
-1425.23 -164.836 262.996 -0.262429 0.685497 -0.679135 
-918.725 25.7833 258.474 -0.262429 0.685497 -0.679135 
-546.038 144.718 233.513 -0.262429 0.685497 -0.679135 
-992.512 -23.3243 237.484 -0.262429 0.685497 -0.679135 
-1406.32 -190.291 229.781 -0.262429 0.685497 -0.679135 
-1096.01 -34.3716 266.718 -0.262429 0.685497 -0.679135 
-633.84 119.067 241.798 -0.262429 0.685497 -0.679135 
-1116.81 -79.6911 228.866 -0.262429 0.685497 -0.679135 
-945.911 14.3167 257.464 -0.262429 0.685497 -0.679135 
-432.311 236.871 282.569 -0.262429 0.685497 -0.679135 
-365.485 239.912 259.542 -0.262429 0.685497 -0.679135 
-854.78 60.0342 268.237 -0.262429 0.685497 -0.679135 
-765.78 87.5342 261.361 -0.262429 0.685497 -0.679135 
-625.663 142.884 262.766 -0.262429 0.685497 -0.679135 
-1254.83 -68.8832 293.762 -0.262429 0.685497 -0.679135 
-548.911 190.844 281.434 -0.262429 0.685497 -0.679135 
-531.648 199.685 283.657 -0.262429 0.685497 -0.679135 
-352.171 223.553 237.743 -0.262429 0.685497 -0.679135 
