ply
format ascii 1.0
comment Created by CloudCompare v2.11.3 (Anoia)
comment Created 08/09/2022 00:20
obj_info Generated by CloudCompare!
element vertex 898
property float x
property float y
property float z
property float nx
property float ny
property float nz
end_header
-1943.08 -239.771 -259.741 -0.28365 0.6939 -0.66185 
-1964.74 -145.488 -151.269 -0.28365 0.6939 -0.66185 
-2106.21 -178.62 -125.392 -0.28365 0.6939 -0.66185 
-1888.72 -113.469 -150.223 -0.28365 0.6939 -0.66185 
-1684.59 -76.0573 -198.495 -0.28365 0.6939 -0.66185 
-1894.77 78.103 53.8857 -0.28365 0.6939 -0.66185 
-1817.12 -178.038 -248.876 -0.28365 0.6939 -0.66185 
-1820.81 -157.261 -225.436 -0.28365 0.6939 -0.66185 
-1653.35 165.501 42.1855 -0.28365 0.6939 -0.66185 
-1603.5 467.972 338.945 -0.28365 0.6939 -0.66185 
-1939.92 -62.1241 -74.2373 -0.28365 0.6939 -0.66185 
-1969.88 -43.5369 -41.8256 -0.28365 0.6939 -0.66185 
-1765.56 -251.354 -348.128 -0.28365 0.6939 -0.66185 
-1723.64 207.565 116.602 -0.28365 0.6939 -0.66185 
-1912.25 105.865 90.5901 -0.28365 0.6939 -0.66185 
-1780.82 95.7527 23.537 -0.28365 0.6939 -0.66185 
-1695 -74.5661 -192.457 -0.28365 0.6939 -0.66185 
-1988.54 -101.298 -94.5721 -0.28365 0.6939 -0.66185 
-1886.29 -83.1765 -119.402 -0.28365 0.6939 -0.66185 
-1698.35 70.4871 -38.4396 -0.28365 0.6939 -0.66185 
-1837.45 151.751 106.748 -0.28365 0.6939 -0.66185 
-1518.75 -178.298 -377.228 -0.28365 0.6939 -0.66185 
-1880.07 -27.9353 -63.9641 -0.28365 0.6939 -0.66185 
-1576.13 323.249 174.968 -0.28365 0.6939 -0.66185 
-2081.44 -149.875 -105.791 -0.28365 0.6939 -0.66185 
-1809.67 211.081 157.233 -0.28365 0.6939 -0.66185 
-1874.28 76.4469 43.3475 -0.28365 0.6939 -0.66185 
-1772.21 222.125 152.768 -0.28365 0.6939 -0.66185 
-1688.43 -244.443 -373.97 -0.28365 0.6939 -0.66185 
-1973.16 -221.428 -227.536 -0.28365 0.6939 -0.66185 
-1543.07 134.634 -37.621 -0.28365 0.6939 -0.66185 
-1881.11 -86.4236 -125.041 -0.28365 0.6939 -0.66185 
-1571.1 30.4708 -135.157 -0.28365 0.6939 -0.66185 
-1887.74 -214.956 -257.393 -0.28365 0.6939 -0.66185 
-1953.16 125.621 128.934 -0.28365 0.6939 -0.66185 
-1898.08 185.684 168.466 -0.28365 0.6939 -0.66185 
-1614.66 302.213 169.38 -0.28365 0.6939 -0.66185 
-1625.27 -75.7599 -223.646 -0.28365 0.6939 -0.66185 
-1876.23 -78.822 -119.139 -0.28365 0.6939 -0.66185 
-1677.98 -301.628 -438.606 -0.28365 0.6939 -0.66185 
-1604.03 321.651 185.262 -0.28365 0.6939 -0.66185 
-1589.15 -82.3339 -246.067 -0.28365 0.6939 -0.66185 
-2105.77 -163.183 -109.344 -0.28365 0.6939 -0.66185 
-1575.97 234.591 81.6415 -0.28365 0.6939 -0.66185 
-1701.75 263.535 166.08 -0.28365 0.6939 -0.66185 
-1843.87 77.7461 31.6619 -0.28365 0.6939 -0.66185 
-1618.45 -142.049 -296.303 -0.28365 0.6939 -0.66185 
-1559.85 48.3488 -121.182 -0.28365 0.6939 -0.66185 
-2127.05 -155.675 -92.3107 -0.28365 0.6939 -0.66185 
-1589 338.213 196.231 -0.28365 0.6939 -0.66185 
-1770.5 -36.0875 -119.574 -0.28365 0.6939 -0.66185 
-1646.27 -292.846 -442.977 -0.28365 0.6939 -0.66185 
-1898.93 77.5618 55.1031 -0.28365 0.6939 -0.66185 
-1608.78 -172.67 -332.663 -0.28365 0.6939 -0.66185 
-1680.97 347.699 245.69 -0.28365 0.6939 -0.66185 
-1773.75 52.7187 -24.7648 -0.28365 0.6939 -0.66185 
-1542.59 0.132202 -179.307 -0.28365 0.6939 -0.66185 
-1728.41 54.8366 -42.0024 -0.28365 0.6939 -0.66185 
-2058.62 -125.99 -90.4601 -0.28365 0.6939 -0.66185 
-1765.06 280.027 210.604 -0.28365 0.6939 -0.66185 
-1519.45 -169.711 -367.894 -0.28365 0.6939 -0.66185 
-1586.39 -184.532 -354.753 -0.28365 0.6939 -0.66185 
-1887.4 -220.798 -263.688 -0.28365 0.6939 -0.66185 
-1767.95 252.694 183.096 -0.28365 0.6939 -0.66185 
-1469.75 -347.322 -576.053 -0.28365 0.6939 -0.66185 
-1833.92 -246.672 -313.858 -0.28365 0.6939 -0.66185 
-2039.59 -176.082 -151.322 -0.28365 0.6939 -0.66185 
-1866.5 -109.47 -155.555 -0.28365 0.6939 -0.66185 
-1528.69 -266.09 -465.309 -0.28365 0.6939 -0.66185 
-1861.46 -202.82 -255.908 -0.28365 0.6939 -0.66185 
-1609.62 320.042 185.971 -0.28365 0.6939 -0.66185 
-1636.85 37.5515 -99.4857 -0.28365 0.6939 -0.66185 
-2047.32 -133.699 -103.42 -0.28365 0.6939 -0.66185 
-1735.61 111.652 20.8544 -0.28365 0.6939 -0.66185 
-1535.17 -119.623 -308.461 -0.28365 0.6939 -0.66185 
-1586.7 115.399 -39.1254 -0.28365 0.6939 -0.66185 
-1803.37 -115.627 -189.13 -0.28365 0.6939 -0.66185 
-1684.41 -116.251 -240.852 -0.28365 0.6939 -0.66185 
-1755.05 263.051 188.451 -0.28365 0.6939 -0.66185 
-1895.84 -200.049 -238.238 -0.28365 0.6939 -0.66185 
-1706.84 40.9635 -65.8522 -0.28365 0.6939 -0.66185 
-1837.92 93.8346 46.0287 -0.28365 0.6939 -0.66185 
-2097.32 -96.8027 -43.1471 -0.28365 0.6939 -0.66185 
-1686.65 -35.3123 -154.753 -0.28365 0.6939 -0.66185 
-1796.67 100.312 35.135 -0.28365 0.6939 -0.66185 
-1534.94 -64.8388 -250.931 -0.28365 0.6939 -0.66185 
-1705.55 347.428 255.958 -0.28365 0.6939 -0.66185 
-1968.63 -154.121 -158.68 -0.28365 0.6939 -0.66185 
-1658.54 -163.115 -301.252 -0.28365 0.6939 -0.66185 
-1892.19 -177.645 -216.238 -0.28365 0.6939 -0.66185 
-1550.69 -33.8201 -211.543 -0.28365 0.6939 -0.66185 
-1772.48 147.197 74.0668 -0.28365 0.6939 -0.66185 
-1901.93 135.288 117.11 -0.28365 0.6939 -0.66185 
-1655.47 209.915 89.8113 -0.28365 0.6939 -0.66185 
-1845.54 -76.202 -129.56 -0.28365 0.6939 -0.66185 
-1727.11 78.1389 -18.0491 -0.28365 0.6939 -0.66185 
-1787.76 94.0613 24.7362 -0.28365 0.6939 -0.66185 
-1775.32 -27.7997 -108.787 -0.28365 0.6939 -0.66185 
-1893.77 -110.54 -144.976 -0.28365 0.6939 -0.66185 
-1657.55 -150.75 -288.668 -0.28365 0.6939 -0.66185 
-1658.94 179.777 59.6001 -0.28365 0.6939 -0.66185 
-1568.13 -36.0439 -206.396 -0.28365 0.6939 -0.66185 
-1708.46 -301.169 -425.037 -0.28365 0.6939 -0.66185 
-1758.06 18.7972 -67.1807 -0.28365 0.6939 -0.66185 
-1763.31 113.501 34.6857 -0.28365 0.6939 -0.66185 
-1653.62 168.55 45.5076 -0.28365 0.6939 -0.66185 
-1690.03 -52.2619 -171.131 -0.28365 0.6939 -0.66185 
-1889.21 -75.0239 -109.571 -0.28365 0.6939 -0.66185 
-1767.18 -15.2566 -99.0891 -0.28365 0.6939 -0.66185 
-1836.95 -223.141 -287.808 -0.28365 0.6939 -0.66185 
-1925.31 -66.3512 -84.9541 -0.28365 0.6939 -0.66185 
-1608.63 391.115 260.305 -0.28365 0.6939 -0.66185 
-1609.28 109.688 -35.4408 -0.28365 0.6939 -0.66185 
-2002.82 -113.25 -101.014 -0.28365 0.6939 -0.66185 
-1884.22 161.472 137.051 -0.28365 0.6939 -0.66185 
-1534.66 -45.869 -231.1 -0.28365 0.6939 -0.66185 
-1833.54 -206.797 -272.077 -0.28365 0.6939 -0.66185 
-1887.55 156.289 133.025 -0.28365 0.6939 -0.66185 
-1842.97 141.834 98.687 -0.28365 0.6939 -0.66185 
-1888.81 -82.417 -117.52 -0.28365 0.6939 -0.66185 
-1529.14 -19.1232 -205.336 -0.28365 0.6939 -0.66185 
-1949.86 -113.799 -124.324 -0.28365 0.6939 -0.66185 
-1555.92 -35.2719 -210.827 -0.28365 0.6939 -0.66185 
-1687.96 38.2612 -76.7992 -0.28365 0.6939 -0.66185 
-1514.64 -275.428 -481.16 -0.28365 0.6939 -0.66185 
-1956.81 -102.459 -109.415 -0.28365 0.6939 -0.66185 
-1608.59 168.582 26.2109 -0.28365 0.6939 -0.66185 
-1523.61 -314.052 -517.94 -0.28365 0.6939 -0.66185 
-1570.41 -289.912 -472.458 -0.28365 0.6939 -0.66185 
-1694.62 -99.3687 -218.709 -0.28365 0.6939 -0.66185 
-1754.35 337.892 266.873 -0.28365 0.6939 -0.66185 
-1697.17 389.765 296.894 -0.28365 0.6939 -0.66185 
-1647.39 -247.715 -395.026 -0.28365 0.6939 -0.66185 
-1635.83 259.684 133.731 -0.28365 0.6939 -0.66185 
-1580.85 -255.352 -431.623 -0.28365 0.6939 -0.66185 
-1844.63 -49.6937 -102.063 -0.28365 0.6939 -0.66185 
-1810.91 205.242 151.62 -0.28365 0.6939 -0.66185 
-1763.99 -210.269 -305.585 -0.28365 0.6939 -0.66185 
-1662.89 62.8856 -61.6573 -0.28365 0.6939 -0.66185 
-1842.21 -18.8987 -70.7118 -0.28365 0.6939 -0.66185 
-1805.47 -174.019 -249.649 -0.28365 0.6939 -0.66185 
-1693.11 27.1029 -86.3252 -0.28365 0.6939 -0.66185 
-1710.23 337.014 247.01 -0.28365 0.6939 -0.66185 
-1576.1 81.9594 -78.8499 -0.28365 0.6939 -0.66185 
-1859.84 -83.0253 -130.596 -0.28365 0.6939 -0.66185 
-1578.88 311.942 164.255 -0.28365 0.6939 -0.66185 
-1834.76 -220.905 -286.396 -0.28365 0.6939 -0.66185 
-1876.19 113.687 83.3403 -0.28365 0.6939 -0.66185 
-1623.9 453.157 332.119 -0.28365 0.6939 -0.66185 
-1558.99 -115.148 -293.529 -0.28365 0.6939 -0.66185 
-1474.2 -287.25 -510.957 -0.28365 0.6939 -0.66185 
-2088.39 -56.4131 -4.49658 -0.28365 0.6939 -0.66185 
-1665.39 192.771 76.0358 -0.28365 0.6939 -0.66185 
-1670.35 236.243 123.893 -0.28365 0.6939 -0.66185 
-1611.41 -3.07715 -153.144 -0.28365 0.6939 -0.66185 
-2054.55 -185.73 -155.046 -0.28365 0.6939 -0.66185 
-1534.39 28.7954 -152.68 -0.28365 0.6939 -0.66185 
-1751.06 300.738 226.38 -0.28365 0.6939 -0.66185 
-1788.11 31.6512 -40.7603 -0.28365 0.6939 -0.66185 
-2007.45 -8.79114 10.8516 -0.28365 0.6939 -0.66185 
-1742.98 37.9608 -53.4995 -0.28365 0.6939 -0.66185 
-2090.76 -155.875 -108.1 -0.28365 0.6939 -0.66185 
-1548.73 -6.89948 -184.069 -0.28365 0.6939 -0.66185 
-1503.49 -319.191 -531.982 -0.28365 0.6939 -0.66185 
-1742.74 -118.13 -217.791 -0.28365 0.6939 -0.66185 
-1892.62 87.171 62.4987 -0.28365 0.6939 -0.66185 
-1893.65 -61.2516 -93.1787 -0.28365 0.6939 -0.66185 
-1574.18 -207.949 -384.625 -0.28365 0.6939 -0.66185 
-1617.92 191.321 54.1343 -0.28365 0.6939 -0.66185 
-1870.57 -195.981 -244.805 -0.28365 0.6939 -0.66185 
-1878.82 -218.224 -264.661 -0.28365 0.6939 -0.66185 
-2078.97 -170.926 -128.993 -0.28365 0.6939 -0.66185 
-1616.17 457.112 332.964 -0.28365 0.6939 -0.66185 
-1905.57 119.165 101.713 -0.28365 0.6939 -0.66185 
-1824.81 266.557 222.084 -0.28365 0.6939 -0.66185 
-1577.84 -129.652 -300.695 -0.28365 0.6939 -0.66185 
-1595.59 -8.48169 -165.618 -0.28365 0.6939 -0.66185 
-1859.17 174.469 139.966 -0.28365 0.6939 -0.66185 
-2072.58 -120.937 -79.1531 -0.28365 0.6939 -0.66185 
-1699.4 -207.966 -330.888 -0.28365 0.6939 -0.66185 
-1657.85 122.24 -1.38953 -0.28365 0.6939 -0.66185 
-810.1 -345.074 617.137 0.598857 0.665582 0.445389 
-583.249 -418.066 422.262 0.598857 0.665582 0.445389 
-1083.31 -94.9259 608.815 0.598857 0.665582 0.445389 
-794.578 -247.578 450.279 0.598857 0.665582 0.445389 
-1011.96 -245.901 739.282 0.598857 0.665582 0.445389 
-970.315 -22.088 348.176 0.598857 0.665582 0.445389 
-762.633 -141.1 247.942 0.598857 0.665582 0.445389 
-963.816 -55.2036 389.067 0.598857 0.665582 0.445389 
-1172.97 -105.003 744.149 0.598857 0.665582 0.445389 
-727.607 -355.441 522.041 0.598857 0.665582 0.445389 
-746.784 -52.0331 93.2706 0.598857 0.665582 0.445389 
-785.785 -205.137 374.914 0.598857 0.665582 0.445389 
-770.725 -97.0778 192.85 0.598857 0.665582 0.445389 
-846.399 -140.687 359.656 0.598857 0.665582 0.445389 
-982.409 26.0438 292.297 0.598857 0.665582 0.445389 
-927.254 -117.44 433.264 0.598857 0.665582 0.445389 
-911.966 -186.132 515.658 0.598857 0.665582 0.445389 
-1235.17 -169.873 924.728 0.598857 0.665582 0.445389 
-782.583 -308.078 524.819 0.598857 0.665582 0.445389 
-993.501 -250.189 720.952 0.598857 0.665582 0.445389 
-1181.48 -169.846 852.685 0.598857 0.665582 0.445389 
-789.854 -219.865 402.431 0.598857 0.665582 0.445389 
-967.74 -182.992 585.75 0.598857 0.665582 0.445389 
-784.732 -237.373 421.789 0.598857 0.665582 0.445389 
-877.295 -306.806 649.926 0.598857 0.665582 0.445389 
-752.398 -313.051 491.79 0.598857 0.665582 0.445389 
-731.863 -191.683 282.448 0.598857 0.665582 0.445389 
-801.594 -350.78 614.279 0.598857 0.665582 0.445389 
-868.136 229.829 -166.207 0.598857 0.665582 0.445389 
-946.502 -179.969 552.74 0.598857 0.665582 0.445389 
-860.461 -181.91 440.264 0.598857 0.665582 0.445389 
-855.52 -227.688 502.21 0.598857 0.665582 0.445389 
-782.749 -67.3117 164.387 0.598857 0.665582 0.445389 
-983.179 128.952 139.178 0.598857 0.665582 0.445389 
-688.478 -170.603 192.691 0.598857 0.665582 0.445389 
-670.479 -274.349 323.961 0.598857 0.665582 0.445389 
-926.653 48.1234 184.452 0.598857 0.665582 0.445389 
-931.86 -316.014 736.892 0.598857 0.665582 0.445389 
-832.837 -339.158 638.768 0.598857 0.665582 0.445389 
-916.579 46.8931 172.785 0.598857 0.665582 0.445389 
-877.833 -149.537 415.067 0.598857 0.665582 0.445389 
-758.105 -127.347 221.269 0.598857 0.665582 0.445389 
-919.86 -79.0029 365.77 0.598857 0.665582 0.445389 
-843.084 -70.2185 249.653 0.598857 0.665582 0.445389 
-1253.28 -116.176 868.583 0.598857 0.665582 0.445389 
-857.252 126.85 -26.5455 0.598857 0.665582 0.445389 
-828.351 -314.354 595.597 0.598857 0.665582 0.445389 
-843.661 44.1479 79.1124 0.598857 0.665582 0.445389 
-1196.05 -206.662 927.373 0.598857 0.665582 0.445389 
-963.291 -226.295 644.649 0.598857 0.665582 0.445389 
-987.877 -259.622 727.542 0.598857 0.665582 0.445389 
-902.148 -258.332 610.644 0.598857 0.665582 0.445389 
-1141.49 -194.704 836.295 0.598857 0.665582 0.445389 
-623.953 -403.165 454.527 0.598857 0.665582 0.445389 
-805.551 -67.5721 195.355 0.598857 0.665582 0.445389 
-1061.56 -149.232 660.994 0.598857 0.665582 0.445389 
-821.647 -67.4863 216.813 0.598857 0.665582 0.445389 
-1045.33 -44.1673 481.847 0.598857 0.665582 0.445389 
-734.535 -111.648 166.144 0.598857 0.665582 0.445389 
-779.369 -259.772 448.15 0.598857 0.665582 0.445389 
-1199.64 -184.26 898.629 0.598857 0.665582 0.445389 
-787.678 -84.2588 196.383 0.598857 0.665582 0.445389 
-929.642 99.1139 112.08 0.598857 0.665582 0.445389 
-1089.16 -56.0923 558.483 0.598857 0.665582 0.445389 
-1026.45 -85.4678 518.401 0.598857 0.665582 0.445389 
-870.588 -132.034 379.133 0.598857 0.665582 0.445389 
-1107.57 -142.178 712.125 0.598857 0.665582 0.445389 
-973.713 -206.381 628.795 0.598857 0.665582 0.445389 
-763.843 -148.957 261.334 0.598857 0.665582 0.445389 
-1049.55 40.8081 360.217 0.598857 0.665582 0.445389 
-875.289 -123.588 372.785 0.598857 0.665582 0.445389 
-807.885 100.788 -53.7092 0.598857 0.665582 0.445389 
-917.127 44.4738 177.144 0.598857 0.665582 0.445389 
-1211.87 -89.3574 772.88 0.598857 0.665582 0.445389 
-679.135 -249.272 298.004 0.598857 0.665582 0.445389 
-832.33 -254.613 511.445 0.598857 0.665582 0.445389 
-714.864 -341.722 484.403 0.598857 0.665582 0.445389 
-988.744 -11.933 357.678 0.598857 0.665582 0.445389 
-1230.49 -205.911 972.438 0.598857 0.665582 0.445389 
-889.779 125.011 19.829 0.598857 0.665582 0.445389 
-959.668 -149.625 524.943 0.598857 0.665582 0.445389 
-881.406 212.181 -121.976 0.598857 0.665582 0.445389 
-797.021 -169.282 336.273 0.598857 0.665582 0.445389 
-844.567 -11.8853 164.262 0.598857 0.665582 0.445389 
-871.984 -7.92078 195.09 0.598857 0.665582 0.445389 
-876.38 -8.0174 201.13 0.598857 0.665582 0.445389 
-998.164 -174.874 614.389 0.598857 0.665582 0.445389 
-777.895 -145.812 275.466 0.598857 0.665582 0.445389 
-1153.9 -190.624 846.833 0.598857 0.665582 0.445389 
-746.784 -86.5139 144.92 0.598857 0.665582 0.445389 
-908.986 -99.4276 381.783 0.598857 0.665582 0.445389 
-870.686 -323.649 666.294 0.598857 0.665582 0.445389 
-746.567 -50.9152 91.3051 0.598857 0.665582 0.445389 
-668.436 -329.729 404.175 0.598857 0.665582 0.445389 
-1158.07 -47.8635 638.574 0.598857 0.665582 0.445389 
-934.317 -125.632 455.007 0.598857 0.665582 0.445389 
-710.945 -251.312 343.719 0.598857 0.665582 0.445389 
-1024.1 -5.44504 395.376 0.598857 0.665582 0.445389 
-1041.42 63.6327 315.13 0.598857 0.665582 0.445389 
-1312.63 -174.203 1035.09 0.598857 0.665582 0.445389 
-972.35 84.0195 191.962 0.598857 0.665582 0.445389 
-937.225 -47.6143 342.039 0.598857 0.665582 0.445389 
-621.601 -408.105 458.772 0.598857 0.665582 0.445389 
-974.466 -64.3336 417.024 0.598857 0.665582 0.445389 
-815.59 -266.14 506.262 0.598857 0.665582 0.445389 
-1136.28 -71.4072 644.616 0.598857 0.665582 0.445389 
-1005.31 -235.834 715.28 0.598857 0.665582 0.445389 
-826.919 -86.3789 252.182 0.598857 0.665582 0.445389 
-938.712 -109.636 436.938 0.598857 0.665582 0.445389 
-1165.19 -88.7213 709.319 0.598857 0.665582 0.445389 
-907.001 -269.274 633.543 0.598857 0.665582 0.445389 
-769.372 -342.547 558.736 0.598857 0.665582 0.445389 
-867.293 62.1962 83.7675 0.598857 0.665582 0.445389 
-793.363 -299.424 526.313 0.598857 0.665582 0.445389 
-920.469 -41.2876 310.092 0.598857 0.665582 0.445389 
-909.931 -120.024 413.903 0.598857 0.665582 0.445389 
-803.037 -186.359 369.921 0.598857 0.665582 0.445389 
-883.202 -74.8244 310.351 0.598857 0.665582 0.445389 
-948.653 -279.83 705.209 0.598857 0.665582 0.445389 
-1010.48 -228.644 711.449 0.598857 0.665582 0.445389 
-1019.11 -171.685 637.702 0.598857 0.665582 0.445389 
-712.594 -263.582 364.31 0.598857 0.665582 0.445389 
-754.476 -32.853 74.8544 0.598857 0.665582 0.445389 
-751.441 -212.167 339.388 0.598857 0.665582 0.445389 
-724.478 -334.531 486.523 0.598857 0.665582 0.445389 
-846.358 -247.051 518.929 0.598857 0.665582 0.445389 
-791.894 34.7328 23.7935 0.598857 0.665582 0.445389 
-724.205 -122.58 168.667 0.598857 0.665582 0.445389 
-683.544 -310.739 395.992 0.598857 0.665582 0.445389 
-823.595 172.609 -140.225 0.598857 0.665582 0.445389 
-909.218 -237.549 588.993 0.598857 0.665582 0.445389 
-852.577 -3.30615 162.153 0.598857 0.665582 0.445389 
-961.229 -185.59 580.911 0.598857 0.665582 0.445389 
-1179.35 -63.5514 690.612 0.598857 0.665582 0.445389 
-946.533 -53.8446 363.854 0.598857 0.665582 0.445389 
-1081.53 9.16068 450.508 0.598857 0.665582 0.445389 
-725.436 -333.085 485.642 0.598857 0.665582 0.445389 
-728.854 -380.688 561.532 0.598857 0.665582 0.445389 
-719.031 -350.357 502.925 0.598857 0.665582 0.445389 
-841.778 -66.5474 242.402 0.598857 0.665582 0.445389 
-1124.29 -16.8786 546.855 0.598857 0.665582 0.445389 
-1201.41 -127.336 815.739 0.598857 0.665582 0.445389 
-969.148 137.557 107.473 0.598857 0.665582 0.445389 
-968.027 -251.598 688.902 0.598857 0.665582 0.445389 
-842.54 157.779 -92.6045 0.598857 0.665582 0.445389 
-891.634 103.705 54.2314 0.598857 0.665582 0.445389 
-622.839 -395.322 441.285 0.598857 0.665582 0.445389 
-1055.24 -76.761 543.964 0.598857 0.665582 0.445389 
-1026.26 -256.592 774.48 0.598857 0.665582 0.445389 
-829.672 -199.42 425.203 0.598857 0.665582 0.445389 
-724.604 -111.785 153.032 0.598857 0.665582 0.445389 
-696.629 -329.494 441.632 0.598857 0.665582 0.445389 
-1104.79 -57.5842 581.688 0.598857 0.665582 0.445389 
-883.612 -240.207 558.635 0.598857 0.665582 0.445389 
-837.611 -178.436 404.416 0.598857 0.665582 0.445389 
-990.022 -264.559 737.813 0.598857 0.665582 0.445389 
-782.766 -132.037 261.365 0.598857 0.665582 0.445389 
-728.813 -186.208 270.157 0.598857 0.665582 0.445389 
-679.222 -233.635 274.697 0.598857 0.665582 0.445389 
-968.761 112.044 145.171 0.598857 0.665582 0.445389 
-761.289 -94.3827 176.159 0.598857 0.665582 0.445389 
-1143.29 -59.4139 636.059 0.598857 0.665582 0.445389 
-785.41 17.0187 41.6329 0.598857 0.665582 0.445389 
-854.153 -292.877 598.027 0.598857 0.665582 0.445389 
-960.502 104.225 145.806 0.598857 0.665582 0.445389 
-1140.92 -165.924 792.428 0.598857 0.665582 0.445389 
-856.009 -311.404 628.269 0.598857 0.665582 0.445389 
-847.947 22.8156 116.814 0.598857 0.665582 0.445389 
-1002.3 -272.833 766.666 0.598857 0.665582 0.445389 
-926.462 161.869 13.811 0.598857 0.665582 0.445389 
-927.933 16.8549 233.006 0.598857 0.665582 0.445389 
-1175.93 -198.849 888.694 0.598857 0.665582 0.445389 
-672.464 -311.456 382.206 0.598857 0.665582 0.445389 
-866.076 35.3145 122.404 0.598857 0.665582 0.445389 
-941.291 29.5458 231.91 0.598857 0.665582 0.445389 
-1132.12 -28.6201 574.946 0.598857 0.665582 0.445389 
-1013.11 18.8337 344.267 0.598857 0.665582 0.445389 
-1027.16 43.3955 326.317 0.598857 0.665582 0.445389 
-919.686 -315.566 719.896 0.598857 0.665582 0.445389 
-1022.31 -251.898 762.141 0.598857 0.665582 0.445389 
-846.643 176.515 -115.169 0.598857 0.665582 0.445389 
-652.704 -355.245 421.301 0.598857 0.665582 0.445389 
-1151.8 -132.997 757.693 0.598857 0.665582 0.445389 
-864.148 199.237 -125.73 0.598857 0.665582 0.445389 
-754.297 -219.651 354.428 0.598857 0.665582 0.445389 
-882 -243.72 561.737 0.598857 0.665582 0.445389 
-605.168 -415.896 448.407 0.598857 0.665582 0.445389 
-702.71 -204.552 262.633 0.598857 0.665582 0.445389 
-1160.26 -195.655 862.89 0.598857 0.665582 0.445389 
-767.638 -186.805 323.118 0.598857 0.665582 0.445389 
-696.051 -363.807 492.256 0.598857 0.665582 0.445389 
-668.48 -371.613 466.975 0.598857 0.665582 0.445389 
-806.162 34.0314 43.9778 0.598857 0.665582 0.445389 
-745.914 -343.564 528.802 0.598857 0.665582 0.445389 
-1088.32 10.3221 457.882 0.598857 0.665582 0.445389 
-1098.19 -150.422 711.9 0.598857 0.665582 0.445389 
-639.186 -414.839 492.442 0.598857 0.665582 0.445389 
-822.002 -133.598 316.32 0.598857 0.665582 0.445389 
-842.341 30.6523 97.5562 0.598857 0.665582 0.445389 
-909.218 -65.3708 331.078 0.598857 0.665582 0.445389 
-1046.34 -140.928 628.145 0.598857 0.665582 0.445389 
-1006.67 87.4237 232.891 0.598857 0.665582 0.445389 
-767.075 -321.899 524.726 0.598857 0.665582 0.445389 
-873.623 53.5663 105.183 0.598857 0.665582 0.445389 
-814.476 29.2928 62.2251 0.598857 0.665582 0.445389 
-739.747 -123.057 190.223 0.598857 0.665582 0.445389 
-786.935 52.1147 -8.8949 0.598857 0.665582 0.445389 
-994.998 -290.836 783.847 0.598857 0.665582 0.445389 
-1285.71 -164.597 984.607 0.598857 0.665582 0.445389 
-1074.35 -205.039 761.746 0.598857 0.665582 0.445389 
-868.947 34.1677 127.971 0.598857 0.665582 0.445389 
-792.807 -166.801 326.905 0.598857 0.665582 0.445389 
-1157.98 -119.549 745.839 0.598857 0.665582 0.445389 
-618.504 -369.147 396.263 0.598857 0.665582 0.445389 
-942.885 125.208 90.7499 0.598857 0.665582 0.445389 
-938.88 -143.069 487.244 0.598857 0.665582 0.445389 
-899.496 193.242 -69.3458 0.598857 0.665582 0.445389 
-701.304 -227.237 294.725 0.598857 0.665582 0.445389 
-1022.68 -106.287 544.531 0.598857 0.665582 0.445389 
-900.841 -120.398 402.272 0.598857 0.665582 0.445389 
-826.324 161.621 -120.106 0.598857 0.665582 0.445389 
-1137.09 -167.049 788.978 0.598857 0.665582 0.445389 
-819.354 -355.841 645.677 0.598857 0.665582 0.445389 
-866.586 -132.258 374.101 0.598857 0.665582 0.445389 
-911.647 -217.633 562.416 0.598857 0.665582 0.445389 
-672.743 -327.898 407.21 0.598857 0.665582 0.445389 
-738.713 -216.066 328.159 0.598857 0.665582 0.445389 
-918.214 -56.0533 329.186 0.598857 0.665582 0.445389 
-682.112 -391.337 514.802 0.598857 0.665582 0.445389 
-831.92 -278.068 546.028 0.598857 0.665582 0.445389 
-1167.66 -73.3415 689.603 0.598857 0.665582 0.445389 
-853.101 -52.4488 236.467 0.598857 0.665582 0.445389 
-915.439 79.5485 122.34 0.598857 0.665582 0.445389 
-780.543 -217.294 386.094 0.598857 0.665582 0.445389 
-669.42 -304.347 367.476 0.598857 0.665582 0.445389 
-847.275 117.58 -26.0402 0.598857 0.665582 0.445389 
-774.596 -168.582 305.151 0.598857 0.665582 0.445389 
-1054.3 22.0889 394.628 0.598857 0.665582 0.445389 
-1137.2 -84.1637 664.967 0.598857 0.665582 0.445389 
-865.692 -278.98 592.684 0.598857 0.665582 0.445389 
-802.974 96.1406 -53.3333 0.598857 0.665582 0.445389 
-737.807 -334.864 504.897 0.598857 0.665582 0.445389 
-1113.84 -226.13 846.29 0.598857 0.665582 0.445389 
-1124.77 -46.55 591.951 0.598857 0.665582 0.445389 
-925.543 120.842 74.0344 0.598857 0.665582 0.445389 
-815.211 -50.576 182.85 0.598857 0.665582 0.445389 
-963.579 -62.3877 399.51 0.598857 0.665582 0.445389 
-896.548 206.01 -92.4264 0.598857 0.665582 0.445389 
-866.153 -251.72 552.469 0.598857 0.665582 0.445389 
-957.232 -108.892 460.659 0.598857 0.665582 0.445389 
-1231.95 -104.952 823.169 0.598857 0.665582 0.445389 
-825.61 -348.111 642.487 0.598857 0.665582 0.445389 
-729.99 -135.528 195.819 0.598857 0.665582 0.445389 
-890.701 -36.2956 262.694 0.598857 0.665582 0.445389 
-1083.66 -260.401 857.15 0.598857 0.665582 0.445389 
-791.899 -218.415 403.003 0.598857 0.665582 0.445389 
-1059.93 28.6634 392.328 0.598857 0.665582 0.445389 
-834.72 -289.533 566.958 0.598857 0.665582 0.445389 
-923.375 12.8897 232.834 0.598857 0.665582 0.445389 
-1001.72 -268.162 758.897 0.598857 0.665582 0.445389 
-1022.83 -131.034 581.789 0.598857 0.665582 0.445389 
-731.031 -201.882 296.611 0.598857 0.665582 0.445389 
-906.562 134.726 27.7837 0.598857 0.665582 0.445389 
-970.587 -33.2634 365.282 0.598857 0.665582 0.445389 
-1150.53 -34.1554 607.926 0.598857 0.665582 0.445389 
-921.431 -56.6417 334.382 0.598857 0.665582 0.445389 
-873.369 198.537 -112.316 0.598857 0.665582 0.445389 
-761.41 -189.733 319.151 0.598857 0.665582 0.445389 
-977.095 -123.097 508.575 0.598857 0.665582 0.445389 
-1056.28 -171.256 686.907 0.598857 0.665582 0.445389 
-989.794 -64.1541 437.311 0.598857 0.665582 0.445389 
-935.798 -18.9408 297.173 0.598857 0.665582 0.445389 
-976.956 -54.9135 406.254 0.598857 0.665582 0.445389 
-998.313 -209.139 665.915 0.598857 0.665582 0.445389 
-859.678 -118.111 343.647 0.598857 0.665582 0.445389 
-1114.17 -19.5131 537.229 0.598857 0.665582 0.445389 
-886.831 -154.301 434.269 0.598857 0.665582 0.445389 
-950.322 117.016 112.996 0.598857 0.665582 0.445389 
-1116.34 -131.506 707.899 0.598857 0.665582 0.445389 
-690.61 -293.367 379.445 0.598857 0.665582 0.445389 
-1081.47 -191.219 750.59 0.598857 0.665582 0.445389 
-856.667 -74.406 274.14 0.598857 0.665582 0.445389 
-1122.07 -193.402 808.299 0.598857 0.665582 0.445389 
-858.92 -242.272 528.616 0.598857 0.665582 0.445389 
-814.41 -248.606 478.416 0.598857 0.665582 0.445389 
-1151.25 -233.777 907.912 0.598857 0.665582 0.445389 
-823.423 69.0164 14.7198 0.598857 0.665582 0.445389 
-875.401 -201.621 489.824 0.598857 0.665582 0.445389 
-1046.95 -5.06262 425.442 0.598857 0.665582 0.445389 
-866.11 -111.107 341.78 0.598857 0.665582 0.445389 
-1073.72 -245.419 821.381 0.598857 0.665582 0.445389 
-1074.88 -52.3978 533.811 0.598857 0.665582 0.445389 
-957.746 152.075 70.4331 0.598857 0.665582 0.445389 
-813.32 18.9059 76.2339 0.598857 0.665582 0.445389 
-997.003 -268.968 753.779 0.598857 0.665582 0.445389 
-919.537 -60.9541 338.301 0.598857 0.665582 0.445389 
-833.234 -19.4501 160.395 0.598857 0.665582 0.445389 
-1088.59 -131.965 671.382 0.598857 0.665582 0.445389 
-693.969 -196.379 238.666 0.598857 0.665582 0.445389 
-885.726 -168.966 454.756 0.598857 0.665582 0.445389 
-846.994 -106.88 309.813 0.598857 0.665582 0.445389 
-752.433 -99.9685 172.65 0.598857 0.665582 0.445389 
-900.447 63.9781 125.559 0.598857 0.665582 0.445389 
-1119.68 -141.499 727.356 0.598857 0.665582 0.445389 
-966.094 -68.1784 411.558 0.598857 0.665582 0.445389 
-936.831 -260.274 660.063 0.598857 0.665582 0.445389 
-770.162 -214.181 367.51 0.598857 0.665582 0.445389 
-873.007 -106.114 343.551 0.598857 0.665582 0.445389 
-866.542 -271.53 582.665 0.598857 0.665582 0.445389 
-943.309 -80.649 399.683 0.598857 0.665582 0.445389 
-1080.12 -17.1669 488.055 0.598857 0.665582 0.445389 
-1241.67 -155.014 911.185 0.598857 0.665582 0.445389 
-974.677 -9.82312 335.654 0.598857 0.665582 0.445389 
-879.949 -240.895 554.754 0.598857 0.665582 0.445389 
-1250.45 -141.426 902.606 0.598857 0.665582 0.445389 
-712.692 -158.768 207.435 0.598857 0.665582 0.445389 
-1096.29 2.92596 479.639 0.598857 0.665582 0.445389 
-1143.58 -184.685 824.095 0.598857 0.665582 0.445389 
-866.84 221.294 -155.16 0.598857 0.665582 0.445389 
-870.531 -313.03 650.178 0.598857 0.665582 0.445389 
-781.861 -317.675 538.226 0.598857 0.665582 0.445389 
-652.463 -414.148 509.212 0.598857 0.665582 0.445389 
-734.38 -291.143 434.81 0.598857 0.665582 0.445389 
-896.592 132.352 17.9698 0.598857 0.665582 0.445389 
-872.897 -240.912 545.324 0.598857 0.665582 0.445389 
-957.441 -100.499 448.367 0.598857 0.665582 0.445389 
-889.117 -325.847 694.301 0.598857 0.665582 0.445389 
-1188.13 -144.028 822.93 0.598857 0.665582 0.445389 
-863.396 -48.2324 243.957 0.598857 0.665582 0.445389 
-1046.69 18.7269 389.461 0.598857 0.665582 0.445389 
-1108.42 -92.888 639.434 0.598857 0.665582 0.445389 
-1071.95 -167.93 702.93 0.598857 0.665582 0.445389 
-648.655 -321.463 365.268 0.598857 0.665582 0.445389 
-1109.63 -116.64 676.639 0.598857 0.665582 0.445389 
-744.542 -214.063 332.976 0.598857 0.665582 0.445389 
-668.771 -334.306 411.481 0.598857 0.665582 0.445389 
-774.387 -258.286 439.243 0.598857 0.665582 0.445389 
-1030.07 -265.074 792.288 0.598857 0.665582 0.445389 
-1180.06 -201.103 897.604 0.598857 0.665582 0.445389 
-787.4 20.1323 39.6381 0.598857 0.665582 0.445389 
-1025.66 12.0206 371.306 0.598857 0.665582 0.445389 
-1062.29 -217.714 764.551 0.598857 0.665582 0.445389 
-1191.48 -186.299 890.739 0.598857 0.665582 0.445389 
-900.235 181.524 -50.8024 0.598857 0.665582 0.445389 
-1139.86 -157.713 778.707 0.598857 0.665582 0.445389 
-1163.74 -40.0971 634.548 0.598857 0.665582 0.445389 
-747.688 -185.589 294.544 0.598857 0.665582 0.445389 
-890.984 145.813 -9.71423 0.598857 0.665582 0.445389 
-1022.45 -197.344 680.62 0.598857 0.665582 0.445389 
-818.711 -91.5568 248.932 0.598857 0.665582 0.445389 
-1031.09 -135.175 599.083 0.598857 0.665582 0.445389 
-914.371 -20.2839 270.451 0.598857 0.665582 0.445389 
-1075.48 -256.234 839.944 0.598857 0.665582 0.445389 
-1010.27 -89.097 502.129 0.598857 0.665582 0.445389 
-917.763 -76.0173 358.487 0.598857 0.665582 0.445389 
-1020.86 45.2187 315.136 0.598857 0.665582 0.445389 
-768.205 -169.543 298.02 0.598857 0.665582 0.445389 
-801.471 -60.2589 178.93 0.598857 0.665582 0.445389 
-883.681 -257.894 585.221 0.598857 0.665582 0.445389 
-852.662 -252.102 534.949 0.598857 0.665582 0.445389 
-1188.3 -81.3835 729.324 0.598857 0.665582 0.445389 
-840.871 -48.3061 213.862 0.598857 0.665582 0.445389 
-1068.64 -41.8767 509.68 0.598857 0.665582 0.445389 
-1099.14 -128.652 680.56 0.598857 0.665582 0.445389 
-961.509 48.3564 230.846 0.598857 0.665582 0.445389 
-827.65 -38.5063 181.452 0.598857 0.665582 0.445389 
-1014.46 -276.148 787.939 0.598857 0.665582 0.445389 
-922.706 -275.646 664.147 0.598857 0.665582 0.445389 
-974.689 -106.931 481.133 0.598857 0.665582 0.445389 
-1100.56 -78.6085 607.503 0.598857 0.665582 0.445389 
-914.74 -134.705 442.344 0.598857 0.665582 0.445389 
-864.317 184.494 -103.418 0.598857 0.665582 0.445389 
-870.622 183.148 -92.9484 0.598857 0.665582 0.445389 
-706.217 -314.625 432.217 0.598857 0.665582 0.445389 
-673.71 -299.497 365.964 0.598857 0.665582 0.445389 
-1264.29 -148.515 931.782 0.598857 0.665582 0.445389 
-1029.24 -236.871 748.937 0.598857 0.665582 0.445389 
-1035.37 -250.714 777.886 0.598857 0.665582 0.445389 
-1207.92 -212.308 951.757 0.598857 0.665582 0.445389 
-843.558 -124.662 331.841 0.598857 0.665582 0.445389 
-1115.24 -147.863 730.937 0.598857 0.665582 0.445389 
-981.664 -169.181 583.734 0.598857 0.665582 0.445389 
-934.421 127.062 76.6232 0.598857 0.665582 0.445389 
-908.136 -150.182 456.67 0.598857 0.665582 0.445389 
-1174.13 -124.491 774.897 0.598857 0.665582 0.445389 
-928.378 -110.848 424.896 0.598857 0.665582 0.445389 
-737.748 -272.724 411.736 0.598857 0.665582 0.445389 
-1078.01 -35.0617 512.028 0.598857 0.665582 0.445389 
-763.658 -145.91 256.522 0.598857 0.665582 0.445389 
-1028.29 -175.849 656.253 0.598857 0.665582 0.445389 
-1133.48 -123.919 719.524 0.598857 0.665582 0.445389 
-850.309 195.351 -138.468 0.598857 0.665582 0.445389 
-1057.33 57.9806 344.93 0.598857 0.665582 0.445389 
-1202.18 -205.023 933.138 0.598857 0.665582 0.445389 
-826.289 -139.204 330.468 0.598857 0.665582 0.445389 
-1104.06 -73.9675 605.243 0.598857 0.665582 0.445389 
-835.121 -152.719 362.556 0.598857 0.665582 0.445389 
-981.75 -178.429 597.701 0.598857 0.665582 0.445389 
-703.748 -165.558 205.613 0.598857 0.665582 0.445389 
-1270.3 -150.186 942.344 0.598857 0.665582 0.445389 
-1065.11 -217.634 768.215 0.598857 0.665582 0.445389 
-863.739 26.8388 131.966 0.598857 0.665582 0.445389 
-644.67 -375.394 440.71 0.598857 0.665582 0.445389 
-936.243 -312.019 736.787 0.598857 0.665582 0.445389 
-721.556 -240.83 342.246 0.598857 0.665582 0.445389 
-856.339 -318.323 639.074 0.598857 0.665582 0.445389 
-809.879 35.3799 46.9432 0.598857 0.665582 0.445389 
-1157.39 -40.887 627.208 0.598857 0.665582 0.445389 
-925.608 -167.892 506.631 0.598857 0.665582 0.445389 
-1050.56 -90.0364 557.565 0.598857 0.665582 0.445389 
-888.209 15.0114 182.496 0.598857 0.665582 0.445389 
-802.625 -300.606 540.504 0.598857 0.665582 0.445389 
-921.678 26.509 210.157 0.598857 0.665582 0.445389 
-930.78 -54.0104 342.977 0.598857 0.665582 0.445389 
-776.107 -206.854 364.508 0.598857 0.665582 0.445389 
-1129.27 -201.298 829.782 0.598857 0.665582 0.445389 
-981.12 67.509 228.456 0.598857 0.665582 0.445389 
-1052.45 -10.5594 441.054 0.598857 0.665582 0.445389 
-1033.77 38.9304 341.865 0.598857 0.665582 0.445389 
-859.592 -253.913 546.953 0.598857 0.665582 0.445389 
-643.417 -305.053 333.662 0.598857 0.665582 0.445389 
-617.349 -341.254 352.931 0.598857 0.665582 0.445389 
-1097.16 -216.805 809.956 0.598857 0.665582 0.445389 
-858.17 51.0564 88.2201 0.598857 0.665582 0.445389 
-1020.18 -77.2596 497.692 0.598857 0.665582 0.445389 
-873.856 -41.9409 248.56 0.598857 0.665582 0.445389 
-593.138 -398.618 406.392 0.598857 0.665582 0.445389 
-1057.33 -8.16632 444.015 0.598857 0.665582 0.445389 
-902.876 -245.149 591.873 0.598857 0.665582 0.445389 
-1129.16 -119.927 707.756 0.598857 0.665582 0.445389 
-1003.22 63.789 263.661 0.598857 0.665582 0.445389 
-1019.73 -177.114 646.67 0.598857 0.665582 0.445389 
-658.917 -306.761 357.006 0.598857 0.665582 0.445389 
-881.574 90.7558 60.1381 0.598857 0.665582 0.445389 
-991.382 -192.299 631.396 0.598857 0.665582 0.445389 
-991.576 -232.258 691.511 0.598857 0.665582 0.445389 
-850.07 -80.1815 273.945 0.598857 0.665582 0.445389 
-817.776 -321.03 591.417 0.598857 0.665582 0.445389 
-822.844 140.232 -92.7336 0.598857 0.665582 0.445389 
-944.344 -238.922 638.153 0.598857 0.665582 0.445389 
-962.136 69.8669 199.465 0.598857 0.665582 0.445389 
-634.467 -312.528 332.856 0.598857 0.665582 0.445389 
-745.292 -177.149 278.686 0.598857 0.665582 0.445389 
-812.95 -92.861 243.159 0.598857 0.665582 0.445389 
-940.322 103.832 119.333 0.598857 0.665582 0.445389 
-805.636 -258.313 481.189 0.598857 0.665582 0.445389 
-1145.13 -237.314 905.009 0.598857 0.665582 0.445389 
-779.286 -318.222 535.593 0.598857 0.665582 0.445389 
-1004.09 59.064 271.909 0.598857 0.665582 0.445389 
-854.418 -0.613403 160.587 0.598857 0.665582 0.445389 
-1213.79 -109.123 805.061 0.598857 0.665582 0.445389 
-837.742 164.112 -108.526 0.598857 0.665582 0.445389 
-1062.37 -103.81 594.042 0.598857 0.665582 0.445389 
-863.021 -164.175 417.131 0.598857 0.665582 0.445389 
-842.065 202.714 -160.551 0.598857 0.665582 0.445389 
-1190.47 -190.798 896.13 0.598857 0.665582 0.445389 
-1184.29 -84.7847 729.037 0.598857 0.665582 0.445389 
-1197.6 -158.131 856.757 0.598857 0.665582 0.445389 
-856.028 -108.014 323.627 0.598857 0.665582 0.445389 
-924.642 -301.072 704.83 0.598857 0.665582 0.445389 
-987.448 62.5652 244.347 0.598857 0.665582 0.445389 
-919.135 -292.482 684.578 0.598857 0.665582 0.445389 
-948.899 -278.808 704.01 0.598857 0.665582 0.445389 
-861.621 -0.426697 169.967 0.598857 0.665582 0.445389 
-920.455 176.427 -16.0514 0.598857 0.665582 0.445389 
-671.229 -257.967 300.427 0.598857 0.665582 0.445389 
-1248.82 -126.977 878.785 0.598857 0.665582 0.445389 
-900.009 -46.1951 290.004 0.598857 0.665582 0.445389 
-724.248 -257.25 370.454 0.598857 0.665582 0.445389 
-862.858 -201.297 472.518 0.598857 0.665582 0.445389 
-795.986 98.0976 -65.6359 0.598857 0.665582 0.445389 
-942.647 27.374 236.982 0.598857 0.665582 0.445389 
-1275.91 -145.985 943.574 0.598857 0.665582 0.445389 
-869.076 56.2274 95.0994 0.598857 0.665582 0.445389 
-838.47 -83.2901 263.047 0.598857 0.665582 0.445389 
-1137.7 -31.9345 587.401 0.598857 0.665582 0.445389 
-1033.36 -187.981 681.216 0.598857 0.665582 0.445389 
-613.745 -350.701 362.248 0.598857 0.665582 0.445389 
-859.335 156.727 -68.5072 0.598857 0.665582 0.445389 
-868.661 152.797 -50.1135 0.598857 0.665582 0.445389 
-749.18 -179.021 286.706 0.598857 0.665582 0.445389 
-670.925 -201.595 215.576 0.598857 0.665582 0.445389 
-1096.42 8.36041 471.674 0.598857 0.665582 0.445389 
-851.49 -14.5287 177.505 0.598857 0.665582 0.445389 
-685.929 -237.209 289.046 0.598857 0.665582 0.445389 
-911.406 -308.394 698.049 0.598857 0.665582 0.445389 
-731.91 -282.72 418.88 0.598857 0.665582 0.445389 
-1042.17 75.9554 297.666 0.598857 0.665582 0.445389 
-1008 -249.346 739.134 0.598857 0.665582 0.445389 
-946.206 -101.727 435.141 0.598857 0.665582 0.445389 
-837.948 193.706 -152.579 0.598857 0.665582 0.445389 
-698.331 -352.175 477.89 0.598857 0.665582 0.445389 
-785.622 -133.501 267.389 0.598857 0.665582 0.445389 
-986.202 89.5185 202.302 0.598857 0.665582 0.445389 
-1013.3 91.0378 236.37 0.598857 0.665582 0.445389 
-850.08 218.907 -174.061 0.598857 0.665582 0.445389 
-1126.87 -66.6373 624.856 0.598857 0.665582 0.445389 
-681.504 -215.883 251.165 0.598857 0.665582 0.445389 
-831.631 -340.23 638.756 0.598857 0.665582 0.445389 
-884.764 -5.99872 209.349 0.598857 0.665582 0.445389 
-868.178 202.112 -124.632 0.598857 0.665582 0.445389 
-850.156 214.258 -166.994 0.598857 0.665582 0.445389 
-603.048 -414.363 443.266 0.598857 0.665582 0.445389 
-846.438 -4.99329 156.447 0.598857 0.665582 0.445389 
-847.447 67.8729 48.6503 0.598857 0.665582 0.445389 
-818.979 -344.748 628.557 0.598857 0.665582 0.445389 
-788.426 -136.509 275.655 0.598857 0.665582 0.445389 
-826.819 -109.231 286.278 0.598857 0.665582 0.445389 
-817.921 -77.9336 227.466 0.598857 0.665582 0.445389 
-957.806 45.7707 229.753 0.598857 0.665582 0.445389 
-768.247 -135.372 246.891 0.598857 0.665582 0.445389 
-772.559 -93.0149 189.225 0.598857 0.665582 0.445389 
-821.419 -294.886 557.14 0.598857 0.665582 0.445389 
-1135.25 -233.865 886.593 0.598857 0.665582 0.445389 
-799.303 -33.8108 136.403 0.598857 0.665582 0.445389 
-991.186 -245.772 711.232 0.598857 0.665582 0.445389 
-950.059 114.921 115.781 0.598857 0.665582 0.445389 
-960.572 -139.56 511.078 0.598857 0.665582 0.445389 
-876.583 -300.112 638.945 0.598857 0.665582 0.445389 
-787.387 -19.5594 99.077 0.598857 0.665582 0.445389 
-703.545 -135.592 160.452 0.598857 0.665582 0.445389 
-804.725 51.0914 16.4965 0.598857 0.665582 0.445389 
-986.781 -91.4704 474.189 0.598857 0.665582 0.445389 
-1132.09 -20.0965 562.136 0.598857 0.665582 0.445389 
-977.398 -144.857 541.578 0.598857 0.665582 0.445389 
-676.861 -247.623 292.484 0.598857 0.665582 0.445389 
-939.012 -53.2255 352.841 0.598857 0.665582 0.445389 
-682.383 -226.254 267.881 0.598857 0.665582 0.445389 
-1026.98 70.7813 285.053 0.598857 0.665582 0.445389 
-629.306 -384.678 434.013 0.598857 0.665582 0.445389 
-907.069 -254.16 610.992 0.598857 0.665582 0.445389 
-789.676 -344.133 588.34 0.598857 0.665582 0.445389 
-638.497 -401.892 472.124 0.598857 0.665582 0.445389 
-963.648 -7.03738 316.691 0.598857 0.665582 0.445389 
-700.338 -168.351 205.224 0.598857 0.665582 0.445389 
-879.956 -217.518 519.745 0.598857 0.665582 0.445389 
-960.547 6.76935 291.851 0.598857 0.665582 0.445389 
-975.892 -242.947 686.491 0.598857 0.665582 0.445389 
-1030.43 -58.4932 483.331 0.598857 0.665582 0.445389 
-884.935 -166.374 449.812 0.598857 0.665582 0.445389 
-1182.83 -141.146 811.511 0.598857 0.665582 0.445389 
-989.625 -231.806 688.219 0.598857 0.665582 0.445389 
-1097.06 -161.469 726.932 0.598857 0.665582 0.445389 
-1153.47 -155.26 793.281 0.598857 0.665582 0.445389 
-1002.69 110.769 192.577 0.598857 0.665582 0.445389 
-990.613 -275.273 754.656 0.598857 0.665582 0.445389 
-840.374 27.1458 100.171 0.598857 0.665582 0.445389 
-816.344 -41.2774 170.44 0.598857 0.665582 0.445389 
-876.93 155.052 -42.4032 0.598857 0.665582 0.445389 
-834.774 -76.3657 247.716 0.598857 0.665582 0.445389 
-759.632 -79.4249 151.531 0.598857 0.665582 0.445389 
-1024.51 -259.052 775.81 0.598857 0.665582 0.445389 
-794.57 -322.162 561.992 0.598857 0.665582 0.445389 
-766.406 -104.932 198.823 0.598857 0.665582 0.445389 
-1069.84 49.8975 373.817 0.598857 0.665582 0.445389 
-817.683 -24.0458 146.424 0.598857 0.665582 0.445389 
-974.5 -41.6561 383.101 0.598857 0.665582 0.445389 
-1121.21 -73.354 627.323 0.598857 0.665582 0.445389 
-1222.76 -121.986 836.358 0.598857 0.665582 0.445389 
-982.345 -220.304 661.226 0.598857 0.665582 0.445389 
-743.071 -245.484 378.07 0.598857 0.665582 0.445389 
-919.964 138.322 40.3702 0.598857 0.665582 0.445389 
-1121.1 -160.046 757.039 0.598857 0.665582 0.445389 
-970.541 -197.385 611.066 0.598857 0.665582 0.445389 
-1196.9 -155.151 851.354 0.598857 0.665582 0.445389 
-791.323 -38.9243 133.362 0.598857 0.665582 0.445389 
-909.658 -167.703 484.958 0.598857 0.665582 0.445389 
-955.738 139.944 85.9125 0.598857 0.665582 0.445389 
-1041.17 -65.7133 508.55 0.598857 0.665582 0.445389 
-991.941 113.388 174.241 0.598857 0.665582 0.445389 
-958.042 -277.256 713.946 0.598857 0.665582 0.445389 
-747.866 -267.381 417.3 0.598857 0.665582 0.445389 
-1149.22 -143.284 769.64 0.598857 0.665582 0.445389 
-594.513 -430.215 455.566 0.598857 0.665582 0.445389 
-958.258 138.681 91.1849 0.598857 0.665582 0.445389 
-1026.59 -74.3714 501.955 0.598857 0.665582 0.445389 
-1171.45 -204.742 891.504 0.598857 0.665582 0.445389 
-1105.58 -18.2773 523.86 0.598857 0.665582 0.445389 
-877.259 174.172 -70.6014 0.598857 0.665582 0.445389 
-1220 -192.24 937.894 0.598857 0.665582 0.445389 
-960.198 -144.587 518.107 0.598857 0.665582 0.445389 
-822.698 -322.501 600.221 0.598857 0.665582 0.445389 
-784.749 -242.704 429.798 0.598857 0.665582 0.445389 
-902.842 -62.2862 317.908 0.598857 0.665582 0.445389 
-900.03 177.751 -45.4261 0.598857 0.665582 0.445389 
-930.261 -8.591 274.245 0.598857 0.665582 0.445389 
-837.739 -188.756 420.049 0.598857 0.665582 0.445389 
-1078.14 -209.908 774.111 0.598857 0.665582 0.445389 
-623.577 -383.707 424.876 0.598857 0.665582 0.445389 
-957.83 -12.0567 316.407 0.598857 0.665582 0.445389 
-751.265 -160.001 261.01 0.598857 0.665582 0.445389 
-754.58 -243.43 390.427 0.598857 0.665582 0.445389 
-643.073 -287.105 306.316 0.598857 0.665582 0.445389 
-942.124 136.569 72.7115 0.598857 0.665582 0.445389 
-951.976 -294.573 731.751 0.598857 0.665582 0.445389 
-1095.58 -218.641 810.59 0.598857 0.665582 0.445389 
-1260.92 -137.857 911.298 0.598857 0.665582 0.445389 
-758.384 -239.192 389.181 0.598857 0.665582 0.445389 
-1218.52 -152.814 876.854 0.598857 0.665582 0.445389 
-852.393 90.2869 21.7084 0.598857 0.665582 0.445389 
-816.57 -228.402 451.047 0.598857 0.665582 0.445389 
-1004.18 -158.528 597.971 0.598857 0.665582 0.445389 
-847.246 -274.603 561.391 0.598857 0.665582 0.445389 
-750.455 -91.2517 156.941 0.598857 0.665582 0.445389 
-1104.53 -164.05 740.811 0.598857 0.665582 0.445389 
-1112.82 -109.672 670.472 0.598857 0.665582 0.445389 
-1019.97 -9.24933 395.531 0.598857 0.665582 0.445389 
-1260.91 -167.86 956.238 0.598857 0.665582 0.445389 
-766.452 -229.059 384.821 0.598857 0.665582 0.445389 
-755.386 -183.778 302.153 0.598857 0.665582 0.445389 
-838.563 23.7673 102.804 0.598857 0.665582 0.445389 
-1141.84 -124.29 731.291 0.598857 0.665582 0.445389 
-822.417 -178.268 383.789 0.598857 0.665582 0.445389 
-984.012 -1.49219 335.693 0.598857 0.665582 0.445389 
-952.31 -94.7408 432.861 0.598857 0.665582 0.445389 
-788.159 68.137 -31.2533 0.598857 0.665582 0.445389 
-990.366 -125.231 529.569 0.598857 0.665582 0.445389 
-908.377 -177.39 497.75 0.598857 0.665582 0.445389 
-1010.83 -181.987 642.027 0.598857 0.665582 0.445389 
-974.49 132.87 121.657 0.598857 0.665582 0.445389 
-1087.93 -215.265 795.272 0.598857 0.665582 0.445389 
-963.177 -129.825 499.988 0.598857 0.665582 0.445389 
-843.833 -232.878 494.312 0.598857 0.665582 0.445389 
-853.062 243.719 -207.229 0.598857 0.665582 0.445389 
-1438.19 242.736 578.926 0.598857 0.665582 0.445389 
-1380.43 334.036 364.701 0.598857 0.665582 0.445389 
-1096.37 116.66 309.382 0.598857 0.665582 0.445389 
-1404.86 247.213 527.518 0.598857 0.665582 0.445389 
-1160.52 249.788 195.99 0.598857 0.665582 0.445389 
-1398.67 57.8525 802.869 0.598857 0.665582 0.445389 
-1320.59 -50.3564 860.245 0.598857 0.665582 0.445389 
-1122.46 132.19 321.113 0.598857 0.665582 0.445389 
-1481.33 347.545 479.775 0.598857 0.665582 0.445389 
-1242.65 21.3146 648.371 0.598857 0.665582 0.445389 
-1210.84 101.974 484.891 0.598857 0.665582 0.445389 
-1227.24 172.651 401.015 0.598857 0.665582 0.445389 
-1283.33 -11.4897 752.061 0.598857 0.665582 0.445389 
-1108.79 231.988 153.278 0.598857 0.665582 0.445389 
-1466.88 430.128 336.698 0.598857 0.665582 0.445389 
-1506.63 311.134 568.238 0.598857 0.665582 0.445389 
-1134.94 125.652 347.635 0.598857 0.665582 0.445389 
-1292.43 229.795 402.835 0.598857 0.665582 0.445389 
-1354.5 415.447 207.982 0.598857 0.665582 0.445389 
-1233.51 320.714 187.635 0.598857 0.665582 0.445389 
-1216.98 66.2448 546.643 0.598857 0.665582 0.445389 
-1281.93 129.948 538.318 0.598857 0.665582 0.445389 
-1347.15 129.04 627.147 0.598857 0.665582 0.445389 
-1305.58 -26.2097 803.953 0.598857 0.665582 0.445389 
-1415 220.346 581.36 0.598857 0.665582 0.445389 
-1357.35 164.794 587.269 0.598857 0.665582 0.445389 
-1020.71 230.769 36.9955 0.598857 0.665582 0.445389 
-939.195 241.487 -88.3768 0.598857 0.665582 0.445389 
-1119.85 237.125 160.42 0.598857 0.665582 0.445389 
-1350.6 -34.5773 876.858 0.598857 0.665582 0.445389 
-1238.21 357.036 139.527 0.598857 0.665582 0.445389 
-1361.17 26.5185 799.518 0.598857 0.665582 0.445389 
-1200.14 14.4005 601.719 0.598857 0.665582 0.445389 
-1339.61 291.75 373.307 0.598857 0.665582 0.445389 
-1096.62 147.236 263.921 0.598857 0.665582 0.445389 
-1438.88 186.308 664.373 0.598857 0.665582 0.445389 
-1251.59 -89.0508 825.686 0.598857 0.665582 0.445389 
-1349.21 90.0633 688.291 0.598857 0.665582 0.445389 
-994.7 192.046 60.1163 0.598857 0.665582 0.445389 
-1355.98 400.049 233.033 0.598857 0.665582 0.445389 
-1366.15 196.84 551.065 0.598857 0.665582 0.445389 
-1391.25 27.3525 838.599 0.598857 0.665582 0.445389 
-1463.09 378.541 408.889 0.598857 0.665582 0.445389 
-1189.09 333.786 108.48 0.598857 0.665582 0.445389 
-1322.65 108.381 625.237 0.598857 0.665582 0.445389 
-1040.25 211.661 91.8153 0.598857 0.665582 0.445389 
-1524.43 320.611 577.918 0.598857 0.665582 0.445389 
-1219.87 104.36 493.424 0.598857 0.665582 0.445389 
-1439.38 205.196 636.746 0.598857 0.665582 0.445389 
-1327.71 -41.0705 855.891 0.598857 0.665582 0.445389 
-1443.7 358.646 412.677 0.598857 0.665582 0.445389 
-1241.49 261.181 287.51 0.598857 0.665582 0.445389 
-1384.44 353.927 340.284 0.598857 0.665582 0.445389 
-1503.9 478.15 314.407 0.598857 0.665582 0.445389 
-1055.46 234.141 78.538 0.598857 0.665582 0.445389 
-1393.52 154.621 651.009 0.598857 0.665582 0.445389 
-1350.82 343.589 310.681 0.598857 0.665582 0.445389 
-1237.32 97.5774 526.988 0.598857 0.665582 0.445389 
-1052.08 182.7 151.065 0.598857 0.665582 0.445389 
-1327.14 360.251 253.967 0.598857 0.665582 0.445389 
-1377.61 350.373 336.447 0.598857 0.665582 0.445389 
-975.383 170.959 65.7994 0.598857 0.665582 0.445389 
-1407.46 160.535 660.837 0.598857 0.665582 0.445389 
-1436.18 305.036 482.907 0.598857 0.665582 0.445389 
-1102.53 299.709 43.4532 0.598857 0.665582 0.445389 
-1309.29 145.56 551.621 0.598857 0.665582 0.445389 
-1204.21 15.0441 606.211 0.598857 0.665582 0.445389 
-1242.36 307.144 219.831 0.598857 0.665582 0.445389 
-1021.9 201.258 82.795 0.598857 0.665582 0.445389 
-1165.28 200.656 275.968 0.598857 0.665582 0.445389 
-1357.89 334.804 333.322 0.598857 0.665582 0.445389 
-1441.74 452.546 269.396 0.598857 0.665582 0.445389 
-1071.97 67.005 351.045 0.598857 0.665582 0.445389 
-1280.93 17.3288 705.677 0.598857 0.665582 0.445389 
-1191.01 261.291 219.651 0.598857 0.665582 0.445389 
-1375.71 -18.3845 886.273 0.598857 0.665582 0.445389 
-1222.7 259.75 264.452 0.598857 0.665582 0.445389 
-1337.39 207.177 497.01 0.598857 0.665582 0.445389 
-1526.22 450.002 386.501 0.598857 0.665582 0.445389 
-1160.82 147.415 349.744 0.598857 0.665582 0.445389 
-1533.78 373.235 511.629 0.598857 0.665582 0.445389 
-1166.76 -11.494 595.753 0.598857 0.665582 0.445389 
-1271.09 13.624 698.034 0.598857 0.665582 0.445389 
-1319.09 175.988 519.189 0.598857 0.665582 0.445389 
-988.065 293.403 -100.608 0.598857 0.665582 0.445389 
-1164.3 130.131 380.296 0.598857 0.665582 0.445389 
-1338.2 -4.88474 815.751 0.598857 0.665582 0.445389 
-944.453 188.604 -2.11096 0.598857 0.665582 0.445389 
-1363.93 -73.0734 952.395 0.598857 0.665582 0.445389 
-1462.02 244.204 608.681 0.598857 0.665582 0.445389 
-1171.76 167.846 333.81 0.598857 0.665582 0.445389 
-1315.57 -104.383 934.456 0.598857 0.665582 0.445389 
-1388.54 171.356 619.267 0.598857 0.665582 0.445389 
