ply
format ascii 1.0
comment Created by CloudCompare v2.11.3 (Anoia)
comment Created 08/09/2022 00:17
obj_info Generated by CloudCompare!
element vertex 885
property float x
property float y
property float z
property float nx
property float ny
property float nz
end_header
-3967.21 252.48 1213.95 -0.349976 -0.803827 0.481018 
-4028.47 340.023 1315.22 -0.349976 -0.803827 0.481018 
-3827.96 317.42 1423.78 -0.349976 -0.803827 0.481018 
-4475.98 324.53 962.984 -0.349976 -0.803827 0.481018 
-3928.96 352.746 1409.01 -0.349976 -0.803827 0.481018 
-3516.3 75.6003 1247.95 -0.349976 -0.803827 0.481018 
-4082.79 396.4 1369.58 -0.349976 -0.803827 0.481018 
-3983.38 222.523 1152.21 -0.349976 -0.803827 0.481018 
-4660.68 320.492 821.538 -0.349976 -0.803827 0.481018 
-4035.85 361.201 1345.14 -0.349976 -0.803827 0.481018 
-4177.57 305.865 1149.52 -0.349976 -0.803827 0.481018 
-4327.66 486.063 1340.46 -0.349976 -0.803827 0.481018 
-3952.91 166.268 1080.65 -0.349976 -0.803827 0.481018 
-3938.7 251.599 1233.28 -0.349976 -0.803827 0.481018 
-4279.75 269.394 1014.19 -0.349976 -0.803827 0.481018 
-4210.27 486.952 1427.57 -0.349976 -0.803827 0.481018 
-4312.95 339.489 1106.83 -0.349976 -0.803827 0.481018 
-3520.59 101.748 1288.41 -0.349976 -0.803827 0.481018 
-3682.36 212.732 1355.45 -0.349976 -0.803827 0.481018 
-4025.9 372.101 1370.57 -0.349976 -0.803827 0.481018 
-4102.7 348.184 1274.68 -0.349976 -0.803827 0.481018 
-4499.51 348.804 986.294 -0.349976 -0.803827 0.481018 
-3941.97 168.269 1091.97 -0.349976 -0.803827 0.481018 
-3674.51 126.299 1217.08 -0.349976 -0.803827 0.481018 
-4476.12 265.09 863.792 -0.349976 -0.803827 0.481018 
-4486.01 292.241 901.842 -0.349976 -0.803827 0.481018 
-4392.18 355.914 1076.43 -0.349976 -0.803827 0.481018 
-4265.48 422.314 1279.53 -0.349976 -0.803827 0.481018 
-3631.38 138.491 1268.86 -0.349976 -0.803827 0.481018 
-3843.27 325.792 1426.56 -0.349976 -0.803827 0.481018 
-4436.55 282.693 921.994 -0.349976 -0.803827 0.481018 
-4003.52 196.549 1094.22 -0.349976 -0.803827 0.481018 
-4565.49 351.394 942.487 -0.349976 -0.803827 0.481018 
-4187.81 337.293 1194.45 -0.349976 -0.803827 0.481018 
-4359.29 278.109 970.705 -0.349976 -0.803827 0.481018 
-4291.18 400.129 1223.81 -0.349976 -0.803827 0.481018 
-3713.45 228.679 1359.36 -0.349976 -0.803827 0.481018 
-4410.51 345.902 1046.37 -0.349976 -0.803827 0.481018 
-3720.59 177.023 1268.03 -0.349976 -0.803827 0.481018 
-4285.86 511.064 1412.63 -0.349976 -0.803827 0.481018 
-4181.6 416.991 1331.84 -0.349976 -0.803827 0.481018 
-3956.66 -25.9087 757.539 -0.349976 -0.803827 0.481018 
-4361.49 181.96 808.806 -0.349976 -0.803827 0.481018 
-3852.4 -173.752 587.103 -0.349976 -0.803827 0.481018 
-3643.52 -58.7036 931.258 -0.349976 -0.803827 0.481018 
-4412.11 235.453 861.07 -0.349976 -0.803827 0.481018 
-3685.99 89.3074 1147.03 -0.349976 -0.803827 0.481018 
-3785.68 -139.135 693.478 -0.349976 -0.803827 0.481018 
-4175.83 44.6177 715.259 -0.349976 -0.803827 0.481018 
-4098.71 -70.2871 579.948 -0.349976 -0.803827 0.481018 
-3967.45 -190.047 476.028 -0.349976 -0.803827 0.481018 
-3578.23 46.407 1154.11 -0.349976 -0.803827 0.481018 
-3647.43 45.6077 1102.3 -0.349976 -0.803827 0.481018 
-3744.87 -54.3965 864.514 -0.349976 -0.803827 0.481018 
-4131.9 93.28 828.423 -0.349976 -0.803827 0.481018 
-3989.41 -113.141 588.221 -0.349976 -0.803827 0.481018 
-4105.87 113.198 880.612 -0.349976 -0.803827 0.481018 
-3931.46 -138.263 588.604 -0.349976 -0.803827 0.481018 
-4330.38 54.5559 619.103 -0.349976 -0.803827 0.481018 
-3778.87 38.2217 994.12 -0.349976 -0.803827 0.481018 
-3961.88 -194.389 472.854 -0.349976 -0.803827 0.481018 
-4028.63 101.505 917.456 -0.349976 -0.803827 0.481018 
-3524.54 -4.67236 1108.12 -0.349976 -0.803827 0.481018 
-3833.24 121.086 1092.61 -0.349976 -0.803827 0.481018 
-3518.26 60.396 1221.17 -0.349976 -0.803827 0.481018 
-4348.34 142.462 752.552 -0.349976 -0.803827 0.481018 
-4427.75 117.616 653.209 -0.349976 -0.803827 0.481018 
-3960.82 105.854 974.164 -0.349976 -0.803827 0.481018 
-3603.2 23.6421 1097.94 -0.349976 -0.803827 0.481018 
-4006.33 -81.8955 627.972 -0.349976 -0.803827 0.481018 
-4136.7 99.0293 834.509 -0.349976 -0.803827 0.481018 
-4331.71 89.928 677.102 -0.349976 -0.803827 0.481018 
-4230.43 44.8291 675.783 -0.349976 -0.803827 0.481018 
-3795.61 -36.0894 858.031 -0.349976 -0.803827 0.481018 
-4013.71 -16.9089 730.933 -0.349976 -0.803827 0.481018 
-4134.74 115.41 863.243 -0.349976 -0.803827 0.481018 
-3687.71 32.4478 1050.99 -0.349976 -0.803827 0.481018 
-3892.55 61.5967 950.177 -0.349976 -0.803827 0.481018 
-3712.73 -30.8484 927.212 -0.349976 -0.803827 0.481018 
-4260.25 194.841 904.124 -0.349976 -0.803827 0.481018 
-4002.69 109.118 949.069 -0.349976 -0.803827 0.481018 
-3792.37 -70.5059 803.016 -0.349976 -0.803827 0.481018 
-3720.07 -69.3657 857.648 -0.349976 -0.803827 0.481018 
-3897.84 -48.6265 762.563 -0.349976 -0.803827 0.481018 
-4457.42 151.86 688.662 -0.349976 -0.803827 0.481018 
-3699.17 39.5251 1054.43 -0.349976 -0.803827 0.481018 
-3587.65 -20.4893 1035.71 -0.349976 -0.803827 0.481018 
-4170.43 20.6699 679.271 -0.349976 -0.803827 0.481018 
-4043.18 -6.72705 726.409 -0.349976 -0.803827 0.481018 
-4092.32 142.424 939.222 -0.349976 -0.803827 0.481018 
-4046.38 36.498 796.137 -0.349976 -0.803827 0.481018 
-4319.53 206.683 880.632 -0.349976 -0.803827 0.481018 
-3914.35 -85.4146 689.194 -0.349976 -0.803827 0.481018 
-4011.04 -136.537 533.439 -0.349976 -0.803827 0.481018 
-3868.94 7.63184 877.43 -0.349976 -0.803827 0.481018 
-4637.54 267.341 749.806 -0.349976 -0.803827 0.481018 
-4034.79 110.567 928.07 -0.349976 -0.803827 0.481018 
-3828.66 -151.479 641.553 -0.349976 -0.803827 0.481018 
-3948.14 125.116 1015.53 -0.349976 -0.803827 0.481018 
-4316.57 111.995 724.933 -0.349976 -0.803827 0.481018 
-4326.35 194.08 854.646 -0.349976 -0.803827 0.481018 
-3959.28 57.8149 895.206 -0.349976 -0.803827 0.481018 
-3715.21 58.7397 1074.76 -0.349976 -0.803827 0.481018 
-3734.15 907.936 1176.03 0.511876 0.266051 0.816823 
-3982.14 889.268 1337.2 0.511876 0.266051 0.816823 
-3835.32 751.956 1290.18 0.511876 0.266051 0.816823 
-3707.85 977.199 1136.99 0.511876 0.266051 0.816823 
-3861.59 1057.69 1206.87 0.511876 0.266051 0.816823 
-4056.23 906.845 1377.79 0.511876 0.266051 0.816823 
-3841.56 1105.76 1178.66 0.511876 0.266051 0.816823 
-4135.49 733.582 1483.88 0.511876 0.266051 0.816823 
-3504.43 1029.58 992.692 0.511876 0.266051 0.816823 
-3983.88 944.566 1320.24 0.511876 0.266051 0.816823 
-3678.85 1239.88 1033.15 0.511876 0.266051 0.816823 
-3687.85 739.767 1201.94 0.511876 0.266051 0.816823 
-3969.27 715.478 1385.85 0.511876 0.266051 0.816823 
-3827.86 1063.58 1183.85 0.511876 0.266051 0.816823 
-3384.84 1011.41 923.837 0.511876 0.266051 0.816823 
-3281.16 822.933 920.498 0.511876 0.266051 0.816823 
-3622.85 1051.74 1059.51 0.511876 0.266051 0.816823 
-4046.78 625.061 1463.81 0.511876 0.266051 0.816823 
-3960.33 1126.69 1246.1 0.511876 0.266051 0.816823 
-3535.6 826.02 1078.6 0.511876 0.266051 0.816823 
-3526.82 903.729 1047.75 0.511876 0.266051 0.816823 
-3586.61 780.673 1125.29 0.511876 0.266051 0.816823 
-3643.42 940.436 1108.69 0.511876 0.266051 0.816823 
-3411.71 1015.02 939.463 0.511876 0.266051 0.816823 
-3784.32 997.306 1178.25 0.511876 0.266051 0.816823 
-3400.86 969.881 947.404 0.511876 0.266051 0.816823 
-3909.07 885.896 1292.6 0.511876 0.266051 0.816823 
-3918.97 1127.73 1219.89 0.511876 0.266051 0.816823 
-3217.35 941.421 841.937 0.511876 0.266051 0.816823 
-3843.75 860.225 1260.13 0.511876 0.266051 0.816823 
-3693.69 823.07 1178.42 0.511876 0.266051 0.816823 
-3418.93 816.37 1008.78 0.511876 0.266051 0.816823 
-3854.84 1322.44 1116.27 0.511876 0.266051 0.816823 
-3454.64 1050.39 954.769 0.511876 0.266051 0.816823 
-3461.28 780.82 1046.87 0.511876 0.266051 0.816823 
-3549.09 969.167 1040.33 0.511876 0.266051 0.816823 
-3768.04 1149.59 1118.38 0.511876 0.266051 0.816823 
-3706.57 1060.17 1109.12 0.511876 0.266051 0.816823 
-3598.82 840.187 1113.51 0.511876 0.266051 0.816823 
-4019.4 809.017 1386.68 0.511876 0.266051 0.816823 
-3422.39 827.843 1007.21 0.511876 0.266051 0.816823 
-3489.41 1043.02 978.916 0.511876 0.266051 0.816823 
-3649.48 756.776 1172.4 0.511876 0.266051 0.816823 
-3905 1125.01 1212.04 0.511876 0.266051 0.816823 
-3410.76 799.815 1009.08 0.511876 0.266051 0.816823 
-3595.35 981.88 1065.11 0.511876 0.266051 0.816823 
-3309.14 924.429 904.88 0.511876 0.266051 0.816823 
-3535.17 1101.92 988.311 0.511876 0.266051 0.816823 
-3731.84 1008.98 1141.62 0.511876 0.266051 0.816823 
-3406 987.197 944.969 0.511876 0.266051 0.816823 
-3687.23 838.334 1169.4 0.511876 0.266051 0.816823 
-3837.24 1243.92 1130.88 0.511876 0.266051 0.816823 
-3743.8 1062.77 1131.55 0.511876 0.266051 0.816823 
-3250.37 957.381 857.375 0.511876 0.266051 0.816823 
-3166.04 856.839 837.443 0.511876 0.266051 0.816823 
-3727.87 732.042 1229.49 0.511876 0.266051 0.816823 
-3835.79 1316.92 1106.16 0.511876 0.266051 0.816823 
-3589.44 756.3 1135.01 0.511876 0.266051 0.816823 
-3175.51 854.36 844.176 0.511876 0.266051 0.816823 
-3684.68 1002.84 1114.13 0.511876 0.266051 0.816823 
-4068.74 611.869 1481.85 0.511876 0.266051 0.816823 
-3679.19 1223.39 1038.75 0.511876 0.266051 0.816823 
-3642.09 1205.56 1021.36 0.511876 0.266051 0.816823 
-3475.93 127.505 1269.17 0.511876 0.266051 0.816823 
-3992.46 571.584 1447.3 0.511876 0.266051 0.816823 
-3749.28 351.803 1366.93 0.511876 0.266051 0.816823 
-3396.68 106.336 1226.52 0.511876 0.266051 0.816823 
-3119.45 790.199 830.054 0.511876 0.266051 0.816823 
-3939.81 588.03 1409.01 0.511876 0.266051 0.816823 
-3141.84 694.681 875.218 0.511876 0.266051 0.816823 
-3157.41 807.632 848.1 0.511876 0.266051 0.816823 
-3339.62 768.729 974.737 0.511876 0.266051 0.816823 
-3567.58 221.448 1295.84 0.511876 0.266051 0.816823 
-3288.67 592.327 1000.43 0.511876 0.266051 0.816823 
-3801.58 607.799 1316.12 0.511876 0.266051 0.816823 
-3534.35 387.664 1220.83 0.511876 0.266051 0.816823 
-3800.63 526.815 1341.94 0.511876 0.266051 0.816823 
-3553.98 567.712 1174.37 0.511876 0.266051 0.816823 
-3485.47 675.794 1096.26 0.511876 0.266051 0.816823 
-3378.43 742.266 1007.64 0.511876 0.266051 0.816823 
-3541.83 170.75 1296.28 0.511876 0.266051 0.816823 
-3611.65 396.912 1266.15 0.511876 0.266051 0.816823 
-3460.76 402.929 1169.83 0.511876 0.266051 0.816823 
-3328.52 336.177 1108.92 0.511876 0.266051 0.816823 
-3555.51 327.149 1253.81 0.511876 0.266051 0.816823 
-3715.33 491.588 1300.09 0.511876 0.266051 0.816823 
-3337.78 662.954 1008.09 0.511876 0.266051 0.816823 
-4052.88 513.877 1503.9 0.511876 0.266051 0.816823 
-3421.53 509.589 1110.5 0.511876 0.266051 0.816823 
-3729.15 663.425 1252.67 0.511876 0.266051 0.816823 
-3247.83 602.446 971.59 0.511876 0.266051 0.816823 
-3400.61 626.083 1059.41 0.511876 0.266051 0.816823 
-4055.04 531.144 1499.62 0.511876 0.266051 0.816823 
-3273.44 735.16 944.304 0.511876 0.266051 0.816823 
-3613.62 288.612 1302.72 0.511876 0.266051 0.816823 
-3904.04 635.906 1371.02 0.511876 0.266051 0.816823 
-4028.96 569.873 1470.67 0.511876 0.266051 0.816823 
-3346.76 595.898 1035.59 0.511876 0.266051 0.816823 
-3735.83 637.34 1265.36 0.511876 0.266051 0.816823 
-3799.49 403.69 1381.4 0.511876 0.266051 0.816823 
-3413.86 583.076 1081.73 0.511876 0.266051 0.816823 
-3161.67 793.507 855.374 0.511876 0.266051 0.816823 
-3699.29 370.865 1329.46 0.511876 0.266051 0.816823 
-3244.02 696.279 938.593 0.511876 0.266051 0.816823 
-3384.07 587.938 1061.51 0.511876 0.266051 0.816823 
-3564.29 473.616 1211.51 0.511876 0.266051 0.816823 
-3419.43 463.578 1124.2 0.511876 0.266051 0.816823 
-3562.41 508.923 1198.81 0.511876 0.266051 0.816823 
-3710.05 321.513 1352.28 0.511876 0.266051 0.816823 
-3945.36 549.677 1424.99 0.511876 0.266051 0.816823 
-3468.84 552.323 1126.14 0.511876 0.266051 0.816823 
-3241.45 460.25 1013.99 0.511876 0.266051 0.816823 
-3559.74 706.789 1132.59 0.511876 0.266051 0.816823 
-3946.76 586.745 1413.77 0.511876 0.266051 0.816823 
-3709.91 529.883 1284.22 0.511876 0.266051 0.816823 
-3381.15 247.241 1170.84 0.511876 0.266051 0.816823 
-3534.43 729.776 1109.27 0.511876 0.266051 0.816823 
-3269.81 406.714 1049.19 0.511876 0.266051 0.816823 
-3509.76 148.175 1283.59 0.511876 0.266051 0.816823 
-3499.32 360.038 1207.94 0.511876 0.266051 0.816823 
-3279.99 631.76 982.136 0.511876 0.266051 0.816823 
-3446.09 743.686 1049.49 0.511876 0.266051 0.816823 
-3762.49 374.068 1367.93 0.511876 0.266051 0.816823 
-3867.02 517.074 1386.64 0.511876 0.266051 0.816823 
-3710.98 365.508 1338.51 0.511876 0.266051 0.816823 
-4483.81 291.502 622.213 -0.511876 -0.266051 -0.816823 
-4556.71 403.872 631.141 -0.511876 -0.266051 -0.816823 
-4076.17 177.514 404.492 -0.511876 -0.266051 -0.816823 
-4408.78 622.667 467.249 -0.511876 -0.266051 -0.816823 
-4550.51 249.572 677.6 -0.511876 -0.266051 -0.816823 
-4529.27 492.158 585.175 -0.511876 -0.266051 -0.816823 
-4489 512.3 553.424 -0.511876 -0.266051 -0.816823 
-4247.79 289.301 475.338 -0.511876 -0.266051 -0.816823 
-4136.36 299.749 402.25 -0.511876 -0.266051 -0.816823 
-3991.16 -143.787 456.161 -0.511876 -0.266051 -0.816823 
-4329.66 204.317 554.26 -0.511876 -0.266051 -0.816823 
-4173.98 192.209 460.859 -0.511876 -0.266051 -0.816823 
-4320.88 369.121 495.002 -0.511876 -0.266051 -0.816823 
-4237.84 4.55151 562.019 -0.511876 -0.266051 -0.816823 
-4378.26 927.491 348.716 -0.511876 -0.266051 -0.816823 
-4263.13 145.462 531.86 -0.511876 -0.266051 -0.816823 
-4571.9 483.089 614.793 -0.511876 -0.266051 -0.816823 
-4135.19 266.793 412.274 -0.511876 -0.266051 -0.816823 
-4329.08 357.578 503.9 -0.511876 -0.266051 -0.816823 
-4299.61 168.747 547.076 -0.511876 -0.266051 -0.816823 
-4499.51 267.99 639.699 -0.511876 -0.266051 -0.816823 
-4398.07 117.013 625.523 -0.511876 -0.266051 -0.816823 
-4388.52 920.485 357.419 -0.511876 -0.266051 -0.816823 
-4395.13 992.025 338.207 -0.511876 -0.266051 -0.816823 
-4483.63 411.369 582.992 -0.511876 -0.266051 -0.816823 
-4106.36 -56.3845 499.682 -0.511876 -0.266051 -0.816823 
-4500.81 421.509 590.428 -0.511876 -0.266051 -0.816823 
-4365.37 618.867 441.346 -0.511876 -0.266051 -0.816823 
-4574.32 376.583 651.051 -0.511876 -0.266051 -0.816823 
-4453.72 262.224 612.95 -0.511876 -0.266051 -0.816823 
-4540.08 445.222 607.25 -0.511876 -0.266051 -0.816823 
-4429.55 602.908 486.682 -0.511876 -0.266051 -0.816823 
-4300.66 256.614 519.065 -0.511876 -0.266051 -0.816823 
-4403.13 388.509 540.11 -0.511876 -0.266051 -0.816823 
-4529 554.462 564.682 -0.511876 -0.266051 -0.816823 
-4394.73 987.311 339.499 -0.511876 -0.266051 -0.816823 
-4275.24 461.98 436.166 -0.511876 -0.266051 -0.816823 
-4468.83 848.627 431.079 -0.511876 -0.266051 -0.816823 
-4480.28 277.508 624.571 -0.511876 -0.266051 -0.816823 
-4327.21 219.042 547.927 -0.511876 -0.266051 -0.816823 
-4268.7 130.318 540.285 -0.511876 -0.266051 -0.816823 
-4232.03 480.309 403.17 -0.511876 -0.266051 -0.816823 
-4509.59 621.867 530.55 -0.511876 -0.266051 -0.816823 
-4119.48 193.598 426.329 -0.511876 -0.266051 -0.816823 
-4216.27 514.963 382.009 -0.511876 -0.266051 -0.816823 
-4473.31 327.18 604.005 -0.511876 -0.266051 -0.816823 
-4214.85 342.809 437.284 -0.511876 -0.266051 -0.816823 
-4092.81 16.0151 467.586 -0.511876 -0.266051 -0.816823 
-4471.55 706.062 479.294 -0.511876 -0.266051 -0.816823 
-4424.23 573.039 493.103 -0.511876 -0.266051 -0.816823 
-4035.52 -6.8501 439.225 -0.511876 -0.266051 -0.816823 
-4179.36 216.047 456.447 -0.511876 -0.266051 -0.816823 
-4374.18 623.94 445.2 -0.511876 -0.266051 -0.816823 
-4352.65 344.506 522.9 -0.511876 -0.266051 -0.816823 
-4430.57 192.407 621.248 -0.511876 -0.266051 -0.816823 
-3975.22 -107.064 434.208 -0.511876 -0.266051 -0.816823 
-4170.81 150.442 472.507 -0.511876 -0.266051 -0.816823 
-4331.3 535.805 447.14 -0.511876 -0.266051 -0.816823 
-4091.16 238.299 394.033 -0.511876 -0.266051 -0.816823 
-4432.42 540.146 508.954 -0.511876 -0.266051 -0.816823 
-4122.16 -18.0344 497.049 -0.511876 -0.266051 -0.816823 
-4387.04 455.816 508.091 -0.511876 -0.266051 -0.816823 
-4436.43 812.064 422.749 -0.511876 -0.266051 -0.816823 
-4036.47 249.582 356.156 -0.511876 -0.266051 -0.816823 
-3931.51 658.869 156.987 -0.511876 -0.266051 -0.816823 
-3849.19 458.734 170.809 -0.511876 -0.266051 -0.816823 
-3765.55 467.434 115.665 -0.511876 -0.266051 -0.816823 
-4092.69 522.954 302.122 -0.511876 -0.266051 -0.816823 
-4211.7 770.111 295.909 -0.511876 -0.266051 -0.816823 
-3793.44 667.256 67.912 -0.511876 -0.266051 -0.816823 
-3857.53 509.322 159.517 -0.511876 -0.266051 -0.816823 
-4031.69 478.729 278.405 -0.511876 -0.266051 -0.816823 
-3898.25 755.889 104.535 -0.511876 -0.266051 -0.816823 
-3859.94 502.089 163.382 -0.511876 -0.266051 -0.816823 
-4232.75 764.953 310.751 -0.511876 -0.266051 -0.816823 
-4002.05 242.03 337.094 -0.511876 -0.266051 -0.816823 
-4067.14 802.541 194.931 -0.511876 -0.266051 -0.816823 
-3740.91 340.244 141.754 -0.511876 -0.266051 -0.816823 
-4095.09 916.051 175.376 -0.511876 -0.266051 -0.816823 
-3783.53 267.704 192.075 -0.511876 -0.266051 -0.816823 
-3900.5 88.825 323.578 -0.511876 -0.266051 -0.816823 
-3727.32 245.37 164.208 -0.511876 -0.266051 -0.816823 
-4093.15 379.163 349.322 -0.511876 -0.266051 -0.816823 
-3739.28 284.167 159.032 -0.511876 -0.266051 -0.816823 
-3716.38 284.382 144.641 -0.511876 -0.266051 -0.816823 
-3754.91 656.114 47.455 -0.511876 -0.266051 -0.816823 
-4148.42 802.41 245.795 -0.511876 -0.266051 -0.816823 
-4111.5 581.804 294.686 -0.511876 -0.266051 -0.816823 
-3796.81 592.748 94.3313 -0.511876 -0.266051 -0.816823 
-4147.21 558.521 324.612 -0.511876 -0.266051 -0.816823 
-3728.46 643.118 35.1581 -0.511876 -0.266051 -0.816823 
-3969.99 765.6 146.232 -0.511876 -0.266051 -0.816823 
-3855.02 399.533 193.765 -0.511876 -0.266051 -0.816823 
-3843.63 746.918 73.307 -0.511876 -0.266051 -0.816823 
-3982.74 427.753 264.426 -0.511876 -0.266051 -0.816823 
-3666.94 490.155 46.5894 -0.511876 -0.266051 -0.816823 
-4105.57 383.177 355.779 -0.511876 -0.266051 -0.816823 
-3757.73 502.685 99.2732 -0.511876 -0.266051 -0.816823 
-3906.4 305.813 256.47 -0.511876 -0.266051 -0.816823 
-4043.59 270.916 353.649 -0.511876 -0.266051 -0.816823 
-4046.61 132.787 400.602 -0.511876 -0.266051 -0.816823 
-3732.65 680.051 25.7285 -0.511876 -0.266051 -0.816823 
-3996.36 841.046 138.107 -0.511876 -0.266051 -0.816823 
-4183.78 941.771 222.444 -0.511876 -0.266051 -0.816823 
-3792.52 207.141 217.452 -0.511876 -0.266051 -0.816823 
-3656.43 620.89 -2.63464 -0.511876 -0.266051 -0.816823 
-3955.21 -95.2761 417.851 -0.511876 -0.266051 -0.816823 
-3906.79 364.743 237.492 -0.511876 -0.266051 -0.816823 
-3985.97 434.46 264.261 -0.511876 -0.266051 -0.816823 
-4050.62 866.188 163.831 -0.511876 -0.266051 -0.816823 
-3920.11 549.061 185.685 -0.511876 -0.266051 -0.816823 
-4209.52 822.791 277.355 -0.511876 -0.266051 -0.816823 
-3908.5 684.753 134.156 -0.511876 -0.266051 -0.816823 
-3998.93 421.188 276.693 -0.511876 -0.266051 -0.816823 
-3762.39 178.79 207.862 -0.511876 -0.266051 -0.816823 
-3918.08 297.77 266.398 -0.511876 -0.266051 -0.816823 
-3755.2 499.943 98.5879 -0.511876 -0.266051 -0.816823 
-4021.64 202.848 362.127 -0.511876 -0.266051 -0.816823 
-3886.64 566.316 159.125 -0.511876 -0.266051 -0.816823 
-4081.17 435.151 323.564 -0.511876 -0.266051 -0.816823 
-3874.06 370.076 215.283 -0.511876 -0.266051 -0.816823 
-3672.2 389.136 82.8389 -0.511876 -0.266051 -0.816823 
-3829.87 614.128 108.025 -0.511876 -0.266051 -0.816823 
-4014.1 537.477 248.241 -0.511876 -0.266051 -0.816823 
-3760.85 508.778 99.2406 -0.511876 -0.266051 -0.816823 
-3945.51 276.93 290.354 -0.511876 -0.266051 -0.816823 
-4408.89 517.181 1175 -0.784106 0.534981 0.314601 
-4277.93 625.138 1317.69 -0.784106 0.534981 0.314601 
-4315.37 524.947 1393.62 -0.784106 0.534981 0.314601 
-4370.47 686.549 984.997 -0.784106 0.534981 0.314601 
-4512.05 658.179 681.978 -0.784106 0.534981 0.314601 
-4429.21 606.37 974.471 -0.784106 0.534981 0.314601 
-4630.49 465.3 713.316 -0.784106 0.534981 0.314601 
-4680.41 334.96 809.082 -0.784106 0.534981 0.314601 
-4364.51 526.11 1269.92 -0.784106 0.534981 0.314601 
-4366.45 909.095 620.245 -0.784106 0.534981 0.314601 
-4271.32 782.067 1069.84 -0.784106 0.534981 0.314601 
-4365.35 1052.3 381.84 -0.784106 0.534981 0.314601 
-4522.88 738.47 519.949 -0.784106 0.534981 0.314601 
-4453.83 622.28 886.698 -0.784106 0.534981 0.314601 
-4324.72 787.663 928.09 -0.784106 0.534981 0.314601 
-4390.29 618.523 1050.44 -0.784106 0.534981 0.314601 
-4362.55 832.926 758.156 -0.784106 0.534981 0.314601 
-4405.48 849.907 623.192 -0.784106 0.534981 0.314601 
-4402.37 706.12 873.007 -0.784106 0.534981 0.314601 
-4444.82 891.275 456.076 -0.784106 0.534981 0.314601 
-4342.6 796.141 869.529 -0.784106 0.534981 0.314601 
-4411.22 540.998 1129.12 -0.784106 0.534981 0.314601 
-4455.09 844.665 509.114 -0.784106 0.534981 0.314601 
-4462.4 580.045 936.58 -0.784106 0.534981 0.314601 
-4672.18 406.731 708.635 -0.784106 0.534981 0.314601 
-4254.41 700.809 1248.54 -0.784106 0.534981 0.314601 
-4289.67 621.847 1294.15 -0.784106 0.534981 0.314601 
-4509.31 444.756 1048.15 -0.784106 0.534981 0.314601 
-4361.68 826.042 771.893 -0.784106 0.534981 0.314601 
-4267.37 573.764 1430.35 -0.784106 0.534981 0.314601 
-4384.82 549.294 1180.56 -0.784106 0.534981 0.314601 
-4557.07 638.311 603.893 -0.784106 0.534981 0.314601 
-4426.94 748.563 740.675 -0.784106 0.534981 0.314601 
-4558.82 557.505 735.615 -0.784106 0.534981 0.314601 
-4477.41 715.188 671.83 -0.784106 0.534981 0.314601 
-4325.01 688.121 1095 -0.784106 0.534981 0.314601 
-4512.27 659.045 679.989 -0.784106 0.534981 0.314601 
-4450.54 662.497 827.108 -0.784106 0.534981 0.314601 
-4411.6 611.308 1009.8 -0.784106 0.534981 0.314601 
-4486.41 574.003 887.255 -0.784106 0.534981 0.314601 
-4457.07 517.642 1054.85 -0.784106 0.534981 0.314601 
-4549.16 582.645 717.228 -0.784106 0.534981 0.314601 
-4245.82 686.592 1293.76 -0.784106 0.534981 0.314601 
-4543.43 541.007 801.531 -0.784106 0.534981 0.314601 
-4551.73 538.959 784.426 -0.784106 0.534981 0.314601 
-4589.58 517.043 727.538 -0.784106 0.534981 0.314601 
-4460.14 496.847 1082.25 -0.784106 0.534981 0.314601 
-4378.69 677.628 979.66 -0.784106 0.534981 0.314601 
-4356.15 849.719 745.747 -0.784106 0.534981 0.314601 
-4437.12 872.511 506.752 -0.784106 0.534981 0.314601 
-4245.54 666.013 1329.11 -0.784106 0.534981 0.314601 
-4489.94 769.284 549.683 -0.784106 0.534981 0.314601 
-4585.33 566.828 654.23 -0.784106 0.534981 0.314601 
-4294.36 570.835 1368.43 -0.784106 0.534981 0.314601 
-4246.21 634.756 1380.09 -0.784106 0.534981 0.314601 
-4285.32 576.271 1381.67 -0.784106 0.534981 0.314601 
-4274.13 743.438 1127.91 -0.784106 0.534981 0.314601 
-4409.37 531.556 1149.61 -0.784106 0.534981 0.314601 
-4307.61 654.623 1194.51 -0.784106 0.534981 0.314601 
-4273.07 701.318 1201.46 -0.784106 0.534981 0.314601 
-4619.18 368.394 904.488 -0.784106 0.534981 0.314601 
-4585.53 461.055 831.854 -0.784106 0.534981 0.314601 
-4213.61 1003.49 839.982 -0.784106 0.534981 0.314601 
-4228.32 1069.81 691.876 -0.784106 0.534981 0.314601 
-4089.2 975.193 1195.88 -0.784106 0.534981 0.314601 
-4133.97 1089.83 891.925 -0.784106 0.534981 0.314601 
-3984.12 1106.88 1234.5 -0.784106 0.534981 0.314601 
-4130.7 816.943 1359.52 -0.784106 0.534981 0.314601 
-4212.89 1173.96 554.726 -0.784106 0.534981 0.314601 
-4225.82 1105.53 637.918 -0.784106 0.534981 0.314601 
-4268 1017.24 682.054 -0.784106 0.534981 0.314601 
-3983.5 1163.46 1140.76 -0.784106 0.534981 0.314601 
-4312.71 1013.54 577.523 -0.784106 0.534981 0.314601 
-3990.98 1170.74 1109.96 -0.784106 0.534981 0.314601 
-4286.86 1152.02 408.398 -0.784106 0.534981 0.314601 
-4211.42 671.639 1404.19 -0.784106 0.534981 0.314601 
-4222.52 714.847 1303.93 -0.784106 0.534981 0.314601 
-4036.17 984.464 1311.66 -0.784106 0.534981 0.314601 
-4257.69 1048.81 654.464 -0.784106 0.534981 0.314601 
-4107.66 1079.19 975.009 -0.784106 0.534981 0.314601 
-4154.84 731.045 1444.34 -0.784106 0.534981 0.314601 
-3903.27 1299.64 1110.24 -0.784106 0.534981 0.314601 
-4071.18 1073.61 1074.8 -0.784106 0.534981 0.314601 
-4057.92 1171.56 942.722 -0.784106 0.534981 0.314601 
-4257.06 918.981 874.619 -0.784106 0.534981 0.314601 
-4159.43 734.244 1427.58 -0.784106 0.534981 0.314601 
-4171.07 721.478 1420.25 -0.784106 0.534981 0.314601 
-4222.78 974.697 865.751 -0.784106 0.534981 0.314601 
-3931.68 1206.43 1196.8 -0.784106 0.534981 0.314601 
-4059.53 975.942 1268.12 -0.784106 0.534981 0.314601 
-4193.49 813.067 1210.47 -0.784106 0.534981 0.314601 
-4127.93 915.69 1200.1 -0.784106 0.534981 0.314601 
-4009.09 1035.58 1292.68 -0.784106 0.534981 0.314601 
-4133.35 1193.3 719.233 -0.784106 0.534981 0.314601 
-4216.6 968.191 892.009 -0.784106 0.534981 0.314601 
-4115.6 1188.55 771.222 -0.784106 0.534981 0.314601 
-4216.95 749.01 1260.2 -0.784106 0.534981 0.314601 
-3945.42 1255.24 1080.56 -0.784106 0.534981 0.314601 
-4223.15 1043.25 749.399 -0.784106 0.534981 0.314601 
-4050.54 989.528 1267.53 -0.784106 0.534981 0.314601 
-3942.8 1298.74 1013.82 -0.784106 0.534981 0.314601 
-4248.4 938.592 863.063 -0.784106 0.534981 0.314601 
-4042.27 1096.09 1108.6 -0.784106 0.534981 0.314601 
-4197.87 1115.08 691.086 -0.784106 0.534981 0.314601 
-4051.15 1190.83 927.068 -0.784106 0.534981 0.314601 
-4147.17 1046.09 932.857 -0.784106 0.534981 0.314601 
-3976.32 1203.99 1090.32 -0.784106 0.534981 0.314601 
-4157.53 1009.94 968.068 -0.784106 0.534981 0.314601 
-4157.36 813.903 1298.59 -0.784106 0.534981 0.314601 
-4055.12 1205.23 892.966 -0.784106 0.534981 0.314601 
-4010.62 1153.68 1090.05 -0.784106 0.534981 0.314601 
-4086.8 1063.28 1053.49 -0.784106 0.534981 0.314601 
-4137.76 785.782 1394.48 -0.784106 0.534981 0.314601 
-4141.36 1047.73 944.491 -0.784106 0.534981 0.314601 
-4142.41 1165.08 744.295 -0.784106 0.534981 0.314601 
-4067.39 902.182 1372.86 -0.784106 0.534981 0.314601 
-4237.24 891.648 969.749 -0.784106 0.534981 0.314601 
-4164.7 1097.25 803.297 -0.784106 0.534981 0.314601 
-4219.04 996.174 838.856 -0.784106 0.534981 0.314601 
-4111.43 1031.76 1045.55 -0.784106 0.534981 0.314601 
-4199.98 1074.36 754.416 -0.784106 0.534981 0.314601 
-4054.57 1196.51 909.013 -0.784106 0.534981 0.314601 
-4274.45 879.225 898.479 -0.784106 0.534981 0.314601 
-4013.33 1177.91 1042.53 -0.784106 0.534981 0.314601 
-3467.56 172.864 928.898 0.78465 -0.532156 -0.318015 
-3444.68 104.04 1101.48 0.78465 -0.532156 -0.318015 
-3501.75 161.649 863.061 0.78465 -0.532156 -0.318015 
-3427.39 231.721 929.309 0.78465 -0.532156 -0.318015 
-3457.61 86.5522 1098.87 0.78465 -0.532156 -0.318015 
-3485.01 114.832 983.374 0.78465 -0.532156 -0.318015 
-3416.83 249.125 926.176 0.78465 -0.532156 -0.318015 
-3529.98 130.716 845.208 0.78465 -0.532156 -0.318015 
-3533.98 115.545 860.841 0.78465 -0.532156 -0.318015 
-3406.14 217.354 1006.15 0.78465 -0.532156 -0.318015 
-3497.15 89.4355 996.045 0.78465 -0.532156 -0.318015 
-3391.48 334.208 845.724 0.78465 -0.532156 -0.318015 
-3538.07 106.436 866.042 0.78465 -0.532156 -0.318015 
-3402.31 181.035 1076.8 0.78465 -0.532156 -0.318015 
-3293.57 483.28 837.294 0.78465 -0.532156 -0.318015 
-3280.28 405.033 1001.98 0.78465 -0.532156 -0.318015 
-3374.05 294.503 955.764 0.78465 -0.532156 -0.318015 
-3328.48 402.116 887.47 0.78465 -0.532156 -0.318015 
-3352.48 252.671 1079.65 0.78465 -0.532156 -0.318015 
-3150.78 709.319 810.481 0.78465 -0.532156 -0.318015 
-3295.27 337.751 1078.12 0.78465 -0.532156 -0.318015 
-3329.74 294.117 1066.19 0.78465 -0.532156 -0.318015 
-3171.1 629.14 895.142 0.78465 -0.532156 -0.318015 
-3222.14 602.178 814.083 0.78465 -0.532156 -0.318015 
-3324.17 317.583 1040.48 0.78465 -0.532156 -0.318015 
-3248.03 561.692 818.09 0.78465 -0.532156 -0.318015 
-3346.85 249.19 1099.46 0.78465 -0.532156 -0.318015 
-3327.33 350.914 976.533 0.78465 -0.532156 -0.318015 
-3281.47 421.002 972.133 0.78465 -0.532156 -0.318015 
-3218.17 659.183 727.937 0.78465 -0.532156 -0.318015 
-3240.03 625.277 730.864 0.78465 -0.532156 -0.318015 
-3346.48 457.709 749.274 0.78465 -0.532156 -0.318015 
-3174.62 695.689 774.356 0.78465 -0.532156 -0.318015 
-3246.04 587.766 779.132 0.78465 -0.532156 -0.318015 
-3354.86 414.843 800.683 0.78465 -0.532156 -0.318015 
-3288.76 514.522 796.606 0.78465 -0.532156 -0.318015 
-3345.67 423.583 808.731 0.78465 -0.532156 -0.318015 
-3640.72 65.8843 679.992 0.78465 -0.532156 -0.318015 
-3748.88 -31.3645 575.761 0.78465 -0.532156 -0.318015 
-3691.53 43.439 591.905 0.78465 -0.532156 -0.318015 
-3487.08 70.2227 1053.36 0.78465 -0.532156 -0.318015 
-3884.87 -184.641 496.911 0.78465 -0.532156 -0.318015 
-3822.43 -148.776 591.229 0.78465 -0.532156 -0.318015 
-3622.13 -53.2139 926.586 0.78465 -0.532156 -0.318015 
-3676.26 -66.7239 815.217 0.78465 -0.532156 -0.318015 
-3587.61 -40.8 991.231 0.78465 -0.532156 -0.318015 
-3646.33 -46.761 855.773 0.78465 -0.532156 -0.318015 
-3595.83 16.8828 873.736 0.78465 -0.532156 -0.318015 
-3538.09 72.0625 923.87 0.78465 -0.532156 -0.318015 
-3646.91 -57.5571 872.514 0.78465 -0.532156 -0.318015 
-3502.02 35.3174 1075.11 0.78465 -0.532156 -0.318015 
-3577.64 4.37183 939.865 0.78465 -0.532156 -0.318015 
-3766.72 -117.923 677.299 0.78465 -0.532156 -0.318015 
-3642.8 36.6089 724.129 0.78465 -0.532156 -0.318015 
-3745.31 -88.2021 680.297 0.78465 -0.532156 -0.318015 
-3712.15 41.6655 543.793 0.78465 -0.532156 -0.318015 
-3789.13 -47.7102 503.567 0.78465 -0.532156 -0.318015 
-3804.12 -55.1113 478.876 0.78465 -0.532156 -0.318015 
-3205.8 689.213 708.016 0.78465 -0.532156 -0.318015 
-3307.24 573.765 651.066 0.78465 -0.532156 -0.318015 
-3205.29 693.14 702.666 0.78465 -0.532156 -0.318015 
-3280.85 618.662 640.861 0.78465 -0.532156 -0.318015 
-3717.52 92.168 445.447 0.78465 -0.532156 -0.318015 
-3370.19 542.263 548.144 0.78465 -0.532156 -0.318015 
-3748.55 55.5278 430.253 0.78465 -0.532156 -0.318015 
-3608.99 499.805 27.9712 0.78465 -0.532156 -0.318015 
-3676.5 353.92 106.335 0.78465 -0.532156 -0.318015 
-3716.93 142.064 362.909 0.78465 -0.532156 -0.318015 
-3709.61 227.892 236.521 0.78465 -0.532156 -0.318015 
-3693.32 146.715 413.576 0.78465 -0.532156 -0.318015 
-3646.82 421.826 65.5406 0.78465 -0.532156 -0.318015 
-3633.11 404.568 128.562 0.78465 -0.532156 -0.318015 
-3632.65 421.018 102.019 0.78465 -0.532156 -0.318015 
-3687.57 268.463 222.807 0.78465 -0.532156 -0.318015 
-3718.01 128.672 382.771 0.78465 -0.532156 -0.318015 
-3719.57 199.599 259.485 0.78465 -0.532156 -0.318015 
-3703.14 248.037 218.615 0.78465 -0.532156 -0.318015 
-3627.66 324.926 276.181 0.78465 -0.532156 -0.318015 
-3701.56 168.211 356.943 0.78465 -0.532156 -0.318015 
-3806.83 -28.626 427.563 0.78465 -0.532156 -0.318015 
-3655.29 304.162 242.68 0.78465 -0.532156 -0.318015 
-3597.63 437.225 161.49 0.78465 -0.532156 -0.318015 
-3591.28 424.146 199.238 0.78465 -0.532156 -0.318015 
-3592.96 323.032 365.348 0.78465 -0.532156 -0.318015 
-3563.89 473.936 183.263 0.78465 -0.532156 -0.318015 
-3547.39 449.14 265.891 0.78465 -0.532156 -0.318015 
-3537.32 445.917 296.266 0.78465 -0.532156 -0.318015 
-3532.44 487.236 238.805 0.78465 -0.532156 -0.318015 
-3496.42 503.727 300.285 0.78465 -0.532156 -0.318015 
-3505.74 536.39 222.178 0.78465 -0.532156 -0.318015 
-3432.77 520.688 429.419 0.78465 -0.532156 -0.318015 
-3330.45 643.711 475.786 0.78465 -0.532156 -0.318015 
-3205.77 736.604 628.291 0.78465 -0.532156 -0.318015 
-3342.9 642.949 446.215 0.78465 -0.532156 -0.318015 
-3533.25 567.468 101.698 0.78465 -0.532156 -0.318015 
-3395.8 621.924 350.566 0.78465 -0.532156 -0.318015 
-3223.22 702.256 642.878 0.78465 -0.532156 -0.318015 
-3394.1 569.182 443.578 0.78465 -0.532156 -0.318015 
-3424.16 612.853 295.564 0.78465 -0.532156 -0.318015 
-3304.82 670.101 494.861 0.78465 -0.532156 -0.318015 
-3273.82 708.818 506.471 0.78465 -0.532156 -0.318015 
-3338.15 701.21 359.892 0.78465 -0.532156 -0.318015 
-3303.11 679.785 482.781 0.78465 -0.532156 -0.318015 
-3311.79 669.704 478.239 0.78465 -0.532156 -0.318015 
-3396.14 598.857 388.541 0.78465 -0.532156 -0.318015 
-3228.45 700.37 633.101 0.78465 -0.532156 -0.318015 
-3446.36 639.369 195.921 0.78465 -0.532156 -0.318015 
-4022.72 972.996 298.288 0.350335 0.80145 -0.484709 
-3868.91 936.847 350.209 0.350335 0.80145 -0.484709 
-3945.81 1058.8 497.431 0.350335 0.80145 -0.484709 
-4021.5 1084.89 485.719 0.350335 0.80145 -0.484709 
-4094.83 1222.77 662.093 0.350335 0.80145 -0.484709 
-3793.94 857.185 272.084 0.350335 0.80145 -0.484709 
-3765.7 1110.29 714.634 0.350335 0.80145 -0.484709 
-3868.64 960.742 390.244 0.350335 0.80145 -0.484709 
-3861.46 1096.2 621.31 0.350335 0.80145 -0.484709 
-4114.35 1156.12 536.741 0.350335 0.80145 -0.484709 
-3726.88 762.672 163.43 0.350335 0.80145 -0.484709 
-4066.86 971.991 264.419 0.350335 0.80145 -0.484709 
-4108.88 1143.94 520.429 0.350335 0.80145 -0.484709 
-3876.44 1125.37 659.004 0.350335 0.80145 -0.484709 
-3719.13 972.269 518.508 0.350335 0.80145 -0.484709 
-4274.03 1146.67 404.532 0.350335 0.80145 -0.484709 
-3759.47 987.442 514.38 0.350335 0.80145 -0.484709 
-3628.8 634.287 20.9299 0.350335 0.80145 -0.484709 
-3989.86 935.348 259.496 0.350335 0.80145 -0.484709 
-4002.64 1300.91 859.611 0.350335 0.80145 -0.484709 
-3897.74 1070.14 551.389 0.350335 0.80145 -0.484709 
-3962.64 1194.19 710.867 0.350335 0.80145 -0.484709 
-3923.48 999.376 414.649 0.350335 0.80145 -0.484709 
-3872.72 1215.42 811.842 0.350335 0.80145 -0.484709 
-3766.85 915.246 388.636 0.350335 0.80145 -0.484709 
-3737.15 1002.54 555.835 0.350335 0.80145 -0.484709 
-4076.9 995.849 296.874 0.350335 0.80145 -0.484709 
-3958.52 1172.45 677.632 0.350335 0.80145 -0.484709 
-3821.69 1048.08 570.084 0.350335 0.80145 -0.484709 
-4354.43 1114.18 291.724 0.350335 0.80145 -0.484709 
-3965.89 860.746 152.607 0.350335 0.80145 -0.484709 
-3733.47 900.462 388.336 0.350335 0.80145 -0.484709 
-4025.11 1046.36 418.849 0.350335 0.80145 -0.484709 
-3967.18 1226.19 760.909 0.350335 0.80145 -0.484709 
-3898.5 804.069 107.273 0.350335 0.80145 -0.484709 
-4025.73 1036.23 401.51 0.350335 0.80145 -0.484709 
-3788.42 927.238 392.895 0.350335 0.80145 -0.484709 
-3852.67 1080.54 601.614 0.350335 0.80145 -0.484709 
-3768.17 815.376 221.179 0.350335 0.80145 -0.484709 
-4074.02 1089.17 454.556 0.350335 0.80145 -0.484709 
-3961.69 881.018 189.463 0.350335 0.80145 -0.484709 
-3855.29 799.865 131.778 0.350335 0.80145 -0.484709 
-4286.37 1148.05 397.824 0.350335 0.80145 -0.484709 
-4228.87 1113.68 382.466 0.350335 0.80145 -0.484709 
-4257.4 1149.04 420.61 0.350335 0.80145 -0.484709 
-3801.6 1138.46 735.419 0.350335 0.80145 -0.484709 
-4257.87 1059.53 271.04 0.350335 0.80145 -0.484709 
-3685.61 876.714 383.654 0.350335 0.80145 -0.484709 
-4083.48 1157.58 561.69 0.350335 0.80145 -0.484709 
-3993.62 1177.48 660.409 0.350335 0.80145 -0.484709 
-3857.63 866.493 241.15 0.350335 0.80145 -0.484709 
-3665.18 655.073 29.0521 0.350335 0.80145 -0.484709 
-4157.18 980.381 212.534 0.350335 0.80145 -0.484709 
-4112.11 996.098 271.604 0.350335 0.80145 -0.484709 
-4277.93 1126.63 368.279 0.350335 0.80145 -0.484709 
-3838.12 893.688 300.718 0.350335 0.80145 -0.484709 
-4205.64 1124.22 416.987 0.350335 0.80145 -0.484709 
-4244.8 1044.44 255.41 0.350335 0.80145 -0.484709 
-3701.13 914.949 436.078 0.350335 0.80145 -0.484709 
-3979.7 1182.86 679.534 0.350335 0.80145 -0.484709 
-4070.8 1204.66 649.437 0.350335 0.80145 -0.484709 
-3864.36 1125.23 667.591 0.350335 0.80145 -0.484709 
-3235.18 923.343 789.915 0.350335 0.80145 -0.484709 
-3504.01 814.435 412.279 0.350335 0.80145 -0.484709 
-3181.96 823.144 661.69 0.350335 0.80145 -0.484709 
-3809.33 1307.1 1010.93 0.350335 0.80145 -0.484709 
-3696.37 997.866 577.78 0.350335 0.80145 -0.484709 
-3588.68 1051.58 745.87 0.350335 0.80145 -0.484709 
-3381.31 1036.68 872.284 0.350335 0.80145 -0.484709 
-3343.03 1027.02 884.105 0.350335 0.80145 -0.484709 
-3194.13 872.106 734.44 0.350335 0.80145 -0.484709 
-3560.72 1028.89 728.445 0.350335 0.80145 -0.484709 
-3602.67 697.257 144.971 0.350335 0.80145 -0.484709 
-3282.11 849.743 632.988 0.350335 0.80145 -0.484709 
-3433.78 1055.58 865.523 0.350335 0.80145 -0.484709 
-3276.66 895.98 714.049 0.350335 0.80145 -0.484709 
-3327.33 826.491 561.243 0.350335 0.80145 -0.484709 
-3511.15 835.572 442.312 0.350335 0.80145 -0.484709 
-3478.43 635.498 132.623 0.350335 0.80145 -0.484709 
-3315.1 734.589 416.948 0.350335 0.80145 -0.484709 
-3456.03 864.38 530.542 0.350335 0.80145 -0.484709 
-3501.19 812.903 411.785 0.350335 0.80145 -0.484709 
-3515.79 1107.28 891.897 0.350335 0.80145 -0.484709 
-3521.65 1086.07 852.269 0.350335 0.80145 -0.484709 
-3752.14 1262.44 978.177 0.350335 0.80145 -0.484709 
-3095.03 842.815 757.889 0.350335 0.80145 -0.484709 
-3382.06 1007.34 822.823 0.350335 0.80145 -0.484709 
-3365.92 728.025 368.944 0.350335 0.80145 -0.484709 
-3448.73 871.036 546.962 0.350335 0.80145 -0.484709 
-3613.03 1092.76 796.764 0.350335 0.80145 -0.484709 
-3413.59 976.891 749.061 0.350335 0.80145 -0.484709 
-3546.87 854.931 448.528 0.350335 0.80145 -0.484709 
-3621.55 998.886 634.052 0.350335 0.80145 -0.484709 
-3544.26 803.516 364.719 0.350335 0.80145 -0.484709 
-3569.28 899.119 505.854 0.350335 0.80145 -0.484709 
-3584.38 962.999 601.336 0.350335 0.80145 -0.484709 
-3521.19 642.198 112.61 0.350335 0.80145 -0.484709 
-3623.53 1197.24 963.284 0.350335 0.80145 -0.484709 
-3657.83 1121.23 811.558 0.350335 0.80145 -0.484709 
-3683 1128.36 805.076 0.350335 0.80145 -0.484709 
-3280.65 958.707 815.713 0.350335 0.80145 -0.484709 
-3735.23 1241.71 955.952 0.350335 0.80145 -0.484709 
-3700.35 1225.43 954.251 0.350335 0.80145 -0.484709 
-3651.3 857.095 375.974 0.350335 0.80145 -0.484709 
-3604.65 1163.53 920.858 0.350335 0.80145 -0.484709 
-3417.25 883.923 591.407 0.350335 0.80145 -0.484709 
-3637.22 902.329 461.652 0.350335 0.80145 -0.484709 
-3523.1 1017.83 737.441 0.350335 0.80145 -0.484709 
-3687.44 1044.84 662.605 0.350335 0.80145 -0.484709 
-3553.9 668.049 131.85 0.350335 0.80145 -0.484709 
-3409.46 1031.65 843.37 0.350335 0.80145 -0.484709 
-3184.87 889.349 769.942 0.350335 0.80145 -0.484709 
-3420.27 773.472 405.063 0.350335 0.80145 -0.484709 
-3688.16 1127.52 799.915 0.350335 0.80145 -0.484709 
-3674.37 1025.52 639.937 0.350335 0.80145 -0.484709 
-3658.79 1155.26 867.581 0.350335 0.80145 -0.484709 
-3682.13 909.685 441.16 0.350335 0.80145 -0.484709 
-3240.48 765.295 522.567 0.350335 0.80145 -0.484709 
-3685.77 1123.39 794.781 0.350335 0.80145 -0.484709 
-3225.81 813.21 613.148 0.350335 0.80145 -0.484709 
-3422.29 1004.33 788.454 0.350335 0.80145 -0.484709 
-3630.36 916.008 489.455 0.350335 0.80145 -0.484709 
-3497.11 700.882 228.006 0.350335 0.80145 -0.484709 
-3307.53 893.475 687.356 0.350335 0.80145 -0.484709 
-3097.1 849.306 767.198 0.350335 0.80145 -0.484709 
-2780.58 -312.444 60.9748 -0.489392 -0.219696 -0.843937 
-3495.38 174.525 349.162 -0.489392 -0.219696 -0.843937 
-2842.02 -268.162 85.1652 -0.470638 -0.185583 -0.862589 
-3353.05 110.033 286.029 -0.440002 -0.120258 -0.889908 
-2974.83 -155.992 134.587 -0.440002 -0.120258 -0.889908 
-2883.42 -204.808 96.0222 -0.420532 -0.086864 -0.90311 
-2780.87 -264.505 53.7391 -0.40267 -0.0548488 -0.9137 
-3398.54 187.27 302.387 -0.364942 0.0140855 -0.930924 
-2801.49 -211.289 61.7335 -0.344582 0.0481114 -0.937523 
-3358.82 151.656 286.216 -0.364942 0.0140855 -0.930924 
-3419.96 222.829 312.332 -0.324658 0.0801786 -0.942427 
-3443.1 244.562 322.256 -0.30219 0.113155 -0.946508 
-3508.6 310.756 351.733 -0.278563 0.149375 -0.948731 
-3568.14 343.689 374.583 -0.278563 0.149375 -0.948731 
-3284.48 166.982 262.889 -0.258588 0.180064 -0.949057 
-3271.47 172.594 260.766 -0.239278 0.211932 -0.94754 
-3097.89 48.3459 189.287 -0.239278 0.211932 -0.94754 
-3147.23 99.207 213.447 -0.212751 0.245693 -0.945712 
-3483.9 326.69 348.987 -0.212751 0.245693 -0.945712 
-2864.25 -75.1143 104.596 -0.164106 0.310285 -0.936372 
-3439.63 316.374 336.975 -0.164106 0.310285 -0.936372 
-2775.18 -118.441 74.6646 -0.142215 0.34104 -0.929229 
-3366.73 277.202 311.077 -0.142215 0.34104 -0.929229 
-3469.61 363.346 358.812 -0.117072 0.370498 -0.921426 
-3396.41 327.89 335.394 -0.0919107 0.399194 -0.912248 
-2777.91 -89.2429 87.2208 -0.072635 0.428958 -0.9004 
-3231.69 226.229 273.762 -0.072635 0.428958 -0.9004 
-2858.5 -19.7285 126.988 -0.0420965 0.460345 -0.886741 
-2931.48 42.9287 163.466 -0.0202416 0.487147 -0.873086 
-3462.62 403.578 377.662 -0.0202416 0.487147 -0.873086 
-3340.14 330.558 334.152 0.00403242 0.512118 -0.858906 
-2689.68 -108.231 73.5792 0.00403242 0.512118 -0.858906 
-2724.84 -74.5447 93.9659 0.0289375 0.538789 -0.841944 
-2831.98 3.53345 140.688 0.0549449 0.567764 -0.821356 
-2863.23 29.2661 156.394 0.0549449 0.567764 -0.821356 
-3111.1 207.48 263.433 0.0790221 0.590511 -0.803152 
-2691.85 -47.917 118.306 0.149563 0.657172 -0.738752 
-2709.72 -50.604 112.781 0.129545 0.635815 -0.760893 
-3183.9 289.25 319.376 0.149563 0.657172 -0.738752 
-2839.91 63.2837 187.924 0.175891 0.68062 -0.71121 
-3446.13 474.921 432.266 0.175891 0.68062 -0.71121 
-2954.8 149.459 242.386 0.199511 0.697515 -0.688236 
-2840.29 66.6221 191.07 0.199511 0.697515 -0.688236 
-2626.12 -65.3484 118.828 0.223312 0.716786 -0.660567 
-3125.59 279.309 326.274 0.243703 0.734252 -0.633627 
-3246.58 352.557 365.174 0.223312 0.716786 -0.660567 
-3395.9 465.339 438.072 0.243703 0.734252 -0.633627 
-3183.92 326.413 358.64 0.268068 0.750273 -0.604343 
-2661.01 -18.6929 160.74 0.288195 0.765866 -0.574798 
-2903.89 144.354 256.091 0.288195 0.765866 -0.574798 
-2982.64 206.647 299.959 0.310887 0.779609 -0.543654 
-3068.74 261.038 328.817 0.310887 0.779609 -0.543654 
-2829.58 110.906 250.636 0.333921 0.790865 -0.512864 
-3155.37 329.646 378.014 0.333921 0.790865 -0.512864 
-2748.44 60.9419 226.395 0.350335 0.80145 -0.484709 
-3402.02 512.153 502.661 0.371989 0.812627 -0.448621 
-2810.65 115.597 274.45 0.393327 0.820094 -0.41562 
-2716.23 55.4126 244.911 0.409113 0.829283 -0.38068 
-2860.59 150.916 297.512 0.409113 0.829283 -0.38068 
-3307.21 462.57 496.461 0.428803 0.834045 -0.347126 
-2701.74 51.4016 252.877 0.445098 0.838658 -0.313911 
-3062.22 300.279 408.926 0.463825 0.842897 -0.272747 
-2531.98 -54.4138 213.348 0.478196 0.844864 -0.239862 
-2782.79 118.511 324.46 0.493041 0.84586 -0.203549 
-2525.28 -54.7932 228.463 0.507933 0.845568 -0.164375 
-3125.33 354.26 477.15 0.524002 0.842198 -0.126986 
-2947.69 234.769 413.607 0.524002 0.842198 -0.126986 
-2743.17 96.6648 338.352 0.536172 0.839289 -0.090077 
-3319.12 488.769 577.802 0.548438 0.834579 -0.0518982 
-2710.65 75.7883 340.674 0.548438 0.834579 -0.0518982 
-3148.6 373.587 524.764 0.558113 0.829628 -0.0150841 
-2531.74 -45.6216 276.409 0.558113 0.829628 -0.0150841 
-2736.94 93.8125 365.502 0.56819 0.822562 0.0235018 
-2556.19 -29.0933 295.094 0.56819 0.822562 0.0235018 
-3125.67 357.301 536.416 0.578002 0.813747 0.0610665 
-3291.63 468.076 620.229 0.593759 0.793166 0.135419 
-2611.26 4.76782 351.068 0.593759 0.793166 0.135419 
-2921.14 214.31 481.308 0.600682 0.780126 0.174882 
-2747.26 94.7822 417.289 0.600682 0.780126 0.174882 
-3107.19 336.989 571.399 0.60808 0.765902 0.208882 
-2540.73 -48.3413 344.091 0.610945 0.752294 0.246577 
-2882.79 181.089 491.409 0.610945 0.752294 0.246577 
-2715.02 64.7439 429.814 0.616841 0.734789 0.282121 
-2756.83 90.0327 454.196 0.619081 0.719298 0.315198 
-2933.03 209.847 525.16 0.619081 0.719298 0.315198 
-2994.8 245.625 563.022 0.619093 0.700768 0.354468 
-3185.49 376.744 636.953 0.619093 0.700768 0.354468 
-2724.75 57.5693 462.108 0.621531 0.680882 0.387427 
-3177.34 368.086 639.615 0.621531 0.680882 0.387427 
-3069.35 286.752 609.214 0.621023 0.660981 0.42123 
-2981.38 230.954 567.468 0.621023 0.660981 0.42123 
-2758.8 63.2471 500.812 0.62115 0.614416 0.486483 
-3339.99 460.081 733.036 0.62115 0.614416 0.486483 
-2944.07 184.673 580.804 0.615289 0.591689 0.520888 
-3082.31 280.676 634.256 0.615289 0.591689 0.520888 
-2728.3 30.5745 501.735 0.610625 0.570029 0.549731 
-3038.8 245.102 623.433 0.610625 0.570029 0.549731 
-2906.56 143.666 581.45 0.606001 0.541856 0.582369 
-2886.71 124.48 578.425 0.598316 0.517417 0.611799 
-3021.53 215.889 633.017 0.598316 0.517417 0.611799 
-3185.55 317.396 707.152 0.592921 0.488782 0.639951 
-3035.32 215.125 646.651 0.592921 0.488782 0.639951 
-3113.18 265.9 679.678 0.584811 0.464162 0.665244 
-2789.36 29.3604 559.841 0.577728 0.434545 0.690943 
-3239.45 334.153 742.126 0.566266 0.404476 0.718151 
-2844.8 61.7644 585.205 0.566266 0.404476 0.718151 
-3052.6 197.124 672.277 0.556297 0.373584 0.742273 
-3214.59 299.294 741.642 0.543433 0.343476 0.765967 
-2583.76 -133.697 488.969 0.543433 0.343476 0.765967 
-2570.99 -147.729 486.21 0.530027 0.31356 0.787878 
-2844.43 27.7881 600.656 0.518947 0.280639 0.807425 
-3006.1 129.597 668.731 0.518947 0.280639 0.807425 
-2665.93 -113.127 535.012 0.504738 0.251597 0.825795 
-2806.88 -18.0137 592.093 0.489392 0.219696 0.843937 
-2925.34 49.0977 643.243 0.473203 0.182457 0.861852 
-2647.17 -141.154 531.237 0.473203 0.182457 0.861852 
-2539.75 -225.643 490.162 0.4576 0.152533 0.875977 
-2683.97 -134.639 549.572 0.441113 0.120561 0.889317 
-3094.8 134.786 716.695 0.441113 0.120561 0.889317 
-2923.6 8.09766 648.622 0.422898 0.0840285 0.902273 
-3206.99 190.462 763.664 0.404966 0.0521244 0.912845 
-3127.17 121.706 731.869 0.386672 0.0168118 0.922064 
-2816 -95.395 606.213 0.3658 -0.0166856 0.930544 
-3194.09 151.467 758.531 0.346871 -0.0480682 0.93668 
-2604.36 -246.728 520.646 0.346871 -0.0480682 0.93668 
-2873.9 -75.2463 628.809 0.326203 -0.0832016 0.941631 
-3410.61 278.294 844.457 0.326203 -0.0832016 0.941631 
-2760.44 -171.624 581.065 0.305375 -0.113349 0.945462 
-3243.16 143.718 774.041 0.281761 -0.149644 0.947743 
-3379.3 231.095 828.121 0.259126 -0.183152 0.948319 
-2599.71 -302.808 512.689 0.259126 -0.183152 0.948319 
-2771.14 -193.409 580.487 0.236559 -0.214681 0.947603 
-2841.44 -153.346 607.116 0.236559 -0.214681 0.947603 
-2926.9 -111.852 637.353 0.191617 -0.277087 0.941544 
-3332.62 148.115 796.259 0.167076 -0.313439 0.934795 
-2634.69 -328.721 513.733 0.167076 -0.313439 0.934795 
-3342.95 140.376 795.25 0.145154 -0.344221 0.9276 
-3162.39 17.8081 722.427 0.145154 -0.344221 0.9276 
-2979.32 -115.047 645.272 0.119969 -0.373696 0.91976 
-3039.66 -87.4746 663.968 0.0950003 -0.403407 0.910076 
-3458.61 195.18 832.149 0.0950003 -0.403407 0.910076 
-2731.05 -310.586 533.202 0.0698254 -0.431274 0.899515 
-2985.7 -130.201 639.489 0.0698254 -0.431274 0.899515 
-2777.07 -292.908 544.859 0.0476313 -0.461343 0.885942 
-3301.85 66.1382 757.91 0.0476313 -0.461343 0.885942 
-2652.64 -389.206 488.122 0.0202625 -0.490353 0.871288 
-3429.85 140.25 802.516 0.0202625 -0.490353 0.871288 
-2908.64 -223.243 586.646 -0.0013423 -0.5141 0.857729 
-2772.09 -308.573 536.015 -0.0013423 -0.5141 0.857729 
-2841.58 -279.277 552.985 -0.0261446 -0.540781 0.840757 
-3374.49 87.1421 770.807 -0.0261446 -0.540781 0.840757 
-2756.45 -353.841 507.129 -0.0761655 -0.590642 0.803331 
-3152.27 -82.9285 668.292 -0.0761655 -0.590642 0.803331 
-2885.22 -278.846 549.628 -0.100837 -0.615253 0.781854 
-2946.41 -248 565.568 -0.123448 -0.638063 0.760024 
-3494.06 120.457 783.468 -0.149599 -0.660351 0.735906 
-3136.3 -119.782 641.514 -0.123448 -0.638063 0.760024 
-2984.15 -232.945 571.53 -0.149599 -0.660351 0.735906 
-2817.02 -364.673 486.481 -0.196114 -0.699525 0.687171 
-2848.9 -350.136 491.737 -0.219887 -0.715802 0.66278 
-3407.06 25.4282 712.883 -0.243623 -0.737156 0.630276 
-3344.22 -30.428 671.803 -0.267431 -0.751655 0.602906 
-3456.96 46.8267 718.096 -0.267431 -0.751655 0.602906 
-3209.17 -131.154 605.558 -0.288195 -0.765866 0.574798 
-3474.47 47.2537 709.952 -0.308002 -0.780379 0.544191 
-2981.04 -297.538 496.803 -0.331077 -0.791706 0.513409 
-3205.11 -142.445 591.577 -0.331077 -0.791706 0.513409 
-3059.95 -249.118 520.256 -0.349976 -0.803827 0.481018 
-3485.22 39.1553 690.665 -0.349976 -0.803827 0.481018 
-2788.56 -439.638 400.155 -0.371455 -0.811462 0.451166 
-3487.87 37.9412 686.621 -0.371455 -0.811462 0.451166 
-2945.54 -336.615 456.73 -0.389609 -0.822154 0.415052 
-3562.07 75.9509 692.435 -0.409113 -0.829283 0.38068 
-3252.86 -135.627 564.507 -0.409113 -0.829283 0.38068 
-2782.17 -459.437 365.369 -0.426234 -0.835167 0.347593 
