ply
format ascii 1.0
comment Created by CloudCompare v2.11.3 (Anoia)
comment Created 08/09/2022 00:15
obj_info Generated by CloudCompare!
element vertex 487
property float x
property float y
property float z
property float nx
property float ny
property float nz
end_header
38.3005 1318.88 491.577 -0.700373 -0.454161 0.55065 
-303.3 1479.8 188.956 -0.700373 -0.454161 0.55065 
8.94995 1221.03 373.151 -0.700373 -0.454161 0.55065 
164.267 928.919 329.553 -0.700373 -0.454161 0.55065 
2.82129 1242.61 383.198 -0.700373 -0.454161 0.55065 
229.305 1344.24 756.241 -0.700373 -0.454161 0.55065 
-187.693 1342 222.402 -0.700373 -0.454161 0.55065 
-304.911 1433.51 148.589 -0.700373 -0.454161 0.55065 
115.516 1055.41 372.044 -0.700373 -0.454161 0.55065 
158.877 1364.39 683.066 -0.700373 -0.454161 0.55065 
221.894 989.876 453.517 -0.700373 -0.454161 0.55065 
219.758 1262.94 676.781 -0.700373 -0.454161 0.55065 
-134.65 1218.69 188.016 -0.700373 -0.454161 0.55065 
397.866 1202.39 853.894 -0.700373 -0.454161 0.55065 
11.1837 1107.23 281.823 -0.700373 -0.454161 0.55065 
-262.473 1502.11 259.502 -0.700373 -0.454161 0.55065 
-64.1484 1368.79 402.182 -0.700373 -0.454161 0.55065 
-239.991 1395.47 199.93 -0.700373 -0.454161 0.55065 
-236.672 1486.03 279.111 -0.700373 -0.454161 0.55065 
106.308 1338.67 594.717 -0.700373 -0.454161 0.55065 
235.181 1342.96 762.68 -0.700373 -0.454161 0.55065 
-369.758 1528.46 144.441 -0.700373 -0.454161 0.55065 
168.077 930.836 336 -0.700373 -0.454161 0.55065 
-201.837 1497.79 333.289 -0.700373 -0.454161 0.55065 
265.015 990.44 508.996 -0.700373 -0.454161 0.55065 
53.4611 1002.85 249.377 -0.700373 -0.454161 0.55065 
163.475 1075.56 449.898 -0.700373 -0.454161 0.55065 
-157.946 1263.4 195.302 -0.700373 -0.454161 0.55065 
260.25 1195.71 672.796 -0.700373 -0.454161 0.55065 
-86.0863 1444.97 437.241 -0.700373 -0.454161 0.55065 
216.501 1184.77 607.929 -0.700373 -0.454161 0.55065 
413.19 1315.84 967.329 -0.700373 -0.454161 0.55065 
-179.514 1887.47 684.265 -0.700373 -0.454161 0.55065 
-189.385 1567.8 407.116 -0.700373 -0.454161 0.55065 
-250.832 1746.72 476.794 -0.700373 -0.454161 0.55065 
169.121 1490.84 800.787 -0.700373 -0.454161 0.55065 
247.089 1501.61 909.172 -0.700373 -0.454161 0.55065 
-219.65 1869 617.777 -0.700373 -0.454161 0.55065 
153.036 1606.49 875.976 -0.700373 -0.454161 0.55065 
-0.795898 1525.63 612.809 -0.700373 -0.454161 0.55065 
-87.0745 1863.86 782.653 -0.700373 -0.454161 0.55065 
126.756 1528.49 777.897 -0.700373 -0.454161 0.55065 
-6.92102 1586.43 655.309 -0.700373 -0.454161 0.55065 
-316.926 1773.82 414.906 -0.700373 -0.454161 0.55065 
-103.311 1588.54 534.085 -0.700373 -0.454161 0.55065 
-187.303 1760.65 569.373 -0.700373 -0.454161 0.55065 
-79.7032 1929.73 846.569 -0.700373 -0.454161 0.55065 
37.814 1833.25 916.647 -0.700373 -0.454161 0.55065 
195.238 1505.52 846.255 -0.700373 -0.454161 0.55065 
140.715 1568.8 829.067 -0.700373 -0.454161 0.55065 
47.6446 1655.8 782.338 -0.700373 -0.454161 0.55065 
47.4329 1600.7 736.465 -0.700373 -0.454161 0.55065 
177.719 1631.8 928.417 -0.700373 -0.454161 0.55065 
-230.253 1672.74 441.827 -0.700373 -0.454161 0.55065 
-9.5343 1772.6 806.052 -0.700373 -0.454161 0.55065 
-74.2577 1838.73 778.205 -0.700373 -0.454161 0.55065 
136.818 1689.77 924.21 -0.700373 -0.454161 0.55065 
-305.608 1754.6 413.433 -0.700373 -0.454161 0.55065 
-60.9033 1605.96 602.61 -0.700373 -0.454161 0.55065 
-248.524 1787.13 513.183 -0.700373 -0.454161 0.55065 
26.3995 1524.59 646.638 -0.700373 -0.454161 0.55065 
-257.052 1833.51 540.685 -0.700373 -0.454161 0.55065 
-50.4814 1652.52 654.432 -0.700373 -0.454161 0.55065 
318.728 1631.69 -273.701 -0.324857 -0.483325 -0.812936 
316.517 932.244 142.696 -0.324857 -0.483325 -0.812936 
376.881 1406.87 -163.314 -0.324857 -0.483325 -0.812936 
609.918 1418.81 -263.266 -0.324857 -0.483325 -0.812936 
726.546 1297.8 -237.855 -0.324857 -0.483325 -0.812936 
356.272 1728.84 -346.373 -0.324857 -0.483325 -0.812936 
276.704 1105.03 55.9133 -0.324857 -0.483325 -0.812936 
338.526 1844.74 -408.153 -0.324857 -0.483325 -0.812936 
702.933 1284.74 -220.684 -0.324857 -0.483325 -0.812936 
348.093 1735.69 -347.185 -0.324857 -0.483325 -0.812936 
267.665 1050.69 91.8007 -0.324857 -0.483325 -0.812936 
269.466 1912.3 -420.772 -0.324857 -0.483325 -0.812936 
404.44 1047.03 39.4713 -0.324857 -0.483325 -0.812936 
510.363 1557.04 -305.715 -0.324857 -0.483325 -0.812936 
477.888 1604.51 -320.976 -0.324857 -0.483325 -0.812936 
214.155 920.244 190.613 -0.324857 -0.483325 -0.812936 
254.986 1372.54 -94.3494 -0.324857 -0.483325 -0.812936 
687.562 1266.69 -203.838 -0.324857 -0.483325 -0.812936 
473.568 1251.19 -109.362 -0.324857 -0.483325 -0.812936 
613.57 1391.29 -248.375 -0.324857 -0.483325 -0.812936 
289.562 1132.69 34.3603 -0.324857 -0.483325 -0.812936 
311.472 991.989 109.214 -0.324857 -0.483325 -0.812936 
277.785 1831.77 -376.249 -0.324857 -0.483325 -0.812936 
230.426 1164.61 38.9588 -0.324857 -0.483325 -0.812936 
292.757 1170.92 10.3753 -0.324857 -0.483325 -0.812936 
241.593 1853.03 -374.459 -0.324857 -0.483325 -0.812936 
325.059 998.987 99.6428 -0.324857 -0.483325 -0.812936 
536.963 1679.77 -389.224 -0.324857 -0.483325 -0.812936 
588.938 1423.3 -257.575 -0.324857 -0.483325 -0.812936 
248.353 1001.55 128.688 -0.324857 -0.483325 -0.812936 
294.16 1725.22 -319.472 -0.324857 -0.483325 -0.812936 
620.106 1456.69 -289.832 -0.324857 -0.483325 -0.812936 
72.1321 1732.53 -235.349 -0.324857 -0.483325 -0.812936 
-17.5815 1675.05 -165.449 -0.324857 -0.483325 -0.812936 
199.309 1660.37 -243.156 -0.324857 -0.483325 -0.812936 
-111.996 1251.71 123.664 -0.324857 -0.483325 -0.812936 
-1.17786 1486.45 -59.9469 -0.324857 -0.483325 -0.812936 
48.7014 1109.53 144.093 -0.324857 -0.483325 -0.812936 
177.358 1103.86 96.1974 -0.324857 -0.483325 -0.812936 
227.895 1799.98 -337.485 -0.324857 -0.483325 -0.812936 
-78.183 1286.38 89.591 -0.324857 -0.483325 -0.812936 
205.644 1406.71 -94.9853 -0.324857 -0.483325 -0.812936 
-2.26123 1104.97 167.111 -0.324857 -0.483325 -0.812936 
-144.982 1275.22 122.842 -0.324857 -0.483325 -0.812936 
87.3793 1273.79 31.1017 -0.324857 -0.483325 -0.812936 
188.766 1918.77 -392.46 -0.324857 -0.483325 -0.812936 
211.177 1505.99 -156.173 -0.324857 -0.483325 -0.812936 
-12.6594 1263.31 77.1883 -0.324857 -0.483325 -0.812936 
-39.571 1533.2 -72.4222 -0.324857 -0.483325 -0.812936 
9.21667 1163.51 127.759 -0.324857 -0.483325 -0.812936 
21.2321 1535.58 -98.0606 -0.324857 -0.483325 -0.812936 
-161.263 1253.55 142.199 -0.324857 -0.483325 -0.812936 
-56.884 1809.06 -229.403 -0.324857 -0.483325 -0.812936 
-263.606 1564.54 -1.76819 -0.324857 -0.483325 -0.812936 
-124.634 1398.55 41.4679 -0.324857 -0.483325 -0.812936 
-333.795 1538.35 41.759 -0.324857 -0.483325 -0.812936 
-327.926 1514.38 53.6623 -0.324857 -0.483325 -0.812936 
-163.757 1546.1 -30.597 -0.324857 -0.483325 -0.812936 
28.5615 1199.58 98.6259 -0.324857 -0.483325 -0.812936 
166.633 1750.28 -283.548 -0.324857 -0.483325 -0.812936 
89.2629 955.059 219.697 -0.324857 -0.483325 -0.812936 
125.756 1165.64 80.0549 -0.324857 -0.483325 -0.812936 
170.162 1855.31 -347.346 -0.324857 -0.483325 -0.812936 
194.468 1885.89 -375.201 -0.324857 -0.483325 -0.812936 
643.608 1709.91 779.883 0.324359 0.485748 0.81169 
148.842 1725.31 967.888 0.324359 0.485748 0.81169 
489.07 1738.86 824.264 0.324359 0.485748 0.81169 
-41.2344 1984.49 889.658 0.324359 0.485748 0.81169 
104.212 1814.1 932.921 0.324359 0.485748 0.81169 
676.088 1463.41 913.377 0.324359 0.485748 0.81169 
786.051 1741.43 704.402 0.324359 0.485748 0.81169 
807.044 1757.45 686.518 0.324359 0.485748 0.81169 
313.371 1760.97 881.145 0.324359 0.485748 0.81169 
632.721 1676.98 803.785 0.324359 0.485748 0.81169 
147.691 1839.03 900.788 0.324359 0.485748 0.81169 
520.128 1724.03 820.699 0.324359 0.485748 0.81169 
508.493 1474.65 973.482 0.324359 0.485748 0.81169 
294.767 1950.56 775.924 0.324359 0.485748 0.81169 
115.397 1833.18 917.13 0.324359 0.485748 0.81169 
-19.2711 1923.64 917.055 0.324359 0.485748 0.81169 
581.455 1652.79 838.582 0.324359 0.485748 0.81169 
450.522 1415.11 1031.95 0.324359 0.485748 0.81169 
848.657 1682.83 714.268 0.324359 0.485748 0.81169 
522.388 1827.23 758.489 0.324359 0.485748 0.81169 
650.651 1570.57 859.854 0.324359 0.485748 0.81169 
810.258 1670 737.188 0.324359 0.485748 0.81169 
907.693 1632.97 720.362 0.324359 0.485748 0.81169 
925.768 1700.5 673.041 0.324359 0.485748 0.81169 
188.115 1948.25 819.794 0.324359 0.485748 0.81169 
490.694 1488.26 972.494 0.324359 0.485748 0.81169 
1039.28 1734.13 607.832 0.324359 0.485748 0.81169 
291.143 1736.78 904.367 0.324359 0.485748 0.81169 
881.129 1661.85 713.788 0.324359 0.485748 0.81169 
560.315 1844.51 733.111 0.324359 0.485748 0.81169 
829.065 1596.94 773.097 0.324359 0.485748 0.81169 
625.974 1479.37 923.869 0.324359 0.485748 0.81169 
-11.2159 2117.5 798.679 0.324359 0.485748 0.81169 
388.405 2207.77 585.815 0.324359 0.485748 0.81169 
330.301 2249.89 583.945 0.324359 0.485748 0.81169 
326.93 2162.16 637.408 0.324359 0.485748 0.81169 
117.342 2204.08 696.017 0.324359 0.485748 0.81169 
229.913 2146.75 685.219 0.324359 0.485748 0.81169 
587.748 2191.11 516.276 0.324359 0.485748 0.81169 
1067.83 1856.88 523.536 0.324359 0.485748 0.81169 
1098.01 1812.76 537.717 0.324359 0.485748 0.81169 
-97.1619 2069.94 861.177 0.324359 0.485748 0.81169 
902.338 1843.55 597.395 0.324359 0.485748 0.81169 
465.201 2080.12 631.047 0.324359 0.485748 0.81169 
606.417 2106.84 558.902 0.324359 0.485748 0.81169 
651.617 2398.2 367.803 0.324359 0.485748 0.81169 
598.829 1904.13 682.346 0.324359 0.485748 0.81169 
232.276 2183.3 662.566 0.324359 0.485748 0.81169 
732.089 1876.64 645.577 0.324359 0.485748 0.81169 
328.215 2152.2 642.811 0.324359 0.485748 0.81169 
262.131 2043.11 733.95 0.324359 0.485748 0.81169 
704.371 2208.5 459.479 0.324359 0.485748 0.81169 
426.32 2389.28 462.879 0.324359 0.485748 0.81169 
708.541 1993.29 585.666 0.324359 0.485748 0.81169 
913.013 1955.8 526.462 0.324359 0.485748 0.81169 
528.012 2440.3 392.046 0.324359 0.485748 0.81169 
493.78 2341.59 464.326 0.324359 0.485748 0.81169 
721.893 2140.46 492.917 0.324359 0.485748 0.81169 
528.789 2094.19 597.352 0.324359 0.485748 0.81169 
594.406 2057.31 593.113 0.324359 0.485748 0.81169 
758.088 2179.87 455.082 0.324359 0.485748 0.81169 
-0.0726318 2094.88 807.678 0.324359 0.485748 0.81169 
663.592 2360.46 385.451 0.324359 0.485748 0.81169 
952.835 1570.87 606.405 0.634737 -0.748467 0.192112 
879.144 1524.28 668.94 0.634737 -0.748467 0.192112 
616.243 1271.39 552.996 0.634737 -0.748467 0.192112 
868.153 1477.73 523.387 0.634737 -0.748467 0.192112 
367.727 1026.11 419.015 0.634737 -0.748467 0.192112 
809.613 1453.89 624.546 0.634737 -0.748467 0.192112 
566.859 1252.25 642.134 0.634737 -0.748467 0.192112 
585.061 1215.05 436.219 0.634737 -0.748467 0.192112 
498.673 1261.36 904.167 0.634737 -0.748467 0.192112 
290.393 980.622 497.941 0.634737 -0.748467 0.192112 
644.404 1283.67 507.477 0.634737 -0.748467 0.192112 
970.685 1584.68 601.158 0.634737 -0.748467 0.192112 
470.825 1162.32 609.34 0.634737 -0.748467 0.192112 
808.887 1436.17 557.658 0.634737 -0.748467 0.192112 
482.124 1138.32 477.946 0.634737 -0.748467 0.192112 
1016.72 1592.76 479.893 0.634737 -0.748467 0.192112 
529.862 1254.06 772.052 0.634737 -0.748467 0.192112 
883.098 1541.15 721.77 0.634737 -0.748467 0.192112 
915.008 1534.84 591.144 0.634737 -0.748467 0.192112 
520.751 1253.56 800.363 0.634737 -0.748467 0.192112 
851.876 1470.98 551.036 0.634737 -0.748467 0.192112 
372.741 1078.49 607.208 0.634737 -0.748467 0.192112 
902.468 1538 645.146 0.634737 -0.748467 0.192112 
656.651 1369.01 800.548 0.634737 -0.748467 0.192112 
907.274 1501.33 485.761 0.634737 -0.748467 0.192112 
770.323 1424.99 642.009 0.634737 -0.748467 0.192112 
878.658 1468.73 453.322 0.634737 -0.748467 0.192112 
608.38 1374.81 983.554 0.634737 -0.748467 0.192112 
425.078 1168.6 785.815 0.634737 -0.748467 0.192112 
658.889 1287.32 473.677 0.634737 -0.748467 0.192112 
503.614 1236.11 789.024 0.634737 -0.748467 0.192112 
1002.06 1522.97 255.613 0.634737 -0.748467 0.192112 
711.607 1195.54 -60.3189 0.634737 -0.748467 0.192112 
878.462 1343.46 -35.951 0.634737 -0.748467 0.192112 
807.58 1369.46 301.114 0.634737 -0.748467 0.192112 
636.659 1133.32 -54.752 0.634737 -0.748467 0.192112 
982.988 1457.32 62.2319 0.634737 -0.748467 0.192112 
992.136 1559.6 431.85 0.634737 -0.748467 0.192112 
714.86 1236.74 89.9822 0.634737 -0.748467 0.192112 
335.384 931.551 156.634 0.634737 -0.748467 0.192112 
1015.9 1515.12 178.981 0.634737 -0.748467 0.192112 
766.436 1292.23 135.721 0.634737 -0.748467 0.192112 
498.063 1044.4 57.7473 0.634737 -0.748467 0.192112 
899.396 1399.69 114.454 0.634737 -0.748467 0.192112 
581.493 1140.38 156.036 0.634737 -0.748467 0.192112 
626.861 1199.96 238.364 0.634737 -0.748467 0.192112 
777.857 1371.55 408.004 0.634737 -0.748467 0.192112 
445.425 1027.51 166.465 0.634737 -0.748467 0.192112 
852.028 1327.72 -9.73184 0.634737 -0.748467 0.192112 
515.927 1050.53 22.4 0.634737 -0.748467 0.192112 
723.8 1315.47 368.202 0.634737 -0.748467 0.192112 
739.949 1206.77 -110.514 0.634737 -0.748467 0.192112 
703.36 1191.24 -49.7453 0.634737 -0.748467 0.192112 
640.251 1211.73 239.956 0.634737 -0.748467 0.192112 
952.59 1499.59 328.483 0.634737 -0.748467 0.192112 
611.307 1130.61 18.8032 0.634737 -0.748467 0.192112 
472.321 1091.91 329.011 0.634737 -0.748467 0.192112 
315.415 931.456 222.574 0.634737 -0.748467 0.192112 
923.4 1347.3 -170.169 0.634737 -0.748467 0.192112 
537.585 1071.61 32.9227 0.634737 -0.748467 0.192112 
829.176 1342.1 122.393 0.634737 -0.748467 0.192112 
659.923 1234.73 264.555 0.634737 -0.748467 0.192112 
-172.835 1825.29 112.5 -0.635109 0.748906 -0.189149 
-314.567 1695.13 74.1563 -0.635109 0.748906 -0.189149 
-217.512 1770.44 46.3481 -0.635109 0.748906 -0.189149 
-130.597 1839.58 28.107 -0.635109 0.748906 -0.189149 
-57.12 1896.05 4.97388 -0.635109 0.748906 -0.189149 
-43.4285 1893.24 -51.4821 -0.635109 0.748906 -0.189149 
-54.5144 1893.44 -13.8808 -0.635109 0.748906 -0.189149 
-213.246 1748.37 -54.1186 -0.635109 0.748906 -0.189149 
-168.964 1760.43 -154.007 -0.635109 0.748906 -0.189149 
-181.362 1754.98 -134.157 -0.635109 0.748906 -0.189149 
-171.152 1761.93 -140.865 -0.635109 0.748906 -0.189149 
164.29 1994.18 -346.531 -0.635109 0.748906 -0.189149 
177.321 2017.89 -297.098 -0.635109 0.748906 -0.189149 
95.1806 1996.86 -106.545 -0.635109 0.748906 -0.189149 
56.0027 1974.43 -64.1565 -0.635109 0.748906 -0.189149 
-113.084 2015.83 659.249 -0.635109 0.748906 -0.189149 
-160.424 1916.49 427.961 -0.635109 0.748906 -0.189149 
-247.04 1840.56 418.635 -0.635109 0.748906 -0.189149 
-165.714 1950.08 576.897 -0.635109 0.748906 -0.189149 
-307.174 1785.76 404.007 -0.635109 0.748906 -0.189149 
-228.06 1870.59 473.061 -0.635109 0.748906 -0.189149 
-305.303 1736.7 205.964 -0.635109 0.748906 -0.189149 
-297.886 1757.15 261.314 -0.635109 0.748906 -0.189149 
-410.093 1634.49 154.217 -0.635109 0.748906 -0.189149 
-76.2946 2039.08 628.003 -0.635109 0.748906 -0.189149 
207.026 2055.76 -247.618 -0.635109 0.748906 -0.189149 
198.964 2111.71 -2.0462 -0.635109 0.748906 -0.189149 
221.623 2076.82 -213.725 -0.635109 0.748906 -0.189149 
227.916 2102.89 -132.676 -0.635109 0.748906 -0.189149 
-110.616 2065.07 843.588 -0.635109 0.748906 -0.189149 
112.2 2161.56 481.037 -0.635109 0.748906 -0.189149 
133.697 2172.38 451.942 -0.635109 0.748906 -0.189149 
313.074 2324.09 449.567 -0.635109 0.748906 -0.189149 
-56.6548 2088.75 757.002 -0.635109 0.748906 -0.189149 
478.176 2440.11 355.042 -0.635109 0.748906 -0.189149 
280.45 2321.67 548.469 -0.635109 0.748906 -0.189149 
160.179 2199.61 470.489 -0.635109 0.748906 -0.189149 
465.092 2441.86 405.332 -0.635109 0.748906 -0.189149 
438.764 2403.01 340.829 -0.635109 0.748906 -0.189149 
284.908 2264.2 308.895 -0.635109 0.748906 -0.189149 
399.446 2348.43 257.942 -0.635109 0.748906 -0.189149 
466.243 2411.36 282.24 -0.635109 0.748906 -0.189149 
296.479 2207.13 47.2772 -0.635109 0.748906 -0.189149 
259.762 2163.51 -1.36691 -0.635109 0.748906 -0.189149 
436.253 2331.58 69.8336 -0.635109 0.748906 -0.189149 
348.036 2183.36 -216.886 -0.635109 0.748906 -0.189149 
243.601 2166.41 63.6497 -0.635109 0.748906 -0.189149 
291.416 2184.9 -22.8478 -0.635109 0.748906 -0.189149 
245.823 2059.99 -359.911 -0.635109 0.748906 -0.189149 
315.664 2204.7 -25.9123 -0.635109 0.748906 -0.189149 
751.729 2111.94 238.059 0.701656 0.454993 -0.548325 
870.605 1884.41 201.41 0.701656 0.454993 -0.548325 
971.561 1601.41 95.9981 0.701656 0.454993 -0.548325 
839.104 1845.35 128.892 0.701656 0.454993 -0.548325 
617.247 2344.42 258.884 0.701656 0.454993 -0.548325 
1065.34 1689.88 288.857 0.701656 0.454993 -0.548325 
947.461 1891.7 305.488 0.701656 0.454993 -0.548325 
1130.05 1823.19 481.736 0.701656 0.454993 -0.548325 
1099.55 1720.77 358.066 0.701656 0.454993 -0.548325 
897.653 1447.29 -125.843 0.701656 0.454993 -0.548325 
667.75 2389.96 361.007 0.701656 0.454993 -0.548325 
1091.81 1768.77 387.904 0.701656 0.454993 -0.548325 
860.401 1579.68 -63.8017 0.701656 0.454993 -0.548325 
1004.71 1470.63 30.0467 0.701656 0.454993 -0.548325 
767.867 2020.29 182.792 0.701656 0.454993 -0.548325 
876.536 1830.59 164.43 0.701656 0.454993 -0.548325 
663.288 2380.91 347.826 0.701656 0.454993 -0.548325 
879.625 1476.56 -124.62 0.701656 0.454993 -0.548325 
797.613 1735.73 -14.7589 0.701656 0.454993 -0.548325 
657.15 2192.53 184.094 0.701656 0.454993 -0.548325 
1023.9 1910.82 418.827 0.701656 0.454993 -0.548325 
779.752 2091.91 257.227 0.701656 0.454993 -0.548325 
991.405 1507.18 43.3273 0.701656 0.454993 -0.548325 
858.642 1692.78 27.5524 0.701656 0.454993 -0.548325 
827.177 2059.46 290.875 0.701656 0.454993 -0.548325 
1017 1606.4 158.089 0.701656 0.454993 -0.548325 
970.583 1809.21 266.721 0.701656 0.454993 -0.548325 
648.175 2348.82 301.985 0.701656 0.454993 -0.548325 
1110.4 1791 430.025 0.701656 0.454993 -0.548325 
1085.26 1618.03 254.804 0.701656 0.454993 -0.548325 
1073.26 1815.37 402.808 0.701656 0.454993 -0.548325 
574.553 2287.93 157.673 0.701656 0.454993 -0.548325 
677.431 1521.53 -345.352 0.701656 0.454993 -0.548325 
477.492 2133.91 -93.619 0.701656 0.454993 -0.548325 
624.237 1725.67 -244.271 0.701656 0.454993 -0.548325 
437.799 2294.04 -11.7353 0.701656 0.454993 -0.548325 
581.192 2246.93 132.204 0.701656 0.454993 -0.548325 
733.861 1724.85 -105.093 0.701656 0.454993 -0.548325 
532.465 2398.36 195.37 0.701656 0.454993 -0.548325 
556.075 2388.3 217.165 0.701656 0.454993 -0.548325 
585.625 2189.18 90.0701 0.701656 0.454993 -0.548325 
675.84 1643.26 -246.638 0.701656 0.454993 -0.548325 
610.587 1984.39 -47.5639 0.701656 0.454993 -0.548325 
581.948 2245.24 131.771 0.701656 0.454993 -0.548325 
758.297 1678.94 -111.914 0.701656 0.454993 -0.548325 
544.851 1711.78 -357.045 0.701656 0.454993 -0.548325 
777.963 1424.3 -297.562 0.701656 0.454993 -0.548325 
510.74 2316.8 100.152 0.701656 0.454993 -0.548325 
686.064 1602.18 -267.591 0.701656 0.454993 -0.548325 
468.607 2320.4 49.3777 0.701656 0.454993 -0.548325 
483.982 2231.81 -4.32028 0.701656 0.454993 -0.548325 
568.197 2495.29 321.175 0.701656 0.454993 -0.548325 
512.059 1790.5 -333.728 0.701656 0.454993 -0.548325 
544.307 1757.31 -320.057 0.701656 0.454993 -0.548325 
689.322 1898.47 -18.2293 0.701656 0.454993 -0.548325 
646.654 2171.89 153.615 0.701656 0.454993 -0.548325 
637.86 1855.28 -119.63 0.701656 0.454993 -0.548325 
411.037 1964.89 -318.28 0.701656 0.454993 -0.548325 
603.358 2311.73 214.114 0.701656 0.454993 -0.548325 
639.538 1718.79 -230.442 0.701656 0.454993 -0.548325 
347.005 1916.18 -440.282 0.701656 0.454993 -0.548325 
644.345 2101.32 92.2718 0.701656 0.454993 -0.548325 
-386.112 2793.41 238.763 0.3635 0.5089 0.780313 
-272.28 2670.42 265.752 0.39053 0.524519 0.756549 
-376.455 2823.61 211.785 0.443498 0.556448 0.70262 
125.352 2249.13 348.892 0.493188 0.584083 0.64468 
-315.358 2824.6 152.625 0.617798 0.644586 0.450373 
-122.869 2614.17 183.367 0.667842 0.658045 0.3478 
-127.197 2626.04 168.1 0.68378 0.661149 0.308752 
-279.901 2810.06 111.975 0.698348 0.663351 0.26884 
220.785 2226.5 244.446 0.722095 0.663338 0.196373 
62.8139 2413.93 191.765 0.732085 0.662362 0.159149 
-307.163 2849.82 79.5846 0.732085 0.662362 0.159149 
-186.083 2712.65 80.099 0.754305 0.65524 0.041041 
-201.926 2731.05 54.9565 0.765927 0.641799 -0.0380848 
30.9142 2454.86 109.197 0.772477 0.624776 -0.11373 
-256.143 2790.58 11.7657 0.770149 0.619435 -0.152221 
17.984 2466.28 88.6371 0.771877 0.606146 -0.191818 
220.375 2224.73 139.73 0.769946 0.595736 -0.228651 
-262.958 2789.53 -16.673 0.766252 0.582983 -0.270163 
-241.48 2764.72 -9.16727 0.766252 0.582983 -0.270163 
-101.485 2575.28 -7.00809 0.740988 0.527399 -0.415676 
-80.33 2552.18 1.6709 0.740988 0.527399 -0.415676 
-60.8114 2521.24 -1.89966 0.734613 0.510102 -0.447371 
-96.2977 2560.81 -15.0916 0.72288 0.493552 -0.483582 
-433.493 2928.02 -143.07 0.686533 0.433862 -0.58347 
106.723 2293.35 20.7465 0.686533 0.433862 -0.58347 
-190.903 2630.36 -78.3708 0.672032 0.416494 -0.612296 
55.9878 2329.02 -10.5842 0.65757 0.395867 -0.641007 
-159.407 2557.2 -88.6535 0.603548 0.328472 -0.726523 
-332.575 2758.82 -141.843 0.603548 0.328472 -0.726523 
118.291 2171.67 -25.7029 0.496273 0.206655 -0.843212 
-464.445 2858.33 -201.087 0.496273 0.206655 -0.843212 
89.0103 2189.02 -38.5492 0.472945 0.185323 -0.861382 
-392.846 2747.45 -185.529 0.447962 0.158019 -0.879977 
-110.749 2383.84 -105.432 0.39613 0.103518 -0.912341 
-253.834 2523.86 -151.107 0.345332 0.0534288 -0.936958 
77.6579 2121.05 -51.9205 0.316117 0.026448 -0.948351 
-201.511 2444.01 -136.147 0.316117 0.026448 -0.948351 
-252.303 2460.35 -150.863 0.230999 -0.0501109 -0.971663 
-82.2576 2223.81 -96.6224 0.16763 -0.106451 -0.980086 
-557.584 2775.01 -238.694 0.137821 -0.130503 -0.981822 
-397.155 2529.32 -180.28 0.0178968 -0.232659 -0.972394 
-31.4698 2070.3 -62.9937 -0.010858 -0.256972 -0.966358 
-213.906 2290.91 -119.465 -0.010858 -0.256972 -0.966358 
-134.002 2182.62 -91.4266 -0.0438812 -0.279586 -0.959117 
-661.623 2763.34 -236.856 -0.13336 -0.347836 -0.928022 
-52.1785 2027.89 -46.4191 -0.162892 -0.372528 -0.913613 
-300.678 2287.37 -106.556 -0.224527 -0.414854 -0.881751 
-94.4246 1993.94 -16.7303 -0.336238 -0.489219 -0.804741 
-249.153 2164.16 -55.6425 -0.366299 -0.508301 -0.779394 
-90.202 1929.69 27.8824 -0.469869 -0.570197 -0.673869 
-532.083 2449.99 -105.113 -0.469869 -0.570197 -0.673869 
-176.556 2016.93 15.0051 -0.514913 -0.595948 -0.616207 
-303.837 2120.02 31.1331 -0.621195 -0.641287 -0.450408 
-545.54 2396.2 -28.4689 -0.654504 -0.651206 -0.384129 
-752.449 2635.55 -83.4015 -0.654504 -0.651206 -0.384129 
-480.642 2313.15 2.72946 -0.6704 -0.657351 -0.344171 
-421.268 2238.6 29.6181 -0.686955 -0.657861 -0.308726 
-765.561 2636.18 -56.0462 -0.699219 -0.660993 -0.272361 
-172.019 1932.66 135.759 -0.722095 -0.663338 -0.196373 
-526.573 2343.08 107.42 -0.771034 -0.632161 0.0766695 
-632.84 2467.33 67.9079 -0.771034 -0.632161 0.0766695 
-773.799 2635.32 39.3839 -0.772477 -0.624776 0.11373 
-579.548 2411.04 116.019 -0.771877 -0.606146 0.191818 
-401.695 2198.24 157.167 -0.774014 -0.614703 0.151797 
-651.377 2499.66 105.845 -0.771373 -0.593724 0.229075 
-447.024 2265.88 182.502 -0.763777 -0.568429 0.305831 
-475.864 2321.62 206.286 -0.735849 -0.507653 0.448124 
-563.799 2434.73 190.274 -0.724461 -0.492368 0.482421 
-788.729 2696.62 119.483 -0.724461 -0.492368 0.482421 
-368.429 2219.27 262.753 -0.700373 -0.454161 0.55065 
-584.575 2486.4 207.598 -0.687864 -0.434704 0.58127 
-427.11 2297.58 252.483 -0.687864 -0.434704 0.58127 
-652.105 2596.55 206.587 -0.642749 -0.373156 0.669051 
-555.928 2530.55 256.172 -0.565955 -0.280599 0.775216 
-624.534 2646.3 245.683 -0.49885 -0.203458 0.842469 
-284.468 2250.09 349.139 -0.49885 -0.203458 0.842469 
-625.526 2691.3 253.602 -0.423384 -0.131688 0.896328 
-292.115 2295.93 353.606 -0.423384 -0.131688 0.896328 
-722.283 2811.76 225.29 -0.398453 -0.103405 0.911341 
-189.588 2201.88 387.49 -0.371921 -0.0765325 0.925104 
-472.584 2563.42 303.879 -0.316137 -0.0239307 0.948412 
-140.389 2202.6 403.95 -0.258246 0.02815 0.965669 
-71.8341 2156.27 422.642 -0.203055 0.0799914 0.975895 
-607.526 2798.61 260.203 -0.170415 0.106663 0.979582 
-56.7861 2153.09 425.721 -0.170415 0.106663 0.979582 
-571.369 2777.59 268.418 -0.143586 0.133768 0.980556 
-657.14 2900.93 238.93 -0.0813369 0.183311 0.979684 
-206.902 2383.36 372.088 -0.0493821 0.208369 0.976803 
3.19458 2169.66 427.476 0.0108512 0.259223 0.965756 
17.8333 2170.54 426.824 0.0439559 0.282573 0.958238 
-545.684 2854.21 250.869 0.0712701 0.304518 0.949837 
-58.8464 2284.78 396.143 0.103139 0.328171 0.938971 
-187.563 2454.45 350.881 0.130533 0.350377 0.927468 
-167.49 2461.9 344.222 0.1929 0.395952 0.897781 
-247.653 2598.48 299.318 0.279624 0.45574 0.845051 
-527.041 2932.81 212.277 0.309542 0.472955 0.824922 
-727.98 3035.14 158.26 -0.138245 0.496225 0.857117 
-764.273 3058.5 138.607 -0.175397 0.464287 0.868143 
-809.092 2931.89 159.466 -0.573433 0.11586 0.811019 
-832.793 2867.1 139.106 -0.759012 -0.0859533 0.645378 
-860.059 3021.46 110.814 -0.573433 0.11586 0.811019 
-847.792 2740.37 30.9034 -0.924575 -0.36629 0.104849 
-885.189 3001.32 92.3921 -0.671443 0.0125114 0.740951 
-880.745 2813.58 -23.8618 -0.917201 -0.395368 -0.0492546 
-663.729 2793.32 -245.457 -0.256443 -0.0720063 -0.963873 
-908.86 2898.92 -89.5109 -0.871364 -0.415295 -0.261258 
-820.289 2855.22 -183.615 -0.587102 -0.295951 -0.753475 
-840.581 2898.39 -184.848 -0.587102 -0.295951 -0.753475 
-765.51 2893.22 -224.332 -0.361677 -0.149419 -0.920252 
-569.348 2885.51 -242.328 0.121536 0.260061 -0.957913 
-921.508 2979.35 -144.812 -0.744049 -0.377748 -0.551087 
-870.05 3006.57 -200.255 -0.440568 -0.206192 -0.873719 
-802.391 2989.37 -222.812 -0.237811 -0.0554482 -0.969727 
-574.195 3089.58 -93.3911 0.543011 0.776874 -0.318758 
-573.33 3092.4 44.0897 0.44214 0.845496 0.299414 
-568.584 3031.47 147.809 0.246348 0.757874 0.604102 
-646.544 3118.42 65.3806 0.342054 0.80661 0.482057 
-865.054 3028.18 -202.389 -0.635109 0.748906 -0.189149 
-719.064 3183.68 -79.0675 -0.635109 0.748906 -0.189149 
-832.981 3069.36 -147.86 -0.635109 0.748906 -0.189149 
-776.546 3115.17 -156.125 -0.635109 0.748906 -0.189149 
-769.054 3149.47 -46.8718 -0.635109 0.748906 -0.189149 
-884.741 3071.22 31.2919 -0.635109 0.748906 -0.189149 
