ply
format ascii 1.0
comment Created by CloudCompare v2.11.3 (Anoia)
comment Created 08/09/2022 00:20
obj_info Generated by CloudCompare!
element vertex 923
property float x
property float y
property float z
property float nx
property float ny
property float nz
end_header
1598.97 2077.75 752.445 -0.41766 0.251802 0.873015 
1880.9 2325.97 815.497 -0.41766 0.251802 0.873015 
1850.76 1854.33 937.147 -0.41766 0.251802 0.873015 
1809.38 1976.35 882.188 -0.41766 0.251802 0.873015 
1667.69 2346.44 707.76 -0.41766 0.251802 0.873015 
1900.28 1982.52 923.823 -0.41766 0.251802 0.873015 
2097.62 2099.24 984.407 -0.41766 0.251802 0.873015 
2049.58 2094.1 962.942 -0.41766 0.251802 0.873015 
1685.19 1540.31 948.652 -0.41766 0.251802 0.873015 
1668.05 2431.53 683.389 -0.41766 0.251802 0.873015 
1875.24 2156.81 861.588 -0.41766 0.251802 0.873015 
1710.67 2193 772.548 -0.41766 0.251802 0.873015 
1595.55 2605.16 598.678 -0.41766 0.251802 0.873015 
1630.87 1567.21 914.949 -0.41766 0.251802 0.873015 
2069.58 2134.01 960.986 -0.41766 0.251802 0.873015 
1792.89 1948.76 882.273 -0.41766 0.251802 0.873015 
1798.37 2502.55 725.144 -0.41766 0.251802 0.873015 
1654.04 1982.08 806.344 -0.41766 0.251802 0.873015 
1692.22 2144.18 777.822 -0.41766 0.251802 0.873015 
1783.02 1771.87 928.584 -0.41766 0.251802 0.873015 
1948.7 2030.1 933.224 -0.41766 0.251802 0.873015 
1844.35 2425.41 769.355 -0.41766 0.251802 0.873015 
1948.69 1982.72 946.884 -0.41766 0.251802 0.873015 
1604.41 1848.72 821.11 -0.41766 0.251802 0.873015 
1915.38 2162.29 879.18 -0.41766 0.251802 0.873015 
1748.35 1858.89 886.92 -0.41766 0.251802 0.873015 
1757.33 2536.54 695.742 -0.41766 0.251802 0.873015 
2100.9 2049.53 1000.31 -0.41766 0.251802 0.873015 
1876.34 2277.22 827.38 -0.41766 0.251802 0.873015 
2079.21 2221.13 940.455 -0.41766 0.251802 0.873015 
1877.17 1764.81 975.585 -0.41766 0.251802 0.873015 
1708.6 2640.27 642.541 -0.41766 0.251802 0.873015 
1638.76 1944.3 809.946 -0.41766 0.251802 0.873015 
1711.88 1723.48 908.563 -0.41766 0.251802 0.873015 
2040.58 2088.27 960.324 -0.41766 0.251802 0.873015 
2037.4 2140.7 943.684 -0.41766 0.251802 0.873015 
2058.76 2153.79 950.111 -0.41766 0.251802 0.873015 
1600.8 2433.97 650.566 -0.41766 0.251802 0.873015 
1673.02 1769.16 876.825 -0.41766 0.251802 0.873015 
1884.03 2185.91 857.39 -0.41766 0.251802 0.873015 
1936.19 2424.18 813.576 -0.41766 0.251802 0.873015 
1603.02 1955.62 789.61 -0.41766 0.251802 0.873015 
1718.64 1603.52 946.391 -0.41766 0.251802 0.873015 
1770.9 1794.21 916.35 -0.41766 0.251802 0.873015 
1831.63 2026.8 878.264 -0.41766 0.251802 0.873015 
1742.03 1964.54 853.429 -0.41766 0.251802 0.873015 
1998.25 1913.26 990.591 -0.41766 0.251802 0.873015 
1614.98 1972.81 790.363 -0.41766 0.251802 0.873015 
1785.46 2550.99 705.007 -0.41766 0.251802 0.873015 
1852.47 1996.62 896.92 -0.41766 0.251802 0.873015 
1838.24 2350.28 788.11 -0.41766 0.251802 0.873015 
1751.74 2554.2 687.977 -0.41766 0.251802 0.873015 
1644.96 1980.73 802.393 -0.41766 0.251802 0.873015 
1839.55 2170.93 840.466 -0.41766 0.251802 0.873015 
2006.94 2025.55 962.353 -0.41766 0.251802 0.873015 
1961.91 2162.07 901.466 -0.41766 0.251802 0.873015 
1948.49 2115.1 908.604 -0.41766 0.251802 0.873015 
1703.12 2139.88 784.268 -0.41766 0.251802 0.873015 
1696.01 2580.65 653.73 -0.41766 0.251802 0.873015 
1769.85 2115.25 823.24 -0.41766 0.251802 0.873015 
1798.74 1822.17 921.58 -0.41766 0.251802 0.873015 
1722.81 1734.88 910.494 -0.41766 0.251802 0.873015 
1747.35 2401.4 729.956 -0.41766 0.251802 0.873015 
1692.52 1562.82 945.658 -0.41766 0.251802 0.873015 
2073.34 2096.59 973.576 -0.41766 0.251802 0.873015 
1670.35 2348.61 708.406 -0.41766 0.251802 0.873015 
1716.35 2547.78 672.923 -0.41766 0.251802 0.873015 
1934.68 1918 958.864 -0.41766 0.251802 0.873015 
1792.41 1852.77 909.732 -0.41766 0.251802 0.873015 
1849.77 1990.56 897.38 -0.41766 0.251802 0.873015 
1925.19 1838.6 977.231 -0.41766 0.251802 0.873015 
1641.17 2398.66 680.034 -0.41766 0.251802 0.873015 
1625.75 2335.01 691.028 -0.41766 0.251802 0.873015 
1700.95 2044.91 810.622 -0.41766 0.251802 0.873015 
1698.38 2639.77 637.808 -0.41766 0.251802 0.873015 
2038.82 2192.47 929.431 -0.41766 0.251802 0.873015 
2005.9 2215.6 907.034 -0.41766 0.251802 0.873015 
1681.59 2202.93 755.797 -0.41766 0.251802 0.873015 
1835.87 2376.86 779.309 -0.41766 0.251802 0.873015 
1588.47 2243.54 699.609 -0.41766 0.251802 0.873015 
1986.93 2213.98 898.441 -0.41766 0.251802 0.873015 
1672.63 2261.78 734.539 -0.41766 0.251802 0.873015 
2101.4 2167.79 966.434 -0.41766 0.251802 0.873015 
1730.06 1816.93 890.29 -0.41766 0.251802 0.873015 
1764.78 2585.15 685.278 -0.41766 0.251802 0.873015 
1692.37 2202.35 761.112 -0.41766 0.251802 0.873015 
1707.93 1904.28 854.527 -0.41766 0.251802 0.873015 
1849.01 1838.8 940.792 -0.41766 0.251802 0.873015 
1920.31 2112.01 896.037 -0.41766 0.251802 0.873015 
1622.02 2556.16 625.455 -0.41766 0.251802 0.873015 
2040.75 2041.87 973.794 -0.41766 0.251802 0.873015 
1914.36 2227.08 860.003 -0.41766 0.251802 0.873015 
1775.61 1718.05 940.568 -0.41766 0.251802 0.873015 
1632.04 2350.78 689.486 -0.41766 0.251802 0.873015 
1749.69 1704.75 932.026 -0.41766 0.251802 0.873015 
1842 2344.51 791.569 -0.41766 0.251802 0.873015 
1938.67 1884.28 970.497 -0.41766 0.251802 0.873015 
1682.21 1638.87 918.8 -0.41766 0.251802 0.873015 
1628.16 1526.51 925.397 -0.41766 0.251802 0.873015 
1647.09 1833.29 845.945 -0.41766 0.251802 0.873015 
1588.35 1943.11 786.212 -0.41766 0.251802 0.873015 
1938.14 2118.1 902.793 -0.41766 0.251802 0.873015 
2062.28 2248.49 924.472 -0.41766 0.251802 0.873015 
1883.02 2168.12 862.041 -0.41766 0.251802 0.873015 
1678.43 1659 911.184 -0.41766 0.251802 0.873015 
1744.95 1865.93 883.266 -0.41766 0.251802 0.873015 
1646.5 2133.28 759.127 -0.41766 0.251802 0.873015 
1685.36 1890.78 847.64 -0.41766 0.251802 0.873015 
1807.31 2143.3 833.041 -0.41766 0.251802 0.873015 
1884.63 2118.31 877.179 -0.41766 0.251802 0.873015 
1703.72 2055.45 808.905 -0.41766 0.251802 0.873015 
1947.8 2148.98 898.5 -0.41766 0.251802 0.873015 
1846.48 1973.85 900.628 -0.41766 0.251802 0.873015 
1686.48 1749.18 889.018 -0.41766 0.251802 0.873015 
1763.79 2505.29 707.839 -0.41766 0.251802 0.873015 
1625.6 1816.6 840.491 -0.41766 0.251802 0.873015 
1942.54 2140.74 898.369 -0.41766 0.251802 0.873015 
1755.53 1790.92 909.956 -0.41766 0.251802 0.873015 
1587.94 2450.02 639.794 -0.41766 0.251802 0.873015 
1932.62 2345.99 834.423 -0.41766 0.251802 0.873015 
1946.65 2073.94 919.599 -0.41766 0.251802 0.873015 
1816.29 2012.94 874.932 -0.41766 0.251802 0.873015 
1712.29 1835.66 876.403 -0.41766 0.251802 0.873015 
1908.32 2148.98 879.646 -0.41766 0.251802 0.873015 
2098.39 2258.11 938.946 -0.41766 0.251802 0.873015 
1868.25 2491.78 761.628 -0.41766 0.251802 0.873015 
1749.64 2131.08 809.023 -0.41766 0.251802 0.873015 
1596.91 2643.31 588.323 -0.41766 0.251802 0.873015 
1899.21 1882.57 952.144 -0.41766 0.251802 0.873015 
1581.57 1595.61 883.214 -0.41766 0.251802 0.873015 
2096.24 2053.79 996.855 -0.41766 0.251802 0.873015 
1937.46 2168.1 888.047 -0.41766 0.251802 0.873015 
1659.38 2296.7 718.139 -0.41766 0.251802 0.873015 
1744.91 2107.55 813.549 -0.41766 0.251802 0.873015 
1854.52 2362.54 792.349 -0.41766 0.251802 0.873015 
1799.53 2261.39 795.262 -0.41766 0.251802 0.873015 
1772.57 2565.05 694.797 -0.41766 0.251802 0.873015 
2128.98 2130.11 990.479 -0.41766 0.251802 0.873015 
1703.74 1696.99 912.318 -0.41766 0.251802 0.873015 
1764.19 2210.3 793.12 -0.41766 0.251802 0.873015 
1951.28 2007.38 941.01 -0.41766 0.251802 0.873015 
2084.53 2017.59 1001.7 -0.41766 0.251802 0.873015 
1900.47 1802.19 975.931 -0.41766 0.251802 0.873015 
1626.67 2146.37 745.879 -0.41766 0.251802 0.873015 
1702.17 1621.86 933.238 -0.41766 0.251802 0.873015 
1590.77 2615.07 593.534 -0.41766 0.251802 0.873015 
1930.11 2196.82 876.254 -0.41766 0.251802 0.873015 
2051.98 2049.24 977.027 -0.41766 0.251802 0.873015 
1907.77 2345.69 822.639 -0.41766 0.251802 0.873015 
1832.68 1902.29 914.679 -0.41766 0.251802 0.873015 
1895.9 2280.75 835.704 -0.41766 0.251802 0.873015 
1674.94 2329.86 716.006 -0.41766 0.251802 0.873015 
1637.54 1941.12 810.281 -0.41766 0.251802 0.873015 
1609.38 1589.07 898.378 -0.41766 0.251802 0.873015 
2121.44 2067.47 1004.94 -0.41766 0.251802 0.873015 
1768.07 2124.95 819.594 -0.41766 0.251802 0.873015 
2181.31 2200.27 995.233 -0.41766 0.251802 0.873015 
1903.18 1896.55 950.007 -0.41766 0.251802 0.873015 
1732.44 2044.19 825.872 -0.41766 0.251802 0.873015 
1780.54 1968.29 870.739 -0.41766 0.251802 0.873015 
1803.57 2093.53 845.613 -0.41766 0.251802 0.873015 
1603.24 1563.78 902.742 -0.41766 0.251802 0.873015 
1909.6 1949.12 937.911 -0.41766 0.251802 0.873015 
1623.99 2622.95 607.129 -0.41766 0.251802 0.873015 
1800.49 1944.47 887.14 -0.41766 0.251802 0.873015 
1842.32 1994.89 892.573 -0.41766 0.251802 0.873015 
1707.19 1981.18 831.988 -0.41766 0.251802 0.873015 
1722.01 2227.38 768.047 -0.41766 0.251802 0.873015 
1701.17 1819.41 875.776 -0.41766 0.251802 0.873015 
1830.32 2511.37 737.858 -0.41766 0.251802 0.873015 
1848.1 1993.69 895.676 -0.41766 0.251802 0.873015 
1936.65 2162.27 889.341 -0.41766 0.251802 0.873015 
1599.46 1487.58 922.916 -0.41766 0.251802 0.873015 
1841.29 2223.4 826.165 -0.41766 0.251802 0.873015 
1765.6 2169.7 805.508 -0.41766 0.251802 0.873015 
1586.17 2658.17 578.909 -0.41766 0.251802 0.873015 
1712.36 1923.73 851.028 -0.41766 0.251802 0.873015 
1721.38 1586.15 952.714 -0.41766 0.251802 0.873015 
1962.9 2249.53 876.709 -0.41766 0.251802 0.873015 
1766.86 1917.23 878.936 -0.41766 0.251802 0.873015 
1766.13 2425.75 731.901 -0.41766 0.251802 0.873015 
1626.34 2415.17 668.186 -0.41766 0.251802 0.873015 
1995.94 2176.69 913.498 -0.41766 0.251802 0.873015 
1709.84 2029.02 819.454 -0.41766 0.251802 0.873015 
1958.65 1911.25 972.259 -0.41766 0.251802 0.873015 
1636.96 1863.93 832.268 -0.41766 0.251802 0.873015 
1943.44 2008.2 937.027 -0.41766 0.251802 0.873015 
2201.01 2161.63 1015.79 -0.41766 0.251802 0.873015 
2103.15 2037.37 1004.89 -0.41766 0.251802 0.873015 
2081.58 2143.85 963.876 -0.41766 0.251802 0.873015 
1759.57 2389.25 739.297 -0.41766 0.251802 0.873015 
1809.05 2225.75 810.088 -0.41766 0.251802 0.873015 
1958.04 2226.53 881.023 -0.41766 0.251802 0.873015 
1823.13 1880.93 916.279 -0.41766 0.251802 0.873015 
1977.64 2359.81 851.941 -0.41766 0.251802 0.873015 
1853.48 1983.48 901.192 -0.41766 0.251802 0.873015 
1945.17 2190.42 885.29 -0.41766 0.251802 0.873015 
1605.02 1573.98 900.647 -0.41766 0.251802 0.873015 
1620.03 2200.42 727.119 -0.41766 0.251802 0.873015 
1995.53 1975.9 971.223 -0.41766 0.251802 0.873015 
1639.67 2206.17 734.839 -0.41766 0.251802 0.873015 
1699.53 2144.73 781.153 -0.41766 0.251802 0.873015 
1687.35 2378.98 707.766 -0.41766 0.251802 0.873015 
1659.62 1933.5 823.021 -0.41766 0.251802 0.873015 
1724.02 1634.18 940.121 -0.41766 0.251802 0.873015 
1587.2 1800.75 826.727 -0.41766 0.251802 0.873015 
1950.62 2287.14 859.997 -0.41766 0.251802 0.873015 
1802.62 2496.76 728.847 -0.41766 0.251802 0.873015 
1980.45 2048.63 943.044 -0.41766 0.251802 0.873015 
1697.3 1806.09 877.768 -0.41766 0.251802 0.873015 
1665.22 1589.89 924.813 -0.41766 0.251802 0.873015 
1796.01 1858.71 909.734 -0.41766 0.251802 0.873015 
1841.58 2421.17 769.257 -0.41766 0.251802 0.873015 
1581.99 2449.92 636.983 -0.41766 0.251802 0.873015 
1749 2083.96 822.311 -0.41766 0.251802 0.873015 
1676.5 1901.88 840.204 -0.41766 0.251802 0.873015 
1720.83 1985.06 837.38 -0.41766 0.251802 0.873015 
1795.46 1995.37 870.053 -0.41766 0.251802 0.873015 
1961.61 2091.79 921.595 -0.41766 0.251802 0.873015 
1881.31 2202.15 851.409 -0.41766 0.251802 0.873015 
2105.94 2069.91 996.839 -0.41766 0.251802 0.873015 
1725.38 1846.8 879.437 -0.41766 0.251802 0.873015 
1670.62 1901.17 837.601 -0.41766 0.251802 0.873015 
1679.59 1572.84 936.596 -0.41766 0.251802 0.873015 
1720.24 2439.35 706.057 -0.41766 0.251802 0.873015 
1600.23 2325.95 681.452 -0.41766 0.251802 0.873015 
1872.64 2432.63 780.783 -0.41766 0.251802 0.873015 
1770.55 2464.84 722.736 -0.41766 0.251802 0.873015 
1625.87 1872.39 824.533 -0.41766 0.251802 0.873015 
1687.26 2074.63 795.515 -0.41766 0.251802 0.873015 
1595.27 2267.71 695.885 -0.41766 0.251802 0.873015 
1786.56 1944.08 880.598 -0.41766 0.251802 0.873015 
1790.6 2085.81 841.642 -0.41766 0.251802 0.873015 
1734.56 1737.45 915.364 -0.41766 0.251802 0.873015 
1721.66 1823.46 884.393 -0.41766 0.251802 0.873015 
1915.1 1815.33 979.126 -0.41766 0.251802 0.873015 
2043.06 2243.86 916.628 -0.41766 0.251802 0.873015 
1963.29 2196.91 892.076 -0.41766 0.251802 0.873015 
1760.27 1854.02 894.019 -0.41766 0.251802 0.873015 
1783.01 2038.66 851.62 -0.41766 0.251802 0.873015 
1943.54 2120.58 904.659 -0.41766 0.251802 0.873015 
1609.43 2221.89 715.865 -0.41766 0.251802 0.873015 
2042.86 2023.24 980.175 -0.41766 0.251802 0.873015 
1584.05 2398.65 652.753 -0.41766 0.251802 0.873015 
2029.99 1981.6 986.038 -0.41766 0.251802 0.873015 
2160.53 2135.47 1004 -0.41766 0.251802 0.873015 
1822.48 2028.8 873.318 -0.41766 0.251802 0.873015 
1841.89 1949.4 905.487 -0.41766 0.251802 0.873015 
2029.26 2162.62 933.472 -0.41766 0.251802 0.873015 
2154.89 2221.17 976.589 -0.41766 0.251802 0.873015 
1622.78 1943.74 802.474 -0.41766 0.251802 0.873015 
1626.83 2047.68 774.427 -0.41766 0.251802 0.873015 
1743.69 1864.08 883.199 -0.41766 0.251802 0.873015 
2067.95 2208.84 938.62 -0.41766 0.251802 0.873015 
1985.44 2308.96 870.33 -0.41766 0.251802 0.873015 
1666.13 2531.62 653.601 -0.41766 0.251802 0.873015 
1739.62 1742.79 916.244 -0.41766 0.251802 0.873015 
1881.3 2080.79 886.412 -0.41766 0.251802 0.873015 
1645.96 1748.33 869.912 -0.41766 0.251802 0.873015 
1583.81 2622.91 587.952 -0.41766 0.251802 0.873015 
1911.54 2325.38 830.299 -0.41766 0.251802 0.873015 
1683.97 1694.68 903.539 -0.41766 0.251802 0.873015 
1745.97 1814.04 898.723 -0.41766 0.251802 0.873015 
1775.66 2303.92 771.591 -0.41766 0.251802 0.873015 
1586.64 1700.05 855.505 -0.41766 0.251802 0.873015 
1582.99 2688.69 568.585 -0.41766 0.251802 0.873015 
1725.93 2033.57 825.828 -0.41766 0.251802 0.873015 
1835.44 2306.53 799.392 -0.41766 0.251802 0.873015 
1989.29 2167.2 913.063 -0.41766 0.251802 0.873015 
1809.34 1776.22 939.899 -0.41766 0.251802 0.873015 
1707.05 2313.16 736.16 -0.41766 0.251802 0.873015 
1645.77 1597.52 913.322 -0.41766 0.251802 0.873015 
1676.07 2175.02 761.211 -0.41766 0.251802 0.873015 
1828.64 1850.6 927.662 -0.41766 0.251802 0.873015 
1588.93 1509.9 911.45 -0.41766 0.251802 0.873015 
1615.06 2414.71 662.932 -0.41766 0.251802 0.873015 
1641.97 1545.37 926.549 -0.41766 0.251802 0.873015 
2051.32 2178.52 939.422 -0.41766 0.251802 0.873015 
1582.58 2431.19 642.666 -0.41766 0.251802 0.873015 
1958.67 1928.55 967.279 -0.41766 0.251802 0.873015 
1788.78 2082.61 841.695 -0.41766 0.251802 0.873015 
1799.85 2531.89 717.391 -0.41766 0.251802 0.873015 
1700.87 2303.94 735.867 -0.41766 0.251802 0.873015 
1704.14 2086.26 800.222 -0.41766 0.251802 0.873015 
1626.93 2087.72 762.927 -0.41766 0.251802 0.873015 
1623.79 2075.39 764.98 -0.41766 0.251802 0.873015 
1595.02 1709.24 856.856 -0.41766 0.251802 0.873015 
2048.9 2179.56 937.967 -0.41766 0.251802 0.873015 
1749.34 2183.78 793.679 -0.41766 0.251802 0.873015 
1690.86 1591.49 936.597 -0.41766 0.251802 0.873015 
1749.92 2390.11 734.437 -0.41766 0.251802 0.873015 
1797.35 2242.88 799.559 -0.41766 0.251802 0.873015 
1752.13 1849.56 891.417 -0.41766 0.251802 0.873015 
1610.32 1793.13 839.968 -0.41766 0.251802 0.873015 
1595.4 1805.83 829.174 -0.41766 0.251802 0.873015 
1827.9 2160.49 837.918 -0.41766 0.251802 0.873015 
1699.05 1677.69 915.644 -0.41766 0.251802 0.873015 
2066.33 2014.7 993.846 -0.41766 0.251802 0.873015 
1918.85 1870.35 965.049 -0.41766 0.251802 0.873015 
1986.32 2124.14 924.067 -0.41766 0.251802 0.873015 
1695.43 2138.32 781.043 -0.41766 0.251802 0.873015 
1776.99 2525.08 708.435 -0.41766 0.251802 0.873015 
1821.88 2416.82 761.103 -0.41766 0.251802 0.873015 
1935.7 2146.58 893.416 -0.41766 0.251802 0.873015 
1770.98 2305.7 768.846 -0.41766 0.251802 0.873015 
1901.08 1832.01 967.62 -0.41766 0.251802 0.873015 
991.659 2067.83 465.254 -0.41766 0.251802 0.873015 
1247.65 2253.09 534.075 -0.41766 0.251802 0.873015 
1558.01 1515.76 894.993 -0.41766 0.251802 0.873015 
1380.3 1959.46 682.129 -0.41766 0.251802 0.873015 
1447.26 2520.84 552.178 -0.41766 0.251802 0.873015 
1302.86 2296.58 547.897 -0.41766 0.251802 0.873015 
1507.35 1839.53 777.405 -0.41766 0.251802 0.873015 
1451.12 2081.74 680.682 -0.41766 0.251802 0.873015 
1144.84 2243.09 487.856 -0.41766 0.251802 0.873015 
1341.1 1653.89 751.553 -0.41766 0.251802 0.873015 
1140.66 2022.3 549.55 -0.41766 0.251802 0.873015 
1538.28 1559.83 872.855 -0.41766 0.251802 0.873015 
1467.35 1917.61 735.775 -0.41766 0.251802 0.873015 
1326.37 2226.59 579.315 -0.41766 0.251802 0.873015 
1460.49 2122.88 673.289 -0.41766 0.251802 0.873015 
1362.04 2355.63 559.129 -0.41766 0.251802 0.873015 
1233.87 1932.27 620.036 -0.41766 0.251802 0.873015 
1316.04 2071.11 619.232 -0.41766 0.251802 0.873015 
1171.89 1877.16 606.33 -0.41766 0.251802 0.873015 
1346.68 2391.59 541.422 -0.41766 0.251802 0.873015 
1298.14 1708.18 715.371 -0.41766 0.251802 0.873015 
1349.92 2135.62 616.806 -0.41766 0.251802 0.873015 
1053.87 2090.27 488.489 -0.41766 0.251802 0.873015 
1422.07 1614.84 801.485 -0.41766 0.251802 0.873015 
1374.04 2292.75 582.998 -0.41766 0.251802 0.873015 
1532.21 2188.8 688.528 -0.41766 0.251802 0.873015 
1033.96 1950.12 519.409 -0.41766 0.251802 0.873015 
1563.87 2244.68 687.531 -0.41766 0.251802 0.873015 
1453.39 1894.08 735.897 -0.41766 0.251802 0.873015 
1334.72 2168.01 600.204 -0.41766 0.251802 0.873015 
1273.29 2236.33 551.155 -0.41766 0.251802 0.873015 
1131.66 1881.46 585.879 -0.41766 0.251802 0.873015 
1519.19 2185.04 683.393 -0.41766 0.251802 0.873015 
1354.66 2278.98 577.715 -0.41766 0.251802 0.873015 
1304.31 1894.93 664.45 -0.41766 0.251802 0.873015 
1452.23 2419.77 583.706 -0.41766 0.251802 0.873015 
1412.81 2467.46 551.122 -0.41766 0.251802 0.873015 
1573.18 1679.84 854.907 -0.41766 0.251802 0.873015 
1405.89 2503.17 537.517 -0.41766 0.251802 0.873015 
1232.08 1995.14 601.045 -0.41766 0.251802 0.873015 
1564.81 1872.3 795.39 -0.41766 0.251802 0.873015 
1484.03 2573.72 554.483 -0.41766 0.251802 0.873015 
1003.25 1943.87 506.544 -0.41766 0.251802 0.873015 
1351.51 2384.75 545.702 -0.41766 0.251802 0.873015 
1301.23 2361.4 528.422 -0.41766 0.251802 0.873015 
1562.15 1811.58 811.636 -0.41766 0.251802 0.873015 
1067.75 1900 550.002 -0.41766 0.251802 0.873015 
1299.34 1963.92 642.177 -0.41766 0.251802 0.873015 
1494.24 2279.61 644.197 -0.41766 0.251802 0.873015 
1498.45 2383.79 616.16 -0.41766 0.251802 0.873015 
1154.89 2202.11 504.48 -0.41766 0.251802 0.873015 
1499.34 2339.09 629.476 -0.41766 0.251802 0.873015 
1064.99 1998.76 520.2 -0.41766 0.251802 0.873015 
1509.37 1903.58 759.893 -0.41766 0.251802 0.873015 
1527.04 2401.09 624.825 -0.41766 0.251802 0.873015 
1534.61 2093.79 717.082 -0.41766 0.251802 0.873015 
1357.42 1839.73 705.738 -0.41766 0.251802 0.873015 
1368.96 2060.38 647.605 -0.41766 0.251802 0.873015 
1135.46 2048.07 539.632 -0.41766 0.251802 0.873015 
1273.1 1987.42 622.865 -0.41766 0.251802 0.873015 
1130.53 2183.86 498.107 -0.41766 0.251802 0.873015 
1544.8 2213.39 687.449 -0.41766 0.251802 0.873015 
1348.87 1937.82 673.36 -0.41766 0.251802 0.873015 
1358.08 1752.68 731.16 -0.41766 0.251802 0.873015 
1560.12 1758.05 826.109 -0.41766 0.251802 0.873015 
1206.04 1827.61 636.933 -0.41766 0.251802 0.873015 
1429.11 2089.49 667.932 -0.41766 0.251802 0.873015 
1325.72 2142.12 603.374 -0.41766 0.251802 0.873015 
994.007 2034.62 475.954 -0.41766 0.251802 0.873015 
1519.09 2214.6 674.822 -0.41766 0.251802 0.873015 
1034.4 1965.3 515.238 -0.41766 0.251802 0.873015 
1330.49 1740.58 721.475 -0.41766 0.251802 0.873015 
1526.79 1470.48 893.141 -0.41766 0.251802 0.873015 
1355.75 2406.39 541.483 -0.41766 0.251802 0.873015 
1175.31 1822.65 623.688 -0.41766 0.251802 0.873015 
1286.73 2218.43 562.737 -0.41766 0.251802 0.873015 
1128.63 2040 538.7 -0.41766 0.251802 0.873015 
1568.65 1847.4 804.41 -0.41766 0.251802 0.873015 
1284.19 1829.74 673.646 -0.41766 0.251802 0.873015 
1186.69 1847.91 621.836 -0.41766 0.251802 0.873015 
1250.13 2151.99 564.422 -0.41766 0.251802 0.873015 
1264.04 2315.03 524.035 -0.41766 0.251802 0.873015 
1034.21 1917.59 528.911 -0.41766 0.251802 0.873015 
1385.91 1838.05 719.828 -0.41766 0.251802 0.873015 
1538.3 1646.71 847.808 -0.41766 0.251802 0.873015 
1221.34 1776.96 658.851 -0.41766 0.251802 0.873015 
1381.49 1797.95 729.287 -0.41766 0.251802 0.873015 
1513.1 2637.69 549.917 -0.41766 0.251802 0.873015 
1207.45 1834.82 635.527 -0.41766 0.251802 0.873015 
1413.63 2135.76 647.192 -0.41766 0.251802 0.873015 
1456.59 2420.81 585.487 -0.41766 0.251802 0.873015 
1269.49 1787.84 678.712 -0.41766 0.251802 0.873015 
1449.04 1563.56 829.158 -0.41766 0.251802 0.873015 
1535.23 2663.27 553.11 -0.41766 0.251802 0.873015 
1379.16 2157.78 624.376 -0.41766 0.251802 0.873015 
1523.25 1768.47 805.492 -0.41766 0.251802 0.873015 
1129.62 1933.65 569.849 -0.41766 0.251802 0.873015 
1355.9 2215.82 596.527 -0.41766 0.251802 0.873015 
1420.82 2539.31 534.22 -0.41766 0.251802 0.873015 
1417.03 2563.73 525.368 -0.41766 0.251802 0.873015 
1564.96 1461.34 914.01 -0.41766 0.251802 0.873015 
1361.14 1952.77 674.909 -0.41766 0.251802 0.873015 
1528.51 2283.87 659.336 -0.41766 0.251802 0.873015 
1547.04 2654.13 561.381 -0.41766 0.251802 0.873015 
1409.62 1948.84 699.197 -0.41766 0.251802 0.873015 
1299.35 2124.23 595.935 -0.41766 0.251802 0.873015 
1446.5 2538.38 546.754 -0.41766 0.251802 0.873015 
1218.9 2234.46 525.72 -0.41766 0.251802 0.873015 
1525.39 1998.19 740.25 -0.41766 0.251802 0.873015 
1107.88 2012.15 536.819 -0.41766 0.251802 0.873015 
1445.66 1832.56 749.949 -0.41766 0.251802 0.873015 
1266.93 2158.95 570.441 -0.41766 0.251802 0.873015 
1538.73 1721.83 826.339 -0.41766 0.251802 0.873015 
1358.87 2018.82 654.774 -0.41766 0.251802 0.873015 
1480.41 2217.86 655.404 -0.41766 0.251802 0.873015 
1024.33 2056.75 484.051 -0.41766 0.251802 0.873015 
1478.03 2066.89 697.816 -0.41766 0.251802 0.873015 
1564.22 1436.86 920.716 -0.41766 0.251802 0.873015 
1349.23 2252.58 582.735 -0.41766 0.251802 0.873015 
1081.93 2168.84 479.229 -0.41766 0.251802 0.873015 
1383.67 2441.54 544.681 -0.41766 0.251802 0.873015 
1521.44 2404.95 621.036 -0.41766 0.251802 0.873015 
981.052 1999.28 479.96 -0.41766 0.251802 0.873015 
1169.8 2222.07 505.845 -0.41766 0.251802 0.873015 
1400.93 2340.78 581.988 -0.41766 0.251802 0.873015 
1449.29 1762.52 771.888 -0.41766 0.251802 0.873015 
1365.69 1865.5 702.258 -0.41766 0.251802 0.873015 
1206.78 2135.78 548.396 -0.41766 0.251802 0.873015 
1264.07 2133.59 576.388 -0.41766 0.251802 0.873015 
1107.45 2036.56 529.574 -0.41766 0.251802 0.873015 
1573.3 2422.52 640.734 -0.41766 0.251802 0.873015 
1516.95 2293.34 651.083 -0.41766 0.251802 0.873015 
1376.04 1919.22 691.702 -0.41766 0.251802 0.873015 
1404.29 2444.4 553.703 -0.41766 0.251802 0.873015 
1171.77 2080.29 547.681 -0.41766 0.251802 0.873015 
1543.79 2571.09 583.786 -0.41766 0.251802 0.873015 
1108.58 2168.66 492.009 -0.41766 0.251802 0.873015 
1431.32 2225.48 629.762 -0.41766 0.251802 0.873015 
1521.27 1941.4 754.667 -0.41766 0.251802 0.873015 
1279.44 2152.74 578.205 -0.41766 0.251802 0.873015 
1382.38 1596.52 787.815 -0.41766 0.251802 0.873015 
1263.76 1833.71 662.743 -0.41766 0.251802 0.873015 
1576.08 2013.4 760.075 -0.41766 0.251802 0.873015 
1552.61 2212.39 691.466 -0.41766 0.251802 0.873015 
1556.26 2702.78 551.752 -0.41766 0.251802 0.873015 
1296.91 2018.81 625.181 -0.41766 0.251802 0.873015 
1508.07 1665.93 827.821 -0.41766 0.251802 0.873015 
1445.13 1988.79 704.633 -0.41766 0.251802 0.873015 
1562.64 2013.44 753.646 -0.41766 0.251802 0.873015 
1319.62 2166.19 593.513 -0.41766 0.251802 0.873015 
1269.45 2084.31 593.172 -0.41766 0.251802 0.873015 
1127.05 2082.36 525.724 -0.41766 0.251802 0.873015 
1131.28 1925.23 573.068 -0.41766 0.251802 0.873015 
1508.54 2676.08 536.666 -0.41766 0.251802 0.873015 
1461.5 1958.88 721.078 -0.41766 0.251802 0.873015 
1176.63 1834.78 620.823 -0.41766 0.251802 0.873015 
1337.54 2422.53 528.133 -0.41766 0.251802 0.873015 
1214.16 1970.33 599.645 -0.41766 0.251802 0.873015 
1207.72 1842.49 633.447 -0.41766 0.251802 0.873015 
1340.42 1727.86 729.889 -0.41766 0.251802 0.873015 
1324.43 2226.46 578.427 -0.41766 0.251802 0.873015 
1511.34 1607.13 846.347 -0.41766 0.251802 0.873015 
1536.37 2093.61 717.975 -0.41766 0.251802 0.873015 
1375.14 1662.02 765.465 -0.41766 0.251802 0.873015 
1129.26 2088.43 525.028 -0.41766 0.251802 0.873015 
1554.02 2604.36 579.071 -0.41766 0.251802 0.873015 
1326.89 1791.04 705.202 -0.41766 0.251802 0.873015 
1512.09 2047.96 719.544 -0.41766 0.251802 0.873015 
1579.51 1875.86 801.388 -0.41766 0.251802 0.873015 
1558.5 2596.16 583.578 -0.41766 0.251802 0.873015 
1147.36 2124.17 523.366 -0.41766 0.251802 0.873015 
1007.37 2048.44 478.351 -0.41766 0.251802 0.873015 
1439.63 2071.01 678.288 -0.41766 0.251802 0.873015 
1384.6 1671.29 767.307 -0.41766 0.251802 0.873015 
1559.68 2743.36 541.681 -0.41766 0.251802 0.873015 
1516.66 2067.9 715.976 -0.41766 0.251802 0.873015 
1575.02 2308.3 674.502 -0.41766 0.251802 0.873015 
1124 1942.59 564.586 -0.41766 0.251802 0.873015 
1293.59 2366.4 523.334 -0.41766 0.251802 0.873015 
1499.63 2427.24 604.19 -0.41766 0.251802 0.873015 
1536.6 2627.65 564.038 -0.41766 0.251802 0.873015 
1352.37 2248.71 585.354 -0.41766 0.251802 0.873015 
1556.5 1894.21 785.103 -0.41766 0.251802 0.873015 
1253.94 1978.88 616.175 -0.41766 0.251802 0.873015 
1091.1 2150.1 489.018 -0.41766 0.251802 0.873015 
1372.18 2260.97 591.277 -0.41766 0.251802 0.873015 
1182.46 1907.8 602.539 -0.41766 0.251802 0.873015 
1309.16 1713.33 719.153 -0.41766 0.251802 0.873015 
1526.12 1913.58 765.007 -0.41766 0.251802 0.873015 
1417.28 1954.42 701.241 -0.41766 0.251802 0.873015 
1497.11 2468.76 591.009 -0.41766 0.251802 0.873015 
1386.59 2337.38 576.12 -0.41766 0.251802 0.873015 
1394.79 2434.18 552.115 -0.41766 0.251802 0.873015 
1245.09 2014.3 601.732 -0.41766 0.251802 0.873015 
1517.58 2314.64 645.241 -0.41766 0.251802 0.873015 
1516.05 1709.06 819.194 -0.41766 0.251802 0.873015 
1482.24 1784.8 781.198 -0.41766 0.251802 0.873015 
1199.26 2257.64 509.651 -0.41766 0.251802 0.873015 
1468.14 2304.4 624.582 -0.41766 0.251802 0.873015 
1201.16 1834.62 632.583 -0.41766 0.251802 0.873015 
1287.17 2202.57 567.525 -0.41766 0.251802 0.873015 
1159.03 2207.8 504.814 -0.41766 0.251802 0.873015 
1435.49 1568.68 821.212 -0.41766 0.251802 0.873015 
1409.07 2083.41 660.115 -0.41766 0.251802 0.873015 
1406.07 2241.28 613.145 -0.41766 0.251802 0.873015 
1097.66 1996.75 536.38 -0.41766 0.251802 0.873015 
1495.77 1877.06 761.044 -0.41766 0.251802 0.873015 
1414.62 1821.16 738.412 -0.41766 0.251802 0.873015 
1525.28 2599.29 566.811 -0.41766 0.251802 0.873015 
1461.62 1888.82 741.344 -0.41766 0.251802 0.873015 
1135.4 1918.45 576.993 -0.41766 0.251802 0.873015 
1207.69 1780.66 651.266 -0.41766 0.251802 0.873015 
1303.37 1784.57 695.834 -0.41766 0.251802 0.873015 
1577.62 1993.93 766.43 -0.41766 0.251802 0.873015 
1436.59 1896.68 727.121 -0.41766 0.251802 0.873015 
1335.34 1696.19 736.599 -0.41766 0.251802 0.873015 
1097.08 2155.99 490.176 -0.41766 0.251802 0.873015 
1516.12 1957.93 747.441 -0.41766 0.251802 0.873015 
1567.44 2422.32 637.992 -0.41766 0.251802 0.873015 
1216.24 2212.88 530.673 -0.41766 0.251802 0.873015 
1576.42 2330.56 668.754 -0.41766 0.251802 0.873015 
1403.29 2191.09 626.294 -0.41766 0.251802 0.873015 
1457.95 1530.71 842.891 -0.41766 0.251802 0.873015 
1110.22 1882.95 575.209 -0.41766 0.251802 0.873015 
1436.41 2076.13 675.273 -0.41766 0.251802 0.873015 
1397.39 2124.88 642.573 -0.41766 0.251802 0.873015 
1506.5 2006.97 728.695 -0.41766 0.251802 0.873015 
1342.03 1818.85 704.41 -0.41766 0.251802 0.873015 
1229.9 1899.35 627.637 -0.41766 0.251802 0.873015 
1339.07 2223.95 586.143 -0.41766 0.251802 0.873015 
1368.06 1664.16 761.462 -0.41766 0.251802 0.873015 
1544.88 2251.31 676.548 -0.41766 0.251802 0.873015 
1441.82 2029.24 691.385 -0.41766 0.251802 0.873015 
1422.81 1762.66 759.2 -0.41766 0.251802 0.873015 
1549.63 2032.85 741.832 -0.41766 0.251802 0.873015 
1471.68 1854.73 755.981 -0.41766 0.251802 0.873015 
1223.5 1949.08 610.234 -0.41766 0.251802 0.873015 
1265.14 2304.75 527.527 -0.41766 0.251802 0.873015 
1386.14 2488.67 532.266 -0.41766 0.251802 0.873015 
1506.82 2253.14 657.844 -0.41766 0.251802 0.873015 
1158.1 2077.31 542.013 -0.41766 0.251802 0.873015 
1160.91 2049.55 551.359 -0.41766 0.251802 0.873015 
1150.66 2172.11 511.115 -0.41766 0.251802 0.873015 
1517.67 2309.3 646.824 -0.41766 0.251802 0.873015 
1504.41 2305.67 641.54 -0.41766 0.251802 0.873015 
1525.26 1700.32 826.112 -0.41766 0.251802 0.873015 
1315.06 2034.72 629.262 -0.41766 0.251802 0.873015 
1478.55 1939.23 734.888 -0.41766 0.251802 0.873015 
1468.21 2471.4 576.443 -0.41766 0.251802 0.873015 
1558.4 1667.4 851.433 -0.41766 0.251802 0.873015 
1057.02 1955.27 528.939 -0.41766 0.251802 0.873015 
1288.57 2331.64 530.961 -0.41766 0.251802 0.873015 
1361.91 2190.28 606.763 -0.41766 0.251802 0.873015 
1417.51 1726.06 767.226 -0.41766 0.251802 0.873015 
1376.75 2243.26 598.568 -0.41766 0.251802 0.873015 
1299.32 2322.89 538.62 -0.41766 0.251802 0.873015 
1155.27 1867.44 601.198 -0.41766 0.251802 0.873015 
1541.49 2411.15 628.825 -0.41766 0.251802 0.873015 
1174.44 1980.51 577.737 -0.41766 0.251802 0.873015 
1292.34 2362.79 523.775 -0.41766 0.251802 0.873015 
1253.14 1940.93 626.741 -0.41766 0.251802 0.873015 
1557.16 2193.55 699.076 -0.41766 0.251802 0.873015 
1246.5 2160.44 560.252 -0.41766 0.251802 0.873015 
1540.2 2255.38 673.141 -0.41766 0.251802 0.873015 
1167.18 1996.16 569.755 -0.41766 0.251802 0.873015 
1512.01 2245.43 662.546 -0.41766 0.251802 0.873015 
1136.93 2006.16 552.423 -0.41766 0.251802 0.873015 
1149.42 1871.98 597.092 -0.41766 0.251802 0.873015 
1253.72 2050.86 595.31 -0.41766 0.251802 0.873015 
1118.04 2077.66 522.779 -0.41766 0.251802 0.873015 
1150.92 2008.82 558.339 -0.41766 0.251802 0.873015 
1437.21 2479.34 559.347 -0.41766 0.251802 0.873015 
1262.59 2178.99 562.586 -0.41766 0.251802 0.873015 
1505.67 2577.32 563.782 -0.41766 0.251802 0.873015 
1523.28 1552.33 867.858 -0.41766 0.251802 0.873015 
1425.84 1942.37 708.811 -0.41766 0.251802 0.873015 
1383.98 1764.19 740.214 -0.41766 0.251802 0.873015 
1452.33 2208.25 644.767 -0.41766 0.251802 0.873015 
1474.05 1846.57 759.467 -0.41766 0.251802 0.873015 
1460.58 2129.22 671.5 -0.41766 0.251802 0.873015 
1492.23 2492.79 581.747 -0.41766 0.251802 0.873015 
1385.79 2025.06 665.827 -0.41766 0.251802 0.873015 
1170.05 2262.71 494.24 -0.41766 0.251802 0.873015 
1228.03 1827.77 647.392 -0.41766 0.251802 0.873015 
1458.03 2587.97 537.959 -0.41766 0.251802 0.873015 
1566.37 2750.5 542.82 -0.41766 0.251802 0.873015 
1464.18 1908.24 736.966 -0.41766 0.251802 0.873015 
1221.48 2262.71 518.799 -0.41766 0.251802 0.873015 
1171.74 2274.91 491.531 -0.41766 0.251802 0.873015 
1365.97 1742.91 737.751 -0.41766 0.251802 0.873015 
1429.88 1763.94 762.208 -0.41766 0.251802 0.873015 
1438.06 1744.21 771.805 -0.41766 0.251802 0.873015 
1241.21 2080.44 580.799 -0.41766 0.251802 0.873015 
1378.39 2305.94 581.271 -0.41766 0.251802 0.873015 
1127.11 2090.33 523.456 -0.41766 0.251802 0.873015 
1509.18 1902.24 760.188 -0.41766 0.251802 0.873015 
1526.25 2034.07 730.314 -0.41766 0.251802 0.873015 
1331.29 1910.13 672.953 -0.41766 0.251802 0.873015 
1357.94 2288.78 576.454 -0.41766 0.251802 0.873015 
1042.53 2105.01 478.826 -0.41766 0.251802 0.873015 
1184.13 2212.79 515.364 -0.41766 0.251802 0.873015 
1528.46 2140.91 700.548 -0.41766 0.251802 0.873015 
1192.61 1840.05 626.931 -0.41766 0.251802 0.873015 
1343.86 2255.33 579.383 -0.41766 0.251802 0.873015 
1293.51 2168.22 580.459 -0.41766 0.251802 0.873015 
1365.09 2411.38 544.508 -0.41766 0.251802 0.873015 
1452.91 1891.76 736.335 -0.41766 0.251802 0.873015 
1291.19 2124.27 592.033 -0.41766 0.251802 0.873015 
1323.71 2252.5 570.574 -0.41766 0.251802 0.873015 
1476.88 1798.82 774.596 -0.41766 0.251802 0.873015 
1175.87 2062.6 554.743 -0.41766 0.251802 0.873015 
1262.3 2292.93 529.581 -0.41766 0.251802 0.873015 
1463.67 2358.18 606.934 -0.41766 0.251802 0.873015 
1202.78 2145.68 543.626 -0.41766 0.251802 0.873015 
1057.61 1927.45 537.242 -0.41766 0.251802 0.873015 
1548.84 2411.22 632.314 -0.41766 0.251802 0.873015 
1221.85 1831.6 643.335 -0.41766 0.251802 0.873015 
1420.56 2575.52 523.653 -0.41766 0.251802 0.873015 
1483.49 1909.42 745.847 -0.41766 0.251802 0.873015 
1389.78 2048.12 661.086 -0.41766 0.251802 0.873015 
1459.65 2341.16 609.926 -0.41766 0.251802 0.873015 
1432.75 2193.65 639.627 -0.41766 0.251802 0.873015 
1465.97 1897.11 741.031 -0.41766 0.251802 0.873015 
1497.83 2445.98 597.925 -0.41766 0.251802 0.873015 
1372.87 1828.73 716.289 -0.41766 0.251802 0.873015 
1253.07 2039.32 598.327 -0.41766 0.251802 0.873015 
1283.71 2394.96 510.376 -0.41766 0.251802 0.873015 
1217.86 1868.46 630.799 -0.41766 0.251802 0.873015 
1530.14 1492.44 888.406 -0.41766 0.251802 0.873015 
1238.35 1798.89 660.648 -0.41766 0.251802 0.873015 
1350.14 2173.77 605.903 -0.41766 0.251802 0.873015 
1425.32 1848.36 735.677 -0.41766 0.251802 0.873015 
1319.3 1969.91 649.982 -0.41766 0.251802 0.873015 
1301.92 2051.88 618.037 -0.41766 0.251802 0.873015 
1376.61 2364.65 563.489 -0.41766 0.251802 0.873015 
1211.47 2050.06 575.361 -0.41766 0.251802 0.873015 
1325.65 1779.49 707.938 -0.41766 0.251802 0.873015 
1362.56 1721.15 742.397 -0.41766 0.251802 0.873015 
1489.4 2341.22 624.115 -0.41766 0.251802 0.873015 
1571.82 2017.87 756.75 -0.41766 0.251802 0.873015 
1241.63 2309.33 514.977 -0.41766 0.251802 0.873015 
1561.64 2328.07 662.41 -0.41766 0.251802 0.873015 
1111.58 1982.06 547.27 -0.41766 0.251802 0.873015 
1386.29 2397.37 558.674 -0.41766 0.251802 0.873015 
1523.99 1915.83 763.34 -0.41766 0.251802 0.873015 
1396.02 1657.59 776.711 -0.41766 0.251802 0.873015 
1103.03 1964.35 548.291 -0.41766 0.251802 0.873015 
1299.12 2030.18 622.959 -0.41766 0.251802 0.873015 
1320.16 1762.96 710.088 -0.41766 0.251802 0.873015 
1511.07 1946.75 748.25 -0.41766 0.251802 0.873015 
1181.04 1951.97 589.123 -0.41766 0.251802 0.873015 
1576.13 1894.85 794.295 -0.41766 0.251802 0.873015 
1486.33 1688.47 810.939 -0.41766 0.251802 0.873015 
1527.75 2523.22 589.933 -0.41766 0.251802 0.873015 
1447.9 2056.07 686.546 -0.41766 0.251802 0.873015 
1337.94 1860.21 690.53 -0.41766 0.251802 0.873015 
1410.69 2041.21 673.063 -0.41766 0.251802 0.873015 
984.158 2018.4 475.928 -0.41766 0.251802 0.873015 
1299.49 2415.58 511.964 -0.41766 0.251802 0.873015 
1518.42 2165.21 688.743 -0.41766 0.251802 0.873015 
1295.58 2060.7 612.462 -0.41766 0.251802 0.873015 
1384.53 2242.42 602.528 -0.41766 0.251802 0.873015 
1447.56 2567.59 538.832 -0.41766 0.251802 0.873015 
1372.85 2243.82 596.548 -0.41766 0.251802 0.873015 
1343.14 2239.98 583.465 -0.41766 0.251802 0.873015 
1165.06 2189.24 513.049 -0.41766 0.251802 0.873015 
1522.86 2240.47 669.16 -0.41766 0.251802 0.873015 
1407.68 2192.29 628.043 -0.41766 0.251802 0.873015 
1401.35 1838.82 726.98 -0.41766 0.251802 0.873015 
1551.1 2677.74 556.514 -0.41766 0.251802 0.873015 
1574.94 1447.52 922.764 -0.41766 0.251802 0.873015 
1494.79 1947.24 740.338 -0.41766 0.251802 0.873015 
1450.62 1769.51 770.506 -0.41766 0.251802 0.873015 
1456.29 2504.61 561.173 -0.41766 0.251802 0.873015 
1401.76 2551.32 521.655 -0.41766 0.251802 0.873015 
1365.15 1717.24 744.761 -0.41766 0.251802 0.873015 
1266.12 1741.28 690.531 -0.41766 0.251802 0.873015 
1190.27 2178.03 528.323 -0.41766 0.251802 0.873015 
1535.06 1543.34 876.074 -0.41766 0.251802 0.873015 
1543.41 1768.49 815.119 -0.41766 0.251802 0.873015 
1194.38 1807.91 637.045 -0.41766 0.251802 0.873015 
1287.32 1779.92 689.509 -0.41766 0.251802 0.873015 
1074.09 2016.63 519.39 -0.41766 0.251802 0.873015 
1555.2 2077.87 731.504 -0.41766 0.251802 0.873015 
1350.96 1636.16 761.371 -0.41766 0.251802 0.873015 
1386.29 2470.24 537.652 -0.41766 0.251802 0.873015 
1179.52 2052.4 559.427 -0.41766 0.251802 0.873015 
1054.41 1947.9 529.817 -0.41766 0.251802 0.873015 
1414.74 2200.22 629.128 -0.41766 0.251802 0.873015 
1097.27 1971.16 543.577 -0.41766 0.251802 0.873015 
1215.15 2041.25 579.66 -0.41766 0.251802 0.873015 
1213.61 2074.96 569.202 -0.41766 0.251802 0.873015 
1297.45 2112.32 598.467 -0.41766 0.251802 0.873015 
1575.34 1962.78 774.323 -0.41766 0.251802 0.873015 
1284.56 1932.19 644.268 -0.41766 0.251802 0.873015 
1413.53 2149.7 643.127 -0.41766 0.251802 0.873015 
1162.17 1991.97 568.57 -0.41766 0.251802 0.873015 
1501.96 2258.18 654.068 -0.41766 0.251802 0.873015 
1390.4 2462.14 541.952 -0.41766 0.251802 0.873015 
1500.96 1774.88 792.998 -0.41766 0.251802 0.873015 
1514.49 2579.83 567.272 -0.41766 0.251802 0.873015 
1558.21 2674.47 560.852 -0.41766 0.251802 0.873015 
1357.98 2065.05 641.012 -0.41766 0.251802 0.873015 
1463.7 1779.24 773.947 -0.41766 0.251802 0.873015 
1543.43 1834.17 796.179 -0.41766 0.251802 0.873015 
1242.24 1953.46 617.925 -0.41766 0.251802 0.873015 
1413.36 2528.33 533.827 -0.41766 0.251802 0.873015 
1370.66 2147.82 623.195 -0.41766 0.251802 0.873015 
1061.37 2072.82 497.11 -0.41766 0.251802 0.873015 
1318.24 1707.32 725.218 -0.41766 0.251802 0.873015 
1442.07 1585.19 819.589 -0.41766 0.251802 0.873015 
1228.33 2168.76 549.173 -0.41766 0.251802 0.873015 
1371.63 2039.39 654.931 -0.41766 0.251802 0.873015 
1296.2 1928.75 650.823 -0.41766 0.251802 0.873015 
1350.65 1850.64 699.355 -0.41766 0.251802 0.873015 
1291.59 1716.26 709.913 -0.41766 0.251802 0.873015 
1554.8 1847.54 797.752 -0.41766 0.251802 0.873015 
1293.14 1848.9 672.392 -0.41766 0.251802 0.873015 
1353.35 2212.79 596.186 -0.41766 0.251802 0.873015 
1306.03 1740.58 709.795 -0.41766 0.251802 0.873015 
1552.16 1565.45 877.863 -0.41766 0.251802 0.873015 
1504.68 1554.44 858.365 -0.41766 0.251802 0.873015 
1516.05 2014.99 730.945 -0.41766 0.251802 0.873015 
1441.72 2582.56 531.729 -0.41766 0.251802 0.873015 
1400.99 1769.82 746.715 -0.41766 0.251802 0.873015 
1449.2 1969.51 712.138 -0.41766 0.251802 0.873015 
1335.29 1677.11 742.074 -0.41766 0.251802 0.873015 
1511.86 2517.21 584.075 -0.41766 0.251802 0.873015 
1433.34 2538.64 540.394 -0.41766 0.251802 0.873015 
1255.74 2226.79 545.529 -0.41766 0.251802 0.873015 
1446.8 2452.25 571.739 -0.41766 0.251802 0.873015 
1290.74 2043.81 615.021 -0.41766 0.251802 0.873015 
1310.18 1819.11 689.121 -0.41766 0.251802 0.873015 
1192.51 2002.76 579.948 -0.41766 0.251802 0.873015 
1503.89 1916.9 753.434 -0.41766 0.251802 0.873015 
1445.4 2141.31 660.765 -0.41766 0.251802 0.873015 
1532.29 2685.46 545.305 -0.41766 0.251802 0.873015 
1305.07 2378.22 525.407 -0.41766 0.251802 0.873015 
1044.63 2045.45 497.009 -0.41766 0.251802 0.873015 
1172.16 2175.94 520.276 -0.41766 0.251802 0.873015 
1490.39 2176.03 672.235 -0.41766 0.251802 0.873015 
1538.63 1779.14 809.763 -0.41766 0.251802 0.873015 
1413.75 2518.82 536.755 -0.41766 0.251802 0.873015 
1157.02 2262.6 488.048 -0.41766 0.251802 0.873015 
1152.08 2122.42 526.124 -0.41766 0.251802 0.873015 
1018.5 2092.54 470.943 -0.41766 0.251802 0.873015 
1226.08 2119.08 562.433 -0.41766 0.251802 0.873015 
1417.2 2176.37 637.185 -0.41766 0.251802 0.873015 
1250.49 1854.4 650.44 -0.41766 0.251802 0.873015 
1280.99 2245.21 552.273 -0.41766 0.251802 0.873015 
1280.88 2214.89 560.967 -0.41766 0.251802 0.873015 
1483.27 1863.27 759.054 -0.41766 0.251802 0.873015 
1575.74 1476.91 914.667 -0.41766 0.251802 0.873015 
1187.63 2021.82 572.12 -0.41766 0.251802 0.873015 
1163.34 1980.55 572.424 -0.41766 0.251802 0.873015 
1316.35 2372.65 532.399 -0.41766 0.251802 0.873015 
1426.04 1768.54 759.045 -0.41766 0.251802 0.873015 
1238.96 1807.23 658.539 -0.41766 0.251802 0.873015 
1356.68 1890.8 690.654 -0.41766 0.251802 0.873015 
1407.98 2168.81 634.964 -0.41766 0.251802 0.873015 
1137.38 2049.48 540.145 -0.41766 0.251802 0.873015 
1233.02 2079.02 577.299 -0.41766 0.251802 0.873015 
1427.59 1969.06 701.946 -0.41766 0.251802 0.873015 
1314.02 1784.31 700.998 -0.41766 0.251802 0.873015 
1551.77 2403.95 635.809 -0.41766 0.251802 0.873015 
1247.28 2006.93 604.909 -0.41766 0.251802 0.873015 
1577.98 1688.96 854.572 -0.41766 0.251802 0.873015 
1045.48 2066.46 491.35 -0.41766 0.251802 0.873015 
1348.5 1718.07 736.568 -0.41766 0.251802 0.873015 
1268.84 1867.53 655.41 -0.41766 0.251802 0.873015 
1384.22 1722.89 752.243 -0.41766 0.251802 0.873015 
1387.44 2404.16 557.262 -0.41766 0.251802 0.873015 
1132.59 2221.6 488.205 -0.41766 0.251802 0.873015 
1578.54 1963.93 775.521 -0.41766 0.251802 0.873015 
1237.21 2086.2 577.23 -0.41766 0.251802 0.873015 
1536.84 2091.22 718.888 -0.41766 0.251802 0.873015 
1211.12 2258.11 515.184 -0.41766 0.251802 0.873015 
1204.91 1758.54 656.319 -0.41766 0.251802 0.873015 
1264.29 1705.81 699.889 -0.41766 0.251802 0.873015 
1539.73 1697.21 833.919 -0.41766 0.251802 0.873015 
1471.09 2207.46 653.956 -0.41766 0.251802 0.873015 
1242.83 2078.42 582.157 -0.41766 0.251802 0.873015 
1387.99 2487.75 533.414 -0.41766 0.251802 0.873015 
1552.42 1676.33 846.003 -0.41766 0.251802 0.873015 
1502.85 2235.6 661.006 -0.41766 0.251802 0.873015 
1021.31 2071.71 478.296 -0.41766 0.251802 0.873015 
1564.29 1810.05 813.103 -0.41766 0.251802 0.873015 
1454.64 1703.77 791.389 -0.41766 0.251802 0.873015 
1296.64 1881.9 664.544 -0.41766 0.251802 0.873015 
1466.94 2301.55 624.829 -0.41766 0.251802 0.873015 
1549.85 2072.8 730.414 -0.41766 0.251802 0.873015 
1003.17 2050.16 475.844 -0.41766 0.251802 0.873015 
1568.64 1661.7 857.972 -0.41766 0.251802 0.873015 
1345.47 2076.22 631.813 -0.41766 0.251802 0.873015 
1418.14 2492.6 546.415 -0.41766 0.251802 0.873015 
1246.63 1852.92 649.019 -0.41766 0.251802 0.873015 
1470.93 2348.48 613.202 -0.41766 0.251802 0.873015 
1486.64 1599.93 836.626 -0.41766 0.251802 0.873015 
1356.38 1953.28 672.485 -0.41766 0.251802 0.873015 
1557.98 2147.77 712.675 -0.41766 0.251802 0.873015 
1397.87 1974.46 686.191 -0.41766 0.251802 0.873015 
1069.91 2045.97 508.932 -0.41766 0.251802 0.873015 
1399.75 1647.66 781.361 -0.41766 0.251802 0.873015 
1552.47 2391.86 639.633 -0.41766 0.251802 0.873015 
1489.41 2376.56 613.926 -0.41766 0.251802 0.873015 
1210.53 2266.27 512.546 -0.41766 0.251802 0.873015 
1392.86 1683.42 767.751 -0.41766 0.251802 0.873015 
1569.86 2660.65 570.4 -0.41766 0.251802 0.873015 
1255.03 2329.97 515.424 -0.41766 0.251802 0.873015 
1079.37 2124.45 490.812 -0.41766 0.251802 0.873015 
1246.88 2125.41 570.536 -0.41766 0.251802 0.873015 
1529.05 2518.5 591.914 -0.41766 0.251802 0.873015 
1236.87 2255.49 528.236 -0.41766 0.251802 0.873015 
1547.09 1675.56 843.68 -0.41766 0.251802 0.873015 
1478.27 2046.66 703.768 -0.41766 0.251802 0.873015 
1078.97 2062.49 508.491 -0.41766 0.251802 0.873015 
1400.19 1893.09 710.774 -0.41766 0.251802 0.873015 
1546.03 2315.15 658.68 -0.41766 0.251802 0.873015 
1535.94 1967.03 754.281 -0.41766 0.251802 0.873015 
1303.21 2167.33 585.353 -0.41766 0.251802 0.873015 
1411.1 2231.33 618.415 -0.41766 0.251802 0.873015 
1406.19 1676.14 776.219 -0.41766 0.251802 0.873015 
1206.1 2233.46 519.895 -0.41766 0.251802 0.873015 
1415.28 2004.85 685.742 -0.41766 0.251802 0.873015 
1304.55 1863.1 673.747 -0.41766 0.251802 0.873015 
1039.34 1985.59 511.748 -0.41766 0.251802 0.873015 
1421.7 2119.67 655.687 -0.41766 0.251802 0.873015 
1343.01 1876.16 688.346 -0.41766 0.251802 0.873015 
1554.78 2240.5 684.396 -0.41766 0.251802 0.873015 
1464.29 1587.25 829.606 -0.41766 0.251802 0.873015 
1147.2 2132.14 520.991 -0.41766 0.251802 0.873015 
1427.26 2309.02 603.724 -0.41766 0.251802 0.873015 
1212.91 2204.82 531.409 -0.41766 0.251802 0.873015 
1545.33 2189.8 694.505 -0.41766 0.251802 0.873015 
1372.29 1825.01 717.083 -0.41766 0.251802 0.873015 
1252.92 1772.55 675.21 -0.41766 0.251802 0.873015 
1488.28 1801.52 779.258 -0.41766 0.251802 0.873015 
1271.1 2091.14 591.991 -0.41766 0.251802 0.873015 
1402.68 1943.35 697.467 -0.41766 0.251802 0.873015 
1350.12 1889.42 687.916 -0.41766 0.251802 0.873015 
1342.39 2062.35 634.343 -0.41766 0.251802 0.873015 
1221.96 2112.4 562.389 -0.41766 0.251802 0.873015 
1430.08 2292.67 609.79 -0.41766 0.251802 0.873015 
1480.42 1840.82 764.173 -0.41766 0.251802 0.873015 
1529.15 2183.58 688.574 -0.41766 0.251802 0.873015 
1360.39 2470.95 525.082 -0.41766 0.251802 0.873015 
1365.32 2007.91 661 -0.41766 0.251802 0.873015 
1375.35 1875.87 703.876 -0.41766 0.251802 0.873015 
1483.5 1858.96 760.407 -0.41766 0.251802 0.873015 
1415.98 2141.01 646.803 -0.41766 0.251802 0.873015 
1231.64 2066.34 580.296 -0.41766 0.251802 0.873015 
1351.74 2049.55 642.5 -0.41766 0.251802 0.873015 
1255.96 2296.24 525.595 -0.41766 0.251802 0.873015 
1200.23 2035.34 574.236 -0.41766 0.251802 0.873015 
1559.08 1579.08 877.24 -0.41766 0.251802 0.873015 
1514.56 1962.84 745.276 -0.41766 0.251802 0.873015 
1122.55 2058.21 530.543 -0.41766 0.251802 0.873015 
1273.08 1746.21 692.436 -0.41766 0.251802 0.873015 
1558 2214.76 693.358 -0.41766 0.251802 0.873015 
1261.6 2275.74 534.202 -0.41766 0.251802 0.873015 
1269.26 1751.52 689.077 -0.41766 0.251802 0.873015 
1307.46 1794.91 694.807 -0.41766 0.251802 0.873015 
1230.85 2076.65 576.947 -0.41766 0.251802 0.873015 
1567.19 2181.19 707.43 -0.41766 0.251802 0.873015 
1170.53 2087.07 545.134 -0.41766 0.251802 0.873015 
1540.36 2189.01 692.359 -0.41766 0.251802 0.873015 
1431.99 2018.56 689.77 -0.41766 0.251802 0.873015 
1540.34 2538.7 591.478 -0.41766 0.251802 0.873015 
1166 2067.91 548.497 -0.41766 0.251802 0.873015 
1524.38 1882.82 773.048 -0.41766 0.251802 0.873015 
1526.17 2586.66 570.879 -0.41766 0.251802 0.873015 
1487.46 2528.87 569.062 -0.41766 0.251802 0.873015 
1404.46 2202.86 623.456 -0.41766 0.251802 0.873015 
1418.51 1574.37 811.46 -0.41766 0.251802 0.873015 
1478.5 1533.92 851.78 -0.41766 0.251802 0.873015 
1424.17 2430.41 567.236 -0.41766 0.251802 0.873015 
1513.88 1744.02 808.07 -0.41766 0.251802 0.873015 
1483.38 2476.15 582.317 -0.41766 0.251802 0.873015 
1276.05 2055.43 604.657 -0.41766 0.251802 0.873015 
1346.47 1725.39 733.488 -0.41766 0.251802 0.873015 
1324.18 2317.4 552.077 -0.41766 0.251802 0.873015 
1458.59 1998.25 708.329 -0.41766 0.251802 0.873015 
1283.06 2014.69 619.756 -0.41766 0.251802 0.873015 
1292.19 2245.91 557.421 -0.41766 0.251802 0.873015 
1425.57 2031.05 683.101 -0.41766 0.251802 0.873015 
1458.42 1598.99 823.42 -0.41766 0.251802 0.873015 
1540.34 2018.29 741.594 -0.41766 0.251802 0.873015 
1257.05 2092.85 584.785 -0.41766 0.251802 0.873015 
1573.72 1702.93 848.507 -0.41766 0.251802 0.873015 
1258.29 2294.35 527.255 -0.41766 0.251802 0.873015 
1272.91 1815.69 672.312 -0.41766 0.251802 0.873015 
1554.91 1486.3 902.01 -0.41766 0.251802 0.873015 
1525.11 2296.4 654.097 -0.41766 0.251802 0.873015 
1575.2 2576.31 597.284 -0.41766 0.251802 0.873015 
1053.76 1935.21 533.165 -0.41766 0.251802 0.873015 
1476.6 1819.66 768.449 -0.41766 0.251802 0.873015 
1478.88 1757.69 787.414 -0.41766 0.251802 0.873015 
1495.02 2115.62 691.878 -0.41766 0.251802 0.873015 
1064.28 2129.67 482.099 -0.41766 0.251802 0.873015 
1569.91 2113 728.398 -0.41766 0.251802 0.873015 
1415.69 1626.82 794.984 -0.41766 0.251802 0.873015 
1340.05 1974.41 658.594 -0.41766 0.251802 0.873015 
1134.66 1913.18 578.159 -0.41766 0.251802 0.873015 
1382.01 1989.76 674.204 -0.41766 0.251802 0.873015 
1036.08 2069.7 485.927 -0.41766 0.251802 0.873015 
1551.32 2154.1 707.661 -0.41766 0.251802 0.873015 
1543.63 2604.35 574.114 -0.41766 0.251802 0.873015 
1357.86 2202.93 601.181 -0.41766 0.251802 0.873015 
1253.87 1843.16 655.29 -0.41766 0.251802 0.873015 
1229.76 2045.19 585.5 -0.41766 0.251802 0.873015 
1496.83 2415 606.384 -0.41766 0.251802 0.873015 
1519.46 1846.84 781.079 -0.41766 0.251802 0.873015 
1229.67 2241.32 528.883 -0.41766 0.251802 0.873015 
1218.71 2267.3 516.155 -0.41766 0.251802 0.873015 
1044.43 2096.5 482.185 -0.41766 0.251802 0.873015 
1562.54 1485 906.028 -0.41766 0.251802 0.873015 
1247.1 1792.62 666.64 -0.41766 0.251802 0.873015 
