ply
format ascii 1.0
comment Created by CloudCompare v2.11.3 (Anoia)
comment Created 07/09/2022 23:45
obj_info Generated by CloudCompare!
element vertex 855
property float x
property float y
property float z
property float nx
property float ny
property float nz
end_header
-90.9978 878.179 102.696 -0.0602029 -0.301014 -0.951717 
-189.844 925.774 93.769 -0.0602029 -0.301014 -0.951717 
-209.059 949.291 87.5067 -0.0602029 -0.301014 -0.951717 
-430.435 999.219 85.4968 -0.0602029 -0.301014 -0.951717 
-221.934 958.806 85.2916 -0.0602029 -0.301014 -0.951717 
-138.65 923.754 91.2106 -0.0602029 -0.301014 -0.951717 
-137.005 922.437 91.5257 -0.0602029 -0.301014 -0.951717 
-352.648 992.682 82.7103 -0.0602029 -0.301014 -0.951717 
-133.778 984.731 71.5554 -0.0602029 -0.301014 -0.951717 
-70.9217 930.887 84.7145 -0.0602029 -0.301014 -0.951717 
-108.74 884.653 101.75 -0.0602029 -0.301014 -0.951717 
-260.765 993.719 76.6391 -0.0602029 -0.301014 -0.951717 
-253.873 947.252 90.9543 -0.0602029 -0.301014 -0.951717 
-139.482 976.911 74.3933 -0.0602029 -0.301014 -0.951717 
-359.119 990.888 83.6838 -0.0602029 -0.301014 -0.951717 
-113.867 962.781 77.2768 -0.0602029 -0.301014 -0.951717 
-235.25 922.676 97.5894 -0.0602029 -0.301014 -0.951717 
-70.9046 925.435 86.4437 -0.0602029 -0.301014 -0.951717 
-67.9667 872.071 103.195 -0.0602029 -0.301014 -0.951717 
-305.14 993.819 79.3803 -0.0602029 -0.301014 -0.951717 
-199.875 977.656 77.9313 -0.0602029 -0.301014 -0.951717 
-135.524 944.821 84.3299 -0.0602029 -0.301014 -0.951717 
-235.27 936.208 93.2966 -0.0602029 -0.301014 -0.951717 
-297.437 978.642 83.7153 -0.0602029 -0.301014 -0.951717 
-164.875 907.617 97.9705 -0.0602029 -0.301014 -0.951717 
-65.6274 890.191 97.2986 -0.0602029 -0.301014 -0.951717 
-136.864 889.613 101.934 -0.0602029 -0.301014 -0.951717 
-345.533 993.515 82.001 -0.0602029 -0.301014 -0.951717 
-76.6556 894.801 96.5244 -0.0602029 -0.301014 -0.951717 
-244.465 954.09 88.1965 -0.0602029 -0.301014 -0.951717 
-177.877 926.146 92.9031 -0.0602029 -0.301014 -0.951717 
-124.706 936.97 86.1454 -0.0602029 -0.301014 -0.951717 
-117.584 915.937 92.3751 -0.0602029 -0.301014 -0.951717 
-150.272 979.755 74.1653 -0.0602029 -0.301014 -0.951717 
-143.607 945.364 84.6627 -0.0602029 -0.301014 -0.951717 
-190.396 973.258 78.7346 -0.0602029 -0.301014 -0.951717 
-103.44 963.603 76.3644 -0.0602029 -0.301014 -0.951717 
-100.285 913.503 92.0663 -0.0602029 -0.301014 -0.951717 
-113.667 879.292 103.759 -0.0602029 -0.301014 -0.951717 
-328.296 981.518 84.7311 -0.0602029 -0.301014 -0.951717 
-104.672 952.436 79.985 -0.0602029 -0.301014 -0.951717 
-361.838 987.22 85.0176 -0.0602029 -0.301014 -0.951717 
-105.742 961.319 77.233 -0.0602029 -0.301014 -0.951717 
-275.609 995.223 77.0892 -0.0602029 -0.301014 -0.951717 
-60.2475 916.838 88.5058 -0.0602029 -0.301014 -0.951717 
-122.87 903.458 96.6655 -0.0602029 -0.301014 -0.951717 
-57.4888 920.085 87.3029 -0.0602029 -0.301014 -0.951717 
-94.9038 886.35 100.347 -0.0602029 -0.301014 -0.951717 
-56.1864 866.417 104.253 -0.0602029 -0.301014 -0.951717 
-198.688 922.748 95.2816 -0.0602029 -0.301014 -0.951717 
-61.6773 924.08 86.2969 -0.0602029 -0.301014 -0.951717 
-139.084 945.18 84.4381 -0.0602029 -0.301014 -0.951717 
-125.706 921.841 91.009 -0.0602029 -0.301014 -0.951717 
-288.685 943.87 94.2029 -0.0602029 -0.301014 -0.951717 
-377.545 987.294 85.976 -0.0602029 -0.301014 -0.951717 
-130.094 934.962 87.1192 -0.0602029 -0.301014 -0.951717 
-332.266 967.026 89.5781 -0.0602029 -0.301014 -0.951717 
-168.574 971.277 77.9995 -0.0602029 -0.301014 -0.951717 
-225.848 964.298 83.7935 -0.0602029 -0.301014 -0.951717 
-153.661 908.058 97.1299 -0.0602029 -0.301014 -0.951717 
-171.251 975.087 76.9577 -0.0602029 -0.301014 -0.951717 
-144.615 968.16 77.4913 -0.0602029 -0.301014 -0.951717 
-222.391 936.772 92.3125 -0.0602029 -0.301014 -0.951717 
-92.1742 982.841 69.5552 -0.0602029 -0.301014 -0.951717 
-159.592 912.852 95.9791 -0.0602029 -0.301014 -0.951717 
-413.01 992.134 86.6563 -0.0602029 -0.301014 -0.951717 
-311.971 954.199 92.3806 -0.0602029 -0.301014 -0.951717 
-80.5035 956.816 77.0847 -0.0602029 -0.301014 -0.951717 
-303.621 984.069 82.3796 -0.0602029 -0.301014 -0.951717 
-63.8203 892.894 96.3276 -0.0602029 -0.301014 -0.951717 
-137.62 895.232 100.198 -0.0602029 -0.301014 -0.951717 
-77.2729 885.694 99.4532 -0.0602029 -0.301014 -0.951717 
-314.915 972.259 86.8331 -0.0602029 -0.301014 -0.951717 
-159.173 987.424 72.2878 -0.0602029 -0.301014 -0.951717 
-181.718 962.845 81.4968 -0.0602029 -0.301014 -0.951717 
-140.594 973.797 75.4514 -0.0602029 -0.301014 -0.951717 
-374.554 984.575 86.6518 -0.0602029 -0.301014 -0.951717 
-128.164 905.848 96.2377 -0.0602029 -0.301014 -0.951717 
-223.436 976.106 79.8956 -0.0602029 -0.301014 -0.951717 
-106.819 946.596 81.9726 -0.0602029 -0.301014 -0.951717 
-191.254 926.264 93.7014 -0.0602029 -0.301014 -0.951717 
-212.371 938.302 91.2009 -0.0602029 -0.301014 -0.951717 
-176.175 939.864 88.4432 -0.0602029 -0.301014 -0.951717 
-233.553 934.345 93.7803 -0.0602029 -0.301014 -0.951717 
-119.247 974.091 74.0238 -0.0602029 -0.301014 -0.951717 
-168.25 938.251 88.4601 -0.0602029 -0.301014 -0.951717 
-132.882 931.746 88.3138 -0.0602029 -0.301014 -0.951717 
-217.917 953.256 86.8019 -0.0602029 -0.301014 -0.951717 
-207.435 918.924 97.0419 -0.0602029 -0.301014 -0.951717 
-384.569 996.509 83.4904 -0.0602029 -0.301014 -0.951717 
-391.831 985.785 87.3474 -0.0602029 -0.301014 -0.951717 
-73.1762 953.948 77.537 -0.0602029 -0.301014 -0.951717 
-138.485 978.71 73.7603 -0.0602029 -0.301014 -0.951717 
-267.671 973.516 83.4817 -0.0602029 -0.301014 -0.951717 
-155.397 953.054 82.959 -0.0602029 -0.301014 -0.951717 
-145.24 978.343 74.2988 -0.0602029 -0.301014 -0.951717 
-194.085 984.96 75.2514 -0.0602029 -0.301014 -0.951717 
-258.326 987.726 78.3884 -0.0602029 -0.301014 -0.951717 
-85.3766 903.104 94.4348 -0.0602029 -0.301014 -0.951717 
-197.208 977.338 77.8655 -0.0602029 -0.301014 -0.951717 
-145.757 953.903 82.0872 -0.0602029 -0.301014 -0.951717 
-105.221 873.801 104.974 -0.0602029 -0.301014 -0.951717 
-152.729 914.292 95.0933 -0.0602029 -0.301014 -0.951717 
-72.4913 935.347 83.3973 -0.0602029 -0.301014 -0.951717 
-70.5969 985.956 67.2182 -0.0602029 -0.301014 -0.951717 
-130.532 916.099 93.1324 -0.0602029 -0.301014 -0.951717 
-84.0538 959.472 76.4638 -0.0602029 -0.301014 -0.951717 
-278.743 953.453 90.5405 -0.0602029 -0.301014 -0.951717 
-199.246 912.45 98.5846 -0.0602029 -0.301014 -0.951717 
-62.2961 895.546 95.3907 -0.0602029 -0.301014 -0.951717 
-338.006 965.022 90.5728 -0.0602029 -0.301014 -0.951717 
-65.3553 887.836 98.0286 -0.0602029 -0.301014 -0.951717 
-114.606 911.258 93.6736 -0.0602029 -0.301014 -0.951717 
-193.376 938.08 90.0845 -0.0602029 -0.301014 -0.951717 
-185.195 915.95 96.5959 -0.0602029 -0.301014 -0.951717 
-237.013 960.927 85.561 -0.0602029 -0.301014 -0.951717 
-242.111 929.604 95.8198 -0.0602029 -0.301014 -0.951717 
-120.897 981.961 71.6296 -0.0602029 -0.301014 -0.951717 
-192.843 955.214 84.6138 -0.0602029 -0.301014 -0.951717 
-124.343 881.533 103.715 -0.0602029 -0.301014 -0.951717 
-233.368 969.347 82.6611 -0.0602029 -0.301014 -0.951717 
-106.429 975.508 72.773 -0.0602029 -0.301014 -0.951717 
-56.3706 934.184 82.759 -0.0602029 -0.301014 -0.951717 
-389.068 984.538 87.5708 -0.0602029 -0.301014 -0.951717 
-150.292 950.161 83.5582 -0.0602029 -0.301014 -0.951717 
-151.476 888.607 103.166 -0.0602029 -0.301014 -0.951717 
-158.674 971.413 77.3376 -0.0602029 -0.301014 -0.951717 
-150.444 916.925 94.1149 -0.0602029 -0.301014 -0.951717 
-296.492 980.811 82.9678 -0.0602029 -0.301014 -0.951717 
-202.674 923.644 95.2468 -0.0602029 -0.301014 -0.951717 
-298.245 981.299 82.9227 -0.0602029 -0.301014 -0.951717 
-389.212 990.02 85.8398 -0.0602029 -0.301014 -0.951717 
-60.2786 925.325 85.8145 -0.0602029 -0.301014 -0.951717 
-74.6406 954 77.6121 -0.0602029 -0.301014 -0.951717 
-56.9874 975.094 69.8148 -0.0602029 -0.301014 -0.951717 
-186.707 971.338 79.1135 -0.0602029 -0.301014 -0.951717 
-209.819 929.385 93.8714 -0.0602029 -0.301014 -0.951717 
-274.992 967.999 85.6901 -0.0602029 -0.301014 -0.951717 
-266.35 977.357 82.1802 -0.0602029 -0.301014 -0.951717 
-98.3671 946.404 81.5054 -0.0602029 -0.301014 -0.951717 
-284.269 961.517 88.3269 -0.0602029 -0.301014 -0.951717 
-200.536 911.205 99.0602 -0.0602029 -0.301014 -0.951717 
-143.97 949.279 83.443 -0.0602029 -0.301014 -0.951717 
-154.537 984.608 72.8918 -0.0602029 -0.301014 -0.951717 
-318.088 996.74 79.2625 -0.0602029 -0.301014 -0.951717 
-158.947 898.519 100.487 -0.0602029 -0.301014 -0.951717 
-271.071 962.527 87.1818 -0.0602029 -0.301014 -0.951717 
-101.679 990.113 67.8415 -0.0602029 -0.301014 -0.951717 
-317.957 989.982 81.399 -0.0602029 -0.301014 -0.951717 
-97.957 945.085 81.8984 -0.0602029 -0.301014 -0.951717 
-62.8761 904.079 92.7192 -0.0602029 -0.301014 -0.951717 
-118.097 948.732 81.9996 -0.0602029 -0.301014 -0.951717 
-158.829 950.368 84.0259 -0.0602029 -0.301014 -0.951717 
-204.741 960.599 83.6481 -0.0602029 -0.301014 -0.951717 
-96.8146 914.437 91.5529 -0.0602029 -0.301014 -0.951717 
-54.8394 972.894 70.3786 -0.0602029 -0.301014 -0.951717 
-105.216 968.541 74.9083 -0.0602029 -0.301014 -0.951717 
-64.1888 979.016 69.0202 -0.0602029 -0.301014 -0.951717 
-184.312 980.345 76.1052 -0.0602029 -0.301014 -0.951717 
-332.394 994.367 80.9097 -0.0602029 -0.301014 -0.951717 
-306.672 974.414 85.6341 -0.0602029 -0.301014 -0.951717 
-295.767 952.075 92.0417 -0.0602029 -0.301014 -0.951717 
-272.9 955.352 89.5729 -0.0602029 -0.301014 -0.951717 
-248.628 958.229 87.1429 -0.0602029 -0.301014 -0.951717 
-232.071 967.089 83.2966 -0.0602029 -0.301014 -0.951717 
-74.9993 908.159 92.1818 -0.0602029 -0.301014 -0.951717 
-323.599 995.747 79.9219 -0.0602029 -0.301014 -0.951717 
-292.915 955.186 90.8765 -0.0602029 -0.301014 -0.951717 
-191.496 922.579 94.8862 -0.0602029 -0.301014 -0.951717 
-196.459 959.66 83.4286 -0.0602029 -0.301014 -0.951717 
-278.915 971.709 84.7579 -0.0602029 -0.301014 -0.951717 
-187.36 961.993 82.1198 -0.0602029 -0.301014 -0.951717 
-199.512 923.972 94.945 -0.0602029 -0.301014 -0.951717 
-138.814 954.455 81.4781 -0.0602029 -0.301014 -0.951717 
-145.489 929.061 89.9542 -0.0602029 -0.301014 -0.951717 
-99.8953 967.194 75.0032 -0.0602029 -0.301014 -0.951717 
-82.4413 973.066 72.0493 -0.0602029 -0.301014 -0.951717 
-269.554 950.529 90.8942 -0.0602029 -0.301014 -0.951717 
-204.657 989.402 74.5027 -0.0602029 -0.301014 -0.951717 
-95.1563 927.999 87.1456 -0.0602029 -0.301014 -0.951717 
-170.876 961.542 81.2328 -0.0602029 -0.301014 -0.951717 
-206.231 966.323 81.9248 -0.0602029 -0.301014 -0.951717 
-97.2858 986.711 68.6464 -0.0602029 -0.301014 -0.951717 
-79.8237 888.624 98.6826 -0.0602029 -0.301014 -0.951717 
-189.812 953.806 84.8712 -0.0602029 -0.301014 -0.951717 
-82.8187 883.726 100.424 -0.0602029 -0.301014 -0.951717 
-171.569 959.717 81.8551 -0.0602029 -0.301014 -0.951717 
-60.0442 882.666 99.3373 -0.0602029 -0.301014 -0.951717 
-149.466 928.011 90.5357 -0.0602029 -0.301014 -0.951717 
-185.563 909.693 98.6047 -0.0602029 -0.301014 -0.951717 
-200.364 940.208 89.8459 -0.0602029 -0.301014 -0.951717 
-159.747 900.336 99.9606 -0.0602029 -0.301014 -0.951717 
-59.2045 923.425 86.3503 -0.0602029 -0.301014 -0.951717 
-128.875 966.334 77.0872 -0.0602029 -0.301014 -0.951717 
-351.861 977.665 87.4265 -0.0602029 -0.301014 -0.951717 
-329.098 960.758 91.3691 -0.0602029 -0.301014 -0.951717 
-257.97 934.257 95.334 -0.0602029 -0.301014 -0.951717 
-218.152 979.746 78.41 -0.0602029 -0.301014 -0.951717 
-66.8277 970.352 71.9345 -0.0602029 -0.301014 -0.951717 
-127.944 973.07 74.8912 -0.0602029 -0.301014 -0.951717 
-73.1286 938.261 82.5123 -0.0602029 -0.301014 -0.951717 
-84.9938 976.308 71.1799 -0.0602029 -0.301014 -0.951717 
-438.064 921.951 91.9116 0.998324 -0.0262994 -0.0515468 
-438.418 879.354 106.869 0.998324 -0.0262994 -0.0515468 
-438.177 897.245 102.315 0.998324 -0.0262994 -0.0515468 
-437.725 860.673 129.201 0.998324 -0.0262994 -0.0515468 
-438.793 871.331 103.968 0.998324 -0.0262994 -0.0515468 
-437.978 919.506 94.742 0.998324 -0.0262994 -0.0515468 
-438.659 885.922 99.0751 0.998324 -0.0262994 -0.0515468 
-437.911 878.891 116.523 0.998324 -0.0262994 -0.0515468 
-438.185 867.37 117.269 0.998324 -0.0262994 -0.0515468 
-437.99 901.037 103.87 0.998324 -0.0262994 -0.0515468 
-438.643 879.363 102.698 0.998324 -0.0262994 -0.0515468 
-438.586 878.334 104.284 0.998324 -0.0262994 -0.0515468 
-438.165 898.268 102.013 0.998324 -0.0262994 -0.0515468 
-438.067 888.672 108.685 0.998324 -0.0262994 -0.0515468 
-438.378 900.99 96.6718 0.998324 -0.0262994 -0.0515468 
-438.877 860.228 108.019 0.998324 -0.0262994 -0.0515468 
-438.094 924.455 90.0961 0.998324 -0.0262994 -0.0515468 
-438.18 909.313 96.1389 0.998324 -0.0262994 -0.0515468 
-437.514 914.279 106.002 0.998324 -0.0262994 -0.0515468 
-437.451 888.198 120.358 0.998324 -0.0262994 -0.0515468 
-437.917 925.544 92.8354 0.998324 -0.0262994 -0.0515468 
-437.654 948.774 85.9644 0.998324 -0.0262994 -0.0515468 
-437.768 885.22 115.98 0.998324 -0.0262994 -0.0515468 
-436.614 969.112 95.0002 0.998324 -0.0262994 -0.0515468 
-437.647 931.673 94.747 0.998324 -0.0262994 -0.0515468 
-436.935 955.202 96.0677 0.998324 -0.0262994 -0.0515468 
-437.737 906.511 105.792 0.998324 -0.0262994 -0.0515468 
-437.376 945.097 92.9825 0.998324 -0.0262994 -0.0515468 
-436.65 973.547 92.0858 0.998324 -0.0262994 -0.0515468 
-437.177 937.251 100.649 0.998324 -0.0262994 -0.0515468 
-436.918 954.513 96.7296 0.998324 -0.0262994 -0.0515468 
-437.035 930.731 106.584 0.998324 -0.0262994 -0.0515468 
-437.55 929.94 97.4168 0.998324 -0.0262994 -0.0515468 
-437.652 920.757 100.163 0.998324 -0.0262994 -0.0515468 
-437.774 915.361 100.635 0.998324 -0.0262994 -0.0515468 
-437.609 875.428 123.889 0.998324 -0.0262994 -0.0515468 
-437.482 910.766 108.387 0.998324 -0.0262994 -0.0515468 
-437.69 884.411 117.841 0.998324 -0.0262994 -0.0515468 
-437.602 902.297 110.428 0.998324 -0.0262994 -0.0515468 
-436.902 967.103 90.6511 0.998324 -0.0262994 -0.0515468 
-437.388 926.801 102.013 0.998324 -0.0262994 -0.0515468 
-437.703 876.781 121.452 0.998324 -0.0262994 -0.0515468 
-437.821 947.796 83.3547 0.998324 -0.0262994 -0.0515468 
-437.503 946.747 89.7941 0.998324 -0.0262994 -0.0515468 
-436.896 989.088 79.6591 0.998324 -0.0262994 -0.0515468 
-436.152 1020.38 77.653 0.998324 -0.0262994 -0.0515468 
-436.229 1017.71 77.5745 0.998324 -0.0262994 -0.0515468 
-437.372 969.823 80.5682 0.998324 -0.0262994 -0.0515468 
-436.508 999.437 81.6334 0.998324 -0.0262994 -0.0515468 
-436.303 1010.27 79.9599 0.998324 -0.0262994 -0.0515468 
-436.887 995.462 76.5989 0.998324 -0.0262994 -0.0515468 
-435.464 1096.58 51.8981 0.998324 -0.0262994 -0.0515468 
-435.869 1053.42 66.1971 0.998324 -0.0262994 -0.0515468 
-435.389 1102.75 50.163 0.998324 -0.0262994 -0.0515468 
-435.614 1083.31 55.81 0.998324 -0.0262994 -0.0515468 
-435.796 1084.59 51.7955 0.998324 -0.0262994 -0.0515468 
-435.129 1121.96 45.2803 0.998324 -0.0262994 -0.0515468 
-435.868 1076.59 54.5003 0.998324 -0.0262994 -0.0515468 
-435.803 1083.36 52.2731 0.998324 -0.0262994 -0.0515468 
-435.851 1074.06 56.0983 0.998324 -0.0262994 -0.0515468 
-435.351 1137.67 33.2206 0.998324 -0.0262994 -0.0515468 
-435.647 1077.15 58.3116 0.998324 -0.0262994 -0.0515468 
-435.739 1158.67 15.3799 0.998324 -0.0262994 -0.0515468 
-435.715 1151.51 19.4531 0.998324 -0.0262994 -0.0515468 
-435.45 1117.62 41.5114 0.998324 -0.0262994 -0.0515468 
-435.818 1120.24 33.3551 0.998324 -0.0262994 -0.0515468 
-435.759 1073.1 58.2827 0.998324 -0.0262994 -0.0515468 
-435.801 1058.31 64.9934 0.998324 -0.0262994 -0.0515468 
-437.297 1002.56 65.3924 0.998324 -0.0262994 -0.0515468 
-436.035 1045.93 66.9059 0.998324 -0.0262994 -0.0515468 
-437.047 993.799 74.4777 0.998324 -0.0262994 -0.0515468 
-437.665 980.624 69.6561 0.998324 -0.0262994 -0.0515468 
-435.978 1087.88 46.7457 0.998324 -0.0262994 -0.0515468 
-436.655 1030.79 63.0449 0.998324 -0.0262994 -0.0515468 
-436.586 1045.51 56.8865 0.998324 -0.0262994 -0.0515468 
-435.953 1110.94 35.5496 0.998324 -0.0262994 -0.0515468 
-436.311 1055.9 56.7245 0.998324 -0.0262994 -0.0515468 
-436.235 1030.41 71.0336 0.998324 -0.0262994 -0.0515468 
-437.086 1014.53 63.2537 0.998324 -0.0262994 -0.0515468 
-436.277 1086.84 41.7275 0.998324 -0.0262994 -0.0515468 
-436.355 1101.7 32.7626 0.998324 -0.0262994 -0.0515468 
-436.309 1079.8 44.693 0.998324 -0.0262994 -0.0515468 
-436.46 1066.03 48.8451 0.998324 -0.0262994 -0.0515468 
-436.018 1147.9 15.6652 0.998324 -0.0262994 -0.0515468 
-436.914 1006.88 70.3238 0.998324 -0.0262994 -0.0515468 
-436.531 1059.76 50.6998 0.998324 -0.0262994 -0.0515468 
-435.934 1044.15 69.6731 0.998324 -0.0262994 -0.0515468 
-436.136 1120.87 27.1389 0.998324 -0.0262994 -0.0515468 
-436.686 1080.64 37.2556 0.998324 -0.0262994 -0.0515468 
-436.172 1047.36 63.6426 0.998324 -0.0262994 -0.0515468 
-436.788 1046.77 52.4877 0.998324 -0.0262994 -0.0515468 
-437.405 1001.68 63.8318 0.998324 -0.0262994 -0.0515468 
-436.298 1087.52 40.9984 0.998324 -0.0262994 -0.0515468 
-436.341 1106.24 30.7237 0.998324 -0.0262994 -0.0515468 
-436.18 1054.5 59.8666 0.998324 -0.0262994 -0.0515468 
-436.875 1053.73 47.3636 0.998324 -0.0262994 -0.0515468 
-436.638 1081.85 37.5421 0.998324 -0.0262994 -0.0515468 
-436.161 1055.73 59.6022 0.998324 -0.0262994 -0.0515468 
-437.483 972.246 77.2747 0.998324 -0.0262994 -0.0515468 
-436.458 1041.02 61.5271 0.998324 -0.0262994 -0.0515468 
-436.356 1056.37 55.6584 0.998324 -0.0262994 -0.0515468 
-435.971 1074.39 53.705 0.998324 -0.0262994 -0.0515468 
-436.431 1059.3 52.794 0.998324 -0.0262994 -0.0515468 
-437.451 988.461 69.6721 0.998324 -0.0262994 -0.0515468 
-436.891 1019.17 64.5411 0.998324 -0.0262994 -0.0515468 
-436.174 1054.23 60.1263 0.998324 -0.0262994 -0.0515468 
-436.033 1068.94 55.2979 0.998324 -0.0262994 -0.0515468 
-436.132 1062.71 56.6078 0.998324 -0.0262994 -0.0515468 
-435.041 1140.04 37.7759 0.998324 -0.0262994 -0.0515468 
-435.343 1160.12 22.0058 0.998324 -0.0262994 -0.0515468 
-434.673 1171.16 28.8774 0.998324 -0.0262994 -0.0515468 
-435.623 1164.31 14.6982 0.998324 -0.0262994 -0.0515468 
-434.898 1156.06 32.3285 0.998324 -0.0262994 -0.0515468 
-435.353 1150.76 26.5633 0.998324 -0.0262994 -0.0515468 
-435.244 1149.3 29.31 0.998324 -0.0262994 -0.0515468 
-435.034 1186.16 14.5873 0.998324 -0.0262994 -0.0515468 
-434.861 1221.73 -0.179749 0.998324 -0.0262994 -0.0515468 
-434.708 1219.09 3.97894 0.998324 -0.0262994 -0.0515468 
-435.174 1222.1 -6.18774 0.998324 -0.0262994 -0.0515468 
-434.648 1185.05 22.3187 0.998324 -0.0262994 -0.0515468 
-435.495 1179.45 9.4054 0.998324 -0.0262994 -0.0515468 
-434.651 1196.06 16.6802 0.998324 -0.0262994 -0.0515468 
-435.135 1202.51 4.42963 0.998324 -0.0262994 -0.0515468 
-434.545 1242.22 -4.68549 0.998324 -0.0262994 -0.0515468 
-435.161 1176.26 17.2335 0.998324 -0.0262994 -0.0515468 
-434.673 1198.65 14.9778 0.998324 -0.0262994 -0.0515468 
-434.749 1223.68 0.896851 0.998324 -0.0262994 -0.0515468 
-434.831 1213.21 4.66626 0.998324 -0.0262994 -0.0515468 
-434.77 1200.4 12.2847 0.998324 -0.0262994 -0.0515468 
-434.991 1193.09 11.8695 0.998324 -0.0262994 -0.0515468 
-435.131 1224.48 -6.59753 0.998324 -0.0262994 -0.0515468 
-434.69 1200.82 13.5493 0.998324 -0.0262994 -0.0515468 
-434.835 1248.42 -13.2068 0.998324 -0.0262994 -0.0515468 
-434.825 1253.1 -15.3793 0.998324 -0.0262994 -0.0515468 
-434.852 1231.68 -5.06104 0.998324 -0.0262994 -0.0515468 
-434.534 1278.85 -23.004 0.998324 -0.0262994 -0.0515468 
-435.169 1170.38 20.0476 0.998324 -0.0262994 -0.0515468 
-434.827 1263.03 -20.435 0.998324 -0.0262994 -0.0515468 
-435.33 1206.23 -1.06226 0.998324 -0.0262994 -0.0515468 
-435.59 1177.78 8.49133 0.998324 -0.0262994 -0.0515468 
-435.009 1201.98 7.03918 0.998324 -0.0262994 -0.0515468 
-434.376 1213.88 12.7763 0.998324 -0.0262994 -0.0515468 
-433.45 1290.74 -8.89075 0.998324 -0.0262994 -0.0515468 
-434.349 1288.68 -24.5441 0.998324 -0.0262994 -0.0515468 
-434.413 1300.62 -31.7641 0.998324 -0.0262994 -0.0515468 
-434.407 1228.11 5.01056 0.998324 -0.0262994 -0.0515468 
-434.509 1178.23 28.3313 0.998324 -0.0262994 -0.0515468 
-433.648 1279.35 -6.80566 0.998324 -0.0262994 -0.0515468 
-433.789 1286.56 -13.0715 0.998324 -0.0262994 -0.0515468 
-433.762 1276.92 -7.68011 0.998324 -0.0262994 -0.0515468 
-433.689 1267.05 -1.34662 0.998324 -0.0262994 -0.0515468 
-434.291 1234.27 4.04498 0.998324 -0.0262994 -0.0515468 
-434.483 1203.13 16.2418 0.998324 -0.0262994 -0.0515468 
-433.729 1305.02 -21.2839 0.998324 -0.0262994 -0.0515468 
-433.99 1303.05 -25.1348 0.998324 -0.0262994 -0.0515468 
-434.318 1209.15 16.2562 0.998324 -0.0262994 -0.0515468 
-433.979 1277.42 -11.9786 0.998324 -0.0262994 -0.0515468 
-434.042 1260.19 -4.43719 0.998324 -0.0262994 -0.0515468 
-434.395 1257.56 -9.65338 0.998324 -0.0262994 -0.0515468 
-433.38 1300.17 -12.342 0.998324 -0.0262994 -0.0515468 
-433.621 1278.03 -5.63947 0.998324 -0.0262994 -0.0515468 
-433.969 1260.61 -3.28986 0.998324 -0.0262994 -0.0515468 
-434.454 1259.92 -11.9413 0.998324 -0.0262994 -0.0515468 
-434.416 1232.5 2.62427 0.998324 -0.0262994 -0.0515468 
-434.469 1252.14 -8.29474 0.998324 -0.0262994 -0.0515468 
-434.021 1224.24 14.1459 0.998324 -0.0262994 -0.0515468 
-433.852 1318.11 -30.194 0.998324 -0.0262994 -0.0515468 
-433.733 1313.82 -25.813 0.998324 -0.0262994 -0.0515468 
-433.662 1307.87 -21.4848 0.998324 -0.0262994 -0.0515468 
-433.943 1316.24 -30.9397 0.998324 -0.0262994 -0.0515468 
-433.232 1319.14 -19.1983 0.998324 -0.0262994 -0.0515468 
-434.339 1305.06 -32.6351 0.998324 -0.0262994 -0.0515468 
-433.127 1325.22 -20.3184 0.998324 -0.0262994 -0.0515468 
-434.05 1319.38 -34.5029 0.998324 -0.0262994 -0.0515468 
-433.442 1343.37 -35.3528 0.998324 -0.0262994 -0.0515468 
-433.221 1336.8 -27.9226 0.998324 -0.0262994 -0.0515468 
-432.69 1373.43 -36.5786 0.998324 -0.0262994 -0.0515468 
-432.244 1409.03 -46.3091 0.998324 -0.0262994 -0.0515468 
-432.715 1384.54 -42.6675 0.998324 -0.0262994 -0.0515468 
-433.04 1358.14 -35.3551 0.998324 -0.0262994 -0.0515468 
-432.831 1360.47 -32.6416 0.998324 -0.0262994 -0.0515468 
-432.806 1368.07 -36.0242 0.998324 -0.0262994 -0.0515468 
-432.963 1349.86 -29.74 0.998324 -0.0262994 -0.0515468 
-432.969 1365.21 -37.6038 0.998324 -0.0262994 -0.0515468 
-432.762 1379.62 -41.0522 0.998324 -0.0262994 -0.0515468 
-433.424 1345.28 -35.985 0.998324 -0.0262994 -0.0515468 
-432.916 1353.73 -30.8154 0.998324 -0.0262994 -0.0515468 
-431.982 1427.74 -50.8859 0.998324 -0.0262994 -0.0515468 
-432.11 1417.42 -48.062 0.998324 -0.0262994 -0.0515468 
-433.185 1356.68 -37.2962 0.998324 -0.0262994 -0.0515468 
-431.969 1502.68 -88.5449 0.998324 -0.0262994 -0.0515468 
-431.911 1497.89 -85.0438 0.998324 -0.0262994 -0.0515468 
-431.952 1501.61 -87.6958 0.998324 -0.0262994 -0.0515468 
-431.818 1462.16 -65.2621 0.998324 -0.0262994 -0.0515468 
-431.576 1475.68 -67.5911 0.998324 -0.0262994 -0.0515468 
-431.964 1503.99 -89.129 0.998324 -0.0262994 -0.0515468 
-431.859 1456.27 -63.0411 0.998324 -0.0262994 -0.0515468 
-433.303 1410.31 -66.6218 0.998324 -0.0262994 -0.0515468 
-432.186 1466.4 -74.2274 0.998324 -0.0262994 -0.0515468 
-432.453 1478.55 -85.3333 0.998324 -0.0262994 -0.0515468 
-432.13 1492.02 -86.1428 0.998324 -0.0262994 -0.0515468 
-433.971 1341.9 -44.4295 0.998324 -0.0262994 -0.0515468 
-432.679 1437.76 -68.9092 0.998324 -0.0262994 -0.0515468 
-432.322 1491.47 -89.4374 0.998324 -0.0262994 -0.0515468 
-432.126 1478.62 -79.2983 0.998324 -0.0262994 -0.0515468 
-432.144 1478.85 -79.7537 0.998324 -0.0262994 -0.0515468 
-432.458 1461.82 -76.9731 0.998324 -0.0262994 -0.0515468 
-432.059 1450.78 -63.982 0.998324 -0.0262994 -0.0515468 
-433.742 1372.51 -55.6528 0.998324 -0.0262994 -0.0515468 
-434.018 1335.1 -41.8602 0.998324 -0.0262994 -0.0515468 
-432.409 1431.24 -60.5905 0.998324 -0.0262994 -0.0515468 
-433.264 1408.59 -65.0208 0.998324 -0.0262994 -0.0515468 
-432.378 1452.27 -70.6539 0.998324 -0.0262994 -0.0515468 
-432.168 1435.29 -58.1624 0.998324 -0.0262994 -0.0515468 
-431.951 1467.51 -70.4274 0.998324 -0.0262994 -0.0515468 
-431.958 1454.55 -64.0059 0.998324 -0.0262994 -0.0515468 
-432.004 1458.54 -66.8801 0.998324 -0.0262994 -0.0515468 
-432.786 1455.43 -79.8328 0.998324 -0.0262994 -0.0515468 
-433.361 1383.63 -54.1953 0.998324 -0.0262994 -0.0515468 
-432.551 1480.09 -87.9288 0.998324 -0.0262994 -0.0515468 
-433.792 1351.75 -46.0804 0.998324 -0.0262994 -0.0515468 
-433.571 1387.44 -60.0331 0.998324 -0.0262994 -0.0515468 
-432.24 1466.41 -75.238 0.998324 -0.0262994 -0.0515468 
-433.346 1370.62 -47.3452 0.998324 -0.0262994 -0.0515468 
-433.814 1365.15 -53.273 0.998324 -0.0262994 -0.0515468 
-432.413 1467.21 -78.8677 0.998324 -0.0262994 -0.0515468 
-432.666 1399.38 -49.2612 0.998324 -0.0262994 -0.0515468 
-432.53 1492.08 -93.6066 0.998324 -0.0262994 -0.0515468 
-432.111 1476.67 -78.0366 0.998324 -0.0262994 -0.0515468 
-433.718 1362.66 -50.2273 0.998324 -0.0262994 -0.0515468 
-432.529 1425.92 -60.142 0.998324 -0.0262994 -0.0515468 
-432.533 1464.15 -79.5336 0.998324 -0.0262994 -0.0515468 
-432.737 1465.89 -84.2012 0.998324 -0.0262994 -0.0515468 
-432.118 1478.54 -79.1125 0.998324 -0.0262994 -0.0515468 
-432.137 1465.94 -73.1008 0.998324 -0.0262994 -0.0515468 
-433.063 1424.69 -69.4171 0.998324 -0.0262994 -0.0515468 
-431.416 1576.94 -115.834 0.998324 -0.0262994 -0.0515468 
-431.126 1576.05 -109.994 0.998324 -0.0262994 -0.0515468 
-431.135 1593.76 -119.123 0.998324 -0.0262994 -0.0515468 
-430.599 1599.46 -112.05 0.998324 -0.0262994 -0.0515468 
-431.822 1553.33 -111.432 0.998324 -0.0262994 -0.0515468 
-430.647 1599.33 -112.874 0.998324 -0.0262994 -0.0515468 
-431.084 1573.64 -107.991 0.998324 -0.0262994 -0.0515468 
-430.725 1601.71 -115.516 0.998324 -0.0262994 -0.0515468 
-431.11 1602.75 -123.199 0.998324 -0.0262994 -0.0515468 
-430.91 1610.23 -123.27 0.998324 -0.0262994 -0.0515468 
-430.715 1614.91 -122.021 0.998324 -0.0262994 -0.0515468 
-430.417 1612.44 -115.24 0.998324 -0.0262994 -0.0515468 
-431.308 1570.08 -110.357 0.998324 -0.0262994 -0.0515468 
-430.461 1617.63 -118.679 0.998324 -0.0262994 -0.0515468 
-430.667 1608.26 -117.756 0.998324 -0.0262994 -0.0515468 
-431.249 1584.78 -116.683 0.998324 -0.0262994 -0.0515468 
-430.426 1607.6 -112.947 0.998324 -0.0262994 -0.0515468 
-430.766 1547.49 -88.8582 0.998324 -0.0262994 -0.0515468 
-431.232 1509.54 -78.3346 0.998324 -0.0262994 -0.0515468 
-431.002 1522.91 -80.8163 0.998324 -0.0262994 -0.0515468 
-431.835 1520.33 -94.9919 0.998324 -0.0262994 -0.0515468 
-431.342 1544.56 -98.079 0.998324 -0.0262994 -0.0515468 
-431.13 1518.36 -80.8994 0.998324 -0.0262994 -0.0515468 
-430.121 1609.89 -108.445 0.998324 -0.0262994 -0.0515468 
-431.185 1558.69 -102.305 0.998324 -0.0262994 -0.0515468 
-431.433 1556.66 -105.889 0.998324 -0.0262994 -0.0515468 
-430.654 1573.15 -99.7632 0.998324 -0.0262994 -0.0515468 
-431.269 1518.91 -83.7623 0.998324 -0.0262994 -0.0515468 
-431.811 1529.81 -99.3333 0.998324 -0.0262994 -0.0515468 
-430.694 1558.54 -93.1144 0.998324 -0.0262994 -0.0515468 
-431.846 1533.67 -101.928 0.998324 -0.0262994 -0.0515468 
-431.26 1502.93 -75.5121 0.998324 -0.0262994 -0.0515468 
-430.915 1562.72 -99.3391 0.998324 -0.0262994 -0.0515468 
-431.751 1514.09 -90.275 0.998324 -0.0262994 -0.0515468 
-431.394 1541.67 -97.5946 0.998324 -0.0262994 -0.0515468 
-431.473 1487.46 -71.6494 0.998324 -0.0262994 -0.0515468 
-430.927 1562.73 -99.5652 0.998324 -0.0262994 -0.0515468 
-431.212 1563.45 -105.22 0.998324 -0.0262994 -0.0515468 
-431.412 1558.24 -106.307 0.998324 -0.0262994 -0.0515468 
-430.959 1569.52 -103.593 0.998324 -0.0262994 -0.0515468 
-431.306 1500.64 -75.2035 0.998324 -0.0262994 -0.0515468 
-431.088 1513.89 -77.8615 0.998324 -0.0262994 -0.0515468 
-431.592 1544.42 -102.663 0.998324 -0.0262994 -0.0515468 
-586.831 912.359 31.7077 -0.997963 0.0264011 0.0580825 
-586.766 917.385 30.3697 -0.997963 0.0264011 0.0580825 
-585.093 929.702 55.2068 -0.997963 0.0264011 0.0580825 
-586.226 886.635 55.9606 -0.997963 0.0264011 0.0580825 
-586.249 895.437 51.0681 -0.997963 0.0264011 0.0580825 
-587.42 864.771 44.8423 -0.997963 0.0264011 0.0580825 
-587.336 865.978 45.7924 -0.997963 0.0264011 0.0580825 
-585.125 924.551 57.225 -0.997963 0.0264011 0.0580825 
-586.785 914.087 31.6954 -0.997963 0.0264011 0.0580825 
-586.372 910.095 41.3804 -0.997963 0.0264011 0.0580825 
-584.883 939.243 54.2971 -0.997963 0.0264011 0.0580825 
-586.66 925.988 27.9993 -0.997963 0.0264011 0.0580825 
-584.989 912 66.0956 -0.997963 0.0264011 0.0580825 
-587.077 871.984 47.5565 -0.997963 0.0264011 0.0580825 
-587.526 859.212 45.6836 -0.997963 0.0264011 0.0580825 
-586.156 915.898 42.4605 -0.997963 0.0264011 0.0580825 
-588.102 855.434 36.8902 -0.997963 0.0264011 0.0580825 
-588.062 863.461 33.5811 -0.997963 0.0264011 0.0580825 
-586.854 873.078 51.1472 -0.997963 0.0264011 0.0580825 
-585.483 914.227 55.7999 -0.997963 0.0264011 0.0580825 
-585.961 917.81 45.0998 -0.997963 0.0264011 0.0580825 
-586.562 889.544 48.236 -0.997963 0.0264011 0.0580825 
-586.701 932.395 23.9993 -0.997963 0.0264011 0.0580825 
-587.747 853.022 44.6951 -0.997963 0.0264011 0.0580825 
-585.829 931.32 40.7305 -0.997963 0.0264011 0.0580825 
-583.816 932.348 77.5853 -0.997963 0.0264011 0.0580825 
-586.786 912.357 32.5414 -0.997963 0.0264011 0.0580825 
-586.011 902.688 51.8364 -0.997963 0.0264011 0.0580825 
-587.472 892.156 30.0164 -0.997963 0.0264011 0.0580825 
-587.277 860.929 49.4259 -0.997963 0.0264011 0.0580825 
-585.914 925.209 42.2452 -0.997963 0.0264011 0.0580825 
-583.901 941.054 71.6027 -0.997963 0.0264011 0.0580825 
-587.452 917.205 17.7319 -0.997963 0.0264011 0.0580825 
-584.534 924.539 68.2112 -0.997963 0.0264011 0.0580825 
-586.122 904.488 48.8672 -0.997963 0.0264011 0.0580825 
-587.124 917.47 23.691 -0.997963 0.0264011 0.0580825 
-584.776 919.136 66.4382 -0.997963 0.0264011 0.0580825 
-583.958 929.388 76.4547 -0.997963 0.0264011 0.0580825 
-587.162 914.714 24.3784 -0.997963 0.0264011 0.0580825 
-586.538 896.135 45.3533 -0.997963 0.0264011 0.0580825 
-584.296 938.77 65.4215 -0.997963 0.0264011 0.0580825 
-585.896 911.479 49.519 -0.997963 0.0264011 0.0580825 
-587.025 919.326 24.5873 -0.997963 0.0264011 0.0580825 
-588.175 847.392 39.6008 -0.997963 0.0264011 0.0580825 
-583.473 940.39 79.8973 -0.997963 0.0264011 0.0580825 
-585.918 892.897 58.4958 -0.997963 0.0264011 0.0580825 
-587.467 883.895 34.2874 -0.997963 0.0264011 0.0580825 
-584.71 934.398 59.9442 -0.997963 0.0264011 0.0580825 
-585.465 932.387 46.9401 -0.997963 0.0264011 0.0580825 
-586.72 910.818 34.5563 -0.997963 0.0264011 0.0580825 
-585.469 898.651 63.9402 -0.997963 0.0264011 0.0580825 
-583.414 947.67 77.3005 -0.997963 0.0264011 0.0580825 
-584.654 919.777 68.395 -0.997963 0.0264011 0.0580825 
-585.955 889.34 59.613 -0.997963 0.0264011 0.0580825 
-587.31 868.879 44.8112 -0.997963 0.0264011 0.0580825 
-587.347 876.496 40.2546 -0.997963 0.0264011 0.0580825 
-587.104 879.785 43.118 -0.997963 0.0264011 0.0580825 
-586.953 894.758 38.3406 -0.997963 0.0264011 0.0580825 
-586.915 894.49 39.1926 -0.997963 0.0264011 0.0580825 
-586.404 900.034 45.8762 -0.997963 0.0264011 0.0580825 
-584.246 944.074 63.6746 -0.997963 0.0264011 0.0580825 
-586.391 905.716 43.2397 -0.997963 0.0264011 0.0580825 
-586.233 876.759 60.8212 -0.997963 0.0264011 0.0580825 
-585.692 850.406 84.1897 -0.997963 0.0264011 0.0580825 
-583.624 910.323 92.2881 -0.997963 0.0264011 0.0580825 
-584.27 917.311 76.7661 -0.997963 0.0264011 0.0580825 
-586.145 873.242 64.2239 -0.997963 0.0264011 0.0580825 
-583.493 908.343 95.7321 -0.997963 0.0264011 0.0580825 
-584.521 868.622 96.714 -0.997963 0.0264011 0.0580825 
-586.023 868.754 68.7714 -0.997963 0.0264011 0.0580825 
-586.43 866.131 62.5251 -0.997963 0.0264011 0.0580825 
-583.83 886.175 100.677 -0.997963 0.0264011 0.0580825 
-587.115 842.641 61.6894 -0.997963 0.0264011 0.0580825 
-585.079 862.234 89.587 -0.997963 0.0264011 0.0580825 
-584.342 856.259 106.295 -0.997963 0.0264011 0.0580825 
-585.328 875.805 78.0977 -0.997963 0.0264011 0.0580825 
-585.375 852.155 89.1969 -0.997963 0.0264011 0.0580825 
-586.114 876.674 63.0747 -0.997963 0.0264011 0.0580825 
-585.052 896.552 72.7324 -0.997963 0.0264011 0.0580825 
-584.404 906.423 79.7716 -0.997963 0.0264011 0.0580825 
-585.304 860.326 86.3746 -0.997963 0.0264011 0.0580825 
-584.92 878.237 84.4509 -0.997963 0.0264011 0.0580825 
-584.419 901.805 81.837 -0.997963 0.0264011 0.0580825 
-583.917 926.814 78.5211 -0.997963 0.0264011 0.0580825 
-586.124 864.562 69.0146 -0.997963 0.0264011 0.0580825 
-583.65 897.898 98.0883 -0.997963 0.0264011 0.0580825 
-584.95 859.221 93.5035 -0.997963 0.0264011 0.0580825 
-583.566 913.753 91.6341 -0.997963 0.0264011 0.0580825 
-584.088 908.359 84.6742 -0.997963 0.0264011 0.0580825 
-585.762 866.07 74.9699 -0.997963 0.0264011 0.0580825 
-583.793 917.371 85.5845 -0.997963 0.0264011 0.0580825 
-585.207 864.063 86.2921 -0.997963 0.0264011 0.0580825 
-585.284 877.861 77.8735 -0.997963 0.0264011 0.0580825 
-583.892 877.186 104.07 -0.997963 0.0264011 0.0580825 
-584.216 875.439 98.9283 -0.997963 0.0264011 0.0580825 
-584.722 857.778 98.4692 -0.997963 0.0264011 0.0580825 
-586.203 866.66 66.4893 -0.997963 0.0264011 0.0580825 
-583.773 903.934 92.7477 -0.997963 0.0264011 0.0580825 
-585.932 860.894 74.4311 -0.997963 0.0264011 0.0580825 
-586.845 849.616 63.1686 -0.997963 0.0264011 0.0580825 
-586.639 865.733 58.8475 -0.997963 0.0264011 0.0580825 
-584.052 870.49 104.491 -0.997963 0.0264011 0.0580825 
-583.113 924.403 94.6686 -0.997963 0.0264011 0.0580825 
-583.53 923.114 87.5784 -0.997963 0.0264011 0.0580825 
-584.225 901.64 85.5137 -0.997963 0.0264011 0.0580825 
-584.41 861.771 102.247 -0.997963 0.0264011 0.0580825 
-585.412 864.01 82.5132 -0.997963 0.0264011 0.0580825 
-586.178 844.947 77.9166 -0.997963 0.0264011 0.0580825 
-584.418 908.816 78.3146 -0.997963 0.0264011 0.0580825 
-586.734 851.348 64.3594 -0.997963 0.0264011 0.0580825 
-584.52 864.872 98.6265 -0.997963 0.0264011 0.0580825 
-585.354 865.608 82.777 -0.997963 0.0264011 0.0580825 
-583.917 883.611 100.357 -0.997963 0.0264011 0.0580825 
-584.572 903.888 77.944 -0.997963 0.0264011 0.0580825 
-586.483 867.717 60.7435 -0.997963 0.0264011 0.0580825 
-584.233 917.76 77.2177 -0.997963 0.0264011 0.0580825 
-586.739 846.794 66.5647 -0.997963 0.0264011 0.0580825 
-585.489 881.201 72.3932 -0.997963 0.0264011 0.0580825 
-584.669 869.454 93.5436 -0.997963 0.0264011 0.0580825 
-586.936 842.504 65.0912 -0.997963 0.0264011 0.0580825 
-585.554 856.594 83.6225 -0.997963 0.0264011 0.0580825 
-585.737 879.94 68.4209 -0.997963 0.0264011 0.0580825 
-584.549 868.701 96.1557 -0.997963 0.0264011 0.0580825 
-587.349 850.728 53.2469 -0.997963 0.0264011 0.0580825 
-667.898 847.137 43.4982 0.0576051 0.303387 0.951125 
-893.867 917.981 35.1379 0.0576051 0.303387 0.951125 
-959.868 891.077 47.8003 0.0576051 0.303387 0.951125 
-830.574 842.74 55.0598 0.0576051 0.303387 0.951125 
-890.308 899.635 40.7376 0.0576051 0.303387 0.951125 
-832.581 895.98 38.2896 0.0576051 0.303387 0.951125 
-879.743 902.472 39.1768 0.0576051 0.303387 0.951125 
-801.894 853.377 49.8917 0.0576051 0.303387 0.951125 
-855.238 874.926 46.3872 0.0576051 0.303387 0.951125 
-850.078 881.931 43.8417 0.0576051 0.303387 0.951125 
-789.684 856.096 48.2661 0.0576051 0.303387 0.951125 
-964.649 848.913 61.4797 0.0576051 0.303387 0.951125 
-947.18 871.032 53.3685 0.0576051 0.303387 0.951125 
-909.116 907.924 39.2824 0.0576051 0.303387 0.951125 
-955.233 911.498 41.0303 0.0576051 0.303387 0.951125 
-851.145 842.917 56.2892 0.0576051 0.303387 0.951125 
-902.183 893.41 43.4548 0.0576051 0.303387 0.951125 
-685.745 840.775 46.6327 0.0576051 0.303387 0.951125 
-821.854 857.31 49.8911 0.0576051 0.303387 0.951125 
-912.812 910.939 38.5565 0.0576051 0.303387 0.951125 
-731.655 870.947 39.9267 0.0576051 0.303387 0.951125 
-896.965 893.786 43.0096 0.0576051 0.303387 0.951125 
-926.6 849.531 58.9056 0.0576051 0.303387 0.951125 
-731.55 868.01 40.8522 0.0576051 0.303387 0.951125 
-852.721 883.131 43.6259 0.0576051 0.303387 0.951125 
-784.293 868.71 43.9263 0.0576051 0.303387 0.951125 
-810.715 891.186 38.4445 0.0576051 0.303387 0.951125 
-895.321 913.773 36.564 0.0576051 0.303387 0.951125 
-738.823 858.199 44.4203 0.0576051 0.303387 0.951125 
-962.056 872.031 53.9811 0.0576051 0.303387 0.951125 
-908.715 852.963 56.6988 0.0576051 0.303387 0.951125 
-886.58 885.85 44.8788 0.0576051 0.303387 0.951125 
-968.917 873.202 54.0384 0.0576051 0.303387 0.951125 
-765.175 841.964 51.2192 0.0576051 0.303387 0.951125 
-896.055 861.702 53.1345 0.0576051 0.303387 0.951125 
-765.926 865.283 43.866 0.0576051 0.303387 0.951125 
-968.835 889.671 48.8068 0.0576051 0.303387 0.951125 
-860.305 878.976 45.4185 0.0576051 0.303387 0.951125 
-634.648 844.999 42.099 0.0576051 0.303387 0.951125 
-848.18 860.897 50.3979 0.0576051 0.303387 0.951125 
-928.678 859.159 55.9801 0.0576051 0.303387 0.951125 
-934.62 848.985 59.5804 0.0576051 0.303387 0.951125 
-955.545 905.655 42.9037 0.0576051 0.303387 0.951125 
-890.424 869.265 50.3825 0.0576051 0.303387 0.951125 
-950.094 897.854 45.0388 0.0576051 0.303387 0.951125 
-956.16 917.261 39.2592 0.0576051 0.303387 0.951125 
-794.784 874.36 42.7886 0.0576051 0.303387 0.951125 
-810.908 877.067 42.9373 0.0576051 0.303387 0.951125 
-861.803 872.561 47.5477 0.0576051 0.303387 0.951125 
-903.744 903.845 40.2408 0.0576051 0.303387 0.951125 
-721.929 847.237 46.843 0.0576051 0.303387 0.951125 
-699.886 862.329 40.6763 0.0576051 0.303387 0.951125 
-788.119 844.653 51.7998 0.0576051 0.303387 0.951125 
-829.057 845.288 54.1564 0.0576051 0.303387 0.951125 
-955.185 903.856 43.4521 0.0576051 0.303387 0.951125 
-896.71 917.75 35.3887 0.0576051 0.303387 0.951125 
-852.099 844.108 55.9706 0.0576051 0.303387 0.951125 
-940.321 914.829 39.0411 0.0576051 0.303387 0.951125 
-902.459 871.833 50.3196 0.0576051 0.303387 0.951125 
-928.889 850.943 58.6005 0.0576051 0.303387 0.951125 
-887.103 899.468 40.59 0.0576051 0.303387 0.951125 
-886.924 893.611 42.4377 0.0576051 0.303387 0.951125 
-747.86 867.764 41.9496 0.0576051 0.303387 0.951125 
-964.876 885.863 49.7678 0.0576051 0.303387 0.951125 
-851.749 844.054 55.9659 0.0576051 0.303387 0.951125 
-849.752 852.903 53.033 0.0576051 0.303387 0.951125 
-805.918 883.026 40.7343 0.0576051 0.303387 0.951125 
-961.591 927.134 36.4655 0.0576051 0.303387 0.951125 
-684.029 842.967 45.8295 0.0576051 0.303387 0.951125 
-932.508 890.282 46.3428 0.0576051 0.303387 0.951125 
-852.516 871.721 47.234 0.0576051 0.303387 0.951125 
-716.817 844.725 47.3207 0.0576051 0.303387 0.951125 
-935.929 876.141 51.044 0.0576051 0.303387 0.951125 
-941.298 908.647 41.0641 0.0576051 0.303387 0.951125 
-816.751 853.886 50.6586 0.0576051 0.303387 0.951125 
-930.005 856.748 56.8283 0.0576051 0.303387 0.951125 
-942.695 855.712 57.95 0.0576051 0.303387 0.951125 
-925.978 876.293 50.3742 0.0576051 0.303387 0.951125 
-729.551 848.328 46.9732 0.0576051 0.303387 0.951125 
-885.406 850.075 56.1587 0.0576051 0.303387 0.951125 
-943.5 909.24 41.0134 0.0576051 0.303387 0.951125 
-783.211 847.814 50.4897 0.0576051 0.303387 0.951125 
-656.045 841.709 44.4801 0.0576051 0.303387 0.951125 
-908.735 851.012 57.3192 0.0576051 0.303387 0.951125 
-813.524 843.397 53.7857 0.0576051 0.303387 0.951125 
-961.292 904.31 43.6897 0.0576051 0.303387 0.951125 
-873.852 883.014 44.9836 0.0576051 0.303387 0.951125 
-762.303 868.625 42.5788 0.0576051 0.303387 0.951125 
-701.946 844.938 46.3239 0.0576051 0.303387 0.951125 
-714.754 848.333 46.0471 0.0576051 0.303387 0.951125 
-884.644 897.274 41.1326 0.0576051 0.303387 0.951125 
-902.034 907.367 39.0164 0.0576051 0.303387 0.951125 
-799.625 868.02 45.1033 0.0576051 0.303387 0.951125 
-816.468 876.998 43.3068 0.0576051 0.303387 0.951125 
-859.611 846.482 55.6871 0.0576051 0.303387 0.951125 
-845.499 858.379 51.0297 0.0576051 0.303387 0.951125 
-820.397 888.088 40.0327 0.0576051 0.303387 0.951125 
-918.851 917.426 36.8752 0.0576051 0.303387 0.951125 
-773.989 875.716 41.0587 0.0576051 0.303387 0.951125 
-918.46 896.233 43.5762 0.0576051 0.303387 0.951125 
-642.768 841.054 43.8585 0.0576051 0.303387 0.951125 
-851.623 862.62 50.0665 0.0576051 0.303387 0.951125 
-878.468 863.241 51.5469 0.0576051 0.303387 0.951125 
-725.28 854.513 44.7438 0.0576051 0.303387 0.951125 
-797.88 886.698 39.0668 0.0576051 0.303387 0.951125 
-800.923 889.041 38.5137 0.0576051 0.303387 0.951125 
-918.095 856.697 56.1002 0.0576051 0.303387 0.951125 
-859.563 851.357 54.1369 0.0576051 0.303387 0.951125 
-760.841 863.75 44.0344 0.0576051 0.303387 0.951125 
-956.345 871.355 53.8387 0.0576051 0.303387 0.951125 
-855.122 849.949 54.3063 0.0576051 0.303387 0.951125 
-803.481 850.978 50.7524 0.0576051 0.303387 0.951125 
-695.963 840.483 47.3638 0.0576051 0.303387 0.951125 
-872.471 859.488 52.3633 0.0576051 0.303387 0.951125 
-917.024 865.496 53.241 0.0576051 0.303387 0.951125 
-906.596 859.036 54.6394 0.0576051 0.303387 0.951125 
-966.93 934.017 34.6146 0.0576051 0.303387 0.951125 
-899.615 900.82 40.9429 0.0576051 0.303387 0.951125 
-868.615 875.959 46.8953 0.0576051 0.303387 0.951125 
-784.489 867.856 44.2094 0.0576051 0.303387 0.951125 
-940.603 899.943 43.7828 0.0576051 0.303387 0.951125 
-829.216 848.089 53.2774 0.0576051 0.303387 0.951125 
-671.644 839.227 46.2428 0.0576051 0.303387 0.951125 
-904.99 847.526 58.1915 0.0576051 0.303387 0.951125 
-964.29 886.468 49.539 0.0576051 0.303387 0.951125 
-854.601 902.965 37.4494 0.0576051 0.303387 0.951125 
-844.468 859.532 50.5994 0.0576051 0.303387 0.951125 
-833.272 843.809 54.889 0.0576051 0.303387 0.951125 
-900.555 891.92 43.8262 0.0576051 0.303387 0.951125 
-830.971 894.912 38.5281 0.0576051 0.303387 0.951125 
-924.146 888.233 46.4705 0.0576051 0.303387 0.951125 
-731.319 872.222 39.501 0.0576051 0.303387 0.951125 
-930.623 849.933 59.0295 0.0576051 0.303387 0.951125 
-726.612 852.916 45.3337 0.0576051 0.303387 0.951125 
-863.971 904.216 37.6377 0.0576051 0.303387 0.951125 
-761.115 864.761 43.7307 0.0576051 0.303387 0.951125 
-884.958 882.203 45.935 0.0576051 0.303387 0.951125 
-936.645 864.494 54.7848 0.0576051 0.303387 0.951125 
-912.679 873.995 50.2721 0.0576051 0.303387 0.951125 
-955.511 847.371 61.3976 0.0576051 0.303387 0.951125 
-934.39 872.836 51.9969 0.0576051 0.303387 0.951125 
-864.386 888.218 42.7407 0.0576051 0.303387 0.951125 
-911.993 906.157 40.0228 0.0576051 0.303387 0.951125 
-830.441 896.9 37.8641 0.0576051 0.303387 0.951125 
-957.201 900.276 44.7142 0.0576051 0.303387 0.951125 
-943.317 881.347 49.8538 0.0576051 0.303387 0.951125 
-712.142 855.119 43.7301 0.0576051 0.303387 0.951125 
-789.25 854.623 48.7061 0.0576051 0.303387 0.951125 
-958.996 873.524 53.316 0.0576051 0.303387 0.951125 
-893.61 882.52 46.3751 0.0576051 0.303387 0.951125 
-942.886 874.363 52.043 0.0576051 0.303387 0.951125 
-689.494 841.369 46.6782 0.0576051 0.303387 0.951125 
-927.145 882.999 48.3188 0.0576051 0.303387 0.951125 
-856.076 875.53 46.2476 0.0576051 0.303387 0.951125 
-828.359 881.152 42.7314 0.0576051 0.303387 0.951125 
-894.219 854.835 55.1987 0.0576051 0.303387 0.951125 
-908.574 854.391 56.2369 0.0576051 0.303387 0.951125 
-736.713 861.981 43.0883 0.0576051 0.303387 0.951125 
-623.583 837.469 43.7969 0.0576051 0.303387 0.951125 
-676.238 848.574 43.5636 0.0576051 0.303387 0.951125 
-885.463 871.465 49.3743 0.0576051 0.303387 0.951125 
-754.841 871.117 41.3217 0.0576051 0.303387 0.951125 
-808.245 859.315 48.4045 0.0576051 0.303387 0.951125 
-762.413 874.487 40.7255 0.0576051 0.303387 0.951125 
-887.059 877.058 47.699 0.0576051 0.303387 0.951125 
-825.471 862.386 48.5064 0.0576051 0.303387 0.951125 
-838.899 876.327 44.9214 0.0576051 0.303387 0.951125 
-922.331 871.85 51.556 0.0576051 0.303387 0.951125 
-902.736 911.263 37.824 0.0576051 0.303387 0.951125 
-843.195 859.212 50.6214 0.0576051 0.303387 0.951125 
-705.467 844.659 46.6325 0.0576051 0.303387 0.951125 
-787.153 847.149 50.947 0.0576051 0.303387 0.951125 
-883.814 878.218 47.1281 0.0576051 0.303387 0.951125 
-936.309 913.242 39.294 0.0576051 0.303387 0.951125 
-908.973 906.205 39.8188 0.0576051 0.303387 0.951125 
-776.658 841.967 51.9358 0.0576051 0.303387 0.951125 
-917.821 877.624 49.4418 0.0576051 0.303387 0.951125 
-845.042 899.127 38.0699 0.0576051 0.303387 0.951125 
-926.642 913.555 38.5906 0.0576051 0.303387 0.951125 
-935.895 857.988 56.8029 0.0576051 0.303387 0.951125 
-899.192 908.38 38.5173 0.0576051 0.303387 0.951125 
-856.344 881.846 44.2601 0.0576051 0.303387 0.951125 
-834.05 849.013 53.2861 0.0576051 0.303387 0.951125 
-708.349 859.835 41.9964 0.0576051 0.303387 0.951125 
-855.337 888.581 42.0599 0.0576051 0.303387 0.951125 
-876.677 880.811 45.8593 0.0576051 0.303387 0.951125 
-889.834 848.165 57.0415 0.0576051 0.303387 0.951125 
-828.849 880.146 43.0814 0.0576051 0.303387 0.951125 
-903.11 847.607 58.0482 0.0576051 0.303387 0.951125 
-707.458 858.838 42.2574 0.0576051 0.303387 0.951125 
-833.278 896.793 38.0754 0.0576051 0.303387 0.951125 
-724.177 864.97 41.356 0.0576051 0.303387 0.951125 
-835.69 840.764 56.0066 0.0576051 0.303387 0.951125 
-726.156 856.068 44.3049 0.0576051 0.303387 0.951125 
-928.334 918.841 37.019 0.0576051 0.303387 0.951125 
-821.321 844.057 54.0638 0.0576051 0.303387 0.951125 
-924.14 883.111 48.0956 0.0576051 0.303387 0.951125 
-915.769 924.07 34.5744 0.0576051 0.303387 0.951125 
-671.453 838.722 46.3908 0.0576051 0.303387 0.951125 
-661.699 845.656 43.5809 0.0576051 0.303387 0.951125 
-865.494 906.967 36.8599 0.0576051 0.303387 0.951125 
-807.824 869.3 45.2094 0.0576051 0.303387 0.951125 
-721.317 844.663 47.6216 0.0576051 0.303387 0.951125 
-815.334 865.617 46.8476 0.0576051 0.303387 0.951125 
-956.175 878.443 51.5789 0.0576051 0.303387 0.951125 
-910.466 894.505 43.6252 0.0576051 0.303387 0.951125 
-906.373 878.881 48.3275 0.0576051 0.303387 0.951125 
-955.658 866.484 55.3416 0.0576051 0.303387 0.951125 
-830.25 854.378 51.3461 0.0576051 0.303387 0.951125 
-644.389 839.881 44.3318 0.0576051 0.303387 0.951125 
-839.853 895.848 38.7863 0.0576051 0.303387 0.951125 
-833.257 888.329 40.76 0.0576051 0.303387 0.951125 
-917.742 873.535 50.7345 0.0576051 0.303387 0.951125 
-909.717 889.413 45.1942 0.0576051 0.303387 0.951125 
-721.384 863.179 41.7498 0.0576051 0.303387 0.951125 
-720.758 841.497 48.5916 0.0576051 0.303387 0.951125 
-659.074 846.249 43.2288 0.0576051 0.303387 0.951125 
-964.376 931.249 35.3335 0.0576051 0.303387 0.951125 
-730.785 839.284 49.9205 0.0576051 0.303387 0.951125 
-715.125 855.773 43.709 0.0576051 0.303387 0.951125 
-917.148 859.627 55.1108 0.0576051 0.303387 0.951125 
-969.201 844.775 63.0773 0.0576051 0.303387 0.951125 
-928.553 894.267 44.8307 0.0576051 0.303387 0.951125 
-904.2 913.513 37.2014 0.0576051 0.303387 0.951125 
-883.523 891.82 42.7934 0.0576051 0.303387 0.951125 
-914.473 866.996 52.6055 0.0576051 0.303387 0.951125 
-832.476 886.341 41.342 0.0576051 0.303387 0.951125 
-939.494 910.674 40.3081 0.0576051 0.303387 0.951125 
-785.66 859.605 46.9009 0.0576051 0.303387 0.951125 
-886.553 915.682 35.4103 0.0576051 0.303387 0.951125 
-802.047 856.897 48.7845 0.0576051 0.303387 0.951125 
-691.106 857.598 41.6288 0.0576051 0.303387 0.951125 
-932.145 923.984 35.6249 0.0576051 0.303387 0.951125 
-912.774 916.883 36.668 0.0576051 0.303387 0.951125 
-925.542 875.221 50.687 0.0576051 0.303387 0.951125 
-698.904 849.558 44.6678 0.0576051 0.303387 0.951125 
-968.948 938.337 33.3701 0.0576051 0.303387 0.951125 
-706.785 840.378 48.0733 0.0576051 0.303387 0.951125 
-909.519 912.155 37.965 0.0576051 0.303387 0.951125 
-917.61 906.693 40.2039 0.0576051 0.303387 0.951125 
-636.723 840.586 43.629 0.0576051 0.303387 0.951125 
-941.043 873.088 52.3325 0.0576051 0.303387 0.951125 
-834.533 864.01 48.5574 0.0576051 0.303387 0.951125 
-944.681 850.049 59.8712 0.0576051 0.303387 0.951125 
-841.085 850.675 53.1985 0.0576051 0.303387 0.951125 
-620.816 837.589 43.5858 0.0576051 0.303387 0.951125 
-815.225 866.926 46.4253 0.0576051 0.303387 0.951125 
-810.357 879.144 42.2439 0.0576051 0.303387 0.951125 
-821.418 847.974 52.8268 0.0576051 0.303387 0.951125 
-803.146 853.598 49.9 0.0576051 0.303387 0.951125 
