ply
format ascii 1.0
comment Created by CloudCompare v2.11.3 (Anoia)
comment Created 07/09/2022 23:56
obj_info Generated by CloudCompare!
element vertex 897
property float x
property float y
property float z
property float nx
property float ny
property float nz
end_header
135.201 626.995 -200.925 -0.618984 0.602118 -0.504295 
117.284 599.279 -212.005 -0.618984 0.602118 -0.504295 
102.198 606.272 -185.393 -0.618984 0.602118 -0.504295 
109.025 593.704 -208.58 -0.618984 0.602118 -0.504295 
183.406 442.1 -478.577 -0.618984 0.602118 -0.504295 
166.958 393.438 -516.263 -0.618984 0.602118 -0.504295 
138.392 380.477 -496.922 -0.618984 0.602118 -0.504295 
137.417 386.74 -488.316 -0.618984 0.602118 -0.504295 
114.32 400.717 -443.699 -0.618984 0.602118 -0.504295 
129.39 719.099 -84.724 -0.618984 0.602118 -0.504295 
190.283 367.316 -399.02 0.0181537 0.654929 0.755472 
229.054 358.893 -392.681 0.0181537 0.654929 0.755472 
172.479 419.188 -443.697 0.0181537 0.654929 0.755472 
204.262 421.694 -446.69 0.0181537 0.654929 0.755472 
565.167 37.0065 -121.202 0.0181537 0.654929 0.755472 
535.493 99.664 -174.96 0.0181537 0.654929 0.755472 
555.152 71.6365 -151.076 0.0181537 0.654929 0.755472 
815.962 -204.563 82.5753 0.0181537 0.654929 0.755472 
818.59 -247.724 120.061 0.0181537 0.654929 0.755472 
925.432 -264.818 132.206 0.0181537 0.654929 0.755472 
876.135 -279.679 146.394 0.0181537 0.654929 0.755472 
349.3 295.251 -340.379 0.0181537 0.654929 0.755472 
475.488 180.358 -243.638 0.0181537 0.654929 0.755472 
434.23 227.631 -283.713 0.0181537 0.654929 0.755472 
535.355 124.614 -196.664 0.0181537 0.654929 0.755472 
827.864 -154.605 38.8046 0.0181537 0.654929 0.755472 
691.476 -34.5427 -62.1744 0.0181537 0.654929 0.755472 
888.979 -219.256 93.4952 0.0181537 0.654929 0.755472 
703.833 -50.0958 -48.958 0.0181537 0.654929 0.755472 
902.73 142.345 656.086 0.615842 -0.602344 0.507859 
889.269 129.992 657.798 0.615842 -0.602344 0.507859 
885.559 138.124 671.941 0.615842 -0.602344 0.507859 
846.734 75.2185 644.558 0.615842 -0.602344 0.507859 
922.69 134.229 622.222 0.615842 -0.602344 0.507859 
949.397 135.907 591.771 0.615842 -0.602344 0.507859 
848.447 -78.8639 459.892 0.615842 -0.602344 0.507859 
855.562 -138.083 381.075 0.615842 -0.602344 0.507859 
918.644 -70.7541 384.234 0.615842 -0.602344 0.507859 
878.223 -84.8888 416.584 0.615842 -0.602344 0.507859 
862.488 -162.811 343.36 0.615842 -0.602344 0.507859 
915.389 -105.919 346.518 0.615842 -0.602344 0.507859 
931.532 -82.2158 354.998 0.615842 -0.602344 0.507859 
840.875 -237.562 281.034 0.615842 -0.602344 0.507859 
845.533 -240.864 271.463 0.615842 -0.602344 0.507859 
836.446 -351.868 150.963 0.615842 -0.602344 0.507859 
890.13 -313.072 131.725 0.615842 -0.602344 0.507859 
877.306 -311.6 149.048 0.615842 -0.602344 0.507859 
920.551 -332.479 71.778 0.615842 -0.602344 0.507859 
866.174 -10.3311 519.571 0.615842 -0.602344 0.507859 
857.514 -25.1825 512.491 0.615842 -0.602344 0.507859 
860.202 -249.45 243.471 0.615842 -0.602344 0.507859 
169.494 321.381 -349.179 -0.786531 -0.455701 0.41678 
485.416 -58.4314 -167.431 -0.786531 -0.455701 0.41678 
274.531 158.184 -329.137 -0.786531 -0.455701 0.41678 
483.491 -26.8523 -136.525 -0.786531 -0.455701 0.41678 
191.027 268.676 -366.127 -0.786531 -0.455701 0.41678 
218.742 215.23 -372.196 -0.786531 -0.455701 0.41678 
220.042 239.507 -343.184 -0.786531 -0.455701 0.41678 
402.288 60.9129 -194.028 -0.786531 -0.455701 0.41678 
486.308 -59.0285 -166.398 -0.786531 -0.455701 0.41678 
308.705 163.366 -258.865 -0.786531 -0.455701 0.41678 
633.31 -181.868 -22.8789 -0.786531 -0.455701 0.41678 
91.6511 408.891 -400.608 -0.786531 -0.455701 0.41678 
91.4333 409.811 -400.013 -0.786531 -0.455701 0.41678 
256.872 230.778 -283.109 -0.786531 -0.455701 0.41678 
458.056 5.89066 -148.791 -0.786531 -0.455701 0.41678 
703.405 -258.564 25.733 -0.786531 -0.455701 0.41678 
617.626 -169.285 -38.7615 -0.786531 -0.455701 0.41678 
507.731 -62.8884 -130.121 -0.786531 -0.455701 0.41678 
125.345 382.448 -365.837 -0.786531 -0.455701 0.41678 
335.571 132.599 -241.734 -0.786531 -0.455701 0.41678 
287.09 171.35 -290.993 -0.786531 -0.455701 0.41678 
195.77 287.479 -336.593 -0.786531 -0.455701 0.41678 
462.126 0.836334 -146.625 -0.786531 -0.455701 0.41678 
686.127 -249.226 3.28707 -0.786531 -0.455701 0.41678 
454.608 -2.6395 -164.641 -0.786531 -0.455701 0.41678 
438.257 0.429596 -192.193 -0.786531 -0.455701 0.41678 
672.387 -230.794 -2.52424 -0.786531 -0.455701 0.41678 
460.238 -6.36948 -158.077 -0.786531 -0.455701 0.41678 
736.41 -222.991 127.039 -0.786531 -0.455701 0.41678 
812.881 -359.65 122.112 -0.786531 -0.455701 0.41678 
326.675 164.802 -223.323 -0.786531 -0.455701 0.41678 
518.853 0.716705 -39.52 -0.786531 -0.455701 0.41678 
339.188 152.857 -212.736 -0.786531 -0.455701 0.41678 
744.194 -221.372 143.524 -0.786531 -0.455701 0.41678 
573.775 -86.5313 -31.1356 -0.786531 -0.455701 0.41678 
637.727 -120.521 52.5788 -0.786531 -0.455701 0.41678 
721.339 -197.426 126.514 -0.786531 -0.455701 0.41678 
544.692 -17.5194 -10.6233 -0.786531 -0.455701 0.41678 
802.301 -322.742 142.483 -0.786531 -0.455701 0.41678 
760.576 -298.412 90.2196 -0.786531 -0.455701 0.41678 
736.216 -270.145 75.0922 -0.786531 -0.455701 0.41678 
669.028 -147.24 82.5233 -0.786531 -0.455701 0.41678 
721.834 -257.429 61.814 -0.786531 -0.455701 0.41678 
665.755 -194.977 24.1169 -0.786531 -0.455701 0.41678 
289.592 215.883 -237.55 -0.786531 -0.455701 0.41678 
317.174 197.896 -205.083 -0.786531 -0.455701 0.41678 
586.81 -74.0608 7.14824 -0.786531 -0.455701 0.41678 
656.632 -158.128 47.1791 -0.786531 -0.455701 0.41678 
697.134 -194.968 83.4438 -0.786531 -0.455701 0.41678 
413.937 93.8744 -135.951 -0.786531 -0.455701 0.41678 
807.921 -344.107 129.736 -0.786531 -0.455701 0.41678 
645.355 -177.48 4.69213 -0.786531 -0.455701 0.41678 
484.26 0.699127 -104.935 -0.786531 -0.455701 0.41678 
738.813 -224.248 130.207 -0.786531 -0.455701 0.41678 
770.923 -270.022 140.834 -0.786531 -0.455701 0.41678 
822.513 -337.383 164.678 -0.786531 -0.455701 0.41678 
806.26 -216.341 62.624 -0.618984 0.602118 -0.504295 
790.279 -233.048 62.2371 -0.618984 0.602118 -0.504295 
618.962 14.9413 -127.773 -0.786531 -0.455701 0.41678 
772.974 -179.721 -49.5655 -0.786531 -0.455701 0.41678 
664.913 -44.5819 -106.018 -0.786531 -0.455701 0.41678 
724.233 -133.445 -91.0851 -0.786531 -0.455701 0.41678 
625.799 9.3699 -120.944 -0.786531 -0.455701 0.41678 
604.613 -5.23727 -176.972 -0.786531 -0.455701 0.41678 
741.943 -124.035 -47.3124 -0.786531 -0.455701 0.41678 
775.812 -153.888 -15.9433 -0.786531 -0.455701 0.41678 
769.04 -121.347 6.85131 -0.786531 -0.455701 0.41678 
697.212 -76.3989 -79.7647 -0.786531 -0.455701 0.41678 
826.558 -214.916 13.23 -0.786531 -0.455701 0.41678 
765.75 -124.942 -3.30018 -0.786531 -0.455701 0.41678 
762.628 -219.242 112.184 -0.618984 0.602118 -0.504295 
777.004 -88.2959 249.892 -0.618984 0.602118 -0.504295 
776.949 -38.948 308.435 -0.618984 0.602118 -0.504295 
777.62 93.5823 464.666 -0.618984 0.602118 -0.504295 
779.102 170.225 553.689 -0.618984 0.602118 -0.504295 
775.614 215.962 612.122 -0.618984 0.602118 -0.504295 
549.273 -12.8372 -137.474 0.615842 -0.602344 0.507859 
541.77 5.73685 -106.349 0.615842 -0.602344 0.507859 
584.502 -19.4404 -188.09 0.615842 -0.602344 0.507859 
593.762 -134.654 -98.8382 0.786531 0.455701 -0.41678 
545.165 -70.7827 -120.838 0.786531 0.455701 -0.41678 
590.17 -79.0284 -44.7818 0.786531 0.455701 -0.41678 
576.764 -113.016 -107.302 0.786531 0.455701 -0.41678 
612.328 -133.606 -62.594 0.786531 0.455701 -0.41678 
654.162 -167.511 -20.5988 0.786531 0.455701 -0.41678 
563.64 -97.6356 -115.287 0.786531 0.455701 -0.41678 
563.782 -67.1914 -81.716 0.786531 0.455701 -0.41678 
692.832 -217.072 -1.71229 0.786531 0.455701 -0.41678 
603.064 -76.3354 -17.4615 0.786531 0.455701 -0.41678 
748.913 -217.665 103.655 0.786531 0.455701 -0.41678 
741.462 -237.582 67.7819 0.786531 0.455701 -0.41678 
711.152 -170.133 84.2658 0.786531 0.455701 -0.41678 
726.449 -182.487 99.6697 0.786531 0.455701 -0.41678 
573.336 -25.0848 -17.5954 0.786531 0.455701 -0.41678 
724.584 -208.318 67.8867 0.786531 0.455701 -0.41678 
618.668 -68.0888 21.0579 0.786531 0.455701 -0.41678 
731.865 -226.622 61.6299 0.786531 0.455701 -0.41678 
532.901 -40.2894 -150.118 0.615842 -0.602344 0.507859 
526.131 24.2212 -65.4495 0.615842 -0.602344 0.507859 
536.932 139.273 57.7654 0.615842 -0.602344 0.507859 
533.144 95.7119 10.7475 0.615842 -0.602344 0.507859 
530.005 167.391 99.4993 0.615842 -0.602344 0.507859 
533.651 207.842 143.005 0.615842 -0.602344 0.507859 
540.211 263.94 201.511 0.615842 -0.602344 0.507859 
544.449 376.819 330.123 0.615842 -0.602344 0.507859 
549.36 410.449 364.009 0.615842 -0.602344 0.507859 
549.123 403.722 356.327 0.615842 -0.602344 0.507859 
465.683 99.7958 -188.074 -0.618984 0.602118 -0.504295 
495.95 74.3826 -254.953 -0.618984 0.602118 -0.504295 
453.51 87.2909 -188.106 -0.618984 0.602118 -0.504295 
371.463 226.43 -364.301 -0.786531 -0.455701 0.41678 
444.553 141.457 -319.081 -0.786531 -0.455701 0.41678 
335.891 262.028 -392.606 -0.786531 -0.455701 0.41678 
280.932 302.75 -451.955 -0.786531 -0.455701 0.41678 
383.805 224.741 -342.817 -0.786531 -0.455701 0.41678 
380.446 196.972 -379.543 -0.786531 -0.455701 0.41678 
486.982 150.543 -228.936 -0.786531 -0.455701 0.41678 
363.139 273.277 -328.79 -0.786531 -0.455701 0.41678 
497.596 111.485 -251.597 -0.786531 -0.455701 0.41678 
497.052 100.229 -264.937 -0.786531 -0.455701 0.41678 
391.071 233.279 -319.744 -0.786531 -0.455701 0.41678 
451.26 190.54 -252.713 -0.786531 -0.455701 0.41678 
240.378 334.595 -389.569 0.615842 -0.602344 0.507859 
230.441 294.846 -424.601 0.615842 -0.602344 0.507859 
240.01 304.476 -424.812 0.615842 -0.602344 0.507859 
211.623 445.649 -223.043 0.615842 -0.602344 0.507859 
209.714 351.357 -332.458 0.615842 -0.602344 0.507859 
215.762 483.72 -182.957 0.615842 -0.602344 0.507859 
205.521 622.108 -6.52882 0.615842 -0.602344 0.507859 
220.92 642.115 -1.52595 0.615842 -0.602344 0.507859 
424.584 69.8352 -194.966 0.786531 0.455701 -0.41678 
363.671 146.909 -225.807 0.786531 0.455701 -0.41678 
259.322 277.667 -280.034 0.786531 0.455701 -0.41678 
426.212 64.6796 -197.528 0.786531 0.455701 -0.41678 
293.232 242.29 -254.628 0.786531 0.455701 -0.41678 
424.424 51.1386 -215.72 0.786531 0.455701 -0.41678 
369.765 169.14 -189.967 0.786531 0.455701 -0.41678 
322.74 215.958 -227.651 0.786531 0.455701 -0.41678 
368.552 166.572 -195.069 0.786531 0.455701 -0.41678 
305.383 170.144 -310.578 0.786531 0.455701 -0.41678 
292.425 210.122 -291.343 0.786531 0.455701 -0.41678 
331.055 149.809 -284.292 0.786531 0.455701 -0.41678 
273.839 188.343 -350.299 0.786531 0.455701 -0.41678 
314.077 136.728 -330.694 0.786531 0.455701 -0.41678 
200.351 315.428 -350.206 0.786531 0.455701 -0.41678 
269.625 215.087 -329.012 0.786531 0.455701 -0.41678 
206.895 253.272 -405.826 0.786531 0.455701 -0.41678 
308.094 173.146 -302.167 0.786531 0.455701 -0.41678 
445.304 55.1802 -216.188 -0.618984 0.602118 -0.504295 
437.342 57.2237 -204.095 -0.618984 0.602118 -0.504295 
441.961 251.8 20.8648 -0.618984 0.602118 -0.504295 
439.028 296.309 77.1712 -0.618984 0.602118 -0.504295 
450.442 457.934 254.83 -0.618984 0.602118 -0.504295 
459.072 458.202 244.665 -0.618984 0.602118 -0.504295 
169.089 374.857 -342.066 0.0181537 0.654929 0.755472 
306.343 235.737 -224.527 0.0181537 0.654929 0.755472 
628.111 -96.9935 56.7532 0.0181537 0.654929 0.755472 
516.046 21.3899 -43.3863 0.0181537 0.654929 0.755472 
185.514 350.236 -321.064 0.0181537 0.654929 0.755472 
286.055 261.161 -246.13 0.0181537 0.654929 0.755472 
392.566 153.807 -155.445 0.0181537 0.654929 0.755472 
634.251 -91.2849 51.6293 0.0181537 0.654929 0.755472 
774.997 -234.621 172.748 0.0181537 0.654929 0.755472 
186.024 373.976 -313.245 -0.786531 -0.455701 0.41678 
126.779 433.058 -338.594 -0.0181586 -0.657901 -0.752885 
510.323 46.1817 -11.7802 -0.0181586 -0.657901 -0.752885 
517.624 49.909 -15.2097 -0.0181586 -0.657901 -0.752885 
769.132 -192.091 188.923 -0.0181586 -0.657901 -0.752885 
630.486 -60.4293 77.9103 -0.0181586 -0.657901 -0.752885 
446.455 121.351 -75.5516 -0.0181586 -0.657901 -0.752885 
323.33 247.203 -181.906 -0.0181586 -0.657901 -0.752885 
238.419 313.789 -227.188 -0.786531 -0.455701 0.41678 
205.629 383.114 -213.343 -0.786531 -0.455701 0.41678 
319.322 267.1 -125.323 -0.786531 -0.455701 0.41678 
642.387 -85.4903 99.7078 -0.786531 -0.455701 0.41678 
209.019 353.918 -238.871 -0.786531 -0.455701 0.41678 
375.955 190.626 -101.916 -0.786531 -0.455701 0.41678 
538.419 20.2163 18.7975 -0.786531 -0.455701 0.41678 
388.897 175.587 -93.9019 -0.786531 -0.455701 0.41678 
290.089 285.917 -160.001 -0.786531 -0.455701 0.41678 
423.99 155.882 -49.1178 -0.786531 -0.455701 0.41678 
589.677 -26.9358 64.1143 -0.786531 -0.455701 0.41678 
284.362 306.702 -148.092 -0.786531 -0.455701 0.41678 
509.177 46.1725 -8.09028 -0.786531 -0.455701 0.41678 
270.047 302.091 -180.196 -0.786531 -0.455701 0.41678 
531.307 34.4141 20.8827 -0.786531 -0.455701 0.41678 
676.572 -114.461 132.639 -0.786531 -0.455701 0.41678 
459.709 109.25 -32.6047 -0.786531 -0.455701 0.41678 
107.174 476.231 -297.602 -0.786531 -0.455701 0.41678 
399.481 188.319 -59.966 -0.786531 -0.455701 0.41678 
536.76 44.9466 42.7125 -0.786531 -0.455701 0.41678 
305.411 296.008 -119.998 -0.786531 -0.455701 0.41678 
508.351 106.776 56.6423 -0.786531 -0.455701 0.41678 
766.787 -160.779 252.515 -0.786531 -0.455701 0.41678 
683.37 -80.6073 182.522 -0.786531 -0.455701 0.41678 
488.628 120.115 33.9491 -0.786531 -0.455701 0.41678 
311.767 302.88 -100.466 -0.786531 -0.455701 0.41678 
735.461 -125.516 231.871 -0.786531 -0.455701 0.41678 
831.624 -223.481 306.495 -0.786531 -0.455701 0.41678 
741.624 -118.238 251.481 -0.786531 -0.455701 0.41678 
355.719 243.777 -82.031 -0.786531 -0.455701 0.41678 
309.906 302.694 -104.189 -0.786531 -0.455701 0.41678 
206.355 405.073 -187.949 -0.786531 -0.455701 0.41678 
552.969 36.1579 63.7389 -0.786531 -0.455701 0.41678 
722.252 -133.27 198.419 -0.786531 -0.455701 0.41678 
424.389 184.263 -17.3181 -0.786531 -0.455701 0.41678 
813.649 -238.56 256.02 -0.786531 -0.455701 0.41678 
737.972 -127.53 234.414 -0.786531 -0.455701 0.41678 
211.324 393.081 -191.673 -0.786531 -0.455701 0.41678 
181.061 436.463 -210.366 0.0181537 0.654929 0.755472 
310.873 309.434 -103.156 0.0181537 0.654929 0.755472 
159.918 466.393 -235.867 0.0181537 0.654929 0.755472 
468.244 163.33 19.9445 0.0181537 0.654929 0.755472 
248.323 367.879 -152.41 0.0181537 0.654929 0.755472 
524.654 114.424 61.0561 0.0181537 0.654929 0.755472 
778.73 -137.681 273.915 0.0181537 0.654929 0.755472 
123.827 517.512 -273.812 -0.786531 -0.455701 0.41678 
96.6929 542.103 -247.094 -0.0181586 -0.657901 -0.752885 
845.536 -167.728 351.383 -0.0181586 -0.657901 -0.752885 
533.338 124.24 105.324 -0.0181586 -0.657901 -0.752885 
353.746 298.64 -41.8292 -0.0181586 -0.657901 -0.752885 
468.377 180.818 57.7568 -0.0181586 -0.657901 -0.752885 
655.829 6.28043 204.829 -0.0181586 -0.657901 -0.752885 
162.189 480.295 -194.989 -0.0181586 -0.657901 -0.752885 
274.131 381.74 -112.099 -0.0181586 -0.657901 -0.752885 
337.449 332.04 -70.4734 -0.0181586 -0.657901 -0.752885 
478.556 207.675 110.689 -0.786531 -0.455701 0.41678 
231.477 447.708 -93.8223 -0.786531 -0.455701 0.41678 
162.713 509.161 -156.59 -0.786531 -0.455701 0.41678 
206.465 511.251 -71.5968 -0.786531 -0.455701 0.41678 
705.449 -40.1477 268.519 -0.786531 -0.455701 0.41678 
233.517 436.033 -102.735 -0.786531 -0.455701 0.41678 
447.403 201.746 45.3105 -0.786531 -0.455701 0.41678 
155.667 514.762 -163.783 -0.786531 -0.455701 0.41678 
405.64 240.747 9.02422 -0.786531 -0.455701 0.41678 
325.747 329.203 -45.2443 -0.786531 -0.455701 0.41678 
461.039 220.045 91.1057 -0.786531 -0.455701 0.41678 
162.499 496.064 -171.322 -0.786531 -0.455701 0.41678 
538.305 114.073 121.249 -0.786531 -0.455701 0.41678 
258.743 429.25 -62.4705 -0.786531 -0.455701 0.41678 
438.535 219.44 47.9019 -0.786531 -0.455701 0.41678 
259.183 396.723 -97.2174 -0.786531 -0.455701 0.41678 
169.494 479.446 -176.276 -0.786531 -0.455701 0.41678 
297.057 397.96 -24.2681 -0.786531 -0.455701 0.41678 
498.747 150.131 85.9118 -0.786531 -0.455701 0.41678 
233.751 439.269 -98.7525 -0.786531 -0.455701 0.41678 
271.082 434.074 -33.8662 -0.786531 -0.455701 0.41678 
544.263 124.46 143.875 -0.786531 -0.455701 0.41678 
554.309 102.871 139.248 -0.786531 -0.455701 0.41678 
340.927 340.508 -4.18171 -0.786531 -0.455701 0.41678 
450.553 232.391 84.7873 -0.786531 -0.455701 0.41678 
500.071 149.712 87.9551 -0.786531 -0.455701 0.41678 
609.844 49.829 186.209 -0.786531 -0.455701 0.41678 
829.677 -141.926 392.023 -0.786531 -0.455701 0.41678 
714.783 -2.7009 327.124 -0.786531 -0.455701 0.41678 
687.007 55.4344 338.209 -0.786531 -0.455701 0.41678 
763.01 -53.6831 362.524 -0.786531 -0.455701 0.41678 
689.312 37.2006 322.621 -0.786531 -0.455701 0.41678 
727.365 -44.6301 305.045 -0.786531 -0.455701 0.41678 
645.865 49.3739 253.806 -0.786531 -0.455701 0.41678 
652.577 88.305 309.08 -0.786531 -0.455701 0.41678 
210.868 526.724 -46.3464 -0.786531 -0.455701 0.41678 
449.973 276.813 132.284 -0.786531 -0.455701 0.41678 
603.24 107.361 236.658 -0.786531 -0.455701 0.41678 
310.938 406.196 10.9816 -0.786531 -0.455701 0.41678 
210.158 521.086 -53.8574 -0.786531 -0.455701 0.41678 
549.838 156.504 189.464 -0.786531 -0.455701 0.41678 
539.032 155.763 168.227 -0.786531 -0.455701 0.41678 
760.535 -93.0201 314.815 -0.786531 -0.455701 0.41678 
369.033 361.124 71.5011 -0.786531 -0.455701 0.41678 
198.631 537.84 -57.3211 -0.786531 -0.455701 0.41678 
616.189 97.808 250.688 -0.786531 -0.455701 0.41678 
803.593 -100.037 388.536 -0.786531 -0.455701 0.41678 
721.263 -31.9449 307.385 -0.786531 -0.455701 0.41678 
246.821 480.142 -29.3369 -0.786531 -0.455701 0.41678 
742.182 -69.0356 306.357 -0.786531 -0.455701 0.41678 
543.266 162.724 183.845 -0.786531 -0.455701 0.41678 
404.855 307.704 80.7849 -0.786531 -0.455701 0.41678 
568.132 116.678 180.483 -0.786531 -0.455701 0.41678 
179.914 557.058 -71.6799 -0.786531 -0.455701 0.41678 
643.135 126.144 293.1 0.0181537 0.654929 0.755472 
696.882 70.143 340.453 0.0181537 0.654929 0.755472 
642.346 110.172 307.017 0.0181537 0.654929 0.755472 
645.676 121.099 297.425 0.0181537 0.654929 0.755472 
524.525 230.743 205.121 0.0181537 0.654929 0.755472 
366.234 389.488 71.0451 0.0181537 0.654929 0.755472 
384.23 378.074 80.516 0.0181537 0.654929 0.755472 
202.433 556.624 -70.1916 0.0181537 0.654929 0.755472 
208.394 548.734 -63.4791 0.0181537 0.654929 0.755472 
117.625 668.883 -119.956 -0.786531 -0.455701 0.41678 
152.334 629.383 -97.5493 -0.786531 -0.455701 0.41678 
124.358 648.218 -94.8596 -0.0181586 -0.657901 -0.752885 
653.061 124.137 347.624 -0.0181586 -0.657901 -0.752885 
213.744 560.825 -21.1052 -0.0181586 -0.657901 -0.752885 
454.515 332.167 171.695 -0.0181586 -0.657901 -0.752885 
194.873 581.305 -38.4422 -0.0181586 -0.657901 -0.752885 
365.799 429.178 89.5539 -0.0181586 -0.657901 -0.752885 
576.662 209.445 275.352 -0.0181586 -0.657901 -0.752885 
522.396 276.818 218.118 -0.0181586 -0.657901 -0.752885 
657 143.783 330.431 -0.0181586 -0.657901 -0.752885 
618.877 162.854 326.922 -0.786531 -0.455701 0.41678 
535.564 255.455 270.72 -0.786531 -0.455701 0.41678 
595.794 182.424 304.692 -0.786531 -0.455701 0.41678 
332.069 463.856 113.999 -0.786531 -0.455701 0.41678 
598.466 196.186 324.796 -0.786531 -0.455701 0.41678 
329.842 449.345 93.9177 -0.786531 -0.455701 0.41678 
414.725 358.774 155.306 -0.786531 -0.455701 0.41678 
247.554 533.178 30.0641 -0.786531 -0.455701 0.41678 
261.376 549.864 74.4449 -0.786531 -0.455701 0.41678 
193.565 622.882 26.1275 -0.786531 -0.455701 0.41678 
683.62 95.531 375.667 -0.786531 -0.455701 0.41678 
225.189 595.669 56.1426 -0.786531 -0.455701 0.41678 
648.565 143.753 362.149 -0.786531 -0.455701 0.41678 
107.887 705.573 -45.3839 -0.786531 -0.455701 0.41678 
211.731 607.131 43.2386 -0.786531 -0.455701 0.41678 
384.583 389.817 132.283 -0.786531 -0.455701 0.41678 
562.016 217.657 279.379 -0.786531 -0.455701 0.41678 
227.481 540.761 0.41161 -0.786531 -0.455701 0.41678 
174.802 619.501 -13.0411 -0.786531 -0.455701 0.41678 
744.275 64.9803 456.91 -0.786531 -0.455701 0.41678 
462.696 363.518 251.179 -0.786531 -0.455701 0.41678 
432.545 389.941 223.085 -0.786531 -0.455701 0.41678 
531.519 281.386 291.439 -0.786531 -0.455701 0.41678 
732.06 79.2273 449.404 -0.786531 -0.455701 0.41678 
804.068 -10.8127 487.035 -0.786531 -0.455701 0.41678 
346.346 487.074 166.389 -0.786531 -0.455701 0.41678 
520.627 289.835 280.092 -0.786531 -0.455701 0.41678 
458.846 375.276 256.762 -0.786531 -0.455701 0.41678 
195.304 630.193 37.4134 -0.786531 -0.455701 0.41678 
315.154 512.586 135.328 -0.786531 -0.455701 0.41678 
711.503 130.252 466.357 -0.786531 -0.455701 0.41678 
184.25 647.975 35.9691 -0.786531 -0.455701 0.41678 
778.624 56.95 513.06 -0.786531 -0.455701 0.41678 
549.515 291.292 336.295 -0.786531 -0.455701 0.41678 
549.018 272.282 314.561 -0.786531 -0.455701 0.41678 
576.854 228.885 319.71 -0.786531 -0.455701 0.41678 
828.025 11.8039 557.061 -0.786531 -0.455701 0.41678 
785.277 3.48404 467.15 -0.786531 -0.455701 0.41678 
782.708 86.6297 509.525 0.0181537 0.654929 0.755472 
767.367 93.5683 503.879 0.0181537 0.654929 0.755472 
712.852 156.863 450.201 0.0181537 0.654929 0.755472 
629.818 224.565 393.416 0.0181537 0.654929 0.755472 
486.801 362.174 277.339 0.0181537 0.654929 0.755472 
407.8 446.698 205.815 0.0181537 0.654929 0.755472 
328.613 517.381 146.338 0.0181537 0.654929 0.755472 
363.13 498.588 161.808 0.0181537 0.654929 0.755472 
345.829 513.75 149.058 0.0181537 0.654929 0.755472 
144.793 720.953 -11.6389 -0.786531 -0.455701 0.41678 
148.568 723.313 24.792 -0.0181586 -0.657901 -0.752885 
798.057 99.5396 550.931 -0.0181586 -0.657901 -0.752885 
392.326 479.756 230.478 -0.0181586 -0.657901 -0.752885 
572.327 300.09 382.203 -0.0181586 -0.657901 -0.752885 
302.016 570.145 154.14 -0.0181586 -0.657901 -0.752885 
657.751 215.802 453.358 -0.0181586 -0.657901 -0.752885 
103.122 755.131 -1.73158 -0.0181586 -0.657901 -0.752885 
430.145 457.592 248.797 -0.0181586 -0.657901 -0.752885 
529.273 361.196 330.137 -0.0181586 -0.657901 -0.752885 
716.114 180.982 482.163 -0.0181586 -0.657901 -0.752885 
654.627 242.442 430.259 -0.0181586 -0.657901 -0.752885 
275.352 618.163 175.574 -0.786531 -0.455701 0.41678 
404.586 478.519 267.125 -0.786531 -0.455701 0.41678 
746.416 137.496 540.281 -0.786531 -0.455701 0.41678 
172.16 718.393 90.1427 -0.786531 -0.455701 0.41678 
245.599 656.649 161.43 -0.786531 -0.455701 0.41678 
138.794 813.885 131.523 -0.786531 -0.455701 0.41678 
432.55 483.166 325.071 -0.786531 -0.455701 0.41678 
135.719 765.573 72.8627 -0.786531 -0.455701 0.41678 
475.517 435.951 354.647 -0.786531 -0.455701 0.41678 
250.792 660.816 175.805 -0.786531 -0.455701 0.41678 
221.377 702.871 166.202 -0.786531 -0.455701 0.41678 
494.364 381.526 330.742 -0.786531 -0.455701 0.41678 
122.063 827.909 115.235 -0.786531 -0.455701 0.41678 
491.088 412.525 358.458 -0.786531 -0.455701 0.41678 
358.049 519.869 224.382 -0.786531 -0.455701 0.41678 
286.555 596.432 172.982 -0.786531 -0.455701 0.41678 
129.571 813.354 113.506 -0.786531 -0.455701 0.41678 
189.583 742.979 149.972 -0.786531 -0.455701 0.41678 
185.981 760.014 161.796 -0.786531 -0.455701 0.41678 
142.063 770.544 90.2934 -0.786531 -0.455701 0.41678 
436.997 464.372 312.92 -0.786531 -0.455701 0.41678 
167.463 692.968 53.4496 -0.786531 -0.455701 0.41678 
545.495 360.562 404.467 -0.786531 -0.455701 0.41678 
151.375 786.425 125.269 -0.786531 -0.455701 0.41678 
764.637 111.769 546.583 -0.786531 -0.455701 0.41678 
655.015 216.827 454.275 -0.786531 -0.455701 0.41678 
225.38 651.954 118.07 -0.786531 -0.455701 0.41678 
635.811 251.621 456.033 -0.786531 -0.455701 0.41678 
782.205 186.981 662.067 -0.786531 -0.455701 0.41678 
590.676 322.35 448.077 -0.786531 -0.455701 0.41678 
694.136 232.671 545.56 -0.786531 -0.455701 0.41678 
706.577 201.115 534.561 -0.786531 -0.455701 0.41678 
334.813 601.443 269.69 -0.786531 -0.455701 0.41678 
744.546 163.486 565.174 -0.786531 -0.455701 0.41678 
741.897 187.034 585.925 -0.786531 -0.455701 0.41678 
538.935 425.599 463.209 -0.786531 -0.455701 0.41678 
788.028 129.252 609.925 -0.786531 -0.455701 0.41678 
596.378 313.237 448.889 -0.786531 -0.455701 0.41678 
738.474 152.699 541.898 -0.786531 -0.455701 0.41678 
280.702 675.211 248.093 -0.786531 -0.455701 0.41678 
384.047 558.678 315.982 -0.786531 -0.455701 0.41678 
650.638 259.529 492.711 -0.786531 -0.455701 0.41678 
421.585 528.265 353.675 -0.786531 -0.455701 0.41678 
835.618 111.883 680.89 -0.786531 -0.455701 0.41678 
622.217 309.816 493.992 -0.786531 -0.455701 0.41678 
762.606 136.745 570.065 -0.786531 -0.455701 0.41678 
469.497 488.8 401.079 -0.786531 -0.455701 0.41678 
531.344 401.052 422.008 -0.786531 -0.455701 0.41678 
548.867 394.571 448.043 -0.786531 -0.455701 0.41678 
745.296 204.987 611.99 -0.786531 -0.455701 0.41678 
566.13 373.213 457.315 -0.786531 -0.455701 0.41678 
735.896 200.144 588.923 -0.786531 -0.455701 0.41678 
765.683 122.503 560.303 -0.786531 -0.455701 0.41678 
780.679 133.085 600.227 -0.786531 -0.455701 0.41678 
586.618 374.35 497.289 -0.786531 -0.455701 0.41678 
685.184 282.906 583.589 -0.786531 -0.455701 0.41678 
823.809 201.699 656.939 0.0181537 0.654929 0.755472 
818.019 198.92 659.505 0.0181537 0.654929 0.755472 
884.902 187.462 667.766 0.0181537 0.654929 0.755472 
840.294 268.116 598.732 0.0181537 0.654929 0.755472 
813.121 239.415 624.397 0.0181537 0.654929 0.755472 
679.445 444.089 449.731 0.0181537 0.654929 0.755472 
572.581 512.308 393.104 0.0181537 0.654929 0.755472 
577.407 487.043 414.964 0.0181537 0.654929 0.755472 
522.458 535.502 374.204 0.0181537 0.654929 0.755472 
501.102 545.196 366.315 0.0181537 0.654929 0.755472 
504.746 492.901 411.722 0.0181537 0.654929 0.755472 
458.339 550.603 362.702 0.0181537 0.654929 0.755472 
267.117 822.746 130.803 0.0181537 0.654929 0.755472 
260.793 850.517 106.802 0.0181537 0.654929 0.755472 
298.528 823.334 129.49 0.0181537 0.654929 0.755472 
465.934 656.015 270.794 0.0181537 0.654929 0.755472 
756.793 390.163 494.675 0.0181537 0.654929 0.755472 
826.062 320.746 553.304 0.0181537 0.654929 0.755472 
536.621 597.869 319.579 0.0181537 0.654929 0.755472 
778.85 366.07 515.074 0.0181537 0.654929 0.755472 
208.316 857.392 102.16 0.0181537 0.654929 0.755472 
204.762 844.095 113.821 0.0181537 0.654929 0.755472 
220.356 794.845 156.273 0.0181537 0.654929 0.755472 
150.204 864.885 97.1243 0.0181537 0.654929 0.755472 
441.788 535.498 376.267 0.0181537 0.654929 0.755472 
331.341 633.218 294.064 0.0181537 0.654929 0.755472 
382.669 588.355 331.788 0.0181537 0.654929 0.755472 
354.422 612.434 311.559 0.0181537 0.654929 0.755472 
446.678 539.734 372.456 0.0181537 0.654929 0.755472 
743.662 246.418 620.077 0.0181537 0.654929 0.755472 
708.086 285.859 586.669 0.0181537 0.654929 0.755472 
759.202 346.1 446.733 0.786531 0.455701 -0.41678 
645.494 478.969 377.124 0.786531 0.455701 -0.41678 
731.266 382.013 433.209 0.786531 0.455701 -0.41678 
928.904 170.501 575.453 0.786531 0.455701 -0.41678 
736.785 372.518 433.255 0.786531 0.455701 -0.41678 
910.03 202.788 575.092 0.786531 0.455701 -0.41678 
399.152 737.357 194.085 0.786531 0.455701 -0.41678 
515.665 622.977 289.222 0.786531 0.455701 -0.41678 
872.012 267.254 573.742 0.786531 0.455701 -0.41678 
789.482 356.687 515.558 0.786531 0.455701 -0.41678 
310.019 823.388 119.696 0.786531 0.455701 -0.41678 
776.569 347.131 480.692 0.786531 0.455701 -0.41678 
749.284 368.757 452.77 0.786531 0.455701 -0.41678 
637.024 493.058 376.523 0.786531 0.455701 -0.41678 
834.463 308.987 548.411 0.786531 0.455701 -0.41678 
649.233 489.533 395.748 0.786531 0.455701 -0.41678 
851.268 252.406 518.286 0.786531 0.455701 -0.41678 
836.77 310.088 553.975 0.786531 0.455701 -0.41678 
622.433 516.282 374.345 0.786531 0.455701 -0.41678 
729.491 352.539 397.613 0.786531 0.455701 -0.41678 
232.813 873.391 28.4433 0.786531 0.455701 -0.41678 
423.604 663.053 159.028 0.786531 0.455701 -0.41678 
271.746 832.408 57.2118 0.786531 0.455701 -0.41678 
496.491 589.563 216.426 0.786531 0.455701 -0.41678 
391.389 714.313 154.203 0.786531 0.455701 -0.41678 
715.275 369.381 389.162 0.786531 0.455701 -0.41678 
367.517 743.485 140.986 0.786531 0.455701 -0.41678 
514.168 597.093 258.079 0.786531 0.455701 -0.41678 
281.401 846.025 90.3577 0.786531 0.455701 -0.41678 
477.747 619.864 214.136 0.786531 0.455701 -0.41678 
363.017 761.995 152.726 0.786531 0.455701 -0.41678 
620.355 460.969 309.912 0.786531 0.455701 -0.41678 
358.909 762.251 145.242 0.786531 0.455701 -0.41678 
370.892 720.936 122.7 0.786531 0.455701 -0.41678 
540.322 541.349 246.542 0.786531 0.455701 -0.41678 
556.94 528.797 264.229 0.786531 0.455701 -0.41678 
864.266 221.433 508.976 0.786531 0.455701 -0.41678 
701.283 392.019 387.474 0.786531 0.455701 -0.41678 
246.348 734.969 75.1281 -0.0181586 -0.657901 -0.752885 
233.104 787.721 29.5687 -0.0181586 -0.657901 -0.752885 
189.987 826.368 -2.95527 -0.0181586 -0.657901 -0.752885 
159.676 810.191 11.8936 -0.0181586 -0.657901 -0.752885 
509.201 450.86 315.61 -0.0181586 -0.657901 -0.752885 
514.197 449.459 316.701 -0.0181586 -0.657901 -0.752885 
509.889 511.197 263.095 -0.0181586 -0.657901 -0.752885 
553.633 464.076 302.976 -0.0181586 -0.657901 -0.752885 
801.508 172.883 550.003 -0.0181586 -0.657901 -0.752885 
818.388 166.112 555.463 -0.0181586 -0.657901 -0.752885 
909.982 130.708 583.928 -0.0181586 -0.657901 -0.752885 
889.374 143.318 573.483 -0.0181586 -0.657901 -0.752885 
881.492 157.303 561.517 -0.0181586 -0.657901 -0.752885 
418.626 652.143 142.793 -0.0181586 -0.657901 -0.752885 
486.365 572.294 210.538 -0.0181586 -0.657901 -0.752885 
300.972 758.096 53.6113 -0.0181586 -0.657901 -0.752885 
614.519 459.641 305.281 -0.0181586 -0.657901 -0.752885 
390.768 664.655 132.618 -0.0181586 -0.657901 -0.752885 
315.867 729.017 78.5317 -0.0181586 -0.657901 -0.752885 
666.236 392.64 362.255 -0.0181586 -0.657901 -0.752885 
737.105 326.693 417.824 -0.0181586 -0.657901 -0.752885 
807.796 261.422 472.808 -0.0181586 -0.657901 -0.752885 
144.412 657.428 -134.694 0.786531 0.455701 -0.41678 
132.807 703.645 -106.076 0.786531 0.455701 -0.41678 
162.354 632.178 -128.398 0.786531 0.455701 -0.41678 
136.834 743.405 -54.9705 0.786531 0.455701 -0.41678 
133.946 740.311 -63.8157 0.786531 0.455701 -0.41678 
156.954 783.67 27.1071 0.786531 0.455701 -0.41678 
160.678 756.155 4.04833 0.786531 0.455701 -0.41678 
154.344 772.669 10.1409 0.786531 0.455701 -0.41678 
168.013 725.79 -15.2988 0.786531 0.455701 -0.41678 
206.848 632.073 -44.4009 0.786531 0.455701 -0.41678 
160.839 655.16 -154.862 0.0181537 0.654929 0.755472 
239.577 645.107 -148.125 0.0181537 0.654929 0.755472 
178.454 623.27 -127.565 0.0181537 0.654929 0.755472 
485.613 341.986 109.327 0.0181537 0.654929 0.755472 
539.567 346.759 103.796 0.0181537 0.654929 0.755472 
574.135 292.273 150.32 0.0181537 0.654929 0.755472 
548.198 271.667 168.91 0.0181537 0.654929 0.755472 
839.096 -29.1914 423.249 0.0181537 0.654929 0.755472 
817.167 -8.39828 405.717 0.0181537 0.654929 0.755472 
878.34 -44.502 435.568 0.0181537 0.654929 0.755472 
856.81 24.9336 375.705 0.0181537 0.654929 0.755472 
249.33 663.665 -164.522 0.0181537 0.654929 0.755472 
454.239 454.69 12.0685 0.0181537 0.654929 0.755472 
775.53 151.599 267.573 0.0181537 0.654929 0.755472 
219.313 694.654 -190.717 0.0181537 0.654929 0.755472 
744.074 173.795 249.064 0.0181537 0.654929 0.755472 
932.874 -2.00497 397.201 0.0181537 0.654929 0.755472 
811.127 104.172 307.928 0.0181537 0.654929 0.755472 
450.374 459.376 -13.16 0.786531 0.455701 -0.41678 
945.378 -39.5633 376.813 0.786531 0.455701 -0.41678 
886.317 -31.6593 273.81 0.786531 0.455701 -0.41678 
535.891 348.901 27.6536 0.786531 0.455701 -0.41678 
792.827 123.031 266.289 0.786531 0.455701 -0.41678 
495.969 406.756 15.4703 0.786531 0.455701 -0.41678 
446.376 468.196 -11.0714 0.786531 0.455701 -0.41678 
324.646 588.959 -109.09 0.786531 0.455701 -0.41678 
684.768 231.766 180.958 0.786531 0.455701 -0.41678 
869.012 29.5132 308.012 0.786531 0.455701 -0.41678 
802.041 117.872 278.065 0.786531 0.455701 -0.41678 
554.328 357.819 72.2619 0.786531 0.455701 -0.41678 
743.9 165.194 219.917 0.786531 0.455701 -0.41678 
555.425 332.733 46.8936 0.786531 0.455701 -0.41678 
872.05 50.1418 336.32 0.786531 0.455701 -0.41678 
897.53 -54.6692 269.837 0.786531 0.455701 -0.41678 
857.587 4.79263 259.373 0.786531 0.455701 -0.41678 
877.877 -15.4936 275.539 0.786531 0.455701 -0.41678 
874.004 15.3651 301.972 0.786531 0.455701 -0.41678 
898.887 32.1593 367.383 0.786531 0.455701 -0.41678 
341.988 561.986 -105.811 0.786531 0.455701 -0.41678 
831.647 72.1966 284.069 0.786531 0.455701 -0.41678 
682.93 209.84 153.499 0.786531 0.455701 -0.41678 
925.77 -40.4785 338.745 0.786531 0.455701 -0.41678 
648.341 235.818 116.527 0.786531 0.455701 -0.41678 
928.205 -44.07 339.42 0.786531 0.455701 -0.41678 
661.518 254.77 162.17 0.786531 0.455701 -0.41678 
636.737 251.227 111.449 0.786531 0.455701 -0.41678 
407.826 420.411 -136.216 0.786531 0.455701 -0.41678 
499.968 344.304 -45.2852 0.786531 0.455701 -0.41678 
233.938 633.79 -231.525 0.786531 0.455701 -0.41678 
415.418 414.505 -128.327 0.786531 0.455701 -0.41678 
314.827 568.078 -150.492 0.786531 0.455701 -0.41678 
318.587 511.895 -204.841 0.786531 0.455701 -0.41678 
512.956 344.102 -20.9517 0.786531 0.455701 -0.41678 
620.563 213.082 39.1464 0.786531 0.455701 -0.41678 
510.007 369.345 1.08458 0.786531 0.455701 -0.41678 
530.554 309.126 -25.9448 0.786531 0.455701 -0.41678 
321.305 544.153 -164.416 0.786531 0.455701 -0.41678 
360.738 513.913 -122.952 0.786531 0.455701 -0.41678 
262.703 600.549 -213.509 0.786531 0.455701 -0.41678 
552.988 300.62 7.15966 0.786531 0.455701 -0.41678 
687.722 172.089 121.264 0.786531 0.455701 -0.41678 
671.849 180.855 100.846 0.786531 0.455701 -0.41678 
423.455 409.287 -118.841 0.786531 0.455701 -0.41678 
444.313 439.506 -46.3544 0.786531 0.455701 -0.41678 
261.836 595.846 -220.291 0.786531 0.455701 -0.41678 
271.095 552.413 -250.297 0.786531 0.455701 -0.41678 
707.941 136.021 120.03 0.786531 0.455701 -0.41678 
397.638 464.444 -107.309 0.786531 0.455701 -0.41678 
427.381 448.373 -68.6627 0.786531 0.455701 -0.41678 
305.442 552.581 -185.185 0.786531 0.455701 -0.41678 
718.885 117.52 120.483 0.786531 0.455701 -0.41678 
521.53 329.538 -20.6772 0.786531 0.455701 -0.41678 
694.175 150.215 109.533 0.786531 0.455701 -0.41678 
222.99 541.423 -249.726 -0.0181586 -0.657901 -0.752885 
248.488 529.03 -239.595 -0.0181586 -0.657901 -0.752885 
186.656 519.298 -229.549 -0.0181586 -0.657901 -0.752885 
184.308 515.493 -226.179 -0.0181586 -0.657901 -0.752885 
494.689 255.341 -7.75477 -0.0181586 -0.657901 -0.752885 
541.565 191.392 46.6875 -0.0181586 -0.657901 -0.752885 
483.413 222.427 21.1703 -0.0181586 -0.657901 -0.752885 
810.419 -73.3769 270.189 -0.0181586 -0.657901 -0.752885 
850.723 -85.2387 279.48 -0.0181586 -0.657901 -0.752885 
871.869 -112.113 302.323 -0.0181586 -0.657901 -0.752885 
868.396 -93.8922 286.558 -0.0181586 -0.657901 -0.752885 
893.678 -134.113 320.908 -0.0181586 -0.657901 -0.752885 
561.303 254.909 -9.08015 -0.0181586 -0.657901 -0.752885 
414.474 392.913 -125.403 -0.0181586 -0.657901 -0.752885 
805.886 22.9915 186.459 -0.0181586 -0.657901 -0.752885 
297.778 508.809 -223.26 -0.0181586 -0.657901 -0.752885 
753.393 65.1222 151.142 -0.0181586 -0.657901 -0.752885 
496.608 300.838 -47.3895 -0.0181586 -0.657901 -0.752885 
718.45 94.5575 126.423 -0.0181586 -0.657901 -0.752885 
792.445 11.8385 196.505 -0.0181586 -0.657901 -0.752885 
894.015 -73.68 268.318 -0.0181586 -0.657901 -0.752885 
194.949 394.727 -326.521 0.786531 0.455701 -0.41678 
198.377 434.583 -276.443 0.786531 0.455701 -0.41678 
156.232 498.785 -285.883 0.786531 0.455701 -0.41678 
148.906 539.517 -255.177 0.786531 0.455701 -0.41678 
182.933 419.676 -321.944 0.786531 0.455701 -0.41678 
210.211 457.547 -228.952 0.786531 0.455701 -0.41678 
173.723 374.979 -388.249 0.786531 0.455701 -0.41678 
187.99 369.588 -367.175 0.786531 0.455701 -0.41678 
130.846 467.068 -368.569 0.786531 0.455701 -0.41678 
134.879 495.452 -329.896 0.786531 0.455701 -0.41678 
167.473 415.714 -355.503 0.786531 0.455701 -0.41678 
481.752 183.756 -15.1268 0.786531 0.455701 -0.41678 
500.615 164.985 -0.00257492 0.786531 0.455701 -0.41678 
500.44 171.75 7.06694 0.786531 0.455701 -0.41678 
519.551 82.1372 -54.8312 0.786531 0.455701 -0.41678 
470.897 221.169 5.27825 0.786531 0.455701 -0.41678 
486.895 162.036 -29.1647 0.786531 0.455701 -0.41678 
506.335 54.8443 -109.67 0.786531 0.455701 -0.41678 
474.571 114.263 -104.719 0.786531 0.455701 -0.41678 
475.579 86.3421 -133.354 0.786531 0.455701 -0.41678 
481.834 126.281 -77.8432 0.786531 0.455701 -0.41678 
487.568 105.789 -89.4192 0.786531 0.455701 -0.41678 
844.801 -184.914 267.899 0.786531 0.455701 -0.41678 
851.684 -148.096 321.184 0.786531 0.455701 -0.41678 
852.892 -272.895 186.954 0.786531 0.455701 -0.41678 
834.956 -149.167 288.391 0.786531 0.455701 -0.41678 
857.297 -267.359 201.337 0.786531 0.455701 -0.41678 
799.86 -213.225 151.973 0.786531 0.455701 -0.41678 
792.479 -140.725 217.326 0.786531 0.455701 -0.41678 
803.26 -230.117 139.924 0.786531 0.455701 -0.41678 
794.032 -218.865 134.788 0.786531 0.455701 -0.41678 
812.28 -217.369 170.92 0.786531 0.455701 -0.41678 
792.581 90.4567 470.403 0.786531 0.455701 -0.41678 
850.01 -14.1527 464.536 0.786531 0.455701 -0.41678 
801.193 29.9107 420.454 0.786531 0.455701 -0.41678 
802.94 77.5581 475.877 0.786531 0.455701 -0.41678 
815.575 6.52322 422.058 0.786531 0.455701 -0.41678 
858.634 -37.0019 455.845 0.786531 0.455701 -0.41678 
861.72 -23.0421 476.95 0.786531 0.455701 -0.41678 
845.125 27.8139 501.208 0.786531 0.455701 -0.41678 
869.041 79.907 603.402 0.786531 0.455701 -0.41678 
855.905 84.0446 583.095 0.786531 0.455701 -0.41678 
845.768 115.243 598.061 0.786531 0.455701 -0.41678 
849.207 30.0155 564.179 -0.786531 -0.455701 0.41678 
769.033 105.442 495.126 -0.786531 -0.455701 0.41678 
832.739 -51.9033 443.438 -0.786531 -0.455701 0.41678 
772.755 17.2405 405.68 -0.786531 -0.455701 0.41678 
820.32 -145.501 317.58 -0.786531 -0.455701 0.41678 
798.371 -136.248 286.209 -0.786531 -0.455701 0.41678 
784.874 -200.859 190.018 -0.786531 -0.455701 0.41678 
791.626 -221.145 180.591 -0.786531 -0.455701 0.41678 
806.97 187.53 540.343 -0.618984 0.602118 -0.504295 
807.853 202.614 557.145 -0.618984 0.602118 -0.504295 
805.354 211.265 570.432 -0.618984 0.602118 -0.504295 
832.238 -31.1189 250.555 -0.618984 0.602118 -0.504295 
817.716 15.8894 323.898 -0.618984 0.602118 -0.504295 
782.146 9.06522 359.018 -0.618984 0.602118 -0.504295 
723.956 -136.478 145.284 0.786531 0.455701 -0.41678 
580.965 11.045 36.3467 0.786531 0.455701 -0.41678 
609.149 -7.06686 69.8132 0.786531 0.455701 -0.41678 
700.271 -99.4925 140.968 0.786531 0.455701 -0.41678 
529.877 111.287 49.4222 0.786531 0.455701 -0.41678 
605.832 1.88297 73.3333 0.786531 0.455701 -0.41678 
733.251 -133.18 166.462 0.786531 0.455701 -0.41678 
587.854 46.7771 88.4564 0.786531 0.455701 -0.41678 
722.286 -112.609 168.237 0.786531 0.455701 -0.41678 
564.624 76.4967 77.0517 0.786531 0.455701 -0.41678 
654.26 -39.6948 119.401 0.786531 0.455701 -0.41678 
757.516 -110.423 237.227 0.786531 0.455701 -0.41678 
542.402 162.659 129.294 0.786531 0.455701 -0.41678 
746.949 -65.8781 265.977 0.786531 0.455701 -0.41678 
543.387 190.3 161.391 0.786531 0.455701 -0.41678 
642.5 42.2849 186.844 0.786531 0.455701 -0.41678 
548.693 161.539 139.96 0.786531 0.455701 -0.41678 
607.789 120.337 206.606 0.786531 0.455701 -0.41678 
610.291 85.8472 173.608 0.786531 0.455701 -0.41678 
605.685 95.3703 175.318 0.786531 0.455701 -0.41678 
535.145 213.973 171.707 0.786531 0.455701 -0.41678 
755.969 -11.7282 342.261 0.786531 0.455701 -0.41678 
744.153 -45.52 282.961 0.786531 0.455701 -0.41678 
535.794 236.415 197.481 0.786531 0.455701 -0.41678 
731.176 -27.4821 278.159 0.786531 0.455701 -0.41678 
720.639 -15.5837 271.257 0.786531 0.455701 -0.41678 
659.291 78.3013 257.982 0.786531 0.455701 -0.41678 
698.273 67.1144 319.437 0.786531 0.455701 -0.41678 
688.927 23.2964 253.839 0.786531 0.455701 -0.41678 
575.343 279.282 319.137 0.786531 0.455701 -0.41678 
602.523 240.559 328.158 0.786531 0.455701 -0.41678 
604.802 207.395 296.188 0.786531 0.455701 -0.41678 
620.219 195.616 312.449 0.786531 0.455701 -0.41678 
636.997 187.923 335.751 0.786531 0.455701 -0.41678 
541.299 269.603 244.191 0.786531 0.455701 -0.41678 
748.621 114.478 466.424 0.786531 0.455701 -0.41678 
715.717 104.355 393.149 0.786531 0.455701 -0.41678 
700.663 133.946 397.06 0.786531 0.455701 -0.41678 
604.021 263.283 355.848 0.786531 0.455701 -0.41678 
677.89 157.588 379.871 0.786531 0.455701 -0.41678 
569.214 299.223 329.363 0.786531 0.455701 -0.41678 
661.323 264.155 465.126 0.786531 0.455701 -0.41678 
657.629 240.747 432.536 0.786531 0.455701 -0.41678 
537.49 409.152 389.642 0.786531 0.455701 -0.41678 
539.888 445.492 433.926 0.786531 0.455701 -0.41678 
559.748 390.249 411.039 0.786531 0.455701 -0.41678 
664.292 277.216 485.024 0.786531 0.455701 -0.41678 
596.628 324.639 408.988 0.786531 0.455701 -0.41678 
595.398 364.037 449.759 0.786531 0.455701 -0.41678 
536.321 448.216 430.161 0.786531 0.455701 -0.41678 
668.606 291.674 508.995 0.786531 0.455701 -0.41678 
681.469 280.384 520.961 0.786531 0.455701 -0.41678 
729.247 251.292 579.456 0.786531 0.455701 -0.41678 
689.639 296.535 554.072 0.786531 0.455701 -0.41678 
741.15 174.682 518.157 0.786531 0.455701 -0.41678 
720.606 228.705 538.416 0.786531 0.455701 -0.41678 
748.579 226.238 588.596 0.786531 0.455701 -0.41678 
744.602 238.701 594.712 0.786531 0.455701 -0.41678 
671.849 279.656 501.979 0.786531 0.455701 -0.41678 
554.441 434.027 385.778 0.615842 -0.602344 0.507859 
584.292 441.746 358.666 0.615842 -0.602344 0.507859 
513.046 358.755 288.303 -0.786531 -0.455701 0.41678 
530.604 357.123 319.711 -0.786531 -0.455701 0.41678 
495.126 282.48 170.992 -0.786531 -0.455701 0.41678 
516.773 263.291 190.924 -0.786531 -0.455701 0.41678 
482.893 190.33 47.0665 -0.786531 -0.455701 0.41678 
485.115 86.8937 -61.8774 -0.786531 -0.455701 0.41678 
474.219 81.9449 -87.8889 -0.786531 -0.455701 0.41678 
561.216 260.741 172.207 0.615842 -0.602344 0.507859 
577.978 247.096 135.677 0.615842 -0.602344 0.507859 
589.787 238.68 111.359 0.615842 -0.602344 0.507859 
463.062 444.717 235.001 0.786531 0.455701 -0.41678 
518.925 314.434 198.088 0.786531 0.455701 -0.41678 
481.658 382.047 201.601 0.786531 0.455701 -0.41678 
466.891 397.886 191.01 0.786531 0.455701 -0.41678 
474.429 381.335 187.156 0.786531 0.455701 -0.41678 
540.399 351.855 279.617 0.786531 0.455701 -0.41678 
525.307 376.062 277.567 0.786531 0.455701 -0.41678 
537.46 364.372 287.755 0.786531 0.455701 -0.41678 
538.047 276.881 193.159 0.786531 0.455701 -0.41678 
522.634 346.524 240.203 0.786531 0.455701 -0.41678 
226.105 731.896 98.5663 0.615842 -0.602344 0.507859 
243.602 795.791 153.028 0.615842 -0.602344 0.507859 
264.549 596.8 -108.218 0.615842 -0.602344 0.507859 
262.905 569.431 -138.655 0.615842 -0.602344 0.507859 
273.299 573.975 -145.896 0.615842 -0.602344 0.507859 
247.035 513.447 -185.718 0.615842 -0.602344 0.507859 
416.492 212.687 -54.0001 0.786531 0.455701 -0.41678 
254.297 378.923 -178.771 0.786531 0.455701 -0.41678 
350.342 287.817 -96.8679 0.786531 0.455701 -0.41678 
431.494 205.577 -33.418 0.786531 0.455701 -0.41678 
422.037 193.354 -64.6658 0.786531 0.455701 -0.41678 
299.278 320.699 -157.429 0.786531 0.455701 -0.41678 
365.519 222.496 -139.628 0.786531 0.455701 -0.41678 
309.686 277.427 -185.088 0.786531 0.455701 -0.41678 
267.105 329.331 -208.807 0.786531 0.455701 -0.41678 
279.735 333.285 -180.606 0.786531 0.455701 -0.41678 
210.215 391.76 -248.063 0.786531 0.455701 -0.41678 
349.419 245.293 -145.128 0.786531 0.455701 -0.41678 
346.544 372.475 -11.4425 0.786531 0.455701 -0.41678 
391.29 354.996 54.0265 0.786531 0.455701 -0.41678 
369.4 383.669 44.0082 0.786531 0.455701 -0.41678 
391.551 319.509 15.6996 0.786531 0.455701 -0.41678 
421.938 280.23 30.1782 0.786531 0.455701 -0.41678 
245.596 516.47 -44.7615 0.786531 0.455701 -0.41678 
278.219 466.331 -37.9378 0.786531 0.455701 -0.41678 
282.64 468.116 -27.6266 0.786531 0.455701 -0.41678 
364.231 350.118 -2.46254 0.786531 0.455701 -0.41678 
278.167 433.951 -73.4561 0.786531 0.455701 -0.41678 
236.497 465.684 -117.514 0.786531 0.455701 -0.41678 
225.143 503.765 -97.3228 0.786531 0.455701 -0.41678 
345.726 327.907 -61.7396 0.786531 0.455701 -0.41678 
308.698 361.891 -94.5625 0.786531 0.455701 -0.41678 
301.125 379.64 -89.4642 0.786531 0.455701 -0.41678 
337.733 356.751 -45.2974 0.786531 0.455701 -0.41678 
319.583 359.241 -76.8853 0.786531 0.455701 -0.41678 
388.611 427.554 128.33 0.786531 0.455701 -0.41678 
383.823 463.168 158.236 0.786531 0.455701 -0.41678 
404.923 433.935 166.146 0.786531 0.455701 -0.41678 
304.842 557.281 111.879 0.786531 0.455701 -0.41678 
312.408 521.913 87.4941 0.786531 0.455701 -0.41678 
402.666 411.894 137.77 0.786531 0.455701 -0.41678 
222.415 613.748 17.8281 0.786531 0.455701 -0.41678 
231.963 591.288 11.3082 0.786531 0.455701 -0.41678 
267.401 526.652 7.59649 0.786531 0.455701 -0.41678 
276.472 531.314 29.8443 0.786531 0.455701 -0.41678 
269.284 535.272 20.5846 0.786531 0.455701 -0.41678 
399.94 397.816 117.217 0.786531 0.455701 -0.41678 
330.054 614.172 221.772 0.786531 0.455701 -0.41678 
337.635 618.896 241.269 0.786531 0.455701 -0.41678 
361.836 625.466 294.204 0.786531 0.455701 -0.41678 
379.8 556.745 252.993 0.786531 0.455701 -0.41678 
393.637 582.626 307.46 0.786531 0.455701 -0.41678 
296.811 667.377 217.127 0.786531 0.455701 -0.41678 
386.617 591.043 303.397 0.786531 0.455701 -0.41678 
377.292 611.792 308.465 0.786531 0.455701 -0.41678 
439.913 523.724 330.509 0.786531 0.455701 -0.41678 
268.344 672.348 168.753 0.786531 0.455701 -0.41678 
273.954 628.572 131.472 0.786531 0.455701 -0.41678 
279.522 634.368 148.339 0.786531 0.455701 -0.41678 
429.218 468.295 249.658 0.786531 0.455701 -0.41678 
266.958 623.021 112.175 0.786531 0.455701 -0.41678 
381.234 518.53 213.9 0.786531 0.455701 -0.41678 
215.401 748.252 151.697 0.786531 0.455701 -0.41678 
285.981 615.356 139.751 0.786531 0.455701 -0.41678 
245.988 674.689 129.051 0.786531 0.455701 -0.41678 
492.659 536.889 297.11 -0.618984 0.602118 -0.504295 
477.051 562.853 346.836 -0.618984 0.602118 -0.504295 
488.869 287.072 5.68328 -0.618984 0.602118 -0.504295 
480.996 310.787 43.348 -0.618984 0.602118 -0.504295 
465.149 325.223 79.7037 -0.618984 0.602118 -0.504295 
402.465 693.111 204.794 -0.786531 -0.455701 0.41678 
365.477 707.384 150.486 -0.786531 -0.455701 0.41678 
312.08 758.56 105.525 -0.786531 -0.455701 0.41678 
320.939 758.696 122.419 -0.786531 -0.455701 0.41678 
441.304 661.827 243.996 -0.786531 -0.455701 0.41678 
405.692 704.261 223.091 -0.786531 -0.455701 0.41678 
392.838 669.234 160.477 -0.786531 -0.455701 0.41678 
375.22 670.458 128.511 -0.786531 -0.455701 0.41678 
383.645 668.018 141.769 -0.786531 -0.455701 0.41678 
368.14 685.773 131.88 -0.786531 -0.455701 0.41678 
522.539 593.27 322.567 -0.786531 -0.455701 0.41678 
478.135 608.362 255.135 -0.786531 -0.455701 0.41678 
753.895 358.631 503.255 -0.786531 -0.455701 0.41678 
683.878 406.885 423.68 -0.786531 -0.455701 0.41678 
616.818 464.223 359.631 -0.786531 -0.455701 0.41678 
629.696 470.918 391.298 -0.786531 -0.455701 0.41678 
645.529 447.01 395.077 -0.786531 -0.455701 0.41678 
656.725 452.219 421.94 -0.786531 -0.455701 0.41678 
769.447 341.478 513.892 -0.786531 -0.455701 0.41678 
720.369 356.822 437.899 -0.786531 -0.455701 0.41678 
647.26 413.714 361.927 -0.786531 -0.455701 0.41678 
675.387 390.632 389.851 -0.786531 -0.455701 0.41678 
798.259 300.21 523.216 -0.786531 -0.455701 0.41678 
782.728 286.22 478.553 -0.786531 -0.455701 0.41678 
755.404 300.872 442.927 -0.786531 -0.455701 0.41678 
699.514 189.19 215.107 -0.786531 -0.455701 0.41678 
724.944 148.786 218.982 -0.786531 -0.455701 0.41678 
652.132 185.287 121.267 -0.786531 -0.455701 0.41678 
