ply
format ascii 1.0
comment Created by CloudCompare v2.11.3 (Anoia)
comment Created 07/09/2022 23:50
obj_info Generated by CloudCompare!
element vertex 882
property float x
property float y
property float z
property float nx
property float ny
property float nz
end_header
252.5 -228.172 70.5713 -0.999999 0.000977516 0.000977516 
252.5 386.334 52.0411 -0.999999 0.000977516 0.000977516 
252.5 81.7019 70.7873 -0.999999 0.000977516 0.000977516 
252.5 82.5346 67.3045 -0.999999 0.000977516 0.000977516 
252.5 190.979 58.5778 -0.999999 0.000977516 0.000977516 
252.5 50.0517 71.4945 -0.999999 0.000977516 0.000977516 
252.5 306.119 71.6558 -0.999999 0.000977516 0.000977516 
252.5 -151.349 65.1536 -0.999999 0.000977516 0.000977516 
252.5 261.637 56.0408 -0.999999 0.000977516 0.000977516 
252.5 300.682 53.6818 -0.999999 0.000977516 0.000977516 
252.5 12.5113 70.1305 -0.999999 0.000977516 0.000977516 
252.5 376.066 54.6376 -0.999999 0.000977516 0.000977516 
252.5 550.744 65.4711 -0.999999 0.000977516 0.000977516 
252.5 331.979 59.4872 -0.999999 0.000977516 0.000977516 
252.5 286.953 68.6393 -0.999999 0.000977516 0.000977516 
252.5 251.398 68.805 -0.999999 0.000977516 0.000977516 
252.5 412.361 66.4612 -0.999999 0.000977516 0.000977516 
252.5 319.533 61.343 -0.999999 0.000977516 0.000977516 
252.5 101.071 67.9402 -0.999999 0.000977516 0.000977516 
252.5 409.821 63.8708 -0.999999 0.000977516 0.000977516 
252.5 458.988 57.188 -0.999999 0.000977516 0.000977516 
252.5 43.1477 63.6792 -0.999999 0.000977516 0.000977516 
252.5 -186.351 68.3177 -0.999999 0.000977516 0.000977516 
252.5 425.04 52.5087 -0.999999 0.000977516 0.000977516 
252.5 -253.784 70.1309 -0.999999 0.000977516 0.000977516 
252.5 35.1873 67.3063 -0.999999 0.000977516 0.000977516 
252.5 512.937 65.3765 -0.999999 0.000977516 0.000977516 
252.5 -340.45 66.7923 -0.999999 0.000977516 0.000977516 
252.5 239.917 55.8686 -0.999999 0.000977516 0.000977516 
252.5 160.147 57.5064 -0.999999 0.000977516 0.000977516 
252.5 -342.946 70.2016 -0.999999 0.000977516 0.000977516 
252.5 220.241 69.6139 -0.999999 0.000977516 0.000977516 
252.5 490.613 66.1668 -0.999999 0.000977516 0.000977516 
252.5 -219.165 71.6753 -0.999999 0.000977516 0.000977516 
252.5 274.639 62.3281 -0.999999 0.000977516 0.000977516 
252.5 -475.686 71.6506 -0.999999 0.000977516 0.000977516 
252.5 354.462 56.9992 -0.999999 0.000977516 0.000977516 
252.5 201.086 64.2826 -0.999999 0.000977516 0.000977516 
252.5 341.302 53.3791 -0.999999 0.000977516 0.000977516 
252.5 383.435 52.4342 -0.999999 0.000977516 0.000977516 
252.5 384.337 65.383 -0.999999 0.000977516 0.000977516 
252.5 -145.685 58.2579 -0.999999 0.000977516 0.000977516 
252.5 -304.003 64.6043 -0.999999 0.000977516 0.000977516 
252.5 -363.468 65.8636 -0.999999 0.000977516 0.000977516 
252.5 134.387 50.6185 -0.999999 0.000977516 0.000977516 
252.5 -386.878 66.1529 -0.999999 0.000977516 0.000977516 
252.5 316.91 52.5291 -0.999999 0.000977516 0.000977516 
252.5 180.913 54.1436 -0.999999 0.000977516 0.000977516 
252.5 -271.76 63.7604 -0.999999 0.000977516 0.000977516 
252.5 49.4122 55.4051 -0.999999 0.000977516 0.000977516 
252.5 -338.047 64.205 -0.999999 0.000977516 0.000977516 
252.5 -147.76 61.5137 -0.999999 0.000977516 0.000977516 
252.5 -254.831 61.1255 -0.999999 0.000977516 0.000977516 
252.5 298.165 52.7065 -0.999999 0.000977516 0.000977516 
252.5 -171.489 57.8103 -0.999999 0.000977516 0.000977516 
252.5 14.3237 51.7064 -0.999999 0.000977516 0.000977516 
252.5 -215.852 56.4683 -0.999999 0.000977516 0.000977516 
252.5 -94.2413 55.1194 -0.999999 0.000977516 0.000977516 
252.5 -160.338 56.1938 -0.999999 0.000977516 0.000977516 
252.5 -401.293 51.095 -0.999999 0.000977516 0.000977516 
252.5 -447.949 52.2678 -0.999999 0.000977516 0.000977516 
252.5 -479.253 54.9242 -0.999999 0.000977516 0.000977516 
252.5 -159.429 51.0652 -0.999999 0.000977516 0.000977516 
252.5 -573.182 70.3688 -0.999999 0.000977516 0.000977516 
252.5 -392.275 57.6067 -0.999999 0.000977516 0.000977516 
252.5 -232.301 53.73 -0.999999 0.000977516 0.000977516 
252.5 -275.59 52.9964 -0.999999 0.000977516 0.000977516 
252.5 -335.365 50.3793 -0.999999 0.000977516 0.000977516 
252.5 -134.335 51.5949 -0.999999 0.000977516 0.000977516 
252.5 -258.814 50.8973 -0.999999 0.000977516 0.000977516 
252.5 -189.517 53.1314 -0.999999 0.000977516 0.000977516 
252.5 -266.699 50.2443 -0.999999 0.000977516 0.000977516 
298.574 239.199 72 0.000977516 0.000977516 0.999999 
269.65 -298.52 72 0.000977516 0.000977516 0.999999 
353.982 374.419 72 0.000977516 0.000977516 0.999999 
310.189 527.434 72 0.000977516 0.000977516 0.999999 
289.715 -246.501 72 0.000977516 0.000977516 0.999999 
282.892 376.39 72 0.000977516 0.000977516 0.999999 
297.989 -80.1348 72 0.000977516 0.000977516 0.999999 
293.898 457.676 72 0.000977516 0.000977516 0.999999 
310.497 422.842 72 0.000977516 0.000977516 0.999999 
311.699 195.731 72 0.000977516 0.000977516 0.999999 
279.281 59.8148 72 0.000977516 0.000977516 0.999999 
264.626 121.9 72 0.000977516 0.000977516 0.999999 
259.59 358.053 72 0.000977516 0.000977516 0.999999 
301.262 337.082 72 0.000977516 0.000977516 0.999999 
264.912 448.676 72 0.000977516 0.000977516 0.999999 
274.789 112.824 72 0.000977516 0.000977516 0.999999 
303.69 259.937 72 0.000977516 0.000977516 0.999999 
300.84 256.762 72 0.000977516 0.000977516 0.999999 
313.62 350.837 72 0.000977516 0.000977516 0.999999 
274.583 134.035 72 0.000977516 0.000977516 0.999999 
360.203 480.783 72 0.000977516 0.000977516 0.999999 
303.513 119.148 72 0.000977516 0.000977516 0.999999 
333.639 210.298 72 0.000977516 0.000977516 0.999999 
275.648 208.926 72 0.000977516 0.000977516 0.999999 
318.474 378.528 72 0.000977516 0.000977516 0.999999 
330.631 364.602 72 0.000977516 0.000977516 0.999999 
302.144 420.869 72 0.000977516 0.000977516 0.999999 
313.147 -74.0283 72 0.000977516 0.000977516 0.999999 
256.592 153.887 72 0.000977516 0.000977516 0.999999 
325.353 132.429 72 0.000977516 0.000977516 0.999999 
254.402 25.2269 72 0.000977516 0.000977516 0.999999 
296.442 159.745 72 0.000977516 0.000977516 0.999999 
278.36 -131.742 72 0.000977516 0.000977516 0.999999 
257.684 139.547 72 0.000977516 0.000977516 0.999999 
340.172 212.316 72 0.000977516 0.000977516 0.999999 
296.486 -114.723 72 0.000977516 0.000977516 0.999999 
276.258 569.98 72 0.000977516 0.000977516 0.999999 
272.336 278.649 72 0.000977516 0.000977516 0.999999 
257.826 262.807 72 0.000977516 0.000977516 0.999999 
262.58 -501.897 72 0.000977516 0.000977516 0.999999 
341.263 298.307 72 0.000977516 0.000977516 0.999999 
263.673 182.89 72 0.000977516 0.000977516 0.999999 
318.572 160.417 72 0.000977516 0.000977516 0.999999 
317.563 537.077 72 0.000977516 0.000977516 0.999999 
354.048 375.731 72 0.000977516 0.000977516 0.999999 
276.169 250.538 72 0.000977516 0.000977516 0.999999 
279.84 -304.882 72 0.000977516 0.000977516 0.999999 
317.595 344.476 72 0.000977516 0.000977516 0.999999 
303.142 583.125 72 0.000977516 0.000977516 0.999999 
270.175 187.934 72 0.000977516 0.000977516 0.999999 
271.584 211.911 72 0.000977516 0.000977516 0.999999 
288.982 -279.898 72 0.000977516 0.000977516 0.999999 
318.936 -23.8857 72 0.000977516 0.000977516 0.999999 
343.134 512.688 72 0.000977516 0.000977516 0.999999 
363.423 447.196 72 0.000977516 0.000977516 0.999999 
349.659 519.296 72 0.000977516 0.000977516 0.999999 
359.795 583.591 72 0.000977516 0.000977516 0.999999 
252.694 -7.31 72 0.000977516 0.000977516 0.999999 
291.253 69.8374 72 0.000977516 0.000977516 0.999999 
269.049 482.091 72 0.000977516 0.000977516 0.999999 
253.09 -76.2646 72 0.000977516 0.000977516 0.999999 
257.546 284.799 72 0.000977516 0.000977516 0.999999 
253.718 -95.4957 72 0.000977516 0.000977516 0.999999 
256.979 -331.425 72 0.000977516 0.000977516 0.999999 
290.533 149.824 72 0.000977516 0.000977516 0.999999 
278.869 -1.54309 72 0.000977516 0.000977516 0.999999 
256.397 -119.806 72 0.000977516 0.000977516 0.999999 
349.77 351.229 72 0.000977516 0.000977516 0.999999 
272.448 -351.729 72 0.000977516 0.000977516 0.999999 
316.204 330.951 72 0.000977516 0.000977516 0.999999 
279.955 588.341 72 0.000977516 0.000977516 0.999999 
304.908 343.797 72 0.000977516 0.000977516 0.999999 
262.27 412.292 72 0.000977516 0.000977516 0.999999 
300.014 108.516 72 0.000977516 0.000977516 0.999999 
268.395 325.226 72 0.000977516 0.000977516 0.999999 
278.366 223.112 72 0.000977516 0.000977516 0.999999 
280.982 338.114 72 0.000977516 0.000977516 0.999999 
305.778 476.402 72 0.000977516 0.000977516 0.999999 
339.83 465.191 72 0.000977516 0.000977516 0.999999 
387.676 598.892 72 0.000977516 0.000977516 0.999999 
323.631 384.83 72 0.000977516 0.000977516 0.999999 
282.811 -184.447 72 0.000977516 0.000977516 0.999999 
364.182 439.52 72 0.000977516 0.000977516 0.999999 
330.664 531.875 72 0.000977516 0.000977516 0.999999 
305.743 331.63 72 0.000977516 0.000977516 0.999999 
276.008 -88.5991 72 0.000977516 0.000977516 0.999999 
359.861 544.889 72 0.000977516 0.000977516 0.999999 
347.545 497.365 72 0.000977516 0.000977516 0.999999 
343.508 599.134 72 0.000977516 0.000977516 0.999999 
291.949 20.1501 72 0.000977516 0.000977516 0.999999 
275.242 362.022 72 0.000977516 0.000977516 0.999999 
286.119 -134.586 72 0.000977516 0.000977516 0.999999 
305.56 -15.7933 72 0.000977516 0.000977516 0.999999 
309.134 73.3025 72 0.000977516 0.000977516 0.999999 
255.666 532.601 72 0.000977516 0.000977516 0.999999 
328.216 128.056 72 0.000977516 0.000977516 0.999999 
265.036 15.1742 72 0.000977516 0.000977516 0.999999 
304.592 597.377 72 0.000977516 0.000977516 0.999999 
313.768 323.095 72 0.000977516 0.000977516 0.999999 
274.825 -259.027 72 0.000977516 0.000977516 0.999999 
315.04 144.152 72 0.000977516 0.000977516 0.999999 
291.657 58.5453 72 0.000977516 0.000977516 0.999999 
323.554 113.466 72 0.000977516 0.000977516 0.999999 
306.217 -143.603 72 0.000977516 0.000977516 0.999999 
257.829 305.422 72 0.000977516 0.000977516 0.999999 
342.486 234.729 72 0.000977516 0.000977516 0.999999 
272.846 515.797 72 0.000977516 0.000977516 0.999999 
361.985 564.175 72 0.000977516 0.000977516 0.999999 
321.471 60.7001 72 0.000977516 0.000977516 0.999999 
285 500.573 72 0.000977516 0.000977516 0.999999 
279.621 295.302 72 0.000977516 0.000977516 0.999999 
348.066 510.094 72 0.000977516 0.000977516 0.999999 
255.939 28.6119 72 0.000977516 0.000977516 0.999999 
310.154 411.676 72 0.000977516 0.000977516 0.999999 
309.116 -8.62091 72 0.000977516 0.000977516 0.999999 
277.112 67.5524 72 0.000977516 0.000977516 0.999999 
356.134 304.757 72 0.000977516 0.000977516 0.999999 
281.047 521.958 72 0.000977516 0.000977516 0.999999 
278.549 6.96472 72 0.000977516 0.000977516 0.999999 
270.784 -77.8663 72 0.000977516 0.000977516 0.999999 
329.462 372.52 72 0.000977516 0.000977516 0.999999 
281.858 -93.2169 72 0.000977516 0.000977516 0.999999 
295.201 379.863 72 0.000977516 0.000977516 0.999999 
291.228 282.32 72 0.000977516 0.000977516 0.999999 
335.518 562.488 72 0.000977516 0.000977516 0.999999 
276.934 261.425 72 0.000977516 0.000977516 0.999999 
267.954 541.674 72 0.000977516 0.000977516 0.999999 
310.072 205.302 72 0.000977516 0.000977516 0.999999 
255.984 -220.051 72 0.000977516 0.000977516 0.999999 
269.258 127.991 72 0.000977516 0.000977516 0.999999 
367.205 574.52 72 0.000977516 0.000977516 0.999999 
292.492 4.31714 72 0.000977516 0.000977516 0.999999 
288.201 13.278 72 0.000977516 0.000977516 0.999999 
325.053 489.782 72 0.000977516 0.000977516 0.999999 
318.035 201.247 72 0.000977516 0.000977516 0.999999 
337.62 551.473 72 0.000977516 0.000977516 0.999999 
271.053 -25.4493 72 0.000977516 0.000977516 0.999999 
276.125 241.475 72 0.000977516 0.000977516 0.999999 
337.445 301.795 72 0.000977516 0.000977516 0.999999 
309.258 -123.1 72 0.000977516 0.000977516 0.999999 
296.883 2.29407 72 0.000977516 0.000977516 0.999999 
271.581 438.55 72 0.000977516 0.000977516 0.999999 
283.877 337.517 72 0.000977516 0.000977516 0.999999 
311.813 131.186 72 0.000977516 0.000977516 0.999999 
337.015 157.894 72 0.000977516 0.000977516 0.999999 
347.113 259.199 72 0.000977516 0.000977516 0.999999 
347.048 291.343 72 0.000977516 0.000977516 0.999999 
335.124 227.79 72 0.000977516 0.000977516 0.999999 
332.543 82.7253 72 0.000977516 0.000977516 0.999999 
371.352 461.55 72 0.000977516 0.000977516 0.999999 
300.798 -153.754 72 0.000977516 0.000977516 0.999999 
343.265 276.563 72 0.000977516 0.000977516 0.999999 
335.116 446.453 72 0.000977516 0.000977516 0.999999 
288.478 -66.4648 72 0.000977516 0.000977516 0.999999 
356.27 596.686 72 0.000977516 0.000977516 0.999999 
256.759 -249.89 72 0.000977516 0.000977516 0.999999 
295.197 -34.4051 72 0.000977516 0.000977516 0.999999 
274.598 -173.704 72 0.000977516 0.000977516 0.999999 
309.044 338.894 72 0.000977516 0.000977516 0.999999 
301.186 595.26 72 0.000977516 0.000977516 0.999999 
311.073 8.7041 72 0.000977516 0.000977516 0.999999 
262.722 193.057 72 0.000977516 0.000977516 0.999999 
323.631 81.1812 72 0.000977516 0.000977516 0.999999 
305.137 579.596 72 0.000977516 0.000977516 0.999999 
361.274 300.741 72 0.000977516 0.000977516 0.999999 
274.221 -279.986 72 0.000977516 0.000977516 0.999999 
368.067 506.565 72 0.000977516 0.000977516 0.999999 
260.661 354.388 72 0.000977516 0.000977516 0.999999 
348.772 289.965 72 0.000977516 0.000977516 0.999999 
354.039 400.395 72 0.000977516 0.000977516 0.999999 
286.564 -305.801 72 0.000977516 0.000977516 0.999999 
361.435 461.074 72 0.000977516 0.000977516 0.999999 
279.574 287.704 72 0.000977516 0.000977516 0.999999 
299.704 586.457 72 0.000977516 0.000977516 0.999999 
258.321 -22.1817 72 0.000977516 0.000977516 0.999999 
344.664 382.535 72 0.000977516 0.000977516 0.999999 
288.094 398.297 72 0.000977516 0.000977516 0.999999 
259.117 442.059 72 0.000977516 0.000977516 0.999999 
268.128 -198.053 72 0.000977516 0.000977516 0.999999 
280.736 485.401 72 0.000977516 0.000977516 0.999999 
252.879 379.663 72 0.000977516 0.000977516 0.999999 
300.083 143.606 72 0.000977516 0.000977516 0.999999 
317.896 124.641 72 0.000977516 0.000977516 0.999999 
273.955 -159.868 72 0.000977516 0.000977516 0.999999 
270.638 404.077 72 0.000977516 0.000977516 0.999999 
254.727 112.374 72 0.000977516 0.000977516 0.999999 
286.024 -64.8486 72 0.000977516 0.000977516 0.999999 
312.46 14.1207 72 0.000977516 0.000977516 0.999999 
304.075 414.633 72 0.000977516 0.000977516 0.999999 
302.143 119.754 72 0.000977516 0.000977516 0.999999 
253.485 171.751 72 0.000977516 0.000977516 0.999999 
255.111 67.9238 72 0.000977516 0.000977516 0.999999 
324.344 381.521 72 0.000977516 0.000977516 0.999999 
292.924 -97.1681 72 0.000977516 0.000977516 0.999999 
358.211 421.721 72 0.000977516 0.000977516 0.999999 
374.082 554.045 72 0.000977516 0.000977516 0.999999 
288.123 278.084 72 0.000977516 0.000977516 0.999999 
276.921 -316.77 72 0.000977516 0.000977516 0.999999 
304.909 5.83795 72 0.000977516 0.000977516 0.999999 
267.573 -74.7413 72 0.000977516 0.000977516 0.999999 
379.321 572.921 72 0.000977516 0.000977516 0.999999 
299.134 -136.081 72 0.000977516 0.000977516 0.999999 
275.36 328.786 72 0.000977516 0.000977516 0.999999 
307.431 576.848 72 0.000977516 0.000977516 0.999999 
262.352 -103.622 72 0.000977516 0.000977516 0.999999 
367.226 441.018 72 0.000977516 0.000977516 0.999999 
342.617 457.227 72 0.000977516 0.000977516 0.999999 
334.151 500.64 72 0.000977516 0.000977516 0.999999 
265.494 25.0189 72 0.000977516 0.000977516 0.999999 
297.53 131.22 72 0.000977516 0.000977516 0.999999 
252.963 283.675 72 0.000977516 0.000977516 0.999999 
287.473 -207.96 72 0.000977516 0.000977516 0.999999 
323.982 572.904 72 0.000977516 0.000977516 0.999999 
338.629 493.033 72 0.000977516 0.000977516 0.999999 
312.162 425.706 72 0.000977516 0.000977516 0.999999 
260.466 -457.572 72 0.000977516 0.000977516 0.999999 
258.893 2.83539 72 0.000977516 0.000977516 0.999999 
335.698 224.897 72 0.000977516 0.000977516 0.999999 
277.388 221.784 72 0.000977516 0.000977516 0.999999 
259.906 -317.192 72 0.000977516 0.000977516 0.999999 
305.487 282.706 72 0.000977516 0.000977516 0.999999 
320.994 598.535 72 0.000977516 0.000977516 0.999999 
264.653 141.663 72 0.000977516 0.000977516 0.999999 
277.327 363.303 72 0.000977516 0.000977516 0.999999 
307.597 435.241 72 0.000977516 0.000977516 0.999999 
356.991 432.317 72 0.000977516 0.000977516 0.999999 
361.528 352.25 72 0.000977516 0.000977516 0.999999 
293.531 200.899 72 0.000977516 0.000977516 0.999999 
276.437 151.57 72 0.000977516 0.000977516 0.999999 
302.83 -81.9893 72 0.000977516 0.000977516 0.999999 
314.901 562.809 72 0.000977516 0.000977516 0.999999 
256.912 501.178 72 0.000977516 0.000977516 0.999999 
324.659 481.025 72 0.000977516 0.000977516 0.999999 
392.459 572.992 72 0.000977516 0.000977516 0.999999 
339.26 400.843 72 0.000977516 0.000977516 0.999999 
266.895 -180.102 72 0.000977516 0.000977516 0.999999 
353.061 226.166 72 0.000977516 0.000977516 0.999999 
290.462 106.896 72 0.000977516 0.000977516 0.999999 
329.215 407.308 72 0.000977516 0.000977516 0.999999 
276.412 -82.7612 72 0.000977516 0.000977516 0.999999 
277.612 528.44 72 0.000977516 0.000977516 0.999999 
327.703 342.793 72 0.000977516 0.000977516 0.999999 
264.548 288.575 72 0.000977516 0.000977516 0.999999 
317.475 21.0217 72 0.000977516 0.000977516 0.999999 
259.29 -361.987 72 0.000977516 0.000977516 0.999999 
260.75 536.646 72 0.000977516 0.000977516 0.999999 
368.945 433.896 72 0.000977516 0.000977516 0.999999 
371.875 476.693 72 0.000977516 0.000977516 0.999999 
299.169 -58.3301 72 0.000977516 0.000977516 0.999999 
259.524 -240.447 72 0.000977516 0.000977516 0.999999 
271.087 -298.153 72 0.000977516 0.000977516 0.999999 
346.832 180.972 72 0.000977516 0.000977516 0.999999 
335.213 217.327 72 0.000977516 0.000977516 0.999999 
349.582 591.253 72 0.000977516 0.000977516 0.999999 
360.105 318.168 72 0.000977516 0.000977516 0.999999 
256.601 71.8849 72 0.000977516 0.000977516 0.999999 
312.391 -68.2407 72 0.000977516 0.000977516 0.999999 
313.844 130.584 72 0.000977516 0.000977516 0.999999 
272.274 -215.228 72 0.000977516 0.000977516 0.999999 
291.031 -284.054 72 0.000977516 0.000977516 0.999999 
314.783 112.362 72 0.000977516 0.000977516 0.999999 
283.371 -221.169 72 0.000977516 0.000977516 0.999999 
310.789 -7.39386 72 0.000977516 0.000977516 0.999999 
285.889 562.751 72 0.000977516 0.000977516 0.999999 
317.461 441.618 72 0.000977516 0.000977516 0.999999 
302.519 287.676 72 0.000977516 0.000977516 0.999999 
274.735 -80.6368 72 0.000977516 0.000977516 0.999999 
292.475 -272.645 72 0.000977516 0.000977516 0.999999 
296.327 -234.839 72 0.000977516 0.000977516 0.999999 
296.686 481.09 72 0.000977516 0.000977516 0.999999 
300.321 207.814 72 0.000977516 0.000977516 0.999999 
289.072 477.605 72 0.000977516 0.000977516 0.999999 
256.72 283.91 72 0.000977516 0.000977516 0.999999 
306.042 504.236 72 0.000977516 0.000977516 0.999999 
308.59 230.995 72 0.000977516 0.000977516 0.999999 
274.168 92.425 72 0.000977516 0.000977516 0.999999 
269.399 -72.9749 72 0.000977516 0.000977516 0.999999 
328.505 417.718 72 0.000977516 0.000977516 0.999999 
288.584 196.945 72 0.000977516 0.000977516 0.999999 
282.919 -49.8329 72 0.000977516 0.000977516 0.999999 
269.388 452.174 72 0.000977516 0.000977516 0.999999 
348.935 -170.006 72 0.000977516 0.000977516 0.999999 
379.848 -474.055 72 0.000977516 0.000977516 0.999999 
391.623 -525.934 72 0.000977516 0.000977516 0.999999 
394.079 -383.581 72 0.000977516 0.000977516 0.999999 
385.527 -312.025 72 0.000977516 0.000977516 0.999999 
388.753 -586.22 72 0.000977516 0.000977516 0.999999 
352.358 181.994 72 0.000977516 0.000977516 0.999999 
335.992 -57.6516 72 0.000977516 0.000977516 0.999999 
384.611 -198.369 72 0.000977516 0.000977516 0.999999 
274.656 -527.526 72 0.000977516 0.000977516 0.999999 
380.046 -569.196 72 0.000977516 0.000977516 0.999999 
394.528 333.627 72 0.000977516 0.000977516 0.999999 
350.643 60.9858 72 0.000977516 0.000977516 0.999999 
329.399 -544.37 72 0.000977516 0.000977516 0.999999 
362.945 77.1903 72 0.000977516 0.000977516 0.999999 
337.116 -357.912 72 0.000977516 0.000977516 0.999999 
351.293 -166.602 72 0.000977516 0.000977516 0.999999 
336.535 -253.449 72 0.000977516 0.000977516 0.999999 
345.542 -15.2138 72 0.000977516 0.000977516 0.999999 
280.736 -566.219 72 0.000977516 0.000977516 0.999999 
391.728 -281.947 72 0.000977516 0.000977516 0.999999 
330.054 -405.323 72 0.000977516 0.000977516 0.999999 
349.577 -555.473 72 0.000977516 0.000977516 0.999999 
363.97 -332.049 72 0.000977516 0.000977516 0.999999 
372.769 -63.1584 72 0.000977516 0.000977516 0.999999 
376.395 294.776 72 0.000977516 0.000977516 0.999999 
333.174 -519.936 72 0.000977516 0.000977516 0.999999 
353.742 -298.869 72 0.000977516 0.000977516 0.999999 
303.423 -521.016 72 0.000977516 0.000977516 0.999999 
344.476 -100.422 72 0.000977516 0.000977516 0.999999 
337.383 -274.969 72 0.000977516 0.000977516 0.999999 
352.408 -73.7305 72 0.000977516 0.000977516 0.999999 
368.246 16.5037 72 0.000977516 0.000977516 0.999999 
319.462 -579.397 72 0.000977516 0.000977516 0.999999 
335.183 -126.963 72 0.000977516 0.000977516 0.999999 
273.189 -442.732 72 0.000977516 0.000977516 0.999999 
304.978 -402.411 72 0.000977516 0.000977516 0.999999 
377.659 298.475 72 0.000977516 0.000977516 0.999999 
365.891 -47.4565 72 0.000977516 0.000977516 0.999999 
362.982 -442.007 72 0.000977516 0.000977516 0.999999 
397.73 -554.653 72 0.000977516 0.000977516 0.999999 
392.962 -26.7307 72 0.000977516 0.000977516 0.999999 
286.682 -473.707 72 0.000977516 0.000977516 0.999999 
361.726 146.079 72 0.000977516 0.000977516 0.999999 
394.342 -69.4355 72 0.000977516 0.000977516 0.999999 
330.178 -542.49 72 0.000977516 0.000977516 0.999999 
359.181 -298.875 72 0.000977516 0.000977516 0.999999 
344.208 -342.34 72 0.000977516 0.000977516 0.999999 
307.587 -394.325 72 0.000977516 0.000977516 0.999999 
388.321 -247.96 72 0.000977516 0.000977516 0.999999 
367.741 323.804 72 0.000977516 0.000977516 0.999999 
387.818 -477.422 72 0.000977516 0.000977516 0.999999 
351.647 -360.681 72 0.000977516 0.000977516 0.999999 
385.855 178.545 72 0.000977516 0.000977516 0.999999 
373.501 185.653 72 0.000977516 0.000977516 0.999999 
387.639 -456.84 72 0.000977516 0.000977516 0.999999 
386.532 417.744 72 0.000977516 0.000977516 0.999999 
337.85 -36.6243 72 0.000977516 0.000977516 0.999999 
316.112 -217.589 72 0.000977516 0.000977516 0.999999 
393.766 -421.827 72 0.000977516 0.000977516 0.999999 
360.925 38.8742 72 0.000977516 0.000977516 0.999999 
319.503 -462.247 72 0.000977516 0.000977516 0.999999 
397.432 -312.91 72 0.000977516 0.000977516 0.999999 
377.585 -281.559 72 0.000977516 0.000977516 0.999999 
300.8 -490.02 72 0.000977516 0.000977516 0.999999 
307.612 -350.328 72 0.000977516 0.000977516 0.999999 
360.117 -320.029 72 0.000977516 0.000977516 0.999999 
398.353 -518.479 72 0.000977516 0.000977516 0.999999 
393.42 244.895 72 0.000977516 0.000977516 0.999999 
274.223 -556.006 72 0.000977516 0.000977516 0.999999 
371.769 -550.036 72 0.000977516 0.000977516 0.999999 
371.082 -365.698 72 0.000977516 0.000977516 0.999999 
379.778 -34.8042 72 0.000977516 0.000977516 0.999999 
399.836 383.046 72 0.000977516 0.000977516 0.999999 
339.261 -207.564 72 0.000977516 0.000977516 0.999999 
344.288 -289.91 72 0.000977516 0.000977516 0.999999 
316.189 -278.747 72 0.000977516 0.000977516 0.999999 
341.145 -506.223 72 0.000977516 0.000977516 0.999999 
359.877 -48.231 72 0.000977516 0.000977516 0.999999 
354.806 -577.342 72 0.000977516 0.000977516 0.999999 
364.472 -401.814 72 0.000977516 0.000977516 0.999999 
299.576 -498.501 72 0.000977516 0.000977516 0.999999 
339.945 23.5651 72 0.000977516 0.000977516 0.999999 
363.072 -161.523 72 0.000977516 0.000977516 0.999999 
353.652 82.1128 72 0.000977516 0.000977516 0.999999 
334.602 -589.179 72 0.000977516 0.000977516 0.999999 
329.13 -471.22 72 0.000977516 0.000977516 0.999999 
347.757 114.188 72 0.000977516 0.000977516 0.999999 
357.714 -104.183 72 0.000977516 0.000977516 0.999999 
360.828 -390.845 72 0.000977516 0.000977516 0.999999 
311.647 -120.098 72 0.000977516 0.000977516 0.999999 
329.74 -53.3444 72 0.000977516 0.000977516 0.999999 
317.743 -138.882 72 0.000977516 0.000977516 0.999999 
337.895 -320.116 72 0.000977516 0.000977516 0.999999 
369.052 137.645 72 0.000977516 0.000977516 0.999999 
381.577 184.245 72 0.000977516 0.000977516 0.999999 
389.704 323.098 72 0.000977516 0.000977516 0.999999 
371.426 -453.781 72 0.000977516 0.000977516 0.999999 
352.712 -485.586 72 0.000977516 0.000977516 0.999999 
374.007 -400.341 72 0.000977516 0.000977516 0.999999 
396.95 344.069 72 0.000977516 0.000977516 0.999999 
391.652 190.465 72 0.000977516 0.000977516 0.999999 
310.551 -194.432 72 0.000977516 0.000977516 0.999999 
373.615 154.895 72 0.000977516 0.000977516 0.999999 
338.814 63.6473 72 0.000977516 0.000977516 0.999999 
383.222 -353.028 72 0.000977516 0.000977516 0.999999 
364.921 -262.458 72 0.000977516 0.000977516 0.999999 
374.813 -582.506 72 0.000977516 0.000977516 0.999999 
397.294 503.358 72 0.000977516 0.000977516 0.999999 
337.458 -259.508 72 0.000977516 0.000977516 0.999999 
330.468 -536.538 72 0.000977516 0.000977516 0.999999 
394.307 -112.261 72 0.000977516 0.000977516 0.999999 
329.808 -33.9929 72 0.000977516 0.000977516 0.999999 
363.374 -364.945 72 0.000977516 0.000977516 0.999999 
397.572 267.288 72 0.000977516 0.000977516 0.999999 
324.526 -427.884 72 0.000977516 0.000977516 0.999999 
274.659 -566.84 72 0.000977516 0.000977516 0.999999 
348.258 -512.502 72 0.000977516 0.000977516 0.999999 
350.519 166.296 72 0.000977516 0.000977516 0.999999 
347.766 111.346 72 0.000977516 0.000977516 0.999999 
355.35 134.369 72 0.000977516 0.000977516 0.999999 
336.862 -16.5508 72 0.000977516 0.000977516 0.999999 
291.177 -370.277 72 0.000977516 0.000977516 0.999999 
388.205 -563.676 72 0.000977516 0.000977516 0.999999 
384.305 -277.653 72 0.000977516 0.000977516 0.999999 
399.777 -388.876 72 0.000977516 0.000977516 0.999999 
297.652 -505.094 72 0.000977516 0.000977516 0.999999 
325.397 -17.5653 72 0.000977516 0.000977516 0.999999 
300.098 -483.449 72 0.000977516 0.000977516 0.999999 
301.558 -382.529 72 0.000977516 0.000977516 0.999999 
276.901 -478.313 72 0.000977516 0.000977516 0.999999 
342.368 -388.946 72 0.000977516 0.000977516 0.999999 
328.767 -353.747 72 0.000977516 0.000977516 0.999999 
352.914 -266.678 72 0.000977516 0.000977516 0.999999 
399.304 -450.348 72 0.000977516 0.000977516 0.999999 
320.423 -392.463 72 0.000977516 0.000977516 0.999999 
379.527 240.117 72 0.000977516 0.000977516 0.999999 
359.558 213.194 72 0.000977516 0.000977516 0.999999 
362.012 -551.135 72 0.000977516 0.000977516 0.999999 
355.3 -22.6332 72 0.000977516 0.000977516 0.999999 
347.316 -546.201 72 0.000977516 0.000977516 0.999999 
350.048 -38.2771 72 0.000977516 0.000977516 0.999999 
391.281 225.652 72 0.000977516 0.000977516 0.999999 
389.165 -0.460358 72 0.000977516 0.000977516 0.999999 
372.357 -61.8328 72 0.000977516 0.000977516 0.999999 
274.813 -528.009 72 0.000977516 0.000977516 0.999999 
335.991 -383.127 72 0.000977516 0.000977516 0.999999 
390.943 397.618 72 0.000977516 0.000977516 0.999999 
398.892 157.51 72 0.000977516 0.000977516 0.999999 
364.969 -225.397 72 0.000977516 0.000977516 0.999999 
289.846 -372.523 72 0.000977516 0.000977516 0.999999 
351.062 -377.621 72 0.000977516 0.000977516 0.999999 
397.746 92.8924 72 0.000977516 0.000977516 0.999999 
347.883 -421.437 72 0.000977516 0.000977516 0.999999 
352.738 -517.915 72 0.000977516 0.000977516 0.999999 
368.278 -284.831 72 0.000977516 0.000977516 0.999999 
385.639 262.078 72 0.000977516 0.000977516 0.999999 
367.666 -550.571 72 0.000977516 0.000977516 0.999999 
390.022 176.827 72 0.000977516 0.000977516 0.999999 
319.958 -570.726 72 0.000977516 0.000977516 0.999999 
287.737 -521.03 72 0.000977516 0.000977516 0.999999 
375.844 -521.322 72 0.000977516 0.000977516 0.999999 
292.33 -534.724 72 0.000977516 0.000977516 0.999999 
368.323 0.590485 72 0.000977516 0.000977516 0.999999 
364.54 215.88 72 0.000977516 0.000977516 0.999999 
391.644 6.9848 72 0.000977516 0.000977516 0.999999 
331.214 -461.931 72 0.000977516 0.000977516 0.999999 
365.099 -36.5204 72 0.000977516 0.000977516 0.999999 
263.786 -568.949 72 0.000977516 0.000977516 0.999999 
306.058 -572.626 72 0.000977516 0.000977516 0.999999 
310.289 -491.246 72 0.000977516 0.000977516 0.999999 
343.674 -286.57 72 0.000977516 0.000977516 0.999999 
315.21 -490.769 72 0.000977516 0.000977516 0.999999 
344.2 -333.241 72 0.000977516 0.000977516 0.999999 
388.431 408.087 72 0.000977516 0.000977516 0.999999 
307.113 -212.806 72 0.000977516 0.000977516 0.999999 
320.473 -448.777 72 0.000977516 0.000977516 0.999999 
372.777 -554.7 72 0.000977516 0.000977516 0.999999 
338.074 -394.102 72 0.000977516 0.000977516 0.999999 
375.852 -81.3323 72 0.000977516 0.000977516 0.999999 
335.014 -88.3713 72 0.000977516 0.000977516 0.999999 
318.919 -134.258 72 0.000977516 0.000977516 0.999999 
379.799 348.949 72 0.000977516 0.000977516 0.999999 
384.04 -273.786 72 0.000977516 0.000977516 0.999999 
379.534 -313.702 72 0.000977516 0.000977516 0.999999 
380.879 -144.327 72 0.000977516 0.000977516 0.999999 
347.039 -251.429 72 0.000977516 0.000977516 0.999999 
332.05 -543.481 72 0.000977516 0.000977516 0.999999 
399.482 -585.408 72 0.000977516 0.000977516 0.999999 
341.663 68.3671 72 0.000977516 0.000977516 0.999999 
371.017 131.249 72 0.000977516 0.000977516 0.999999 
395.803 120.907 72 0.000977516 0.000977516 0.999999 
396.85 -371.568 72 0.000977516 0.000977516 0.999999 
394.81 -265.428 72 0.000977516 0.000977516 0.999999 
396.522 -447.056 72 0.000977516 0.000977516 0.999999 
305.723 -552.454 72 0.000977516 0.000977516 0.999999 
333.106 -553.961 72 0.000977516 0.000977516 0.999999 
379.113 -147.19 72 0.000977516 0.000977516 0.999999 
332.551 -78.9877 72 0.000977516 0.000977516 0.999999 
379.577 171.862 72 0.000977516 0.000977516 0.999999 
379.205 93.7246 72 0.000977516 0.000977516 0.999999 
308.24 -316.367 72 0.000977516 0.000977516 0.999999 
343.583 82.5886 72 0.000977516 0.000977516 0.999999 
391.184 347.57 72 0.000977516 0.000977516 0.999999 
330.408 -436.976 72 0.000977516 0.000977516 0.999999 
329.712 -327.761 72 0.000977516 0.000977516 0.999999 
329.442 -212.276 72 0.000977516 0.000977516 0.999999 
380.988 -533.244 72 0.000977516 0.000977516 0.999999 
322.514 -304.132 72 0.000977516 0.000977516 0.999999 
265.312 -536.897 72 0.000977516 0.000977516 0.999999 
344.086 -311.034 72 0.000977516 0.000977516 0.999999 
335.458 -442.27 72 0.000977516 0.000977516 0.999999 
325.966 -94.8444 72 0.000977516 0.000977516 0.999999 
368.944 -374.018 72 0.000977516 0.000977516 0.999999 
389.676 -397.822 72 0.000977516 0.000977516 0.999999 
315.717 -432.305 72 0.000977516 0.000977516 0.999999 
386.573 18.9072 72 0.000977516 0.000977516 0.999999 
360.513 -101.755 72 0.000977516 0.000977516 0.999999 
342.131 -142.427 72 0.000977516 0.000977516 0.999999 
391.284 102.965 72 0.000977516 0.000977516 0.999999 
332.731 -74.3885 72 0.000977516 0.000977516 0.999999 
392.032 -88.884 72 0.000977516 0.000977516 0.999999 
298.881 -247.621 72 0.000977516 0.000977516 0.999999 
342.374 -480.48 72 0.000977516 0.000977516 0.999999 
294.256 -344.338 72 0.000977516 0.000977516 0.999999 
349.026 -341.162 72 0.000977516 0.000977516 0.999999 
380.718 246.096 72 0.000977516 0.000977516 0.999999 
331.885 -71.238 72 0.000977516 0.000977516 0.999999 
393.97 -130.093 72 0.000977516 0.000977516 0.999999 
398.763 71.5646 72 0.000977516 0.000977516 0.999999 
301.757 -370.114 72 0.000977516 0.000977516 0.999999 
310.606 -239.569 72 0.000977516 0.000977516 0.999999 
374.447 -253.085 72 0.000977516 0.000977516 0.999999 
274.417 -495.437 72 0.000977516 0.000977516 0.999999 
389.971 -390.242 72 0.000977516 0.000977516 0.999999 
287.227 -398.797 72 0.000977516 0.000977516 0.999999 
354.625 -547.822 72 0.000977516 0.000977516 0.999999 
330.5 -174.991 72 0.000977516 0.000977516 0.999999 
357.013 -503.63 72 0.000977516 0.000977516 0.999999 
395.62 -379.672 72 0.000977516 0.000977516 0.999999 
380.63 -295.867 72 0.000977516 0.000977516 0.999999 
342.949 -129.105 72 0.000977516 0.000977516 0.999999 
375.806 97.4851 72 0.000977516 0.000977516 0.999999 
352.148 -504.069 72 0.000977516 0.000977516 0.999999 
379.458 -512.19 72 0.000977516 0.000977516 0.999999 
373.256 211.519 72 0.000977516 0.000977516 0.999999 
374.365 -411.746 72 0.000977516 0.000977516 0.999999 
352.864 -362.555 72 0.000977516 0.000977516 0.999999 
383.388 104.497 72 0.000977516 0.000977516 0.999999 
362.294 -218.888 72 0.000977516 0.000977516 0.999999 
365.221 54.7733 72 0.000977516 0.000977516 0.999999 
322.441 -152.179 72 0.000977516 0.000977516 0.999999 
397.961 73.4171 72 0.000977516 0.000977516 0.999999 
291.782 -342.063 72 0.000977516 0.000977516 0.999999 
381.07 397.124 72 0.000977516 0.000977516 0.999999 
370.283 -572.741 72 0.000977516 0.000977516 0.999999 
326.77 -455.04 72 0.000977516 0.000977516 0.999999 
314.664 -291.603 72 0.000977516 0.000977516 0.999999 
324.741 -316.105 72 0.000977516 0.000977516 0.999999 
293.282 -528.834 72 0.000977516 0.000977516 0.999999 
394.406 -485.794 72 0.000977516 0.000977516 0.999999 
399.822 -387.149 72 0.000977516 0.000977516 0.999999 
345.096 29.6261 72 0.000977516 0.000977516 0.999999 
368.189 273.624 72 0.000977516 0.000977516 0.999999 
396.49 -336.897 72 0.000977516 0.000977516 0.999999 
329.631 -458.353 72 0.000977516 0.000977516 0.999999 
362.682 175.929 72 0.000977516 0.000977516 0.999999 
322.417 -378.716 72 0.000977516 0.000977516 0.999999 
363.638 244.256 72 0.000977516 0.000977516 0.999999 
316.83 -385.511 72 0.000977516 0.000977516 0.999999 
365.18 -160.125 72 0.000977516 0.000977516 0.999999 
350.596 -366.906 72 0.000977516 0.000977516 0.999999 
301.597 -296.26 72 0.000977516 0.000977516 0.999999 
377.487 -455.41 72 0.000977516 0.000977516 0.999999 
355.083 183.251 72 0.000977516 0.000977516 0.999999 
344.163 -591.72 72 0.000977516 0.000977516 0.999999 
344.405 -308.381 72 0.000977516 0.000977516 0.999999 
311.259 -401.665 72 0.000977516 0.000977516 0.999999 
369.756 -133.876 72 0.000977516 0.000977516 0.999999 
369.377 24.0341 72 0.000977516 0.000977516 0.999999 
400 -522.384 -1.16026 0.999999 0.000977516 0.000977516 
400 -591.753 46.813 0.999999 0.000977516 0.000977516 
400 -579.806 -12.3669 0.999999 0.000977516 0.000977516 
400 -547.283 -5.87336 0.999999 0.000977516 0.000977516 
400 -592.608 -10.8667 0.999999 0.000977516 0.000977516 
400 -551.838 -28.0008 0.999999 0.000977516 0.000977516 
400 -558.598 -6.95063 0.999999 0.000977516 0.000977516 
400 -588.376 -24.2375 0.999999 0.000977516 0.000977516 
400 -581.664 15.9325 0.999999 0.000977516 0.000977516 
400 -519.249 30.9004 0.999999 0.000977516 0.000977516 
400 -583.959 21.2075 0.999999 0.000977516 0.000977516 
400 -538.727 39.738 0.999999 0.000977516 0.000977516 
400 -550.058 -2.59306 0.999999 0.000977516 0.000977516 
400 -576.607 32.0246 0.999999 0.000977516 0.000977516 
400 -518.986 35.4834 0.999999 0.000977516 0.000977516 
400 -583.788 58.3005 0.999999 0.000977516 0.000977516 
400 -521.403 43.424 0.999999 0.000977516 0.000977516 
400 -505.091 34.274 0.999999 0.000977516 0.000977516 
400 -592.437 13.2126 0.999999 0.000977516 0.000977516 
400 -550.326 1.46837 0.999999 0.000977516 0.000977516 
400 -527.361 -1.59388 0.999999 0.000977516 0.000977516 
400 -534.069 3.35212 0.999999 0.000977516 0.000977516 
400 -575.788 -0.368332 0.999999 0.000977516 0.000977516 
400 -515.917 11.9796 0.999999 0.000977516 0.000977516 
400 -597.763 -46.7213 0.999999 0.000977516 0.000977516 
400 -552.674 -33.7352 0.999999 0.000977516 0.000977516 
400 -555.814 8.32625 0.999999 0.000977516 0.000977516 
400 -564.908 9.14571 0.999999 0.000977516 0.000977516 
400 -549.115 7.31443 0.999999 0.000977516 0.000977516 
400 -522.818 -17.4681 0.999999 0.000977516 0.000977516 
400 -598.043 -7.3196 0.999999 0.000977516 0.000977516 
400 -576.404 -17.7039 0.999999 0.000977516 0.000977516 
400 -573.042 37.6732 0.999999 0.000977516 0.000977516 
400 -456.883 -9.05825 0.999999 0.000977516 0.000977516 
400 -534.655 -32.16 0.999999 0.000977516 0.000977516 
400 -557.698 -64.8477 0.999999 0.000977516 0.000977516 
400 -530.173 -28.283 0.999999 0.000977516 0.000977516 
400 -467.965 -11.4429 0.999999 0.000977516 0.000977516 
400 -517.592 -19.1509 0.999999 0.000977516 0.000977516 
400 -464.879 17.3814 0.999999 0.000977516 0.000977516 
400 -496.006 -53.2705 0.999999 0.000977516 0.000977516 
400 -582.461 -68.802 0.999999 0.000977516 0.000977516 
400 -483.451 7.38438 0.999999 0.000977516 0.000977516 
400 -530.926 -34.3083 0.999999 0.000977516 0.000977516 
400 -511.037 -52.1347 0.999999 0.000977516 0.000977516 
400 -505.101 -38.7786 0.999999 0.000977516 0.000977516 
400 -479.358 -39.0781 0.999999 0.000977516 0.000977516 
400 -461.47 -1.6728 0.999999 0.000977516 0.000977516 
400 -476.413 -27.2935 0.999999 0.000977516 0.000977516 
400 -476.518 -18.0347 0.999999 0.000977516 0.000977516 
400 -569.814 65.3304 0.999999 0.000977516 0.000977516 
400 -525.827 53.7495 0.999999 0.000977516 0.000977516 
400 -555.792 62.5731 0.999999 0.000977516 0.000977516 
400 -595.533 70.9693 0.999999 0.000977516 0.000977516 
400 -482.497 41.6941 0.999999 0.000977516 0.000977516 
400 -272.215 -50.5491 0.999999 0.000977516 0.000977516 
400 -350.83 -57.1958 0.999999 0.000977516 0.000977516 
400 -546.355 -65.0814 0.999999 0.000977516 0.000977516 
400 -522.623 -68.5033 0.999999 0.000977516 0.000977516 
400 -347.002 -56.5774 0.999999 0.000977516 0.000977516 
400 -493.773 -60.8889 0.999999 0.000977516 0.000977516 
400 -424.848 -50.4825 0.999999 0.000977516 0.000977516 
400 -287.027 -57.0096 0.999999 0.000977516 0.000977516 
400 -165.517 -50.8222 0.999999 0.000977516 0.000977516 
400 -376.769 -50.0928 0.999999 0.000977516 0.000977516 
400 -423.394 -59.5176 0.999999 0.000977516 0.000977516 
400 -423.038 -60.628 0.999999 0.000977516 0.000977516 
400 -496.856 -58.3475 0.999999 0.000977516 0.000977516 
400 -290.523 -50.1645 0.999999 0.000977516 0.000977516 
400 -24.0906 -32.6535 0.999999 0.000977516 0.000977516 
400 27.1751 -49.9009 0.999999 0.000977516 0.000977516 
400 -45.775 2.76905 0.999999 0.000977516 0.000977516 
400 -6.95231 -15.7184 0.999999 0.000977516 0.000977516 
400 38.1486 -45.0233 0.999999 0.000977516 0.000977516 
400 -34.3425 -24.9015 0.999999 0.000977516 0.000977516 
400 -60.6036 -31.7361 0.999999 0.000977516 0.000977516 
400 67.8654 -49.3118 0.999999 0.000977516 0.000977516 
400 13.7093 -31.9956 0.999999 0.000977516 0.000977516 
400 -64.1025 12.2699 0.999999 0.000977516 0.000977516 
400 -29.4096 0.786701 0.999999 0.000977516 0.000977516 
400 -40.1429 -45.194 0.999999 0.000977516 0.000977516 
400 -38.0769 -49.0313 0.999999 0.000977516 0.000977516 
400 -28.8522 -9.06491 0.999999 0.000977516 0.000977516 
400 -70.8243 18.846 0.999999 0.000977516 0.000977516 
400 48.1458 -40.3782 0.999999 0.000977516 0.000977516 
400 -41.2817 11.1569 0.999999 0.000977516 0.000977516 
400 -15.7129 -38.8182 0.999999 0.000977516 0.000977516 
400 66.8542 -39.0335 0.999999 0.000977516 0.000977516 
400 -14.1327 17.5647 0.999999 0.000977516 0.000977516 
400 67.0018 -40.5214 0.999999 0.000977516 0.000977516 
400 54.7732 9.20069 0.999999 0.000977516 0.000977516 
400 66.493 -35.7845 0.999999 0.000977516 0.000977516 
400 51.2509 -25.3736 0.999999 0.000977516 0.000977516 
400 10.4529 22.7615 0.999999 0.000977516 0.000977516 
400 52.6362 21.0457 0.999999 0.000977516 0.000977516 
400 44.1225 17.3578 0.999999 0.000977516 0.000977516 
400 28.6956 -4.65769 0.999999 0.000977516 0.000977516 
400 67.2993 -32.1861 0.999999 0.000977516 0.000977516 
400 42.8357 -14.2713 0.999999 0.000977516 0.000977516 
400 67.7912 -27.9416 0.999999 0.000977516 0.000977516 
400 44.269 -25.0872 0.999999 0.000977516 0.000977516 
400 2.48498 15.2075 0.999999 0.000977516 0.000977516 
400 51.1966 -12.8377 0.999999 0.000977516 0.000977516 
400 25.0561 -6.40389 0.999999 0.000977516 0.000977516 
400 60.7117 -5.58551 0.999999 0.000977516 0.000977516 
400 -59.1003 32.1886 0.999999 0.000977516 0.000977516 
400 28.4982 47.5586 0.999999 0.000977516 0.000977516 
400 -47.5688 36.2363 0.999999 0.000977516 0.000977516 
400 -2.22271 48.8032 0.999999 0.000977516 0.000977516 
400 17.5965 45.3782 0.999999 0.000977516 0.000977516 
400 57.2411 30.4639 0.999999 0.000977516 0.000977516 
400 57.0961 36.5727 0.999999 0.000977516 0.000977516 
400 57.7976 36.5395 0.999999 0.000977516 0.000977516 
400 2.61048 29.6206 0.999999 0.000977516 0.000977516 
400 -2.48835 33.0603 0.999999 0.000977516 0.000977516 
400 471.309 -34.583 0.999999 0.000977516 0.000977516 
400 513.756 -14.4868 0.999999 0.000977516 0.000977516 
400 516.114 -57.1583 0.999999 0.000977516 0.000977516 
400 519.532 -24.9419 0.999999 0.000977516 0.000977516 
400 463.08 -2.95334 0.999999 0.000977516 0.000977516 
400 467.775 -48.5212 0.999999 0.000977516 0.000977516 
400 476.706 8.80586 0.999999 0.000977516 0.000977516 
400 483.205 -12.1279 0.999999 0.000977516 0.000977516 
400 467.918 -49.123 0.999999 0.000977516 0.000977516 
400 505.413 -45.8394 0.999999 0.000977516 0.000977516 
400 564.17 -57.9281 0.999999 0.000977516 0.000977516 
400 541.963 -59.8972 0.999999 0.000977516 0.000977516 
400 497.607 -24.0364 0.999999 0.000977516 0.000977516 
400 566.106 -63.1389 0.999999 0.000977516 0.000977516 
400 586.36 -65.6894 0.999999 0.000977516 0.000977516 
400 530.639 -34.5285 0.999999 0.000977516 0.000977516 
400 543.043 -62.8319 0.999999 0.000977516 0.000977516 
400 520.298 -42.7049 0.999999 0.000977516 0.000977516 
400 429.007 -55.7894 0.999999 0.000977516 0.000977516 
400 398.274 -57.2913 0.999999 0.000977516 0.000977516 
400 513.064 -63.2021 0.999999 0.000977516 0.000977516 
400 306.492 -54.5221 0.999999 0.000977516 0.000977516 
400 384.045 -60.193 0.999999 0.000977516 0.000977516 
400 217.831 -55.1328 0.999999 0.000977516 0.000977516 
400 191.293 -52.6664 0.999999 0.000977516 0.000977516 
400 259.01 -54.0845 0.999999 0.000977516 0.000977516 
400 500.759 -66.6731 0.999999 0.000977516 0.000977516 
400 84.7598 -50.4081 0.999999 0.000977516 0.000977516 
400 173.573 -52.919 0.999999 0.000977516 0.000977516 
400 362.155 -58.967 0.999999 0.000977516 0.000977516 
400 404.186 -50.6951 0.999999 0.000977516 0.000977516 
400 343.187 -62.2305 0.999999 0.000977516 0.000977516 
400 238.112 -58.9783 0.999999 0.000977516 0.000977516 
400 92.0225 -51.3871 0.999999 0.000977516 0.000977516 
400 184.102 -55.6654 0.999999 0.000977516 0.000977516 
400 345.191 -63.0869 0.999999 0.000977516 0.000977516 
400 -293.241 -70.8482 0.999999 0.000977516 0.000977516 
400 63.2714 -56.5708 0.999999 0.000977516 0.000977516 
400 -233.185 -68.1903 0.999999 0.000977516 0.000977516 
400 -222.94 -61.8483 0.999999 0.000977516 0.000977516 
400 312.367 -65.1154 0.999999 0.000977516 0.000977516 
400 -124.988 -55.9268 0.999999 0.000977516 0.000977516 
400 -231.458 -64.61 0.999999 0.000977516 0.000977516 
400 236.115 -68.337 0.999999 0.000977516 0.000977516 
400 82.4638 -67.362 0.999999 0.000977516 0.000977516 
400 140.63 -56.9886 0.999999 0.000977516 0.000977516 
400 249.115 -62.4609 0.999999 0.000977516 0.000977516 
400 -327.142 -68.0597 0.999999 0.000977516 0.000977516 
400 -101.711 -51.7911 0.999999 0.000977516 0.000977516 
400 -72.8687 -66.8585 0.999999 0.000977516 0.000977516 
400 -45.823 -62.137 0.999999 0.000977516 0.000977516 
400 -23.8075 -58.0269 0.999999 0.000977516 0.000977516 
400 268.381 -66.8972 0.999999 0.000977516 0.000977516 
400 -53.2719 -58.3073 0.999999 0.000977516 0.000977516 
400 -205.902 -62.497 0.999999 0.000977516 0.000977516 
400 -151.01 -55.8428 0.999999 0.000977516 0.000977516 
400 -250.414 -57.4431 0.999999 0.000977516 0.000977516 
400 -322.833 -71.0763 0.999999 0.000977516 0.000977516 
400 -373.346 -69.7265 0.999999 0.000977516 0.000977516 
400 146.5 -67.8481 0.999999 0.000977516 0.000977516 
400 17.2509 -70.8333 0.999999 0.000977516 0.000977516 
400 -494.659 -70.8162 0.999999 0.000977516 0.000977516 
400 -436.137 -67.6837 0.999999 0.000977516 0.000977516 
400 243.455 -64.3198 0.999999 0.000977516 0.000977516 
400 -40.9092 -60.9629 0.999999 0.000977516 0.000977516 
400 -394.069 -71.1849 0.999999 0.000977516 0.000977516 
400 -104.114 -62.3981 0.999999 0.000977516 0.000977516 
400 -365.589 -62.7551 0.999999 0.000977516 0.000977516 
400 -558.065 -70.8564 0.999999 0.000977516 0.000977516 
400 229.581 -64.6465 0.999999 0.000977516 0.000977516 
400 -508.537 -68.8089 0.999999 0.000977516 0.000977516 
400 -201.525 -62.9265 0.999999 0.000977516 0.000977516 
400 363.931 -69.2602 0.999999 0.000977516 0.000977516 
400 -13.2208 -58.3035 0.999999 0.000977516 0.000977516 
400 -163.76 -61.9966 0.999999 0.000977516 0.000977516 
400 299.596 -70.9852 0.999999 0.000977516 0.000977516 
400 -222.179 -63.4811 0.999999 0.000977516 0.000977516 
400 329.721 -64.0121 0.999999 0.000977516 0.000977516 
400 465.802 35.6626 0.999999 0.000977516 0.000977516 
400 589.065 68.698 0.999999 0.000977516 0.000977516 
400 523.527 59.2836 0.999999 0.000977516 0.000977516 
400 507.33 51.3741 0.999999 0.000977516 0.000977516 
400 479.149 37.0559 0.999999 0.000977516 0.000977516 
400 504.874 11.1952 0.999999 0.000977516 0.000977516 
400 596.696 -8.38698 0.999999 0.000977516 0.000977516 
400 590.818 64.2143 0.999999 0.000977516 0.000977516 
400 512.633 8.15368 0.999999 0.000977516 0.000977516 
400 486.883 19.4752 0.999999 0.000977516 0.000977516 
400 536.372 27.1817 0.999999 0.000977516 0.000977516 
400 538.616 16.6772 0.999999 0.000977516 0.000977516 
400 526.644 5.11347 0.999999 0.000977516 0.000977516 
400 599.521 58.2342 0.999999 0.000977516 0.000977516 
400 548.693 -24.1339 0.999999 0.000977516 0.000977516 
400 574.071 -11.4683 0.999999 0.000977516 0.000977516 
400 518.287 20.5966 0.999999 0.000977516 0.000977516 
400 568.896 32.7401 0.999999 0.000977516 0.000977516 
400 480.813 19.1729 0.999999 0.000977516 0.000977516 
400 585.808 61.0483 0.999999 0.000977516 0.000977516 
400 539.745 40.3908 0.999999 0.000977516 0.000977516 
400 510.391 -4.53815 0.999999 0.000977516 0.000977516 
400 542.35 35.3164 0.999999 0.000977516 0.000977516 
400 566.54 4.75609 0.999999 0.000977516 0.000977516 
400 472.873 16.1929 0.999999 0.000977516 0.000977516 
400 562.648 -10.3784 0.999999 0.000977516 0.000977516 
400 578.72 -0.8666 0.999999 0.000977516 0.000977516 
400 518.084 22.5516 0.999999 0.000977516 0.000977516 
400 575.01 29.3388 0.999999 0.000977516 0.000977516 
400 562.676 -23.2384 0.999999 0.000977516 0.000977516 
400 550.129 45.3435 0.999999 0.000977516 0.000977516 
400 521.708 43.1059 0.999999 0.000977516 0.000977516 
400 483.737 20.8123 0.999999 0.000977516 0.000977516 
400 595.296 -47.1435 0.999999 0.000977516 0.000977516 
400 564.888 50.9147 0.999999 0.000977516 0.000977516 
400 546.527 -22.4467 0.999999 0.000977516 0.000977516 
400 572.587 31.8737 0.999999 0.000977516 0.000977516 
400 569.001 -48.3294 0.999999 0.000977516 0.000977516 
400 -2.76861 65.8164 0.999999 0.000977516 0.000977516 
400 -289.151 68.4168 0.999999 0.000977516 0.000977516 
400 -21.0909 62.4037 0.999999 0.000977516 0.000977516 
400 313.042 70.2656 0.999999 0.000977516 0.000977516 
400 217.327 71.4111 0.999999 0.000977516 0.000977516 
400 447.059 62.6699 0.999999 0.000977516 0.000977516 
400 468.72 71.1984 0.999999 0.000977516 0.000977516 
400 -5.75094 71.7933 0.999999 0.000977516 0.000977516 
400 305.636 58.0558 0.999999 0.000977516 0.000977516 
400 565.468 70.1611 0.999999 0.000977516 0.000977516 
400 451.682 58.5659 0.999999 0.000977516 0.000977516 
400 21.271 68.9995 0.999999 0.000977516 0.000977516 
400 106.311 64.3454 0.999999 0.000977516 0.000977516 
400 -68.8764 63.2585 0.999999 0.000977516 0.000977516 
400 178.447 64.5911 0.999999 0.000977516 0.000977516 
400 443.712 52.9978 0.999999 0.000977516 0.000977516 
400 269.007 62.7826 0.999999 0.000977516 0.000977516 
400 125.548 67.6408 0.999999 0.000977516 0.000977516 
