ply
format ascii 1.0
comment Created by CloudCompare v2.11.3 (Anoia)
comment Created 08/09/2022 00:18
obj_info Generated by CloudCompare!
element vertex 896
property float x
property float y
property float z
property float nx
property float ny
property float nz
end_header
402.758 2819.15 2644.86 -0.423793 -0.892121 -0.156588 
313.809 2840.24 2768.54 -0.423793 -0.892121 -0.156588 
365.24 2827.36 2701.02 -0.423793 -0.892121 -0.156588 
54.6525 2897.05 3157.56 -0.396303 -0.908836 -0.130234 
-125.723 2939.38 3409.93 -0.396303 -0.908836 -0.130234 
-107.263 2934.91 3385.04 -0.396303 -0.908836 -0.130234 
-71.134 2926.88 3331.42 -0.396303 -0.908836 -0.130234 
-145.161 2946.47 3421.64 -0.423793 -0.892121 -0.156588 
-52.874 2925.24 3289.56 -0.423793 -0.892121 -0.156588 
-95.179 2935.84 3345.05 -0.423793 -0.892121 -0.156588 
-82.4788 2933.01 3326.37 -0.423793 -0.892121 -0.156588 
280.257 2850.06 2804.8 -0.453556 -0.873352 -0.177606 
299.802 2845.47 2777.32 -0.453556 -0.873352 -0.177606 
367.823 2829.87 2679.74 -0.453556 -0.873352 -0.177606 
233.768 2862.71 2861.68 -0.453556 -0.873352 -0.177606 
43.2603 2906.5 3134.45 -0.453556 -0.873352 -0.177606 
297.195 2847.56 2773.68 -0.453556 -0.873352 -0.177606 
136.016 2885.37 3000.69 -0.453556 -0.873352 -0.177606 
405.06 2824.18 2612.33 -0.480245 -0.854267 -0.19898 
-172.297 2959.79 3426.55 -0.480245 -0.854267 -0.19898 
-48.4099 2929.18 3258.34 -0.480245 -0.854267 -0.19898 
248.675 2860.3 2835.52 -0.480245 -0.854267 -0.19898 
173.157 2879.93 2933.88 -0.480245 -0.854267 -0.19898 
305.534 2849.7 2743.47 -0.480245 -0.854267 -0.19898 
389.489 2830.79 2621.61 -0.480245 -0.854267 -0.19898 
-51.1995 2934.93 3241.67 -0.503944 -0.835847 -0.217716 
-76.3262 2940.57 3278.14 -0.503944 -0.835847 -0.217716 
-77.7446 2941.39 3278.34 -0.503944 -0.835847 -0.217716 
256.01 2864.81 2799.96 -0.503944 -0.835847 -0.217716 
390.823 2832.5 2611.93 -0.503944 -0.835847 -0.217716 
92.8993 2901.39 3036.96 -0.503944 -0.835847 -0.217716 
288.147 2856.1 2758.93 -0.503944 -0.835847 -0.217716 
122.724 2898.18 2981.26 -0.534128 -0.809707 -0.243067 
-39.9819 2933.79 3220.22 -0.534128 -0.809707 -0.243067 
78.923 2907.51 3046.43 -0.534128 -0.809707 -0.243067 
266.615 2865.61 2773.57 -0.534128 -0.809707 -0.243067 
285.288 2863.08 2740.9 -0.534128 -0.809707 -0.243067 
-50.4482 2940.28 3221.49 -0.534128 -0.809707 -0.243067 
324.131 2851.17 2695.3 -0.534128 -0.809707 -0.243067 
40.0693 2919.83 3090.8 -0.557425 -0.786676 -0.265366 
396.769 2840.5 2572.15 -0.557425 -0.786676 -0.265366 
208.359 2883.39 2843.14 -0.557425 -0.786676 -0.265366 
-109.106 2957.11 3295.37 -0.557425 -0.786676 -0.265366 
-58.5315 2943.56 3228.77 -0.557425 -0.786676 -0.265366 
-110.326 2956.99 3298.34 -0.557425 -0.786676 -0.265366 
-159.937 2974.6 3352.08 -0.580972 -0.762427 -0.284915 
-196.924 2979.6 3414.47 -0.580972 -0.762427 -0.284915 
-43.3379 2946.22 3189.41 -0.580972 -0.762427 -0.284915 
-123.01 2963.59 3306.03 -0.580972 -0.762427 -0.284915 
385.024 2848.9 2573.09 -0.580972 -0.762427 -0.284915 
412.403 2842.58 2533.97 -0.580972 -0.762427 -0.284915 
203.564 2890.94 2831.99 -0.580972 -0.762427 -0.284915 
109.88 2914.63 2960.71 -0.602782 -0.737806 -0.303802 
-30.2881 2948.05 3158.45 -0.602782 -0.737806 -0.303802 
15.645 2937.04 3093.8 -0.602782 -0.737806 -0.303802 
317.35 2866.84 2663.95 -0.602782 -0.737806 -0.303802 
289.718 2876.48 2695.5 -0.602782 -0.737806 -0.303802 
260.924 2882.54 2738.08 -0.602782 -0.737806 -0.303802 
402.08 2847.91 2541.33 -0.602782 -0.737806 -0.303802 
65.6892 2929.16 3013.48 -0.624103 -0.71164 -0.322589 
-108.514 2969.92 3261.28 -0.624103 -0.71164 -0.322589 
-187.315 2988.69 3372.63 -0.624103 -0.71164 -0.322589 
-152.875 2978.98 3327.29 -0.624103 -0.71164 -0.322589 
243.375 2892.46 2749.99 -0.624103 -0.71164 -0.322589 
386.609 2858.48 2547.28 -0.624103 -0.71164 -0.322589 
65.296 2933.16 3005.44 -0.624103 -0.71164 -0.322589 
148.466 2914.54 2885.27 -0.624103 -0.71164 -0.322589 
126.756 2922.66 2909.99 -0.644082 -0.683216 -0.344054 
-67.3772 2967.11 3188.23 -0.644082 -0.683216 -0.344054 
-67.5178 2965.81 3191.1 -0.644082 -0.683216 -0.344054 
367.25 2870.29 2559.9 -0.644082 -0.683216 -0.344054 
231.113 2898.14 2761.67 -0.644082 -0.683216 -0.344054 
229.172 2901.04 2759.53 -0.644082 -0.683216 -0.344054 
271.313 2893.82 2694.48 -0.667214 -0.65082 -0.362296 
-157.874 2992.52 3308.73 -0.667214 -0.65082 -0.362296 
-109.198 2981.57 3238.63 -0.667214 -0.65082 -0.362296 
342.613 2877.8 2591.75 -0.667214 -0.65082 -0.362296 
285.874 2893.26 2668.56 -0.667214 -0.65082 -0.362296 
267.482 2897.37 2695.1 -0.667214 -0.65082 -0.362296 
177.542 2918.68 2822.7 -0.667214 -0.65082 -0.362296 
-173.318 3005.07 3315.11 -0.683822 -0.624503 -0.377338 
-117.816 2993.47 3233.76 -0.683822 -0.624503 -0.377338 
-191.012 3010.41 3338.34 -0.683822 -0.624503 -0.377338 
13.9314 2959.45 3051.35 -0.683822 -0.624503 -0.377338 
48.9803 2954.55 2995.96 -0.683822 -0.624503 -0.377338 
334.49 2887.03 2590.42 -0.683822 -0.624503 -0.377338 
-164.163 3005.29 3298.18 -0.683822 -0.624503 -0.377338 
41.5752 2960.71 2999.53 -0.700528 -0.595037 -0.393944 
111.582 2943.81 2900.54 -0.700528 -0.595037 -0.393944 
178.722 2927.81 2805.29 -0.700528 -0.595037 -0.393944 
-151.952 3009.14 3270.64 -0.700528 -0.595037 -0.393944 
307.71 2901.79 2615.22 -0.700528 -0.595037 -0.393944 
352.742 2889.25 2554.04 -0.700528 -0.595037 -0.393944 
16.2349 2974.13 3024.82 -0.717909 -0.559474 -0.414242 
-155.2 3014.39 3269.04 -0.717909 -0.559474 -0.414242 
-33.9236 2987.36 3094.3 -0.717909 -0.559474 -0.414242 
23.7988 2974.37 3011.3 -0.717909 -0.559474 -0.414242 
250.24 2922.36 2687.13 -0.717909 -0.559474 -0.414242 
176.039 2940.89 2791.32 -0.717909 -0.559474 -0.414242 
-124.023 3013.08 3216.75 -0.733653 -0.525922 -0.4303 
29.1902 2976.99 2998.52 -0.733653 -0.525922 -0.4303 
-57.8264 2998.12 3121.68 -0.733653 -0.525922 -0.4303 
74.1979 2968.78 2931.46 -0.733653 -0.525922 -0.4303 
268.283 2927.33 2649.77 -0.733653 -0.525922 -0.4303 
319.89 2910.95 2581.46 -0.733653 -0.525922 -0.4303 
245.193 2930.9 2684.96 -0.733653 -0.525922 -0.4303 
89.578 2971.12 2902.45 -0.746697 -0.492853 -0.446699 
160.866 2953.81 2801.44 -0.746697 -0.492853 -0.446699 
258.092 2930.89 2662.92 -0.746697 -0.492853 -0.446699 
150.845 2957.91 2813.78 -0.746697 -0.492853 -0.446699 
135.91 2963.22 2833.07 -0.746697 -0.492853 -0.446699 
307.559 2925.33 2585.64 -0.746697 -0.492853 -0.446699 
-9.52197 3007.11 3030.4 -0.759966 -0.457949 -0.461232 
339.929 2920.84 2536.2 -0.759966 -0.457949 -0.461232 
-10.7593 3005.49 3034.09 -0.759966 -0.457949 -0.461232 
245.652 2945.28 2668.36 -0.759966 -0.457949 -0.461232 
-178.327 3041.95 3275.99 -0.759966 -0.457949 -0.461232 
-189.904 3046.43 3290.73 -0.759966 -0.457949 -0.461232 
-130.897 3030.52 3208.63 -0.759966 -0.457949 -0.461232 
294.069 2943.4 2590.37 -0.770834 -0.425344 -0.474234 
-188.421 3056.25 3279.2 -0.770834 -0.425344 -0.474234 
297.162 2942.85 2585.8 -0.770834 -0.425344 -0.474234 
124.716 2979.22 2835.55 -0.770834 -0.425344 -0.474234 
168.749 2967.98 2773.53 -0.770834 -0.425344 -0.474234 
-226.022 3061.07 3336.45 -0.770834 -0.425344 -0.474234 
207.446 2972.25 2706.93 -0.783741 -0.386214 -0.486404 
202.044 2975.59 2712.99 -0.783741 -0.386214 -0.486404 
-128.588 3050.26 3187.27 -0.783741 -0.386214 -0.486404 
104.97 2993.31 2855.6 -0.783741 -0.386214 -0.486404 
216.734 2964.68 2697.99 -0.783741 -0.386214 -0.486404 
-179.759 3055.57 3265.67 -0.783741 -0.386214 -0.486404 
236.9 2959.44 2669.61 -0.783741 -0.386214 -0.486404 
139.99 2994.73 2798.35 -0.790841 -0.354515 -0.498888 
305.412 2956.16 2561.97 -0.790841 -0.354515 -0.498888 
73.1703 3013.89 2891.3 -0.790841 -0.354515 -0.498888 
106.471 3004.49 2844.87 -0.790841 -0.354515 -0.498888 
331.597 2946.34 2527.18 -0.790841 -0.354515 -0.498888 
-207.384 3071.76 3297.51 -0.790841 -0.354515 -0.498888 
-121.395 3056.8 3171.05 -0.790841 -0.354515 -0.498888 
-154.588 3060 3221.68 -0.790841 -0.354515 -0.498888 
225.878 2987.46 2667.37 -0.799171 -0.312995 -0.513185 
133.039 3005.56 2802.24 -0.799171 -0.312995 -0.513185 
240.002 2982.78 2648.03 -0.799171 -0.312995 -0.513185 
293.177 2969.1 2572.83 -0.799171 -0.312995 -0.513185 
-237.426 3091.53 3331.95 -0.799171 -0.312995 -0.513185 
-123.431 3062.19 3170.74 -0.799171 -0.312995 -0.513185 
-104.698 3060.94 3142.05 -0.799171 -0.312995 -0.513185 
-20.8621 3051.33 3016.66 -0.808133 -0.277747 -0.519402 
156.665 3010.16 2762.78 -0.808133 -0.277747 -0.519402 
102.728 3023.96 2839.22 -0.808133 -0.277747 -0.519402 
-60.9597 3058.83 3074.96 -0.808133 -0.277747 -0.519402 
-37.5161 3053.69 3041.28 -0.808133 -0.277747 -0.519402 
-171.876 3085.85 3232.9 -0.808133 -0.277747 -0.519402 
140.233 3010.34 2788.2 -0.808133 -0.277747 -0.519402 
275.369 2987.8 2590.44 -0.812103 -0.242857 -0.530574 
-34.5835 3064.55 3031.57 -0.812103 -0.242857 -0.530574 
172.036 3015.22 2736.68 -0.812103 -0.242857 -0.530574 
359.325 2970.87 2469.22 -0.812103 -0.242857 -0.530574 
-243.016 3104.97 3333.25 -0.812103 -0.242857 -0.530574 
8.14233 3049.11 2972.95 -0.812103 -0.242857 -0.530574 
50.5238 3037.95 2912.93 -0.812103 -0.242857 -0.530574 
78.7496 3048.83 2865.4 -0.816095 -0.199085 -0.542544 
341.234 2981.11 2492.48 -0.816095 -0.199085 -0.542544 
288.592 2999.4 2565.52 -0.816095 -0.199085 -0.542544 
279.998 2997.83 2579.14 -0.816095 -0.199085 -0.542544 
325.309 2983.83 2515.62 -0.816095 -0.199085 -0.542544 
-88.0105 3081.08 3106.33 -0.816095 -0.199085 -0.542544 
23.8398 3053.02 2947.12 -0.816095 -0.199085 -0.542544 
264.943 3015.77 2596 -0.819271 -0.163255 -0.549675 
117.517 3045.95 2808.09 -0.819271 -0.163255 -0.549675 
-5.22681 3078.44 2982.5 -0.819271 -0.163255 -0.549675 
-124.992 3097.61 3156.36 -0.819271 -0.163255 -0.549675 
64.2754 3055.93 2884.95 -0.819271 -0.163255 -0.549675 
-4.67456 3069.48 2984.31 -0.819271 -0.163255 -0.549675 
154.918 3047.58 2751.99 -0.820171 -0.121779 -0.559007 
95.7162 3062.53 2836.42 -0.820171 -0.121779 -0.559007 
-87.8206 3104.72 3099.09 -0.820171 -0.121779 -0.559007 
-0.219727 3083.56 2973.94 -0.820171 -0.121779 -0.559007 
-204.007 3129.22 3265.86 -0.820171 -0.121779 -0.559007 
-127.275 3108.09 3156.81 -0.820171 -0.121779 -0.559007 
164.35 3041.15 2739.43 -0.820171 -0.121779 -0.559007 
91.8312 3074.3 2840.19 -0.821714 -0.0846093 -0.563584 
37.8333 3083.94 2917.88 -0.821714 -0.0846093 -0.563584 
280.399 3031.96 2570.18 -0.821714 -0.0846093 -0.563584 
188.196 3044.98 2703.34 -0.821714 -0.0846093 -0.563584 
-114.389 3116.27 3136.13 -0.821714 -0.0846093 -0.563584 
-187.253 3134.05 3240.26 -0.821714 -0.0846093 -0.563584 
100.162 3065 2829.36 -0.821714 -0.0846093 -0.563584 
127.599 3069.64 2788.63 -0.823227 -0.0433278 -0.566056 
-122.807 3130.48 3146.74 -0.823227 -0.0433278 -0.566056 
-241.21 3156.91 3316.25 -0.823227 -0.0433278 -0.566056 
-26.3682 3108.62 3008.7 -0.823227 -0.0433278 -0.566056 
24.231 3097.23 2936.27 -0.823227 -0.0433278 -0.566056 
-86.2517 3124.81 3094.22 -0.823227 -0.0433278 -0.566056 
271.588 3037.91 2582.46 -0.823227 -0.0433278 -0.566056 
229.796 3047.72 2642.25 -0.823227 -0.0433278 -0.566056 
-78.3853 3129.92 3082.78 -0.818485 -0.00959698 -0.574448 
234.855 3053.38 2634.53 -0.818485 -0.00959698 -0.574448 
-242.412 3166.11 3317.53 -0.818485 -0.00959698 -0.574448 
279.494 3052.45 2570.57 -0.818485 -0.00959698 -0.574448 
-7.38135 3114.69 2981.16 -0.818485 -0.00959698 -0.574448 
-202.08 3162.9 3259.77 -0.818485 -0.00959698 -0.574448 
294.461 3044.65 2549.19 -0.818485 -0.00959698 -0.574448 
60.0179 3105.88 2884.85 -0.816195 0.0291995 -0.577038 
-189.706 3161.67 3242.13 -0.816195 0.0291995 -0.577038 
169.906 3080.7 2727.59 -0.816195 0.0291995 -0.577038 
14.8867 3121.75 2949.77 -0.816195 0.0291995 -0.577038 
197.591 3078.84 2688.24 -0.816195 0.0291995 -0.577038 
-86.7612 3146.24 3095.31 -0.816195 0.0291995 -0.577038 
-89.5813 3151.22 3099.86 -0.809231 0.0730456 -0.582932 
-97.0364 3154.27 3110.7 -0.809231 0.0730456 -0.582932 
24.063 3123.65 2937.03 -0.809231 0.0730456 -0.582932 
178.708 3089.85 2715.95 -0.809231 0.0730456 -0.582932 
205.233 3088.46 2678.59 -0.809231 0.0730456 -0.582932 
-174.679 3175.8 3222.29 -0.809231 0.0730456 -0.582932 
338.102 3051.01 2487.56 -0.809231 0.0730456 -0.582932 
191.799 3094.35 2698.27 -0.805145 0.112926 -0.582227 
-210.49 3186.77 3273.98 -0.805145 0.112926 -0.582227 
-118.762 3170.9 3143.73 -0.805145 0.112926 -0.582227 
116.45 3117.58 2807.26 -0.805145 0.112926 -0.582227 
-131.804 3175.63 3162.73 -0.805145 0.112926 -0.582227 
157.617 3106.89 2748.11 -0.805145 0.112926 -0.582227 
117.788 3122.6 2806.55 -0.798453 0.151302 -0.582736 
-132.22 3184.39 3165.47 -0.798453 0.151302 -0.582736 
-251.554 3214.1 3336.84 -0.798453 0.151302 -0.582736 
32.0054 3141.5 2929.1 -0.798453 0.151302 -0.582736 
352.771 3068.63 2470.29 -0.798453 0.151302 -0.582736 
183.943 3109.16 2712.34 -0.798453 0.151302 -0.582736 
-99.9512 3180.12 3120.12 -0.798453 0.151302 -0.582736 
-109.22 3184.95 3134.25 -0.789724 0.193994 -0.581982 
114.264 3132.24 2813.99 -0.789724 0.193994 -0.581982 
-59.24 3172.19 3062.31 -0.789724 0.193994 -0.581982 
-121.975 3188.8 3152.8 -0.789724 0.193994 -0.581982 
305.394 3096.15 2543.05 -0.789724 0.193994 -0.581982 
306.413 3092.56 2540.49 -0.789724 0.193994 -0.581982 
357.834 3080.7 2466.89 -0.789724 0.193994 -0.581982 
134.877 3136.42 2787.43 -0.789724 0.193994 -0.581982 
231.46 3117.45 2650.47 -0.777577 0.232182 -0.584351 
28.8059 3162.21 2939.76 -0.777577 0.232182 -0.584351 
321.873 3100.1 2522.45 -0.777577 0.232182 -0.584351 
-18.4753 3176.06 3008.6 -0.777577 0.232182 -0.584351 
-211.341 3225.92 3286.79 -0.777577 0.232182 -0.584351 
-19.7339 3176.99 3010.66 -0.777577 0.232182 -0.584351 
218.723 3128.61 2672.03 -0.768201 0.266583 -0.582066 
-201.557 3229.65 3275.52 -0.768201 0.266583 -0.582066 
55.9957 3166.31 2905.04 -0.768201 0.266583 -0.582066 
235.291 3124.54 2648.2 -0.768201 0.266583 -0.582066 
71.0337 3169.96 2886.8 -0.768201 0.266583 -0.582066 
305.862 3112.42 2549.11 -0.768201 0.266583 -0.582066 
47.1797 3175.08 2920.77 -0.768201 0.266583 -0.582066 
301.089 3112.09 2555.28 -0.768201 0.266583 -0.582066 
-96.4014 3217.42 3131.05 -0.755519 0.306378 -0.579071 
-197.484 3237.48 3274.02 -0.755519 0.306378 -0.579071 
-71.0073 3209.83 3093.78 -0.755519 0.306378 -0.579071 
177.996 3154.74 2738.59 -0.755519 0.306378 -0.579071 
364.381 3108.5 2470.06 -0.755519 0.306378 -0.579071 
277.071 3129.36 2595.43 -0.755519 0.306378 -0.579071 
182.364 3150.87 2730.82 -0.755519 0.306378 -0.579071 
16.5667 3198.8 2973.59 -0.744782 0.342372 -0.572784 
-223.493 3258.09 3319.58 -0.744782 0.342372 -0.572784 
57.9434 3187.98 2913.6 -0.744782 0.342372 -0.572784 
-199.012 3244.87 3280 -0.744782 0.342372 -0.572784 
196.963 3157.67 2715.64 -0.744782 0.342372 -0.572784 
-67.1521 3222.6 3096.11 -0.744782 0.342372 -0.572784 
-7.948 3207.18 3010.31 -0.744782 0.342372 -0.572784 
-205.623 3258.17 3296.69 -0.728445 0.378137 -0.571297 
225.042 3156.48 2678.61 -0.728445 0.378137 -0.571297 
-27.5996 3219.24 3043.27 -0.728445 0.378137 -0.571297 
-189.358 3257.04 3275.16 -0.728445 0.378137 -0.571297 
64.8143 3202.23 2913.84 -0.728445 0.378137 -0.571297 
312.121 3144.66 2559.46 -0.728445 0.378137 -0.571297 
-13.0596 3217.8 3023.73 -0.728445 0.378137 -0.571297 
364.51 3125.72 2479.9 -0.728445 0.378137 -0.571297 
168.952 3179.81 2765.87 -0.709407 0.418368 -0.567195 
-205.137 3268.68 3303.32 -0.709407 0.418368 -0.567195 
238.194 3163.69 2666.64 -0.709407 0.418368 -0.567195 
65.5043 3203.31 2913.7 -0.709407 0.418368 -0.567195 
118.279 3197.67 2842.96 -0.709407 0.418368 -0.567195 
209.577 3175.24 2711.25 -0.709407 0.418368 -0.567195 
331.778 3149.05 2537.78 -0.709407 0.418368 -0.567195 
18.8596 3229.17 2992 -0.694134 0.451104 -0.560967 
-79.7256 3251.51 3132.81 -0.694134 0.451104 -0.560967 
-130.756 3262.66 3205.37 -0.694134 0.451104 -0.560967 
49.2987 3219.26 2946.09 -0.694134 0.451104 -0.560967 
280.94 3172.03 2619.47 -0.694134 0.451104 -0.560967 
-4.76758 3235.39 3026.45 -0.694134 0.451104 -0.560967 
57.2303 3224.59 2940.52 -0.694134 0.451104 -0.560967 
45.1694 3228.38 2958.67 -0.676065 0.488176 -0.551924 
-127.109 3274.97 3211.35 -0.676065 0.488176 -0.551924 
-22.6624 3246 3057.53 -0.676065 0.488176 -0.551924 
-45.0315 3256.34 3094.12 -0.676065 0.488176 -0.551924 
376.655 3155.79 2487.5 -0.676065 0.488176 -0.551924 
242.465 3190.65 2683.07 -0.676065 0.488176 -0.551924 
-212.68 3305.13 3343.71 -0.65723 0.522758 -0.542929 
-188.323 3299.1 3308.44 -0.65723 0.522758 -0.542929 
81.5005 3229.64 2915.22 -0.65723 0.522758 -0.542929 
351.441 3171.72 2532.9 -0.65723 0.522758 -0.542929 
214.82 3202.98 2728.26 -0.65723 0.522758 -0.542929 
149.322 3220.79 2824.62 -0.65723 0.522758 -0.542929 
-31.6206 3270.66 3091.97 -0.638504 0.550899 -0.537422 
-69.9109 3277.23 3144.45 -0.638504 0.550899 -0.537422 
107.344 3232.51 2886.69 -0.638504 0.550899 -0.537422 
272.203 3194.71 2650.88 -0.638504 0.550899 -0.537422 
-62.6797 3279.36 3138.02 -0.638504 0.550899 -0.537422 
256.118 3204.8 2680.51 -0.638504 0.550899 -0.537422 
96.0856 3242.67 2910.63 -0.638504 0.550899 -0.537422 
-19.2749 3274.29 3081.27 -0.613453 0.586414 -0.528956 
3.51782 3268.4 3047.93 -0.613453 0.586414 -0.528956 
-17.8154 3271.81 3076.79 -0.613453 0.586414 -0.528956 
362.026 3187.37 2536.46 -0.613453 0.586414 -0.528956 
390.615 3182.75 2497.73 -0.613453 0.586414 -0.528956 
187.135 3230.54 2790.03 -0.613453 0.586414 -0.528956 
360.127 3190.97 2542.71 -0.613453 0.586414 -0.528956 
-164.335 3314.37 3296.44 -0.592524 0.619534 -0.514872 
-104.264 3299.68 3209.43 -0.592524 0.619534 -0.514872 
140.46 3245.46 2861.68 -0.592524 0.619534 -0.514872 
-76.4504 3302.05 3180.13 -0.592524 0.619534 -0.514872 
298.66 3213.74 2640.87 -0.592524 0.619534 -0.514872 
135.639 3252.82 2876.07 -0.592524 0.619534 -0.514872 
229.005 3231.65 2742.82 -0.592524 0.619534 -0.514872 
118.522 3257.53 2901.51 -0.570941 0.648414 -0.503573 
-2.15942 3289.15 3079.18 -0.570941 0.648414 -0.503573 
-132.681 3320.25 3267.35 -0.570941 0.648414 -0.503573 
385.568 3199.42 2523.6 -0.570941 0.648414 -0.503573 
332.096 3215.12 2604.49 -0.570941 0.648414 -0.503573 
312.469 3217.94 2630.41 -0.570941 0.648414 -0.503573 
307.784 3218.99 2637.07 -0.570941 0.648414 -0.503573 
-24.0208 3299.22 3116.98 -0.54868 0.676202 -0.491631 
11.9861 3293.2 3068.56 -0.54868 0.676202 -0.491631 
-159.549 3333.61 3315.37 -0.54868 0.676202 -0.491631 
376.814 3208.18 2544.94 -0.54868 0.676202 -0.491631 
364.922 3214.1 2566.34 -0.54868 0.676202 -0.491631 
421.977 3202.32 2486.53 -0.54868 0.676202 -0.491631 
311.815 3227.47 2643.94 -0.54868 0.676202 -0.491631 
-57.5117 3318.15 3180.64 -0.522199 0.705719 -0.478821 
-184.98 3348.27 3364.25 -0.522199 0.705719 -0.478821 
-165.988 3344.74 3338.29 -0.522199 0.705719 -0.478821 
307.022 3232.18 2655.84 -0.522199 0.705719 -0.478821 
-79.3118 3327.4 3218.08 -0.522199 0.705719 -0.478821 
-155.924 3346.15 3329.39 -0.522199 0.705719 -0.478821 
421.941 3208.06 2494.78 -0.522199 0.705719 -0.478821 
320.004 3231.47 2640.61 -0.522199 0.705719 -0.478821 
416.331 3214.84 2510.91 -0.495607 0.73098 -0.469087 
-74.1563 3331 3218.11 -0.495607 0.73098 -0.469087 
-113.567 3337.84 3271 -0.495607 0.73098 -0.469087 
-100.409 3335.3 3252.94 -0.495607 0.73098 -0.469087 
358.346 3235.18 2604.92 -0.495607 0.73098 -0.469087 
30.1675 3311.47 3075.83 -0.495607 0.73098 -0.469087 
285.3 3248.53 2704.02 -0.495607 0.73098 -0.469087 
353.338 3233.62 2607.82 -0.495607 0.73098 -0.469087 
379.016 3235.58 2583.91 -0.470326 0.758748 -0.45066 
362.526 3237.06 2603.61 -0.470326 0.758748 -0.45066 
138.065 3293.58 2933.07 -0.470326 0.758748 -0.45066 
51.7301 3313.81 3057.25 -0.470326 0.758748 -0.45066 
59.0298 3307.81 3039.53 -0.470326 0.758748 -0.45066 
144.396 3288.55 2917.99 -0.470326 0.758748 -0.45066 
-135.12 3354.81 3321.31 -0.470326 0.758748 -0.45066 
-62.7112 3344.6 3228.97 -0.443887 0.782087 -0.437383 
41.1873 3318.92 3077.08 -0.443887 0.782087 -0.437383 
-115.606 3354.8 3301.14 -0.443887 0.782087 -0.437383 
389.887 3236.87 2574.73 -0.443887 0.782087 -0.437383 
210.361 3285.47 2844.79 -0.443887 0.782087 -0.437383 
406.318 3237.55 2559.24 -0.443887 0.782087 -0.437383 
-62.4458 3347.43 3233.79 -0.443887 0.782087 -0.437383 
417.597 3232.53 2538.73 -0.443887 0.782087 -0.437383 
136.391 3302.76 2951.15 -0.412468 0.807282 -0.422098 
150.843 3302.34 2936.04 -0.412468 0.807282 -0.422098 
-147.991 3374.35 3369.99 -0.412468 0.807282 -0.422098 
55.8572 3321.38 3066.59 -0.412468 0.807282 -0.422098 
173.842 3300.58 2909.9 -0.412468 0.807282 -0.422098 
107.873 3315.41 3003.65 -0.412468 0.807282 -0.422098 
-40.2317 3349.93 3216.48 -0.412468 0.807282 -0.422098 
167.85 3301.9 2918.37 -0.412468 0.807282 -0.422098 
-8.10376 3344.64 3174.71 -0.384878 0.828359 -0.407052 
-124.77 3375.74 3350.42 -0.384878 0.828359 -0.407052 
8.04102 3343.78 3157.46 -0.384878 0.828359 -0.407052 
425.52 3248.39 2561.32 -0.384878 0.828359 -0.407052 
47.1418 3336.11 3104.23 -0.384878 0.828359 -0.407052 
301.446 3277.32 2739.68 -0.384878 0.828359 -0.407052 
152.455 3310.61 2950.89 -0.384878 0.828359 -0.407052 
155.401 3315.23 2957.91 -0.357 0.849628 -0.388179 
48.6652 3337.49 3105.62 -0.357 0.849628 -0.388179 
54.8242 3338.9 3103.02 -0.357 0.849628 -0.388179 
294.149 3286.78 2766.97 -0.357 0.849628 -0.388179 
422.134 3254.19 2576.88 -0.357 0.849628 -0.388179 
448.948 3246.01 2534.09 -0.357 0.849628 -0.388179 
319.756 3287.44 2745.63 -0.329113 0.86794 -0.371974 
65.8777 3345.4 3107.93 -0.329113 0.86794 -0.371974 
424.988 3263.49 2595.63 -0.329113 0.86794 -0.371974 
13.5103 3353.85 3174.38 -0.329113 0.86794 -0.371974 
-46.2922 3366.41 3257.17 -0.329113 0.86794 -0.371974 
-64.3564 3372.94 3288.6 -0.329113 0.86794 -0.371974 
394.058 3274.35 2649.29 -0.298613 0.886837 -0.352634 
460.035 3259.17 2554.86 -0.298613 0.886837 -0.352634 
293.097 3296.64 2791.41 -0.298613 0.886837 -0.352634 
130.357 3335.15 3027.02 -0.298613 0.886837 -0.352634 
165.538 3325.94 2973.85 -0.298613 0.886837 -0.352634 
98.863 3341.66 3070.25 -0.298613 0.886837 -0.352634 
227.729 3320.1 2907.17 -0.265437 0.904833 -0.332896 
261.168 3310.04 2852.86 -0.265437 0.904833 -0.332896 
240.298 3316.74 2887.9 -0.265437 0.904833 -0.332896 
167.552 3331.96 2987.89 -0.265437 0.904833 -0.332896 
-125.199 3398.03 3403.39 -0.265437 0.904833 -0.332896 
149.664 3335.55 3012.07 -0.265437 0.904833 -0.332896 
298.455 3308.64 2819.84 -0.233955 0.920033 -0.314333 
417.274 3281.91 2651.56 -0.233955 0.920033 -0.314333 
476.545 3264.63 2556.02 -0.233955 0.920033 -0.314333 
217.565 3324.8 2928.41 -0.233955 0.920033 -0.314333 
59.8444 3361.95 3156.69 -0.233955 0.920033 -0.314333 
260.114 3314.93 2867.26 -0.233955 0.920033 -0.314333 
245.019 3325.55 2910.58 -0.205636 0.933055 -0.295164 
183.538 3341.07 3002.95 -0.205636 0.933055 -0.295164 
492.294 3269.42 2559.08 -0.205636 0.933055 -0.295164 
196.117 3334.66 2973.75 -0.205636 0.933055 -0.295164 
-49.9006 3394.54 3336.3 -0.205636 0.933055 -0.295164 
-102.627 3406.75 3412.03 -0.205636 0.933055 -0.295164 
501.873 3269.75 2553.72 -0.172452 0.946449 -0.272936 
159.189 3351.26 3053.45 -0.172452 0.946449 -0.272936 
89.8441 3366.92 3151.68 -0.172452 0.946449 -0.272936 
181.839 3344.68 3016.27 -0.172452 0.946449 -0.272936 
224.787 3334.46 2953.61 -0.172452 0.946449 -0.272936 
-29.8723 3391.91 3314.17 -0.172452 0.946449 -0.272936 
-107.555 3409.4 3424.01 -0.172452 0.946449 -0.272936 
108.803 3367.32 3142.15 -0.138345 0.957877 -0.251657 
485.744 3281.58 2606.38 -0.138345 0.957877 -0.251657 
329.053 3317.46 2829.99 -0.138345 0.957877 -0.251657 
514.592 3272.95 2557.5 -0.138345 0.957877 -0.251657 
21.595 3385.39 3259.39 -0.138345 0.957877 -0.251657 
86.5148 3370.87 3168.06 -0.138345 0.957877 -0.251657 
175.05 3349.99 3039.41 -0.138345 0.957877 -0.251657 
273.951 3332.29 2917.75 -0.108497 0.966263 -0.233588 
45.2434 3386.97 3253.74 -0.108497 0.966263 -0.233588 
270.569 3334.68 2929.33 -0.108497 0.966263 -0.233588 
70.6066 3380.9 3216.43 -0.108497 0.966263 -0.233588 
12.2051 3393.22 3295.35 -0.108497 0.966263 -0.233588 
0.252197 3396.33 3313.98 -0.108497 0.966263 -0.233588 
-38.0938 3405.88 3371.88 -0.108497 0.966263 -0.233588 
155.349 3359.61 3087.64 -0.108497 0.966263 -0.233588 
120.73 3372.99 3161.36 -0.0779462 0.973709 -0.214043 
452.667 3296.12 2683.95 -0.0779462 0.973709 -0.214043 
6.99878 3399.08 3323.81 -0.0779462 0.973709 -0.214043 
507.547 3284.92 2612.33 -0.0414282 0.981256 -0.188202 
120.253 3374.44 3168.84 -0.0414282 0.981256 -0.188202 
212.462 3352.67 3033.95 -0.0414282 0.981256 -0.188202 
206.594 3354.88 3046.81 -0.0414282 0.981256 -0.188202 
251.969 3340.96 2965.01 -0.0779462 0.973709 -0.214043 
135.934 3366.7 3126.64 -0.0779462 0.973709 -0.214043 
-61.9346 3413.08 3413.84 -0.0779462 0.973709 -0.214043 
69.6227 3381.59 3219.82 -0.0779462 0.973709 -0.214043 
168.802 3366.58 3117.34 -0.0125079 0.985852 -0.167151 
390.727 3315.29 2798.31 -0.0125079 0.985852 -0.167151 
392.408 3315.8 2801.24 -0.0125079 0.985852 -0.167151 
362.198 3321.77 2838.64 -0.0125079 0.985852 -0.167151 
39.9309 3394.45 3291.81 -0.0414282 0.981256 -0.188202 
349.617 3323.27 2848.87 -0.0414282 0.981256 -0.188202 
38.2217 3395.18 3296.01 -0.0414282 0.981256 -0.188202 
47.5264 3396.39 3302.24 -0.0125079 0.985852 -0.167151 
79.7811 3387.83 3249.3 -0.0125079 0.985852 -0.167151 
130.569 3377.29 3183.42 -0.0125079 0.985852 -0.167151 
170.339 3370.22 3140.84 0.0214362 0.989449 -0.143284 
215.219 3359.79 3075.83 0.0214362 0.989449 -0.143284 
172.597 3369.56 3136.64 0.0214362 0.989449 -0.143284 
178.664 3367.69 3124.7 0.0214362 0.989449 -0.143284 
411.455 3312.86 2782.7 0.0214362 0.989449 -0.143284 
93.8435 3385.9 3237.06 0.0214362 0.989449 -0.143284 
433.174 3312.2 2784.08 0.0557659 0.991267 -0.119498 
139.73 3379.59 3203.11 0.0557659 0.991267 -0.119498 
477.949 3301.67 2718.08 0.0557659 0.991267 -0.119498 
219.185 3359.74 3076.5 0.0557659 0.991267 -0.119498 
24.894 3404.87 3358.15 0.0557659 0.991267 -0.119498 
39.5278 3401.89 3340.38 0.0557659 0.991267 -0.119498 
429.519 3314.19 2800.7 0.0886277 0.991018 -0.100138 
302.402 3343.88 2987.08 0.0886277 0.991018 -0.100138 
569.84 3281.04 2590.98 0.0886277 0.991018 -0.100138 
130.01 3382.54 3223.83 0.0886277 0.991018 -0.100138 
13.9697 3410.11 3398.77 0.0886277 0.991018 -0.100138 
-0.49585 3413.07 3415.69 0.0886277 0.991018 -0.100138 
220.72 3363.91 3119.59 0.122084 0.989458 -0.0779009 
386.251 3325.3 2875.65 0.122084 0.989458 -0.0779009 
304.498 3344.54 2998.33 0.122084 0.989458 -0.0779009 
9.79053 3412.53 3422.82 0.122084 0.989458 -0.0779009 
38.2747 3405.66 3377.82 0.122084 0.989458 -0.0779009 
324.36 3339.57 2964.71 0.122084 0.989458 -0.0779009 
191.297 3370.34 3157.2 0.122084 0.989458 -0.0779009 
336.687 3338.07 2967.6 0.154911 0.986537 -0.0524134 
578.485 3282.63 2624.85 0.154911 0.986537 -0.0524134 
206.214 3368.2 3156.53 0.154911 0.986537 -0.0524134 
277.724 3351.56 3050.47 0.154911 0.986537 -0.0524134 
70.4572 3399.14 3345.26 0.154911 0.986537 -0.0524134 
450.294 3311.64 2799.23 0.154911 0.986537 -0.0524134 
80.171 3396.98 3332.88 0.154911 0.986537 -0.0524134 
485.342 3304.7 2776.64 0.186117 0.982092 -0.0292638 
350.592 3335.77 2971.9 0.186117 0.982092 -0.0292638 
325.572 3341.52 3007.62 0.186117 0.982092 -0.0292638 
204.536 3369.12 3172.56 0.186117 0.982092 -0.0292638 
286.717 3350.14 3052.27 0.186117 0.982092 -0.0292638 
305.3 3345.83 3024.62 0.186117 0.982092 -0.0292638 
358.023 3334.14 2971.29 0.216803 0.976198 -0.00585953 
499.808 3301.55 2773.28 0.216803 0.976198 -0.00585953 
478.297 3306.46 2797.98 0.216803 0.976198 -0.00585953 
113.783 3390.27 3313.19 0.216803 0.976198 -0.00585953 
446.286 3313.79 2837.24 0.216803 0.976198 -0.00585953 
402.525 3323.84 2898.56 0.216803 0.976198 -0.00585953 
518.981 3296.87 2764.97 0.249592 0.968224 0.0156749 
598.361 3278.73 2644.6 0.249592 0.968224 0.0156749 
391.912 3326.1 2946.77 0.249592 0.968224 0.0156749 
17.666 3412.4 3470.17 0.249592 0.968224 0.0156749 
21.0598 3411.61 3466.1 0.249592 0.968224 0.0156749 
539.443 3292.43 2720.74 0.249592 0.968224 0.0156749 
450.331 3312.41 2869.58 0.278304 0.959713 0.0386881 
496.096 3301.54 2812.19 0.278304 0.959713 0.0386881 
620.685 3273.08 2629.09 0.278304 0.959713 0.0386881 
258.746 3356.66 3139.26 0.278304 0.959713 0.0386881 
288.463 3349.67 3100.51 0.278304 0.959713 0.0386881 
466.245 3308.88 2843.52 0.278304 0.959713 0.0386881 
431.058 3316.87 2896.33 0.278304 0.959713 0.0386881 
338.571 3336.93 3051.3 0.310996 0.948474 0.0606507 
596.984 3277.24 2685.26 0.310996 0.948474 0.0606507 
617.664 3272.75 2651.63 0.310996 0.948474 0.0606507 
249.683 3357.59 3175.38 0.310996 0.948474 0.0606507 
396.837 3323.86 2962.88 0.310996 0.948474 0.0606507 
82.8693 3395.62 3419.12 0.310996 0.948474 0.0606507 
60.2887 3399.1 3471.1 0.338865 0.936862 0.0863773 
393.062 3323.2 2987.88 0.338865 0.936862 0.0863773 
492.869 3299.6 2852.02 0.338865 0.936862 0.0863773 
342.625 3334.54 3062.93 0.338865 0.936862 0.0863773 
489.674 3301.42 2844.87 0.338865 0.936862 0.0863773 
203.253 3367.61 3251.4 0.338865 0.936862 0.0863773 
147.401 3379.42 3342.59 0.338865 0.936862 0.0863773 
444.525 3311.79 2909.62 0.338865 0.936862 0.0863773 
165.012 3374.7 3324.05 0.370397 0.922576 0.107976 
196.539 3367.29 3280.24 0.370397 0.922576 0.107976 
56.2876 3399.5 3481.39 0.370397 0.922576 0.107976 
312.105 3339.78 3122.66 0.370397 0.922576 0.107976 
508.328 3294.34 2844.45 0.370397 0.922576 0.107976 
509.505 3294.45 2839.53 0.370397 0.922576 0.107976 
52.9229 3398.71 3499.25 0.396303 0.908836 0.130234 
252.958 3352.69 3213.04 0.396303 0.908836 0.130234 
429.711 3312.02 2960.18 0.396303 0.908836 0.130234 
506.419 3293.68 2855.18 0.396303 0.908836 0.130234 
382.544 3320.79 3041.96 0.396303 0.908836 0.130234 
624.063 3266.38 2688.43 0.396303 0.908836 0.130234 
476.002 3300.14 2902.37 0.396303 0.908836 0.130234 
259.636 3348.35 3222.14 0.423982 0.892519 0.153783 
176.573 3367.9 3338.43 0.423982 0.892519 0.153783 
495.053 3294.44 2883.78 0.423982 0.892519 0.153783 
473.57 3298.19 2921.44 0.423982 0.892519 0.153783 
435.077 3305.94 2982.9 0.423982 0.892519 0.153783 
632.873 3260.91 2697.1 0.423982 0.892519 0.153783 
196.033 3359.27 3333.2 0.453556 0.873352 0.177606 
369.171 3320.74 3079.04 0.453556 0.873352 0.177606 
139.52 3372.55 3412.69 0.453556 0.873352 0.177606 
328.438 3328.75 3144.06 0.453556 0.873352 0.177606 
628.847 3259.31 2715.77 0.453556 0.873352 0.177606 
417.719 3308.16 3016.54 0.453556 0.873352 0.177606 
505.594 3286.59 2897.47 0.453556 0.873352 0.177606 
526.821 3281.57 2867.71 0.480245 0.854267 0.19898 
145.66 3367.25 3421.78 0.480245 0.854267 0.19898 
543.873 3277.4 2844.34 0.480245 0.854267 0.19898 
601.273 3261.86 2772.27 0.480245 0.854267 0.19898 
679.704 3243.26 2662.41 0.480245 0.854267 0.19898 
575.681 3267.73 2808.94 0.480245 0.854267 0.19898 
479.981 3288.6 2950.65 0.506211 0.834563 0.217382 
71.8049 3379.39 3546.54 0.506211 0.834563 0.217382 
141.273 3365.86 3437.83 0.506211 0.834563 0.217382 
575.482 3264.14 2823.39 0.506211 0.834563 0.217382 
395.919 3305.57 3079.87 0.506211 0.834563 0.217382 
558.294 3268.14 2847.83 0.506211 0.834563 0.217382 
404.132 3303.71 3068.04 0.506211 0.834563 0.217382 
687.026 3234.93 2676.11 0.534528 0.810313 0.24015 
673.075 3237.46 2698.35 0.534528 0.810313 0.24015 
292.093 3325.39 3242.6 0.534528 0.810313 0.24015 
208.414 3347.57 3352.51 0.534528 0.810313 0.24015 
176.713 3352.1 3407.15 0.534528 0.810313 0.24015 
124.928 3365.71 3475.56 0.534528 0.810313 0.24015 
668.053 3237.28 2709.89 0.556509 0.788518 0.261794 
589.382 3254.71 2824.48 0.556509 0.788518 0.261794 
419.742 3290.4 3077.26 0.556509 0.788518 0.261794 
611.377 3244.01 2809.32 0.5836 0.761701 0.281464 
202.203 3339.93 3390.02 0.5836 0.761701 0.281464 
626.43 3240.6 2787.62 0.5836 0.761701 0.281464 
142.001 3356.17 3469.09 0.556509 0.788518 0.261794 
160.666 3351.35 3443.97 0.556509 0.788518 0.261794 
83.4773 3371.71 3546.6 0.556509 0.788518 0.261794 
406.955 3296.16 3087.09 0.556509 0.788518 0.261794 
290.192 3316.57 3272.53 0.5836 0.761701 0.281464 
122.252 3356.76 3508.67 0.5836 0.761701 0.281464 
418.992 3285.82 3091.24 0.5836 0.761701 0.281464 
217.372 3326.62 3393.47 0.605409 0.73709 0.300296 
460.318 3273.19 3039.81 0.605409 0.73709 0.300296 
369.14 3292.64 3174 0.605409 0.73709 0.300296 
514.609 3262.57 2957.55 0.605409 0.73709 0.300296 
182.251 3339.74 3431.45 0.605409 0.73709 0.300296 
304.042 3310 3261.36 0.605409 0.73709 0.300296 
341.153 3292.88 3227.98 0.627517 0.708592 0.322677 
323.725 3297.48 3251.61 0.627517 0.708592 0.322677 
634.414 3228.92 2800.57 0.627517 0.708592 0.322677 
316.273 3303.67 3252.41 0.627517 0.708592 0.322677 
361.423 3290.86 3193.14 0.627517 0.708592 0.322677 
161.47 3334.65 3484.16 0.627517 0.708592 0.322677 
556.623 3247.15 2911.15 0.627517 0.708592 0.322677 
412.821 3270.36 3137.58 0.646704 0.682542 0.340456 
611.262 3228.6 2845.82 0.646704 0.682542 0.340456 
468.378 3259.1 3055.04 0.646704 0.682542 0.340456 
492.752 3255.89 3015.36 0.646704 0.682542 0.340456 
452.601 3266.27 3070.53 0.646704 0.682542 0.340456 
403.749 3277.12 3141.22 0.646704 0.682542 0.340456 
571.51 3228.56 2920.19 0.667214 0.65082 0.362296 
633.702 3217.08 2826.06 0.667214 0.65082 0.362296 
417.53 3264.02 3140.48 0.667214 0.65082 0.362296 
155.917 3322.86 3517.31 0.667214 0.65082 0.362296 
190.982 3317.71 3461.82 0.667214 0.65082 0.362296 
116.924 3334.9 3567.53 0.667214 0.65082 0.362296 
500.981 3249.56 3012.44 0.667214 0.65082 0.362296 
691.074 3196.73 2756.47 0.685571 0.623097 0.376488 
706.527 3190.42 2738.89 0.685571 0.623097 0.376488 
229.737 3299.09 3422.89 0.685571 0.623097 0.376488 
534.369 3233.55 2979.45 0.685571 0.623097 0.376488 
374.835 3268.83 3210.09 0.685571 0.623097 0.376488 
429.575 3258.99 3127.21 0.685571 0.623097 0.376488 
243.686 3299.76 3396.53 0.685571 0.623097 0.376488 
559.168 3217.3 2960.45 0.700528 0.595037 0.393944 
700.748 3190.17 2749.68 0.700528 0.595037 0.393944 
667.087 3195.77 2801.07 0.700528 0.595037 0.393944 
157.165 3315.36 3527.39 0.700528 0.595037 0.393944 
622.59 3207.61 2862.34 0.700528 0.595037 0.393944 
201.299 3302.37 3468.48 0.700528 0.595037 0.393944 
312.083 3276.6 3310.38 0.700528 0.595037 0.393944 
575.293 3207.12 2946.3 0.72048 0.558908 0.410525 
214.052 3289.27 3464.57 0.72048 0.558908 0.410525 
582.118 3206.63 2935.06 0.72048 0.558908 0.410525 
690.794 3184.63 2775.46 0.72048 0.558908 0.410525 
388.493 3252.51 3210.35 0.72048 0.558908 0.410525 
445.571 3239.62 3128.33 0.72048 0.558908 0.410525 
422.063 3245.9 3160.79 0.72048 0.558908 0.410525 
707.378 3174.22 2760.59 0.734693 0.526667 0.427608 
605.408 3191.57 2914.04 0.734693 0.526667 0.427608 
702.797 3171.69 2771.56 0.734693 0.526667 0.427608 
723.406 3161.13 2748.91 0.748029 0.49485 0.442241 
473.348 3219.5 3105.82 0.748029 0.49485 0.442241 
260.962 3270.24 3407.67 0.748029 0.49485 0.442241 
303.552 3264.18 3342.12 0.734693 0.526667 0.427608 
305.005 3262.45 3341.77 0.734693 0.526667 0.427608 
143.502 3298.94 3573.7 0.734693 0.526667 0.427608 
419.656 3228.8 3186.06 0.748029 0.49485 0.442241 
370.274 3240.88 3255.94 0.748029 0.49485 0.442241 
246.088 3271.84 3430.99 0.748029 0.49485 0.442241 
148.653 3280.39 3584.98 0.761347 0.460083 0.456808 
696.254 3161.4 2794.31 0.761347 0.460083 0.456808 
303.204 3245.28 3363.36 0.761347 0.460083 0.456808 
645.892 3165.82 2873.55 0.772024 0.426001 0.471702 
307.587 3241.94 3359.23 0.772024 0.426001 0.471702 
504.73 3194.23 3079.22 0.772024 0.426001 0.471702 
739.207 3143.92 2740.39 0.772024 0.426001 0.471702 
643.398 3174.3 2869.21 0.761347 0.460083 0.456808 
323.928 3244.61 3329.6 0.761347 0.460083 0.456808 
215.061 3266.36 3488.7 0.761347 0.460083 0.456808 
275.034 3246.76 3408.21 0.772024 0.426001 0.471702 
228.964 3258.12 3473.46 0.772024 0.426001 0.471702 
560.287 3179.58 3001.39 0.772024 0.426001 0.471702 
227.48 3257.58 3476.37 0.772024 0.426001 0.471702 
717.657 3133.7 2784.12 0.784972 0.386821 0.483931 
741.59 3127.64 2750.32 0.784972 0.386821 0.483931 
660.442 3151.45 2862.33 0.784972 0.386821 0.483931 
267.626 3244.21 3422.59 0.784972 0.386821 0.483931 
211.873 3257.29 3502.17 0.784972 0.386821 0.483931 
531.09 3183.95 3045.26 0.784972 0.386821 0.483931 
217.531 3255.68 3494.32 0.784972 0.386821 0.483931 
491.382 3177.36 3113.97 0.792932 0.350812 0.498186 
546.817 3165.7 3033.86 0.792932 0.350812 0.498186 
364.926 3206.19 3295.12 0.792932 0.350812 0.498186 
582.861 3150.02 2987.05 0.802743 0.311914 0.508246 
320.784 3214.3 3359.65 0.802743 0.311914 0.508246 
330.478 3211.16 3346.34 0.802743 0.311914 0.508246 
753.763 3111.47 2742 0.802743 0.311914 0.508246 
447.826 3194.62 3171.19 0.792932 0.350812 0.498186 
180.878 3252.78 3555.52 0.792932 0.350812 0.498186 
236.516 3238.34 3477.05 0.792932 0.350812 0.498186 
166.889 3258.17 3574 0.792932 0.350812 0.498186 
373.426 3194.87 3288.83 0.802743 0.311914 0.508246 
597.619 3143.88 2967.62 0.802743 0.311914 0.508246 
494.012 3169.11 3115.04 0.802743 0.311914 0.508246 
556.134 3152.93 3027.3 0.802743 0.311914 0.508246 
456.412 3166.96 3174.81 0.810529 0.277493 0.515791 
542.449 3151.52 3049.36 0.810529 0.277493 0.515791 
447.914 3168.7 3187.09 0.810529 0.277493 0.515791 
729.619 3109.14 2781.15 0.810529 0.277493 0.515791 
464.881 3169.62 3160.24 0.810529 0.277493 0.515791 
251.239 3217.14 3466.85 0.810529 0.277493 0.515791 
491.498 3164.74 3121.49 0.810529 0.277493 0.515791 
544.141 3139.05 3052.81 0.812103 0.242857 0.530574 
311.496 3192.45 3385.8 0.812103 0.242857 0.530574 
219.596 3211.9 3518.08 0.812103 0.242857 0.530574 
580.607 3128.62 3001.54 0.812103 0.242857 0.530574 
298.77 3196.05 3403.71 0.812103 0.242857 0.530574 
444.679 3166.85 3192.94 0.812103 0.242857 0.530574 
185.778 3227.18 3563.1 0.812103 0.242857 0.530574 
435.343 3168.49 3206.53 0.812103 0.242857 0.530574 
314.176 3182.69 3385.54 0.818447 0.198918 0.539051 
246.361 3203.51 3480.66 0.818447 0.198918 0.539051 
239.851 3199.09 3492.17 0.818447 0.198918 0.539051 
169.447 3222.05 3590.42 0.818447 0.198918 0.539051 
428.891 3157.01 3221.11 0.818447 0.198918 0.539051 
670.039 3098.48 2877.13 0.818447 0.198918 0.539051 
361.308 3170.77 3318.49 0.818447 0.198918 0.539051 
591.045 3114.8 2990.75 0.820252 0.162855 0.548329 
521.798 3130.04 3090.05 0.820252 0.162855 0.548329 
369.732 3162.07 3308.54 0.820252 0.162855 0.548329 
351.627 3170.97 3333.06 0.820252 0.162855 0.548329 
399.316 3151.73 3267.25 0.820252 0.162855 0.548329 
283.716 3178.91 3432.51 0.820252 0.162855 0.548329 
716.008 3086.81 2811.69 0.820252 0.162855 0.548329 
571.845 3109.8 3020.89 0.82351 0.124774 0.55341 
173.075 3198.31 3592.29 0.82351 0.124774 0.55341 
248.171 3184.69 3484.01 0.82351 0.124774 0.55341 
638.466 3092.88 2925.9 0.82351 0.124774 0.55341 
557.589 3108.44 3042.32 0.82351 0.124774 0.55341 
547.658 3108.35 3057.05 0.82351 0.124774 0.55341 
645.367 3085.19 2917.37 0.82351 0.124774 0.55341 
254.078 3166.72 3478.65 0.824162 0.0816996 0.56043 
560.996 3103.66 3038.3 0.824162 0.0816996 0.56043 
394.113 3137.34 3277.82 0.824162 0.0816996 0.56043 
525.652 3103.57 3090.1 0.824162 0.0816996 0.56043 
595.088 3086.53 2990.88 0.824162 0.0816996 0.56043 
712.383 3067.95 2821.78 0.824162 0.0816996 0.56043 
490.496 3108.59 3140.74 0.823227 0.0433278 0.566056 
666.28 3064.53 2889.45 0.823227 0.0433278 0.566056 
664.747 3063.48 2891.75 0.823227 0.0433278 0.566056 
250.362 3156.18 3484.99 0.823227 0.0433278 0.566056 
578.873 3080.76 3014.84 0.823227 0.0433278 0.566056 
180.586 3172.35 3584.83 0.823227 0.0433278 0.566056 
762.021 3029.4 2752.84 0.821204 0.00408559 0.570621 
424.01 3114.72 3236.52 0.821204 0.00408559 0.570621 
529.899 3088.92 3084.99 0.821204 0.00408559 0.570621 
522.861 3086.66 3095.09 0.821204 0.00408559 0.570621 
473.498 3096.16 3165.75 0.821204 0.00408559 0.570621 
273.195 3141.05 3452.42 0.821204 0.00408559 0.570621 
297.235 3129.26 3417.68 0.816432 -0.0348902 0.576387 
471.541 3093.18 3168.47 0.816432 -0.0348902 0.576387 
209.685 3146.1 3542.77 0.816432 -0.0348902 0.576387 
278.95 3134.85 3443.93 0.816432 -0.0348902 0.576387 
437.597 3095.08 3216.69 0.816432 -0.0348902 0.576387 
707.237 3035.96 2830.98 0.816432 -0.0348902 0.576387 
624.786 3054.8 2948.97 0.816432 -0.0348902 0.576387 
640.023 3046.67 2926.88 0.816432 -0.0348902 0.576387 
200.859 3144.91 3555.07 0.812536 -0.0728284 0.578343 
351.021 3106.46 3339.67 0.812536 -0.0728284 0.578343 
424.092 3092.95 3235.52 0.812536 -0.0728284 0.578343 
505.906 3075.99 3118.67 0.812536 -0.0728284 0.578343 
668.271 3031.49 2885.39 0.812536 -0.0728284 0.578343 
751.408 3019.26 2767.29 0.812536 -0.0728284 0.578343 
566.996 3059.19 3030.89 0.812536 -0.0728284 0.578343 
749.994 3004.06 2766.89 0.805145 -0.112926 0.582227 
754.448 3009.35 2761.75 0.805145 -0.112926 0.582227 
431.049 3083.79 3224.58 0.805145 -0.112926 0.582227 
192.901 3130.26 3563.78 0.805145 -0.112926 0.582227 
231.968 3125.12 3508.62 0.805145 -0.112926 0.582227 
661.497 3021.19 2892.91 0.805145 -0.112926 0.582227 
207.52 3133.14 3544.08 0.805145 -0.112926 0.582227 
155.692 3134.97 3616.14 0.798088 -0.154227 0.582469 
234.402 3113.13 3502.51 0.798088 -0.154227 0.582469 
264.559 3104.65 3458.95 0.798088 -0.154227 0.582469 
228.212 3117.16 3512.06 0.798088 -0.154227 0.582469 
615.897 3024.76 2956.39 0.798088 -0.154227 0.582469 
249.127 3105.55 3480.34 0.798088 -0.154227 0.582469 
640.246 3018.13 2921.27 0.798088 -0.154227 0.582469 
174.021 3114.61 3585.14 0.789724 -0.193994 0.581982 
266.39 3097.88 3454.44 0.789724 -0.193994 0.581982 
337.79 3079.14 3351.49 0.789724 -0.193994 0.581982 
690.273 2996.99 2846.69 0.789724 -0.193994 0.581982 
376.463 3067.99 3295.4 0.789724 -0.193994 0.581982 
577.879 3025.86 3008.53 0.789724 -0.193994 0.581982 
644.478 3007.66 2912.28 0.789724 -0.193994 0.581982 
320.342 3077.49 3374.51 0.780216 -0.23204 0.580879 
549.249 3023.19 3046.27 0.780216 -0.23204 0.580879 
164.342 3110.26 3596.54 0.780216 -0.23204 0.580879 
264.216 3085.12 3452.75 0.780216 -0.23204 0.580879 
366.645 3059.91 3305.51 0.780216 -0.23204 0.580879 
699.481 2988.13 2831.07 0.780216 -0.23204 0.580879 
748.498 2971.32 2758.73 0.780216 -0.23204 0.580879 
757.432 2962.96 2739.77 0.901153 -0.294465 0.318141 
772.098 2990.71 2718.24 0.926619 -0.201684 0.317335 
776.092 3042.3 2719.36 0.952723 0.013628 0.303533 
783.386 3003.93 2691.18 0.945536 -0.090993 0.312541 
779.813 3044.03 2707.53 0.952723 0.013628 0.303533 
790.141 2978.69 2658.01 0.926619 -0.201684 0.317335 
777.549 3061.2 2711.03 0.951116 0.120378 0.284409 
785.84 3039.1 2688.69 0.952723 0.013628 0.303533 
795.803 2989.64 2647.82 0.937689 -0.146045 0.315293 
797.324 2985.05 2641.01 0.926619 -0.201684 0.317335 
765.365 3121.88 2704.6 0.918731 0.322488 0.227891 
809.65 2986.3 2605.22 0.937689 -0.146045 0.315293 
796.917 3058.64 2647.08 0.951116 0.120378 0.284409 
776.69 3112.04 2672.84 0.918731 0.322488 0.227891 
813.228 3002.7 2600.7 0.945536 -0.090993 0.312541 
805.394 3045.6 2624.08 0.951116 0.120378 0.284409 
723.163 3203.87 2679.77 0.776084 0.626339 0.0734328 
822.979 2979.97 2562.76 0.937689 -0.146045 0.315293 
721.764 3207.01 2665.01 0.742299 0.668211 0.0498665 
814.436 3045.94 2593.58 0.951116 0.120378 0.284409 
779.73 3128.93 2629.01 0.888397 0.417122 0.19173 
795.561 3100.22 2613.45 0.918731 0.322488 0.227891 
744.721 3179.88 2652.72 0.79926 0.59253 0.100453 
691.568 3236.7 2641.92 0.646159 0.7621 -0.0410035 
770.737 3147.92 2621.66 0.848754 0.507487 0.148569 
752.636 3173.91 2625.11 0.79926 0.59253 0.100453 
820.569 3053.66 2568.3 0.947427 0.172136 0.269725 
791.727 3117.67 2597.85 0.888397 0.417122 0.19173 
840.76 3004.43 2516.48 0.950456 -0.039338 0.308359 
846.855 2976.33 2490.27 0.937689 -0.146045 0.315293 
831.573 3036.51 2539.99 0.951116 0.120378 0.284409 
734.594 3196.56 2610.68 0.713884 0.699858 0.0238429 
854.512 2964.5 2461.1 0.926309 -0.198797 0.320049 
845.064 3008.82 2502.81 0.952723 0.013628 0.303533 
762.348 3167.24 2584.57 0.772371 0.63089 0.0736279 
631.865 3269.76 2606.5 0.435551 0.878485 -0.196367 
798.484 3117.78 2564.45 0.868124 0.465644 0.171862 
737.766 3193.97 2591.13 0.713884 0.699858 0.0238429 
747.153 3184.23 2591.22 0.742299 0.668211 0.0498665 
843.772 3022.25 2504.77 0.953822 0.0652952 0.293188 
780.907 3144.17 2573.55 0.824451 0.552075 0.124473 
619.464 3273.33 2598.6 0.374863 0.893449 -0.247439 
816.172 3091.94 2539.94 0.90375 0.372815 0.210343 
780.642 3147.75 2556.76 0.79926 0.59253 0.100453 
849.763 3022.31 2484.87 0.951116 0.120378 0.284409 
764.897 3167.53 2550.04 0.742299 0.668211 0.0498665 
599.547 3273.47 2575.11 0.286741 0.904338 -0.316151 
667.59 3244.27 2573.48 0.455404 0.871016 -0.184225 
608.831 3268.21 2568.25 0.28305 0.907813 -0.309448 
790.302 3139.52 2528.58 0.79926 0.59253 0.100453 
656.007 3247.86 2563.21 0.41241 0.885425 -0.214335 
818.608 3099.64 2511.22 0.868124 0.465644 0.171862 
781.68 3151.71 2511.38 0.742299 0.668211 0.0498665 
800.266 3131.17 2498.38 0.772371 0.63089 0.0736279 
687.466 3226.69 2539.5 0.455404 0.871016 -0.184225 
527.664 3265.6 2530.4 0.023017 0.870584 -0.491481 
810.712 3121.09 2475.12 0.79926 0.59253 0.100453 
696.764 3216.83 2515.91 0.455404 0.871016 -0.184225 
700.668 3214.08 2512.5 0.455404 0.871016 -0.184225 
786.787 3147.34 2493.27 0.713884 0.699858 0.0238429 
846.404 3073.63 2439.96 0.888397 0.417122 0.19173 
637.385 3240.37 2512.89 0.28305 0.907813 -0.309448 
644.31 3236.62 2508.27 0.28305 0.907813 -0.309448 
682.506 3221.52 2506.01 0.41241 0.885425 -0.214335 
702.395 3209.56 2495.5 0.455404 0.871016 -0.184225 
599.769 3246.29 2505.47 0.15212 0.902766 -0.402335 
507.133 3253.52 2511.81 -0.0634216 0.835756 -0.545426 
648.347 3232.86 2500.94 0.28305 0.907813 -0.309448 
657.062 3229.01 2497.65 0.28305 0.907813 -0.309448 
744.196 3181.31 2471.61 0.535186 0.83559 -0.123953 
834.261 3096.22 2433.34 0.824451 0.552075 0.124473 
713.094 3199.81 2475.85 0.455404 0.871016 -0.184225 
712.078 3199.1 2470.71 0.41241 0.885425 -0.214335 
654.07 3224.39 2481.43 0.243273 0.90754 -0.34233 
754.223 3172.6 2455.97 0.535186 0.83559 -0.123953 
524.03 3233.07 2478.95 -0.109205 0.816855 -0.566411 
640.756 3224.39 2472.72 0.194363 0.908469 -0.37001 
660.807 3217.22 2467.05 0.243273 0.90754 -0.34233 
457.585 3220.16 2483.5 -0.258824 0.700255 -0.665322 
768.817 3160.77 2440.57 0.573736 0.813636 -0.0939366 
484.267 3224.01 2477.87 -0.226863 0.736914 -0.636781 
782.922 3149.92 2435.67 0.609899 0.789869 -0.064275 
668.535 3212.49 2459.89 0.243273 0.90754 -0.34233 
451.88 3205.2 2470.82 -0.300939 0.66786 -0.680734 
574.566 3223.11 2457.32 -0.0204217 0.856352 -0.515989 
456.602 3197.7 2461.61 -0.333703 0.633222 -0.698335 
484.079 3205.77 2457.59 -0.262302 0.704241 -0.659729 
768.438 3157.5 2415.23 0.49572 0.854638 -0.154453 
797.646 3135.13 2393.65 0.572541 0.814826 -0.0908567 
774.521 3150.26 2394.61 0.49572 0.854638 -0.154453 
649.205 3199.89 2420.56 0.10771 0.896649 -0.42944 
689.647 3188.03 2409.67 0.194363 0.908469 -0.37001 
561.465 3192.68 2415.31 -0.188689 0.765493 -0.615156 
570.151 3197.44 2419.37 -0.148296 0.792411 -0.591687 
482.316 3177 2430.51 -0.333703 0.633222 -0.698335 
395.536 3139.97 2455.59 -0.499201 0.369958 -0.783536 
677.367 3185.13 2397.23 0.15212 0.902766 -0.402335 
467.045 3159.92 2424.78 -0.400103 0.554875 -0.729405 
639.201 3179.54 2382.16 -0.0204217 0.856352 -0.515989 
560.912 3176.16 2395.63 -0.226863 0.736914 -0.636781 
690.897 3169.86 2368.58 0.10771 0.896649 -0.42944 
379.813 3083.76 2446.19 -0.578947 0.173835 -0.796619 
578.173 3166.62 2378.54 -0.226863 0.736914 -0.636781 
500.838 3149.3 2398.25 -0.400103 0.554875 -0.729405 
535.125 3154.91 2385.16 -0.333703 0.633222 -0.698335 
428.21 3102.28 2417.31 -0.549469 0.275522 -0.788779 
570.272 3158.1 2372.31 -0.262302 0.704241 -0.659729 
516.386 3137.61 2380.89 -0.400103 0.554875 -0.729405 
434.879 3100.27 2411.98 -0.549469 0.275522 -0.788779 
658.42 3157.72 2345.79 -0.06633 0.836887 -0.543342 
578.882 3143.57 2354.05 -0.300939 0.66786 -0.680734 
363.79 3004.17 2456.4 -0.612658 -0.142304 -0.777431 
646.078 3152.22 2340.08 -0.148296 0.792411 -0.591687 
469.136 3096.91 2387.36 -0.527236 0.328521 -0.783643 
652.285 3150.43 2336.19 -0.109205 0.816855 -0.566411 
369.367 3008.51 2451.18 -0.618972 -0.145376 -0.771842 
