ply
format ascii 1.0
comment Created by CloudCompare v2.11.3 (Anoia)
comment Created 08/09/2022 00:17
obj_info Generated by CloudCompare!
element vertex 861
property float x
property float y
property float z
property float nx
property float ny
property float nz
end_header
-310.409 1513.76 -1155.94 0.353197 0.935528 -0.00632969 
86.6567 1364.37 -1064.05 0.353197 0.935528 -0.00632969 
438.542 1226.9 -1682.52 0.353197 0.935528 -0.00632969 
448.922 1226.99 -1128.99 0.353197 0.935528 -0.00632969 
-47.8704 1413.79 -1259.97 0.353197 0.935528 -0.00632969 
-41.5178 1411.99 -1176.16 0.353197 0.935528 -0.00632969 
-4.34912 1396.85 -1328.2 0.353197 0.935528 -0.00632969 
85.7837 1363.8 -1187.45 0.353197 0.935528 -0.00632969 
-137.969 1449.63 -1012.93 0.353197 0.935528 -0.00632969 
242.103 1304.72 -1188.2 0.353197 0.935528 -0.00632969 
-158.081 1456.93 -1054.89 0.353197 0.935528 -0.00632969 
348.452 1263.32 -1355.61 0.353197 0.935528 -0.00632969 
406.552 1243.14 -1110.49 0.353197 0.935528 -0.00632969 
-352.628 1530.8 -1006.9 0.353197 0.935528 -0.00632969 
276.127 1290.66 -1354.55 0.353197 0.935528 -0.00632969 
114.287 1352 -1329.62 0.353197 0.935528 -0.00632969 
-169.894 1460.19 -1220.75 0.353197 0.935528 -0.00632969 
379.104 1255.16 -882.75 0.353197 0.935528 -0.00632969 
-86.7649 1430.41 -994.559 0.353197 0.935528 -0.00632969 
-133.332 1445.98 -1275.25 0.353197 0.935528 -0.00632969 
-5.62598 1398.85 -1118.09 0.353197 0.935528 -0.00632969 
255.507 1300.84 -1024.35 0.353197 0.935528 -0.00632969 
174.513 1330.97 -1090.64 0.353197 0.935528 -0.00632969 
20.0105 1388.05 -1272 0.353197 0.935528 -0.00632969 
446.801 1225.24 -1481.35 0.353197 0.935528 -0.00632969 
-164.06 1458.06 -1210.38 0.353197 0.935528 -0.00632969 
-52.4331 1417.28 -1016.81 0.353197 0.935528 -0.00632969 
55.6455 1373.8 -1379.33 0.353197 0.935528 -0.00632969 
391.632 1248.8 -1107.4 0.353197 0.935528 -0.00632969 
-181.578 1464.5 -1234.38 0.353197 0.935528 -0.00632969 
44.5134 1379.86 -1124.48 0.353197 0.935528 -0.00632969 
-261.501 1495.95 -1063.1 0.353197 0.935528 -0.00632969 
6.33569 1395.37 -975.37 0.353197 0.935528 -0.00632969 
190.385 1324.51 -1154.05 0.353197 0.935528 -0.00632969 
-149.36 1453.74 -1039.21 0.353197 0.935528 -0.00632969 
110.663 1353.5 -1311.17 0.353197 0.935528 -0.00632969 
345.431 1267.35 -956.274 0.353197 0.935528 -0.00632969 
213.354 1316.2 -1103.64 0.353197 0.935528 -0.00632969 
-315.48 1516.78 -1004.36 0.353197 0.935528 -0.00632969 
-422.209 1556.62 -1072.47 0.353197 0.935528 -0.00632969 
131.436 1344.73 -1437.86 0.353197 0.935528 -0.00632969 
358.403 1263 -880.409 0.353197 0.935528 -0.00632969 
-6.25684 1397.38 -1354.52 0.353197 0.935528 -0.00632969 
-412.948 1553.07 -1079.02 0.353197 0.935528 -0.00632969 
140.62 1343.42 -1140.51 0.353197 0.935528 -0.00632969 
458.54 1219.18 -1705.37 0.353197 0.935528 -0.00632969 
178.664 1330.71 -910.844 0.353197 0.935528 -0.00632969 
136.937 1346.46 -913.583 0.353197 0.935528 -0.00632969 
-247.677 1484.26 -1954.89 0.353197 0.935528 -0.00632969 
372.036 1251.8 -1714.76 0.353197 0.935528 -0.00632969 
78.1538 1361.96 -1838.85 0.353197 0.935528 -0.00632969 
-333.456 1516.76 -1943.32 0.353197 0.935528 -0.00632969 
-483.368 1579.37 -1121.54 0.353197 0.935528 -0.00632969 
321.094 1271.33 -1675.62 0.353197 0.935528 -0.00632969 
-479.24 1577.03 -1229.44 0.353197 0.935528 -0.00632969 
-440.843 1563.32 -1119.56 0.353197 0.935528 -0.00632969 
-260.969 1494.49 -1236.45 0.353197 0.935528 -0.00632969 
-134.718 1441.99 -1896.67 0.353197 0.935528 -0.00632969 
-348.368 1526.36 -1396.82 0.353197 0.935528 -0.00632969 
182.71 1324.2 -1597 0.353197 0.935528 -0.00632969 
-135.997 1443.82 -1711.32 0.353197 0.935528 -0.00632969 
165.681 1330.04 -1680.08 0.353197 0.935528 -0.00632969 
-80.1179 1423.99 -1533.99 0.353197 0.935528 -0.00632969 
-129.242 1443.57 -1393.7 0.353197 0.935528 -0.00632969 
-226.26 1481.06 -1280.08 0.353197 0.935528 -0.00632969 
-171.263 1455.5 -1938.08 0.353197 0.935528 -0.00632969 
-54.5869 1412.89 -1734.36 0.353197 0.935528 -0.00632969 
-208.732 1471.65 -1664.57 0.353197 0.935528 -0.00632969 
-358.081 1527.99 -1677.67 0.353197 0.935528 -0.00632969 
-126.203 1439.6 -1782.62 0.353197 0.935528 -0.00632969 
70.8945 1365.85 -1680.45 0.353197 0.935528 -0.00632969 
-283.821 1502.34 -1344.71 0.353197 0.935528 -0.00632969 
422.796 1232 -1799.7 0.353197 0.935528 -0.00632969 
-227.99 1479.84 -1538.09 0.353197 0.935528 -0.00632969 
119.163 1348.86 -1509.13 0.353197 0.935528 -0.00632969 
-388.4 1541.69 -1369.18 0.353197 0.935528 -0.00632969 
-226.444 1480.19 -1409.19 0.353197 0.935528 -0.00632969 
428.443 1229.99 -1782.82 0.353197 0.935528 -0.00632969 
-335.749 1522.7 -1243.16 0.353197 0.935528 -0.00632969 
-74.0139 1419.41 -1846.83 0.353197 0.935528 -0.00632969 
293.751 1282.14 -1611.19 0.353197 0.935528 -0.00632969 
409.263 1237.61 -1731.9 0.353197 0.935528 -0.00632969 
-287.857 1503.34 -1417.62 0.353197 0.935528 -0.00632969 
120.875 1347.99 -1538.84 0.353197 0.935528 -0.00632969 
140.119 1338.78 -1806.52 0.353197 0.935528 -0.00632969 
-221.326 1477.9 -1459.11 0.353197 0.935528 -0.00632969 
-439.252 1562.6 -1135.92 0.353197 0.935528 -0.00632969 
30.4744 1380.28 -1798.14 0.353197 0.935528 -0.00632969 
-373.736 1536.86 -1270.85 0.353197 0.935528 -0.00632969 
-251.03 1489.25 -1441.54 0.353197 0.935528 -0.00632969 
-88.1511 1426.29 -1635.33 0.353197 0.935528 -0.00632969 
-239.263 1483.76 -1584.64 0.353197 0.935528 -0.00632969 
-83.0928 1424.65 -1598.14 0.353197 0.935528 -0.00632969 
31.7715 1379.39 -1853.55 0.353197 0.935528 -0.00632969 
319.204 1271.75 -1717.49 0.353197 0.935528 -0.00632969 
-170.821 1458.41 -1513.98 0.353197 0.935528 -0.00632969 
-423.145 1553.78 -1513.07 0.353197 0.935528 -0.00632969 
-46.6433 1412.36 -1393.05 0.353197 0.935528 -0.00632969 
327.993 1268.7 -1679.88 0.353197 0.935528 -0.00632969 
72.9075 1365.4 -1638.69 0.353197 0.935528 -0.00632969 
-321.528 1513.35 -1791.52 0.353197 0.935528 -0.00632969 
-68.1406 1420.73 -1358.69 0.353197 0.935528 -0.00632969 
-404.548 1546.26 -1580.21 0.353197 0.935528 -0.00632969 
-208.75 1469.6 -1947.84 0.353197 0.935528 -0.00632969 
-177.536 1459.42 -1725.04 0.353197 0.935528 -0.00632969 
-349.487 1527.1 -1352.51 0.353197 0.935528 -0.00632969 
-156.324 1454.43 -1307.13 0.353197 0.935528 -0.00632969 
96.1611 1355.28 -1821.47 0.353197 0.935528 -0.00632969 
232.104 1304.66 -1718.1 0.353197 0.935528 -0.00632969 
41.4409 1376.06 -1808.59 0.353197 0.935528 -0.00632969 
-4.38184 325.009 -1713.58 -0.353197 -0.935528 0.00632969 
92.9285 288.851 -1628.46 -0.353197 -0.935528 0.00632969 
-446.604 492.527 -1659.32 -0.353197 -0.935528 0.00632969 
-16.021 332.113 -1340.58 -0.353197 -0.935528 0.00632969 
55.9707 301.683 -1784.91 -0.353197 -0.935528 0.00632969 
82.1641 293.663 -1525.89 -0.353197 -0.935528 0.00632969 
44.7029 308.094 -1488.16 -0.353197 -0.935528 0.00632969 
-247.792 417.703 -1616.4 -0.353197 -0.935528 0.00632969 
-360.43 460.69 -1558.67 -0.353197 -0.935528 0.00632969 
-597.763 547.512 -1954.71 -0.353197 -0.935528 0.00632969 
-180.346 391.329 -1738.5 -0.353197 -0.935528 0.00632969 
-343.008 453.187 -1685.38 -0.353197 -0.935528 0.00632969 
-156.736 383.665 -1564.91 -0.353197 -0.935528 0.00632969 
-314.438 440.792 -1905.74 -0.353197 -0.935528 0.00632969 
12.9512 323.535 -1013.49 -0.353197 -0.935528 0.00632969 
-260.492 421.381 -1771.14 -0.353197 -0.935528 0.00632969 
124.255 277.557 -1553.2 -0.353197 -0.935528 0.00632969 
-368.157 463.368 -1592.16 -0.353197 -0.935528 0.00632969 
-150.575 381.226 -1580.27 -0.353197 -0.935528 0.00632969 
-218.323 405.507 -1762.51 -0.353197 -0.935528 0.00632969 
7.11841 320.439 -1744.43 -0.353197 -0.935528 0.00632969 
-127.216 370.388 -1857.32 -0.353197 -0.935528 0.00632969 
22.1262 319.984 -1025.04 -0.353197 -0.935528 0.00632969 
43.0947 312.574 -954.076 -0.353197 -0.935528 0.00632969 
19.1763 317.003 -1589.94 -0.353197 -0.935528 0.00632969 
-461.86 496.452 -1913.15 -0.353197 -0.935528 0.00632969 
38.8723 309.582 -1586.73 -0.353197 -0.935528 0.00632969 
-61.4558 349.387 -1326.21 -0.353197 -0.935528 0.00632969 
105.644 283.788 -1664.01 -0.353197 -0.935528 0.00632969 
-41.1558 338.78 -1731.08 -0.353197 -0.935528 0.00632969 
83.999 292.585 -1578.83 -0.353197 -0.935528 0.00632969 
1.44482 325.301 -1369.7 -0.353197 -0.935528 0.00632969 
-199.837 399.175 -1672.37 -0.353197 -0.935528 0.00632969 
-68.2239 350.108 -1579.58 -0.353197 -0.935528 0.00632969 
94.2336 289.567 -1461.55 -0.353197 -0.935528 0.00632969 
41.7561 313.046 -958.77 -0.353197 -0.935528 0.00632969 
-185.326 395.303 -1449.96 -0.353197 -0.935528 0.00632969 
90.5591 293.34 -1132.95 -0.353197 -0.935528 0.00632969 
-10.7881 327.336 -1726.52 -0.353197 -0.935528 0.00632969 
-179.945 391.295 -1722.29 -0.353197 -0.935528 0.00632969 
-257.755 420.216 -1789.1 -0.353197 -0.935528 0.00632969 
-226.17 411.008 -1412.86 -0.353197 -0.935528 0.00632969 
87.6006 292.638 -1383.89 -0.353197 -0.935528 0.00632969 
-398.831 474.46 -1660.99 -0.353197 -0.935528 0.00632969 
-235.529 414.852 -1370.49 -0.353197 -0.935528 0.00632969 
-8.12646 326.723 -1672.38 -0.353197 -0.935528 0.00632969 
-271.097 427.012 -1547.36 -0.353197 -0.935528 0.00632969 
-461.47 496.888 -1832.81 -0.353197 -0.935528 0.00632969 
65.1204 301.879 -1281.06 -0.353197 -0.935528 0.00632969 
-9.94458 329.398 -1398.25 -0.353197 -0.935528 0.00632969 
-524.969 520.889 -1832.24 -0.353197 -0.935528 0.00632969 
-332.746 449.471 -1663.08 -0.353197 -0.935528 0.00632969 
-51.3818 345.591 -1324.69 -0.353197 -0.935528 0.00632969 
-128.906 372.867 -1603.67 -0.353197 -0.935528 0.00632969 
-78.8232 352.564 -1793.3 -0.353197 -0.935528 0.00632969 
-606.905 551.289 -1910.14 -0.353197 -0.935528 0.00632969 
-354.54 457.243 -1727.1 -0.353197 -0.935528 0.00632969 
-112.984 368.344 -1397.48 -0.353197 -0.935528 0.00632969 
-419.133 482.554 -1602.97 -0.353197 -0.935528 0.00632969 
-8.03125 328.404 -1435.61 -0.353197 -0.935528 0.00632969 
-438 487.674 -1880.28 -0.353197 -0.935528 0.00632969 
-71.4509 351.88 -1503.42 -0.353197 -0.935528 0.00632969 
49.9661 308.506 -1156.99 -0.353197 -0.935528 0.00632969 
-473.195 503.237 -1568.3 -0.353197 -0.935528 0.00632969 
-500.169 516.811 -1102.16 -0.353197 -0.935528 0.00632969 
-624.552 562.573 -1273.78 -0.353197 -0.935528 0.00632969 
-708.937 594.785 -1229.57 -0.353197 -0.935528 0.00632969 
-361.167 462.771 -1310.18 -0.353197 -0.935528 0.00632969 
-189.687 399.449 -1105.55 -0.353197 -0.935528 0.00632969 
-640.642 570.383 -1035.33 -0.353197 -0.935528 0.00632969 
-605.949 555.896 -1225.14 -0.353197 -0.935528 0.00632969 
-432.723 489.669 -1330.07 -0.353197 -0.935528 0.00632969 
-515.189 523.314 -988.127 -0.353197 -0.935528 0.00632969 
-604.904 555.439 -1233.61 -0.353197 -0.935528 0.00632969 
-169.045 391.545 -1119.73 -0.353197 -0.935528 0.00632969 
-510.126 517.242 -1561.58 -0.353197 -0.935528 0.00632969 
-332.079 453.946 -1011.2 -0.353197 -0.935528 0.00632969 
-759.497 613.017 -1350.3 -0.353197 -0.935528 0.00632969 
-280.819 435.336 -905.97 -0.353197 -0.935528 0.00632969 
-729.986 601.192 -1443.04 -0.353197 -0.935528 0.00632969 
-645.011 567.383 -1676.72 -0.353197 -0.935528 0.00632969 
-792.281 624.739 -1442.37 -0.353197 -0.935528 0.00632969 
-389.177 472.28 -1458.6 -0.353197 -0.935528 0.00632969 
-772.279 617.433 -1407.42 -0.353197 -0.935528 0.00632969 
-795.812 626.399 -1397.55 -0.353197 -0.935528 0.00632969 
-682.51 586.241 -1030.58 -0.353197 -0.935528 0.00632969 
-248.44 422.088 -1045.58 -0.353197 -0.935528 0.00632969 
-330.142 451.428 -1257.44 -0.353197 -0.935528 0.00632969 
-651.927 574.081 -1113.56 -0.353197 -0.935528 0.00632969 
-297.994 438.995 -1296.49 -0.353197 -0.935528 0.00632969 
-712.308 597.485 -1032.84 -0.353197 -0.935528 0.00632969 
-439.407 494.528 -1008.35 -0.353197 -0.935528 0.00632969 
-630.284 564.28 -1337.26 -0.353197 -0.935528 0.00632969 
-573.193 545.335 -974.361 -0.353197 -0.935528 0.00632969 
-493.214 512.299 -1361.99 -0.353197 -0.935528 0.00632969 
-805.947 631.918 -1164.59 -0.353197 -0.935528 0.00632969 
-375.597 467.14 -1459.7 -0.353197 -0.935528 0.00632969 
-710.005 595.476 -1189.93 -0.353197 -0.935528 0.00632969 
-595.96 550.45 -1455.52 -0.353197 -0.935528 0.00632969 
-461.636 499.006 -1549.31 -0.353197 -0.935528 0.00632969 
-485.892 507.131 -1692.97 -0.353197 -0.935528 0.00632969 
-700.679 593.354 -996.53 -0.353197 -0.935528 0.00632969 
-397.315 479.104 -941.687 -0.353197 -0.935528 0.00632969 
-184.425 398.829 -916.827 -0.353197 -0.935528 0.00632969 
-732.736 601.751 -1509.26 -0.353197 -0.935528 0.00632969 
-790.865 627.228 -1025.4 -0.353197 -0.935528 0.00632969 
-625.166 558.34 -1889.56 -0.353197 -0.935528 0.00632969 
-583.878 546.323 -1394.94 -0.353197 -0.935528 0.00632969 
-488.554 510.577 -1356.44 -0.353197 -0.935528 0.00632969 
-336.484 456.137 -938.63 -0.353197 -0.935528 0.00632969 
-533.655 528.68 -1210.55 -0.353197 -0.935528 0.00632969 
-181.5 396.755 -1050.32 -0.353197 -0.935528 0.00632969 
-518.723 524.087 -1065.78 -0.353197 -0.935528 0.00632969 
-477.845 506.392 -1375.58 -0.353197 -0.935528 0.00632969 
-769.366 615.475 -1525.79 -0.353197 -0.935528 0.00632969 
-585.529 546.412 -1468.74 -0.353197 -0.935528 0.00632969 
-713.149 596.651 -1191.69 -0.353197 -0.935528 0.00632969 
-497.723 512.202 -1610.22 -0.353197 -0.935528 0.00632969 
-564.693 540.642 -1178.66 -0.353197 -0.935528 0.00632969 
-390.42 473.205 -1395.84 -0.353197 -0.935528 0.00632969 
-616.518 558.799 -1375.65 -0.353197 -0.935528 0.00632969 
-820.539 636.662 -1270.95 -0.353197 -0.935528 0.00632969 
-613.665 559.68 -1105.45 -0.353197 -0.935528 0.00632969 
-439.189 492.606 -1262.1 -0.353197 -0.935528 0.00632969 
-705.579 593.839 -1184.97 -0.353197 -0.935528 0.00632969 
-561.413 537.059 -1501.78 -0.353197 -0.935528 0.00632969 
418.06 753.471 -1722.78 0.912499 -0.34453 0.220557 
480.156 957.413 -1661.81 0.912499 -0.34453 0.220557 
512.25 961.685 -1788.93 0.912499 -0.34453 0.220557 
337.258 688.984 -1487.03 0.912499 -0.34453 0.220557 
206.598 388.746 -1413.17 0.912499 -0.34453 0.220557 
332.242 626.181 -1564.62 0.912499 -0.34453 0.220557 
218.931 290.297 -1619 0.912499 -0.34453 0.220557 
259.385 293.056 -1783.34 0.912499 -0.34453 0.220557 
458.988 847.547 -1745.87 0.912499 -0.34453 0.220557 
181.526 497.344 -1138.31 0.912499 -0.34453 0.220557 
374.368 830.964 -1419.08 0.912499 -0.34453 0.220557 
79.7253 370.595 -912.662 0.912499 -0.34453 0.220557 
137.308 291.338 -1277.05 0.912499 -0.34453 0.220557 
294.541 555.17 -1518.81 0.912499 -0.34453 0.220557 
313.361 702.994 -1365.43 0.912499 -0.34453 0.220557 
365.029 704.784 -1578.04 0.912499 -0.34453 0.220557 
240.456 575.077 -1262.09 0.912499 -0.34453 0.220557 
182.439 460.938 -1199.21 0.912499 -0.34453 0.220557 
289.15 597.9 -1429.31 0.912499 -0.34453 0.220557 
110.724 333.063 -1100.77 0.912499 -0.34453 0.220557 
288.194 654.204 -1337.02 0.912499 -0.34453 0.220557 
398.443 726.598 -1683.14 0.912499 -0.34453 0.220557 
133.282 351.504 -1165.9 0.912499 -0.34453 0.220557 
315.766 573.574 -1578.44 0.912499 -0.34453 0.220557 
216.563 247.215 -1676.7 0.912499 -0.34453 0.220557 
450.835 943.226 -1561.82 0.912499 -0.34453 0.220557 
469.999 933.369 -1657.18 0.912499 -0.34453 0.220557 
362.998 587.742 -1753.14 0.912499 -0.34453 0.220557 
246.33 583.284 -1273.71 0.912499 -0.34453 0.220557 
528.361 1028.09 -1751.95 0.912499 -0.34453 0.220557 
420.647 779.872 -1692.16 0.912499 -0.34453 0.220557 
172.853 303.074 -1406.85 0.912499 -0.34453 0.220557 
232.42 503.045 -1341.56 0.912499 -0.34453 0.220557 
229.09 371.991 -1533.22 0.912499 -0.34453 0.220557 
202.572 417.022 -1352.03 0.912499 -0.34453 0.220557 
384.637 792.204 -1522.68 0.912499 -0.34453 0.220557 
205.747 387.471 -1411.62 0.912499 -0.34453 0.220557 
269.121 526.414 -1457.93 0.912499 -0.34453 0.220557 
347.487 662.267 -1571.59 0.912499 -0.34453 0.220557 
294.489 523.76 -1567.86 0.912499 -0.34453 0.220557 
366.32 642.164 -1681.64 0.912499 -0.34453 0.220557 
221.323 371.536 -1501.56 0.912499 -0.34453 0.220557 
470.222 975.829 -1591.51 0.912499 -0.34453 0.220557 
257.375 422.309 -1572.24 0.912499 -0.34453 0.220557 
249.997 405.066 -1568.52 0.912499 -0.34453 0.220557 
225.367 337.729 -1571.44 0.912499 -0.34453 0.220557 
377.994 653.863 -1711.96 0.912499 -0.34453 0.220557 
334.906 678.127 -1494.26 0.912499 -0.34453 0.220557 
235.214 574.656 -1240.89 0.912499 -0.34453 0.220557 
132.433 367.726 -1136.92 0.912499 -0.34453 0.220557 
485.318 995.049 -1624.31 0.912499 -0.34453 0.220557 
150.298 339.336 -1255.93 0.912499 -0.34453 0.220557 
194.099 302.557 -1496.24 0.912499 -0.34453 0.220557 
501.678 968.632 -1733.95 0.912499 -0.34453 0.220557 
507.083 1021.73 -1673.2 0.912499 -0.34453 0.220557 
507.413 984.526 -1732.93 0.912499 -0.34453 0.220557 
399.141 859.356 -1477.83 0.912499 -0.34453 0.220557 
407.213 739.395 -1699.63 0.912499 -0.34453 0.220557 
427.287 862.485 -1590.27 0.912499 -0.34453 0.220557 
430.563 899.825 -1545.36 0.912499 -0.34453 0.220557 
300.671 403.79 -1781.8 0.912499 -0.34453 0.220557 
269.951 397.6 -1663.43 0.912499 -0.34453 0.220557 
276.72 763.888 -1117.15 0.912499 -0.34453 0.220557 
213.341 670.167 -999.895 0.912499 -0.34453 0.220557 
429.808 1075.76 -1266.27 0.912499 -0.34453 0.220557 
299.609 869.238 -1047.34 0.912499 -0.34453 0.220557 
447.236 1198.74 -1146.06 0.912499 -0.34453 0.220557 
499.324 1123.12 -1481.84 0.912499 -0.34453 0.220557 
154.908 611.651 -848.046 0.912499 -0.34453 0.220557 
190.32 643.669 -945.475 0.912499 -0.34453 0.220557 
208.795 626.281 -1049.77 0.912499 -0.34453 0.220557 
407.209 1149.08 -1057.05 0.912499 -0.34453 0.220557 
163.758 526.735 -1018.13 0.912499 -0.34453 0.220557 
393.99 1125.28 -1039.26 0.912499 -0.34453 0.220557 
91.7625 461.216 -820.719 0.912499 -0.34453 0.220557 
517.683 1068.51 -1644.03 0.912499 -0.34453 0.220557 
474.769 1003.95 -1566.36 0.912499 -0.34453 0.220557 
479.724 1189.45 -1296.08 0.912499 -0.34453 0.220557 
197.104 621.529 -1008.48 0.912499 -0.34453 0.220557 
335.323 939.38 -1086.24 0.912499 -0.34453 0.220557 
535.331 1145.09 -1597.49 0.912499 -0.34453 0.220557 
394.887 1210.79 -908.895 0.912499 -0.34453 0.220557 
378.261 1028.38 -1125.67 0.912499 -0.34453 0.220557 
321.976 970.474 -981.82 0.912499 -0.34453 0.220557 
291.127 740.171 -1214.41 0.912499 -0.34453 0.220557 
528.136 1131.65 -1588.58 0.912499 -0.34453 0.220557 
524.901 1116.39 -1599.02 0.912499 -0.34453 0.220557 
287.644 768.781 -1155.02 0.912499 -0.34453 0.220557 
431.601 1229.55 -1032.54 0.912499 -0.34453 0.220557 
460.923 1143.37 -1289.97 0.912499 -0.34453 0.220557 
435.114 982.095 -1435.3 0.912499 -0.34453 0.220557 
431.269 1040.34 -1327.93 0.912499 -0.34453 0.220557 
471.86 1205.63 -1237.92 0.912499 -0.34453 0.220557 
225.866 777.255 -884.157 0.912499 -0.34453 0.220557 
298.912 788.87 -1170.49 0.912499 -0.34453 0.220557 
248.226 822.401 -906.571 0.912499 -0.34453 0.220557 
456.146 985.931 -1516.98 0.912499 -0.34453 0.220557 
381.835 1153.85 -943.785 0.912499 -0.34453 0.220557 
237.952 706.039 -1046.24 0.912499 -0.34453 0.220557 
460.752 1151.81 -1276.02 0.912499 -0.34453 0.220557 
353.357 1120.62 -877.162 0.912499 -0.34453 0.220557 
286.269 742.407 -1190.65 0.912499 -0.34453 0.220557 
392.952 1074.64 -1114.36 0.912499 -0.34453 0.220557 
213.274 699.377 -953.801 0.912499 -0.34453 0.220557 
315.351 968.676 -957.018 0.912499 -0.34453 0.220557 
316.971 878.332 -1105.47 0.912499 -0.34453 0.220557 
385.73 1129.02 -998.962 0.912499 -0.34453 0.220557 
331.917 887.135 -1153.98 0.912499 -0.34453 0.220557 
473.068 1064.51 -1464.29 0.912499 -0.34453 0.220557 
300.752 946.521 -930.899 0.912499 -0.34453 0.220557 
385.311 1095.5 -1049.79 0.912499 -0.34453 0.220557 
369.023 1001.76 -1128.91 0.912499 -0.34453 0.220557 
514.192 1134.98 -1525.21 0.912499 -0.34453 0.220557 
321.991 890.223 -1107.75 0.912499 -0.34453 0.220557 
236.489 781.872 -921.203 0.912499 -0.34453 0.220557 
505.582 1191.88 -1400.08 0.912499 -0.34453 0.220557 
331.928 810.461 -1274.28 0.912499 -0.34453 0.220557 
261.488 791.816 -1009.84 0.912499 -0.34453 0.220557 
276.191 758.002 -1124.18 0.912499 -0.34453 0.220557 
365.414 973.532 -1158.13 0.912499 -0.34453 0.220557 
240.3 731.274 -1016.45 0.912499 -0.34453 0.220557 
307.61 955.664 -945.153 0.912499 -0.34453 0.220557 
301.162 736.042 -1262.73 0.912499 -0.34453 0.220557 
364.993 1067.38 -1009.18 0.912499 -0.34453 0.220557 
-463.666 1287.42 -1774.55 -0.913554 0.343841 -0.217239 
-389.763 1402.22 -1902.64 -0.913554 0.343841 -0.217239 
-492.084 1218.85 -1763.62 -0.913554 0.343841 -0.217239 
-463.134 1326.73 -1715.12 -0.913554 0.343841 -0.217239 
-390.99 1388.23 -1919.45 -0.913554 0.343841 -0.217239 
-440.557 1299.65 -1851.73 -0.913554 0.343841 -0.217239 
-464.378 1335.33 -1696.45 -0.913554 0.343841 -0.217239 
-499.959 1181.81 -1788.88 -0.913554 0.343841 -0.217239 
-493.319 1186.3 -1809.53 -0.913554 0.343841 -0.217239 
-430.131 1388.6 -1755.67 -0.913554 0.343841 -0.217239 
-435.253 1294.62 -1881.73 -0.913554 0.343841 -0.217239 
-498.51 1316.87 -1583.09 -0.913554 0.343841 -0.217239 
-491.134 1185.11 -1820.51 -0.913554 0.343841 -0.217239 
-399.927 1430.21 -1816.35 -0.913554 0.343841 -0.217239 
-501.242 1407.62 -1429.36 -0.913554 0.343841 -0.217239 
-430.794 1508.86 -1564.31 -0.913554 0.343841 -0.217239 
-451.364 1392.82 -1660.53 -0.913554 0.343841 -0.217239 
-480.124 1400.56 -1528.49 -0.913554 0.343841 -0.217239 
-398.265 1480.24 -1744.81 -0.913554 0.343841 -0.217239 
-511.427 1532.21 -1191.5 -0.913554 0.343841 -0.217239 
-398.412 1535.09 -1658.18 -0.913554 0.343841 -0.217239 
-403.812 1495.15 -1698.31 -0.913554 0.343841 -0.217239 
-475.452 1557.82 -1301.31 -0.913554 0.343841 -0.217239 
-510.521 1464.7 -1301.16 -0.913554 0.343841 -0.217239 
-414.742 1486.78 -1665.85 -0.913554 0.343841 -0.217239 
-509.04 1441.64 -1343.49 -0.913554 0.343841 -0.217239 
-389.756 1496.34 -1755.04 -0.913554 0.343841 -0.217239 
-442.08 1449.42 -1610.47 -0.913554 0.343841 -0.217239 
-443.552 1491.69 -1538.04 -0.913554 0.343841 -0.217239 
-547.275 1422.37 -1214.3 -0.913554 0.343841 -0.217239 
-546.219 1402.67 -1249.61 -0.913554 0.343841 -0.217239 
-539.301 1308.95 -1425.44 -0.913554 0.343841 -0.217239 
-527.065 1489.64 -1193.06 -0.913554 0.343841 -0.217239 
-525.659 1422.7 -1303.91 -0.913554 0.343841 -0.217239 
-517.421 1328.36 -1486.23 -0.913554 0.343841 -0.217239 
-518.575 1390.49 -1383.96 -0.913554 0.343841 -0.217239 
-513.902 1341.61 -1480.11 -0.913554 0.343841 -0.217239 
-571.496 985.464 -1798.57 -0.913554 0.343841 -0.217239 
-616.967 824.329 -1861.72 -0.913554 0.343841 -0.217239 
-609.564 888.795 -1791.47 -0.913554 0.343841 -0.217239 
-410.686 1335.16 -1920.58 -0.913554 0.343841 -0.217239 
-651.846 649.716 -1990.17 -0.913554 0.343841 -0.217239 
-611.014 761.047 -1985.79 -0.913554 0.343841 -0.217239 
-466.024 1135.76 -2002.6 -0.913554 0.343841 -0.217239 
-514.064 1023.38 -1978.57 -0.913554 0.343841 -0.217239 
-438.111 1204.02 -2011.91 -0.913554 0.343841 -0.217239 
-496.479 1074.25 -1972.09 -0.913554 0.343841 -0.217239 
-488.36 1133.03 -1913.76 -0.913554 0.343841 -0.217239 
-466.438 1216.09 -1874.88 -0.913554 0.343841 -0.217239 
-489.335 1082.66 -1988.69 -0.913554 0.343841 -0.217239 
-401.53 1332.28 -1963.27 -0.913554 0.343841 -0.217239 
-459.958 1186.18 -1948.81 -0.913554 0.343841 -0.217239 
-573.764 861.402 -1983.7 -0.913554 0.343841 -0.217239 
-552.666 1007.1 -1843.15 -0.913554 0.343841 -0.217239 
-572.293 883.844 -1954.64 -0.913554 0.343841 -0.217239 
-630.293 842.931 -1776.98 -0.913554 0.343841 -0.217239 
-648.155 746.458 -1853.83 -0.913554 0.343841 -0.217239 
-658.832 718.627 -1852.96 -0.913554 0.343841 -0.217239 
-555.672 1423.73 -1177.16 -0.913554 0.343841 -0.217239 
-580.892 1294.48 -1274.73 -0.913554 0.343841 -0.217239 
-557.953 1421.36 -1171.37 -0.913554 0.343841 -0.217239 
-585.016 1314.69 -1225.84 -0.913554 0.343841 -0.217239 
-672.34 784.977 -1692.57 -0.913554 0.343841 -0.217239 
-625.403 1178.04 -1271.78 -0.913554 0.343841 -0.217239 
-679.103 746.632 -1724.52 -0.913554 0.343841 -0.217239 
-849.66 666.77 -1138.66 -0.913554 0.343841 -0.217239 
-816.794 643.083 -1312.85 -0.913554 0.343841 -0.217239 
-707.582 741.306 -1614.13 -0.913554 0.343841 -0.217239 
-761.491 680.664 -1484.48 -0.913554 0.343841 -0.217239 
-685.736 791.446 -1626.58 -0.913554 0.343841 -0.217239 
-833.952 650.097 -1230.31 -0.913554 0.343841 -0.217239 
-806.917 697.225 -1269.11 -0.913554 0.343841 -0.217239 
-818.248 683.448 -1243.47 -0.913554 0.343841 -0.217239 
-767.153 694.757 -1438.77 -0.913554 0.343841 -0.217239 
-699.11 750.898 -1634.41 -0.913554 0.343841 -0.217239 
-751.773 683.285 -1520.89 -0.913554 0.343841 -0.217239 
-769.081 677.354 -1458.02 -0.913554 0.343841 -0.217239 
-743.828 781.678 -1399.69 -0.913554 0.343841 -0.217239 
-709.994 753.056 -1585.65 -0.913554 0.343841 -0.217239 
-680.769 688.478 -1808.78 -0.913554 0.343841 -0.217239 
-758.38 736.827 -1409.36 -0.913554 0.343841 -0.217239 
-792.541 749.408 -1247.2 -0.913554 0.343841 -0.217239 
-776.364 775.824 -1273.22 -0.913554 0.343841 -0.217239 
-705.441 863.253 -1431.79 -0.913554 0.343841 -0.217239 
-782.943 793.912 -1217.41 -0.913554 0.343841 -0.217239 
-747.511 854.268 -1270.48 -0.913554 0.343841 -0.217239 
-734.45 880.352 -1284.03 -0.913554 0.343841 -0.217239 
-758.945 854.302 -1222.75 -0.913554 0.343841 -0.217239 
-732.371 922.317 -1226.88 -0.913554 0.343841 -0.217239 
-765.809 871.365 -1167.38 -0.913554 0.343841 -0.217239 
-676.66 1053.49 -1253.42 -0.913554 0.343841 -0.217239 
-655.952 1177.92 -1144.6 -0.913554 0.343841 -0.217239 
-589.719 1381.02 -1102.21 -0.913554 0.343841 -0.217239 
-668.69 1149.95 -1135.36 -0.913554 0.343841 -0.217239 
-817.504 780.004 -1095.14 -0.913554 0.343841 -0.217239 
-710.006 1047.19 -1124.26 -0.913554 0.343841 -0.217239 
-583.644 1371.85 -1141.91 -0.913554 0.343841 -0.217239 
-670.27 1098.71 -1209.13 -0.913554 0.343841 -0.217239 
-733.746 990.102 -1114.83 -0.913554 0.343841 -0.217239 
-647.578 1213.09 -1124.35 -0.913554 0.343841 -0.217239 
-642.345 1249.48 -1089.09 -0.913554 0.343841 -0.217239 
-705.512 1108.29 -1047.17 -0.913554 0.343841 -0.217239 
-652.722 1208.27 -1110.46 -0.913554 0.343841 -0.217239 
-654.738 1197.39 -1119.12 -0.913554 0.343841 -0.217239 
-693.792 1067.21 -1160.47 -0.913554 0.343841 -0.217239 
-587.866 1361.52 -1140.51 -0.913554 0.343841 -0.217239 
-776.496 915.079 -1054.26 -0.913554 0.343841 -0.217239 
-217.874 574.79 -892.609 -0.205413 0.0799512 0.975404 
-291.284 721.415 -920.417 -0.205413 0.0799512 0.975404 
-94.1077 768.53 -883.52 -0.205413 0.0799512 0.975404 
-45.156 705.996 -867.998 -0.205413 0.0799512 0.975404 
176.212 775.949 -828.037 -0.205413 0.0799512 0.975404 
-422.909 720.959 -947.703 -0.205413 0.0799512 0.975404 
-35.1304 1048.97 -895.313 -0.205413 0.0799512 0.975404 
-254.401 749.448 -915.162 -0.205413 0.0799512 0.975404 
-45.9573 915.277 -886.101 -0.205413 0.0799512 0.975404 
75.4819 674.756 -840.275 -0.205413 0.0799512 0.975404 
-576.574 693.593 -977.259 -0.205413 0.0799512 0.975404 
-214.386 519.523 -887.148 -0.205413 0.0799512 0.975404 
56.0391 667.349 -843.677 -0.205413 0.0799512 0.975404 
0.805176 930.725 -877.718 -0.205413 0.0799512 0.975404 
-253.668 946.065 -931.862 -0.205413 0.0799512 0.975404 
79.126 468.091 -821.806 -0.205413 0.0799512 0.975404 
-225.621 914.207 -923.309 -0.205413 0.0799512 0.975404 
-786.108 664.979 -1018.31 -0.205413 0.0799512 0.975404 
-279.787 571.433 -905.175 -0.205413 0.0799512 0.975404 
286.404 979.535 -822.609 -0.205413 0.0799512 0.975404 
-82.0813 840.585 -887.199 -0.205413 0.0799512 0.975404 
116.972 904.845 -851.382 -0.205413 0.0799512 0.975404 
-188.454 727.008 -899.548 -0.205413 0.0799512 0.975404 
139.499 1039.67 -858.262 -0.205413 0.0799512 0.975404 
-336.308 821.468 -938.339 -0.205413 0.0799512 0.975404 
-204.838 959.068 -922.839 -0.205413 0.0799512 0.975404 
-176.382 534.879 -880.575 -0.205413 0.0799512 0.975404 
82.9202 884.696 -856.725 -0.205413 0.0799512 0.975404 
-124.843 908.231 -901.875 -0.205413 0.0799512 0.975404 
38.1128 331.88 -818.646 -0.205413 0.0799512 0.975404 
-397.771 514.328 -924.775 -0.205413 0.0799512 0.975404 
-362.959 845.244 -945.91 -0.205413 0.0799512 0.975404 
-104.27 656.906 -876.063 -0.205413 0.0799512 0.975404 
166.927 936.382 -843.715 -0.205413 0.0799512 0.975404 
-493.024 531.232 -945.998 -0.205413 0.0799512 0.975404 
-119.845 644.401 -878.224 -0.205413 0.0799512 0.975404 
-315.32 808.93 -932.907 -0.205413 0.0799512 0.975404 
-71.1499 907.895 -890.699 -0.205413 0.0799512 0.975404 
-490.439 704.08 -960.276 -0.205413 0.0799512 0.975404 
-32.5417 646.592 -860.288 -0.205413 0.0799512 0.975404 
-366.935 542.973 -920.828 -0.205413 0.0799512 0.975404 
-504.454 579.318 -952.492 -0.205413 0.0799512 0.975404 
82.6611 454.558 -819.912 -0.205413 0.0799512 0.975404 
22.9971 485.198 -834.924 -0.205413 0.0799512 0.975404 
80.885 491.221 -823.423 -0.205413 0.0799512 0.975404 
12.4871 1037.64 -884.456 -0.205413 0.0799512 0.975404 
-57.3423 386.88 -843.176 -0.205413 0.0799512 0.975404 
-405.112 876.38 -957.33 -0.205413 0.0799512 0.975404 
74.2112 714.285 -843.927 -0.205413 0.0799512 0.975404 
94.6946 847.497 -851.092 -0.205413 0.0799512 0.975404 
-401.257 653.688 -937.442 -0.205413 0.0799512 0.975404 
-749.843 644.49 -1009.02 -0.205413 0.0799512 0.975404 
-191.11 418.549 -873.662 -0.205413 0.0799512 0.975404 
-171.976 492.004 -875.985 -0.205413 0.0799512 0.975404 
48.6121 440.082 -825.74 -0.205413 0.0799512 0.975404 
-361.472 709.127 -933.935 -0.205413 0.0799512 0.975404 
36.6331 525.894 -835.582 -0.205413 0.0799512 0.975404 
-82.1494 385.402 -848.2 -0.205413 0.0799512 0.975404 
-344.272 901.681 -946.867 -0.205413 0.0799512 0.975404 
101.418 870.798 -851.693 -0.205413 0.0799512 0.975404 
145.5 784.414 -835.138 -0.205413 0.0799512 0.975404 
-0.781494 945.376 -879.303 -0.205413 0.0799512 0.975404 
-384.517 1482.52 -1005.01 -0.205413 0.0799512 0.975404 
-522.062 1026.77 -994.499 -0.205413 0.0799512 0.975404 
-545.386 1431.6 -1034.04 -0.205413 0.0799512 0.975404 
273.897 1223.65 -846.129 -0.205413 0.0799512 0.975404 
-216.724 1003.63 -929.126 -0.205413 0.0799512 0.975404 
-146.044 1197.89 -931.103 -0.205413 0.0799512 0.975404 
-192.74 1434.8 -961.102 -0.205413 0.0799512 0.975404 
-212.031 1470.52 -968.169 -0.205413 0.0799512 0.975404 
-468.357 1473.44 -1021.63 -0.205413 0.0799512 0.975404 
-184.284 1205.87 -939.725 -0.205413 0.0799512 0.975404 
-691.814 770.009 -1007.73 -0.205413 0.0799512 0.975404 
-492.856 1339.68 -1015.25 -0.205413 0.0799512 0.975404 
-157.55 1392.39 -950.162 -0.205413 0.0799512 0.975404 
-422.051 1399.97 -1005.72 -0.205413 0.0799512 0.975404 
-523.614 1257.3 -1014.58 -0.205413 0.0799512 0.975404 
-488.594 1042.53 -988.901 -0.205413 0.0799512 0.975404 
-801.409 850.69 -1037.4 -0.205413 0.0799512 0.975404 
-666.983 1165.75 -1036.5 -0.205413 0.0799512 0.975404 
-450.384 1143.48 -989.621 -0.205413 0.0799512 0.975404 
-524.75 1028.46 -995.201 -0.205413 0.0799512 0.975404 
-68.3218 1351.81 -928.159 -0.205413 0.0799512 0.975404 
-100.411 1320.04 -932.098 -0.205413 0.0799512 0.975404 
198.363 1241.97 -863.381 -0.205413 0.0799512 0.975404 
-524.924 1560.96 -1040.88 -0.205413 0.0799512 0.975404 
-237.981 1399.87 -967.5 -0.205413 0.0799512 0.975404 
-671.319 1095.86 -1031.41 -0.205413 0.0799512 0.975404 
-440.935 1160.15 -989.088 -0.205413 0.0799512 0.975404 
-79.6458 1215.78 -918.852 -0.205413 0.0799512 0.975404 
-281.42 1325.92 -970.18 -0.205413 0.0799512 0.975404 
-454.606 1021.18 -980.016 -0.205413 0.0799512 0.975404 
-223.693 1096.52 -938.534 -0.205413 0.0799512 0.975404 
-534.332 964.779 -991.733 -0.205413 0.0799512 0.975404 
-383.784 1044.94 -967.349 -0.205413 0.0799512 0.975404 
-283.377 1100.48 -951.265 -0.205413 0.0799512 0.975404 
-786.177 806.055 -1030.41 -0.205413 0.0799512 0.975404 
82.9539 1324.03 -894.373 -0.205413 0.0799512 0.975404 
-30.5469 1193.88 -906.781 -0.205413 0.0799512 0.975404 
-16.666 1171.29 -901.963 -0.205413 0.0799512 0.975404 
-324.694 1467.79 -991.324 -0.205413 0.0799512 0.975404 
164.405 1238.67 -870.147 -0.205413 0.0799512 0.975404 
135.275 1262.55 -878.242 -0.205413 0.0799512 0.975404 
-439.338 895.695 -966.091 -0.205413 0.0799512 0.975404 
28.7202 1308.1 -904.266 -0.205413 0.0799512 0.975404 
-424.622 1213.67 -990.289 -0.205413 0.0799512 0.975404 
-371.067 965.386 -957.891 -0.205413 0.0799512 0.975404 
-205.67 1239.15 -947.018 -0.205413 0.0799512 0.975404 
-145.179 1069.03 -919.879 -0.205413 0.0799512 0.975404 
-742.505 795.93 -1020.48 -0.205413 0.0799512 0.975404 
-197.296 1394.47 -958.591 -0.205413 0.0799512 0.975404 
-442.778 1504.79 -1019.01 -0.205413 0.0799512 0.975404 
-594.905 1081.92 -1014.35 -0.205413 0.0799512 0.975404 
-17.373 1163.99 -901.485 -0.205413 0.0799512 0.975404 
-176.509 1062.66 -925.837 -0.205413 0.0799512 0.975404 
22.1309 1232.14 -899.124 -0.205413 0.0799512 0.975404 
-354.574 918.868 -950.479 -0.205413 0.0799512 0.975404 
-628.069 1292.82 -1039.31 -0.205413 0.0799512 0.975404 
-24.019 1162.14 -902.706 -0.205413 0.0799512 0.975404 
-555.724 1366.34 -1030.59 -0.205413 0.0799512 0.975404 
-238.043 1347.06 -962.987 -0.205413 0.0799512 0.975404 
-350.718 989.643 -955.745 -0.205413 0.0799512 0.975404 
-698.269 903.596 -1020.52 -0.205413 0.0799512 0.975404 
-422.396 1359.22 -1002.3 -0.205413 0.0799512 0.975404 
-514.66 1565.94 -1039.17 -0.205413 0.0799512 0.975404 
-1670.12 1222.33 -1743.06 -0.364491 -0.929121 0.0622948 
-837.756 909.295 -1542.29 -0.364491 -0.929121 0.0622948 
-1597.95 1195.4 -1723.39 -0.373802 -0.921497 0.105431 
-993.789 972.42 -1550.76 -0.38336 -0.905993 0.179476 
-1437 1137.58 -1664.93 -0.38336 -0.905993 0.179476 
-1538.97 1178.36 -1677.81 -0.391813 -0.893686 0.218652 
-1654.77 1224.05 -1697.1 -0.396937 -0.882248 0.253141 
-922.797 957.44 -1495.64 -0.401538 -0.854237 0.330222 
-1614.58 1220.05 -1656 -0.404123 -0.838122 0.366383 
-972.741 973.605 -1514.41 -0.401538 -0.854237 0.330222 
-888.201 951.669 -1471.31 -0.405573 -0.822278 0.399211 
-858.353 942.693 -1459.7 -0.409659 -0.801647 0.435363 
-770.979 918.773 -1423.17 -0.410393 -0.780233 0.472033 
-705.619 890.97 -1412.83 -0.410393 -0.780233 0.472033 
-1027.21 1019.05 -1478.72 -0.410041 -0.759639 0.504792 
-1034.19 1028.59 -1470.64 -0.406046 -0.741404 0.534271 
-1239.84 1102.9 -1524.17 -0.406046 -0.741404 0.534271 
-1172.28 1086.21 -1496.55 -0.407432 -0.714242 0.569085 
-781.155 938.395 -1403.6 -0.407432 -0.714242 0.569085 
-1490.53 1215.82 -1561.58 -0.403095 -0.661872 0.632013 
-820.46 964.023 -1400.58 -0.403095 -0.661872 0.632013 
-1582.95 1260.83 -1573.43 -0.398629 -0.636814 0.659971 
-898.6 999.501 -1413.05 -0.398629 -0.636814 0.659971 
-767.854 960.438 -1372.27 -0.395321 -0.610349 0.686436 
-842.941 998.163 -1382.35 -0.394081 -0.578755 0.713963 
-1560.59 1270.32 -1552.76 -0.385197 -0.552388 0.73925 
-1027.11 1074.65 -1421.08 -0.385197 -0.552388 0.73925 
-1455.72 1241.46 -1519.95 -0.38181 -0.518287 0.765245 
-1360.55 1215.56 -1490.69 -0.372633 -0.488779 0.788822 
-742.522 982.832 -1342.61 -0.372633 -0.488779 0.788822 
-876.817 1041.47 -1370.03 -0.368585 -0.457939 0.808973 
-1631.31 1327.95 -1549.5 -0.368585 -0.457939 0.808973 
-1582.1 1317.67 -1533.41 -0.360941 -0.423987 0.830636 
-1452.83 1273.6 -1500.17 -0.349678 -0.386977 0.853214 
-1412.47 1262.41 -1488.67 -0.349678 -0.386977 0.853214 
-1115.12 1159.48 -1413.54 -0.344024 -0.353198 0.869999 
-1574.53 1361.82 -1513.84 -0.313963 -0.250303 0.915847 
-1568.54 1344.19 -1517.01 -0.326328 -0.28203 0.902202 
-998.92 1148.25 -1374.98 -0.313963 -0.250303 0.915847 
-1391.09 1304.47 -1467.01 -0.302443 -0.2096 0.929837 
-685.782 1038.76 -1297.93 -0.302443 -0.2096 0.929837 
-1248.5 1260.22 -1430.94 -0.293135 -0.17478 0.939959 
-1387.33 1306.55 -1465.35 -0.293135 -0.17478 0.939959 
-1621.37 1410.89 -1518.71 -0.281797 -0.13756 0.949562 
-1033.81 1196.47 -1376.95 -0.268977 -0.102653 0.957661 
-903.441 1136.18 -1347.2 -0.281797 -0.13756 0.949562 
-716.355 1080.07 -1300.49 -0.268977 -0.102653 0.957661 
-956.829 1177.35 -1357.54 -0.257057 -0.0639508 0.964278 
-1552.35 1415.79 -1499.66 -0.243296 -0.0278398 0.969552 
-1272.27 1307.52 -1432.57 -0.243296 -0.0278398 0.969552 
-1168.77 1281.64 -1407.61 -0.228828 0.0106707 0.973408 
-1074.25 1239.77 -1384.88 -0.228828 0.0106707 0.973408 
-1335.06 1357.44 -1447.96 -0.217304 0.0497736 0.974834 
-959.713 1211.88 -1357.73 -0.217304 0.0497736 0.974834 
-1421.6 1398.89 -1469.42 -0.205413 0.0799512 0.975404 
-649.414 1121.31 -1285.68 -0.189352 0.121637 0.974346 
-1328.5 1387.42 -1450.25 -0.177381 0.159515 0.971129 
-1430.95 1434.57 -1476.51 -0.158537 0.194627 0.96798 
-1267.82 1367.52 -1436.25 -0.158537 0.194627 0.96798 
-731.899 1184.54 -1311.84 -0.145266 0.23164 0.961894 
-1436.05 1450.2 -1480.92 -0.130464 0.264881 0.955415 
-1007.66 1299.36 -1381.07 -0.113064 0.304607 0.945744 
-1610.07 1543.64 -1531.51 -0.0978188 0.336336 0.936648 
-1310.4 1440.23 -1463.28 -0.0821542 0.370367 0.925245 
-1604.09 1558.1 -1536.87 -0.0661542 0.406376 0.911308 
-900.67 1299.51 -1370.84 -0.0501691 0.440674 0.896264 
-1101.43 1382.48 -1422.64 -0.0501691 0.440674 0.896264 
-1334.21 1476.64 -1481.91 -0.033907 0.473342 0.880226 
-658.753 1228.83 -1323.33 -0.0176083 0.505224 0.862809 
-1361.11 1500.55 -1496.16 -0.0176083 0.505224 0.862809 
-846.287 1313.31 -1376.71 -0.00134749 0.534955 0.844879 
-1563.94 1583.81 -1549.18 -0.00134749 0.534955 0.844879 
-1320.84 1497.81 -1494.45 0.0150828 0.56629 0.824068 
-1529.55 1578.51 -1546.01 0.0150828 0.56629 0.824068 
-859.151 1336.12 -1392.24 0.032097 0.595888 0.802426 
-655.436 1273.54 -1354.54 0.061758 0.650613 0.756894 
-1444.14 1574.69 -1547.54 0.061758 0.650613 0.756894 
-1080.37 1442.04 -1464.07 0.0798762 0.678221 0.730504 
-1279.18 1521.79 -1516.34 0.0798762 0.678221 0.730504 
-855.234 1369.3 -1421.6 0.0924104 0.702613 0.705546 
-1513.89 1618.11 -1580.61 0.110897 0.726005 0.678689 
-1110.73 1473.62 -1491.6 0.110897 0.726005 0.678689 
-1302.86 1550.53 -1543.02 0.123335 0.75041 0.649364 
-1250.43 1536.43 -1537.2 0.139241 0.771066 0.621345 
-1045.39 1459.19 -1487.88 0.139241 0.771066 0.621345 
-967.346 1439.27 -1481.46 0.15772 0.791606 0.590325 
-746.783 1354.11 -1425.61 0.15772 0.791606 0.590325 
-1278.14 1561.89 -1564.2 0.170174 0.811715 0.558713 
-753.556 1360.92 -1433.11 0.170174 0.811715 0.558713 
-873.678 1415.26 -1475.75 0.185024 0.828847 0.527995 
-978.629 1450.47 -1494.19 0.185024 0.828847 0.527995 
-1228.95 1560.01 -1580.52 0.20802 0.863506 0.459439 
-553.215 1304.31 -1415.63 0.20802 0.863506 0.459439 
-1011.64 1481.5 -1534.94 0.225145 0.878214 0.42196 
-851.436 1419.79 -1493.55 0.225145 0.878214 0.42196 
-1260.51 1579.92 -1605.14 0.238974 0.889101 0.390373 
-900.047 1442.19 -1513.82 0.238974 0.889101 0.390373 
-1051.13 1505.57 -1565.76 0.251544 0.901733 0.351573 
-1073.25 1516.57 -1578.45 0.266592 0.910492 0.316123 
-916.282 1457.61 -1541.07 0.266592 0.910492 0.316123 
-724.159 1389.34 -1507.45 0.277757 0.919621 0.277757 
-899.021 1455.19 -1549.6 0.277757 0.919621 0.277757 
-808.198 1421.79 -1530.43 0.289513 0.925585 0.243875 
-1184.7 1568.08 -1640.05 0.298493 0.931915 0.206002 
-660.802 1371.22 -1515.62 0.310144 0.935945 0.166788 
-1120.35 1544.94 -1630.52 0.310144 0.935945 0.166788 
-878.75 1455.13 -1579.07 0.320903 0.938336 0.128632 
-690.806 1385.59 -1542.58 0.330873 0.939466 0.08903 
-1425.61 1662.44 -1723.33 0.330873 0.939466 0.08903 
-1441.11 1668.8 -1732.68 0.341409 0.93855 0.0506272 
-1124.36 1550.2 -1667.26 0.34791 0.937459 0.0113861 
-937.63 1480.06 -1630.51 0.34791 0.937459 0.0113861 
-1336.02 1629.68 -1737.31 0.355943 0.934189 -0.0244148 
-1172.11 1567.99 -1698.64 0.364491 0.929121 -0.0622948 
-1037.56 1516.39 -1678.96 0.370397 0.922576 -0.107976 
-1361.69 1638.2 -1757.81 0.370397 0.922576 -0.107976 
-1490.01 1685.11 -1799.05 0.377056 0.915307 -0.141571 
-1324.24 1621.76 -1765.57 0.38336 0.905993 -0.179476 
-849.218 1441.36 -1660.18 0.38336 0.905993 -0.179476 
-1052.14 1515.58 -1717.68 0.389324 0.894711 -0.218903 
-726.089 1390.53 -1648.02 0.393067 0.88328 -0.255568 
-824.795 1423.81 -1683.51 0.394801 0.870391 -0.294195 
-1189.41 1559.27 -1775.42 0.401125 0.853359 -0.332981 
-753.707 1392.19 -1678.81 0.40306 0.839054 -0.36542 
-1439.02 1650.86 -1841.19 0.40306 0.839054 -0.36542 
-1130.57 1530.89 -1776.19 0.402396 0.822287 -0.402396 
-511.153 1293.76 -1636.01 0.402396 0.822287 -0.402396 
-1272.03 1576.8 -1824.39 0.405931 0.80384 -0.434812 
-716.689 1362.58 -1700.28 0.406657 0.78253 -0.471462 
-560.949 1301.74 -1666.54 0.407318 0.760654 -0.505467 
-1470.69 1642.1 -1887.56 0.407318 0.760654 -0.505467 
-1275.04 1565.22 -1845.51 0.406319 0.738612 -0.53792 
-1197.62 1532.34 -1832.11 0.406319 0.738612 -0.53792 
-1107.95 1490.08 -1821.42 0.405148 0.689578 -0.600281 
-645.536 1307.33 -1720.33 0.398594 0.663221 -0.633451 
-1459.59 1612.11 -1917.12 0.398594 0.663221 -0.633451 
-643.186 1297.66 -1728.6 0.395841 0.637652 -0.66084 
-853.275 1376.77 -1778.91 0.395841 0.637652 -0.66084 
-1072.12 1453.81 -1836.28 0.391632 0.609756 -0.689074 
-1011.33 1422.11 -1829.2 0.389624 0.580326 -0.715133 
-525.121 1237.82 -1713.72 0.389624 0.580326 -0.715133 
-1380.37 1551.65 -1924.87 0.384265 0.551052 -0.740731 
-1078.5 1443.27 -1848.61 0.384265 0.551052 -0.740731 
-1337.16 1525.42 -1921.42 0.375601 0.521939 -0.765835 
-724.43 1296.71 -1773.25 0.375601 0.521939 -0.765835 
-1491.32 1574.34 -1964.06 0.371687 0.487537 -0.790036 
-585.587 1234.6 -1746.22 0.371687 0.487537 -0.790036 
-1199.92 1458.22 -1897.84 0.365823 0.458476 -0.809922 
-1352.71 1521.76 -1931.07 0.365823 0.458476 -0.809922 
-1286.81 1482.12 -1923.28 0.358194 0.424468 -0.831579 
-662.836 1251.01 -1771.78 0.358194 0.424468 -0.831579 
-1400.67 1510.1 -1957.39 0.341863 0.357193 -0.86922 
-938.153 1337.89 -1845.73 0.341863 0.357193 -0.86922 
-1262.41 1446.21 -1928.84 0.332743 0.320698 -0.886812 
-1201.59 1412.59 -1917.84 0.320495 0.288002 -0.902407 
-567.765 1170.35 -1767.01 0.310527 0.249866 -0.917137 
-981.364 1328.91 -1865.29 0.320495 0.288002 -0.902407 
-1168.35 1388.95 -1913.06 0.310527 0.249866 -0.917137 
-1382.38 1448.89 -1968.88 0.290475 0.177589 -0.940259 
-1353.4 1429.29 -1963.29 0.282408 0.140535 -0.948945 
-708.028 1181.83 -1809.15 0.26531 0.0996531 -0.958999 
-797.302 1197.93 -1832.13 0.254097 0.0638373 -0.96507 
-665.267 1149.13 -1800.4 0.254097 0.0638373 -0.96507 
-966.181 1248.65 -1873.11 0.243296 0.0278398 -0.969552 
-659.96 1130.57 -1799.64 0.228306 -0.00828053 -0.973554 
-1247.76 1336.77 -1940.22 0.216306 -0.047128 -0.975188 
-982.816 1241.69 -1876.89 0.216306 -0.047128 -0.975188 
-1163.75 1296.35 -1919.46 0.200653 -0.0824771 -0.976184 
-669.854 1109.27 -1800.89 0.200653 -0.0824771 -0.976184 
-1489.35 1407.88 -1996.4 0.191826 -0.119108 -0.974175 
-671.487 1104.57 -1800.78 0.191826 -0.119108 -0.974175 
-1312.73 1334.48 -1953.11 0.171647 -0.156389 -0.972666 
-606.613 1055.56 -1781.42 0.158537 -0.194627 -0.96798 
-969.272 1188.85 -1867.77 0.158537 -0.194627 -0.96798 
-1525.02 1388.81 -1998.99 0.144624 -0.228011 -0.962858 
-1249.5 1278.05 -1931.09 0.127782 -0.26742 -0.95507 
-1445.3 1343.31 -1975.67 0.110247 -0.30152 -0.947065 
-1247.98 1263.21 -1926.47 0.110247 -0.30152 -0.947065 
-690.532 1047.44 -1790.72 0.0975738 -0.335493 -0.936976 
-928.886 1124.33 -1843.07 0.0819499 -0.369447 -0.925631 
-1325.74 1273.93 -1938.38 0.0819499 -0.369447 -0.925631 
-1433.63 1305.1 -1960.29 0.0633954 -0.408698 -0.910465 
-1506.1 1336.5 -1979.52 0.0633954 -0.408698 -0.910465 
-1183.03 1196.05 -1893.21 0.0473484 -0.439664 -0.896914 
-1310.57 1252.06 -1927.73 0.0473484 -0.439664 -0.896914 
-719.896 1010.17 -1775.85 0.0148653 -0.504067 -0.863536 
-1546.58 1308.87 -1966.75 0.00134749 -0.534955 -0.844879 
-1285.16 1212.16 -1905.08 0.00134749 -0.534955 -0.844879 
-636.099 959.372 -1743.84 -0.0178796 -0.562521 -0.82659 
-1460.88 1262.51 -1936.77 -0.0350215 -0.595365 -0.802692 
-742.982 976.15 -1752.08 -0.0467903 -0.622453 -0.781257 
-1332.05 1205.22 -1899.33 -0.0467903 -0.622453 -0.781257 
-1542.61 1268.68 -1936.8 -0.0647395 -0.648834 -0.758171 
-667.612 931.165 -1719.26 -0.0800336 -0.676648 -0.731944 
-1556.95 1260.13 -1927.03 -0.0986298 -0.702185 -0.70513 
-1423.08 1203.32 -1888.19 -0.114061 -0.72436 -0.679921 
-721.203 944.726 -1725.57 -0.0986298 -0.702185 -0.70513 
-1209.01 1113.79 -1826.74 -0.126541 -0.748828 -0.650572 
-1028.3 1044.05 -1781.34 -0.142176 -0.770741 -0.621083 
-1182.5 1107.16 -1824.24 -0.126541 -0.748828 -0.650572 
-656.427 898.649 -1685.3 -0.142176 -0.770741 -0.621083 
-1599.03 1246.69 -1902.69 -0.15772 -0.791606 -0.590325 
-851.466 967.353 -1725.91 -0.15772 -0.791606 -0.590325 
-1384.18 1160.19 -1842.99 -0.173096 -0.811295 -0.558424 
-1417.67 1169.84 -1846.53 -0.188225 -0.829696 -0.525524 
-771.183 931.072 -1698.12 -0.173096 -0.811295 -0.558424 
-808.468 939.531 -1698.62 -0.188225 -0.829696 -0.525524 
-1043.4 1020.54 -1742.73 -0.200357 -0.845114 -0.49562 
-817.106 938.193 -1693.22 -0.200357 -0.845114 -0.49562 
-1434.9 1164.03 -1829.66 -0.214583 -0.862835 -0.457678 
-1147.23 1049.26 -1747.52 -0.22857 -0.876933 -0.422781 
-1142.68 1046.53 -1744.14 -0.245205 -0.887196 -0.390842 
-1266.48 1090.65 -1768.24 -0.245205 -0.887196 -0.390842 
-1169.38 1051.34 -1738.11 -0.254706 -0.89957 -0.354822 
-991.112 976.963 -1674.25 -0.281671 -0.917237 -0.281671 
-694.097 862.582 -1593.54 -0.290075 -0.924524 -0.247207 
-848.983 915.741 -1606.56 -0.316742 -0.93363 -0.167362 
-1651.74 1216.47 -1790.16 -0.324151 -0.93719 -0.128847 
-869.907 923.171 -1608.57 -0.324151 -0.93719 -0.128847 
-974.094 960.594 -1618.49 -0.330873 -0.939466 -0.08903 
-990.679 966.836 -1622.5 -0.330873 -0.939466 -0.08903 
-1133.3 1020.08 -1651.46 -0.341409 -0.93855 -0.0506272 
-1068.14 995.245 -1630.07 -0.341409 -0.93855 -0.0506272 
-898.417 931.235 -1584.09 -0.350962 -0.93632 -0.0114031 
-1733.48 1286.01 -1862.1 -0.513499 -0.764543 -0.389607 
-1762.86 1307.41 -1865.1 -0.513499 -0.764543 -0.389607 
-1591.47 1357.47 -1994.25 -0.218183 -0.318005 -0.922642 
-1625.64 1363.3 -1987.87 -0.229435 -0.336216 -0.91341 
-1600.92 1478.36 -2007.73 -0.0477749 0.0944387 -0.994384 
-1520.46 1557.06 -1984.05 0.0557121 0.44162 -0.89547 
-1825.14 1434.37 -1959.86 -0.319138 -0.500142 -0.80499 
-1871.9 1437.61 -1941.33 -0.383255 -0.603668 -0.699071 
-1658.19 1525.42 -1999.26 -0.0128163 0.199236 -0.979868 
-1802.74 1465.69 -1980.88 -0.208484 -0.292438 -0.933282 
-1538.53 1606.51 -1953.55 0.0977667 0.617243 -0.780674 
-1844.01 1473.27 -1973.25 -0.254333 -0.376294 -0.890909 
-1760.39 1492.58 -1994.07 -0.124425 -0.100725 -0.987103 
-1691.45 1537.7 -1996.34 -0.0128163 0.199236 -0.979868 
-1564.67 1634.13 -1931.79 0.114255 0.731526 -0.672173 
-1767.8 1527.93 -1994.56 -0.066016 0.0465358 -0.996733 
-1699.44 1565.27 -1989.15 0.0185797 0.296036 -0.954996 
-1836.21 1549.37 -1989.01 -0.0804534 0.0203815 -0.99655 
-1617.28 1649.11 -1924.24 0.116742 0.76695 -0.630998 
-1643.93 1650.01 -1927.93 0.114255 0.731526 -0.672173 
-1831.43 1590.54 -1983.58 0.00118446 0.242814 -0.970072 
-1650.86 1672.15 -1899.74 0.121096 0.830167 -0.544204 
-1563.42 1699.75 -1743.05 0.0395573 0.997486 0.0588014 
-1698.76 1672.13 -1910.36 0.121096 0.830167 -0.544204 
-1611.8 1595.08 -1558.95 -0.288535 0.581852 0.760392 
-1697.47 1702.23 -1745.79 -0.0058491 0.976799 0.214077 
-1620.94 1619.81 -1584.08 -0.244203 0.663287 0.707401 
-1668.07 1659.74 -1645.44 -0.15418 0.806826 0.570316 
-1816.61 1713.39 -1836.1 0.0735865 0.992852 -0.0939644 
-1753.22 1706.36 -1766.34 -0.0058491 0.976799 0.214077 
-1712 1649.49 -1645.04 -0.196092 0.73959 0.64386 
-1722.45 1635.83 -1633.9 -0.244203 0.663287 0.707401 
-1705.46 1561.76 -1576.08 -0.373261 0.40161 0.836293 
-1716.89 1571.54 -1585.85 -0.373261 0.40161 0.836293 
-1797.05 1478.24 -1608.47 -0.541523 -0.045939 0.83943 
-1794.43 1455.76 -1609.7 -0.569213 -0.141189 0.809977 
-1891.34 1613.41 -1683.52 -0.375451 0.397444 0.837302 
-1820.3 1472.49 -1624.98 -0.569213 -0.141189 0.809977 
-1751.83 1311.98 -1658.41 -0.658275 -0.597975 0.457275 
-1811.65 1428.41 -1630.89 -0.609982 -0.281898 0.740578 
-1765.42 1317.77 -1670.91 -0.660074 -0.626821 0.414001 
-1772.03 1320.3 -1677.57 -0.660074 -0.626821 0.414001 
-1773.06 1310.32 -1697.54 -0.654398 -0.683626 0.323139 
-1760.63 1284.45 -1750.36 -0.629616 -0.773692 0.0705976 
-1901.06 1471.5 -1688.23 -0.617373 -0.328941 0.714597 
