ply
format ascii 1.0
comment Created by CloudCompare v2.11.3 (Anoia)
comment Created 08/09/2022 00:25
obj_info Generated by CloudCompare!
element vertex 873
property float x
property float y
property float z
property float nx
property float ny
property float nz
end_header
3830.07 -1350.35 1059.09 -0.123308 -0.118519 0.985266 
4098.19 -923.095 1144.56 -0.123308 -0.118519 0.985266 
3421.88 -1266.8 1018.07 -0.123308 -0.118519 0.985266 
4110.24 -922.026 1146.2 -0.123308 -0.118519 0.985266 
3742.85 -1331.84 1050.4 -0.123308 -0.118519 0.985266 
3452.37 -1135.96 1037.77 -0.123308 -0.118519 0.985266 
3752.42 -1285.06 1057.28 -0.123308 -0.118519 0.985266 
3765.81 -859.254 1110.65 -0.123308 -0.118519 0.985266 
3861.89 -1145.8 1087.9 -0.123308 -0.118519 0.985266 
3594.32 -1327.72 1032.28 -0.123308 -0.118519 0.985266 
3816.69 -964.404 1104.26 -0.123308 -0.118519 0.985266 
3586.51 -767.316 1099.34 -0.123308 -0.118519 0.985266 
4134.17 -1235.54 1111.14 -0.123308 -0.118519 0.985266 
3792.17 -1271.06 1063.96 -0.123308 -0.118519 0.985266 
4086.11 -969.321 1137.43 -0.123308 -0.118519 0.985266 
3660.15 -1401.11 1031.63 -0.123308 -0.118519 0.985266 
3446.55 -1343.37 1011.86 -0.123308 -0.118519 0.985266 
3623.99 -1233.73 1047.41 -0.123308 -0.118519 0.985266 
3649.51 -1145.17 1061.36 -0.123308 -0.118519 0.985266 
3520.39 -1053.44 1056.31 -0.123308 -0.118519 0.985266 
3904.86 -982.346 1113.13 -0.123308 -0.118519 0.985266 
3621.81 -1107.16 1062.5 -0.123308 -0.118519 0.985266 
3425.04 -1439.85 997.456 -0.123308 -0.118519 0.985266 
4105.2 -1060.08 1128.81 -0.123308 -0.118519 0.985266 
3597.17 -887.28 1086.11 -0.123308 -0.118519 0.985266 
3509.99 -1356.88 1018.18 -0.123308 -0.118519 0.985266 
3434.21 -1184.14 1029.65 -0.123308 -0.118519 0.985266 
3813.89 -1245.37 1069.8 -0.123308 -0.118519 0.985266 
4158.82 -1224.4 1115.58 -0.123308 -0.118519 0.985266 
3751.14 -886.872 1105.46 -0.123308 -0.118519 0.985266 
3848.86 -968.582 1107.79 -0.123308 -0.118519 0.985266 
3709.17 -1281.46 1052.3 -0.123308 -0.118519 0.985266 
3454.44 -1261.66 1022.77 -0.123308 -0.118519 0.985266 
3683.23 -1446.64 1028.99 -0.123308 -0.118519 0.985266 
3414.87 -1358.3 1006.08 -0.123308 -0.118519 0.985266 
3983.97 -1047.91 1115.09 -0.123308 -0.118519 0.985266 
3381.08 -1348.5 1003.04 -0.123308 -0.118519 0.985266 
3864.21 -1249 1075.67 -0.123308 -0.118519 0.985266 
4280.98 -1021.8 1155.49 -0.123308 -0.118519 0.985266 
3821.99 -950.598 1106.6 -0.123308 -0.118519 0.985266 
4304.83 -1090.22 1150.17 -0.123308 -0.118519 0.985266 
3759.18 -1267.6 1060.25 -0.123308 -0.118519 0.985266 
3721.41 -897.09 1100.49 -0.123308 -0.118519 0.985266 
3581.34 -1202.81 1045.82 -0.123308 -0.118519 0.985266 
3452.32 -1127.86 1038.75 -0.123308 -0.118519 0.985266 
3917.25 -1058.75 1105.41 -0.123308 -0.118519 0.985266 
4025.5 -1025.88 1122.97 -0.123308 -0.118519 0.985266 
3737.93 -1236.01 1061.42 -0.123308 -0.118519 0.985266 
3864.58 -1159.25 1086.61 -0.123308 -0.118519 0.985266 
3400.9 -1324.85 1008.39 -0.123308 -0.118519 0.985266 
4243.24 -997.203 1153.74 -0.123308 -0.118519 0.985266 
3651.9 -908.216 1090.43 -0.123308 -0.118519 0.985266 
3602.92 -754.152 1102.99 -0.123308 -0.118519 0.985266 
3648.44 -1436.41 1025.87 -0.123308 -0.118519 0.985266 
3778.66 -1370.84 1050.15 -0.123308 -0.118519 0.985266 
3799.64 -1007.06 1096.94 -0.123308 -0.118519 0.985266 
3817.31 -1289.4 1064.89 -0.123308 -0.118519 0.985266 
4138.73 -1192.46 1116.94 -0.123308 -0.118519 0.985266 
3454.77 -1413.61 1004.37 -0.123308 -0.118519 0.985266 
3607 -1268.9 1041.01 -0.123308 -0.118519 0.985266 
3791.46 -911.327 1107.54 -0.123308 -0.118519 0.985266 
3831.51 -1302.74 1065.05 -0.123308 -0.118519 0.985266 
3553.69 -1477.33 1009.03 -0.123308 -0.118519 0.985266 
3349.92 -1524.59 977.754 -0.123308 -0.118519 0.985266 
3476.26 -1080.06 1047.55 -0.123308 -0.118519 0.985266 
3286.68 -1643.97 955.337 -0.123308 -0.118519 0.985266 
3979.39 -887.558 1133.98 -0.123308 -0.118519 0.985266 
3723.68 -1307.41 1050.96 -0.123308 -0.118519 0.985266 
4328.87 -1031.99 1160.25 -0.123308 -0.118519 0.985266 
3474.22 -1142.16 1039.76 -0.123308 -0.118519 0.985266 
3923.26 -1271.95 1080.28 -0.123308 -0.118519 0.985266 
3756.14 -1106.34 1079.44 -0.123308 -0.118519 0.985266 
3549.44 -990.905 1067.55 -0.123308 -0.118519 0.985266 
3947.01 -1099.34 1104.21 -0.123308 -0.118519 0.985266 
3549.75 -1136.83 1049.87 -0.123308 -0.118519 0.985266 
4025.2 -995.077 1126.67 -0.123308 -0.118519 0.985266 
3717.91 -1028.95 1084.04 -0.123308 -0.118519 0.985266 
4108.73 -1082.87 1126.48 -0.123308 -0.118519 0.985266 
3836.56 -1140.75 1085.34 -0.123308 -0.118519 0.985266 
4114.47 -1051.95 1130.96 -0.123308 -0.118519 0.985266 
3415.27 -1495.82 989.438 -0.123308 -0.118519 0.985266 
3917.3 -1088.25 1101.84 -0.123308 -0.118519 0.985266 
4073.84 -1146.08 1114.44 -0.123308 -0.118519 0.985266 
3766.69 -1163.65 1073.81 -0.123308 -0.118519 0.985266 
3646.23 -1300.34 1042.11 -0.123308 -0.118519 0.985266 
3601.94 -886.754 1086.77 -0.123308 -0.118519 0.985266 
3863.28 -1096.77 1094.03 -0.123308 -0.118519 0.985266 
4078.99 -997.544 1133.11 -0.123308 -0.118519 0.985266 
3718.63 -979.994 1090.08 -0.123308 -0.118519 0.985266 
3852.99 -1195.72 1080.73 -0.123308 -0.118519 0.985266 
3947.88 -1322.01 1077.29 -0.123308 -0.118519 0.985266 
3852.02 -1107.96 1091.26 -0.123308 -0.118519 0.985266 
4282.38 -1143.49 1140.89 -0.123308 -0.118519 0.985266 
3681.46 -837.93 1102.66 -0.123308 -0.118519 0.985266 
3553.06 -1016.19 1064.93 -0.123308 -0.118519 0.985266 
3742.53 -807.58 1114 -0.123308 -0.118519 0.985266 
3668.85 -893.633 1094.32 -0.123308 -0.118519 0.985266 
4402.45 -1484.31 790.417 0.942914 -0.323922 0.0773741 
4481.67 -1189.49 1067.16 0.942914 -0.323922 0.0773741 
4357.25 -1681.28 512.72 0.942914 -0.323922 0.0773741 
4269.11 -1832.34 942.225 0.942914 -0.323922 0.0773741 
4271.36 -1912.12 582.694 0.942914 -0.323922 0.0773741 
4285.42 -1786.87 935.695 0.942914 -0.323922 0.0773741 
4500.08 -1127.33 1104.87 0.942914 -0.323922 0.0773741 
4368.33 -1562.84 873.122 0.942914 -0.323922 0.0773741 
4439.91 -1308.12 1074.57 0.942914 -0.323922 0.0773741 
4398.69 -1512.41 718.517 0.942914 -0.323922 0.0773741 
4460.43 -1260.9 1024.72 0.942914 -0.323922 0.0773741 
4339.05 -1652.4 851.743 0.942914 -0.323922 0.0773741 
4437.46 -1386.38 777.894 0.942914 -0.323922 0.0773741 
4439.15 -1398.05 708.92 0.942914 -0.323922 0.0773741 
4380.3 -1634.51 430.614 0.942914 -0.323922 0.0773741 
4406.52 -1437.89 934.997 0.942914 -0.323922 0.0773741 
4338.66 -1709.82 617.152 0.942914 -0.323922 0.0773741 
4370.12 -1645.35 507.806 0.942914 -0.323922 0.0773741 
4260.29 -1870.34 889.784 0.942914 -0.323922 0.0773741 
4285.11 -1854.21 658.802 0.942914 -0.323922 0.0773741 
4318.31 -1821.83 394.893 0.942914 -0.323922 0.0773741 
4318.67 -1862.8 219.893 0.942914 -0.323922 0.0773741 
4421.87 -1462.43 648.328 0.942914 -0.323922 0.0773741 
4293.18 -1870.2 495.248 0.942914 -0.323922 0.0773741 
4342.39 -1623.64 931.48 0.942914 -0.323922 0.0773741 
4233.41 -1941.46 916.439 0.942914 -0.323922 0.0773741 
4290.24 -1754.37 1013.2 0.942914 -0.323922 0.0773741 
4343.7 -1714.29 537.935 0.942914 -0.323922 0.0773741 
4249.59 -1914.63 833.897 0.942914 -0.323922 0.0773741 
4349.28 -1598.94 951.623 0.942914 -0.323922 0.0773741 
4507.37 -1105.83 1107 0.942914 -0.323922 0.0773741 
4503.23 -1119.44 1099.94 0.942914 -0.323922 0.0773741 
4298.03 -1862.1 470.76 0.942914 -0.323922 0.0773741 
4459.32 -1257.66 1051.53 0.942914 -0.323922 0.0773741 
4502.53 -1118.93 1110.5 0.942914 -0.323922 0.0773741 
4452.35 -1292.19 991.45 0.942914 -0.323922 0.0773741 
4321.49 -1705.78 840.232 0.942914 -0.323922 0.0773741 
4341.45 -1809.72 167.297 0.942914 -0.323922 0.0773741 
4354.33 -1738.03 311.321 0.942914 -0.323922 0.0773741 
4426.39 -1348.65 1068.07 0.942914 -0.323922 0.0773741 
4307.14 -1739.4 872.598 0.942914 -0.323922 0.0773741 
4292.57 -1893.1 407.168 0.942914 -0.323922 0.0773741 
4305.36 -1736.66 905.316 0.942914 -0.323922 0.0773741 
4404.46 -1466.33 841.15 0.942914 -0.323922 0.0773741 
4340.8 -1713.4 576.516 0.942914 -0.323922 0.0773741 
4263.8 -1841.74 966.789 0.942914 -0.323922 0.0773741 
4294.31 -1742.85 1012.3 0.942914 -0.323922 0.0773741 
4321.84 -1780.26 525.732 0.942914 -0.323922 0.0773741 
4443.02 -1296.66 1084.84 0.942914 -0.323922 0.0773741 
4326.6 -1785.27 447.675 0.942914 -0.323922 0.0773741 
4346.97 -1581.67 1051.26 0.942914 -0.323922 0.0773741 
4330.13 -1676.02 860.526 0.942914 -0.323922 0.0773741 
4437.35 -1335.02 993.155 0.942914 -0.323922 0.0773741 
4394.98 -1473.93 923.361 0.942914 -0.323922 0.0773741 
4319.89 -1809.47 427.39 0.942914 -0.323922 0.0773741 
4431.98 -1413.76 729.544 0.942914 -0.323922 0.0773741 
4369.5 -1644.11 520.38 0.942914 -0.323922 0.0773741 
4397.38 -1569.24 497.492 0.942914 -0.323922 0.0773741 
4462.24 -1263.41 992.544 0.942914 -0.323922 0.0773741 
4371.05 -1677.72 361.755 0.942914 -0.323922 0.0773741 
4350.3 -1645.36 745.85 0.942914 -0.323922 0.0773741 
4382.42 -1561.61 708.903 0.942914 -0.323922 0.0773741 
4271.37 -1874.66 738.735 0.942914 -0.323922 0.0773741 
4334.08 -1689.71 755.958 0.942914 -0.323922 0.0773741 
4326.74 -1732.28 666.819 0.942914 -0.323922 0.0773741 
4400.26 -1548.07 551.021 0.942914 -0.323922 0.0773741 
4407.44 -1441.57 908.564 0.942914 -0.323922 0.0773741 
4251.6 -1899.67 872.024 0.942914 -0.323922 0.0773741 
4380.58 -1495.18 1007.84 0.942914 -0.323922 0.0773741 
4352.28 -1644.87 724.122 0.942914 -0.323922 0.0773741 
4295.34 -1856.33 527.044 0.942914 -0.323922 0.0773741 
4449.52 -1348.47 790.867 0.942914 -0.323922 0.0773741 
4240.51 -1906.02 978.781 0.942914 -0.323922 0.0773741 
4430.34 -1392.02 839.887 0.942914 -0.323922 0.0773741 
4344.72 -1703.09 572.367 0.942914 -0.323922 0.0773741 
4369.72 -1640.62 532.324 0.942914 -0.323922 0.0773741 
4393.87 -1447.65 1046.26 0.942914 -0.323922 0.0773741 
4326.8 -1651.83 1001.21 0.942914 -0.323922 0.0773741 
4467.69 -1219.03 1112.02 0.942914 -0.323922 0.0773741 
4429.55 -1400.1 815.742 0.942914 -0.323922 0.0773741 
4340.17 -1804.79 203.306 0.942914 -0.323922 0.0773741 
4307.36 -1781.99 692.473 0.942914 -0.323922 0.0773741 
4391.56 -1491.04 893.179 0.942914 -0.323922 0.0773741 
4333.68 -1733.96 576.361 0.942914 -0.323922 0.0773741 
4323.46 -1807.99 390.636 0.942914 -0.323922 0.0773741 
4379.93 -1605.55 555.792 0.942914 -0.323922 0.0773741 
4314.34 -1831.81 401.055 0.942914 -0.323922 0.0773741 
4342.21 -1644.13 848.225 0.942914 -0.323922 0.0773741 
4378.23 -1513.86 958.25 0.942914 -0.323922 0.0773741 
4259.4 -1835.25 1046.73 0.942914 -0.323922 0.0773741 
4279.59 -1880.3 616.484 0.942914 -0.323922 0.0773741 
4350.62 -1588.13 980.526 0.942914 -0.323922 0.0773741 
4381.72 -1561.63 717.336 0.942914 -0.323922 0.0773741 
4260.63 -1878.4 852.177 0.942914 -0.323922 0.0773741 
4283.44 -1914.11 429.275 0.942914 -0.323922 0.0773741 
4250.2 -1945.13 699.446 0.942914 -0.323922 0.0773741 
4316.54 -1804.67 487.608 0.942914 -0.323922 0.0773741 
4348.83 -1681.22 614.062 0.942914 -0.323922 0.0773741 
4264.43 -1881.13 795.098 0.942914 -0.323922 0.0773741 
4317.18 -1689.68 959.148 0.942914 -0.323922 0.0773741 
4238.69 -1898.36 1032.62 0.942914 -0.323922 0.0773741 
4304.61 -1888.54 281.574 0.942914 -0.323922 0.0773741 
4325.66 -1820.33 312.829 0.942914 -0.323922 0.0773741 
4270.32 -1840.43 893.931 0.942914 -0.323922 0.0773741 
4367.72 -1616.42 657.154 0.942914 -0.323922 0.0773741 
4306.27 -1769.26 758.579 0.942914 -0.323922 0.0773741 
4318.01 -1682.78 977.907 0.942914 -0.323922 0.0773741 
4296.86 -1802.02 735.153 0.942914 -0.323922 0.0773741 
4298.95 -1803.42 704.158 0.942914 -0.323922 0.0773741 
4360.88 -1568.01 941.046 0.942914 -0.323922 0.0773741 
4323.56 -1705.44 816.837 0.942914 -0.323922 0.0773741 
4411.73 -1489.24 658.376 0.942914 -0.323922 0.0773741 
4347.56 -1756.16 317.092 0.942914 -0.323922 0.0773741 
4401.52 -1421.21 1064.56 0.942914 -0.323922 0.0773741 
4331.94 -1828.35 203.966 0.942914 -0.323922 0.0773741 
4367.52 -1702.14 302.387 0.942914 -0.323922 0.0773741 
4475.66 -1219.16 1015.67 0.942914 -0.323922 0.0773741 
4480.57 -1173.67 1146.2 0.942914 -0.323922 0.0773741 
4275.34 -1803.61 987.085 0.942914 -0.323922 0.0773741 
4424.39 -1412.25 827.135 0.942914 -0.323922 0.0773741 
4337.43 -1708.62 636.957 0.942914 -0.323922 0.0773741 
4350.2 -1748.27 318.198 0.942914 -0.323922 0.0773741 
4256.49 -1845.93 1037.16 0.942914 -0.323922 0.0773741 
4445.5 -1369.69 750.761 0.942914 -0.323922 0.0773741 
4341.21 -1684.6 691.584 0.942914 -0.323922 0.0773741 
4371.07 -1602.68 674.238 0.942914 -0.323922 0.0773741 
4280.34 -1771.69 1059.95 0.942914 -0.323922 0.0773741 
4363.68 -1604.72 754.484 0.942914 -0.323922 0.0773741 
4365.42 -1656.05 519.683 0.942914 -0.323922 0.0773741 
4296.37 -1844.82 562.727 0.942914 -0.323922 0.0773741 
4390.98 -1455.02 1050.27 0.942914 -0.323922 0.0773741 
4287.2 -1802.19 850.488 0.942914 -0.323922 0.0773741 
4340.56 -1741.25 463.397 0.942914 -0.323922 0.0773741 
4283.7 -1784.16 967.717 0.942914 -0.323922 0.0773741 
4438.62 -1395.84 724.482 0.942914 -0.323922 0.0773741 
4259.26 -1871.49 897.336 0.942914 -0.323922 0.0773741 
4310.94 -1881.07 236.591 0.942914 -0.323922 0.0773741 
4280.63 -1815.03 876.004 0.942914 -0.323922 0.0773741 
4350.28 -1771.6 220.077 0.942914 -0.323922 0.0773741 
4412.72 -1392.53 1049.47 0.942914 -0.323922 0.0773741 
4288.08 -1814.86 787.101 0.942914 -0.323922 0.0773741 
4271.89 -1920.49 541.509 0.942914 -0.323922 0.0773741 
4292.18 -1850.88 587.716 0.942914 -0.323922 0.0773741 
4302.6 -1706.23 1065.37 0.942914 -0.323922 0.0773741 
4463.73 -1224.61 1136.34 0.942914 -0.323922 0.0773741 
4261.33 -1912.37 702.182 0.942914 -0.323922 0.0773741 
4325.1 -1858.12 162.066 0.942914 -0.323922 0.0773741 
4316.33 -1731.26 796.077 0.942914 -0.323922 0.0773741 
4382.87 -1550.76 748.81 0.942914 -0.323922 0.0773741 
4322.44 -1801.06 431.747 0.942914 -0.323922 0.0773741 
4406.13 -1461.51 841.161 0.942914 -0.323922 0.0773741 
4299.76 -1868.81 421.959 0.942914 -0.323922 0.0773741 
4373.15 -1674.33 350.66 0.942914 -0.323922 0.0773741 
4415.24 -1473.31 682.55 0.942914 -0.323922 0.0773741 
4378.89 -1550.85 796.174 0.942914 -0.323922 0.0773741 
4334.23 -1643.32 947.477 0.942914 -0.323922 0.0773741 
4327.91 -1704.56 768.196 0.942914 -0.323922 0.0773741 
4455.36 -1279.25 1009.17 0.942914 -0.323922 0.0773741 
4366 -1600.75 743.117 0.942914 -0.323922 0.0773741 
4442.93 -1365.6 798.736 0.942914 -0.323922 0.0773741 
4300.73 -1826.07 588.411 0.942914 -0.323922 0.0773741 
4270.05 -1900.01 648.941 0.942914 -0.323922 0.0773741 
4453.34 -1330.64 819.281 0.942914 -0.323922 0.0773741 
4268.88 -1904.38 644.86 0.942914 -0.323922 0.0773741 
4387.42 -1519.38 824.921 0.942914 -0.323922 0.0773741 
4308.24 -1834.84 461.698 0.942914 -0.323922 0.0773741 
4364.63 -1666.77 484.523 0.942914 -0.323922 0.0773741 
4363.23 -1573.73 889.017 0.942914 -0.323922 0.0773741 
4294.46 -1882.3 429.506 0.942914 -0.323922 0.0773741 
4297.42 -1823.76 637.843 0.942914 -0.323922 0.0773741 
4369.29 -1549.76 916.12 0.942914 -0.323922 0.0773741 
4385.38 -1590.05 554.833 0.942914 -0.323922 0.0773741 
4359.59 -1537 1085.77 0.942914 -0.323922 0.0773741 
4296.21 -1896.35 349.912 0.942914 -0.323922 0.0773741 
4375.01 -1489.08 1100.27 0.942914 -0.323922 0.0773741 
4460.22 -1271.92 981.36 0.942914 -0.323922 0.0773741 
4409.17 -1524.3 543.005 0.942914 -0.323922 0.0773741 
4320.54 -1795.72 476.857 0.942914 -0.323922 0.0773741 
4422.48 -1432 767.732 0.942914 -0.323922 0.0773741 
4472.17 -1223.51 1039.45 0.942914 -0.323922 0.0773741 
4315.06 -1761.02 687.268 0.942914 -0.323922 0.0773741 
4403.65 -1517.2 638.974 0.942914 -0.323922 0.0773741 
4414.1 -1449.1 797.146 0.942914 -0.323922 0.0773741 
4465.95 -1261.5 955.88 0.942914 -0.323922 0.0773741 
4437.43 -1326.58 1027.34 0.942914 -0.323922 0.0773741 
4319.72 -1739.11 722.603 0.942914 -0.323922 0.0773741 
4349.76 -1584.78 1004.82 0.942914 -0.323922 0.0773741 
4271.06 -1822.69 958.998 0.942914 -0.323922 0.0773741 
4468.64 -1226.23 1070.52 0.942914 -0.323922 0.0773741 
4295.97 -1773.47 864.807 0.942914 -0.323922 0.0773741 
4342.93 -1716.41 538.362 0.942914 -0.323922 0.0773741 
4266.59 -1879.58 775.653 0.942914 -0.323922 0.0773741 
4252 -1870.62 988.25 0.942914 -0.323922 0.0773741 
4441.03 -1316.14 1027.62 0.942914 -0.323922 0.0773741 
4342.21 -1700.11 615.018 0.942914 -0.323922 0.0773741 
4365.07 -1548.89 970.415 0.942914 -0.323922 0.0773741 
4307.69 -1813.1 558.82 0.942914 -0.323922 0.0773741 
4253.93 -1914.49 782.315 0.942914 -0.323922 0.0773741 
4387.48 -1562.73 643.496 0.942914 -0.323922 0.0773741 
4493.67 -1154.46 1068.93 0.942914 -0.323922 0.0773741 
4315.72 -1758.8 688.618 0.942914 -0.323922 0.0773741 
4338.3 -1780.7 326.073 0.942914 -0.323922 0.0773741 
4360.26 -1634.66 670.785 0.942914 -0.323922 0.0773741 
4378.55 -1651.5 380.857 0.942914 -0.323922 0.0773741 
4324.22 -1851.95 198.347 0.942914 -0.323922 0.0773741 
4313.61 -1810.73 497.578 0.942914 -0.323922 0.0773741 
4322.89 -1772.56 545.224 0.942914 -0.323922 0.0773741 
4434.83 -1415.21 689.359 0.942914 -0.323922 0.0773741 
4332.65 -1793.6 340.163 0.942914 -0.323922 0.0773741 
4417.75 -1471.31 660.772 0.942914 -0.323922 0.0773741 
4277.01 -1828.24 864.336 0.942914 -0.323922 0.0773741 
4346.42 -1755.18 334.885 0.942914 -0.323922 0.0773741 
4289.94 -1867.73 544.435 0.942914 -0.323922 0.0773741 
4330.76 -1631.96 1036.54 0.942914 -0.323922 0.0773741 
4357.38 -1703.78 417.399 0.942914 -0.323922 0.0773741 
4340.47 -1701.89 628.374 0.942914 -0.323922 0.0773741 
4301.56 -1857.12 449.075 0.942914 -0.323922 0.0773741 
4280.71 -1878.16 611.869 0.942914 -0.323922 0.0773741 
4299.35 -1894.98 317.835 0.942914 -0.323922 0.0773741 
4364.73 -1546.79 983.203 0.942914 -0.323922 0.0773741 
4453.72 -1268.15 1075.11 0.942914 -0.323922 0.0773741 
4311.04 -1760.9 736.129 0.942914 -0.323922 0.0773741 
4402.53 -1468 857.389 0.942914 -0.323922 0.0773741 
4422.45 -1472.18 600.734 0.942914 -0.323922 0.0773741 
4237.37 -1930.93 912.762 0.942914 -0.323922 0.0773741 
4341.12 -1616.09 978.139 0.942914 -0.323922 0.0773741 
4373.28 -1672.19 358.056 0.942914 -0.323922 0.0773741 
4487.72 -1160.53 1115.08 0.942914 -0.323922 0.0773741 
4405.82 -1535.37 537.187 0.942914 -0.323922 0.0773741 
4359.98 -1681.15 480.523 0.942914 -0.323922 0.0773741 
4466 -1259.38 964.199 0.942914 -0.323922 0.0773741 
4430.08 -1432.12 675.967 0.942914 -0.323922 0.0773741 
4394.29 -1433.15 1101.65 0.942914 -0.323922 0.0773741 
4411.35 -1408.97 997.464 0.942914 -0.323922 0.0773741 
4402.6 -1480.87 802.996 0.942914 -0.323922 0.0773741 
4388.19 -1558.42 652.947 0.942914 -0.323922 0.0773741 
4225.77 -1934.76 1036.11 0.942914 -0.323922 0.0773741 
4321.09 -1850.37 242.525 0.942914 -0.323922 0.0773741 
4325.78 -1871.47 98.2361 0.942914 -0.323922 0.0773741 
4407 -1422.16 994.736 0.942914 -0.323922 0.0773741 
4328.31 -1698.97 786.681 0.942914 -0.323922 0.0773741 
4404.73 -1466.58 836.956 0.942914 -0.323922 0.0773741 
4376.69 -1636.98 463.784 0.942914 -0.323922 0.0773741 
4428.79 -1436.35 673.733 0.942914 -0.323922 0.0773741 
4372.46 -1558.33 842.266 0.942914 -0.323922 0.0773741 
4350.27 -1684.23 584.246 0.942914 -0.323922 0.0773741 
4336.67 -1782.34 338.846 0.942914 -0.323922 0.0773741 
4372.42 -1515.35 1021.94 0.942914 -0.323922 0.0773741 
4341.47 -1752.52 405.392 0.942914 -0.323922 0.0773741 
4303.05 -1715.01 1023.34 0.942914 -0.323922 0.0773741 
4400.34 -1507.58 718.73 0.942914 -0.323922 0.0773741 
4340.07 -1783.41 293.593 0.942914 -0.323922 0.0773741 
4440.94 -1289.18 1141.04 0.942914 -0.323922 0.0773741 
4371.22 -1606.82 655.101 0.942914 -0.323922 0.0773741 
4306.54 -1728.05 927.01 0.942914 -0.323922 0.0773741 
4239.17 -1902.58 1009.26 0.942914 -0.323922 0.0773741 
4401.04 -1433.97 1017.16 0.942914 -0.323922 0.0773741 
4319 -1706.8 865.859 0.942914 -0.323922 0.0773741 
4406.99 -1392.16 1119.79 0.942914 -0.323922 0.0773741 
4435 -1350.98 954.989 0.942914 -0.323922 0.0773741 
4267.99 -1898.46 680.115 0.942914 -0.323922 0.0773741 
4266.27 -1906.2 668.553 0.942914 -0.323922 0.0773741 
4471.97 -1219.41 1059.04 0.942914 -0.323922 0.0773741 
4427.12 -1440.86 675.01 0.942914 -0.323922 0.0773741 
4404.12 -1532.82 568.214 0.942914 -0.323922 0.0773741 
4344.01 -1781.77 253.084 0.942914 -0.323922 0.0773741 
4419.06 -1383.26 1011.99 0.942914 -0.323922 0.0773741 
4348.65 -1720.99 450.597 0.942914 -0.323922 0.0773741 
4307.55 -1870.83 319.974 0.942914 -0.323922 0.0773741 
4328.64 -1836.36 210.279 0.942914 -0.323922 0.0773741 
4402.45 -1448.35 940.23 0.942914 -0.323922 0.0773741 
4458.64 -1266.79 1021.72 0.942914 -0.323922 0.0773741 
4350.06 -1589.18 982.907 0.942914 -0.323922 0.0773741 
4333.49 -1690.89 758.085 0.942914 -0.323922 0.0773741 
4451.54 -1304.7 948.988 0.942914 -0.323922 0.0773741 
4449.81 -1268.98 1118.71 0.942914 -0.323922 0.0773741 
4415.37 -1408.61 950.575 0.942914 -0.323922 0.0773741 
4447.41 -1280.52 1099.44 0.942914 -0.323922 0.0773741 
4378.78 -1532.66 873.358 0.942914 -0.323922 0.0773741 
4312.51 -1816.81 485.482 0.942914 -0.323922 0.0773741 
4347.69 -1733.08 411.7 0.942914 -0.323922 0.0773741 
4407.57 -1500.56 661.213 0.942914 -0.323922 0.0773741 
4322.75 -1769.69 558.768 0.942914 -0.323922 0.0773741 
4252.5 -1860.15 1025.84 0.942914 -0.323922 0.0773741 
4303.66 -1881.74 321.272 0.942914 -0.323922 0.0773741 
4452.77 -1265.64 1097.01 0.942914 -0.323922 0.0773741 
4425.16 -1434.83 723.69 0.942914 -0.323922 0.0773741 
4258.35 -1885.81 848.695 0.942914 -0.323922 0.0773741 
4312.53 -1701.99 963.69 0.942914 -0.323922 0.0773741 
4319.63 -1798.1 477.945 0.942914 -0.323922 0.0773741 
4311.64 -1810.44 522.414 0.942914 -0.323922 0.0773741 
4384.24 -1505.54 920.748 0.942914 -0.323922 0.0773741 
4255.77 -1936.67 667.757 0.942914 -0.323922 0.0773741 
4371.55 -1558.97 850.483 0.942914 -0.323922 0.0773741 
4442.48 -1300.09 1077.13 0.942914 -0.323922 0.0773741 
4498.96 -1128.17 1114.97 0.942914 -0.323922 0.0773741 
4233.99 -1935.28 935.174 0.942914 -0.323922 0.0773741 
4258.51 -1882.99 858.464 0.942914 -0.323922 0.0773741 
4477.85 -1192.25 1101.44 0.942914 -0.323922 0.0773741 
4373.41 -1595.6 675.54 0.942914 -0.323922 0.0773741 
4321.32 -1708.42 831.32 0.942914 -0.323922 0.0773741 
4348.57 -1651.24 742.188 0.942914 -0.323922 0.0773741 
4288.23 -1776.23 946.364 0.942914 -0.323922 0.0773741 
4278.85 -1862.48 699.597 0.942914 -0.323922 0.0773741 
4432.08 -1371.06 906.337 0.942914 -0.323922 0.0773741 
4359.34 -1543.88 1060.14 0.942914 -0.323922 0.0773741 
4394.8 -1475.68 918.279 0.942914 -0.323922 0.0773741 
4360.37 -1578.23 904.664 0.942914 -0.323922 0.0773741 
4330.96 -1855.56 102.336 0.942914 -0.323922 0.0773741 
4294.32 -1802.57 763.402 0.942914 -0.323922 0.0773741 
4476.57 -1223.56 986.402 0.942914 -0.323922 0.0773741 
4352.43 -1629.28 787.243 0.942914 -0.323922 0.0773741 
4276.12 -1828.71 873.129 0.942914 -0.323922 0.0773741 
4356.78 -1565.26 1001.76 0.942914 -0.323922 0.0773741 
4314.86 -1863.88 261.148 0.942914 -0.323922 0.0773741 
4355.93 -1557.15 1045.75 0.942914 -0.323922 0.0773741 
4366.23 -1583.1 813.916 0.942914 -0.323922 0.0773741 
4385.56 -1599.46 513.54 0.942914 -0.323922 0.0773741 
4255.36 -1896.23 841.243 0.942914 -0.323922 0.0773741 
4338.46 -1603.8 1061.33 0.942914 -0.323922 0.0773741 
4496.58 -1152.9 1040.43 0.942914 -0.323922 0.0773741 
4470.65 -1238.43 995.632 0.942914 -0.323922 0.0773741 
4466.2 -1248.59 1006.72 0.942914 -0.323922 0.0773741 
4295.89 -1869.49 465.682 0.942914 -0.323922 0.0773741 
4260.6 -1874.71 867.859 0.942914 -0.323922 0.0773741 
4346.1 -1709.29 529.928 0.942914 -0.323922 0.0773741 
4337.84 -1685.4 728.703 0.942914 -0.323922 0.0773741 
4325.66 -1689.82 856.705 0.942914 -0.323922 0.0773741 
4287.73 -1896.83 449.721 0.942914 -0.323922 0.0773741 
4462.3 -1260.83 1002.55 0.942914 -0.323922 0.0773741 
4341.46 -1653.99 816.206 0.942914 -0.323922 0.0773741 
4348.48 -1701.98 531.886 0.942914 -0.323922 0.0773741 
4392.7 -1482.56 914.886 0.942914 -0.323922 0.0773741 
4380.25 -1563.64 726.606 0.942914 -0.323922 0.0773741 
4251.08 -1901.34 871.327 0.942914 -0.323922 0.0773741 
4283.26 -1894.74 512.13 0.942914 -0.323922 0.0773741 
4313.61 -1764.65 689.67 0.942914 -0.323922 0.0773741 
4273.14 -1795.95 1045.48 0.942914 -0.323922 0.0773741 
4296.91 -1892.67 356.8 0.942914 -0.323922 0.0773741 
4379.4 -1523.33 904.809 0.942914 -0.323922 0.0773741 
4416.86 -1379.24 1055.04 0.942914 -0.323922 0.0773741 
4388.71 -1496.28 905.556 0.942914 -0.323922 0.0773741 
4256.18 -1877.58 908.988 0.942914 -0.323922 0.0773741 
4307.21 -1829.62 495.73 0.942914 -0.323922 0.0773741 
4482.73 -1199.57 1012.42 0.942914 -0.323922 0.0773741 
4453.5 -1273.53 1055.36 0.942914 -0.323922 0.0773741 
4213.92 -1970.43 1029.83 0.942914 -0.323922 0.0773741 
4302.52 -1802.94 663.263 0.942914 -0.323922 0.0773741 
4307.78 -1840.18 444.934 0.942914 -0.323922 0.0773741 
4378.22 -1651.75 383.831 0.942914 -0.323922 0.0773741 
4361.91 -1689.05 424.377 0.942914 -0.323922 0.0773741 
4292.27 -1804.53 779.798 0.942914 -0.323922 0.0773741 
4223.9 -1963.65 938.255 0.942914 -0.323922 0.0773741 
4300.83 -1724.63 1009.93 0.942914 -0.323922 0.0773741 
4327.37 -1844.62 191.089 0.942914 -0.323922 0.0773741 
4294.17 -1796.08 792.188 0.942914 -0.323922 0.0773741 
4387.55 -1605.95 462.529 0.942914 -0.323922 0.0773741 
4418.03 -1427.06 841.818 0.942914 -0.323922 0.0773741 
4326.85 -1748 599.987 0.942914 -0.323922 0.0773741 
4332.28 -1737.38 578.9 0.942914 -0.323922 0.0773741 
4343.99 -1713.46 537.938 0.942914 -0.323922 0.0773741 
4443.13 -1300.37 1068.2 0.942914 -0.323922 0.0773741 
4319.95 -1749.27 677.604 0.942914 -0.323922 0.0773741 
4385.21 -1542.78 753.878 0.942914 -0.323922 0.0773741 
4303.41 -1879.03 335.578 0.942914 -0.323922 0.0773741 
4352.28 -1655.75 678.801 0.942914 -0.323922 0.0773741 
4217.34 -1963.55 1017.4 0.942914 -0.323922 0.0773741 
4374.22 -1501.46 1058.18 0.942914 -0.323922 0.0773741 
4247.64 -1946.9 722.795 0.942914 -0.323922 0.0773741 
4351.09 -1645.09 737.563 0.942914 -0.323922 0.0773741 
4291.82 -1866.24 528.149 0.942914 -0.323922 0.0773741 
4260.86 -1829.66 1052.53 0.942914 -0.323922 0.0773741 
4393.43 -1589.13 461.974 0.942914 -0.323922 0.0773741 
4420.7 -1413.43 866.552 0.942914 -0.323922 0.0773741 
4269.22 -1867.75 793.365 0.942914 -0.323922 0.0773741 
4420.82 -1390.13 962.164 0.942914 -0.323922 0.0773741 
4324.51 -1846.56 217.387 0.942914 -0.323922 0.0773741 
4307.4 -1866.77 338.671 0.942914 -0.323922 0.0773741 
4325.3 -1683.49 887.418 0.942914 -0.323922 0.0773741 
4435.96 -1402.61 728.201 0.942914 -0.323922 0.0773741 
4404.29 -1483.72 770.736 0.942914 -0.323922 0.0773741 
4391.45 -1558.48 613.497 0.942914 -0.323922 0.0773741 
4264.2 -1847.63 937.453 0.942914 -0.323922 0.0773741 
4280.56 -1810.37 896.185 0.942914 -0.323922 0.0773741 
4414.29 -1433.53 859.786 0.942914 -0.323922 0.0773741 
4332.75 -1690.18 769.946 0.942914 -0.323922 0.0773741 
4261.55 -1897.27 762.52 0.942914 -0.323922 0.0773741 
4295.21 -1764.21 912.5 0.942914 -0.323922 0.0773741 
4421 -1461.64 662.055 0.942914 -0.323922 0.0773741 
4395.16 -1524.27 711.533 0.942914 -0.323922 0.0773741 
4372.08 -1650.32 463.529 0.942914 -0.323922 0.0773741 
4326.44 -1809.4 349.021 0.942914 -0.323922 0.0773741 
4340.44 -1764.45 368.134 0.942914 -0.323922 0.0773741 
4408.49 -1504.35 634.309 0.942914 -0.323922 0.0773741 
4351.86 -1759.14 253.093 0.942914 -0.323922 0.0773741 
4360.44 -1683.7 464.333 0.942914 -0.323922 0.0773741 
4408.88 -1438.54 903.861 0.942914 -0.323922 0.0773741 
4449.5 -1310.88 947.802 0.942914 -0.323922 0.0773741 
4410.19 -1455.76 816.346 0.942914 -0.323922 0.0773741 
4313.36 -1769.44 672.649 0.942914 -0.323922 0.0773741 
4461.45 -1272.33 964.872 0.942914 -0.323922 0.0773741 
4388.44 -1563.28 629.646 0.942914 -0.323922 0.0773741 
4277.92 -1885.13 616.364 0.942914 -0.323922 0.0773741 
4484.76 -1167.98 1119.68 0.942914 -0.323922 0.0773741 
4219.53 -1956.69 1019.72 0.942914 -0.323922 0.0773741 
4297.03 -1779.31 827.744 0.942914 -0.323922 0.0773741 
4348.2 -1673.92 652.083 0.942914 -0.323922 0.0773741 
4343.81 -1744.64 410.177 0.942914 -0.323922 0.0773741 
4341.77 -1611.49 989.555 0.942914 -0.323922 0.0773741 
4258.31 -1870.3 913.83 0.942914 -0.323922 0.0773741 
4428.94 -1439.9 657.26 0.942914 -0.323922 0.0773741 
4241.31 -1932.39 859.276 0.942914 -0.323922 0.0773741 
4313 -1708.12 932.517 0.942914 -0.323922 0.0773741 
4341 -1696.55 644.271 0.942914 -0.323922 0.0773741 
4304.32 -1787.86 704.473 0.942914 -0.323922 0.0773741 
4340.83 -1629.98 923.751 0.942914 -0.323922 0.0773741 
4344.15 -1657.17 770.565 0.942914 -0.323922 0.0773741 
4210.74 -1981.29 1022.87 0.942914 -0.323922 0.0773741 
4351.93 -1589.33 959.705 0.942914 -0.323922 0.0773741 
4349.16 -1667.64 666.724 0.942914 -0.323922 0.0773741 
4470.86 -1219.67 1071.27 0.942914 -0.323922 0.0773741 
4249.49 -1942.09 720.616 0.942914 -0.323922 0.0773741 
4343.09 -1657.84 780.435 0.942914 -0.323922 0.0773741 
4439.91 -1367.57 826.863 0.942914 -0.323922 0.0773741 
4379.27 -1512.63 950.971 0.942914 -0.323922 0.0773741 
4384.16 -1592.79 558.166 0.942914 -0.323922 0.0773741 
4311.73 -1795.73 582.661 0.942914 -0.323922 0.0773741 
4362.06 -1614.74 732.147 0.942914 -0.323922 0.0773741 
4315.68 -1811.88 467.965 0.942914 -0.323922 0.0773741 
4335.99 -1709.58 650.161 0.942914 -0.323922 0.0773741 
4301.79 -1840.53 515.463 0.942914 -0.323922 0.0773741 
4254.52 -1899.24 838.691 0.942914 -0.323922 0.0773741 
4296.08 -1748.54 967.352 0.942914 -0.323922 0.0773741 
4339.51 -1636.57 912.153 0.942914 -0.323922 0.0773741 
4394.87 -1429.32 1110.64 0.942914 -0.323922 0.0773741 
4345.86 -1716.5 502.801 0.942914 -0.323922 0.0773741 
4356.82 -1656.34 621.783 0.942914 -0.323922 0.0773741 
4444.12 -1317.61 984.36 0.942914 -0.323922 0.0773741 
4384.38 -1540.32 774.178 0.942914 -0.323922 0.0773741 
4304.2 -1789.21 700.379 0.942914 -0.323922 0.0773741 
4257.23 -1900.85 799.42 0.942914 -0.323922 0.0773741 
4299.36 -1893.2 325.218 0.942914 -0.323922 0.0773741 
4379.28 -1606.03 561.648 0.942914 -0.323922 0.0773741 
4303.6 -1701.81 1071.75 0.942914 -0.323922 0.0773741 
4425.8 -1382.55 933.886 0.942914 -0.323922 0.0773741 
4382.17 -1635.78 402.919 0.942914 -0.323922 0.0773741 
4310.92 -1878.85 246.119 0.942914 -0.323922 0.0773741 
4438.56 -1316.81 1054.56 0.942914 -0.323922 0.0773741 
4317.67 -1748.75 707.042 0.942914 -0.323922 0.0773741 
4245.07 -1877.9 1041.2 0.942914 -0.323922 0.0773741 
4314.15 -1735.76 803.537 0.942914 -0.323922 0.0773741 
4423.89 -1344.26 1116.37 0.942914 -0.323922 0.0773741 
4403.98 -1536.01 556.578 0.942914 -0.323922 0.0773741 
4435.68 -1307.17 1129.31 0.942914 -0.323922 0.0773741 
4279.87 -1828.9 827.245 0.942914 -0.323922 0.0773741 
4388.3 -1454.19 1085.86 0.942914 -0.323922 0.0773741 
4454.04 -1304.38 920.387 0.942914 -0.323922 0.0773741 
4358.62 -1695.9 435.289 0.942914 -0.323922 0.0773741 
4400.76 -1463.36 898.043 0.942914 -0.323922 0.0773741 
4404.05 -1432.53 986.951 0.942914 -0.323922 0.0773741 
4353.06 -1622.92 806.205 0.942914 -0.323922 0.0773741 
4310.11 -1874.27 274.889 0.942914 -0.323922 0.0773741 
4277.71 -1902.72 545.583 0.942914 -0.323922 0.0773741 
4410.92 -1479.68 707.951 0.942914 -0.323922 0.0773741 
4435.44 -1367.56 880.555 0.942914 -0.323922 0.0773741 
4331.3 -1821.45 240.353 0.942914 -0.323922 0.0773741 
4281.97 -1909.92 464.398 0.942914 -0.323922 0.0773741 
4365.86 -1696.24 346.907 0.942914 -0.323922 0.0773741 
4375.41 -1658.58 389.164 0.942914 -0.323922 0.0773741 
4463.23 -1238.31 1085.22 0.942914 -0.323922 0.0773741 
4292.37 -1747.57 1015.96 0.942914 -0.323922 0.0773741 
4340.74 -1773.07 328.61 0.942914 -0.323922 0.0773741 
4277.4 -1805.67 953.77 0.942914 -0.323922 0.0773741 
4367.84 -1705.8 283.35 0.942914 -0.323922 0.0773741 
4330.73 -1783.55 405.187 0.942914 -0.323922 0.0773741 
4402.49 -1504.57 705.56 0.942914 -0.323922 0.0773741 
4461 -1237.38 1115.92 0.942914 -0.323922 0.0773741 
4212.21 -1984.26 992.754 0.942914 -0.323922 0.0773741 
4317.48 -1795.29 515.5 0.942914 -0.323922 0.0773741 
4340.42 -1773.49 330.668 0.942914 -0.323922 0.0773741 
4444.9 -1350.17 839.322 0.942914 -0.323922 0.0773741 
4461.98 -1279.7 927.74 0.942914 -0.323922 0.0773741 
4316.29 -1828.39 391.873 0.942914 -0.323922 0.0773741 
4468.38 -1242.56 1005.73 0.942914 -0.323922 0.0773741 
4250.42 -1923.87 785.36 0.942914 -0.323922 0.0773741 
4367.84 -1584.85 787.245 0.942914 -0.323922 0.0773741 
4250.71 -1862.41 1037.98 0.942914 -0.323922 0.0773741 
4310.75 -1726.81 881.675 0.942914 -0.323922 0.0773741 
4248.92 -1898.65 908.448 0.942914 -0.323922 0.0773741 
4280.25 -1863.7 677.678 0.942914 -0.323922 0.0773741 
4345.49 -1735.99 425.998 0.942914 -0.323922 0.0773741 
4286.19 -1772.87 984.832 0.942914 -0.323922 0.0773741 
4312.79 -1685.17 1030.62 0.942914 -0.323922 0.0773741 
4313.38 -1838.62 384.086 0.942914 -0.323922 0.0773741 
4258.05 -1910.31 750.198 0.942914 -0.323922 0.0773741 
4269.04 -1916 594.409 0.942914 -0.323922 0.0773741 
4393.43 -1438.33 1090.4 0.942914 -0.323922 0.0773741 
4370.55 -1689.71 317.849 0.942914 -0.323922 0.0773741 
4358.28 -1730.05 297.12 0.942914 -0.323922 0.0773741 
4340.84 -1698.86 636.625 0.942914 -0.323922 0.0773741 
4369.72 -1542.28 942.087 0.942914 -0.323922 0.0773741 
4305.86 -1733.28 913.436 0.942914 -0.323922 0.0773741 
4287.31 -1772.14 974.437 0.942914 -0.323922 0.0773741 
4305.52 -1892.25 255.109 0.942914 -0.323922 0.0773741 
4382.29 -1595.04 571.295 0.942914 -0.323922 0.0773741 
4294.8 -1741.44 1012.39 0.942914 -0.323922 0.0773741 
4330.61 -1697.09 766.886 0.942914 -0.323922 0.0773741 
4511.21 -1078.86 1173.2 0.942914 -0.323922 0.0773741 
4396.17 -1556.77 563.987 0.942914 -0.323922 0.0773741 
4310.7 -1777.83 669.661 0.942914 -0.323922 0.0773741 
4436.13 -1304.66 1134.39 0.942914 -0.323922 0.0773741 
4427.44 -1449.88 633.669 0.942914 -0.323922 0.0773741 
4339.73 -1691.52 680.591 0.942914 -0.323922 0.0773741 
4288.63 -1856.07 608.866 0.942914 -0.323922 0.0773741 
4436.64 -1362.25 888.297 0.942914 -0.323922 0.0773741 
4406.2 -1404.06 1079.79 0.942914 -0.323922 0.0773741 
4382.93 -1534.52 815.764 0.942914 -0.323922 0.0773741 
4384.9 -1523.16 839.346 0.942914 -0.323922 0.0773741 
4303.82 -1891.91 276.968 0.942914 -0.323922 0.0773741 
4313.94 -1699.84 955.721 0.942914 -0.323922 0.0773741 
4306.93 -1787.33 675.348 0.942914 -0.323922 0.0773741 
4305.5 -1888 273.107 0.942914 -0.323922 0.0773741 
4273.25 -1832.91 890.103 0.942914 -0.323922 0.0773741 
4435.44 -1364.34 893.947 0.942914 -0.323922 0.0773741 
4257.98 -1858.08 968.723 0.942914 -0.323922 0.0773741 
4325.44 -1852.07 183.205 0.942914 -0.323922 0.0773741 
4303.15 -1726.82 972.961 0.942914 -0.323922 0.0773741 
4310.04 -1849.62 378.401 0.942914 -0.323922 0.0773741 
4373.93 -1602.59 640.199 0.942914 -0.323922 0.0773741 
4403.07 -1419.17 1054.41 0.942914 -0.323922 0.0773741 
4299.81 -1787.47 760.281 0.942914 -0.323922 0.0773741 
4420.13 -1439.13 766.195 0.942914 -0.323922 0.0773741 
4276.3 -1889.64 617.016 0.942914 -0.323922 0.0773741 
4374.52 -1676.61 324.715 0.942914 -0.323922 0.0773741 
4417.11 -1386.89 1020.24 0.942914 -0.323922 0.0773741 
4338.51 -1801.17 238.28 0.942914 -0.323922 0.0773741 
4314.12 -1796.43 551.043 0.942914 -0.323922 0.0773741 
4381.47 -1551.8 761.241 0.942914 -0.323922 0.0773741 
4386.44 -1592.48 532.032 0.942914 -0.323922 0.0773741 
4336.95 -1810.13 219.75 0.942914 -0.323922 0.0773741 
4390.58 -1605.8 426.772 0.942914 -0.323922 0.0773741 
4423.28 -1378.48 981.172 0.942914 -0.323922 0.0773741 
4388.99 -1548.69 683.923 0.942914 -0.323922 0.0773741 
4391.74 -1497.71 863.219 0.942914 -0.323922 0.0773741 
4486 -1174.24 1078.62 0.942914 -0.323922 0.0773741 
4364.97 -1656.54 523.094 0.942914 -0.323922 0.0773741 
4383.23 -1462.83 1110.8 0.942914 -0.323922 0.0773741 
4323.86 -1753.82 611.654 0.942914 -0.323922 0.0773741 
4359.25 -1579.11 914.413 0.942914 -0.323922 0.0773741 
4242.07 -1925.24 880.015 0.942914 -0.323922 0.0773741 
4258.37 -1939.4 625.195 0.942914 -0.323922 0.0773741 
4326.84 -1768.3 515.445 0.942914 -0.323922 0.0773741 
4387.53 -1608.91 450.487 0.942914 -0.323922 0.0773741 
4325.66 -1853.09 176.339 0.942914 -0.323922 0.0773741 
4313.01 -1735.11 819.861 0.942914 -0.323922 0.0773741 
4381.19 -1623.59 465.451 0.942914 -0.323922 0.0773741 
4360.49 -1580.64 893.142 0.942914 -0.323922 0.0773741 
4359.83 -1696.37 418.809 0.942914 -0.323922 0.0773741 
4289.85 -1777.39 921.961 0.942914 -0.323922 0.0773741 
4483.95 -1168.04 1129.16 0.942914 -0.323922 0.0773741 
4279.72 -1864.97 678.763 0.942914 -0.323922 0.0773741 
4290.02 -1868 542.356 0.942914 -0.323922 0.0773741 
4281.16 -1817.79 858.092 0.942914 -0.323922 0.0773741 
4263.16 -1850.65 937.437 0.942914 -0.323922 0.0773741 
4369.23 -1636.07 557.174 0.942914 -0.323922 0.0773741 
4355.85 -1719.94 368.47 0.942914 -0.323922 0.0773741 
4312.6 -1789.14 599.723 0.942914 -0.323922 0.0773741 
4293.18 -1846.01 596.083 0.942914 -0.323922 0.0773741 
4311.56 -1705.91 958.946 0.942914 -0.323922 0.0773741 
4429.18 -1364.5 968.478 0.942914 -0.323922 0.0773741 
4366.3 -1543.26 979.126 0.942914 -0.323922 0.0773741 
4347.67 -1685.33 610.976 0.942914 -0.323922 0.0773741 
4295.07 -1815.39 700.998 0.942914 -0.323922 0.0773741 
4374.81 -1670.94 344.798 0.942914 -0.323922 0.0773741 
4298.37 -1786.72 780.795 0.942914 -0.323922 0.0773741 
4309.92 -1795.85 603.921 0.942914 -0.323922 0.0773741 
4340.66 -1602.1 1041.98 0.942914 -0.323922 0.0773741 
4330.5 -1855.81 106.913 0.942914 -0.323922 0.0773741 
4329.98 -1721.3 673.608 0.942914 -0.323922 0.0773741 
4411.72 -1442.52 853.215 0.942914 -0.323922 0.0773741 
4361.97 -1690.12 419.197 0.942914 -0.323922 0.0773741 
4398.5 -1482.94 843.589 0.942914 -0.323922 0.0773741 
4252.96 -1866.73 992.924 0.942914 -0.323922 0.0773741 
4270.78 -1925.16 535.332 0.942914 -0.323922 0.0773741 
4400.14 -1480.13 835.635 0.942914 -0.323922 0.0773741 
4307.04 -1775.93 721.578 0.942914 -0.323922 0.0773741 
4254.71 -1885.85 892.226 0.942914 -0.323922 0.0773741 
4385.08 -1491.3 969.896 0.942914 -0.323922 0.0773741 
4423.05 -1391.87 928.151 0.942914 -0.323922 0.0773741 
4425.98 -1340.27 1107.93 0.942914 -0.323922 0.0773741 
4356.92 -1567.92 989.015 0.942914 -0.323922 0.0773741 
4366.14 -1610.22 701.941 0.942914 -0.323922 0.0773741 
4338.33 -1823.75 146.394 0.942914 -0.323922 0.0773741 
4311.82 -1753.3 758.398 0.942914 -0.323922 0.0773741 
4355.46 -1567.22 1009.49 0.942914 -0.323922 0.0773741 
4323.51 -1767.33 559.472 0.942914 -0.323922 0.0773741 
4310.06 -1729.98 876.722 0.942914 -0.323922 0.0773741 
4282.67 -1892.91 526.956 0.942914 -0.323922 0.0773741 
4485.66 -1163.46 1127.67 0.942914 -0.323922 0.0773741 
4305.42 -1728.58 938.292 0.942914 -0.323922 0.0773741 
4232 -1958.29 863.18 0.942914 -0.323922 0.0773741 
4328.32 -1747.8 583.053 0.942914 -0.323922 0.0773741 
4382.61 -1464.33 1112.09 0.942914 -0.323922 0.0773741 
4368.83 -1655.61 480.554 0.942914 -0.323922 0.0773741 
4293.76 -1891.18 400.851 0.942914 -0.323922 0.0773741 
4454.6 -1310.45 888.346 0.942914 -0.323922 0.0773741 
4359.93 -1676.51 500.397 0.942914 -0.323922 0.0773741 
4382.48 -1534.77 820.052 0.942914 -0.323922 0.0773741 
4442.72 -1288.7 1121.71 0.942914 -0.323922 0.0773741 
4290.19 -1746.4 1047.01 0.942914 -0.323922 0.0773741 
4319.58 -1867.97 187.418 0.942914 -0.323922 0.0773741 
4296.55 -1848.42 545.517 0.942914 -0.323922 0.0773741 
4280.36 -1868.14 657.877 0.942914 -0.323922 0.0773741 
4472.19 -1207.21 1107.12 0.942914 -0.323922 0.0773741 
4451.96 -1332.58 827.833 0.942914 -0.323922 0.0773741 
4252.71 -1942.51 680.188 0.942914 -0.323922 0.0773741 
4390.18 -1559.52 624.46 0.942914 -0.323922 0.0773741 
4342.44 -1606.53 1002.17 0.942914 -0.323922 0.0773741 
4414.45 -1463 735.016 0.942914 -0.323922 0.0773741 
4331.21 -1777.07 426.444 0.942914 -0.323922 0.0773741 
4280.74 -1868.23 652.895 0.942914 -0.323922 0.0773741 
4260.38 -1852.68 962.388 0.942914 -0.323922 0.0773741 
4231.17 -1929.7 992.288 0.942914 -0.323922 0.0773741 
4332.83 -1757.97 486.535 0.942914 -0.323922 0.0773741 
4389.88 -1594.91 480.517 0.942914 -0.323922 0.0773741 
4494.28 -1254.64 644.22 0.942914 -0.323922 0.0773741 
4480.74 -1384.45 265.977 0.942914 -0.323922 0.0773741 
4434.63 -1523.71 239.671 0.942914 -0.323922 0.0773741 
4495.59 -1229.65 732.529 0.942914 -0.323922 0.0773741 
4531 -1125.98 739.051 0.942914 -0.323922 0.0773741 
4510.96 -1115.15 1025.05 0.942914 -0.323922 0.0773741 
4548.14 -1028.09 941.13 0.942914 -0.323922 0.0773741 
4624.43 -965.894 283.608 0.942914 -0.323922 0.0773741 
4510.28 -1130.99 967.134 0.942914 -0.323922 0.0773741 
4389.37 -1628.46 346.906 0.942914 -0.323922 0.0773741 
4493.02 -1184.93 949.789 0.942914 -0.323922 0.0773741 
4432.67 -1454.59 551.236 0.942914 -0.323922 0.0773741 
4461.36 -1398.46 440.412 0.942914 -0.323922 0.0773741 
4401.78 -1565.46 460.322 0.942914 -0.323922 0.0773741 
4381.59 -1706.18 116.556 0.942914 -0.323922 0.0773741 
4573.78 -1129.73 209.47 0.942914 -0.323922 0.0773741 
4485.61 -1313.39 503.565 0.942914 -0.323922 0.0773741 
4586.4 -1041.94 423.734 0.942914 -0.323922 0.0773741 
4507.98 -1271.15 410.798 0.942914 -0.323922 0.0773741 
4529.52 -1197.98 456.895 0.942914 -0.323922 0.0773741 
4512.96 -1261.58 390.793 0.942914 -0.323922 0.0773741 
4551.51 -1194.52 207.043 0.942914 -0.323922 0.0773741 
4465.06 -1391.17 426.309 0.942914 -0.323922 0.0773741 
4529.54 -1170.84 569.737 0.942914 -0.323922 0.0773741 
4438.66 -1430.64 578.978 0.942914 -0.323922 0.0773741 
4610.54 -998.768 313.584 0.942914 -0.323922 0.0773741 
4458.39 -1379.58 554.713 0.942914 -0.323922 0.0773741 
4501.36 -1216.51 717.974 0.942914 -0.323922 0.0773741 
4437.97 -1517.49 225.441 0.942914 -0.323922 0.0773741 
4361.78 -1751.83 164.351 0.942914 -0.323922 0.0773741 
4523.09 -1244.39 340.704 0.942914 -0.323922 0.0773741 
4485.21 -1379.27 233.755 0.942914 -0.323922 0.0773741 
4467.46 -1436.6 208.206 0.942914 -0.323922 0.0773741 
4460.81 -1352.8 637.208 0.942914 -0.323922 0.0773741 
4518.72 -1221.98 486.597 0.942914 -0.323922 0.0773741 
4430.24 -1463.7 542.453 0.942914 -0.323922 0.0773741 
4564.82 -1014.97 795.37 0.942914 -0.323922 0.0773741 
4464.53 -1400.2 395.012 0.942914 -0.323922 0.0773741 
4362.99 -1754.82 137.319 0.942914 -0.323922 0.0773741 
4444.29 -1515.77 156.69 0.942914 -0.323922 0.0773741 
4572.43 -1071.8 467.06 0.942914 -0.323922 0.0773741 
4378.69 -1668.74 307.365 0.942914 -0.323922 0.0773741 
4425.8 -1534.52 300.663 0.942914 -0.323922 0.0773741 
4536.11 -1251.51 154.635 0.942914 -0.323922 0.0773741 
4539.73 -1082.31 816.207 0.942914 -0.323922 0.0773741 
4571.1 -1074.13 473.399 0.942914 -0.323922 0.0773741 
4422.06 -1549.09 284.852 0.942914 -0.323922 0.0773741 
4491.89 -1193.62 927.142 0.942914 -0.323922 0.0773741 
4535.14 -1249.11 176.271 0.942914 -0.323922 0.0773741 
4565.12 -1038.36 694.236 0.942914 -0.323922 0.0773741 
4541.06 -1229.41 187.24 0.942914 -0.323922 0.0773741 
4461.39 -1391.94 467.233 0.942914 -0.323922 0.0773741 
4443.61 -1478.03 322.045 0.942914 -0.323922 0.0773741 
4527.67 -1058.73 1059.33 0.942914 -0.323922 0.0773741 
4567.03 -1044.79 644.536 0.942914 -0.323922 0.0773741 
4533.41 -1250.69 190.476 0.942914 -0.323922 0.0773741 
4560.3 -1045.55 722.183 0.942914 -0.323922 0.0773741 
4521.84 -1258.39 297.455 0.942914 -0.323922 0.0773741 
4582.91 -1106.14 198.123 0.942914 -0.323922 0.0773741 
4531.24 -1144.01 661.041 0.942914 -0.323922 0.0773741 
4574.41 -1039.14 579.44 0.942914 -0.323922 0.0773741 
4485.72 -1351.13 344.971 0.942914 -0.323922 0.0773741 
4492.16 -1197.6 907.25 0.942914 -0.323922 0.0773741 
4509.04 -1277.88 370.044 0.942914 -0.323922 0.0773741 
4518.36 -1157.89 757.961 0.942914 -0.323922 0.0773741 
4425.94 -1543.79 260.368 0.942914 -0.323922 0.0773741 
4493.56 -1320.99 376.387 0.942914 -0.323922 0.0773741 
4444.58 -1511.94 169.12 0.942914 -0.323922 0.0773741 
4522.87 -1160.57 692.677 0.942914 -0.323922 0.0773741 
4592.27 -1074.2 218.751 0.942914 -0.323922 0.0773741 
4529.67 -1194.54 469.383 0.942914 -0.323922 0.0773741 
4461.78 -1411.35 381.614 0.942914 -0.323922 0.0773741 
4558.68 -1181.41 175.527 0.942914 -0.323922 0.0773741 
4389.96 -1647.23 261.661 0.942914 -0.323922 0.0773741 
4525.49 -1175.82 597.572 0.942914 -0.323922 0.0773741 
4553.48 -1118.29 501.108 0.942914 -0.323922 0.0773741 
4444.77 -1453.75 409.289 0.942914 -0.323922 0.0773741 
4588.23 -1084.49 224.395 0.942914 -0.323922 0.0773741 
4596.97 -1025.62 364.753 0.942914 -0.323922 0.0773741 
4549.61 -1203.86 190.952 0.942914 -0.323922 0.0773741 
4495.35 -1374.8 130.549 0.942914 -0.323922 0.0773741 
4503.39 -1144.34 994.272 0.942914 -0.323922 0.0773741 
4547.31 -1193.3 262.607 0.942914 -0.323922 0.0773741 
4523.33 -1131.91 806.463 0.942914 -0.323922 0.0773741 
4356.35 -1785.44 89.5059 0.942914 -0.323922 0.0773741 
4404.27 -1616.14 219.199 0.942914 -0.323922 0.0773741 
4413.91 -1543 408.185 0.942914 -0.323922 0.0773741 
4512.27 -1313.88 181.133 0.942914 -0.323922 0.0773741 
4463.28 -1379.93 494.532 0.942914 -0.323922 0.0773741 
4490.95 -1238.56 751.176 0.942914 -0.323922 0.0773741 
4480.44 -1243.54 856.666 0.942914 -0.323922 0.0773741 
4455.61 -1380.45 584.555 0.942914 -0.323922 0.0773741 
4386.33 -1631.41 371.071 0.942914 -0.323922 0.0773741 
4432.62 -1479.9 446.309 0.942914 -0.323922 0.0773741 
4516.38 -1092.98 1052.29 0.942914 -0.323922 0.0773741 
4578.24 -1084.67 343.668 0.942914 -0.323922 0.0773741 
4575.04 -1020.11 651.149 0.942914 -0.323922 0.0773741 
4482.94 -1287.12 645.068 0.942914 -0.323922 0.0773741 
4457.33 -1397.67 492.039 0.942914 -0.323922 0.0773741 
4456.02 -1438.25 338.701 0.942914 -0.323922 0.0773741 
4529.89 -1116.91 790.251 0.942914 -0.323922 0.0773741 
4593.21 -1059.26 269.677 0.942914 -0.323922 0.0773741 
4524.47 -1165.23 654.056 0.942914 -0.323922 0.0773741 
4404.57 -1562.78 437.958 0.942914 -0.323922 0.0773741 
4469.03 -1349.14 553.782 0.942914 -0.323922 0.0773741 
4500.98 -1352.17 157.221 0.942914 -0.323922 0.0773741 
4548.32 -1163.13 376.237 0.942914 -0.323922 0.0773741 
4436.44 -1514.15 257.752 0.942914 -0.323922 0.0773741 
4532.56 -1073.81 937.738 0.942914 -0.323922 0.0773741 
4514.62 -1085.28 1105.49 0.942914 -0.323922 0.0773741 
4487.06 -1279.93 625.558 0.942914 -0.323922 0.0773741 
4450.83 -1449.41 354.626 0.942914 -0.323922 0.0773741 
4616.18 -987.992 290.707 0.942914 -0.323922 0.0773741 
4480.81 -1394.44 223.455 0.942914 -0.323922 0.0773741 
4531.99 -1247.37 221.388 0.942914 -0.323922 0.0773741 
4438.58 -1491.23 327.497 0.942914 -0.323922 0.0773741 
4556.47 -1133.84 400.349 0.942914 -0.323922 0.0773741 
4519.84 -1298.12 155.928 0.942914 -0.323922 0.0773741 
4518.47 -1289.51 208.26 0.942914 -0.323922 0.0773741 
4498.46 -1277.97 496.738 0.942914 -0.323922 0.0773741 
4525.08 -1135.64 769.983 0.942914 -0.323922 0.0773741 
4441.9 -1462.82 406.028 0.942914 -0.323922 0.0773741 
4561.43 -1124.68 378.914 0.942914 -0.323922 0.0773741 
4457.39 -1378.21 572.465 0.942914 -0.323922 0.0773741 
4590.78 -1081.18 207.554 0.942914 -0.323922 0.0773741 
4441.2 -1401.72 668.929 0.942914 -0.323922 0.0773741 
4551.87 -1020.91 926.147 0.942914 -0.323922 0.0773741 
4554.54 -1110.75 519.682 0.942914 -0.323922 0.0773741 
4488.37 -1234.95 797.197 0.942914 -0.323922 0.0773741 
4465.97 -1290.55 834.636 0.942914 -0.323922 0.0773741 
4436.75 -1549.82 105.323 0.942914 -0.323922 0.0773741 
4469.26 -1285.36 816.742 0.942914 -0.323922 0.0773741 
4599.13 -1020.67 359.359 0.942914 -0.323922 0.0773741 
4627.09 -975.657 211.022 0.942914 -0.323922 0.0773741 
4487.1 -1300.34 539.971 0.942914 -0.323922 0.0773741 
4567.44 -1140.79 239.614 0.942914 -0.323922 0.0773741 
4624.21 -983.788 211.688 0.942914 -0.323922 0.0773741 
4491.35 -1214.61 846.193 0.942914 -0.323922 0.0773741 
4524.68 -1086.73 978.606 0.942914 -0.323922 0.0773741 
4433.04 -1445.02 586.627 0.942914 -0.323922 0.0773741 
4597.38 -1059.76 217.507 0.942914 -0.323922 0.0773741 
4411.45 -1584.17 266.206 0.942914 -0.323922 0.0773741 
4371.93 -1743.27 77.9908 0.942914 -0.323922 0.0773741 
4561.06 -1148 286.24 0.942914 -0.323922 0.0773741 
4389.4 -1662.62 204.237 0.942914 -0.323922 0.0773741 
4586.19 -1091.49 219.735 0.942914 -0.323922 0.0773741 
4605.93 -986.904 418.422 0.942914 -0.323922 0.0773741 
4519.28 -1173.09 683.635 0.942914 -0.323922 0.0773741 
4555.17 -1018.92 894.761 0.942914 -0.323922 0.0773741 
4435.9 -1481.46 400.398 0.942914 -0.323922 0.0773741 
4493.19 -1240.57 715.937 0.942914 -0.323922 0.0773741 
