ply
format ascii 1.0
comment Created by CloudCompare v2.11.3 (Anoia)
comment Created 08/09/2022 00:21
obj_info Generated by CloudCompare!
element vertex 873
property float x
property float y
property float z
property float nx
property float ny
property float nz
end_header
1340.8 -1881.58 3782.71 -0.596493 -0.757878 0.264229 
1529.32 -1927.36 4080.35 -0.596493 -0.757878 0.264229 
1153.16 -1619.32 4111.02 -0.596493 -0.757878 0.264229 
1567.95 -1985.86 3999.77 -0.596493 -0.757878 0.264229 
1408.2 -1965.76 3693.64 -0.596493 -0.757878 0.264229 
1346.41 -1862.78 3849.65 -0.596493 -0.757878 0.264229 
1233.92 -1861.93 3595.73 -0.596493 -0.757878 0.264229 
1332.62 -1745.49 4156.32 -0.596493 -0.757878 0.264229 
1172.96 -1732.82 3828.97 -0.596493 -0.757878 0.264229 
1420.64 -1926.96 3833.81 -0.596493 -0.757878 0.264229 
1709.7 -2223.47 3637.9 -0.596493 -0.757878 0.264229 
1557.74 -2104.4 3634.82 -0.596493 -0.757878 0.264229 
1556.25 -2071.33 3726.74 -0.596493 -0.757878 0.264229 
1487.8 -2055.15 3617.38 -0.596493 -0.757878 0.264229 
1240.42 -1856.77 3625.42 -0.596493 -0.757878 0.264229 
1545.54 -2006.44 3889.38 -0.596493 -0.757878 0.264229 
1227.05 -1862.09 3579.62 -0.596493 -0.757878 0.264229 
1174.43 -1540.24 4387.45 -0.596493 -0.757878 0.264229 
1117.74 -1722.89 3731.74 -0.596493 -0.757878 0.264229 
1290.65 -1874.25 3689.53 -0.596493 -0.757878 0.264229 
1204.55 -1767.31 3801.56 -0.596493 -0.757878 0.264229 
1418.64 -1997.11 3627.06 -0.596493 -0.757878 0.264229 
1264.74 -1650.13 4276.52 -0.596493 -0.757878 0.264229 
1514.74 -1926.36 4050.02 -0.596493 -0.757878 0.264229 
1308.88 -1801.59 3940.52 -0.596493 -0.757878 0.264229 
1500.3 -2026.82 3727.55 -0.596493 -0.757878 0.264229 
1186.46 -1531.87 4439 -0.596493 -0.757878 0.264229 
1315.89 -1679.03 4309.75 -0.596493 -0.757878 0.264229 
1265.15 -1883.1 3605.9 -0.596493 -0.757878 0.264229 
1420.21 -1974.86 3694.78 -0.596493 -0.757878 0.264229 
1750.59 -2254.48 3641.7 -0.596493 -0.757878 0.264229 
1623.97 -2059.16 3916.14 -0.596493 -0.757878 0.264229 
1413.77 -1957.53 3730.04 -0.596493 -0.757878 0.264229 
1429.97 -1876.42 4000.78 -0.596493 -0.757878 0.264229 
1338.57 -1917.92 3672.87 -0.596493 -0.757878 0.264229 
1338.67 -1759.75 4129.01 -0.596493 -0.757878 0.264229 
1476.81 -2002.85 3743.09 -0.596493 -0.757878 0.264229 
1359 -1798.87 4062.57 -0.596493 -0.757878 0.264229 
1564.25 -2060.67 3775.72 -0.596493 -0.757878 0.264229 
1180.16 -1802.04 3645.86 -0.596493 -0.757878 0.264229 
1481.22 -1875.05 4121.54 -0.596493 -0.757878 0.264229 
1248.65 -1838.6 3696.58 -0.596493 -0.757878 0.264229 
1692.48 -2156.08 3792.94 -0.596493 -0.757878 0.264229 
1324.89 -1881.19 3747.57 -0.596493 -0.757878 0.264229 
1201.57 -1578.29 4339.64 -0.596493 -0.757878 0.264229 
1157.05 -1683.34 3935.36 -0.596493 -0.757878 0.264229 
1475.27 -1886.64 4074.58 -0.596493 -0.757878 0.264229 
1360.85 -1892.9 3795.75 -0.596493 -0.757878 0.264229 
1710.57 -2213.57 3668.44 -0.596493 -0.757878 0.264229 
1244.78 -1635.35 4273.62 -0.596493 -0.757878 0.264229 
1387.81 -1843.63 3999.22 -0.596493 -0.757878 0.264229 
1214.08 -1821.14 3668.12 -0.596493 -0.757878 0.264229 
1333.39 -1890.66 3739.62 -0.596493 -0.757878 0.264229 
1509.19 -2026.61 3748.38 -0.596493 -0.757878 0.264229 
1289.49 -1759.34 4018.11 -0.596493 -0.757878 0.264229 
1200.97 -1676.73 4054.51 -0.596493 -0.757878 0.264229 
1222.4 -1788.35 3781.59 -0.596493 -0.757878 0.264229 
1462.51 -1933.99 3908.98 -0.596493 -0.757878 0.264229 
1214.5 -1818.08 3677.89 -0.596493 -0.757878 0.264229 
1445.65 -1851.13 4109.4 -0.596493 -0.757878 0.264229 
1619.67 -2056.28 3914.65 -0.596493 -0.757878 0.264229 
1224 -1625.96 4253.34 -0.596493 -0.757878 0.264229 
1231.07 -1697.23 4064 -0.596493 -0.757878 0.264229 
1142.15 -1789.12 3596.47 -0.596493 -0.757878 0.264229 
1458.84 -1983.32 3758.44 -0.596493 -0.757878 0.264229 
1835.54 -2318.1 3651.93 -0.596493 -0.757878 0.264229 
1617.37 -2093.52 3802.09 -0.596493 -0.757878 0.264229 
1205.23 -1818.07 3656.79 -0.596493 -0.757878 0.264229 
1495.64 -2002.08 3788.22 -0.596493 -0.757878 0.264229 
1481.16 -1922.36 3985.02 -0.596493 -0.757878 0.264229 
1678.2 -2154.85 3763.9 -0.596493 -0.757878 0.264229 
1600.75 -2080.76 3800.96 -0.596493 -0.757878 0.264229 
1433.62 -1863.48 4046.39 -0.596493 -0.757878 0.264229 
1598.36 -2019.8 3971.26 -0.596493 -0.757878 0.264229 
1181.36 -1517.81 4467.88 -0.596493 -0.757878 0.264229 
1599.72 -2140.52 3626.36 -0.596493 -0.757878 0.264229 
1247.22 -1820.95 3744.17 -0.596493 -0.757878 0.264229 
1241.28 -1852.24 3640.46 -0.596493 -0.757878 0.264229 
1500.33 -2065.39 3616.41 -0.596493 -0.757878 0.264229 
1353.98 -1758.42 4167.73 -0.596493 -0.757878 0.264229 
1166.4 -1753.07 3755.67 -0.596493 -0.757878 0.264229 
1512.15 -1913.63 4080.82 -0.596493 -0.757878 0.264229 
1220.16 -1849.08 3601.43 -0.596493 -0.757878 0.264229 
1823.56 -2283.68 3723.82 -0.596493 -0.757878 0.264229 
1371.33 -1913.62 3759.91 -0.596493 -0.757878 0.264229 
1427.36 -1955.55 3766.73 -0.596493 -0.757878 0.264229 
1680.95 -2157.12 3763.62 -0.596493 -0.757878 0.264229 
1256.58 -1882.94 3586.85 -0.596493 -0.757878 0.264229 
1331.76 -1785.01 4040.46 -0.596493 -0.757878 0.264229 
1391.16 -1911.27 3811.87 -0.596493 -0.757878 0.264229 
1475.29 -1963.67 3852.55 -0.596493 -0.757878 0.264229 
1428.6 -1921.9 3866.56 -0.596493 -0.757878 0.264229 
1244.17 -1809.79 3769.38 -0.596493 -0.757878 0.264229 
1349.01 -1740.2 4208.93 -0.596493 -0.757878 0.264229 
1566.57 -2044.67 3827.13 -0.596493 -0.757878 0.264229 
1301.92 -1768.32 4020.55 -0.596493 -0.757878 0.264229 
1250.18 -1594.22 4404.5 -0.596493 -0.757878 0.264229 
1430.27 -1983.99 3691.39 -0.596493 -0.757878 0.264229 
1418.76 -1828.5 4113.38 -0.596493 -0.757878 0.264229 
1490.55 -1953.05 3917.94 -0.596493 -0.757878 0.264229 
1417.94 -1869.7 3992.71 -0.596493 -0.757878 0.264229 
1593.13 -2008.97 3990.54 -0.596493 -0.757878 0.264229 
1647.79 -2143.45 3727.45 -0.596493 -0.757878 0.264229 
1201.57 -1600.87 4274.53 -0.596493 -0.757878 0.264229 
1405.44 -1979.42 3647.99 -0.596493 -0.757878 0.264229 
1278.9 -1738.32 4054.58 -0.596493 -0.757878 0.264229 
1442.59 -1854.06 4094.01 -0.596493 -0.757878 0.264229 
1131.67 -1704.42 3816.76 -0.596493 -0.757878 0.264229 
1210.11 -1663.19 4114.37 -0.596493 -0.757878 0.264229 
1485.26 -1987.72 3805.94 -0.596493 -0.757878 0.264229 
1598.38 -2020.67 3968.78 -0.596493 -0.757878 0.264229 
1481.99 -2049.56 3620.25 -0.596493 -0.757878 0.264229 
1372.52 -1805.84 4073.3 -0.596493 -0.757878 0.264229 
1464.08 -1949.65 3867.45 -0.596493 -0.757878 0.264229 
1153.11 -1661.55 3989.17 -0.596493 -0.757878 0.264229 
1480.07 -1869.37 4135.27 -0.596493 -0.757878 0.264229 
1337.26 -1876.16 3790.23 -0.596493 -0.757878 0.264229 
1296.65 -1916.76 3580.65 -0.596493 -0.757878 0.264229 
1201.97 -1596.47 4288.12 -0.596493 -0.757878 0.264229 
1343.08 -1934.11 3636.46 -0.596493 -0.757878 0.264229 
1317.95 -1738.1 4144.18 -0.596493 -0.757878 0.264229 
1432.49 -1969.45 3738.34 -0.596493 -0.757878 0.264229 
1120.96 -1758.8 3635.59 -0.596493 -0.757878 0.264229 
1587.08 -2075.51 3784.95 -0.596493 -0.757878 0.264229 
1382.26 -1811.49 4079.21 -0.596493 -0.757878 0.264229 
1531.78 -2023.03 3810.22 -0.596493 -0.757878 0.264229 
1636.73 -2129.23 3743.25 -0.596493 -0.757878 0.264229 
1223.14 -1715.43 3993.46 -0.596493 -0.757878 0.264229 
1429.99 -1966.09 3742.36 -0.596493 -0.757878 0.264229 
1434.02 -1836.02 4126.46 -0.596493 -0.757878 0.264229 
1451.87 -1872.84 4061 -0.596493 -0.757878 0.264229 
1320.95 -1764.43 4075.13 -0.596493 -0.757878 0.264229 
1349.6 -1800.73 4035.78 -0.596493 -0.757878 0.264229 
1568.19 -1972.88 4037.73 -0.596493 -0.757878 0.264229 
1405.28 -1864.18 3979.8 -0.596493 -0.757878 0.264229 
1350 -1795.96 4050.47 -0.596493 -0.757878 0.264229 
1687.76 -2198.48 3659.94 -0.596493 -0.757878 0.264229 
1169.96 -1533.74 4395.99 -0.596493 -0.757878 0.264229 
1499.31 -2062.54 3622.32 -0.596493 -0.757878 0.264229 
1487.24 -2015.96 3729.08 -0.596493 -0.757878 0.264229 
1831.96 -2299.61 3697.08 -0.596493 -0.757878 0.264229 
1455.91 -1839.22 4167.13 -0.596493 -0.757878 0.264229 
1357.11 -1860.01 3882.03 -0.596493 -0.757878 0.264229 
1204.54 -1833.07 3611.97 -0.596493 -0.757878 0.264229 
1313.23 -1919.21 3611.39 -0.596493 -0.757878 0.264229 
1265.25 -1704.87 4119.89 -0.596493 -0.757878 0.264229 
1126.89 -1675.39 3889.53 -0.596493 -0.757878 0.264229 
1166.43 -1573.01 4274.75 -0.596493 -0.757878 0.264229 
1255.89 -1826.69 3747.39 -0.596493 -0.757878 0.264229 
1212.63 -1620.91 4242 -0.596493 -0.757878 0.264229 
1657.05 -2162.54 3693.54 -0.596493 -0.757878 0.264229 
1497.83 -1975.37 3870.19 -0.596493 -0.757878 0.264229 
1175.84 -1572.65 4297.22 -0.596493 -0.757878 0.264229 
1657.36 -2113.92 3834.41 -0.596493 -0.757878 0.264229 
1579.54 -2072.02 3777.83 -0.596493 -0.757878 0.264229 
1659.43 -2114.83 3836.48 -0.596493 -0.757878 0.264229 
1264.13 -1774.17 3917.55 -0.596493 -0.757878 0.264229 
1201.33 -1553.61 4410.21 -0.596493 -0.757878 0.264229 
1588.61 -2132.7 3623.57 -0.596493 -0.757878 0.264229 
1278.78 -1698.38 4169.43 -0.596493 -0.757878 0.264229 
1250.95 -1746.38 3967.64 -0.596493 -0.757878 0.264229 
1400.15 -1799.93 4153.31 -0.596493 -0.757878 0.264229 
1633.84 -2076.57 3888.48 -0.596493 -0.757878 0.264229 
1367.49 -1910.92 3758.94 -0.596493 -0.757878 0.264229 
1279.63 -1807.49 3856.85 -0.596493 -0.757878 0.264229 
1200.16 -1608.84 4248.34 -0.596493 -0.757878 0.264229 
1245.31 -1644.27 4249.11 -0.596493 -0.757878 0.264229 
1342.82 -1797.43 4029.84 -0.596493 -0.757878 0.264229 
1295.74 -1777.26 3980.71 -0.596493 -0.757878 0.264229 
1533.51 -2003.01 3871.86 -0.596493 -0.757878 0.264229 
1490.17 -1946.74 3935.28 -0.596493 -0.757878 0.264229 
1241.37 -1812.82 3754.28 -0.596493 -0.757878 0.264229 
1593.98 -2044.42 3890.3 -0.596493 -0.757878 0.264229 
1700.99 -2195.15 3699.68 -0.596493 -0.757878 0.264229 
1211.79 -1670.31 4097.66 -0.596493 -0.757878 0.264229 
1169.8 -1634.42 4105.43 -0.596493 -0.757878 0.264229 
1442.08 -1841.16 4130.01 -0.596493 -0.757878 0.264229 
1210.52 -1563.96 4401.31 -0.596493 -0.757878 0.264229 
1785.67 -2258.16 3711.04 -0.596493 -0.757878 0.264229 
1365.69 -1903.48 3776.27 -0.596493 -0.757878 0.264229 
1405.97 -1780.13 4223.63 -0.596493 -0.757878 0.264229 
1256.62 -1832.87 3731.26 -0.596493 -0.757878 0.264229 
1461.59 -1945.36 3874.13 -0.596493 -0.757878 0.264229 
1244.89 -1798.15 3804.58 -0.596493 -0.757878 0.264229 
1437.28 -1922.94 3883.32 -0.596493 -0.757878 0.264229 
1626.84 -2119.44 3748.93 -0.596493 -0.757878 0.264229 
1721.83 -2226.96 3655.48 -0.596493 -0.757878 0.264229 
1397.12 -1849.94 4002.24 -0.596493 -0.757878 0.264229 
1173.72 -1632.06 4121.16 -0.596493 -0.757878 0.264229 
1302.71 -1661.49 4330.3 -0.596493 -0.757878 0.264229 
1439.22 -1902.84 3945.7 -0.596493 -0.757878 0.264229 
1315.1 -1713.25 4209.32 -0.596493 -0.757878 0.264229 
1202.38 -1695.53 4003.5 -0.596493 -0.757878 0.264229 
1206.87 -1633.75 4191.83 -0.596493 -0.757878 0.264229 
1438.67 -1840.34 4124.6 -0.596493 -0.757878 0.264229 
1498.46 -2043.22 3676.07 -0.596493 -0.757878 0.264229 
1283.05 -1883.77 3644.78 -0.596493 -0.757878 0.264229 
1302.03 -1703.33 4208.14 -0.596493 -0.757878 0.264229 
1326.63 -1839.26 3872.38 -0.596493 -0.757878 0.264229 
1467.13 -1891.77 4041.24 -0.596493 -0.757878 0.264229 
1637.02 -2152.01 3678.25 -0.596493 -0.757878 0.264229 
1221.58 -1684.02 4080.44 -0.596493 -0.757878 0.264229 
1582.28 -2111.79 3669.45 -0.596493 -0.757878 0.264229 
1248.82 -1782.99 3857.23 -0.596493 -0.757878 0.264229 
1313.38 -1930.64 3578.78 -0.596493 -0.757878 0.264229 
1307.71 -1832.23 3849.53 -0.596493 -0.757878 0.264229 
1286.89 -1886.51 3645.6 -0.596493 -0.757878 0.264229 
1122.7 -1781.48 3574.19 -0.596493 -0.757878 0.264229 
1182.67 -1605.91 4216.93 -0.596493 -0.757878 0.264229 
1489.43 -1966.19 3877.51 -0.596493 -0.757878 0.264229 
1500.24 -2047.54 3667.67 -0.596493 -0.757878 0.264229 
1345.65 -1816.69 3980.79 -0.596493 -0.757878 0.264229 
1683.49 -2164.01 3749.58 -0.596493 -0.757878 0.264229 
1669.81 -2107.7 3880.7 -0.596493 -0.757878 0.264229 
1310.61 -1663.9 4341.36 -0.596493 -0.757878 0.264229 
1530.02 -1949.23 4018.91 -0.596493 -0.757878 0.264229 
1330.4 -1702.36 4275.59 -0.596493 -0.757878 0.264229 
1682.96 -2200.36 3643.58 -0.596493 -0.757878 0.264229 
1384.81 -1907.85 3807.26 -0.596493 -0.757878 0.264229 
1711.84 -2228.5 3628.3 -0.596493 -0.757878 0.264229 
1566.77 -2006.03 3938.97 -0.596493 -0.757878 0.264229 
1179.25 -1762.43 3757.97 -0.596493 -0.757878 0.264229 
1439.61 -1938.79 3842.97 -0.596493 -0.757878 0.264229 
1271.36 -1784.48 3904.33 -0.596493 -0.757878 0.264229 
1456.24 -2003.83 3693.39 -0.596493 -0.757878 0.264229 
1843.98 -2322.18 3659.39 -0.596493 -0.757878 0.264229 
1506.97 -2009.41 3792.91 -0.596493 -0.757878 0.264229 
1237.36 -1661.46 4181.44 -0.596493 -0.757878 0.264229 
1410.68 -1821.15 4116.14 -0.596493 -0.757878 0.264229 
1349.49 -1958.37 3581.13 -0.596493 -0.757878 0.264229 
1297.41 -1842.33 3796.95 -0.596493 -0.757878 0.264229 
1247.91 -1626.27 4306.93 -0.596493 -0.757878 0.264229 
1558.18 -2085.96 3688.97 -0.596493 -0.757878 0.264229 
1389.43 -1843.48 4003.33 -0.596493 -0.757878 0.264229 
1216.9 -1635.86 4208.59 -0.596493 -0.757878 0.264229 
1553.34 -2037.24 3818.37 -0.596493 -0.757878 0.264229 
1255.59 -1881.24 3589.47 -0.596493 -0.757878 0.264229 
1306.72 -1723.02 4162.07 -0.596493 -0.757878 0.264229 
1252.39 -1670.27 4190.3 -0.596493 -0.757878 0.264229 
1608.72 -2073.69 3839.52 -0.596493 -0.757878 0.264229 
1649.12 -2100.19 3855.2 -0.596493 -0.757878 0.264229 
1479.15 -1915.17 4001.16 -0.596493 -0.757878 0.264229 
1499.37 -2032.8 3708.15 -0.596493 -0.757878 0.264229 
1244.87 -1834.05 3701.07 -0.596493 -0.757878 0.264229 
1337.22 -1780.87 4064.83 -0.596493 -0.757878 0.264229 
1572.84 -2021.44 3908.37 -0.596493 -0.757878 0.264229 
1264.35 -1679.29 4191.57 -0.596493 -0.757878 0.264229 
1213.36 -1769.11 3816.44 -0.596493 -0.757878 0.264229 
1176.87 -1682.57 3982.75 -0.596493 -0.757878 0.264229 
1256.75 -1829.35 3741.71 -0.596493 -0.757878 0.264229 
1287.55 -1710.53 4154.39 -0.596493 -0.757878 0.264229 
1731.47 -2213.36 3716.66 -0.596493 -0.757878 0.264229 
1256.32 -1630.4 4314.18 -0.596493 -0.757878 0.264229 
1391.04 -1977.36 3621.1 -0.596493 -0.757878 0.264229 
1268 -1810.94 3820.4 -0.596493 -0.757878 0.264229 
1172.85 -1552.79 4347.65 -0.596493 -0.757878 0.264229 
1262.06 -1675.29 4197.87 -0.596493 -0.757878 0.264229 
1313.29 -1766.53 4051.64 -0.596493 -0.757878 0.264229 
1236.31 -1725.47 3994.53 -0.596493 -0.757878 0.264229 
1290.72 -1879.72 3673.92 -0.596493 -0.757878 0.264229 
1660.4 -2103.04 3872.7 -0.596493 -0.757878 0.264229 
1606.77 -2091.83 3782.78 -0.596493 -0.757878 0.264229 
1245.45 -1783.51 3848.09 -0.596493 -0.757878 0.264229 
1797.51 -2272.87 3695.62 -0.596493 -0.757878 0.264229 
1181.19 -1783.17 3702.61 -0.596493 -0.757878 0.264229 
1600.62 -2016.08 3987.12 -0.596493 -0.757878 0.264229 
1207.2 -1653.03 4137.02 -0.596493 -0.757878 0.264229 
1294.42 -1871.36 3706.46 -0.596493 -0.757878 0.264229 
1235.08 -1860.96 3601.19 -0.596493 -0.757878 0.264229 
1170.05 -1797.72 3635.28 -0.596493 -0.757878 0.264229 
1277.09 -1712.36 4125.26 -0.596493 -0.757878 0.264229 
1178.23 -1706.56 3916.68 -0.596493 -0.757878 0.264229 
1338.75 -1949.14 3583.26 -0.596493 -0.757878 0.264229 
1651.53 -2174.58 3646.26 -0.596493 -0.757878 0.264229 
1467.64 -1906.56 3999.75 -0.596493 -0.757878 0.264229 
1287 -1711.73 4149.68 -0.596493 -0.757878 0.264229 
1128.92 -1753 3670.44 -0.596493 -0.757878 0.264229 
1286.9 -1784.13 3940.75 -0.596493 -0.757878 0.264229 
1579.5 -2046.06 3852.56 -0.596493 -0.757878 0.264229 
1240.99 -1823.79 3721.8 -0.596493 -0.757878 0.264229 
1179.41 -1603.83 4215.5 -0.596493 -0.757878 0.264229 
1351.88 -1863.25 3860.76 -0.596493 -0.757878 0.264229 
1738.14 -2218.38 3717.4 -0.596493 -0.757878 0.264229 
1406.82 -1979.24 3651.63 -0.596493 -0.757878 0.264229 
1447.24 -1929.71 3886.51 -0.596493 -0.757878 0.264229 
1270.23 -1816.36 3809.87 -0.596493 -0.757878 0.264229 
1211.18 -1566.42 4395.74 -0.596493 -0.757878 0.264229 
1418.34 -1907.45 3884.85 -0.596493 -0.757878 0.264229 
1261.66 -1640.06 4298.51 -0.596493 -0.757878 0.264229 
1292.29 -1822.84 3841.47 -0.596493 -0.757878 0.264229 
1396.4 -1917.88 3804.77 -0.596493 -0.757878 0.264229 
1356.24 -1856.3 3890.73 -0.596493 -0.757878 0.264229 
1711.8 -2209.25 3683.67 -0.596493 -0.757878 0.264229 
1270.88 -1621.68 4372.5 -0.596493 -0.757878 0.264229 
1143.27 -1765.46 3667.22 -0.596493 -0.757878 0.264229 
1189.58 -1601.29 4245.98 -0.596493 -0.757878 0.264229 
1734.56 -2232.75 3667.82 -0.596493 -0.757878 0.264229 
1371.24 -1968.51 3601.48 -0.596493 -0.757878 0.264229 
1756.42 -2217.73 3760.92 -0.596493 -0.757878 0.264229 
1427.04 -1984.4 3682.84 -0.596493 -0.757878 0.264229 
1158.43 -1807.75 3579.87 -0.596493 -0.757878 0.264229 
1624.07 -2069.77 3885.79 -0.596493 -0.757878 0.264229 
1192.4 -1661.68 4078.34 -0.596493 -0.757878 0.264229 
1325.28 -1916.69 3646.09 -0.596493 -0.757878 0.264229 
1614.33 -2039.46 3950.98 -0.596493 -0.757878 0.264229 
1275.48 -1774.58 3942.26 -0.596493 -0.757878 0.264229 
1243.74 -1644.35 4245.29 -0.596493 -0.757878 0.264229 
1275.41 -1748.57 4017.06 -0.596493 -0.757878 0.264229 
1390.98 -1884.33 3889.12 -0.596493 -0.757878 0.264229 
1591.08 -2044.74 3882.76 -0.596493 -0.757878 0.264229 
1470.36 -2030.14 3649.74 -0.596493 -0.757878 0.264229 
1370.88 -1941.12 3679.63 -0.596493 -0.757878 0.264229 
1363.05 -1956.22 3618.24 -0.596493 -0.757878 0.264229 
1492.12 -2016.6 3738.35 -0.596493 -0.757878 0.264229 
1503.27 -1977.21 3877.31 -0.596493 -0.757878 0.264229 
1239.76 -1871.14 3582.5 -0.596493 -0.757878 0.264229 
1361.13 -1913.24 3737.74 -0.596493 -0.757878 0.264229 
1209.92 -1570.72 4380.48 -0.596493 -0.757878 0.264229 
1142.57 -1724.1 3784.84 -0.596493 -0.757878 0.264229 
1163.49 -1699.3 3904.04 -0.596493 -0.757878 0.264229 
1430.26 -1996.52 3655.25 -0.596493 -0.757878 0.264229 
1305.92 -1887.16 3687.11 -0.596493 -0.757878 0.264229 
1141.72 -1783.2 3612.57 -0.596493 -0.757878 0.264229 
1808.57 -2282.08 3694.28 -0.596493 -0.757878 0.264229 
1239.68 -1603.01 4355.23 -0.596493 -0.757878 0.264229 
1363.06 -1863.44 3885.71 -0.596493 -0.757878 0.264229 
1158.47 -1688.69 3923.15 -0.596493 -0.757878 0.264229 
1611.45 -2104.3 3757.5 -0.596493 -0.757878 0.264229 
1432.23 -2001.62 3645.04 -0.596493 -0.757878 0.264229 
1257.72 -1778.87 3889.4 -0.596493 -0.757878 0.264229 
1630.74 -2081.91 3866.01 -0.596493 -0.757878 0.264229 
1570.7 -2073.02 3754.79 -0.596493 -0.757878 0.264229 
1530.95 -1970.53 3959.63 -0.596493 -0.757878 0.264229 
1227.3 -1785.79 3800.13 -0.596493 -0.757878 0.264229 
1656.34 -2129.29 3787.79 -0.596493 -0.757878 0.264229 
1191.06 -1568.21 4344.74 -0.596493 -0.757878 0.264229 
1187.96 -1807.24 3648.66 -0.596493 -0.757878 0.264229 
1471.2 -1947.97 3888.49 -0.596493 -0.757878 0.264229 
1569.16 -1986.71 4000.07 -0.596493 -0.757878 0.264229 
1152.1 -1706.16 3858.3 -0.596493 -0.757878 0.264229 
1542.73 -1996.86 3910.59 -0.596493 -0.757878 0.264229 
1286 -1705.35 4165.79 -0.596493 -0.757878 0.264229 
1729.24 -2167.96 3842.43 -0.596493 -0.757878 0.264229 
1301.1 -1746.15 4082.59 -0.596493 -0.757878 0.264229 
1200.38 -1588.6 4307.19 -0.596493 -0.757878 0.264229 
1473.31 -1885.97 4072.01 -0.596493 -0.757878 0.264229 
1162.06 -1639.83 4072.17 -0.596493 -0.757878 0.264229 
1307.53 -1913.36 3615.26 -0.596493 -0.757878 0.264229 
1240.92 -1734.08 3980.23 -0.596493 -0.757878 0.264229 
1204.03 -1597.59 4289.6 -0.596493 -0.757878 0.264229 
1477.77 -1878.06 4104.99 -0.596493 -0.757878 0.264229 
1369.04 -1910.41 3763.96 -0.596493 -0.757878 0.264229 
1181.34 -1648.79 4090.28 -0.596493 -0.757878 0.264229 
1436.71 -1950.43 3802.79 -0.596493 -0.757878 0.264229 
1606.06 -2026.28 3970.13 -0.596493 -0.757878 0.264229 
1212.01 -1786.74 3762.57 -0.596493 -0.757878 0.264229 
1214.88 -1623.43 4239.85 -0.596493 -0.757878 0.264229 
1387.68 -1886.8 3874.49 -0.596493 -0.757878 0.264229 
1286.54 -1729.64 4096.99 -0.596493 -0.757878 0.264229 
1220.77 -1717.7 3981.51 -0.596493 -0.757878 0.264229 
1326.91 -1792.27 4008.47 -0.596493 -0.757878 0.264229 
1511.56 -1975.22 3901.91 -0.596493 -0.757878 0.264229 
1557.82 -2087.46 3683.82 -0.596493 -0.757878 0.264229 
1355.26 -1860.15 3877.41 -0.596493 -0.757878 0.264229 
1176.65 -1521.17 4447.48 -0.596493 -0.757878 0.264229 
1270.81 -1618.12 4382.61 -0.596493 -0.757878 0.264229 
1462.73 -1948.78 3866.88 -0.596493 -0.757878 0.264229 
1236.76 -1852.77 3628.63 -0.596493 -0.757878 0.264229 
1338.44 -1740.33 4184.47 -0.596493 -0.757878 0.264229 
1610.1 -2138.01 3657.26 -0.596493 -0.757878 0.264229 
1277.1 -1870.12 3670.54 -0.596493 -0.757878 0.264229 
1176.79 -1616.56 4172.83 -0.596493 -0.757878 0.264229 
1199.44 -1549.68 4417.23 -0.596493 -0.757878 0.264229 
1262.9 -1737.13 4021.53 -0.596493 -0.757878 0.264229 
1242.57 -1802.83 3785.81 -0.596493 -0.757878 0.264229 
1735.78 -2241.01 3646.79 -0.596493 -0.757878 0.264229 
1286.58 -1635.08 4369.67 -0.596493 -0.757878 0.264229 
1496.75 -2018.44 3743.6 -0.596493 -0.757878 0.264229 
1622.79 -2111.26 3763.3 -0.596493 -0.757878 0.264229 
1235.29 -1594.55 4369.58 -0.596493 -0.757878 0.264229 
1665.24 -2101.39 3888.49 -0.596493 -0.757878 0.264229 
1377.92 -1951.63 3665.36 -0.596493 -0.757878 0.264229 
1606.31 -2141.29 3639.16 -0.596493 -0.757878 0.264229 
1552.05 -2026.75 3845.67 -0.596493 -0.757878 0.264229 
1369.56 -1905.29 3779.87 -0.596493 -0.757878 0.264229 
1515.14 -2043.54 3713.17 -0.596493 -0.757878 0.264229 
1473.71 -1878.79 4093.62 -0.596493 -0.757878 0.264229 
1226.46 -1824.76 3685.88 -0.596493 -0.757878 0.264229 
1447.25 -1861 4084.61 -0.596493 -0.757878 0.264229 
1712.71 -2155.78 3839.89 -0.596493 -0.757878 0.264229 
1369.65 -1905.57 3779.28 -0.596493 -0.757878 0.264229 
1389.47 -1794.41 4144.86 -0.596493 -0.757878 0.264229 
1121.41 -1748.85 3665.3 -0.596493 -0.757878 0.264229 
1295.93 -1666.34 4300.84 -0.596493 -0.757878 0.264229 
1215.87 -1561.77 4419.83 -0.596493 -0.757878 0.264229 
1265.66 -1709.62 4107.14 -0.596493 -0.757878 0.264229 
1451.2 -1897.21 3989.25 -0.596493 -0.757878 0.264229 
1699.25 -2206.33 3663.5 -0.596493 -0.757878 0.264229 
1200.45 -1804.71 3684.39 -0.596493 -0.757878 0.264229 
1218.66 -1718.59 3974.15 -0.596493 -0.757878 0.264229 
1497.23 -1965.61 3896.99 -0.596493 -0.757878 0.264229 
1183.72 -1526.72 4447.6 -0.596493 -0.757878 0.264229 
1814.83 -2296.04 3668.32 -0.596493 -0.757878 0.264229 
1143.89 -1650.48 4000.08 -0.596493 -0.757878 0.264229 
1693.92 -2150.73 3811.62 -0.596493 -0.757878 0.264229 
1191.77 -1628.06 4173.82 -0.596493 -0.757878 0.264229 
1617.76 -2090.6 3811.38 -0.596493 -0.757878 0.264229 
1399.35 -1770 4237.74 -0.596493 -0.757878 0.264229 
1548.1 -2018.49 3860.49 -0.596493 -0.757878 0.264229 
1757.01 -2218.4 3760.34 -0.596493 -0.757878 0.264229 
1207.03 -1617.16 4240.01 -0.596493 -0.757878 0.264229 
1186.57 -1689.68 3984.36 -0.596493 -0.757878 0.264229 
1734.87 -2218.26 3710.29 -0.596493 -0.757878 0.264229 
1235.08 -1589.71 4383.08 -0.596493 -0.757878 0.264229 
1177.06 -1574.23 4295.45 -0.596493 -0.757878 0.264229 
1287.91 -1899.79 3609.64 -0.596493 -0.757878 0.264229 
1306.61 -1887.07 3688.95 -0.596493 -0.757878 0.264229 
1366.35 -1908.69 3762.77 -0.596493 -0.757878 0.264229 
1287.37 -1818.22 3843.55 -0.596493 -0.757878 0.264229 
1238.87 -1603.43 4352.16 -0.596493 -0.757878 0.264229 
1702.44 -2218.58 3635.45 -0.596493 -0.757878 0.264229 
1361.02 -1787.54 4099.83 -0.596493 -0.757878 0.264229 
1338.58 -1870.53 3809.49 -0.596493 -0.757878 0.264229 
1188.28 -1731.89 3866.58 -0.596493 -0.757878 0.264229 
1737.12 -2229.08 3684.22 -0.596493 -0.757878 0.264229 
1310.82 -1915.45 3616.71 -0.596493 -0.757878 0.264229 
1552.97 -1976.97 3991.26 -0.596493 -0.757878 0.264229 
1745.06 -2203.87 3774.99 -0.596493 -0.757878 0.264229 
1145.85 -1792.06 3596.46 -0.596493 -0.757878 0.264229 
1261.48 -1608.14 4390.13 -0.596493 -0.757878 0.264229 
1365.14 -1887.39 3821.4 -0.596493 -0.757878 0.264229 
1295.73 -1712.54 4167.23 -0.596493 -0.757878 0.264229 
1397.58 -1792.07 4170.09 -0.596493 -0.757878 0.264229 
1507.06 -2063.67 3636.72 -0.596493 -0.757878 0.264229 
1725.08 -2172.84 3818.88 -0.596493 -0.757878 0.264229 
1880.03 -2353.23 3652.04 -0.596493 -0.757878 0.264229 
1128.95 -1766.8 3630.74 -0.596493 -0.757878 0.264229 
1306.11 -1843.53 3813.31 -0.596493 -0.757878 0.264229 
1431.44 -1970.02 3734.33 -0.596493 -0.757878 0.264229 
1258.93 -1623.44 4340.19 -0.596493 -0.757878 0.264229 
1570.94 -1996.53 3975.82 -0.596493 -0.757878 0.264229 
1277.3 -1841.79 3752.67 -0.596493 -0.757878 0.264229 
1420.67 -1980.82 3678.65 -0.596493 -0.757878 0.264229 
1709.82 -2157.09 3829.5 -0.596493 -0.757878 0.264229 
1743.01 -2224.86 3709.82 -0.596493 -0.757878 0.264229 
1177.66 -1819 3591.27 -0.596493 -0.757878 0.264229 
1458.22 -1845.53 4154.2 -0.596493 -0.757878 0.264229 
1457.35 -1994.82 3721.87 -0.596493 -0.757878 0.264229 
1410.58 -1820.5 4117.78 -0.596493 -0.757878 0.264229 
1265.37 -1657.14 4257.74 -0.596493 -0.757878 0.264229 
1386.52 -1871.43 3916.14 -0.596493 -0.757878 0.264229 
1298.92 -1847.03 3786.84 -0.596493 -0.757878 0.264229 
1604.01 -2055.8 3880.35 -0.596493 -0.757878 0.264229 
1283.42 -1774.72 3959.94 -0.596493 -0.757878 0.264229 
1612.09 -2072.14 3851.66 -0.596493 -0.757878 0.264229 
1163.92 -1691.51 3927.47 -0.596493 -0.757878 0.264229 
1178.6 -1541.65 4392.89 -0.596493 -0.757878 0.264229 
1287.62 -1756.29 4022.66 -0.596493 -0.757878 0.264229 
1212.56 -1804.32 3713.13 -0.596493 -0.757878 0.264229 
1217.97 -1732.44 3932.64 -0.596493 -0.757878 0.264229 
1548.22 -1989.45 3944.45 -0.596493 -0.757878 0.264229 
1276.27 -1707.32 4137.95 -0.596493 -0.757878 0.264229 
1328.78 -1748.6 4138.6 -0.596493 -0.757878 0.264229 
1540.83 -2036.93 3790.76 -0.596493 -0.757878 0.264229 
1221.48 -1825.86 3671.36 -0.596493 -0.757878 0.264229 
1426.58 -1831.01 4123.96 -0.596493 -0.757878 0.264229 
1535.36 -1938.3 4062.59 -0.596493 -0.757878 0.264229 
1253.59 -1705.98 4090.12 -0.596493 -0.757878 0.264229 
1231.12 -1718.49 4002.85 -0.596493 -0.757878 0.264229 
1587.25 -2060.14 3829.65 -0.596493 -0.757878 0.264229 
1759.23 -2220.88 3758.26 -0.596493 -0.757878 0.264229 
1207.26 -1827.41 3634.5 -0.596493 -0.757878 0.264229 
1158.03 -1616.38 4130.62 -0.596493 -0.757878 0.264229 
1335.68 -1737.38 4186.69 -0.596493 -0.757878 0.264229 
1422.55 -1945.31 3785.31 -0.596493 -0.757878 0.264229 
1337.01 -1872.7 3799.64 -0.596493 -0.757878 0.264229 
1186.68 -1517.52 4480.85 -0.596493 -0.757878 0.264229 
1191.66 -1554.06 4386.88 -0.596493 -0.757878 0.264229 
1233.2 -1610.24 4319.63 -0.596493 -0.757878 0.264229 
1366.56 -1762.18 4185.57 -0.596493 -0.757878 0.264229 
1563.06 -2015.21 3904.03 -0.596493 -0.757878 0.264229 
1270.22 -1721.24 4084.01 -0.596493 -0.757878 0.264229 
1209.54 -1776.08 3787.67 -0.596493 -0.757878 0.264229 
1555.93 -1958.02 4052.65 -0.596493 -0.757878 0.264229 
1442.22 -1889.48 3991.04 -0.596493 -0.757878 0.264229 
1179.44 -1648.22 4087.6 -0.596493 -0.757878 0.264229 
1220.64 -1588.21 4354.49 -0.596493 -0.757878 0.264229 
1113.42 -1730.27 3700.64 -0.596493 -0.757878 0.264229 
1314.73 -1925.79 3595.84 -0.596493 -0.757878 0.264229 
1707.14 -2156.8 3824.25 -0.596493 -0.757878 0.264229 
1418.27 -1825.42 4121.12 -0.596493 -0.757878 0.264229 
1218.53 -1636.12 4211.58 -0.596493 -0.757878 0.264229 
1554.93 -2063.71 3745.69 -0.596493 -0.757878 0.264229 
1659.89 -2178.1 3655.15 -0.596493 -0.757878 0.264229 
1307.88 -1686.69 4269.45 -0.596493 -0.757878 0.264229 
1735.46 -2195.39 3777.57 -0.596493 -0.757878 0.264229 
1139.86 -1739.08 3735.51 -0.596493 -0.757878 0.264229 
1371.12 -1739.68 4260.81 -0.596493 -0.757878 0.264229 
1352.72 -1915.07 3713.34 -0.596493 -0.757878 0.264229 
1216.85 -1654.61 4154.45 -0.596493 -0.757878 0.264229 
1292.45 -1667.57 4289.37 -0.596493 -0.757878 0.264229 
1551.63 -2083.92 3679.92 -0.596493 -0.757878 0.264229 
1195.87 -1538.05 4442.62 -0.596493 -0.757878 0.264229 
1322.58 -1821.29 3914.97 -0.596493 -0.757878 0.264229 
1243.94 -1768.24 3888.66 -0.596493 -0.757878 0.264229 
1200.54 -1693.24 4005.92 -0.596493 -0.757878 0.264229 
1546.5 -2091 3647.83 -0.596493 -0.757878 0.264229 
1140.76 -1649.05 3997.07 -0.596493 -0.757878 0.264229 
1544.86 -1969.96 3993 -0.596493 -0.757878 0.264229 
1423.69 -1817.23 4157.08 -0.596493 -0.757878 0.264229 
1465.22 -1859.16 4130.86 -0.596493 -0.757878 0.264229 
1411.03 -1857.7 4011.58 -0.596493 -0.757878 0.264229 
1530.06 -1960.39 3986.84 -0.596493 -0.757878 0.264229 
1409.7 -1967.44 3692.21 -0.596493 -0.757878 0.264229 
1402.15 -1935.31 3767.61 -0.596493 -0.757878 0.264229 
1191.66 -1681.18 4020.46 -0.596493 -0.757878 0.264229 
1204.84 -1777.68 3772.33 -0.596493 -0.757878 0.264229 
1295.7 -1652.41 4340.49 -0.596493 -0.757878 0.264229 
1213.99 -1731.08 3927.51 -0.596493 -0.757878 0.264229 
1521.62 -1935.12 4040.44 -0.596493 -0.757878 0.264229 
1626.95 -2145.79 3673.24 -0.596493 -0.757878 0.264229 
1285.64 -1676.5 4248.11 -0.596493 -0.757878 0.264229 
1337.86 -1842.29 3889.24 -0.596493 -0.757878 0.264229 
1262.29 -1789.17 3870.12 -0.596493 -0.757878 0.264229 
1384.98 -1982.21 3593.28 -0.596493 -0.757878 0.264229 
1266.88 -1836.32 3744.7 -0.596493 -0.757878 0.264229 
1602.81 -2076.88 3816.87 -0.596493 -0.757878 0.264229 
1597.57 -2066.91 3833.66 -0.596493 -0.757878 0.264229 
1505.48 -2046.41 3682.88 -0.596493 -0.757878 0.264229 
1488.61 -1925.8 3992.08 -0.596493 -0.757878 0.264229 
1772.08 -2243.68 3721.82 -0.596493 -0.757878 0.264229 
1562.07 -2108.38 3633.2 -0.596493 -0.757878 0.264229 
1272.36 -1757.65 3983.94 -0.596493 -0.757878 0.264229 
1686.45 -2165.86 3750.99 -0.596493 -0.757878 0.264229 
1500.3 -1896.69 4102.62 -0.596493 -0.757878 0.264229 
1456.9 -1975.57 3776.35 -0.596493 -0.757878 0.264229 
1193.49 -1526.2 4471.35 -0.596493 -0.757878 0.264229 
1463.97 -2020.32 3663.45 -0.596493 -0.757878 0.264229 
1317.96 -1802.28 3959.21 -0.596493 -0.757878 0.264229 
1428.87 -1950.82 3783.79 -0.596493 -0.757878 0.264229 
1304.73 -1679.32 4283.5 -0.596493 -0.757878 0.264229 
1160.39 -1797.66 3613.43 -0.596493 -0.757878 0.264229 
1463.44 -1861.02 4121.46 -0.596493 -0.757878 0.264229 
1282.37 -1732.47 4079.32 -0.596493 -0.757878 0.264229 
1688.12 -2124.7 3873.45 -0.596493 -0.757878 0.264229 
1427.53 -1914.53 3885.37 -0.596493 -0.757878 0.264229 
1356.17 -1724.04 4271.83 -0.596493 -0.757878 0.264229 
1332.41 -1697.06 4295.45 -0.596493 -0.757878 0.264229 
1135.6 -1739.63 3724.2 -0.596493 -0.757878 0.264229 
1208.74 -1752.44 3853.98 -0.596493 -0.757878 0.264229 
1575.03 -1993.26 3994.59 -0.596493 -0.757878 0.264229 
1100.41 -1764.9 3571.16 -0.596493 -0.757878 0.264229 
1654.38 -2108.51 3843.19 -0.596493 -0.757878 0.264229 
1625.32 -2139.85 3686.64 -0.596493 -0.757878 0.264229 
1460.92 -1908.04 3980.18 -0.596493 -0.757878 0.264229 
1184.8 -1604.9 4224.69 -0.596493 -0.757878 0.264229 
1667.32 -2146.37 3763.56 -0.596493 -0.757878 0.264229 
1243.14 -1654.73 4214.03 -0.596493 -0.757878 0.264229 
1237.68 -1772.07 3863.34 -0.596493 -0.757878 0.264229 
1821.34 -2280.61 3727.63 -0.596493 -0.757878 0.264229 
1388.78 -1777.58 4191.8 -0.596493 -0.757878 0.264229 
1243.14 -1859.44 3623.92 -0.596493 -0.757878 0.264229 
1318.82 -1719.42 4200.02 -0.596493 -0.757878 0.264229 
1189.19 -1808.4 3648.12 -0.596493 -0.757878 0.264229 
1317.38 -1749.95 4108.75 -0.596493 -0.757878 0.264229 
1421.11 -1800.66 4198.97 -0.596493 -0.757878 0.264229 
1380.8 -1925.15 3748.24 -0.596493 -0.757878 0.264229 
1483.11 -1876.69 4121.09 -0.596493 -0.757878 0.264229 
1346.94 -1920.47 3684.6 -0.596493 -0.757878 0.264229 
1690.02 -2160 3776.01 -0.596493 -0.757878 0.264229 
1560.47 -1999.88 3942.31 -0.596493 -0.757878 0.264229 
1436.56 -1962.71 3767.06 -0.596493 -0.757878 0.264229 
1269.66 -1640 4316.92 -0.596493 -0.757878 0.264229 
1334.22 -1906.71 3695.24 -0.596493 -0.757878 0.264229 
1292.63 -1864.12 3723.25 -0.596493 -0.757878 0.264229 
1255.21 -1657.26 4234.21 -0.596493 -0.757878 0.264229 
1477.16 -2023.46 3684.48 -0.596493 -0.757878 0.264229 
1477.04 -1912.6 4003.74 -0.596493 -0.757878 0.264229 
1615.54 -2036.88 3961.18 -0.596493 -0.757878 0.264229 
1324.65 -1728.73 4186.47 -0.596493 -0.757878 0.264229 
1405.61 -1901.31 3873.53 -0.596493 -0.757878 0.264229 
1444.86 -1960.73 3791.71 -0.596493 -0.757878 0.264229 
1318.05 -1772.47 4045.36 -0.596493 -0.757878 0.264229 
1248.55 -1729.72 4010.19 -0.596493 -0.757878 0.264229 
1503.28 -1901.61 4095.25 -0.596493 -0.757878 0.264229 
1617.06 -2055.87 3909.87 -0.596493 -0.757878 0.264229 
1582.54 -2088.19 3738.06 -0.596493 -0.757878 0.264229 
1629.42 -2098.57 3814.98 -0.596493 -0.757878 0.264229 
1336.55 -1752.9 4143.93 -0.596493 -0.757878 0.264229 
1629.4 -2159.47 3639.38 -0.596493 -0.757878 0.264229 
1242.73 -1797.53 3801.47 -0.596493 -0.757878 0.264229 
1270.67 -1745.99 4013.7 -0.596493 -0.757878 0.264229 
1143.63 -1654.55 3987.77 -0.596493 -0.757878 0.264229 
1260.3 -1868.77 3636.14 -0.596493 -0.757878 0.264229 
1486.25 -2012.54 3736.67 -0.596493 -0.757878 0.264229 
1194.59 -1688.75 4005.33 -0.596493 -0.757878 0.264229 
1280.33 -1731.97 4076.13 -0.596493 -0.757878 0.264229 
1235.04 -1756.04 3903.53 -0.596493 -0.757878 0.264229 
1303.93 -1681.04 4276.7 -0.596493 -0.757878 0.264229 
1593.55 -2138.77 3617.35 -0.596493 -0.757878 0.264229 
1700.1 -2158.53 3803.21 -0.596493 -0.757878 0.264229 
1265.68 -1835.36 3744.72 -0.596493 -0.757878 0.264229 
1392.43 -1867.04 3942.28 -0.596493 -0.757878 0.264229 
1148.67 -1756.03 3706.74 -0.596493 -0.757878 0.264229 
1662.22 -2142.98 3761.72 -0.596493 -0.757878 0.264229 
1179.77 -1752.25 3788.5 -0.596493 -0.757878 0.264229 
1310.27 -1851.34 3800.26 -0.596493 -0.757878 0.264229 
1454.64 -2002.97 3692.22 -0.596493 -0.757878 0.264229 
1334.59 -1928.12 3634.38 -0.596493 -0.757878 0.264229 
1602.55 -2034.63 3938.03 -0.596493 -0.757878 0.264229 
1115.9 -1772.41 3584.83 -0.596493 -0.757878 0.264229 
1713.8 -2218.84 3660.6 -0.596493 -0.757878 0.264229 
1326.3 -1819.88 3927.47 -0.596493 -0.757878 0.264229 
1408.41 -1974.85 3667.92 -0.596493 -0.757878 0.264229 
1530.73 -2089.13 3617.27 -0.596493 -0.757878 0.264229 
1251.29 -1615.12 4346.77 -0.596493 -0.757878 0.264229 
1215.61 -1761.01 3844.91 -0.596493 -0.757878 0.264229 
1414.71 -1933.46 3801.57 -0.596493 -0.757878 0.264229 
1460.11 -1948.21 3862.55 -0.596493 -0.757878 0.264229 
1301.83 -1766.19 4026.47 -0.596493 -0.757878 0.264229 
1215.14 -1737.07 3912.86 -0.596493 -0.757878 0.264229 
1149.58 -1699.97 3870.37 -0.596493 -0.757878 0.264229 
1166.18 -1564.86 4297.68 -0.596493 -0.757878 0.264229 
1303.02 -1831.43 3841.15 -0.596493 -0.757878 0.264229 
1599.27 -2119.41 3686.19 -0.596493 -0.757878 0.264229 
1474.99 -1943.63 3909.65 -0.596493 -0.757878 0.264229 
1304.37 -1815.89 3889.01 -0.596493 -0.757878 0.264229 
1352.6 -1884.47 3801.24 -0.596493 -0.757878 0.264229 
1645.07 -2103.45 3836.57 -0.596493 -0.757878 0.264229 
1395.98 -1961.41 3678.31 -0.596493 -0.757878 0.264229 
1179.08 -1554.97 4355.59 -0.596493 -0.757878 0.264229 
1337.75 -1859.48 3839.42 -0.596493 -0.757878 0.264229 
1527.67 -1946.13 4022.49 -0.596493 -0.757878 0.264229 
1304.57 -1712.51 4187.44 -0.596493 -0.757878 0.264229 
1283.95 -1851.85 3738.83 -0.596493 -0.757878 0.264229 
1339.07 -1795.98 4025.48 -0.596493 -0.757878 0.264229 
1237.03 -1795.05 3795.62 -0.596493 -0.757878 0.264229 
1505.69 -1940.76 3987.91 -0.596493 -0.757878 0.264229 
1301.36 -1783.13 3976.58 -0.596493 -0.757878 0.264229 
1220.13 -1618.16 4267 -0.596493 -0.757878 0.264229 
1618.5 -2068.82 3875.83 -0.596493 -0.757878 0.264229 
1617.39 -2049.83 3928.06 -0.596493 -0.757878 0.264229 
1212.82 -1700.88 4011.87 -0.596493 -0.757878 0.264229 
1698.38 -2175.03 3751.72 -0.596493 -0.757878 0.264229 
1547.2 -2063.59 3728.42 -0.596493 -0.757878 0.264229 
1314.59 -1895.37 3683.19 -0.596493 -0.757878 0.264229 
1529.18 -2015.15 3826.98 -0.596493 -0.757878 0.264229 
1583.22 -2122.11 3641.83 -0.596493 -0.757878 0.264229 
1673.62 -2152.32 3760.77 -0.596493 -0.757878 0.264229 
1277.77 -1860.2 3700.68 -0.596493 -0.757878 0.264229 
1176.42 -1796.62 3652.98 -0.596493 -0.757878 0.264229 
1414.59 -1884.04 3943.74 -0.596493 -0.757878 0.264229 
1648.72 -2143.67 3728.95 -0.596493 -0.757878 0.264229 
1227.84 -1720.48 3989.61 -0.596493 -0.757878 0.264229 
1393.52 -1907.63 3827.74 -0.596493 -0.757878 0.264229 
1529.95 -2054.04 3716.65 -0.596493 -0.757878 0.264229 
1262.29 -1647.19 4279.38 -0.596493 -0.757878 0.264229 
1191.87 -1657.93 4087.95 -0.596493 -0.757878 0.264229 
1606.31 -2068.54 3848.88 -0.596493 -0.757878 0.264229 
1140.92 -1651.57 3990.17 -0.596493 -0.757878 0.264229 
1412.89 -1867.9 3986.42 -0.596493 -0.757878 0.264229 
1276.6 -1751.58 4011.11 -0.596493 -0.757878 0.264229 
1267.36 -1652.29 4276.26 -0.596493 -0.757878 0.264229 
1129.43 -1689.15 3855.65 -0.596493 -0.757878 0.264229 
1235.36 -1699.07 4068.46 -0.596493 -0.757878 0.264229 
1376.62 -1883.99 3857.37 -0.596493 -0.757878 0.264229 
1465.35 -1881.26 4067.48 -0.596493 -0.757878 0.264229 
1221.03 -1729.33 3948.62 -0.596493 -0.757878 0.264229 
1462.14 -1891.12 4031.71 -0.596493 -0.757878 0.264229 
1523.22 -1968.95 3946.57 -0.596493 -0.757878 0.264229 
1233.13 -1768.02 3864.63 -0.596493 -0.757878 0.264229 
1386.23 -1857.23 3956.41 -0.596493 -0.757878 0.264229 
1662.92 -2107.94 3864.3 -0.596493 -0.757878 0.264229 
1647.6 -2178.68 3625.48 -0.596493 -0.757878 0.264229 
1464.88 -1952.06 3862.31 -0.596493 -0.757878 0.264229 
1438.22 -1999.97 3663.46 -0.596493 -0.757878 0.264229 
1149.49 -1703.11 3861.13 -0.596493 -0.757878 0.264229 
1408.33 -1842.7 4048.66 -0.596493 -0.757878 0.264229 
1468.15 -1943.59 3894.16 -0.596493 -0.757878 0.264229 
1540.47 -1980.44 3952.75 -0.596493 -0.757878 0.264229 
1367.9 -1958.35 3623.16 -0.596493 -0.757878 0.264229 
1576.26 -2085.24 3732.24 -0.596493 -0.757878 0.264229 
1243.8 -1815.74 3751.41 -0.596493 -0.757878 0.264229 
1344.85 -1826.04 3951.99 -0.596493 -0.757878 0.264229 
1445 -2030.12 3591.99 -0.596493 -0.757878 0.264229 
1440.16 -1914.31 3914.78 -0.596493 -0.757878 0.264229 
1206.26 -1809.2 3684.7 -0.596493 -0.757878 0.264229 
1596.89 -2123.51 3668.93 -0.596493 -0.757878 0.264229 
1425.9 -1917.61 3872.76 -0.596493 -0.757878 0.264229 
1207.87 -1677.52 4067.95 -0.596493 -0.757878 0.264229 
1143.71 -1707.5 3835.31 -0.596493 -0.757878 0.264229 
1445.94 -1827.31 4178.73 -0.596493 -0.757878 0.264229 
1279.71 -1782.95 3927.76 -0.596493 -0.757878 0.264229 
1301.64 -1763.9 4032.65 -0.596493 -0.757878 0.264229 
1156.22 -1595.42 4186.91 -0.596493 -0.757878 0.264229 
1262.5 -1757.84 3960.92 -0.596493 -0.757878 0.264229 
1464.53 -2040.88 3605.49 -0.596493 -0.757878 0.264229 
1464.91 -1938.72 3900.82 -0.596493 -0.757878 0.264229 
1262.45 -1680.52 4183.69 -0.596493 -0.757878 0.264229 
1555.68 -2071.01 3726.36 -0.596493 -0.757878 0.264229 
1468.6 -1953.74 3865.95 -0.596493 -0.757878 0.264229 
1659.75 -2114.1 3839.34 -0.596493 -0.757878 0.264229 
1153 -1769.85 3676.76 -0.596493 -0.757878 0.264229 
1197.15 -1729.6 3893.38 -0.596493 -0.757878 0.264229 
1414.97 -1812.35 4151.27 -0.596493 -0.757878 0.264229 
1418.34 -1893.87 3923.96 -0.596493 -0.757878 0.264229 
1245.79 -1631.14 4288.03 -0.596493 -0.757878 0.264229 
1402.92 -1925.56 3797.48 -0.596493 -0.757878 0.264229 
1204.82 -1820.85 3647.85 -0.596493 -0.757878 0.264229 
1254.41 -1613.34 4359 -0.596493 -0.757878 0.264229 
1318.95 -1900.82 3677.44 -0.596493 -0.757878 0.264229 
1207.93 -1788.54 3748.06 -0.596493 -0.757878 0.264229 
1469.55 -1953.07 3870.03 -0.596493 -0.757878 0.264229 
1210.8 -1834.85 3621.11 -0.596493 -0.757878 0.264229 
1402.06 -1961.21 3692.78 -0.596493 -0.757878 0.264229 
1180.83 -1700.43 3940.3 -0.596493 -0.757878 0.264229 
1395.27 -1789.88 4171.14 -0.596493 -0.757878 0.264229 
1692.2 -2176.31 3733.96 -0.596493 -0.757878 0.264229 
1604.91 -2113.92 3714.88 -0.596493 -0.757878 0.264229 
1692.03 -2176.92 3731.82 -0.596493 -0.757878 0.264229 
1547.93 -2018.11 3861.18 -0.596493 -0.757878 0.264229 
1495.98 -1925.93 4008.49 -0.596493 -0.757878 0.264229 
1370.52 -1901.56 3792.84 -0.596493 -0.757878 0.264229 
1274.98 -1780.21 3924.88 -0.596493 -0.757878 0.264229 
1283.22 -1685.96 4215.33 -0.596493 -0.757878 0.264229 
1154.21 -1702.81 3872.76 -0.596493 -0.757878 0.264229 
1563.52 -1988.18 3982.98 -0.596493 -0.757878 0.264229 
1630.65 -2098.39 3818.29 -0.596493 -0.757878 0.264229 
1759.2 -2222.93 3752.26 -0.596493 -0.757878 0.264229 
1472.4 -1990.29 3769.24 -0.596493 -0.757878 0.264229 
1290.8 -1650.54 4334.72 -0.596493 -0.757878 0.264229 
1799.53 -2256 3748.86 -0.596493 -0.757878 0.264229 
1294.07 -1692.14 4222.28 -0.596493 -0.757878 0.264229 
1167.79 -1548.69 4347.95 -0.596493 -0.757878 0.264229 
1537.85 -1974.46 3964.03 -0.596493 -0.757878 0.264229 
1201.93 -1798.9 3704.54 -0.596493 -0.757878 0.264229 
1338.93 -1808.72 3988.45 -0.596493 -0.757878 0.264229 
1365.78 -1875.91 3855.95 -0.596493 -0.757878 0.264229 
1352.97 -1792.38 4067.54 -0.596493 -0.757878 0.264229 
1229.7 -1769.06 3853.84 -0.596493 -0.757878 0.264229 
1183.28 -1776.4 3726.9 -0.596493 -0.757878 0.264229 
1247.44 -1777.2 3870.79 -0.596493 -0.757878 0.264229 
1126.55 -1719.76 3760.85 -0.596493 -0.757878 0.264229 
1142.64 -1647.66 4005.36 -0.596493 -0.757878 0.264229 
1696.89 -2182.37 3727.17 -0.596493 -0.757878 0.264229 
1246.16 -1619.35 4322.87 -0.596493 -0.757878 0.264229 
1422.93 -1812 4170.44 -0.596493 -0.757878 0.264229 
1368.07 -1766.33 4177.04 -0.596493 -0.757878 0.264229 
1121.15 -1691.28 3830.66 -0.596493 -0.757878 0.264229 
1332.68 -1811.73 3965.53 -0.596493 -0.757878 0.264229 
1408.72 -1848.31 4033.38 -0.596493 -0.757878 0.264229 
1157.43 -1722.73 3822.69 -0.596493 -0.757878 0.264229 
1436.31 -1947.89 3809.2 -0.596493 -0.757878 0.264229 
1432.94 -1949.69 3796.36 -0.596493 -0.757878 0.264229 
1132.16 -1788.25 3576.23 -0.596493 -0.757878 0.264229 
1264.13 -1826.95 3765.43 -0.596493 -0.757878 0.264229 
1485.53 -2025.98 3696.29 -0.596493 -0.757878 0.264229 
1383.46 -1977.41 3603.66 -0.596493 -0.757878 0.264229 
1564.01 -1998.17 3955.3 -0.596493 -0.757878 0.264229 
1495.02 -1933.21 3985.33 -0.596493 -0.757878 0.264229 
1457.91 -1865.48 4095.98 -0.596493 -0.757878 0.264229 
1465.79 -1981.8 3778.65 -0.596493 -0.757878 0.264229 
1594.94 -2028.1 3939.54 -0.596493 -0.757878 0.264229 
1397.19 -1794.15 4163.21 -0.596493 -0.757878 0.264229 
1294.39 -1832.62 3818.04 -0.596493 -0.757878 0.264229 
1345.59 -1901.55 3736.05 -0.596493 -0.757878 0.264229 
1215.66 -1561.75 4419.4 -0.596493 -0.757878 0.264229 
1310.05 -1821.22 3886.59 -0.596493 -0.757878 0.264229 
1697.44 -2194.52 3693.43 -0.596493 -0.757878 0.264229 
1413.29 -1966.71 3702.5 -0.596493 -0.757878 0.264229 
1311.58 -1796.8 3960.46 -0.596493 -0.757878 0.264229 
1157.24 -1755.8 3726.9 -0.596493 -0.757878 0.264229 
1642.63 -2111.3 3808.38 -0.596493 -0.757878 0.264229 
1583.36 -2076.41 3773.89 -0.596493 -0.757878 0.264229 
1743.88 -2230.06 3696.81 -0.596493 -0.757878 0.264229 
1599.85 -2031.65 3940.5 -0.596493 -0.757878 0.264229 
1440.6 -1925.52 3883.47 -0.596493 -0.757878 0.264229 
1498.42 -1931.56 3997.84 -0.596493 -0.757878 0.264229 
1385.33 -1851.04 3972.2 -0.596493 -0.757878 0.264229 
1277.89 -1822.35 3810.03 -0.596493 -0.757878 0.264229 
1218.76 -1695.75 4040.23 -0.596493 -0.757878 0.264229 
1633.55 -2103.4 3810.48 -0.596493 -0.757878 0.264229 
1416.02 -1833.5 4092.71 -0.596493 -0.757878 0.264229 
1260.52 -1804.86 3820.86 -0.596493 -0.757878 0.264229 
1460.17 -2019.35 3657.62 -0.596493 -0.757878 0.264229 
1566.6 -2004.72 3942.32 -0.596493 -0.757878 0.264229 
1161.13 -1742.06 3775.41 -0.596493 -0.757878 0.264229 
1827.67 -2299.99 3686.19 -0.596493 -0.757878 0.264229 
1220.99 -1567.53 4414.9 -0.596493 -0.757878 0.264229 
1261.78 -1652.92 4261.71 -0.596493 -0.757878 0.264229 
1242.58 -1735.71 3979.33 -0.596493 -0.757878 0.264229 
1163.28 -1693.33 3920.73 -0.596493 -0.757878 0.264229 
1235.08 -1798.63 3780.85 -0.596493 -0.757878 0.264229 
1477.84 -1991.42 3778.4 -0.596493 -0.757878 0.264229 
1467.25 -1903.4 4007.97 -0.596493 -0.757878 0.264229 
1130.65 -1755.4 3667.48 -0.596493 -0.757878 0.264229 
1375.63 -1740.85 4267.72 -0.596493 -0.757878 0.264229 
1237.29 -1632.3 4265.34 -0.596493 -0.757878 0.264229 
1372.05 -1806.07 4071.59 -0.596493 -0.757878 0.264229 
1602.42 -2109.63 3721.56 -0.596493 -0.757878 0.264229 
1199.92 -1583.65 4320.41 -0.596493 -0.757878 0.264229 
1545.63 -2098.47 3624.3 -0.596493 -0.757878 0.264229 
1541.62 -1983.68 3946.04 -0.596493 -0.757878 0.264229 
1317.58 -1760.46 4078.88 -0.596493 -0.757878 0.264229 
1187.82 -1693.25 3976.92 -0.596493 -0.757878 0.264229 
1293.52 -1777.84 3973.99 -0.596493 -0.757878 0.264229 
1247.65 -1737.22 3986.53 -0.596493 -0.757878 0.264229 
1286.97 -1809.66 3867.32 -0.596493 -0.757878 0.264229 
1149.27 -1764.57 3683.46 -0.596493 -0.757878 0.264229 
1587.11 -2068.2 3806.09 -0.596493 -0.757878 0.264229 
1571.18 -2004.09 3954.59 -0.596493 -0.757878 0.264229 
1409.94 -1986.7 3637.23 -0.596493 -0.757878 0.264229 
1615.28 -2156.73 3615.1 -0.596493 -0.757878 0.264229 
1280.79 -1881.24 3646.9 -0.596493 -0.757878 0.264229 
1198.29 -1816.2 3646.37 -0.596493 -0.757878 0.264229 
1321.74 -1881.17 3740.44 -0.596493 -0.757878 0.264229 
1700.66 -2204.85 3670.98 -0.596493 -0.757878 0.264229 
1434.61 -1953.94 3787.9 -0.596493 -0.757878 0.264229 
1329.65 -1774.7 4065.34 -0.596493 -0.757878 0.264229 
1376.27 -1810.32 4068.95 -0.596493 -0.757878 0.264229 
1254.08 -1764.81 3921.62 -0.596493 -0.757878 0.264229 
1263.83 -1867.76 3647.13 -0.596493 -0.757878 0.264229 
1141.34 -1774.95 3635.48 -0.596493 -0.757878 0.264229 
1417.17 -1821.17 4130.89 -0.596493 -0.757878 0.264229 
1504.26 -1986.42 3853.01 -0.596493 -0.757878 0.264229 
1366.47 -1816.89 4027.67 -0.596493 -0.757878 0.264229 
1378.91 -1859.09 3934.36 -0.596493 -0.757878 0.264229 
1324.36 -1935.75 3589.09 -0.596493 -0.757878 0.264229 
1184.94 -1745.47 3819.83 -0.596493 -0.757878 0.264229 
1369.78 -1799.82 4084.42 -0.596493 -0.757878 0.264229 
1229.09 -1631.24 4249.71 -0.596493 -0.757878 0.264229 
1309.24 -1760.55 4059.63 -0.596493 -0.757878 0.264229 
1330.63 -1776.76 4061.66 -0.596493 -0.757878 0.264229 
1574.15 -1984.82 4016.9 -0.596493 -0.757878 0.264229 
1496.54 -2032.68 3702.08 -0.596493 -0.757878 0.264229 
1400.33 -1887.22 3902.08 -0.596493 -0.757878 0.264229 
1726.75 -2191.55 3768.77 -0.596493 -0.757878 0.264229 
1139.44 -1727.46 3768.03 -0.596493 -0.757878 0.264229 
1409.06 -1927.79 3805.07 -0.596493 -0.757878 0.264229 
1326.78 -1885.26 3740.12 -0.596493 -0.757878 0.264229 
1379.15 -1851.75 3956.07 -0.596493 -0.757878 0.264229 
1542.67 -2023.04 3835 -0.596493 -0.757878 0.264229 
1165.28 -1798.87 3621.11 -0.596493 -0.757878 0.264229 
1186.85 -1676.94 4021.72 -0.596493 -0.757878 0.264229 
1290.05 -1752.77 4038.32 -0.596493 -0.757878 0.264229 
1365.9 -1881.41 3840.39 -0.596493 -0.757878 0.264229 
1359.03 -1787.62 4095.08 -0.596493 -0.757878 0.264229 
1707.71 -2208.74 3675.83 -0.596493 -0.757878 0.264229 
1550.91 -2035.35 3818.29 -0.596493 -0.757878 0.264229 
1118.96 -1757.76 3634.01 -0.596493 -0.757878 0.264229 
1457.59 -1996.8 3716.72 -0.596493 -0.757878 0.264229 
1230.47 -1841.07 3648.02 -0.596493 -0.757878 0.264229 
1210.05 -1784.89 3763.4 -0.596493 -0.757878 0.264229 
1403.83 -1802.49 4154.29 -0.596493 -0.757878 0.264229 
1224.51 -1581.97 4381.29 -0.596493 -0.757878 0.264229 
1376.9 -1790.33 4128 -0.596493 -0.757878 0.264229 
1508.35 -2033.83 3725.67 -0.596493 -0.757878 0.264229 
1274.5 -1880.19 3635.61 -0.596493 -0.757878 0.264229 
1150.21 -1613.11 4122.19 -0.596493 -0.757878 0.264229 
1254.69 -1649.16 4256.42 -0.596493 -0.757878 0.264229 
1276.17 -1707.15 4138.2 -0.596493 -0.757878 0.264229 
1180.97 -1652.22 4079.57 -0.596493 -0.757878 0.264229 
1253.76 -1660.94 4220.31 -0.596493 -0.757878 0.264229 
1627.51 -2059.35 3923.69 -0.596493 -0.757878 0.264229 
1334.93 -1925.71 3642.09 -0.596493 -0.757878 0.264229 
1321.62 -1850.03 3829.92 -0.596493 -0.757878 0.264229 
1140.89 -1758.4 3682.14 -0.596493 -0.757878 0.264229 
1173.23 -1658.52 4043.76 -0.596493 -0.757878 0.264229 
1295.98 -1645.89 4359.93 -0.596493 -0.757878 0.264229 
1409.2 -1958.73 3716.18 -0.596493 -0.757878 0.264229 
1255.73 -1598.19 4405.71 -0.596493 -0.757878 0.264229 
1182.4 -1736.13 3840.94 -0.596493 -0.757878 0.264229 
1239.1 -1695.08 4088.5 -0.596493 -0.757878 0.264229 
