ply
format ascii 1.0
comment Created by CloudCompare v2.11.3 (Anoia)
comment Created 08/09/2022 00:17
obj_info Generated by CloudCompare!
element vertex 876
property float x
property float y
property float z
property float nx
property float ny
property float nz
end_header
-1170.35 1058.08 3593.23 -0.758946 -0.651117 0.00691207 
-1039.12 902.822 3334.05 -0.758946 -0.651117 0.00691207 
-878.168 710.355 2812.63 -0.758946 -0.651117 0.00691207 
-1097.54 970.796 3336.05 -0.758946 -0.651117 0.00691207 
-1104.65 981.413 3569.34 -0.758946 -0.651117 0.00691207 
-1121.36 998.982 3382.55 -0.758946 -0.651117 0.00691207 
-1039.85 901.247 3091.71 -0.758946 -0.651117 0.00691207 
-980.612 835.228 3381.39 -0.758946 -0.651117 0.00691207 
-1068.05 934.678 3154.54 -0.758946 -0.651117 0.00691207 
-1019.22 876.151 2982.64 -0.758946 -0.651117 0.00691207 
-1171.21 1058.26 3510.65 -0.758946 -0.651117 0.00691207 
-1079.25 951.691 3552.16 -0.758946 -0.651117 0.00691207 
-906.203 743.68 2883.54 -0.758946 -0.651117 0.00691207 
-975.107 827.532 3252.33 -0.758946 -0.651117 0.00691207 
-1040.47 905.768 3471.58 -0.758946 -0.651117 0.00691207 
-1293.14 1195.75 3076.8 -0.758946 -0.651117 0.00691207 
-1080.75 950.251 3234.49 -0.758946 -0.651117 0.00691207 
-1204.22 1094.44 3289.92 -0.758946 -0.651117 0.00691207 
-1184.53 1068.81 3017.38 -0.758946 -0.651117 0.00691207 
-1187.55 1075.57 3342.32 -0.758946 -0.651117 0.00691207 
-872.443 704.923 2935.18 -0.758946 -0.651117 0.00691207 
-932.352 775.08 2981.4 -0.758946 -0.651117 0.00691207 
-1096.88 972.002 3532.02 -0.758946 -0.651117 0.00691207 
-1135.67 1011.57 2977.5 -0.758946 -0.651117 0.00691207 
-1136.03 1012.21 2999.56 -0.758946 -0.651117 0.00691207 
-1085.94 961.142 3719.19 -0.758946 -0.651117 0.00691207 
-1023.13 879.381 2851.35 -0.758946 -0.651117 0.00691207 
-1033.17 894.826 3227.43 -0.758946 -0.651117 0.00691207 
-1287.34 1187.74 2951.09 -0.758946 -0.651117 0.00691207 
-1019.79 880.301 3330.46 -0.758946 -0.651117 0.00691207 
-1136.2 1013.67 3125.01 -0.758946 -0.651117 0.00691207 
-1023.47 882.651 3138.09 -0.758946 -0.651117 0.00691207 
-1110.87 986.708 3375.78 -0.758946 -0.651117 0.00691207 
-864.952 695.938 2908.26 -0.758946 -0.651117 0.00691207 
-1113.6 989.655 3353.48 -0.758946 -0.651117 0.00691207 
-1143.46 1021.52 3066.95 -0.758946 -0.651117 0.00691207 
-1022.32 880.889 3095.31 -0.758946 -0.651117 0.00691207 
-985.118 838.429 3177.61 -0.758946 -0.651117 0.00691207 
-810.197 630.829 2767.49 -0.758946 -0.651117 0.00691207 
-1033.98 896.09 3259 -0.758946 -0.651117 0.00691207 
-1084.88 954.322 3161.13 -0.758946 -0.651117 0.00691207 
-1190.23 1078.15 3287.25 -0.758946 -0.651117 0.00691207 
-1029.73 890.022 3146.83 -0.758946 -0.651117 0.00691207 
-1244.23 1141.46 3337.1 -0.758946 -0.651117 0.00691207 
-1107.61 986.454 3729.33 -0.758946 -0.651117 0.00691207 
-1217.31 1110.35 3357.24 -0.758946 -0.651117 0.00691207 
-876.272 708.763 2873.94 -0.758946 -0.651117 0.00691207 
-1086.63 954.803 3006.29 -0.758946 -0.651117 0.00691207 
-990.839 846.75 3343.86 -0.758946 -0.651117 0.00691207 
-818.502 642.015 2919.73 -0.758946 -0.651117 0.00691207 
-1283.95 1185.78 3148.41 -0.758946 -0.651117 0.00691207 
-1121.81 1000.84 3516.32 -0.758946 -0.651117 0.00691207 
-900.024 736.989 2933.28 -0.758946 -0.651117 0.00691207 
-1147.91 1031.57 3553.43 -0.758946 -0.651117 0.00691207 
-1071.83 943.751 3621.27 -0.758946 -0.651117 0.00691207 
-1325.62 1232.47 2970.27 -0.758946 -0.651117 0.00691207 
-1183.67 1070.11 3247.6 -0.758946 -0.651117 0.00691207 
-971.453 824.415 3365.61 -0.758946 -0.651117 0.00691207 
-1139.53 1015.96 2967.48 -0.758946 -0.651117 0.00691207 
-956.974 807.118 3320.37 -0.758946 -0.651117 0.00691207 
-1172.1 1058.03 3385.37 -0.758946 -0.651117 0.00691207 
-926.604 768.181 2960.26 -0.758946 -0.651117 0.00691207 
-937.816 782.877 3125.26 -0.758946 -0.651117 0.00691207 
-794.336 612.258 2755.48 -0.758946 -0.651117 0.00691207 
-1201.15 1090.1 3212.85 -0.758946 -0.651117 0.00691207 
-909.783 748.009 2899.98 -0.758946 -0.651117 0.00691207 
-1093.16 961.062 2872.03 -0.758946 -0.651117 0.00691207 
-1056.91 919.05 2888.03 -0.758946 -0.651117 0.00691207 
-1127.54 1000.9 2856.2 -0.758946 -0.651117 0.00691207 
-1158.91 1044.15 3531.38 -0.758946 -0.651117 0.00691207 
-1040.91 901.038 2947.95 -0.758946 -0.651117 0.00691207 
-1076.5 946.254 3328.71 -0.758946 -0.651117 0.00691207 
-957.299 807.323 3303.04 -0.758946 -0.651117 0.00691207 
-1029.43 887.297 2909.39 -0.758946 -0.651117 0.00691207 
-1108.06 978.129 2845.61 -0.758946 -0.651117 0.00691207 
-1222.33 1114.85 3223.53 -0.758946 -0.651117 0.00691207 
-1264.95 1162.93 3073.25 -0.758946 -0.651117 0.00691207 
-1287.77 1188 2925.54 -0.758946 -0.651117 0.00691207 
-1214.84 1103.15 2925.44 -0.758946 -0.651117 0.00691207 
-1110.4 985.816 3341.61 -0.758946 -0.651117 0.00691207 
-805.601 626.231 2842.3 -0.758946 -0.651117 0.00691207 
-895.111 730.308 2836.83 -0.758946 -0.651117 0.00691207 
-899.26 737.88 3110.98 -0.758946 -0.651117 0.00691207 
-1123.01 1002.21 3513.5 -0.758946 -0.651117 0.00691207 
-978.531 831.82 3282.79 -0.758946 -0.651117 0.00691207 
-1039.69 904.341 3420.19 -0.758946 -0.651117 0.00691207 
-1023.87 884.565 3283.39 -0.758946 -0.651117 0.00691207 
-1000.94 853.805 2875.14 -0.758946 -0.651117 0.00691207 
-1192.72 1077.91 2974.46 -0.758946 -0.651117 0.00691207 
-1101.7 979.366 3707.41 -0.758946 -0.651117 0.00691207 
-1068.09 933.902 3072.04 -0.758946 -0.651117 0.00691207 
-943.493 790.712 3248.1 -0.758946 -0.651117 0.00691207 
-770.741 585.219 2796.43 -0.758946 -0.651117 0.00691207 
-997.855 850.604 2913.68 -0.758946 -0.651117 0.00691207 
-1062.8 934.075 3704.78 -0.758946 -0.651117 0.00691207 
-1202.13 1088.81 2970.24 -0.758946 -0.651117 0.00691207 
-1121.2 993.637 2867.95 -0.758946 -0.651117 0.00691207 
-860.483 690.907 2925.1 -0.758946 -0.651117 0.00691207 
-795.411 613.115 2716.25 -0.758946 -0.651117 0.00691207 
-965.835 813.53 2931.26 -0.758946 -0.651117 0.00691207 
-1021.95 882.411 3290.37 -0.758946 -0.651117 0.00691207 
-1170.09 1054.82 3298.32 -0.758946 -0.651117 0.00691207 
-934.587 779.967 3209.71 -0.758946 -0.651117 0.00691207 
-1190.94 1077.47 3136.76 -0.758946 -0.651117 0.00691207 
-1063.87 932.228 3395.39 -0.758946 -0.651117 0.00691207 
-1121.65 1000.27 3477.57 -0.758946 -0.651117 0.00691207 
-1241.9 1137.58 3220.02 -0.758946 -0.651117 0.00691207 
-1088.27 955.152 2850.57 -0.758946 -0.651117 0.00691207 
-1021.57 884.012 3494.57 -0.758946 -0.651117 0.00691207 
-1270.19 1168.16 2987.5 -0.758946 -0.651117 0.00691207 
-1065.11 936.146 3642.45 -0.758946 -0.651117 0.00691207 
-1246.26 1140.93 3047.53 -0.758946 -0.651117 0.00691207 
-1128.45 1003.47 3007.64 -0.758946 -0.651117 0.00691207 
-1274.65 1175 3152.81 -0.758946 -0.651117 0.00691207 
-943.508 790.733 3248.54 -0.758946 -0.651117 0.00691207 
-1020.65 881.969 3397.04 -0.758946 -0.651117 0.00691207 
-962.724 812.889 3228.63 -0.758946 -0.651117 0.00691207 
-1230.59 1126.14 3391.94 -0.758946 -0.651117 0.00691207 
-1033.79 897.167 3389 -0.758946 -0.651117 0.00691207 
-995.548 847.968 2918.45 -0.758946 -0.651117 0.00691207 
-1077.74 947.019 3261.55 -0.758946 -0.651117 0.00691207 
-815.801 638.693 2901.75 -0.758946 -0.651117 0.00691207 
-953.969 802.916 3249.87 -0.758946 -0.651117 0.00691207 
-1011.38 866.664 2946.73 -0.758946 -0.651117 0.00691207 
-1146.82 1027.19 3241.76 -0.758946 -0.651117 0.00691207 
-852.455 679.956 2764.06 -0.758946 -0.651117 0.00691207 
-1037.54 901.108 3346.89 -0.758946 -0.651117 0.00691207 
-1160.06 1047.31 3712.35 -0.758946 -0.651117 0.00691207 
-1082.57 951.513 3148.46 -0.758946 -0.651117 0.00691207 
-995.875 852.978 3380.79 -0.758946 -0.651117 0.00691207 
-1100.04 970.508 3016.32 -0.758946 -0.651117 0.00691207 
-859.806 690.455 2958.63 -0.758946 -0.651117 0.00691207 
-1205.41 1096.65 3370.92 -0.758946 -0.651117 0.00691207 
-922.931 762.616 2831.3 -0.758946 -0.651117 0.00691207 
-908.25 746.437 2921.03 -0.758946 -0.651117 0.00691207 
-951.254 797.464 3020.83 -0.758946 -0.651117 0.00691207 
-913.803 755.643 3195.31 -0.758946 -0.651117 0.00691207 
-990.12 841.974 2950.47 -0.758946 -0.651117 0.00691207 
-1264.74 1161.85 2989.93 -0.758946 -0.651117 0.00691207 
-1049.27 915.821 3452.81 -0.758946 -0.651117 0.00691207 
-1171.48 1053.24 2978.21 -0.758946 -0.651117 0.00691207 
-952.253 800.516 3209.5 -0.758946 -0.651117 0.00691207 
-1033.38 897.668 3486.57 -0.758946 -0.651117 0.00691207 
-907.122 744.783 2886.98 -0.758946 -0.651117 0.00691207 
-1187.46 1075.39 3333.69 -0.758946 -0.651117 0.00691207 
-1233.34 1125.16 2974.55 -0.758946 -0.651117 0.00691207 
-920.198 761.483 3035.66 -0.758946 -0.651117 0.00691207 
-927.693 770.934 3108.73 -0.758946 -0.651117 0.00691207 
-1104.91 976.956 3094.13 -0.758946 -0.651117 0.00691207 
-1097.56 966.512 2905.46 -0.758946 -0.651117 0.00691207 
-1078.45 944.766 2953.57 -0.758946 -0.651117 0.00691207 
-1090.77 966.268 3670.18 -0.758946 -0.651117 0.00691207 
-1097.51 965.921 2851.94 -0.758946 -0.651117 0.00691207 
-1298.46 1200.81 2963.05 -0.758946 -0.651117 0.00691207 
-911.469 753.103 3212.75 -0.758946 -0.651117 0.00691207 
-925.638 770.222 3276.24 -0.758946 -0.651117 0.00691207 
-1107.72 986.856 3756.42 -0.758946 -0.651117 0.00691207 
-1010.52 866.906 3069.74 -0.758946 -0.651117 0.00691207 
-1233.02 1125.71 3065.98 -0.758946 -0.651117 0.00691207 
-894.532 732.425 3115.53 -0.758946 -0.651117 0.00691207 
-950.968 796.843 2992.05 -0.758946 -0.651117 0.00691207 
-1177.46 1061.12 3071.34 -0.758946 -0.651117 0.00691207 
-1051.13 913.646 3020.07 -0.758946 -0.651117 0.00691207 
-1161.58 1040.93 2899.38 -0.758946 -0.651117 0.00691207 
-1203.44 1089.85 2922.2 -0.758946 -0.651117 0.00691207 
-1026.41 890.338 3564.32 -0.758946 -0.651117 0.00691207 
-1057.85 925.218 3394.81 -0.758946 -0.651117 0.00691207 
-1247.31 1142.8 3112.96 -0.758946 -0.651117 0.00691207 
-1199.02 1084.38 2888.41 -0.758946 -0.651117 0.00691207 
-1163.3 1045.69 3175.34 -0.758946 -0.651117 0.00691207 
-1130.62 1013.97 3803.5 -0.758946 -0.651117 0.00691207 
-1015.93 876.221 3371.8 -0.758946 -0.651117 0.00691207 
-990.121 842.888 3041.63 -0.758946 -0.651117 0.00691207 
-948.187 794.709 3101.98 -0.758946 -0.651117 0.00691207 
-1093.03 969.485 3729.01 -0.758946 -0.651117 0.00691207 
-1117.42 989.307 2874.06 -0.758946 -0.651117 0.00691207 
-1212.25 1099.95 2906.62 -0.758946 -0.651117 0.00691207 
-1033.45 898.826 3594.08 -0.758946 -0.651117 0.00691207 
-817.504 638.804 2715.03 -0.758946 -0.651117 0.00691207 
-1122.99 1001.59 3453.89 -0.758946 -0.651117 0.00691207 
-876.974 710.959 3011.61 -0.758946 -0.651117 0.00691207 
-1277.73 1178.19 3113.04 -0.758946 -0.651117 0.00691207 
-872.579 706.044 3031.46 -0.758946 -0.651117 0.00691207 
-1182.26 1067.25 3125.32 -0.758946 -0.651117 0.00691207 
-1270.79 1170.17 3118.25 -0.758946 -0.651117 0.00691207 
-1113.91 990.14 3365.52 -0.758946 -0.651117 0.00691207 
-1038.12 902.788 3447.61 -0.758946 -0.651117 0.00691207 
-1169.06 1055 3435.2 -0.758946 -0.651117 0.00691207 
-1024.49 881.806 2934.92 -0.758946 -0.651117 0.00691207 
-1051.27 913.891 3028.49 -0.758946 -0.651117 0.00691207 
-818.281 640.331 2777.26 -0.758946 -0.651117 0.00691207 
-1025.52 885.942 3228.57 -0.758946 -0.651117 0.00691207 
-905.162 741.724 2809.21 -0.758946 -0.651117 0.00691207 
-979.361 831.294 3133.81 -0.758946 -0.651117 0.00691207 
-1245.88 1141.59 3158.8 -0.758946 -0.651117 0.00691207 
-1075.53 944.333 3250.19 -0.758946 -0.651117 0.00691207 
-1169.14 1054.47 3373.32 -0.758946 -0.651117 0.00691207 
-878.391 709.766 2727.93 -0.758946 -0.651117 0.00691207 
-1176.95 1059.99 3017.67 -0.758946 -0.651117 0.00691207 
-977.077 827.121 2982.51 -0.758946 -0.651117 0.00691207 
-1130.01 1006.07 3085.63 -0.758946 -0.651117 0.00691207 
-1140.85 1017.88 3006.31 -0.758946 -0.651117 0.00691207 
-956.893 802.142 2832.76 -0.758946 -0.651117 0.00691207 
-1106.05 983.626 3628.39 -0.758946 -0.651117 0.00691207 
-1246.47 1139.87 2917.8 -0.758946 -0.651117 0.00691207 
-1076.75 948.411 3514.82 -0.758946 -0.651117 0.00691207 
-895.113 729.241 2730.03 -0.758946 -0.651117 0.00691207 
-967.789 815.6 2910.91 -0.758946 -0.651117 0.00691207 
-1214.41 1104.52 3112.66 -0.758946 -0.651117 0.00691207 
-1181.61 1070.44 3519.34 -0.758946 -0.651117 0.00691207 
-1177.91 1061.85 3091.59 -0.758946 -0.651117 0.00691207 
-1200.68 1088.5 3107.41 -0.758946 -0.651117 0.00691207 
-742.535 551.413 2697.36 -0.758946 -0.651117 0.00691207 
-858.472 688.349 2903.21 -0.758946 -0.651117 0.00691207 
-1179.53 1061.57 2875.25 -0.758946 -0.651117 0.00691207 
-1207.21 1097.93 3290.59 -0.758946 -0.651117 0.00691207 
-1162.96 1048.09 3454.81 -0.758946 -0.651117 0.00691207 
-977.86 831.105 3289.29 -0.758946 -0.651117 0.00691207 
-1183.66 1073.55 3591.25 -0.758946 -0.651117 0.00691207 
-1105.72 981.323 3436.77 -0.758946 -0.651117 0.00691207 
-1243.93 1139.57 3183.14 -0.758946 -0.651117 0.00691207 
-1232.84 1126.66 3181.49 -0.758946 -0.651117 0.00691207 
-1154.07 1036.22 3301.19 -0.758946 -0.651117 0.00691207 
-1158.34 1039.7 3153.65 -0.758946 -0.651117 0.00691207 
-1268.43 1166.16 2991.92 -0.758946 -0.651117 0.00691207 
-1207.71 1098.92 3331.74 -0.758946 -0.651117 0.00691207 
-1141.7 1018.9 3008.75 -0.758946 -0.651117 0.00691207 
-1019.88 882.762 3565.69 -0.758946 -0.651117 0.00691207 
-799.022 617.929 2777.44 -0.758946 -0.651117 0.00691207 
-1142.74 1024.95 3492.33 -0.758946 -0.651117 0.00691207 
-1106.17 977.992 3051.27 -0.758946 -0.651117 0.00691207 
-1041.22 904.541 3261.44 -0.758946 -0.651117 0.00691207 
-906.089 742.04 2733.16 -0.758946 -0.651117 0.00691207 
-1054.4 917.296 3004.15 -0.758946 -0.651117 0.00691207 
-1092.09 969.01 3790.74 -0.758946 -0.651117 0.00691207 
-929.165 773.712 3215 -0.758946 -0.651117 0.00691207 
-1095.17 964.318 2963.94 -0.758946 -0.651117 0.00691207 
-1280.58 1181.94 3156.29 -0.758946 -0.651117 0.00691207 
-1010.06 869.403 3373.47 -0.758946 -0.651117 0.00691207 
-1069.01 933.658 2940.86 -0.758946 -0.651117 0.00691207 
-819.775 641.656 2736 -0.758946 -0.651117 0.00691207 
-998.215 854.834 3294.27 -0.758946 -0.651117 0.00691207 
-1260.59 1157.89 3077.1 -0.758946 -0.651117 0.00691207 
-981.198 832.96 3086.77 -0.758946 -0.651117 0.00691207 
-1150.16 1035.91 3724.94 -0.758946 -0.651117 0.00691207 
-978.174 826.556 2798.63 -0.758946 -0.651117 0.00691207 
-1189.76 1074.65 2992.9 -0.758946 -0.651117 0.00691207 
-1030.9 891.912 3199.32 -0.758946 -0.651117 0.00691207 
-826.783 651.968 2951.52 -0.758946 -0.651117 0.00691207 
-1158.1 1038.89 3100.03 -0.758946 -0.651117 0.00691207 
-924.834 767.144 3062.36 -0.758946 -0.651117 0.00691207 
-1148.25 1025.17 2874.19 -0.758946 -0.651117 0.00691207 
-1062.23 927.598 3123.78 -0.758946 -0.651117 0.00691207 
-1305.68 1209.51 2992.84 -0.758946 -0.651117 0.00691207 
-894.632 729.525 2814.24 -0.758946 -0.651117 0.00691207 
-1142.42 1021.98 3232.16 -0.758946 -0.651117 0.00691207 
-1051.86 918.597 3429.72 -0.758946 -0.651117 0.00691207 
-1137.64 1018.22 3412.69 -0.758946 -0.651117 0.00691207 
-1227.36 1121.95 3347.83 -0.758946 -0.651117 0.00691207 
-1034.47 894.606 3054.04 -0.758946 -0.651117 0.00691207 
-755.033 565.894 2691.52 -0.758946 -0.651117 0.00691207 
-1156.94 1038.53 3198.92 -0.758946 -0.651117 0.00691207 
-976.425 829.136 3259.43 -0.758946 -0.651117 0.00691207 
-110.047 677.093 3443.35 0.61581 -0.719253 -0.321643 
-138.335 831.352 3041.87 0.61581 -0.719253 -0.321643 
-94.6427 773.902 3255.22 0.61581 -0.719253 -0.321643 
154.591 1019.51 3182.51 0.61581 -0.719253 -0.321643 
-238.697 578.495 3417.49 0.61581 -0.719253 -0.321643 
-301.449 487.996 3500.27 0.61581 -0.719253 -0.321643 
-346.621 536.703 3303.73 0.61581 -0.719253 -0.321643 
-404.512 391.178 3519.66 0.61581 -0.719253 -0.321643 
36.2685 775.542 3503.55 0.61581 -0.719253 -0.321643 
62.5729 1062.62 2908.38 0.61581 -0.719253 -0.321643 
5.75861 967.393 3013.24 0.61581 -0.719253 -0.321643 
68.9305 917.88 3246.23 0.61581 -0.719253 -0.321643 
-181.648 738.654 3167.02 0.61581 -0.719253 -0.321643 
-259.185 618.949 3287.04 0.61581 -0.719253 -0.321643 
18.4835 848.449 3305.3 0.61581 -0.719253 -0.321643 
-411.297 381.125 3529.21 0.61581 -0.719253 -0.321643 
95.8998 984.206 3148.94 0.61581 -0.719253 -0.321643 
-11.8459 907.503 3114.07 0.61581 -0.719253 -0.321643 
-190.33 731.241 3166.98 0.61581 -0.719253 -0.321643 
-384.47 407.461 3521.61 0.61581 -0.719253 -0.321643 
-496.845 289.279 3571.14 0.61581 -0.719253 -0.321643 
20.4343 910.941 3168.48 0.61581 -0.719253 -0.321643 
-372.552 487.358 3364.82 0.61581 -0.719253 -0.321643 
-205.615 614.33 3400.56 0.61581 -0.719253 -0.321643 
12.426 833.578 3327.1 0.61581 -0.719253 -0.321643 
61.9169 1011.47 3022.19 0.61581 -0.719253 -0.321643 
-285.273 572.363 3341.62 0.61581 -0.719253 -0.321643 
-97.0501 721.144 3369.27 0.61581 -0.719253 -0.321643 
103.674 1024.64 3072.94 0.61581 -0.719253 -0.321643 
31.5507 1097.28 2770.7 0.61581 -0.719253 -0.321643 
180.346 951.114 3385.95 0.61581 -0.719253 -0.321643 
-224.434 606.401 3382.17 0.61581 -0.719253 -0.321643 
99.2823 952.528 3226.72 0.61581 -0.719253 -0.321643 
-182.042 619.574 3434.14 0.61581 -0.719253 -0.321643 
-350.118 484.232 3415.04 0.61581 -0.719253 -0.321643 
-17.8907 1058.11 2763.65 0.61581 -0.719253 -0.321643 
44.5005 1061.22 2876.76 0.61581 -0.719253 -0.321643 
-125.473 646.287 3482.95 0.61581 -0.719253 -0.321643 
-65.3369 715.755 3442.45 0.61581 -0.719253 -0.321643 
-45.7095 875.282 3121.36 0.61581 -0.719253 -0.321643 
58.8575 918.85 3224.66 0.61581 -0.719253 -0.321643 
95.8162 810.589 3539.34 0.61581 -0.719253 -0.321643 
90.0916 1076.8 2929.48 0.61581 -0.719253 -0.321643 
59.731 830.476 3425.14 0.61581 -0.719253 -0.321643 
-145.031 675.448 3379.7 0.61581 -0.719253 -0.321643 
-331.849 515.968 3378.82 0.61581 -0.719253 -0.321643 
-347.466 507.325 3368.2 0.61581 -0.719253 -0.321643 
76.3691 829.022 3460.44 0.61581 -0.719253 -0.321643 
-144.864 679.403 3371.12 0.61581 -0.719253 -0.321643 
-323.234 525.237 3374.55 0.61581 -0.719253 -0.321643 
-222.652 668.027 3246.97 0.61581 -0.719253 -0.321643 
-133.646 712.948 3317.26 0.61581 -0.719253 -0.321643 
98.0344 861.831 3428.34 0.61581 -0.719253 -0.321643 
40.5318 1129.06 2716.5 0.61581 -0.719253 -0.321643 
-40.0145 680.99 3569.4 0.61581 -0.719253 -0.321643 
-41.6788 1023.31 2796.11 0.61581 -0.719253 -0.321643 
-191.672 590.536 3480.93 0.61581 -0.719253 -0.321643 
-144.717 779.328 3146.62 0.61581 -0.719253 -0.321643 
-33.5565 918.603 3047.31 0.61581 -0.719253 -0.321643 
-39.247 831.485 3232.33 0.61581 -0.719253 -0.321643 
-187.675 640.827 3375.49 0.61581 -0.719253 -0.321643 
-496.521 290.503 3569.01 0.61581 -0.719253 -0.321643 
-388.183 431.293 3460.85 0.61581 -0.719253 -0.321643 
127.659 881.428 3441.29 0.61581 -0.719253 -0.321643 
-8.19336 1017.82 2872.93 0.61581 -0.719253 -0.321643 
-37.3098 859.433 3173.19 0.61581 -0.719253 -0.321643 
-62.4518 937.109 2950.05 0.61581 -0.719253 -0.321643 
-71.8505 945.863 2912.26 0.61581 -0.719253 -0.321643 
84.3521 1030.96 3021.55 0.61581 -0.719253 -0.321643 
-112.85 649.524 3499.97 0.61581 -0.719253 -0.321643 
-100.615 784.212 3220.53 0.61581 -0.719253 -0.321643 
-76.473 957.585 2877 0.61581 -0.719253 -0.321643 
-48.1148 952.453 2943.13 0.61581 -0.719253 -0.321643 
-114.104 836.623 3076.66 0.61581 -0.719253 -0.321643 
-381.363 440.571 3453.11 0.61581 -0.719253 -0.321643 
-40.3572 704.149 3516.64 0.61581 -0.719253 -0.321643 
-118.703 782.845 3188.79 0.61581 -0.719253 -0.321643 
-20.6384 755.421 3439.26 0.61581 -0.719253 -0.321643 
-133.591 770.097 3188.8 0.61581 -0.719253 -0.321643 
-5.74188 909.282 3121.82 0.61581 -0.719253 -0.321643 
76.9064 810.825 3502.41 0.61581 -0.719253 -0.321643 
-58.9288 812.755 3236.57 0.61581 -0.719253 -0.321643 
-130.513 739.108 3264.44 0.61581 -0.719253 -0.321643 
-123.545 846.687 3035.85 0.61581 -0.719253 -0.321643 
-162.006 838.204 2980.89 0.61581 -0.719253 -0.321643 
-383.937 467.146 3388.37 0.61581 -0.719253 -0.321643 
-346.056 456.225 3485.86 0.61581 -0.719253 -0.321643 
39.2071 853.837 3333.08 0.61581 -0.719253 -0.321643 
-101.021 820.576 3137.95 0.61581 -0.719253 -0.321643 
-215.979 611.163 3387.73 0.61581 -0.719253 -0.321643 
-230.781 645.973 3280.93 0.61581 -0.719253 -0.321643 
-190.91 594.432 3473.63 0.61581 -0.719253 -0.321643 
-149.745 612.489 3512.25 0.61581 -0.719253 -0.321643 
-184.723 603.515 3465.1 0.61581 -0.719253 -0.321643 
29.2189 891.776 3228.5 0.61581 -0.719253 -0.321643 
12.3986 900.076 3177.45 0.61581 -0.719253 -0.321643 
-130.699 881.037 2944.81 0.61581 -0.719253 -0.321643 
-96.8181 830.848 3122.93 0.61581 -0.719253 -0.321643 
-79.3379 738.09 3365.25 0.61581 -0.719253 -0.321643 
-363.028 478.679 3402.68 0.61581 -0.719253 -0.321643 
-378.274 394.817 3561.98 0.61581 -0.719253 -0.321643 
-255.197 537.469 3478.01 0.61581 -0.719253 -0.321643 
112.223 972.983 3205.61 0.61581 -0.719253 -0.321643 
146.054 845.514 3557.49 0.61581 -0.719253 -0.321643 
-18.9741 835.464 3262.4 0.61581 -0.719253 -0.321643 
19.9092 1127.68 2679.91 0.61581 -0.719253 -0.321643 
112.282 887.234 3398.63 0.61581 -0.719253 -0.321643 
87.5499 905.287 3310.4 0.61581 -0.719253 -0.321643 
0.0515137 944.009 3054.85 0.61581 -0.719253 -0.321643 
-79.8311 961.48 2861.77 0.61581 -0.719253 -0.321643 
237.685 924.779 3555.58 0.61581 -0.719253 -0.321643 
-20.369 762.042 3424.89 0.61581 -0.719253 -0.321643 
77.8333 1098.98 2855.97 0.61581 -0.719253 -0.321643 
58.2331 924.076 3211.7 0.61581 -0.719253 -0.321643 
-288.915 588.093 3299.22 0.61581 -0.719253 -0.321643 
-62.2429 671.913 3547.03 0.61581 -0.719253 -0.321643 
176.334 903.715 3484.86 0.61581 -0.719253 -0.321643 
73.3504 955.586 3169.92 0.61581 -0.719253 -0.321643 
-235.406 552.522 3482.25 0.61581 -0.719253 -0.321643 
202.174 984.322 3353.27 0.61581 -0.719253 -0.321643 
49.9224 885.023 3283.55 0.61581 -0.719253 -0.321643 
-310.084 558.246 3325.61 0.61581 -0.719253 -0.321643 
-254.159 658.991 3206.64 0.61581 -0.719253 -0.321643 
-79.7329 754.499 3327.57 0.61581 -0.719253 -0.321643 
-292.42 617.876 3225.47 0.61581 -0.719253 -0.321643 
-59.5519 746.924 3383.47 0.61581 -0.719253 -0.321643 
34.0494 789.494 3467.89 0.61581 -0.719253 -0.321643 
-17.9753 967.95 2966.29 0.61581 -0.719253 -0.321643 
-67.7066 917.937 2983.06 0.61581 -0.719253 -0.321643 
117.292 905.681 3366.77 0.61581 -0.719253 -0.321643 
16.2781 958.103 3054.38 0.61581 -0.719253 -0.321643 
-237.931 604.754 3359.89 0.61581 -0.719253 -0.321643 
136.518 920.981 3369.37 0.61581 -0.719253 -0.321643 
-67.7712 976.627 2850.91 0.61581 -0.719253 -0.321643 
182.467 872.801 3566.21 0.61581 -0.719253 -0.321643 
-132.145 692.118 3367.01 0.61581 -0.719253 -0.321643 
77.9984 1125.5 2796.64 0.61581 -0.719253 -0.321643 
-189.511 765.78 3090.86 0.61581 -0.719253 -0.321643 
-222.301 600.136 3400.36 0.61581 -0.719253 -0.321643 
35.7358 1130.68 2703.63 0.61581 -0.719253 -0.321643 
-215.829 696.708 3195.58 0.61581 -0.719253 -0.321643 
-236.644 623.882 3319.34 0.61581 -0.719253 -0.321643 
45.1807 1131.06 2720.96 0.61581 -0.719253 -0.321643 
151.049 895.925 3453.7 0.61581 -0.719253 -0.321643 
-212.766 630.038 3351.46 0.61581 -0.719253 -0.321643 
-186.2 565.667 3547.4 0.61581 -0.719253 -0.321643 
-272.561 517.702 3489.05 0.61581 -0.719253 -0.321643 
177.13 953.278 3374.89 0.61581 -0.719253 -0.321643 
-177.761 752.743 3142.81 0.61581 -0.719253 -0.321643 
-172.858 792.421 3062.99 0.61581 -0.719253 -0.321643 
-19.0567 1000.2 2891.67 0.61581 -0.719253 -0.321643 
-305.109 477.336 3517.2 0.61581 -0.719253 -0.321643 
-52.8145 805.517 3264.63 0.61581 -0.719253 -0.321643 
-112.246 739.476 3298.78 0.61581 -0.719253 -0.321643 
123.091 933.128 3316.19 0.61581 -0.719253 -0.321643 
-35.5818 944.583 2984.96 0.61581 -0.719253 -0.321643 
123.102 911.473 3364.93 0.61581 -0.719253 -0.321643 
15.2384 742.924 3536.44 0.61581 -0.719253 -0.321643 
-51.7894 934.83 2975.7 0.61581 -0.719253 -0.321643 
-347.606 498.265 3388.31 0.61581 -0.719253 -0.321643 
157.59 999.12 3234.15 0.61581 -0.719253 -0.321643 
104.915 1059.77 2996.31 0.61581 -0.719253 -0.321643 
-414.528 389.307 3504.58 0.61581 -0.719253 -0.321643 
-18.2062 815.725 3308.29 0.61581 -0.719253 -0.321643 
-254.95 662.717 3196.73 0.61581 -0.719253 -0.321643 
-282.301 619.553 3241.18 0.61581 -0.719253 -0.321643 
195.56 957.575 3400.71 0.61581 -0.719253 -0.321643 
-214.686 753.468 3070.1 0.61581 -0.719253 -0.321643 
56.0298 1067.81 2884.11 0.61581 -0.719253 -0.321643 
-159.069 640.186 3432 0.61581 -0.719253 -0.321643 
18.1774 1028.76 2899.09 0.61581 -0.719253 -0.321643 
-244.088 536.229 3502.19 0.61581 -0.719253 -0.321643 
-263.381 583.423 3358.88 0.61581 -0.719253 -0.321643 
48.3122 896.961 3253.6 0.61581 -0.719253 -0.321643 
-238.019 595.646 3380.21 0.61581 -0.719253 -0.321643 
-274.214 618.643 3258.8 0.61581 -0.719253 -0.321643 
194.132 930.593 3458.65 0.61581 -0.719253 -0.321643 
-69.8746 966.731 2869.12 0.61581 -0.719253 -0.321643 
-247.654 670.755 3192.7 0.61581 -0.719253 -0.321643 
-307.158 546.61 3357.42 0.61581 -0.719253 -0.321643 
158.145 1022.55 3182.52 0.61581 -0.719253 -0.321643 
-7.06235 913.863 3108.97 0.61581 -0.719253 -0.321643 
56.1636 981.325 3078.93 0.61581 -0.719253 -0.321643 
-140.322 625.102 3502.02 0.61581 -0.719253 -0.321643 
-269.581 540.568 3443.35 0.61581 -0.719253 -0.321643 
-173.956 802.495 3038.21 0.61581 -0.719253 -0.321643 
12.8922 859.707 3269.21 0.61581 -0.719253 -0.321643 
-72.4744 743.438 3366.43 0.61581 -0.719253 -0.321643 
126.434 915.651 3361.94 0.61581 -0.719253 -0.321643 
107.925 968.244 3208 0.61581 -0.719253 -0.321643 
18.7031 908.457 3170.74 0.61581 -0.719253 -0.321643 
-37.8362 901.197 3078.22 0.61581 -0.719253 -0.321643 
39.2802 864.73 3308.71 0.61581 -0.719253 -0.321643 
60.8596 778.728 3543.72 0.61581 -0.719253 -0.321643 
-41.308 1017.11 2810.79 0.61581 -0.719253 -0.321643 
-71.8594 842.681 3144.36 0.61581 -0.719253 -0.321643 
-31.2122 1051.43 2753.01 0.61581 -0.719253 -0.321643 
-412.043 404.038 3476.23 0.61581 -0.719253 -0.321643 
-85.8726 822.548 3162.68 0.61581 -0.719253 -0.321643 
-59.9612 758.144 3357.44 0.61581 -0.719253 -0.321643 
-200.491 631.08 3372.74 0.61581 -0.719253 -0.321643 
-110.735 798.02 3169.99 0.61581 -0.719253 -0.321643 
81.3155 1077.81 2910.29 0.61581 -0.719253 -0.321643 
30.539 987.767 3015.11 0.61581 -0.719253 -0.321643 
17.9093 855.56 3288.2 0.61581 -0.719253 -0.321643 
51.7019 840.376 3387.41 0.61581 -0.719253 -0.321643 
-70.3889 851.404 3127.57 0.61581 -0.719253 -0.321643 
-161.939 824.128 3012.69 0.61581 -0.719253 -0.321643 
186.692 930.015 3445.63 0.61581 -0.719253 -0.321643 
92.316 803.087 3549.48 0.61581 -0.719253 -0.321643 
-276.455 626.965 3235.76 0.61581 -0.719253 -0.321643 
78.7417 1012.89 3051.39 0.61581 -0.719253 -0.321643 
56.1732 767.979 3558.88 0.61581 -0.719253 -0.321643 
-274.125 566.555 3376.14 0.61581 -0.719253 -0.321643 
137.801 834.606 3566.14 0.61581 -0.719253 -0.321643 
138.034 939.471 3330.69 0.61581 -0.719253 -0.321643 
-236.129 629.386 3307.95 0.61581 -0.719253 -0.321643 
-37.0728 737.381 3448.21 0.61581 -0.719253 -0.321643 
66.9399 961.258 3144.82 0.61581 -0.719253 -0.321643 
-373.46 434.192 3482.67 0.61581 -0.719253 -0.321643 
102.349 940.874 3258.84 0.61581 -0.719253 -0.321643 
112.366 957.046 3241.74 0.61581 -0.719253 -0.321643 
-134.267 704.083 3336 0.61581 -0.719253 -0.321643 
-194.141 693.364 3244.86 0.61581 -0.719253 -0.321643 
-247.711 609.322 3330.79 0.61581 -0.719253 -0.321643 
-49.0105 1004.21 2824.98 0.61581 -0.719253 -0.321643 
-205.392 710.842 3183.88 0.61581 -0.719253 -0.321643 
-152.671 784.129 3120.51 0.61581 -0.719253 -0.321643 
66.8119 803.425 3499.62 0.61581 -0.719253 -0.321643 
-68.3018 867.659 3095.02 0.61581 -0.719253 -0.321643 
100.845 1010.62 3099.04 0.61581 -0.719253 -0.321643 
-24.8072 828.538 3266.76 0.61581 -0.719253 -0.321643 
-29.9118 936.11 3014.94 0.61581 -0.719253 -0.321643 
-184.016 775.119 3080.43 0.61581 -0.719253 -0.321643 
14.6035 944.014 3082.86 0.61581 -0.719253 -0.321643 
211.507 931.111 3490.94 0.61581 -0.719253 -0.321643 
-82.5398 909.492 2973.5 0.61581 -0.719253 -0.321643 
-144.042 638.375 3465 0.61581 -0.719253 -0.321643 
-108.372 820.007 3125.08 0.61581 -0.719253 -0.321643 
-168.244 740.576 3188.5 0.61581 -0.719253 -0.321643 
36.7379 851.75 3333.02 0.61581 -0.719253 -0.321643 
23.1902 893.105 3213.91 0.61581 -0.719253 -0.321643 
51.5885 953.478 3132.76 0.61581 -0.719253 -0.321643 
-127.888 715.067 3323.58 0.61581 -0.719253 -0.321643 
37.3463 831.061 3380.73 0.61581 -0.719253 -0.321643 
4.00568 807.983 3368.46 0.61581 -0.719253 -0.321643 
112.759 1052.93 3026.8 0.61581 -0.719253 -0.321643 
131.869 979.865 3227.95 0.61581 -0.719253 -0.321643 
-356.226 413.256 3562.95 0.61581 -0.719253 -0.321643 
106.891 826.681 3524.46 0.61581 -0.719253 -0.321643 
-66.8135 702.015 3470.51 0.61581 -0.719253 -0.321643 
62.4445 1059.3 2915.62 0.61581 -0.719253 -0.321643 
-15.0661 754.134 3452.88 0.61581 -0.719253 -0.321643 
10.3532 853.333 3278.66 0.61581 -0.719253 -0.321643 
52.7396 1019.94 2985.48 0.61581 -0.719253 -0.321643 
-82.9906 818.509 3177.31 0.61581 -0.719253 -0.321643 
-33.4018 908.367 3070.63 0.61581 -0.719253 -0.321643 
-220.734 605.47 3391.38 0.61581 -0.719253 -0.321643 
19.0193 876.774 3242.62 0.61581 -0.719253 -0.321643 
80.6172 1008.41 3065.08 0.61581 -0.719253 -0.321643 
-105.524 807.331 3159.08 0.61581 -0.719253 -0.321643 
-9.04633 713.779 3555.26 0.61581 -0.719253 -0.321643 
53.528 866.845 3331.38 0.61581 -0.719253 -0.321643 
67.5032 793.817 3522.57 0.61581 -0.719253 -0.321643 
168.046 869.635 3545.57 0.61581 -0.719253 -0.321643 
-103.058 673.579 3464.71 0.61581 -0.719253 -0.321643 
36.6272 831.659 3378 0.61581 -0.719253 -0.321643 
-123.351 665.612 3443.56 0.61581 -0.719253 -0.321643 
-59.8236 828.992 3198.33 0.61581 -0.719253 -0.321643 
-1.70517 1012.67 2897.01 0.61581 -0.719253 -0.321643 
76.6008 1119.61 2807.2 0.61581 -0.719253 -0.321643 
54.5745 1070.86 2874.45 0.61581 -0.719253 -0.321643 
101.063 811.041 3548.43 0.61581 -0.719253 -0.321643 
163.855 965.516 3321.81 0.61581 -0.719253 -0.321643 
234.728 918.714 3563.53 0.61581 -0.719253 -0.321643 
83.5395 858.531 3407.86 0.61581 -0.719253 -0.321643 
-26.884 822.266 3276.87 0.61581 -0.719253 -0.321643 
-232.733 523.356 3553.01 0.61581 -0.719253 -0.321643 
19.7115 1081.96 2782.37 0.61581 -0.719253 -0.321643 
92.9299 795.012 3568.83 0.61581 -0.719253 -0.321643 
156.108 1027.35 3167.79 0.61581 -0.719253 -0.321643 
-76.6863 721.194 3408.36 0.61581 -0.719253 -0.321643 
-20.4235 922.913 3062.89 0.61581 -0.719253 -0.321643 
-227.127 616.323 3354.66 0.61581 -0.719253 -0.321643 
52.8146 980.39 3074.59 0.61581 -0.719253 -0.321643 
54.7775 975.619 3089.1 0.61581 -0.719253 -0.321643 
99.2072 1007.31 3103.34 0.61581 -0.719253 -0.321643 
-104.656 829.846 3110.1 0.61581 -0.719253 -0.321643 
0.358032 1056.12 2803.25 0.61581 -0.719253 -0.321643 
6.21344 734.102 3538.91 0.61581 -0.719253 -0.321643 
-206.923 623.341 3377.77 0.61581 -0.719253 -0.321643 
220.542 956.858 3450.41 0.61581 -0.719253 -0.321643 
-324.956 521.81 3378.95 0.61581 -0.719253 -0.321643 
-240.79 702.771 3133.89 0.61581 -0.719253 -0.321643 
-444.359 376.42 3476.15 0.61581 -0.719253 -0.321643 
-169.665 700.091 3276.84 0.61581 -0.719253 -0.321643 
76.1827 821.289 3477.48 0.61581 -0.719253 -0.321643 
-450.504 335.522 3556.32 0.61581 -0.719253 -0.321643 
12.0967 945.405 3074.9 0.61581 -0.719253 -0.321643 
-167.732 732.922 3206.71 0.61581 -0.719253 -0.321643 
-403.055 433.504 3427.25 0.61581 -0.719253 -0.321643 
41.5368 923.458 3180.95 0.61581 -0.719253 -0.321643 
6.15741 875.101 3221.62 0.61581 -0.719253 -0.321643 
-96.3495 881.101 3010.79 0.61581 -0.719253 -0.321643 
27.6881 972.226 3044.58 0.61581 -0.719253 -0.321643 
-24.329 955.294 2982.53 0.61581 -0.719253 -0.321643 
98.5791 1043.55 3020.6 0.61581 -0.719253 -0.321643 
-145.579 720.371 3277.59 0.61581 -0.719253 -0.321643 
-327.122 538.176 3337.96 0.61581 -0.719253 -0.321643 
185.851 881.055 3554.15 0.61581 -0.719253 -0.321643 
205.313 932.478 3475.94 0.61581 -0.719253 -0.321643 
86.8243 958.561 3189.16 0.61581 -0.719253 -0.321643 
-531.028 506.714 3016.2 0.61581 -0.719253 -0.321643 
-467.971 412.763 3348.94 0.61581 -0.719253 -0.321643 
-254.256 805.057 2877.87 0.61581 -0.719253 -0.321643 
-355.859 691.875 2936.88 0.61581 -0.719253 -0.321643 
-289.69 858.281 2689.92 0.61581 -0.719253 -0.321643 
-497.255 605.239 2859.57 0.61581 -0.719253 -0.321643 
-406.41 545.227 3169.46 0.61581 -0.719253 -0.321643 
-58.9368 1024.86 2759.42 0.61581 -0.719253 -0.321643 
-555.351 522.601 2933.63 0.61581 -0.719253 -0.321643 
-418.85 728.156 2734 0.61581 -0.719253 -0.321643 
-198.135 916.934 2734.23 0.61581 -0.719253 -0.321643 
-520.348 499.743 3052.44 0.61581 -0.719253 -0.321643 
-333.512 628.931 3121.5 0.61581 -0.719253 -0.321643 
-402.33 728.578 2764.85 0.61581 -0.719253 -0.321643 
-65.5792 1026.95 2741.93 0.61581 -0.719253 -0.321643 
-237.687 849.574 2809.62 0.61581 -0.719253 -0.321643 
-328.713 654.1 3074.12 0.61581 -0.719253 -0.321643 
-460.81 739.594 2627.5 0.61581 -0.719253 -0.321643 
-495.271 497.324 3106.16 0.61581 -0.719253 -0.321643 
-683.384 501.062 2735.61 0.61581 -0.719253 -0.321643 
-477.496 326.412 3524.85 0.61581 -0.719253 -0.321643 
-385.636 798.449 2639.81 0.61581 -0.719253 -0.321643 
-511.062 312.668 3491.15 0.61581 -0.719253 -0.321643 
-528.388 645.664 2708.7 0.61581 -0.719253 -0.321643 
-159.77 945.561 2743.69 0.61581 -0.719253 -0.321643 
-593.739 562.63 2769.68 0.61581 -0.719253 -0.321643 
-519.028 623.261 2777.12 0.61581 -0.719253 -0.321643 
-178.205 933.197 2736.01 0.61581 -0.719253 -0.321643 
-261.029 819.527 2832.28 0.61581 -0.719253 -0.321643 
-593.171 505.987 2898.2 0.61581 -0.719253 -0.321643 
-221.037 922.259 2678.16 0.61581 -0.719253 -0.321643 
-525.117 655.283 2693.36 0.61581 -0.719253 -0.321643 
-492.364 582.807 2919.45 0.61581 -0.719253 -0.321643 
-567.622 576.777 2788.14 0.61581 -0.719253 -0.321643 
-353.274 762.907 2782.07 0.61581 -0.719253 -0.321643 
-512.843 452.066 3174.14 0.61581 -0.719253 -0.321643 
-73.1801 1072.47 2624.9 0.61581 -0.719253 -0.321643 
-417.693 759.523 2665.67 0.61581 -0.719253 -0.321643 
-530.678 437.476 3172.63 0.61581 -0.719253 -0.321643 
-445.694 522.186 3145.67 0.61581 -0.719253 -0.321643 
-373.419 769.698 2728.01 0.61581 -0.719253 -0.321643 
-431.494 631.527 2927.03 0.61581 -0.719253 -0.321643 
-467.517 558.48 3022.01 0.61581 -0.719253 -0.321643 
-431.384 707.898 2755.44 0.61581 -0.719253 -0.321643 
-137.397 919.621 2845.11 0.61581 -0.719253 -0.321643 
-441.665 506.007 3189.82 0.61581 -0.719253 -0.321643 
-657.454 509.377 2766.82 0.61581 -0.719253 -0.321643 
-394.384 556.512 3167.23 0.61581 -0.719253 -0.321643 
-425.276 434.313 3382.65 0.61581 -0.719253 -0.321643 
-438.493 476.499 3262.31 0.61581 -0.719253 -0.321643 
-367.915 521.375 3297.22 0.61581 -0.719253 -0.321643 
-668.267 522.256 2717.04 0.61581 -0.719253 -0.321643 
-323.821 851.433 2639.62 0.61581 -0.719253 -0.321643 
-70.1472 1048.09 2685.59 0.61581 -0.719253 -0.321643 
-551.171 510.608 2968.66 0.61581 -0.719253 -0.321643 
-168.281 917.799 2789.76 0.61581 -0.719253 -0.321643 
-262.262 732.856 3024.88 0.61581 -0.719253 -0.321643 
-563.081 519.537 2925.65 0.61581 -0.719253 -0.321643 
-470.546 624.189 2868.36 0.61581 -0.719253 -0.321643 
-571.863 595.081 2738.8 0.61581 -0.719253 -0.321643 
-400.752 463.598 3363.98 0.61581 -0.719253 -0.321643 
-659.187 492.874 2800.61 0.61581 -0.719253 -0.321643 
-489.407 503.056 3104.55 0.61581 -0.719253 -0.321643 
-467.462 432.533 3305.44 0.61581 -0.719253 -0.321643 
-491.573 417.607 3292.6 0.61581 -0.719253 -0.321643 
-346.783 619.905 3116.25 0.61581 -0.719253 -0.321643 
-491.931 573.367 2941.52 0.61581 -0.719253 -0.321643 
-612.325 516.886 2836.81 0.61581 -0.719253 -0.321643 
-474.746 630.222 2846.71 0.61581 -0.719253 -0.321643 
-157.063 918.909 2808.86 0.61581 -0.719253 -0.321643 
-378.021 493.696 3340.03 0.61581 -0.719253 -0.321643 
-534.793 664.622 2653.73 0.61581 -0.719253 -0.321643 
-567.797 384.707 3219.87 0.61581 -0.719253 -0.321643 
-451.518 574.591 3016.57 0.61581 -0.719253 -0.321643 
-75.167 1054.84 2660.72 0.61581 -0.719253 -0.321643 
-556.073 552.856 2864.18 0.61581 -0.719253 -0.321643 
-325.145 703.951 2968.84 0.61581 -0.719253 -0.321643 
-571.859 423.932 3123.82 0.61581 -0.719253 -0.321643 
-4.49933 1105.83 2682.07 0.61581 -0.719253 -0.321643 
-430.948 519.74 3179.56 0.61581 -0.719253 -0.321643 
-469.137 550.574 3036.68 0.61581 -0.719253 -0.321643 
-410.621 781.716 2629.36 0.61581 -0.719253 -0.321643 
-497.121 514.626 3063.67 0.61581 -0.719253 -0.321643 
-458.957 739.403 2631.49 0.61581 -0.719253 -0.321643 
-335.214 659.829 3048.71 0.61581 -0.719253 -0.321643 
-380.617 644.918 2994.85 0.61581 -0.719253 -0.321643 
-416.679 773.447 2636.3 0.61581 -0.719253 -0.321643 
-127.053 977.236 2735.42 0.61581 -0.719253 -0.321643 
-488.123 429.975 3271.42 0.61581 -0.719253 -0.321643 
-329.56 625.397 3137.06 0.61581 -0.719253 -0.321643 
-315.87 743.956 2896.71 0.61581 -0.719253 -0.321643 
-622.762 492.675 2871.18 0.61581 -0.719253 -0.321643 
-168.697 979.91 2649.24 0.61581 -0.719253 -0.321643 
-556.08 526.341 2923.82 0.61581 -0.719253 -0.321643 
-476.822 434.65 3282.66 0.61581 -0.719253 -0.321643 
-408.673 735.439 2737.21 0.61581 -0.719253 -0.321643 
-248.541 902.507 2669.65 0.61581 -0.719253 -0.321643 
-163.889 853.729 2942.34 0.61581 -0.719253 -0.321643 
-648.821 458.404 2898.11 0.61581 -0.719253 -0.321643 
-264.313 905.148 2633.35 0.61581 -0.719253 -0.321643 
-410.769 682.783 2851.63 0.61581 -0.719253 -0.321643 
-532.346 567.606 2876.68 0.61581 -0.719253 -0.321643 
-427.83 684.797 2814.25 0.61581 -0.719253 -0.321643 
-373.588 680.319 2928.75 0.61581 -0.719253 -0.321643 
-652.839 511.432 2771.09 0.61581 -0.719253 -0.321643 
-93.7608 1040.51 2657.16 0.61581 -0.719253 -0.321643 
-116.802 1029.77 2636.98 0.61581 -0.719253 -0.321643 
-581.719 383.168 3196.54 0.61581 -0.719253 -0.321643 
-517.073 671.735 2671.84 0.61581 -0.719253 -0.321643 
-147.309 925.794 2812.15 0.61581 -0.719253 -0.321643 
-120.991 1018.65 2653.92 0.61581 -0.719253 -0.321643 
-591.732 391.885 3157.65 0.61581 -0.719253 -0.321643 
-617.656 444.293 2989.85 0.61581 -0.719253 -0.321643 
-166.679 967.612 2680.78 0.61581 -0.719253 -0.321643 
-566.85 597.722 2742.51 0.61581 -0.719253 -0.321643 
-123.977 980.333 2734.37 0.61581 -0.719253 -0.321643 
-411.273 596.793 3044.1 0.61581 -0.719253 -0.321643 
-605.45 465.995 2964.53 0.61581 -0.719253 -0.321643 
-489.95 568.289 2956.76 0.61581 -0.719253 -0.321643 
-341.199 629.069 3106.39 0.61581 -0.719253 -0.321643 
-488.073 658.252 2758 0.61581 -0.719253 -0.321643 
-126.347 1012.23 2658.07 0.61581 -0.719253 -0.321643 
-449.794 734.576 2659.99 0.61581 -0.719253 -0.321643 
-605.89 537.175 2803.56 0.61581 -0.719253 -0.321643 
-527.781 661.086 2675.18 0.61581 -0.719253 -0.321643 
-473.178 514.295 3110.51 0.61581 -0.719253 -0.321643 
-181.599 934.991 2725.44 0.61581 -0.719253 -0.321643 
-451.123 610.826 2935.82 0.61581 -0.719253 -0.321643 
-634.175 461.035 2920.39 0.61581 -0.719253 -0.321643 
-697.394 518.238 2670 0.61581 -0.719253 -0.321643 
-190.334 811.481 2986.47 0.61581 -0.719253 -0.321643 
-618.699 459.151 2954.42 0.61581 -0.719253 -0.321643 
-673.966 517.12 2717.62 0.61581 -0.719253 -0.321643 
-428.741 441.215 3360.45 0.61581 -0.719253 -0.321643 
-345.598 731.082 2868.44 0.61581 -0.719253 -0.321643 
-694.075 511.637 2691.24 0.61581 -0.719253 -0.321643 
-676.561 490.217 2773.14 0.61581 -0.719253 -0.321643 
-107.937 986.879 2750.53 0.61581 -0.719253 -0.321643 
-326.345 641.005 3108.13 0.61581 -0.719253 -0.321643 
-394.782 491.291 3313.18 0.61581 -0.719253 -0.321643 
-261.44 853.898 2754.17 0.61581 -0.719253 -0.321643 
-499.47 304.204 3532.51 0.61581 -0.719253 -0.321643 
-626.5 443.146 2975.4 0.61581 -0.719253 -0.321643 
-547.359 544.222 2900.38 0.61581 -0.719253 -0.321643 
-402.081 516.163 3243.18 0.61581 -0.719253 -0.321643 
-232.748 778.433 2979.16 0.61581 -0.719253 -0.321643 
-135.33 894.873 2904.77 0.61581 -0.719253 -0.321643 
-612.897 417.118 3060.14 0.61581 -0.719253 -0.321643 
-638.645 514.049 2792.52 0.61581 -0.719253 -0.321643 
-274.318 822.413 2800.2 0.61581 -0.719253 -0.321643 
-408.514 523.856 3213.49 0.61581 -0.719253 -0.321643 
-502.069 341.713 3443.13 0.61581 -0.719253 -0.321643 
-91.3383 955.766 2852.47 0.61581 -0.719253 -0.321643 
-401.956 543.165 3182.67 0.61581 -0.719253 -0.321643 
-275.933 893.68 2636.78 0.61581 -0.719253 -0.321643 
-366.254 507.511 3331.61 0.61581 -0.719253 -0.321643 
-404.405 616.652 3012.65 0.61581 -0.719253 -0.321643 
-396.377 786.793 2645.36 0.61581 -0.719253 -0.321643 
-364.1 512.866 3323.71 0.61581 -0.719253 -0.321643 
-200.492 908.638 2748.36 0.61581 -0.719253 -0.321643 
-504.218 370.723 3373.73 0.61581 -0.719253 -0.321643 
-352.248 772.567 2762.31 0.61581 -0.719253 -0.321643 
-457.699 667.708 2795.2 0.61581 -0.719253 -0.321643 
-345.158 574.621 3221.25 0.61581 -0.719253 -0.321643 
-187.281 933.218 2718.5 0.61581 -0.719253 -0.321643 
-364.693 714.74 2868.44 0.61581 -0.719253 -0.321643 
-551.321 535.575 2912.21 0.61581 -0.719253 -0.321643 
-506.881 464.864 3156.83 0.61581 -0.719253 -0.321643 
-329.932 710.224 2945.52 0.61581 -0.719253 -0.321643 
-301.784 771.532 2861.79 0.61581 -0.719253 -0.321643 
-285.866 751.332 2937.87 0.61581 -0.719253 -0.321643 
-201.309 888.979 2791.01 0.61581 -0.719253 -0.321643 
-315.871 845.112 2669.15 0.61581 -0.719253 -0.321643 
-378.292 537.882 3240.11 0.61581 -0.719253 -0.321643 
-547.841 557.677 2869.19 0.61581 -0.719253 -0.321643 
-268.266 811.211 2837.05 0.61581 -0.719253 -0.321643 
-414.246 523.685 3202.83 0.61581 -0.719253 -0.321643 
-379.966 528.96 3256.96 0.61581 -0.719253 -0.321643 
-333.855 574.479 3243.33 0.61581 -0.719253 -0.321643 
-376.73 588.531 3129.18 0.61581 -0.719253 -0.321643 
-468.583 389.575 3399.92 0.61581 -0.719253 -0.321643 
-589.452 379.486 3189.93 0.61581 -0.719253 -0.321643 
-224.067 934.763 2644.2 0.61581 -0.719253 -0.321643 
-417.012 436.212 3394.29 0.61581 -0.719253 -0.321643 
-545.067 551.759 2887.84 0.61581 -0.719253 -0.321643 
-307.834 721.153 2963.47 0.61581 -0.719253 -0.321643 
-501.991 564.158 2942.87 0.61581 -0.719253 -0.321643 
-681.162 540.605 2650.94 0.61581 -0.719253 -0.321643 
-538.991 461.52 3102.53 0.61581 -0.719253 -0.321643 
-614.335 430.193 3027.96 0.61581 -0.719253 -0.321643 
-319.498 840.234 2673.14 0.61581 -0.719253 -0.321643 
-256.002 913.194 2631.25 0.61581 -0.719253 -0.321643 
-558.774 519.68 2933.62 0.61581 -0.719253 -0.321643 
-444.256 430.655 3354.34 0.61581 -0.719253 -0.321643 
-123.487 1000.95 2688.94 0.61581 -0.719253 -0.321643 
-332.347 723.696 2910.56 0.61581 -0.719253 -0.321643 
-175.214 904.036 2807.37 0.61581 -0.719253 -0.321643 
-448.079 447.36 3309.4 0.61581 -0.719253 -0.321643 
-358.968 538.429 3276.08 0.61581 -0.719253 -0.321643 
-175.292 899.728 2816.91 0.61581 -0.719253 -0.321643 
1.31119 1120.89 2659.37 0.61581 -0.719253 -0.321643 
-600.003 401.369 3120.39 0.61581 -0.719253 -0.321643 
-502.471 669.117 2705.84 0.61581 -0.719253 -0.321643 
-109.414 941.227 2850.38 0.61581 -0.719253 -0.321643 
-576.867 610.473 2694.54 0.61581 -0.719253 -0.321643 
-355.612 552.946 3249.89 0.61581 -0.719253 -0.321643 
-500.392 590.542 2886.6 0.61581 -0.719253 -0.321643 
-650.797 509.53 2779.3 0.61581 -0.719253 -0.321643 
-384.637 507.962 3295.2 0.61581 -0.719253 -0.321643 
-534.267 549.193 2914.4 0.61581 -0.719253 -0.321643 
-538.166 670.24 2634.59 0.61581 -0.719253 -0.321643 
-12.3331 1118.97 2637.42 0.61581 -0.719253 -0.321643 
-466.144 656.108 2805.03 0.61581 -0.719253 -0.321643 
-592.649 390.058 3160 0.61581 -0.719253 -0.321643 
-210.497 784.816 3007.64 0.61581 -0.719253 -0.321643 
-257.807 872.232 2719.92 0.61581 -0.719253 -0.321643 
-660.701 519.167 2738.55 0.61581 -0.719253 -0.321643 
-481.434 656.248 2775.28 0.61581 -0.719253 -0.321643 
-475.976 552.472 3019.24 0.61581 -0.719253 -0.321643 
-332.288 798.502 2742.39 0.61581 -0.719253 -0.321643 
-341.541 814.266 2689.12 0.61581 -0.719253 -0.321643 
-240.293 917.593 2651.59 0.61581 -0.719253 -0.321643 
-233.308 868.399 2775.7 0.61581 -0.719253 -0.321643 
-155.468 930.013 2786.95 0.61581 -0.719253 -0.321643 
-490.18 494.437 3122.45 0.61581 -0.719253 -0.321643 
-514.529 323.16 3460.88 0.61581 -0.719253 -0.321643 
-500.451 562.272 2950.08 0.61581 -0.719253 -0.321643 
-551.75 459.92 3081.57 0.61581 -0.719253 -0.321643 
-272.977 762.291 2938.03 0.61581 -0.719253 -0.321643 
-343.53 671.265 3006.98 0.61581 -0.719253 -0.321643 
-388.456 519.961 3260.86 0.61581 -0.719253 -0.321643 
-641.751 470.093 2885.43 0.61581 -0.719253 -0.321643 
-535.606 614.598 2764.69 0.61581 -0.719253 -0.321643 
-248.992 869.234 2743.63 0.61581 -0.719253 -0.321643 
-516.272 358.127 3378.86 0.61581 -0.719253 -0.321643 
-403.269 478.486 3325.64 0.61581 -0.719253 -0.321643 
-340.328 815.707 2688.21 0.61581 -0.719253 -0.321643 
-435.708 760.821 2628.07 0.61581 -0.719253 -0.321643 
-404.292 648.043 2942.25 0.61581 -0.719253 -0.321643 
-34.9174 1084.28 2671.98 0.61581 -0.719253 -0.321643 
-635.841 546.748 2724.36 0.61581 -0.719253 -0.321643 
-178.818 820.816 2987.64 0.61581 -0.719253 -0.321643 
-554.751 626.637 2700.75 0.61581 -0.719253 -0.321643 
-395.705 567.96 3138.93 0.61581 -0.719253 -0.321643 
-459.039 480.091 3214.67 0.61581 -0.719253 -0.321643 
-587.59 394.752 3159.17 0.61581 -0.719253 -0.321643 
-575.915 446.865 3064.42 0.61581 -0.719253 -0.321643 
-517.877 330.589 3437.72 0.61581 -0.719253 -0.321643 
-421.245 653.109 2898.21 0.61581 -0.719253 -0.321643 
-305.719 746.841 2909.76 0.61581 -0.719253 -0.321643 
-120.682 919.812 2876.86 0.61581 -0.719253 -0.321643 
-415.637 677.635 2853.84 0.61581 -0.719253 -0.321643 
-495.045 436.556 3243.29 0.61581 -0.719253 -0.321643 
-342.058 721.563 2896.67 0.61581 -0.719253 -0.321643 
-511.645 630.798 2774.38 0.61581 -0.719253 -0.321643 
-479.927 479.751 3175.23 0.61581 -0.719253 -0.321643 
-477.286 666.005 2761.32 0.61581 -0.719253 -0.321643 
-317.078 659.689 3083.94 0.61581 -0.719253 -0.321643 
-484.226 360.536 3435.13 0.61581 -0.719253 -0.321643 
-489.458 649.353 2775.35 0.61581 -0.719253 -0.321643 
-323.622 603.443 3197.88 0.61581 -0.719253 -0.321643 
-125.995 953.496 2790.86 0.61581 -0.719253 -0.321643 
-451.503 387.563 3437.33 0.61581 -0.719253 -0.321643 
-218.39 903.976 2724.39 0.61581 -0.719253 -0.321643 
-95.6517 1012.43 2716.69 0.61581 -0.719253 -0.321643 
-493.344 672.029 2716.86 0.61581 -0.719253 -0.321643 
-364.544 727.961 2838.99 0.61581 -0.719253 -0.321643 
-53.7821 1024.44 2770.27 0.61581 -0.719253 -0.321643 
-176.377 936.655 2731.75 0.61581 -0.719253 -0.321643 
-258.776 816.472 2843.49 0.61581 -0.719253 -0.321643 
-418.109 628.603 2959.38 0.61581 -0.719253 -0.321643 
-404.919 543.259 3176.76 0.61581 -0.719253 -0.321643 
-204.565 845.22 2883.18 0.61581 -0.719253 -0.321643 
-312.096 658.786 3095.57 0.61581 -0.719253 -0.321643 
-486.814 581.4 2933.3 0.61581 -0.719253 -0.321643 
-506.325 603.78 2845.4 0.61581 -0.719253 -0.321643 
-407.974 527.575 3206.16 0.61581 -0.719253 -0.321643 
-339.084 665.164 3029.26 0.61581 -0.719253 -0.321643 
-583.473 488.523 2956.16 0.61581 -0.719253 -0.321643 
-70.2842 1066.23 2644.5 0.61581 -0.719253 -0.321643 
-156.79 852.274 2959.28 0.61581 -0.719253 -0.321643 
-469.849 594.245 2937.07 0.61581 -0.719253 -0.321643 
-295.577 809.209 2788.98 0.61581 -0.719253 -0.321643 
-300.415 640.401 3159.41 0.61581 -0.719253 -0.321643 
-555.455 641.389 2666.21 0.61581 -0.719253 -0.321643 
-159.464 900.005 2846.76 0.61581 -0.719253 -0.321643 
-342.026 823.46 2667.5 0.61581 -0.719253 -0.321643 
-485.267 380.483 3388.26 0.61581 -0.719253 -0.321643 
-345.677 762.421 2797.79 0.61581 -0.719253 -0.321643 
-123.596 951.598 2799.75 0.61581 -0.719253 -0.321643 
-557.362 456.74 3077.92 0.61581 -0.719253 -0.321643 
-414.125 722.76 2755.24 0.61581 -0.719253 -0.321643 
-317.997 700.181 2991.09 0.61581 -0.719253 -0.321643 
-187.788 812.998 2987.96 0.61581 -0.719253 -0.321643 
-144.03 996.417 2659.59 0.61581 -0.719253 -0.321643 
-390.831 625.831 3018.13 0.61581 -0.719253 -0.321643 
-74.2198 999.195 2787.73 0.61581 -0.719253 -0.321643 
-607.848 613.82 2627.37 0.61581 -0.719253 -0.321643 
-682.083 499.45 2741.74 0.61581 -0.719253 -0.321643 
-556.054 491.513 3002.21 0.61581 -0.719253 -0.321643 
-293.025 842.926 2718.05 0.61581 -0.719253 -0.321643 
