ply
format ascii 1.0
comment Created by CloudCompare v2.11.3 (Anoia)
comment Created 07/09/2022 23:53
obj_info Generated by CloudCompare!
element vertex 857
property float x
property float y
property float z
property float nx
property float ny
property float nz
end_header
-875.079 2459.89 -118.008 -0.522784 -0.733877 0.433729 
-1185.76 2194.43 -941.45 -0.522784 -0.733877 0.433729 
-1133.27 2261.55 -764.753 -0.522784 -0.733877 0.433729 
-1159.76 2241.11 -831.261 -0.522784 -0.733877 0.433729 
-1107.17 2293.2 -679.81 -0.522784 -0.733877 0.433729 
-973.094 2446.79 -258.614 -0.522784 -0.733877 0.433729 
-1025.88 2373.61 -445.888 -0.522784 -0.733877 0.433729 
-939.016 2477.9 -164.931 -0.522784 -0.733877 0.433729 
-1016.61 2379.51 -424.714 -0.522784 -0.733877 0.433729 
-1216.92 1982.6 188.491 0.294972 0.321653 0.899739 
-1199.69 1977.62 184.62 0.294972 0.321653 0.899739 
-1203.97 1962.89 191.295 0.294972 0.321653 0.899739 
-1132.91 1980.1 161.83 0.294972 0.321653 0.899739 
-1221.77 2020.6 176.491 0.294972 0.321653 0.899739 
-1238.07 2056.92 168.849 0.294972 0.321653 0.899739 
-1013.2 2160.95 57.8714 0.294972 0.321653 0.899739 
-970.808 2239.71 15.797 0.294972 0.321653 0.899739 
-1058.95 2252.13 40.267 0.294972 0.321653 0.899739 
-1025.19 2210.59 44.0529 0.294972 0.321653 0.899739 
-955.33 2278.26 -3.07016 0.294972 0.321653 0.899739 
-1029.58 2288.18 17.7386 0.294972 0.321653 0.899739 
-1057.21 2283.87 28.3447 0.294972 0.321653 0.899739 
-884.651 2333.84 -46.1356 0.294972 0.321653 0.899739 
-884.68 2344.34 -49.8807 0.294972 0.321653 0.899739 
-792.64 2459.84 -121.386 0.294972 0.321653 0.899739 
-853.162 2491.84 -112.977 0.294972 0.321653 0.899739 
-847.116 2471.76 -107.779 0.294972 0.321653 0.899739 
-855.039 2557.89 -135.987 0.294972 0.321653 0.899739 
-1076.82 2107 98.0402 0.294972 0.321653 0.899739 
-1060.33 2111.79 90.9173 0.294972 0.321653 0.899739 
-886.191 2375.3 -60.458 0.294972 0.321653 0.899739 
-1127.59 2071.5 -1062.25 0.798281 -0.600477 -0.0466253 
-919.757 2315.1 -644.447 0.798281 -0.600477 -0.0466253 
-1029.28 2193.09 -945.546 0.798281 -0.600477 -0.0466253 
-944.174 2281.44 -629.391 0.798281 -0.600477 -0.0466253 
-1092.21 2117.59 -1049.91 0.798281 -0.600477 -0.0466253 
-1058.05 2161.09 -1025.35 0.798281 -0.600477 -0.0466253 
-1077.64 2133.68 -1008.1 0.798281 -0.600477 -0.0466253 
-989.794 2229.66 -742.714 0.798281 -0.600477 -0.0466253 
-919.546 2315.26 -642.981 0.798281 -0.600477 -0.0466253 
-1043.4 2168.56 -872.525 0.798281 -0.600477 -0.0466253 
-865.472 2369.35 -416.162 0.798281 -0.600477 -0.0466253 
-1173.99 2018.16 -1168.86 0.798281 -0.600477 -0.0466253 
-1174.65 2017.27 -1168.75 0.798281 -0.600477 -0.0466253 
-1081.53 2122.99 -938.009 0.798281 -0.600477 -0.0466253 
-962.618 2259.44 -661.729 0.798281 -0.600477 -0.0466253 
-825.352 2415.07 -318.905 0.798281 -0.600477 -0.0466253 
-870.828 2364.16 -440.674 0.798281 -0.600477 -0.0466253 
-922.774 2307.71 -601.48 0.798281 -0.600477 -0.0466253 
-1162.95 2028.67 -1115.84 0.798281 -0.600477 -0.0466253 
-1026.94 2187.59 -836.074 0.798281 -0.600477 -0.0466253 
-1043.38 2171.69 -911.938 0.798281 -0.600477 -0.0466253 
-1108.47 2094.31 -1028.9 0.798281 -0.600477 -0.0466253 
-959.814 2262.76 -656.442 0.798281 -0.600477 -0.0466253 
-827.674 2414.32 -348.63 0.798281 -0.600477 -0.0466253 
-954.86 2270.72 -673.912 0.798281 -0.600477 -0.0466253 
-952.493 2276.36 -705.513 0.798281 -0.600477 -0.0466253 
-838.226 2401.63 -365.65 0.798281 -0.600477 -0.0466253 
-953.56 2271.72 -664.638 0.798281 -0.600477 -0.0466253 
-863.17 2357.77 -229.999 0.798281 -0.600477 -0.0466253 
-777.485 2465.92 -155.76 0.798281 -0.600477 -0.0466253 
-1049.81 2157.08 -834.903 0.798281 -0.600477 -0.0466253 
-976.351 2231.64 -540.479 0.798281 -0.600477 -0.0466253 
-1044.03 2163.33 -816.492 0.798281 -0.600477 -0.0466253 
-866.733 2351.71 -213.104 0.798281 -0.600477 -0.0466253 
-923.435 2297.32 -480.606 0.798281 -0.600477 -0.0466253 
-915.297 2299.46 -370.232 0.798281 -0.600477 -0.0466253 
-878.976 2337.97 -245.452 0.798281 -0.600477 -0.0466253 
-969.501 2237.46 -498.593 0.798281 -0.600477 -0.0466253 
-803.579 2431.16 -155.207 0.798281 -0.600477 -0.0466253 
-810.592 2427.39 -225.925 0.798281 -0.600477 -0.0466253 
-825.811 2409.73 -258.753 0.798281 -0.600477 -0.0466253 
-903.338 2311.6 -322.274 0.798281 -0.600477 -0.0466253 
-831.654 2403.67 -280.524 0.798281 -0.600477 -0.0466253 
-864.615 2365.89 -357.677 0.798281 -0.600477 -0.0466253 
-1079.34 2121.35 -880.039 0.798281 -0.600477 -0.0466253 
-1073.2 2125.93 -834.435 0.798281 -0.600477 -0.0466253 
-937.122 2276.43 -446.442 0.798281 -0.600477 -0.0466253 
-891.091 2330.4 -354.178 0.798281 -0.600477 -0.0466253 
-873.822 2348.6 -293.487 0.798281 -0.600477 -0.0466253 
-1019.28 2187 -699.064 0.798281 -0.600477 -0.0466253 
-788.325 2451.56 -156.56 0.798281 -0.600477 -0.0466253 
-872.475 2357.89 -388.884 0.798281 -0.600477 -0.0466253 
-966.194 2250.72 -611.251 0.798281 -0.600477 -0.0466253 
-862.88 2357.83 -225.839 0.798281 -0.600477 -0.0466253 
-836.084 2390.48 -187.687 0.798281 -0.600477 -0.0466253 
-797.924 2436.12 -122.666 0.798281 -0.600477 -0.0466253 
-906.506 2442.13 -238.874 -0.29469 -0.324307 -0.898879 
-884.45 2438.58 -244.839 -0.29469 -0.324307 -0.898879 
-1042.27 2348.06 -551.193 0.798281 -0.600477 -0.0466253 
-933.43 2477.26 -353.226 0.798281 -0.600477 -0.0466253 
-1008.65 2388.19 -492.995 0.798281 -0.600477 -0.0466253 
-955.747 2453.23 -425.096 0.798281 -0.600477 -0.0466253 
-1039.86 2350.42 -540.559 0.798281 -0.600477 -0.0466253 
-1022.1 2378.15 -592.68 0.798281 -0.600477 -0.0466253 
-968.384 2433.12 -383.211 0.798281 -0.600477 -0.0466253 
-954.698 2447.29 -331.885 0.798281 -0.600477 -0.0466253 
-978.455 2415.24 -326.167 0.798281 -0.600477 -0.0466253 
-992.952 2405.39 -446.062 0.798281 -0.600477 -0.0466253 
-921.299 2486.44 -264.785 0.798281 -0.600477 -0.0466253 
-974.646 2421.01 -335.058 0.798281 -0.600477 -0.0466253 
-879.74 2382.98 -226.497 -0.29469 -0.324307 -0.898879 
-990.368 2251.97 -143.346 -0.29469 -0.324307 -0.898879 
-1028.99 2194.75 -110.213 -0.29469 -0.324307 -0.898879 
-1133.16 2042.27 -21.5005 -0.29469 -0.324307 -0.898879 
-1194.02 1955.66 29.4441 -0.29469 -0.324307 -0.898879 
-1227.88 1897.71 61.28 -0.29469 -0.324307 -0.898879 
-986.693 2319.62 -593.919 0.294972 0.321653 0.899739 
-997.029 2287.37 -578.992 0.294972 0.321653 0.899739 
-1001.3 2377.74 -609.916 0.294972 0.321653 0.899739 
-895.791 2372.98 -509.063 -0.799303 0.599125 0.0465203 
-932.069 2329.52 -570.057 -0.799303 0.599125 0.0465203 
-938.741 2313.8 -482.959 -0.799303 0.599125 0.0465203 
-907.924 2358.56 -530.82 -0.799303 0.599125 0.0465203 
-902.063 2361.6 -470.455 -0.799303 0.599125 0.0465203 
-887.508 2375.84 -405.273 -0.799303 0.599125 0.0465203 
-916.243 2348.87 -548.415 -0.799303 0.599125 0.0465203 
-940.368 2315.32 -529.816 -0.799303 0.599125 0.0465203 
-859.639 2409.03 -355.98 -0.799303 0.599125 0.0465203 
-944.652 2303.73 -454.965 -0.799303 0.599125 0.0465203 
-875.614 2378.79 -241.621 -0.799303 0.599125 0.0465203 
-857.673 2404.79 -268.84 -0.799303 0.599125 0.0465203 
-902.143 2347.33 -290.276 -0.799303 0.599125 0.0465203 
-896.855 2352.48 -266.415 -0.799303 0.599125 0.0465203 
-976.479 2263.75 -484.95 -0.799303 0.599125 0.0465203 
-875.874 2381.91 -285.766 -0.799303 0.599125 0.0465203 
-955.751 2286.07 -418.086 -0.799303 0.599125 0.0465203 
-863.529 2398.03 -281.879 -0.799303 0.599125 0.0465203 
-956.003 2327.95 -606.966 0.294972 0.321653 0.899739 
-1002.73 2243.56 -561.454 0.294972 0.321653 0.899739 
-1098.9 2125.83 -487.795 0.294972 0.321653 0.899739 
-1062.66 2170.84 -515.783 0.294972 0.321653 0.899739 
-1117.03 2083.35 -466.653 0.294972 0.321653 0.899739 
-1150.76 2041.74 -440.705 0.294972 0.321653 0.899739 
-1198.38 1986.19 -405.215 0.294972 0.321653 0.899739 
-1289.16 1861.57 -330.86 0.294972 0.321653 0.899739 
-1318.26 1829.67 -309.905 0.294972 0.321653 0.899739 
-1312.86 1837.12 -314.341 0.294972 0.321653 0.899739 
-1052.65 2251.91 -709.238 -0.29469 -0.324307 -0.898879 
-1049.74 2324.7 -736.228 -0.29469 -0.324307 -0.898879 
-1036.02 2248.95 -713.633 -0.29469 -0.324307 -0.898879 
-1137 2251.85 -930.268 0.798281 -0.600477 -0.0466253 
-1091.21 2305.02 -831.863 0.798281 -0.600477 -0.0466253 
-1154.73 2232.31 -981.623 0.798281 -0.600477 -0.0466253 
-1170.83 2217.81 -1069.55 0.798281 -0.600477 -0.0466253 
-1139.28 2246.91 -906.038 0.798281 -0.600477 -0.0466253 
-1116.33 2279.3 -929.61 0.798281 -0.600477 -0.0466253 
-1110.84 2271.66 -739.611 0.798281 -0.600477 -0.0466253 
-1171.62 2204.93 -919.121 0.798281 -0.600477 -0.0466253 
-1083.05 2308.76 -741.389 0.798281 -0.600477 -0.0466253 
-1073.99 2321.44 -749.271 0.798281 -0.600477 -0.0466253 
-1148.17 2233.52 -886.043 0.798281 -0.600477 -0.0466253 
-1132.01 2247.36 -788.627 0.798281 -0.600477 -0.0466253 
-1175.13 2138.56 -1053.68 0.294972 0.321653 0.899739 
-1138.42 2170.34 -1077.09 0.294972 0.321653 0.899739 
-1151.34 2172.9 -1073.77 0.294972 0.321653 0.899739 
-1245.97 1968.78 -969.721 0.294972 0.321653 0.899739 
-1171.05 2075.22 -1032.37 0.294972 0.321653 0.899739 
-1278.11 1930.63 -945.532 0.294972 0.321653 0.899739 
-1380.75 1755.74 -849.306 0.294972 0.321653 0.899739 
-1405.06 1754.63 -840.936 0.294972 0.321653 0.899739 
-1007.95 2241.33 -732.142 -0.799303 0.599125 0.0465203 
-1051.06 2190.14 -810.39 -0.799303 0.599125 0.0465203 
-1123.91 2103.84 -945.201 -0.799303 0.599125 0.0465203 
-1004.35 2246.1 -731.913 -0.799303 0.599125 0.0465203 
-1105.86 2124.06 -897.112 -0.799303 0.599125 0.0465203 
-993.116 2261.98 -743.714 -0.799303 0.599125 0.0465203 
-1070.44 2162.33 -784.553 -0.799303 0.599125 0.0465203 
-1093.69 2136.76 -852.589 -0.799303 0.599125 0.0465203 
-1068.05 2165.83 -788.579 -0.799303 0.599125 0.0465203 
-1052.35 2196.7 -915.646 -0.799303 0.599125 0.0465203 
-1080.18 2159.88 -918.109 -0.799303 0.599125 0.0465203 
-1043.79 2204.92 -875.362 -0.799303 0.599125 0.0465203 
-1057.5 2194.06 -969.223 -0.799303 0.599125 0.0465203 
-1028.47 2228.65 -917.956 -0.799303 0.599125 0.0465203 
-1136.49 2094.81 -1043.12 -0.799303 0.599125 0.0465203 
-1077.42 2166.98 -961.76 -0.799303 0.599125 0.0465203 
-1089.24 2159.55 -1067.11 -0.799303 0.599125 0.0465203 
-1055.52 2191.9 -908.293 -0.799303 0.599125 0.0465203 
-1006.27 2274.37 -732.486 -0.29469 -0.324307 -0.898879 
-1003.4 2260.6 -728.501 -0.29469 -0.324307 -0.898879 
-1158.38 2041.93 -599.448 -0.29469 -0.324307 -0.898879 
-1191.6 1986.2 -568.618 -0.29469 -0.324307 -0.898879 
-1324.59 1815.42 -463.908 -0.29469 -0.324307 -0.898879 
-1329.64 1827.47 -466.561 -0.29469 -0.324307 -0.898879 
-1174.14 2045.26 -1069.62 -0.522784 -0.733877 0.433729 
-1103.45 2116.07 -864.69 -0.522784 -0.733877 0.433729 
-931.382 2281.05 -378.339 -0.522784 -0.733877 0.433729 
-993.711 2223.98 -549.976 -0.522784 -0.733877 0.433729 
-1158.02 2052.5 -1037.92 -0.522784 -0.733877 0.433729 
-1118.57 2106.36 -899.356 -0.522784 -0.733877 0.433729 
-1064.29 2161.4 -740.873 -0.522784 -0.733877 0.433729 
-939.682 2286.07 -379.912 -0.522784 -0.733877 0.433729 
-866.537 2358.58 -169.158 -0.522784 -0.733877 0.433729 
-1178.6 2038.32 -1037.21 0.798281 -0.600477 -0.0466253 
-1206.07 1991.93 -1106.03 0.524051 0.732349 -0.434781 
-1010.32 2190.09 -535.071 0.524051 0.732349 -0.434781 
-1017.25 2195.59 -534.185 0.524051 0.732349 -0.434781 
-900.126 2327.35 -170.302 0.524051 0.732349 -0.434781 
-963.018 2254.44 -369.327 0.524051 0.732349 -0.434781 
-1053.24 2158.76 -639.821 0.524051 0.732349 -0.434781 
-1117.67 2095.4 -824.603 0.524051 0.732349 -0.434781 
-1141.79 2041.88 -925.833 0.798281 -0.600477 -0.0466253 
-1187.02 1983.71 -951.216 0.798281 -0.600477 -0.0466253 
-1128.58 2048.65 -788.424 0.798281 -0.600477 -0.0466253 
-944.376 2258.38 -339.632 0.798281 -0.600477 -0.0466253 
-1164.92 2013.95 -961.839 0.798281 -0.600477 -0.0466253 
-1084.69 2101.54 -718.57 0.798281 -0.600477 -0.0466253 
-997.514 2199.42 -488.729 0.798281 -0.600477 -0.0466253 
-1076.58 2110.95 -701.142 0.798281 -0.600477 -0.0466253 
-1134.89 2044.06 -836.904 0.798281 -0.600477 -0.0466253 
-1071.28 2113.28 -641.209 0.798281 -0.600477 -0.0466253 
-975.241 2223.03 -412.24 0.798281 -0.600477 -0.0466253 
-1149.65 2024.36 -836.119 0.798281 -0.600477 -0.0466253 
-1009.47 2186.99 -532.937 0.798281 -0.600477 -0.0466253 
-1141.81 2037.32 -868.174 0.798281 -0.600477 -0.0466253 
-1006.66 2187.73 -494.74 0.798281 -0.600477 -0.0466253 
-931.48 2271.4 -287.131 0.798281 -0.600477 -0.0466253 
-1044.87 2144.88 -596.189 0.798281 -0.600477 -0.0466253 
-1231.81 1935.56 -1096.61 0.798281 -0.600477 -0.0466253 
-1089.76 2091.12 -671.834 0.798281 -0.600477 -0.0466253 
-1016.59 2173.14 -477.251 0.798281 -0.600477 -0.0466253 
-1147.37 2024.53 -799.494 0.798281 -0.600477 -0.0466253 
-1057.17 2120.8 -498.179 0.798281 -0.600477 -0.0466253 
-921.291 2272.63 -130.449 0.798281 -0.600477 -0.0466253 
-960.255 2230.43 -252.866 0.798281 -0.600477 -0.0466253 
-1061.94 2117 -530.5 0.798281 -0.600477 -0.0466253 
-1154.67 2013.47 -782.36 0.798281 -0.600477 -0.0466253 
-940.002 2251.11 -173.319 0.798281 -0.600477 -0.0466253 
-890.7 2305.86 -35.5314 0.798281 -0.600477 -0.0466253 
-947.566 2239.72 -156.338 0.798281 -0.600477 -0.0466253 
-1120.8 2054.24 -728 0.798281 -0.600477 -0.0466253 
-1153.97 2014.7 -786.28 0.798281 -0.600477 -0.0466253 
-1204.6 1959.17 -936.524 0.798281 -0.600477 -0.0466253 
-1014.39 2173.87 -449.382 0.798281 -0.600477 -0.0466253 
-929.995 2266.92 -205.001 0.798281 -0.600477 -0.0466253 
-1093.85 2081.85 -623.325 0.798281 -0.600477 -0.0466253 
-873.5 2332.34 -81.3677 0.798281 -0.600477 -0.0466253 
-939.145 2251.95 -169.395 0.798281 -0.600477 -0.0466253 
-1196.57 1969.62 -933.571 0.798281 -0.600477 -0.0466253 
-1222.79 1944.3 -976.219 -0.522784 -0.733877 0.433729 
-1160.29 2011.97 -786.493 -0.522784 -0.733877 0.433729 
-1241.84 1934.71 -1015.44 -0.522784 -0.733877 0.433729 
-1092.12 2095.24 -563.594 -0.522784 -0.733877 0.433729 
-1187.75 1978.93 -875.424 -0.522784 -0.733877 0.433729 
-1071.01 2125.62 -486.814 -0.522784 -0.733877 0.433729 
-945.349 2257.55 -112.345 -0.522784 -0.733877 0.433729 
-1273.92 1914.76 -1078.12 0.798281 -0.600477 -0.0466253 
-1281 1870.01 -1079.76 0.524051 0.732349 -0.434781 
-942.544 2263.97 -5.95798 0.524051 0.732349 -0.434781 
-1079.84 2099.11 -450.064 0.524051 0.732349 -0.434781 
-1165.01 2005.28 -711.336 0.524051 0.732349 -0.434781 
-1104.4 2064.16 -538.714 0.524051 0.732349 -0.434781 
-1022.7 2163.27 -272.753 0.524051 0.732349 -0.434781 
-1251.66 1904.51 -986.087 0.524051 0.732349 -0.434781 
-1208.33 1964.58 -832.369 0.524051 0.732349 -0.434781 
-1189.62 1999.49 -750.863 0.524051 0.732349 -0.434781 
-1128.25 2026.27 -498.446 0.798281 -0.600477 -0.0466253 
-1245.69 1898.45 -859.497 0.798281 -0.600477 -0.0466253 
-1274.15 1868.76 -963.197 0.798281 -0.600477 -0.0466253 
-1288.63 1842.36 -872.446 0.798281 -0.600477 -0.0466253 
-998.735 2173.78 -183.37 0.798281 -0.600477 -0.0466253 
-1237.06 1910.16 -862.345 0.798281 -0.600477 -0.0466253 
-1114.43 2049.95 -565.736 0.798281 -0.600477 -0.0466253 
-1276.51 1866.48 -974.241 0.798281 -0.600477 -0.0466253 
-1133.04 2030.07 -627.709 0.798281 -0.600477 -0.0466253 
-1179.59 1976.82 -737.934 0.798281 -0.600477 -0.0466253 
-1132.9 2022.32 -526.838 0.798281 -0.600477 -0.0466253 
-1263.72 1883.28 -971.512 0.798281 -0.600477 -0.0466253 
-1071.73 2096.28 -432.519 0.798281 -0.600477 -0.0466253 
-1239.09 1903.72 -814.825 0.798281 -0.600477 -0.0466253 
-1125.83 2035.38 -573.235 0.798281 -0.600477 -0.0466253 
-1213.48 1939.25 -833.485 0.798281 -0.600477 -0.0466253 
-1252.63 1897.7 -967.196 0.798281 -0.600477 -0.0466253 
-1225.57 1917.02 -755.27 0.798281 -0.600477 -0.0466253 
-1088.65 2078.42 -491.751 0.798281 -0.600477 -0.0466253 
-1239.69 1906.47 -859.919 0.798281 -0.600477 -0.0466253 
-1246.52 1891.62 -786.683 0.798281 -0.600477 -0.0466253 
-1081.69 2081.57 -414.085 0.798281 -0.600477 -0.0466253 
-1067.56 2099.78 -406.52 0.798281 -0.600477 -0.0466253 
-1192.98 1956.03 -700.084 0.798281 -0.600477 -0.0466253 
-1139.6 2014.52 -540.863 0.798281 -0.600477 -0.0466253 
-1088.71 2078.15 -489.296 0.798281 -0.600477 -0.0466253 
-1041.88 2127.51 -324.822 0.798281 -0.600477 -0.0466253 
-954.644 2217.26 9.52951 0.798281 -0.600477 -0.0466253 
-1031.09 2127.46 -141.759 0.798281 -0.600477 -0.0466253 
-1068.94 2078.84 -163.614 0.798281 -0.600477 -0.0466253 
-1004.9 2156.95 -73.7694 0.798281 -0.600477 -0.0466253 
-1055.19 2097.62 -169.864 0.798281 -0.600477 -0.0466253 
-1001.61 2166.63 -141.236 0.798281 -0.600477 -0.0466253 
-1052.08 2108.17 -251.414 0.798281 -0.600477 -0.0466253 
-1084.85 2061.66 -214.271 0.798281 -0.600477 -0.0466253 
-1302.16 1822.92 -854.133 0.798281 -0.600477 -0.0466253 
-1174.57 1965.99 -515.334 0.798281 -0.600477 -0.0466253 
-1085.46 2067.89 -303.731 0.798281 -0.600477 -0.0466253 
-1236.15 1900.32 -721.923 0.798281 -0.600477 -0.0466253 
-1297.49 1829.51 -858.977 0.798281 -0.600477 -0.0466253 
-1108.67 2043.27 -383.412 0.798281 -0.600477 -0.0466253 
-1104.92 2050.04 -405.96 0.798281 -0.600477 -0.0466253 
-973.06 2201.57 -102.489 0.798281 -0.600477 -0.0466253 
-1217.53 1917.87 -630.195 0.798281 -0.600477 -0.0466253 
-1307.36 1817.43 -872.48 0.798281 -0.600477 -0.0466253 
-1081.7 2071.26 -282.988 0.798281 -0.600477 -0.0466253 
-980.133 2185.56 -18.6335 0.798281 -0.600477 -0.0466253 
-1009.86 2156.05 -146.09 0.798281 -0.600477 -0.0466253 
-1275.85 1854.33 -808.605 0.798281 -0.600477 -0.0466253 
-986.652 2185.31 -125.607 0.798281 -0.600477 -0.0466253 
-1111.67 2040.05 -393.113 0.798281 -0.600477 -0.0466253 
-1185.78 1956.88 -589.045 0.798281 -0.600477 -0.0466253 
-1082.53 2076.98 -369.941 0.798281 -0.600477 -0.0466253 
-1317.08 1806.61 -899.207 0.798281 -0.600477 -0.0466253 
-1115.43 2050.5 -241.044 -0.522784 -0.733877 0.433729 
-1086.28 2077.99 -159.424 -0.522784 -0.733877 0.433729 
-1099.72 2047.49 -227.126 -0.522784 -0.733877 0.433729 
-1111.74 2051.43 -235.027 -0.522784 -0.733877 0.433729 
-1161.51 1986.89 -404.074 -0.522784 -0.733877 0.433729 
-1241.41 1904.96 -638.886 -0.522784 -0.733877 0.433729 
-1238.7 1915.3 -618.161 -0.522784 -0.733877 0.433729 
-1326.85 1820.62 -884.449 -0.522784 -0.733877 0.433729 
-1322 1823.41 -873.886 -0.522784 -0.733877 0.433729 
-1391.84 1751.73 -999.772 0.798281 -0.600477 -0.0466253 
-1370.77 1776.04 -952.529 0.798281 -0.600477 -0.0466253 
-1374.45 1748.4 -971.691 0.524051 0.732349 -0.434781 
-1113.47 2022.99 -192.931 0.524051 0.732349 -0.434781 
-1331.49 1795.01 -841.12 0.524051 0.732349 -0.434781 
-1222.25 1921.61 -495.48 0.524051 0.732349 -0.434781 
-1342.51 1785.49 -870.513 0.524051 0.732349 -0.434781 
-1274.76 1876.94 -634.319 0.524051 0.732349 -0.434781 
-1160.38 1984.8 -314.083 0.524051 0.732349 -0.434781 
-1200.22 1958.72 -406.238 0.524051 0.732349 -0.434781 
-1134.15 2028.69 -208.324 0.524051 0.732349 -0.434781 
-1133.94 1998.25 -238.372 0.798281 -0.600477 -0.0466253 
-1182.77 1942.33 -353.102 0.798281 -0.600477 -0.0466253 
-1142.65 1989.45 -273.821 0.798281 -0.600477 -0.0466253 
-1287.96 1825.28 -644.025 0.798281 -0.600477 -0.0466253 
-1154.32 1972.85 -260.08 0.798281 -0.600477 -0.0466253 
-1275.83 1842.46 -657.305 0.798281 -0.600477 -0.0466253 
-1229.07 1895.29 -538.144 0.798281 -0.600477 -0.0466253 
-1318.02 1795.61 -775.21 0.798281 -0.600477 -0.0466253 
-1335.27 1769.65 -736.903 0.798281 -0.600477 -0.0466253 
-1373.15 1726.71 -831.7 0.798281 -0.600477 -0.0466253 
-1099.67 2036.61 -146.428 0.798281 -0.600477 -0.0466253 
-1360.9 1739.22 -783.377 0.798281 -0.600477 -0.0466253 
-1127.53 2002.9 -189.133 0.798281 -0.600477 -0.0466253 
-1413.45 1682.99 -957.226 0.798281 -0.600477 -0.0466253 
-1366.02 1734.03 -804.014 0.798281 -0.600477 -0.0466253 
-1244.79 1877.76 -581.131 0.798281 -0.600477 -0.0466253 
-1160.62 1969.32 -321.725 0.798281 -0.600477 -0.0466253 
-1318.13 1798.33 -811.711 0.798281 -0.600477 -0.0466253 
-1364.98 1740.77 -872.114 0.798281 -0.600477 -0.0466253 
-1093.28 2036.79 -40.7303 0.798281 -0.600477 -0.0466253 
-1246.89 1863.64 -437.167 0.798281 -0.600477 -0.0466253 
-1258.95 1851.2 -482.95 0.798281 -0.600477 -0.0466253 
-1202.09 1916.04 -345.781 0.798281 -0.600477 -0.0466253 
-1100.97 2027.85 -57.1476 0.798281 -0.600477 -0.0466253 
-1050.86 2087.19 35.9978 0.798281 -0.600477 -0.0466253 
-1310.52 1791.88 -600.855 0.798281 -0.600477 -0.0466253 
-1205.58 1912.75 -362.98 0.798281 -0.600477 -0.0466253 
-1255.06 1852.84 -437.972 0.798281 -0.600477 -0.0466253 
-1379.45 1717.72 -823.745 0.798281 -0.600477 -0.0466253 
-1321.55 1781.01 -649.319 0.798281 -0.600477 -0.0466253 
-1135.31 1983.07 -68.5124 0.798281 -0.600477 -0.0466253 
-1390.27 1704.25 -835.661 0.798281 -0.600477 -0.0466253 
-1097 2026.7 24.703 0.798281 -0.600477 -0.0466253 
-1215.21 1895.23 -303.012 0.798281 -0.600477 -0.0466253 
-1200.02 1916.41 -315.462 0.798281 -0.600477 -0.0466253 
-1173.85 1948.8 -284.622 0.798281 -0.600477 -0.0466253 
-1075.77 2049.13 98.6017 0.798281 -0.600477 -0.0466253 
-1056.66 2081.82 6.15659 0.798281 -0.600477 -0.0466253 
-1125.45 2019.74 17.4807 -0.522784 -0.733877 0.433729 
-1125.08 2010.49 2.32547 -0.522784 -0.733877 0.433729 
-1160.88 1983.61 -86.304 -0.522784 -0.733877 0.433729 
-1187.84 1938.22 -195.464 -0.522784 -0.733877 0.433729 
-1254.44 1863.3 -402.382 -0.522784 -0.733877 0.433729 
-1299.41 1823.23 -524.339 -0.522784 -0.733877 0.433729 
-1330.99 1780.89 -633.948 -0.522784 -0.733877 0.433729 
-1328.77 1801.21 -596.986 -0.522784 -0.733877 0.433729 
-1335.4 1791.92 -620.681 -0.522784 -0.733877 0.433729 
-1441 1679.5 -912.885 0.798281 -0.600477 -0.0466253 
-1441.67 1657.76 -883.322 0.524051 0.732349 -0.434781 
-1140.32 1998.2 55.3172 0.524051 0.732349 -0.434781 
-1319.49 1784.07 -522.538 0.524051 0.732349 -0.434781 
-1229.45 1877.36 -256.288 0.524051 0.732349 -0.434781 
-1364.9 1737.3 -656.343 0.524051 0.732349 -0.434781 
-1187.65 1921.79 -130.812 0.524051 0.732349 -0.434781 
-1451.39 1632.11 -938.354 0.524051 0.732349 -0.434781 
-1315.54 1806.08 -480.625 0.524051 0.732349 -0.434781 
-1268.4 1857.86 -336.292 0.524051 0.732349 -0.434781 
-1180.97 1955.67 -65.5756 0.524051 0.732349 -0.434781 
-1211.81 1923.82 -156.604 0.524051 0.732349 -0.434781 
-1393.4 1686.85 -667.242 0.798281 -0.600477 -0.0466253 
-1320.82 1769.2 -486.871 0.798281 -0.600477 -0.0466253 
-1151.28 1955.87 7.25961 0.798281 -0.600477 -0.0466253 
-1442.43 1633.48 -818.043 0.798281 -0.600477 -0.0466253 
-1415.12 1660.92 -704.956 0.798281 -0.600477 -0.0466253 
-1508.19 1546.86 -828.867 0.798281 -0.600477 -0.0466253 
-1332.7 1748.69 -426.876 0.798281 -0.600477 -0.0466253 
-1469.07 1601.68 -864.212 0.798281 -0.600477 -0.0466253 
-1307.95 1776.93 -367.382 0.798281 -0.600477 -0.0466253 
-1419.94 1653.48 -691.827 0.798281 -0.600477 -0.0466253 
-1444.59 1623.44 -726.704 0.798281 -0.600477 -0.0466253 
-1270.42 1826.4 -361.559 0.798281 -0.600477 -0.0466253 
-1514.38 1540.66 -854.657 0.798281 -0.600477 -0.0466253 
-1293.98 1794.12 -349.618 0.798281 -0.600477 -0.0466253 
-1339.89 1749.37 -557.197 0.798281 -0.600477 -0.0466253 
-1379.49 1704.57 -657.394 0.798281 -0.600477 -0.0466253 
-1505.07 1552.53 -848.053 0.798281 -0.600477 -0.0466253 
-1466.99 1596.85 -767.619 0.798281 -0.600477 -0.0466253 
-1479.41 1580.1 -764.744 0.798281 -0.600477 -0.0466253 
-1474.86 1592.72 -848.245 0.798281 -0.600477 -0.0466253 
-1319.14 1766.9 -429.081 0.798281 -0.600477 -0.0466253 
-1420.94 1664.03 -842.943 0.798281 -0.600477 -0.0466253 
-1268.83 1821.28 -269.579 0.798281 -0.600477 -0.0466253 
-1490.16 1570.13 -819.646 0.798281 -0.600477 -0.0466253 
-1136.26 1974.13 29.0584 0.798281 -0.600477 -0.0466253 
-1187.23 1919 -131.994 0.798281 -0.600477 -0.0466253 
-1405.48 1677.22 -749.139 0.798281 -0.600477 -0.0466253 
-1209.13 1891.32 -150.351 0.798281 -0.600477 -0.0466253 
-1200.91 1881.74 110.227 0.798281 -0.600477 -0.0466253 
-1251.84 1838.41 -200.141 0.798281 -0.600477 -0.0466253 
-1211.24 1880.02 -42.4436 0.798281 -0.600477 -0.0466253 
-1189.92 1907.87 -35.9715 0.798281 -0.600477 -0.0466253 
-1397.61 1672.47 -555.668 0.798281 -0.600477 -0.0466253 
-1171.29 1928.33 19.0631 0.798281 -0.600477 -0.0466253 
-1189.14 1903.89 27.8064 0.798281 -0.600477 -0.0466253 
-1318.35 1753.38 -243.884 0.798281 -0.600477 -0.0466253 
-1156.95 1942.01 87.419 0.798281 -0.600477 -0.0466253 
-1246.31 1845.29 -193.956 0.798281 -0.600477 -0.0466253 
-1160.97 1943.53 0.157684 0.798281 -0.600477 -0.0466253 
-1440.1 1621.17 -621.989 0.798281 -0.600477 -0.0466253 
-1378.21 1692.38 -480.677 0.798281 -0.600477 -0.0466253 
-1219.73 1874.45 -115.267 0.798281 -0.600477 -0.0466253 
-1365.16 1705.14 -422.183 0.798281 -0.600477 -0.0466253 
-1157.17 1934.9 174.32 0.798281 -0.600477 -0.0466253 
-1251.18 1834.81 -143.161 0.798281 -0.600477 -0.0466253 
-1155.43 1947.78 39.9256 0.798281 -0.600477 -0.0466253 
-1347.99 1722.14 -347.912 0.798281 -0.600477 -0.0466253 
-1296.71 1784.55 -274.174 0.798281 -0.600477 -0.0466253 
-1296.72 1782.03 -242.229 0.798281 -0.600477 -0.0466253 
-1204.34 1882.28 45.5563 0.798281 -0.600477 -0.0466253 
-1284.88 1796 -219.761 0.798281 -0.600477 -0.0466253 
-1197.75 1892.78 23.4161 0.798281 -0.600477 -0.0466253 
-1145.06 1961.75 37.6547 0.798281 -0.600477 -0.0466253 
-1157.83 1941.85 74.6935 0.798281 -0.600477 -0.0466253 
-1291.79 1783.46 -177.168 0.798281 -0.600477 -0.0466253 
-1248.35 1829.71 -30.5432 0.798281 -0.600477 -0.0466253 
-1233.38 1906.44 127.824 -0.522784 -0.733877 0.433729 
-1228.05 1902.11 126.963 -0.522784 -0.733877 0.433729 
-1247.73 1945.35 176.121 -0.522784 -0.733877 0.433729 
-1304.75 1927.83 77.6214 -0.522784 -0.733877 0.433729 
-1264.71 1905.1 87.6715 -0.522784 -0.733877 0.433729 
-1400.03 1846.85 -174.181 -0.522784 -0.733877 0.433729 
-1416.55 1785.51 -297.647 -0.522784 -0.733877 0.433729 
-1394.49 1784.84 -272.105 -0.522784 -0.733877 0.433729 
-1415.84 1755.37 -347.633 -0.522784 -0.733877 0.433729 
-1415.36 1742.5 -368.762 -0.522784 -0.733877 0.433729 
-1366.79 1736.84 -319.578 -0.522784 -0.733877 0.433729 
-1400.94 1714.55 -398.465 -0.522784 -0.733877 0.433729 
-1574.67 1628.04 -754.465 -0.522784 -0.733877 0.433729 
-1598.45 1628.09 -783.134 -0.522784 -0.733877 0.433729 
-1589.65 1649.27 -736.751 -0.522784 -0.733877 0.433729 
-1505.69 1736.01 -488.928 -0.522784 -0.733877 0.433729 
-1383.7 1890.55 -80.7227 -0.522784 -0.733877 0.433729 
-1348.78 1926.41 21.9863 -0.522784 -0.733877 0.433729 
-1482.25 1774.57 -395.54 -0.522784 -0.733877 0.433729 
-1370.67 1901.66 -46.2277 -0.522784 -0.733877 0.433729 
-1580.99 1593.84 -819.799 -0.522784 -0.733877 0.433729 
-1566.58 1589.38 -809.895 -0.522784 -0.733877 0.433729 
-1526.42 1592.24 -756.512 -0.522784 -0.733877 0.433729 
-1561.53 1555.89 -860.294 -0.522784 -0.733877 0.433729 
-1378.84 1701.07 -394.483 -0.522784 -0.733877 0.433729 
-1422.06 1641.89 -546.581 -0.522784 -0.733877 0.433729 
-1402.5 1669.48 -476.392 -0.522784 -0.733877 0.433729 
-1412.68 1654.2 -514.47 -0.522784 -0.733877 0.433729 
-1385.15 1705.02 -395.455 -0.522784 -0.733877 0.433729 
-1239.58 1859.43 41.0274 -0.522784 -0.733877 0.433729 
-1261.15 1841.6 -15.134 -0.522784 -0.733877 0.433729 
-1349.92 1940.42 -105.578 -0.799303 0.599125 0.0465203 
-1421.69 1856.96 -258.263 -0.799303 0.599125 0.0465203 
-1370.14 1916.32 -141.123 -0.799303 0.599125 0.0465203 
-1260.76 2040.02 135.947 -0.799303 0.599125 0.0465203 
-1364.24 1923.72 -135.544 -0.799303 0.599125 0.0465203 
-1280.77 2014.91 116.757 -0.799303 0.599125 0.0465203 
-1553.86 1708.55 -606.768 -0.799303 0.599125 0.0465203 
-1497.54 1770.13 -437.226 -0.799303 0.599125 0.0465203 
-1320.62 1964.97 77.7597 -0.799303 0.599125 0.0465203 
-1367.17 1912.1 -37.2711 -0.799303 0.599125 0.0465203 
-1595.79 1663.05 -737.352 -0.799303 0.599125 0.0465203 
-1355.83 1929.72 -69.4334 -0.799303 0.599125 0.0465203 
-1364.93 1920.97 -112.238 -0.799303 0.599125 0.0465203 
-1430.35 1846.13 -267.116 -0.799303 0.599125 0.0465203 
-1342.63 1939.77 26.0514 -0.799303 0.599125 0.0465203 
-1431.14 1843.28 -244.262 -0.799303 0.599125 0.0465203 
-1302.79 1992.73 26.399 -0.799303 0.599125 0.0465203 
-1344.17 1937.29 31.4315 -0.799303 0.599125 0.0465203 
-1444.44 1828.63 -282.996 -0.799303 0.599125 0.0465203 
-1346.3 1949.71 -162.479 -0.799303 0.599125 0.0465203 
-1612.71 1650.6 -865.207 -0.799303 0.599125 0.0465203 
-1502.25 1776.78 -601.438 -0.799303 0.599125 0.0465203 
-1591.7 1674.22 -810.216 -0.799303 0.599125 0.0465203 
-1465.49 1817.44 -496.541 -0.799303 0.599125 0.0465203 
-1533.36 1738.16 -636.505 -0.799303 0.599125 0.0465203 
-1355.46 1939.02 -181.429 -0.799303 0.599125 0.0465203 
-1549.44 1719.24 -667.792 -0.799303 0.599125 0.0465203 
-1476.63 1799.42 -455.854 -0.799303 0.599125 0.0465203 
-1605.3 1653.93 -782.278 -0.799303 0.599125 0.0465203 
-1483.96 1794.45 -516.66 -0.799303 0.599125 0.0465203 
-1562.76 1701.36 -665.866 -0.799303 0.599125 0.0465203 
-1400.08 1890.6 -320.509 -0.799303 0.599125 0.0465203 
-1561.76 1703.35 -674.114 -0.799303 0.599125 0.0465203 
-1532.59 1742.17 -674.449 -0.799303 0.599125 0.0465203 
-1440.2 1846.31 -435.88 -0.799303 0.599125 0.0465203 
-1435.14 1850.95 -409.434 -0.799303 0.599125 0.0465203 
-1282.1 2019.62 34.3588 -0.799303 0.599125 0.0465203 
-1369.26 1921.84 -196.436 -0.799303 0.599125 0.0465203 
-1492.27 1685.15 -788.879 0.524051 0.732349 -0.434781 
-1536.88 1684.41 -844.051 0.524051 0.732349 -0.434781 
-1554.23 1661.38 -903.876 0.524051 0.732349 -0.434781 
-1524.78 1638.48 -906.92 0.524051 0.732349 -0.434781 
-1339.9 1818.02 -380.507 0.524051 0.732349 -0.434781 
-1340.84 1821.16 -376.344 0.524051 0.732349 -0.434781 
-1398.18 1827.83 -434.413 0.524051 0.732349 -0.434781 
-1372.97 1849.97 -366.596 0.524051 0.732349 -0.434781 
-1206.92 1971.66 39.4532 0.524051 0.732349 -0.434781 
-1208.16 1981.97 55.3508 0.524051 0.732349 -0.434781 
-1216.16 2038.13 140.413 0.524051 0.732349 -0.434781 
-1218.82 2026.21 117.095 0.524051 0.732349 -0.434781 
-1228.64 2023.08 99.9301 0.524051 0.732349 -0.434781 
-1491.72 1788.26 -614.274 0.524051 0.732349 -0.434781 
-1446.08 1821.47 -503.065 0.524051 0.732349 -0.434781 
-1539.55 1725.5 -777.969 0.524051 0.732349 -0.434781 
-1396.64 1890.26 -327.242 0.524051 0.732349 -0.434781 
-1490.96 1771.45 -641.716 0.524051 0.732349 -0.434781 
-1518.44 1731.01 -743.146 0.524051 0.732349 -0.434781 
-1355.99 1914.68 -236.901 0.524051 0.732349 -0.434781 
-1325.14 1952.16 -136.386 0.524051 0.732349 -0.434781 
-1294.86 1989.61 -36.5833 0.524051 0.732349 -0.434781 
-1395.2 1783.32 -992.269 -0.799303 0.599125 0.0465203 
-1428.36 1738.9 -988.212 -0.799303 0.599125 0.0465203 
-1380.48 1801.2 -970.754 -0.799303 0.599125 0.0465203 
-1460.99 1692.96 -956.063 -0.799303 0.599125 0.0465203 
-1457.7 1697.95 -963.833 -0.799303 0.599125 0.0465203 
-1498.74 1637.6 -890.694 -0.799303 0.599125 0.0465203 
-1478.07 1665.8 -899.625 -0.799303 0.599125 0.0465203 
-1489.27 1651.13 -902.648 -0.799303 0.599125 0.0465203 
-1456.2 1695.15 -902.88 -0.799303 0.599125 0.0465203 
-1393.45 1776.81 -879.803 -0.799303 0.599125 0.0465203 
-1402.43 1807.9 -997.293 -0.522784 -0.733877 0.433729 
-1428.89 1859.34 -942.514 -0.522784 -0.733877 0.433729 
-1379.87 1814.82 -958.36 -0.522784 -0.733877 0.433729 
-1250.53 1977.94 -526.797 -0.522784 -0.733877 0.433729 
-1279.86 2014.99 -499.757 -0.522784 -0.733877 0.433729 
-1243.38 2029.81 -430.64 -0.522784 -0.733877 0.433729 
-1211.68 2009.16 -427.158 -0.522784 -0.733877 0.433729 
-1056.08 2158.31 12.5774 -0.522784 -0.733877 0.433729 
-1066 2146.77 -18.874 -0.522784 -0.733877 0.433729 
-1059.37 2182.35 49.1501 -0.522784 -0.733877 0.433729 
-1116.2 2178.62 -25.8493 -0.522784 -0.733877 0.433729 
-1451.19 1868.78 -953.553 -0.522784 -0.733877 0.433729 
-1344.41 1974.29 -646.457 -0.522784 -0.733877 0.433729 
-1200.61 2143.55 -187.06 -0.522784 -0.733877 0.433729 
-1467.19 1853.38 -998.878 -0.522784 -0.733877 0.433729 
-1207.5 2125.82 -225.307 -0.522784 -0.733877 0.433729 
-1125.21 2225.64 42.5741 -0.522784 -0.733877 0.433729 
-1171.37 2160.16 -123.699 -0.522784 -0.733877 0.433729 
-1348.98 1986 -669.165 -0.799303 0.599125 0.0465203 
-1099.42 2261.93 43.3161 -0.799303 0.599125 0.0465203 
-1088.35 2285.77 -72.7416 -0.799303 0.599125 0.0465203 
-1286.66 2060.36 -560.677 -0.799303 0.599125 0.0465203 
-1183.31 2167.18 -170.948 -0.799303 0.599125 0.0465203 
-1320.72 2018.74 -607.547 -0.799303 0.599125 0.0465203 
-1354.78 1978.5 -672.039 -0.799303 0.599125 0.0465203 
-1414.62 1912.77 -848.415 -0.799303 0.599125 0.0465203 
-1237.65 2107.15 -326.591 -0.799303 0.599125 0.0465203 
-1131.67 2228.04 -71.3506 -0.799303 0.599125 0.0465203 
-1181.93 2167.78 -155.202 -0.799303 0.599125 0.0465203 
-1299.12 2040.4 -517.602 -0.799303 0.599125 0.0465203 
-1202.32 2147.77 -245.673 -0.799303 0.599125 0.0465203 
-1279.6 2067.38 -530.445 -0.799303 0.599125 0.0465203 
-1148.88 2203.68 -52.7299 -0.799303 0.599125 0.0465203 
-1073.44 2304.9 -63.6427 -0.799303 0.599125 0.0465203 
-1108.77 2261.52 -109.587 -0.799303 0.599125 0.0465203 
-1098.67 2272.65 -80.2825 -0.799303 0.599125 0.0465203 
-1121.94 2240.85 -69.6485 -0.799303 0.599125 0.0465203 
-1142.52 2208.67 -8.64816 -0.799303 0.599125 0.0465203 
-1398.37 1932.88 -829.163 -0.799303 0.599125 0.0465203 
-1154.48 2201.69 -122.111 -0.799303 0.599125 0.0465203 
-1219.76 2132.27 -343.538 -0.799303 0.599125 0.0465203 
-1092.94 2273.74 2.65689 -0.799303 0.599125 0.0465203 
-1230.17 2122.76 -398.669 -0.799303 0.599125 0.0465203 
-1090.82 2276.34 5.47879 -0.799303 0.599125 0.0465203 
-1249.03 2094.66 -360.316 -0.799303 0.599125 0.0465203 
-1238.96 2112.21 -413.136 -0.799303 0.599125 0.0465203 
-1305.68 2052.28 -779.632 -0.799303 0.599125 0.0465203 
-1272.49 2085.21 -636.925 -0.799303 0.599125 0.0465203 
-1423.49 1913.45 -1007 -0.799303 0.599125 0.0465203 
-1303.23 2054.59 -767.656 -0.799303 0.599125 0.0465203 
-1395.23 1941.14 -881.057 -0.799303 0.599125 0.0465203 
-1351.89 2000.85 -907.154 -0.799303 0.599125 0.0465203 
-1276.14 2078.27 -610.477 -0.799303 0.599125 0.0465203 
-1204.04 2163.06 -469.161 -0.799303 0.599125 0.0465203 
-1295.24 2052.14 -601.33 -0.799303 0.599125 0.0465203 
-1253.63 2107.04 -595.515 -0.799303 0.599125 0.0465203 
-1378.2 1963.88 -882.194 -0.799303 0.599125 0.0465203 
-1365.84 1975.41 -819.719 -0.799303 0.599125 0.0465203 
-1405.63 1934.15 -968.151 -0.799303 0.599125 0.0465203 
-1253.48 2104.03 -554.742 -0.799303 0.599125 0.0465203 
-1191.31 2171.14 -356.437 -0.799303 0.599125 0.0465203 
-1193.59 2170.24 -383.635 -0.799303 0.599125 0.0465203 
-1301.46 2055.9 -754.353 -0.799303 0.599125 0.0465203 
-1331.48 2011.18 -693.514 -0.799303 0.599125 0.0465203 
-1401.66 1939.8 -972.752 -0.799303 0.599125 0.0465203 
-1370.01 1982.46 -979.932 -0.799303 0.599125 0.0465203 
-1168.7 2199.66 -336.772 -0.799303 0.599125 0.0465203 
-1337.53 2009.48 -773.99 -0.799303 0.599125 0.0465203 
-1333.53 2010.76 -722.815 -0.799303 0.599125 0.0465203 
-1380.22 1963.35 -909.573 -0.799303 0.599125 0.0465203 
-1157.27 2213.97 -325.51 -0.799303 0.599125 0.0465203 
-1267.13 2089.57 -601.7 -0.799303 0.599125 0.0465203 
-1175.89 2191.64 -356.394 -0.799303 0.599125 0.0465203 
-1338.27 1954.91 -1005.79 0.524051 0.732349 -0.434781 
-1338.06 1970.15 -979.83 0.524051 0.732349 -0.434781 
-1300.35 1927.02 -1006.98 0.524051 0.732349 -0.434781 
-1295.62 1924.85 -1004.92 0.524051 0.732349 -0.434781 
-1188.06 2093.42 -590.506 0.524051 0.732349 -0.434781 
-1148.12 2115.06 -505.725 0.524051 0.732349 -0.434781 
-1151.27 2080.73 -567.432 0.524051 0.732349 -0.434781 
-1017.08 2254.96 -111.273 0.524051 0.732349 -0.434781 
-1024.17 2280.25 -77.1887 0.524051 0.732349 -0.434781 
-1008.05 2290.32 -40.7197 0.524051 0.732349 -0.434781 
-1023.96 2290.8 -59.1358 0.524051 0.732349 -0.434781 
-996.919 2301.58 -8.25177 0.524051 0.732349 -0.434781 
-1218.2 2138.19 -551.429 0.524051 0.732349 -0.434781 
-1283.43 2060.76 -760.915 0.524051 0.732349 -0.434781 
-1107.58 2266.85 -200.641 0.524051 0.732349 -0.434781 
-1341.24 2000.19 -933.002 0.524051 0.732349 -0.434781 
-1123.98 2238.05 -269.048 0.524051 0.732349 -0.434781 
-1232.65 2101.77 -630.341 0.524051 0.732349 -0.434781 
-1136.23 2219.1 -315.836 0.524051 0.732349 -0.434781 
-1090.7 2256.08 -198.41 0.524051 0.732349 -0.434781 
-1055.13 2311.18 -62.4489 0.524051 0.732349 -0.434781 
-1202.2 2044.35 -1046.88 -0.799303 0.599125 0.0465203 
-1234.73 1998.63 -1015.9 -0.799303 0.599125 0.0465203 
-1273.17 1951.25 -1063.49 -0.799303 0.599125 0.0465203 
-1303.24 1910.5 -1053.98 -0.799303 0.599125 0.0465203 
-1218.41 2023.53 -1056.45 -0.799303 0.599125 0.0465203 
-1256.37 1966.86 -977.881 -0.799303 0.599125 0.0465203 
-1180.35 2077.76 -1102.17 -0.799303 0.599125 0.0465203 
-1180.27 2075.82 -1076.23 -0.799303 0.599125 0.0465203 
-1240.63 2000.12 -1134.5 -0.799303 0.599125 0.0465203 
-1264.27 1966.68 -1109.18 -0.799303 0.599125 0.0465203 
-1210.75 2036.41 -1090.46 -0.799303 0.599125 0.0465203 
-1119.4 2118.33 -587.094 -0.799303 0.599125 0.0465203 
-1110.08 2128.58 -559.8 -0.799303 0.599125 0.0465203 
-1115.38 2121.24 -556.089 -0.799303 0.599125 0.0465203 
-1050.09 2209.24 -570.889 -0.799303 0.599125 0.0465203 
-1145.81 2083.17 -586.799 -0.799303 0.599125 0.0465203 
-1103.72 2139.38 -589.638 -0.799303 0.599125 0.0465203 
-1024.63 2246.54 -614.337 -0.799303 0.599125 0.0465203 
-1062.32 2198.7 -643.576 -0.799303 0.599125 0.0465203 
-1040.53 2228.84 -658.304 -0.799303 0.599125 0.0465203 
-1073.96 2181.48 -621.492 -0.799303 0.599125 0.0465203 
-1059.43 2200.86 -622.087 -0.799303 0.599125 0.0465203 
-934.2 2323.71 -66.1864 -0.799303 0.599125 0.0465203 
-965.343 2279.44 -29.9662 -0.799303 0.599125 0.0465203 
-866.973 2416 -102.546 -0.799303 0.599125 0.0465203 
-959.592 2289.83 -64.8266 -0.799303 0.599125 0.0465203 
-872.644 2407.48 -90.2073 -0.799303 0.599125 0.0465203 
-898.627 2379.6 -175.141 -0.799303 0.599125 0.0465203 
-953.816 2303.95 -146.638 -0.799303 0.599125 0.0465203 
-886.262 2396.3 -178.343 -0.799303 0.599125 0.0465203 
-892.457 2389.01 -190.453 -0.799303 0.599125 0.0465203 
-898.991 2377.31 -152.226 -0.799303 0.599125 0.0465203 
-1136.73 2049.68 -7.39954 -0.799303 0.599125 0.0465203 
-1070.81 2133.07 47.1612 -0.799303 0.599125 0.0465203 
-1091.36 2111.52 -26.1951 -0.799303 0.599125 0.0465203 
-1129.56 2058.16 6.03354 -0.799303 0.599125 0.0465203 
-1077.07 2129.31 -10.8418 -0.799303 0.599125 0.0465203 
-1055.26 2153.45 51.0609 -0.799303 0.599125 0.0465203 
-1067.21 2136.4 65.7686 -0.799303 0.599125 0.0465203 
-1102.58 2089.62 62.4063 -0.799303 0.599125 0.0465203 
-1150.8 2019.16 142.656 -0.799303 0.599125 0.0465203 
-1150.22 2021.85 118.273 -0.799303 0.599125 0.0465203 
-1171.93 1993.13 116.302 -0.799303 0.599125 0.0465203 
-1100.95 2051.19 112.481 0.798281 -0.600477 -0.0466253 
-1137.11 2012.42 -6.15546 0.798281 -0.600477 -0.0466253 
-1031.32 2150.34 29.5302 0.798281 -0.600477 -0.0466253 
-1068.43 2107.35 -51.585 0.798281 -0.600477 -0.0466253 
-953.637 2260.1 -52.1588 0.798281 -0.600477 -0.0466253 
-954.521 2262.02 -91.4915 0.798281 -0.600477 -0.0466253 
-899.452 2340.5 -157.956 0.798281 -0.600477 -0.0466253 
-885.384 2359.09 -156.344 0.798281 -0.600477 -0.0466253 
-1223.22 1975.55 31.9068 -0.29469 -0.324307 -0.898879 
-1235.53 1959.35 41.7389 -0.29469 -0.324307 -0.898879 
-1240.9 1945.75 48.3646 -0.29469 -0.324307 -0.898879 
-1066.16 2264.9 -123.111 -0.29469 -0.324307 -0.898879 
-1094.82 2189.67 -86.7993 -0.29469 -0.324307 -0.898879 
-1069.51 2146.61 -79.7007 -0.29469 -0.324307 -0.898879 
-932.521 2303.27 -243.847 -0.799303 0.599125 0.0465203 
-1007.3 2219.82 -447.618 -0.799303 0.599125 0.0465203 
-1001.23 2224.21 -400.86 -0.799303 0.599125 0.0465203 
-954.835 2275.64 -270.052 -0.799303 0.599125 0.0465203 
-1071.62 2137.74 -491.836 -0.799303 0.599125 0.0465203 
-1007.34 2216.2 -402.262 -0.799303 0.599125 0.0465203 
-937.854 2294.52 -222.851 -0.799303 0.599125 0.0465203 
-1037.58 2176.74 -412.038 -0.799303 0.599125 0.0465203 
-950.913 2277.94 -232.908 -0.799303 0.599125 0.0465203 
-1054.28 2156.86 -441.682 -0.799303 0.599125 0.0465203 
-988.648 2235.24 -328.206 -0.799303 0.599125 0.0465203 
-962.972 2256.13 -159.53 -0.799303 0.599125 0.0465203 
-1115.93 2074.36 -435.322 -0.799303 0.599125 0.0465203 
-995.112 2212.97 -154.356 -0.799303 0.599125 0.0465203 
-1138.08 2043.42 -416.684 -0.799303 0.599125 0.0465203 
-1050.05 2151.57 -302.961 -0.799303 0.599125 0.0465203 
-1116.89 2072.12 -423.127 -0.799303 0.599125 0.0465203 
-1101.62 2084.87 -327.023 -0.799303 0.599125 0.0465203 
-1075.07 2121.42 -342.647 -0.799303 0.599125 0.0465203 
-1081.25 2113.48 -346.341 -0.799303 0.599125 0.0465203 
-1154.39 2021.93 -419.306 -0.799303 0.599125 0.0465203 
-1040.59 2148.46 -103.342 -0.799303 0.599125 0.0465203 
-1010.4 2192.12 -147.833 -0.799303 0.599125 0.0465203 
-1172.34 1996.89 -404.483 -0.799303 0.599125 0.0465203 
-1020.86 2179.44 -163.531 -0.799303 0.599125 0.0465203 
-1027.18 2172.16 -177.928 -0.799303 0.599125 0.0465203 
-1083.47 2102.72 -246.956 -0.799303 0.599125 0.0465203 
-1086.05 2093.55 -173.945 -0.799303 0.599125 0.0465203 
-1048.64 2146.88 -219.413 -0.799303 0.599125 0.0465203 
-1217.84 1927.97 -297.804 -0.799303 0.599125 0.0465203 
-1195.18 1955.58 -265.496 -0.799303 0.599125 0.0465203 
-1169.61 1990.79 -280.779 -0.799303 0.599125 0.0465203 
-1164.81 1995.25 -256.326 -0.799303 0.599125 0.0465203 
-1163.65 1994.46 -226.633 -0.799303 0.599125 0.0465203 
-1200.2 1957.37 -373.263 -0.799303 0.599125 0.0465203 
-1138.28 2013.73 -42.4737 -0.799303 0.599125 0.0465203 
-1120.62 2042.99 -115.867 -0.799303 0.599125 0.0465203 
-1139.62 2018.74 -128.865 -0.799303 0.599125 0.0465203 
-1213.6 1929.76 -248.765 -0.799303 0.599125 0.0465203 
-1151.64 2005.29 -161.229 -0.799303 0.599125 0.0465203 
-1231.82 1909.42 -298.349 -0.799303 0.599125 0.0465203 
-1231.09 1897.24 -131.027 -0.799303 0.599125 0.0465203 
-1211.49 1925.01 -152.662 -0.799303 0.599125 0.0465203 
-1309.48 1806.02 -297.131 -0.799303 0.599125 0.0465203 
-1338.93 1764.74 -270.371 -0.799303 0.599125 0.0465203 
-1301.05 1814.54 -262.971 -0.799303 0.599125 0.0465203 
-1242.29 1881.24 -117.101 -0.799303 0.599125 0.0465203 
-1259.96 1866.37 -226.989 -0.799303 0.599125 0.0465203 
-1290.77 1823.73 -205.812 -0.799303 0.599125 0.0465203 
-1340.04 1763.71 -276.03 -0.799303 0.599125 0.0465203 
-1254.99 1862.97 -99.5813 -0.799303 0.599125 0.0465203 
-1249.83 1868.29 -80.0604 -0.799303 0.599125 0.0465203 
-1240.83 1873.96 0.173462 -0.799303 0.599125 0.0465203 
-1265 1846.03 -53.636 -0.799303 0.599125 0.0465203 
-1183.71 1951.64 -21.5499 -0.799303 0.599125 0.0465203 
-1220.42 1903.56 -31.0831 -0.799303 0.599125 0.0465203 
-1226.67 1890.86 24.6518 -0.799303 0.599125 0.0465203 
-1235.37 1879.35 24.0122 -0.799303 0.599125 0.0465203 
-1246.43 1874.39 -100.175 -0.799303 0.599125 0.0465203 
-1339.58 1809.65 -295.751 0.294972 0.321653 0.899739 
-1362.38 1843.48 -300.371 0.294972 0.321653 0.899739 
-1262.45 1874.9 -377.441 0.798281 -0.600477 -0.0466253 
-1266.3 1867.02 -342.506 0.798281 -0.600477 -0.0466253 
-1196.85 1968.65 -459.967 0.798281 -0.600477 -0.0466253 
-1188.02 1977.82 -427.227 0.798281 -0.600477 -0.0466253 
-1120.37 2076.71 -540.407 0.798281 -0.600477 -0.0466253 
-1039.2 2189.23 -598.065 0.798281 -0.600477 -0.0466253 
-1032.09 2200.67 -623.33 0.798281 -0.600477 -0.0466253 
-1207.66 2019.98 -414.257 0.294972 0.321653 0.899739 
-1206.39 2059.8 -428.917 0.294972 0.321653 0.899739 
-1206.43 2086.46 -438.442 0.294972 0.321653 0.899739 
-1320.36 1841.67 -468.387 -0.799303 0.599125 0.0465203 
-1233.67 1954.16 -432.471 -0.799303 0.599125 0.0465203 
-1276.23 1900.34 -468.037 -0.799303 0.599125 0.0465203 
-1284.43 1891.06 -488.72 -0.799303 0.599125 0.0465203 
-1273.55 1905.11 -483.253 -0.799303 0.599125 0.0465203 
-1269.57 1901.18 -366.04 -0.799303 0.599125 0.0465203 
-1284.3 1882.88 -382.353 -0.799303 0.599125 0.0465203 
-1278.61 1889.03 -364.523 -0.799303 0.599125 0.0465203 
-1209.57 1984.92 -415.939 -0.799303 0.599125 0.0465203 
-1260.15 1916.83 -405.584 -0.799303 0.599125 0.0465203 
-1478.29 1658.11 -782.391 0.294972 0.321653 0.899739 
-1538.15 1609.2 -745.26 0.294972 0.321653 0.899739 
-1394.06 1869.61 -885.668 0.294972 0.321653 0.899739 
-1371.7 1898.94 -903.495 0.294972 0.321653 0.899739 
-1381.1 1908.57 -903.858 0.294972 0.321653 0.899739 
-1318.95 1941.02 -935.852 0.294972 0.321653 0.899739 
-1118.59 2088.71 -662.785 -0.799303 0.599125 0.0465203 
-1202.54 1995.27 -894.585 -0.799303 0.599125 0.0465203 
-1158.62 2042.54 -752.914 -0.799303 0.599125 0.0465203 
-1117.36 2088.26 -636.374 -0.799303 0.599125 0.0465203 
-1104.92 2106.91 -663.069 -0.799303 0.599125 0.0465203 
-1169.66 2034.51 -837.591 -0.799303 0.599125 0.0465203 
-1111.4 2106 -761.151 -0.799303 0.599125 0.0465203 
-1138.48 2076.36 -842.324 -0.799303 0.599125 0.0465203 
-1167.06 2042.75 -898.21 -0.799303 0.599125 0.0465203 
-1173.89 2031.44 -869.998 -0.799303 0.599125 0.0465203 
-1199.77 2005.44 -977.036 -0.799303 0.599125 0.0465203 
-1124.71 2089.81 -780.374 -0.799303 0.599125 0.0465203 
-1224.48 1951.54 -709.771 -0.799303 0.599125 0.0465203 
-1223.77 1946.11 -628.753 -0.799303 0.599125 0.0465203 
-1240.04 1926.64 -656.288 -0.799303 0.599125 0.0465203 
-1195.78 1984.99 -649.562 -0.799303 0.599125 0.0465203 
-1173.61 2011.44 -611.026 -0.799303 0.599125 0.0465203 
-1308.79 1848.82 -829.665 -0.799303 0.599125 0.0465203 
-1278.69 1885.98 -793.089 -0.799303 0.599125 0.0465203 
-1281.4 1881.58 -782.97 -0.799303 0.599125 0.0465203 
-1211.98 1966.38 -687.037 -0.799303 0.599125 0.0465203 
-1253.06 1921.61 -812.668 -0.799303 0.599125 0.0465203 
-1265.95 1909.68 -878.818 -0.799303 0.599125 0.0465203 
-1292.75 1874.06 -879.142 -0.799303 0.599125 0.0465203 
-1188.98 2001 -738.246 -0.799303 0.599125 0.0465203 
-1205.01 1984.03 -793.55 -0.799303 0.599125 0.0465203 
-1216.83 1968.69 -798.367 -0.799303 0.599125 0.0465203 
-1209.46 1973.69 -737.249 -0.799303 0.599125 0.0465203 
-1206.11 1980.95 -772.879 -0.799303 0.599125 0.0465203 
-1280.39 1867.8 -590.6 -0.799303 0.599125 0.0465203 
-1307.16 1831.28 -578.975 -0.799303 0.599125 0.0465203 
-1290.22 1851.8 -553.395 -0.799303 0.599125 0.0465203 
-1358.45 1771.3 -683.934 -0.799303 0.599125 0.0465203 
-1332.69 1806.03 -689.727 -0.799303 0.599125 0.0465203 
-1272.12 1877.28 -571.266 -0.799303 0.599125 0.0465203 
-1378.95 1754.62 -818.58 -0.799303 0.599125 0.0465203 
-1363.98 1774.06 -812.558 -0.799303 0.599125 0.0465203 
-1323.24 1825.61 -778.94 -0.799303 0.599125 0.0465203 
-1329.59 1815.49 -757.581 -0.799303 0.599125 0.0465203 
-1330.61 1815.09 -769.904 -0.799303 0.599125 0.0465203 
-1260.18 1894.26 -585.31 -0.799303 0.599125 0.0465203 
-1410.85 1694.86 -598.148 -0.799303 0.599125 0.0465203 
-1416.81 1685.49 -579.802 -0.799303 0.599125 0.0465203 
-1429.1 1664.93 -526.348 -0.799303 0.599125 0.0465203 
-1380 1730.6 -530.928 -0.799303 0.599125 0.0465203 
-1404.53 1694.52 -487.061 -0.799303 0.599125 0.0465203 
-1443.19 1654.67 -634.152 -0.799303 0.599125 0.0465203 
-1409.13 1689.13 -496.358 -0.799303 0.599125 0.0465203 
-1422.81 1671.45 -502.955 -0.799303 0.599125 0.0465203 
-1371.51 1733.79 -427.825 -0.799303 0.599125 0.0465203 
-1438.77 1664.88 -689.391 -0.799303 0.599125 0.0465203 
-1405.79 1709.93 -704.242 -0.799303 0.599125 0.0465203 
-1412.01 1700.49 -689.366 -0.799303 0.599125 0.0465203 
-1324.52 1800.63 -483.037 -0.799303 0.599125 0.0465203 
-1399.35 1719.89 -721.89 -0.799303 0.599125 0.0465203 
-1350.19 1771.83 -550.978 -0.799303 0.599125 0.0465203 
-1483.3 1610.59 -752.04 -0.799303 0.599125 0.0465203 
-1398.86 1717.84 -687.588 -0.799303 0.599125 0.0465203 
-1434.07 1674.63 -733.713 -0.799303 0.599125 0.0465203 
-1410.13 1784.49 -424.786 -0.29469 -0.324307 -0.898879 
-1421.7 1732.07 -402.239 -0.29469 -0.324307 -0.898879 
-1212.34 2068.3 -591.18 -0.29469 -0.324307 -0.898879 
-1226.49 2029.56 -572.681 -0.29469 -0.324307 -0.898879 
-1228.9 1990.14 -557.792 -0.29469 -0.324307 -0.898879 
-1515.27 1721.62 -586.2 0.798281 -0.600477 -0.0466253 
-1515.71 1726.3 -653.274 0.798281 -0.600477 -0.0466253 
-1540.54 1699.44 -731.722 0.798281 -0.600477 -0.0466253 
-1543.25 1694.41 -713.521 0.798281 -0.600477 -0.0466253 
-1501.91 1734.62 -525.566 0.798281 -0.600477 -0.0466253 
-1525.03 1707.58 -572.893 0.798281 -0.600477 -0.0466253 
-1493.56 1753.18 -620.25 0.798281 -0.600477 -0.0466253 
-1489.36 1761.54 -655.553 0.798281 -0.600477 -0.0466253 
