ply
format ascii 1.0
comment Created by CloudCompare v2.11.3 (Anoia)
comment Created 08/09/2022 00:18
obj_info Generated by CloudCompare!
element vertex 856
property float x
property float y
property float z
property float nx
property float ny
property float nz
end_header
-1263.02 -2464.63 460.774 0.707356 -0.544248 -0.451044 
-1379.03 -2708.15 572.028 0.707356 -0.544248 -0.451044 
-917.906 -2064 519.332 0.707356 -0.544248 -0.451044 
-942.202 -2021.78 430.499 0.707356 -0.544248 -0.451044 
-1252.54 -2545.02 573.888 0.707356 -0.544248 -0.451044 
-1146.63 -2491.8 675.737 0.707356 -0.544248 -0.451044 
-1374.21 -2726.54 601.701 0.707356 -0.544248 -0.451044 
-1140.99 -2392.66 565.308 0.707356 -0.544248 -0.451044 
-1320.9 -2600.67 533.786 0.707356 -0.544248 -0.451044 
-870.463 -2316.01 896.77 0.707356 -0.544248 -0.451044 
-1071.92 -2277.43 534.878 0.707356 -0.544248 -0.451044 
-998.714 -2271.25 642.079 0.707356 -0.544248 -0.451044 
-1346.87 -2708.32 622.593 0.707356 -0.544248 -0.451044 
-892.404 -1960.93 435.295 0.707356 -0.544248 -0.451044 
-1164.29 -2571.23 743.615 0.707356 -0.544248 -0.451044 
-1320.6 -2658.05 603.276 0.707356 -0.544248 -0.451044 
-977.205 -2292.12 700.877 0.707356 -0.544248 -0.451044 
-925.349 -1774.55 159.516 0.707356 -0.544248 -0.451044 
-953.598 -1873.34 234.11 0.707356 -0.544248 -0.451044 
-939.996 -2071.33 493.555 0.707356 -0.544248 -0.451044 
-1105.84 -2193.4 380.674 0.707356 -0.544248 -0.451044 
-973.41 -1917.72 256.467 0.707356 -0.544248 -0.451044 
-1140.14 -2210.71 347.789 0.707356 -0.544248 -0.451044 
-1312.38 -2565.64 504.986 0.707356 -0.544248 -0.451044 
-1127.03 -2155 301.305 0.707356 -0.544248 -0.451044 
-1310.75 -2579.59 524.33 0.707356 -0.544248 -0.451044 
-950.925 -1803.86 154.718 0.707356 -0.544248 -0.451044 
-1175.67 -2307.54 408.607 0.707356 -0.544248 -0.451044 
-906.856 -2327.54 853.639 0.707356 -0.544248 -0.451044 
-930.505 -2077.48 515.825 0.707356 -0.544248 -0.451044 
-1316.04 -2668.32 622.775 0.707356 -0.544248 -0.451044 
-1031.81 -1968.6 226.206 0.707356 -0.544248 -0.451044 
-965.762 -2351.55 790.28 0.707356 -0.544248 -0.451044 
-965.304 -2219.33 631.957 0.707356 -0.544248 -0.451044 
-945.077 -2310.21 772.946 0.707356 -0.544248 -0.451044 
-931.928 -1866.02 259.232 0.707356 -0.544248 -0.451044 
-1084.39 -2411.96 677.167 0.707356 -0.544248 -0.451044 
-1018.01 -2210.55 538.859 0.707356 -0.544248 -0.451044 
-964.354 -1929.64 284.983 0.707356 -0.544248 -0.451044 
-977.082 -1909.08 240.317 0.707356 -0.544248 -0.451044 
-862.291 -2178.12 743.703 0.707356 -0.544248 -0.451044 
-927.099 -1831.84 225.679 0.707356 -0.544248 -0.451044 
-1198.35 -2389.63 471.843 0.707356 -0.544248 -0.451044 
-1029.15 -2260.02 580.913 0.707356 -0.544248 -0.451044 
-1293.64 -2577.36 548.439 0.707356 -0.544248 -0.451044 
-1208.58 -2611.41 722.587 0.707356 -0.544248 -0.451044 
-1437.86 -2804.23 595.472 0.707356 -0.544248 -0.451044 
-1071.94 -2060.73 274.186 0.707356 -0.544248 -0.451044 
-919.616 -2184.56 661.678 0.707356 -0.544248 -0.451044 
-1290.87 -2595.08 574.089 0.707356 -0.544248 -0.451044 
-1084.28 -2299.21 541.709 0.707356 -0.544248 -0.451044 
-942.938 -1812.87 178.061 0.707356 -0.544248 -0.451044 
-977.326 -2028.64 383.752 0.707356 -0.544248 -0.451044 
-1288.5 -2570.01 547.632 0.707356 -0.544248 -0.451044 
-1136.34 -2546.93 758.163 0.707356 -0.544248 -0.451044 
-910.061 -2031.54 492.576 0.707356 -0.544248 -0.451044 
-1075.46 -2394.06 669.616 0.707356 -0.544248 -0.451044 
-1061.23 -2033.02 257.625 0.707356 -0.544248 -0.451044 
-1391.1 -2779.35 638.773 0.707356 -0.544248 -0.451044 
-1066.6 -2263.93 526.962 0.707356 -0.544248 -0.451044 
-1018.15 -2219.63 549.562 0.707356 -0.544248 -0.451044 
-1142.13 -2341.22 501.663 0.707356 -0.544248 -0.451044 
-1165.84 -2541.53 705.471 0.707356 -0.544248 -0.451044 
-1280.17 -2523.73 505.023 0.707356 -0.544248 -0.451044 
-1305.06 -2650.4 618.409 0.707356 -0.544248 -0.451044 
-1313.39 -2564.71 502.273 0.707356 -0.544248 -0.451044 
-1155.49 -2332.62 470.389 0.707356 -0.544248 -0.451044 
-1333.18 -2688.84 620.603 0.707356 -0.544248 -0.451044 
-1206.67 -2559.28 662.88 0.707356 -0.544248 -0.451044 
-1087.67 -2121.24 322.341 0.707356 -0.544248 -0.451044 
-900.665 -1987.6 454.436 0.707356 -0.544248 -0.451044 
-1051.29 -2111.77 367.919 0.707356 -0.544248 -0.451044 
-927.447 -1860 259.016 0.707356 -0.544248 -0.451044 
-1191.77 -2584.19 716.179 0.707356 -0.544248 -0.451044 
-948.713 -1825.79 184.554 0.707356 -0.544248 -0.451044 
-991.173 -2421.88 835.08 0.707356 -0.544248 -0.451044 
-829.184 -2184.51 803.232 0.707356 -0.544248 -0.451044 
-1345.22 -2601.08 496.182 0.707356 -0.544248 -0.451044 
-983.602 -2077.69 432.921 0.707356 -0.544248 -0.451044 
-811.019 -2230.36 886.836 0.707356 -0.544248 -0.451044 
-1006.24 -2215.58 563.34 0.707356 -0.544248 -0.451044 
-907.126 -1848.43 276.924 0.707356 -0.544248 -0.451044 
-938.652 -2252.86 714.027 0.707356 -0.544248 -0.451044 
-861.768 -2104.13 655.519 0.707356 -0.544248 -0.451044 
-873.711 -1957.07 459.922 0.707356 -0.544248 -0.451044 
-1159.62 -2229.05 339.341 0.707356 -0.544248 -0.451044 
-925.849 -1956.36 377.421 0.707356 -0.544248 -0.451044 
-1267.85 -2487.41 480.629 0.707356 -0.544248 -0.451044 
-1039.7 -2033.71 292.176 0.707356 -0.544248 -0.451044 
-1238.36 -2624.85 692.12 0.707356 -0.544248 -0.451044 
-937.674 -2281.77 750.329 0.707356 -0.544248 -0.451044 
-903.692 -1912.12 358.911 0.707356 -0.544248 -0.451044 
-1183.67 -2386.95 491.604 0.707356 -0.544248 -0.451044 
-904.417 -2276.99 796.664 0.707356 -0.544248 -0.451044 
-999.356 -2230.21 591.709 0.707356 -0.544248 -0.451044 
-970.312 -2226.22 632.4 0.707356 -0.544248 -0.451044 
-1051.22 -2247.8 531.655 0.707356 -0.544248 -0.451044 
-1093.05 -2358.38 599.154 0.707356 -0.544248 -0.451044 
-896.085 -1847.81 293.46 0.707356 -0.544248 -0.451044 
-1379.57 -2672.36 528.141 0.707356 -0.544248 -0.451044 
-910.335 -2141.09 623.926 0.707356 -0.544248 -0.451044 
-1373.38 -2760.6 643.965 0.707356 -0.544248 -0.451044 
-1072.26 -2367.5 642.68 0.707356 -0.544248 -0.451044 
-932.274 -2062.3 494.796 0.707356 -0.544248 -0.451044 
-1176.45 -2266.07 357.509 0.707356 -0.544248 -0.451044 
-1205.05 -2620.45 738.997 0.707356 -0.544248 -0.451044 
-968.233 -1954.17 308.413 0.707356 -0.544248 -0.451044 
-1186.21 -2367.81 464.6 0.707356 -0.544248 -0.451044 
-1148.97 -2353.57 505.801 0.707356 -0.544248 -0.451044 
-898.699 -1936.5 396.05 0.707356 -0.544248 -0.451044 
-1202.86 -2392.06 467.702 0.707356 -0.544248 -0.451044 
-1025.27 -1983.46 254.329 0.707356 -0.544248 -0.451044 
-1195.93 -2505.88 615.469 0.707356 -0.544248 -0.451044 
-1189.65 -2360.09 449.938 0.707356 -0.544248 -0.451044 
-1137.08 -2274.23 428.995 0.707356 -0.544248 -0.451044 
-1150.93 -2428.08 592.365 0.707356 -0.544248 -0.451044 
-1110.49 -2359.89 573.667 0.707356 -0.544248 -0.451044 
-886.741 -2208.54 742.01 0.707356 -0.544248 -0.451044 
-911.768 -2321.05 838.15 0.707356 -0.544248 -0.451044 
-967.96 -2383.46 825.216 0.707356 -0.544248 -0.451044 
-1431.49 -2787.88 585.784 0.707356 -0.544248 -0.451044 
-1040.07 -2473.67 820.79 0.707356 -0.544248 -0.451044 
-1107.67 -2170.95 350.81 0.707356 -0.544248 -0.451044 
-1059.27 -2403.7 706.569 0.707356 -0.544248 -0.451044 
-1423.08 -2821.1 638.903 0.707356 -0.544248 -0.451044 
-1179.54 -2430.31 550.243 0.707356 -0.544248 -0.451044 
-1380.87 -2700.44 559.875 0.707356 -0.544248 -0.451044 
-1057.84 -2327.02 616.578 0.707356 -0.544248 -0.451044 
-1170.59 -2526.45 679.9 0.707356 -0.544248 -0.451044 
-1334.44 -2670.56 596.638 0.707356 -0.544248 -0.451044 
-1029.19 -2377.91 722.655 0.707356 -0.544248 -0.451044 
-1291.91 -2708.45 708.82 0.707356 -0.544248 -0.451044 
-868.804 -2257.86 829.418 0.707356 -0.544248 -0.451044 
-1009.29 -1927.47 212.009 0.707356 -0.544248 -0.451044 
-1463.62 -2840.43 598.676 0.707356 -0.544248 -0.451044 
-1026.79 -1988.18 257.626 0.707356 -0.544248 -0.451044 
-1297.03 -2524.62 479.688 0.707356 -0.544248 -0.451044 
-1072.09 -2323.74 590.319 0.707356 -0.544248 -0.451044 
-1037.17 -2102.33 378.668 0.707356 -0.544248 -0.451044 
-1094.72 -2375.27 616.862 0.707356 -0.544248 -0.451044 
-1207.67 -2457.42 538.798 0.707356 -0.544248 -0.451044 
-1188.91 -2592.93 731.172 0.707356 -0.544248 -0.451044 
-929.602 -2113.61 560.696 0.707356 -0.544248 -0.451044 
-1154.01 -2214.98 331.21 0.707356 -0.544248 -0.451044 
-1107.31 -2465.45 705.614 0.707356 -0.544248 -0.451044 
-1111.92 -2221.83 405.349 0.707356 -0.544248 -0.451044 
-1088.02 -2279.9 512.629 0.707356 -0.544248 -0.451044 
-929.864 -1892.02 293.739 0.707356 -0.544248 -0.451044 
-1151.05 -2403.7 562.843 0.707356 -0.544248 -0.451044 
-871.326 -2051.85 577.666 0.707356 -0.544248 -0.451044 
-939.157 -2104.8 535.14 0.707356 -0.544248 -0.451044 
-881.396 -2060.18 571.921 0.707356 -0.544248 -0.451044 
-1145.34 -2320.3 471.454 0.707356 -0.544248 -0.451044 
-1106.26 -2138.87 314.424 0.707356 -0.544248 -0.451044 
-995.375 -1937.64 246.023 0.707356 -0.544248 -0.451044 
-889.756 -2134.67 648.424 0.707356 -0.544248 -0.451044 
-1015.36 -2345.46 705.271 0.707356 -0.544248 -0.451044 
-1116.19 -2250.75 433.451 0.707356 -0.544248 -0.451044 
-1121.53 -2349.35 543.699 0.707356 -0.544248 -0.451044 
-914.026 -1919.01 351.01 0.707356 -0.544248 -0.451044 
-1032.25 -2237.05 548.426 0.707356 -0.544248 -0.451044 
-1345.96 -2685.72 596.838 0.707356 -0.544248 -0.451044 
-1212.01 -2522.75 610.566 0.707356 -0.544248 -0.451044 
-967.025 -2096.29 481.257 0.707356 -0.544248 -0.451044 
-1133.79 -2526.2 737.215 0.707356 -0.544248 -0.451044 
-1059.2 -2345.01 636.092 0.707356 -0.544248 -0.451044 
-936.054 -2108.49 544.433 0.707356 -0.544248 -0.451044 
-1416.38 -2829 658.908 0.707356 -0.544248 -0.451044 
-870.778 -2172.61 723.781 0.707356 -0.544248 -0.451044 
-859.383 -2150.85 715.457 0.707356 -0.544248 -0.451044 
-1007.32 -2264.95 621.025 0.707356 -0.544248 -0.451044 
-1007.64 -2211.55 556.306 0.707356 -0.544248 -0.451044 
-1193 -2472.77 580.231 0.707356 -0.544248 -0.451044 
-939.598 -1801.97 170.175 0.707356 -0.544248 -0.451044 
-1337.81 -2657.78 575.989 0.707356 -0.544248 -0.451044 
-877.409 -2017.79 527.175 0.707356 -0.544248 -0.451044 
-1073.77 -2350.57 619.953 0.707356 -0.544248 -0.451044 
-874 -2199.17 750.685 0.707356 -0.544248 -0.451044 
-1177.42 -2555.61 704.275 0.707356 -0.544248 -0.451044 
-1029.47 -2163.93 464.831 0.707356 -0.544248 -0.451044 
-1252.62 -2454.01 464.286 0.707356 -0.544248 -0.451044 
-886.314 -2083.39 592.134 0.707356 -0.544248 -0.451044 
-1229.99 -2584.91 657.192 0.707356 -0.544248 -0.451044 
-984.753 -1976.01 308.808 0.707356 -0.544248 -0.451044 
-1061.98 -2475.69 788.915 0.707356 -0.544248 -0.451044 
-1212.47 -2633.99 743.66 0.707356 -0.544248 -0.451044 
-1179.81 -2512.02 648.1 0.707356 -0.544248 -0.451044 
-988.207 -1878.77 186.442 0.707356 -0.544248 -0.451044 
-1069.48 -2330.94 603.066 0.707356 -0.544248 -0.451044 
-830.836 -2132.37 737.93 0.707356 -0.544248 -0.451044 
-947.175 -2202.46 640.046 0.707356 -0.544248 -0.451044 
-989.398 -2173.36 538.93 0.707356 -0.544248 -0.451044 
-1170.72 -2270.06 371.282 0.707356 -0.544248 -0.451044 
-1078.67 -2165.07 389.142 0.707356 -0.544248 -0.451044 
-1032.13 -2000.99 264.666 0.707356 -0.544248 -0.451044 
-883.098 -2115.78 636.132 0.707356 -0.544248 -0.451044 
-957.802 -2169.72 584.025 0.707356 -0.544248 -0.451044 
-955.364 -1910.66 276.229 0.707356 -0.544248 -0.451044 
-895.896 -2283.01 817.24 0.707356 -0.544248 -0.451044 
-1111.63 -2489.93 728.293 0.707356 -0.544248 -0.451044 
-1183.73 -2454.1 572.278 0.707356 -0.544248 -0.451044 
-1105.72 -2433.61 669.817 0.707356 -0.544248 -0.451044 
-1192.33 -2499.01 612.83 0.707356 -0.544248 -0.451044 
-1010.2 -2185.2 520.6 0.707356 -0.544248 -0.451044 
-1185.94 -2584.94 726.204 0.707356 -0.544248 -0.451044 
-960.128 -2004.94 382.174 0.707356 -0.544248 -0.451044 
-1019.88 -2044.78 336.531 0.707356 -0.544248 -0.451044 
-1129.65 -2253.06 415.154 0.707356 -0.544248 -0.451044 
-876.319 -2233.41 788.237 0.707356 -0.544248 -0.451044 
-1018.08 -2204.76 531.784 0.707356 -0.544248 -0.451044 
-975.064 -2029.68 388.541 0.707356 -0.544248 -0.451044 
-861.485 -2120.14 675.221 0.707356 -0.544248 -0.451044 
-1116.2 -2451.02 674.342 0.707356 -0.544248 -0.451044 
-892.832 -2343.66 895.003 0.707356 -0.544248 -0.451044 
-1347.17 -2687.77 597.413 0.707356 -0.544248 -0.451044 
-1249.4 -2521.06 549.989 0.707356 -0.544248 -0.451044 
-1061.34 -2321.72 604.721 0.707356 -0.544248 -0.451044 
-1425.41 -2803.2 613.731 0.707356 -0.544248 -0.451044 
-963.732 -2217.95 632.749 0.707356 -0.544248 -0.451044 
-867.017 -2111.44 656.099 0.707356 -0.544248 -0.451044 
-1377.15 -2736.82 609.464 0.707356 -0.544248 -0.451044 
-1456.55 -2842.01 611.642 0.707356 -0.544248 -0.451044 
-1009.9 -2036.21 341.847 0.707356 -0.544248 -0.451044 
-1081.78 -2074.53 275.369 0.707356 -0.544248 -0.451044 
-1292.28 -2513.95 474.289 0.707356 -0.544248 -0.451044 
-1107.52 -2163.91 342.566 0.707356 -0.544248 -0.451044 
-911.174 -2016.13 472.302 0.707356 -0.544248 -0.451044 
-1010.88 -2387.35 762.68 0.707356 -0.544248 -0.451044 
-1069.66 -2364.7 643.388 0.707356 -0.544248 -0.451044 
-1406.55 -2801.39 641.084 0.707356 -0.544248 -0.451044 
-1198.2 -2310.32 376.671 0.707356 -0.544248 -0.451044 
-1120.03 -2202.87 369.841 0.707356 -0.544248 -0.451044 
-1039.45 -2067.24 332.884 0.707356 -0.544248 -0.451044 
-981.048 -2133.97 504.615 0.707356 -0.544248 -0.451044 
-945.43 -2152.72 582.95 0.707356 -0.544248 -0.451044 
-1024.76 -2198.3 513.558 0.707356 -0.544248 -0.451044 
-871.138 -2052.43 578.658 0.707356 -0.544248 -0.451044 
-1089.25 -2363.6 611.379 0.707356 -0.544248 -0.451044 
-931.925 -2098.94 539.415 0.707356 -0.544248 -0.451044 
-1082.72 -2232.49 463.917 0.707356 -0.544248 -0.451044 
-1147.98 -2394.64 556.748 0.707356 -0.544248 -0.451044 
-1293.25 -2694.14 689.501 0.707356 -0.544248 -0.451044 
-1094.64 -2142.94 337.521 0.707356 -0.544248 -0.451044 
-920.193 -1803.37 202.256 0.707356 -0.544248 -0.451044 
-895.234 -1959.66 429.331 0.707356 -0.544248 -0.451044 
-889.337 -1873.23 334.604 0.707356 -0.544248 -0.451044 
-1291.39 -2632.91 618.779 0.707356 -0.544248 -0.451044 
-1356.28 -2657.09 546.232 0.707356 -0.544248 -0.451044 
-976.578 -1919.16 253.237 0.707356 -0.544248 -0.451044 
-1093.91 -2088.07 272.66 0.707356 -0.544248 -0.451044 
-1096.64 -2376.09 614.835 0.707356 -0.544248 -0.451044 
-1200.19 -2425.15 511.688 0.707356 -0.544248 -0.451044 
-1115.41 -2541.34 784.214 0.707356 -0.544248 -0.451044 
-1175.55 -2591.99 750.967 0.707356 -0.544248 -0.451044 
-982.231 -2211.04 595.469 0.707356 -0.544248 -0.451044 
-1291.69 -2586.52 562.508 0.707356 -0.544248 -0.451044 
-986.313 -2062.19 410.028 0.707356 -0.544248 -0.451044 
-1119.73 -2145.13 300.855 0.707356 -0.544248 -0.451044 
-918.141 -2195.4 677.027 0.707356 -0.544248 -0.451044 
-1166.2 -2345.19 468.745 0.707356 -0.544248 -0.451044 
-1095.42 -2266.08 484.415 0.707356 -0.544248 -0.451044 
-895.248 -2268.7 801.045 0.707356 -0.544248 -0.451044 
-1191.47 -2464.26 572.384 0.707356 -0.544248 -0.451044 
-1050.45 -2169.33 438.466 0.707356 -0.544248 -0.451044 
-954.489 -2052.16 447.809 0.707356 -0.544248 -0.451044 
-960.353 -1912.48 270.604 0.707356 -0.544248 -0.451044 
-884.562 -1981.09 471.822 0.707356 -0.544248 -0.451044 
-853.552 -2026.05 574.468 0.707356 -0.544248 -0.451044 
-870.428 -2128.25 670.979 0.707356 -0.544248 -0.451044 
-888.808 -1983.37 467.923 0.707356 -0.544248 -0.451044 
-956.766 -2213.3 638.068 0.707356 -0.544248 -0.451044 
-1160.46 -2487.33 648.695 0.707356 -0.544248 -0.451044 
-1333.21 -2374.4 242.325 0.707356 -0.544248 -0.451044 
-1339.59 -2531.26 421.022 0.707356 -0.544248 -0.451044 
-1147.94 -2151.19 263.971 0.707356 -0.544248 -0.451044 
-968.991 -1826.44 153.584 0.707356 -0.544248 -0.451044 
-1372.73 -2594.05 444.648 0.707356 -0.544248 -0.451044 
-1176.32 -2248.48 336.564 0.707356 -0.544248 -0.451044 
-1083.91 -1944.04 115.069 0.707356 -0.544248 -0.451044 
-1232.02 -2060.47 23.1704 0.707356 -0.544248 -0.451044 
-1410.6 -2500.46 272.764 0.707356 -0.544248 -0.451044 
-1367.48 -2195.63 -26.3823 0.707356 -0.544248 -0.451044 
-1371.31 -2327 125.645 0.707356 -0.544248 -0.451044 
-1216.37 -2230.14 251.779 0.707356 -0.544248 -0.451044 
-1360.66 -2420.08 254.288 0.707356 -0.544248 -0.451044 
-1451.21 -2706.84 457.421 0.707356 -0.544248 -0.451044 
-1492.17 -2680.33 361.392 0.707356 -0.544248 -0.451044 
-1500.82 -2650.98 312.526 0.707356 -0.544248 -0.451044 
-1506.42 -2461.56 75.9221 0.707356 -0.544248 -0.451044 
-1364.98 -2546.01 398.99 0.707356 -0.544248 -0.451044 
-1131.38 -2005.84 115.08 0.707356 -0.544248 -0.451044 
-1521.98 -2610.86 231.147 0.707356 -0.544248 -0.451044 
-1501.53 -2800.1 490.787 0.707356 -0.544248 -0.451044 
-1512.38 -2710.52 366.05 0.707356 -0.544248 -0.451044 
-1386.14 -2469.49 273.823 0.707356 -0.544248 -0.451044 
-1322.4 -2466.55 370.106 0.707356 -0.544248 -0.451044 
-1278.24 -2452.68 422.58 0.707356 -0.544248 -0.451044 
-1483.11 -2697.47 396.189 0.707356 -0.544248 -0.451044 
-1392.17 -2288.44 46.6008 0.707356 -0.544248 -0.451044 
-1146.28 -2002.69 87.9509 0.707356 -0.544248 -0.451044 
-1538.71 -2487.06 56.0205 0.707356 -0.544248 -0.451044 
-1219.26 -2285.63 313.998 0.707356 -0.544248 -0.451044 
-1515.72 -2719.85 372.051 0.707356 -0.544248 -0.451044 
-1393.88 -2370.87 143.079 0.707356 -0.544248 -0.451044 
-1439.7 -2714.83 485.053 0.707356 -0.544248 -0.451044 
-1136.99 -2165.48 298.314 0.707356 -0.544248 -0.451044 
-1347.63 -2341.9 180.658 0.707356 -0.544248 -0.451044 
-1420.06 -2716.41 517.72 0.707356 -0.544248 -0.451044 
-1510.71 -2698.36 354.037 0.707356 -0.544248 -0.451044 
-1355.34 -2230.43 34.5044 0.707356 -0.544248 -0.451044 
-1327.19 -2195.94 37.084 0.707356 -0.544248 -0.451044 
-1528.35 -2493.43 79.9146 0.707356 -0.544248 -0.451044 
-1259.15 -2353.74 333.463 0.707356 -0.544248 -0.451044 
-1198.55 -2198.43 241.541 0.707356 -0.544248 -0.451044 
-1272.34 -2181.62 105.761 0.707356 -0.544248 -0.451044 
-1195.6 -2138.44 174 0.707356 -0.544248 -0.451044 
-1069.86 -2032.2 243.117 0.707356 -0.544248 -0.451044 
-1523.83 -2435.6 17.4265 0.707356 -0.544248 -0.451044 
-1175.7 -1974.6 8.09253 0.707356 -0.544248 -0.451044 
-954.752 -1798.64 142.445 0.707356 -0.544248 -0.451044 
-1307.37 -2112.07 -32.7444 0.707356 -0.544248 -0.451044 
-1390.88 -2534.36 344.422 0.707356 -0.544248 -0.451044 
-1045.13 -1909.27 133.983 0.707356 -0.544248 -0.451044 
-965.333 -1820.54 152.216 0.707356 -0.544248 -0.451044 
-1541.49 -2358.24 -103.271 0.707356 -0.544248 -0.451044 
-1329.03 -2319.31 182.605 0.707356 -0.544248 -0.451044 
-1385.88 -2529.43 346.328 0.707356 -0.544248 -0.451044 
-1113.42 -1976.62 108.043 0.707356 -0.544248 -0.451044 
-1416.34 -2301.92 24.9634 0.707356 -0.544248 -0.451044 
-1423.5 -2508.83 262.626 0.707356 -0.544248 -0.451044 
-1289.06 -2268.73 184.357 0.707356 -0.544248 -0.451044 
-1086.17 -1925.6 89.3547 0.707356 -0.544248 -0.451044 
-1353.11 -2394.76 235.656 0.707356 -0.544248 -0.451044 
-1570.5 -2350.18 -158.395 0.707356 -0.544248 -0.451044 
-1380.96 -2632.13 477.572 0.707356 -0.544248 -0.451044 
-1581.42 -2489.95 -7.37793 0.707356 -0.544248 -0.451044 
-1502.18 -2685.79 352.277 0.707356 -0.544248 -0.451044 
-1504.59 -2788.39 471.909 0.707356 -0.544248 -0.451044 
-1149.19 -2076.32 171.953 0.707356 -0.544248 -0.451044 
-1295.44 -2470.85 417.489 0.707356 -0.544248 -0.451044 
-1272.46 -2273.35 215.918 0.707356 -0.544248 -0.451044 
-1357.77 -2460.16 307.021 0.707356 -0.544248 -0.451044 
-1457.53 -2503.7 203.173 0.707356 -0.544248 -0.451044 
-1247.59 -2325.85 318.02 0.707356 -0.544248 -0.451044 
-1422.88 -2283.86 -7.01099 0.707356 -0.544248 -0.451044 
-1454.59 -2695.2 438.124 0.707356 -0.544248 -0.451044 
-1297.55 -2179.62 63.8765 0.707356 -0.544248 -0.451044 
-1504.69 -2371.86 -29.2644 0.707356 -0.544248 -0.451044 
-1320.23 -2458.08 363.32 0.707356 -0.544248 -0.451044 
-1375 -2636.86 492.598 0.707356 -0.544248 -0.451044 
-1331.57 -2256.87 103.521 0.707356 -0.544248 -0.451044 
-1198.43 -2179.77 219.283 0.707356 -0.544248 -0.451044 
-1127.58 -2032.98 153.662 0.707356 -0.544248 -0.451044 
-1165.25 -2103.82 179.885 0.707356 -0.544248 -0.451044 
-1498.6 -2555.74 201.449 0.707356 -0.544248 -0.451044 
-1529.23 -2459.86 38.1479 0.707356 -0.544248 -0.451044 
-1306.85 -2231.87 112.164 0.707356 -0.544248 -0.451044 
-1486.87 -2295.24 -93.5188 0.707356 -0.544248 -0.451044 
-1147.22 -2125.15 233.78 0.707356 -0.544248 -0.451044 
-1477.76 -2331.8 -35.2903 0.707356 -0.544248 -0.451044 
-1248.58 -2355.58 352.22 0.707356 -0.544248 -0.451044 
-1256.04 -2376.69 365.942 0.707356 -0.544248 -0.451044 
-1009.2 -1856.57 126.853 0.707356 -0.544248 -0.451044 
-1424.95 -2607.79 379.404 0.707356 -0.544248 -0.451044 
-1155.13 -2018.02 92.5232 0.707356 -0.544248 -0.451044 
-1018.3 -1897.05 161.289 0.707356 -0.544248 -0.451044 
-1164.73 -2026.85 88.1189 0.707356 -0.544248 -0.451044 
-1176.14 -2184.46 259.831 0.707356 -0.544248 -0.451044 
-1599.56 -2402.89 -140.511 0.707356 -0.544248 -0.451044 
-1409.94 -2375.08 122.99 0.707356 -0.544248 -0.451044 
-1447.81 -2585.96 317.34 0.707356 -0.544248 -0.451044 
-1506.1 -2431.22 39.9326 0.707356 -0.544248 -0.451044 
-1300.11 -2205.68 91.2234 0.707356 -0.544248 -0.451044 
-1375.83 -2447.8 263.872 0.707356 -0.544248 -0.451044 
-1395.81 -2388.87 161.707 0.707356 -0.544248 -0.451044 
-1087.74 -1939.85 104.037 0.707356 -0.544248 -0.451044 
-1561.95 -2527.1 67.7952 0.707356 -0.544248 -0.451044 
-1508.08 -2515.43 138.121 0.707356 -0.544248 -0.451044 
-1145.79 -2008.24 95.3987 0.707356 -0.544248 -0.451044 
-998.761 -1814.63 92.7549 0.707356 -0.544248 -0.451044 
-1325.01 -2407.96 295.537 0.707356 -0.544248 -0.451044 
-1389.35 -2610.61 438.538 0.707356 -0.544248 -0.451044 
-1296.51 -2343.78 262.977 0.707356 -0.544248 -0.451044 
-1398.14 -2644 464.938 0.707356 -0.544248 -0.451044 
-1451.31 -2756.11 516.527 0.707356 -0.544248 -0.451044 
-1416.32 -2267.19 -16.7788 0.707356 -0.544248 -0.451044 
-1312.99 -2097.83 -58.6804 0.707356 -0.544248 -0.451044 
-1399.76 -2320.06 72.7517 0.707356 -0.544248 -0.451044 
-1180.54 -2077.31 124.054 0.707356 -0.544248 -0.451044 
-1186.42 -2061.4 95.7097 0.707356 -0.544248 -0.451044 
-1221.7 -2325.36 357.966 0.707356 -0.544248 -0.451044 
-1378.97 -2243.02 12.6306 0.707356 -0.544248 -0.451044 
-1593.16 -2429.46 -98.5276 0.707356 -0.544248 -0.451044 
-1508.38 -2335.96 -78.2358 0.707356 -0.544248 -0.451044 
-1437.92 -2409.1 120.093 0.707356 -0.544248 -0.451044 
-1230.08 -2237.48 239.145 0.707356 -0.544248 -0.451044 
-1452.01 -2511.86 221.64 0.707356 -0.544248 -0.451044 
-1075.25 -2029.33 231.237 0.707356 -0.544248 -0.451044 
-1513.07 -2335.4 -86.2446 0.707356 -0.544248 -0.451044 
-1506.69 -2617.22 262.726 0.707356 -0.544248 -0.451044 
-1348.76 -2342.33 179.389 0.707356 -0.544248 -0.451044 
-1228.45 -2062 30.6028 0.707356 -0.544248 -0.451044 
-1400.79 -2596.88 404.105 0.707356 -0.544248 -0.451044 
-1288.43 -2388.33 329.206 0.707356 -0.544248 -0.451044 
-1350.85 -2268.44 87.24 0.707356 -0.544248 -0.451044 
-1287.17 -2404.07 350.108 0.707356 -0.544248 -0.451044 
-1015.57 -1870.88 134.091 0.707356 -0.544248 -0.451044 
-1437.52 -2746.99 527.145 0.707356 -0.544248 -0.451044 
-1283.1 -2173.07 78.6179 0.707356 -0.544248 -0.451044 
-1496.8 -2307.02 -94.9106 0.707356 -0.544248 -0.451044 
-1447.59 -2641.71 384.742 0.707356 -0.544248 -0.451044 
-1444.08 -2580.53 316.656 0.707356 -0.544248 -0.451044 
-1226.26 -2012.31 -25.728 0.707356 -0.544248 -0.451044 
-1268.76 -2237.07 178.077 0.707356 -0.544248 -0.451044 
-1227.54 -2157.11 146.432 0.707356 -0.544248 -0.451044 
-1173.86 -2054.99 107.667 0.707356 -0.544248 -0.451044 
-1396.23 -2564.7 372.548 0.707356 -0.544248 -0.451044 
-1463.04 -2305.97 -43.3066 0.707356 -0.544248 -0.451044 
-1169.33 -2031.39 86.375 0.707356 -0.544248 -0.451044 
-1437.59 -2250.34 -70.3628 0.707356 -0.544248 -0.451044 
-1495.54 -2308.24 -91.4614 0.707356 -0.544248 -0.451044 
-1212.17 -2252.9 285.74 0.707356 -0.544248 -0.451044 
-1507.5 -2458.98 71.126 0.707356 -0.544248 -0.451044 
-1505.5 -2350.15 -56.6587 0.707356 -0.544248 -0.451044 
-1230.94 -2198.45 190.842 0.707356 -0.544248 -0.451044 
-1541.7 -2522.38 93.8411 0.707356 -0.544248 -0.451044 
-1445.06 -2295.31 -27.9646 0.707356 -0.544248 -0.451044 
-1536.41 -2442.57 6.1001 0.707356 -0.544248 -0.451044 
-1101.69 -2086.51 258.602 0.707356 -0.544248 -0.451044 
-1185.68 -2143.47 195.59 0.707356 -0.544248 -0.451044 
-1499.36 -2555.09 199.48 0.707356 -0.544248 -0.451044 
-1306.47 -2284.92 176.583 0.707356 -0.544248 -0.451044 
-1386.23 -2653.24 494.706 0.707356 -0.544248 -0.451044 
-1547.94 -2484.35 38.3037 0.707356 -0.544248 -0.451044 
-1255.02 -2112.5 49.7441 0.707356 -0.544248 -0.451044 
-1459.06 -2363.61 32.261 0.707356 -0.544248 -0.451044 
-1431.99 -2266.61 -42.0273 0.707356 -0.544248 -0.451044 
-1265.41 -2051.41 -40.0134 0.707356 -0.544248 -0.451044 
-1403.39 -2233.33 -37.2585 0.707356 -0.544248 -0.451044 
-1468.82 -2428.35 94.8499 0.707356 -0.544248 -0.451044 
-1428.64 -2450.03 183.866 0.707356 -0.544248 -0.451044 
-1290.66 -2139.19 26.0325 0.707356 -0.544248 -0.451044 
-1275.93 -2378.33 336.764 0.707356 -0.544248 -0.451044 
-1255.37 -2149.03 93.1331 0.707356 -0.544248 -0.451044 
-1364.14 -2621.93 491.643 0.707356 -0.544248 -0.451044 
-1024.4 -1862.3 109.952 0.707356 -0.544248 -0.451044 
-1350.44 -2360.94 199.157 0.707356 -0.544248 -0.451044 
-1029.31 -1901.54 149.455 0.707356 -0.544248 -0.451044 
-1174.78 -2172.16 247.163 0.707356 -0.544248 -0.451044 
-1251.86 -2189.74 147.602 0.707356 -0.544248 -0.451044 
-1422.47 -2574.49 343.225 0.707356 -0.544248 -0.451044 
-1478.08 -2858.53 597.8 0.707356 -0.544248 -0.451044 
-1361.14 -2317.64 130.316 0.707356 -0.544248 -0.451044 
-1348.97 -2511.12 382.102 0.707356 -0.544248 -0.451044 
-1466.32 -2436.15 108.146 0.707356 -0.544248 -0.451044 
-1258.08 -2275.04 240.457 0.707356 -0.544248 -0.451044 
-1472.76 -2550.4 235.491 0.707356 -0.544248 -0.451044 
-1379.66 -2398.82 198.956 0.707356 -0.544248 -0.451044 
-1271.08 -2056.32 -42.9763 0.707356 -0.544248 -0.451044 
-1486.78 -2791.68 503.764 0.707356 -0.544248 -0.451044 
-1508.23 -2615.01 257.656 0.707356 -0.544248 -0.451044 
-1278.48 -2320.69 263.44 0.707356 -0.544248 -0.451044 
-1316.61 -2150.91 -0.499512 0.707356 -0.544248 -0.451044 
-1220.83 -2180.53 185.112 0.707356 -0.544248 -0.451044 
-1337.32 -2397.96 264.238 0.707356 -0.544248 -0.451044 
-1299.14 -2283.32 186.117 0.707356 -0.544248 -0.451044 
-1494.91 -2262.61 -145.371 0.707356 -0.544248 -0.451044 
-1130.88 -2058.32 178.983 0.707356 -0.544248 -0.451044 
-1422.11 -2551.12 315.677 0.707356 -0.544248 -0.451044 
-1222.11 -2315.51 345.48 0.707356 -0.544248 -0.451044 
-1568.23 -2553.36 89.5527 0.707356 -0.544248 -0.451044 
-1143.57 -2037.57 134.155 0.707356 -0.544248 -0.451044 
-1365.64 -2217.59 2.93433 0.707356 -0.544248 -0.451044 
-1150.13 -2156.48 266.907 0.707356 -0.544248 -0.451044 
-1361.79 -2178.93 -37.5493 0.707356 -0.544248 -0.451044 
-1156.19 -2080.67 166.228 0.707356 -0.544248 -0.451044 
-1299.18 -2108.38 -24.363 0.707356 -0.544248 -0.451044 
-1447.53 -2653.33 398.816 0.707356 -0.544248 -0.451044 
-1486.09 -2797.42 511.753 0.707356 -0.544248 -0.451044 
-1422.42 -2638.74 420.59 0.707356 -0.544248 -0.451044 
-1391.47 -2389.43 169.179 0.707356 -0.544248 -0.451044 
-1490.18 -2619.98 291.913 0.707356 -0.544248 -0.451044 
-1567.69 -2342.15 -163.661 0.707356 -0.544248 -0.451044 
-1561.38 -2406.4 -76.4988 0.707356 -0.544248 -0.451044 
-1506.37 -2296.78 -122.211 0.707356 -0.544248 -0.451044 
-1340.07 -2233.15 61.6792 0.707356 -0.544248 -0.451044 
-1541.8 -2512.4 81.6714 0.707356 -0.544248 -0.451044 
-1431.52 -2530.48 276.114 0.707356 -0.544248 -0.451044 
-1304.16 -2173.22 45.8411 0.707356 -0.544248 -0.451044 
-1158.68 -2205.79 312.834 0.707356 -0.544248 -0.451044 
-1529.4 -2419.44 -10.7434 0.707356 -0.544248 -0.451044 
-1228.5 -2350.63 377.709 0.707356 -0.544248 -0.451044 
-1449.27 -2760.35 524.819 0.707356 -0.544248 -0.451044 
-1444.77 -2357.43 47.2185 0.707356 -0.544248 -0.451044 
-1071.18 -1907.44 90.9963 0.707356 -0.544248 -0.451044 
-1464.64 -2814.38 565.752 0.707356 -0.544248 -0.451044 
-1251.07 -2375.49 372.269 0.707356 -0.544248 -0.451044 
-1390.21 -2232.49 -17.6326 0.707356 -0.544248 -0.451044 
-1382.05 -2365.69 155.368 0.707356 -0.544248 -0.451044 
-946.582 -1777.96 130.368 0.707356 -0.544248 -0.451044 
-1496.01 -2776.2 470.686 0.707356 -0.544248 -0.451044 
-997.708 -1832.08 115.399 0.707356 -0.544248 -0.451044 
-1411.15 -2531.11 308.764 0.707356 -0.544248 -0.451044 
-1441.74 -2736.03 507.354 0.707356 -0.544248 -0.451044 
-1306.43 -2184.05 55.3044 0.707356 -0.544248 -0.451044 
-1362.23 -2223.1 14.8804 0.707356 -0.544248 -0.451044 
-1047.51 -1911.14 132.503 0.707356 -0.544248 -0.451044 
-1470.07 -2634.66 341.058 0.707356 -0.544248 -0.451044 
-1452.95 -2363.01 41.1143 0.707356 -0.544248 -0.451044 
-1277.78 -2343.54 292.011 0.707356 -0.544248 -0.451044 
-1226.37 -2008.27 -30.7593 0.707356 -0.544248 -0.451044 
-1215.8 -2040.2 24.2007 0.707356 -0.544248 -0.451044 
-1382.65 -2425.4 226.253 0.707356 -0.544248 -0.451044 
-1563.15 -2445.34 -32.4329 0.707356 -0.544248 -0.451044 
-1305.15 -2107.51 -34.7593 0.707356 -0.544248 -0.451044 
-1434.16 -2416.71 135.136 0.707356 -0.544248 -0.451044 
-1503.36 -2612.78 262.6 0.707356 -0.544248 -0.451044 
-1317.09 -2344.38 231.466 0.707356 -0.544248 -0.451044 
-1405.25 -2276.39 11.6182 0.707356 -0.544248 -0.451044 
-1322.15 -2160.3 2.11499 0.707356 -0.544248 -0.451044 
-1084.38 -1976.34 153.191 0.707356 -0.544248 -0.451044 
-1606.22 -2362.9 -199.039 0.707356 -0.544248 -0.451044 
-1216.73 -2078.63 68.9578 0.707356 -0.544248 -0.451044 
-1460.46 -2578.52 288.586 0.707356 -0.544248 -0.451044 
-1147.92 -1963.23 37.9111 0.707356 -0.544248 -0.451044 
-1458.79 -2635.06 359.208 0.707356 -0.544248 -0.451044 
-1492.32 -2833.41 545.274 0.707356 -0.544248 -0.451044 
-1489.91 -2408.04 37.3994 0.707356 -0.544248 -0.451044 
-1550.74 -2604.51 178.462 0.707356 -0.544248 -0.451044 
-1429.87 -2608.47 372.512 0.707356 -0.544248 -0.451044 
-1045.24 -1916.51 142.519 0.707356 -0.544248 -0.451044 
-1304.04 -2289.39 185.76 0.707356 -0.544248 -0.451044 
-1489.4 -2677.48 362.306 0.707356 -0.544248 -0.451044 
-1440.56 -2301.63 -13.3208 0.707356 -0.544248 -0.451044 
-1437.01 -2508.74 241.373 0.707356 -0.544248 -0.451044 
-1334.61 -2227.74 63.7146 0.707356 -0.544248 -0.451044 
-1075.67 -2027.72 228.646 0.707356 -0.544248 -0.451044 
-1149.32 -2115.59 218.983 0.707356 -0.544248 -0.451044 
-1511.76 -2737.31 399.256 0.707356 -0.544248 -0.451044 
-1530.79 -2363.51 -80.1794 0.707356 -0.544248 -0.451044 
-1014.2 -1919.66 194.922 0.707356 -0.544248 -0.451044 
-1145.99 -2103.1 209.181 0.707356 -0.544248 -0.451044 
-1355.08 -2399.81 238.651 0.707356 -0.544248 -0.451044 
-1028.07 -1885.48 132.092 0.707356 -0.544248 -0.451044 
-1368.24 -2427.48 251.312 0.707356 -0.544248 -0.451044 
-1404.73 -2254.09 -14.3948 0.707356 -0.544248 -0.451044 
-1461.13 -2703.94 438.392 0.707356 -0.544248 -0.451044 
-1245.05 -2304.63 296.465 0.707356 -0.544248 -0.451044 
-1305.73 -2406.27 323.694 0.707356 -0.544248 -0.451044 
-1579.02 -2406.9 -103.52 0.707356 -0.544248 -0.451044 
-1477.87 -2313.13 -57.9138 0.707356 -0.544248 -0.451044 
-1447.4 -2383.5 74.4487 0.707356 -0.544248 -0.451044 
-1440.15 -2395.85 100.669 0.707356 -0.544248 -0.451044 
-1228.76 -2152.82 139.376 0.707356 -0.544248 -0.451044 
-1497.55 -2902.41 620.085 0.707356 -0.544248 -0.451044 
-1487.67 -2793.14 504.13 0.707356 -0.544248 -0.451044 
-1087.97 -2066.44 255.948 0.707356 -0.544248 -0.451044 
-1156.99 -2208.64 318.909 0.707356 -0.544248 -0.451044 
-1538.55 -2397.72 -51.1868 0.707356 -0.544248 -0.451044 
-1452.83 -2437.35 130.716 0.707356 -0.544248 -0.451044 
-1306.65 -2212.63 89.333 0.707356 -0.544248 -0.451044 
-1543.25 -2540.09 112.704 0.707356 -0.544248 -0.451044 
-1408.19 -2500.41 276.491 0.707356 -0.544248 -0.451044 
-1188.91 -2191.04 247.75 0.707356 -0.544248 -0.451044 
-1230.43 -2279.8 289.495 0.707356 -0.544248 -0.451044 
-1133.35 -2126.15 256.705 0.707356 -0.544248 -0.451044 
-1137.35 -2105.43 225.518 0.707356 -0.544248 -0.451044 
-1439.2 -2619.79 371.523 0.707356 -0.544248 -0.451044 
-1244.39 -2385.16 394.364 0.707356 -0.544248 -0.451044 
-1366.28 -2349.11 160.117 0.707356 -0.544248 -0.451044 
-1122.82 -1963.49 77.5439 0.707356 -0.544248 -0.451044 
-1512.34 -2418.56 14.9282 0.707356 -0.544248 -0.451044 
-1360.53 -2493.66 342.999 0.707356 -0.544248 -0.451044 
-1486.43 -2464.57 110.846 0.707356 -0.544248 -0.451044 
-1556.99 -2523.03 70.6753 0.707356 -0.544248 -0.451044 
-1210.88 -2083.52 84.0105 0.707356 -0.544248 -0.451044 
-1271.53 -2274.79 219.103 0.707356 -0.544248 -0.451044 
-1406.39 -2385.5 141.089 0.707356 -0.544248 -0.451044 
-1386.99 -2628.43 463.674 0.707356 -0.544248 -0.451044 
-1176.02 -2232.46 317.756 0.707356 -0.544248 -0.451044 
-1458.17 -2262.36 -88.1282 0.707356 -0.544248 -0.451044 
-1432.18 -2466.25 197.815 0.707356 -0.544248 -0.451044 
-1515.72 -2373.12 -45.0281 0.707356 -0.544248 -0.451044 
-1507.04 -2779.77 457.7 0.707356 -0.544248 -0.451044 
-1484.17 -1400.58 -70.4924 0.710223 0.629332 0.315475 
-1468.32 -1488.4 70.2439 0.710223 0.629332 0.315475 
-1505.88 -1305.73 -212.053 0.710223 0.629332 0.315475 
-1482.43 -1410.59 -54.3108 0.710223 0.629332 0.315475 
-1502.21 -1313.49 -204.761 0.709495 0.63192 0.311919 
-1520.64 -1228.15 -334.622 0.709495 0.63192 0.311919 
-1510.06 -1271.46 -271.503 0.709495 0.63192 0.311919 
-1494.41 -1349.33 -150.363 0.709495 0.63192 0.311919 
-1544.42 -1085.87 -567.749 0.737085 0.609174 0.292596 
-1534.23 -1129.8 -502.718 0.737085 0.609174 0.292596 
-1550.91 -1066.55 -591.313 0.737085 0.609174 0.292596 
-1498.1 -1303.06 -236.049 0.737085 0.609174 0.292596 
-1433.99 -1606.48 228.85 0.737085 0.609174 0.292596 
-1479.58 -1384.34 -114.897 0.737085 0.609174 0.292596 
-1528.71 -1145.83 -483.8 0.762963 0.585308 0.274413 
-1531.83 -1130.2 -508.269 0.762963 0.585308 0.274413 
-1474.86 -1390.32 -115.312 0.762963 0.585308 0.274413 
-1520.87 -1172.22 -449.654 0.762963 0.585308 0.274413 
-1443.37 -1537.91 109.985 0.762963 0.585308 0.274413 
-1474.06 -1402.37 -91.998 0.762963 0.585308 0.274413 
-1516.81 -1202.88 -395.978 0.762963 0.585308 0.274413 
-1487.88 -1302.92 -265.485 0.788418 0.559573 0.255491 
-1529.07 -1104.73 -571.21 0.788418 0.559573 0.255491 
-1449.41 -1483.86 10.9805 0.788418 0.559573 0.255491 
-1436.99 -1558.28 135.167 0.788418 0.559573 0.255491 
-1508.86 -1217.99 -386.249 0.788418 0.559573 0.255491 
-1454.31 -1470.65 -2.74658 0.788418 0.559573 0.255491 
-1501.44 -1216.06 -414.684 0.813021 0.532243 0.236038 
-1462.76 -1404.45 -122.23 0.813021 0.532243 0.236038 
-1510.32 -1172.75 -481.987 0.813021 0.532243 0.236038 
-1434.35 -1549.26 107.123 0.813021 0.532243 0.236038 
-1454.52 -1455.18 -36.0132 0.813021 0.532243 0.236038 
-1452.05 -1459.37 -35.0461 0.813021 0.532243 0.236038 
-1445.18 -1492.26 15.6057 0.813021 0.532243 0.236038 
-1467.59 -1363.48 -199.127 0.833824 0.5088 0.214151 
-1456.02 -1414.75 -123.428 0.833824 0.5088 0.214151 
-1507.06 -1176.29 -486.149 0.833824 0.5088 0.214151 
-1453.16 -1433.15 -91.2737 0.833824 0.5088 0.214151 
-1416.57 -1615.59 195.737 0.833824 0.5088 0.214151 
-1508.72 -1177.01 -478.071 0.833824 0.5088 0.214151 
-1499.46 -1189.88 -485.185 0.856072 0.47958 0.192728 
-1494.84 -1215.62 -442.151 0.856072 0.47958 0.192728 
-1476.77 -1295.11 -326.035 0.856072 0.47958 0.192728 
-1435.47 -1498.33 -7.60278 0.856072 0.47958 0.192728 
-1464.13 -1365.52 -208.373 0.856072 0.47958 0.192728 
-1484.25 -1274.59 -343.677 0.856072 0.47958 0.192728 
-1459.15 -1394.39 -159.281 0.856072 0.47958 0.192728 
-1465.18 -1339.93 -267.959 0.875654 0.450294 0.174544 
-1451.6 -1402.82 -173.146 0.875654 0.450294 0.174544 
-1483.43 -1248.34 -413.761 0.875654 0.450294 0.174544 
-1502.55 -1166.19 -530.698 0.875654 0.450294 0.174544 
-1495.03 -1206.06 -465.143 0.875654 0.450294 0.174544 
-1412.06 -1590.95 115.988 0.875654 0.450294 0.174544 
-1457.46 -1379.69 -203.665 0.875654 0.450294 0.174544 
-1489.95 -1211.93 -476.277 0.893101 0.422897 0.15339 
-1489.76 -1214.93 -469.119 0.893101 0.422897 0.15339 
-1509.43 -1117.65 -623.172 0.893101 0.422897 0.15339 
-1423.7 -1519.37 -13.106 0.893101 0.422897 0.15339 
-1517.28 -1072.51 -702.51 0.908836 0.396303 0.130234 
-1480.94 -1246.21 -434.199 0.908836 0.396303 0.130234 
-1491.68 -1189.26 -530.239 0.908836 0.396303 0.130234 
-1406.13 -1613.53 144.565 0.893101 0.422897 0.15339 
-1472.72 -1297.98 -339.017 0.893101 0.422897 0.15339 
-1442.37 -1436.39 -133.531 0.893101 0.422897 0.15339 
-1412.89 -1562.66 41.9775 0.908836 0.396303 0.130234 
-1401.07 -1623.69 142.801 0.908836 0.396303 0.130234 
-1397.42 -1637.37 158.518 0.908836 0.396303 0.130234 
-1479.72 -1241.28 -457.28 0.908836 0.396303 0.130234 
-1453.73 -1356 -296.232 0.92391 0.367107 0.107812 
-1494.99 -1161.15 -593.661 0.92391 0.367107 0.107812 
-1474.91 -1255.13 -451.725 0.92391 0.367107 0.107812 
-1435.62 -1446.07 -150.73 0.92391 0.367107 0.107812 
-1474.66 -1263.41 -426.558 0.92391 0.367107 0.107812 
-1463.93 -1315.29 -345.216 0.92391 0.367107 0.107812 
-1454.69 -1344.49 -328.694 0.937161 0.337271 0.0893169 
-1460.58 -1314.51 -379.161 0.937161 0.337271 0.0893169 
-1507.46 -1094.9 -709.99 0.937161 0.337271 0.0893169 
-1397.07 -1621.56 104.724 0.937161 0.337271 0.0893169 
-1382.71 -1683.77 187.025 0.937161 0.337271 0.0893169 
-1444.04 -1399.52 -234.276 0.937161 0.337271 0.0893169 
-1422.05 -1504.58 -71.3792 0.937161 0.337271 0.0893169 
-1451.57 -1352.72 -333.933 0.950675 0.303132 0.0657862 
-1472.52 -1255.33 -477.534 0.950675 0.303132 0.0657862 
-1430.55 -1452.05 -182.625 0.950675 0.303132 0.0657862 
-1450.11 -1362.61 -309.909 0.950675 0.303132 0.0657862 
-1428.59 -1464.86 -152.59 0.950675 0.303132 0.0657862 
-1408.75 -1559.66 -5.00732 0.950675 0.303132 0.0657862 
-1399.45 -1602.26 55.8879 0.950675 0.303132 0.0657862 
-1482.18 -1203.13 -580.967 0.961682 0.270668 0.0436561 
-1478.13 -1222.39 -551.322 0.961682 0.270668 0.0436561 
-1496.9 -1133.31 -688.168 0.961682 0.270668 0.0436561 
-1404.71 -1570.37 -18.2019 0.961682 0.270668 0.0436561 
-1470.18 -1262.63 -478.228 0.961682 0.270668 0.0436561 
-1417.72 -1511.64 -95.2017 0.961682 0.270668 0.0436561 
-1435.75 -1420.57 -267.095 0.969959 0.242189 0.0228934 
-1431.45 -1441.52 -230.265 0.969959 0.242189 0.0228934 
-1417.69 -1506.51 -132.588 0.969959 0.242189 0.0228934 
-1420.69 -1491.75 -160.235 0.969959 0.242189 0.0228934 
-1427.84 -1458.94 -200.89 0.969959 0.242189 0.0228934 
-1406.31 -1561.52 -39.3623 0.969959 0.242189 0.0228934 
-1462.39 -1295.39 -449.128 0.969959 0.242189 0.0228934 
-1488.3 -1171.04 -669.716 0.978191 0.207706 0.00116037 
-1466.89 -1272.55 -512.147 0.978191 0.207706 0.00116037 
-1475.82 -1230.25 -571.45 0.978191 0.207706 0.00116037 
-1414.17 -1522.62 -114.076 0.978191 0.207706 0.00116037 
-1380.84 -1680.58 121.55 0.978191 0.207706 0.00116037 
-1399.1 -1594 -16.0569 0.978191 0.207706 0.00116037 
-1450 -1352.7 -376.43 0.978191 0.207706 0.00116037 
-1496.93 -1130.35 -734.79 0.984055 0.176507 -0.0219192 
-1454.83 -1330.55 -434.037 0.984055 0.176507 -0.0219192 
-1491.67 -1155.42 -697.907 0.984055 0.176507 -0.0219192 
-1484.09 -1192.65 -653.918 0.984055 0.176507 -0.0219192 
-1482.7 -1201.58 -652.079 0.989006 0.140959 -0.0446944 
-1435.31 -1425.21 -304.134 0.989006 0.140959 -0.0446944 
-1464.34 -1288 -516.513 0.989006 0.140959 -0.0446944 
-1431.1 -1442.28 -254.843 0.984055 0.176507 -0.0219192 
-1384.57 -1664.39 70.697 0.984055 0.176507 -0.0219192 
-1375.09 -1709.24 140.539 0.984055 0.176507 -0.0219192 
-1474.83 -1235.09 -574.125 0.984055 0.176507 -0.0219192 
-1396.05 -1612.36 -22.0461 0.989006 0.140959 -0.0446944 
-1460.52 -1307.86 -494.556 0.989006 0.140959 -0.0446944 
-1468.89 -1268.48 -556.621 0.989006 0.140959 -0.0446944 
-1399.92 -1595.24 -54.2529 0.989006 0.140959 -0.0446944 
-1476.48 -1234.46 -615.143 0.991723 0.110699 -0.0650497 
-1474.1 -1247.42 -600.62 0.991723 0.110699 -0.0650497 
-1444.34 -1388.35 -384.145 0.991723 0.110699 -0.0650497 
-1434.74 -1432.36 -311.712 0.991723 0.110699 -0.0650497 
-1429.16 -1458.98 -271.385 0.991723 0.110699 -0.0650497 
-1417.27 -1515.77 -185.776 0.991723 0.110699 -0.0650497 
-1402.92 -1585.12 -83.571 0.991723 0.110699 -0.0650497 
-1426.22 -1482.59 -261.539 0.992924 0.0781206 -0.0894424 
-1439.58 -1418.23 -357.731 0.992924 0.0781206 -0.0894424 
-1478.78 -1229.76 -640.35 0.992924 0.0781206 -0.0894424 
-1412.47 -1548.32 -162.132 0.992924 0.0781206 -0.0894424 
-1395.9 -1625.12 -40.1018 0.992924 0.0781206 -0.0894424 
-1389.01 -1657.97 9.81177 0.992924 0.0781206 -0.0894424 
-1370.59 -1742.6 146.093 0.992924 0.0781206 -0.0894424 
-1371.65 -1735.84 139.99 0.992924 0.0781206 -0.0894424 
-1467.81 -1288.35 -565.763 0.993125 0.0436662 -0.108606 
-1392.2 -1649.85 -17.3596 0.993125 0.0436662 -0.108606 
-1393.54 -1644.6 -27.5261 0.993125 0.0436662 -0.108606 
-1375.11 -1726.53 108.667 0.993125 0.0436662 -0.108606 
-1463.02 -1312.92 -531.702 0.993125 0.0436662 -0.108606 
-1464.1 -1309.17 -540.045 0.993125 0.0436662 -0.108606 
-1461.25 -1326.68 -520.967 0.993125 0.0436662 -0.108606 
-1423.92 -1505.27 -249.958 0.991527 0.0121592 -0.12933 
-1411.42 -1565.89 -159.218 0.991527 0.0121592 -0.12933 
-1470.14 -1290.12 -586.266 0.991527 0.0121592 -0.12933 
-1455.08 -1367.59 -477.216 0.991527 0.0121592 -0.12933 
-1371.88 -1753.59 128.199 0.991527 0.0121592 -0.12933 
-1418.11 -1541.19 -208.349 0.991527 0.0121592 -0.12933 
-1449.8 -1392.29 -438.842 0.991527 0.0121592 -0.12933 
-1425.77 -1511.34 -263.48 0.987811 -0.0239262 -0.153811 
-1382.17 -1722.6 54.135 0.987811 -0.0239262 -0.153811 
-1395.59 -1653.41 -44.2761 0.987811 -0.0239262 -0.153811 
-1404.34 -1621.37 -106.443 0.987811 -0.0239262 -0.153811 
-1463.34 -1337.14 -536.01 0.987811 -0.0239262 -0.153811 
-1460.57 -1354.72 -515.178 0.987811 -0.0239262 -0.153811 
-1475.04 -1297.91 -616.556 0.98359 -0.0556303 -0.171625 
-1473.92 -1298.96 -609.769 0.98359 -0.0556303 -0.171625 
-1401.41 -1636.88 -84.6094 0.98359 -0.0556303 -0.171625 
-1430.45 -1503.97 -294.162 0.98359 -0.0556303 -0.171625 
-1385.68 -1713.62 30.4277 0.98359 -0.0556303 -0.171625 
-1426.15 -1529.36 -261.273 0.98359 -0.0556303 -0.171625 
-1475.68 -1296.63 -620.588 0.98359 -0.0556303 -0.171625 
-1432.89 -1497.58 -310.201 0.98359 -0.0556303 -0.171625 
-1426.55 -1533.51 -261.835 0.977308 -0.0872816 -0.193003 
-1391.31 -1708.62 -1.9541 0.977308 -0.0872816 -0.193003 
-1472.31 -1315.96 -594.781 0.977308 -0.0872816 -0.193003 
-1438.38 -1487.1 -343.349 0.977308 -0.0872816 -0.193003 
-1472.96 -1320.68 -595.861 0.977308 -0.0872816 -0.193003 
-1496.33 -1208.73 -766.298 0.977308 -0.0872816 -0.193003 
-1443.86 -1459.74 -383.839 0.977308 -0.0872816 -0.193003 
-1467.31 -1367.89 -543.825 0.968589 -0.123785 -0.215667 
-1402.05 -1667.21 -75.2502 0.968589 -0.123785 -0.215667 
-1438.29 -1498.85 -336.686 0.968589 -0.123785 -0.215667 
-1482.04 -1285.29 -658.231 0.968589 -0.123785 -0.215667 
-1394.61 -1716.71 -12.969 0.968589 -0.123785 -0.215667 
-1382.64 -1772.9 73.7158 0.968589 -0.123785 -0.215667 
-1467.24 -1369.51 -542.587 0.968589 -0.123785 -0.215667 
-1433.4 -1539.59 -290.511 0.959558 -0.157067 -0.23362 
-1470.13 -1363.78 -558.616 0.959558 -0.157067 -0.23362 
-1381.55 -1781.78 83.9578 0.959558 -0.157067 -0.23362 
-1416.65 -1632.12 -160.037 0.959558 -0.157067 -0.23362 
-1494.61 -1254.91 -731.778 0.959558 -0.157067 -0.23362 
-1443.59 -1504.12 -356.018 0.959558 -0.157067 -0.23362 
-1433.26 -1549.77 -283.144 0.959558 -0.157067 -0.23362 
-1488.47 -1310.09 -668.476 0.949165 -0.186031 -0.253925 
-1503.85 -1241.33 -777.174 0.949165 -0.186031 -0.253925 
-1448.94 -1492.54 -384.82 0.949165 -0.186031 -0.253925 
-1398.31 -1736.39 -13.9421 0.949165 -0.186031 -0.253925 
-1400.83 -1724.72 -32.0496 0.949165 -0.186031 -0.253925 
-1424.89 -1609.34 -207.925 0.949165 -0.186031 -0.253925 
-1467.5 -1412.07 -514.109 0.949165 -0.186031 -0.253925 
-1491.71 -1318.66 -672.974 0.936914 -0.219218 -0.272278 
-1460.01 -1468.4 -443.003 0.936914 -0.219218 -0.272278 
-1510.32 -1230.25 -808.388 0.936914 -0.219218 -0.272278 
-1471.47 -1409.84 -529.731 0.936914 -0.219218 -0.272278 
-1388.95 -1805.08 73.3469 0.936914 -0.219218 -0.272278 
-1453.37 -1487.78 -404.512 0.936914 -0.219218 -0.272278 
-1437.48 -1559.42 -292.018 0.936914 -0.219218 -0.272278 
-1414.66 -1681.71 -114.704 0.936914 -0.219218 -0.272278 
-1496.66 -1315.22 -691.879 0.923448 -0.250548 -0.290636 
-1479.54 -1406.16 -558.962 0.923448 -0.250548 -0.290636 
-1457.64 -1510.03 -399.747 0.923448 -0.250548 -0.290636 
-1445.24 -1579.17 -300.135 0.906986 -0.282792 -0.312097 
-1430.13 -1647.62 -193.229 0.906986 -0.282792 -0.312097 
-1486.41 -1378.05 -604.827 0.906986 -0.282792 -0.312097 
-1429.34 -1629.43 -206.839 0.923448 -0.250548 -0.290636 
-1411.94 -1714 -78.5596 0.923448 -0.250548 -0.290636 
-1424.95 -1657.06 -169.019 0.923448 -0.250548 -0.290636 
-1426.89 -1635.81 -193.545 0.923448 -0.250548 -0.290636 
-1417.21 -1724.4 -85.0522 0.906986 -0.282792 -0.312097 
-1392.13 -1827.53 82.7688 0.906986 -0.282792 -0.312097 
-1433.41 -1648.55 -201.95 0.906986 -0.282792 -0.312097 
-1466.98 -1487.32 -447.858 0.906986 -0.282792 -0.312097 
-1454.56 -1579.78 -325.545 0.889814 -0.316612 -0.328616 
-1491.4 -1391.21 -606.715 0.889814 -0.316612 -0.328616 
-1516.02 -1265.92 -793.932 0.889814 -0.316612 -0.328616 
-1441.16 -1622.42 -248.227 0.889814 -0.316612 -0.328616 
-1403.02 -1803.56 29.3096 0.889814 -0.316612 -0.328616 
-1412.02 -1778.07 -19.6055 0.889814 -0.316612 -0.328616 
-1504.79 -1348.11 -684.218 0.871681 -0.346535 -0.346535 
-1523.73 -1270.49 -809.704 0.871681 -0.346535 -0.346535 
-1471.22 -1527.84 -419.584 0.871681 -0.346535 -0.346535 
-1429.7 -1701.92 -140.593 0.871681 -0.346535 -0.346535 
-1491.12 -1409.33 -588.468 0.871681 -0.346535 -0.346535 
-1439.89 -1651.79 -216.5 0.871681 -0.346535 -0.346535 
-1464.11 -1590.72 -337.791 0.852514 -0.374237 -0.36492 
-1518.12 -1328.26 -736.999 0.852514 -0.374237 -0.36492 
-1497.47 -1434.28 -578.487 0.852514 -0.374237 -0.36492 
-1527.56 -1313.02 -774.419 0.831331 -0.405412 -0.380172 
-1529.52 -1300.97 -791.642 0.831331 -0.405412 -0.380172 
-1526.42 -1316.68 -768.005 0.831331 -0.405412 -0.380172 
-1481.41 -1522.21 -449.26 0.831331 -0.405412 -0.380172 
-1428.4 -1742.81 -96.0647 0.852514 -0.374237 -0.36492 
-1478.62 -1504.4 -461.435 0.852514 -0.374237 -0.36492 
-1439.05 -1704.04 -161.322 0.852514 -0.374237 -0.36492 
-1472.96 -1587.12 -361.214 0.831331 -0.405412 -0.380172 
-1482.4 -1540.75 -431.57 0.831331 -0.405412 -0.380172 
-1450.09 -1694.92 -195.668 0.831331 -0.405412 -0.380172 
-1432.43 -1769.3 -77.3081 0.831331 -0.405412 -0.380172 
-1469.26 -1631.08 -305.25 0.809192 -0.43424 -0.395783 
-1430.8 -1820.65 -17.7288 0.809192 -0.43424 -0.395783 
-1527.45 -1338.25 -746.895 0.809192 -0.43424 -0.395783 
-1530.8 -1314.3 -780.128 0.809192 -0.43424 -0.395783 
-1415.65 -1876.41 74.6953 0.809192 -0.43424 -0.395783 
-1511.3 -1406.05 -639.181 0.809192 -0.43424 -0.395783 
-1491.36 -1501.01 -493.771 0.809192 -0.43424 -0.395783 
-1438.72 -1819.94 -33.7437 0.782826 -0.465158 -0.413293 
-1496.15 -1532.23 -468.613 0.782826 -0.465158 -0.413293 
-1482.34 -1606.86 -357.896 0.782826 -0.465158 -0.413293 
-1529.23 -1387.16 -695.787 0.782826 -0.465158 -0.413293 
-1425.85 -1860.41 36.6099 0.782826 -0.465158 -0.413293 
-1506.54 -1473.32 -555.044 0.782826 -0.465158 -0.413293 
-1499.2 -1510.4 -499.121 0.782826 -0.465158 -0.413293 
-1476.41 -1670.78 -273.583 0.761674 -0.489765 -0.424244 
-1532.21 -1388.33 -699.864 0.761674 -0.489765 -0.424244 
-1531.33 -1405.52 -678.44 0.761674 -0.489765 -0.424244 
-1530.98 -1400.35 -683.784 0.761674 -0.489765 -0.424244 
-1495.59 -1560.31 -435.578 0.761674 -0.489765 -0.424244 
-1469.38 -1692.66 -235.716 0.761674 -0.489765 -0.424244 
-1445.44 -1814.75 -51.7622 0.761674 -0.489765 -0.424244 
-1487.59 -1593.4 -383.027 0.761674 -0.489765 -0.424244 
-1530.84 -1453.18 -621.673 0.734276 -0.516469 -0.440566 
-1549.69 -1354.51 -769.674 0.734276 -0.516469 -0.440566 
-1546.8 -1367.74 -749.226 0.734276 -0.516469 -0.440566 
-1476.81 -1676.52 -267.669 0.734276 -0.516469 -0.440566 
-1444.02 -1846.88 -11.749 0.734276 -0.516469 -0.440566 
-1453.28 -1797.5 -85.5117 0.734276 -0.516469 -0.440566 
-1458.19 -1793.32 -98.6602 0.734276 -0.516469 -0.440566 
-1560.06 -1335.33 -809.314 0.707356 -0.544248 -0.451044 
