ply
format ascii 1.0
comment Created by CloudCompare v2.11.3 (Anoia)
comment Created 08/09/2022 00:24
obj_info Generated by CloudCompare!
element vertex 882
property float x
property float y
property float z
property float nx
property float ny
property float nz
end_header
-643.785 1097.4 2140.36 -0.388136 -0.685432 0.616063 
-1171.75 1076.16 1782.01 -0.388136 -0.685432 0.616063 
-1086.5 1081.27 1841.74 -0.388136 -0.685432 0.616063 
-1107.33 903.77 1631.26 -0.388136 -0.685432 0.616063 
-621.867 928.336 1966.35 -0.388136 -0.685432 0.616063 
-841.494 1099.34 2017.16 -0.388136 -0.685432 0.616063 
-351.474 976.444 2191.25 -0.388136 -0.685432 0.616063 
-434.808 1005.6 2170.82 -0.388136 -0.685432 0.616063 
-954.866 1239.42 2100.97 -0.388136 -0.685432 0.616063 
-412.585 1000.72 2179.49 -0.388136 -0.685432 0.616063 
-1458.28 1439.5 2004.19 -0.388136 -0.685432 0.616063 
-1435.76 1491.54 2076.31 -0.388136 -0.685432 0.616063 
-611.898 1088.24 2150.4 -0.388136 -0.685432 0.616063 
-1211.3 1381.9 2096.76 -0.388136 -0.685432 0.616063 
-1013.86 1146.51 1960.31 -0.388136 -0.685432 0.616063 
-1118.94 1340.96 2109.81 -0.388136 -0.685432 0.616063 
-514.097 958.664 2068.39 -0.388136 -0.685432 0.616063 
-1092.21 1105.52 1865.08 -0.388136 -0.685432 0.616063 
-953.754 1186.95 2043.37 -0.388136 -0.685432 0.616063 
-951.362 885.517 1709.85 -0.388136 -0.685432 0.616063 
-629.522 1042.01 2087.84 -0.388136 -0.685432 0.616063 
-821.133 1028.92 1951.81 -0.388136 -0.685432 0.616063 
-1091.4 1058.11 1812.89 -0.388136 -0.685432 0.616063 
-1223.36 1087.12 1761.47 -0.388136 -0.685432 0.616063 
-1109.96 960.947 1693.14 -0.388136 -0.685432 0.616063 
-901.941 1092.64 1971.4 -0.388136 -0.685432 0.616063 
-461.033 974.834 2120 -0.388136 -0.685432 0.616063 
-872.792 982.494 1867.45 -0.388136 -0.685432 0.616063 
-698.174 924.86 1914.11 -0.388136 -0.685432 0.616063 
-757.926 976.035 1933.1 -0.388136 -0.685432 0.616063 
-1550.65 1545.6 2063.55 -0.388136 -0.685432 0.616063 
-924.625 968.541 1819.08 -0.388136 -0.685432 0.616063 
-640.346 918.532 1943.74 -0.388136 -0.685432 0.616063 
-992.207 1189.19 2021.47 -0.388136 -0.685432 0.616063 
-919.126 900.998 1747.5 -0.388136 -0.685432 0.616063 
-1043.84 866.287 1629.85 -0.388136 -0.685432 0.616063 
-646.665 1105.81 2147.88 -0.388136 -0.685432 0.616063 
-1287.56 1192.69 1838.1 -0.388136 -0.685432 0.616063 
-567.127 985.273 2064.34 -0.388136 -0.685432 0.616063 
-687.084 1084.56 2098.64 -0.388136 -0.685432 0.616063 
-1277.32 1402.91 2078.25 -0.388136 -0.685432 0.616063 
-964.668 1132.54 1975.97 -0.388136 -0.685432 0.616063 
-677.928 936.925 1940.35 -0.388136 -0.685432 0.616063 
-916.87 1212.55 2095.21 -0.388136 -0.685432 0.616063 
-414.082 953.858 2126.45 -0.388136 -0.685432 0.616063 
-723.61 978.802 1957.93 -0.388136 -0.685432 0.616063 
-1193.2 1258.27 1970.83 -0.388136 -0.685432 0.616063 
-721.195 1122.57 2119.26 -0.388136 -0.685432 0.616063 
-1024.51 1257.32 2076.72 -0.388136 -0.685432 0.616063 
-986.369 1036.55 1855.52 -0.388136 -0.685432 0.616063 
-1345.77 1409.32 2041.98 -0.388136 -0.685432 0.616063 
-881.407 884.159 1752.7 -0.388136 -0.685432 0.616063 
-1339.34 1426.17 2064.78 -0.388136 -0.685432 0.616063 
-1173.68 1136.61 1847.99 -0.388136 -0.685432 0.616063 
-1495.57 1507.83 2056.5 -0.388136 -0.685432 0.616063 
-673.838 1098.13 2122.12 -0.388136 -0.685432 0.616063 
-787.296 1113.91 2067.72 -0.388136 -0.685432 0.616063 
-752.783 914.113 1867.54 -0.388136 -0.685432 0.616063 
-1006.15 1250.78 2081.1 -0.388136 -0.685432 0.616063 
-1086.03 1199.7 1973.67 -0.388136 -0.685432 0.616063 
-984.444 1131.49 1962.27 -0.388136 -0.685432 0.616063 
-1279.86 1192.03 1842.25 -0.388136 -0.685432 0.616063 
-826.954 1147.81 2080.25 -0.388136 -0.685432 0.616063 
-1132.5 967.689 1686.34 -0.388136 -0.685432 0.616063 
-887.42 1004.72 1882.88 -0.388136 -0.685432 0.616063 
-706.992 1077.26 2077.9 -0.388136 -0.685432 0.616063 
-647.786 920.88 1941.63 -0.388136 -0.685432 0.616063 
-1356.19 1347.02 1966.13 -0.388136 -0.685432 0.616063 
-1055.9 1165.78 1955.07 -0.388136 -0.685432 0.616063 
-940.778 1144.29 2004.18 -0.388136 -0.685432 0.616063 
-641.987 962.047 1991.06 -0.388136 -0.685432 0.616063 
-483.998 972.006 2102.3 -0.388136 -0.685432 0.616063 
-851.614 1202.91 2125.86 -0.388136 -0.685432 0.616063 
-1202.97 1191.89 1890.86 -0.388136 -0.685432 0.616063 
-839.37 1216.68 2148.93 -0.388136 -0.685432 0.616063 
-1061.26 1178.56 1965.89 -0.388136 -0.685432 0.616063 
-1057.65 1137.83 1922.9 -0.388136 -0.685432 0.616063 
-782.833 1131.12 2089.68 -0.388136 -0.685432 0.616063 
-912.352 1061.32 1929.98 -0.388136 -0.685432 0.616063 
-1167.37 1355.01 2094.73 -0.388136 -0.685432 0.616063 
-1013.07 1198.57 2018.67 -0.388136 -0.685432 0.616063 
-580.883 1049.58 2127.09 -0.388136 -0.685432 0.616063 
-924.896 1221.23 2099.76 -0.388136 -0.685432 0.616063 
-880.676 1002.6 1884.8 -0.388136 -0.685432 0.616063 
-1067.25 1080.27 1852.84 -0.388136 -0.685432 0.616063 
-880.982 1175.69 2076.99 -0.388136 -0.685432 0.616063 
-996.036 936.951 1738.7 -0.388136 -0.685432 0.616063 
-977.359 969.659 1786.89 -0.388136 -0.685432 0.616063 
-829.891 1111.41 2037.93 -0.388136 -0.685432 0.616063 
-742.494 953.029 1917.31 -0.388136 -0.685432 0.616063 
-683.812 970.865 1974.34 -0.388136 -0.685432 0.616063 
-933.487 1166.4 2033.38 -0.388136 -0.685432 0.616063 
-684.712 1097.95 2115.02 -0.388136 -0.685432 0.616063 
-741.979 947.128 1911.08 -0.388136 -0.685432 0.616063 
-1226.16 1287.93 1982.89 -0.388136 -0.685432 0.616063 
-905.358 950.467 1811.21 -0.388136 -0.685432 0.616063 
-956.13 937.327 1764.41 -0.388136 -0.685432 0.616063 
-1268.29 1136.9 1788.32 -0.388136 -0.685432 0.616063 
-457.564 968.6 2115.27 -0.388136 -0.685432 0.616063 
-894.429 1000.81 1874.09 -0.388136 -0.685432 0.616063 
-414.073 977.704 2152.96 -0.388136 -0.685432 0.616063 
-1272.63 1295.43 1961.76 -0.388136 -0.685432 0.616063 
-702.35 1064.49 2066.65 -0.388136 -0.685432 0.616063 
-1373.6 1386.83 1999.34 -0.388136 -0.685432 0.616063 
-1091.82 1077.19 1833.83 -0.388136 -0.685432 0.616063 
-777.056 1135.87 2098.62 -0.388136 -0.685432 0.616063 
-490.662 1052.81 2187.88 -0.388136 -0.685432 0.616063 
-634.847 941.257 1972.48 -0.388136 -0.685432 0.616063 
-961.118 1130.54 1976 -0.388136 -0.685432 0.616063 
-1391.57 1463.51 2073.17 -0.388136 -0.685432 0.616063 
-1171.18 1108.4 1818.21 -0.388136 -0.685432 0.616063 
-1201.48 1191.44 1891.29 -0.388136 -0.685432 0.616063 
-464.215 1015.96 2163.69 -0.388136 -0.685432 0.616063 
-1253.65 1293.82 1972.01 -0.388136 -0.685432 0.616063 
-1372.68 1456.07 2076.87 -0.388136 -0.685432 0.616063 
-574.446 1028.81 2108.09 -0.388136 -0.685432 0.616063 
-837.405 1153.82 2080.31 -0.388136 -0.685432 0.616063 
-1206.19 1304.01 2013.43 -0.388136 -0.685432 0.616063 
-1197.42 1148.71 1846.37 -0.388136 -0.685432 0.616063 
-1142.36 1164.81 1899.18 -0.388136 -0.685432 0.616063 
-854.334 920.682 1810.45 -0.388136 -0.685432 0.616063 
-647.442 1027.81 2060.69 -0.388136 -0.685432 0.616063 
-981.108 1020.98 1841.55 -0.388136 -0.685432 0.616063 
-884.245 950.789 1824.95 -0.388136 -0.685432 0.616063 
-1165.3 1223.7 1950.09 -0.388136 -0.685432 0.616063 
-774.882 953.784 1897.62 -0.388136 -0.685432 0.616063 
-1368.78 1349.73 1961.16 -0.388136 -0.685432 0.616063 
-720.691 1136.83 2135.43 -0.388136 -0.685432 0.616063 
-1077.73 979.985 1734.73 -0.388136 -0.685432 0.616063 
-875.409 982.857 1866.2 -0.388136 -0.685432 0.616063 
-1392.54 1337.6 1932.62 -0.388136 -0.685432 0.616063 
-777.535 1081.46 2037.84 -0.388136 -0.685432 0.616063 
-874.226 1005.33 1891.92 -0.388136 -0.685432 0.616063 
-1173.68 1217.09 1937.43 -0.388136 -0.685432 0.616063 
-1019.84 1254.25 2076.27 -0.388136 -0.685432 0.616063 
-1219.52 1385.43 2095.47 -0.388136 -0.685432 0.616063 
-1113.74 985.237 1717.74 -0.388136 -0.685432 0.616063 
-1435.05 1491.04 2076.2 -0.388136 -0.685432 0.616063 
-1160.5 1244.77 1976.55 -0.388136 -0.685432 0.616063 
-1058.09 1216.29 2009.83 -0.388136 -0.685432 0.616063 
-1407.64 1358.48 1946.25 -0.388136 -0.685432 0.616063 
-1253.6 1320.01 2001.15 -0.388136 -0.685432 0.616063 
-1020.78 870.224 1648.84 -0.388136 -0.685432 0.616063 
-1432.3 1438.53 2019.58 -0.388136 -0.685432 0.616063 
-568.655 984.005 2061.96 -0.388136 -0.685432 0.616063 
-1423.4 1459.05 2048.03 -0.388136 -0.685432 0.616063 
-484.978 985.19 2116.33 -0.388136 -0.685432 0.616063 
-1124.63 1216.11 1967.44 -0.388136 -0.685432 0.616063 
-1178.07 1289.47 2015.09 -0.388136 -0.685432 0.616063 
-1127.48 1129.54 1869.41 -0.388136 -0.685432 0.616063 
-1126.71 1133.43 1874.22 -0.388136 -0.685432 0.616063 
-652.521 1029.66 2059.53 -0.388136 -0.685432 0.616063 
-1028.19 1046.68 1840.26 -0.388136 -0.685432 0.616063 
-1450.84 1420.57 1987.86 -0.388136 -0.685432 0.616063 
-785.667 1124.68 2080.73 -0.388136 -0.685432 0.616063 
-621.934 1044.77 2095.72 -0.388136 -0.685432 0.616063 
-721.286 1061.99 2051.87 -0.388136 -0.685432 0.616063 
-998.69 1182.6 2010.04 -0.388136 -0.685432 0.616063 
-1163.02 1285.41 2020.12 -0.388136 -0.685432 0.616063 
-745.469 1161.3 2146.92 -0.388136 -0.685432 0.616063 
-1030.92 947.238 1728.01 -0.388136 -0.685432 0.616063 
-1216.62 1330.06 2035.77 -0.388136 -0.685432 0.616063 
-860.859 993.819 1887.61 -0.388136 -0.685432 0.616063 
-1242.59 1134.35 1801.77 -0.388136 -0.685432 0.616063 
-709.172 1034.45 2028.93 -0.388136 -0.685432 0.616063 
-1234.73 1259.47 1945.82 -0.388136 -0.685432 0.616063 
-954.496 1060.61 1902.47 -0.388136 -0.685432 0.616063 
-1184.12 1326.73 2052.67 -0.388136 -0.685432 0.616063 
-977.453 1044.4 1869.91 -0.388136 -0.685432 0.616063 
-1277.37 1309.55 1974.46 -0.388136 -0.685432 0.616063 
-1463.06 1417.84 1977.09 -0.388136 -0.685432 0.616063 
-1072.77 894.091 1642.41 -0.388136 -0.685432 0.616063 
-594.498 1060.16 2130.21 -0.388136 -0.685432 0.616063 
-457.131 991.67 2141.19 -0.388136 -0.685432 0.616063 
-745.55 1023.02 1993.18 -0.388136 -0.685432 0.616063 
-1064.37 1320.62 2121.8 -0.388136 -0.685432 0.616063 
-379.815 1000.29 2199.79 -0.388136 -0.685432 0.616063 
-805.706 927.106 1848.43 -0.388136 -0.685432 0.616063 
-1353.82 1360.68 1982.81 -0.388136 -0.685432 0.616063 
-837.476 1194.29 2125.25 -0.388136 -0.685432 0.616063 
-801.697 984.236 1914.46 -0.388136 -0.685432 0.616063 
-953.414 1255.54 2119.81 -0.388136 -0.685432 0.616063 
-1064.13 1203.79 1992.11 -0.388136 -0.685432 0.616063 
-1529 1510.78 2038.57 -0.388136 -0.685432 0.616063 
-1198.07 1205.88 1909.5 -0.388136 -0.685432 0.616063 
-1149.07 1125.11 1850.8 -0.388136 -0.685432 0.616063 
-966.74 1276.73 2134.92 -0.388136 -0.685432 0.616063 
-1414.75 1471.98 2067.89 -0.388136 -0.685432 0.616063 
-566.753 996.27 2076.8 -0.388136 -0.685432 0.616063 
-979.396 1164.02 2001.62 -0.388136 -0.685432 0.616063 
-586.022 1038.61 2111.64 -0.388136 -0.685432 0.616063 
-1331.75 1282.55 1909.97 -0.388136 -0.685432 0.616063 
-1488.28 1505.87 2058.94 -0.388136 -0.685432 0.616063 
-1025.31 1007.3 1798.32 -0.388136 -0.685432 0.616063 
-675.084 1096.05 2119.02 -0.388136 -0.685432 0.616063 
-611.642 944.258 1990.53 -0.388136 -0.685432 0.616063 
-996.409 891.634 1688.09 -0.388136 -0.685432 0.616063 
-1329.49 1422.91 2067.4 -0.388136 -0.685432 0.616063 
-1214.68 1200.64 1893.14 -0.388136 -0.685432 0.616063 
-1097.36 1153.75 1915.41 -0.388136 -0.685432 0.616063 
-612.336 945.004 1990.92 -0.388136 -0.685432 0.616063 
-1111.74 1111.33 1859.16 -0.388136 -0.685432 0.616063 
-842.257 1122.99 2042.97 -0.388136 -0.685432 0.616063 
-1085.58 870.069 1607.59 -0.388136 -0.685432 0.616063 
-1309.9 1392.73 2046.27 -0.388136 -0.685432 0.616063 
-1052.63 1266.73 2069.35 -0.388136 -0.685432 0.616063 
-1249.49 1144.9 1809.13 -0.388136 -0.685432 0.616063 
-1190.08 1375.11 2102.67 -0.388136 -0.685432 0.616063 
-1305.72 1255.78 1896.71 -0.388136 -0.685432 0.616063 
-468.123 1003.21 2147.05 -0.388136 -0.685432 0.616063 
-1364.13 1371.23 1988 -0.388136 -0.685432 0.616063 
-1114.44 943.737 1671.17 -0.388136 -0.685432 0.616063 
-792.479 1025.1 1965.72 -0.388136 -0.685432 0.616063 
-1214.68 1383.71 2096.63 -0.388136 -0.685432 0.616063 
-938.627 1006.28 1852.15 -0.388136 -0.685432 0.616063 
-1304.91 1298.88 1945.14 -0.388136 -0.685432 0.616063 
-1345.98 1312.97 1934.75 -0.388136 -0.685432 0.616063 
-987.178 1241.49 2082.79 -0.388136 -0.685432 0.616063 
-1025.77 984.867 1773.1 -0.388136 -0.685432 0.616063 
-1290.23 1279.4 1932.79 -0.388136 -0.685432 0.616063 
-1265.4 1415.33 2099.62 -0.388136 -0.685432 0.616063 
-1190.25 1339.54 2063.02 -0.388136 -0.685432 0.616063 
-1396.4 1464.32 2071.01 -0.388136 -0.685432 0.616063 
-926.093 926.242 1771.14 -0.388136 -0.685432 0.616063 
-1222.67 1066.31 1738.79 -0.388136 -0.685432 0.616063 
-1258.14 1369.82 2053.63 -0.388136 -0.685432 0.616063 
-1065.33 931.536 1688.74 -0.388136 -0.685432 0.616063 
-825.246 1104.15 2032.81 -0.388136 -0.685432 0.616063 
-1480.11 1481.1 2036.58 -0.388136 -0.685432 0.616063 
-733.62 1121.05 2109.69 -0.388136 -0.685432 0.616063 
-862.802 964.357 1853.63 -0.388136 -0.685432 0.616063 
-1100.96 1030.21 1775.82 -0.388136 -0.685432 0.616063 
-952.328 1118.4 1968.08 -0.388136 -0.685432 0.616063 
-721.026 1131.07 2128.81 -0.388136 -0.685432 0.616063 
-798.942 1081.64 2024.48 -0.388136 -0.685432 0.616063 
-887.81 976.015 1850.73 -0.388136 -0.685432 0.616063 
-933.813 1032.21 1884.02 -0.388136 -0.685432 0.616063 
-963.454 1164.87 2012.68 -0.388136 -0.685432 0.616063 
-909.852 967.46 1827.25 -0.388136 -0.685432 0.616063 
-1394.46 1393.42 1993.44 -0.388136 -0.685432 0.616063 
-1103.27 907.858 1638.37 -0.388136 -0.685432 0.616063 
-960.467 959.179 1785.95 -0.388136 -0.685432 0.616063 
-851.394 891.539 1779.93 -0.388136 -0.685432 0.616063 
-912.22 1028.72 1893.83 -0.388136 -0.685432 0.616063 
-850.626 1161.9 2080.9 -0.388136 -0.685432 0.616063 
-633.927 986.316 2023.15 -0.388136 -0.685432 0.616063 
-769.903 1068.14 2027.87 -0.388136 -0.685432 0.616063 
-1129.36 1069.45 1801.44 -0.388136 -0.685432 0.616063 
-1477.08 1504.74 2064.78 -0.388136 -0.685432 0.616063 
-931.492 1230.79 2106.2 -0.388136 -0.685432 0.616063 
-1312.16 1282.97 1922.85 -0.388136 -0.685432 0.616063 
-929.53 1130 1995.43 -0.388136 -0.685432 0.616063 
-404.695 971.073 2151.54 -0.388136 -0.685432 0.616063 
-1360.07 1411.62 2035.46 -0.388136 -0.685432 0.616063 
-946.507 1217.03 2081.4 -0.388136 -0.685432 0.616063 
-803.775 906.422 1826.66 -0.388136 -0.685432 0.616063 
-1135.89 1300.53 2054.13 -0.388136 -0.685432 0.616063 
-948.499 1032.65 1875.2 -0.388136 -0.685432 0.616063 
-466.844 1005.11 2149.96 -0.388136 -0.685432 0.616063 
-887.172 890.07 1755.61 -0.388136 -0.685432 0.616063 
-1028.3 1093.84 1892.61 -0.388136 -0.685432 0.616063 
-998.002 862.273 1654.45 -0.388136 -0.685432 0.616063 
-1341.77 1263.38 1882.31 -0.388136 -0.685432 0.616063 
-1177.31 1188.03 1902.83 -0.388136 -0.685432 0.616063 
-636.202 994.892 2031.24 -0.388136 -0.685432 0.616063 
-580.267 978.91 2048.94 -0.388136 -0.685432 0.616063 
-1369.42 1303.14 1908.97 -0.388136 -0.685432 0.616063 
-1150.03 1036.31 1751.5 -0.388136 -0.685432 0.616063 
-1211.5 1091.03 1773.34 -0.388136 -0.685432 0.616063 
-3.6698 847.972 1460.25 0.761885 0.113913 0.637617 
110.113 686.612 1352.4 0.761885 0.113913 0.637617 
125.813 666.229 1337.2 0.761885 0.113913 0.637617 
-290.308 1257.8 1731.34 0.761885 0.113913 0.637617 
-291.537 1249.36 1734.27 0.761885 0.113913 0.637617 
-145.015 1050.81 1593.8 0.761885 0.113913 0.637617 
-43.2763 904.679 1497.69 0.761885 0.113913 0.637617 
53.3998 757.908 1407.74 0.761941 0.110533 0.638144 
175.78 586.636 1291.35 0.761941 0.110533 0.638144 
186.281 574.506 1280.92 0.761941 0.110533 0.638144 
152.319 622.894 1313.07 0.761941 0.110533 0.638144 
47.6412 765.211 1413.35 0.761941 0.110533 0.638144 
41.1829 775.078 1419.34 0.761941 0.110533 0.638144 
136.656 643.884 1328.13 0.761941 0.110533 0.638144 
46.6394 764.866 1414.53 0.745562 0.0828402 0.661268 
-183.602 1091.04 1632.75 0.745562 0.0828402 0.661268 
111.2 667.927 1354.03 0.745562 0.0828402 0.661268 
-17.3049 851.23 1475.67 0.745562 0.0828402 0.661268 
40.9651 772.372 1419.97 0.745562 0.0828402 0.661268 
-235.056 1166.71 1681.16 0.745562 0.0828402 0.661268 
-126.676 1002.91 1579.73 0.745562 0.0828402 0.661268 
-187.22 1090.65 1636.87 0.745562 0.0828402 0.661268 
-89.6843 950.111 1544.72 0.745562 0.0828402 0.661268 
-136.24 1020.59 1588.28 0.745562 0.0828402 0.661268 
-287.081 1236.68 1730.94 0.745562 0.0828402 0.661268 
-10.5671 836.55 1469.93 0.745562 0.0828402 0.661268 
-173.735 1068.01 1624.53 0.745562 0.0828402 0.661268 
59.2076 728.609 1404.63 0.728647 0.0529665 0.682838 
-57.361 893.457 1515.11 0.728647 0.0529665 0.682838 
-171.143 1052.95 1623.06 0.728647 0.0529665 0.682838 
156.542 594.036 1312.14 0.728647 0.0529665 0.682838 
47.6177 745.646 1415.57 0.728647 0.0529665 0.682838 
81.7809 695.302 1383.35 0.728647 0.0529665 0.682838 
-179.336 1068.98 1630.46 0.728647 0.0529665 0.682838 
76.4489 707.084 1388.06 0.728647 0.0529665 0.682838 
-61.4697 906.351 1518.42 0.728647 0.0529665 0.682838 
51.2405 744.271 1411.83 0.728647 0.0529665 0.682838 
-212.941 1117.72 1662.21 0.728647 0.0529665 0.682838 
-303.411 1249.31 1747.65 0.728647 0.0529665 0.682838 
-204.647 1101.73 1654.69 0.728647 0.0529665 0.682838 
174.083 550.932 1296.69 0.70966 0.0267001 0.704039 
216.784 489.734 1256.26 0.70966 0.0267001 0.704039 
67.953 700.79 1397.24 0.70966 0.0267001 0.704039 
201.463 512.388 1270.74 0.70966 0.0267001 0.704039 
0.00634766 797.187 1461.6 0.70966 0.0267001 0.704039 
140.676 601.683 1328.19 0.70966 0.0267001 0.704039 
-129.471 984.452 1584.09 0.70966 0.0267001 0.704039 
-208.422 1098.58 1658.79 0.70966 0.0267001 0.704039 
-72.8122 904.24 1530.42 0.70966 0.0267001 0.704039 
-18.0919 826.201 1478.61 0.70966 0.0267001 0.704039 
-266.697 1173.75 1714.29 0.70966 0.0267001 0.704039 
-161.006 1029.56 1613.95 0.70966 0.0267001 0.704039 
-183.232 1058.15 1635.12 0.70966 0.0267001 0.704039 
-5.07104 792.023 1466.6 0.68893 -0.00138062 0.724826 
158.888 554.186 1311.33 0.68893 -0.00138062 0.724826 
123.567 605.458 1344.78 0.68893 -0.00138062 0.724826 
175.856 534.946 1295.26 0.68893 -0.00138062 0.724826 
73.5343 675.045 1392.16 0.68893 -0.00138062 0.724826 
74.001 675.225 1391.72 0.68893 -0.00138062 0.724826 
142.013 584.869 1327.31 0.68893 -0.00138062 0.724826 
-45.5658 853.18 1504.95 0.68893 -0.00138062 0.724826 
-117.268 953.534 1572.86 0.68893 -0.00138062 0.724826 
-235.066 1125.84 1684.41 0.68893 -0.00138062 0.724826 
-277.686 1175.54 1724.78 0.68893 -0.00138062 0.724826 
-182.813 1046.88 1634.93 0.68893 -0.00138062 0.724826 
-151.03 999.654 1604.83 0.68893 -0.00138062 0.724826 
-25.2413 825.016 1485.7 0.68893 -0.00138062 0.724826 
84.0502 644.094 1381.68 0.667871 -0.0267148 0.743797 
93.0874 632.155 1373.16 0.667871 -0.0267148 0.743797 
-101.684 909.695 1557.63 0.667871 -0.0267148 0.743797 
-77.9711 876.122 1535.18 0.667871 -0.0267148 0.743797 
123.849 594.247 1344.24 0.667871 -0.0267148 0.743797 
78.6013 657.851 1387.06 0.667871 -0.0267148 0.743797 
48.2202 701.935 1415.86 0.667871 -0.0267148 0.743797 
117.829 610.211 1350.21 0.667871 -0.0267148 0.743797 
-104.546 923.157 1560.68 0.667871 -0.0267148 0.743797 
-318.943 1223.69 1763.56 0.667871 -0.0267148 0.743797 
-106.87 926.636 1562.89 0.667871 -0.0267148 0.743797 
-293.034 1192.96 1739.25 0.667871 -0.0267148 0.743797 
-293.258 1183.76 1739.11 0.667871 -0.0267148 0.743797 
-197.301 1053.58 1648.47 0.667871 -0.0267148 0.743797 
89.8134 626.094 1375.53 0.644937 -0.0557706 0.762198 
185.872 487.804 1284.44 0.644937 -0.0557706 0.762198 
109.483 594.504 1356.64 0.644937 -0.0557706 0.762198 
-133.413 940.961 1586.74 0.644937 -0.0557706 0.762198 
-190.452 1022.41 1640.78 0.644937 -0.0557706 0.762198 
-197.167 1029.21 1646.94 0.644937 -0.0557706 0.762198 
-135.195 941.487 1588.28 0.644937 -0.0557706 0.762198 
-329.665 1231.96 1773.45 0.644937 -0.0557706 0.762198 
-252.271 1114.26 1699.6 0.644937 -0.0557706 0.762198 
-58.0724 838.981 1515.76 0.644937 -0.0557706 0.762198 
-288.269 1162.91 1733.51 0.644937 -0.0557706 0.762198 
11.1146 746.594 1450.67 0.644937 -0.0557706 0.762198 
-25.4191 794.374 1484.97 0.644937 -0.0557706 0.762198 
-315.762 1198.59 1759.3 0.644937 -0.0557706 0.762198 
43.2773 676.26 1418.09 0.622027 -0.082647 0.778622 
46.175 672.443 1415.38 0.622027 -0.082647 0.778622 
-36.8108 793.52 1494.29 0.622027 -0.082647 0.778622 
163.922 499.945 1303.34 0.622027 -0.082647 0.778622 
11.2391 718.772 1448.11 0.622027 -0.082647 0.778622 
-54.0351 816.284 1510.42 0.622027 -0.082647 0.778622 
28.595 704.824 1432.81 0.622027 -0.082647 0.778622 
-36.467 795.196 1494.19 0.622027 -0.082647 0.778622 
-238.789 1080.33 1685.51 0.622027 -0.082647 0.778622 
-267.23 1122.05 1712.58 0.622027 -0.082647 0.778622 
-279.941 1137.14 1724.3 0.622027 -0.082647 0.778622 
48.7994 677.489 1413.82 0.622027 -0.082647 0.778622 
-226.014 1065.48 1673.77 0.622027 -0.082647 0.778622 
204.506 437.057 1264.19 0.594047 -0.112942 0.796463 
-197.804 999.622 1643.85 0.594047 -0.112942 0.796463 
-167.347 959.917 1615.51 0.594047 -0.112942 0.796463 
-215.11 1023.54 1660.15 0.594047 -0.112942 0.796463 
176.673 479.794 1290.99 0.594047 -0.112942 0.796463 
-30.1286 761.903 1485.17 0.594047 -0.112942 0.796463 
-221.615 1035.88 1666.73 0.594047 -0.112942 0.796463 
80.0444 591.919 1378.64 0.571454 -0.138039 0.808941 
160.873 484.663 1303.4 0.571454 -0.138039 0.808941 
-162.739 943.979 1609.7 0.571454 -0.138039 0.808941 
20.3507 684.426 1436.46 0.571454 -0.138039 0.808941 
-249.173 1068.95 1691.89 0.571454 -0.138039 0.808941 
148.883 496.156 1313.81 0.571454 -0.138039 0.808941 
-41.1773 786.793 1496.9 0.594047 -0.112942 0.796463 
-113.558 891.914 1565.75 0.594047 -0.112942 0.796463 
105.147 583.346 1358.97 0.594047 -0.112942 0.796463 
143.801 527.827 1322.29 0.594047 -0.112942 0.796463 
-214.449 1036.89 1661.49 0.594047 -0.112942 0.796463 
-206.493 1022.58 1653.55 0.594047 -0.112942 0.796463 
-211.264 1025.6 1657.54 0.594047 -0.112942 0.796463 
5.9751 695.331 1448.46 0.571454 -0.138039 0.808941 
38.1466 647.343 1417.61 0.571454 -0.138039 0.808941 
-304.105 1145.94 1743.72 0.571454 -0.138039 0.808941 
-205.052 1000.66 1649.18 0.571454 -0.138039 0.808941 
-289.605 1124.24 1729.81 0.571454 -0.138039 0.808941 
-332.892 1179.42 1769.72 0.571454 -0.138039 0.808941 
51.1328 632.245 1405.88 0.571454 -0.138039 0.808941 
20.9434 657.516 1431.06 0.545965 -0.166033 0.821191 
152.504 477.609 1307.91 0.545965 -0.166033 0.821191 
31.427 647.758 1422.16 0.545965 -0.166033 0.821191 
-27.4392 731.62 1477.93 0.545965 -0.166033 0.821191 
-227.846 1013.02 1666.99 0.545965 -0.166033 0.821191 
163.753 452.469 1295.43 0.545965 -0.166033 0.821191 
-287.313 1108.16 1725.41 0.545965 -0.166033 0.821191 
-156.671 920.736 1601.37 0.545965 -0.166033 0.821191 
-172.256 936.029 1614.76 0.545965 -0.166033 0.821191 
-357.958 1206.84 1791.95 0.545965 -0.166033 0.821191 
-350.562 1190.1 1783.7 0.545965 -0.166033 0.821191 
-273.325 1080.66 1710.64 0.545965 -0.166033 0.821191 
-346.69 1191.78 1781.47 0.545965 -0.166033 0.821191 
74.9841 570.502 1377.62 0.519539 -0.191251 0.832768 
127.047 501.129 1329.38 0.519539 -0.191251 0.832768 
119.309 504.676 1335 0.519539 -0.191251 0.832768 
-146.62 878.482 1585.82 0.519539 -0.191251 0.832768 
-241.492 1012.41 1675.44 0.519539 -0.191251 0.832768 
148.087 469.334 1309.03 0.519539 -0.191251 0.832768 
-212.297 986.966 1651.47 0.519539 -0.191251 0.832768 
-350.969 1175.47 1780.79 0.519539 -0.191251 0.832768 
-279.971 1070.65 1712.68 0.519539 -0.191251 0.832768 
-325.278 1133.99 1755.33 0.519539 -0.191251 0.832768 
-278.571 1079.23 1713.77 0.519539 -0.191251 0.832768 
-23.0016 715.463 1471.69 0.519539 -0.191251 0.832768 
-21.41 690.704 1464.79 0.489392 -0.219696 0.843937 
98.9229 517.146 1350.22 0.489392 -0.219696 0.843937 
34.1005 611.415 1412.13 0.489392 -0.219696 0.843937 
-137.198 852.218 1573.62 0.489392 -0.219696 0.843937 
-217.111 962.219 1648.36 0.489392 -0.219696 0.843937 
146.81 450.538 1305.25 0.489392 -0.219696 0.843937 
-191.534 929.479 1625.07 0.489392 -0.219696 0.843937 
-303.384 1092.4 1731.98 0.489392 -0.219696 0.843937 
-183.823 923.6 1619.08 0.489392 -0.219696 0.843937 
-313.434 1106.28 1741.39 0.489392 -0.219696 0.843937 
-172.559 904.328 1607.58 0.489392 -0.219696 0.843937 
-264.146 1042.77 1696.41 0.489392 -0.219696 0.843937 
-4.80927 672.418 1450.44 0.489392 -0.219696 0.843937 
-99.4376 802.82 1538.97 0.489392 -0.219696 0.843937 
120.443 477.359 1327.37 0.460759 -0.244826 0.853089 
-178.048 891.6 1607.1 0.460759 -0.244826 0.853089 
-22.0044 677.368 1461.53 0.460759 -0.244826 0.853089 
-203.682 925.763 1630.72 0.460759 -0.244826 0.853089 
82.3369 530.834 1363.25 0.460759 -0.244826 0.853089 
-286.274 1043.05 1708.88 0.460759 -0.244826 0.853089 
-39.1277 696.5 1476.26 0.460759 -0.244826 0.853089 
-330.104 1119.95 1754.54 0.460759 -0.244826 0.853089 
-351.12 1145.51 1773.21 0.460759 -0.244826 0.853089 
-312.161 1086.6 1735.32 0.460759 -0.244826 0.853089 
-379.844 1190.2 1801.5 0.460759 -0.244826 0.853089 
-300.622 1070.15 1724.38 0.460759 -0.244826 0.853089 
-214.282 949.206 1643.15 0.460759 -0.244826 0.853089 
-325.517 1103.33 1747.32 0.460759 -0.244826 0.853089 
-23.1742 660.996 1457.29 0.431602 -0.266891 0.861678 
64.1373 539.603 1375.48 0.431602 -0.266891 0.861678 
152.223 406.174 1289.52 0.431602 -0.266891 0.861678 
151.362 404.559 1289.45 0.431602 -0.266891 0.861678 
139.846 426.883 1302.21 0.431602 -0.266891 0.861678 
130.075 438.665 1310.8 0.431602 -0.266891 0.861678 
-178.558 878.26 1603.27 0.431602 -0.266891 0.861678 
-239.763 968.084 1662.09 0.431602 -0.266891 0.861678 
130.467 449.663 1314.04 0.431602 -0.266891 0.861678 
-70.4359 730.002 1502.6 0.431602 -0.266891 0.861678 
-222.678 947.451 1647.06 0.431602 -0.266891 0.861678 
-323.513 1091.93 1742.88 0.431602 -0.266891 0.861678 
-300.724 1057.32 1720.61 0.431602 -0.266891 0.861678 
-302.374 1063.42 1723.35 0.431602 -0.266891 0.861678 
-41.7092 666.121 1467.89 0.400988 -0.294261 0.867536 
-172.071 848.127 1590.18 0.400988 -0.294261 0.867536 
-178.654 860.233 1597.35 0.400988 -0.294261 0.867536 
-43.2705 665.216 1468.31 0.400988 -0.294261 0.867536 
95.5464 465.894 1336.21 0.400988 -0.294261 0.867536 
-192.718 876.834 1609.51 0.400988 -0.294261 0.867536 
-43.6053 668.962 1469.73 0.400988 -0.294261 0.867536 
-325.39 1080.45 1740.21 0.400988 -0.294261 0.867536 
-96.1165 751.877 1522.25 0.400988 -0.294261 0.867536 
-151.053 832.171 1575.01 0.400988 -0.294261 0.867536 
-26.9146 654.518 1457.08 0.400988 -0.294261 0.867536 
-98.4097 751.379 1523.15 0.400988 -0.294261 0.867536 
-163.647 849.615 1586.78 0.400988 -0.294261 0.867536 
-379.732 1145.95 1787.67 0.400988 -0.294261 0.867536 
-212.354 888.314 1622.11 0.373731 -0.318816 0.871023 
-36.8113 647.357 1459.07 0.373731 -0.318816 0.871023 
37.5298 534.596 1386.1 0.373731 -0.318816 0.871023 
145.229 379.969 1283.59 0.373731 -0.318816 0.871023 
-80.1116 698.822 1496.37 0.373731 -0.318816 0.871023 
-148.945 798.722 1562.29 0.373731 -0.318816 0.871023 
-132.123 777.697 1547.42 0.373731 -0.318816 0.871023 
112.824 416.506 1310.59 0.340235 -0.346338 0.874237 
-189.075 848.932 1597.66 0.340235 -0.346338 0.874237 
98.3738 444.329 1327.12 0.340235 -0.346338 0.874237 
-133.25 770.768 1545.28 0.340235 -0.346338 0.874237 
107.824 415.959 1312.32 0.340235 -0.346338 0.874237 
-212.765 885.679 1621.29 0.340235 -0.346338 0.874237 
-318.536 1041.99 1723.64 0.373731 -0.318816 0.871023 
-100.854 740.464 1520.46 0.373731 -0.318816 0.871023 
-36.9141 648.885 1459.68 0.373731 -0.318816 0.871023 
-200.683 876.236 1612.72 0.373731 -0.318816 0.871023 
-210.27 897.845 1624.71 0.373731 -0.318816 0.871023 
-384.706 1136.94 1786.6 0.373731 -0.318816 0.871023 
-403.949 1165.76 1805.36 0.373731 -0.318816 0.871023 
-230.677 900.619 1634.12 0.340235 -0.346338 0.874237 
32.4358 522.916 1383.6 0.340235 -0.346338 0.874237 
-365.059 1097.07 1763.46 0.340235 -0.346338 0.874237 
-402.292 1151.57 1799.33 0.340235 -0.346338 0.874237 
-107.68 723.717 1516.88 0.340235 -0.346338 0.874237 
-328.663 1039.8 1726.83 0.340235 -0.346338 0.874237 
-310.335 1014.82 1709.91 0.340235 -0.346338 0.874237 
99.3765 418.537 1316.42 0.308431 -0.369206 0.876674 
-360.667 1064.47 1748.55 0.308431 -0.369206 0.876674 
127.006 370.445 1286.58 0.308431 -0.369206 0.876674 
89.9979 435.799 1326.95 0.308431 -0.369206 0.876674 
-301.257 981.772 1693.05 0.308431 -0.369206 0.876674 
-173.087 798.374 1571.22 0.308431 -0.369206 0.876674 
-0.250854 555.955 1408.98 0.308431 -0.369206 0.876674 
-222.16 873.865 1620.07 0.308431 -0.369206 0.876674 
-346.797 1047.57 1736.6 0.308431 -0.369206 0.876674 
-0.415833 567.395 1413.82 0.308431 -0.369206 0.876674 
-382.657 1097.11 1769.95 0.308431 -0.369206 0.876674 
-165.451 801.637 1569.9 0.308431 -0.369206 0.876674 
-137.498 760.944 1543.03 0.308431 -0.369206 0.876674 
-331.043 1024.55 1721.43 0.308431 -0.369206 0.876674 
-46.5624 610.447 1447.92 0.279258 -0.390961 0.87702 
95.6096 407.894 1313.14 0.279258 -0.390961 0.87702 
50.9042 466.274 1353.16 0.279258 -0.390961 0.87702 
-95.5746 669.78 1489.72 0.279258 -0.390961 0.87702 
110.767 376.098 1294.24 0.279258 -0.390961 0.87702 
-17.6168 562.684 1417.58 0.279258 -0.390961 0.87702 
0.440491 542.853 1403.08 0.279258 -0.390961 0.87702 
-160.655 772.199 1555.73 0.279258 -0.390961 0.87702 
-266.218 927.382 1657.93 0.279258 -0.390961 0.87702 
-301.251 967.483 1686.78 0.279258 -0.390961 0.87702 
-212.156 842.44 1603.16 0.279258 -0.390961 0.87702 
-298.806 969.76 1687.03 0.279258 -0.390961 0.87702 
-298.865 966.215 1685.47 0.279258 -0.390961 0.87702 
-308.553 966.617 1688.57 0.244204 -0.414997 0.876437 
-280.634 920.175 1658.97 0.244204 -0.414997 0.876437 
-132.789 721.122 1524.25 0.244204 -0.414997 0.876437 
-366.809 1050.84 1744.38 0.244204 -0.414997 0.876437 
-416.212 1110.53 1786.18 0.244204 -0.414997 0.876437 
-228.157 849.771 1611.27 0.244204 -0.414997 0.876437 
-189.06 798.083 1576.09 0.244204 -0.414997 0.876437 
-23.9723 559.917 1418.18 0.244204 -0.414997 0.876437 
94.9952 381.934 1301.39 0.244204 -0.414997 0.876437 
-8.02911 529.677 1399.52 0.244204 -0.414997 0.876437 
-6.10498 526.819 1397.64 0.244204 -0.414997 0.876437 
-84.3422 641.898 1473.52 0.244204 -0.414997 0.876437 
9.82574 504.363 1382.65 0.244204 -0.414997 0.876437 
-276.461 909.929 1652.99 0.244204 -0.414997 0.876437 
-45.8507 571.677 1429.56 0.212967 -0.436358 0.874206 
-172.327 752.311 1549.69 0.212967 -0.436358 0.874206 
-294.876 931.239 1668.03 0.212967 -0.436358 0.874206 
43.3458 453.038 1349.18 0.212967 -0.436358 0.874206 
-194.182 788.196 1572.77 0.212967 -0.436358 0.874206 
79.0195 402.776 1315.63 0.212967 -0.436358 0.874206 
-273.78 894.334 1644.63 0.212967 -0.436358 0.874206 
-179.221 759.117 1554.73 0.212967 -0.436358 0.874206 
7.30176 489.553 1375.98 0.212967 -0.436358 0.874206 
-434.223 1128.7 1799.62 0.212967 -0.436358 0.874206 
-324.56 970.45 1694.65 0.212967 -0.436358 0.874206 
-367.22 1022.59 1730.81 0.212967 -0.436358 0.874206 
-175.936 752.672 1550.74 0.212967 -0.436358 0.874206 
-443.804 1128.27 1801.68 0.177824 -0.457051 0.871483 
-179.633 752.391 1551.46 0.177824 -0.457051 0.871483 
-185.952 761.84 1557.68 0.177824 -0.457051 0.871483 
0.634766 496.064 1380.79 0.177824 -0.457051 0.871483 
-111.86 656.857 1487.73 0.177824 -0.457051 0.871483 
-385.274 1038.56 1742.88 0.177824 -0.457051 0.871483 
-254.33 859.237 1622.51 0.177824 -0.457051 0.871483 
-64.5514 584.213 1440.13 0.177824 -0.457051 0.871483 
-199.09 766.008 1562.53 0.177824 -0.457051 0.871483 
-42.0083 545.965 1415.55 0.177824 -0.457051 0.871483 
-301.36 912.191 1659.75 0.177824 -0.457051 0.871483 
-216.09 791.291 1579.2 0.177824 -0.457051 0.871483 
41.1187 434.076 1340.15 0.177824 -0.457051 0.871483 
-166.752 718.872 1531.31 0.177824 -0.457051 0.871483 
-255.208 842.932 1614.13 0.14409 -0.478844 0.865995 
75.0568 369.242 1299.22 0.14409 -0.478844 0.865995 
13.6866 458.516 1358.43 0.14409 -0.478844 0.865995 
-386.937 1029.18 1738.26 0.14409 -0.478844 0.865995 
-258.618 845.789 1616.26 0.14409 -0.478844 0.865995 
-106.699 625.747 1470.23 0.14409 -0.478844 0.865995 
-243.461 823.843 1601.7 0.14409 -0.478844 0.865995 
-449.497 1105.11 1790.33 0.14409 -0.478844 0.865995 
-434.454 1091.04 1780.11 0.14409 -0.478844 0.865995 
-357.801 978.611 1705.65 0.14409 -0.478844 0.865995 
-400.307 1040.59 1746.74 0.14409 -0.478844 0.865995 
-304.004 906.889 1657.34 0.14409 -0.478844 0.865995 
33.5356 417.314 1332.5 0.14409 -0.478844 0.865995 
-234.436 805.216 1589.97 0.14409 -0.478844 0.865995 
-354.676 959.459 1694.37 0.110434 -0.494802 0.86196 
-216.941 765.548 1565.1 0.110434 -0.494802 0.86196 
-181.132 718.077 1533.18 0.110434 -0.494802 0.86196 
5.51825 453.939 1357.21 0.110434 -0.494802 0.86196 
-224.961 779.159 1573.96 0.110434 -0.494802 0.86196 
-313.462 907.816 1659.37 0.110434 -0.494802 0.86196 
-343.138 946.613 1685.5 0.110434 -0.494802 0.86196 
-224.668 767.217 1567.04 0.110434 -0.494802 0.86196 
-266.308 831.726 1609.52 0.110434 -0.494802 0.86196 
-2.04773 454.039 1358.23 0.110434 -0.494802 0.86196 
-79.0394 567.906 1433.65 0.110434 -0.494802 0.86196 
-32.227 496.852 1386.74 0.110434 -0.494802 0.86196 
56.0428 372.496 1303.84 0.110434 -0.494802 0.86196 
30.0002 414.186 1331.18 0.110434 -0.494802 0.86196 
57.6644 359.536 1296.02 0.0777927 -0.516261 0.852891 
-65.8763 535.605 1413.22 0.0777927 -0.516261 0.852891 
54.7974 367.203 1300.9 0.0777927 -0.516261 0.852891 
70.2155 343.018 1284.94 0.0777927 -0.516261 0.852891 
-2.22162 445.607 1353.27 0.0777927 -0.516261 0.852891 
45.7508 380.457 1309.7 0.0777927 -0.516261 0.852891 
42.3535 380.42 1309.98 0.0777927 -0.516261 0.852891 
-129.885 618.693 1469.03 0.0777927 -0.516261 0.852891 
-464.468 1106.72 1793.19 0.0777927 -0.516261 0.852891 
-8.60132 443.91 1352.81 0.0777927 -0.516261 0.852891 
-377.877 967.741 1701.64 0.0777927 -0.516261 0.852891 
-420.151 1028.31 1741.94 0.0777927 -0.516261 0.852891 
-276.042 825.227 1606.62 0.0777927 -0.516261 0.852891 
-372.358 966.451 1700.37 0.0777927 -0.516261 0.852891 
-414.18 1016.53 1734.22 0.0429865 -0.533864 0.844477 
-358.529 936.087 1680.71 0.0429865 -0.533864 0.844477 
-318.126 880.833 1643.85 0.0429865 -0.533864 0.844477 
-292.891 842.769 1618.58 0.0429865 -0.533864 0.844477 
-167.367 663.865 1499.49 0.0429865 -0.533864 0.844477 
-86.4908 552.465 1425.2 0.0429865 -0.533864 0.844477 
49.667 348.678 1289.87 0.0429865 -0.533864 0.844477 
-153.634 636.772 1481.71 0.0429865 -0.533864 0.844477 
62.0913 338.106 1282.59 0.0429865 -0.533864 0.844477 
-217.439 729.67 1543.49 0.0429865 -0.533864 0.844477 
38.4371 362.353 1299.06 0.0429865 -0.533864 0.844477 
-133.643 609.118 1463.27 0.0429865 -0.533864 0.844477 
-238.667 755.573 1560.88 0.0429865 -0.533864 0.844477 
-195.112 690.446 1517.61 0.00681048 -0.554373 0.832241 
9.88409 386.08 1315.05 0.00681048 -0.554373 0.832241 
-367.204 935.47 1680.74 0.00681048 -0.554373 0.832241 
-349.991 908.462 1662.77 0.00681048 -0.554373 0.832241 
-197.08 692.034 1518.68 0.00681048 -0.554373 0.832241 
-9.51111 415.934 1334.91 0.00681048 -0.554373 0.832241 
-232.333 738.338 1549.52 0.00681048 -0.554373 0.832241 
-333.077 878.227 1642.68 0.00681048 -0.554373 0.832241 
-270.661 790.458 1584.24 0.00681048 -0.554373 0.832241 
-356.781 911.392 1664.76 0.00681048 -0.554373 0.832241 
-363.378 922.221 1671.96 0.00681048 -0.554373 0.832241 
-144.988 605.326 1461.02 0.00681048 -0.554373 0.832241 
-496.265 1109.26 1796.5 0.00681048 -0.554373 0.832241 
-3.24194 401.858 1325.57 0.00681048 -0.554373 0.832241 
-221.369 697.957 1522.38 -0.0262649 -0.568151 0.822505 
-285.605 789.992 1583.66 -0.0262649 -0.568151 0.822505 
-10.9705 408.922 1330.19 -0.0262649 -0.568151 0.822505 
-31.3595 435.109 1347.56 -0.0262649 -0.568151 0.822505 
-282.023 786.097 1581.1 -0.0262649 -0.568151 0.822505 
-10.9019 398.906 1323.29 -0.0262649 -0.568151 0.822505 
-36.8444 433.97 1346.59 -0.0262649 -0.568151 0.822505 
-443.052 1018.91 1736.19 -0.0262649 -0.568151 0.822505 
-372.793 926.139 1674.59 -0.0262649 -0.568151 0.822505 
-391.016 946.551 1688.05 -0.0262649 -0.568151 0.822505 
-423.653 997.196 1721.87 -0.0262649 -0.568151 0.822505 
-306.555 832.596 1612.33 -0.0262649 -0.568151 0.822505 
-449.488 1028.05 1742.27 -0.0262649 -0.568151 0.822505 
-299.998 822.627 1605.68 -0.0262649 -0.568151 0.822505 
-116.6 537.777 1415.21 -0.061006 -0.583104 0.810103 
-442.734 996.682 1720.45 -0.061006 -0.583104 0.810103 
-49.1112 447.163 1355.17 -0.061006 -0.583104 0.810103 
-285.706 772.045 1570.83 -0.061006 -0.583104 0.810103 
-63.66 463.591 1365.88 -0.061006 -0.583104 0.810103 
-10.2916 391.806 1318.31 -0.061006 -0.583104 0.810103 
-64.7246 467.372 1368.51 -0.061006 -0.583104 0.810103 
-332.42 834.368 1612 -0.0945756 -0.598009 0.79589 
-442.764 992.707 1717.53 -0.0945756 -0.598009 0.79589 
-268.682 743.109 1551.19 -0.0945756 -0.598009 0.79589 
-185.504 621.834 1470.2 -0.0945756 -0.598009 0.79589 
-32.7631 400.714 1322.67 -0.0945756 -0.598009 0.79589 
19.4637 332.609 1277.85 -0.0945756 -0.598009 0.79589 
-296.474 782.727 1577.58 -0.0945756 -0.598009 0.79589 
-121.188 551.934 1425.04 -0.061006 -0.583104 0.810103 
-323.339 838.372 1615.68 -0.061006 -0.583104 0.810103 
-305.157 810.47 1596.99 -0.061006 -0.583104 0.810103 
-500.645 1084.4 1779.14 -0.061006 -0.583104 0.810103 
-21.3227 410.549 1330.95 -0.061006 -0.583104 0.810103 
-210.634 678.798 1509.48 -0.061006 -0.583104 0.810103 
-492.273 1076.84 1774.34 -0.061006 -0.583104 0.810103 
-456.413 1004.45 1724.7 -0.0945756 -0.598009 0.79589 
-168.855 592.799 1450.42 -0.0945756 -0.598009 0.79589 
-428.559 967.893 1700.62 -0.0945756 -0.598009 0.79589 
-89.3384 478.395 1374.15 -0.0945756 -0.598009 0.79589 
-337.716 836.651 1613.07 -0.0945756 -0.598009 0.79589 
-321.937 815.592 1599.17 -0.0945756 -0.598009 0.79589 
-5.01038 356.33 1292.7 -0.0945756 -0.598009 0.79589 
-304.367 771.967 1568.22 -0.129388 -0.611248 0.780791 
-220.94 654.87 1490.45 -0.129388 -0.611248 0.780791 
-5.16602 350.466 1288.09 -0.129388 -0.611248 0.780791 
-361.496 848.119 1618.32 -0.129388 -0.611248 0.780791 
-131.307 522.526 1401.77 -0.129388 -0.611248 0.780791 
6.93793 333.167 1276.56 -0.129388 -0.611248 0.780791 
-68.4646 436.041 1344.53 -0.129388 -0.611248 0.780791 
-194.086 622.075 1469.25 -0.129388 -0.611248 0.780791 
-438.977 965.126 1697.01 -0.129388 -0.611248 0.780791 
-458.047 996.129 1718.11 -0.129388 -0.611248 0.780791 
-71.2667 449.835 1354.87 -0.129388 -0.611248 0.780791 
-336.682 822.729 1602.58 -0.129388 -0.611248 0.780791 
-410.571 924.724 1670.11 -0.129388 -0.611248 0.780791 
-400.097 917.33 1666.07 -0.129388 -0.611248 0.780791 
-282.014 722.625 1532.9 -0.165178 -0.625859 0.762245 
-44.5579 393.952 1315.46 -0.165178 -0.625859 0.762245 
-199.153 610.799 1459.36 -0.165178 -0.625859 0.762245 
-279.105 716.347 1528.4 -0.165178 -0.625859 0.762245 
-64.4086 421.95 1334.06 -0.165178 -0.625859 0.762245 
-86.3213 448.486 1351.03 -0.165178 -0.625859 0.762245 
-398.083 894.821 1648.61 -0.165178 -0.625859 0.762245 
-467.627 989.605 1711.09 -0.165178 -0.625859 0.762245 
-128.838 516.047 1397.08 -0.165178 -0.625859 0.762245 
-330.051 799.435 1585.32 -0.165178 -0.625859 0.762245 
-533.584 1088.34 1777.56 -0.165178 -0.625859 0.762245 
-541.202 1089.18 1776.61 -0.165178 -0.625859 0.762245 
-296.217 753.198 1554.82 -0.165178 -0.625859 0.762245 
-466.952 968.776 1693.72 -0.195968 -0.637283 0.745297 
-151.151 523.615 1398.11 -0.195968 -0.637283 0.745297 
-21.0327 341.531 1277.45 -0.195968 -0.637283 0.745297 
-264.391 683.851 1504.63 -0.195968 -0.637283 0.745297 
-116.225 479.502 1369.78 -0.195968 -0.637283 0.745297 
-446.636 939.989 1674.58 -0.195968 -0.637283 0.745297 
-359.005 816.013 1592.17 -0.195968 -0.637283 0.745297 
-61.6378 386.504 1304.82 -0.230024 -0.646258 0.727627 
-202.802 587.912 1439.04 -0.230024 -0.646258 0.727627 
-287.918 709.556 1520.15 -0.230024 -0.646258 0.727627 
-202.966 585.947 1437.24 -0.230024 -0.646258 0.727627 
-239.444 638.673 1472.53 -0.230024 -0.646258 0.727627 
-445.822 937.273 1672.45 -0.230024 -0.646258 0.727627 
-190.771 566.692 1424 -0.230024 -0.646258 0.727627 
-462.24 965.978 1692.59 -0.195968 -0.637283 0.745297 
-345.772 810.296 1590.8 -0.195968 -0.637283 0.745297 
-495.567 1017.71 1727.83 -0.195968 -0.637283 0.745297 
-495.662 1011.97 1722.92 -0.195968 -0.637283 0.745297 
-518.967 1055.99 1754.24 -0.195968 -0.637283 0.745297 
-490.263 1012 1724.38 -0.195968 -0.637283 0.745297 
-515.039 1039.84 1741.53 -0.195968 -0.637283 0.745297 
-394.938 859.646 1619.6 -0.230024 -0.646258 0.727627 
-268.169 674.316 1495.1 -0.230024 -0.646258 0.727627 
-282.496 693.511 1507.61 -0.230024 -0.646258 0.727627 
-270.031 677.98 1497.76 -0.230024 -0.646258 0.727627 
-225.105 611.197 1452.66 -0.230024 -0.646258 0.727627 
-450.922 935.166 1668.96 -0.230024 -0.646258 0.727627 
-465.264 954.629 1681.71 -0.230024 -0.646258 0.727627 
-408.368 858.069 1613.44 -0.265815 -0.657374 0.705125 
-373.75 812.27 1583.86 -0.265815 -0.657374 0.705125 
-113.637 448.013 1342.86 -0.265815 -0.657374 0.705125 
-515.142 1008.82 1713.51 -0.265815 -0.657374 0.705125 
-42.2324 340.863 1270.06 -0.265815 -0.657374 0.705125 
-114.434 447.362 1341.96 -0.265815 -0.657374 0.705125 
-443.527 915.315 1653.45 -0.265815 -0.657374 0.705125 
-448.286 922.278 1658.14 -0.265815 -0.657374 0.705125 
-493.608 987.276 1701.55 -0.265815 -0.657374 0.705125 
-388.343 839.813 1603.97 -0.265815 -0.657374 0.705125 
-437.071 907.889 1648.97 -0.265815 -0.657374 0.705125 
-299.588 713.88 1520.21 -0.265815 -0.657374 0.705125 
-526.335 1036.55 1735.07 -0.265815 -0.657374 0.705125 
-325.925 729.323 1524.31 -0.29442 -0.667673 0.683761 
-260.228 638.075 1464.23 -0.29442 -0.667673 0.683761 
-234.533 602.622 1440.96 -0.29442 -0.667673 0.683761 
-40.7429 324.957 1255.49 -0.29442 -0.667673 0.683761 
-131.241 451.558 1339.13 -0.29442 -0.667673 0.683761 
-273.389 655.802 1475.73 -0.29442 -0.667673 0.683761 
-304.541 698.23 1503.4 -0.29442 -0.667673 0.683761 
-355.865 779.409 1559.93 -0.29442 -0.667673 0.683761 
-475.085 946.738 1670.64 -0.29442 -0.667673 0.683761 
-551.986 1052.46 1739.91 -0.29442 -0.667673 0.683761 
-542.997 1037.95 1729.73 -0.29442 -0.667673 0.683761 
-276.265 666.85 1485.19 -0.29442 -0.667673 0.683761 
-404.257 843.547 1601.2 -0.29442 -0.667673 0.683761 
-513.334 997.037 1702.88 -0.29442 -0.667673 0.683761 
-465.548 912.257 1640.8 -0.326808 -0.674752 0.661745 
-115.258 419.498 1314.66 -0.326808 -0.674752 0.661745 
-291.528 668.419 1479.75 -0.326808 -0.674752 0.661745 
-323.053 709.826 1506.12 -0.326808 -0.674752 0.661745 
-376.052 788.891 1560.03 -0.326808 -0.674752 0.661745 
-233.415 582.615 1421.53 -0.326808 -0.674752 0.661745 
-113.825 416.714 1312.55 -0.326808 -0.674752 0.661745 
-249.15 612.896 1444.44 -0.326808 -0.674752 0.661745 
-286.336 667.635 1481.52 -0.326808 -0.674752 0.661745 
-436.804 882.81 1625.17 -0.326808 -0.674752 0.661745 
-394.585 818.542 1580.92 -0.326808 -0.674752 0.661745 
-548.257 1033.27 1722.52 -0.326808 -0.674752 0.661745 
-574.636 1068.2 1744.89 -0.326808 -0.674752 0.661745 
-348.595 754.762 1539.03 -0.326808 -0.674752 0.661745 
-459.903 893.548 1624.16 -0.358551 -0.679446 0.640152 
-58.0342 319.304 1240.83 -0.358551 -0.679446 0.640152 
-261.848 610.504 1435.2 -0.358551 -0.679446 0.640152 
-303.212 668.323 1473.29 -0.358551 -0.679446 0.640152 
-234.828 573.479 1411.11 -0.358551 -0.679446 0.640152 
-167.179 476.74 1346.51 -0.358551 -0.679446 0.640152 
-513.381 977.604 1683.27 -0.358551 -0.679446 0.640152 
-357.677 757.468 1537.25 -0.358551 -0.679446 0.640152 
-380.377 786.361 1555.14 -0.358551 -0.679446 0.640152 
-372.059 772.234 1544.83 -0.358551 -0.679446 0.640152 
-449.771 883.111 1618.78 -0.358551 -0.679446 0.640152 
-432.606 856.869 1600.59 -0.358551 -0.679446 0.640152 
-502.398 956.068 1666.6 -0.358551 -0.679446 0.640152 
-279.478 623.718 1438.78 -0.388136 -0.685432 0.616063 
-151.016 447.42 1324.28 -0.388136 -0.685432 0.616063 
-218.805 540.691 1384.97 -0.388136 -0.685432 0.616063 
-214.78 536.828 1383.23 -0.388136 -0.685432 0.616063 
-182.982 490.181 1351.54 -0.388136 -0.685432 0.616063 
-141.055 433.687 1315.33 -0.388136 -0.685432 0.616063 
-40.8527 292.281 1221.7 -0.388136 -0.685432 0.616063 
-338.879 717.036 1504.84 -0.388136 -0.685432 0.616063 
-240.929 576.303 1410.52 -0.388136 -0.685432 0.616063 
-399.972 798.021 1556.12 -0.388136 -0.685432 0.616063 
-518.007 972.343 1675.03 -0.388136 -0.685432 0.616063 
-414.054 820.246 1571.89 -0.388136 -0.685432 0.616063 
-530.593 986.751 1683.07 -0.388136 -0.685432 0.616063 
-402.252 785.675 1540.34 -0.42035 -0.689507 0.589819 
-292.159 633.275 1440.99 -0.42035 -0.689507 0.589819 
-219.779 529.975 1372.04 -0.42035 -0.689507 0.589819 
-104.998 363.396 1259.49 -0.42035 -0.689507 0.589819 
-375.674 750.968 1518.79 -0.42035 -0.689507 0.589819 
-133.159 403.781 1286.54 -0.42035 -0.689507 0.589819 
-337.099 692.981 1478.62 -0.42035 -0.689507 0.589819 
-603.315 1075.73 1735.47 -0.42035 -0.689507 0.589819 
-389.345 773.611 1535.46 -0.42035 -0.689507 0.589819 
-519.559 962.515 1663.07 -0.42035 -0.689507 0.589819 
-460.393 872.594 1600.32 -0.42035 -0.689507 0.589819 
-549.177 1000.32 1686.07 -0.42035 -0.689507 0.589819 
-279.782 621.173 1435.69 -0.42035 -0.689507 0.589819 
-507.086 944.465 1650.9 -0.42035 -0.689507 0.589819 
-312.445 652.162 1448.25 -0.448641 -0.692141 0.565387 
-213.747 510.823 1353.63 -0.448641 -0.692141 0.565387 
-484.703 892.962 1606.19 -0.448641 -0.692141 0.565387 
-79.9883 323.537 1230.62 -0.448641 -0.692141 0.565387 
-293.432 621.126 1425.35 -0.448641 -0.692141 0.565387 
-451.549 846.749 1575.95 -0.448641 -0.692141 0.565387 
-143.01 406.49 1282.08 -0.448641 -0.692141 0.565387 
-390.712 762.537 1521.2 -0.448641 -0.692141 0.565387 
-320.59 666.467 1459.3 -0.448641 -0.692141 0.565387 
-550.107 989.676 1672.64 -0.448641 -0.692141 0.565387 
-268.532 593.764 1411.66 -0.448641 -0.692141 0.565387 
-466.607 868.986 1591.21 -0.448641 -0.692141 0.565387 
-331.758 684.798 1472.88 -0.448641 -0.692141 0.565387 
-422.479 809.679 1553.68 -0.448641 -0.692141 0.565387 
-247.532 546.023 1369.32 -0.4788 -0.695678 0.535522 
-357.224 702.353 1473.58 -0.4788 -0.695678 0.535522 
-260.818 565.249 1382.32 -0.4788 -0.695678 0.535522 
-488.275 887.414 1595.93 -0.4788 -0.695678 0.535522 
-112.926 355.839 1243.52 -0.4788 -0.695678 0.535522 
-256.767 556.696 1374.88 -0.4788 -0.695678 0.535522 
-168.396 439.218 1301.83 -0.4788 -0.695678 0.535522 
-421.67 800.063 1542.42 -0.4788 -0.695678 0.535522 
-575.878 1012.71 1679.78 -0.4788 -0.695678 0.535522 
-509.208 922.672 1622.84 -0.4788 -0.695678 0.535522 
-372.591 727.044 1491.8 -0.4788 -0.695678 0.535522 
-363.259 716.638 1486.67 -0.4788 -0.695678 0.535522 
-363.281 715.607 1485.31 -0.4788 -0.695678 0.535522 
-377.354 735.643 1498.66 -0.4788 -0.695678 0.535522 
-270.417 570.772 1380.52 -0.505898 -0.696236 0.509237 
-163.583 415.102 1274.29 -0.505898 -0.696236 0.509237 
-459.141 837.096 1556.33 -0.505898 -0.696236 0.509237 
-149.787 400.895 1268.63 -0.505898 -0.696236 0.509237 
-148.037 400.105 1269.29 -0.505898 -0.696236 0.509237 
-183.718 448.987 1300.52 -0.505898 -0.696236 0.509237 
-113.436 349.085 1234.06 -0.505898 -0.696236 0.509237 
-154.436 398.877 1261.07 -0.533136 -0.69692 0.479655 
-129.785 358.441 1229.94 -0.533136 -0.69692 0.479655 
-260.633 550.606 1362.6 -0.533136 -0.69692 0.479655 
-149.147 389.626 1253.55 -0.533136 -0.69692 0.479655 
-147.01 383.534 1247.11 -0.533136 -0.69692 0.479655 
-282.138 581.779 1383.81 -0.533136 -0.69692 0.479655 
-223.849 498.495 1328.07 -0.533136 -0.69692 0.479655 
-354.883 691.989 1461.97 -0.505898 -0.696236 0.509237 
-527.029 940.508 1629.97 -0.505898 -0.696236 0.509237 
-530.724 938.503 1623.55 -0.505898 -0.696236 0.509237 
-353.032 691.002 1462.46 -0.505898 -0.696236 0.509237 
-577.413 1003.55 1665.9 -0.505898 -0.696236 0.509237 
-541.478 959.086 1640.96 -0.505898 -0.696236 0.509237 
-429.275 801.604 1537.6 -0.505898 -0.696236 0.509237 
-560.627 975.387 1643.86 -0.533136 -0.69692 0.479655 
-579.192 999.606 1658.27 -0.533136 -0.69692 0.479655 
-251.457 530.283 1343.38 -0.533136 -0.69692 0.479655 
-574.31 994.755 1656.68 -0.533136 -0.69692 0.479655 
-597.153 1025.69 1676.06 -0.533136 -0.69692 0.479655 
-561.402 972.541 1638.88 -0.533136 -0.69692 0.479655 
