ply
format ascii 1.0
comment Created by CloudCompare v2.11.3 (Anoia)
comment Created 08/09/2022 00:19
obj_info Generated by CloudCompare!
element vertex 911
property float x
property float y
property float z
property float nx
property float ny
property float nz
end_header
-1114.53 4301.99 1838.16 -0.426271 0.52173 0.73898 
-953.749 4346.89 1899.51 -0.426271 0.52173 0.73898 
-1381.68 3978.39 1911.04 -0.426271 0.52173 0.73898 
-1151.09 3915.24 2088.56 -0.426271 0.52173 0.73898 
-1448.37 3898.64 1928.5 -0.426271 0.52173 0.73898 
-1292.55 3880.63 2031.15 -0.426271 0.52173 0.73898 
-868.761 4229.5 2031.01 -0.426271 0.52173 0.73898 
-1363.02 3933.68 1953.2 -0.426271 0.52173 0.73898 
-1281.51 3432.61 2352.05 -0.426271 0.52173 0.73898 
-1113.17 3960.87 2078.42 -0.426271 0.52173 0.73898 
-1383.17 3841.48 2006.29 -0.426271 0.52173 0.73898 
-1223.18 3795.31 2131.11 -0.426271 0.52173 0.73898 
-1264.9 3720.26 2159.71 -0.426271 0.52173 0.73898 
-1421.6 3900.99 1942.31 -0.426271 0.52173 0.73898 
-1330.28 3641.8 2177.02 -0.426271 0.52173 0.73898 
-1345.33 3823.64 2040.67 -0.426271 0.52173 0.73898 
-1191.58 3828.32 2126.19 -0.426271 0.52173 0.73898 
-1261.7 3896.98 2037.49 -0.426271 0.52173 0.73898 
-1112.61 4092.49 1986.35 -0.426271 0.52173 0.73898 
-1046.21 4007.85 2084.12 -0.426271 0.52173 0.73898 
-819.112 4303.51 2007.73 -0.426271 0.52173 0.73898 
-841.149 4310.75 1989.91 -0.426271 0.52173 0.73898 
-1333.08 3566.41 2228.33 -0.426271 0.52173 0.73898 
-1044.4 4282.71 1892.2 -0.426271 0.52173 0.73898 
-1219.48 3926.67 2041.03 -0.426271 0.52173 0.73898 
-1056.05 3987.9 2092.45 -0.426271 0.52173 0.73898 
-1231.66 3919.96 2038.7 -0.426271 0.52173 0.73898 
-1504.36 4081.18 1768.02 -0.426271 0.52173 0.73898 
-1247.87 3884.03 2054.57 -0.426271 0.52173 0.73898 
-979.906 4022.87 2111.87 -0.426271 0.52173 0.73898 
-1264.53 3523.8 2297.83 -0.426271 0.52173 0.73898 
-840.536 4372.05 1947.24 -0.426271 0.52173 0.73898 
-874.503 4455.77 1868.85 -0.426271 0.52173 0.73898 
-883.47 4414.12 1892.9 -0.426271 0.52173 0.73898 
-1152.11 4279.64 1832.15 -0.426271 0.52173 0.73898 
-1376.87 4018.74 1885.49 -0.426271 0.52173 0.73898 
-1430.01 3961.24 1895.16 -0.426271 0.52173 0.73898 
-1321.22 3814.13 2061.27 -0.426271 0.52173 0.73898 
-972.97 4209.89 1984.58 -0.426271 0.52173 0.73898 
-1122.2 3953.75 2078.21 -0.426271 0.52173 0.73898 
-1483.15 4034.45 1813.07 -0.426271 0.52173 0.73898 
-1206.84 4135.38 1901.81 -0.426271 0.52173 0.73898 
-1443.22 3843.62 1970.11 -0.426271 0.52173 0.73898 
-1512.32 4004.84 1817.01 -0.426271 0.52173 0.73898 
-1346.14 3676.31 2143.63 -0.426271 0.52173 0.73898 
-1235.16 3473.49 2350.12 -0.426271 0.52173 0.73898 
-1155.24 3929.24 2076.33 -0.426271 0.52173 0.73898 
-1255.08 3878.84 2054.05 -0.426271 0.52173 0.73898 
-1210.92 3775.19 2152.32 -0.426271 0.52173 0.73898 
-973.04 4225.58 1973.53 -0.426271 0.52173 0.73898 
-799.122 4480.86 1894.77 -0.426271 0.52173 0.73898 
-1259.55 3505.75 2313.38 -0.426271 0.52173 0.73898 
-1215.57 3694.48 2206.3 -0.426271 0.52173 0.73898 
-1150.66 3933.43 2076.04 -0.426271 0.52173 0.73898 
-1141.21 4266.78 1847.47 -0.426271 0.52173 0.73898 
-1102.04 4233.26 1893.63 -0.426271 0.52173 0.73898 
-754.125 4515.27 1896.6 -0.426271 0.52173 0.73898 
-1076.1 4256.01 1892.64 -0.426271 0.52173 0.73898 
-1225.35 3831.91 2104.16 -0.426271 0.52173 0.73898 
-889.879 4323.25 1952.99 -0.426271 0.52173 0.73898 
-1425.99 3777.17 2026.71 -0.426271 0.52173 0.73898 
-603.853 4124.96 2257.41 -0.426271 0.52173 0.73898 
-899.354 3948.8 2210.4 -0.426271 0.52173 0.73898 
-751.928 4043.73 2228.91 -0.426271 0.52173 0.73898 
-1025.07 3532.56 2430 -0.426271 0.52173 0.73898 
-803.859 3938.19 2273 -0.426271 0.52173 0.73898 
-990.226 3560.89 2430.24 -0.426271 0.52173 0.73898 
-489.82 4054.57 2372.69 -0.426271 0.52173 0.73898 
-1162.36 3492.96 2378.5 -0.426271 0.52173 0.73898 
-841.449 3712.29 2409.88 -0.426271 0.52173 0.73898 
-699.038 3773.67 2449.04 -0.426271 0.52173 0.73898 
-592.737 3872.7 2440.92 -0.426271 0.52173 0.73898 
-686.838 4299.42 2087 -0.426271 0.52173 0.73898 
-835.468 3659.54 2450.36 -0.426271 0.52173 0.73898 
-561.576 4214.71 2218.82 -0.426271 0.52173 0.73898 
-1023.89 3596.62 2385.71 -0.426271 0.52173 0.73898 
-679.316 4054.44 2263.33 -0.426271 0.52173 0.73898 
-661.154 3761.01 2479.81 -0.426271 0.52173 0.73898 
-708.481 3814.22 2415.12 -0.426271 0.52173 0.73898 
-452.963 3869.97 2523.57 -0.426271 0.52173 0.73898 
-637.242 3932.02 2373.57 -0.426271 0.52173 0.73898 
-658.626 4195.98 2175.91 -0.426271 0.52173 0.73898 
-680.596 3759.38 2469.73 -0.426271 0.52173 0.73898 
-489.227 4043.6 2380.73 -0.426271 0.52173 0.73898 
-598.589 3799.09 2489.21 -0.426271 0.52173 0.73898 
-763.604 3978.08 2268.25 -0.426271 0.52173 0.73898 
-747.15 4008.96 2256.07 -0.426271 0.52173 0.73898 
-861.997 4153.67 2088.15 -0.426271 0.52173 0.73898 
-1122.71 3557.23 2356.28 -0.426271 0.52173 0.73898 
-480.696 3861.75 2513.32 -0.426271 0.52173 0.73898 
-668.231 4452.87 1990.02 -0.426271 0.52173 0.73898 
-453.904 3901.5 2500.89 -0.426271 0.52173 0.73898 
-830.397 3781.26 2367.84 -0.426271 0.52173 0.73898 
-907.619 3728.78 2360.08 -0.426271 0.52173 0.73898 
-1037.74 3588.12 2383.68 -0.426271 0.52173 0.73898 
-533.699 4163.54 2270.84 -0.426271 0.52173 0.73898 
-713.28 3785.07 2432.81 -0.426271 0.52173 0.73898 
-775.88 4388.68 1972.9 -0.426271 0.52173 0.73898 
-868.87 4038.15 2165.28 -0.426271 0.52173 0.73898 
-786.085 3686.4 2460.03 -0.426271 0.52173 0.73898 
-1147.49 3493.2 2386.92 -0.426271 0.52173 0.73898 
-783.615 4317 2018.76 -0.426271 0.52173 0.73898 
-751.99 4352.18 2012.33 -0.426271 0.52173 0.73898 
-758.43 3988.78 2263.72 -0.426271 0.52173 0.73898 
-958.7 3909.75 2203.53 -0.426271 0.52173 0.73898 
-748.766 4448.88 1946.31 -0.426271 0.52173 0.73898 
-866.112 3768.55 2356.13 -0.426271 0.52173 0.73898 
-562.089 3780.77 2523.16 -0.426271 0.52173 0.73898 
-767.953 4124.36 2163.04 -0.426271 0.52173 0.73898 
-915.489 4050.36 2129.78 -0.426271 0.52173 0.73898 
-963.049 3753.91 2310.42 -0.426271 0.52173 0.73898 
-1015.39 3654.47 2350 -0.426271 0.52173 0.73898 
-769.448 3854.15 2351.88 -0.426271 0.52173 0.73898 
-629.417 4073.47 2278.79 -0.426271 0.52173 0.73898 
-670.761 4150.11 2201.1 -0.426271 0.52173 0.73898 
-668.088 4326.45 2078.85 -0.426271 0.52173 0.73898 
-699.722 4114.99 2209.03 -0.426271 0.52173 0.73898 
-722.727 4287.51 2074.63 -0.426271 0.52173 0.73898 
-448.017 3966.59 2458.6 -0.426271 0.52173 0.73898 
-1167.19 3500.14 2370.67 -0.426271 0.52173 0.73898 
-535.039 4169.58 2265.83 -0.426271 0.52173 0.73898 
-1090.03 3597.96 2346.56 -0.426271 0.52173 0.73898 
-1059.07 3625.48 2345.13 -0.426271 0.52173 0.73898 
-533.634 4078.98 2330.24 -0.426271 0.52173 0.73898 
-659.434 4431.99 2009.76 -0.426271 0.52173 0.73898 
-805.241 3836.88 2343.33 -0.426271 0.52173 0.73898 
-846.03 4004.56 2202.05 -0.426271 0.52173 0.73898 
-633.615 3945.15 2366.44 -0.426271 0.52173 0.73898 
-1061.08 3778.4 2236.61 -0.426271 0.52173 0.73898 
-996.143 3565.74 2423.41 -0.426271 0.52173 0.73898 
-1148.05 3493.76 2386.21 -0.426271 0.52173 0.73898 
-1184.63 3497.54 2362.43 -0.426271 0.52173 0.73898 
-1217.62 3429.45 2391.17 -0.426271 0.52173 0.73898 
-718.913 3924.67 2331.55 -0.426271 0.52173 0.73898 
-956.181 3954.86 2173.32 -0.426271 0.52173 0.73898 
-1239.8 3406.65 2394.36 -0.426271 0.52173 0.73898 
-786.648 3920.5 2295.36 -0.426271 0.52173 0.73898 
-861.522 3665.77 2430.94 -0.426271 0.52173 0.73898 
-523.142 3931.58 2439.78 -0.426271 0.52173 0.73898 
-847.819 3720.77 2400.24 -0.426271 0.52173 0.73898 
-947.618 3836.99 2261.02 -0.426271 0.52173 0.73898 
-815.265 4065.36 2177.14 -0.426271 0.52173 0.73898 
-657.459 4289.6 2110.86 -0.426271 0.52173 0.73898 
-884.2 3692.81 2398.86 -0.426271 0.52173 0.73898 
-772.039 4305.44 2033.56 -0.426271 0.52173 0.73898 
-802.697 3694.29 2444.9 -0.426271 0.52173 0.73898 
-745.717 3808.59 2397.56 -0.426271 0.52173 0.73898 
-827.144 4174.56 2093.61 -0.426271 0.52173 0.73898 
-758.99 4196.81 2117.36 -0.426271 0.52173 0.73898 
-609.312 4118.3 2258.93 -0.426271 0.52173 0.73898 
-653.183 4352.66 2069.06 -0.426271 0.52173 0.73898 
-652.639 4404.45 2033.02 -0.426271 0.52173 0.73898 
-768.896 3749.6 2425.59 -0.426271 0.52173 0.73898 
-638.856 4246.75 2151.69 -0.426271 0.52173 0.73898 
-763.394 4159.12 2141.28 -0.426271 0.52173 0.73898 
-1157.95 3528.54 2356.07 -0.426271 0.52173 0.73898 
-1061.71 3680.09 2305.27 -0.426271 0.52173 0.73898 
-558.416 3862.38 2467.99 -0.426271 0.52173 0.73898 
-599.225 3982.89 2359.82 -0.426271 0.52173 0.73898 
-880.992 3819.65 2311.67 -0.426271 0.52173 0.73898 
-1223.02 3433.61 2385.13 -0.426271 0.52173 0.73898 
-945.737 3911.26 2209.96 -0.426271 0.52173 0.73898 
-793.546 4292.24 2030.41 -0.426271 0.52173 0.73898 
-690.882 4468.27 1966.13 -0.426271 0.52173 0.73898 
-650.247 4041.02 2289.53 -0.426271 0.52173 0.73898 
-606.384 4264.33 2158.1 -0.426271 0.52173 0.73898 
-847.731 3875.58 2291.61 -0.426271 0.52173 0.73898 
-1179.14 3435.65 2409.04 -0.426271 0.52173 0.73898 
-762.552 3852.84 2356.78 -0.426271 0.52173 0.73898 
-1095.76 3655.4 2302.93 -0.426271 0.52173 0.73898 
-712.135 3890.56 2359.42 -0.426271 0.52173 0.73898 
-578.81 4050.95 2323.83 -0.426271 0.52173 0.73898 
-779.03 3711.4 2446.56 -0.426271 0.52173 0.73898 
-784.37 3779.53 2395.64 -0.426271 0.52173 0.73898 
-778.497 3959.48 2272.7 -0.426271 0.52173 0.73898 
-1098.48 3648.96 2305.88 -0.426271 0.52173 0.73898 
-548.954 4196.15 2239.14 -0.426271 0.52173 0.73898 
-819.164 4258.67 2039.18 -0.426271 0.52173 0.73898 
-1100.15 3518.85 2396.26 -0.426271 0.52173 0.73898 
-651.489 3724.9 2510.75 -0.426271 0.52173 0.73898 
-595.407 4280.21 2153.29 -0.426271 0.52173 0.73898 
-1008.74 3889.64 2188.75 -0.426271 0.52173 0.73898 
-1133.26 3631.28 2298.2 -0.426271 0.52173 0.73898 
-687.28 4506.44 1941.41 -0.426271 0.52173 0.73898 
-482.247 4038.3 2388.48 -0.426271 0.52173 0.73898 
-551.177 4197.06 2237.21 -0.426271 0.52173 0.73898 
-591.213 4242.48 2182.2 -0.426271 0.52173 0.73898 
-661.567 4462.38 1987.19 -0.426271 0.52173 0.73898 
-836.764 3677.5 2437.01 -0.426271 0.52173 0.73898 
-655.735 4039.3 2287.57 -0.426271 0.52173 0.73898 
-932.024 3762.77 2322.13 -0.426271 0.52173 0.73898 
-1034.41 3543.69 2416.79 -0.426271 0.52173 0.73898 
-544.978 3936.47 2423.74 -0.426271 0.52173 0.73898 
-534.126 3899.75 2455.78 -0.426271 0.52173 0.73898 
-658.419 3977.62 2329.33 -0.426271 0.52173 0.73898 
-710.304 3977.07 2299.75 -0.426271 0.52173 0.73898 
-1124.62 3657.46 2284.81 -0.426271 0.52173 0.73898 
-1047.45 3606.73 2365 -0.426271 0.52173 0.73898 
-580.238 3936.27 2403.51 -0.426271 0.52173 0.73898 
-1001.4 3708.1 2320.43 -0.426271 0.52173 0.73898 
-688.272 4521.9 1929.98 -0.426271 0.52173 0.73898 
-574.107 4264.89 2176.35 -0.426271 0.52173 0.73898 
-1000.47 3640.12 2368.69 -0.426271 0.52173 0.73898 
-1050.5 3570.11 2388.95 -0.426271 0.52173 0.73898 
-826.895 4276.14 2022.44 -0.426271 0.52173 0.73898 
-920.767 3849.47 2267.76 -0.426271 0.52173 0.73898 
-815.998 4007.11 2217.6 -0.426271 0.52173 0.73898 
-975.542 3751.99 2304.56 -0.426271 0.52173 0.73898 
-453.027 3914.76 2492.09 -0.426271 0.52173 0.73898 
-696.612 3913.84 2352.04 -0.426271 0.52173 0.73898 
-879.559 3939.27 2228.52 -0.426271 0.52173 0.73898 
-850.437 4147.95 2098.84 -0.426271 0.52173 0.73898 
-852.836 3675.82 2428.9 -0.426271 0.52173 0.73898 
-780.477 3887.99 2321.75 -0.426271 0.52173 0.73898 
-775.588 3798.26 2387.57 -0.426271 0.52173 0.73898 
-655.747 4016.08 2303.87 -0.426271 0.52173 0.73898 
-527.639 3978.55 2404.21 -0.426271 0.52173 0.73898 
-783.369 3674.1 2470.23 -0.426271 0.52173 0.73898 
-832.618 4101.01 2142.09 -0.426271 0.52173 0.73898 
-973.345 3795.42 2275.34 -0.426271 0.52173 0.73898 
-686.284 3944.42 2336.54 -0.426271 0.52173 0.73898 
-930.909 3962.68 2182.43 -0.426271 0.52173 0.73898 
-1230.69 3400.33 2404.06 -0.426271 0.52173 0.73898 
-702.197 3949.39 2323.86 -0.426271 0.52173 0.73898 
-497.507 3958.06 2436 -0.426271 0.52173 0.73898 
-654.069 4048.02 2282.41 -0.426271 0.52173 0.73898 
-799.298 3974.41 2250.21 -0.426271 0.52173 0.73898 
-777.847 3818.1 2372.33 -0.426271 0.52173 0.73898 
-580.618 3921.1 2413.94 -0.426271 0.52173 0.73898 
-949.229 3783.96 2297.31 -0.426271 0.52173 0.73898 
-1115.92 3622.93 2314.08 -0.426271 0.52173 0.73898 
-794.687 3812.28 2366.69 -0.426271 0.52173 0.73898 
-831.251 3706.03 2420.16 -0.426271 0.52173 0.73898 
-585.304 3988.33 2364.04 -0.426271 0.52173 0.73898 
-849.932 3931.56 2251.04 -0.426271 0.52173 0.73898 
-828.321 3809.2 2349.43 -0.426271 0.52173 0.73898 
-599.821 4022.13 2331.93 -0.426271 0.52173 0.73898 
-964.25 3637.96 2391.13 -0.426271 0.52173 0.73898 
-1057.62 3515.96 2422.85 -0.426271 0.52173 0.73898 
-1194.21 3485.83 2365.11 -0.426271 0.52173 0.73898 
-861.82 4090.53 2132.58 -0.426271 0.52173 0.73898 
-674.637 3893.7 2378.87 -0.426271 0.52173 0.73898 
-781.54 3657.88 2482.68 -0.426271 0.52173 0.73898 
-601.076 4331.91 2113.72 -0.426271 0.52173 0.73898 
-473.412 4024.29 2403.42 -0.426271 0.52173 0.73898 
-850.345 4013.18 2193.5 -0.426271 0.52173 0.73898 
-676.192 4178.41 2178.1 -0.426271 0.52173 0.73898 
-833.104 4118.28 2129.68 -0.426271 0.52173 0.73898 
-960.043 3809.06 2273.44 -0.426271 0.52173 0.73898 
-923.209 3716.08 2360 -0.426271 0.52173 0.73898 
-962.762 3746.49 2315.8 -0.426271 0.52173 0.73898 
-558.043 4081.29 2314.52 -0.426271 0.52173 0.73898 
-684.049 4393.73 2022.4 -0.426271 0.52173 0.73898 
-608.845 4041.26 2313.28 -0.426271 0.52173 0.73898 
-758.908 3849.69 2361.09 -0.426271 0.52173 0.73898 
-847.486 4083.48 2145.81 -0.426271 0.52173 0.73898 
-793.56 4335.79 1999.82 -0.426271 0.52173 0.73898 
-753.688 4387.48 1986.56 -0.426271 0.52173 0.73898 
-836.144 3831.64 2329.16 -0.426271 0.52173 0.73898 
-924.141 3851.94 2264.08 -0.426271 0.52173 0.73898 
-814.951 4251.7 2046.5 -0.426271 0.52173 0.73898 
-1049.27 3579.71 2382.92 -0.426271 0.52173 0.73898 
-765.107 3854.58 2354.08 -0.426271 0.52173 0.73898 
-889.638 3637.75 2434.37 -0.426271 0.52173 0.73898 
-614.13 3746.96 2516.83 -0.426271 0.52173 0.73898 
-669.994 3959.63 2335.27 -0.426271 0.52173 0.73898 
-812.81 3722.41 2419.32 -0.426271 0.52173 0.73898 
-779.9 3938.9 2286.34 -0.426271 0.52173 0.73898 
-1121.32 3626.7 2308.31 -0.426271 0.52173 0.73898 
-871.172 4030.57 2169.27 -0.426271 0.52173 0.73898 
-816.33 3704.47 2429.88 -0.426271 0.52173 0.73898 
-601.246 4231.53 2184.1 -0.426271 0.52173 0.73898 
-652.893 4153.54 2209.01 -0.426271 0.52173 0.73898 
-871.079 4036.33 2165.28 -0.426271 0.52173 0.73898 
-862.133 3899.94 2266.2 -0.426271 0.52173 0.73898 
-694.401 3913.62 2353.47 -0.426271 0.52173 0.73898 
-560.894 3850.02 2475.23 -0.426271 0.52173 0.73898 
-926.802 3577.22 2455.4 -0.426271 0.52173 0.73898 
-1126.79 3595.39 2327.13 -0.426271 0.52173 0.73898 
-927.353 4004.34 2155.23 -0.426271 0.52173 0.73898 
-1047.22 3786.31 2239.06 -0.426271 0.52173 0.73898 
-611.211 4134.11 2246.73 -0.426271 0.52173 0.73898 
-599.421 3898.3 2419.09 -0.426271 0.52173 0.73898 
-1038.35 3756.18 2265.34 -0.426271 0.52173 0.73898 
-724.029 4238.91 2107.99 -0.426271 0.52173 0.73898 
-625.401 4146.63 2229.75 -0.426271 0.52173 0.73898 
-783.903 4333.65 2006.9 -0.426271 0.52173 0.73898 
-886.269 4082.22 2124.29 -0.426271 0.52173 0.73898 
-704.918 4514.05 1925.88 -0.426271 0.52173 0.73898 
-720.027 4432.82 1974.18 -0.426271 0.52173 0.73898 
-1086.7 3624.47 2329.87 -0.426271 0.52173 0.73898 
-787.08 4029.56 2218.55 -0.426271 0.52173 0.73898 
-583.88 4102.89 2284.43 -0.426271 0.52173 0.73898 
-749.685 4258.49 2079.43 -0.426271 0.52173 0.73898 
-796.764 3804.5 2370.96 -0.426271 0.52173 0.73898 
-834.117 4159.29 2100.31 -0.426271 0.52173 0.73898 
-697.888 4190.79 2156.88 -0.426271 0.52173 0.73898 
-768.358 3723.12 2444.49 -0.426271 0.52173 0.73898 
-536.926 3856.53 2484.51 -0.426271 0.52173 0.73898 
-969.117 3797.7 2276.18 -0.426271 0.52173 0.73898 
-786.609 3871.13 2330.04 -0.426271 0.52173 0.73898 
-465.928 3833.62 2541.6 -0.426271 0.52173 0.73898 
-834.094 3866.89 2305.6 -0.426271 0.52173 0.73898 
-824.523 3866.47 2311.42 -0.426271 0.52173 0.73898 
-948.725 3595.14 2430.16 -0.426271 0.52173 0.73898 
-773.896 3854.59 2349 -0.426271 0.52173 0.73898 
-596.111 4191.07 2215.47 -0.426271 0.52173 0.73898 
-549.704 3885.75 2456.62 -0.426271 0.52173 0.73898 
-900.785 3961.07 2200.95 -0.426271 0.52173 0.73898 
-1112.72 3545.28 2370.44 -0.426271 0.52173 0.73898 
-701.217 4310.22 2071.11 -0.426271 0.52173 0.73898 
-886.39 4058.24 2141.05 -0.426271 0.52173 0.73898 
-969.653 3602.52 2412.89 -0.426271 0.52173 0.73898 
-821.621 4057.26 2179.15 -0.426271 0.52173 0.73898 
-655.946 3977.78 2330.64 -0.426271 0.52173 0.73898 
-860.544 4139.29 2099.08 -0.426271 0.52173 0.73898 
-567.052 4199.47 2226.35 -0.426271 0.52173 0.73898 
-564.934 4103.29 2295.1 -0.426271 0.52173 0.73898 
-706.708 4306.58 2070.5 -0.426271 0.52173 0.73898 
-616.025 4222.83 2181.67 -0.426271 0.52173 0.73898 
-912.515 3880.77 2250.55 -0.426271 0.52173 0.73898 
-724.269 3803.61 2413.45 -0.426271 0.52173 0.73898 
-845.83 3737.38 2389.73 -0.426271 0.52173 0.73898 
-624.878 4059.22 2291.41 -0.426271 0.52173 0.73898 
-833.27 4035.06 2188.01 -0.426271 0.52173 0.73898 
-972.605 3794.78 2276.22 -0.426271 0.52173 0.73898 
-576.632 3946.23 2398.6 -0.426271 0.52173 0.73898 
-1051.18 3564.95 2392.18 -0.426271 0.52173 0.73898 
-638.93 4152.81 2217.59 -0.426271 0.52173 0.73898 
-573.978 4082.32 2304.59 -0.426271 0.52173 0.73898 
-805.44 3759.6 2397.46 -0.426271 0.52173 0.73898 
-899.646 4132.71 2081.12 -0.426271 0.52173 0.73898 
-633.009 4231.11 2166.04 -0.426271 0.52173 0.73898 
-779.587 4114.94 2162.93 -0.426271 0.52173 0.73898 
-938.629 3940.58 2193.48 -0.426271 0.52173 0.73898 
-664.065 4368.32 2051.78 -0.426271 0.52173 0.73898 
-925.226 3582.89 2452.33 -0.426271 0.52173 0.73898 
-804.953 3873.66 2317.67 -0.426271 0.52173 0.73898 
-1042.38 3775.43 2249.5 -0.426271 0.52173 0.73898 
-1002.82 3526.92 2446.81 -0.426271 0.52173 0.73898 
-923.136 4046.28 2128.23 -0.426271 0.52173 0.73898 
-747.509 4301.7 2050.36 -0.426271 0.52173 0.73898 
-844.137 3651.9 2450.72 -0.426271 0.52173 0.73898 
-996.014 3837.92 2232.41 -0.426271 0.52173 0.73898 
-705.682 3842.43 2396.94 -0.426271 0.52173 0.73898 
-603.278 3928.4 2395.73 -0.426271 0.52173 0.73898 
-698.156 4093.02 2225.36 -0.426271 0.52173 0.73898 
-583.656 4249.81 2181.43 -0.426271 0.52173 0.73898 
-799.779 3718.7 2429.44 -0.426271 0.52173 0.73898 
-797.925 4319.75 2008.57 -0.426271 0.52173 0.73898 
-720.552 4491.07 1932.98 -0.426271 0.52173 0.73898 
-695.738 4548.54 1906.97 -0.426271 0.52173 0.73898 
-702.205 3779.69 2442.98 -0.426271 0.52173 0.73898 
-733.147 3904.14 2337.75 -0.426271 0.52173 0.73898 
-965.477 3558.29 2446.35 -0.426271 0.52173 0.73898 
-808.181 4256.28 2047.2 -0.426271 0.52173 0.73898 
-892.469 4058.73 2137.2 -0.426271 0.52173 0.73898 
-751.478 3818.25 2387.46 -0.426271 0.52173 0.73898 
-742.788 4370.63 2004.69 -0.426271 0.52173 0.73898 
-546.433 3868.59 2470.55 -0.426271 0.52173 0.73898 
-857.199 4197.2 2060.36 -0.426271 0.52173 0.73898 
-697.904 4352.73 2043.18 -0.426271 0.52173 0.73898 
-789.866 4225.8 2079.18 -0.426271 0.52173 0.73898 
-682.045 3859.68 2398.48 -0.426271 0.52173 0.73898 
-411.727 3865.45 2550.56 -0.426271 0.52173 0.73898 
-1153.24 3455.36 2410.16 -0.426271 0.52173 0.73898 
-653.681 4012.85 2307.33 -0.426271 0.52173 0.73898 
-913.458 3996.69 2168.63 -0.426271 0.52173 0.73898 
-868.019 3857.87 2292.33 -0.426271 0.52173 0.73898 
-848.544 4222.39 2047.68 -0.426271 0.52173 0.73898 
-819.241 4285.54 2020.27 -0.426271 0.52173 0.73898 
-788.859 4191.51 2103.83 -0.426271 0.52173 0.73898 
-1052.66 3719.2 2283.03 -0.426271 0.52173 0.73898 
-663.428 4378.17 2045.24 -0.426271 0.52173 0.73898 
-585.655 3995.81 2358.58 -0.426271 0.52173 0.73898 
-957.456 3750.91 2315.76 -0.426271 0.52173 0.73898 
-869.978 3911.15 2253.8 -0.426271 0.52173 0.73898 
-899.919 3967.75 2196.77 -0.426271 0.52173 0.73898 
-871.666 3805.5 2326.99 -0.426271 0.52173 0.73898 
-719.023 3963.39 2304.31 -0.426271 0.52173 0.73898 
-737.4 4441.77 1957.86 -0.426271 0.52173 0.73898 
-782.469 3852.05 2345.83 -0.426271 0.52173 0.73898 
-919.249 3852.13 2266.77 -0.426271 0.52173 0.73898 
-644.271 3743.44 2501.9 -0.426271 0.52173 0.73898 
-896.444 3736.06 2361.42 -0.426271 0.52173 0.73898 
-557.098 3781.2 2525.74 -0.426271 0.52173 0.73898 
-1029.78 3529.01 2429.77 -0.426271 0.52173 0.73898 
-779.464 4111.1 2165.7 -0.426271 0.52173 0.73898 
-793.334 3877.17 2321.92 -0.426271 0.52173 0.73898 
-513.384 4086.63 2336.57 -0.426271 0.52173 0.73898 
-722.944 4147.49 2172.8 -0.426271 0.52173 0.73898 
-718.247 4043.51 2248.52 -0.426271 0.52173 0.73898 
-667.608 3840.56 2420.23 -0.426271 0.52173 0.73898 
-599.119 4053.75 2310.13 -0.426271 0.52173 0.73898 
-707.882 4267.25 2097.42 -0.426271 0.52173 0.73898 
-677.591 3774.42 2460.9 -0.426271 0.52173 0.73898 
-605.909 3835.35 2459.53 -0.426271 0.52173 0.73898 
-811.336 4023.22 2208.99 -0.426271 0.52173 0.73898 
-660.27 3887.64 2391.43 -0.426271 0.52173 0.73898 
-741.58 4195.97 2128 -0.426271 0.52173 0.73898 
-551.992 3989.21 2382.66 -0.426271 0.52173 0.73898 
-1117.15 3659.33 2287.81 -0.426271 0.52173 0.73898 
-679.807 4044.29 2270.16 -0.426271 0.52173 0.73898 
-839 4225.19 2051.22 -0.426271 0.52173 0.73898 
-953.346 3740.51 2325.44 -0.426271 0.52173 0.73898 
-723.179 4470.41 1945.97 -0.426271 0.52173 0.73898 
-798.892 4023.19 2216.2 -0.426271 0.52173 0.73898 
-526.706 3867.07 2483.01 -0.426271 0.52173 0.73898 
-662.534 4257.24 2130.65 -0.426271 0.52173 0.73898 
-545.954 4203.71 2235.57 -0.426271 0.52173 0.73898 
-705.311 4179.66 2160.4 -0.426271 0.52173 0.73898 
-670.856 3860.69 2404.23 -0.426271 0.52173 0.73898 
-753.94 3744.74 2437.64 -0.426271 0.52173 0.73898 
-776.552 3875.23 2332.97 -0.426271 0.52173 0.73898 
-579.117 3850.32 2464.49 -0.426271 0.52173 0.73898 
-877.587 4045.59 2155.02 -0.426271 0.52173 0.73898 
-912.346 4060.69 2124.34 -0.426271 0.52173 0.73898 
-712.002 3718.14 2480.54 -0.426271 0.52173 0.73898 
-983.132 3584.03 2418.09 -0.426271 0.52173 0.73898 
-442.808 3850.84 2542.86 -0.426271 0.52173 0.73898 
-793.663 3966.53 2258.99 -0.426271 0.52173 0.73898 
-1016.41 3727.04 2298.47 -0.426271 0.52173 0.73898 
-1142 3487.9 2393.81 -0.426271 0.52173 0.73898 
-687.364 3780.46 2451.02 -0.426271 0.52173 0.73898 
-733.257 3909.5 2333.92 -0.426271 0.52173 0.73898 
-616.574 4124.48 2250.4 -0.426271 0.52173 0.73898 
-528.012 3974.34 2406.95 -0.426271 0.52173 0.73898 
-971.548 3712.2 2334.8 -0.426271 0.52173 0.73898 
-543.367 3932.31 2427.59 -0.426271 0.52173 0.73898 
-791.238 3741.46 2418.4 -0.426271 0.52173 0.73898 
-953.678 3557.93 2453.42 -0.426271 0.52173 0.73898 
-610.431 4177.66 2216.61 -0.426271 0.52173 0.73898 
-774.625 3990.74 2252.99 -0.426271 0.52173 0.73898 
-888.004 4082.23 2123.28 -0.426271 0.52173 0.73898 
-736.987 4275.86 2074.57 -0.426271 0.52173 0.73898 
-927.187 3984.83 2169.02 -0.426271 0.52173 0.73898 
-749.054 4027.81 2241.74 -0.426271 0.52173 0.73898 
-951.699 3846.41 2252.04 -0.426271 0.52173 0.73898 
-1194.49 3437.98 2398.53 -0.426271 0.52173 0.73898 
-446.905 3920.93 2491.29 -0.426271 0.52173 0.73898 
-727.247 4165.59 2157.61 -0.426271 0.52173 0.73898 
-1024.84 3556.48 2413.33 -0.426271 0.52173 0.73898 
-912.711 3576.24 2464.23 -0.426271 0.52173 0.73898 
-893.807 3939.7 2219.99 -0.426271 0.52173 0.73898 
-533.489 4112.53 2306.77 -0.426271 0.52173 0.73898 
-671.734 3878.84 2390.98 -0.426271 0.52173 0.73898 
-790.708 3931.61 2285.21 -0.426271 0.52173 0.73898 
-572.421 3883.46 2445.1 -0.426271 0.52173 0.73898 
-907.99 3765.46 2334.12 -0.426271 0.52173 0.73898 
-479.958 3917.94 2474.3 -0.426271 0.52173 0.73898 
-921.573 3706.21 2367.87 -0.426271 0.52173 0.73898 
-1204.83 3468.68 2371.02 -0.426271 0.52173 0.73898 
-927.503 3820 2284.56 -0.426271 0.52173 0.73898 
-909.842 4015.88 2157.25 -0.426271 0.52173 0.73898 
-1125.07 3488.83 2402.93 -0.426271 0.52173 0.73898 
-819.325 3629.4 2480.85 -0.426271 0.52173 0.73898 
-664.928 3946.3 2347.55 -0.426271 0.52173 0.73898 
-721.717 4251.18 2100.72 -0.426271 0.52173 0.73898 
-588.793 4161.68 2240.32 -0.426271 0.52173 0.73898 
-557.765 3801.57 2511.06 -0.426271 0.52173 0.73898 
-546.517 4070.9 2328.48 -0.426271 0.52173 0.73898 
-1106.07 3477.03 2422.19 -0.426271 0.52173 0.73898 
-1178.99 3442.07 2404.62 -0.426271 0.52173 0.73898 
-694.549 3840.4 2404.79 -0.426271 0.52173 0.73898 
-1210.45 3452.26 2379.3 -0.426271 0.52173 0.73898 
-764.74 4354.51 2003.33 -0.426271 0.52173 0.73898 
-901.174 3902.37 2241.94 -0.426271 0.52173 0.73898 
-480.856 3983.7 2427.62 -0.426271 0.52173 0.73898 
-682.164 4127.78 2210.19 -0.426271 0.52173 0.73898 
-775.227 3982.33 2258.55 -0.426271 0.52173 0.73898 
-1053.68 3743.24 2265.57 -0.426271 0.52173 0.73898 
-735.707 4136.59 2173.08 -0.426271 0.52173 0.73898 
-673.815 4247.89 2130.7 -0.426271 0.52173 0.73898 
-870.423 3681.4 2414.83 -0.426271 0.52173 0.73898 
-955.789 3948.82 2177.78 -0.426271 0.52173 0.73898 
-628.811 4328.65 2100 -0.426271 0.52173 0.73898 
-657.349 4135.61 2219.03 -0.426271 0.52173 0.73898 
-639.226 3942.7 2364.93 -0.426271 0.52173 0.73898 
-757.222 4099.49 2186.7 -0.426271 0.52173 0.73898 
-998.068 3604.6 2395.02 -0.426271 0.52173 0.73898 
-722.923 3995.92 2279.22 -0.426271 0.52173 0.73898 
-740.806 4125.27 2178.08 -0.426271 0.52173 0.73898 
-697.991 4471.58 1959.69 -0.426271 0.52173 0.73898 
-932.374 3624.86 2418.74 -0.426271 0.52173 0.73898 
-793.331 4177.19 2111.3 -0.426271 0.52173 0.73898 
-1016.73 3716.8 2305.48 -0.426271 0.52173 0.73898 
-1009.71 3739.21 2293.79 -0.426271 0.52173 0.73898 
-578.08 4103.4 2287.43 -0.426271 0.52173 0.73898 
-632.949 4384.54 2058.37 -0.426271 0.52173 0.73898 
-920.973 3798.9 2303.14 -0.426271 0.52173 0.73898 
-981.682 3954.58 2158.79 -0.426271 0.52173 0.73898 
-662.022 4045.77 2279.4 -0.426271 0.52173 0.73898 
-909.096 3840.22 2281 -0.426271 0.52173 0.73898 
-705.841 4498.82 1936.04 -0.426271 0.52173 0.73898 
-833.443 3883.98 2293.97 -0.426271 0.52173 0.73898 
-1010.02 3748 2287.45 -0.426271 0.52173 0.73898 
-1007.73 3780.2 2266.16 -0.426271 0.52173 0.73898 
-509.878 4061.96 2355.91 -0.426271 0.52173 0.73898 
-937.591 3711.25 2355.08 -0.426271 0.52173 0.73898 
-930.754 4036.86 2130.44 -0.426271 0.52173 0.73898 
-591.416 3979.07 2367.01 -0.426271 0.52173 0.73898 
-669.84 4300.65 2095.95 -0.426271 0.52173 0.73898 
-749.354 4328.59 2030.41 -0.426271 0.52173 0.73898 
-984.052 3695.8 2339.09 -0.426271 0.52173 0.73898 
-757.569 3969.01 2278.1 -0.426271 0.52173 0.73898 
-713.238 4468.6 1952.98 -0.426271 0.52173 0.73898 
-853.539 3936.18 2245.72 -0.426271 0.52173 0.73898 
-530.515 4066.5 2340.81 -0.426271 0.52173 0.73898 
-977.585 3708.25 2334.08 -0.426271 0.52173 0.73898 
-832.498 3672.9 2442.7 -0.426271 0.52173 0.73898 
-1155.5 3526.27 2359.08 -0.426271 0.52173 0.73898 
-886.892 3721.65 2377.06 -0.426271 0.52173 0.73898 
-767.509 3832.86 2367.94 -0.426271 0.52173 0.73898 
-850.106 4184.7 2073.23 -0.426271 0.52173 0.73898 
-706.294 4276.7 2091.71 -0.426271 0.52173 0.73898 
-667.082 4060.38 2266.22 -0.426271 0.52173 0.73898 
-578.066 3907.28 2425.12 -0.426271 0.52173 0.73898 
-938.864 3911.33 2213.88 -0.426271 0.52173 0.73898 
-592.189 4225.12 2193.83 -0.426271 0.52173 0.73898 
-732.33 3853.25 2373.95 -0.426271 0.52173 0.73898 
-969.967 3772.89 2293.11 -0.426271 0.52173 0.73898 
-1113.05 3524.26 2385.01 -0.426271 0.52173 0.73898 
-788.776 3659.55 2477.32 -0.426271 0.52173 0.73898 
-799.936 4176.67 2107.85 -0.426271 0.52173 0.73898 
-799.041 4111.7 2153.98 -0.426271 0.52173 0.73898 
-556.954 4020.82 2357.61 -0.426271 0.52173 0.73898 
-1165.13 3567.26 2324.74 -0.426271 0.52173 0.73898 
-827.727 3886.95 2295.19 -0.426271 0.52173 0.73898 
-704.554 3709.43 2490.95 -0.426271 0.52173 0.73898 
-627.335 4358.15 2080.14 -0.426271 0.52173 0.73898 
-1009.44 3884.77 2191.76 -0.426271 0.52173 0.73898 
-507.498 3929 2450.63 -0.426271 0.52173 0.73898 
-725.728 4436.23 1968.49 -0.426271 0.52173 0.73898 
-1088.44 3688.26 2284.09 -0.426271 0.52173 0.73898 
-1194.45 3420.68 2410.7 -0.426271 0.52173 0.73898 
-523.381 3889.43 2469.24 -0.426271 0.52173 0.73898 
-591.231 3964.32 2377.47 -0.426271 0.52173 0.73898 
-670.324 4130.07 2215.43 -0.426271 0.52173 0.73898 
-510.061 3823.61 2523.13 -0.426271 0.52173 0.73898 
-830.773 3649.18 2460.35 -0.426271 0.52173 0.73898 
-750.681 3882.73 2342.65 -0.426271 0.52173 0.73898 
-786.79 4099.9 2169.34 -0.426271 0.52173 0.73898 
-753.992 4370.34 1998.42 -0.426271 0.52173 0.73898 
-694.163 4149.29 2188.16 -0.426271 0.52173 0.73898 
-557.518 3892.36 2447.46 -0.426271 0.52173 0.73898 
-1092.29 3707.66 2268.24 -0.426271 0.52173 0.73898 
-831.078 4121.09 2128.88 -0.426271 0.52173 0.73898 
-625.624 3839.77 2445.04 -0.426271 0.52173 0.73898 
-1071.02 3647.97 2322.44 -0.426271 0.52173 0.73898 
-987.04 3715.44 2323.58 -0.426271 0.52173 0.73898 
-665.438 3966.92 2332.78 -0.426271 0.52173 0.73898 
-837.814 3739.67 2392.76 -0.426271 0.52173 0.73898 
-729.117 4170.15 2153.33 -0.426271 0.52173 0.73898 
-1176.23 3499.2 2366.11 -0.426271 0.52173 0.73898 
-1098.9 3581.38 2353.08 -0.426271 0.52173 0.73898 
-894.169 3677.34 2403.96 -0.426271 0.52173 0.73898 
-1007.79 3795.9 2255.1 -0.426271 0.52173 0.73898 
-705.145 4243.94 2115.37 -0.426271 0.52173 0.73898 
-638.332 3932.44 2372.64 -0.426271 0.52173 0.73898 
-701.177 4527.67 1918.48 -0.426271 0.52173 0.73898 
-694.178 4492.47 1947.23 -0.426271 0.52173 0.73898 
-705.698 4199.29 2146.4 -0.426271 0.52173 0.73898 
-498.968 4044.3 2374.61 -0.426271 0.52173 0.73898 
-613.37 3816.29 2468.6 -0.426271 0.52173 0.73898 
-666.697 4046.29 2276.33 -0.426271 0.52173 0.73898 
-741.322 3982.34 2278.13 -0.426271 0.52173 0.73898 
-1103.41 3492.26 2413.04 -0.426271 0.52173 0.73898 
-924.632 3778.08 2315.64 -0.426271 0.52173 0.73898 
-693.753 4462.23 1968.71 -0.426271 0.52173 0.73898 
-840.409 4080.09 2152.27 -0.426271 0.52173 0.73898 
-1135.92 3535.85 2363.66 -0.426271 0.52173 0.73898 
-669.552 4460.1 1984.18 -0.426271 0.52173 0.73898 
-998.708 3783.02 2269.39 -0.426271 0.52173 0.73898 
-997.618 3607.8 2393.03 -0.426271 0.52173 0.73898 
-747.757 4442.67 1951.24 -0.426271 0.52173 0.73898 
-965.953 3889.8 2213.35 -0.426271 0.52173 0.73898 
-517.916 3958.14 2424.15 -0.426271 0.52173 0.73898 
-835.479 4239.32 2043.34 -0.426271 0.52173 0.73898 
-599.747 4073.55 2295.86 -0.426271 0.52173 0.73898 
-653.38 3961.01 2343.9 -0.426271 0.52173 0.73898 
-991.319 3925.22 2173.83 -0.426271 0.52173 0.73898 
-978.925 3958.45 2157.66 -0.426271 0.52173 0.73898 
-746.539 4112.02 2184.07 -0.426271 0.52173 0.73898 
-895.609 3863.06 2272.75 -0.426271 0.52173 0.73898 
-681.46 3907.15 2365.49 -0.426271 0.52173 0.73898 
-757.142 3983.06 2268.48 -0.426271 0.52173 0.73898 
-646.52 3757.58 2490.67 -0.426271 0.52173 0.73898 
-1191.19 3423.18 2410.83 -0.426271 0.52173 0.73898 
-460.558 3983.85 2439.23 -0.426271 0.52173 0.73898 
-1025.54 3790.02 2248.98 -0.426271 0.52173 0.73898 
-889.176 4000.62 2179.9 -0.426271 0.52173 0.73898 
-810.273 4067.42 2178.57 -0.426271 0.52173 0.73898 
-1168.23 3487.58 2378.89 -0.426271 0.52173 0.73898 
-611.078 4092.5 2276.02 -0.426271 0.52173 0.73898 
-702.509 4116.01 2206.7 -0.426271 0.52173 0.73898 
-719.523 4122.41 2192.38 -0.426271 0.52173 0.73898 
-975.667 3827.56 2251.43 -0.426271 0.52173 0.73898 
-717.498 4264.79 2093.6 -0.426271 0.52173 0.73898 
-915.71 3887.22 2244.18 -0.426271 0.52173 0.73898 
-643.492 4433.31 2018.04 -0.426271 0.52173 0.73898 
-966.466 3607.4 2411.31 -0.426271 0.52173 0.73898 
-525.965 4010.67 2382.63 -0.426271 0.52173 0.73898 
-572.009 4207.85 2217.61 -0.426271 0.52173 0.73898 
-604.479 4321.41 2119.13 -0.426271 0.52173 0.73898 
-649.695 3956.3 2349.33 -0.426271 0.52173 0.73898 
-807.672 4319.9 2002.83 -0.426271 0.52173 0.73898 
-910.083 4059.27 2126.65 -0.426271 0.52173 0.73898 
-559.089 3803.08 2509.23 -0.426271 0.52173 0.73898 
-777.276 4361.02 1991.52 -0.426271 0.52173 0.73898 
-765.225 4233.79 2087.8 -0.426271 0.52173 0.73898 
-1214.24 3418.19 2401.02 -0.426271 0.52173 0.73898 
-797.447 4259.87 2050.88 -0.426271 0.52173 0.73898 
-678.815 4055.95 2262.56 -0.426271 0.52173 0.73898 
-690.593 4116.59 2213.18 -0.426271 0.52173 0.73898 
-1001.58 3638.93 2368.89 -0.426271 0.52173 0.73898 
-911.561 3613.2 2438.95 -0.426271 0.52173 0.73898 
-759.529 3921.95 2310.01 -0.426271 0.52173 0.73898 
-735.75 4127.36 2179.54 -0.426271 0.52173 0.73898 
-803.41 3913.63 2290.5 -0.426271 0.52173 0.73898 
-665.159 4264.76 2123.85 -0.426271 0.52173 0.73898 
-654.823 3976.08 2332.48 -0.426271 0.52173 0.73898 
-826.108 3666.22 2451.08 -0.426271 0.52173 0.73898 
-1242.28 3390.43 2404.32 -0.426271 0.52173 0.73898 
-701.398 4126.6 2199.91 -0.426271 0.52173 0.73898 
-686.956 3963.83 2322.52 -0.426271 0.52173 0.73898 
-729.999 4267.55 2084.44 -0.426271 0.52173 0.73898 
-882.433 3655.74 2425.91 -0.426271 0.52173 0.73898 
-967.678 3704.72 2342.28 -0.426271 0.52173 0.73898 
-907.092 4079.59 2114.11 -0.426271 0.52173 0.73898 
-604.463 4158.82 2233.28 -0.426271 0.52173 0.73898 
-1039.83 3799.16 2234.31 -0.426271 0.52173 0.73898 
-905.047 3966.77 2194.49 -0.426271 0.52173 0.73898 
-905.848 3748.51 2347.25 -0.426271 0.52173 0.73898 
-809.576 3789.8 2373.88 -0.426271 0.52173 0.73898 
-640.507 4086.14 2263.49 -0.426271 0.52173 0.73898 
-662.389 4241.54 2141.75 -0.426271 0.52173 0.73898 
-534.672 3863.98 2480.58 -0.426271 0.52173 0.73898 
-825.175 3837.1 2331.65 -0.426271 0.52173 0.73898 
-762.801 4265.18 2067.16 -0.426271 0.52173 0.73898 
-1067.81 3597.1 2360 -0.426271 0.52173 0.73898 
-551.75 3887.64 2454.1 -0.426271 0.52173 0.73898 
-900.803 3681.11 2397.49 -0.426271 0.52173 0.73898 
-572.257 3801.89 2502.46 -0.426271 0.52173 0.73898 
-770.894 4111.33 2170.5 -0.426271 0.52173 0.73898 
-835.876 3727.95 2402.1 -0.426271 0.52173 0.73898 
-823.355 3900.71 2288.05 -0.426271 0.52173 0.73898 
-473.644 3980.06 2434.34 -0.426271 0.52173 0.73898 
-472.158 3833.33 2538.21 -0.426271 0.52173 0.73898 
-563.659 4135.66 2273.11 -0.426271 0.52173 0.73898 
-943.596 3982.8 2160.97 -0.426271 0.52173 0.73898 
-702.38 4169.31 2169.37 -0.426271 0.52173 0.73898 
-558.04 4146.77 2268.55 -0.426271 0.52173 0.73898 
-731.333 4132.97 2178.15 -0.426271 0.52173 0.73898 
-997.898 3804.65 2254.67 -0.426271 0.52173 0.73898 
-853.994 3713.35 2401.89 -0.426271 0.52173 0.73898 
-885.947 3765.11 2347.1 -0.426271 0.52173 0.73898 
-550.594 4036.37 2350.36 -0.426271 0.52173 0.73898 
-1174.97 3428.3 2416.61 -0.426271 0.52173 0.73898 
-655.546 3773.2 2474.49 -0.426271 0.52173 0.73898 
-909.41 3764.93 2333.67 -0.426271 0.52173 0.73898 
-879.962 3811.01 2318.33 -0.426271 0.52173 0.73898 
-788.078 4025.9 2220.54 -0.426271 0.52173 0.73898 
-513.037 3977.55 2413.34 -0.426271 0.52173 0.73898 
-853.96 3839.83 2313.11 -0.426271 0.52173 0.73898 
-791.087 4299.58 2026.67 -0.426271 0.52173 0.73898 
-602.617 3988.25 2354.09 -0.426271 0.52173 0.73898 
-1179.85 3487.88 2371.96 -0.426271 0.52173 0.73898 
-911.513 3769.66 2329.14 -0.426271 0.52173 0.73898 
-959.63 3965.73 2163.69 -0.426271 0.52173 0.73898 
-802.805 4122.79 2144.02 -0.426271 0.52173 0.73898 
-1093.02 3548.68 2379.43 -0.426271 0.52173 0.73898 
-890.733 3650.58 2424.74 -0.426271 0.52173 0.73898 
-534.092 3846.29 2493.33 -0.426271 0.52173 0.73898 
-613.316 4260.41 2156.85 -0.426271 0.52173 0.73898 
-618.577 3759.21 2505.67 -0.426271 0.52173 0.73898 
-439.397 3938.93 2482.99 -0.426271 0.52173 0.73898 
-1012.91 3630.93 2367.96 -0.426271 0.52173 0.73898 
-732.537 4015.92 2259.63 -0.426271 0.52173 0.73898 
-688.089 4050.34 2261.14 -0.426271 0.52173 0.73898 
-655.309 3997.74 2317 -0.426271 0.52173 0.73898 
-657.924 4434.08 2009.16 -0.426271 0.52173 0.73898 
-657.632 4273.55 2122.03 -0.426271 0.52173 0.73898 
-1147.29 3551.52 2346.09 -0.426271 0.52173 0.73898 
-615.38 3947.48 2375.34 -0.426271 0.52173 0.73898 
-991.335 3762.75 2287.88 -0.426271 0.52173 0.73898 
-752.88 3018.22 1596.83 0.427003 -0.519328 -0.740248 
-703.949 3128.42 1547.73 0.427003 -0.519328 -0.740248 
-677.399 3201.44 1511.8 0.427003 -0.519328 -0.740248 
-720.537 3100.02 1558.08 0.427003 -0.519328 -0.740248 
-734.408 3069.94 1571.19 0.427003 -0.519328 -0.740248 
-681.411 3156.24 1541.21 0.427003 -0.519328 -0.740248 
-722.273 3070.04 1578.12 0.427003 -0.519328 -0.740248 
-672.108 3175.29 1533.21 0.427003 -0.519328 -0.740248 
-686.492 3198.91 1508.32 0.427003 -0.519328 -0.740248 
-795.279 2939.76 1627.42 0.427003 -0.519328 -0.740248 
-661.925 3182.4 1534.11 0.427003 -0.519328 -0.740248 
-792.845 2930.67 1635.21 0.427003 -0.519328 -0.740248 
-707.992 3087.66 1574.01 0.427003 -0.519328 -0.740248 
-736.091 3085.33 1559.41 0.427003 -0.519328 -0.740248 
-694.706 3191.65 1508.68 0.427003 -0.519328 -0.740248 
-761.485 3027.76 1585.16 0.427003 -0.519328 -0.740248 
-660.9 3167.86 1544.91 0.427003 -0.519328 -0.740248 
-649.971 3189.03 1536.36 0.427003 -0.519328 -0.740248 
-684.041 3130.54 1557.73 0.427003 -0.519328 -0.740248 
-683.072 3228.41 1489.59 0.427003 -0.519328 -0.740248 
-696.559 3211.91 1493.39 0.427003 -0.519328 -0.740248 
-770.38 3011.33 1591.56 0.427003 -0.519328 -0.740248 
-718.979 3056.07 1589.84 0.427003 -0.519328 -0.740248 
-694.141 3097.13 1575.36 0.427003 -0.519328 -0.740248 
-664.595 3145.73 1558.3 0.427003 -0.519328 -0.740248 
-774.446 3012.41 1588.45 0.427003 -0.519328 -0.740248 
-749.659 3074.17 1559.41 0.427003 -0.519328 -0.740248 
-767.299 3034.25 1577.24 0.427003 -0.519328 -0.740248 
-744.043 3005.9 1610.58 0.427003 -0.519328 -0.740248 
-629.099 3193.83 1545.04 0.427003 -0.519328 -0.740248 
-743.486 3115.13 1534.22 0.427003 -0.519328 -0.740248 
-747.485 3103.42 1540.13 0.427003 -0.519328 -0.740248 
-707.635 3221.11 1480.52 0.427003 -0.519328 -0.740248 
-723.637 3028.1 1606.78 0.427003 -0.519328 -0.740248 
-659.82 3139.8 1565.23 0.427003 -0.519328 -0.740248 
-731.182 3167.67 1504.44 0.427003 -0.519328 -0.740248 
-796.592 2963.43 1610.05 0.427003 -0.519328 -0.740248 
-652.866 3133.29 1573.81 0.427003 -0.519328 -0.740248 
-743.526 2993.72 1619.43 0.427003 -0.519328 -0.740248 
-798.61 2969.36 1604.71 0.427003 -0.519328 -0.740248 
-711.661 3254.97 1454.43 0.427003 -0.519328 -0.740248 
-734.51 3181.97 1492.48 0.427003 -0.519328 -0.740248 
-655.813 3124.96 1577.96 0.427003 -0.519328 -0.740248 
-749.487 2979.42 1626.03 0.427003 -0.519328 -0.740248 
-719.504 3024.32 1611.83 0.427003 -0.519328 -0.740248 
-742.937 3165.01 1499.52 0.427003 -0.519328 -0.740248 
-783.451 3026.83 1573.12 0.427003 -0.519328 -0.740248 
-717.676 3241.75 1460.24 0.427003 -0.519328 -0.740248 
-671.489 3092.61 1591.61 0.427003 -0.519328 -0.740248 
-704.336 3043.2 1607.33 0.427003 -0.519328 -0.740248 
-701.309 3047.41 1606.12 0.427003 -0.519328 -0.740248 
-779.207 3048.59 1560.3 0.427003 -0.519328 -0.740248 
-735.349 3202.62 1477.5 0.427003 -0.519328 -0.740248 
-658.085 3101.51 1593.11 0.427003 -0.519328 -0.740248 
-740.764 2983.62 1628.12 0.427003 -0.519328 -0.740248 
-745.566 3186.21 1483.12 0.427003 -0.519328 -0.740248 
-749.416 3185.36 1481.49 0.427003 -0.519328 -0.740248 
-743.877 3200.66 1473.95 0.427003 -0.519328 -0.740248 
-634.647 3127.04 1588.72 0.427003 -0.519328 -0.740248 
-738.367 2985.12 1628.45 0.427003 -0.519328 -0.740248 
-743.92 3228.82 1454.16 0.427003 -0.519328 -0.740248 
-766.521 3123.22 1515.24 0.427003 -0.519328 -0.740248 
-592.881 3177.68 1577.29 0.427003 -0.519328 -0.740248 
-585.646 3189.55 1573.14 0.427003 -0.519328 -0.740248 
-791.454 3036.24 1561.9 0.427003 -0.519328 -0.740248 
-757.784 3184.32 1477.39 0.427003 -0.519328 -0.740248 
-610.274 3151.14 1585.88 0.427003 -0.519328 -0.740248 
-641.356 3105.63 1599.88 0.427003 -0.519328 -0.740248 
-758.421 3214.37 1455.92 0.427003 -0.519328 -0.740248 
-745.058 3270.83 1424 0.427003 -0.519328 -0.740248 
-782.444 2919.46 1649.08 0.427003 -0.519328 -0.740248 
-690.404 3038.29 1618.82 0.427003 -0.519328 -0.740248 
-759.49 3218.42 1452.46 0.427003 -0.519328 -0.740248 
-752.702 3254.99 1430.71 0.427003 -0.519328 -0.740248 
-545.249 3219.18 1575.67 0.427003 -0.519328 -0.740248 
-691.775 3031.4 1622.87 0.427003 -0.519328 -0.740248 
-807.472 2994.13 1582.21 0.427003 -0.519328 -0.740248 
-754.812 3273.73 1416.34 0.427003 -0.519328 -0.740248 
-723.617 2990.46 1633.22 0.427003 -0.519328 -0.740248 
-759.159 2944.88 1644.69 0.427003 -0.519328 -0.740248 
-765.713 3255.15 1423.08 0.427003 -0.519328 -0.740248 
-799.831 3042.24 1552.85 0.427003 -0.519328 -0.740248 
-533.369 3218.55 1582.98 0.427003 -0.519328 -0.740248 
-575.941 3170.43 1592.17 0.427003 -0.519328 -0.740248 
-792.383 3099.6 1516.88 0.427003 -0.519328 -0.740248 
-774.935 3204.02 1453.65 0.427003 -0.519328 -0.740248 
-582.503 3155.27 1599.02 0.427003 -0.519328 -0.740248 
-502.303 3256.01 1574.63 0.427003 -0.519328 -0.740248 
-792.065 3116.27 1505.36 0.427003 -0.519328 -0.740248 
-788.035 3146.21 1486.67 0.427003 -0.519328 -0.740248 
-579.915 3154.15 1601.3 0.427003 -0.519328 -0.740248 
-686.056 3028.35 1628.31 0.427003 -0.519328 -0.740248 
-204.12 3223.62 1769.59 0.427003 -0.519328 -0.740248 
-597.906 3090.74 1635.43 0.427003 -0.519328 -0.740248 
-289.139 3290.7 1673.39 0.427003 -0.519328 -0.740248 
-270.353 3241.83 1718.55 0.427003 -0.519328 -0.740248 
-720.42 2934.24 1674.53 0.427003 -0.519328 -0.740248 
-556.059 3153.5 1615.54 0.427003 -0.519328 -0.740248 
-332.198 3264.81 1666.69 0.427003 -0.519328 -0.740248 
-642.063 3075.96 1620.3 0.427003 -0.519328 -0.740248 
-675.082 3035.6 1629.56 0.427003 -0.519328 -0.740248 
-625.397 3018.35 1670.37 0.427003 -0.519328 -0.740248 
-493.316 3113.76 1679.68 0.427003 -0.519328 -0.740248 
-378.498 3271.63 1635.17 0.427003 -0.519328 -0.740248 
-389.72 3260.13 1636.76 0.427003 -0.519328 -0.740248 
-481.311 3174.94 1643.66 0.427003 -0.519328 -0.740248 
-358.727 3209.37 1690.29 0.427003 -0.519328 -0.740248 
-756.923 2921.3 1662.53 0.427003 -0.519328 -0.740248 
-547.52 3177.58 1603.56 0.427003 -0.519328 -0.740248 
-529.156 3047.16 1705.73 0.427003 -0.519328 -0.740248 
-448.764 3144.13 1684.09 0.427003 -0.519328 -0.740248 
-78.2721 3311.51 1780.58 0.427003 -0.519328 -0.740248 
-380.314 3234 1660.54 0.427003 -0.519328 -0.740248 
-388.881 3132.93 1726.54 0.427003 -0.519328 -0.740248 
-475.029 3122.24 1684.29 0.427003 -0.519328 -0.740248 
-276.173 3246.16 1712.15 0.427003 -0.519328 -0.740248 
-215.235 3277.28 1725.5 0.427003 -0.519328 -0.740248 
-545.788 3066.94 1682.24 0.427003 -0.519328 -0.740248 
-299.227 3227.37 1712.02 0.427003 -0.519328 -0.740248 
-473.97 3217.85 1617.78 0.427003 -0.519328 -0.740248 
-74.7207 3302.99 1788.61 0.427003 -0.519328 -0.740248 
-136.225 3323.39 1738.76 0.427003 -0.519328 -0.740248 
-337.522 3230.53 1687.68 0.427003 -0.519328 -0.740248 
-211.327 3214.03 1772.16 0.427003 -0.519328 -0.740248 
-391 3185.66 1688.3 0.427003 -0.519328 -0.740248 
-496.753 3171.98 1636.82 0.427003 -0.519328 -0.740248 
-590.05 3080.5 1647.16 0.427003 -0.519328 -0.740248 
-235.363 3252.18 1731.5 0.427003 -0.519328 -0.740248 
1.07788 3342.12 1804.92 0.427003 -0.519328 -0.740248 
-624.41 3066.82 1636.91 0.427003 -0.519328 -0.740248 
-406.792 3108.33 1733.47 0.427003 -0.519328 -0.740248 
-475.352 3167.11 1652.6 0.427003 -0.519328 -0.740248 
-634.614 3078.88 1622.55 0.427003 -0.519328 -0.740248 
-542.983 3188.31 1598.65 0.427003 -0.519328 -0.740248 
-141.12 3259.31 1780.92 0.427003 -0.519328 -0.740248 
-673.438 3004.3 1652.48 0.427003 -0.519328 -0.740248 
-210.581 3300.46 1711.91 0.427003 -0.519328 -0.740248 
-565.057 3057.71 1677.59 0.427003 -0.519328 -0.740248 
-340.334 3196.33 1710.07 0.427003 -0.519328 -0.740248 
-493.664 3092.63 1694.31 0.427003 -0.519328 -0.740248 
-450.63 3260.37 1601.41 0.427003 -0.519328 -0.740248 
-208.388 3294.05 1717.68 0.427003 -0.519328 -0.740248 
-379.783 3248.29 1650.81 0.427003 -0.519328 -0.740248 
-586.354 3114.49 1625.42 0.427003 -0.519328 -0.740248 
-326.474 3182.19 1728 0.427003 -0.519328 -0.740248 
-461.534 3256.43 1597.88 0.427003 -0.519328 -0.740248 
-496.809 3187.09 1626.18 0.427003 -0.519328 -0.740248 
-244.535 3276.31 1709.26 0.427003 -0.519328 -0.740248 
-291.194 3250.96 1700.11 0.427003 -0.519328 -0.740248 
-313.202 3196.04 1725.95 0.427003 -0.519328 -0.740248 
-625.677 2988.28 1691.32 0.427003 -0.519328 -0.740248 
-508.939 3053.9 1712.68 0.427003 -0.519328 -0.740248 
-452.321 3218.32 1629.95 0.427003 -0.519328 -0.740248 
-500.872 3155.46 1646.04 0.427003 -0.519328 -0.740248 
-366.22 3143.66 1732.1 0.427003 -0.519328 -0.740248 
-193.27 3269.86 1743.4 0.427003 -0.519328 -0.740248 
2.00793 3336.55 1809.37 0.427003 -0.519328 -0.740248 
-288.061 3273.93 1685.78 0.427003 -0.519328 -0.740248 
-322.891 3264.92 1672 0.427003 -0.519328 -0.740248 
-634.233 3049.41 1643.46 0.427003 -0.519328 -0.740248 
-548.481 3067.33 1680.41 0.427003 -0.519328 -0.740248 
-557.56 3014.27 1712.41 0.427003 -0.519328 -0.740248 
-164.047 3244.47 1778.1 0.427003 -0.519328 -0.740248 
-466.089 3241.05 1606.04 0.427003 -0.519328 -0.740248 
-369.258 3195.64 1693.85 0.427003 -0.519328 -0.740248 
-505.333 3193.99 1616.42 0.427003 -0.519328 -0.740248 
-522.693 3164.01 1627.43 0.427003 -0.519328 -0.740248 
-402.616 3151.13 1705.83 0.427003 -0.519328 -0.740248 
-16.09 3340.92 1795.84 0.427003 -0.519328 -0.740248 
-123.805 3270.71 1782.92 0.427003 -0.519328 -0.740248 
-475.241 3153.2 1662.43 0.427003 -0.519328 -0.740248 
-530.374 3150.51 1632.47 0.427003 -0.519328 -0.740248 
-594.188 3116.06 1619.8 0.427003 -0.519328 -0.740248 
-294.344 3273.37 1682.55 0.427003 -0.519328 -0.740248 
-757.727 2914.04 1667.16 0.427003 -0.519328 -0.740248 
-708.659 2932.58 1682.49 0.427003 -0.519328 -0.740248 
-625.836 2985.4 1693.25 0.427003 -0.519328 -0.740248 
-606.761 3014.9 1683.55 0.427003 -0.519328 -0.740248 
-456.833 3198.5 1641.26 0.427003 -0.519328 -0.740248 
-258.026 3286.43 1694.36 0.427003 -0.519328 -0.740248 
-687.582 2963.24 1673.14 0.427003 -0.519328 -0.740248 
-353.029 3265.07 1654.48 0.427003 -0.519328 -0.740248 
-225.907 3294.12 1707.51 0.427003 -0.519328 -0.740248 
-184.3 3315.41 1716.6 0.427003 -0.519328 -0.740248 
-537.046 3096.98 1666.2 0.427003 -0.519328 -0.740248 
-579.832 3063.59 1664.93 0.427003 -0.519328 -0.740248 
-7.46545 3330.61 1808.07 0.427003 -0.519328 -0.740248 
-656.793 2978.92 1679.91 0.427003 -0.519328 -0.740248 
-545.429 3086.74 1668.55 0.427003 -0.519328 -0.740248 
-576.201 3031.16 1689.79 0.427003 -0.519328 -0.740248 
-539.676 3034.06 1708.85 0.427003 -0.519328 -0.740248 
-383.131 3115.67 1741.98 0.427003 -0.519328 -0.740248 
-519.814 3066.62 1697.47 0.427003 -0.519328 -0.740248 
-533.461 3105.47 1662.31 0.427003 -0.519328 -0.740248 
-522.443 3217.76 1589.84 0.427003 -0.519328 -0.740248 
-296.539 3184.35 1743.78 0.427003 -0.519328 -0.740248 
-509.064 3180.29 1623.88 0.427003 -0.519328 -0.740248 
-625.737 2980.88 1696.48 0.427003 -0.519328 -0.740248 
-543.371 3133.56 1636.86 0.427003 -0.519328 -0.740248 
-195.369 3245.89 1759.01 0.427003 -0.519328 -0.740248 
-675.473 2988.49 1662.41 0.427003 -0.519328 -0.740248 
-258.38 3232.3 1732.15 0.427003 -0.519328 -0.740248 
-225.712 3302.15 1701.99 0.427003 -0.519328 -0.740248 
-676.435 3028.8 1633.55 0.427003 -0.519328 -0.740248 
-326.561 3283.95 1656.52 0.427003 -0.519328 -0.740248 
-628.925 3038.94 1653.88 0.427003 -0.519328 -0.740248 
-264.418 3305 1677.63 0.427003 -0.519328 -0.740248 
-509.563 3109.08 1673.58 0.427003 -0.519328 -0.740248 
-70.1436 3298.85 1794.16 0.427003 -0.519328 -0.740248 
-242.731 3294.84 1697.29 0.427003 -0.519328 -0.740248 
-205.525 3261.7 1742.04 0.427003 -0.519328 -0.740248 
-508.219 3144.43 1649.54 0.427003 -0.519328 -0.740248 
-418.236 3245.77 1630.37 0.427003 -0.519328 -0.740248 
-504.236 3179.69 1627.09 0.427003 -0.519328 -0.740248 
-650.772 2998.08 1669.94 0.427003 -0.519328 -0.740248 
-722.482 2974.33 1645.2 0.427003 -0.519328 -0.740248 
-528.327 3190.29 1605.73 0.427003 -0.519328 -0.740248 
-760.412 2904.58 1672.25 0.427003 -0.519328 -0.740248 
-331.814 3177.9 1727.93 0.427003 -0.519328 -0.740248 
-108.311 3304.72 1768 0.427003 -0.519328 -0.740248 
-619.474 3074.75 1634.19 0.427003 -0.519328 -0.740248 
-498.466 3054.88 1718.04 0.427003 -0.519328 -0.740248 
-504.092 3084.75 1693.82 0.427003 -0.519328 -0.740248 
-348.353 3202.74 1700.94 0.427003 -0.519328 -0.740248 
-375.341 3140.41 1729.11 0.427003 -0.519328 -0.740248 
-176.739 3280.02 1745.81 0.427003 -0.519328 -0.740248 
