ply
format ascii 1.0
comment Created by CloudCompare v2.11.3 (Anoia)
comment Created 08/09/2022 00:16
obj_info Generated by CloudCompare!
element vertex 874
property float x
property float y
property float z
property float nx
property float ny
property float nz
end_header
-1961.49 1644.43 2104.26 0.236238 -0.968699 0.076246 
-1642.7 1739.58 2324.77 0.236238 -0.968699 0.076246 
-2299.53 1617.57 2802.43 0.236238 -0.968699 0.076246 
-1736.27 1730.97 2503.2 0.236238 -0.968699 0.076246 
-1757.69 1691.02 2065.93 0.236238 -0.968699 0.076246 
-1617.21 1761.28 2519.77 0.236238 -0.968699 0.076246 
-2073.38 1650.81 2527.61 0.236238 -0.968699 0.076246 
-2000.84 1679.02 2660.28 0.236238 -0.968699 0.076246 
-1699.7 1732.67 2412.5 0.236238 -0.968699 0.076246 
-1405.49 1802.92 2394.82 0.236238 -0.968699 0.076246 
-1484.84 2472.08 2921.78 0.887573 0.248282 0.388034 
-1535.56 2292.49 3151.99 0.887573 0.248282 0.388034 
-1446.73 2262.32 2968.08 0.887573 0.248282 0.388034 
-1506.13 2553.02 2918.95 0.887573 0.248282 0.388034 
-1574.06 2526.38 3091.21 0.887573 0.248282 0.388034 
-1559.89 2260.14 3228.2 0.887573 0.248282 0.388034 
-1588.42 2583.73 3087.56 0.887573 0.248282 0.388034 
-1509.78 2048.83 3248.09 0.887573 0.248282 0.388034 
-1479.23 2734.44 2742 0.887573 0.248282 0.388034 
-1557.88 2342.23 3171.39 0.887573 0.248282 0.388034 
-1603.45 2813.68 2975.61 0.887573 0.248282 0.388034 
-1407.34 2347.69 2823.71 0.887573 0.248282 0.388034 
-1463.66 2141.03 3083.97 0.887573 0.248282 0.388034 
-1568.49 2553.9 3060.97 0.887573 0.248282 0.388034 
-1444 2796.04 2622.26 0.887573 0.248282 0.388034 
-1345 2690.54 2463.04 0.887573 0.248282 0.388034 
-1515.76 2677.27 2861.9 0.887573 0.248282 0.388034 
-1445.98 2007.09 3128.78 0.887573 0.248282 0.388034 
-1624.55 2525.2 3207.4 0.887573 0.248282 0.388034 
-1405.85 2526.75 2706.38 0.887573 0.248282 0.388034 
-1434.59 2603.99 2722.94 0.887573 0.248282 0.388034 
-1399.83 2451.62 2740.41 0.887573 0.248282 0.388034 
-1476.46 2561.4 2845.78 0.887573 0.248282 0.388034 
-1451.73 2781.76 2649.01 0.887573 0.248282 0.388034 
-1532.02 2521.44 2998.24 0.887573 0.248282 0.388034 
-1431.29 2747.34 2624.2 0.887573 0.248282 0.388034 
-1517.1 2337.25 3081.31 0.887573 0.248282 0.388034 
-1615.27 2553.25 3168.34 0.887573 0.248282 0.388034 
-1377.01 2841.34 2440.28 0.887573 0.248282 0.388034 
-1491.62 2356.4 3010.86 0.887573 0.248282 0.388034 
-1441.73 2420.5 2856.01 0.887573 0.248282 0.388034 
-1374.68 2594.28 2592.15 0.887573 0.248282 0.388034 
-1677.41 2774.38 3169.73 0.887573 0.248282 0.388034 
-1475.81 2786.19 2701.26 0.887573 0.248282 0.388034 
-1370.52 2533.84 2621.08 0.887573 0.248282 0.388034 
-1465.75 2649.61 2765.16 0.887573 0.248282 0.388034 
-1588.57 2672.21 3031.59 0.887573 0.248282 0.388034 
-1538.72 2630.19 2944.35 0.887573 0.248282 0.388034 
-1426.28 2498.38 2771.13 0.887573 0.248282 0.388034 
-1512.48 2194.26 3161.73 0.887573 0.248282 0.388034 
-1380.04 2602.57 2599.12 0.887573 0.248282 0.388034 
-1481.03 2756.64 2732.01 0.887573 0.248282 0.388034 
-1405.09 2388.46 2792.63 0.887573 0.248282 0.388034 
-1610.92 2559.9 3154.16 0.887573 0.248282 0.388034 
-1366.21 2584.4 2579.06 0.887573 0.248282 0.388034 
-1481.63 2631.01 2813.3 0.887573 0.248282 0.388034 
-1391.79 2765.59 2522.25 0.887573 0.248282 0.388034 
-1515.1 2780.86 2794.49 0.887573 0.248282 0.388034 
-1524.35 2566.56 2951.99 0.887573 0.248282 0.388034 
-1439.36 2759.91 2634.65 0.887573 0.248282 0.388034 
-1446.26 2438.77 2854.75 0.887573 0.248282 0.388034 
-1642.17 2713.67 3127.77 0.887573 0.248282 0.388034 
-1548.47 2608.21 2980.64 0.887573 0.248282 0.388034 
-1391.07 2834.4 2476.84 0.887573 0.248282 0.388034 
-1331.46 2797.13 2364.26 0.887573 0.248282 0.388034 
-1413.66 2314.37 2859.35 0.887573 0.248282 0.388034 
-1670.76 2781.78 3149.81 0.887573 0.248282 0.388034 
-1390.83 2427.34 2735.29 0.887573 0.248282 0.388034 
-1332.7 2788.65 2372.49 0.887573 0.248282 0.388034 
-1510.87 2591.79 2905.1 0.887573 0.248282 0.388034 
-1445.9 1980.57 3145.47 0.887573 0.248282 0.388034 
-1596.99 2798.29 2970.64 0.887573 0.248282 0.388034 
-1581.24 2806.19 2929.58 0.887573 0.248282 0.388034 
-1115.01 1923.2 2425.41 0.887573 0.248282 0.388034 
-1412.06 1993.46 3059.89 0.887573 0.248282 0.388034 
-1267.97 1950.53 2757.74 0.887573 0.248282 0.388034 
-1088.05 1955.62 2343.13 0.887573 0.248282 0.388034 
-1294.13 2766.33 2298.51 0.887573 0.248282 0.388034 
-1406.24 2043.08 3015.02 0.887573 0.248282 0.388034 
-1261.52 2663.79 2289.18 0.887573 0.248282 0.388034 
-1309.94 2757.51 2340.25 0.887573 0.248282 0.388034 
-1337.22 2602.39 2501.33 0.887573 0.248282 0.388034 
-1173.72 1949.6 2542.85 0.887573 0.248282 0.388034 
-1255.36 2473.47 2396.19 0.887573 0.248282 0.388034 
-1381.69 2151.79 2889.7 0.887573 0.248282 0.388034 
-1231.81 2124.28 2564.53 0.887573 0.248282 0.388034 
-1349.36 2077.91 2862.8 0.887573 0.248282 0.388034 
-1307.78 2277.07 2641 0.887573 0.248282 0.388034 
-1334.56 2421.37 2610.42 0.887573 0.248282 0.388034 
-1335.82 2552.63 2529.8 0.887573 0.248282 0.388034 
-1147.59 1919.82 2502.06 0.887573 0.248282 0.388034 
-1253.59 2082.16 2641.13 0.887573 0.248282 0.388034 
-1220.62 2186.52 2499.33 0.887573 0.248282 0.388034 
-1163.18 2211.71 2351.96 0.887573 0.248282 0.388034 
-1212.79 2054.75 2565.27 0.887573 0.248282 0.388034 
-1315.41 2101.37 2770.25 0.887573 0.248282 0.388034 
-1294.86 2506.28 2465.63 0.887573 0.248282 0.388034 
-1403.35 1900.81 3098.91 0.887573 0.248282 0.388034 
-1253.7 2310.34 2496.19 0.887573 0.248282 0.388034 
-1386.76 2250.4 2838.55 0.887573 0.248282 0.388034 
-1249.8 2509.52 2360.54 0.887573 0.248282 0.388034 
-1294.97 2431.21 2513.65 0.887573 0.248282 0.388034 
-1410.7 1915.28 3106.51 0.887573 0.248282 0.388034 
-1308.4 2614.85 2427.52 0.887573 0.248282 0.388034 
-1211.13 1981.24 2608.25 0.887573 0.248282 0.388034 
-1416.84 2110.55 2996.3 0.887573 0.248282 0.388034 
-1419.93 1967.99 3094.1 0.887573 0.248282 0.388034 
-1270.39 2438.71 2452.67 0.887573 0.248282 0.388034 
-1377.99 2222.03 2836.55 0.887573 0.248282 0.388034 
-1300.3 1965.38 2822.21 0.887573 0.248282 0.388034 
-1281.03 2382.97 2512.46 0.887573 0.248282 0.388034 
-1305.34 2741.73 2339.78 0.887573 0.248282 0.388034 
-1263.81 2000.8 2716.25 0.887573 0.248282 0.388034 
-1286.1 2598.34 2387.02 0.887573 0.248282 0.388034 
-1275.98 2406.95 2485.65 0.887573 0.248282 0.388034 
-1272.9 2183.75 2620.62 0.887573 0.248282 0.388034 
-1234.97 2269.38 2479.43 0.887573 0.248282 0.388034 
-1286.45 2217.46 2630.16 0.887573 0.248282 0.388034 
-1246.77 1948.35 2710.66 0.887573 0.248282 0.388034 
-1392.34 2004.16 3007.99 0.887573 0.248282 0.388034 
-1281.72 2318.67 2554.96 0.887573 0.248282 0.388034 
-1191.95 2382.88 2308.83 0.887573 0.248282 0.388034 
-1364.25 2401.25 2691.11 0.887573 0.248282 0.388034 
-1407.36 2037.34 3021.22 0.887573 0.248282 0.388034 
-1329.32 2140.14 2777.38 0.887573 0.248282 0.388034 
-1140.26 2095.43 2373.55 0.887573 0.248282 0.388034 
-1367.43 2438.97 2674.38 0.887573 0.248282 0.388034 
-1177.38 2315.05 2318.68 0.887573 0.248282 0.388034 
-1131.13 1920.05 2464.27 0.887573 0.248282 0.388034 
-1212.65 2121.81 2522.3 0.887573 0.248282 0.388034 
-1268.96 2515.43 2400.58 0.887573 0.248282 0.388034 
-1352.24 2509.62 2594.7 0.887573 0.248282 0.388034 
-1279.89 1962.36 2777.46 0.887573 0.248282 0.388034 
-1361.06 2025.47 2922.92 0.887573 0.248282 0.388034 
-1264.42 1988.22 2725.66 0.887573 0.248282 0.388034 
-2289.92 1746.89 2648.55 -0.888225 -0.245489 -0.388319 
-2351.54 1802.52 2754.04 -0.888225 -0.245489 -0.388319 
-2149.21 1908.99 2223.7 -0.888225 -0.245489 -0.388319 
-2403.59 2100.7 2683.34 -0.888225 -0.245489 -0.388319 
-2288.93 1664.63 2698.62 -0.888225 -0.245489 -0.388319 
-2380.1 1901.72 2756.23 -0.888225 -0.245489 -0.388319 
-2378.65 1946.62 2724.34 -0.888225 -0.245489 -0.388319 
-2233.74 1899.44 2423.03 -0.888225 -0.245489 -0.388319 
-2211.77 1982.03 2320.25 -0.888225 -0.245489 -0.388319 
-2001.95 1669.06 2039.64 -0.888225 -0.245489 -0.388319 
-2219.24 1767.64 2473.74 -0.888225 -0.245489 -0.388319 
-2177.96 1858.45 2321.58 -0.888225 -0.245489 -0.388319 
-2282.5 1925 2518.26 -0.888225 -0.245489 -0.388319 
-2118.55 1643.98 2322.19 -0.888225 -0.245489 -0.388319 
-2517.26 2401.12 2752.08 -0.888225 -0.245489 -0.388319 
-2180.32 1757.06 2391.49 -0.888225 -0.245489 -0.388319 
-2386.5 1865.46 2793.93 -0.888225 -0.245489 -0.388319 
-2198.43 1952.47 2308.57 -0.888225 -0.245489 -0.388319 
-2279.85 1909.01 2522.37 -0.888225 -0.245489 -0.388319 
-2198.1 1754.59 2433.71 -0.888225 -0.245489 -0.388319 
-2284.28 1714.98 2655.95 -0.888225 -0.245489 -0.388319 
-2200.67 1642.51 2510.89 -0.888225 -0.245489 -0.388319 
-2516.89 2387.96 2759.61 -0.888225 -0.245489 -0.388319 
-2546.79 2449.45 2788.85 -0.888225 -0.245489 -0.388319 
-2337.38 1857.29 2686.84 -0.888225 -0.245489 -0.388319 
-2063.58 1674.03 2177.41 -0.888225 -0.245489 -0.388319 
-2345.43 1855.36 2706.45 -0.888225 -0.245489 -0.388319 
-2391.91 2125.63 2640.78 -0.888225 -0.245489 -0.388319 
-2344.85 1765.89 2762.05 -0.888225 -0.245489 -0.388319 
-2271.26 1739.66 2610.49 -0.888225 -0.245489 -0.388319 
-2364.03 1851.46 2751.47 -0.888225 -0.245489 -0.388319 
-2400.63 2068.92 2696.78 -0.888225 -0.245489 -0.388319 
-2233.17 1834.74 2462.9 -0.888225 -0.245489 -0.388319 
-2309.46 1888.98 2602.82 -0.888225 -0.245489 -0.388319 
-2404.73 1959.21 2775.97 -0.888225 -0.245489 -0.388319 
-2544.83 2445.37 2786.96 -0.888225 -0.245489 -0.388319 
-2308.61 2040.33 2504.58 -0.888225 -0.245489 -0.388319 
-2507.22 2269.26 2813.04 -0.888225 -0.245489 -0.388319 
-2283.54 1736.33 2640.7 -0.888225 -0.245489 -0.388319 
-2224.5 1782.78 2476.14 -0.888225 -0.245489 -0.388319 
-2175.62 1739.48 2391.94 -0.888225 -0.245489 -0.388319 
-2305.75 2085.48 2469.31 -0.888225 -0.245489 -0.388319 
-2426.9 2033.94 2779.1 -0.888225 -0.245489 -0.388319 
-2165.74 1895.42 2270.12 -0.888225 -0.245489 -0.388319 
-2315.79 2127.68 2465.42 -0.888225 -0.245489 -0.388319 
-2301.6 1786.59 2649.99 -0.888225 -0.245489 -0.388319 
-2247.23 1970.24 2408.83 -0.888225 -0.245489 -0.388319 
-2089.1 1749.51 2187.73 -0.888225 -0.245489 -0.388319 
-2451.35 2136.31 2769.89 -0.888225 -0.245489 -0.388319 
-2387.54 2044.92 2682.13 -0.888225 -0.245489 -0.388319 
-2066.62 1765.99 2125.83 -0.888225 -0.245489 -0.388319 
-2188.67 1876.86 2334.35 -0.888225 -0.245489 -0.388319 
-2395.99 2124.53 2650.8 -0.888225 -0.245489 -0.388319 
-2280.19 1881.55 2540.62 -0.888225 -0.245489 -0.388319 
-2238.16 1690.59 2566.04 -0.888225 -0.245489 -0.388319 
-2012.76 1713.29 2036.23 -0.888225 -0.245489 -0.388319 
-2160.66 1822.1 2305.16 -0.888225 -0.245489 -0.388319 
-2351.01 2071.53 2581.67 -0.888225 -0.245489 -0.388319 
-2176.82 1955.09 2257.48 -0.888225 -0.245489 -0.388319 
-2376.42 2009.3 2679.38 -0.888225 -0.245489 -0.388319 
-2082.49 1698.97 2204.76 -0.888225 -0.245489 -0.388319 
-2332.37 1961.43 2609.1 -0.888225 -0.245489 -0.388319 
-2485.14 2256.83 2770.45 -0.888225 -0.245489 -0.388319 
-2168.48 2001.29 2209.01 -0.888225 -0.245489 -0.388319 
-2306.1 2446.57 2240.36 -0.888225 -0.245489 -0.388319 
-2207.49 2316.36 2097.75 -0.888225 -0.245489 -0.388319 
-2191.34 2379.14 2020.87 -0.888225 -0.245489 -0.388319 
-2290 2215.97 2350.28 -0.888225 -0.245489 -0.388319 
-2415.85 2365.41 2542.94 -0.888225 -0.245489 -0.388319 
-2277.07 2544.71 2111.55 -0.888225 -0.245489 -0.388319 
-2229.49 2357.44 2121.92 -0.888225 -0.245489 -0.388319 
-2258.18 2215.24 2277.98 -0.888225 -0.245489 -0.388319 
-2336.76 2557.61 2239.81 -0.888225 -0.245489 -0.388319 
-2227.19 2349.21 2121.89 -0.888225 -0.245489 -0.388319 
-2418.74 2346.88 2561.33 -0.888225 -0.245489 -0.388319 
-2157.42 2016.88 2173.8 -0.888225 -0.245489 -0.388319 
-2394.83 2489.92 2415.65 -0.888225 -0.245489 -0.388319 
-2135.15 2278.26 1956.59 -0.888225 -0.245489 -0.388319 
-2446.37 2576.04 2478.7 -0.888225 -0.245489 -0.388319 
-2116.39 2183.61 1973.91 -0.888225 -0.245489 -0.388319 
-2072.9 1942.44 2027.93 -0.888225 -0.245489 -0.388319 
-2094.36 2199.88 1913.2 -0.888225 -0.245489 -0.388319 
-2233.12 2083.38 2304.58 -0.888225 -0.245489 -0.388319 
-2112.54 2227.74 1937.05 -0.888225 -0.245489 -0.388319 
-2107.26 2242.93 1915.3 -0.888225 -0.245489 -0.388319 
-2263.63 2559.69 2071.27 -0.888225 -0.245489 -0.388319 
-2413.82 2436.58 2493.02 -0.888225 -0.245489 -0.388319 
-2317.73 2257.79 2387.08 -0.888225 -0.245489 -0.388319 
-2248.33 2473.95 2090.85 -0.888225 -0.245489 -0.388319 
-2316.87 2212.99 2413.62 -0.888225 -0.245489 -0.388319 
-2252.28 2565.06 2041.92 -0.888225 -0.245489 -0.388319 
-2357.42 2519.56 2311.27 -0.888225 -0.245489 -0.388319 
-2185.39 2258.08 2084.3 -0.888225 -0.245489 -0.388319 
-2320.41 2585.13 2184.91 -0.888225 -0.245489 -0.388319 
-2226.5 2200.4 2215 -0.888225 -0.245489 -0.388319 
-2177.23 2464.62 1934.23 -0.888225 -0.245489 -0.388319 
-2237.62 2078.94 2317.69 -0.888225 -0.245489 -0.388319 
-2203.47 2416.69 2024.73 -0.888225 -0.245489 -0.388319 
-2160.28 2138.21 2103.16 -0.888225 -0.245489 -0.388319 
-2178.6 2016.25 2222.64 -0.888225 -0.245489 -0.388319 
-2124.56 1887.2 2181.2 -0.888225 -0.245489 -0.388319 
-2267.9 2596.29 2057.76 -0.888225 -0.245489 -0.388319 
-2393.5 2571.7 2360.59 -0.888225 -0.245489 -0.388319 
-2477.34 2541.62 2571.42 -0.888225 -0.245489 -0.388319 
-2094.49 2122.01 1963.04 -0.888225 -0.245489 -0.388319 
-2226.59 2591.78 1966.17 -0.888225 -0.245489 -0.388319 
-2012.75 1737.24 2020.96 -0.888225 -0.245489 -0.388319 
-2183.73 2192.16 2122.45 -0.888225 -0.245489 -0.388319 
-2229.92 2204.45 2220.24 -0.888225 -0.245489 -0.388319 
-2416.18 2559.3 2420.33 -0.888225 -0.245489 -0.388319 
-2259.91 2353.01 2194.27 -0.888225 -0.245489 -0.388319 
-2436.22 2415.31 2557.76 -0.888225 -0.245489 -0.388319 
-2310.97 2485.45 2226.76 -0.888225 -0.245489 -0.388319 
-2227.69 2183.75 2228.32 -0.888225 -0.245489 -0.388319 
-2076.19 2115.66 1925.24 -0.888225 -0.245489 -0.388319 
-2159.83 2123.16 2111.71 -0.888225 -0.245489 -0.388319 
-2201.8 2415.83 2021.44 -0.888225 -0.245489 -0.388319 
-2146.48 1968.01 2179.89 -0.888225 -0.245489 -0.388319 
-2258.9 2390.81 2167.93 -0.888225 -0.245489 -0.388319 
-2252.5 2142.74 2311.13 -0.888225 -0.245489 -0.388319 
-2178.18 2218.51 2092.98 -0.888225 -0.245489 -0.388319 
-2138.43 2368.24 1906.83 -0.888225 -0.245489 -0.388319 
-2264.55 2471.98 2129.2 -0.888225 -0.245489 -0.388319 
-2277.34 2280.8 2280.08 -0.888225 -0.245489 -0.388319 
-2206.62 2420.25 2029.66 -0.888225 -0.245489 -0.388319 
-2158 2086.02 2131.15 -0.888225 -0.245489 -0.388319 
-1881.1 1820.43 3083.95 -0.395713 -0.0222017 0.918106 
-1707.7 1934.84 3161.47 -0.395713 -0.0222017 0.918106 
-1662.6 1812.75 3177.78 -0.395713 -0.0222017 0.918106 
-2018.28 2031.53 3030.27 -0.395713 -0.0222017 0.918106 
-2326.39 2021.74 2897.44 -0.395713 -0.0222017 0.918106 
-2052.69 1939.27 3013.13 -0.395713 -0.0222017 0.918106 
-2353.13 1795.47 2880.2 -0.395713 -0.0222017 0.918106 
-2297.44 1636.87 2900.14 -0.395713 -0.0222017 0.918106 
-1784.57 1823.55 3125.57 -0.395713 -0.0222017 0.918106 
-2312.34 2317.69 2910.99 -0.395713 -0.0222017 0.918106 
-1905.81 2135.92 3081.32 -0.395713 -0.0222017 0.918106 
-2505.21 2502.12 2832.68 -0.395713 -0.0222017 0.918106 
-2462.57 2127.31 2841.52 -0.395713 -0.0222017 0.918106 
-2134.71 1964.44 2978.47 -0.395713 -0.0222017 0.918106 
-2044.29 2153.24 3022.17 -0.395713 -0.0222017 0.918106 
-1973.93 1947.57 3047.23 -0.395713 -0.0222017 0.918106 
-2198.77 2218.75 2957.35 -0.395713 -0.0222017 0.918106 
-2327.14 2248.77 2902.88 -0.395713 -0.0222017 0.918106 
-2123.16 2062.8 2985.94 -0.395713 -0.0222017 0.918106 
-2480 2309.55 2838.64 -0.395713 -0.0222017 0.918106 
-2099.66 2167.55 2998.71 -0.395713 -0.0222017 0.918106 
-1919.34 1851.58 3068.29 -0.395713 -0.0222017 0.918106 
-2441.5 2251.39 2853.73 -0.395713 -0.0222017 0.918106 
-2098.03 1911.6 2992.92 -0.395713 -0.0222017 0.918106 
-2375.28 1727.84 2868.95 -0.395713 -0.0222017 0.918106 
-1753.42 2027.96 3144.15 -0.395713 -0.0222017 0.918106 
-1731.96 1932.82 3150.98 -0.395713 -0.0222017 0.918106 
-2028.2 1746.05 3018.77 -0.395713 -0.0222017 0.918106 
-2187.25 2209.71 2962.08 -0.395713 -0.0222017 0.918106 
-1611.68 1866.61 3201.06 -0.395713 -0.0222017 0.918106 
-1865.99 1857.28 3091.39 -0.395713 -0.0222017 0.918106 
-2409.54 2004.64 2861.23 -0.395713 -0.0222017 0.918106 
-2241.3 2122.17 2936.6 -0.395713 -0.0222017 0.918106 
-2303.48 1900.79 2904.23 -0.395713 -0.0222017 0.918106 
-2319.36 2088.68 2902.17 -0.395713 -0.0222017 0.918106 
-1909.04 2024.95 3077.11 -0.395713 -0.0222017 0.918106 
-2328.1 2022.89 2896.74 -0.395713 -0.0222017 0.918106 
-2181.6 2015.67 2959.6 -0.395713 -0.0222017 0.918106 
-2016.27 1942.3 3028.88 -0.395713 -0.0222017 0.918106 
-2148.61 1908.36 2971.07 -0.395713 -0.0222017 0.918106 
-1999.76 1830.14 3033.14 -0.395713 -0.0222017 0.918106 
-2314.14 1931.37 2900.42 -0.395713 -0.0222017 0.918106 
-1712.97 2008 3161.06 -0.395713 -0.0222017 0.918106 
-2243.25 1876.61 2929.54 -0.395713 -0.0222017 0.918106 
-2260.77 1875.53 2921.97 -0.395713 -0.0222017 0.918106 
-2323.58 1854.44 2894.41 -0.395713 -0.0222017 0.918106 
-1978.9 1803.91 3041.45 -0.395713 -0.0222017 0.918106 
-2026.23 2021.58 3026.6 -0.395713 -0.0222017 0.918106 
-2206.01 2239.19 2954.76 -0.395713 -0.0222017 0.918106 
-2435.51 2283.9 2857.14 -0.395713 -0.0222017 0.918106 
-1684.18 1981.42 3172.77 -0.395713 -0.0222017 0.918106 
-2423.95 2160.8 2858.99 -0.395713 -0.0222017 0.918106 
-2381.17 1917.82 2871.24 -0.395713 -0.0222017 0.918106 
-1673.78 1867.94 3174.37 -0.395713 -0.0222017 0.918106 
-1643.12 1941.24 3189.42 -0.395713 -0.0222017 0.918106 
-1659.06 1873.24 3180.83 -0.395713 -0.0222017 0.918106 
-1859.95 2086.65 3099.8 -0.395713 -0.0222017 0.918106 
-1901.9 1839.06 3075.47 -0.395713 -0.0222017 0.918106 
-1820.68 1978.47 3113.96 -0.395713 -0.0222017 0.918106 
-1799.83 2032.14 3124.29 -0.395713 -0.0222017 0.918106 
-2193.1 1668.39 2945.84 -0.395713 -0.0222017 0.918106 
-2237.19 1781.49 2929.74 -0.395713 -0.0222017 0.918106 
-2066.82 2410.48 3019 -0.395713 -0.0222017 0.918106 
-2193.42 2498.76 2966.76 -0.395713 -0.0222017 0.918106 
-1723.39 2350.46 3165.26 -0.395713 -0.0222017 0.918106 
-1989.62 2506.73 3054.66 -0.395713 -0.0222017 0.918106 
-1645.78 2500.36 3202.45 -0.395713 -0.0222017 0.918106 
-1608.94 2154.28 3209.53 -0.395713 -0.0222017 0.918106 
-2297.85 2630.13 2925.15 -0.395713 -0.0222017 0.918106 
-2236.08 2544.34 2949.56 -0.395713 -0.0222017 0.918106 
-2218.86 2438.5 2954.28 -0.395713 -0.0222017 0.918106 
-1721.54 2573.2 3171.7 -0.395713 -0.0222017 0.918106 
-2323.32 2442.19 2909.42 -0.395713 -0.0222017 0.918106 
-1749.81 2584 3159.81 -0.395713 -0.0222017 0.918106 
-2449.11 2615.84 2859.7 -0.395713 -0.0222017 0.918106 
-1608.26 1982.21 3205.46 -0.395713 -0.0222017 0.918106 
-1694.46 2040.02 3169.83 -0.395713 -0.0222017 0.918106 
-1606.13 2352.38 3215.76 -0.395713 -0.0222017 0.918106 
-2236.69 2477.25 2947.59 -0.395713 -0.0222017 0.918106 
-1910.65 2488.04 3088.16 -0.395713 -0.0222017 0.918106 
-1550.78 2048.1 3231.86 -0.395713 -0.0222017 0.918106 
-1710.96 2733.59 3180.32 -0.395713 -0.0222017 0.918106 
-1813.65 2473.94 3129.54 -0.395713 -0.0222017 0.918106 
-1914.93 2597.72 3089.1 -0.395713 -0.0222017 0.918106 
-2057.86 2309.74 3020.3 -0.395713 -0.0222017 0.918106 
-1566.39 2053.09 3225.27 -0.395713 -0.0222017 0.918106 
-1577.46 2038.83 3220.15 -0.395713 -0.0222017 0.918106 
-2049.95 2375.09 3025.36 -0.395713 -0.0222017 0.918106 
-1653.26 2618.79 3202.23 -0.395713 -0.0222017 0.918106 
-1651.73 2345.81 3195.97 -0.395713 -0.0222017 0.918106 
-1757.48 2161.16 3145.78 -0.395713 -0.0222017 0.918106 
-1737.02 2281.07 3157.63 -0.395713 -0.0222017 0.918106 
-1609.59 2413.16 3215.81 -0.395713 -0.0222017 0.918106 
-2129.4 2640.02 2997.88 -0.395713 -0.0222017 0.918106 
-2025.94 2365.54 3035.45 -0.395713 -0.0222017 0.918106 
-2079.42 2630.53 3019.15 -0.395713 -0.0222017 0.918106 
-1727.47 2083.01 3156.72 -0.395713 -0.0222017 0.918106 
-1753.6 2684.32 3160.72 -0.395713 -0.0222017 0.918106 
-2144.48 2463.55 2986.92 -0.395713 -0.0222017 0.918106 
-1648.24 2361.63 3197.87 -0.395713 -0.0222017 0.918106 
-1806.57 2739.91 3139.33 -0.395713 -0.0222017 0.918106 
-2063.42 2333.39 3018.5 -0.395713 -0.0222017 0.918106 
-1773.51 2497.45 3147.42 -0.395713 -0.0222017 0.918106 
-2180.65 2551.38 2973.59 -0.395713 -0.0222017 0.918106 
-1924.64 2621.28 3085.52 -0.395713 -0.0222017 0.918106 
-1962.24 2452.83 3065.07 -0.395713 -0.0222017 0.918106 
-1759.29 2624.08 3156.74 -0.395713 -0.0222017 0.918106 
-1938.24 2408.19 3074.27 -0.395713 -0.0222017 0.918106 
-1670.09 2155.4 3183.24 -0.395713 -0.0222017 0.918106 
-1954.05 2640.59 3073.35 -0.395713 -0.0222017 0.918106 
-1774.61 2565.71 3148.67 -0.395713 -0.0222017 0.918106 
-1837.81 2463.58 3118.89 -0.395713 -0.0222017 0.918106 
-1583.69 2115.44 3219.41 -0.395713 -0.0222017 0.918106 
-1950.24 2453.85 3070.26 -0.395713 -0.0222017 0.918106 
-2113.07 2605.35 3004.03 -0.395713 -0.0222017 0.918106 
-1570.24 2252.2 3228.66 -0.395713 -0.0222017 0.918106 
-1971.98 2270.75 3056.26 -0.395713 -0.0222017 0.918106 
-2075.03 2522.11 3018.29 -0.395713 -0.0222017 0.918106 
-2070.12 2402.07 3017.36 -0.395713 -0.0222017 0.918106 
-1855.1 2427.59 3110.53 -0.395713 -0.0222017 0.918106 
-2130.21 2499.28 2993.97 -0.395713 -0.0222017 0.918106 
-1940.79 2629.25 3078.77 -0.395713 -0.0222017 0.918106 
-2046.17 2261.78 3024.11 -0.395713 -0.0222017 0.918106 
-1814.35 2597.46 3132.38 -0.395713 -0.0222017 0.918106 
-1359.68 2057.52 2225.39 0.393482 0.0248377 -0.918997 
-1209.64 1964.46 2287.59 0.393482 0.0248377 -0.918997 
-1428.13 2049.53 2195.73 0.393482 0.0248377 -0.918997 
-1341.66 2125.81 2234.87 0.393482 0.0248377 -0.918997 
-1217.44 1944.36 2283.72 0.393482 0.0248377 -0.918997 
-1323.18 1986 2239.28 0.393482 0.0248377 -0.918997 
-1339.55 2146.25 2236.3 0.393482 0.0248377 -0.918997 
-1455.04 2014.99 2183.27 0.393482 0.0248377 -0.918997 
-1444.13 1996.19 2187.49 0.393482 0.0248377 -0.918997 
-1269.98 2103.26 2265.14 0.393482 0.0248377 -0.918997 
-1318.25 1955.56 2240.63 0.393482 0.0248377 -0.918997 
-1393.63 2251.15 2215.68 0.393482 0.0248377 -0.918997 
-1441.71 1985.22 2188.25 0.393482 0.0248377 -0.918997 
-1210.99 2055.71 2289.32 0.393482 0.0248377 -0.918997 
-1357.36 2424.82 2235.7 0.393482 0.0248377 -0.918997 
-1217.93 2321.42 2293.07 0.393482 0.0248377 -0.918997 
-1296.71 2196.66 2256.01 0.393482 0.0248377 -0.918997 
-1332.03 2326.78 2244.11 0.393482 0.0248377 -0.918997 
-1186.73 2138.64 2301.86 0.393482 0.0248377 -0.918997 
-1316.22 2689.24 2260.1 0.393482 0.0248377 -0.918997 
-1162.78 2237.52 2314.67 0.393482 0.0248377 -0.918997 
-1187.64 2187.78 2302.72 0.393482 0.0248377 -0.918997 
-1256.51 2589.71 2283.28 0.393482 0.0248377 -0.918997 
-1344.72 2564.6 2244.68 0.393482 0.0248377 -0.918997 
-1206.04 2216.98 2295.54 0.393482 0.0248377 -0.918997 
-1352.88 2517.3 2239.97 0.393482 0.0248377 -0.918997 
-1168.19 2133.09 2309.7 0.393482 0.0248377 -0.918997 
-1259.29 2260.55 2273.73 0.393482 0.0248377 -0.918997 
-1242.67 2342.24 2282.96 0.393482 0.0248377 -0.918997 
-1412.84 2637.35 2217.21 0.393482 0.0248377 -0.918997 
-1420.1 2597.77 2213.09 0.393482 0.0248377 -0.918997 
-1452.04 2401.86 2194.37 0.393482 0.0248377 -0.918997 
-1356.02 2676.18 2242.65 0.393482 0.0248377 -0.918997 
-1383.6 2550.54 2227.59 0.393482 0.0248377 -0.918997 
-1414.04 2348.18 2209.36 0.393482 0.0248377 -0.918997 
-1388.24 2464.19 2223.41 0.393482 0.0248377 -0.918997 
-1403.46 2357.71 2214.16 0.393482 0.0248377 -0.918997 
-1637.81 1952.36 2103.04 0.393482 0.0248377 -0.918997 
-1769.97 1847.44 2043.51 0.393482 0.0248377 -0.918997 
-1731.62 1933.03 2062.18 0.393482 0.0248377 -0.918997 
-1267.33 1928.88 2261.86 0.393482 0.0248377 -0.918997 
-1893.81 1675.55 1985.86 0.393482 0.0248377 -0.918997 
-1789.82 1709.98 2031.48 0.393482 0.0248377 -0.918997 
-1429.62 1795.29 2188.64 0.393482 0.0248377 -0.918997 
-1543.79 1788.11 2139.33 0.393482 0.0248377 -0.918997 
-1361.99 1804.76 2217.98 0.393482 0.0248377 -0.918997 
-1497.71 1808.19 2159.67 0.393482 0.0248377 -0.918997 
-1460.9 1880.69 2177.34 0.393482 0.0248377 -0.918997 
-1394.82 1940.91 2207.31 0.393482 0.0248377 -0.918997 
-1484.39 1794.38 2165.05 0.393482 0.0248377 -0.918997 
-1256.27 1886.71 2265.55 0.393482 0.0248377 -0.918997 
-1399.26 1861.11 2203.37 0.393482 0.0248377 -0.918997 
-1695.48 1739.21 2072.82 0.393482 0.0248377 -0.918997 
-1602.93 1915.01 2117.1 0.393482 0.0248377 -0.918997 
-1683.62 1773.48 2078.79 0.393482 0.0248377 -0.918997 
-1779.73 1934.65 2041.52 0.393482 0.0248377 -0.918997 
-1846.25 1833.98 2010.34 0.393482 0.0248377 -0.918997 
-1872.88 1827.27 1998.72 0.393482 0.0248377 -0.918997 
-1423.55 2673.72 2213.52 0.393482 0.0248377 -0.918997 
-1514.41 2544.07 2171.14 0.393482 0.0248377 -0.918997 
-1427.67 2678.69 2211.88 0.393482 0.0248377 -0.918997 
-1511.07 2596.96 2173.92 0.393482 0.0248377 -0.918997 
-1861.85 2000.78 2007.86 0.393482 0.0248377 -0.918997 
-1625.61 2515.36 2122.56 0.393482 0.0248377 -0.918997 
-1887.84 1959.41 1995.63 0.393482 0.0248377 -0.918997 
-2152.65 2505.8 1895.53 0.393482 0.0248377 -0.918997 
-2118.83 2330.49 1905.64 0.393482 0.0248377 -0.918997 
-1928.53 2064.99 1980.79 0.393482 0.0248377 -0.918997 
-2027.82 2174.27 1940.84 0.393482 0.0248377 -0.918997 
-1877.04 2066.52 2002.99 0.393482 0.0248377 -0.918997 
-2138.84 2412.42 1899.11 0.393482 0.0248377 -0.918997 
-2081.69 2387.58 1923.07 0.393482 0.0248377 -0.918997 
-2103.01 2408.7 1914.43 0.393482 0.0248377 -0.918997 
-2029.24 2222.4 1941.45 0.393482 0.0248377 -0.918997 
-1912.9 2047.93 1987.09 0.393482 0.0248377 -0.918997 
-2013.58 2139.67 1946.09 0.393482 0.0248377 -0.918997 
-2039.49 2199.02 1936.44 0.393482 0.0248377 -0.918997 
-1959.56 2283.87 1972.99 0.393482 0.0248377 -0.918997 
-1926.61 2095.8 1982.4 0.393482 0.0248377 -0.918997 
-1915.69 1861.93 1981.17 0.393482 0.0248377 -0.918997 
-1998.9 2262.32 1955.52 0.393482 0.0248377 -0.918997 
-2039.36 2422.97 1942.18 0.393482 0.0248377 -0.918997 
-2005.95 2404.91 1956.1 0.393482 0.0248377 -0.918997 
-1871.96 2274.86 2010.46 0.393482 0.0248377 -0.918997 
-2006.84 2463.92 1957.21 0.393482 0.0248377 -0.918997 
-1932.56 2428.83 1988.28 0.393482 0.0248377 -0.918997 
-1903.49 2422.77 2000.64 0.393482 0.0248377 -0.918997 
-1947.94 2475.12 1982.84 0.393482 0.0248377 -0.918997 
-1882.22 2489.56 2011.49 0.393482 0.0248377 -0.918997 
-1949.67 2533.44 1983.57 0.393482 0.0248377 -0.918997 
-1749.46 2499.39 2068.86 0.393482 0.0248377 -0.918997 
-1666.79 2638.64 2107.97 0.393482 0.0248377 -0.918997 
-1488.2 2734.82 2187.26 0.393482 0.0248377 -0.918997 
-1696.26 2640.02 2095.32 0.393482 0.0248377 -0.918997 
-2059.5 2578.71 1937.46 0.393482 0.0248377 -0.918997 
-1797.13 2622.92 2051.48 0.393482 0.0248377 -0.918997 
-1484.06 2693.84 2188 0.393482 0.0248377 -0.918997 
-1720.95 2554.59 2082.53 0.393482 0.0248377 -0.918997 
-1854.23 2616.59 2026.75 0.393482 0.0248377 -0.918997 
-1640.03 2667.82 2120.22 0.393482 0.0248377 -0.918997 
-1616.97 2711.87 2131.26 0.393482 0.0248377 -0.918997 
-1764.18 2714.23 2067.98 0.393482 0.0248377 -0.918997 
-1649.08 2679.98 2116.64 0.393482 0.0248377 -0.918997 
-1656.59 2668.63 2113.12 0.393482 0.0248377 -0.918997 
-1766.48 2593.24 2063.92 0.393482 0.0248377 -0.918997 
-1494.29 2692.39 2183.56 0.393482 0.0248377 -0.918997 
-1944.82 2654.97 1988.75 0.393482 0.0248377 -0.918997 
-2318.64 2625.03 2548.52 -0.236765 0.968356 -0.0789217 
-2170.95 2655.43 2478.35 -0.236765 0.968356 -0.0789217 
-2138.11 2679.47 2680.35 -0.236765 0.968356 -0.0789217 
-2202.27 2667.65 2728.22 -0.236765 0.968356 -0.0789217 
-2148.79 2698.73 2955.53 -0.236765 0.968356 -0.0789217 
-2162.67 2646.81 2344.46 -0.236765 0.968356 -0.0789217 
-1868.83 2750.5 2748.95 -0.236765 0.968356 -0.0789217 
-2146.08 2664.53 2516.73 -0.236765 0.968356 -0.0789217 
-1998.35 2717.76 2733.83 -0.236765 0.968356 -0.0789217 
-2240.69 2667.96 2849.96 -0.236765 0.968356 -0.0789217 
-2179.15 2630.31 2187.32 -0.236765 0.968356 -0.0789217 
-2372.71 2612.01 2550.37 -0.236765 0.968356 -0.0789217 
-2246.62 2664.93 2829.96 -0.236765 0.968356 -0.0789217 
-1986.4 2724.48 2781.87 -0.236765 0.968356 -0.0789217 
-1954.6 2711.7 2523.51 -0.236765 0.968356 -0.0789217 
-2442.26 2618.66 2847.32 -0.236765 0.968356 -0.0789217 
-1987.49 2705.88 2551.06 -0.236765 0.968356 -0.0789217 
-2193.14 2609.9 1973.32 -0.236765 0.968356 -0.0789217 
-2317.81 2620.22 2485.44 -0.236765 0.968356 -0.0789217 
-1957.77 2754.65 3073.86 -0.236765 0.968356 -0.0789217 
-2068.72 2697.52 2694.8 -0.236765 0.968356 -0.0789217 
-2019.3 2725.79 2899.23 -0.236765 0.968356 -0.0789217 
-2172.31 2663.42 2583.11 -0.236765 0.968356 -0.0789217 
-1889.46 2759.56 2926.28 -0.236765 0.968356 -0.0789217 
-2070.5 2676.5 2435.63 -0.236765 0.968356 -0.0789217 
-1945.16 2717.98 2573.58 -0.236765 0.968356 -0.0789217 
-2360.27 2618.15 2589.49 -0.236765 0.968356 -0.0789217 
-2036.68 2718.76 2863.98 -0.236765 0.968356 -0.0789217 
-1999.99 2710.97 2653.38 -0.236765 0.968356 -0.0789217 
-2572.23 2583.36 2801.42 -0.236765 0.968356 -0.0789217 
-2365.62 2598.91 2363.68 -0.236765 0.968356 -0.0789217 
-2045.57 2680.47 2409.25 -0.236765 0.968356 -0.0789217 
-2246.18 2652.06 2666.59 -0.236765 0.968356 -0.0789217 
-1991.89 2736.58 2951.01 -0.236765 0.968356 -0.0789217 
-2342.85 2596.8 2267.32 -0.236765 0.968356 -0.0789217 
-2257.33 2648.05 2650.36 -0.236765 0.968356 -0.0789217 
-2084.1 2674.85 2456.59 -0.236765 0.968356 -0.0789217 
-2003.87 2714.36 2707.98 -0.236765 0.968356 -0.0789217 
-2174.64 2638.39 2275.26 -0.236765 0.968356 -0.0789217 
-2260.97 2654.22 2739.23 -0.236765 0.968356 -0.0789217 
-2339.76 2607.77 2395.93 -0.236765 0.968356 -0.0789217 
-2295.25 2607.58 2257.17 -0.236765 0.968356 -0.0789217 
-2455.68 2615.65 2850.5 -0.236765 0.968356 -0.0789217 
-2421.87 2619.13 2790.76 -0.236765 0.968356 -0.0789217 
-2419.84 2624.32 2849.82 -0.236765 0.968356 -0.0789217 
-1883.03 2750.86 2797.04 -0.236765 0.968356 -0.0789217 
-2512.33 2590.37 2706.02 -0.236765 0.968356 -0.0789217 
-2012.45 2685.21 2367.34 -0.236765 0.968356 -0.0789217 
-2202.1 2677.35 2849.88 -0.236765 0.968356 -0.0789217 
-2073.69 2710.6 2874.81 -0.236765 0.968356 -0.0789217 
-2229.64 2632.08 2364.42 -0.236765 0.968356 -0.0789217 
-2215.5 2607.34 2009.58 -0.236765 0.968356 -0.0789217 
-2472.62 2589.31 2570.94 -0.236765 0.968356 -0.0789217 
-2402.33 2608.16 2592.66 -0.236765 0.968356 -0.0789217 
-2467.52 2609.98 2815.43 -0.236765 0.968356 -0.0789217 
-2178.27 2647.94 2406.58 -0.236765 0.968356 -0.0789217 
-2383.13 2629.77 2805.88 -0.236765 0.968356 -0.0789217 
-2512.13 2588.42 2680.75 -0.236765 0.968356 -0.0789217 
-1991.83 2695.21 2429.99 -0.236765 0.968356 -0.0789217 
-2051.44 2716.62 2882.36 -0.236765 0.968356 -0.0789217 
-2138.51 2698.77 2924.55 -0.236765 0.968356 -0.0789217 
-1972.02 2727.89 2780.71 -0.236765 0.968356 -0.0789217 
-1423.34 2831.82 2406.9 -0.236765 0.968356 -0.0789217 
-1858.2 2713.69 2253 -0.236765 0.968356 -0.0789217 
-1462.29 2809.21 2241.71 -0.236765 0.968356 -0.0789217 
-1719.13 2812.35 3068.63 -0.236765 0.968356 -0.0789217 
-1900.97 2727.89 2562.86 -0.236765 0.968356 -0.0789217 
-1716.41 2779.02 2640.71 -0.236765 0.968356 -0.0789217 
-1482.54 2832.78 2600.49 -0.236765 0.968356 -0.0789217 
-1446.46 2840.1 2581.97 -0.236765 0.968356 -0.0789217 
-1426.63 2824.22 2321.35 -0.236765 0.968356 -0.0789217 
-1706.11 2778.46 2602.06 -0.236765 0.968356 -0.0789217 
-2097.07 2641.17 2072.46 -0.236765 0.968356 -0.0789217 
-1555.31 2790.58 2292.32 -0.236765 0.968356 -0.0789217 
-1526.18 2824.89 2634.98 -0.236765 0.968356 -0.0789217 
-1501.28 2809.6 2366.19 -0.236765 0.968356 -0.0789217 
-1633.52 2768.84 2258.5 -0.236765 0.968356 -0.0789217 
-1845.07 2719.63 2287.53 -0.236765 0.968356 -0.0789217 
-2011.22 2653.42 1963.47 -0.236765 0.968356 -0.0789217 
-1713.21 2737.63 2109.87 -0.236765 0.968356 -0.0789217 
-1749.25 2746.3 2329.49 -0.236765 0.968356 -0.0789217 
-1856.38 2713.92 2250.32 -0.236765 0.968356 -0.0789217 
-1571.62 2820.94 2724.49 -0.236765 0.968356 -0.0789217 
-1600.44 2811.25 2690.88 -0.236765 0.968356 -0.0789217 
-1696.28 2811.86 2992.37 -0.236765 0.968356 -0.0789217 
-1337.63 2841.54 2266.5 -0.236765 0.968356 -0.0789217 
-1513.57 2821.48 2553.41 -0.236765 0.968356 -0.0789217 
-1781 2720.6 2103.31 -0.236765 0.968356 -0.0789217 
-1733.65 2750.9 2339.61 -0.236765 0.968356 -0.0789217 
-1703.38 2787.6 2708.8 -0.236765 0.968356 -0.0789217 
-1582.73 2800.95 2506.95 -0.236765 0.968356 -0.0789217 
-1868.11 2716.71 2321.44 -0.236765 0.968356 -0.0789217 
-1810.02 2749.7 2558.62 -0.236765 0.968356 -0.0789217 
-1917.77 2698.04 2238.62 -0.236765 0.968356 -0.0789217 
-1849.66 2726.99 2394.21 -0.236765 0.968356 -0.0789217 
-1802.2 2746.79 2498.04 -0.236765 0.968356 -0.0789217 
-2055.71 2643.71 1977.59 -0.236765 0.968356 -0.0789217 
-1608.71 2824.06 2877.5 -0.236765 0.968356 -0.0789217 
-1727.97 2785.53 2758.06 -0.236765 0.968356 -0.0789217 
-1750.9 2781.01 2771.49 -0.236765 0.968356 -0.0789217 
-1441.65 2832.16 2467.29 -0.236765 0.968356 -0.0789217 
-1697.25 2808.87 2957.73 -0.236765 0.968356 -0.0789217 
-1672.06 2812.71 2928.83 -0.236765 0.968356 -0.0789217 
-1991.36 2687.62 2333.12 -0.236765 0.968356 -0.0789217 
-1620.63 2816.73 2821.85 -0.236765 0.968356 -0.0789217 
-1682.59 2764.79 2357.85 -0.236765 0.968356 -0.0789217 
-1928 2708.74 2404.7 -0.236765 0.968356 -0.0789217 
-1672.27 2785.05 2581.33 -0.236765 0.968356 -0.0789217 
-1841.99 2748.19 2637.64 -0.236765 0.968356 -0.0789217 
-2068.47 2644.11 2021.7 -0.236765 0.968356 -0.0789217 
-1521.52 2822.82 2594.62 -0.236765 0.968356 -0.0789217 
-1397.79 2833.39 2348.33 -0.236765 0.968356 -0.0789217 
-1799.65 2722.2 2180.61 -0.236765 0.968356 -0.0789217 
-1757.96 2779.22 2770.55 -0.236765 0.968356 -0.0789217 
-1846.13 2744.64 2605.57 -0.236765 0.968356 -0.0789217 
-1694.19 2798.1 2812.82 -0.236765 0.968356 -0.0789217 
-1974.41 2698.66 2420.04 -0.236765 0.968356 -0.0789217 
-1592.01 2770.6 2153.35 -0.236765 0.968356 -0.0789217 
-1759.32 2778.34 2763.73 -0.236765 0.968356 -0.0789217 
-1525.18 2792.9 2229.19 -0.236765 0.968356 -0.0789217 
-1565 2808.82 2551.72 -0.236765 0.968356 -0.0789217 
-1905.72 2715.87 2426.14 -0.236765 0.968356 -0.0789217 
-1966.51 2672.77 2070 -0.236765 0.968356 -0.0789217 
-1540.94 2799.82 2364.58 -0.236765 0.968356 -0.0789217 
-1333.46 2843.4 2277.09 -0.236765 0.968356 -0.0789217 
-1432.37 2223.26 1030.4 -0.899865 -0.189827 -0.392695 
-1792.82 2203.12 1867.53 -0.899865 -0.189827 -0.392695 
-1464.16 2223.7 1103.26 -0.906235 -0.148912 -0.39568 
-1730.46 2235.69 1714.39 -0.915377 -0.0716617 -0.396168 
-1537.62 2239.11 1267.67 -0.915377 -0.0716617 -0.396168 
-1494.95 2253.34 1166.66 -0.91709 -0.0301761 -0.397537 
-1445.56 2264.94 1051.36 -0.917628 0.0090598 -0.397337 
-1762.37 2273.39 1790.96 -0.915803 0.0887142 -0.391707 
-1462.59 2297 1096.12 -0.912122 0.12711 -0.389712 
-1741.05 2267.44 1739.79 -0.915803 0.0887142 -0.391707 
-1775.66 2289.86 1828.02 -0.906814 0.167082 -0.387003 
-1787.88 2294 1858.68 -0.900788 0.205188 -0.382726 
-1822.25 2309.25 1948.83 -0.891849 0.247818 -0.378405 
-1851.85 2301.55 2013.77 -0.891849 0.247818 -0.378405 
-1709.6 2322.57 1692.07 -0.882641 0.284189 -0.374408 
-1703.18 2334.11 1686.54 -0.873724 0.318688 -0.367483 
-1615.74 2334.43 1479.1 -0.873724 0.318688 -0.367483 
-1640.39 2346.22 1548.8 -0.859712 0.359628 -0.362715 
-1810 2335.22 1941.97 -0.859712 0.359628 -0.362715 
-1496.97 2368.11 1230.58 -0.830983 0.433625 -0.348477 
-1786.75 2351.37 1904.43 -0.830983 0.433625 -0.348477 
-1450.61 2383.42 1139.34 -0.815843 0.467328 -0.340595 
-1749.2 2361.2 1826.88 -0.815843 0.467328 -0.340595 
-1799.24 2369.95 1959.94 -0.798254 0.501896 -0.333004 
-1760.33 2382.33 1885.8 -0.779222 0.536015 -0.324809 
-1448.29 2402.95 1164.46 -0.762312 0.566518 -0.312949 
-1675.58 2394.45 1701.58 -0.762312 0.566518 -0.312949 
-1486.11 2410.85 1271.3 -0.737806 0.602782 -0.303802 
-1520 2417.62 1368.2 -0.716395 0.633056 -0.293289 
-1787.6 2401.65 1989.64 -0.716395 0.633056 -0.293289 
-1723.35 2412.17 1855.52 -0.6939 0.66185 -0.28365 
-1394.85 2433.65 1097.13 -0.6939 0.66185 -0.28365 
-1409.74 2439.06 1147.48 -0.668975 0.691327 -0.273018 
-1462.08 2439.31 1277.93 -0.642276 0.721569 -0.258496 
-1476.35 2441.28 1318.9 -0.642276 0.721569 -0.258496 
-1597.8 2440.13 1618.75 -0.615801 0.748096 -0.247266 
-1374.25 2470.57 1159.22 -0.531546 0.820927 -0.208659 
-1389.92 2461.17 1164.04 -0.560066 0.797669 -0.223718 
-1620.78 2457.59 1738.26 -0.531546 0.820927 -0.208659 
-1443.51 2472.29 1344.51 -0.500737 0.843584 -0.193979 
-1749.04 2454.09 2053.72 -0.500737 0.843584 -0.193979 
-1496.93 2473.41 1488.52 -0.46969 0.863816 -0.182246 
-1442.07 2474.02 1348.53 -0.46969 0.863816 -0.182246 
-1326.28 2487.8 1114.21 -0.437995 0.883265 -0.16734 
-1574.53 2475.72 1705.41 -0.405753 0.901198 -0.152335 
-1641.09 2467.37 1835.85 -0.437995 0.883265 -0.16734 
-1709.14 2468.9 2024.8 -0.405753 0.901198 -0.152335 
-1598.83 2477.79 1783.34 -0.372875 0.917523 -0.138257 
-1327.73 2498.27 1185.19 -0.339001 0.932593 -0.123892 
-1451.65 2490.11 1466.7 -0.339001 0.932593 -0.123892 
-1484.12 2491.78 1571.33 -0.30402 0.946577 -0.107535 
-1531.02 2487.4 1666.12 -0.30402 0.946577 -0.107535 
-1399.48 2499.82 1404.6 -0.26958 0.958363 -0.0941595 
-1566.09 2489.05 1781.89 -0.26958 0.958363 -0.0941595 
-1353.39 2504.22 1317.87 -0.236765 0.968356 -0.0789217 
-1674.83 2487.28 2094.7 -0.199934 0.977859 -0.0617978 
-1370.36 2506.42 1412.07 -0.164779 0.985166 -0.0479144 
-1317.34 2510.2 1309.19 -0.129376 0.99113 -0.0303752 
-1393.67 2505.29 1473.13 -0.129376 0.99113 -0.0303752 
-1606.61 2493.71 2012.3 -0.091691 0.995656 -0.0161808 
-1301.13 2511.73 1304.24 -0.0566683 0.998393 -0.00103033 
-1475.8 2501.39 1735.08 -0.017184 0.999705 0.017184 
-1196.49 2516.82 1129.31 0.0173888 0.999346 0.031709 
-1316.17 2508.74 1430.58 0.052503 0.997557 0.0460741 
-1181.07 2515.64 1135.18 0.090755 0.993823 0.0638646 
-1478.87 2497.11 1842.43 0.127246 0.988783 0.0782154 
-1383.78 2501.19 1640.41 0.127246 0.988783 0.0782154 
-1275.7 2506.01 1406.18 0.163486 0.982129 0.0932477 
-1560.92 2487.59 2085.23 0.198798 0.973985 0.108776 
-1248.5 2503.79 1378.73 0.198798 0.973985 0.108776 
-1463.88 2488.94 1896.19 0.23371 0.964538 0.122665 
-1152.74 2507.09 1174.53 0.23371 0.964538 0.122665 
-1251.61 2499.28 1418.76 0.269752 0.952768 0.139527 
-1158.74 2503.89 1208.79 0.269752 0.952768 0.139527 
-1437.29 2483.35 1882.46 0.305031 0.939715 0.154567 
-1508.53 2472.18 2086.51 0.370386 0.91095 0.181618 
-1161.8 2490.11 1293.13 0.370386 0.91095 0.181618 
-1314.02 2478.64 1658.63 0.407229 0.891817 0.197046 
-1221.82 2480.99 1458.36 0.407229 0.891817 0.197046 
-1396.41 2465.91 1884.09 0.437902 0.874319 0.209302 
-1110.08 2482.06 1221.68 0.468947 0.854961 0.221656 
-1275.27 2466.87 1626.44 0.468947 0.854961 0.221656 
-1186.02 2468.24 1432.77 0.500206 0.833677 0.234042 
-1201.21 2462.36 1484.89 0.529277 0.811764 0.246789 
-1290.08 2457.23 1691.08 0.529277 0.811764 0.246789 
-1310.94 2446.73 1768.44 0.560504 0.78659 0.259057 
-1409.41 2443.16 1990.5 0.560504 0.78659 0.259057 
-1168.41 2448.78 1455.14 0.587895 0.762204 0.27097 
-1400.54 2439.19 1983.14 0.587895 0.762204 0.27097 
-1335.44 2432.21 1861.02 0.616841 0.734789 0.282121 
-1296.23 2439.83 1756.14 0.616841 0.734789 0.282121 
-1164.89 2426.46 1501.82 0.669324 0.679001 0.301599 
-1459.61 2411.4 2181.6 0.669324 0.679001 0.301599 
-1253.75 2415.82 1719.66 0.694023 0.648726 0.312229 
-1325.39 2414.06 1881.06 0.694023 0.648726 0.312229 
-1138.12 2413.84 1468.3 0.716252 0.619243 0.321748 
-1297.68 2408.53 1831.29 0.716252 0.619243 0.321748 
-1221.05 2399.74 1677.7 0.738787 0.586827 0.331403 
-1206.56 2394.24 1654.65 0.760062 0.553506 0.340495 
-1274.3 2390.01 1812.47 0.760062 0.553506 0.340495 
-1349.63 2374.7 2004.29 0.780859 0.520036 0.346154 
-1273.83 2378.98 1828.43 0.780859 0.520036 0.346154 
-1311.56 2374.46 1919.46 0.798153 0.487849 0.353491 
-1138.01 2367.42 1538.67 0.81529 0.452939 0.360762 
-1364.09 2352.99 2065.35 0.832027 0.415224 0.36786 
-1162.94 2360.58 1602.69 0.832027 0.415224 0.36786 
-1264.36 2348.67 1844.89 0.846972 0.379032 0.372792 
-1341.81 2336.2 2032.86 0.860377 0.34137 0.378442 
-1021.99 2350.83 1293.43 0.860377 0.34137 0.378442 
-1012.97 2346.11 1277.18 0.872872 0.303144 0.382358 
-1146.1 2328.31 1594.4 0.883645 0.265543 0.385563 
-1224.2 2316.04 1781.19 0.883645 0.265543 0.385563 
-1048.42 2315.57 1379.18 0.892782 0.228729 0.388102 
-1119.17 2310.78 1543.92 0.900414 0.189333 0.391673 
-1174.26 2295.22 1677.63 0.907751 0.148696 0.392273 
-1033.77 2302.39 1351.55 0.907751 0.148696 0.392273 
-976.151 2295.42 1221.17 0.912058 0.112104 0.394441 
-1046.79 2284.98 1387.04 0.915814 0.0714848 0.395189 
-1251.19 2264.31 1863.59 0.915814 0.0714848 0.395189 
-1162.54 2260.51 1658.36 0.918456 0.0301348 0.394373 
-1303.13 2243.42 1985.07 0.918974 -0.00904756 0.394215 
-1260.25 2233.62 1884.2 0.918582 -0.049186 0.392159 
-1102.65 2238.19 1516.93 0.916242 -0.0884929 0.39073 
-1291.64 2218.66 1953.96 0.91259 -0.126787 0.388722 
-994.928 2238.27 1265.11 0.91259 -0.126787 0.388722 
-1129.23 2220.72 1574 0.908316 -0.166833 0.383574 
-1398.43 2195.74 2195.66 0.908316 -0.166833 0.383574 
-1070.33 2208.6 1429.7 0.901335 -0.204651 0.381725 
-1312.71 2184.21 1986.79 0.892454 -0.247164 0.377406 
-1381.06 2176.13 2142.85 0.883632 -0.284509 0.371818 
-988.279 2196.08 1227.63 0.883632 -0.284509 0.371818 
-1074.46 2185.46 1423.62 0.872872 -0.321424 0.367124 
-1109.86 2177.44 1500.69 0.872872 -0.321424 0.367124 
-1153.23 2162.27 1589.17 0.848499 -0.39389 0.353412 
-1358.47 2138.45 2052.58 0.832862 -0.432962 0.344796 
-1007.12 2157.29 1233.74 0.832862 -0.432962 0.344796 
-1364.96 2127.28 2053.49 0.816721 -0.46783 0.337789 
-1274 2132.74 1842.24 0.816721 -0.46783 0.337789 
-1182.74 2132.05 1621.35 0.799098 -0.502427 0.330166 
-1214.98 2120.63 1681.2 0.781279 -0.535232 0.321139 
-1426.31 2106.73 2169.91 0.781279 -0.535232 0.321139 
-1061.78 2120.36 1308.84 0.760926 -0.568692 0.31238 
-1188.74 2117.93 1613.08 0.760926 -0.568692 0.31238 
-1087.68 2109.57 1351.02 0.739981 -0.601937 0.300166 
-1351.51 2095.66 1967.38 0.739981 -0.601937 0.300166 
-1027.74 2105.28 1194.93 0.717066 -0.633649 0.290355 
-1418.91 2083.07 2105.82 0.717066 -0.633649 0.290355 
-1158.8 2092.33 1487.23 0.696184 -0.660974 0.280074 
-1088.04 2101.37 1334.26 0.696184 -0.660974 0.280074 
-1128.03 2087.41 1398.93 0.669836 -0.692111 0.268889 
-1395.19 2074.39 2026.75 0.669836 -0.692111 0.268889 
-1090.62 2079.18 1282.98 0.617751 -0.746646 0.246786 
-1289.3 2068.64 1748.23 0.617751 -0.746646 0.246786 
-1160.2 2067.53 1420.95 0.591274 -0.772244 0.232453 
-1195.52 2059.17 1481.22 0.562563 -0.796835 0.220401 
-1473 2040.67 2118.27 0.531882 -0.821445 0.205742 
-1291.52 2053.03 1702.6 0.562563 -0.796835 0.220401 
-1219.42 2051.77 1513.79 0.531882 -0.821445 0.205742 
-1144.83 2046.43 1297.17 0.471043 -0.863826 0.178672 
-1165.16 2041.62 1325.79 0.440342 -0.882138 0.167127 
-1448.64 2023.06 1974.47 0.405927 -0.901586 0.149552 
-1426.06 2018.27 1883.78 0.372063 -0.918313 0.135169 
-1482.38 2015.24 2016.6 0.372063 -0.918313 0.135169 
-1364.95 2018.03 1713.38 0.339114 -0.932904 0.121209 
-1500.19 2009.32 2021.19 0.306427 -0.945811 0.107448 
-1260.1 2019.91 1429.55 0.272035 -0.957924 0.0915378 
-1370.33 2014.42 1696.13 0.272035 -0.957924 0.0915378 
-1304.99 2015.52 1513.74 0.236238 -0.968699 0.076246 
-1519.95 2002.62 2010.34 0.236238 -0.968699 0.076246 
-1174.84 2021.39 1186.01 0.202259 -0.977382 0.0617677 
-1524.45 2001.43 2008.54 0.202259 -0.977382 0.0617677 
-1258.16 2015.54 1363.44 0.164797 -0.985274 0.0455821 
-1577.02 1995.47 2073.23 0.129088 -0.99117 0.0303076 
-1423.27 2004.3 1708.5 0.129088 -0.99117 0.0303076 
-1192.09 2017.5 1149.54 0.0936316 -0.995509 0.0139909 
-1318.62 2009.91 1426.53 0.0567851 -0.998386 -0.00103246 
-1242.62 2014.44 1229.59 0.0192431 -0.99963 -0.0192431 
-1334.16 2009.29 1428 0.0192431 -0.99963 -0.0192431 
-1581.77 1995.06 1988.54 -0.015374 -0.99931 -0.0338228 
-1492.29 2001.56 1748.93 -0.0526102 -0.997446 -0.0483155 
-1320.23 2011.67 1349.87 -0.0526102 -0.997446 -0.0483155 
-1283.74 2015.12 1241.47 -0.0909443 -0.99365 -0.0662434 
-1247.86 2016.57 1168.55 -0.0909443 -0.99365 -0.0662434 
-1408.41 2010.56 1493.72 -0.124925 -0.98889 -0.0805589 
-1344.36 2012.69 1365.32 -0.124925 -0.98889 -0.0805589 
-1621.87 2000.9 1959.73 -0.19682 -0.97407 -0.111573 
-1278.17 2024.97 1128.84 -0.233635 -0.964229 -0.125208 
-1389.41 2017.86 1391.66 -0.233635 -0.964229 -0.125208 
-1680.22 2003.77 2044.66 -0.267184 -0.953091 -0.142233 
-1331.66 2027.11 1215.61 -0.304901 -0.939315 -0.157236 
-1661.76 2015.33 1938.37 -0.337586 -0.925909 -0.169493 
-1397.87 2027.14 1345.6 -0.337586 -0.925909 -0.169493 
-1325.88 2039.7 1134.82 -0.370192 -0.910473 -0.184381 
-1714.87 2021.92 2015.29 -0.40479 -0.892875 -0.19728 
-1337.13 2048 1121.45 -0.436358 -0.874206 -0.212967 
-1403.34 2048.83 1256.64 -0.467481 -0.854779 -0.22542 
-1700.04 2027.31 1961.93 -0.436358 -0.874206 -0.212967 
-1507.75 2049.97 1472.77 -0.498821 -0.833415 -0.237899 
-1588.27 2046.73 1654.67 -0.528869 -0.811139 -0.249701 
-1514.8 2046.75 1499.09 -0.498821 -0.833415 -0.237899 
-1756.6 2041.92 2029.23 -0.528869 -0.811139 -0.249701 
-1357.74 2072.01 1082.19 -0.560046 -0.785947 -0.261982 
-1678.62 2051.19 1833.67 -0.560046 -0.785947 -0.261982 
-1458.72 2072.38 1299 -0.587388 -0.761546 -0.273903 
-1448.47 2076.51 1265.76 -0.615746 -0.734097 -0.286282 
-1721.86 2055.2 1915.2 -0.587388 -0.761546 -0.273903 
-1713.72 2062.29 1878.52 -0.615746 -0.734097 -0.286282 
-1622.99 2077.41 1643.49 -0.641241 -0.70874 -0.294103 
-1716.74 2068.06 1870.57 -0.641241 -0.70874 -0.294103 
-1459.42 2092.72 1250.52 -0.666883 -0.679801 -0.305184 
-1594.35 2095.62 1541.14 -0.693319 -0.648068 -0.315145 
-1598.01 2097.32 1545.95 -0.713922 -0.620028 -0.325393 
-1548.57 2104.95 1422.05 -0.713922 -0.620028 -0.325393 
-1595.43 2108 1520.42 -0.736517 -0.587595 -0.335075 
-1686.3 2120.91 1701.99 -0.778721 -0.52076 -0.34986 
-1820.38 2121.38 2001.71 -0.796079 -0.488539 -0.357194 
-1765.99 2146.34 1848.73 -0.831058 -0.41474 -0.370585 
-1422.7 2174.79 1042.56 -0.845095 -0.37959 -0.376466 
-1758.32 2149.56 1828.05 -0.845095 -0.37959 -0.376466 
-1719.78 2165.79 1725.07 -0.860377 -0.34137 -0.378442 
-1712.59 2166.18 1708.39 -0.860377 -0.34137 -0.378442 
-1652.96 2174.61 1565.6 -0.871853 -0.30279 -0.384954 
-1683.32 2178.25 1631.82 -0.871853 -0.30279 -0.384954 
-1758.61 2178.81 1803.13 -0.88262 -0.265236 -0.388113 
-1333.72 2140.18 955.507 -0.59605 -0.545394 -0.589296 
-1312.52 2148.04 926.894 -0.59605 -0.545394 -0.589296 
-1223.33 2020.57 1082.95 -0.00377203 -0.939235 -0.343255 
-1219.9 2032.86 1050.09 -0.0243564 -0.934515 -0.35509 
-1104.56 2047.84 1076.9 0.410261 -0.896817 -0.165544 
-1037.66 2084.79 1162.86 0.70659 -0.70659 -0.0382323 
-1161.83 2107.87 858.689 -0.212967 -0.874206 -0.436358 
-1164.78 2132.38 814.745 -0.346441 -0.799847 -0.490126 
-1062.8 2078.31 1023.12 0.503534 -0.854702 -0.126246 
-1125.38 2095.25 879.593 0.0240994 -0.942412 -0.333586 
-1000.71 2131.59 1150.75 0.83661 -0.547173 0.0261871 
-1120.7 2110.21 839.937 -0.0710472 -0.923613 -0.376684 
-1095.63 2085.97 921.072 0.222165 -0.942476 -0.249763 
-1052.15 2089.31 991.009 0.503534 -0.854702 -0.126246 
-981.613 2164.25 1128.66 0.909145 -0.41202 0.0607898 
-1062.03 2097.79 915.119 0.365048 -0.911905 -0.187535 
-1028.38 2105.92 985.113 0.587687 -0.80428 -0.0880809 
-1043.58 2118.77 848.865 0.340379 -0.918596 -0.200809 
-969.911 2182.98 1078.05 0.929164 -0.362892 0.0704516 
-967.894 2183.28 1051.2 0.909145 -0.41202 0.0607898 
-1006.36 2136.42 855.969 0.543036 -0.832656 -0.108607 
-956.046 2217.71 1048.72 0.961346 -0.261721 0.0855381 
-980.423 2362.21 1155.9 0.925355 0.368791 0.0878075 
-952.67 2213.97 999.925 0.961346 -0.261721 0.0855381 
-1138.95 2507.76 1126.33 0.305006 0.937099 -0.169754 
-977.296 2377.88 1022.76 0.856437 0.512744 0.0600763 
-1107.44 2493.28 1115.19 0.398803 0.908152 -0.127337 
-1049.88 2454.62 1062.54 0.579463 0.813504 -0.049346 
-937.679 2312.21 893.946 0.969968 0.220734 0.102168 
-966.793 2367.17 965.115 0.856437 0.512744 0.0600763 
-1059.74 2457.42 1018.6 0.491722 0.866501 -0.0859456 
-1076.28 2464.86 1009.06 0.398803 0.908152 -0.127337 
-1165.03 2493.21 1029.98 0.10978 0.962193 -0.249266 
