ply
format ascii 1.0
comment Created by CloudCompare v2.11.3 (Anoia)
comment Created 08/09/2022 00:16
obj_info Generated by CloudCompare!
element vertex 487
property float x
property float y
property float z
property float nx
property float ny
property float nz
end_header
169.476 -2051.6 1803.63 0.687864 -0.434704 0.58127 
8.83112 -1797.59 2182.89 0.687864 -0.434704 0.58127 
56.129 -2123.95 1883.49 0.687864 -0.434704 0.58127 
-65.9822 -2424.08 1803.73 0.687864 -0.434704 0.58127 
69.9151 -2103.63 1882.38 0.687864 -0.434704 0.58127 
362.109 -2096.35 1542.74 0.687864 -0.434704 0.58127 
-11.0841 -1953.83 2089.82 0.687864 -0.434704 0.58127 
-33.866 -1836.07 2204.6 0.687864 -0.434704 0.58127 
3.37164 -2300.52 1814.03 0.687864 -0.434704 0.58127 
317.375 -2054.97 1626.45 0.687864 -0.434704 0.58127 
39.6494 -2392.63 1702.45 0.687864 -0.434704 0.58127 
281.147 -2161.61 1589.66 0.687864 -0.434704 0.58127 
-73.7856 -2076.2 2072.55 0.687864 -0.434704 0.58127 
385.724 -2274.35 1382.03 0.687864 -0.434704 0.58127 
-43.3164 -2220.7 1928.74 0.687864 -0.434704 0.58127 
65.0577 -1792.92 2119.98 0.687864 -0.434704 0.58127 
122.766 -1974.03 1916.68 0.687864 -0.434704 0.58127 
-9.98285 -1890.63 2135.68 0.687864 -0.434704 0.58127 
73.6931 -1815.41 2093 0.687864 -0.434704 0.58127 
247.656 -2058.46 1706.18 0.687864 -0.434704 0.58127 
366.201 -2099.46 1535.59 0.687864 -0.434704 0.58127 
-6.95551 -1733.54 2249.33 0.687864 -0.434704 0.58127 
-60.8821 -2423.78 1797.93 0.687864 -0.434704 0.58127 
115.189 -1817.55 2042.39 0.687864 -0.434704 0.58127 
78.5372 -2407.09 1645.74 0.687864 -0.434704 0.58127 
-98.7183 -2323.36 1917.55 0.687864 -0.434704 0.58127 
64.0184 -2300.14 1742.69 0.687864 -0.434704 0.58127 
-54.666 -2030.42 2084.13 0.687864 -0.434704 0.58127 
257.262 -2232.33 1565.09 0.687864 -0.434704 0.58127 
171.141 -1902.19 1913.16 0.687864 -0.434704 0.58127 
208.566 -2226.41 1627.02 0.687864 -0.434704 0.58127 
500.484 -2183.98 1313.93 0.687864 -0.434704 0.58127 
482.404 -1496.65 1848.2 0.687864 -0.434704 0.58127 
188.679 -1762.82 1996.45 0.687864 -0.434704 0.58127 
293.458 -1590.66 2001.19 0.687864 -0.434704 0.58127 
439.208 -1951.88 1559.5 0.687864 -0.434704 0.58127 
518.218 -1969.79 1452.83 0.687864 -0.434704 0.58127 
430.214 -1498.33 1908.58 0.687864 -0.434704 0.58127 
527.973 -1848.78 1531.62 0.687864 -0.434704 0.58127 
318.966 -1863.69 1767.31 0.687864 -0.434704 0.58127 
543.643 -1548.58 1737.13 0.687864 -0.434704 0.58127 
435.054 -1905.46 1599.05 0.687864 -0.434704 0.58127 
367.704 -1810.3 1749.6 0.687864 -0.434704 0.58127 
258.783 -1544.91 2076.27 0.687864 -0.434704 0.58127 
283.781 -1775.14 1874.94 0.687864 -0.434704 0.58127 
362.429 -1600.91 1912.09 0.687864 -0.434704 0.58127 
608.917 -1495.58 1699.6 0.687864 -0.434704 0.58127 
627.53 -1617.64 1586.53 0.687864 -0.434704 0.58127 
475.542 -1948.54 1519.09 0.687864 -0.434704 0.58127 
483.412 -1876.29 1563.71 0.687864 -0.434704 0.58127 
478.117 -1770.69 1648.77 0.687864 -0.434704 0.58127 
428.812 -1817.09 1672.37 0.687864 -0.434704 0.58127 
572.51 -1835.98 1488.57 0.687864 -0.434704 0.58127 
245.839 -1660.17 2005.55 0.687864 -0.434704 0.58127 
531.325 -1652.39 1674.21 0.687864 -0.434704 0.58127 
532.65 -1574.21 1730.99 0.687864 -0.434704 0.58127 
587.771 -1772.93 1517.6 0.687864 -0.434704 0.58127 
251.719 -1565.05 2069.59 0.687864 -0.434704 0.58127 
337.065 -1775.13 1812.03 0.687864 -0.434704 0.58127 
331.533 -1557.38 1981.06 0.687864 -0.434704 0.58127 
342.242 -1873.99 1732.14 0.687864 -0.434704 0.58127 
365.28 -1515.31 1972.59 0.687864 -0.434704 0.58127 
387.837 -1739.48 1778.67 0.687864 -0.434704 0.58127 
-605.525 -1661.95 1705.18 -0.717169 -0.296815 0.630531 
-289.538 -2412.07 1714.37 -0.717169 -0.296815 0.630531 
-544.514 -1907.55 1659.66 -0.717169 -0.296815 0.630531 
-710.445 -1912.5 1467.61 -0.717169 -0.296815 0.630531 
-736.4 -2051.18 1372.83 -0.717169 -0.296815 0.630531 
-675.07 -1560.6 1673.24 -0.717169 -0.296815 0.630531 
-339.791 -2223.69 1745.34 -0.717169 -0.296815 0.630531 
-714.949 -1434.93 1686.63 -0.717169 -0.296815 0.630531 
-714.256 -2063.4 1392.42 -0.717169 -0.296815 0.630531 
-672.515 -1552.63 1679.9 -0.717169 -0.296815 0.630531 
-309.129 -2281.3 1753.35 -0.717169 -0.296815 0.630531 
-697.743 -1357.19 1742.79 -0.717169 -0.296815 0.630531 
-401.724 -2295.64 1640.75 -0.717169 -0.296815 0.630531 
-704 -1756.63 1548.14 -0.717169 -0.296815 0.630531 
-702.967 -1703.23 1574.39 -0.717169 -0.296815 0.630531 
-213.616 -2417.15 1798.8 -0.717169 -0.296815 0.630531 
-445.096 -1935.09 1760.41 -0.717169 -0.296815 0.630531 
-695.552 -2081.58 1405.27 -0.717169 -0.296815 0.630531 
-541.143 -2081.9 1581.67 -0.717169 -0.296815 0.630531 
-700.591 -1942.29 1464.89 -0.717169 -0.296815 0.630531 
-361.084 -2195.01 1734.46 -0.717169 -0.296815 0.630531 
-312.923 -2347.6 1717.89 -0.717169 -0.296815 0.630531 
-667.271 -1444.21 1736.79 -0.717169 -0.296815 0.630531 
-334.693 -2156.26 1782.82 -0.717169 -0.296815 0.630531 
-380.474 -2154.24 1731.42 -0.717169 -0.296815 0.630531 
-651.894 -1418.64 1766.37 -0.717169 -0.296815 0.630531 
-325.431 -2341.13 1706.63 -0.717169 -0.296815 0.630531 
-777.505 -1627.01 1524.94 -0.717169 -0.296815 0.630531 
-698.01 -1906.08 1484.84 -0.717169 -0.296815 0.630531 
-273.731 -2332.54 1769.78 -0.717169 -0.296815 0.630531 
-630.646 -1559.76 1724.43 -0.717169 -0.296815 0.630531 
-734.497 -1872.63 1458.82 -0.717169 -0.296815 0.630531 
-480.96 -1534.99 1907.2 -0.717169 -0.296815 0.630531 
-393.302 -1589.82 1981.69 -0.717169 -0.296815 0.630531 
-536.142 -1622.09 1803.23 -0.717169 -0.296815 0.630531 
-137.921 -2036.74 2063.91 -0.717169 -0.296815 0.630531 
-319.813 -1793.38 1970.17 -0.717169 -0.296815 0.630531 
-184.72 -2201.5 1933.06 -0.717169 -0.296815 0.630531 
-270.814 -2217.38 1827.17 -0.717169 -0.296815 0.630531 
-618.605 -1474.5 1778.21 -0.717169 -0.296815 0.630531 
-176.808 -2002.12 2035.7 -0.717169 -0.296815 0.630531 
-426.46 -1894.68 1800.68 -0.717169 -0.296815 0.630531 
-147.556 -2202.51 1975.08 -0.717169 -0.296815 0.630531 
-125.763 -2009.01 2090.83 -0.717169 -0.296815 0.630531 
-285.217 -2028.25 1899.48 -0.717169 -0.296815 0.630531 
-645.05 -1344.1 1809.19 -0.717169 -0.296815 0.630531 
-474.911 -1788.59 1795.08 -0.717169 -0.296815 0.630531 
-211.58 -2031.86 1981.98 -0.717169 -0.296815 0.630531 
-314.379 -1740.3 2001.3 -0.717169 -0.296815 0.630531 
-181.784 -2140.58 1965.01 -0.717169 -0.296815 0.630531 
-357.34 -1742.39 1951.2 -0.717169 -0.296815 0.630531 
-104.806 -2031.01 2104.47 -0.717169 -0.296815 0.630531 
-426.475 -1443.07 2012.65 -0.717169 -0.296815 0.630531 
-174.109 -1689.61 2185.47 -0.717169 -0.296815 0.630531 
-195.231 -1878.26 2072.77 -0.717169 -0.296815 0.630531 
-113.974 -1712.36 2243.56 -0.717169 -0.296815 0.630531 
-107.239 -1738.52 2238.98 -0.717169 -0.296815 0.630531 
-234.612 -1717.01 2103.44 -0.717169 -0.296815 0.630531 
-211.327 -2103.37 1948.7 -0.717169 -0.296815 0.630531 
-554.05 -1523.15 1829.19 -0.717169 -0.296815 0.630531 
-143.218 -2370.29 1901.29 -0.717169 -0.296815 0.630531 
-263.038 -2147.18 1869.01 -0.717169 -0.296815 0.630531 
-603.7 -1410.76 1825.18 -0.717169 -0.296815 0.630531 
-634.198 -1379.8 1804.84 -0.717169 -0.296815 0.630531 
295.167 -1801.16 1079.81 0.718621 0.297416 -0.628592 
629.139 -1746.95 1487.12 0.718621 0.297416 -0.628592 
388.628 -1758.33 1206.78 0.718621 0.297416 -0.628592 
643.577 -1454.45 1640.93 0.718621 0.297416 -0.628592 
619.967 -1648.29 1522.94 0.718621 0.297416 -0.628592 
383.612 -2068.05 1055.66 0.718621 0.297416 -0.628592 
182.855 -1778.2 962.171 0.718621 0.297416 -0.628592 
161.187 -1762.61 944.713 0.718621 0.297416 -0.628592 
499.747 -1721.23 1351.25 0.718621 0.297416 -0.628592 
317.473 -1835.65 1089.13 0.718621 0.297416 -0.628592 
578.803 -1624.87 1486.87 0.718621 0.297416 -0.628592 
373.896 -1776.6 1181.36 0.718621 0.297416 -0.628592 
494.031 -2043.22 1193.57 0.718621 0.297416 -0.628592 
427.324 -1516.43 1364.57 0.718621 0.297416 -0.628592 
603.683 -1628.68 1513.53 0.718621 0.297416 -0.628592 
655.802 -1521.39 1623.48 0.718621 0.297416 -0.628592 
363.67 -1857.69 1131.6 0.718621 0.297416 -0.628592 
560.742 -2102.67 1241.94 0.718621 0.297416 -0.628592 
166.066 -1845.83 911.228 0.718621 0.297416 -0.628592 
325.941 -1666.07 1178.41 0.718621 0.297416 -0.628592 
352.96 -1951.16 1075.48 0.718621 0.297416 -0.628592 
198.289 -1856.67 942.988 0.718621 0.297416 -0.628592 
147.805 -1903.81 863.134 0.718621 0.297416 -0.628592 
104.99 -1832.75 847.536 0.718621 0.297416 -0.628592 
501.846 -1510.79 1452.43 0.718621 0.297416 -0.628592 
500.179 -2027.28 1208.08 0.718621 0.297416 -0.628592 
11.6595 -1805.33 753.695 0.718621 0.297416 -0.628592 
525.934 -1745.48 1369.81 0.718621 0.297416 -0.628592 
153.122 -1870.8 884.707 0.718621 0.297416 -0.628592 
292.041 -1650.42 1146.99 0.718621 0.297416 -0.628592 
218.178 -1936.47 928.268 0.718621 0.297416 -0.628592 
410.968 -2047.12 1096.77 0.718621 0.297416 -0.628592 
563.094 -1314.05 1614.81 0.718621 0.297416 -0.628592 
247.171 -1247.67 1284.74 0.718621 0.297416 -0.628592 
268.267 -1198.06 1332.15 0.718621 0.297416 -0.628592 
310.034 -1291.91 1335.85 0.718621 0.297416 -0.628592 
435.591 -1230.97 1508.02 0.718621 0.297416 -0.628592 
383.805 -1301.05 1415.91 0.718621 0.297416 -0.628592 
117.311 -1280.72 1120.75 0.718621 0.297416 -0.628592 
-63.196 -1675.83 728.892 0.718621 0.297416 -0.628592 
-64.1544 -1725.45 704.505 0.718621 0.297416 -0.628592 
643.691 -1358.52 1686.09 0.718621 0.297416 -0.628592 
56.8183 -1677.51 865.325 0.718621 0.297416 -0.628592 
251.649 -1390.45 1222.84 0.718621 0.297416 -0.628592 
142.338 -1372.54 1106.26 0.718621 0.297416 -0.628592 
-19.7986 -1063.44 1065.97 0.718621 0.297416 -0.628592 
238.699 -1589.4 1114.65 0.718621 0.297416 -0.628592 
365.746 -1262.02 1413.58 0.718621 0.297416 -0.628592 
159.243 -1629.04 1005.19 0.718621 0.297416 -0.628592 
313.625 -1302.69 1334.9 0.718621 0.297416 -0.628592 
408.202 -1414.67 1390.47 0.718621 0.297416 -0.628592 
29.1423 -1270.96 1024.52 0.718621 0.297416 -0.628592 
139.443 -1055.85 1251.61 0.718621 0.297416 -0.628592 
123.026 -1502.13 1023.35 0.718621 0.297416 -0.628592 
-0.999542 -1557.92 855.352 0.718621 0.297416 -0.628592 
46.4372 -1008.87 1167.32 0.718621 0.297416 -0.628592 
114.401 -1112.14 1196.55 0.718621 0.297416 -0.628592 
47.6602 -1345.28 1010.8 0.718621 0.297416 -0.628592 
201.512 -1380.2 1170.33 0.718621 0.297416 -0.628592 
172.881 -1424.76 1116.67 0.718621 0.297416 -0.628592 
5.00351 -1305.76 980.581 0.718621 0.297416 -0.628592 
565.587 -1339.17 1605.87 0.718621 0.297416 -0.628592 
-11.0825 -1104.84 1056.5 0.718621 0.297416 -0.628592 
19.3039 -1952.43 865.187 -0.101642 -0.851786 -0.513935 
96.2061 -1997.68 924.771 -0.101642 -0.851786 -0.513935 
41.166 -2189.08 1251.65 -0.101642 -0.851786 -0.513935 
-42.7963 -2018.13 985.875 -0.101642 -0.851786 -0.513935 
-34.5498 -2372.16 1568.86 -0.101642 -0.851786 -0.513935 
68.3104 -2049.51 1015.85 -0.101642 -0.851786 -0.513935 
138.588 -2215.22 1275.66 -0.101642 -0.851786 -0.513935 
-65.4559 -2220.89 1325.16 -0.101642 -0.851786 -0.513935 
408.104 -2239.02 1261.95 -0.101642 -0.851786 -0.513935 
59.0754 -2418.46 1626.91 -0.101642 -0.851786 -0.513935 
-9.22797 -2173.7 1236.17 -0.101642 -0.851786 -0.513935 
10.2953 -1940.6 847.416 -0.101642 -0.851786 -0.513935 
127.769 -2284.29 1391.84 -0.101642 -0.851786 -0.513935 
3.48523 -2055.93 1039.2 -0.101642 -0.851786 -0.513935 
-2.36102 -2288.12 1423.77 -0.101642 -0.851786 -0.513935 
-117.604 -1919.61 837.912 -0.101642 -0.851786 -0.513935 
272.915 -2229.22 1272.35 -0.101642 -0.851786 -0.513935 
146.666 -1990.28 902.632 -0.101642 -0.851786 -0.513935 
12.7657 -1979.85 911.74 -0.101642 -0.851786 -0.513935 
302.417 -2232.99 1272.78 -0.101642 -0.851786 -0.513935 
-12.3676 -2026.89 994.371 -0.101642 -0.851786 -0.513935 
147.19 -2352.06 1499.93 -0.101642 -0.851786 -0.513935 
67.9783 -1983.71 907.261 -0.101642 -0.851786 -0.513935 
272.82 -2139.34 1123.96 -0.101642 -0.851786 -0.513935 
-87.9243 -1994.5 955.736 -0.101642 -0.851786 -0.513935 
93.8851 -2075.04 1052.97 -0.101642 -0.851786 -0.513935 
-113.17 -2017.08 997.997 -0.101642 -0.851786 -0.513935 
461.194 -2156.41 1115.1 -0.101642 -0.851786 -0.513935 
309.245 -2300.2 1382.42 -0.101642 -0.851786 -0.513935 
-45.2401 -2166.71 1231.71 -0.101642 -0.851786 -0.513935 
295.156 -2245.8 1295.37 -0.101642 -0.851786 -0.513935 
-332.291 -1949.55 929.567 -0.101642 -0.851786 -0.513935 
-575.591 -2177.62 1354.03 -0.101642 -0.851786 -0.513935 
-588.476 -2060.5 1163.17 -0.101642 -0.851786 -0.513935 
-245.472 -2079.52 1127.12 -0.101642 -0.851786 -0.513935 
-553.76 -2228.77 1434.2 -0.101642 -0.851786 -0.513935 
-515.99 -1979.79 1015.65 -0.101642 -0.851786 -0.513935 
-158.895 -1940.8 881.016 -0.101642 -0.851786 -0.513935 
-430.28 -2162.08 1299.8 -0.101642 -0.851786 -0.513935 
-282.377 -2417.65 1692.73 -0.101642 -0.851786 -0.513935 
-409.774 -1946.79 940.258 -0.101642 -0.851786 -0.513935 
-397.143 -2122.5 1227.92 -0.101642 -0.851786 -0.513935 
-414.095 -2314.31 1547.99 -0.101642 -0.851786 -0.513935 
-446.938 -2032.77 1089.54 -0.101642 -0.851786 -0.513935 
-336.883 -2248.13 1423.52 -0.101642 -0.851786 -0.513935 
-266.839 -2209.59 1346.1 -0.101642 -0.851786 -0.513935 
-135.112 -2090.55 1123.62 -0.101642 -0.851786 -0.513935 
-296.937 -2340.96 1568.96 -0.101642 -0.851786 -0.513935 
-557.211 -2076.39 1183.26 -0.101642 -0.851786 -0.513935 
-452.35 -2305.13 1540.35 -0.101642 -0.851786 -0.513935 
-161.936 -2131.31 1196.21 -0.101642 -0.851786 -0.513935 
-630.567 -2162.53 1339.93 -0.101642 -0.851786 -0.513935 
-563.511 -2182.37 1359.5 -0.101642 -0.851786 -0.513935 
-268.227 -2200.22 1330.91 -0.101642 -0.851786 -0.513935 
-250.656 -1977.19 959.156 -0.101642 -0.851786 -0.513935 
-476.743 -2239.73 1437.15 -0.101642 -0.851786 -0.513935 
-144.91 -2308.05 1484.71 -0.101642 -0.851786 -0.513935 
-213.938 -2425.58 1692.36 -0.101642 -0.851786 -0.513935 
-728.722 -2041.41 1159.23 -0.101642 -0.851786 -0.513935 
-446.872 -2289.27 1513.09 -0.101642 -0.851786 -0.513935 
-423.839 -2080.45 1163.74 -0.101642 -0.851786 -0.513935 
-248.637 -2184.49 1301.08 -0.101642 -0.851786 -0.513935 
-65.8768 -1466.09 2019.32 0.104729 0.850745 0.515038 
-72.0742 -1567.14 2187.4 0.104729 0.850745 0.515038 
-120.357 -1502.72 2090.53 0.104729 0.850745 0.515038 
-157.123 -1444.45 2001.53 0.104729 0.850745 0.515038 
-195.697 -1395.87 1928.9 0.104729 0.850745 0.515038 
-253.547 -1391.43 1932.95 0.104729 0.850745 0.515038 
-214.587 -1395.74 1932.41 0.104729 0.850745 0.515038 
-218.899 -1508.67 2119.73 0.104729 0.850745 0.515038 
-325.648 -1487 2104.93 0.104729 0.850745 0.515038 
-303.646 -1493.78 2111.81 0.104729 0.850745 0.515038 
-312.4 -1487.34 2102.9 0.104729 0.850745 0.515038 
-585.713 -1274.41 1805.04 0.104729 0.850745 0.515038 
-540.542 -1261.06 1774.11 0.104729 0.850745 0.515038 
-337.414 -1300.8 1799.78 0.104729 0.850745 0.515038 
-287.647 -1324.04 1828.38 0.104729 0.850745 0.515038 
452.221 -1376.56 1769.58 0.104729 0.850745 0.515038 
237.888 -1429.63 1899.38 0.104729 0.850745 0.515038 
247.806 -1490.14 1997.34 0.104729 0.850745 0.515038 
383.744 -1420.11 1854.95 0.104729 0.850745 0.515038 
246.769 -1532.87 2068.09 0.104729 0.850745 0.515038 
296.524 -1472.25 1958.21 0.104729 0.850745 0.515038 
53.9528 -1549.09 2132.82 0.104729 0.850745 0.515038 
106.102 -1539.09 2106.04 0.104729 0.850745 0.515038 
26.6392 -1625.87 2264.97 0.104729 0.850745 0.515038 
413.803 -1353.97 1739.84 0.104729 0.850745 0.515038 
-498.979 -1236.21 1724.91 0.104729 0.850745 0.515038 
-258.629 -1220.05 1650.94 0.104729 0.850745 0.515038 
-469.249 -1223.16 1697.5 0.104729 0.850745 0.515038 
-391.885 -1211.65 1663.29 0.104729 0.850745 0.515038 
630.773 -1358.55 1704.73 0.104729 0.850745 0.515038 
229.718 -1237.1 1583.05 0.104729 0.850745 0.515038 
196.74 -1224.86 1569.33 0.104729 0.850745 0.515038 
155.13 -1101.48 1373.77 0.104729 0.850745 0.515038 
534.828 -1329.03 1674.85 0.104729 0.850745 0.515038 
27.1192 -996.081 1224.91 0.104729 0.850745 0.515038 
258.365 -1115.21 1376.14 0.104729 0.850745 0.515038 
208.958 -1204.97 1534.08 0.104729 0.850745 0.515038 
78.8449 -1000.65 1222.27 0.104729 0.850745 0.515038 
21.9462 -1024.49 1272.84 0.104729 0.850745 0.515038 
24.6324 -1133.33 1452.03 0.104729 0.850745 0.515038 
-49.9672 -1058.92 1343.83 0.104729 0.850745 0.515038 
-40.996 -1010.74 1262.51 0.104729 0.850745 0.515038 
-232.075 -1148.5 1527.57 0.104729 0.850745 0.515038 
-271.29 -1178.1 1584.16 0.104729 0.850745 0.515038 
-240.787 -1050.19 1366.95 0.104729 0.850745 0.515038 
-500.018 -1136.34 1560.19 0.104729 0.850745 0.515038 
-204.583 -1183.48 1579.93 0.104729 0.850745 0.515038 
-299.096 -1158.19 1556.75 0.104729 0.850745 0.515038 
-616.577 -1219.42 1720.3 0.104729 0.850745 0.515038 
-307.386 -1141.75 1531.24 0.104729 0.850745 0.515038 
-205.229 -1336.2 1062 -0.686533 0.433862 -0.58347 
-302.222 -1569.26 1002.63 -0.686533 0.433862 -0.58347 
-464.605 -1842.88 990.202 -0.686533 0.433862 -0.58347 
-365.084 -1591.29 1060.42 -0.686533 0.433862 -0.58347 
-117.728 -1093.58 1139.72 -0.686533 0.433862 -0.58347 
-302.267 -1800.75 829.929 -0.686533 0.433862 -0.58347 
-227.314 -1589.73 898.886 -0.686533 0.433862 -0.58347 
-125.837 -1710.73 688.751 -0.686533 0.433862 -0.58347 
-244.278 -1786.54 772.048 -0.686533 0.433862 -0.58347 
-667.775 -1947.26 1152.24 -0.686533 0.433862 -0.58347 
-32.1737 -1072.66 1054.29 -0.686533 0.433862 -0.58347 
-208.394 -1743.38 761.877 -0.686533 0.433862 -0.58347 
-582.929 -1822.71 1144.98 -0.686533 0.433862 -0.58347 
-551.676 -1964.65 1002.15 -0.686533 0.433862 -0.58347 
-272.563 -1419.09 1079.66 -0.686533 0.433862 -0.58347 
-344.92 -1616.7 1017.64 -0.686533 0.433862 -0.58347 
-44.211 -1078.75 1063.97 -0.686533 0.433862 -0.58347 
-657.734 -1916.34 1163.46 -0.686533 0.433862 -0.58347 
-499.726 -1669.37 1161.16 -0.686533 0.433862 -0.58347 
-217.588 -1235.49 1151.75 -0.686533 0.433862 -0.58347 
-142.227 -1600.07 790.686 -0.686533 0.433862 -0.58347 
-198.144 -1362.81 1033.78 -0.686533 0.433862 -0.58347 
-530.936 -1929.22 1004.1 -0.686533 0.433862 -0.58347 
-483.685 -1726.72 1099.41 -0.686533 0.433862 -0.58347 
-184.851 -1406.59 985.403 -0.686533 0.433862 -0.58347 
-419.717 -1854.41 928.584 -0.686533 0.433862 -0.58347 
-280.256 -1667.3 903.521 -0.686533 0.433862 -0.58347 
-86.271 -1100.58 1097.35 -0.686533 0.433862 -0.58347 
-172.025 -1731.07 728.113 -0.686533 0.433862 -0.58347 
-348.581 -1868.24 834.258 -0.686533 0.433862 -0.58347 
-183.367 -1697.66 766.442 -0.686533 0.433862 -0.58347 
-206.078 -1126.43 1219.54 -0.686533 0.433862 -0.58347 
-797.637 -1808.39 1409.23 -0.686533 0.433862 -0.58347 
-429.765 -1222.71 1411.86 -0.686533 0.433862 -0.58347 
-663.029 -1617.81 1392.48 -0.686533 0.433862 -0.58347 
-322.366 -1073.92 1396.06 -0.686533 0.433862 -0.58347 
-236.721 -1163.31 1228.2 -0.686533 0.433862 -0.58347 
-566.172 -1656.46 1249.26 -0.686533 0.433862 -0.58347 
-145.112 -1018.73 1227.92 -0.686533 0.433862 -0.58347 
-133.061 -1035.39 1201.25 -0.686533 0.433862 -0.58347 
-284.246 -1213.55 1246.84 -0.686533 0.433862 -0.58347 
-690.547 -1705.18 1359.78 -0.686533 0.433862 -0.58347 
-444.562 -1394.89 1300.84 -0.686533 0.433862 -0.58347 
-237.553 -1165 1227.93 -0.686533 0.433862 -0.58347 
-585.343 -1703.65 1236.69 -0.686533 0.433862 -0.58347 
-746.078 -1602.04 1502.33 -0.686533 0.433862 -0.58347 
-794.809 -1925.2 1318.72 -0.686533 0.433862 -0.58347 
-237.153 -1079.99 1290.89 -0.686533 0.433862 -0.58347 
-718.062 -1743.36 1363.78 -0.686533 0.433862 -0.58347 
-271.452 -1062.36 1344.55 -0.686533 0.433862 -0.58347 
-336.727 -1142.4 1361.91 -0.686533 0.433862 -0.58347 
-26.9041 -949.356 1140.09 -0.686533 0.433862 -0.58347 
-705.098 -1524.29 1511.95 -0.686533 0.433862 -0.58347 
-705.978 -1563.45 1483.77 -0.686533 0.433862 -0.58347 
-451.065 -1494.62 1234.1 -0.686533 0.433862 -0.58347 
-245.335 -1249.27 1174.24 -0.686533 0.433862 -0.58347 
-535.377 -1513.23 1319.78 -0.686533 0.433862 -0.58347 
-639.578 -1342.24 1570.44 -0.686533 0.433862 -0.58347 
-159.226 -1116.34 1171.74 -0.686533 0.433862 -0.58347 
-655.538 -1628.91 1375.35 -0.686533 0.433862 -0.58347 
-739.996 -1361.14 1674.92 -0.686533 0.433862 -0.58347 
-310.288 -1307.97 1207.13 -0.686533 0.433862 -0.58347 
227.222 -510.789 2005.79 0.679691 0.319568 -0.660225 
203.411 -651.277 1913.55 0.649308 0.336859 -0.681854 
202.096 -478.295 1999.03 0.584888 0.368627 -0.722509 
110.656 -1132.08 1593.04 0.518415 0.397397 -0.75718 
127.272 -476.363 1958.64 0.302268 0.471412 -0.828495 
72.6852 -713.927 1807.43 0.193082 0.492434 -0.848663 
60.9557 -699.258 1813.76 0.151136 0.500362 -0.852523 
76.2161 -488.991 1939.8 0.107776 0.507266 -0.855024 
-20.252 -1150.74 1537.87 0.03154 0.51424 -0.857066 
0.285004 -936.963 1667.24 -0.00673298 0.518439 -0.855088 
58.606 -441.093 1967.53 -0.00673298 0.518439 -0.855088 
5.98297 -592.183 1878.76 -0.123923 0.526307 -0.841216 
-10.7325 -567.923 1897.58 -0.205372 0.524841 -0.826054 
-63.0733 -879.184 1713.68 -0.280639 0.518947 -0.807425 
-27.9001 -495.188 1950.15 -0.317219 0.521259 -0.792251 
-77.1522 -862.892 1729.7 -0.355792 0.513564 -0.78081 
-119.09 -1135.52 1568.98 -0.392043 0.509168 -0.766192 
-52.7063 -490.667 1965 -0.429433 0.505118 -0.748628 
-55.1008 -519.136 1947.19 -0.429433 0.505118 -0.748628 
-117.884 -724.206 1849.74 -0.565135 0.477933 -0.67246 
-118.88 -751.139 1831.58 -0.565135 0.477933 -0.67246 
-131.787 -783.532 1819.94 -0.595662 0.46814 -0.652711 
-128.735 -737.758 1849.86 -0.628697 0.457691 -0.628697 
-103.187 -311.037 2136.52 -0.716963 0.42223 -0.554694 
-188.128 -1033.33 1697.72 -0.716963 0.42223 -0.554694 
-151.093 -646.321 1944.36 -0.740708 0.412234 -0.530485 
-197.842 -986.305 1747.94 -0.766744 0.398837 -0.503023 
-178.758 -720.555 1931.16 -0.837592 0.35358 -0.416439 
-152.37 -490.694 2072.35 -0.837592 0.35358 -0.416439 
-249.039 -1146.32 1722.61 -0.927554 0.268465 -0.259942 
-155.935 -365.406 2195.2 -0.927554 0.268465 -0.259942 
-250.065 -1123.19 1750.66 -0.939695 0.254009 -0.229025 
-175.961 -486.286 2143.72 -0.952623 0.233103 -0.195375 
-229.019 -894.031 1922.05 -0.973185 0.193122 -0.124961 
-211.787 -729.781 2044.08 -0.98611 0.153969 -0.062293 
-266.65 -1185.84 1777.65 -0.990669 0.133813 -0.0258631 
-222.905 -817.55 2005.21 -0.990669 0.133813 -0.0258631 
-219.07 -792.078 2054.2 -0.994393 0.0747748 0.0747748 
-247.356 -1055.78 1922.02 -0.988694 0.0307189 0.146768 
-171.468 -427.65 2308.85 -0.983552 0.0126244 0.180184 
-193.819 -699.611 2186.17 -0.948648 -0.0739712 0.307564 
-248.541 -1218.3 1892.65 -0.936374 -0.0948396 0.337949 
-220.244 -968.057 2040.03 -0.936374 -0.0948396 0.337949 
-230.812 -1089.58 1976.65 -0.921478 -0.111237 0.372162 
-138.447 -424.733 2408.17 -0.87191 -0.171451 0.458669 
-231.12 -1259.49 1915.05 -0.851985 -0.193156 0.486634 
-181.286 -961.401 2118.43 -0.808035 -0.230205 0.542295 
-193.646 -1291.51 1952.33 -0.707238 -0.301261 0.639575 
-163.044 -1097.21 2077.8 -0.676482 -0.319585 0.663504 
-160.005 -1362.06 1947.17 -0.551743 -0.381472 0.74166 
-89.4518 -770.278 2305.59 -0.551743 -0.381472 0.74166 
-135.447 -1262.63 2016.05 -0.48753 -0.409265 0.771244 
-68.9594 -1146.65 2112.04 -0.301144 -0.466539 0.831657 
-18.9019 -833.294 2305.82 -0.229922 -0.482683 0.845076 
20.5857 -561.556 2472.31 -0.229922 -0.482683 0.845076 
-18.996 -928.577 2251.01 -0.186832 -0.491743 0.85046 
-20.4827 -1014.08 2201.08 -0.148112 -0.497128 0.854943 
50.5635 -563.513 2476.57 -0.110504 -0.503727 0.856766 
-32.3025 -1365.07 1992.15 -0.03154 -0.51424 0.857066 
97.4495 -909.774 2258.28 0.242818 -0.521208 0.818157 
107.219 -767.098 2346.82 0.242818 -0.521208 0.818157 
143.06 -578.589 2456.75 0.280639 -0.518947 0.807425 
129.676 -837.336 2293.1 0.355792 -0.513564 0.78081 
89.225 -1076.83 2153.05 0.316942 -0.517619 0.794744 
152.386 -739.035 2347.3 0.392043 -0.509168 0.766192 
134.808 -1008.47 2175.89 0.464599 -0.497666 0.732446 
172.445 -953.814 2185.87 0.597445 -0.463564 0.654345 
197.406 -828.383 2252.41 0.627372 -0.456727 0.630718 
230.075 -529.54 2436.3 0.627372 -0.456727 0.630718 
180.728 -1078 2087.3 0.687864 -0.434704 0.58127 
225.975 -777.783 2257.44 0.715646 -0.421454 0.556981 
198.091 -991.596 2131.07 0.715646 -0.421454 0.556981 
258.367 -660.537 2301 0.790847 -0.381733 0.478374 
267.711 -746.515 2208.35 0.877193 -0.320776 0.357262 
292.119 -622.119 2254.65 0.928258 -0.265826 0.26014 
239.33 -1073.62 1977.72 0.928258 -0.265826 0.26014 
304.884 -579.297 2245.05 0.963693 -0.213137 0.160834 
251.015 -1028.48 1975.21 0.963693 -0.213137 0.160834 
321.819 -443.464 2322.1 0.972875 -0.193061 0.127445 
240.453 -1140.23 1886.29 0.980661 -0.171768 0.0938024 
290.25 -733.816 2110.2 0.991005 -0.131311 0.0258133 
240.651 -1149.09 1835.17 0.99486 -0.0916464 -0.0430628 
231.683 -1206.99 1773.83 0.992988 -0.0506053 -0.106833 
317.358 -478.066 2206.58 0.989071 -0.0306601 -0.144216 
229.522 -1212.71 1759.38 0.989071 -0.0306601 -0.144216 
311.455 -505.004 2174.08 0.984683 -0.00796854 -0.174169 
324.16 -367.717 2240.63 0.969835 0.0327729 -0.241548 
251.446 -958.031 1873.81 0.959783 0.05409 -0.275482 
214.23 -1205.24 1699.5 0.936043 0.0950774 -0.338797 
209.129 -1206.33 1685.78 0.921193 0.113948 -0.372047 
295.345 -430.936 2141.03 0.907516 0.133665 -0.398181 
216.854 -1079.01 1745.8 0.88974 0.1538 -0.429777 
233.26 -887.88 1848.79 0.872638 0.174528 -0.456118 
221.518 -882.355 1830.51 0.830658 0.214904 -0.513637 
219.392 -730.43 1893.84 0.760784 0.270466 -0.589963 
261.81 -350.549 2120.34 0.732652 0.285718 -0.617726 
285.117 -213.648 2306.03 0.906733 0.365875 -0.209691 
280.532 -182.56 2341.55 0.925063 0.338301 -0.17266 
300.221 -303.306 2400.76 0.957663 0.062318 0.281067 
281.263 -359.978 2440.79 0.837326 -0.0813076 0.540624 
280.211 -200.795 2446.36 0.957663 0.062318 0.281067 
169.865 -464.217 2509.49 0.346727 -0.244318 0.905587 
268.474 -213.973 2479 0.910214 -0.0117531 0.413971 
136.637 -379.237 2542.94 0.197261 -0.248957 0.948213 
-142.579 -393.759 2407.16 -0.836765 0.120785 0.534074 
92.9706 -281.331 2572.79 -0.0204369 -0.241636 0.970152 
-28.3661 -321.277 2524.92 -0.560297 -0.0845461 0.823966 
-18.393 -276.052 2536.44 -0.560297 -0.0845461 0.823966 
-79.7171 -285.278 2478.34 -0.771226 0.0527456 0.634373 
-158.973 -317.462 2300.73 -0.9123 0.39297 0.115253 
53.6771 -192.063 2586.01 -0.328931 -0.174963 0.928005 
-11.7171 -163.752 2548.79 -0.708486 0.00138106 0.705724 
-56.0855 -186.425 2494.94 -0.84591 0.135872 0.515728 
5.62524 -141.467 2224.69 -0.385653 0.733561 -0.559607 
135.341 -161.017 2183.44 0.237651 0.716101 -0.656294 
224.937 -237.936 2160.02 0.576815 0.607262 -0.546367 
181.233 -128.743 2241.26 0.435633 0.662629 -0.609218 
-12.9009 -143.002 2540.76 0.104729 0.850745 0.515038 
74.9229 -31.5049 2339.37 0.104729 0.850745 0.515038 
33.0486 -116.081 2487.27 0.104729 0.850745 0.515038 
12.6528 -77.9265 2428.28 0.104729 0.850745 0.515038 
117.156 -63.1011 2383.24 0.104729 0.850745 0.515038 
218.443 -135.897 2483.53 0.104729 0.850745 0.515038 
