ply
format ascii 1.0
comment Created by CloudCompare v2.11.3 (Anoia)
comment Created 07/09/2022 23:59
obj_info Generated by CloudCompare!
element vertex 511
property float x
property float y
property float z
property float nx
property float ny
property float nz
end_header
768.09 1334.74 618.822 0.276411 -0.785007 -0.554401 
724.199 1447.77 438.605 0.276411 -0.785007 -0.554401 
826.424 1219.7 809.034 0.276411 -0.785007 -0.554401 
821.684 1247.81 767.282 0.276411 -0.785007 -0.554401 
663.427 1405.74 467.247 0.276411 -0.785007 -0.554401 
727.399 1377.92 538.068 0.276411 -0.785007 -0.554401 
702.947 1379.87 523.156 0.276411 -0.785007 -0.554401 
708.744 1356.3 559.065 0.276411 -0.785007 -0.554401 
780.643 1303.38 669.008 0.276411 -0.785007 -0.554401 
779.937 1276.64 706.11 0.276411 -0.785007 -0.554401 
754.808 1441.14 463.139 0.276411 -0.785007 -0.554401 
946.071 1071.22 1076.62 0.276411 -0.785007 -0.554401 
1023.64 1042.95 1154.84 0.276411 -0.785007 -0.554401 
997.547 1062.66 1114.24 0.276411 -0.785007 -0.554401 
952.607 1117 1015.73 0.276411 -0.785007 -0.554401 
778.237 1403.75 527.188 0.276411 -0.785007 -0.554401 
962.822 1076.98 1076.88 0.276411 -0.785007 -0.554401 
995.486 949.627 1271.57 0.276411 -0.785007 -0.554401 
1048.15 1004.76 1220.55 0.276411 -0.785007 -0.554401 
766.675 1415.38 505.139 0.276411 -0.785007 -0.554401 
742.19 1478.02 475.188 0.90682 0.405353 -0.115616 
895.776 1262.36 920.701 0.90682 0.405353 -0.115616 
933.81 1198.91 996.036 0.90682 0.405353 -0.115616 
1064.91 999.148 1321.71 0.90682 0.405353 -0.115616 
1054.95 1003.5 1259.35 0.90682 0.405353 -0.115616 
1011.37 1064.86 1133.47 0.90682 0.405353 -0.115616 
902.127 1231.39 862.341 0.90682 0.405353 -0.115616 
1073.51 1018.89 1457.45 0.90682 0.405353 -0.115616 
1084.32 983.121 1417.14 0.90682 0.405353 -0.115616 
988.908 1147.9 1247.61 0.90682 0.405353 -0.115616 
1011.83 1113.58 1306.65 0.90682 0.405353 -0.115616 
768.284 1471.35 655.237 0.90682 0.405353 -0.115616 
471.264 635.78 1505.84 0.316024 -0.47325 0.822291 
386.185 603.729 1520.2 0.316024 -0.47325 0.822291 
443.789 721.577 1565.91 0.316024 -0.47325 0.822291 
559.626 760.303 1543.52 0.316024 -0.47325 0.822291 
655.323 789.625 1523.48 0.316024 -0.47325 0.822291 
689.556 737.006 1479.92 0.316024 -0.47325 0.822291 
775.734 833.608 1502.34 0.316024 -0.47325 0.822291 
713.977 825.826 1521.7 0.316024 -0.47325 0.822291 
858.118 909.59 1514.35 0.316024 -0.47325 0.822291 
1027.36 909.471 1448.94 0.316024 -0.47325 0.822291 
1071.07 949.769 1455.29 0.316024 -0.47325 0.822291 
938.5 907.271 1481.97 0.316024 -0.47325 0.822291 
968.864 974.672 1347.42 -0.906323 -0.406379 0.115909 
1009 907.144 1424.93 -0.906323 -0.406379 0.115909 
815.401 1205.52 955.755 -0.906323 -0.406379 0.115909 
841.552 1164.46 1016.52 -0.906323 -0.406379 0.115909 
647.002 1460.19 530.705 -0.906323 -0.406379 0.115909 
658.853 1419 479.629 -0.906323 -0.406379 0.115909 
786.208 1223.91 792.387 -0.906323 -0.406379 0.115909 
978.717 936.772 1292.22 -0.906323 -0.406379 0.115909 
833.506 1157.2 928.573 -0.906323 -0.406379 0.115909 
708.655 1344.89 609.499 -0.906323 -0.406379 0.115909 
24.2873 1162.66 521.591 -0.319675 0.474 -0.820446 
5.33746 1264.5 587.627 -0.319675 0.474 -0.820446 
235.883 1361.04 554.278 -0.319675 0.474 -0.820446 
375.009 1367.23 504.132 -0.319675 0.474 -0.820446 
385.298 1342.19 485.718 -0.319675 0.474 -0.820446 
622.668 1533.29 504.254 -0.319675 0.474 -0.820446 
672.709 1450.52 437.212 -0.319675 0.474 -0.820446 
694.591 1495.53 454.719 -0.319675 0.474 -0.820446 
129.306 1291.76 555.478 -0.319675 0.474 -0.820446 
941.974 1002.48 1428.91 -0.279525 0.781723 0.557471 
787.465 1418.89 768.592 -0.279525 0.781723 0.557471 
989.751 988.879 1471.75 -0.279525 0.781723 0.557471 
795.393 1431.68 754.617 -0.279525 0.781723 0.557471 
888.592 1213.92 1106.1 -0.279525 0.781723 0.557471 
854.396 1244.22 1046.62 -0.279525 0.781723 0.557471 
847.234 1355.2 887.572 -0.279525 0.781723 0.557471 
906.6 1135.9 1224.37 -0.279525 0.781723 0.557471 
957.924 1171.56 1199.97 -0.279525 0.781723 0.557471 
1013.93 1022.59 1436.56 -0.279525 0.781723 0.557471 
905.358 1066.78 1320.6 -0.279525 0.781723 0.557471 
886.123 1299.97 984.323 -0.279525 0.781723 0.557471 
896.911 1090.76 1282.8 -0.279525 0.781723 0.557471 
757.953 1479.19 669.425 -0.279525 0.781723 0.557471 
877.647 1103.59 1255.23 -0.279525 0.781723 0.557471 
820.311 1259.51 1008.24 -0.279525 0.781723 0.557471 
736.118 1389.14 784.714 -0.279525 0.781723 0.557471 
754.71 1284.74 940.236 -0.279525 0.781723 0.557471 
786.489 1316.41 911.676 -0.279525 0.781723 0.557471 
711.11 1350.75 826.05 -0.279525 0.781723 0.557471 
790.76 1246.7 1011.47 -0.279525 0.781723 0.557471 
621.076 1474.74 607.507 -0.279525 0.781723 0.557471 
739.905 1319.4 884.303 -0.279525 0.781723 0.557471 
773.276 1383.16 811.581 -0.279525 0.781723 0.557471 
746.684 1394.61 782.313 -0.279525 0.781723 0.557471 
898.419 1037.66 1357.95 -0.279525 0.781723 0.557471 
808.534 1165.5 1134.08 -0.279525 0.781723 0.557471 
637.641 1545.95 515.995 -0.279525 0.781723 0.557471 
846.558 1263.02 797.785 -0.279525 0.781723 0.557471 
784.948 1395.09 582.072 -0.279525 0.781723 0.557471 
792.818 1340.42 662.586 -0.279525 0.781723 0.557471 
764.198 1314.81 684.219 -0.279525 0.781723 0.557471 
761.501 1372.36 602.254 -0.279525 0.781723 0.557471 
771.113 1307.93 697.308 -0.279525 0.781723 0.557471 
673.46 1454.12 615.488 0.316024 -0.47325 0.822291 
518.041 1387.75 637.23 0.316024 -0.47325 0.822291 
575.158 1401.57 623.145 0.316024 -0.47325 0.822291 
164.175 1223.33 679.053 0.316024 -0.47325 0.822291 
864.659 1251.37 890.337 -0.319675 0.474 -0.820446 
750.739 1310.4 862.885 0.276411 -0.785007 -0.554401 
796.423 1323.74 866.934 0.276411 -0.785007 -0.554401 
762.88 1345.43 819.85 0.276411 -0.785007 -0.554401 
788.52 1396.67 760.822 0.276411 -0.785007 -0.554401 
751.17 1266.81 924.172 0.276411 -0.785007 -0.554401 
694.396 1447.04 643.403 0.276411 -0.785007 -0.554401 
736.828 1482.08 615.434 0.276411 -0.785007 -0.554401 
717.843 1440.78 663.846 0.276411 -0.785007 -0.554401 
744.065 1484.77 615.27 0.276411 -0.785007 -0.554401 
746.612 1423.72 702.072 0.276411 -0.785007 -0.554401 
793.608 1270.65 928.882 -0.319675 0.474 -0.820446 
290.102 1049.44 995.741 -0.319675 0.474 -0.820446 
867.771 1152.79 1008.78 0.316024 -0.47325 0.822291 
866.29 1180.26 1025.2 0.316024 -0.47325 0.822291 
976.883 1117.58 1066.43 -0.279525 0.781723 0.557471 
1011.74 1002.11 1245.55 -0.279525 0.781723 0.557471 
1055.26 990.899 1282.93 -0.279525 0.781723 0.557471 
929.671 1147.37 1001.19 -0.279525 0.781723 0.557471 
917.333 1146.45 996.33 -0.279525 0.781723 0.557471 
913.222 1042.35 1140.14 -0.279525 0.781723 0.557471 
964.654 1017.26 1358.8 -0.319675 0.474 -0.820446 
553.191 837.191 1413.84 -0.319675 0.474 -0.820446 
490.634 798.693 1415.8 -0.319675 0.474 -0.820446 
910.621 1170.49 1138.5 0.276411 -0.785007 -0.554401 
882.598 1121.94 1192.56 0.276411 -0.785007 -0.554401 
850.349 1168.03 1111.93 0.276411 -0.785007 -0.554401 
888.229 1049.25 1297.2 0.276411 -0.785007 -0.554401 
927.307 1016.85 1362.05 0.276411 -0.785007 -0.554401 
993.296 1117.66 1253.67 0.276411 -0.785007 -0.554401 
962.002 1179.25 1151.81 0.276411 -0.785007 -0.554401 
973.13 1036.3 1357.62 0.276411 -0.785007 -0.554401 
963.717 1137.2 1211.57 0.276411 -0.785007 -0.554401 
865.982 1200.23 1036.83 0.316024 -0.47325 0.822291 
320.004 965.681 1112.39 0.316024 -0.47325 0.822291 
774.832 1207.83 1055.86 -0.906323 -0.406379 0.115909 
823.822 1133.9 1180.05 -0.906323 -0.406379 0.115909 
697.745 1319.36 843.693 -0.906323 -0.406379 0.115909 
907.829 939.931 1460.12 -0.279525 0.781723 0.557471 
552.944 1465.12 566.874 0.90682 0.405353 -0.115616 
598.805 1399.7 696.364 0.90682 0.405353 -0.115616 
632.245 1349.98 783.718 0.90682 0.405353 -0.115616 
694.969 1249.41 922.152 0.90682 0.405353 -0.115616 
758.035 1105.17 1193.47 -0.279525 0.781723 0.557471 
720.64 1110.27 1167.71 -0.279525 0.781723 0.557471 
716.355 1217.61 1015.19 -0.279525 0.781723 0.557471 
770.704 1043.98 1285.51 -0.279525 0.781723 0.557471 
802.553 967.11 1409.05 -0.279525 0.781723 0.557471 
813.537 965.176 1417.23 -0.279525 0.781723 0.557471 
808.605 1064.59 1275.49 -0.279525 0.781723 0.557471 
866.851 945.504 1471.33 -0.279525 0.781723 0.557471 
654.161 1293.06 878.522 -0.279525 0.781723 0.557471 
713.262 1129.02 1137.77 -0.279525 0.781723 0.557471 
611.304 1296.11 852.91 -0.279525 0.781723 0.557471 
573.496 1304.34 822.554 -0.279525 0.781723 0.557471 
518.736 1432.49 615.755 -0.279525 0.781723 0.557471 
456.525 1448.22 562.747 -0.279525 0.781723 0.557471 
543.957 1471.04 574.307 -0.279525 0.781723 0.557471 
652.71 1204.41 1002 -0.279525 0.781723 0.557471 
591.597 1287.96 854.516 -0.279525 0.781723 0.557471 
734.104 1032.52 1283.33 -0.279525 0.781723 0.557471 
618.938 1295.41 857.698 -0.279525 0.781723 0.557471 
561.807 1339.62 767.315 -0.279525 0.781723 0.557471 
491.671 1383.87 665.776 -0.906323 -0.406379 0.115909 
725.68 1030.91 1259.69 -0.906323 -0.406379 0.115909 
502.808 1363.33 681.005 -0.906323 -0.406379 0.115909 
452.762 1368.43 652.553 0.90682 0.405353 -0.115616 
450.06 1371.55 642.388 0.90682 0.405353 -0.115616 
630.977 1101.61 1111.79 0.90682 0.405353 -0.115616 
677.958 1028.24 1222.27 0.90682 0.405353 -0.115616 
712.17 866.125 1505.54 -0.279525 0.781723 0.557471 
720.276 865.566 1510.36 -0.279525 0.781723 0.557471 
570.178 1174.36 1003.01 -0.279525 0.781723 0.557471 
747.239 921.887 1444.88 -0.279525 0.781723 0.557471 
613.915 1093.15 1138.56 -0.279525 0.781723 0.557471 
692.823 860.783 1503.39 -0.279525 0.781723 0.557471 
609.258 1058.14 1185.29 -0.279525 0.781723 0.557471 
658.569 975.125 1326.15 -0.279525 0.781723 0.557471 
576.798 1105.67 1102.54 -0.279525 0.781723 0.557471 
676.084 1002.85 1296.02 -0.279525 0.781723 0.557471 
660.404 917.453 1407.86 -0.279525 0.781723 0.557471 
528.358 1169.63 988.819 -0.279525 0.781723 0.557471 
639.914 991.732 1293.59 -0.279525 0.781723 0.557471 
608.265 1060.05 1182.12 -0.279525 0.781723 0.557471 
471.371 1096.15 1063.4 -0.279525 0.781723 0.557471 
427.078 1327.02 717.892 -0.279525 0.781723 0.557471 
324.177 1371.68 604.098 -0.279525 0.781723 0.557471 
592.074 920.43 1369.67 -0.279525 0.781723 0.557471 
580.201 961.394 1306.37 -0.279525 0.781723 0.557471 
279.853 1381.69 568.01 -0.279525 0.781723 0.557471 
641.432 841.914 1504.24 -0.279525 0.781723 0.557471 
409.981 1418.94 580.601 -0.279525 0.781723 0.557471 
437.715 1338.61 706.955 -0.279525 0.781723 0.557471 
420.524 1245.93 828.231 -0.279525 0.781723 0.557471 
524.643 1103.21 1080.02 -0.279525 0.781723 0.557471 
440.075 1325.51 726.473 -0.279525 0.781723 0.557471 
433.175 1367.2 664.633 -0.279525 0.781723 0.557471 
428.928 1376.12 650.015 -0.279525 0.781723 0.557471 
648.217 818.969 1507.63 -0.906323 -0.406379 0.115909 
330.98 1293.81 689.76 -0.906323 -0.406379 0.115909 
574.657 934.192 1335.81 -0.906323 -0.406379 0.115909 
561.384 952.528 1296.26 -0.906323 -0.406379 0.115909 
558.554 954.176 1279.96 -0.906323 -0.406379 0.115909 
596.463 848.842 1432.73 -0.279525 0.781723 0.557471 
438.927 1066.15 1081.58 0.90682 0.405353 -0.115616 
585.667 846.86 1461.13 0.90682 0.405353 -0.115616 
293.1 1278.69 685.703 0.90682 0.405353 -0.115616 
281.138 1285.8 702.985 -0.279525 0.781723 0.557471 
486.881 932.658 1300.17 -0.279525 0.781723 0.557471 
397.363 1032.75 1115.38 -0.279525 0.781723 0.557471 
511.167 837.261 1445.91 -0.279525 0.781723 0.557471 
370.548 1167.12 913.768 -0.279525 0.781723 0.557471 
503.277 933.601 1307.01 -0.279525 0.781723 0.557471 
418.204 992.472 1182.18 -0.279525 0.781723 0.557471 
522.321 903.979 1357.99 -0.279525 0.781723 0.557471 
472.027 928.715 1298.3 -0.279525 0.781723 0.557471 
437.771 1043.64 1120.23 -0.279525 0.781723 0.557471 
181.077 1300.23 632.953 -0.279525 0.781723 0.557471 
201.699 1314.94 622.611 -0.279525 0.781723 0.557471 
441.167 904.935 1316.25 -0.279525 0.781723 0.557471 
366.736 1021.65 1115.68 -0.279525 0.781723 0.557471 
216.616 1316.1 628.421 -0.279525 0.781723 0.557471 
321.344 1187.61 860.563 -0.279525 0.781723 0.557471 
190.443 1295.34 644.466 -0.279525 0.781723 0.557471 
211.81 1328.62 608.48 -0.279525 0.781723 0.557471 
217.58 1322.98 619.25 -0.279525 0.781723 0.557471 
299.101 1100.14 969.831 -0.906323 -0.406379 0.115909 
383.444 972.517 1182.48 -0.906323 -0.406379 0.115909 
307.294 1082.93 973.748 -0.906323 -0.406379 0.115909 
407.234 934.144 1234.19 -0.906323 -0.406379 0.115909 
485.075 818.376 1437.46 -0.906323 -0.406379 0.115909 
483.027 773.302 1482.09 -0.279525 0.781723 0.557471 
253.848 1094.68 941.953 0.90682 0.405353 -0.115616 
361.578 932.69 1217.11 0.90682 0.405353 -0.115616 
290.908 1037.84 1032.72 0.90682 0.405353 -0.115616 
167.078 1219.47 700.545 0.90682 0.405353 -0.115616 
274.181 911.586 1223.8 -0.279525 0.781723 0.557471 
302.794 976.567 1147.01 -0.279525 0.781723 0.557471 
149.856 1212.07 740.929 -0.279525 0.781723 0.557471 
176.954 1161.8 824.84 -0.279525 0.781723 0.557471 
260.004 1054.69 1016.25 -0.279525 0.781723 0.557471 
258.342 955.052 1155.02 -0.279525 0.781723 0.557471 
363.862 802.959 1420.64 -0.279525 0.781723 0.557471 
260.165 982.834 1117.01 -0.279525 0.781723 0.557471 
400.522 777.428 1474.66 -0.279525 0.781723 0.557471 
347.894 831.546 1372.64 -0.279525 0.781723 0.557471 
423.806 724.114 1560.94 -0.279525 0.781723 0.557471 
339.477 845.881 1348.36 -0.279525 0.781723 0.557471 
299.522 877.13 1284.69 -0.279525 0.781723 0.557471 
347.766 931.064 1233.15 -0.279525 0.781723 0.557471 
208.571 968.338 1111.63 -0.279525 0.781723 0.557471 
109.452 1174.95 772.814 -0.279525 0.781723 0.557471 
177.505 990.366 1065.3 -0.279525 0.781723 0.557471 
133.772 1128.7 849.718 -0.279525 0.781723 0.557471 
166.048 1150.58 835.134 -0.279525 0.781723 0.557471 
92.0057 1138.85 814.706 -0.279525 0.781723 0.557471 
132.053 1128.68 848.9 -0.279525 0.781723 0.557471 
175.826 1120.45 882.221 -0.279525 0.781723 0.557471 
205.101 981.674 1091.22 -0.279525 0.781723 0.557471 
82.3189 1237.44 671.755 -0.279525 0.781723 0.557471 
59.3046 1219.78 685.045 -0.279525 0.781723 0.557471 
124.957 1154.26 809.518 -0.279525 0.781723 0.557471 
103.772 1150.24 804.609 -0.279525 0.781723 0.557471 
58.6221 1256.86 632.75 -0.279525 0.781723 0.557471 
14.1767 1152.71 544.177 -0.906323 -0.406379 0.115909 
-9.95694 1219.86 589.993 -0.906323 -0.406379 0.115909 
43.9185 1106.26 614.155 -0.906323 -0.406379 0.115909 
28.7119 1162.48 691.436 -0.906323 -0.406379 0.115909 
124.873 984.742 821.649 -0.906323 -0.406379 0.115909 
196.183 882.481 1021.07 -0.906323 -0.406379 0.115909 
208.399 868.02 1065.88 -0.906323 -0.406379 0.115909 
186.3 923.054 1085.35 -0.906323 -0.406379 0.115909 
364.586 629.941 1453.58 -0.906323 -0.406379 0.115909 
361.134 629.843 1426.35 -0.906323 -0.406379 0.115909 
217.898 844.603 1058.34 -0.906323 -0.406379 0.115909 
125.511 979.548 808.532 -0.906323 -0.406379 0.115909 
335.561 708.104 1499.63 -0.906323 -0.406379 0.115909 
352.175 660.415 1463 -0.906323 -0.406379 0.115909 
345.56 695.087 1532.19 -0.906323 -0.406379 0.115909 
261.747 822.288 1322.2 -0.906323 -0.406379 0.115909 
301.303 763.092 1424.22 -0.906323 -0.406379 0.115909 
53.5963 1135.36 790.827 -0.906323 -0.406379 0.115909 
39.3647 1152.05 738.11 -0.906323 -0.406379 0.115909 
114 1035.9 711.87 0.276411 -0.785007 -0.554401 
173.772 947.437 865.563 0.276411 -0.785007 -0.554401 
70.5148 1075.93 634.137 0.276411 -0.785007 -0.554401 
88.8006 1060.29 665.155 0.276411 -0.785007 -0.554401 
92.7074 1070.23 653.173 0.276411 -0.785007 -0.554401 
147.483 977.937 809.745 0.276411 -0.785007 -0.554401 
174.544 970.642 833.438 0.276411 -0.785007 -0.554401 
107.881 1065.34 667.582 0.276411 -0.785007 -0.554401 
214.584 906.657 943.013 0.276411 -0.785007 -0.554401 
98.9743 1102.36 611.277 0.276411 -0.785007 -0.554401 
367.502 645.482 1385.05 0.276411 -0.785007 -0.554401 
258.137 912.551 956.439 0.276411 -0.785007 -0.554401 
277.337 881.409 1009.63 0.276411 -0.785007 -0.554401 
386.207 667.153 1364 0.276411 -0.785007 -0.554401 
214.822 1019.01 785.726 0.276411 -0.785007 -0.554401 
257.71 878.384 1004.09 0.276411 -0.785007 -0.554401 
193.651 1003.49 796.929 0.276411 -0.785007 -0.554401 
398.194 690.126 1337.78 0.276411 -0.785007 -0.554401 
371.257 681.691 1336.19 0.276411 -0.785007 -0.554401 
348.447 816.537 1135.91 0.276411 -0.785007 -0.554401 
452.777 694.608 1506.62 0.90682 0.405353 -0.115616 
464.62 674.198 1527.82 0.90682 0.405353 -0.115616 
274.2 960.812 1042.45 0.90682 0.405353 -0.115616 
293.448 912.527 1024.26 0.90682 0.405353 -0.115616 
131.543 1166.73 648.164 0.90682 0.405353 -0.115616 
87.8527 1236.92 552.226 0.90682 0.405353 -0.115616 
98.9638 1203.13 521.114 0.90682 0.405353 -0.115616 
238.514 985.089 849.001 0.90682 0.405353 -0.115616 
420.384 718.192 1336.42 0.90682 0.405353 -0.115616 
282.017 922.852 971.177 0.90682 0.405353 -0.115616 
180.445 1072.85 702.245 0.90682 0.405353 -0.115616 
249.165 975.097 897.173 0.90682 0.405353 -0.115616 
141.954 1130.61 603.517 0.90682 0.405353 -0.115616 
508.992 734.146 1510.46 0.276411 -0.785007 -0.554401 
514.922 734.63 1512.73 0.276411 -0.785007 -0.554401 
457.313 745.558 1468.74 0.276411 -0.785007 -0.554401 
570.694 812.688 1431.13 0.276411 -0.785007 -0.554401 
510.217 793.051 1428.54 0.276411 -0.785007 -0.554401 
672.154 752.338 1462.1 -0.906323 -0.406379 0.115909 
638.308 812.038 1406.32 -0.906323 -0.406379 0.115909 
517.216 978.088 1041.21 -0.906323 -0.406379 0.115909 
476.9 1047.1 967.452 -0.906323 -0.406379 0.115909 
315.195 1300.46 589.968 -0.906323 -0.406379 0.115909 
310.525 1286.74 505.841 -0.906323 -0.406379 0.115909 
613.328 827.715 1266.32 -0.906323 -0.406379 0.115909 
379.116 1175.81 653.88 -0.906323 -0.406379 0.115909 
533.536 951.467 1075.65 -0.906323 -0.406379 0.115909 
379.424 1181.09 674.689 -0.906323 -0.406379 0.115909 
404.703 1170.94 667.401 0.276411 -0.785007 -0.554401 
440.566 1272.98 542.286 0.276411 -0.785007 -0.554401 
472.214 1230.41 617.686 0.276411 -0.785007 -0.554401 
415.805 1195.75 638.165 0.276411 -0.785007 -0.554401 
471.891 1211.87 643.499 0.276411 -0.785007 -0.554401 
495.023 1189.4 686.5 0.276411 -0.785007 -0.554401 
428.955 1213.87 619.319 0.276411 -0.785007 -0.554401 
549.02 1056.2 899.997 0.276411 -0.785007 -0.554401 
350.114 1221.93 568.781 0.276411 -0.785007 -0.554401 
559.421 929.627 1082.5 0.276411 -0.785007 -0.554401 
451.006 1147.94 722.666 0.276411 -0.785007 -0.554401 
362.488 1295.97 471.206 0.276411 -0.785007 -0.554401 
414.638 1261.03 546.125 0.276411 -0.785007 -0.554401 
663.747 944.278 1113.92 0.276411 -0.785007 -0.554401 
580.66 1038.14 941.054 0.276411 -0.785007 -0.554401 
776.506 829.538 1330.8 0.276411 -0.785007 -0.554401 
686.11 755.007 1390.22 0.276411 -0.785007 -0.554401 
647.761 1010.73 1012.86 0.276411 -0.785007 -0.554401 
565.392 1055.43 909.229 0.276411 -0.785007 -0.554401 
750.508 804.301 1353.22 0.276411 -0.785007 -0.554401 
614.728 980.807 1038.33 0.276411 -0.785007 -0.554401 
783.82 804.588 1369.4 0.276411 -0.785007 -0.554401 
773.912 766.983 1417.15 0.276411 -0.785007 -0.554401 
572.756 1028.24 950.983 0.276411 -0.785007 -0.554401 
537.214 1175.78 726.581 0.276411 -0.785007 -0.554401 
777.206 828.515 1332.58 0.276411 -0.785007 -0.554401 
643.71 871.829 1205.44 0.276411 -0.785007 -0.554401 
795.073 835.247 1462.61 0.90682 0.405353 -0.115616 
767.574 879.219 1401.5 0.90682 0.405353 -0.115616 
615.87 1089.44 951.735 0.90682 0.405353 -0.115616 
598.084 1128.57 949.443 0.90682 0.405353 -0.115616 
441.827 1362.74 547.587 0.90682 0.405353 -0.115616 
436.899 1369.33 532.127 0.90682 0.405353 -0.115616 
451.563 1328.34 503.641 0.90682 0.405353 -0.115616 
574.524 1138.48 800.411 0.90682 0.405353 -0.115616 
745.216 883.746 1243.11 0.90682 0.405353 -0.115616 
615.626 1081.38 921.755 0.90682 0.405353 -0.115616 
479.6 1283.95 567.497 0.90682 0.405353 -0.115616 
789.781 875.156 1452.68 0.276411 -0.785007 -0.554401 
829.826 883.622 1460.76 0.276411 -0.785007 -0.554401 
837.588 919.672 1414.12 0.276411 -0.785007 -0.554401 
956.293 991.346 1372.8 0.276411 -0.785007 -0.554401 
928.054 931.875 1442.06 0.276411 -0.785007 -0.554401 
663.182 1173.65 971.464 0.276411 -0.785007 -0.554401 
621.123 1176.35 946.741 0.276411 -0.785007 -0.554401 
643.8 1123.34 1032.31 0.276411 -0.785007 -0.554401 
743.134 1190.9 987.099 0.276411 -0.785007 -0.554401 
694.413 1147.32 1023.91 0.276411 -0.785007 -0.554401 
766.701 1182.6 1010.46 0.276411 -0.785007 -0.554401 
467.145 1383.76 579.496 0.276411 -0.785007 -0.554401 
476.157 1385.17 582.008 0.276411 -0.785007 -0.554401 
539.686 1393.06 602.589 0.276411 -0.785007 -0.554401 
633.276 1467.78 544.493 0.276411 -0.785007 -0.554401 
604.721 1435.36 575.698 0.276411 -0.785007 -0.554401 
295.271 1282.06 636.42 0.276411 -0.785007 -0.554401 
199.956 1257.71 623.084 0.276411 -0.785007 -0.554401 
169.667 1219.07 662.139 0.276411 -0.785007 -0.554401 
115.055 1245.18 598.372 0.276411 -0.785007 -0.554401 
101.26 1265.27 563.355 0.276411 -0.785007 -0.554401 
150.935 1233.82 632.144 0.276411 -0.785007 -0.554401 
154.162 1291.85 591.882 -0.279525 0.781723 0.557471 
309.142 1321.61 627.332 -0.279525 0.781723 0.557471 
441.217 1421.64 552.95 -0.279525 0.781723 0.557471 
591.243 1451.01 586.487 -0.279525 0.781723 0.557471 
115.096 1141.77 650.974 0.316024 -0.47325 0.822291 
439.675 1296.26 614.733 0.316024 -0.47325 0.822291 
391.393 1293.75 631.927 0.316024 -0.47325 0.822291 
639.505 1315.33 800.605 0.276411 -0.785007 -0.554401 
593.664 1376.43 692.175 0.276411 -0.785007 -0.554401 
635.512 1299.76 820.43 0.276411 -0.785007 -0.554401 
588.34 1360.78 711.459 0.276411 -0.785007 -0.554401 
550.176 1339.78 721.871 0.276411 -0.785007 -0.554401 
532.122 1358.89 686.119 0.276411 -0.785007 -0.554401 
501.58 1269.01 796.83 0.276411 -0.785007 -0.554401 
458.339 1272.52 770.39 0.276411 -0.785007 -0.554401 
472.661 1281.91 764.363 0.276411 -0.785007 -0.554401 
460.783 1258.98 790.567 0.276411 -0.785007 -0.554401 
505.288 1191.61 907.112 0.276411 -0.785007 -0.554401 
402.698 1188.15 860.899 0.276411 -0.785007 -0.554401 
451.393 1275.61 762.605 0.276411 -0.785007 -0.554401 
366.983 1239.91 770.589 0.276411 -0.785007 -0.554401 
420.902 1224.86 818.519 0.276411 -0.785007 -0.554401 
382.016 1286.35 713.021 0.276411 -0.785007 -0.554401 
324.306 1205.98 796.886 0.276411 -0.785007 -0.554401 
368.316 1152.3 893.996 0.276411 -0.785007 -0.554401 
321.667 1102.74 940.219 0.276411 -0.785007 -0.554401 
281.38 1174.19 820.047 0.276411 -0.785007 -0.554401 
263.398 1240.85 717.708 0.276411 -0.785007 -0.554401 
249.657 1259.89 684.192 0.276411 -0.785007 -0.554401 
241.753 1076.96 936.547 0.276411 -0.785007 -0.554401 
181.615 1125.01 839.29 0.276411 -0.785007 -0.554401 
194.253 1140.41 824.01 0.276411 -0.785007 -0.554401 
173.55 1156.74 790.823 0.276411 -0.785007 -0.554401 
166.853 1158.56 784.931 0.276411 -0.785007 -0.554401 
33.5522 1168.5 704.651 0.276411 -0.785007 -0.554401 
125.397 1164.8 755.559 0.276411 -0.785007 -0.554401 
150.545 1203.92 713.273 0.276411 -0.785007 -0.554401 
81.806 1113.42 805.841 0.276411 -0.785007 -0.554401 
175.357 939.304 976.54 -0.319675 0.474 -0.820446 
350.676 998.451 1100.77 -0.279525 0.781723 0.557471 
454.211 1084.88 1031.22 -0.279525 0.781723 0.557471 
617.078 1130.18 1048.84 -0.279525 0.781723 0.557471 
743.077 1194.03 1022.1 -0.279525 0.781723 0.557471 
754.83 1177.64 1050.92 -0.279525 0.781723 0.557471 
482.845 1112.47 957.662 -0.319675 0.474 -0.820446 
586.787 1123.6 923.952 -0.319675 0.474 -0.820446 
452.607 1068.16 1014.42 0.276411 -0.785007 -0.554401 
448.577 1095.42 974.225 0.276411 -0.785007 -0.554401 
434.03 1070.41 1002.03 0.276411 -0.785007 -0.554401 
355.803 1044.89 998.828 0.276411 -0.785007 -0.554401 
306.554 965.75 1085.19 0.276411 -0.785007 -0.554401 
360.499 1014.35 1043.96 0.276411 -0.785007 -0.554401 
417.022 734.225 1407.05 -0.319675 0.474 -0.820446 
370.858 689.687 1399.19 -0.319675 0.474 -0.820446 
653.761 831.8 1371.91 -0.319675 0.474 -0.820446 
732.311 1063.73 1199.3 0.276411 -0.785007 -0.554401 
750.912 1014.61 1277.38 0.276411 -0.785007 -0.554401 
704.618 1061.41 1188.76 0.276411 -0.785007 -0.554401 
795.955 971.054 1360.82 0.276411 -0.785007 -0.554401 
832.985 1002.11 1335.75 0.276411 -0.785007 -0.554401 
807.439 1029.26 1284.99 0.276411 -0.785007 -0.554401 
602.384 1034.66 1175.35 0.276411 -0.785007 -0.554401 
586.626 1060.07 1131.9 0.276411 -0.785007 -0.554401 
561.906 972.811 1241.84 0.276411 -0.785007 -0.554401 
579.49 1066.45 1119.41 0.276411 -0.785007 -0.554401 
591.976 1012 1201.92 0.276411 -0.785007 -0.554401 
617.345 975.472 1265.72 0.276411 -0.785007 -0.554401 
631.196 1010.72 1223.23 0.276411 -0.785007 -0.554401 
621.149 1028.79 1192.91 0.276411 -0.785007 -0.554401 
716.695 929.387 1379.74 0.276411 -0.785007 -0.554401 
614.835 885.843 1390.04 0.276411 -0.785007 -0.554401 
456.949 878.61 1321.57 0.276411 -0.785007 -0.554401 
390.577 1005.88 1110.22 0.276411 -0.785007 -0.554401 
427.696 902.641 1273.34 0.276411 -0.785007 -0.554401 
477.281 984.668 1183.1 0.276411 -0.785007 -0.554401 
477.978 946.719 1236.62 0.276411 -0.785007 -0.554401 
490.542 893.619 1317.27 0.276411 -0.785007 -0.554401 
321.352 888.817 1239.77 0.276411 -0.785007 -0.554401 
308.298 846.843 1292.07 0.276411 -0.785007 -0.554401 
262.718 844.176 1273.12 0.276411 -0.785007 -0.554401 
259.821 927.999 1154.24 0.276411 -0.785007 -0.554401 
392.956 798.521 1401.92 0.276411 -0.785007 -0.554401 
405.244 779.846 1434.2 0.276411 -0.785007 -0.554401 
355.007 877.2 1272.8 0.276411 -0.785007 -0.554401 
378.195 883.948 1274.88 0.276411 -0.785007 -0.554401 
377.331 888.37 1268.26 0.276411 -0.785007 -0.554401 
242.354 868.484 1086.33 0.316024 -0.47325 0.822291 
622.332 1044.31 1041 0.316024 -0.47325 0.822291 
590.616 1058.9 1061.66 0.316024 -0.47325 0.822291 
388.762 697.195 1362.61 -0.279525 0.781723 0.557471 
422.964 703.245 1371.16 -0.279525 0.781723 0.557471 
351.889 745.485 1276.59 -0.279525 0.781723 0.557471 
298.718 795.093 1180.62 -0.279525 0.781723 0.557471 
307.049 867.302 1083.6 -0.279525 0.781723 0.557471 
355.948 784.26 1224.29 -0.279525 0.781723 0.557471 
100.265 1049.93 724.799 -0.279525 0.781723 0.557471 
208.168 969.88 890.664 -0.279525 0.781723 0.557471 
158.824 971.258 864.168 -0.279525 0.781723 0.557471 
165.369 1056.65 747.792 -0.279525 0.781723 0.557471 
155.469 1029.13 781.422 -0.279525 0.781723 0.557471 
139.589 1087.29 692.032 -0.279525 0.781723 0.557471 
506.789 1063.91 907.592 -0.279525 0.781723 0.557471 
470.968 1080.8 866.092 -0.279525 0.781723 0.557471 
365.751 1207.79 635.797 -0.279525 0.781723 0.557471 
476.361 1148.84 773.456 -0.279525 0.781723 0.557471 
570.87 1119.25 861.965 -0.279525 0.781723 0.557471 
379.138 1212.99 635.175 -0.279525 0.781723 0.557471 
552.895 1143.36 819.229 -0.279525 0.781723 0.557471 
494.002 1255.11 633.344 -0.279525 0.781723 0.557471 
552.184 1167.87 784.535 -0.279525 0.781723 0.557471 
736.082 867.803 1296.49 -0.279525 0.781723 0.557471 
593.158 934.662 1131.67 -0.279525 0.781723 0.557471 
588.111 879.045 1207.07 -0.279525 0.781723 0.557471 
652.104 894.001 1217.98 -0.279525 0.781723 0.557471 
643.965 868.442 1249.74 -0.279525 0.781723 0.557471 
717.649 881.894 1267.57 -0.279525 0.781723 0.557471 
664.064 1010.39 1060.87 -0.279525 0.781723 0.557471 
665.311 944.487 1153.82 -0.279525 0.781723 0.557471 
686.142 910.739 1211.47 -0.279525 0.781723 0.557471 
