ply
format ascii 1.0
comment Created by CloudCompare v2.11.3 (Anoia)
comment Created 08/09/2022 00:21
obj_info Generated by CloudCompare!
element vertex 925
property float x
property float y
property float z
property float nx
property float ny
property float nz
end_header
424.029 2937.98 3497.79 0.728072 0.557148 0.399371 
602.31 2704.96 3499.19 0.728072 0.557148 0.399371 
788.103 2460.59 3502.8 0.728072 0.557148 0.399371 
597.709 2711.28 3498.74 0.728072 0.557148 0.399371 
761.905 2494.6 3502.92 0.728072 0.557148 0.399371 
337.75 3052.75 3494.33 0.728072 0.557148 0.399371 
424.462 2938.19 3496.72 0.728072 0.557148 0.399371 
268.569 3144.58 3491.81 0.728072 0.557148 0.399371 
449.071 2908.11 3494 0.728072 0.557148 0.399371 
383.534 2994.73 3492.13 0.728072 0.557148 0.399371 
712.474 2559.78 3501.72 0.728072 0.557148 0.399371 
659.768 2630.19 3499.19 0.728072 0.557148 0.399371 
486.694 2857.09 3496.86 0.728072 0.557148 0.399371 
193.32 3241.08 3493.81 0.728072 0.557148 0.399371 
273.204 3139.66 3490.26 0.728072 0.557148 0.399371 
259.643 3154.45 3494.25 0.728072 0.557148 0.399371 
432.509 2930.27 3493.15 0.728072 0.557148 0.399371 
195.327 3243.57 3486.68 0.728072 0.557148 0.399371 
383.659 2992.96 3494.39 0.728072 0.557148 0.399371 
314.596 3081.44 3496.35 0.728072 0.557148 0.399371 
805.852 2433.63 3508.2 0.728072 0.557148 0.399371 
603.365 2699.21 3505.32 0.728072 0.557148 0.399371 
448.444 2905.21 3499.19 0.728072 0.557148 0.399371 
348.549 3036.66 3497.16 0.728072 0.557148 0.399371 
740.265 2522.37 3503.46 0.728072 0.557148 0.399371 
840.327 2390.99 3505.09 0.728072 0.557148 0.399371 
755.474 2502.79 3503.16 0.728072 0.557148 0.399371 
624.134 2674.55 3502 0.728072 0.557148 0.399371 
596.688 2709.73 3502.75 0.728072 0.557148 0.399371 
742.139 2520.32 3502.92 0.728072 0.557148 0.399371 
828.598 2403.11 3509.47 0.728072 0.557148 0.399371 
320.028 3074.11 3496.71 0.728072 0.557148 0.399371 
782.897 2463.19 3508.63 0.728072 0.557148 0.399371 
381.125 2992.43 3499.74 0.728072 0.557148 0.399371 
630.652 2664 3504.9 0.728072 0.557148 0.399371 
759.315 2494.68 3507.51 0.728072 0.557148 0.399371 
458.18 2893.09 3498.43 0.728072 0.557148 0.399371 
744.399 2515.9 3504.99 0.728072 0.557148 0.399371 
660.228 2623.69 3507.43 0.728072 0.557148 0.399371 
667.992 2617.09 3502.53 0.728072 0.557148 0.399371 
821.282 2413.33 3508.5 0.728072 0.557148 0.399371 
471.139 2874.08 3501.41 0.728072 0.557148 0.399371 
481.615 2860.05 3501.98 0.728072 0.557148 0.399371 
394.522 2975.05 3499.66 0.728072 0.557148 0.399371 
514.815 2816.8 3502.03 0.728072 0.557148 0.399371 
734.296 2525.76 3509.58 0.728072 0.557148 0.399371 
538.677 2786.63 3500.79 0.728072 0.557148 0.399371 
576.381 2734.38 3505.24 0.728072 0.557148 0.399371 
608.983 2692.68 3504.23 0.728072 0.557148 0.399371 
494.318 2842.73 3503.08 0.728072 0.557148 0.399371 
458.397 2890.15 3502.14 0.728072 0.557148 0.399371 
760.051 2492.35 3509.43 0.728072 0.557148 0.399371 
490.091 2849.33 3501.53 0.728072 0.557148 0.399371 
285.361 3116.12 3500.66 0.713894 0.548258 0.435625 
249.866 3160.11 3503.34 0.713894 0.548258 0.435625 
257.46 3154.98 3497.37 0.713894 0.548258 0.435625 
222 3198.37 3500.74 0.713894 0.548258 0.435625 
285.885 3113.11 3503.6 0.713894 0.548258 0.435625 
612.327 2685.44 3508.11 0.713894 0.548258 0.435625 
209.696 3212.58 3502.98 0.713894 0.548258 0.435625 
411.81 2949.47 3503.66 0.713894 0.548258 0.435625 
367.894 3009.39 3500.04 0.713894 0.548258 0.435625 
354.842 3023.05 3504.19 0.713894 0.548258 0.435625 
244.326 3168.62 3501.68 0.713894 0.548258 0.435625 
473.103 2870.49 3502.84 0.713894 0.548258 0.435625 
416.27 2943.3 3504.13 0.713894 0.548258 0.435625 
405.749 2959.46 3500.99 0.713894 0.548258 0.435625 
373.042 3001.64 3501.38 0.713894 0.548258 0.435625 
301.494 3095.42 3500.34 0.713894 0.548258 0.435625 
207.133 3219.26 3498.75 0.713894 0.548258 0.435625 
220.126 3199.95 3501.83 0.713894 0.548258 0.435625 
418.881 2940.76 3503.06 0.713894 0.548258 0.435625 
382.061 2987.05 3505.01 0.713894 0.548258 0.435625 
273.733 3133.35 3497.98 0.713894 0.548258 0.435625 
350.323 3030.83 3501.79 0.713894 0.548258 0.435625 
439.778 2913.48 3503.22 0.713894 0.548258 0.435625 
519.359 2808.96 3504.65 0.713894 0.548258 0.435625 
283.922 3116.07 3503.08 0.713894 0.548258 0.435625 
354.481 3025.37 3501.87 0.713894 0.548258 0.435625 
559.397 2755.84 3506.04 0.713894 0.548258 0.435625 
578.433 2730.77 3506.47 0.713894 0.548258 0.435625 
200.882 3228.72 3497.06 0.713894 0.548258 0.435625 
709.61 2556.65 3511.14 0.713894 0.548258 0.435625 
507.266 2825.41 3503.73 0.713894 0.548258 0.435625 
342.336 3041.17 3501.83 0.713894 0.548258 0.435625 
371.336 3000.24 3505.94 0.713894 0.548258 0.435625 
761.12 2489.34 3511.63 0.713894 0.548258 0.435625 
596.773 2700.55 3514.53 0.713894 0.548258 0.435625 
779.569 2462.78 3514.91 0.713894 0.548258 0.435625 
549.499 2763.23 3512.95 0.713894 0.548258 0.435625 
748.694 2503.74 3513.84 0.713894 0.548258 0.435625 
661.57 2614.84 3516.47 0.713894 0.548258 0.435625 
813.085 2416.61 3518.22 0.713894 0.548258 0.435625 
737.288 2514.35 3519.14 0.713894 0.548258 0.435625 
553.037 2759.67 3511.63 0.713894 0.548258 0.435625 
799.349 2437.76 3514.06 0.713894 0.548258 0.435625 
749.119 2502.77 3514.36 0.713894 0.548258 0.435625 
632.286 2656.64 3511.72 0.713894 0.548258 0.435625 
683.669 2586.04 3516.57 0.713894 0.548258 0.435625 
232.64 3181.83 3504.17 0.713894 0.548258 0.435625 
780.529 2462.49 3513.7 0.713894 0.548258 0.435625 
498.491 2832.19 3509.54 0.713894 0.548258 0.435625 
419.888 2936.27 3507.07 0.713894 0.548258 0.435625 
615.428 2677.6 3512.91 0.713894 0.548258 0.435625 
825.128 2401.54 3517.49 0.713894 0.548258 0.435625 
574.317 2731.65 3512.11 0.713894 0.548258 0.435625 
747.898 2501.37 3518.12 0.713894 0.548258 0.435625 
451.875 2892.77 3509.52 0.713894 0.548258 0.435625 
656.942 2622.81 3513.99 0.713894 0.548258 0.435625 
411.093 2946.43 3508.66 0.713894 0.548258 0.435625 
634.558 2651.59 3514.38 0.713894 0.548258 0.435625 
544.04 2771.2 3511.83 0.713894 0.548258 0.435625 
753.392 2495.42 3516.62 0.713894 0.548258 0.435625 
543.132 2773.77 3510.08 0.713894 0.548258 0.435625 
643.986 2639.03 3514.77 0.713894 0.548258 0.435625 
693.536 2576.87 3511.98 0.713894 0.548258 0.435625 
404.245 2956.82 3506.79 0.713894 0.548258 0.435625 
771.118 2474.6 3513.84 0.713894 0.548258 0.435625 
814.223 2413.43 3520.36 0.713894 0.548258 0.435625 
736.403 2516.52 3517.85 0.713894 0.548258 0.435625 
349.942 3027.53 3506.58 0.713894 0.548258 0.435625 
311.151 3074.24 3510.82 0.698354 0.538349 0.47168 
245.147 3159.66 3511.01 0.698354 0.538349 0.47168 
269.681 3128.78 3509.95 0.698354 0.538349 0.47168 
246.173 3157.34 3512.15 0.698354 0.538349 0.47168 
221.717 3194.69 3505.7 0.698354 0.538349 0.47168 
583.609 2715.73 3516.77 0.698354 0.538349 0.47168 
423.135 2926.28 3513.96 0.698354 0.538349 0.47168 
586.589 2712.65 3515.88 0.698354 0.538349 0.47168 
564.571 2741.72 3515.28 0.698354 0.538349 0.47168 
323.289 3059.82 3509.31 0.698354 0.538349 0.47168 
292.964 3095.5 3513.48 0.698354 0.538349 0.47168 
279.431 3115.73 3510.42 0.698354 0.538349 0.47168 
612.572 2678.36 3516.55 0.698354 0.538349 0.47168 
261.971 3139.57 3509.04 0.698354 0.538349 0.47168 
298.704 3088.22 3513.3 0.698354 0.538349 0.47168 
613.495 2676.82 3516.95 0.698354 0.538349 0.47168 
488.147 2842.66 3513.17 0.698354 0.538349 0.47168 
184.262 3239.63 3509.85 0.698354 0.538349 0.47168 
492.646 2834.34 3516.02 0.698354 0.538349 0.47168 
598.357 2696.28 3517.14 0.698354 0.538349 0.47168 
270.066 3125.64 3512.97 0.698354 0.538349 0.47168 
240.317 3168.43 3508.15 0.698354 0.538349 0.47168 
340.897 3037.38 3508.87 0.698354 0.538349 0.47168 
211.076 3208.2 3506.03 0.698354 0.538349 0.47168 
534.022 2780.38 3516.37 0.698354 0.538349 0.47168 
664.724 2608.44 3519.18 0.698354 0.538349 0.47168 
534.478 2779.11 3517.15 0.698354 0.538349 0.47168 
496.277 2830.87 3514.61 0.698354 0.538349 0.47168 
276.096 3123.68 3506.27 0.698354 0.538349 0.47168 
315.152 3069.55 3510.25 0.698354 0.538349 0.47168 
208.815 3211.25 3505.9 0.698354 0.538349 0.47168 
358.021 3010.6 3514.09 0.698354 0.538349 0.47168 
559.916 2745.78 3517.54 0.698354 0.538349 0.47168 
255.802 3144.27 3512.81 0.698354 0.538349 0.47168 
407.831 2944.22 3516.15 0.698354 0.538349 0.47168 
682.247 2579.94 3525.78 0.698354 0.538349 0.47168 
774.998 2459.29 3526.21 0.698354 0.538349 0.47168 
711.126 2546.06 3521.7 0.698354 0.538349 0.47168 
801.458 2423.6 3527.78 0.698354 0.538349 0.47168 
453.156 2883.96 3517.83 0.698354 0.538349 0.47168 
594.387 2699.28 3519.59 0.698354 0.538349 0.47168 
417.399 2930.93 3517.15 0.698354 0.538349 0.47168 
499.704 2822.63 3518.94 0.698354 0.538349 0.47168 
495.71 2828.57 3518.08 0.698354 0.538349 0.47168 
733.775 2515.18 3523.42 0.698354 0.538349 0.47168 
363.285 3002.86 3515.14 0.698354 0.538349 0.47168 
757.4 2480.96 3527.52 0.698354 0.538349 0.47168 
414.754 2933.43 3518.22 0.698354 0.538349 0.47168 
758.95 2482.45 3523.52 0.698354 0.538349 0.47168 
717.634 2535.04 3524.65 0.698354 0.538349 0.47168 
547.84 2759.77 3519.45 0.698354 0.538349 0.47168 
433.873 2908.85 3517.97 0.698354 0.538349 0.47168 
204.433 3211.28 3512.36 0.698354 0.538349 0.47168 
622.362 2660.31 3522.68 0.698354 0.538349 0.47168 
678.718 2588.94 3520.73 0.698354 0.538349 0.47168 
608.044 2678.7 3522.88 0.698354 0.538349 0.47168 
663.96 2603.53 3525.93 0.698354 0.538349 0.47168 
748.649 2497.91 3521.11 0.698354 0.538349 0.47168 
638.438 2640.6 3521.38 0.698354 0.538349 0.47168 
762.574 2476.53 3524.92 0.698354 0.538349 0.47168 
495.251 2829.08 3518.18 0.698354 0.538349 0.47168 
670.823 2595.8 3524.59 0.698354 0.538349 0.47168 
458.453 2876.08 3518.99 0.698354 0.538349 0.47168 
588.821 2707.21 3518.78 0.698354 0.538349 0.47168 
737.158 2511.5 3522.62 0.698354 0.538349 0.47168 
805.403 2418.44 3527.84 0.698354 0.538349 0.47168 
646.15 2630.48 3521.51 0.698354 0.538349 0.47168 
471.493 2859.43 3518.7 0.698354 0.538349 0.47168 
360.185 3003.64 3518.71 0.684422 0.527122 0.503695 
484.674 2837.51 3523.92 0.684422 0.527122 0.503695 
444.653 2889.69 3523.53 0.684422 0.527122 0.503695 
190.079 3224.17 3518.32 0.684422 0.527122 0.503695 
383.225 2974.49 3518.01 0.684422 0.527122 0.503695 
644.795 2627.35 3526.97 0.684422 0.527122 0.503695 
230.937 3172.04 3517.54 0.684422 0.527122 0.503695 
372.867 2985.85 3520.14 0.684422 0.527122 0.503695 
368.337 2989.27 3522.68 0.684422 0.527122 0.503695 
403.371 2943.67 3522.95 0.684422 0.527122 0.503695 
691.565 2565.61 3528.23 0.684422 0.527122 0.503695 
577.248 2716.93 3524.73 0.684422 0.527122 0.503695 
706.541 2545.98 3528.48 0.684422 0.527122 0.503695 
251.246 3145.22 3518.09 0.684422 0.527122 0.503695 
619.403 2661.65 3525.47 0.684422 0.527122 0.503695 
513.898 2800.28 3523.31 0.684422 0.527122 0.503695 
581.086 2711.29 3525.42 0.684422 0.527122 0.503695 
315.054 3063.92 3516.76 0.684422 0.527122 0.503695 
467.126 2861.95 3522.12 0.684422 0.527122 0.503695 
474.452 2851.9 3522.71 0.684422 0.527122 0.503695 
559.516 2739.12 3525.51 0.684422 0.527122 0.503695 
312.772 3063.61 3520.16 0.684422 0.527122 0.503695 
371.32 2987.04 3520.98 0.684422 0.527122 0.503695 
421.022 2921.54 3522.21 0.684422 0.527122 0.503695 
689.582 2567.85 3528.57 0.684422 0.527122 0.503695 
279.555 3111.19 3515.38 0.684422 0.527122 0.503695 
561.171 2737.74 3524.73 0.684422 0.527122 0.503695 
492.475 2827.42 3523.92 0.684422 0.527122 0.503695 
616.18 2666.18 3525.1 0.684422 0.527122 0.503695 
281.699 3107.47 3516.36 0.684422 0.527122 0.503695 
327.466 3042.63 3522.21 0.684422 0.527122 0.503695 
676.237 2586.23 3527.41 0.684422 0.527122 0.503695 
263.311 3126.15 3521.7 0.684422 0.527122 0.503695 
523.247 2786.18 3525.4 0.684422 0.527122 0.503695 
342.28 3022.03 3523.69 0.684422 0.527122 0.503695 
806.101 2408.66 3537.31 0.684422 0.527122 0.503695 
762.439 2470.13 3532.15 0.684422 0.527122 0.503695 
758.923 2472.03 3534.91 0.684422 0.527122 0.503695 
745.545 2488.38 3535.91 0.684422 0.527122 0.503695 
828.111 2385.19 3532.08 0.684422 0.527122 0.503695 
461.663 2863.33 3528.06 0.684422 0.527122 0.503695 
667.376 2593.01 3532.31 0.684422 0.527122 0.503695 
721.372 2520.68 3534.86 0.684422 0.527122 0.503695 
728.948 2515.56 3529.97 0.684422 0.527122 0.503695 
670.523 2592.52 3528.57 0.684422 0.527122 0.503695 
828.762 2381.26 3535.31 0.684422 0.527122 0.503695 
477.516 2844.05 3526.76 0.684422 0.527122 0.503695 
828.628 2377.38 3539.53 0.684422 0.527122 0.503695 
706.869 2538.46 3535.89 0.684422 0.527122 0.503695 
664.505 2597.75 3531.24 0.684422 0.527122 0.503695 
731.539 2508.48 3533.86 0.684422 0.527122 0.503695 
743.203 2497.07 3530.01 0.684422 0.527122 0.503695 
786.191 2434.81 3536.92 0.684422 0.527122 0.503695 
590.121 2695.72 3529.47 0.684422 0.527122 0.503695 
407.078 2936.25 3525.69 0.684422 0.527122 0.503695 
626.817 2647.47 3530.26 0.684422 0.527122 0.503695 
802.856 2412.07 3538.13 0.684422 0.527122 0.503695 
616.946 2662.45 3527.96 0.684422 0.527122 0.503695 
722.391 2521.74 3532.37 0.684422 0.527122 0.503695 
303.658 3072.73 3522.95 0.684422 0.527122 0.503695 
744.027 2491.7 3534.5 0.684422 0.527122 0.503695 
759.859 2469.31 3536.48 0.684422 0.527122 0.503695 
339.787 3025.3 3523.65 0.684422 0.527122 0.503695 
461.667 2862.62 3528.79 0.684422 0.527122 0.503695 
680.697 2574.27 3533.87 0.684422 0.527122 0.503695 
638.043 2633.37 3529.8 0.684422 0.527122 0.503695 
464.115 2861.86 3526.29 0.684422 0.527122 0.503695 
759.345 2473.81 3532.48 0.684422 0.527122 0.503695 
276.855 3101.44 3528.71 0.667557 0.512859 0.539763 
210.761 3192.86 3522.93 0.667557 0.512859 0.539763 
423.361 2911.29 3529.58 0.667557 0.512859 0.539763 
410.765 2924.94 3532.08 0.667557 0.512859 0.539763 
321.547 3042.93 3529.45 0.667557 0.512859 0.539763 
338.022 3022.12 3529.01 0.667557 0.512859 0.539763 
579.207 2704.85 3534.49 0.667557 0.512859 0.539763 
402.936 2938.96 3528.35 0.667557 0.512859 0.539763 
242.983 3147.2 3526.79 0.667557 0.512859 0.539763 
286.498 3088.67 3529.01 0.667557 0.512859 0.539763 
445.768 2880.15 3531.67 0.667557 0.512859 0.539763 
349.803 3005.26 3530.57 0.667557 0.512859 0.539763 
602.529 2676.11 3533.16 0.667557 0.512859 0.539763 
218.725 3181.13 3524.31 0.667557 0.512859 0.539763 
416.266 2918.03 3531.9 0.667557 0.512859 0.539763 
563.055 2726.88 3533.37 0.667557 0.512859 0.539763 
290.062 3087.91 3525.34 0.667557 0.512859 0.539763 
604.912 2671.73 3534.41 0.667557 0.512859 0.539763 
219.682 3174.58 3529.39 0.667557 0.512859 0.539763 
199.966 3202.57 3526.98 0.667557 0.512859 0.539763 
378.513 2971.04 3527.84 0.667557 0.512859 0.539763 
267.269 3118.87 3523.88 0.667557 0.512859 0.539763 
326.614 3036.41 3529.43 0.667557 0.512859 0.539763 
319.694 3049.44 3525.53 0.667557 0.512859 0.539763 
654.996 2606.49 3534.93 0.667557 0.512859 0.539763 
416.493 2917.1 3532.5 0.667557 0.512859 0.539763 
366.353 2985.03 3529.48 0.667557 0.512859 0.539763 
208.839 3193.38 3524.81 0.667557 0.512859 0.539763 
277.74 3099.56 3529.41 0.667557 0.512859 0.539763 
482.705 2830.19 3533.82 0.667557 0.512859 0.539763 
375.826 2974.4 3527.95 0.667557 0.512859 0.539763 
653.457 2608.22 3535.18 0.667557 0.512859 0.539763 
243.191 3146.35 3527.34 0.667557 0.512859 0.539763 
489.047 2824.17 3531.75 0.667557 0.512859 0.539763 
587.29 2691.14 3537.6 0.667557 0.512859 0.539763 
745.678 2481.4 3542.53 0.667557 0.512859 0.539763 
415.743 2914.35 3536.05 0.667557 0.512859 0.539763 
407.818 2925.31 3535.37 0.667557 0.512859 0.539763 
593.406 2684.76 3536.16 0.667557 0.512859 0.539763 
538.495 2752.09 3539.59 0.667557 0.512859 0.539763 
285.982 3086.97 3531.27 0.667557 0.512859 0.539763 
822.669 2380.81 3543.62 0.667557 0.512859 0.539763 
421.206 2908.22 3535.17 0.667557 0.512859 0.539763 
817.257 2386.15 3545.19 0.667557 0.512859 0.539763 
537.696 2756.87 3536.01 0.667557 0.512859 0.539763 
772.829 2448.46 3540.49 0.667557 0.512859 0.539763 
379.409 2964.32 3533.15 0.667557 0.512859 0.539763 
427.88 2900.04 3534.75 0.667557 0.512859 0.539763 
724.807 2512.95 3538.15 0.667557 0.512859 0.539763 
599.615 2671.2 3541.44 0.667557 0.512859 0.539763 
735.333 2495.27 3542.04 0.667557 0.512859 0.539763 
562.397 2725.11 3535.87 0.667557 0.512859 0.539763 
510.264 2793.72 3534.66 0.667557 0.512859 0.539763 
296.419 3072.98 3531.76 0.667557 0.512859 0.539763 
311.631 3052.72 3532.34 0.667557 0.512859 0.539763 
309.694 3056.1 3531.5 0.667557 0.512859 0.539763 
549.695 2740.4 3536.94 0.667557 0.512859 0.539763 
646.449 2611.14 3541.03 0.667557 0.512859 0.539763 
508.432 2795.9 3534.84 0.667557 0.512859 0.539763 
809.784 2398.94 3542.2 0.667557 0.512859 0.539763 
561.341 2726.86 3535.5 0.667557 0.512859 0.539763 
437.164 2887.84 3534.94 0.667557 0.512859 0.539763 
663.939 2588.23 3541.34 0.667557 0.512859 0.539763 
746.872 2479.5 3542.87 0.667557 0.512859 0.539763 
462.153 2856.71 3533.85 0.667557 0.512859 0.539763 
478.398 2832.17 3537.24 0.667557 0.512859 0.539763 
365.337 2981.65 3533.96 0.667557 0.512859 0.539763 
358.309 2992.63 3532.14 0.667557 0.512859 0.539763 
192.44 3208.93 3530.13 0.648259 0.500086 0.574173 
269.039 3100.72 3538.44 0.648259 0.500086 0.574173 
491.075 2810.34 3542.12 0.648259 0.500086 0.574173 
628.042 2632.87 3542.93 0.648259 0.500086 0.574173 
182.655 3219.66 3531.78 0.648259 0.500086 0.574173 
202.072 3189.65 3536.16 0.648259 0.500086 0.574173 
407.789 2919.97 3540.12 0.648259 0.500086 0.574173 
387.068 2951.82 3535.61 0.648259 0.500086 0.574173 
613.092 2652.49 3542.62 0.648259 0.500086 0.574173 
693.311 2545.77 3545.54 0.648259 0.500086 0.574173 
354.336 2989.91 3539.21 0.648259 0.500086 0.574173 
375.465 2961.92 3539.87 0.648259 0.500086 0.574173 
282.491 3086.3 3535.89 0.648259 0.500086 0.574173 
489.968 2812.82 3541.19 0.648259 0.500086 0.574173 
431.937 2888.8 3540.15 0.648259 0.500086 0.574173 
311.684 3048.71 3535.85 0.648259 0.500086 0.574173 
421.615 2905.78 3536.93 0.648259 0.500086 0.574173 
373.54 2967.57 3537.09 0.648259 0.500086 0.574173 
685.056 2557.28 3544.78 0.648259 0.500086 0.574173 
521.764 2773.57 3539.67 0.648259 0.500086 0.574173 
481.348 2822.78 3542.2 0.648259 0.500086 0.574173 
665.557 2583.16 3544.12 0.648259 0.500086 0.574173 
361.727 2982.23 3537.59 0.648259 0.500086 0.574173 
438.193 2881.91 3539.13 0.648259 0.500086 0.574173 
595.958 2675.96 3541.41 0.648259 0.500086 0.574173 
198.338 3198.38 3532.72 0.648259 0.500086 0.574173 
170.678 3236.42 3530.62 0.648259 0.500086 0.574173 
628.33 2632.95 3542.54 0.648259 0.500086 0.574173 
341.35 3009.58 3536.63 0.648259 0.500086 0.574173 
554.039 2728.33 3542.87 0.648259 0.500086 0.574173 
352.497 2997.3 3534.8 0.648259 0.500086 0.574173 
293.471 3073.47 3534.73 0.648259 0.500086 0.574173 
399.535 2932.79 3538.21 0.648259 0.500086 0.574173 
700.945 2536.11 3545.38 0.648259 0.500086 0.574173 
649.841 2601.59 3545.72 0.648259 0.500086 0.574173 
631.866 2625.26 3545.28 0.648259 0.500086 0.574173 
788.503 2417.87 3550.1 0.648259 0.500086 0.574173 
772.366 2436.62 3551.9 0.648259 0.500086 0.574173 
365.146 2971.87 3542.81 0.648259 0.500086 0.574173 
551.094 2726.6 3547.71 0.648259 0.500086 0.574173 
819.56 2377.86 3550.09 0.648259 0.500086 0.574173 
436.558 2877.6 3544.76 0.648259 0.500086 0.574173 
773.488 2433.08 3553.74 0.648259 0.500086 0.574173 
728.747 2495.47 3549.6 0.648259 0.500086 0.574173 
764.942 2449.19 3549.26 0.648259 0.500086 0.574173 
618.094 2641.08 3546.98 0.648259 0.500086 0.574173 
572.429 2702.92 3544.36 0.648259 0.500086 0.574173 
733.278 2486.69 3552.17 0.648259 0.500086 0.574173 
555.592 2723.46 3545.38 0.648259 0.500086 0.574173 
610.294 2648.21 3549.54 0.648259 0.500086 0.574173 
581.729 2686.82 3547.98 0.648259 0.500086 0.574173 
573.697 2697.19 3547.95 0.648259 0.500086 0.574173 
446.843 2866.8 3542.6 0.648259 0.500086 0.574173 
573.321 2698.63 3547.12 0.648259 0.500086 0.574173 
513.675 2779.47 3543.64 0.648259 0.500086 0.574173 
708.692 2525.05 3546.33 0.648259 0.500086 0.574173 
636.799 2617.44 3546.57 0.648259 0.500086 0.574173 
775.868 2432.17 3551.85 0.648259 0.500086 0.574173 
580.569 2692.71 3544.12 0.648259 0.500086 0.574173 
616.341 2641.81 3548.32 0.648259 0.500086 0.574173 
809.634 2387.23 3553.09 0.648259 0.500086 0.574173 
774.021 2431.48 3554.54 0.648259 0.500086 0.574173 
493.406 2804.97 3544.19 0.648259 0.500086 0.574173 
827.24 2365.06 3552.62 0.648259 0.500086 0.574173 
424.124 2894.79 3543.74 0.648259 0.500086 0.574173 
505.177 2789.88 3544.12 0.648259 0.500086 0.574173 
493.657 2804.81 3544.05 0.648259 0.500086 0.574173 
491.932 2807.85 3543.33 0.648259 0.500086 0.574173 
385.214 2944.66 3543.95 0.630108 0.488964 0.603223 
358.782 2977.1 3545.2 0.630108 0.488964 0.603223 
532.156 2749.26 3549.14 0.630108 0.488964 0.603223 
246.665 3127.45 3540.23 0.630108 0.488964 0.603223 
214.474 3168.25 3540.71 0.630108 0.488964 0.603223 
577.27 2688.56 3551.3 0.630108 0.488964 0.603223 
538.831 2738.17 3551.16 0.630108 0.488964 0.603223 
305.114 3048.16 3543.55 0.630108 0.488964 0.603223 
183.663 3203.79 3544.01 0.630108 0.488964 0.603223 
285.325 3071.82 3545 0.630108 0.488964 0.603223 
179.593 3209.01 3544.03 0.630108 0.488964 0.603223 
392.914 2932.05 3546.14 0.630108 0.488964 0.603223 
228.25 3150.5 3540.74 0.630108 0.488964 0.603223 
355.397 2978.83 3547.32 0.630108 0.488964 0.603223 
255.382 3110.09 3545.19 0.630108 0.488964 0.603223 
422.418 2893.9 3546.3 0.630108 0.488964 0.603223 
536.802 2740.81 3551.14 0.630108 0.488964 0.603223 
273.428 3089.17 3543.34 0.630108 0.488964 0.603223 
252.797 3114.17 3544.59 0.630108 0.488964 0.603223 
227.417 3149.16 3542.68 0.630108 0.488964 0.603223 
540.304 2739.88 3548.25 0.630108 0.488964 0.603223 
699.136 2528.42 3554.06 0.630108 0.488964 0.603223 
501.32 2789.01 3549.06 0.630108 0.488964 0.603223 
287.91 3072.99 3541.37 0.630108 0.488964 0.603223 
181.868 3211.02 3540.04 0.630108 0.488964 0.603223 
506.885 2783.59 3547.66 0.630108 0.488964 0.603223 
222.806 3156.4 3541.63 0.630108 0.488964 0.603223 
712.722 2512.08 3553.14 0.630108 0.488964 0.603223 
458.532 2845.4 3547.96 0.630108 0.488964 0.603223 
659.595 2581.47 3552.28 0.630108 0.488964 0.603223 
530.6 2750.98 3549.36 0.630108 0.488964 0.603223 
243.647 3129.97 3541.33 0.630108 0.488964 0.603223 
606.261 2651.09 3551.45 0.630108 0.488964 0.603223 
473.873 2824.15 3549.19 0.630108 0.488964 0.603223 
555.432 2713.35 3553.96 0.630108 0.488964 0.603223 
426.936 2880.51 3552.43 0.630108 0.488964 0.603223 
671.358 2562.68 3555.24 0.630108 0.488964 0.603223 
516.922 2761.65 3554.96 0.630108 0.488964 0.603223 
489.806 2797.07 3554.52 0.630108 0.488964 0.603223 
289.428 3063.47 3547.49 0.630108 0.488964 0.603223 
253.924 3108.94 3547.64 0.630108 0.488964 0.603223 
587.397 2670.09 3555.7 0.630108 0.488964 0.603223 
471.6 2823.5 3552.08 0.630108 0.488964 0.603223 
429.856 2880.22 3549.62 0.630108 0.488964 0.603223 
691.84 2536.72 3554.93 0.630108 0.488964 0.603223 
391.447 2928.85 3550.24 0.630108 0.488964 0.603223 
558.445 2709.84 3553.67 0.630108 0.488964 0.603223 
453.58 2846.58 3552.16 0.630108 0.488964 0.603223 
719.318 2494.41 3560.56 0.630108 0.488964 0.603223 
278.172 3077.74 3547.65 0.630108 0.488964 0.603223 
517.354 2764.82 3551.94 0.630108 0.488964 0.603223 
632.82 2611.13 3556.14 0.630108 0.488964 0.603223 
541.127 2730.02 3555.36 0.630108 0.488964 0.603223 
388.76 2933.13 3549.58 0.630108 0.488964 0.603223 
809.687 2376.18 3562.19 0.630108 0.488964 0.603223 
511.155 2772.05 3552.54 0.630108 0.488964 0.603223 
685.808 2542.91 3556.2 0.630108 0.488964 0.603223 
622.671 2623.74 3556.49 0.630108 0.488964 0.603223 
729.162 2485.11 3557.85 0.630108 0.488964 0.603223 
777.276 2417.94 3562.12 0.630108 0.488964 0.603223 
797.49 2394.7 3559.9 0.630108 0.488964 0.603223 
655.426 2581.63 3556.48 0.630108 0.488964 0.603223 
671.371 2559.02 3558.18 0.630108 0.488964 0.603223 
409.296 2905.07 3550.91 0.630108 0.488964 0.603223 
619.526 2627.17 3557 0.630108 0.488964 0.603223 
366.45 2961.38 3549.94 0.630108 0.488964 0.603223 
795.201 2397.88 3559.71 0.630108 0.488964 0.603223 
420.632 2889.05 3552.08 0.630108 0.488964 0.603223 
330.474 2997.81 3557.27 0.608818 0.474643 0.635653 
514.796 2753.81 3562.87 0.608818 0.474643 0.635653 
391.333 2920.38 3556.79 0.608818 0.474643 0.635653 
769.726 2417.59 3569.69 0.608818 0.474643 0.635653 
479.95 2802.58 3559.84 0.608818 0.474643 0.635653 
385.578 2927.18 3557.22 0.608818 0.474643 0.635653 
333.174 2995.7 3556.26 0.608818 0.474643 0.635653 
619.388 2615.54 3565.91 0.608818 0.474643 0.635653 
713.201 2496.74 3564.74 0.608818 0.474643 0.635653 
552.203 2707.32 3561.75 0.608818 0.474643 0.635653 
634.997 2599.29 3563.09 0.608818 0.474643 0.635653 
609.214 2632.52 3562.98 0.608818 0.474643 0.635653 
376.663 2936.74 3558.62 0.608818 0.474643 0.635653 
557.419 2698.53 3563.31 0.608818 0.474643 0.635653 
715.556 2487.99 3569.01 0.608818 0.474643 0.635653 
447.24 2846.09 3558.69 0.608818 0.474643 0.635653 
564.144 2689.37 3563.71 0.608818 0.474643 0.635653 
680.071 2542.26 3562.49 0.608818 0.474643 0.635653 
486.939 2793.74 3559.75 0.608818 0.474643 0.635653 
356.034 2965.91 3556.6 0.608818 0.474643 0.635653 
621.807 2613.95 3564.78 0.608818 0.474643 0.635653 
776.063 2416.45 3564.47 0.608818 0.474643 0.635653 
476.529 2805.8 3560.72 0.608818 0.474643 0.635653 
509.46 2762.98 3561.14 0.608818 0.474643 0.635653 
426.394 2874.04 3557.79 0.608818 0.474643 0.635653 
363.148 2954.61 3558.23 0.608818 0.474643 0.635653 
618.608 2622.85 3561.2 0.608818 0.474643 0.635653 
748.886 2452.2 3563.81 0.608818 0.474643 0.635653 
711.924 2496.89 3565.86 0.608818 0.474643 0.635653 
752.248 2440.28 3569.49 0.608818 0.474643 0.635653 
231.35 3128.96 3554.31 0.608818 0.474643 0.635653 
606.628 2637.18 3561.98 0.608818 0.474643 0.635653 
701.969 2510.55 3565.19 0.608818 0.474643 0.635653 
784.073 2398.58 3570.13 0.608818 0.474643 0.635653 
316.389 3025.13 3550.37 0.608818 0.474643 0.635653 
196.71 3180.86 3548.76 0.608818 0.474643 0.635653 
367.507 2955.35 3553.51 0.608818 0.474643 0.635653 
442.942 2858.11 3553.84 0.608818 0.474643 0.635653 
259.251 3100.48 3548.85 0.608818 0.474643 0.635653 
457.61 2839.53 3553.66 0.608818 0.474643 0.635653 
264.239 3093.19 3549.52 0.608818 0.474643 0.635653 
563.232 2696.42 3559.33 0.608818 0.474643 0.635653 
213.8 3156.83 3550.32 0.608818 0.474643 0.635653 
269.606 3081.51 3553.1 0.608818 0.474643 0.635653 
603.668 2644.53 3559.33 0.608818 0.474643 0.635653 
200.553 3172.79 3551.09 0.608818 0.474643 0.635653 
451.831 2842.53 3556.95 0.608818 0.474643 0.635653 
558.668 2705.14 3557.19 0.608818 0.474643 0.635653 
266.038 3091.6 3548.98 0.608818 0.474643 0.635653 
309.538 3028.88 3554.13 0.608818 0.474643 0.635653 
332.376 3003.83 3550.96 0.608818 0.474643 0.635653 
434.377 2865.77 3556.32 0.608818 0.474643 0.635653 
186.304 3193.16 3549.54 0.608818 0.474643 0.635653 
339.448 2993.52 3551.88 0.608818 0.474643 0.635653 
208.654 3166.81 3547.8 0.608818 0.474643 0.635653 
318.889 3022.93 3549.63 0.608818 0.474643 0.635653 
300.327 3041.81 3553.31 0.608818 0.474643 0.635653 
637.027 2600.92 3559.93 0.608818 0.474643 0.635653 
168.084 3213.27 3551.98 0.608818 0.474643 0.635653 
175.321 3205.87 3550.57 0.608818 0.474643 0.635653 
239.07 3123.71 3550.84 0.608818 0.474643 0.635653 
352.342 2975.02 3553.34 0.608818 0.474643 0.635653 
591.338 2659.2 3560.19 0.608818 0.474643 0.635653 
241.615 3121.37 3550.15 0.608818 0.474643 0.635653 
530.658 2740.73 3557.45 0.608818 0.474643 0.635653 
583.19 2672.96 3557.72 0.608818 0.474643 0.635653 
262.808 3088.54 3554.36 0.608818 0.474643 0.635653 
414.612 2890.85 3556.53 0.608818 0.474643 0.635653 
757.134 2424.64 3576 0.590104 0.459713 0.663658 
733.301 2458.92 3573.4 0.590104 0.459713 0.663658 
494.856 2774.44 3566.26 0.590104 0.459713 0.663658 
763.214 2421.33 3572.92 0.590104 0.459713 0.663658 
812.084 2359.17 3572.65 0.590104 0.459713 0.663658 
800.072 2374.6 3572.62 0.590104 0.459713 0.663658 
809.766 2358.7 3575.02 0.590104 0.459713 0.663658 
703.822 2494.69 3574.75 0.590104 0.459713 0.663658 
673.102 2533.74 3574.93 0.590104 0.459713 0.663658 
686.558 2523.99 3569.78 0.590104 0.459713 0.663658 
559 2686.96 3569.98 0.590104 0.459713 0.663658 
270.983 3065.07 3563.43 0.590104 0.459713 0.663658 
657.576 2555.77 3573.44 0.590104 0.459713 0.663658 
709.507 2492.01 3571.58 0.590104 0.459713 0.663658 
423.54 2866.39 3565.8 0.590104 0.459713 0.663658 
801.357 2364.78 3578.25 0.590104 0.459713 0.663658 
696.055 2510.85 3570.46 0.590104 0.459713 0.663658 
450.945 2829.29 3567.19 0.590104 0.459713 0.663658 
718.928 2477.15 3573.51 0.590104 0.459713 0.663658 
320.146 3000.85 3564.33 0.590104 0.459713 0.663658 
649.862 2570.29 3570.24 0.590104 0.459713 0.663658 
441.243 2840.16 3568.26 0.590104 0.459713 0.663658 
497.683 2765.86 3569.68 0.590104 0.459713 0.663658 
614.635 2616.88 3569.21 0.590104 0.459713 0.663658 
539.601 2710.71 3570.72 0.590104 0.459713 0.663658 
224.365 3127.72 3561.37 0.590104 0.459713 0.663658 
685.713 2524.68 3570.05 0.590104 0.459713 0.663658 
494.585 2769.64 3569.81 0.590104 0.459713 0.663658 
795.657 2378.81 3573.61 0.590104 0.459713 0.663658 
594.084 2642.16 3569.91 0.590104 0.459713 0.663658 
742.245 2441.95 3577.21 0.590104 0.459713 0.663658 
495.307 2770.42 3568.64 0.590104 0.459713 0.663658 
560.19 2688.05 3568.18 0.590104 0.459713 0.663658 
626.949 2601.68 3568.82 0.590104 0.459713 0.663658 
583.623 2659.02 3567.51 0.590104 0.459713 0.663658 
178.919 3196.2 3554.26 0.590104 0.459713 0.663658 
241.289 3107.02 3560.71 0.590104 0.459713 0.663658 
398.432 2905.41 3561.05 0.590104 0.459713 0.663658 
303.227 3027.08 3561.17 0.590104 0.459713 0.663658 
314.14 3011.51 3562.28 0.590104 0.459713 0.663658 
384.291 2922.29 3561.89 0.590104 0.459713 0.663658 
422.048 2873.29 3562.36 0.590104 0.459713 0.663658 
486.555 2787 3564.93 0.590104 0.459713 0.663658 
231.597 3125.02 3556.85 0.590104 0.459713 0.663658 
167.928 3211.73 3553.25 0.590104 0.459713 0.663658 
264.664 3081.5 3557.68 0.590104 0.459713 0.663658 
222.306 3135.12 3558.09 0.590104 0.459713 0.663658 
361.905 2953.99 3559.78 0.590104 0.459713 0.663658 
167.913 3203.44 3558.98 0.590104 0.459713 0.663658 
418.353 2880.12 3560.91 0.590104 0.459713 0.663658 
415.509 2878.87 3564.28 0.590104 0.459713 0.663658 
605.134 2632.45 3566.85 0.590104 0.459713 0.663658 
575.693 2670.57 3566.55 0.590104 0.459713 0.663658 
202.644 3156.76 3560.52 0.590104 0.459713 0.663658 
385.258 2920.84 3562.04 0.590104 0.459713 0.663658 
333.654 2991.57 3558.81 0.590104 0.459713 0.663658 
247.218 3103.32 3558.03 0.590104 0.459713 0.663658 
171.99 3203.95 3555.03 0.590104 0.459713 0.663658 
173.474 3198.28 3557.62 0.590104 0.459713 0.663658 
201.826 3165.26 3555.38 0.590104 0.459713 0.663658 
588.196 2655.59 3565.85 0.590104 0.459713 0.663658 
512.326 2754.52 3564.58 0.590104 0.459713 0.663658 
294.447 3036.7 3562.28 0.590104 0.459713 0.663658 
266.295 3076.21 3559.89 0.590104 0.459713 0.663658 
296.726 3033.64 3562.38 0.590104 0.459713 0.663658 
305.071 3024.64 3561.22 0.590104 0.459713 0.663658 
394.795 2911.15 3560.3 0.590104 0.459713 0.663658 
365.78 2946.07 3561.83 0.590104 0.459713 0.663658 
428.92 2848.22 3573.17 0.566709 0.440404 0.696337 
565.283 2670.46 3575.54 0.566709 0.440404 0.696337 
342.125 2960.51 3572.21 0.566709 0.440404 0.696337 
662.623 2542.33 3578.02 0.566709 0.440404 0.696337 
643.795 2566.79 3577.74 0.566709 0.440404 0.696337 
692.286 2498.47 3581.84 0.566709 0.440404 0.696337 
342.115 2961.44 3571.63 0.566709 0.440404 0.696337 
446.001 2826.64 3573.03 0.566709 0.440404 0.696337 
554.128 2685.33 3575.14 0.566709 0.440404 0.696337 
338.622 2965.39 3571.95 0.566709 0.440404 0.696337 
608.434 2609.58 3579.24 0.566709 0.440404 0.696337 
528.06 2713.81 3578.19 0.566709 0.440404 0.696337 
194.885 3154.85 3568.12 0.566709 0.440404 0.696337 
753.384 2415.73 3584.88 0.566709 0.440404 0.696337 
491.049 2762.63 3577.18 0.566709 0.440404 0.696337 
709.423 2481.5 3578.72 0.566709 0.440404 0.696337 
728.582 2448.56 3584.12 0.566709 0.440404 0.696337 
505.072 2745.35 3576.79 0.566709 0.440404 0.696337 
636.695 2577.18 3576.89 0.566709 0.440404 0.696337 
509.732 2742.53 3574.79 0.566709 0.440404 0.696337 
417.655 2862.32 3573.34 0.566709 0.440404 0.696337 
503.135 2751.78 3574.27 0.566709 0.440404 0.696337 
760.248 2406.49 3585.18 0.566709 0.440404 0.696337 
506.446 2742.64 3577.4 0.566709 0.440404 0.696337 
669.112 2528.93 3581.28 0.566709 0.440404 0.696337 
412.407 2868.21 3573.86 0.566709 0.440404 0.696337 
414.812 2864.71 3574.14 0.566709 0.440404 0.696337 
514.174 2738.12 3573.99 0.566709 0.440404 0.696337 
756.991 2411.33 3584.75 0.566709 0.440404 0.696337 
588.591 2636.94 3577.94 0.566709 0.440404 0.696337 
669.951 2526.67 3582.04 0.566709 0.440404 0.696337 
654.247 2553.05 3578 0.566709 0.440404 0.696337 
300.709 3014.94 3571.21 0.566709 0.440404 0.696337 
622.026 2595.1 3577.41 0.566709 0.440404 0.696337 
222.841 3119.8 3567.72 0.566709 0.440404 0.696337 
700.304 2496.54 3576.55 0.566709 0.440404 0.696337 
255.262 3079.83 3566.82 0.566709 0.440404 0.696337 
481.536 2782.78 3572.08 0.566709 0.440404 0.696337 
462.452 2809.47 3570.59 0.566709 0.440404 0.696337 
337.559 2974.88 3566.76 0.566709 0.440404 0.696337 
158.663 3202.6 3567.16 0.566709 0.440404 0.696337 
296.855 3022.28 3569.67 0.566709 0.440404 0.696337 
308.265 3014.91 3565.08 0.566709 0.440404 0.696337 
597.852 2631.73 3573.73 0.566709 0.440404 0.696337 
263.937 3072.63 3564.35 0.566709 0.440404 0.696337 
545.976 2697.8 3573.82 0.566709 0.440404 0.696337 
228.008 3120.01 3563.38 0.566709 0.440404 0.696337 
335.002 2975.44 3568.49 0.566709 0.440404 0.696337 
558.071 2684.79 3572.27 0.566709 0.440404 0.696337 
398.795 2892.7 3569.33 0.566709 0.440404 0.696337 
468.928 2802.4 3569.83 0.566709 0.440404 0.696337 
602.978 2623.25 3574.96 0.566709 0.440404 0.696337 
433.229 2845.8 3571.21 0.566709 0.440404 0.696337 
352.803 2953.92 3567.72 0.566709 0.440404 0.696337 
549.169 2694.11 3573.57 0.566709 0.440404 0.696337 
445.559 2831.44 3570.33 0.566709 0.440404 0.696337 
334.82 2977.65 3567.22 0.566709 0.440404 0.696337 
358.218 2948.86 3566.54 0.566709 0.440404 0.696337 
251.404 3083.15 3567.84 0.566709 0.440404 0.696337 
151.151 3217.12 3564.01 0.566709 0.440404 0.696337 
501.631 2756.57 3572.43 0.566709 0.440404 0.696337 
356.202 2945.51 3570.32 0.566709 0.440404 0.696337 
296.776 3027.31 3566.52 0.566709 0.440404 0.696337 
454.858 2818.27 3571.16 0.566709 0.440404 0.696337 
254.54 3080.69 3566.86 0.566709 0.440404 0.696337 
512.501 2740.97 3573.53 0.566709 0.440404 0.696337 
253.423 3080.66 3567.79 0.566709 0.440404 0.696337 
531.392 2720.34 3571.32 0.566709 0.440404 0.696337 
607.415 2597.24 3587.4 0.544372 0.425239 0.723071 
370.055 2913.46 3579.05 0.544372 0.425239 0.723071 
452.659 2802.66 3582.4 0.544372 0.425239 0.723071 
215.786 3114.77 3576.11 0.544372 0.425239 0.723071 
605.355 2600.98 3586.74 0.544372 0.425239 0.723071 
780.81 2372.5 3589.8 0.544372 0.425239 0.723071 
754.609 2407.94 3588.56 0.544372 0.425239 0.723071 
531.529 2701.05 3583.13 0.544372 0.425239 0.723071 
705.542 2471.16 3588.1 0.544372 0.425239 0.723071 
458.9 2794.17 3582.72 0.544372 0.425239 0.723071 
323.699 2973.93 3578.18 0.544372 0.425239 0.723071 
426.771 2837.15 3581.49 0.544372 0.425239 0.723071 
665.617 2520.15 3589.18 0.544372 0.425239 0.723071 
617.601 2589.77 3584.15 0.544372 0.425239 0.723071 
653.603 2540.9 3585.96 0.544372 0.425239 0.723071 
599.56 2613.52 3583.69 0.544372 0.425239 0.723071 
398.322 2874.4 3580.87 0.544372 0.425239 0.723071 
502.23 2741.97 3580.99 0.544372 0.425239 0.723071 
636.096 2560.11 3587.77 0.544372 0.425239 0.723071 
275.154 3038.26 3576.68 0.544372 0.425239 0.723071 
762.232 2399.1 3588.05 0.544372 0.425239 0.723071 
295.152 3010.1 3578.28 0.544372 0.425239 0.723071 
750.302 2417.43 3586.2 0.544372 0.425239 0.723071 
326.186 2969.2 3579.1 0.544372 0.425239 0.723071 
721.046 2450.77 3588.49 0.544372 0.425239 0.723071 
687.811 2498.41 3585.34 0.544372 0.425239 0.723071 
745.396 2423.99 3586.01 0.544372 0.425239 0.723071 
655.471 2534.64 3588.24 0.544372 0.425239 0.723071 
779.574 2372.16 3590.93 0.544372 0.425239 0.723071 
631.05 2573.54 3583.63 0.544372 0.425239 0.723071 
645.401 2551.4 3585.92 0.544372 0.425239 0.723071 
683.342 2496.69 3589.71 0.544372 0.425239 0.723071 
512.323 2727.76 3581.79 0.544372 0.425239 0.723071 
299.61 3006.13 3577.27 0.544372 0.425239 0.723071 
261.503 3060.8 3573.63 0.544372 0.425239 0.723071 
675.067 2516.83 3584.04 0.544372 0.425239 0.723071 
252.794 3069.73 3574.9 0.544372 0.425239 0.723071 
437.707 2827.89 3578.74 0.544372 0.425239 0.723071 
263.298 3059.97 3572.77 0.544372 0.425239 0.723071 
232.246 3098.83 3573.16 0.544372 0.425239 0.723071 
355.288 2941.33 3573.69 0.544372 0.425239 0.723071 
164.742 3188.26 3571.08 0.544372 0.425239 0.723071 
303.15 3010.29 3572.16 0.544372 0.425239 0.723071 
382.669 2900.09 3577.47 0.544372 0.425239 0.723071 
377.147 2907.18 3577.43 0.544372 0.425239 0.723071 
346.946 2947.61 3576.26 0.544372 0.425239 0.723071 
484.972 2768.29 3578.42 0.544372 0.425239 0.723071 
375.675 2911.23 3576.15 0.544372 0.425239 0.723071 
630.939 2576.41 3582.02 0.544372 0.425239 0.723071 
447.818 2816.32 3577.97 0.544372 0.425239 0.723071 
460.14 2799.97 3578.37 0.544372 0.425239 0.723071 
661.345 2535.76 3583.18 0.544372 0.425239 0.723071 
520.712 2721.23 3579.35 0.544372 0.425239 0.723071 
164.023 3194.54 3567.92 0.544372 0.425239 0.723071 
475.283 2782.08 3577.56 0.544372 0.425239 0.723071 
730.065 2445.56 3584.8 0.544372 0.425239 0.723071 
758.364 2408.28 3585.54 0.544372 0.425239 0.723071 
275.507 3046.38 3571.62 0.544372 0.425239 0.723071 
167.684 3179.62 3573.97 0.544372 0.425239 0.723071 
463.218 2796.9 3577.87 0.544372 0.425239 0.723071 
354.266 2941.1 3574.6 0.544372 0.425239 0.723071 
591.02 2627.5 3581.85 0.544372 0.425239 0.723071 
626.094 2580.94 3582.99 0.544372 0.425239 0.723071 
386.423 2900.71 3574.29 0.544372 0.425239 0.723071 
550.69 2681.93 3580.02 0.544372 0.425239 0.723071 
217.063 3123.39 3570.07 0.544372 0.425239 0.723071 
292.828 3021.62 3573.23 0.544372 0.425239 0.723071 
502.867 2744.84 3578.82 0.544372 0.425239 0.723071 
498.873 2731.03 3589.56 0.518926 0.407611 0.751378 
718.668 2440.8 3595.78 0.518926 0.407611 0.751378 
750.725 2404.83 3593.21 0.518926 0.407611 0.751378 
556.85 2657.95 3589.3 0.518926 0.407611 0.751378 
467.981 2773.46 3587.79 0.518926 0.407611 0.751378 
323.497 2962.58 3584.61 0.518926 0.407611 0.751378 
588.904 2615.22 3590.43 0.518926 0.407611 0.751378 
640.048 2549.87 3590.68 0.518926 0.407611 0.751378 
294.761 2999.01 3584.62 0.518926 0.407611 0.751378 
728.423 2429.53 3595.17 0.518926 0.407611 0.751378 
567.34 2642.97 3590.21 0.518926 0.407611 0.751378 
540.478 2674.64 3591.53 0.518926 0.407611 0.751378 
660.308 2519.17 3593.41 0.518926 0.407611 0.751378 
532.191 2689.23 3589.3 0.518926 0.407611 0.751378 
416.239 2839.63 3587.5 0.518926 0.407611 0.751378 
391.885 2873.31 3585.98 0.518926 0.407611 0.751378 
203.771 3118.63 3582.34 0.518926 0.407611 0.751378 
668.504 2504.36 3595.82 0.518926 0.407611 0.751378 
362.435 2912.06 3585.22 0.518926 0.407611 0.751378 
329.448 2952.37 3586.06 0.518926 0.407611 0.751378 
609.997 2583.3 3593.25 0.518926 0.407611 0.751378 
408.093 2850.05 3587.45 0.518926 0.407611 0.751378 
714.95 2445.88 3595.58 0.518926 0.407611 0.751378 
365.353 2904.4 3587.38 0.518926 0.407611 0.751378 
554.206 2659.94 3590.04 0.518926 0.407611 0.751378 
274.797 3025.24 3584.13 0.518926 0.407611 0.751378 
620.566 2573.69 3591.17 0.518926 0.407611 0.751378 
699.78 2468.24 3593.88 0.518926 0.407611 0.751378 
749.538 2401.26 3595.98 0.518926 0.407611 0.751378 
480.396 2753.12 3590.29 0.518926 0.407611 0.751378 
673.888 2503.23 3592.71 0.518926 0.407611 0.751378 
503.653 2727 3588.45 0.518926 0.407611 0.751378 
471.066 2770.58 3587.23 0.518926 0.407611 0.751378 
524.522 2694.48 3591.75 0.518926 0.407611 0.751378 
145.641 3197.78 3579.38 0.518926 0.407611 0.751378 
528.491 2696.58 3587.85 0.518926 0.407611 0.751378 
165.122 3177.91 3576.74 0.518926 0.407611 0.751378 
249.575 3062.33 3581.35 0.518926 0.407611 0.751378 
705.618 2466.53 3590.77 0.518926 0.407611 0.751378 
364.659 2917.16 3580.9 0.518926 0.407611 0.751378 
325.728 2965.56 3581.44 0.518926 0.407611 0.751378 
225.622 3095.06 3580.07 0.518926 0.407611 0.751378 
364.348 2916.14 3581.67 0.518926 0.407611 0.751378 
198.826 3135.1 3576.77 0.518926 0.407611 0.751378 
348.382 2933.09 3583.47 0.518926 0.407611 0.751378 
312.433 2981.62 3581.88 0.518926 0.407611 0.751378 
545.498 2674.53 3588.11 0.518926 0.407611 0.751378 
331.133 2956.37 3582.71 0.518926 0.407611 0.751378 
619.309 2580.6 3588.27 0.518926 0.407611 0.751378 
221.682 3105.06 3577.34 0.518926 0.407611 0.751378 
309.143 2988.44 3580.43 0.518926 0.407611 0.751378 
292.752 3010.55 3579.72 0.518926 0.407611 0.751378 
460.662 2789.28 3584.23 0.518926 0.407611 0.751378 
217.464 3106.56 3579.44 0.518926 0.407611 0.751378 
441.109 2813.28 3584.66 0.518926 0.407611 0.751378 
137.166 3214.35 3576.21 0.518926 0.407611 0.751378 
560.963 2657.81 3586.53 0.518926 0.407611 0.751378 
138.998 3205.97 3579.52 0.518926 0.407611 0.751378 
315.323 2981.57 3579.91 0.518926 0.407611 0.751378 
184.551 3151.88 3577.5 0.518926 0.407611 0.751378 
380.399 2892.42 3583.5 0.518926 0.407611 0.751378 
485.585 2756.68 3584.76 0.518926 0.407611 0.751378 
211.47 3117.92 3577.39 0.518926 0.407611 0.751378 
530.179 2697.77 3586.03 0.518926 0.407611 0.751378 
297.835 3004.81 3579.33 0.518926 0.407611 0.751378 
258.189 3050.98 3581.58 0.518926 0.407611 0.751378 
182.063 3157.45 3576.18 0.518926 0.407611 0.751378 
216.759 3111.5 3577.24 0.518926 0.407611 0.751378 
716.466 2438.51 3598.49 0.495666 0.391658 0.77519 
625.299 2548.83 3600.98 0.495666 0.391658 0.77519 
694.351 2465.51 3598.97 0.495666 0.391658 0.77519 
620.688 2558.81 3598.88 0.495666 0.391658 0.77519 
750.013 2388.55 3602.3 0.495666 0.391658 0.77519 
341.227 2923.87 3592.95 0.495666 0.391658 0.77519 
735.996 2411.56 3599.63 0.495666 0.391658 0.77519 
425.274 2816.92 3593.3 0.495666 0.391658 0.77519 
777.074 2350.72 3604.12 0.495666 0.391658 0.77519 
743.486 2396.84 3602.28 0.495666 0.391658 0.77519 
248.94 3046.21 3590.09 0.495666 0.391658 0.77519 
490.548 2728.69 3596.18 0.495666 0.391658 0.77519 
733.924 2415.31 3599.06 0.495666 0.391658 0.77519 
287.954 2995.27 3590.91 0.495666 0.391658 0.77519 
572.988 2623.25 3596.8 0.495666 0.391658 0.77519 
671.854 2496.55 3597.66 0.495666 0.391658 0.77519 
717.007 2433.64 3600.6 0.495666 0.391658 0.77519 
763.413 2374.97 3600.6 0.495666 0.391658 0.77519 
770.724 2360.67 3603.15 0.495666 0.391658 0.77519 
669.262 2495.77 3599.71 0.495666 0.391658 0.77519 
244.951 3052.01 3589.71 0.495666 0.391658 0.77519 
494.308 2727.63 3594.32 0.495666 0.391658 0.77519 
703.045 2455.71 3598.37 0.495666 0.391658 0.77519 
427.749 2814.83 3592.78 0.495666 0.391658 0.77519 
695.706 2464.61 3598.56 0.495666 0.391658 0.77519 
700.105 2459.53 3598.32 0.495666 0.391658 0.77519 
546.57 2659.38 3595.42 0.495666 0.391658 0.77519 
413.838 2831.41 3593.28 0.495666 0.391658 0.77519 
636.309 2541.4 3597.71 0.495666 0.391658 0.77519 
341.797 2923.79 3592.62 0.495666 0.391658 0.77519 
284.331 3000.86 3590.39 0.495666 0.391658 0.77519 
558.586 2636.33 3599.38 0.495666 0.391658 0.77519 
706.626 2448.18 3599.89 0.495666 0.391658 0.77519 
729.571 2415.21 3601.89 0.495666 0.391658 0.77519 
248.172 3049.77 3588.78 0.495666 0.391658 0.77519 
323.183 2959.09 3586.69 0.495666 0.391658 0.77519 
435.199 2808.44 3591.25 0.495666 0.391658 0.77519 
150.455 3178.64 3586.09 0.495666 0.391658 0.77519 
165.594 3157.59 3587.06 0.495666 0.391658 0.77519 
244.377 3057.83 3587.14 0.495666 0.391658 0.77519 
169.684 3157.25 3584.62 0.495666 0.391658 0.77519 
347.569 2919.84 3590.94 0.495666 0.391658 0.77519 
368.831 2897.96 3588.41 0.495666 0.391658 0.77519 
131.487 3206.58 3584.09 0.495666 0.391658 0.77519 
698.544 2462.32 3597.91 0.495666 0.391658 0.77519 
407.178 2846.14 3590.1 0.495666 0.391658 0.77519 
257.769 3042.68 3586.24 0.495666 0.391658 0.77519 
137.038 3194.86 3586.46 0.495666 0.391658 0.77519 
152.422 3183.53 3582.37 0.495666 0.391658 0.77519 
210.014 3108.53 3583.48 0.495666 0.391658 0.77519 
290.734 2998.29 3587.61 0.495666 0.391658 0.77519 
287.553 2999.47 3589.04 0.495666 0.391658 0.77519 
353.457 2916.59 3588.82 0.495666 0.391658 0.77519 
193.682 3130.18 3582.97 0.495666 0.391658 0.77519 
606.305 2585.53 3594.57 0.495666 0.391658 0.77519 
403.513 2847.63 3591.68 0.495666 0.391658 0.77519 
348.943 2920.69 3589.63 0.495666 0.391658 0.77519 
395.717 2862.06 3589.38 0.495666 0.391658 0.77519 
239.757 3062.1 3587.93 0.495666 0.391658 0.77519 
285.432 3006.5 3586.85 0.495666 0.391658 0.77519 
516.662 2702.74 3592.62 0.495666 0.391658 0.77519 
608.726 2581.87 3594.88 0.495666 0.391658 0.77519 
217.06 3095.46 3585.58 0.495666 0.391658 0.77519 
305.19 2975.9 3589.68 0.495666 0.391658 0.77519 
174.584 3156.56 3581.84 0.495666 0.391658 0.77519 
261.314 3037.66 3586.51 0.495666 0.391658 0.77519 
238.577 3063.79 3587.83 0.495666 0.391658 0.77519 
656.499 2516.71 3597.28 0.495666 0.391658 0.77519 
641.171 2519.59 3605.33 0.469694 0.373511 0.799923 
570.658 2612.47 3603.43 0.469694 0.373511 0.799923 
711.862 2424.94 3607.95 0.469694 0.373511 0.799923 
439.632 2780.93 3601.82 0.469694 0.373511 0.799923 
670.233 2482.27 3605.66 0.469694 0.373511 0.799923 
770.751 2342.8 3611.66 0.469694 0.373511 0.799923 
566.409 2616.25 3604.16 0.469694 0.373511 0.799923 
641.315 2513.99 3607.85 0.469694 0.373511 0.799923 
581.992 2599.25 3602.94 0.469694 0.373511 0.799923 
530.177 2667.35 3601.61 0.469694 0.373511 0.799923 
238.824 3046.1 3596.1 0.469694 0.373511 0.799923 
351.871 2900.04 3597.82 0.469694 0.373511 0.799923 
485.794 2724.4 3601.07 0.469694 0.373511 0.799923 
714.85 2423.44 3606.89 0.469694 0.373511 0.799923 
280.351 2993.85 3596.08 0.469694 0.373511 0.799923 
636.898 2520.77 3607.29 0.469694 0.373511 0.799923 
666.57 2490.45 3604 0.469694 0.373511 0.799923 
468.574 2743.19 3602.42 0.469694 0.373511 0.799923 
612.319 2559.87 3603.49 0.469694 0.373511 0.799923 
669.985 2481.09 3606.36 0.469694 0.373511 0.799923 
556.83 2630.05 3603.35 0.469694 0.373511 0.799923 
575.659 2604.91 3604.02 0.469694 0.373511 0.799923 
528.595 2663.59 3604.29 0.469694 0.373511 0.799923 
525.617 2674.02 3601.18 0.469694 0.373511 0.799923 
519.752 2676.77 3603.34 0.469694 0.373511 0.799923 
389.668 2849.13 3599.36 0.469694 0.373511 0.799923 
707.81 2433.8 3606.2 0.469694 0.373511 0.799923 
436.814 2784.95 3601.6 0.469694 0.373511 0.799923 
515.195 2685.79 3601.81 0.469694 0.373511 0.799923 
739.899 2389.96 3607.8 0.469694 0.373511 0.799923 
565.097 2615.02 3605.51 0.469694 0.373511 0.799923 
739.623 2384.23 3610.63 0.469694 0.373511 0.799923 
484.884 2723.16 3602.18 0.469694 0.373511 0.799923 
703.486 2434.6 3608.36 0.469694 0.373511 0.799923 
256.689 3033.39 3591.54 0.469694 0.373511 0.799923 
168.719 3144.93 3591.19 0.469694 0.373511 0.799923 
219.087 3074.13 3594.63 0.469694 0.373511 0.799923 
331.737 2934.85 3593.42 0.469694 0.373511 0.799923 
491.555 2719.75 3599.86 0.469694 0.373511 0.799923 
338.244 2924.11 3594.61 0.469694 0.373511 0.799923 
261.024 3026.18 3592.36 0.469694 0.373511 0.799923 
166.935 3152.85 3588.55 0.469694 0.373511 0.799923 
419.511 2819.68 3595.57 0.469694 0.373511 0.799923 
236.895 3055.37 3592.92 0.469694 0.373511 0.799923 
208.9 3096.71 3590.08 0.469694 0.373511 0.799923 
158.653 3158.28 3590.88 0.469694 0.373511 0.799923 
685.676 2467.33 3603.56 0.469694 0.373511 0.799923 
690.841 2459.96 3603.97 0.469694 0.373511 0.799923 
136.321 3181.65 3593.09 0.469694 0.373511 0.799923 
468.77 2751.13 3598.61 0.469694 0.373511 0.799923 
593.269 2588.08 3601.52 0.469694 0.373511 0.799923 
322.569 2945.56 3593.81 0.469694 0.373511 0.799923 
506.629 2701.54 3599.5 0.469694 0.373511 0.799923 
398.082 2841.51 3597.98 0.469694 0.373511 0.799923 
671.88 2485.04 3603.41 0.469694 0.373511 0.799923 
246.529 3041.08 3593.92 0.469694 0.373511 0.799923 
