ply
format ascii 1.0
comment Created by CloudCompare v2.11.3 (Anoia)
comment Created 08/09/2022 00:15
obj_info Generated by CloudCompare!
element vertex 487
property float x
property float y
property float z
property float nx
property float ny
property float nz
end_header
-3293.1 -603.043 1481.4 -0.39803 -0.136427 0.907171 
-3186.86 -145.265 1596.81 -0.39803 -0.136427 0.907171 
-3407.23 -501.965 1446.5 -0.39803 -0.136427 0.907171 
-3697.18 -589.056 1306.17 -0.39803 -0.136427 0.907171 
-3384.69 -504.091 1456.08 -0.39803 -0.136427 0.907171 
-3225.2 -922.778 1463.16 -0.39803 -0.136427 0.907171 
-3314.79 -254.114 1524.31 -0.39803 -0.136427 0.907171 
-3238.28 -117.092 1578.47 -0.39803 -0.136427 0.907171 
-3567.76 -580.964 1364.19 -0.39803 -0.136427 0.907171 
-3217.68 -821.193 1481.73 -0.39803 -0.136427 0.907171 
-3617.86 -714.992 1322.06 -0.39803 -0.136427 0.907171 
-3316.92 -862.549 1431.96 -0.39803 -0.136427 0.907171 
-3439.81 -270.831 1466.93 -0.39803 -0.136427 0.907171 
-3346.54 -1114.14 1381.16 -0.39803 -0.136427 0.907171 
-3532.36 -442.623 1400.5 -0.39803 -0.136427 0.907171 
-3153.7 -222.944 1599.68 -0.39803 -0.136427 0.907171 
-3259.42 -466.662 1516.68 -0.39803 -0.136427 0.907171 
-3266.71 -199.968 1553.54 -0.39803 -0.136427 0.907171 
-3166.06 -255.349 1589.39 -0.39803 -0.136427 0.907171 
-3257.05 -722.835 1479.23 -0.39803 -0.136427 0.907171 
-3225.39 -931.476 1461.78 -0.39803 -0.136427 0.907171 
-3147.03 -65.7976 1626.22 -0.39803 -0.136427 0.907171 
-3694.27 -596.214 1306.37 -0.39803 -0.136427 0.907171 
-3145.8 -317.61 1588.93 -0.39803 -0.136427 0.907171 
-3608.23 -784.322 1315.87 -0.39803 -0.136427 0.907171 
-3638.73 -452.581 1352.33 -0.39803 -0.136427 0.907171 
-3535.5 -668.862 1365.14 -0.39803 -0.136427 0.907171 
-3395.33 -258.268 1488.34 -0.39803 -0.136427 0.907171 
-3382.67 -890.186 1398.95 -0.39803 -0.136427 0.907171 
-3179.92 -473.669 1550.51 -0.39803 -0.136427 0.907171 
-3403.89 -814.114 1401.07 -0.39803 -0.136427 0.907171 
-3218.13 -1201.39 1424.41 -0.39803 -0.136427 0.907171 
-2711.04 -568.79 1741.99 -0.39803 -0.136427 0.907171 
-3065.92 -376.249 1615.18 -0.39803 -0.136427 0.907171 
-2881.29 -376.82 1696.12 -0.39803 -0.136427 0.907171 
-3075.97 -907.504 1530.95 -0.39803 -0.136427 0.907171 
-3047.79 -1038.25 1523.67 -0.39803 -0.136427 0.907171 
-2739.81 -494.339 1740.55 -0.39803 -0.136427 0.907171 
-2951.69 -945.699 1579.75 -0.39803 -0.136427 0.907171 
-3073.07 -654.78 1570.19 -0.39803 -0.136427 0.907171 
-2717.79 -703.688 1718.76 -0.39803 -0.136427 0.907171 
-3043.27 -860.512 1552.36 -0.39803 -0.136427 0.907171 
-3007.25 -678.589 1595.5 -0.39803 -0.136427 0.907171 
-2865.18 -286.019 1716.83 -0.39803 -0.136427 0.907171 
-3025.06 -525.479 1610.69 -0.39803 -0.136427 0.907171 
-2852.64 -486.205 1692.26 -0.39803 -0.136427 0.907171 
-2643.55 -751.904 1744.1 -0.39803 -0.136427 0.907171 
-2725.48 -886.654 1687.9 -0.39803 -0.136427 0.907171 
-3054.31 -957.422 1532.96 -0.39803 -0.136427 0.907171 
-2995.86 -905.141 1566.46 -0.39803 -0.136427 0.907171 
-2919.28 -804.283 1615.23 -0.39803 -0.136427 0.907171 
-2980.14 -773.478 1593.14 -0.39803 -0.136427 0.907171 
-2918.59 -999.203 1586.24 -0.39803 -0.136427 0.907171 
-2958.64 -368.858 1663.37 -0.39803 -0.136427 0.907171 
-2802.31 -777.34 1670.6 -0.39803 -0.136427 0.907171 
-2742.85 -710.307 1706.77 -0.39803 -0.136427 0.907171 
-2863.16 -965.788 1615.59 -0.39803 -0.136427 0.907171 
-2884.04 -293.504 1707.43 -0.39803 -0.136427 0.907171 
-2996.96 -602.99 1611.37 -0.39803 -0.136427 0.907171 
-2836.2 -402.857 1711.99 -0.39803 -0.136427 0.907171 
-3068.54 -697.729 1565.73 -0.39803 -0.136427 0.907171 
-2786.8 -414.849 1731.87 -0.39803 -0.136427 0.907171 
-2943.4 -645.409 1628.51 -0.39803 -0.136427 0.907171 
-3079.24 -78.5979 817.053 -0.600561 0.786271 -0.145273 
-3714.47 -516.199 1077.04 -0.600561 0.786271 -0.145273 
-3284.67 -231.727 838.51 -0.600561 0.786271 -0.145273 
-3278.78 -273.62 588.211 -0.600561 0.786271 -0.145273 
-3391.16 -374.114 509.719 -0.600561 0.786271 -0.145273 
-2991.8 -25.7072 741.65 -0.600561 0.786271 -0.145273 
-3556.69 -399.546 1055.4 -0.600561 0.786271 -0.145273 
-2886.16 50.6412 717.682 -0.600561 0.786271 -0.145273 
-3402.53 -377.295 539.449 -0.600561 0.786271 -0.145273 
-2985.4 -19.6822 747.756 -0.600561 0.786271 -0.145273 
-3605.86 -431.669 1084.96 -0.600561 0.786271 -0.145273 
-2823.32 107.588 765.665 -0.600561 0.786271 -0.145273 
-3612.09 -462.935 941.984 -0.600561 0.786271 -0.145273 
-3151.11 -165.952 642.339 -0.600561 0.786271 -0.145273 
-3107.31 -129.339 659.12 -0.600561 0.786271 -0.145273 
-3723.2 -502.028 1189.48 -0.600561 0.786271 -0.145273 
-3313.26 -227.402 979.778 -0.600561 0.786271 -0.145273 
-3418.59 -385.341 562.317 -0.600561 0.786271 -0.145273 
-3428.12 -349.71 793.831 -0.600561 0.786271 -0.145273 
-3303.85 -291.627 594.493 -0.600561 0.786271 -0.145273 
-3531.85 -384.949 1031.65 -0.600561 0.786271 -0.145273 
-3660.1 -477.712 1060.36 -0.600561 0.786271 -0.145273 
-2896.64 55.3907 786.55 -0.600561 0.786271 -0.145273 
-3501.59 -352.425 1082.29 -0.600561 0.786271 -0.145273 
-3497.19 -361.681 1014.19 -0.600561 0.786271 -0.145273 
-2876.56 76.3755 816.908 -0.600561 0.786271 -0.145273 
-3654.04 -476.207 1043.44 -0.600561 0.786271 -0.145273 
-3040.21 -94.7203 569.06 -0.600561 0.786271 -0.145273 
-3274.25 -266.361 608.694 -0.600561 0.786271 -0.145273 
-3650.08 -458.354 1123.44 -0.600561 0.786271 -0.145273 
-2993.77 -14.8159 808.525 -0.600561 0.786271 -0.145273 
-3244.59 -252.05 563.505 -0.600561 0.786271 -0.145273 
-2982.4 36.8071 1040.11 -0.600561 0.786271 -0.145273 
-3032.71 19.8088 1155.95 -0.600561 0.786271 -0.145273 
-3050.65 -35.3325 932.497 -0.600561 0.786271 -0.145273 
-3415.21 -225.331 1411.53 -0.600561 0.786271 -0.145273 
-3204.36 -101.786 1208.12 -0.600561 0.786271 -0.145273 
-3547.76 -348.423 1294.33 -0.600561 0.786271 -0.145273 
-3555.65 -379.234 1160.67 -0.600561 0.786271 -0.145273 
-2924.45 46.051 850.904 -0.600561 0.786271 -0.145273 
-3384.44 -210.777 1363.07 -0.600561 0.786271 -0.145273 
-3281.18 -195.549 1019.26 -0.600561 0.786271 -0.145273 
-3550.82 -340.484 1349.79 -0.600561 0.786271 -0.145273 
-3393.16 -203.618 1437.67 -0.600561 0.786271 -0.145273 
-3399.39 -253.742 1193.01 -0.600561 0.786271 -0.145273 
-2815.73 128.738 848.436 -0.600561 0.786271 -0.145273 
-3191.12 -134.537 976.844 -0.600561 0.786271 -0.145273 
-3406.78 -239.109 1302.43 -0.600561 0.786271 -0.145273 
-3161.08 -64.3708 1231.41 -0.600561 0.786271 -0.145273 
-3497.89 -306.25 1316.11 -0.600561 0.786271 -0.145273 
-3160.21 -75.766 1166.38 -0.600561 0.786271 -0.145273 
-3412.49 -213.737 1462.83 -0.600561 0.786271 -0.145273 
-2910.15 112.072 1148.06 -0.600561 0.786271 -0.145273 
-3127.85 2.72107 1456.27 -0.600561 0.786271 -0.145273 
-3281.57 -130.686 1370.77 -0.600561 0.786271 -0.145273 
-3150.15 1.18799 1539.98 -0.600561 0.786271 -0.145273 
-3172.05 -15.0699 1542.62 -0.600561 0.786271 -0.145273 
-3146.73 -29.9855 1357.7 -0.600561 0.786271 -0.145273 
-3465.55 -287.76 1282.42 -0.600561 0.786271 -0.145273 
-2968.29 27.9018 933.857 -0.600561 0.786271 -0.145273 
-3688.92 -453.764 1308.44 -0.600561 0.786271 -0.145273 
-3498.43 -329.605 1192.36 -0.600561 0.786271 -0.145273 
-2872.98 92.9323 891.444 -0.600561 0.786271 -0.145273 
-2845.71 106.939 854.53 -0.600561 0.786271 -0.145273 
-2846.07 -1118.25 1111.07 0.602471 -0.784857 0.145012 
-2821.57 -1003.79 1627.48 0.602471 -0.784857 0.145012 
-2816.49 -1067.38 1263.48 0.602471 -0.784857 0.145012 
-2582.13 -801.195 1732.57 0.602471 -0.784857 0.145012 
-2739.97 -938.722 1641.86 0.602471 -0.784857 0.145012 
-3070.64 -1279.52 1167.61 0.602471 -0.784857 0.145012 
-2820.47 -1128.7 949.16 0.602471 -0.784857 0.145012 
-2806.36 -1123.11 921.106 0.602471 -0.784857 0.145012 
-2792.68 -1016.32 1440.73 0.602471 -0.784857 0.145012 
-2875.74 -1136.57 1134.69 0.602471 -0.784857 0.145012 
-2718.25 -932.322 1586.8 0.602471 -0.784857 0.145012 
-2830.62 -1083.25 1236.17 0.602471 -0.784857 0.145012 
-3056.87 -1236.97 1340.31 0.602471 -0.784857 0.145012 
-2620.08 -893.627 1390.52 0.602471 -0.784857 0.145012 
-2722.88 -929.143 1623.03 0.602471 -0.784857 0.145012 
-2637.86 -843.958 1731.81 0.602471 -0.784857 0.145012 
-2896.62 -1140.86 1197.7 0.602471 -0.784857 0.145012 
-3109.72 -1261.98 1423.42 0.602471 -0.784857 0.145012 
-2875.02 -1178.66 904.685 0.602471 -0.784857 0.145012 
-2736.93 -1019.09 1195.77 0.602471 -0.784857 0.145012 
-2972.77 -1207.02 1154.97 0.602471 -0.784857 0.145012 
-2885.86 -1178.56 949.929 0.602471 -0.784857 0.145012 
-2921.56 -1222.39 860.756 0.602471 -0.784857 0.145012 
-2860.61 -1183.93 816.807 0.602471 -0.784857 0.145012 
-2619.91 -872.479 1503.91 0.602471 -0.784857 0.145012 
-3044.14 -1224.68 1354.08 0.602471 -0.784857 0.145012 
-2832.48 -1186.92 684.638 0.602471 -0.784857 0.145012 
-2814.17 -1026.75 1473.1 0.602471 -0.784857 0.145012 
-2894.76 -1198.68 878.147 0.602471 -0.784857 0.145012 
-2722.04 -1016.31 1149.38 0.602471 -0.784857 0.145012 
-2952.62 -1228.3 956.997 0.602471 -0.784857 0.145012 
-3055.09 -1258.91 1214.61 0.602471 -0.784857 0.145012 
-2461.95 -724.248 1651.9 0.602471 -0.784857 0.145012 
-2388.46 -752.375 1196.97 0.602471 -0.784857 0.145012 
-2348.96 -713.684 1242.76 0.602471 -0.784857 0.145012 
-2428.58 -767.918 1278.64 0.602471 -0.784857 0.145012 
-2386.05 -697.257 1484.35 0.602471 -0.784857 0.145012 
-2440.51 -757.013 1386.68 0.602471 -0.784857 0.145012 
-2407.82 -805.038 992.756 0.602471 -0.784857 0.145012 
-2721.6 -1116.08 609.298 0.602471 -0.784857 0.145012 
-2762.3 -1150.11 593.707 0.602471 -0.784857 0.145012 
-2503.32 -735.823 1760.11 0.602471 -0.784857 0.145012 
-2730.18 -1089.37 788.833 0.602471 -0.784857 0.145012 
-2506.03 -848.593 1162.96 0.602471 -0.784857 0.145012 
-2484.76 -861.776 1004.1 0.602471 -0.784857 0.145012 
-2221.09 -688.869 849.076 0.602471 -0.784857 0.145012 
-2668.71 -987.124 1086.78 0.602471 -0.784857 0.145012 
-2407.37 -734.624 1370.73 0.602471 -0.784857 0.145012 
-2696.51 -1032.57 956.29 0.602471 -0.784857 0.145012 
-2437.65 -774.427 1280.95 0.602471 -0.784857 0.145012 
-2535.33 -828.75 1390.87 0.602471 -0.784857 0.145012 
-2394.51 -818.859 863.292 0.602471 -0.784857 0.145012 
-2224.4 -646.726 1090.1 0.602471 -0.784857 0.145012 
-2590.07 -954.531 938.17 0.602471 -0.784857 0.145012 
-2628.46 -1021.33 736.222 0.602471 -0.784857 0.145012 
-2180.22 -636.314 963.995 0.602471 -0.784857 0.145012 
-2269.15 -690.884 1036.48 0.602471 -0.784857 0.145012 
-2456.68 -865.186 869.867 0.602471 -0.784857 0.145012 
-2494.6 -853.255 1090.68 0.602471 -0.784857 0.145012 
-2529.49 -890.253 1035.02 0.602471 -0.784857 0.145012 
-2421.65 -848.171 817.157 0.602471 -0.784857 0.145012 
-2482.74 -740.777 1648.47 0.602471 -0.784857 0.145012 
-2255.62 -715.043 850.342 0.602471 -0.784857 0.145012 
-2997.19 -1160.65 764.069 -0.692674 -0.603403 -0.395105 
-3037.18 -1178.77 861.964 -0.692674 -0.603403 -0.395105 
-3312.28 -973.79 1031.71 -0.692674 -0.603403 -0.395105 
-3103.64 -1058.3 794.566 -0.692674 -0.603403 -0.395105 
-3581.85 -760.631 1179.26 -0.692674 -0.603403 -0.395105 
-3115.3 -1113.64 899.589 -0.692674 -0.603403 -0.395105 
-3320.63 -1023.5 1122.32 -0.692674 -0.603403 -0.395105 
-3385.15 -867.541 997.3 -0.692674 -0.603403 -0.395105 
-3277.88 -1202.64 1321 -0.692674 -0.603403 -0.395105 
-3618.62 -790.228 1289.04 -0.692674 -0.603403 -0.395105 
-3305.45 -949.669 982.854 -0.692674 -0.603403 -0.395105 
-2983.64 -1164.14 745.598 -0.692674 -0.603403 -0.395105 
-3417.39 -956.222 1189.39 -0.692674 -0.603403 -0.395105 
-3142.06 -1060.13 864.815 -0.692674 -0.603403 -0.395105 
-3458.83 -856.571 1109.89 -0.692674 -0.603403 -0.395105 
-2990.77 -1087.44 640.927 -0.692674 -0.603403 -0.395105 
-3302.22 -1110.95 1223.63 -0.692674 -0.603403 -0.395105 
-3013.09 -1222.49 886.459 -0.692674 -0.603403 -0.395105 
-3036.22 -1132.29 789.245 -0.692674 -0.603403 -0.395105 
-3299.13 -1129.56 1246.63 -0.692674 -0.603403 -0.395105 
-3107.07 -1073.31 823.515 -0.692674 -0.603403 -0.395105 
-3503.96 -912.452 1274.49 -0.692674 -0.603403 -0.395105 
-3026.09 -1169.86 828.861 -0.692674 -0.603403 -0.395105 
-3180.26 -1188 1127.25 -0.692674 -0.603403 -0.395105 
-3084.14 -1045.16 740.251 -0.692674 -0.603403 -0.395105 
-3142.83 -1110.68 943.377 -0.692674 -0.603403 -0.395105 
-3121.83 -1007.08 748.234 -0.692674 -0.603403 -0.395105 
-3150.97 -1312.84 1266.58 -0.692674 -0.603403 -0.395105 
-3388.44 -1076.95 1323.04 -0.692674 -0.603403 -0.395105 
-3305.99 -929.001 952.225 -0.692674 -0.603403 -0.395105 
-3318.54 -1113.19 1255.69 -0.692674 -0.603403 -0.395105 
-3091.18 -902.783 535.067 -0.692674 -0.603403 -0.395105 
-3468.49 -526.928 623.158 -0.692674 -0.603403 -0.395105 
-3313.12 -617.882 489.366 -0.692674 -0.603403 -0.395105 
-3243.42 -855.544 730.139 -0.692674 -0.603403 -0.395105 
-3531.83 -499.205 691.997 -0.692674 -0.603403 -0.395105 
-3183.4 -740.804 449.452 -0.692674 -0.603403 -0.395105 
-3031.02 -1038.69 637.1 -0.692674 -0.603403 -0.395105 
-3406.93 -647.858 699.873 -0.692674 -0.603403 -0.395105 
-3712.61 -538.086 1068.78 -0.692674 -0.603403 -0.395105 
-3109.02 -847.772 482.331 -0.692674 -0.603403 -0.395105 
-3343.98 -706.358 678.746 -0.692674 -0.603403 -0.395105 
-3609.04 -529.224 873.408 -0.692674 -0.603403 -0.395105 
-3236.07 -746.479 550.592 -0.692674 -0.603403 -0.395105 
-3497.71 -643.181 852.097 -0.692674 -0.603403 -0.395105 
-3425.9 -728.118 855.798 -0.692674 -0.603403 -0.395105 
-3227.65 -927.803 812.862 -0.692674 -0.603403 -0.395105 
-3612.58 -593.107 977.244 -0.692674 -0.603403 -0.395105 
-3325.98 -627.395 526.487 -0.692674 -0.603403 -0.395105 
-3607.23 -508.775 838.988 -0.692674 -0.603403 -0.395105 
-3290.45 -872.961 839.315 -0.692674 -0.603403 -0.395105 
-3463.32 -499.166 571.665 -0.692674 -0.603403 -0.395105 
-3471.57 -531.799 636.007 -0.692674 -0.603403 -0.395105 
-3413.57 -735.127 844.869 -0.692674 -0.603403 -0.395105 
-3105.97 -939.514 617.141 -0.692674 -0.603403 -0.395105 
-3525.26 -546.829 753.229 -0.692674 -0.603403 -0.395105 
-3525.58 -733.917 1039.66 -0.692674 -0.603403 -0.395105 
-3704.31 -581.962 1121.25 -0.692674 -0.603403 -0.395105 
-3326.26 -530.414 378.797 -0.692674 -0.603403 -0.395105 
-3584.18 -526.434 825.518 -0.692674 -0.603403 -0.395105 
-3294.35 -722.671 616.53 -0.692674 -0.603403 -0.395105 
-3386.77 -763.13 840.598 -0.692674 -0.603403 -0.395105 
-2850.98 -106.465 1429.74 0.694388 0.602023 0.394201 
-2989.85 -15.1726 1534.05 0.694388 0.602023 0.394201 
-2915.87 -34.6896 1434 0.694388 0.602023 0.394201 
-2847.02 -57.4653 1347.93 0.694388 0.602023 0.394201 
-2791.83 -70.5864 1271.08 0.694388 0.602023 0.394201 
-2801.91 -31.5601 1229.15 0.694388 0.602023 0.394201 
-2796.91 -56.709 1258.81 0.694388 0.602023 0.394201 
-2951.38 43.3818 1377.05 0.694388 0.602023 0.394201 
-2951.69 103.828 1285.24 0.694388 0.602023 0.394201 
-2954.78 93.359 1306.65 0.694388 0.602023 0.394201 
-2948.47 94.3145 1294.12 0.694388 0.602023 0.394201 
-2735.59 113.989 890.322 0.694388 0.602023 0.394201 
-2704.89 69.0855 905.038 0.694388 0.602023 0.394201 
-2702.26 -47.2261 1078.14 0.694388 0.602023 0.394201 
-2719.95 -64.1321 1135.03 0.694388 0.602023 0.394201 
-2585.18 -566.925 1666.68 0.694388 0.602023 0.394201 
-2716.91 -362.675 1585.85 0.694388 0.602023 0.394201 
-2796.26 -318.103 1657.06 0.694388 0.602023 0.394201 
-2663.35 -478.854 1669.35 0.694388 0.602023 0.394201 
-2854.54 -280.674 1702.18 0.694388 0.602023 0.394201 
-2758.41 -369.53 1669.19 0.694388 0.602023 0.394201 
-2930.26 -123.973 1595.69 0.694388 0.602023 0.394201 
-2902.16 -171.174 1618.47 0.694388 0.602023 0.394201 
-3042.08 -37.8679 1660.42 0.694388 0.602023 0.394201 
-2565.23 -557.856 1617.79 0.694388 0.602023 0.394201 
-2659.59 16.9918 905.119 0.694388 0.602023 0.394201 
-2570.72 -174.854 1042.22 0.694388 0.602023 0.394201 
-2633.6 -16.2247 910.23 0.694388 0.602023 0.394201 
-2596.44 -83.3829 947.608 0.694388 0.602023 0.394201 
-2511.02 -714.589 1762.11 0.694388 0.602023 0.394201 
-2457.86 -521.831 1374.27 0.694388 0.602023 0.394201 
-2450.44 -507.913 1339.96 0.694388 0.602023 0.394201 
-2294.57 -582.97 1181 0.694388 0.602023 0.394201 
-2497.67 -668.874 1668.82 0.694388 0.602023 0.394201 
-2187.17 -578.617 985.806 0.694388 0.602023 0.394201 
-2284.45 -647.632 1262.05 0.694388 0.602023 0.394201 
-2420.04 -534.023 1326.5 0.694388 0.602023 0.394201 
-2178.96 -613 1023.93 0.694388 0.602023 0.394201 
-2227.17 -550.407 1012.93 0.694388 0.602023 0.394201 
-2374.14 -459.011 1131.29 0.694388 0.602023 0.394201 
-2293.92 -467.621 1003.61 0.694388 0.602023 0.394201 
-2226.04 -515.599 957.753 0.694388 0.602023 0.394201 
-2466.21 -255.91 982.605 0.694388 0.602023 0.394201 
-2517.31 -201.474 989.131 0.694388 0.602023 0.394201 
-2335.22 -333.807 871.662 0.694388 0.602023 0.394201 
-2524.33 -67.9371 797.419 0.694388 0.602023 0.394201 
-2506.04 -246.249 1037.76 0.694388 0.602023 0.394201 
-2498.03 -197.968 949.929 0.694388 0.602023 0.394201 
-2669.54 89.6566 811.558 0.694388 0.602023 0.394201 
-2478.03 -205.932 926.989 0.694388 0.602023 0.394201 
-2518.94 -673.783 708.174 0.399048 0.136776 -0.906671 
-2745.24 -738.249 599.178 0.399048 0.136776 -0.906671 
-3036.49 -743.369 470.589 0.399048 0.136776 -0.906671 
-2794.94 -666.232 588.187 0.399048 0.136776 -0.906671 
-2290.46 -587.068 821.474 0.399048 0.136776 -0.906671 
-2919.26 -942.386 492.138 0.399048 0.136776 -0.906671 
-2721.14 -865.289 590.666 0.399048 0.136776 -0.906671 
-2758.6 -1119.66 536.01 0.399048 0.136776 -0.906671 
-2878.01 -1014.22 499.446 0.399048 0.136776 -0.906671 
-3222.04 -539.861 419.734 0.399048 0.136776 -0.906671 
-2229.64 -693.082 832.239 0.399048 0.136776 -0.906671 
-2826.66 -1028.36 519.859 0.399048 0.136776 -0.906671 
-3083.7 -553.435 478.406 0.399048 0.136776 -0.906671 
-3173.92 -724.111 413.173 0.399048 0.136776 -0.906671 
-2616.73 -648.936 668.991 0.399048 0.136776 -0.906671 
-2803.41 -717.982 576.695 0.399048 0.136776 -0.906671 
-2240.56 -680.938 829.271 0.399048 0.136776 -0.906671 
-3193.5 -527.189 434.162 0.399048 0.136776 -0.906671 
-2924.59 -539.217 550.371 0.399048 0.136776 -0.906671 
-2449.75 -566.961 754.586 0.399048 0.136776 -0.906671 
-2684.06 -998.201 586.969 0.399048 0.136776 -0.906671 
-2535.2 -707.557 695.965 0.399048 0.136776 -0.906671 
-3136.35 -723.03 429.82 0.399048 0.136776 -0.906671 
-2959.25 -613.149 524.054 0.399048 0.136776 -0.906671 
-2561.11 -765.522 675.887 0.399048 0.136776 -0.906671 
-3021.5 -818.849 465.828 0.399048 0.136776 -0.906671 
-2807.35 -856.692 554.124 0.399048 0.136776 -0.906671 
-2279.13 -639.004 818.641 0.399048 0.136776 -0.906671 
-2798.24 -1070.41 526.014 0.399048 0.136776 -0.906671 
-2994.4 -934.539 460.341 0.399048 0.136776 -0.906671 
-2779.1 -1024.44 541.319 0.399048 0.136776 -0.906671 
-2361.72 -487.505 805.16 0.399048 0.136776 -0.906671 
-3186.11 -228.43 482.292 0.399048 0.136776 -0.906671 
-2551.99 -246.999 757.792 0.399048 0.136776 -0.906671 
-2971.92 -256.157 572.128 0.399048 0.136776 -0.906671 
-2383.54 -272.002 827.958 0.399048 0.136776 -0.906671 
-2405.59 -475.458 787.716 0.399048 0.136776 -0.906671 
-2949.91 -431.164 555.49 0.399048 0.136776 -0.906671 
-2248.63 -481.197 855.738 0.399048 0.136776 -0.906671 
-2254.8 -513.424 848.188 0.399048 0.136776 -0.906671 
-2468.4 -450.627 763.883 0.399048 0.136776 -0.906671 
-3052.09 -293.187 531.38 0.399048 0.136776 -0.906671 
-2689.21 -377.357 677.987 0.399048 0.136776 -0.906671 
-2407.3 -475.735 786.925 0.399048 0.136776 -0.906671 
-2995.48 -444.892 533.43 0.399048 0.136776 -0.906671 
-3003.83 -121.414 578.364 0.399048 0.136776 -0.906671 
-3272.42 -335.582 428.318 0.399048 0.136776 -0.906671 
-2343.19 -401.329 826.238 0.399048 0.136776 -0.906671 
-3095.29 -286.84 513.374 0.399048 0.136776 -0.906671 
-2348.02 -335.882 833.95 0.399048 0.136776 -0.906671 
-2442.58 -311.513 796.113 0.399048 0.136776 -0.906671 
-2134.18 -591.98 889.321 0.399048 0.136776 -0.906671 
-2923.8 -112.455 614.835 0.399048 0.136776 -0.906671 
-2953.69 -145.717 596.717 0.399048 0.136776 -0.906671 
-2767.59 -455.868 631.791 0.399048 0.136776 -0.906671 
-2474.74 -538.745 747.862 0.399048 0.136776 -0.906671 
-2826.02 -349.619 622.113 0.399048 0.136776 -0.906671 
-2752.42 -47.1841 699.85 0.399048 0.136776 -0.906671 
-2329.43 -546.766 810.424 0.399048 0.136776 -0.906671 
-2976.31 -276.844 567.092 0.399048 0.136776 -0.906671 
-2819.56 82.2343 689.829 0.399048 0.136776 -0.906671 
-2553.1 -496.036 719.888 0.399048 0.136776 -0.906671 
-1882.39 33.7857 1631.88 0.624368 -0.77573 0.0916904 
-1996.62 -66.7662 1556.68 0.637369 -0.76855 0.0556093 
-1855.88 54.9583 1607.75 0.662435 -0.7489 -0.0181298 
-2388.9 -407.66 1287.59 0.683313 -0.724283 -0.0921815 
-1860.98 71.0243 1524.39 0.720126 -0.623465 -0.304483 
-2058.62 -86.9819 1389.28 0.721084 -0.562676 -0.404269 
-2049.11 -70.3864 1384.1 0.720987 -0.538668 -0.435907 
-1879.78 83.5681 1473.3 0.717009 -0.514051 -0.470797 
-2422.46 -375.81 1151.99 0.70811 -0.464853 -0.531499 
-2249.46 -221.401 1247.32 0.702349 -0.440006 -0.559554 
-1845.78 130.531 1476.79 0.702349 -0.440006 -0.559554 
-1977.45 46.1127 1381.84 0.678813 -0.354945 -0.642827 
-1963.21 78.0183 1380.66 0.6554 -0.297909 -0.694047 
-2221.37 -130.148 1227.48 0.629295 -0.240105 -0.739147 
-1912.04 151.2 1400.01 0.616768 -0.208681 -0.75898 
-2213.32 -104.555 1226.67 0.60036 -0.177828 -0.779708 
-2438.63 -288.967 1095.72 0.583578 -0.14776 -0.798501 
-1917.22 178.344 1390.38 0.565406 -0.115419 -0.816697 
-1940.03 157.156 1377.58 0.565406 -0.115419 -0.816697 
-2122.57 54.1326 1270.08 0.489017 0.0120579 -0.872191 
-2143.53 32.3751 1258.1 0.489017 0.0120579 -0.872191 
-2174 20.6177 1241.23 0.466846 0.042193 -0.883332 
-2137.83 56.0925 1262.03 0.445374 0.0758377 -0.892127 
-1803.22 394.175 1458.64 0.37411 0.169274 -0.911805 
-2390.86 -119.469 1123.5 0.37411 0.169274 -0.911805 
-2080.85 169.18 1303.93 0.349919 0.198525 -0.915502 
-2361.56 -61.2006 1147.46 0.325909 0.22828 -0.917427 
-2153.63 150.855 1275.35 0.244417 0.319622 -0.915479 
-1967.16 315.823 1382.49 0.244417 0.319622 -0.915479 
-2517.32 -103.467 1094.33 0.105868 0.45876 -0.882231 
-1881.22 449.777 1456.47 0.105868 0.45876 -0.882231 
-2502.89 -74.614 1111.15 0.0797845 0.482906 -0.87203 
-1986.44 383.23 1409.97 0.0512262 0.508108 -0.859769 
-2325.93 115.226 1233.52 -0.00955611 0.55562 -0.831382 
-2198.39 249.419 1322.36 -0.0641349 0.597167 -0.799549 
-2572.4 -66.4448 1116.62 -0.094704 0.619218 -0.779487 
-2273.63 197.967 1290.27 -0.094704 0.619218 -0.779487 
-2261.18 239.903 1324.18 -0.175851 0.674351 -0.717166 
-2482.18 71.0924 1221.86 -0.233777 0.707607 -0.666814 
-1972 520.358 1518.19 -0.258496 0.721569 -0.642276 
-2201.8 352.079 1426.63 -0.364384 0.766015 -0.529571 
-2627.82 -4.84967 1204.6 -0.387642 0.773663 -0.501178 
-2423.31 170.403 1316.87 -0.387642 0.773663 -0.501178 
-2523.97 89.3465 1270.03 -0.41102 0.781426 -0.469506 
-1986.79 573.702 1607.07 -0.477098 0.795164 -0.374289 
-2668.22 -13.0308 1232.94 -0.499705 0.796654 -0.340055 
-2427.94 206.288 1396.86 -0.540551 0.797509 -0.267925 
-2699.16 -19.2766 1286.07 -0.606548 0.784508 -0.129021 
-2541.19 119.655 1386.93 -0.622587 0.77714 -0.0918571 
-2756.49 -67.1529 1309.68 -0.672263 0.738199 0.0559024 
-2274.53 352.317 1584.3 -0.672263 0.738199 0.0559024 
-2674.79 2.01672 1371.12 -0.690873 0.711764 0.126834 
-2574.79 71.4424 1481.88 -0.716413 0.626258 0.307494 
-2317.69 288.859 1639.6 -0.72006 0.585562 0.372332 
-2095.23 478.614 1772.37 -0.72006 0.585562 0.372332 
-2393.44 216.69 1605.9 -0.72012 0.561924 0.407024 
-2461.55 152.228 1574.1 -0.717057 0.541519 0.438846 
-2091.29 463.119 1798.16 -0.715782 0.516492 0.469991 
-2741.46 -111.859 1436.63 -0.707012 0.46746 0.530675 
-2350.96 158.764 1699.74 -0.64173 0.269113 0.718165 
-2236.95 265.769 1761.74 -0.64173 0.269113 0.718165 
-2079.3 388.318 1856.78 -0.629295 0.240105 0.739147 
-2284.28 189.44 1745.69 -0.598411 0.178153 0.781131 
-2483.31 30.4255 1628.61 -0.614446 0.212038 0.759932 
-2200.36 248.674 1796.33 -0.581604 0.148017 0.799892 
-2414.39 43.0317 1677.21 -0.54711 0.0842806 0.832807 
-2356.91 46.3898 1711.69 -0.465725 -0.0420918 0.883928 
-2250.09 122.472 1771.56 -0.444371 -0.0729154 0.89287 
-2008.11 338.164 1909.81 -0.444371 -0.0729154 0.89287 
-2446.86 -72.387 1656.86 -0.39803 -0.136427 0.907171 
-2197.25 126.272 1795.96 -0.373319 -0.166077 0.912716 
-2372.72 -21.5822 1696.9 -0.373319 -0.166077 0.912716 
-2090.61 178.449 1846.95 -0.297784 -0.257504 0.919248 
-2145.9 76.3419 1796.15 -0.19118 -0.375172 0.907026 
-2035.06 137.712 1842.65 -0.102951 -0.455523 0.884251 
-2401.66 -185.462 1631.71 -0.102951 -0.455523 0.884251 
-1989.46 137.692 1845.67 -0.0204658 -0.530746 0.847284 
-2355.92 -178.897 1638.4 -0.0204658 -0.530746 0.847284 
-1877.35 229.742 1905.93 0.00953446 -0.554361 0.832222 
-2440.94 -275.172 1575.08 0.0376777 -0.576329 0.816349 
-2104.02 -4.04321 1750.47 0.0948749 -0.617417 0.780894 
-2436.31 -315.412 1542.65 0.152515 -0.656873 0.738415 
-2477.3 -374.286 1497.39 0.206768 -0.68871 0.694928 
-1881.72 136.786 1829.11 0.234297 -0.706035 0.668296 
-2479.52 -385.427 1486.57 0.234297 -0.706035 0.668296 
-1900.19 107.554 1804.19 0.261515 -0.717978 0.645071 
-1785.02 195.006 1854.46 0.313424 -0.744182 0.58988 
-2263.98 -228.767 1572.79 0.338075 -0.755411 0.561301 
-2460.87 -417.203 1436.4 0.388617 -0.772356 0.502438 
-2459.6 -424.483 1423.71 0.413715 -0.780381 0.468877 
-1825.89 118.412 1769.55 0.435787 -0.785713 0.439027 
-2353.29 -342.188 1466.13 0.457757 -0.790965 0.405996 
-2195.87 -212.17 1541.75 0.478319 -0.793978 0.375247 
-2188.74 -216.54 1520.95 0.521173 -0.796809 0.305734 
-2062.39 -117.574 1557.54 0.57722 -0.791573 0.200573 
-1752.76 150.809 1729.33 0.592565 -0.788579 0.16435 
-1665.63 318.265 1863.98 0.60408 -0.570238 0.556701 
-1646.42 357.37 1882.72 0.572672 -0.562536 0.596322 
-1770.39 347.468 1937.55 0.207689 -0.345193 0.915263 
-1838.12 368.557 1949.45 -0.0212662 -0.135432 0.990558 
-1690.11 427.429 1949.81 0.207689 -0.345193 0.915263 
-1978.96 449.514 1909.39 -0.378902 0.366428 0.849802 
-1713.43 453.648 1961.87 0.0904539 -0.24843 0.964417 
-1915.12 522.59 1903.98 -0.430279 0.485905 0.76076 
-1958.36 585.984 1602.78 -0.213402 0.928512 -0.303851 
-1840.6 603.69 1888.05 -0.475656 0.633647 0.610117 
-1893.83 627.87 1764.79 -0.417636 0.903258 0.0985121 
-1851.94 645.664 1779.14 -0.417636 0.903258 0.0985121 
-1859.97 637.008 1694.99 -0.285584 0.93953 -0.18901 
-1863.5 544.512 1520.93 0.129496 0.76358 -0.632595 
-1769.01 667.162 1864.97 -0.47592 0.810178 0.342217 
-1747.96 688.876 1790.48 -0.337949 0.936374 -0.0948396 
-1765.82 668.591 1722.28 -0.196421 0.925582 -0.3236 
-1641.17 450.86 1596.1 0.741773 0.0737436 -0.666584 
-1619.45 336.733 1669.67 0.893449 -0.374863 -0.247439 
-1665.35 239.991 1724.69 0.841383 -0.533872 0.0839959 
-1593.22 362.259 1741.44 0.876349 -0.477631 -0.0622997 
-1726.69 690.822 1784.12 0.694388 0.602023 0.394201 
-1550.91 530.121 1721.06 0.694388 0.602023 0.394201 
-1677.36 633.698 1784.79 0.694388 0.602023 0.394201 
-1631.25 616.062 1730.8 0.694388 0.602023 0.394201 
-1582.03 525.959 1782.06 0.694388 0.602023 0.394201 
-1652.62 513.421 1925.15 0.694388 0.602023 0.394201 
