ply
format ascii 1.0
comment Created by CloudCompare v2.11.3 (Anoia)
comment Created 07/09/2022 23:41
obj_info Generated by CloudCompare!
element vertex 889
property float x
property float y
property float z
property float nx
property float ny
property float nz
end_header
1698.98 528.036 773.205 0.0838656 0.991452 0.0999494 
1607.29 548.703 643.979 0.0838656 0.991452 0.0999494 
1413.37 585.904 435.064 0.0838656 0.991452 0.0999494 
1502.34 572.138 498.245 0.0838656 0.991452 0.0999494 
1460.9 571.77 535.898 0.0838656 0.991452 0.0999494 
1492.55 564.277 584.065 0.0838656 0.991452 0.0999494 
1690.69 525.927 800.88 0.0838656 0.991452 0.0999494 
1650.48 543.859 656.447 0.0838656 0.991452 0.0999494 
1821.16 500.312 947.237 0.0838656 0.991452 0.0999494 
1533.04 558.507 607.916 0.0838656 0.991452 0.0999494 
1456 581.805 440.621 0.0838656 0.991452 0.0999494 
1822.64 498.552 963.437 0.0838656 0.991452 0.0999494 
1813.86 498.451 971.644 0.0838656 0.991452 0.0999494 
1763.69 510.419 894.401 0.0838656 0.991452 0.0999494 
1500.27 566.556 555.17 0.0838656 0.991452 0.0999494 
1402.44 584.357 459.34 0.0838656 0.991452 0.0999494 
1892.96 494.484 945.965 0.0838656 0.991452 0.0999494 
1237.72 623.222 209.998 0.0838656 0.991452 0.0999494 
1741 517.048 847.436 0.0838656 0.991452 0.0999494 
1779.86 504.349 941.19 0.0838656 0.991452 0.0999494 
1704.32 516.249 885.458 0.0838656 0.991452 0.0999494 
1475.5 575.643 485.592 0.0838656 0.991452 0.0999494 
1339.71 597.139 384.365 0.0838656 0.991452 0.0999494 
1767.22 520.913 787.674 0.0838656 0.991452 0.0999494 
1707.8 515.3 891.991 0.0838656 0.991452 0.0999494 
1776.67 502.846 958.684 0.0838656 0.991452 0.0999494 
1510.04 567.67 536.134 0.0838656 0.991452 0.0999494 
1851.39 494.831 976.658 0.0838656 0.991452 0.0999494 
1434.69 580.311 472.905 0.0838656 0.991452 0.0999494 
1869.15 497.12 939.427 0.0838656 0.991452 0.0999494 
1595.12 554.616 595.456 0.0838656 0.991452 0.0999494 
1718.29 530.081 737.115 0.0838656 0.991452 0.0999494 
1444.13 573.736 530.221 0.0838656 0.991452 0.0999494 
1457.5 579.831 458.931 0.0838656 0.991452 0.0999494 
1764.61 503.528 961.842 0.0838656 0.991452 0.0999494 
1761.31 522.521 776.612 0.0838656 0.991452 0.0999494 
1496.87 566.725 556.302 0.0838656 0.991452 0.0999494 
1648.72 536.861 727.143 0.0838656 0.991452 0.0999494 
1628.2 537.743 735.264 0.0838656 0.991452 0.0999494 
1873.65 501.039 896.955 0.0838656 0.991452 0.0999494 
1209.07 626.895 197.171 0.0838656 0.991452 0.0999494 
1764.05 512.883 869.724 0.0838656 0.991452 0.0999494 
1369.01 596.371 367.914 0.0838656 0.991452 0.0999494 
1592.89 552.087 622.311 0.0838656 0.991452 0.0999494 
1721.92 522.713 807.047 0.0838656 0.991452 0.0999494 
1568.03 558.88 575.503 0.0838656 0.991452 0.0999494 
1631.75 544.962 660.909 0.0838656 0.991452 0.0999494 
1748.76 511.97 891.314 0.0838656 0.991452 0.0999494 
1500.36 571.622 504.975 0.0838656 0.991452 0.0999494 
1519.15 568.033 525.057 0.0838656 0.991452 0.0999494 
1821.18 495.089 998.903 0.0838656 0.991452 0.0999494 
1715.92 517.726 861.321 0.0838656 0.991452 0.0999494 
1858.53 497.263 946.727 0.0838656 0.991452 0.0999494 
1183.2 632.828 159.698 0.0838656 0.991452 0.0999494 
1505.69 565.181 564.326 0.0838656 0.991452 0.0999494 
1547.88 562.726 553.991 0.0838656 0.991452 0.0999494 
1651.03 527.578 817.103 0.0838656 0.991452 0.0999494 
1747.52 525.572 757.741 0.0838656 0.991452 0.0999494 
1764.39 508.362 914.187 0.0838656 0.991452 0.0999494 
1472.48 576.483 479.756 0.0838656 0.991452 0.0999494 
1720.54 521.196 823.197 0.0838656 0.991452 0.0999494 
1233.15 621.464 231.15 0.0838656 0.991452 0.0999494 
1418.48 588.12 408.944 0.0838656 0.991452 0.0999494 
1858.31 500.069 919.149 0.0838656 0.991452 0.0999494 
1763.92 509.828 900.063 0.0838656 0.991452 0.0999494 
1807.07 499.024 971.544 0.0838656 0.991452 0.0999494 
1219.89 623.782 219.092 0.0838656 0.991452 0.0999494 
1889.04 497.692 917.438 0.0838656 0.991452 0.0999494 
1626.71 544.355 671.054 0.0838656 0.991452 0.0999494 
1582.37 552.735 624.538 0.0838656 0.991452 0.0999494 
1620.78 543.196 687.394 0.0838656 0.991452 0.0999494 
1479.35 569.292 545.275 0.0838656 0.991452 0.0999494 
1824.49 502.21 925.725 0.0838656 0.991452 0.0999494 
1544.39 552.201 661.002 0.0838656 0.991452 0.0999494 
1601.55 539.054 744.17 0.0838656 0.991452 0.0999494 
1707.97 521.423 831.27 0.0838656 0.991452 0.0999494 
1700.81 529.444 757.77 0.0838656 0.991452 0.0999494 
1566.34 557.807 587.509 0.0838656 0.991452 0.0999494 
1446.75 578.533 480.594 0.0838656 0.991452 0.0999494 
1578.98 548.758 666.668 0.0838656 0.991452 0.0999494 
1356.7 594.446 397.065 0.0838656 0.991452 0.0999494 
1791.92 514.593 829.926 0.0838656 0.991452 0.0999494 
1479.97 566.704 570.381 0.0838656 0.991452 0.0999494 
1851.33 496.862 956.604 0.0838656 0.991452 0.0999494 
1559.15 561.112 560.71 0.0838656 0.991452 0.0999494 
1337.35 600.72 350.867 0.0838656 0.991452 0.0999494 
1794.84 500.095 970.99 0.0838656 0.991452 0.0999494 
1463.6 580.391 448.372 0.0838656 0.991452 0.0999494 
1323.44 605.629 313.703 0.0838656 0.991452 0.0999494 
1736.51 524.425 778.131 0.0838656 0.991452 0.0999494 
1697.12 521.415 840.246 0.0838656 0.991452 0.0999494 
1716.94 515.074 886.719 0.0838656 0.991452 0.0999494 
1854.26 500.025 922.904 0.0838656 0.991452 0.0999494 
1863.34 498.735 928.215 0.0838656 0.991452 0.0999494 
1433.46 577.794 498.823 0.0838656 0.991452 0.0999494 
1553.73 552.052 654.811 0.0838656 0.991452 0.0999494 
1603.13 544.883 685.192 0.0838656 0.991452 0.0999494 
1623.46 535.653 759.834 0.0838656 0.991452 0.0999494 
1490.51 570.864 520.557 0.0838656 0.991452 0.0999494 
1708.5 522 825.12 0.0838656 0.991452 0.0999494 
1507.33 563.688 577.765 0.0838656 0.991452 0.0999494 
1485.83 574.752 485.93 0.0838656 0.991452 0.0999494 
1795.97 496.846 1002.21 0.0838656 0.991452 0.0999494 
1636.85 540.077 705.062 0.0838656 0.991452 0.0999494 
1788.62 515.212 826.516 0.0838656 0.991452 0.0999494 
1413.14 580.795 485.81 0.0838656 0.991452 0.0999494 
1532.5 553.859 654.358 0.0838656 0.991452 0.0999494 
1623.33 541.872 698.397 0.0838656 0.991452 0.0999494 
1694.73 531.696 740.475 0.0838656 0.991452 0.0999494 
1846.59 496.108 967.959 0.0838656 0.991452 0.0999494 
1742.39 521.223 804.979 0.0838656 0.991452 0.0999494 
1565.63 553.891 626.842 0.0838656 0.991452 0.0999494 
1687.94 521.707 844.901 0.0838656 0.991452 0.0999494 
1720.85 524.59 789.351 0.0838656 0.991452 0.0999494 
1808.4 513.515 827.066 0.0838656 0.991452 0.0999494 
1458.25 572.615 529.716 0.0838656 0.991452 0.0999494 
1706.51 525.072 796.361 0.0838656 0.991452 0.0999494 
1793.65 510.386 870.142 0.0838656 0.991452 0.0999494 
1675.37 531.17 761.577 0.0838656 0.991452 0.0999494 
1879.21 499.399 908.614 0.0838656 0.991452 0.0999494 
1390.93 585.538 457.106 0.0838656 0.991452 0.0999494 
1536.57 553.371 655.842 0.0838656 0.991452 0.0999494 
1567.82 549.302 670.454 0.0838656 0.991452 0.0999494 
1543.41 558.114 603.296 0.0838656 0.991452 0.0999494 
1655.82 536.467 725.21 0.0838656 0.991452 0.0999494 
1810.64 502.736 931.882 0.0838656 0.991452 0.0999494 
1615.51 546.437 659.652 0.0838656 0.991452 0.0999494 
1427.2 584.97 432.954 0.0838656 0.991452 0.0999494 
1740.33 520.613 812.705 0.0838656 0.991452 0.0999494 
1746.45 519.634 817.374 0.0838656 0.991452 0.0999494 
1336.95 601.273 345.723 0.0838656 0.991452 0.0999494 
1521.2 556.677 635.74 0.0838656 0.991452 0.0999494 
1543.37 554.765 636.471 0.0838656 0.991452 0.0999494 
1800.35 499.907 968.333 0.0838656 0.991452 0.0999494 
1590.84 540.807 735.609 0.0838656 0.991452 0.0999494 
1309.03 608.708 295.077 0.0838656 0.991452 0.0999494 
1720.52 514.589 888.586 0.0838656 0.991452 0.0999494 
1582.67 548.695 664.262 0.0838656 0.991452 0.0999494 
1400.41 591.759 387.768 0.0838656 0.991452 0.0999494 
1758.85 514.584 857.164 0.0838656 0.991452 0.0999494 
1841.14 501.474 919.336 0.0838656 0.991452 0.0999494 
1497.89 570.689 516.229 0.0838656 0.991452 0.0999494 
1795.8 502.297 948.416 0.0838656 0.991452 0.0999494 
1679.47 526.88 800.664 0.0838656 0.991452 0.0999494 
1804.13 498.71 977.067 0.0838656 0.991452 0.0999494 
1863.02 499.59 920.02 0.0838656 0.991452 0.0999494 
1773.76 504.228 947.398 0.0838656 0.991452 0.0999494 
1432.77 586.165 416.553 0.0838656 0.991452 0.0999494 
1668.95 528.621 792.075 0.0838656 0.991452 0.0999494 
1732.92 514.999 874.347 0.0838656 0.991452 0.0999494 
1731.34 525.639 770.361 0.0838656 0.991452 0.0999494 
1517.4 559.415 611.779 0.0838656 0.991452 0.0999494 
1447.45 577.251 492.713 0.0838656 0.991452 0.0999494 
1700.06 527.87 773.955 0.0838656 0.991452 0.0999494 
1319.86 601.531 357.2 0.0838656 0.991452 0.0999494 
1861.24 501.703 900.574 0.0838656 0.991452 0.0999494 
1436.38 582.29 451.936 0.0838656 0.991452 0.0999494 
1577.8 548.302 672.155 0.0838656 0.991452 0.0999494 
1213.67 628.218 180.312 0.0838656 0.991452 0.0999494 
1641.69 535.458 746.793 0.0838656 0.991452 0.0999494 
1704.37 526.294 786.018 0.0838656 0.991452 0.0999494 
1535.89 562.095 570.073 0.0838656 0.991452 0.0999494 
1531.14 566.8 527.422 0.0838656 0.991452 0.0999494 
1877.96 497.715 926.307 0.0838656 0.991452 0.0999494 
1562.22 558.696 582.089 0.0838656 0.991452 0.0999494 
1497.3 564.533 577.633 0.0838656 0.991452 0.0999494 
1803.5 510.328 862.621 0.0838656 0.991452 0.0999494 
1515.12 562.047 587.597 0.0838656 0.991452 0.0999494 
1561.06 559.82 571.928 0.0838656 0.991452 0.0999494 
1708.47 521.006 834.98 0.0838656 0.991452 0.0999494 
1753.39 510.195 905.076 0.0838656 0.991452 0.0999494 
1352.77 595.903 385.866 0.0838656 0.991452 0.0999494 
1431.72 581.991 458.715 0.0838656 0.991452 0.0999494 
1666.59 538.383 697.411 0.0838656 0.991452 0.0999494 
1727.16 510.31 925.478 0.0838656 0.991452 0.0999494 
1723.17 516.393 868.553 0.0838656 0.991452 0.0999494 
1733.9 522.321 801.089 0.0838656 0.991452 0.0999494 
1674.45 529.548 778.378 0.0838656 0.991452 0.0999494 
1684.7 524.321 821.695 0.0838656 0.991452 0.0999494 
1864.89 495.85 955.487 0.0838656 0.991452 0.0999494 
1332.86 604.839 313.797 0.0838656 0.991452 0.0999494 
1494.03 564.847 577.213 0.0838656 0.991452 0.0999494 
1518 562.23 583.427 0.0838656 0.991452 0.0999494 
1479.63 570.313 534.943 0.0838656 0.991452 0.0999494 
1551.28 553.339 644.082 0.0838656 0.991452 0.0999494 
1604.05 544.058 692.599 0.0838656 0.991452 0.0999494 
1758.35 520.859 795.477 0.0838656 0.991452 0.0999494 
1701.55 531.58 736.026 0.0838656 0.991452 0.0999494 
1546.53 553.131 650.041 0.0838656 0.991452 0.0999494 
1689.23 533.432 727.82 0.0838656 0.991452 0.0999494 
1599.82 546.551 671.397 0.0838656 0.991452 0.0999494 
1389.36 594.584 368.892 0.0838656 0.991452 0.0999494 
1741.67 512.706 889.851 0.0838656 0.991452 0.0999494 
1368.07 597.971 352.852 0.0838656 0.991452 0.0999494 
1622.72 537.109 746.028 0.0838656 0.991452 0.0999494 
1653.92 526.952 820.928 0.0838656 0.991452 0.0999494 
1594.06 543.884 702.517 0.0838656 0.991452 0.0999494 
1690.42 519.284 866.83 0.0838656 0.991452 0.0999494 
1575.88 549.932 657.595 0.0838656 0.991452 0.0999494 
1676.17 533.294 739.902 0.0838656 0.991452 0.0999494 
1753.05 512.93 878.289 0.0838656 0.991452 0.0999494 
1225.98 623.208 219.775 0.0838656 0.991452 0.0999494 
1452.93 581.694 444.248 0.0838656 0.991452 0.0999494 
1611.97 548.478 642.362 0.0838656 0.991452 0.0999494 
1681.6 526.103 806.603 0.0838656 0.991452 0.0999494 
1292.51 607.54 320.196 0.0838656 0.991452 0.0999494 
1491.97 568.683 540.94 0.0838656 0.991452 0.0999494 
1708.1 522.573 819.781 0.0838656 0.991452 0.0999494 
1554.82 554.046 634.183 0.0838656 0.991452 0.0999494 
1524.4 556.746 632.441 0.0838656 0.991452 0.0999494 
1781.16 509.741 886.766 0.0838656 0.991452 0.0999494 
1625.45 534.495 769.657 0.0838656 0.991452 0.0999494 
1838.78 495.959 975.844 0.0838656 0.991452 0.0999494 
1193.95 630.413 174.772 0.0838656 0.991452 0.0999494 
1585.13 550.138 647.971 0.0838656 0.991452 0.0999494 
1581.94 556.509 587.542 0.0838656 0.991452 0.0999494 
1530.58 562.385 571.562 0.0838656 0.991452 0.0999494 
1747.11 505.963 952.11 0.0838656 0.991452 0.0999494 
1781.54 517.179 812.857 0.0838656 0.991452 0.0999494 
1825.35 498.512 961.604 0.0838656 0.991452 0.0999494 
1736.94 510.643 914.147 0.0838656 0.991452 0.0999494 
1763.1 505.863 939.973 0.0838656 0.991452 0.0999494 
1721.58 526.22 772.622 0.0838656 0.991452 0.0999494 
1815.75 502.792 927.136 0.0838656 0.991452 0.0999494 
1390.99 591.4 399.056 0.0838656 0.991452 0.0999494 
1845.47 496.047 969.477 0.0838656 0.991452 0.0999494 
1547.42 563.889 542.857 0.0838656 0.991452 0.0999494 
1696.11 525.744 798.24 0.0838656 0.991452 0.0999494 
1487.61 565.197 579.015 0.0838656 0.991452 0.0999494 
1728.12 520.031 828.498 0.0838656 0.991452 0.0999494 
1840.58 505.383 881.113 0.0838656 0.991452 0.0999494 
1543.43 557.894 605.455 0.0838656 0.991452 0.0999494 
1628.4 538.136 731.202 0.0838656 0.991452 0.0999494 
1559.98 549.26 677.303 0.0838656 0.991452 0.0999494 
1340.54 598.738 367.862 0.0838656 0.991452 0.0999494 
1432.21 582.962 448.703 0.0838656 0.991452 0.0999494 
1381.86 590.707 413.408 0.0838656 0.991452 0.0999494 
1785.36 516.273 818.69 0.0838656 0.991452 0.0999494 
1638.34 544.729 657.803 0.0838656 0.991452 0.0999494 
1503.38 565.379 564.271 0.0838656 0.991452 0.0999494 
1248.76 620.854 224.371 0.0838656 0.991452 0.0999494 
1731.42 526.574 761.046 0.0838656 0.991452 0.0999494 
1544.03 562.376 560.614 0.0838656 0.991452 0.0999494 
1697.83 529.617 758.502 0.0838656 0.991452 0.0999494 
1546.38 562.21 560.323 0.0838656 0.991452 0.0999494 
1883.35 496.066 938.2 0.0838656 0.991452 0.0999494 
1482.52 572.354 512.374 0.0838656 0.991452 0.0999494 
1727.6 519.915 830.07 0.0838656 0.991452 0.0999494 
1815.11 506.078 895.151 0.0838656 0.991452 0.0999494 
1156.96 639.01 120.075 0.0838656 0.991452 0.0999494 
1241.34 620.979 229.215 0.0838656 0.991452 0.0999494 
1578.51 547.648 678.046 0.0838656 0.991452 0.0999494 
1686.09 535.438 710.54 0.0838656 0.991452 0.0999494 
1812.42 496.161 995.489 0.0838656 0.991452 0.0999494 
1800.49 499.973 967.56 0.0838656 0.991452 0.0999494 
1736.21 514.555 876.042 0.0838656 0.991452 0.0999494 
1619.08 538.433 735.924 0.0838656 0.991452 0.0999494 
1482.31 572.656 509.561 0.0838656 0.991452 0.0999494 
1790.04 511.724 859.864 0.0838656 0.991452 0.0999494 
1721.18 511.64 917.225 0.0838656 0.991452 0.0999494 
1400.21 585.384 451.014 0.0838656 0.991452 0.0999494 
1724.61 522.942 802.569 0.0838656 0.991452 0.0999494 
1335.1 601.125 348.705 0.0838656 0.991452 0.0999494 
1769.69 507.633 917.052 0.0838656 0.991452 0.0999494 
1495.67 571.593 509.103 0.0838656 0.991452 0.0999494 
1345.1 601.784 333.974 0.0838656 0.991452 0.0999494 
1661.68 535.143 733.506 0.0838656 0.991452 0.0999494 
1435.8 581.724 458.018 0.0838656 0.991452 0.0999494 
1686.03 536.095 704.098 0.0838656 0.991452 0.0999494 
1660.75 540.978 676.533 0.0838656 0.991452 0.0999494 
1633.5 545.673 652.438 0.0838656 0.991452 0.0999494 
1854.76 495.681 965.473 0.0838656 0.991452 0.0999494 
1686.27 519.512 867.987 0.0838656 0.991452 0.0999494 
1563.89 556.827 599.215 0.0838656 0.991452 0.0999494 
1451.7 573.99 521.489 0.0838656 0.991452 0.0999494 
1740.19 516.001 858.461 0.0838656 0.991452 0.0999494 
1695.37 528.59 770.689 0.0838656 0.991452 0.0999494 
1364.58 594.413 390.922 0.0838656 0.991452 0.0999494 
1591.48 544.822 695.362 0.0838656 0.991452 0.0999494 
1546.78 558.435 597.351 0.0838656 0.991452 0.0999494 
1603.07 540.42 729.402 0.0838656 0.991452 0.0999494 
1803.04 500.24 962.818 0.0838656 0.991452 0.0999494 
1372.34 591.908 409.336 0.0838656 0.991452 0.0999494 
1894.5 494.839 941.187 0.0838656 0.991452 0.0999494 
1767.4 511.628 879.394 0.0838656 0.991452 0.0999494 
1881.49 499.092 909.778 0.0838656 0.991452 0.0999494 
1166.97 636.655 135.162 0.0838656 0.991452 0.0999494 
1449.73 577.328 490.081 0.0838656 0.991452 0.0999494 
1634.69 542.003 687.782 0.0838656 0.991452 0.0999494 
1771.62 501.609 975.074 0.0838656 0.991452 0.0999494 
1782.46 500.241 979.704 0.0838656 0.991452 0.0999494 
1468.26 570.786 539.599 0.0838656 0.991452 0.0999494 
1767.43 510.169 893.805 0.0838656 0.991452 0.0999494 
1234.87 622.56 218.892 0.0838656 0.991452 0.0999494 
1696.1 531.769 738.635 0.0838656 0.991452 0.0999494 
1741.6 521.825 799.669 0.0838656 0.991452 0.0999494 
1581.46 551.846 634.081 0.0838656 0.991452 0.0999494 
1486.89 565.692 574.709 0.0838656 0.991452 0.0999494 
1809.71 508.729 873.353 0.0838656 0.991452 0.0999494 
1544.12 555.49 628.681 0.0838656 0.991452 0.0999494 
1274.75 612.523 285.46 0.0838656 0.991452 0.0999494 
1463.7 570.656 544.622 0.0838656 0.991452 0.0999494 
1419.8 585.852 430.304 0.0838656 0.991452 0.0999494 
1366.61 593.323 400.043 0.0838656 0.991452 0.0999494 
1451.57 575.398 507.665 0.0838656 0.991452 0.0999494 
1724.91 524.775 784.187 0.0838656 0.991452 0.0999494 
1808.04 497.45 986.333 0.0838656 0.991452 0.0999494 
1695.93 531.719 739.265 0.0838656 0.991452 0.0999494 
1842.03 504.375 889.902 0.0838656 0.991452 0.0999494 
1344.39 601.686 335.527 0.0838656 0.991452 0.0999494 
1611.33 551.335 614.615 0.0838656 0.991452 0.0999494 
1335.07 604.301 317.301 0.0838656 0.991452 0.0999494 
1771.46 506.669 925.14 0.0838656 0.991452 0.0999494 
1777.05 504.015 946.81 0.0838656 0.991452 0.0999494 
1764.45 511.367 884.401 0.0838656 0.991452 0.0999494 
1355.66 598.297 359.815 0.0838656 0.991452 0.0999494 
1185.95 633.465 151.14 0.0838656 0.991452 0.0999494 
1709.5 520.417 839.962 0.0838656 0.991452 0.0999494 
1514.49 564.611 562.753 0.0838656 0.991452 0.0999494 
1703.54 520.217 846.836 0.0838656 0.991452 0.0999494 
1453.7 578.94 470.872 0.0838656 0.991452 0.0999494 
1524.38 567.012 530.869 0.0838656 0.991452 0.0999494 
1684.31 519.898 865.778 0.0838656 0.991452 0.0999494 
1783.28 513.038 852.408 0.0838656 0.991452 0.0999494 
1383.01 593.069 389.095 0.0838656 0.991452 0.0999494 
1607.35 550.542 625.728 0.0838656 0.991452 0.0999494 
1515.57 565.781 550.287 0.0838656 0.991452 0.0999494 
1623.23 536.358 753.049 0.0838656 0.991452 0.0999494 
1396.7 591.294 395.415 0.0838656 0.991452 0.0999494 
1808.01 501.956 941.764 0.0838656 0.991452 0.0999494 
1154.65 638.781 124.238 0.0838656 0.991452 0.0999494 
1645.98 531.286 784.562 0.0838656 0.991452 0.0999494 
1895.29 494.404 944.836 0.0838656 0.991452 0.0999494 
1616.23 547.088 652.619 0.0838656 0.991452 0.0999494 
1212.77 627.539 187.76 0.0838656 0.991452 0.0999494 
1631.86 542.681 683.387 0.0838656 0.991452 0.0999494 
1590.23 547.337 671.491 0.0838656 0.991452 0.0999494 
1754.35 515.824 848.59 0.0838656 0.991452 0.0999494 
1618.16 538.841 732.633 0.0838656 0.991452 0.0999494 
1533.27 556.174 630.817 0.0838656 0.991452 0.0999494 
1605.96 540.263 728.582 0.0838656 0.991452 0.0999494 
1555.13 552.988 644.4 0.0838656 0.991452 0.0999494 
1297.92 609.667 294.7 0.0838656 0.991452 0.0999494 
1651.75 536.037 732.807 0.0838656 0.991452 0.0999494 
1728.58 528.687 742.466 0.0838656 0.991452 0.0999494 
1584.36 550.531 644.716 0.0838656 0.991452 0.0999494 
1360.82 594.112 396.99 0.0838656 0.991452 0.0999494 
1806.07 513.361 830.502 0.0838656 0.991452 0.0999494 
1799.54 514.512 824.473 0.0838656 0.991452 0.0999494 
1446.59 580.427 461.988 0.0838656 0.991452 0.0999494 
1428.86 586.972 411.78 0.0838656 0.991452 0.0999494 
1798.98 514.817 821.918 0.0838656 0.991452 0.0999494 
1373.69 597.232 355.554 0.0838656 0.991452 0.0999494 
1765.79 508.474 911.931 0.0838656 0.991452 0.0999494 
1649.49 533.132 763.412 0.0838656 0.991452 0.0999494 
1595.95 541.14 728.125 0.0838656 0.991452 0.0999494 
1521.89 559.047 611.725 0.0838656 0.991452 0.0999494 
1745.28 508.96 923.952 0.0838656 0.991452 0.0999494 
1517.6 560.675 599.142 0.0838656 0.991452 0.0999494 
1729.33 512.061 906.366 0.0838656 0.991452 0.0999494 
1666.95 527.279 806.986 0.0838656 0.991452 0.0999494 
1890.73 494.908 943.599 0.0838656 0.991452 0.0999494 
1522.21 561.49 587.293 0.0838656 0.991452 0.0999494 
1854.62 502.845 894.702 0.0838656 0.991452 0.0999494 
1530.43 561.706 578.41 0.0838656 0.991452 0.0999494 
1536.02 560.34 587.331 0.0838656 0.991452 0.0999494 
1434.95 576.602 509.389 0.0838656 0.991452 0.0999494 
1584.21 554.913 601.48 0.0838656 0.991452 0.0999494 
1427.64 583.647 445.681 0.0838656 0.991452 0.0999494 
1780.91 517.463 810.562 0.0838656 0.991452 0.0999494 
1794.83 506.943 903.238 0.0838656 0.991452 0.0999494 
1152.95 640.259 111.008 0.0838656 0.991452 0.0999494 
1627.63 543.812 675.677 0.0838656 0.991452 0.0999494 
1512.19 565.152 559.286 0.0838656 0.991452 0.0999494 
1731.49 525.586 770.76 0.0838656 0.991452 0.0999494 
1762.72 518.834 811.935 0.0838656 0.991452 0.0999494 
1773.46 504.872 941.272 0.0838656 0.991452 0.0999494 
1292.77 609.39 301.674 0.0838656 0.991452 0.0999494 
1770.15 518.436 809.773 0.0838656 0.991452 0.0999494 
1594.22 552.557 616.565 0.0838656 0.991452 0.0999494 
1597.32 543.989 698.806 0.0838656 0.991452 0.0999494 
1663.6 525.297 829.355 0.0838656 0.991452 0.0999494 
1597.21 544.94 689.491 0.0838656 0.991452 0.0999494 
1803.56 501.774 947.216 0.0838656 0.991452 0.0999494 
1726.08 523.133 799.478 0.0838656 0.991452 0.0999494 
1855.03 497.402 948.221 0.0838656 0.991452 0.0999494 
1400.49 586.096 443.743 0.0838656 0.991452 0.0999494 
1606.86 540.451 725.986 0.0838656 0.991452 0.0999494 
1789.9 516.283 814.863 0.0838656 0.991452 0.0999494 
1270.25 615.903 255.721 0.0838656 0.991452 0.0999494 
1560.01 551.221 657.875 0.0838656 0.991452 0.0999494 
1856.53 500.333 917.983 0.0838656 0.991452 0.0999494 
1159.54 638.382 124.166 0.0838656 0.991452 0.0999494 
1705.7 518.355 863.484 0.0838656 0.991452 0.0999494 
1523.92 557.958 620.84 0.0838656 0.991452 0.0999494 
1567.7 560.025 564.445 0.0838656 0.991452 0.0999494 
1724.89 519.107 840.283 0.0838656 0.991452 0.0999494 
1809.21 510.237 858.833 0.0838656 0.991452 0.0999494 
1803.1 507.344 892.48 0.0838656 0.991452 0.0999494 
1588.29 546.267 683.676 0.0838656 0.991452 0.0999494 
1746.74 524.845 765.574 0.0838656 0.991452 0.0999494 
1783.43 502.012 961.388 0.0838656 0.991452 0.0999494 
1774.27 500.304 985.814 0.0838656 0.991452 0.0999494 
1660.26 535.864 727.539 0.0838656 0.991452 0.0999494 
1853.59 501.713 906.748 0.0838656 0.991452 0.0999494 
1639.91 538.481 718.337 0.0838656 0.991452 0.0999494 
1280.94 611.991 285.652 0.0838656 0.991452 0.0999494 
1165.29 637.167 131.468 0.0838656 0.991452 0.0999494 
1241.56 619.92 239.52 0.0838656 0.991452 0.0999494 
1726.19 522.036 810.237 0.0838656 0.991452 0.0999494 
1559.33 553.78 633.105 0.0838656 0.991452 0.0999494 
1489.74 568.668 542.917 0.0838656 0.991452 0.0999494 
1324.4 607.185 297.523 0.0838656 0.991452 0.0999494 
1529.88 558.756 608.048 0.0838656 0.991452 0.0999494 
1265.3 615.234 266.397 0.0838656 0.991452 0.0999494 
1646.01 536.898 728.999 0.0838656 0.991452 0.0999494 
1696.11 528.265 773.304 0.0838656 0.991452 0.0999494 
1450.12 574.812 514.655 0.0838656 0.991452 0.0999494 
1627.43 537.638 736.926 0.0838656 0.991452 0.0999494 
1584.34 545.234 697.144 0.0838656 0.991452 0.0999494 
1427.95 583.923 442.699 0.0838656 0.991452 0.0999494 
1765.62 510.078 896.198 0.0838656 0.991452 0.0999494 
1429.27 583.449 446.296 0.0838656 0.991452 0.0999494 
1589.34 542.276 722.302 0.0838656 0.991452 0.0999494 
1633.22 532.422 783.794 0.0838656 0.991452 0.0999494 
1851.88 495.59 968.741 0.0838656 0.991452 0.0999494 
1490.35 566.127 567.57 0.0838656 0.991452 0.0999494 
1635.4 536.955 737.145 0.0838656 0.991452 0.0999494 
1669.14 530.021 778.067 0.0838656 0.991452 0.0999494 
1846.75 498.694 942.241 0.0838656 0.991452 0.0999494 
1461.73 574.923 504.029 0.0838656 0.991452 0.0999494 
1407.61 583.559 462.998 0.0838656 0.991452 0.0999494 
1744.19 519.612 819.456 0.0838656 0.991452 0.0999494 
1642.9 530.545 794.417 0.0838656 0.991452 0.0999494 
1549.41 552.918 649.788 0.0838656 0.991452 0.0999494 
1496.32 563.093 592.682 0.0838656 0.991452 0.0999494 
1584.68 556.774 582.67 0.0838656 0.991452 0.0999494 
1305.79 605.086 333.568 0.0838656 0.991452 0.0999494 
1466.65 570.164 547.073 0.0838656 0.991452 0.0999494 
1721.54 524.075 793.875 0.0838656 0.991452 0.0999494 
1644.12 545.254 647.871 0.0838656 0.991452 0.0999494 
1794.82 513.911 834.294 0.0838656 0.991452 0.0999494 
1678.45 532.647 744.442 0.0838656 0.991452 0.0999494 
1877.33 495.868 945.101 0.0838656 0.991452 0.0999494 
1179.96 634.061 150.157 0.0838656 0.991452 0.0999494 
1203.16 627.753 193.539 0.0838656 0.991452 0.0999494 
1560.77 553.618 633.53 0.0838656 0.991452 0.0999494 
1762.31 522.36 777.379 0.0838656 0.991452 0.0999494 
1703.06 519.557 853.755 0.0838656 0.991452 0.0999494 
1739.85 516.152 857.253 0.0838656 0.991452 0.0999494 
1456.68 572.026 536.83 0.0838656 0.991452 0.0999494 
1852.13 497.532 949.318 0.0838656 0.991452 0.0999494 
1770.77 502.825 963.735 0.0838656 0.991452 0.0999494 
1421.09 581.636 470.952 0.0838656 0.991452 0.0999494 
1152.73 639.62 117.509 0.0838656 0.991452 0.0999494 
1645.51 543.012 668.916 0.0838656 0.991452 0.0999494 
1786.35 512.553 854.682 0.0838656 0.991452 0.0999494 
1557.25 553.055 641.989 0.0838656 0.991452 0.0999494 
1652.66 527.901 812.57 0.0838656 0.991452 0.0999494 
1647.39 541.754 679.816 0.0838656 0.991452 0.0999494 
1697.39 519.956 854.463 0.0838656 0.991452 0.0999494 
1653.5 533.386 757.602 0.0838656 0.991452 0.0999494 
1773.46 516.039 830.77 0.0838656 0.991452 0.0999494 
1368.64 592.801 403.534 0.0838656 0.991452 0.0999494 
1615.29 550.286 621.746 0.0838656 0.991452 0.0999494 
1669.49 530.478 773.25 0.0838656 0.991452 0.0999494 
1714.72 527.377 766.808 0.0838656 0.991452 0.0999494 
1469.46 570.742 539.048 0.0838656 0.991452 0.0999494 
1613.35 547.044 655.416 0.0838656 0.991452 0.0999494 
1720.87 525.101 784.284 0.0838656 0.991452 0.0999494 
1638.85 539.753 706.625 0.0838656 0.991452 0.0999494 
1733.5 517.822 845.935 0.0838656 0.991452 0.0999494 
1742.57 524.821 769.235 0.0838656 0.991452 0.0999494 
1607.9 537.297 756.344 0.0838656 0.991452 0.0999494 
1474.17 573.245 510.417 0.0838656 0.991452 0.0999494 
1704.73 525.772 790.887 0.0838656 0.991452 0.0999494 
1688.4 521.278 848.76 0.0838656 0.991452 0.0999494 
1176.99 635.224 141.094 0.0838656 0.991452 0.0999494 
1383.4 595.002 369.641 0.0838656 0.991452 0.0999494 
1410.64 582.253 473.43 0.0838656 0.991452 0.0999494 
1357.88 594.744 393.148 0.0838656 0.991452 0.0999494 
1815.65 502.145 933.621 0.0838656 0.991452 0.0999494 
1537.63 555.238 636.495 0.0838656 0.991452 0.0999494 
1580.89 556.685 586.671 0.0838656 0.991452 0.0999494 
1507.49 568.683 528.199 0.0838656 0.991452 0.0999494 
1739.29 518.352 835.938 0.0838656 0.991452 0.0999494 
1485.93 569.543 537.392 0.0838656 0.991452 0.0999494 
1852.73 502.01 904.516 0.0838656 0.991452 0.0999494 
1546.78 563.085 551.335 0.0838656 0.991452 0.0999494 
1672.75 533.856 737.154 0.0838656 0.991452 0.0999494 
1591.05 551.32 631.415 0.0838656 0.991452 0.0999494 
1695.47 531.952 737.339 0.0838656 0.991452 0.0999494 
1709.14 523.622 808.546 0.0838656 0.991452 0.0999494 
1703.89 526.948 779.94 0.0838656 0.991452 0.0999494 
1338.72 602.028 336.8 0.0838656 0.991452 0.0999494 
1719.02 526.475 772.197 0.0838656 0.991452 0.0999494 
1636.58 540.6 700.111 0.0838656 0.991452 0.0999494 
1755.21 522.552 781.309 0.0838656 0.991452 0.0999494 
1807.73 502.855 933.102 0.0838656 0.991452 0.0999494 
1609.51 549.679 632.495 0.0838656 0.991452 0.0999494 
1442.54 574.749 521.495 0.0838656 0.991452 0.0999494 
1643.15 539.109 709.465 0.0838656 0.991452 0.0999494 
1155.65 639.552 115.789 0.0838656 0.991452 0.0999494 
1569.38 551.956 642.909 0.0838656 0.991452 0.0999494 
1656.36 531.169 777.199 0.0838656 0.991452 0.0999494 
1809.52 509.81 862.803 0.0838656 0.991452 0.0999494 
1530.07 559.158 603.912 0.0838656 0.991452 0.0999494 
1407.53 586.667 432.313 0.0838656 0.991452 0.0999494 
1622.21 535.945 757.969 0.0838656 0.991452 0.0999494 
1306.16 608.795 296.571 0.0838656 0.991452 0.0999494 
1291.02 608.865 308.307 0.0838656 0.991452 0.0999494 
1346.81 601.959 330.841 0.0838656 0.991452 0.0999494 
1576.47 553.996 616.905 0.0838656 0.991452 0.0999494 
1806.7 505.207 910.669 0.0838656 0.991452 0.0999494 
1419.24 587.207 417.351 0.0838656 0.991452 0.0999494 
1415.67 588.988 402.659 0.0838656 0.991452 0.0999494 
1507.64 559.396 619.982 0.0838656 0.991452 0.0999494 
1657.07 530.439 783.831 0.0838656 0.991452 0.0999494 
1733.45 519.869 825.719 0.0838656 0.991452 0.0999494 
1780.47 503.28 951.268 0.0838656 0.991452 0.0999494 
1561.9 552.849 640.215 0.0838656 0.991452 0.0999494 
1255.58 615.961 267.187 0.0838656 0.991452 0.0999494 
1624.18 544.067 675.978 0.0838656 0.991452 0.0999494 
1299.21 610.111 289.25 0.0838656 0.991452 0.0999494 
1728.95 510.962 917.557 0.0838656 0.991452 0.0999494 
1647.8 532.818 767.904 0.0838656 0.991452 0.0999494 
1777.92 512.909 858.078 0.0838656 0.991452 0.0999494 
1619.77 536.155 757.893 0.0838656 0.991452 0.0999494 
1722.83 525.4 779.718 0.0838656 0.991452 0.0999494 
1575.44 552.593 631.627 0.0838656 0.991452 0.0999494 
1451.15 579.631 466.118 0.0838656 0.991452 0.0999494 
1825.42 502.005 926.988 0.0838656 0.991452 0.0999494 
1814.63 503.948 916.621 0.0838656 0.991452 0.0999494 
1817.96 497.193 980.726 0.0838656 0.991452 0.0999494 
1633.89 543.657 672.068 0.0838656 0.991452 0.0999494 
1659.39 538.507 702.095 0.0838656 0.991452 0.0999494 
1719.72 513.249 902.492 0.0838656 0.991452 0.0999494 
1391.43 585.849 453.617 0.0838656 0.991452 0.0999494 
1774.92 509.171 897.536 0.0838656 0.991452 0.0999494 
1656.85 529.141 796.854 0.0838656 0.991452 0.0999494 
1779.28 517.053 815.965 0.0838656 0.991452 0.0999494 
1628.92 536.782 744.172 0.0838656 0.991452 0.0999494 
1674.27 528.005 793.805 0.0838656 0.991452 0.0999494 
1756.46 522.022 785.529 0.0838656 0.991452 0.0999494 
1729.3 510.679 920.062 0.0838656 0.991452 0.0999494 
1486.72 564.426 587.373 0.0838656 0.991452 0.0999494 
1735.05 510.518 916.938 0.0838656 0.991452 0.0999494 
1764.26 514.186 856.661 0.0838656 0.991452 0.0999494 
1669.88 528.497 792.533 0.0838656 0.991452 0.0999494 
1710.63 523.441 809.105 0.0838656 0.991452 0.0999494 
1445.44 575.088 515.767 0.0838656 0.991452 0.0999494 
1438.77 579.627 476.32 0.0838656 0.991452 0.0999494 
1638.01 540.6 698.941 0.0838656 0.991452 0.0999494 
1785.47 508.062 899.844 0.0838656 0.991452 0.0999494 
1785.04 502.395 956.276 0.0838656 0.991452 0.0999494 
1857.08 495.326 967.086 0.0838656 0.991452 0.0999494 
1552.54 557.856 598.346 0.0838656 0.991452 0.0999494 
1663.32 539.147 692.543 0.0838656 0.991452 0.0999494 
1828.16 508.226 863.179 0.0838656 0.991452 0.0999494 
1613.82 539.484 729.843 0.0838656 0.991452 0.0999494 
1304.05 608.222 303.974 0.0838656 0.991452 0.0999494 
1601.21 546.241 673.33 0.0838656 0.991452 0.0999494 
1719.76 525.187 784.335 0.0838656 0.991452 0.0999494 
1740.31 525.597 763.413 0.0838656 0.991452 0.0999494 
1731.76 526.049 765.96 0.0838656 0.991452 0.0999494 
1793.76 516.484 809.712 0.0838656 0.991452 0.0999494 
1462.94 579.005 462.637 0.0838656 0.991452 0.0999494 
1749.43 520.226 809.071 0.0838656 0.991452 0.0999494 
1531.2 566.779 527.58 0.0838656 0.991452 0.0999494 
1811.77 495.668 1000.9 0.0838656 0.991452 0.0999494 
1536.41 557.722 612.922 0.0838656 0.991452 0.0999494 
1648.7 534.175 753.734 0.0838656 0.991452 0.0999494 
1717.72 522.371 813.876 0.0838656 0.991452 0.0999494 
1733.72 525.616 768.632 0.0838656 0.991452 0.0999494 
1229.3 622.078 228.235 0.0838656 0.991452 0.0999494 
1734.92 519.427 828.887 0.0838656 0.991452 0.0999494 
1766.21 510.775 888.813 0.0838656 0.991452 0.0999494 
1709.91 531.377 731.174 0.0838656 0.991452 0.0999494 
1467.42 575.432 494.316 0.0838656 0.991452 0.0999494 
1720.24 520.058 834.696 0.0838656 0.991452 0.0999494 
1872.5 498.509 922.934 0.0838656 0.991452 0.0999494 
1556.78 561.008 563.682 0.0838656 0.991452 0.0999494 
1530.11 561.881 576.941 0.0838656 0.991452 0.0999494 
1756.97 510.267 901.431 0.0838656 0.991452 0.0999494 
1679.87 521.526 853.307 0.0838656 0.991452 0.0999494 
1250.21 617.047 260.852 0.0838656 0.991452 0.0999494 
1762.27 518.983 810.836 0.0838656 0.991452 0.0999494 
1408.35 588.911 409.436 0.0838656 0.991452 0.0999494 
1331.22 602.061 342.623 0.0838656 0.991452 0.0999494 
1413.26 589.223 402.306 0.0838656 0.991452 0.0999494 
1680.31 527.291 795.899 0.0838656 0.991452 0.0999494 
1552.79 553.647 639.793 0.0838656 0.991452 0.0999494 
1571.13 553.475 626.438 0.0838656 0.991452 0.0999494 
1684.34 524.571 819.509 0.0838656 0.991452 0.0999494 
1614.05 549.682 628.747 0.0838656 0.991452 0.0999494 
1700.09 534.262 710.693 0.0838656 0.991452 0.0999494 
1698.56 523.981 813.674 0.0838656 0.991452 0.0999494 
1309.2 609.634 285.775 0.0838656 0.991452 0.0999494 
1736.86 525.301 769.172 0.0838656 0.991452 0.0999494 
1778.04 507.157 914.901 0.0838656 0.991452 0.0999494 
1727.1 516.697 862.32 0.0838656 0.991452 0.0999494 
1451.26 578.217 480.02 0.0838656 0.991452 0.0999494 
1794.29 496.801 1004.04 0.0838656 0.991452 0.0999494 
1856.22 496.53 955.881 0.0838656 0.991452 0.0999494 
1750.05 522.844 782.659 0.0838656 0.991452 0.0999494 
1619.63 550.131 619.716 0.0838656 0.991452 0.0999494 
1199.28 630.444 170.085 0.0838656 0.991452 0.0999494 
1725.14 529.526 736.982 0.0838656 0.991452 0.0999494 
1223.92 623.528 218.293 0.0838656 0.991452 0.0999494 
1427.07 577.669 505.303 0.0838656 0.991452 0.0999494 
1463.63 572.996 521.528 0.0838656 0.991452 0.0999494 
1407.61 585.352 445.258 0.0838656 0.991452 0.0999494 
1745.87 509.984 913.336 0.0838656 0.991452 0.0999494 
1538.62 562.513 563.698 0.0838656 0.991452 0.0999494 
1150.01 639.634 119.603 0.0838656 0.991452 0.0999494 
1686.92 523.992 823.119 0.0838656 0.991452 0.0999494 
1431.85 583.438 444.299 0.0838656 0.991452 0.0999494 
1543.85 559.266 591.541 0.0838656 0.991452 0.0999494 
1430.4 584.699 433.003 0.0838656 0.991452 0.0999494 
1193.03 629.737 182.219 0.0838656 0.991452 0.0999494 
1738.19 509.362 925.798 0.0838656 0.991452 0.0999494 
1521.11 557.829 624.422 0.0838656 0.991452 0.0999494 
1850.56 494.986 975.798 0.0838656 0.991452 0.0999494 
1537.42 556.51 624.084 0.0838656 0.991452 0.0999494 
1508.52 559.657 616.666 0.0838656 0.991452 0.0999494 
1726.53 515.104 878.55 0.0838656 0.991452 0.0999494 
1726.84 512.062 908.392 0.0838656 0.991452 0.0999494 
1598.32 551.513 623.53 0.0838656 0.991452 0.0999494 
1774.23 511.99 870.211 0.0838656 0.991452 0.0999494 
1856.78 503.786 883.62 0.0838656 0.991452 0.0999494 
1586.54 553.219 616.329 0.0838656 0.991452 0.0999494 
1534.47 553.942 651.912 0.0838656 0.991452 0.0999494 
1580.95 543.26 719.459 0.0838656 0.991452 0.0999494 
1636.76 536.38 741.724 0.0838656 0.991452 0.0999494 
1234.09 622.524 219.883 0.0838656 0.991452 0.0999494 
1614.88 550.933 615.677 0.0838656 0.991452 0.0999494 
1535.64 556.208 628.53 0.0838656 0.991452 0.0999494 
1664.52 527.243 809.339 0.0838656 0.991452 0.0999494 
1119.07 646.637 75.7094 0.0838656 0.991452 0.0999494 
1581.95 544.421 707.151 0.0838656 0.991452 0.0999494 
1335.24 604.48 315.389 0.0838656 0.991452 0.0999494 
1655.55 538.289 707.408 0.0838656 0.991452 0.0999494 
1449.94 579.621 467.219 0.0838656 0.991452 0.0999494 
1612.17 550.708 620.133 0.0838656 0.991452 0.0999494 
1505.64 567.862 537.85 0.0838656 0.991452 0.0999494 
1622.33 542.08 697.166 0.0838656 0.991452 0.0999494 
1573.62 549.343 665.276 0.0838656 0.991452 0.0999494 
1667.12 539.922 681.747 0.0838656 0.991452 0.0999494 
1688.49 532.474 737.904 0.0838656 0.991452 0.0999494 
1792.05 509.322 881.976 0.0838656 0.991452 0.0999494 
1225.87 625.966 192.568 0.0838656 0.991452 0.0999494 
1593.54 542.506 716.586 0.0838656 0.991452 0.0999494 
1373.02 589.949 428.167 0.0838656 0.991452 0.0999494 
1657.17 537.79 711.016 0.0838656 0.991452 0.0999494 
1752.29 505.026 957.126 0.0838656 0.991452 0.0999494 
1771.55 512.623 866.142 0.0838656 0.991452 0.0999494 
1490.35 566.666 562.225 0.0838656 0.991452 0.0999494 
1581.24 546.898 683.223 0.0838656 0.991452 0.0999494 
1421.16 587.037 417.465 0.0838656 0.991452 0.0999494 
1718.67 525.916 778.018 0.0838656 0.991452 0.0999494 
1320.33 603.991 332.471 0.0838656 0.991452 0.0999494 
1492.3 566.327 563.984 0.0838656 0.991452 0.0999494 
1779.98 509.866 886.505 0.0838656 0.991452 0.0999494 
1865.75 502.823 885.787 0.0838656 0.991452 0.0999494 
1563.66 553.118 636.107 0.0838656 0.991452 0.0999494 
1795.01 515.176 821.618 0.0838656 0.991452 0.0999494 
1537.81 555.268 636.055 0.0838656 0.991452 0.0999494 
1499.9 562.324 597.354 0.0838656 0.991452 0.0999494 
1621.18 541.529 703.563 0.0838656 0.991452 0.0999494 
1338.78 601.896 338.061 0.0838656 0.991452 0.0999494 
1731.33 526.872 758.162 0.0838656 0.991452 0.0999494 
1255.26 616.95 257.659 0.0838656 0.991452 0.0999494 
1470.48 571.985 525.906 0.0838656 0.991452 0.0999494 
1324.09 603.281 336.408 0.0838656 0.991452 0.0999494 
1705.94 521.466 832.501 0.0838656 0.991452 0.0999494 
1447.56 581.161 453.928 0.0838656 0.991452 0.0999494 
1517.06 563.788 568.785 0.0838656 0.991452 0.0999494 
1317.69 607.961 295.361 0.0838656 0.991452 0.0999494 
1337.92 604.364 314.339 0.0838656 0.991452 0.0999494 
1513.44 558.426 624.814 0.0838656 0.991452 0.0999494 
1469.21 574.476 502.299 0.0838656 0.991452 0.0999494 
1736.33 510.839 912.705 0.0838656 0.991452 0.0999494 
1802.49 495.721 1007.99 0.0838656 0.991452 0.0999494 
1769.97 506.48 928.228 0.0838656 0.991452 0.0999494 
1460.22 570.349 550.525 0.0838656 0.991452 0.0999494 
1336.14 599.995 359.038 0.0838656 0.991452 0.0999494 
1529.94 557.406 621.354 0.0838656 0.991452 0.0999494 
1554.81 559.311 582.093 0.0838656 0.991452 0.0999494 
1391.42 586.196 450.196 0.0838656 0.991452 0.0999494 
1758.61 513.19 871.153 0.0838656 0.991452 0.0999494 
1505.81 563.007 585.749 0.0838656 0.991452 0.0999494 
1682.15 524.069 826.282 0.0838656 0.991452 0.0999494 
1618.77 540.912 711.642 0.0838656 0.991452 0.0999494 
1792.3 514.444 831.088 0.0838656 0.991452 0.0999494 
1788.66 514.792 830.631 0.0838656 0.991452 0.0999494 
1477.48 573.845 501.754 0.0838656 0.991452 0.0999494 
1787.68 504.626 932.038 0.0838656 0.991452 0.0999494 
1433.95 576.979 506.478 0.0838656 0.991452 0.0999494 
1828.57 496.388 979.982 0.0838656 0.991452 0.0999494 
1453.15 578.747 473.224 0.0838656 0.991452 0.0999494 
1819.33 508.802 864.724 0.0838656 0.991452 0.0999494 
1506.92 564.352 571.522 0.0838656 0.991452 0.0999494 
1776.6 505.252 934.941 0.0838656 0.991452 0.0999494 
1628.63 543.41 678.828 0.0838656 0.991452 0.0999494 
1451.06 581.797 444.757 0.0838656 0.991452 0.0999494 
1739.58 525.143 768.502 0.0838656 0.991452 0.0999494 
1846.19 499.962 930.158 0.0838656 0.991452 0.0999494 
1283.61 611.663 286.702 0.0838656 0.991452 0.0999494 
1855.85 502.273 899.347 0.0838656 0.991452 0.0999494 
1469.12 573.218 514.821 0.0838656 0.991452 0.0999494 
1758.22 513.995 863.51 0.0838656 0.991452 0.0999494 
1550.82 553.475 643.122 0.0838656 0.991452 0.0999494 
1732.48 509.847 925.686 0.0838656 0.991452 0.0999494 
1193.24 630.987 169.678 0.0838656 0.991452 0.0999494 
1770.9 504.917 942.931 0.0838656 0.991452 0.0999494 
1554.75 549.318 681.028 0.0838656 0.991452 0.0999494 
1659.15 540.13 686.237 0.0838656 0.991452 0.0999494 
1356.76 599.256 349.415 0.0838656 0.991452 0.0999494 
1538.38 559.77 591.046 0.0838656 0.991452 0.0999494 
1464.74 572.929 521.281 0.0838656 0.991452 0.0999494 
1679.81 524.217 826.725 0.0838656 0.991452 0.0999494 
1342.61 603.264 321.38 0.0838656 0.991452 0.0999494 
1790.59 503.718 938.629 0.0838656 0.991452 0.0999494 
1536.66 563.117 559.332 0.0838656 0.991452 0.0999494 
1455.57 581.631 442.702 0.0838656 0.991452 0.0999494 
1624.97 547.794 638.455 0.0838656 0.991452 0.0999494 
1443.97 580.664 461.792 0.0838656 0.991452 0.0999494 
1686.38 524.903 814.551 0.0838656 0.991452 0.0999494 
1474.14 572.078 521.988 0.0838656 0.991452 0.0999494 
1599.25 540.511 731.637 0.0838656 0.991452 0.0999494 
1701.64 523.62 814.718 0.0838656 0.991452 0.0999494 
1515.43 562.245 585.385 0.0838656 0.991452 0.0999494 
1304.88 608.746 298.107 0.0838656 0.991452 0.0999494 
1750.35 524.895 762.111 0.0838656 0.991452 0.0999494 
1548.05 564.038 540.866 0.0838656 0.991452 0.0999494 
1665.14 527.31 808.171 0.0838656 0.991452 0.0999494 
1631.07 534.8 762.022 0.0838656 0.991452 0.0999494 
1464.74 570.982 540.542 0.0838656 0.991452 0.0999494 
1512 563.066 580.075 0.0838656 0.991452 0.0999494 
1390.91 593.116 382.138 0.0838656 0.991452 0.0999494 
1691.89 528.289 776.528 0.0838656 0.991452 0.0999494 
1804.84 513.589 829.263 0.0838656 0.991452 0.0999494 
1652.61 529.598 795.816 0.0838656 0.991452 0.0999494 
1477.96 566.026 578.732 0.0838656 0.991452 0.0999494 
1853.25 496.685 956.785 0.0838656 0.991452 0.0999494 
1882.29 498.539 914.594 0.0838656 0.991452 0.0999494 
1794.54 506.762 905.266 0.0838656 0.991452 0.0999494 
1319.53 603.61 336.899 0.0838656 0.991452 0.0999494 
1761.56 520.34 797.987 0.0838656 0.991452 0.0999494 
1374.23 593.033 396.649 0.0838656 0.991452 0.0999494 
1853.2 495.026 973.241 0.0838656 0.991452 0.0999494 
1437.68 582.762 446.197 0.0838656 0.991452 0.0999494 
1682.11 530.921 758.503 0.0838656 0.991452 0.0999494 
1494.25 572.988 496.467 0.0838656 0.991452 0.0999494 
1698.74 521.469 838.387 0.0838656 0.991452 0.0999494 
1635.47 544.97 657.772 0.0838656 0.991452 0.0999494 
1393.4 592.539 385.807 0.0838656 0.991452 0.0999494 
1665.49 528.084 800.219 0.0838656 0.991452 0.0999494 
1682 533.876 729.358 0.0838656 0.991452 0.0999494 
1275.04 616.588 245.005 0.0838656 0.991452 0.0999494 
1344.09 599.775 354.685 0.0838656 0.991452 0.0999494 
1766.94 507.769 917.965 0.0838656 0.991452 0.0999494 
1442.26 576.802 501.412 0.0838656 0.991452 0.0999494 
1366.35 599.161 342.483 0.0838656 0.991452 0.0999494 
1683.08 531.951 747.517 0.0838656 0.991452 0.0999494 
1860.99 499.984 917.785 0.0838656 0.991452 0.0999494 
1770.48 506.471 927.902 0.0838656 0.991452 0.0999494 
1602.62 538.111 752.619 0.0838656 0.991452 0.0999494 
1851.99 503.566 889.726 0.0838656 0.991452 0.0999494 
1836.91 505.36 884.354 0.0838656 0.991452 0.0999494 
1503.46 572.172 496.992 0.0838656 0.991452 0.0999494 
1247.4 621.213 221.935 0.0838656 0.991452 0.0999494 
1587.76 555.117 596.537 0.0838656 0.991452 0.0999494 
1618.67 541.717 703.762 0.0838656 0.991452 0.0999494 
1846.52 502.705 902.74 0.0838656 0.991452 0.0999494 
1484.94 566.396 569.35 0.0838656 0.991452 0.0999494 
1803.53 499.193 972.785 0.0838656 0.991452 0.0999494 
1507.66 560.876 605.31 0.0838656 0.991452 0.0999494 
1693.25 535.793 701.155 0.0838656 0.991452 0.0999494 
1537.03 554.185 647.408 0.0838656 0.991452 0.0999494 
1638.31 539.135 713.186 0.0838656 0.991452 0.0999494 
1353.37 597.596 368.634 0.0838656 0.991452 0.0999494 
1325.42 607.01 298.42 0.0838656 0.991452 0.0999494 
1516.49 560.341 603.352 0.0838656 0.991452 0.0999494 
1545.94 562.873 554.128 0.0838656 0.991452 0.0999494 
1638.85 534.919 754.464 0.0838656 0.991452 0.0999494 
1383.17 590.408 415.294 0.0838656 0.991452 0.0999494 
1846.65 495.308 975.828 0.0838656 0.991452 0.0999494 
1370.37 593.014 400.009 0.0838656 0.991452 0.0999494 
1381.54 591.53 405.533 0.0838656 0.991452 0.0999494 
1607.66 551.139 619.566 0.0838656 0.991452 0.0999494 
1387.75 592.932 386.555 0.0838656 0.991452 0.0999494 
1671.91 525.585 819.681 0.0838656 0.991452 0.0999494 
1671.49 534.465 732.154 0.0838656 0.991452 0.0999494 
1578.2 552.702 628.285 0.0838656 0.991452 0.0999494 
1750.73 507.59 933.04 0.0838656 0.991452 0.0999494 
1394.77 591.36 396.343 0.0838656 0.991452 0.0999494 
1796.01 514.267 829.795 0.0838656 0.991452 0.0999494 
1576.19 547.252 683.866 0.0838656 0.991452 0.0999494 
1338.15 599.258 364.673 0.0838656 0.991452 0.0999494 
1313.52 605.162 326.479 0.0838656 0.991452 0.0999494 
1490.69 567.685 551.863 0.0838656 0.991452 0.0999494 
1405.98 583.839 461.569 0.0838656 0.991452 0.0999494 
1564.53 555.515 611.675 0.0838656 0.991452 0.0999494 
1679.77 535.268 717.411 0.0838656 0.991452 0.0999494 
1672.17 539.752 679.282 0.0838656 0.991452 0.0999494 
1371.22 591.598 413.324 0.0838656 0.991452 0.0999494 
1409.69 589.794 399.594 0.0838656 0.991452 0.0999494 
1390.92 589.438 418.519 0.0838656 0.991452 0.0999494 
1675.92 530.985 762.952 0.0838656 0.991452 0.0999494 
1368.55 593.487 396.818 0.0838656 0.991452 0.0999494 
1630.88 538.687 723.719 0.0838656 0.991452 0.0999494 
1120.74 646.159 79.0657 0.0838656 0.991452 0.0999494 
1808.56 507.821 883.281 0.0838656 0.991452 0.0999494 
1819.97 497.973 971.358 0.0838656 0.991452 0.0999494 
1804.54 503.16 932.696 0.0838656 0.991452 0.0999494 
1215.56 626.119 199.521 0.0838656 0.991452 0.0999494 
1676.84 533.302 739.273 0.0838656 0.991452 0.0999494 
1711.98 520.678 835.343 0.0838656 0.991452 0.0999494 
1870.03 501.654 893.832 0.0838656 0.991452 0.0999494 
1700.91 516.509 885.688 0.0838656 0.991452 0.0999494 
1644.85 540.908 690.279 0.0838656 0.991452 0.0999494 
1282.07 615.376 251.218 0.0838656 0.991452 0.0999494 
1393.18 590.597 405.201 0.0838656 0.991452 0.0999494 
1635.43 540.491 702.128 0.0838656 0.991452 0.0999494 
1435.31 576.234 512.743 0.0838656 0.991452 0.0999494 
1768.58 519.685 798.702 0.0838656 0.991452 0.0999494 
1242.21 620.743 230.833 0.0838656 0.991452 0.0999494 
1561.23 561.333 556.818 0.0838656 0.991452 0.0999494 
1706.05 525.623 791.277 0.0838656 0.991452 0.0999494 
1201.83 629.476 177.574 0.0838656 0.991452 0.0999494 
1642.6 542.989 671.528 0.0838656 0.991452 0.0999494 
1766.39 508.969 906.54 0.0838656 0.991452 0.0999494 
1304.99 608.693 298.537 0.0838656 0.991452 0.0999494 
1583.35 543.445 715.653 0.0838656 0.991452 0.0999494 
1751.76 512.049 888.063 0.0838656 0.991452 0.0999494 
1356.22 599.259 349.829 0.0838656 0.991452 0.0999494 
1578.81 545.953 694.569 0.0838656 0.991452 0.0999494 
1728.97 510.181 925.263 0.0838656 0.991452 0.0999494 
1682.58 522.764 838.84 0.0838656 0.991452 0.0999494 
1476.88 575.66 484.293 0.0838656 0.991452 0.0999494 
1255.41 620.365 223.737 0.0838656 0.991452 0.0999494 
1503.08 572.515 493.899 0.0838656 0.991452 0.0999494 
1377.79 588.71 436.51 0.0838656 0.991452 0.0999494 
1431.42 579.822 480.425 0.0838656 0.991452 0.0999494 
1553.88 551.685 658.318 0.0838656 0.991452 0.0999494 
1752.11 509.57 912.31 0.0838656 0.991452 0.0999494 
1609.64 550.289 626.348 0.0838656 0.991452 0.0999494 
1546.86 562.965 552.461 0.0838656 0.991452 0.0999494 
1633.7 540.225 706.179 0.0838656 0.991452 0.0999494 
1635.81 542.034 686.553 0.0838656 0.991452 0.0999494 
1396.28 586.442 443.774 0.0838656 0.991452 0.0999494 
1560.11 554.291 627.41 0.0838656 0.991452 0.0999494 
1696.79 527.978 775.583 0.0838656 0.991452 0.0999494 
1271.88 616.345 250.002 0.0838656 0.991452 0.0999494 
1621.83 545.239 666.316 0.0838656 0.991452 0.0999494 
1279.63 611.22 294.353 0.0838656 0.991452 0.0999494 
1397.39 587.954 427.892 0.0838656 0.991452 0.0999494 
1514.13 564.307 566.047 0.0838656 0.991452 0.0999494 
1594.8 549.741 643.963 0.0838656 0.991452 0.0999494 
1622.51 546.029 657.937 0.0838656 0.991452 0.0999494 
1444.11 578.109 486.959 0.0838656 0.991452 0.0999494 
1741.65 514.687 870.266 0.0838656 0.991452 0.0999494 
1845.55 499.637 933.893 0.0838656 0.991452 0.0999494 
1756.77 512.949 875.053 0.0838656 0.991452 0.0999494 
1500.81 568.045 540 0.0838656 0.991452 0.0999494 
1714.49 527.741 763.395 0.0838656 0.991452 0.0999494 
1487.52 565.104 580.013 0.0838656 0.991452 0.0999494 
1578.4 556.505 590.492 0.0838656 0.991452 0.0999494 
1618.4 542.115 700.039 0.0838656 0.991452 0.0999494 
1199.54 631.248 161.92 0.0838656 0.991452 0.0999494 
1406.9 589.521 404.585 0.0838656 0.991452 0.0999494 
1635.82 539.851 708.149 0.0838656 0.991452 0.0999494 
1312.26 606.856 310.746 0.0838656 0.991452 0.0999494 
1747.77 511.929 892.532 0.0838656 0.991452 0.0999494 
1730.34 516.708 859.557 0.0838656 0.991452 0.0999494 
1466.5 572.185 527.198 0.0838656 0.991452 0.0999494 
1609.24 549.254 636.921 0.0838656 0.991452 0.0999494 
1668.87 525.904 819.019 0.0838656 0.991452 0.0999494 
1761.15 520.678 794.981 0.0838656 0.991452 0.0999494 
1516.8 563.251 574.31 0.0838656 0.991452 0.0999494 
1419.42 584.3 445.97 0.0838656 0.991452 0.0999494 
1784.37 502.473 956.053 0.0838656 0.991452 0.0999494 
1615.7 542.597 697.491 0.0838656 0.991452 0.0999494 
1462.24 570.802 544.381 0.0838656 0.991452 0.0999494 
1479.14 575.408 484.928 0.0838656 0.991452 0.0999494 
1797.74 512.838 842.515 0.0838656 0.991452 0.0999494 
1776.95 508.88 898.746 0.0838656 0.991452 0.0999494 
1631.1 545.33 657.806 0.0838656 0.991452 0.0999494 
