ply
format ascii 1.0
comment Created by CloudCompare v2.11.3 (Anoia)
comment Created 08/09/2022 00:23
obj_info Generated by CloudCompare!
element vertex 878
property float x
property float y
property float z
property float nx
property float ny
property float nz
end_header
2131.97 -1063.02 1492.08 -0.564942 -0.53796 -0.625652 
1987.98 -1006.78 1573.86 -0.564942 -0.53796 -0.625652 
1953.18 -1046.53 1639.6 -0.564942 -0.53796 -0.625652 
1938.52 -1108.16 1705.98 -0.564942 -0.53796 -0.625652 
1870.6 -1027.65 1698.02 -0.564942 -0.53796 -0.625652 
2165.34 -1058.36 1457.88 -0.564942 -0.53796 -0.625652 
2103.3 -1059.04 1514.59 -0.564942 -0.53796 -0.625652 
2035.85 -1030.12 1550.67 -0.564942 -0.53796 -0.625652 
1957.17 -989.232 1586.6 -0.564942 -0.53796 -0.625652 
2090.87 -980.684 1458.29 -0.564942 -0.53796 -0.625652 
2126.58 -1019.37 1459.33 -0.564942 -0.53796 -0.625652 
2221.69 -1046.56 1396.73 -0.564942 -0.53796 -0.625652 
2165.1 -983.882 1393.9 -0.564942 -0.53796 -0.625652 
2343.39 -991.481 1239.16 -0.564942 -0.53796 -0.625652 
2313.99 -988.928 1263.56 -0.564942 -0.53796 -0.625652 
1884.62 -1060.83 1713.94 -0.564942 -0.53796 -0.625652 
2188.32 -1057.6 1436.43 -0.564942 -0.53796 -0.625652 
2107.38 -1112.46 1556.94 -0.564942 -0.53796 -0.625652 
1805.77 -990.379 1724.54 -0.564942 -0.53796 -0.625652 
2020.9 -1118.11 1640.04 -0.564942 -0.53796 -0.625652 
1994.52 -1008.23 1569.19 -0.564942 -0.53796 -0.625652 
2134.9 -1124.12 1542.1 -0.564942 -0.53796 -0.625652 
1984.71 -1110.41 1666.14 -0.564942 -0.53796 -0.625652 
2064.57 -985.206 1485.98 -0.564942 -0.53796 -0.625652 
1913.79 -998.375 1633.73 -0.564942 -0.53796 -0.625652 
1807.45 -1004.12 1734.87 -0.564942 -0.53796 -0.625652 
1681.01 -951.954 1804.28 -0.564942 -0.53796 -0.625652 
2044.43 -1046.43 1556.97 -0.564942 -0.53796 -0.625652 
1849.66 -1022.61 1712.62 -0.564942 -0.53796 -0.625652 
2071.55 -995.736 1488.74 -0.564942 -0.53796 -0.625652 
2038.37 -1042.46 1559.03 -0.564942 -0.53796 -0.625652 
2183.3 -1005.85 1396.37 -0.564942 -0.53796 -0.625652 
2133.85 -1062.88 1490.25 -0.564942 -0.53796 -0.625652 
2020.66 -1103.9 1628.01 -0.564942 -0.53796 -0.625652 
1858.3 -999.352 1684.76 -0.564942 -0.53796 -0.625652 
2272.7 -989.161 1301.11 -0.564942 -0.53796 -0.625652 
1965.21 -1015.92 1602.33 -0.564942 -0.53796 -0.625652 
2170.81 -991.413 1395.22 -0.564942 -0.53796 -0.625652 
1766.83 -975.656 1747.08 -0.564942 -0.53796 -0.625652 
1943.08 -1110.83 1704.16 -0.564942 -0.53796 -0.625652 
2008.92 -972.621 1525.47 -0.564942 -0.53796 -0.625652 
2207.89 -1018.38 1384.92 -0.564942 -0.53796 -0.625652 
2067.19 -1173.39 1645.82 -0.564942 -0.53796 -0.625652 
1943.91 -1050.59 1651.49 -0.564942 -0.53796 -0.625652 
1926.06 -1055.3 1671.7 -0.564942 -0.53796 -0.625652 
1946.28 -1025.55 1627.76 -0.564942 -0.53796 -0.625652 
1783.63 -986.395 1741.14 -0.564942 -0.53796 -0.625652 
1727.57 -998.804 1802.55 -0.564942 -0.53796 -0.625652 
1801.12 -993.578 1731.51 -0.564942 -0.53796 -0.625652 
1937.48 -1061.14 1666.39 -0.564942 -0.53796 -0.625652 
2096.74 -1083 1541.16 -0.564942 -0.53796 -0.625652 
2289.18 -1031.86 1323.01 -0.564942 -0.53796 -0.625652 
2203.86 -1048.48 1414.51 -0.564942 -0.53796 -0.625652 
1974.86 -1042.03 1616.1 -0.564942 -0.53796 -0.625652 
2218.22 -1004.15 1363.31 -0.564942 -0.53796 -0.625652 
2147.14 -1082.24 1494.93 -0.564942 -0.53796 -0.625652 
1931.56 -1076.75 1685.2 -0.564942 -0.53796 -0.625652 
2108.16 -1055.21 1506.89 -0.564942 -0.53796 -0.625652 
1872.7 -1009.83 1680.77 -0.564942 -0.53796 -0.625652 
1842.2 -985.78 1687.63 -0.564942 -0.53796 -0.625652 
2071.31 -1127.17 1602.25 -0.564942 -0.53796 -0.625652 
2121.75 -1061.53 1500.04 -0.564942 -0.53796 -0.625652 
2063.24 -1154.2 1632.85 -0.564942 -0.53796 -0.625652 
2024.94 -1108.68 1628.26 -0.564942 -0.53796 -0.625652 
2111.78 -981.181 1439.8 -0.564942 -0.53796 -0.625652 
2031.99 -1154.03 1660.97 -0.564942 -0.53796 -0.625652 
1716.31 -950.559 1771.15 -0.564942 -0.53796 -0.625652 
2114.15 -1053.16 1499.7 -0.564942 -0.53796 -0.625652 
2071.84 -1055.4 1539.91 -0.564942 -0.53796 -0.625652 
2112.65 -1002.48 1457.37 -0.564942 -0.53796 -0.625652 
2257.11 -1025.68 1346.7 -0.564942 -0.53796 -0.625652 
1761.76 -967.339 1744.49 -0.564942 -0.53796 -0.625652 
1833.64 -1043.21 1744.88 -0.564942 -0.53796 -0.625652 
1947.13 -997.461 1602.78 -0.564942 -0.53796 -0.625652 
2252.62 -1038.26 1361.6 -0.564942 -0.53796 -0.625652 
2125.24 -1102.78 1532.44 -0.564942 -0.53796 -0.625652 
2110.2 -1003.83 1460.75 -0.564942 -0.53796 -0.625652 
2269.01 -1027.67 1337.65 -0.564942 -0.53796 -0.625652 
2243.11 -1063.11 1391.62 -0.564942 -0.53796 -0.625652 
2114.02 -1143.37 1577.58 -0.564942 -0.53796 -0.625652 
1854.94 -1027.12 1711.74 -0.564942 -0.53796 -0.625652 
1840.67 -1013.13 1712.59 -0.564942 -0.53796 -0.625652 
1728.76 -992.304 1795.87 -0.564942 -0.53796 -0.625652 
1870.95 -1065.34 1730.2 -0.564942 -0.53796 -0.625652 
2099.75 -1153.25 1599 -0.564942 -0.53796 -0.625652 
1840.03 -1053.47 1747.94 -0.564942 -0.53796 -0.625652 
2215.7 -1066.66 1419.47 -0.564942 -0.53796 -0.625652 
1911.09 -1024.9 1659.03 -0.564942 -0.53796 -0.625652 
1887.97 -968.838 1631.62 -0.564942 -0.53796 -0.625652 
2192.27 -1085.36 1456.79 -0.564942 -0.53796 -0.625652 
2092.25 -993.865 1468.4 -0.564942 -0.53796 -0.625652 
2045.14 -1095.42 1598.56 -0.564942 -0.53796 -0.625652 
2157.07 -1073.27 1478.21 -0.564942 -0.53796 -0.625652 
1987.09 -988.193 1558.64 -0.564942 -0.53796 -0.625652 
2172.34 -1013.83 1413.16 -0.564942 -0.53796 -0.625652 
2032.43 -1134.91 1644.09 -0.564942 -0.53796 -0.625652 
1831.64 -971.34 1684.73 -0.564942 -0.53796 -0.625652 
2137.49 -1117.9 1534.4 -0.564942 -0.53796 -0.625652 
1819.44 -969.088 1693.83 -0.564942 -0.53796 -0.625652 
2233.58 -1012.61 1356.71 -0.564942 -0.53796 -0.625652 
2102.06 -1057.61 1514.48 -0.564942 -0.53796 -0.625652 
2087.48 -1049.16 1520.38 -0.564942 -0.53796 -0.625652 
1827.42 -970.807 1688.09 -0.564942 -0.53796 -0.625652 
2243.86 -1001.63 1337.95 -0.564942 -0.53796 -0.625652 
1881.26 -1001.49 1665.83 -0.564942 -0.53796 -0.625652 
1933.15 -1008.64 1625.06 -0.564942 -0.53796 -0.625652 
2182.79 -1041.25 1427.34 -0.564942 -0.53796 -0.625652 
1951.81 -1098.9 1685.98 -0.564942 -0.53796 -0.625652 
1665.7 -963.324 1827.93 -0.564942 -0.53796 -0.625652 
2161.88 -1014.81 1423.47 -0.564942 -0.53796 -0.625652 
2211.16 -1023.22 1386.14 -0.564942 -0.53796 -0.625652 
2143.8 -1067.61 1485.33 -0.564942 -0.53796 -0.625652 
2078.46 -1146.67 1612.59 -0.564942 -0.53796 -0.625652 
1948.37 -983.237 1589.4 -0.564942 -0.53796 -0.625652 
1941.29 -1045.01 1649.05 -0.564942 -0.53796 -0.625652 
1789.15 -1013.4 1759.43 -0.564942 -0.53796 -0.625652 
1959.3 -991.037 1586.23 -0.564942 -0.53796 -0.625652 
1791.56 -992.306 1739.06 -0.564942 -0.53796 -0.625652 
1964.31 -1119.76 1692.65 -0.564942 -0.53796 -0.625652 
2034.83 -1149.21 1654.25 -0.564942 -0.53796 -0.625652 
2264 -1009.26 1326.3 -0.564942 -0.53796 -0.625652 
2177.32 -980.17 1379.64 -0.564942 -0.53796 -0.625652 
1990.74 -974.819 1543.81 -0.564942 -0.53796 -0.625652 
2097.62 -1013.68 1480.62 -0.564942 -0.53796 -0.625652 
1830.07 -1011.45 1720.73 -0.564942 -0.53796 -0.625652 
2267.9 -995.039 1310.52 -0.564942 -0.53796 -0.625652 
2121.13 -1023.76 1468.04 -0.564942 -0.53796 -0.625652 
2097.26 -1083.07 1540.76 -0.564942 -0.53796 -0.625652 
2155.97 -1033.31 1444.76 -0.564942 -0.53796 -0.625652 
2272.73 -1145.27 1435.65 -0.564942 -0.53796 -0.625652 
2322.8 -1067.72 1323.51 -0.564942 -0.53796 -0.625652 
2300.17 -1100.7 1372.41 -0.564942 -0.53796 -0.625652 
2313.63 -1088.23 1349.47 -0.564942 -0.53796 -0.625652 
2265.69 -1170.21 1463.51 -0.564942 -0.53796 -0.625652 
2261.01 -1169.97 1467.53 -0.564942 -0.53796 -0.625652 
2239.89 -1231.37 1539.57 -0.564942 -0.53796 -0.625652 
2281.54 -1156.93 1437.73 -0.564942 -0.53796 -0.625652 
2275.56 -1157.66 1443.77 -0.564942 -0.53796 -0.625652 
2061.28 -1553.81 1979.08 -0.564942 -0.53796 -0.625652 
1950.81 -1755.41 2252.78 -0.564942 -0.53796 -0.625652 
2067.5 -1540.07 1961.61 -0.564942 -0.53796 -0.625652 
2252.64 -1212.63 1511.88 -0.564942 -0.53796 -0.625652 
2241.51 -1235.57 1541.72 -0.564942 -0.53796 -0.625652 
2267.02 -1191.44 1480.61 -0.564942 -0.53796 -0.625652 
2018.79 -1639.41 2091.29 -0.564942 -0.53796 -0.625652 
2043.14 -1606.03 2040.5 -0.564942 -0.53796 -0.625652 
2076.99 -1538.82 1951.94 -0.564942 -0.53796 -0.625652 
2281.46 -1184.47 1461.54 -0.564942 -0.53796 -0.625652 
2268.96 -1209.86 1494.73 -0.564942 -0.53796 -0.625652 
2324.77 -1090.76 1341.58 -0.564942 -0.53796 -0.625652 
2027.52 -1641.55 2085.25 -0.564942 -0.53796 -0.625652 
2066.33 -1572.21 1990.36 -0.564942 -0.53796 -0.625652 
2084.54 -1554.59 1958.7 -0.564942 -0.53796 -0.625652 
2279.46 -1198.02 1475.03 -0.564942 -0.53796 -0.625652 
2247.31 -1257.46 1555.35 -0.564942 -0.53796 -0.625652 
2270.37 -1222.81 1504.62 -0.564942 -0.53796 -0.625652 
2044.3 -1628.45 2058.77 -0.564942 -0.53796 -0.625652 
2077.25 -1579.55 1986.82 -0.564942 -0.53796 -0.625652 
2334.17 -1085.65 1328.67 -0.564942 -0.53796 -0.625652 
2303.72 -1155.31 1416.26 -0.564942 -0.53796 -0.625652 
2310.74 -1146.32 1402.16 -0.564942 -0.53796 -0.625652 
2069.38 -1602.09 2013.37 -0.564942 -0.53796 -0.625652 
2039.04 -1646.59 2079.17 -0.564942 -0.53796 -0.625652 
2071.55 -1595.6 2005.81 -0.564942 -0.53796 -0.625652 
2273.35 -1263.63 1537.11 -0.564942 -0.53796 -0.625652 
2292.3 -1207.06 1471.21 -0.564942 -0.53796 -0.625652 
2341.09 -1077.36 1315.27 -0.564942 -0.53796 -0.625652 
2096.99 -1573.19 1963.48 -0.564942 -0.53796 -0.625652 
1999.8 -1702.16 2162.57 -0.564942 -0.53796 -0.625652 
2321.98 -1141.36 1387.72 -0.564942 -0.53796 -0.625652 
2367.49 -1015.24 1237.84 -0.564942 -0.53796 -0.625652 
2321.07 -1141.97 1389.07 -0.564942 -0.53796 -0.625652 
2091.15 -1592.61 1985.5 -0.564942 -0.53796 -0.625652 
2109.78 -1577.69 1955.79 -0.564942 -0.53796 -0.625652 
2304.84 -1217.2 1468.6 -0.564942 -0.53796 -0.625652 
2315.68 -1179.78 1426.54 -0.564942 -0.53796 -0.625652 
2313.49 -1174.87 1424.29 -0.564942 -0.53796 -0.625652 
2046.29 -1655.56 2080.34 -0.564942 -0.53796 -0.625652 
2094.61 -1600.5 1989.17 -0.564942 -0.53796 -0.625652 
2050 -1656.48 2077.78 -0.564942 -0.53796 -0.625652 
2294.52 -1253.93 1509.6 -0.564942 -0.53796 -0.625652 
2320.54 -1183.12 1425.02 -0.564942 -0.53796 -0.625652 
2352.44 -1070.33 1298.94 -0.564942 -0.53796 -0.625652 
2137.43 -1571.03 1925.03 -0.564942 -0.53796 -0.625652 
2075.15 -1632.08 2033.99 -0.564942 -0.53796 -0.625652 
2089.91 -1625.15 2014.67 -0.564942 -0.53796 -0.625652 
2324.71 -1185.93 1423.68 -0.564942 -0.53796 -0.625652 
2316.52 -1206.63 1448.93 -0.564942 -0.53796 -0.625652 
2367.57 -1024.7 1245.92 -0.564942 -0.53796 -0.625652 
2135.15 -1583.2 1937.59 -0.564942 -0.53796 -0.625652 
2036.25 -1683.16 2113.22 -0.564942 -0.53796 -0.625652 
2140.04 -1578.44 1929.06 -0.564942 -0.53796 -0.625652 
2314.18 -1255.71 1493.34 -0.564942 -0.53796 -0.625652 
2308.7 -1263.22 1504.78 -0.564942 -0.53796 -0.625652 
2311.1 -1257.28 1497.48 -0.564942 -0.53796 -0.625652 
2109.4 -1616.13 1989.26 -0.564942 -0.53796 -0.625652 
2067.74 -1661.99 2066.48 -0.564942 -0.53796 -0.625652 
2339.94 -1160.82 1388.25 -0.564942 -0.53796 -0.625652 
2313.14 -1278.94 1514.31 -0.564942 -0.53796 -0.625652 
2021 -1706.85 2147.43 -0.564942 -0.53796 -0.625652 
2139.13 -1606.44 1954.02 -0.564942 -0.53796 -0.625652 
1974.52 -1750.06 2226.72 -0.564942 -0.53796 -0.625652 
2358.51 -1076.38 1298.67 -0.564942 -0.53796 -0.625652 
2312.68 -1322.54 1552.31 -0.564942 -0.53796 -0.625652 
2062.24 -1675.37 2082.99 -0.564942 -0.53796 -0.625652 
2047.45 -1687.3 2106.66 -0.564942 -0.53796 -0.625652 
2145.09 -1605.94 1948.2 -0.564942 -0.53796 -0.625652 
2348.54 -1137.09 1360.02 -0.564942 -0.53796 -0.625652 
2330.65 -1238.19 1463.34 -0.564942 -0.53796 -0.625652 
2324.17 -1293.86 1517.2 -0.564942 -0.53796 -0.625652 
2043.28 -1697 2118.78 -0.564942 -0.53796 -0.625652 
1962.46 -1762.35 2248.23 -0.564942 -0.53796 -0.625652 
2323.75 -1333.61 1551.84 -0.564942 -0.53796 -0.625652 
2350.75 -1149.1 1368.36 -0.564942 -0.53796 -0.625652 
2058.16 -1689.01 2098.44 -0.564942 -0.53796 -0.625652 
2137.52 -1628.78 1974.73 -0.564942 -0.53796 -0.625652 
2336.86 -1270.46 1485.55 -0.564942 -0.53796 -0.625652 
2330 -1326.62 1540.17 -0.564942 -0.53796 -0.625652 
2178.39 -1605.89 1918.03 -0.564942 -0.53796 -0.625652 
2039.44 -1708.5 2132.17 -0.564942 -0.53796 -0.625652 
2352.59 -1170.01 1384.73 -0.564942 -0.53796 -0.625652 
2330.16 -1360.74 1569.43 -0.564942 -0.53796 -0.625652 
2159.4 -1622.7 1949.7 -0.564942 -0.53796 -0.625652 
2095.5 -1671.08 2049.2 -0.564942 -0.53796 -0.625652 
2340.19 -1322.98 1527.81 -0.564942 -0.53796 -0.625652 
2333.31 -1366.47 1571.52 -0.564942 -0.53796 -0.625652 
2018.17 -1727.15 2167.49 -0.564942 -0.53796 -0.625652 
1947.43 -1776.15 2273.72 -0.564942 -0.53796 -0.625652 
2354.61 -1212.07 1419.16 -0.564942 -0.53796 -0.625652 
2348.89 -1256.86 1462.95 -0.564942 -0.53796 -0.625652 
2190.25 -1617.5 1917.31 -0.564942 -0.53796 -0.625652 
2345.74 -1328.1 1527.19 -0.564942 -0.53796 -0.625652 
2128.14 -1660 2010.13 -0.564942 -0.53796 -0.625652 
2356.86 -1231.24 1433.65 -0.564942 -0.53796 -0.625652 
2389.13 -1457.26 1599.27 -0.564942 -0.53796 -0.625652 
2409.23 -1198.61 1358.14 -0.564942 -0.53796 -0.625652 
2358.49 -1403.58 1580.72 -0.564942 -0.53796 -0.625652 
2361.5 -1401.25 1576 -0.564942 -0.53796 -0.625652 
2423.16 -1130.06 1286.46 -0.564942 -0.53796 -0.625652 
2446.51 -1510.39 1593.17 -0.564942 -0.53796 -0.625652 
2406.14 -1418.91 1550.83 -0.564942 -0.53796 -0.625652 
2375.27 -1027.69 1241.54 -0.564942 -0.53796 -0.625652 
2472.56 -1489.77 1551.83 -0.564942 -0.53796 -0.625652 
2393.2 -1276.32 1439.63 -0.564942 -0.53796 -0.625652 
2364.11 -1279.39 1468.59 -0.564942 -0.53796 -0.625652 
2391.6 -1382.11 1532.26 -0.564942 -0.53796 -0.625652 
2468.83 -1431.91 1505.33 -0.564942 -0.53796 -0.625652 
2499.47 -1406.4 1455.62 -0.564942 -0.53796 -0.625652 
2416.42 -1331.62 1466.29 -0.564942 -0.53796 -0.625652 
2453.42 -1518.36 1593.78 -0.564942 -0.53796 -0.625652 
2380.4 -1305.79 1476.61 -0.564942 -0.53796 -0.625652 
2409.62 -1290.5 1437 -0.564942 -0.53796 -0.625652 
2373.63 -1260.51 1443.71 -0.564942 -0.53796 -0.625652 
2432.76 -1157.69 1301.59 -0.564942 -0.53796 -0.625652 
2426.15 -1471.61 1578.16 -0.564942 -0.53796 -0.625652 
2385.61 -1061.27 1261.12 -0.564942 -0.53796 -0.625652 
2535.84 -1474.42 1481.35 -0.564942 -0.53796 -0.625652 
2395.87 -1248.86 1413.54 -0.564942 -0.53796 -0.625652 
2409.01 -1348.69 1487.71 -0.564942 -0.53796 -0.625652 
2484.72 -1300.24 1377.46 -0.564942 -0.53796 -0.625652 
2434.32 -1177.54 1317.29 -0.564942 -0.53796 -0.625652 
2527.64 -1400.93 1425.42 -0.564942 -0.53796 -0.625652 
2453.48 -1229.44 1344.69 -0.564942 -0.53796 -0.625652 
2444.12 -1253.54 1373.92 -0.564942 -0.53796 -0.625652 
2428.25 -1318.25 1444.07 -0.564942 -0.53796 -0.625652 
2535.32 -1632.41 1618.01 -0.564942 -0.53796 -0.625652 
2641.12 -1734.58 1610.38 -0.564942 -0.53796 -0.625652 
2408.11 -1141.2 1309.67 -0.564942 -0.53796 -0.625652 
2450 -1448.63 1536.78 -0.564942 -0.53796 -0.625652 
2470.11 -1419.4 1493.39 -0.564942 -0.53796 -0.625652 
2485.67 -1523.51 1569.05 -0.564942 -0.53796 -0.625652 
2573.74 -1667.04 1613.11 -0.564942 -0.53796 -0.625652 
2402.34 -1353.3 1497.72 -0.564942 -0.53796 -0.625652 
2510.51 -1533.61 1555.29 -0.564942 -0.53796 -0.625652 
2611.38 -1671.09 1582.55 -0.564942 -0.53796 -0.625652 
2367.78 -1338.06 1515.84 -0.564942 -0.53796 -0.625652 
2360.75 -1278.07 1470.49 -0.564942 -0.53796 -0.625652 
2502.41 -1452.3 1492.52 -0.564942 -0.53796 -0.625652 
2403.66 -1135.51 1308.8 -0.564942 -0.53796 -0.625652 
2494.6 -1325.22 1390.05 -0.564942 -0.53796 -0.625652 
2590.8 -1579.24 1522 -0.564942 -0.53796 -0.625652 
2445.33 -1440.41 1533.92 -0.564942 -0.53796 -0.625652 
2399.23 -1166.95 1339.9 -0.564942 -0.53796 -0.625652 
2410.66 -1206.47 1363.63 -0.564942 -0.53796 -0.625652 
2569.31 -1528.88 1498.03 -0.564942 -0.53796 -0.625652 
2432.16 -1482.92 1582.47 -0.564942 -0.53796 -0.625652 
2416.53 -1386.06 1513.12 -0.564942 -0.53796 -0.625652 
2373.17 -1042.94 1256.58 -0.564942 -0.53796 -0.625652 
2371.69 -1360.61 1531.75 -0.564942 -0.53796 -0.625652 
2521.89 -1384.17 1416.19 -0.564942 -0.53796 -0.625652 
2397.01 -1410.4 1551.76 -0.564942 -0.53796 -0.625652 
2359.51 -1381.73 1560.96 -0.564942 -0.53796 -0.625652 
2409.18 -1216.69 1373.77 -0.564942 -0.53796 -0.625652 
2464.8 -1271.73 1370.91 -0.564942 -0.53796 -0.625652 
2483.56 -1503.34 1553.58 -0.564942 -0.53796 -0.625652 
2565.97 -1640.26 1597.05 -0.564942 -0.53796 -0.625652 
2522.54 -1490.13 1506.93 -0.564942 -0.53796 -0.625652 
2625.2 -1737.68 1627.45 -0.564942 -0.53796 -0.625652 
2664.71 -1793.25 1639.6 -0.564942 -0.53796 -0.625652 
2457.32 -1516.25 1588.45 -0.564942 -0.53796 -0.625652 
2423.03 -1490.42 1597.2 -0.564942 -0.53796 -0.625652 
2399.85 -1367.88 1512.54 -0.564942 -0.53796 -0.625652 
2589.55 -1579.44 1523.3 -0.564942 -0.53796 -0.625652 
2367.67 -1354.51 1530.12 -0.564942 -0.53796 -0.625652 
2518.62 -1481.8 1503.29 -0.564942 -0.53796 -0.625652 
2538.46 -1540.09 1535.6 -0.564942 -0.53796 -0.625652 
2435.28 -1379.48 1490.49 -0.564942 -0.53796 -0.625652 
2422.17 -1484.96 1593.27 -0.564942 -0.53796 -0.625652 
2455.58 -1499.5 1575.58 -0.564942 -0.53796 -0.625652 
2644.45 -1756.37 1626.14 -0.564942 -0.53796 -0.625652 
2379.87 -1151.92 1344.45 -0.564942 -0.53796 -0.625652 
2505.12 -1546.69 1571.44 -0.564942 -0.53796 -0.625652 
2429.72 -1200.12 1340.91 -0.564942 -0.53796 -0.625652 
2423.89 -1295.31 1428.24 -0.564942 -0.53796 -0.625652 
2467.93 -1528.63 1589.51 -0.564942 -0.53796 -0.625652 
2419.91 -1156.47 1312.16 -0.564942 -0.53796 -0.625652 
2419.83 -1244.17 1387.83 -0.564942 -0.53796 -0.625652 
2379.32 -1074.33 1278.07 -0.564942 -0.53796 -0.625652 
2377.24 -1033.43 1244.7 -0.564942 -0.53796 -0.625652 
2506.16 -1472.61 1506.64 -0.564942 -0.53796 -0.625652 
2575.43 -1530.67 1494.02 -0.564942 -0.53796 -0.625652 
2395.77 -1060.53 1251.3 -0.564942 -0.53796 -0.625652 
2466.23 -1304.15 1397.56 -0.564942 -0.53796 -0.625652 
2377.19 -1324.09 1495.29 -0.564942 -0.53796 -0.625652 
2482.63 -1365.53 1435.63 -0.564942 -0.53796 -0.625652 
2390.04 -1433.8 1578.23 -0.564942 -0.53796 -0.625652 
2362.4 -1185.77 1389.44 -0.564942 -0.53796 -0.625652 
2434.43 -1248.18 1378.08 -0.564942 -0.53796 -0.625652 
2547.81 -1507.86 1499.35 -0.564942 -0.53796 -0.625652 
2550.77 -1652.81 1621.61 -0.564942 -0.53796 -0.625652 
2470.85 -1457.61 1525.66 -0.564942 -0.53796 -0.625652 
2472.42 -1315.97 1402.14 -0.564942 -0.53796 -0.625652 
2423.95 -1233.15 1374.6 -0.564942 -0.53796 -0.625652 
2472.82 -1388.52 1464.32 -0.564942 -0.53796 -0.625652 
2558.87 -1564.53 1538.19 -0.564942 -0.53796 -0.625652 
2513.21 -1581.1 1593.78 -0.564942 -0.53796 -0.625652 
2411.86 -1269.19 1416.6 -0.564942 -0.53796 -0.625652 
2501.72 -1333.52 1390.77 -0.564942 -0.53796 -0.625652 
2372.44 -1108.47 1313.72 -0.564942 -0.53796 -0.625652 
2528.52 -1393.11 1417.9 -0.564942 -0.53796 -0.625652 
2424.45 -1169.94 1319.67 -0.564942 -0.53796 -0.625652 
2580.61 -1666.98 1606.84 -0.564942 -0.53796 -0.625652 
2395.23 -1381.6 1528.54 -0.564942 -0.53796 -0.625652 
2445.13 -1226.06 1349.33 -0.564942 -0.53796 -0.625652 
2642.32 -1699.89 1579.39 -0.564942 -0.53796 -0.625652 
2397.27 -1282.23 1441.04 -0.564942 -0.53796 -0.625652 
2483.67 -1521.04 1568.74 -0.564942 -0.53796 -0.625652 
2506.31 -1381.34 1427.83 -0.564942 -0.53796 -0.625652 
2505.27 -1417.26 1459.74 -0.564942 -0.53796 -0.625652 
2526.11 -1511.43 1522.06 -0.564942 -0.53796 -0.625652 
2395.83 -1440.85 1579.08 -0.564942 -0.53796 -0.625652 
2404.61 -1300.4 1450.06 -0.564942 -0.53796 -0.625652 
2420.15 -1430.05 1547.76 -0.564942 -0.53796 -0.625652 
2386.48 -1174.49 1357.93 -0.564942 -0.53796 -0.625652 
2532.3 -1456.12 1468.78 -0.564942 -0.53796 -0.625652 
2420.06 -1424.6 1543.15 -0.564942 -0.53796 -0.625652 
2503.09 -1339.5 1394.68 -0.564942 -0.53796 -0.625652 
2506.02 -1383.5 1429.97 -0.564942 -0.53796 -0.625652 
2517.64 -1386.77 1422.27 -0.564942 -0.53796 -0.625652 
2383.75 -1437.27 1586.92 -0.564942 -0.53796 -0.625652 
2561.16 -1570.43 1541.21 -0.564942 -0.53796 -0.625652 
2446.04 -1266.52 1383.39 -0.564942 -0.53796 -0.625652 
2449.94 -1461.99 1548.35 -0.564942 -0.53796 -0.625652 
2585.75 -1664 1599.62 -0.564942 -0.53796 -0.625652 
2379.3 -1008.68 1221.5 -0.564942 -0.53796 -0.625652 
2434.69 -1284.44 1409.1 -0.564942 -0.53796 -0.625652 
2382.25 -1334.86 1500 -0.564942 -0.53796 -0.625652 
2366.29 -1161.2 1364.73 -0.564942 -0.53796 -0.625652 
2519.09 -1609.81 1613.22 -0.564942 -0.53796 -0.625652 
2373.74 -1189.53 1382.43 -0.564942 -0.53796 -0.625652 
2460.29 -1324.61 1420.56 -0.564942 -0.53796 -0.625652 
2395.92 -1077.67 1265.94 -0.564942 -0.53796 -0.625652 
2568.1 -1601.03 1561.31 -0.564942 -0.53796 -0.625652 
2423.74 -1331.49 1459.57 -0.564942 -0.53796 -0.625652 
2601.44 -1636.38 1561.62 -0.564942 -0.53796 -0.625652 
2530.1 -1445.39 1461.53 -0.564942 -0.53796 -0.625652 
2524.16 -1613.19 1611.53 -0.564942 -0.53796 -0.625652 
2496.51 -1513.59 1550.69 -0.564942 -0.53796 -0.625652 
2387.15 -1354.59 1512.57 -0.564942 -0.53796 -0.625652 
2358.38 -1258.97 1456.18 -0.564942 -0.53796 -0.625652 
2549.17 -1492.94 1485.26 -0.564942 -0.53796 -0.625652 
2481.42 -1514.95 1565.52 -0.564942 -0.53796 -0.625652 
2499.9 -1554.42 1582.82 -0.564942 -0.53796 -0.625652 
2471.68 -1502.35 1563.47 -0.564942 -0.53796 -0.625652 
2375.49 -1172.55 1366.21 -0.564942 -0.53796 -0.625652 
2565.5 -1654.98 1610.16 -0.564942 -0.53796 -0.625652 
2396.18 -1164.52 1340.56 -0.564942 -0.53796 -0.625652 
2525.86 -1448.85 1468.35 -0.564942 -0.53796 -0.625652 
2382.86 -1193.06 1377.22 -0.564942 -0.53796 -0.625652 
2372.06 -1198.49 1391.67 -0.564942 -0.53796 -0.625652 
2526.71 -1583.03 1583.24 -0.564942 -0.53796 -0.625652 
2565.87 -1675.82 1627.79 -0.564942 -0.53796 -0.625652 
2465.97 -1553.12 1612.4 -0.564942 -0.53796 -0.625652 
2459.24 -1550.18 1615.96 -0.564942 -0.53796 -0.625652 
2463.85 -1554 1615.08 -0.564942 -0.53796 -0.625652 
2541.2 -1649.65 1627.55 -0.564942 -0.53796 -0.625652 
2470.34 -1567.56 1620.89 -0.564942 -0.53796 -0.625652 
2610.4 -1733.59 1637.31 -0.564942 -0.53796 -0.625652 
2678.45 -1813.09 1644.28 -0.564942 -0.53796 -0.625652 
2450.28 -1550.82 1624.61 -0.564942 -0.53796 -0.625652 
2382.84 -1472.54 1618.14 -0.564942 -0.53796 -0.625652 
2526.28 -1640.16 1632.87 -0.564942 -0.53796 -0.625652 
2388.23 -1487.63 1626.27 -0.564942 -0.53796 -0.625652 
2578.48 -1704.03 1640.71 -0.564942 -0.53796 -0.625652 
2520.36 -1639.49 1637.64 -0.564942 -0.53796 -0.625652 
2376.34 -1486.84 1636.35 -0.564942 -0.53796 -0.625652 
2448.18 -1563.45 1637.4 -0.564942 -0.53796 -0.625652 
2460.71 -1575.13 1636.13 -0.564942 -0.53796 -0.625652 
2660.07 -1795.52 1645.76 -0.564942 -0.53796 -0.625652 
2365.04 -1478.36 1639.26 -0.564942 -0.53796 -0.625652 
2641.46 -1775.31 1645.17 -0.564942 -0.53796 -0.625652 
2488.89 -1615.96 1645.83 -0.564942 -0.53796 -0.625652 
2453.38 -1581.24 1648.03 -0.564942 -0.53796 -0.625652 
2425.27 -1549.72 1646.28 -0.564942 -0.53796 -0.625652 
2509.64 -1643.72 1650.99 -0.564942 -0.53796 -0.625652 
2386.05 -1513.71 1650.73 -0.564942 -0.53796 -0.625652 
2428.93 -1562.13 1653.67 -0.564942 -0.53796 -0.625652 
2430.11 -1568.73 1658.3 -0.564942 -0.53796 -0.625652 
2453.83 -1594.63 1659.16 -0.564942 -0.53796 -0.625652 
2381.2 -1517.63 1658.49 -0.564942 -0.53796 -0.625652 
2470.91 -1613.66 1660.12 -0.564942 -0.53796 -0.625652 
2362.03 -1512.14 1671.1 -0.564942 -0.53796 -0.625652 
2666.37 -1804.89 1648.14 -0.564942 -0.53796 -0.625652 
2482.43 -1632.34 1665.8 -0.564942 -0.53796 -0.625652 
2417.32 -1568.12 1669.34 -0.564942 -0.53796 -0.625652 
2682.64 -1820.59 1646.96 -0.564942 -0.53796 -0.625652 
2361.15 -1523.35 1681.55 -0.564942 -0.53796 -0.625652 
2498.13 -1648.39 1665.43 -0.564942 -0.53796 -0.625652 
2421.49 -1580.4 1676.14 -0.564942 -0.53796 -0.625652 
2413.75 -1576.82 1680.07 -0.564942 -0.53796 -0.625652 
2462.56 -1623.22 1675.91 -0.564942 -0.53796 -0.625652 
2372.26 -1538.49 1684.56 -0.564942 -0.53796 -0.625652 
2527.16 -1686.88 1672.35 -0.564942 -0.53796 -0.625652 
2374.17 -1552.58 1694.97 -0.564942 -0.53796 -0.625652 
2362.71 -1546.73 1700.3 -0.564942 -0.53796 -0.625652 
2556.27 -1713.68 1669.12 -0.564942 -0.53796 -0.625652 
2532.63 -1695.75 1675.05 -0.564942 -0.53796 -0.625652 
2375.69 -1568.86 1707.64 -0.564942 -0.53796 -0.625652 
2357.48 -1551.16 1708.85 -0.564942 -0.53796 -0.625652 
2404.94 -1591.82 1700.96 -0.564942 -0.53796 -0.625652 
2532.57 -1701.5 1680.06 -0.564942 -0.53796 -0.625652 
2348.83 -1553.79 1718.94 -0.564942 -0.53796 -0.625652 
2443.18 -1630.04 1699.32 -0.564942 -0.53796 -0.625652 
2529.87 -1703.56 1684.27 -0.564942 -0.53796 -0.625652 
2583.5 -1745.36 1671.79 -0.564942 -0.53796 -0.625652 
2346.91 -1557.78 1724.12 -0.564942 -0.53796 -0.625652 
2413.8 -1615.96 1713.76 -0.564942 -0.53796 -0.625652 
2477.58 -1666.72 1699.82 -0.564942 -0.53796 -0.625652 
2579.78 -1745.83 1675.56 -0.564942 -0.53796 -0.625652 
2337.34 -1564.33 1738.42 -0.564942 -0.53796 -0.625652 
2421.57 -1631.31 1719.96 -0.564942 -0.53796 -0.625652 
2354.51 -1581.43 1737.63 -0.564942 -0.53796 -0.625652 
2414.54 -1632.29 1727.17 -0.564942 -0.53796 -0.625652 
2469.68 -1672.66 1712.08 -0.564942 -0.53796 -0.625652 
2394.91 -1619.75 1734.11 -0.564942 -0.53796 -0.625652 
2452.45 -1665.17 1721.21 -0.564942 -0.53796 -0.625652 
2390.68 -1617.7 1736.18 -0.564942 -0.53796 -0.625652 
2425.56 -1649.51 1732.04 -0.564942 -0.53796 -0.625652 
2516.53 -1711.17 1702.89 -0.564942 -0.53796 -0.625652 
2435.1 -1658.25 1730.95 -0.564942 -0.53796 -0.625652 
2441.01 -1664.35 1730.85 -0.564942 -0.53796 -0.625652 
2322.94 -1589.95 1773.53 -0.564942 -0.53796 -0.625652 
2354.42 -1612.62 1764.59 -0.564942 -0.53796 -0.625652 
2470.44 -1689.93 1726.28 -0.564942 -0.53796 -0.625652 
2398.09 -1644.43 1752.51 -0.564942 -0.53796 -0.625652 
2364.75 -1626.02 1766.8 -0.564942 -0.53796 -0.625652 
2409.02 -1660.06 1756.1 -0.564942 -0.53796 -0.625652 
2518.33 -1725 1713.19 -0.564942 -0.53796 -0.625652 
2340.21 -1615.85 1780.23 -0.564942 -0.53796 -0.625652 
2565.94 -1755.86 1696.73 -0.564942 -0.53796 -0.625652 
2389.7 -1649.54 1764.51 -0.564942 -0.53796 -0.625652 
2306.22 -1604.65 1801.33 -0.564942 -0.53796 -0.625652 
2447.49 -1687.06 1744.56 -0.564942 -0.53796 -0.625652 
2296.05 -1604.27 1810.2 -0.564942 -0.53796 -0.625652 
2328.71 -1622.41 1796.29 -0.564942 -0.53796 -0.625652 
2623.82 -1793.11 1676.48 -0.564942 -0.53796 -0.625652 
2464.44 -1704.17 1743.99 -0.564942 -0.53796 -0.625652 
2625.23 -1793.5 1675.53 -0.564942 -0.53796 -0.625652 
2292.18 -1614.26 1822.3 -0.564942 -0.53796 -0.625652 
2540.45 -1748.08 1713.08 -0.564942 -0.53796 -0.625652 
2482.84 -1719.65 1740.68 -0.564942 -0.53796 -0.625652 
2688.03 -1828.73 1649.1 -0.564942 -0.53796 -0.625652 
2291.07 -1620.11 1828.35 -0.564942 -0.53796 -0.625652 
2286.76 -1618.41 1830.8 -0.564942 -0.53796 -0.625652 
2272.31 -1614.01 1840.07 -0.564942 -0.53796 -0.625652 
2508.07 -1735.68 1731.68 -0.564942 -0.53796 -0.625652 
2268.92 -1617.04 1845.75 -0.564942 -0.53796 -0.625652 
2280.86 -1622.39 1839.56 -0.564942 -0.53796 -0.625652 
1968.17 -1770.58 2250.16 -0.564942 -0.53796 -0.625652 
2153.11 -1700.1 2022.11 -0.564942 -0.53796 -0.625652 
2116.34 -1722.37 2074.56 -0.564942 -0.53796 -0.625652 
2385.24 -1694.92 1807.65 -0.564942 -0.53796 -0.625652 
2637.87 -1808.6 1677.12 -0.564942 -0.53796 -0.625652 
2195.35 -1775.42 2048.82 -0.564942 -0.53796 -0.625652 
2047.05 -1719.52 2134.79 -0.564942 -0.53796 -0.625652 
2244.09 -1745.42 1978.87 -0.564942 -0.53796 -0.625652 
2330.24 -1708.95 1869.5 -0.564942 -0.53796 -0.625652 
2293.85 -1721.77 1913.47 -0.564942 -0.53796 -0.625652 
2044.82 -1770.02 2180.33 -0.564942 -0.53796 -0.625652 
2477.42 -1780.16 1797.75 -0.564942 -0.53796 -0.625652 
2131.83 -1667.34 2013.12 -0.564942 -0.53796 -0.625652 
2502.89 -1796.8 1789.05 -0.564942 -0.53796 -0.625652 
2088.68 -1722.57 2099.75 -0.564942 -0.53796 -0.625652 
2185.2 -1668.2 1965.58 -0.564942 -0.53796 -0.625652 
2660.29 -1816.87 1663.96 -0.564942 -0.53796 -0.625652 
2096.22 -1743.31 2110.82 -0.564942 -0.53796 -0.625652 
2391.96 -1683.43 1791.67 -0.564942 -0.53796 -0.625652 
2229.92 -1734.48 1982.26 -0.564942 -0.53796 -0.625652 
2195.31 -1770.87 2044.93 -0.564942 -0.53796 -0.625652 
2263.57 -1804.28 2011.99 -0.564942 -0.53796 -0.625652 
2412.25 -1755.72 1835.63 -0.564942 -0.53796 -0.625652 
2222.98 -1781.15 2028.77 -0.564942 -0.53796 -0.625652 
2444.58 -1787.52 1833.79 -0.564942 -0.53796 -0.625652 
2256.93 -1753.13 1973.91 -0.564942 -0.53796 -0.625652 
2033.2 -1758.44 2180.87 -0.564942 -0.53796 -0.625652 
2351.45 -1690.39 1834.31 -0.564942 -0.53796 -0.625652 
2162.28 -1713.31 2025.2 -0.564942 -0.53796 -0.625652 
2475.78 -1757.3 1779.53 -0.564942 -0.53796 -0.625652 
2177.52 -1741.66 2035.86 -0.564942 -0.53796 -0.625652 
2347.03 -1716.11 1860.49 -0.564942 -0.53796 -0.625652 
2350.69 -1736.41 1874.67 -0.564942 -0.53796 -0.625652 
2396.89 -1703.7 1804.69 -0.564942 -0.53796 -0.625652 
2130.6 -1706.14 2047.67 -0.564942 -0.53796 -0.625652 
2306.44 -1792.79 1963.3 -0.564942 -0.53796 -0.625652 
2023.88 -1735.5 2169.52 -0.564942 -0.53796 -0.625652 
2024.21 -1779.49 2207.14 -0.564942 -0.53796 -0.625652 
2119.66 -1765.7 2108.91 -0.564942 -0.53796 -0.625652 
2235.11 -1732.69 1976.01 -0.564942 -0.53796 -0.625652 
2278.69 -1794.12 1989.55 -0.564942 -0.53796 -0.625652 
2019.81 -1772.68 2205.24 -0.564942 -0.53796 -0.625652 
2046.64 -1726.87 2141.5 -0.564942 -0.53796 -0.625652 
2026.16 -1756.51 2185.57 -0.564942 -0.53796 -0.625652 
2642.29 -1809.01 1673.47 -0.564942 -0.53796 -0.625652 
2526.75 -1808.17 1777.27 -0.564942 -0.53796 -0.625652 
2196.54 -1716.08 1996.59 -0.564942 -0.53796 -0.625652 
2593.44 -1806.22 1715.26 -0.564942 -0.53796 -0.625652 
2357.99 -1709.82 1845.15 -0.564942 -0.53796 -0.625652 
2427.38 -1774 1837.7 -0.564942 -0.53796 -0.625652 
2352.2 -1712.46 1852.67 -0.564942 -0.53796 -0.625652 
2451.83 -1802.12 1839.82 -0.564942 -0.53796 -0.625652 
2094.71 -1744.28 2113.02 -0.564942 -0.53796 -0.625652 
2540.7 -1779.32 1739.78 -0.564942 -0.53796 -0.625652 
2250.74 -1637 1879.4 -0.564942 -0.53796 -0.625652 
2126.96 -1788.52 2121.98 -0.564942 -0.53796 -0.625652 
2378.11 -1749.02 1860.74 -0.564942 -0.53796 -0.625652 
2156.73 -1750.56 2062.33 -0.564942 -0.53796 -0.625652 
2521.22 -1760.07 1740.8 -0.564942 -0.53796 -0.625652 
2424.42 -1736.86 1808.36 -0.564942 -0.53796 -0.625652 
2361.09 -1809.27 1928.07 -0.564942 -0.53796 -0.625652 
2457.15 -1734.16 1776.43 -0.564942 -0.53796 -0.625652 
2070.46 -1710 2105.4 -0.564942 -0.53796 -0.625652 
1944.59 -1784.38 2283.38 -0.564942 -0.53796 -0.625652 
2399.73 -1783.38 1870.8 -0.564942 -0.53796 -0.625652 
2530.64 -1819.19 1783.24 -0.564942 -0.53796 -0.625652 
2323.01 -1720.71 1886.18 -0.564942 -0.53796 -0.625652 
2225.83 -1792.45 2035.93 -0.564942 -0.53796 -0.625652 
2156.41 -1668.41 1991.8 -0.564942 -0.53796 -0.625652 
2140.67 -1670.82 2008.12 -0.564942 -0.53796 -0.625652 
2238 -1773.6 2008.67 -0.564942 -0.53796 -0.625652 
2369.13 -1703.75 1829.84 -0.564942 -0.53796 -0.625652 
2168.77 -1680.72 1991.23 -0.564942 -0.53796 -0.625652 
2437.47 -1772.63 1827.39 -0.564942 -0.53796 -0.625652 
2356.13 -1800.36 1924.87 -0.564942 -0.53796 -0.625652 
2345.34 -1773.68 1911.64 -0.564942 -0.53796 -0.625652 
2012.79 -1776.12 2214.57 -0.564942 -0.53796 -0.625652 
2387.33 -1766.76 1867.69 -0.564942 -0.53796 -0.625652 
2516.01 -1755.63 1741.69 -0.564942 -0.53796 -0.625652 
2164.6 -1701.67 2013.06 -0.564942 -0.53796 -0.625652 
2556.37 -1812.03 1753.8 -0.564942 -0.53796 -0.625652 
2208.82 -1775.84 2037 -0.564942 -0.53796 -0.625652 
2468.18 -1761.22 1789.78 -0.564942 -0.53796 -0.625652 
2449.16 -1786.08 1828.41 -0.564942 -0.53796 -0.625652 
2239.84 -1802.29 2031.74 -0.564942 -0.53796 -0.625652 
2252.87 -1611.95 1855.88 -0.564942 -0.53796 -0.625652 
2396.61 -1716.05 1815.59 -0.564942 -0.53796 -0.625652 
2277.22 -1669.67 1883.6 -0.564942 -0.53796 -0.625652 
2585.75 -1792.66 1710.53 -0.564942 -0.53796 -0.625652 
2547.79 -1788.25 1741.06 -0.564942 -0.53796 -0.625652 
2273.51 -1798.54 1998.04 -0.564942 -0.53796 -0.625652 
2325.48 -1671.65 1841.65 -0.564942 -0.53796 -0.625652 
2321.24 -1705.96 1875.06 -0.564942 -0.53796 -0.625652 
2420.91 -1773.63 1843.23 -0.564942 -0.53796 -0.625652 
2233.65 -1800.08 2035.43 -0.564942 -0.53796 -0.625652 
2242.24 -1665.56 1911.7 -0.564942 -0.53796 -0.625652 
2315.9 -1721.69 1893.45 -0.564942 -0.53796 -0.625652 
2291.82 -1741.74 1932.52 -0.564942 -0.53796 -0.625652 
2205.11 -1638.74 1922.18 -0.564942 -0.53796 -0.625652 
2195.4 -1625.29 1919.36 -0.564942 -0.53796 -0.625652 
2093.25 -1709.56 2084.41 -0.564942 -0.53796 -0.625652 
2398.67 -1786.45 1874.4 -0.564942 -0.53796 -0.625652 
2432.11 -1721.51 1788.18 -0.564942 -0.53796 -0.625652 
2265.57 -1696.83 1917.55 -0.564942 -0.53796 -0.625652 
2200.51 -1622.16 1912.04 -0.564942 -0.53796 -0.625652 
2381.99 -1692.56 1808.56 -0.564942 -0.53796 -0.625652 
2580.8 -1785.38 1708.72 -0.564942 -0.53796 -0.625652 
2314.12 -1730.48 1902.64 -0.564942 -0.53796 -0.625652 
1976.95 -1767.95 2239.94 -0.564942 -0.53796 -0.625652 
2264.48 -1735.27 1951.67 -0.564942 -0.53796 -0.625652 
2230.27 -1687.58 1941.52 -0.564942 -0.53796 -0.625652 
2585.82 -1777.57 1697.45 -0.564942 -0.53796 -0.625652 
2501.73 -1790.97 1785.07 -0.564942 -0.53796 -0.625652 
2562.22 -1794.55 1733.44 -0.564942 -0.53796 -0.625652 
2335.19 -1739.31 1891.2 -0.564942 -0.53796 -0.625652 
2405.42 -1807.81 1886.71 -0.564942 -0.53796 -0.625652 
2340.21 -1657.23 1815.9 -0.564942 -0.53796 -0.625652 
2251.97 -1617.64 1861.6 -0.564942 -0.53796 -0.625652 
2300.11 -1706.39 1894.55 -0.564942 -0.53796 -0.625652 
2071.82 -1744.03 2133.51 -0.564942 -0.53796 -0.625652 
2221.15 -1760.15 2012.31 -0.564942 -0.53796 -0.625652 
2147.66 -1708.93 2034.65 -0.564942 -0.53796 -0.625652 
2223.77 -1668.16 1930.65 -0.564942 -0.53796 -0.625652 
2209.96 -1662.28 1938.07 -0.564942 -0.53796 -0.625652 
2154.68 -1794.26 2101.85 -0.564942 -0.53796 -0.625652 
2372.62 -1785.4 1897.07 -0.564942 -0.53796 -0.625652 
2404.55 -1786.84 1869.42 -0.564942 -0.53796 -0.625652 
1969.49 -1765.87 2244.9 -0.564942 -0.53796 -0.625652 
2103.99 -1717.41 2081.46 -0.564942 -0.53796 -0.625652 
2498.88 -1817.35 1810.39 -0.564942 -0.53796 -0.625652 
2406.19 -1750 1836.18 -0.564942 -0.53796 -0.625652 
2290.96 -1693.02 1891.31 -0.564942 -0.53796 -0.625652 
2383 -1741.44 1849.78 -0.564942 -0.53796 -0.625652 
2350.77 -1784.55 1916.1 -0.564942 -0.53796 -0.625652 
2310.49 -1698.93 1878.73 -0.564942 -0.53796 -0.625652 
2266.72 -1736.86 1951.01 -0.564942 -0.53796 -0.625652 
2166 -1746.08 2050.09 -0.564942 -0.53796 -0.625652 
2451.38 -1785.44 1825.85 -0.564942 -0.53796 -0.625652 
2601.66 -1822.57 1721.91 -0.564942 -0.53796 -0.625652 
2509.83 -1759.84 1750.91 -0.564942 -0.53796 -0.625652 
2470.99 -1751.45 1778.81 -0.564942 -0.53796 -0.625652 
2169.18 -1713.22 2018.88 -0.564942 -0.53796 -0.625652 
2357.86 -1683.46 1822.55 -0.564942 -0.53796 -0.625652 
1983.46 -1764.19 2230.81 -0.564942 -0.53796 -0.625652 
2343.79 -1658.22 1813.52 -0.564942 -0.53796 -0.625652 
1988.01 -1767.11 2229.21 -0.564942 -0.53796 -0.625652 
2286.46 -1722.46 1920.75 -0.564942 -0.53796 -0.625652 
2100.81 -1708.81 2076.92 -0.564942 -0.53796 -0.625652 
2557.78 -1799.25 1741.5 -0.564942 -0.53796 -0.625652 
2104.03 -1755.08 2113.89 -0.564942 -0.53796 -0.625652 
2002.9 -1760 2209.61 -0.564942 -0.53796 -0.625652 
2085.83 -1727.68 2106.74 -0.564942 -0.53796 -0.625652 
2348.88 -1758.94 1895.74 -0.564942 -0.53796 -0.625652 
2396.43 -1752.6 1847.26 -0.564942 -0.53796 -0.625652 
2213.03 -1669.86 1941.83 -0.564942 -0.53796 -0.625652 
2307.26 -1713.49 1894.21 -0.564942 -0.53796 -0.625652 
2796.03 -1599.55 2021.19 0.319166 -0.842288 0.434378 
2815.46 -1267.66 2646.41 0.319166 -0.842288 0.434378 
2801.86 -1454.71 2295.97 0.319166 -0.842288 0.434378 
3119.26 -1395.51 2178.22 0.319166 -0.842288 0.434378 
2699.55 -1474.53 2332.49 0.319166 -0.842288 0.434378 
2668.56 -1317.96 2656.77 0.319166 -0.842288 0.434378 
2625.84 -1353.95 2618.63 0.319166 -0.842288 0.434378 
2917.26 -1435.22 2249.24 0.319166 -0.842288 0.434378 
2728.42 -1663.39 1947.57 0.319166 -0.842288 0.434378 
2563.33 -1277.44 2811.7 0.319166 -0.842288 0.434378 
2731.7 -1363.45 2523.02 0.319166 -0.842288 0.434378 
2690.47 -1349.96 2579.12 0.319166 -0.842288 0.434378 
2729.83 -1528.7 2206.03 0.319166 -0.842288 0.434378 
2966.38 -1308.99 2456.55 0.319166 -0.842288 0.434378 
2912.59 -1441.91 2239.77 0.319166 -0.842288 0.434378 
2746.68 -1705.13 1853.82 0.319166 -0.842288 0.434378 
2926.85 -1513.02 2092.36 0.319166 -0.842288 0.434378 
2783.15 -1578.56 2071.03 0.319166 -0.842288 0.434378 
3047.44 -1386.85 2247.35 0.319166 -0.842288 0.434378 
2911.79 -1430.65 2262.04 0.319166 -0.842288 0.434378 
2970.98 -1327.6 2417.34 0.319166 -0.842288 0.434378 
2580.12 -1447.76 2471.3 0.319166 -0.842288 0.434378 
2646.62 -1495.73 2330.32 0.319166 -0.842288 0.434378 
2787.84 -1309.04 2586.85 0.319166 -0.842288 0.434378 
2974.06 -1475.91 2129.38 0.319166 -0.842288 0.434378 
2748.8 -1586.54 2080.75 0.319166 -0.842288 0.434378 
2695.35 -1727.66 1847.91 0.319166 -0.842288 0.434378 
2994.43 -1396.21 2268.03 0.319166 -0.842288 0.434378 
3022.48 -1429.85 2182.74 0.319166 -0.842288 0.434378 
2879.13 -1453.17 2242.51 0.319166 -0.842288 0.434378 
2942.8 -1383.41 2330.41 0.319166 -0.842288 0.434378 
3011.95 -1451.34 2149.03 0.319166 -0.842288 0.434378 
2518.61 -1278.34 2842.61 0.319166 -0.842288 0.434378 
2939.94 -1347.44 2401.79 0.319166 -0.842288 0.434378 
3076.44 -1446.68 2110.92 0.319166 -0.842288 0.434378 
2749.33 -1278.56 2673.68 0.319166 -0.842288 0.434378 
2814.91 -1364.83 2459.59 0.319166 -0.842288 0.434378 
2677.15 -1725.09 1866.14 0.319166 -0.842288 0.434378 
2655.26 -1598.04 2126.9 0.319166 -0.842288 0.434378 
2801.46 -1489.6 2229.04 0.319166 -0.842288 0.434378 
2649.35 -1522.42 2276.91 0.319166 -0.842288 0.434378 
2598.13 -1445.69 2462.14 0.319166 -0.842288 0.434378 
2645.32 -1598.72 2132.84 0.319166 -0.842288 0.434378 
2697.56 -1290.24 2689 0.319166 -0.842288 0.434378 
3003.9 -1531.14 2001.17 0.319166 -0.842288 0.434378 
2697.1 -1454.8 2372.3 0.319166 -0.842288 0.434378 
2965.98 -1386.3 2307.91 0.319166 -0.842288 0.434378 
2570.92 -1318.81 2726.43 0.319166 -0.842288 0.434378 
3032.38 -1284.71 2455.13 0.319166 -0.842288 0.434378 
3075.81 -1405.39 2190.93 0.319166 -0.842288 0.434378 
2753.78 -1548.58 2150.24 0.319166 -0.842288 0.434378 
2796.9 -1621.89 1977.52 0.319166 -0.842288 0.434378 
2597 -1387.84 2574.4 0.319166 -0.842288 0.434378 
2768.85 -1443.85 2340.99 0.319166 -0.842288 0.434378 
2678.97 -1268.09 2745.25 0.319166 -0.842288 0.434378 
2890.9 -1498.9 2145.81 0.319166 -0.842288 0.434378 
2749.3 -1599.84 2054.76 0.319166 -0.842288 0.434378 
2964.51 -1420.77 2242.58 0.319166 -0.842288 0.434378 
2775.75 -1599.48 2036.12 0.319166 -0.842288 0.434378 
2705.16 -1745.38 1806.61 0.319166 -0.842288 0.434378 
2923.89 -1460.61 2195.48 0.319166 -0.842288 0.434378 
2774.59 -1268.6 2674.43 0.319166 -0.842288 0.434378 
2749.73 -1342.61 2550 0.319166 -0.842288 0.434378 
2756.15 -1424.74 2387.08 0.319166 -0.842288 0.434378 
2869.28 -1324.65 2497.3 0.319166 -0.842288 0.434378 
2881.03 -1597.85 1962.38 0.319166 -0.842288 0.434378 
2601.64 -1406.84 2534.41 0.319166 -0.842288 0.434378 
2669.76 -1490.07 2324.32 0.319166 -0.842288 0.434378 
2954.94 -1305.5 2471.64 0.319166 -0.842288 0.434378 
2984.15 -1329.11 2404.82 0.319166 -0.842288 0.434378 
3177.34 -1360.4 2203.45 0.319166 -0.842288 0.434378 
2746.28 -1698.88 1866.16 0.319166 -0.842288 0.434378 
2672.03 -1302.3 2684.4 0.319166 -0.842288 0.434378 
2749.64 -1265.75 2698.14 0.319166 -0.842288 0.434378 
2854.01 -1539.98 2093.61 0.319166 -0.842288 0.434378 
2878.66 -1476.65 2197.61 0.319166 -0.842288 0.434378 
2842.94 -1593.25 1999.07 0.319166 -0.842288 0.434378 
2643.94 -1521.17 2283.26 0.319166 -0.842288 0.434378 
2584.73 -1351.6 2653.18 0.319166 -0.842288 0.434378 
2888.54 -1645.61 1864.89 0.319166 -0.842288 0.434378 
3103.67 -1314.7 2345.28 0.319166 -0.842288 0.434378 
2866.02 -1363.6 2424.64 0.319166 -0.842288 0.434378 
2916.63 -1435.73 2248.72 0.319166 -0.842288 0.434378 
2911.51 -1497.4 2133.65 0.319166 -0.842288 0.434378 
2624.39 -1518.74 2302.22 0.319166 -0.842288 0.434378 
2838.33 -1612 1966.31 0.319166 -0.842288 0.434378 
3098.34 -1286.72 2403.08 0.319166 -0.842288 0.434378 
2933.57 -1583.08 1952.48 0.319166 -0.842288 0.434378 
2684.23 -1581.55 2137.5 0.319166 -0.842288 0.434378 
2780.2 -1557.01 2114.71 0.319166 -0.842288 0.434378 
2699.26 -1374.49 2525.46 0.319166 -0.842288 0.434378 
3102.44 -1385.3 2210.17 0.319166 -0.842288 0.434378 
2893.93 -1457.18 2223.96 0.319166 -0.842288 0.434378 
2929.43 -1399.09 2309.96 0.319166 -0.842288 0.434378 
2928.88 -1275.41 2548.64 0.319166 -0.842288 0.434378 
2788.68 -1508.09 2202.75 0.319166 -0.842288 0.434378 
2767.85 -1553.45 2130.57 0.319166 -0.842288 0.434378 
2638.93 -1581.24 2171.18 0.319166 -0.842288 0.434378 
2691.39 -1312.34 2650.92 0.319166 -0.842288 0.434378 
2702.21 -1275.86 2713.31 0.319166 -0.842288 0.434378 
2872.62 -1595.18 1973.66 0.319166 -0.842288 0.434378 
2899.04 -1478.21 2179.72 0.319166 -0.842288 0.434378 
3122.33 -1346.4 2270.58 0.319166 -0.842288 0.434378 
2829.57 -1701.08 1801.08 0.319166 -0.842288 0.434378 
2826.38 -1602.45 1993.43 0.319166 -0.842288 0.434378 
2695.31 -1353.09 2569.56 0.319166 -0.842288 0.434378 
2511.02 -1276.17 2852.33 0.319166 -0.842288 0.434378 
2556.08 -1359.24 2659.38 0.319166 -0.842288 0.434378 
2714.37 -1370.12 2522.83 0.319166 -0.842288 0.434378 
2565.23 -1324.31 2719.99 0.319166 -0.842288 0.434378 
2693.95 -1647.48 2003.4 0.319166 -0.842288 0.434378 
2514.72 -1275.96 2850.03 0.319166 -0.842288 0.434378 
2885.86 -1446.13 2251.15 0.319166 -0.842288 0.434378 
2634.66 -1270.46 2773.04 0.319166 -0.842288 0.434378 
2676.76 -1738.33 1840.93 0.319166 -0.842288 0.434378 
2960.41 -1479.45 2132.53 0.319166 -0.842288 0.434378 
2933.05 -1301.91 2494.54 0.319166 -0.842288 0.434378 
2943.28 -1541.64 2025.21 0.319166 -0.842288 0.434378 
3159.89 -1299.49 2333.53 0.319166 -0.842288 0.434378 
2579.1 -1451.93 2464.01 0.319166 -0.842288 0.434378 
2557.13 -1299.15 2774.38 0.319166 -0.842288 0.434378 
3077.83 -1353.9 2288.63 0.319166 -0.842288 0.434378 
3018.83 -1448.18 2150.09 0.319166 -0.842288 0.434378 
2806.46 -1346.11 2501.82 0.319166 -0.842288 0.434378 
2653.39 -1694.21 1942.99 0.319166 -0.842288 0.434378 
2640.63 -1271.96 2765.8 0.319166 -0.842288 0.434378 
2762.25 -1410.02 2411 0.319166 -0.842288 0.434378 
2558.4 -1344.61 2685.88 0.319166 -0.842288 0.434378 
2987.38 -1380.25 2303.94 0.319166 -0.842288 0.434378 
2764.3 -1535.04 2168.63 0.319166 -0.842288 0.434378 
3018.45 -1415.13 2214.04 0.319166 -0.842288 0.434378 
2635.07 -1396.32 2530.27 0.319166 -0.842288 0.434378 
2556.34 -1269.13 2832.79 0.319166 -0.842288 0.434378 
2651.27 -1498.94 2320.74 0.319166 -0.842288 0.434378 
3006.85 -1381.57 2287.18 0.319166 -0.842288 0.434378 
2850.22 -1491.27 2190.21 0.319166 -0.842288 0.434378 
2555.18 -1390.6 2599.62 0.319166 -0.842288 0.434378 
2613.38 -1518.55 2310.62 0.319166 -0.842288 0.434378 
3026.81 -1393.93 2248.79 0.319166 -0.842288 0.434378 
2911.23 -1587.08 1961.08 0.319166 -0.842288 0.434378 
2679.5 -1643.23 2022.14 0.319166 -0.842288 0.434378 
2797.9 -1729.48 1769.51 0.319166 -0.842288 0.434378 
3049.99 -1288.78 2434.43 0.319166 -0.842288 0.434378 
2758.89 -1399.69 2433.35 0.319166 -0.842288 0.434378 
2791.08 -1577.15 2067.96 0.319166 -0.842288 0.434378 
2838.63 -1350.26 2470.34 0.319166 -0.842288 0.434378 
3078.22 -1404.21 2191.43 0.319166 -0.842288 0.434378 
2822.16 -1665.28 1875.48 0.319166 -0.842288 0.434378 
2893.06 -1337.46 2455.25 0.319166 -0.842288 0.434378 
2928.42 -1287.33 2526.01 0.319166 -0.842288 0.434378 
2715.6 -1739.45 1810.4 0.319166 -0.842288 0.434378 
2542.14 -1273.98 2833.83 0.319166 -0.842288 0.434378 
2761.71 -1452.14 2330.23 0.319166 -0.842288 0.434378 
3098.36 -1393.15 2198.03 0.319166 -0.842288 0.434378 
2968.71 -1293.27 2485.13 0.319166 -0.842288 0.434378 
2657.66 -1597.33 2126.51 0.319166 -0.842288 0.434378 
2660.77 -1410.6 2483.98 0.319166 -0.842288 0.434378 
2956.6 -1568.63 1963.49 0.319166 -0.842288 0.434378 
2911.1 -1603.12 1930.27 0.319166 -0.842288 0.434378 
2757.08 -1556.31 2132.94 0.319166 -0.842288 0.434378 
3106.08 -1339.76 2295.26 0.319166 -0.842288 0.434378 
2883.64 -1423.31 2296.74 0.319166 -0.842288 0.434378 
2659.11 -1698.53 1930.49 0.319166 -0.842288 0.434378 
2682.03 -1614.6 2075.44 0.319166 -0.842288 0.434378 
2639.73 -1545.58 2239.31 0.319166 -0.842288 0.434378 
2809.78 -1720.16 1778.78 0.319166 -0.842288 0.434378 
2701.66 -1602.44 2084.54 0.319166 -0.842288 0.434378 
2851.62 -1562.03 2052.86 0.319166 -0.842288 0.434378 
2545.31 -1372.36 2641.98 0.319166 -0.842288 0.434378 
3103.19 -1383 2214.07 0.319166 -0.842288 0.434378 
2594.32 -1473.58 2411.18 0.319166 -0.842288 0.434378 
2824.5 -1668.76 1867.05 0.319166 -0.842288 0.434378 
2760.34 -1769.25 1720.31 0.319166 -0.842288 0.434378 
2683.55 -1340.26 2602.86 0.319166 -0.842288 0.434378 
2991.47 -1404.93 2253.39 0.319166 -0.842288 0.434378 
2808.24 -1435.27 2328.77 0.319166 -0.842288 0.434378 
2689.83 -1439.92 2406.27 0.319166 -0.842288 0.434378 
3144.12 -1375.78 2198.07 0.319166 -0.842288 0.434378 
2806.4 -1300.51 2589.73 0.319166 -0.842288 0.434378 
2834.08 -1334.62 2503.81 0.319166 -0.842288 0.434378 
3005.09 -1401.19 2250.66 0.319166 -0.842288 0.434378 
2700.15 -1754.52 1792.66 0.319166 -0.842288 0.434378 
3027.88 -1424.31 2189.48 0.319166 -0.842288 0.434378 
2801.68 -1705.53 1812.88 0.319166 -0.842288 0.434378 
2800.08 -1536.91 2138.91 0.319166 -0.842288 0.434378 
3124.05 -1297.82 2362.93 0.319166 -0.842288 0.434378 
2891.74 -1289.97 2547.7 0.319166 -0.842288 0.434378 
2819.99 -1365.34 2454.91 0.319166 -0.842288 0.434378 
2717.34 -1424.05 2416.76 0.319166 -0.842288 0.434378 
2683.23 -1588.34 2125.17 0.319166 -0.842288 0.434378 
3029.34 -1355.21 2321.54 0.319166 -0.842288 0.434378 
2665 -1674.4 1972.67 0.319166 -0.842288 0.434378 
2763.64 -1669.34 1910.4 0.319166 -0.842288 0.434378 
2565.61 -1278.7 2807.59 0.319166 -0.842288 0.434378 
2951.14 -1385.65 2319.98 0.319166 -0.842288 0.434378 
3063.45 -1328.71 2347.68 0.319166 -0.842288 0.434378 
2610.5 -1305.12 2723.92 0.319166 -0.842288 0.434378 
2708.19 -1407.31 2455.7 0.319166 -0.842288 0.434378 
2701.46 -1454.7 2369.31 0.319166 -0.842288 0.434378 
2859.63 -1577.9 2016.45 0.319166 -0.842288 0.434378 
2643.2 -1273.82 2760.33 0.319166 -0.842288 0.434378 
2615.03 -1527.54 2292.09 0.319166 -0.842288 0.434378 
2566.75 -1374.75 2621.71 0.319166 -0.842288 0.434378 
2737.43 -1709.63 1851.91 0.319166 -0.842288 0.434378 
2592.74 -1445.25 2466.9 0.319166 -0.842288 0.434378 
2647.26 -1567.13 2192.29 0.319166 -0.842288 0.434378 
2864.72 -1550 2066.48 0.319166 -0.842288 0.434378 
2637.66 -1260.94 2789.2 0.319166 -0.842288 0.434378 
3230.06 -1314.76 2252.88 0.319166 -0.842288 0.434378 
2698.95 -1798.86 1708.09 0.319166 -0.842288 0.434378 
2633.05 -1481.59 2367.47 0.319166 -0.842288 0.434378 
2747.85 -1594.88 2065.36 0.319166 -0.842288 0.434378 
2657.36 -1369.34 2565.97 0.319166 -0.842288 0.434378 
2676.65 -1678.64 1956.01 0.319166 -0.842288 0.434378 
2728.76 -1752.42 1775.79 0.319166 -0.842288 0.434378 
2623.03 -1256.32 2808.78 0.319166 -0.842288 0.434378 
2794.86 -1373.32 2457.89 0.319166 -0.842288 0.434378 
3018.01 -1349.89 2340.05 0.319166 -0.842288 0.434378 
2951.41 -1557.96 1987.83 0.319166 -0.842288 0.434378 
2795.14 -1328.74 2543.56 0.319166 -0.842288 0.434378 
2881.62 -1519.11 2113.66 0.319166 -0.842288 0.434378 
2750.62 -1748.33 1767.71 0.319166 -0.842288 0.434378 
2635.56 -1542.01 2249.22 0.319166 -0.842288 0.434378 
2653.41 -1264.19 2771.42 0.319166 -0.842288 0.434378 
2839.16 -1633.25 1924.76 0.319166 -0.842288 0.434378 
2902.48 -1585.74 1970.06 0.319166 -0.842288 0.434378 
2752.08 -1524.94 2197.03 0.319166 -0.842288 0.434378 
2857.95 -1511.35 2145.89 0.319166 -0.842288 0.434378 
2668.33 -1647.03 2022.97 0.319166 -0.842288 0.434378 
2689.26 -1331.1 2616.35 0.319166 -0.842288 0.434378 
2967.26 -1518.98 2051.36 0.319166 -0.842288 0.434378 
2971.34 -1456.3 2169.14 0.319166 -0.842288 0.434378 
2731.94 -1505.28 2249.61 0.319166 -0.842288 0.434378 
2886.47 -1544.85 2060.52 0.319166 -0.842288 0.434378 
