ply
format ascii 1.0
comment Created by CloudCompare v2.11.3 (Anoia)
comment Created 07/09/2022 23:13
obj_info Generated by CloudCompare!
element vertex 511
property float x
property float y
property float z
property float nx
property float ny
property float nz
end_header
-348.695 -365.692 -72 0.000977516 0.000977516 -0.999999 
-375.688 -581.222 -72 0.000977516 0.000977516 -0.999999 
-332.822 -136.421 -72 0.000977516 0.000977516 -0.999999 
-344.78 -185.545 -72 0.000977516 0.000977516 -0.999999 
-300.211 -557.055 -72 0.000977516 0.000977516 -0.999999 
-338.699 -465.4 -72 0.000977516 0.000977516 -0.999999 
-319.055 -486.334 -72 0.000977516 0.000977516 -0.999999 
-310.579 -443.827 -72 0.000977516 0.000977516 -0.999999 
-341.525 -305.622 -72 0.000977516 0.000977516 -0.999999 
-325.731 -262.702 -72 0.000977516 0.000977516 -0.999999 
-397.897 -548.214 -72 0.000977516 0.000977516 -0.999999 
-349.984 191.714 -72 0.000977516 0.000977516 -0.999999 
-399.752 293.973 -72 0.000977516 0.000977516 -0.999999 
-388.812 243.001 -72 0.000977516 0.000977516 -0.999999 
-381.555 122.071 -72 0.000977516 0.000977516 -0.999999 
-396.531 -470.448 -72 0.000977516 0.000977516 -0.999999 
-367.48 194.509 -72 0.000977516 0.000977516 -0.999999 
-322.819 425.15 -72 0.000977516 0.000977516 -0.999999 
-398.858 373.816 -72 0.000977516 0.000977516 -0.999999 
-393.328 -497.74 -72 0.000977516 0.000977516 -0.999999 
-400 -559.786 -32.9354 -0.999999 0.000977516 0.000977516 
-400 -42.8889 4.41101 -0.999999 0.000977516 0.000977516 
-400 61.1276 -13.728 -0.999999 0.000977516 0.000977516 
-400 464.906 -24.5864 -0.999999 0.000977516 0.000977516 
-400 408.448 -53.2187 -0.999999 0.000977516 0.000977516 
-400 262.146 -63.386 -0.999999 0.000977516 0.000977516 
-400 -74.1516 -54.138 -0.999999 0.000977516 0.000977516 
-400 569.806 64.213 -0.999999 0.000977516 0.000977516 
-400 557.057 10.7447 -0.999999 0.000977516 0.000977516 
-400 309.457 71.4807 -0.999999 0.000977516 0.000977516 
-400 381.491 71.2253 -0.999999 0.000977516 0.000977516 
-400 -400.428 55.0871 -0.999999 0.000977516 0.000977516 
306.987 600 -41.0064 0.000977516 0.999999 0.000977516 
398.795 600 -34.4112 0.000977516 0.999999 0.000977516 
304.121 600 67.2386 0.000977516 0.999999 0.000977516 
180.784 600 52.835 0.000977516 0.999999 0.000977516 
79.7936 600 37.9894 0.000977516 0.999999 0.000977516 
65.0088 600 -36.9727 0.000977516 0.999999 0.000977516 
-49.6743 600 27.1317 0.000977516 0.999999 0.000977516 
11.7314 600 49.0084 0.000977516 0.999999 0.000977516 
-153.773 600 70.3495 0.000977516 0.999999 0.000977516 
-314.798 600 -13.2691 0.000977516 0.999999 0.000977516 
-370.022 600 9.64474 0.000977516 0.999999 0.000977516 
-229.487 600 28.1377 0.000977516 0.999999 0.000977516 
-300 467.159 -2.69048 0.999999 0.000977516 0.000977516 
-300 575.553 -23.3854 0.999999 0.000977516 0.000977516 
-300 -12.6566 1.85717 0.999999 0.000977516 0.000977516 
-300 65.0066 -3.59753 0.999999 0.000977516 0.000977516 
-300 -535.923 10.5546 0.999999 0.000977516 0.000977516 
-300 -554.617 -53.445 0.999999 0.000977516 0.000977516 
-300 -164.848 -66.826 0.999999 0.000977516 0.000977516 
-300 442.882 -65.8708 0.999999 0.000977516 0.000977516 
-300 -6.35938 -56.1184 0.999999 0.000977516 0.000977516 
-300 -397.012 -52.755 0.999999 0.000977516 0.000977516 
384.168 -600 -54.1531 0.000977516 -0.999999 0.000977516 
367.763 -600 67.5941 0.000977516 -0.999999 0.000977516 
115.707 -600 60.4139 0.000977516 -0.999999 0.000977516 
-18.7911 -600 -1.38578 0.000977516 -0.999999 0.000977516 
-20.1131 -600 -34.1047 0.000977516 -0.999999 0.000977516 
-310.641 -600 59.7086 0.000977516 -0.999999 0.000977516 
-330.274 -600 -56.3248 0.000977516 -0.999999 0.000977516 
-366.321 -600 -17.4379 0.000977516 -0.999999 0.000977516 
240.567 -600 36.5192 0.000977516 -0.999999 0.000977516 
-277.4 512.41 72 0.000977516 0.000977516 0.999999 
-382.935 -276.362 72 0.000977516 0.000977516 0.999999 
-310.225 569.198 72 0.000977516 0.000977516 0.999999 
-396.934 -291.388 72 0.000977516 0.000977516 0.999999 
-352.271 130.099 72 0.000977516 0.000977516 0.999999 
-340.468 56.0328 72 0.000977516 0.000977516 0.999999 
-397.468 -129.484 72 0.000977516 0.000977516 0.999999 
-323.212 269.937 72 0.000977516 0.000977516 0.999999 
-387.041 249.279 72 0.000977516 0.000977516 0.999999 
-349.907 531.995 72 0.000977516 0.000977516 0.999999 
-282.869 381.344 72 0.000977516 0.000977516 0.999999 
-399.081 -11.4933 72 0.000977516 0.000977516 0.999999 
-289.327 336.252 72 0.000977516 0.000977516 0.999999 
-392.156 -395.759 72 0.000977516 0.000977516 0.999999 
-280.271 301.411 72 0.000977516 0.000977516 0.999999 
-320.225 6.44488 72 0.000977516 0.000977516 0.999999 
-322.441 -265.31 72 0.000977516 0.000977516 0.999999 
-278.882 -82.1848 72 0.000977516 0.000977516 0.999999 
-323.861 -110.575 72 0.000977516 0.000977516 0.999999 
-279.394 -221.097 72 0.000977516 0.000977516 0.999999 
-287.864 5.79071 72 0.000977516 0.000977516 0.999999 
-273.45 -487.943 72 0.000977516 0.000977516 0.999999 
-286.017 -149.255 72 0.000977516 0.000977516 0.999999 
-350.585 -228.62 72 0.000977516 0.000977516 0.999999 
-334.517 -266.521 72 0.000977516 0.000977516 0.999999 
-260.426 423.624 72 0.000977516 0.000977516 0.999999 
-256.797 150.631 72 0.000977516 0.000977516 0.999999 
-327.981 -591.602 72 0.000977516 0.000977516 0.999999 
-369.945 -159.797 -50 0.000977516 0.000977516 0.999999 
-392.721 -419.129 -50 0.000977516 0.000977516 0.999999 
-368.327 -324.586 -50 0.000977516 0.000977516 0.999999 
-329.477 -303.759 -50 0.000977516 0.000977516 0.999999 
-359.896 -399.215 -50 0.000977516 0.000977516 0.999999 
-331.433 -287.551 -50 0.000977516 0.000977516 0.999999 
-311.661 -455 45.7745 0.000977516 0.999999 0.000977516 
-141.308 -455 49.1999 0.000977516 0.999999 0.000977516 
-200.339 -455 36.2746 0.000977516 0.999999 0.000977516 
251.066 -455 42.297 0.000977516 0.999999 0.000977516 
-370.865 -72.5 -12.4816 0.000977516 -0.999999 0.000977516 
-294.687 -159.151 50 0.000977516 0.000977516 -0.999999 
-341.047 -147.653 50 0.000977516 0.000977516 -0.999999 
-324.903 -207.25 50 0.000977516 0.000977516 -0.999999 
-375.792 -271.888 50 0.000977516 0.000977516 -0.999999 
-270.276 -88.013 50 0.000977516 0.000977516 -0.999999 
-324.525 -422.07 50 0.000977516 0.000977516 -0.999999 
-380.459 -448.189 50 0.000977516 0.000977516 -0.999999 
-340.87 -394.872 50 0.000977516 0.000977516 -0.999999 
-388.13 -447.301 50 0.000977516 0.000977516 -0.999999 
-355.59 -346.258 50 0.000977516 0.000977516 -0.999999 
-309.764 -72.5 43.8394 0.000977516 -0.999999 0.000977516 
244.223 -72.5 48.087 0.000977516 -0.999999 0.000977516 
-319.944 72.5 -24.3237 0.000977516 0.999999 0.000977516 
-327.824 72.5 6.72626 0.000977516 0.999999 0.000977516 
-397.899 171.151 -50 0.000977516 0.000977516 0.999999 
-361.861 384.068 -50 0.000977516 0.000977516 0.999999 
-392.423 433.889 -50 0.000977516 0.000977516 0.999999 
-374.758 88.4648 -50 0.000977516 0.000977516 0.999999 
-363.765 80.9905 -50 0.000977516 0.000977516 0.999999 
-301.104 247.151 -50 0.000977516 0.000977516 0.999999 
-312.117 455 38.1255 0.000977516 -0.999999 0.000977516 
140.362 455 42.3717 0.000977516 -0.999999 0.000977516 
212.915 455 30.7427 0.000977516 -0.999999 0.000977516 
-350.869 184.282 50 0.000977516 0.000977516 -0.999999 
-299.494 242.8 50 0.000977516 0.000977516 -0.999999 
-298.317 144.495 50 0.000977516 0.000977516 -0.999999 
-262.956 364.995 50 0.000977516 0.000977516 -0.999999 
-277.711 446.013 50 0.000977516 0.000977516 -0.999999 
-391.017 330.155 50 0.000977516 0.000977516 -0.999999 
-399.461 207.36 50 0.000977516 0.000977516 -0.999999 
-327.659 447.693 50 0.000977516 0.000977516 -0.999999 
-377.018 276.921 50 0.000977516 0.000977516 -0.999999 
-334.285 72.5 28.9181 0.000977516 0.999999 0.000977516 
264.636 72.5 39.388 0.000977516 0.999999 0.000977516 
-252.5 55.6186 70.805 0.999999 0.000977516 0.000977516 
-252.5 208.215 68.6962 0.999999 0.000977516 0.000977516 
-252.5 -195.973 61.0185 0.999999 0.000977516 0.000977516 
-217.458 556.846 50 0.000977516 0.000977516 0.999999 
-212.5 -538.378 60.7257 -0.999999 0.000977516 0.000977516 
-212.5 -386.458 69.1049 -0.999999 0.000977516 0.000977516 
-212.5 -280.529 69.6864 -0.999999 0.000977516 0.000977516 
-212.5 -99.2578 50.8834 -0.999999 0.000977516 0.000977516 
-179.642 211.982 72 0.000977516 0.000977516 0.999999 
-150.8 176.539 72 0.000977516 0.000977516 0.999999 
-208.171 -0.96698 72 0.000977516 0.000977516 0.999999 
-155.616 320.602 72 0.000977516 0.000977516 0.999999 
-138.959 468.621 72 0.000977516 0.000977516 0.999999 
-147.183 479.741 72 0.000977516 0.000977516 0.999999 
-199.504 314.629 72 0.000977516 0.000977516 0.999999 
-181.254 550.419 72 0.000977516 0.000977516 0.999999 
-198.266 -168.723 72 0.000977516 0.000977516 0.999999 
-155.194 140.719 72 0.000977516 0.000977516 0.999999 
-163.624 -204.807 72 0.000977516 0.000977516 0.999999 
-136.212 -245.639 72 0.000977516 0.000977516 0.999999 
-162.569 -493.614 72 0.000977516 0.000977516 0.999999 
-118.705 -564.35 72 0.000977516 0.000977516 0.999999 
-205.886 -537.926 72 0.000977516 0.000977516 0.999999 
-146.65 -25.7478 72 0.000977516 0.000977516 0.999999 
-142.265 -205.879 72 0.000977516 0.000977516 0.999999 
-118.039 312.635 72 0.000977516 0.000977516 0.999999 
-169.704 -198.118 72 0.000977516 0.000977516 0.999999 
-146.34 -311.439 72 0.000977516 0.000977516 0.999999 
-112.5 -438.072 69.42 0.999999 0.000977516 0.000977516 
-112.5 291.296 59.883 0.999999 0.000977516 0.000977516 
-112.5 -412.297 58.7636 0.999999 0.000977516 0.000977516 
-72.5 -453.963 60.7771 -0.999999 0.000977516 0.000977516 
-72.5 -464.651 58.2988 -0.999999 0.000977516 0.000977516 
-72.5 106.256 58.9356 -0.999999 0.000977516 0.000977516 
-72.5 246.684 50.1687 -0.999999 0.000977516 0.000977516 
-4.84403 567.059 72 0.000977516 0.000977516 0.999999 
-11.4069 573.855 72 0.000977516 0.000977516 0.999999 
-59.5182 -36.8655 72 0.000977516 0.000977516 0.999999 
-66.3053 501.928 72 0.000977516 0.000977516 0.999999 
-50.4839 126.845 72 0.000977516 0.000977516 0.999999 
14.6137 561.689 72 0.000977516 0.000977516 0.999999 
-26.6298 180.35 72 0.000977516 0.000977516 0.999999 
-21.3016 351.037 72 0.000977516 0.000977516 0.999999 
-26.0931 79.5518 72 0.000977516 0.000977516 0.999999 
-51.9279 318.707 72 0.000977516 0.000977516 0.999999 
9.92081 446.071 72 0.000977516 0.000977516 0.999999 
-21.3302 -59.5425 72 0.000977516 0.000977516 0.999999 
-14.9063 310.506 72 0.000977516 0.000977516 0.999999 
-26.8741 176.522 72 0.000977516 0.000977516 0.999999 
68.805 18.462 72 0.000977516 0.000977516 0.999999 
-24.8226 -388.813 72 0.000977516 0.000977516 0.999999 
37.1367 -536.099 72 0.000977516 0.000977516 0.999999 
66.226 391.611 72 0.000977516 0.000977516 0.999999 
53.0206 316.433 72 0.000977516 0.000977516 0.999999 
69.0704 -584.549 72 0.000977516 0.000977516 0.999999 
68.9583 555.025 72 0.000977516 0.000977516 0.999999 
-62.5552 -550.573 72 0.000977516 0.000977516 0.999999 
-40.4361 -399.913 72 0.000977516 0.000977516 0.999999 
26.8278 -261.829 72 0.000977516 0.000977516 0.999999 
19.5737 45.673 72 0.000977516 0.000977516 0.999999 
-34.9977 -376.927 72 0.000977516 0.000977516 0.999999 
-52.836 -449.669 72 0.000977516 0.000977516 0.999999 
-54.3033 -467.254 72 0.000977516 0.000977516 0.999999 
72.5 570.825 54.0627 0.999999 0.000977516 0.000977516 
72.5 -426.676 57.0311 0.999999 0.000977516 0.000977516 
72.5 351.751 68.7041 0.999999 0.000977516 0.000977516 
72.5 306.361 64.6547 0.999999 0.000977516 0.000977516 
72.5 291.286 57.6295 0.999999 0.000977516 0.000977516 
98.6017 478.725 50 0.000977516 0.000977516 0.999999 
112.5 37.3221 67.7054 -0.999999 0.000977516 0.000977516 
112.5 499.572 67.3002 -0.999999 0.000977516 0.000977516 
112.5 -434.866 53.4753 -0.999999 0.000977516 0.000977516 
122.478 -427.828 72 0.000977516 0.000977516 0.999999 
148.564 295.353 72 0.000977516 0.000977516 0.999999 
167.657 67.7219 72 0.000977516 0.000977516 0.999999 
182.172 467.984 72 0.000977516 0.000977516 0.999999 
114.043 -170.074 72 0.000977516 0.000977516 0.999999 
134.111 305.727 72 0.000977516 0.000977516 0.999999 
172.859 148.296 72 0.000977516 0.000977516 0.999999 
134.783 367.685 72 0.000977516 0.000977516 0.999999 
163.413 290.972 72 0.000977516 0.000977516 0.999999 
127.166 79.3649 72 0.000977516 0.000977516 0.999999 
199.207 -523.94 72 0.000977516 0.000977516 0.999999 
173.342 -532.863 72 0.000977516 0.000977516 0.999999 
203.123 307.196 72 0.000977516 0.000977516 0.999999 
199.961 63.5129 72 0.000977516 0.000977516 0.999999 
160.025 -523.906 72 0.000977516 0.000977516 0.999999 
144.16 -239.1 72 0.000977516 0.000977516 0.999999 
194.036 -509.195 72 0.000977516 0.000977516 0.999999 
156.985 -547.747 72 0.000977516 0.000977516 0.999999 
155.292 -534.397 72 0.000977516 0.000977516 0.999999 
212.5 -114.948 70.7654 0.999999 0.000977516 0.000977516 
212.5 146.968 66.2213 0.999999 0.000977516 0.000977516 
212.5 -100.98 57.2231 0.999999 0.000977516 0.000977516 
212.5 215.174 58.466 0.999999 0.000977516 0.000977516 
212.5 461.707 59.764 0.999999 0.000977516 0.000977516 
237.82 519.079 50 0.000977516 0.000977516 0.999999 
252.5 -149.621 63.5131 -0.999999 0.000977516 0.000977516 
252.5 187.351 60.4838 -0.999999 0.000977516 0.000977516 
252.5 -36.3644 59.4273 -0.999999 0.000977516 0.000977516 
252.5 -434.593 50.4659 -0.999999 0.000977516 0.000977516 
341.079 175.123 72 0.000977516 0.000977516 0.999999 
279.859 90.3255 72 0.000977516 0.000977516 0.999999 
275.818 -403.37 72 0.000977516 0.000977516 0.999999 
281.386 -302.025 72 0.000977516 0.000977516 0.999999 
271.774 -67.6835 72 0.000977516 0.000977516 0.999999 
329.818 92.9987 72 0.000977516 0.000977516 0.999999 
326.7 416.74 72 0.000977516 0.000977516 0.999999 
312.481 49.1845 72 0.000977516 0.000977516 0.999999 
310.094 484.846 72 0.000977516 0.000977516 0.999999 
324.006 358.698 72 0.000977516 0.000977516 0.999999 
320.633 588.376 72 0.000977516 0.000977516 0.999999 
323.001 329.296 72 0.000977516 0.000977516 0.999999 
339.154 249.509 72 0.000977516 0.000977516 0.999999 
267.55 196.915 72 0.000977516 0.000977516 0.999999 
364.512 35.2681 72 0.000977516 0.000977516 0.999999 
331.208 -372.408 72 0.000977516 0.000977516 0.999999 
378.36 -23.0822 72 0.000977516 0.000977516 0.999999 
336.853 -279.603 72 0.000977516 0.000977516 0.999999 
297.022 -291.712 72 0.000977516 0.000977516 0.999999 
366.535 -326.425 72 0.000977516 0.000977516 0.999999 
338.328 -280.808 72 0.000977516 0.000977516 0.999999 
305.85 -235.649 72 0.000977516 0.000977516 0.999999 
359.877 11.0806 72 0.000977516 0.000977516 0.999999 
318.719 -493.646 72 0.000977516 0.000977516 0.999999 
348.294 -481.66 72 0.000977516 0.000977516 0.999999 
329.807 -327.535 72 0.000977516 0.000977516 0.999999 
350.076 -336.382 72 0.000977516 0.000977516 0.999999 
327.796 -542.407 72 0.000977516 0.000977516 0.999999 
400 -579.935 -46.5229 0.999999 0.000977516 0.000977516 
400 -581.759 38.2578 0.999999 0.000977516 0.000977516 
400 -491.009 -52.0449 0.999999 0.000977516 0.000977516 
400 -458.971 39.2657 0.999999 0.000977516 0.000977516 
400 -237.293 -53.7533 0.999999 0.000977516 0.000977516 
400 -2.39201 -42.2284 0.999999 0.000977516 0.000977516 
400 45.1487 -31.9211 0.999999 0.000977516 0.000977516 
400 28.0609 28.1123 0.999999 0.000977516 0.000977516 
400 525.993 -45.099 0.999999 0.000977516 0.000977516 
400 502.572 -59.4126 0.999999 0.000977516 0.000977516 
400 53.0617 -57.0768 0.999999 0.000977516 0.000977516 
400 -245.406 -65.3124 0.999999 0.000977516 0.000977516 
400 517.593 49.7798 0.999999 0.000977516 0.000977516 
400 515.363 -12.5628 0.999999 0.000977516 0.000977516 
400 553.682 54.9962 0.999999 0.000977516 0.000977516 
400 294.323 60.5504 0.999999 0.000977516 0.000977516 
400 418.726 60.2093 0.999999 0.000977516 0.000977516 
400 -356.57 66.6116 0.999999 0.000977516 0.000977516 
400 -412.306 54.201 0.999999 0.000977516 0.000977516 
376.347 -355.166 -72 0.000977516 0.000977516 -0.999999 
375.892 -168.031 -72 0.000977516 0.000977516 -0.999999 
390.504 -451.787 -72 0.000977516 0.000977516 -0.999999 
383.873 -413.094 -72 0.000977516 0.000977516 -0.999999 
374.908 -426.407 -72 0.000977516 0.000977516 -0.999999 
380.871 -236.676 -72 0.000977516 0.000977516 -0.999999 
362.048 -205.172 -72 0.000977516 0.000977516 -0.999999 
364.809 -407.438 -72 0.000977516 0.000977516 -0.999999 
364.43 -72.1372 -72 0.000977516 0.000977516 -0.999999 
351.326 -474.06 -72 0.000977516 0.000977516 -0.999999 
383.08 463.257 -72 0.000977516 0.000977516 -0.999999 
324.113 -50.0835 -72 0.000977516 0.000977516 -0.999999 
325.516 14.4581 -72 0.000977516 0.000977516 -0.999999 
354.886 441.632 -72 0.000977516 0.000977516 -0.999999 
300.37 -254.506 -72 0.000977516 0.000977516 -0.999999 
343.895 5.1189 -72 0.000977516 0.000977516 -0.999999 
327.161 -244.666 -72 0.000977516 0.000977516 -0.999999 
331.655 413.011 -72 0.000977516 0.000977516 -0.999999 
359.313 407.154 -72 0.000977516 0.000977516 -0.999999 
302.03 171.498 -72 0.000977516 0.000977516 -0.999999 
300 566.917 10.5663 -0.999999 0.000977516 0.000977516 
300 597.753 3.14502 -0.999999 0.000977516 0.000977516 
300 2.81392 9.27241 -0.999999 0.000977516 0.000977516 
300 16.8526 -43.9761 -0.999999 0.000977516 0.000977516 
300 -463.916 -10.133 -0.999999 0.000977516 0.000977516 
300 -589.844 3.34604 -0.999999 0.000977516 0.000977516 
300 -595.873 -43.5279 -0.999999 0.000977516 0.000977516 
300 -178.938 -69.7911 -0.999999 0.000977516 0.000977516 
300 405.631 -56.9849 -0.999999 0.000977516 0.000977516 
300 -35.2801 -62.3551 -0.999999 0.000977516 0.000977516 
300 -359.503 -66.9383 -0.999999 0.000977516 0.000977516 
300 -131.249 -53.6783 -0.999999 0.000977516 0.000977516 
300 -480.186 -66.1811 -0.999999 0.000977516 0.000977516 
233.448 569.167 28 0.000977516 0.000977516 -0.999999 
228.14 572.687 28 0.000977516 0.000977516 -0.999999 
270.827 513.095 28 0.000977516 0.000977516 -0.999999 
136.434 486.364 28 0.000977516 0.000977516 -0.999999 
198.928 474.351 28 0.000977516 0.000977516 -0.999999 
72.5 572.579 -30.0926 0.999999 0.000977516 0.000977516 
72.5 487.73 -5.14459 0.999999 0.000977516 0.000977516 
72.5 70.6974 -45.4296 0.999999 0.000977516 0.000977516 
72.5 -35.38 -21.4297 0.999999 0.000977516 0.000977516 
72.5 -516.82 10.9252 0.999999 0.000977516 0.000977516 
72.5 -580.923 -45.4502 0.999999 0.000977516 0.000977516 
72.5 357.361 -64.0767 0.999999 0.000977516 0.000977516 
72.5 -384.988 -68.6298 0.999999 0.000977516 0.000977516 
72.5 116.78 -51.5574 0.999999 0.000977516 0.000977516 
72.5 -370.298 -52.9677 0.999999 0.000977516 0.000977516 
52.8467 -363.457 -72 0.000977516 0.000977516 -0.999999 
-35.5948 -503.211 -72 0.000977516 0.000977516 -0.999999 
-38.2603 -411.06 -72 0.000977516 0.000977516 -0.999999 
29.3198 -395.709 -72 0.000977516 0.000977516 -0.999999 
-27.4484 -381.173 -72 0.000977516 0.000977516 -0.999999 
-34.3099 -327.861 -72 0.000977516 0.000977516 -0.999999 
7.85762 -415.606 -72 0.000977516 0.000977516 -0.999999 
-4.43411 -72.2319 -72 0.000977516 0.000977516 -0.999999 
70.1974 -485.952 -72 0.000977516 0.000977516 -0.999999 
58.6793 140.969 -72 0.000977516 0.000977516 -0.999999 
26.6145 -292.473 -72 0.000977516 0.000977516 -0.999999 
17.6098 -597.267 -72 0.000977516 0.000977516 -0.999999 
-6.79348 -502.621 -72 0.000977516 0.000977516 -0.999999 
-38.1998 192.928 -72 0.000977516 0.000977516 -0.999999 
-21.0241 -19.9076 -72 0.000977516 0.000977516 -0.999999 
-68.6938 461.238 -72 0.000977516 0.000977516 -0.999999 
50.3959 516.685 -72 0.000977516 0.000977516 -0.999999 
-62.4014 73.351 -72 0.000977516 0.000977516 -0.999999 
-17.8916 -59.0878 -72 0.000977516 0.000977516 -0.999999 
-32.2826 483.361 -72 0.000977516 0.000977516 -0.999999 
-17.3547 97.9796 -72 0.000977516 0.000977516 -0.999999 
-60.7198 507.087 -72 0.000977516 0.000977516 -0.999999 
-30.9368 560.989 -72 0.000977516 0.000977516 -0.999999 
-8.69054 -9.5697 -72 0.000977516 0.000977516 -0.999999 
-62.3814 -275.098 -72 0.000977516 0.000977516 -0.999999 
-68.7058 463.408 -72 0.000977516 0.000977516 -0.999999 
19.9855 296.087 -72 0.000977516 0.000977516 -0.999999 
-72.5 572.709 0.862305 -0.999999 0.000977516 0.000977516 
-72.5 492.954 8.78215 -0.999999 0.000977516 0.000977516 
-72.5 -24.2675 -35.7059 -0.999999 0.000977516 0.000977516 
-72.5 -50.3287 -1.44683 -0.999999 0.000977516 0.000977516 
-72.5 -540.976 0.79015 -0.999999 0.000977516 0.000977516 
-72.5 -558.361 -1.31904 -0.999999 0.000977516 0.000977516 
-72.5 -557.695 -53.3408 -0.999999 0.000977516 0.000977516 
-72.5 -184.937 -70.3285 -0.999999 0.000977516 0.000977516 
-72.5 353.584 -69.8649 -0.999999 0.000977516 0.000977516 
-72.5 -45.1542 -58.6767 -0.999999 0.000977516 0.000977516 
-72.5 -475.314 -60.1971 -0.999999 0.000977516 0.000977516 
-85.0303 543.974 28 0.000977516 0.000977516 -0.999999 
-123.833 559.3 28 0.000977516 0.000977516 -0.999999 
-150.911 506.365 28 0.000977516 0.000977516 -0.999999 
-292.405 476.119 28 0.000977516 0.000977516 -0.999999 
-234.634 552.236 28 0.000977516 0.000977516 -0.999999 
-147.233 -32.9402 28 0.000977516 0.000977516 -0.999999 
-113.068 -67.8729 28 0.000977516 0.000977516 -0.999999 
-102.183 34.7328 28 0.000977516 0.000977516 -0.999999 
-224.9 -2.90517 28 0.000977516 0.000977516 -0.999999 
-158.774 32.5254 28 0.000977516 0.000977516 -0.999999 
-240.184 27.7003 28 0.000977516 0.000977516 -0.999999 
-100.262 -516.687 28 0.000977516 0.000977516 -0.999999 
-108.712 -512.432 28 0.000977516 0.000977516 -0.999999 
-167.116 -479.106 28 0.000977516 0.000977516 -0.999999 
-289.027 -532.546 28 0.000977516 0.000977516 -0.999999 
-246.363 -500.609 28 0.000977516 0.000977516 -0.999999 
103.431 -476.261 28 0.000977516 0.000977516 -0.999999 
198.173 -505.917 28 0.000977516 0.000977516 -0.999999 
245.844 -465.135 28 0.000977516 0.000977516 -0.999999 
277.359 -547.216 28 0.000977516 0.000977516 -0.999999 
277.648 -589.879 28 0.000977516 0.000977516 -0.999999 
253.358 -502.71 28 0.000977516 0.000977516 -0.999999 
222.23 -562.249 50 0.000977516 0.000977516 0.999999 
73.7639 -498.065 50 0.000977516 0.000977516 0.999999 
-95.191 -564.661 50 0.000977516 0.000977516 0.999999 
-239.226 -503.432 50 0.000977516 0.000977516 0.999999 
325.357 -455 -23.512 0.000977516 0.999999 0.000977516 
-35.7871 -455 -13.1205 0.000977516 0.999999 0.000977516 
11.0111 -455 7.92549 0.000977516 0.999999 0.000977516 
-203.073 -247.937 50 0.000977516 0.000977516 -0.999999 
-198.894 -380.506 50 0.000977516 0.000977516 -0.999999 
-190.835 -225.54 50 0.000977516 0.000977516 -0.999999 
-185.477 -358.936 50 0.000977516 0.000977516 -0.999999 
-141.151 -352.543 50 0.000977516 0.000977516 -0.999999 
-136.685 -396.692 50 0.000977516 0.000977516 -0.999999 
-59.678 -272.849 50 0.000977516 0.000977516 -0.999999 
-24.969 -309.949 50 0.000977516 0.000977516 -0.999999 
-42.4627 -314.806 50 0.000977516 0.000977516 -0.999999 
-19.3505 -286.186 50 0.000977516 0.000977516 -0.999999 
-18.8337 -144.403 50 0.000977516 0.000977516 -0.999999 
70.2155 -213.271 50 0.000977516 0.000977516 -0.999999 
-20.8282 -320.011 50 0.000977516 0.000977516 -0.999999 
71.1057 -323.319 50 0.000977516 0.000977516 -0.999999 
33.8937 -259.708 50 0.000977516 0.000977516 -0.999999 
31.9545 -387.842 50 0.000977516 0.000977516 -0.999999 
126.618 -299.177 50 0.000977516 0.000977516 -0.999999 
119.77 -180.006 50 0.000977516 0.000977516 -0.999999 
187.539 -133.348 50 0.000977516 0.000977516 -0.999999 
181.119 -278.708 50 0.000977516 0.000977516 -0.999999 
158.495 -400.066 50 0.000977516 0.000977516 -0.999999 
159.337 -440.98 50 0.000977516 0.000977516 -0.999999 
270.02 -149.504 50 0.000977516 0.000977516 -0.999999 
293.754 -271.246 50 0.000977516 0.000977516 -0.999999 
274.275 -287.084 50 0.000977516 0.000977516 -0.999999 
282.566 -328.653 50 0.000977516 0.000977516 -0.999999 
287.213 -336.483 50 0.000977516 0.000977516 -0.999999 
394.711 -449.428 50 0.000977516 0.000977516 -0.999999 
318.857 -376.717 50 0.000977516 0.000977516 -0.999999 
275.278 -422.012 50 0.000977516 0.000977516 -0.999999 
385.06 -324.895 50 0.000977516 0.000977516 -0.999999 
390.671 -72.5 -16.8643 0.000977516 -0.999999 0.000977516 
222.19 57.1549 50 0.000977516 0.000977516 0.999999 
85.1832 -8.0858 50 0.000977516 0.000977516 0.999999 
-78.8024 36.5965 50 0.000977516 0.000977516 0.999999 
-222.042 24.3541 50 0.000977516 0.000977516 0.999999 
-222.699 59.526 50 0.000977516 0.000977516 0.999999 
39.4787 -72.5 22.5617 0.000977516 -0.999999 0.000977516 
-63.2084 -72.5 -16.4228 0.000977516 -0.999999 0.000977516 
91.4584 -14.4748 28 0.000977516 0.000977516 -0.999999 
79.387 -61.6884 28 0.000977516 0.000977516 -0.999999 
105.951 -31.6116 28 0.000977516 0.000977516 -0.999999 
186.851 -46.9681 28 0.000977516 0.000977516 -0.999999 
273.638 45.8556 28 0.000977516 0.000977516 -0.999999 
200.228 6.07477 28 0.000977516 0.000977516 -0.999999 
304.772 455 -4.09496 0.000977516 -0.999999 0.000977516 
363.768 455 -30.4771 0.000977516 -0.999999 0.000977516 
46.4728 455 -13.1903 0.000977516 -0.999999 0.000977516 
-138.842 228.244 50 0.000977516 0.000977516 -0.999999 
-126.711 321.562 50 0.000977516 0.000977516 -0.999999 
-114.021 211.893 50 0.000977516 0.000977516 -0.999999 
-140.189 425.036 50 0.000977516 0.000977516 -0.999999 
-189.271 401.473 50 0.000977516 0.000977516 -0.999999 
-183.02 338.804 50 0.000977516 0.000977516 -0.999999 
-12.0387 181.119 50 0.000977516 0.000977516 -0.999999 
-13.107 128.389 50 0.000977516 0.000977516 -0.999999 
57.4717 252.211 50 0.000977516 0.000977516 -0.999999 
-10.6763 112.84 50 0.000977516 0.000977516 -0.999999 
9.67679 210.382 50 0.000977516 0.000977516 -0.999999 
8.9034 288.148 50 0.000977516 0.000977516 -0.999999 
-22.8865 240.942 50 0.000977516 0.000977516 -0.999999 
-24.6304 204.281 50 0.000977516 0.000977516 -0.999999 
-49.2305 435.173 50 0.000977516 0.000977516 -0.999999 
61.9769 431.95 50 0.000977516 0.000977516 -0.999999 
200.1 329.041 50 0.000977516 0.000977516 -0.999999 
184.1 74.0638 50 0.000977516 0.000977516 -0.999999 
211.272 268.754 50 0.000977516 0.000977516 -0.999999 
122.562 171.49 50 0.000977516 0.000977516 -0.999999 
143.54 233.654 50 0.000977516 0.000977516 -0.999999 
163.057 329.051 50 0.000977516 0.000977516 -0.999999 
309.393 213.986 50 0.000977516 0.000977516 -0.999999 
344.331 272.702 50 0.000977516 0.000977516 -0.999999 
384.534 243.934 50 0.000977516 0.000977516 -0.999999 
339.35 105.64 50 0.000977516 0.000977516 -0.999999 
299.939 412.693 50 0.000977516 0.000977516 -0.999999 
300.123 451.96 50 0.000977516 0.000977516 -0.999999 
287.43 257.301 50 0.000977516 0.000977516 -0.999999 
263.912 263.177 50 0.000977516 0.000977516 -0.999999 
262.133 255.365 50 0.000977516 0.000977516 -0.999999 
371.404 72.5 -29.5804 0.000977516 0.999999 0.000977516 
-49.6778 72.5 -22.9711 0.000977516 0.999999 0.000977516 
-24.4269 72.5 8.77581 0.000977516 0.999999 0.000977516 
340.231 427.063 -50 0.000977516 0.000977516 0.999999 
307.762 442.07 -50 0.000977516 0.000977516 0.999999 
344.081 321.826 -50 0.000977516 0.000977516 0.999999 
361.018 202.613 -50 0.000977516 0.000977516 0.999999 
312.903 91.3415 -50 0.000977516 0.000977516 0.999999 
318.598 261.774 -50 0.000977516 0.000977516 0.999999 
384.62 -355.546 -50 0.000977516 0.000977516 0.999999 
338.53 -147.13 -50 0.000977516 0.000977516 0.999999 
379.629 -185.203 -50 0.000977516 0.000977516 0.999999 
325.539 -319.189 -50 0.000977516 0.000977516 0.999999 
349.586 -281.662 -50 0.000977516 0.000977516 0.999999 
330.007 -387.691 -50 0.000977516 0.000977516 0.999999 
31.6188 -83.0397 -50 0.000977516 0.000977516 0.999999 
52.4208 -136.5 -50 0.000977516 0.000977516 0.999999 
69.5513 -419.235 -50 0.000977516 0.000977516 0.999999 
9.1738 -243.126 -50 0.000977516 0.000977516 0.999999 
-54.2258 -126.412 -50 0.000977516 0.000977516 0.999999 
55.2315 -417.964 -50 0.000977516 0.000977516 0.999999 
-52.6759 -178.649 -50 0.000977516 0.000977516 0.999999 
-66.2056 -402.986 -50 0.000977516 0.000977516 0.999999 
-66.0045 -218.989 -50 0.000977516 0.000977516 0.999999 
-51.5414 402.098 -50 0.000977516 0.000977516 0.999999 
31.7703 189.675 -50 0.000977516 0.000977516 0.999999 
67.6657 276.374 -50 0.000977516 0.000977516 0.999999 
4.84778 298.546 -50 0.000977516 0.000977516 0.999999 
26.2832 334.163 -50 0.000977516 0.000977516 0.999999 
-43.9047 365.818 -50 0.000977516 0.000977516 0.999999 
-71.4564 118.132 -50 0.000977516 0.000977516 0.999999 
-35.058 226.11 -50 0.000977516 0.000977516 0.999999 
-33.5569 296.07 -50 0.000977516 0.000977516 0.999999 
