ply
format ascii 1.0
comment Created by CloudCompare v2.11.3 (Anoia)
comment Created 07/09/2022 23:10
obj_info Generated by CloudCompare!
element vertex 855
property float x
property float y
property float z
property float nx
property float ny
property float nz
end_header
-346.551 -203.429 -50 0.000977516 0.000977516 0.999999 
-399.629 -389.894 -50 0.000977516 0.000977516 0.999999 
-338.719 -164.922 -50 0.000977516 0.000977516 0.999999 
-373.758 -82.6554 -50 0.000977516 0.000977516 0.999999 
-393.838 -214.621 -50 0.000977516 0.000977516 0.999999 
-381.902 -385.432 -50 0.000977516 0.000977516 0.999999 
-391.773 -251.385 -50 0.000977516 0.000977516 0.999999 
-348.729 -168.762 -50 0.000977516 0.000977516 0.999999 
-396.76 -82.0163 -50 0.000977516 0.000977516 0.999999 
-379.251 -218.695 -50 0.000977516 0.000977516 0.999999 
-379.355 -300.441 -50 0.000977516 0.000977516 0.999999 
-366.352 -239.29 -50 0.000977516 0.000977516 0.999999 
-386.811 -251.372 -50 0.000977516 0.000977516 0.999999 
-345.201 -182.591 -50 0.000977516 0.000977516 0.999999 
-382.158 -168.979 -50 0.000977516 0.000977516 0.999999 
-353.338 -105.013 -50 0.000977516 0.000977516 0.999999 
-370.491 -287.443 -50 0.000977516 0.000977516 0.999999 
-372.45 -194.818 -50 0.000977516 0.000977516 0.999999 
-328.074 -118.361 -50 0.000977516 0.000977516 0.999999 
-332.696 -118.533 -50 0.000977516 0.000977516 0.999999 
-364.633 -252.498 -50 0.000977516 0.000977516 0.999999 
-388.047 -368.207 -50 0.000977516 0.000977516 0.999999 
-371.636 -331.619 -50 0.000977516 0.000977516 0.999999 
-356.31 -226.173 -50 0.000977516 0.000977516 0.999999 
-335.16 -120.484 -50 0.000977516 0.000977516 0.999999 
-393.924 -171.241 -50 0.000977516 0.000977516 0.999999 
-392.13 -113.131 -50 0.000977516 0.000977516 0.999999 
-394.168 -409.386 -50 0.000977516 0.000977516 0.999999 
-351.414 -171.824 -50 0.000977516 0.000977516 0.999999 
-349.652 -256.288 -50 0.000977516 0.000977516 0.999999 
-354.273 -248.641 -50 0.000977516 0.000977516 0.999999 
-339.676 -142.762 -50 0.000977516 0.000977516 0.999999 
-386.795 -235.326 -50 0.000977516 0.000977516 0.999999 
-365.372 -160.697 -50 0.000977516 0.000977516 0.999999 
-393.365 -323.172 -50 0.000977516 0.000977516 0.999999 
-380.775 -99.2941 -50 0.000977516 0.000977516 0.999999 
-390.459 -163.412 -50 0.000977516 0.000977516 0.999999 
-352.595 -235.504 -50 0.000977516 0.000977516 0.999999 
-372.327 -129.066 -50 0.000977516 0.000977516 0.999999 
-391.362 -399.632 -50 0.000977516 0.000977516 0.999999 
-366.783 -314.56 -50 0.000977516 0.000977516 0.999999 
-387.042 -214.309 -50 0.000977516 0.000977516 0.999999 
-375.64 -316.609 -50 0.000977516 0.000977516 0.999999 
-370.048 -320.567 -50 0.000977516 0.000977516 0.999999 
-389.393 -116.481 -50 0.000977516 0.000977516 0.999999 
-342.991 -182.318 -50 0.000977516 0.000977516 0.999999 
-387.43 -325.475 -50 0.000977516 0.000977516 0.999999 
-376.048 -119.613 -50 0.000977516 0.000977516 0.999999 
-380.112 -315.091 -50 0.000977516 0.000977516 0.999999 
-346.832 -149.3 -50 0.000977516 0.000977516 0.999999 
-326.645 -119.892 -50 0.000977516 0.000977516 0.999999 
-396.394 -283.604 -50 0.000977516 0.000977516 0.999999 
-391.295 -210.755 -50 0.000977516 0.000977516 0.999999 
-336.495 -149.13 -50 0.000977516 0.000977516 0.999999 
-386.359 -156.14 -50 0.000977516 0.000977516 0.999999 
-350.551 -239.298 -50 0.000977516 0.000977516 0.999999 
-395.285 -164.053 -50 0.000977516 0.000977516 0.999999 
-319.29 -89.9119 -50 0.000977516 0.000977516 0.999999 
-385.045 -268.662 -50 0.000977516 0.000977516 0.999999 
-381.171 -129.052 -50 0.000977516 0.000977516 0.999999 
-344.762 -148.067 -50 0.000977516 0.000977516 0.999999 
-377.195 -314.893 -50 0.000977516 0.000977516 0.999999 
-365.324 -92.1322 -50 0.000977516 0.000977516 0.999999 
-327.532 -140.823 -50 0.000977516 0.000977516 0.999999 
-316.183 -105.996 -50 0.000977516 0.000977516 0.999999 
-340.461 -90.7252 -50 0.000977516 0.000977516 0.999999 
-349.671 -201.177 -50 0.000977516 0.000977516 0.999999 
-362.914 -258.729 -50 0.000977516 0.000977516 0.999999 
-398.855 -442.511 -50 0.000977516 0.000977516 0.999999 
-391.057 -417.118 -50 0.000977516 0.000977516 0.999999 
-381.909 -106.607 -50 0.000977516 0.000977516 0.999999 
-385.618 -346.487 -50 0.000977516 0.000977516 0.999999 
-359.107 -209.353 -50 0.000977516 0.000977516 0.999999 
-343.175 -198.846 -50 0.000977516 0.000977516 0.999999 
-367.756 -180.288 -50 0.000977516 0.000977516 0.999999 
-371.53 -96.2838 -50 0.000977516 0.000977516 0.999999 
-391.412 -303.011 -50 0.000977516 0.000977516 0.999999 
-360.909 -304.035 -50 0.000977516 0.000977516 0.999999 
-364.894 -100.568 -50 0.000977516 0.000977516 0.999999 
-373.789 -243.902 -50 0.000977516 0.000977516 0.999999 
-315.597 -111.944 -50 0.000977516 0.000977516 0.999999 
-399.348 -108.561 -50 0.000977516 0.000977516 0.999999 
-338.993 -202.014 -50 0.000977516 0.000977516 0.999999 
-380.71 -81.7779 -50 0.000977516 0.000977516 0.999999 
-364.216 -262.341 -50 0.000977516 0.000977516 0.999999 
-377.251 -300.123 -50 0.000977516 0.000977516 0.999999 
-366.912 -123.961 -50 0.000977516 0.000977516 0.999999 
-366.294 -306.273 -50 0.000977516 0.000977516 0.999999 
-332.155 -158.214 -50 0.000977516 0.000977516 0.999999 
-387.434 -130.194 -50 0.000977516 0.000977516 0.999999 
-371.431 -337.825 -50 0.000977516 0.000977516 0.999999 
-325.96 -75.6383 -50 0.000977516 0.000977516 0.999999 
-398.301 -73.4345 -50 0.000977516 0.000977516 0.999999 
-373.5 -154.345 -50 0.000977516 0.000977516 0.999999 
-389.508 -210.526 -50 0.000977516 0.000977516 0.999999 
-355.605 -189.333 -50 0.000977516 0.000977516 0.999999 
-362.254 -141.903 -50 0.000977516 0.000977516 0.999999 
-331.665 -186.329 -50 0.000977516 0.000977516 0.999999 
-353.949 -249.42 -50 0.000977516 0.000977516 0.999999 
-373.63 -237.211 -50 0.000977516 0.000977516 0.999999 
-384.508 -101.616 -50 0.000977516 0.000977516 0.999999 
-355.876 -160.965 -50 0.000977516 0.000977516 0.999999 
-345.639 -206.462 -50 0.000977516 0.000977516 0.999999 
-360.925 -199.386 -50 0.000977516 0.000977516 0.999999 
-323.938 -135.253 -50 0.000977516 0.000977516 0.999999 
-380.685 -153.099 -50 0.000977516 0.000977516 0.999999 
-353.81 -123.272 -50 0.000977516 0.000977516 0.999999 
-399.636 -207.944 -50 0.000977516 0.000977516 0.999999 
-357.826 -73.0054 -50 0.000977516 0.000977516 0.999999 
-367.018 -202.432 -50 0.000977516 0.000977516 0.999999 
-317.841 -112.68 -50 0.000977516 0.000977516 0.999999 
-389.62 -185.187 -50 0.000977516 0.000977516 0.999999 
-390.255 -277.136 -50 0.000977516 0.000977516 0.999999 
-391.359 -271.831 -50 0.000977516 0.000977516 0.999999 
-339.214 -94.5078 -50 0.000977516 0.000977516 0.999999 
-372.802 -246.444 -50 0.000977516 0.000977516 0.999999 
-385.362 -172.287 -50 0.000977516 0.000977516 0.999999 
-353.438 -258.968 -50 0.000977516 0.000977516 0.999999 
-376.186 -353.012 -50 0.000977516 0.000977516 0.999999 
-381.532 -302.698 -50 0.000977516 0.000977516 0.999999 
-390.32 -196.08 -50 0.000977516 0.000977516 0.999999 
-356.83 -201.214 -50 0.000977516 0.000977516 0.999999 
-394.198 -408.727 -50 0.000977516 0.000977516 0.999999 
-374.532 -193.947 -50 0.000977516 0.000977516 0.999999 
-373.247 -101.485 -50 0.000977516 0.000977516 0.999999 
-352.333 -251.666 -50 0.000977516 0.000977516 0.999999 
-356.343 -115.366 -50 0.000977516 0.000977516 0.999999 
-324.482 -103.074 -50 0.000977516 0.000977516 0.999999 
-332.155 -128.612 -50 0.000977516 0.000977516 0.999999 
-330.094 -139.364 -50 0.000977516 0.000977516 0.999999 
-355.477 -234.948 -50 0.000977516 0.000977516 0.999999 
-335.317 -91.1709 -50 0.000977516 0.000977516 0.999999 
-387.873 -79.7463 -50 0.000977516 0.000977516 0.999999 
-386.495 -378.71 -50 0.000977516 0.000977516 0.999999 
-399.001 -351.409 -50 0.000977516 0.000977516 0.999999 
-367.662 -98.7332 -50 0.000977516 0.000977516 0.999999 
-333.801 -160.247 -50 0.000977516 0.000977516 0.999999 
-371.597 -256.091 -50 0.000977516 0.000977516 0.999999 
-341.033 -160.985 -50 0.000977516 0.000977516 0.999999 
-384.361 -111.186 -50 0.000977516 0.000977516 0.999999 
-395.683 -261.816 -50 0.000977516 0.000977516 0.999999 
-337.75 -150.032 -50 0.000977516 0.000977516 0.999999 
-344.482 -105.628 -50 0.000977516 0.000977516 0.999999 
-376.318 -178.574 -50 0.000977516 0.000977516 0.999999 
-370.47 -184.193 -50 0.000977516 0.000977516 0.999999 
-390.07 -343.64 -50 0.000977516 0.000977516 0.999999 
-353.388 -245.355 -50 0.000977516 0.000977516 0.999999 
-355.213 -222.823 -50 0.000977516 0.000977516 0.999999 
-395.504 -199.146 -50 0.000977516 0.000977516 0.999999 
-379.923 -307.189 -50 0.000977516 0.000977516 0.999999 
-364.519 -144.296 -50 0.000977516 0.000977516 0.999999 
-357.523 -274.332 -50 0.000977516 0.000977516 0.999999 
-378.926 -77.975 -50 0.000977516 0.000977516 0.999999 
-376.092 -149.427 -50 0.000977516 0.000977516 0.999999 
-351.225 -92.0192 -50 0.000977516 0.000977516 0.999999 
-393.387 -365.419 -50 0.000977516 0.000977516 0.999999 
-381.748 -112.632 -50 0.000977516 0.000977516 0.999999 
-387.365 -396.893 -50 0.000977516 0.000977516 0.999999 
-391.71 -372.026 -50 0.000977516 0.000977516 0.999999 
-325.825 -137.42 -50 0.000977516 0.000977516 0.999999 
-376.942 -235.389 -50 0.000977516 0.000977516 0.999999 
-340.624 -199.954 -50 0.000977516 0.000977516 0.999999 
-385.178 -397.028 -50 0.000977516 0.000977516 0.999999 
-387.107 -368.054 -50 0.000977516 0.000977516 0.999999 
-393.981 -312.301 -50 0.000977516 0.000977516 0.999999 
-358.07 -102.677 -50 0.000977516 0.000977516 0.999999 
-399.495 -131.008 -50 0.000977516 0.000977516 0.999999 
-384.537 -103.946 -50 0.000977516 0.000977516 0.999999 
-396.27 -397.615 -50 0.000977516 0.000977516 0.999999 
-383.238 -145.863 -50 0.000977516 0.000977516 0.999999 
-398.344 -128.076 -50 0.000977516 0.000977516 0.999999 
-314.456 -91.2126 -50 0.000977516 0.000977516 0.999999 
-355.326 -100.871 -50 0.000977516 0.000977516 0.999999 
-341.229 -129.812 -50 0.000977516 0.000977516 0.999999 
-347.581 -199.215 -50 0.000977516 0.000977516 0.999999 
-326.493 -79.2089 -50 0.000977516 0.000977516 0.999999 
-394.592 -379.762 -50 0.000977516 0.000977516 0.999999 
-386.757 -304.371 -50 0.000977516 0.000977516 0.999999 
-354.108 -245.267 -50 0.000977516 0.000977516 0.999999 
-361.291 -156.658 -50 0.000977516 0.000977516 0.999999 
-389.446 -101.029 -50 0.000977516 0.000977516 0.999999 
-360.323 -245.349 -50 0.000977516 0.000977516 0.999999 
-355.94 -103.351 -50 0.000977516 0.000977516 0.999999 
-316.26 -93.8244 -50 0.000977516 0.000977516 0.999999 
-367.937 -240.361 -50 0.000977516 0.000977516 0.999999 
-364.609 -293.842 -50 0.000977516 0.000977516 0.999999 
-357.823 -88.7858 -50 0.000977516 0.000977516 0.999999 
-319.575 -123.634 -50 0.000977516 0.000977516 0.999999 
-398.583 -404.416 -50 0.000977516 0.000977516 0.999999 
-360.897 -193.251 -50 0.000977516 0.000977516 0.999999 
-333.481 -85.6573 -50 0.000977516 0.000977516 0.999999 
-347.208 -95.904 -50 0.000977516 0.000977516 0.999999 
-339.222 -118.957 -50 0.000977516 0.000977516 0.999999 
-347.768 -172 -50 0.000977516 0.000977516 0.999999 
-375.744 -172.455 -50 0.000977516 0.000977516 0.999999 
-399.294 -169.506 -50 0.000977516 0.000977516 0.999999 
-378.053 -135.156 -50 0.000977516 0.000977516 0.999999 
-381.756 -102.522 -50 0.000977516 0.000977516 0.999999 
-383.597 -104.639 -50 0.000977516 0.000977516 0.999999 
-324.881 -86.7149 -50 0.000977516 0.000977516 0.999999 
-384.292 -124.785 -50 0.000977516 0.000977516 0.999999 
-334.174 -152.363 -50 0.000977516 0.000977516 0.999999 
-342.196 -94.2215 -50 0.000977516 0.000977516 0.999999 
-374.336 -163.696 -50 0.000977516 0.000977516 0.999999 
-356.593 -269.617 -50 0.000977516 0.000977516 0.999999 
-375.419 -241.05 -50 0.000977516 0.000977516 0.999999 
-364.059 -85.4854 -50 0.000977516 0.000977516 0.999999 
-398.727 -150.801 -50 0.000977516 0.000977516 0.999999 
-355.126 -241.476 -50 0.000977516 0.000977516 0.999999 
-379.339 -173.514 -50 0.000977516 0.000977516 0.999999 
-336.192 -137.39 -50 0.000977516 0.000977516 0.999999 
-396.38 -326.139 -50 0.000977516 0.000977516 0.999999 
-381.975 -137.558 -50 0.000977516 0.000977516 0.999999 
-365.479 -305.405 -50 0.000977516 0.000977516 0.999999 
-378.468 -266.659 -50 0.000977516 0.000977516 0.999999 
-384.638 -96.4993 -50 0.000977516 0.000977516 0.999999 
-398.266 -204.113 -50 0.000977516 0.000977516 0.999999 
-393.527 -98.7465 -50 0.000977516 0.000977516 0.999999 
-356.842 -153.212 -50 0.000977516 0.000977516 0.999999 
-376.408 -238.688 -50 0.000977516 0.000977516 0.999999 
-329.802 -141.47 -50 0.000977516 0.000977516 0.999999 
-345.774 -191.779 -50 0.000977516 0.000977516 0.999999 
-370.989 -263.774 -50 0.000977516 0.000977516 0.999999 
-341.586 -193.639 -50 0.000977516 0.000977516 0.999999 
-369.521 -289.595 -50 0.000977516 0.000977516 0.999999 
-387.098 -232.028 -50 0.000977516 0.000977516 0.999999 
-387.1 -287.24 -50 0.000977516 0.000977516 0.999999 
-371.862 -187.805 -50 0.000977516 0.000977516 0.999999 
-385.023 -123.218 -50 0.000977516 0.000977516 0.999999 
-305.223 -315.308 -50 0.000977516 0.000977516 0.999999 
-354.873 -302.326 -50 0.000977516 0.000977516 0.999999 
-336.329 -361.678 -50 0.000977516 0.000977516 0.999999 
-313.831 -229.552 -50 0.000977516 0.000977516 0.999999 
-311.509 -277.728 -50 0.000977516 0.000977516 0.999999 
-381.236 -424.19 -50 0.000977516 0.000977516 0.999999 
-384.479 -406.601 -50 0.000977516 0.000977516 0.999999 
-329.812 -280.312 -50 0.000977516 0.000977516 0.999999 
-315.397 -172.759 -50 0.000977516 0.000977516 0.999999 
-372.464 -410.986 -50 0.000977516 0.000977516 0.999999 
-300.672 -236.543 -50 0.000977516 0.000977516 0.999999 
-379.293 -438.112 -50 0.000977516 0.000977516 0.999999 
-326.249 -368.954 -50 0.000977516 0.000977516 0.999999 
-314.079 -208.543 -50 0.000977516 0.000977516 0.999999 
-327.941 -421.521 -50 0.000977516 0.000977516 0.999999 
-316.056 -299.336 -50 0.000977516 0.000977516 0.999999 
-342.341 -325.289 -50 0.000977516 0.000977516 0.999999 
-323.94 -327.703 -50 0.000977516 0.000977516 0.999999 
-323.437 -374.497 -50 0.000977516 0.000977516 0.999999 
-309.159 -201.868 -50 0.000977516 0.000977516 0.999999 
-341.319 -389.231 -50 0.000977516 0.000977516 0.999999 
-311.475 -410.829 -50 0.000977516 0.000977516 0.999999 
-351.545 -329.32 -50 0.000977516 0.000977516 0.999999 
-344.553 -250.344 -50 0.000977516 0.000977516 0.999999 
-319.735 -183.641 -50 0.000977516 0.000977516 0.999999 
-379.055 -406.203 -50 0.000977516 0.000977516 0.999999 
-304.59 -250.022 -50 0.000977516 0.000977516 0.999999 
-347.917 -291.665 -50 0.000977516 0.000977516 0.999999 
-308.467 -185.357 -50 0.000977516 0.000977516 0.999999 
-307.792 -258.659 -50 0.000977516 0.000977516 0.999999 
-337.876 -427.47 -50 0.000977516 0.000977516 0.999999 
-358.204 -376.079 -50 0.000977516 0.000977516 0.999999 
-308.287 -294.559 -50 0.000977516 0.000977516 0.999999 
-381.086 -396.706 -50 0.000977516 0.000977516 0.999999 
-368.763 -396.582 -50 0.000977516 0.000977516 0.999999 
-344.91 -414.362 -50 0.000977516 0.000977516 0.999999 
-301.403 -408.725 -50 0.000977516 0.000977516 0.999999 
-345.566 -295.135 -50 0.000977516 0.000977516 0.999999 
-306.743 -297.894 -50 0.000977516 0.000977516 0.999999 
-309.019 -175.909 -50 0.000977516 0.000977516 0.999999 
-385.632 -418.23 -50 0.000977516 0.000977516 0.999999 
-355.684 -444.268 -50 0.000977516 0.000977516 0.999999 
-369.579 -352.474 -50 0.000977516 0.000977516 0.999999 
-318.83 -369.809 -50 0.000977516 0.000977516 0.999999 
-363.009 -400.503 -50 0.000977516 0.000977516 0.999999 
-309.238 -232.934 -50 0.000977516 0.000977516 0.999999 
-347.719 -387.293 -50 0.000977516 0.000977516 0.999999 
-351.119 -343.151 -50 0.000977516 0.000977516 0.999999 
-346.679 -261.626 -50 0.000977516 0.000977516 0.999999 
-300.426 -75.5346 -50 0.000977516 0.000977516 0.999999 
-388.949 -444.748 -50 0.000977516 0.000977516 0.999999 
-346.88 -278.697 -50 0.000977516 0.000977516 0.999999 
-317.081 -150.522 -50 0.000977516 0.000977516 0.999999 
-351.559 -421.574 -50 0.000977516 0.000977516 0.999999 
-328.376 -382.876 -50 0.000977516 0.000977516 0.999999 
-312.352 -401.625 -50 0.000977516 0.000977516 0.999999 
-322.258 -363.907 -50 0.000977516 0.000977516 0.999999 
-383.648 -448.673 -50 0.000977516 0.000977516 0.999999 
-327.903 -410.173 -50 0.000977516 0.000977516 0.999999 
-307.526 -452.126 -50 0.000977516 0.000977516 0.999999 
-306.648 -338.013 -50 0.000977516 0.000977516 0.999999 
-311.69 -264.091 -50 0.000977516 0.000977516 0.999999 
-351.381 -355.898 -50 0.000977516 0.000977516 0.999999 
-333.211 -217.444 -50 0.000977516 0.000977516 0.999999 
-311.406 -188.751 -50 0.000977516 0.000977516 0.999999 
-373.328 -376.786 -50 0.000977516 0.000977516 0.999999 
-331.404 -244.443 -50 0.000977516 0.000977516 0.999999 
-355.213 -373.215 -50 0.000977516 0.000977516 0.999999 
-320.065 -379.985 -50 0.000977516 0.000977516 0.999999 
-303.635 -164.875 -50 0.000977516 0.000977516 0.999999 
-306.56 -147.067 -50 0.000977516 0.000977516 0.999999 
-342.064 -392.97 -50 0.000977516 0.000977516 0.999999 
-316.401 -345.328 -50 0.000977516 0.000977516 0.999999 
-314.567 -227.693 -50 0.000977516 0.000977516 0.999999 
-319.314 -227.5 -50 0.000977516 0.000977516 0.999999 
-327.079 -188.401 -50 0.000977516 0.000977516 0.999999 
-337.519 -299.409 -50 0.000977516 0.000977516 0.999999 
-336.387 -391.157 -50 0.000977516 0.000977516 0.999999 
-306.564 -320.093 -50 0.000977516 0.000977516 0.999999 
-311.761 -340.623 -50 0.000977516 0.000977516 0.999999 
-348.818 -330.014 -50 0.000977516 0.000977516 0.999999 
-321.343 -168.494 -50 0.000977516 0.000977516 0.999999 
-305.137 -395.648 -50 0.000977516 0.000977516 0.999999 
-313.287 -204.31 -50 0.000977516 0.000977516 0.999999 
-367.089 -380.492 -50 0.000977516 0.000977516 0.999999 
-300.948 -123.549 -50 0.000977516 0.000977516 0.999999 
-351.907 -353.675 -50 0.000977516 0.000977516 0.999999 
-360.84 -448.049 -50 0.000977516 0.000977516 0.999999 
-334.147 -452.242 -50 0.000977516 0.000977516 0.999999 
-366.945 -428.382 -50 0.000977516 0.000977516 0.999999 
-314.848 -282.561 -50 0.000977516 0.000977516 0.999999 
-382.029 -389.743 -50 0.000977516 0.000977516 0.999999 
-333.109 -293.964 -50 0.000977516 0.000977516 0.999999 
-312.15 -372.359 -50 0.000977516 0.000977516 0.999999 
-305.492 -144.976 -50 0.000977516 0.000977516 0.999999 
-345.877 -396.77 -50 0.000977516 0.000977516 0.999999 
-316.794 -429.566 -50 0.000977516 0.000977516 0.999999 
-333.69 -374.656 -50 0.000977516 0.000977516 0.999999 
-326.914 -308.798 -50 0.000977516 0.000977516 0.999999 
-307.858 -203.416 -50 0.000977516 0.000977516 0.999999 
-324.828 -232.889 -50 0.000977516 0.000977516 0.999999 
-331.33 -276.485 -50 0.000977516 0.000977516 0.999999 
-386.65 -449.94 -50 0.000977516 0.000977516 0.999999 
-317.278 -227.953 -50 0.000977516 0.000977516 0.999999 
-350.71 -341.001 -50 0.000977516 0.000977516 0.999999 
-337.787 -380.125 -50 0.000977516 0.000977516 0.999999 
-308.979 -383.777 -50 0.000977516 0.000977516 0.999999 
-375.769 -443.748 -50 0.000977516 0.000977516 0.999999 
-321.936 -440.012 -50 0.000977516 0.000977516 0.999999 
-348.733 -315.492 -50 0.000977516 0.000977516 0.999999 
-347.612 -411.082 -50 0.000977516 0.000977516 0.999999 
-351.188 -450.955 -50 0.000977516 0.000977516 0.999999 
-329.565 -290.531 -50 0.000977516 0.000977516 0.999999 
-389.182 -427.799 -50 0.000977516 0.000977516 0.999999 
-307.62 -177.724 -50 0.000977516 0.000977516 0.999999 
-343.325 -378.371 -50 0.000977516 0.000977516 0.999999 
-314.106 -418.213 -50 0.000977516 0.000977516 0.999999 
-312.388 -272.289 -50 0.000977516 0.000977516 0.999999 
-338.245 -433.997 -50 0.000977516 0.000977516 0.999999 
-314.065 -289.707 -50 0.000977516 0.000977516 0.999999 
-360.439 -355.436 -50 0.000977516 0.000977516 0.999999 
-342.092 -298.423 -50 0.000977516 0.000977516 0.999999 
-344.726 -297.936 -50 0.000977516 0.000977516 0.999999 
-378.107 -452.579 -50 0.000977516 0.000977516 0.999999 
-323.269 -306.811 -50 0.000977516 0.000977516 0.999999 
-310.179 -445.6 -50 0.000977516 0.000977516 0.999999 
-306.33 -343.248 -50 0.000977516 0.000977516 0.999999 
-374.695 -377.811 -50 0.000977516 0.000977516 0.999999 
-333.721 -398.224 -50 0.000977516 0.000977516 0.999999 
-325.429 -442.753 -50 0.000977516 0.000977516 0.999999 
-339.762 -260.167 -50 0.000977516 0.000977516 0.999999 
-353.305 -450.174 -50 0.000977516 0.000977516 0.999999 
-312.402 -268.922 -50 0.000977516 0.000977516 0.999999 
-370.47 -364.215 -50 0.000977516 0.000977516 0.999999 
-370.725 -370.953 -50 0.000977516 0.000977516 0.999999 
-351.447 -338.324 -50 0.000977516 0.000977516 0.999999 
-314.704 -282.357 -50 0.000977516 0.000977516 0.999999 
-318.417 -423.395 -50 0.000977516 0.000977516 0.999999 
-336.295 -339.525 -50 0.000977516 0.000977516 0.999999 
-380.738 -436.473 -50 0.000977516 0.000977516 0.999999 
-337.934 -372.479 -50 0.000977516 0.000977516 0.999999 
-348.703 -309.8 -50 0.000977516 0.000977516 0.999999 
-302.963 -210.32 -50 0.000977516 0.000977516 0.999999 
-337.511 -238.897 -50 0.000977516 0.000977516 0.999999 
-329.242 -417.607 -50 0.000977516 0.000977516 0.999999 
-344.675 -372.082 -50 0.000977516 0.000977516 0.999999 
-317.916 -316.379 -50 0.000977516 0.000977516 0.999999 
-324.902 -259.485 -50 0.000977516 0.000977516 0.999999 
-303.168 -120.859 -50 0.000977516 0.000977516 0.999999 
-355.219 -450.2 -50 0.000977516 0.000977516 0.999999 
-326.75 -350.878 -50 0.000977516 0.000977516 0.999999 
-356.201 -436.158 -50 0.000977516 0.000977516 0.999999 
-351.633 -424.577 -50 0.000977516 0.000977516 0.999999 
-354.117 -393.073 -50 0.000977516 0.000977516 0.999999 
-334.186 -400.217 -50 0.000977516 0.000977516 0.999999 
-336.576 -422.722 -50 0.000977516 0.000977516 0.999999 
-328.319 -399.549 -50 0.000977516 0.000977516 0.999999 
-306.768 -140.267 -50 0.000977516 0.000977516 0.999999 
-370.058 -376.771 -50 0.000977516 0.000977516 0.999999 
-321.184 -236.091 -50 0.000977516 0.000977516 0.999999 
-337.836 -313.324 -50 0.000977516 0.000977516 0.999999 
-365.385 -446.654 -50 0.000977516 0.000977516 0.999999 
-353.915 -408.268 -50 0.000977516 0.000977516 0.999999 
-314.029 -425.485 -50 0.000977516 0.000977516 0.999999 
-334.691 -440.472 -50 0.000977516 0.000977516 0.999999 
-346.644 -359.606 -50 0.000977516 0.000977516 0.999999 
-300.306 -120.328 -50 0.000977516 0.000977516 0.999999 
-353.138 -413.083 -50 0.000977516 0.000977516 0.999999 
-354.158 -355.293 -50 0.000977516 0.000977516 0.999999 
-317.028 -323.921 -50 0.000977516 0.000977516 0.999999 
-364.807 -366.389 -50 0.000977516 0.000977516 0.999999 
-336.549 -297.219 -50 0.000977516 0.000977516 0.999999 
-326.836 -302.342 -50 0.000977516 0.000977516 0.999999 
-311.401 -400.381 -50 0.000977516 0.000977516 0.999999 
-339.827 -236.954 -50 0.000977516 0.000977516 0.999999 
-329.184 -315.411 -50 0.000977516 0.000977516 0.999999 
-323.079 -222.434 -50 0.000977516 0.000977516 0.999999 
-377.132 -440.618 -50 0.000977516 0.000977516 0.999999 
-325.565 -269.703 -50 0.000977516 0.000977516 0.999999 
-363.841 -402.512 -50 0.000977516 0.000977516 0.999999 
-300.98 -426.739 -50 0.000977516 0.000977516 0.999999 
-344.272 -253.426 -50 0.000977516 0.000977516 0.999999 
-367.213 -347.012 -50 0.000977516 0.000977516 0.999999 
-310.505 -421.871 -50 0.000977516 0.000977516 0.999999 
-313.279 -298.58 -50 0.000977516 0.000977516 0.999999 
-357.806 -393.51 -50 0.000977516 0.000977516 0.999999 
-303.234 -324.587 -50 0.000977516 0.000977516 0.999999 
-332.489 -294.891 -50 0.000977516 0.000977516 0.999999 
-312.235 -452.371 -50 0.000977516 0.000977516 0.999999 
-377.837 -403.284 -50 0.000977516 0.000977516 0.999999 
-314.774 -270.55 -50 0.000977516 0.000977516 0.999999 
-342.255 -408 -50 0.000977516 0.000977516 0.999999 
-371.984 -399.515 -50 0.000977516 0.000977516 0.999999 
-351.27 -326.993 -50 0.000977516 0.000977516 0.999999 
-307.15 -360.066 -50 0.000977516 0.000977516 0.999999 
-372.881 -374.88 -50 0.000977516 0.000977516 0.999999 
-311.926 -215.32 -50 0.000977516 0.000977516 0.999999 
-316.154 -228.024 -50 0.000977516 0.000977516 0.999999 
-328.777 -369.516 -50 0.000977516 0.000977516 0.999999 
-320.967 -430.388 -50 0.000977516 0.000977516 0.999999 
-304.523 -433.237 -50 0.000977516 0.000977516 0.999999 
-305.529 -167.062 -50 0.000977516 0.000977516 0.999999 
-328.731 -223.346 -50 0.000977516 0.000977516 0.999999 
-313.552 -275.64 -50 0.000977516 0.000977516 0.999999 
-377.182 -439.41 -50 0.000977516 0.000977516 0.999999 
-300.268 -408.495 -50 0.000977516 0.000977516 0.999999 
-338.699 -436.535 -50 0.000977516 0.000977516 0.999999 
-314.148 -356.114 -50 0.000977516 0.000977516 0.999999 
-307.472 -406.91 -50 0.000977516 0.000977516 0.999999 
-347.163 -397.949 -50 0.000977516 0.000977516 0.999999 
-364.897 -374.171 -50 0.000977516 0.000977516 0.999999 
-330.84 -281.055 -50 0.000977516 0.000977516 0.999999 
-316.49 -219.445 -50 0.000977516 0.000977516 0.999999 
-335.762 -372.526 -50 0.000977516 0.000977516 0.999999 
-318.659 -211.49 -50 0.000977516 0.000977516 0.999999 
-346.919 -447.053 -50 0.000977516 0.000977516 0.999999 
-367.153 -360.69 -50 0.000977516 0.000977516 0.999999 
-322.101 -431.652 -50 0.000977516 0.000977516 0.999999 
-333.352 -402.132 -50 0.000977516 0.000977516 0.999999 
-311.611 -453.566 -50 0.000977516 0.000977516 0.999999 
-371.442 -428.965 -50 0.000977516 0.000977516 0.999999 
-358.618 -391.404 -50 0.000977516 0.000977516 0.999999 
-377.354 -381.795 -50 0.000977516 0.000977516 0.999999 
-345.115 -304.982 -50 0.000977516 0.000977516 0.999999 
-369.437 -366.889 -50 0.000977516 0.000977516 0.999999 
-331.439 -280.14 -50 0.000977516 0.000977516 0.999999 
-374.961 -399.318 -50 0.000977516 0.000977516 0.999999 
-364.985 -388.417 -50 0.000977516 0.000977516 0.999999 
-383.242 -437.901 -50 0.000977516 0.000977516 0.999999 
-303.161 -420.611 -50 0.000977516 0.000977516 0.999999 
-313.952 -229.825 -50 0.000977516 0.000977516 0.999999 
-305.777 -412.71 -50 0.000977516 0.000977516 0.999999 
-342.764 -306.127 -50 0.000977516 0.000977516 0.999999 
-336.336 -402.796 -50 0.000977516 0.000977516 0.999999 
-301.012 -287.795 -50 0.000977516 0.000977516 0.999999 
-318.522 -243.154 -50 0.000977516 0.000977516 0.999999 
-376.689 -406.632 -50 0.000977516 0.000977516 0.999999 
-338.854 -394.764 -50 0.000977516 0.000977516 0.999999 
-306.844 -412.322 -50 0.000977516 0.000977516 0.999999 
-386.957 -454.152 -50 0.000977516 0.000977516 0.999999 
-316.855 -293.914 -50 0.000977516 0.000977516 0.999999 
-323.292 -252.868 -50 0.000977516 0.000977516 0.999999 
-305.278 -291.837 -50 0.000977516 0.000977516 0.999999 
-346.094 -286.809 -50 0.000977516 0.000977516 0.999999 
-308.815 -134.133 -50 0.000977516 0.000977516 0.999999 
-313.253 -209.254 -50 0.000977516 0.000977516 0.999999 
-357.404 -357.477 -50 0.000977516 0.000977516 0.999999 
-378.169 -441.394 -50 0.000977516 0.000977516 0.999999 
-379.229 -400.304 -50 0.000977516 0.000977516 0.999999 
-391.63 -451.844 -50 0.000977516 0.000977516 0.999999 
-306.796 -212.067 -50 0.000977516 0.000977516 0.999999 
-310.029 -451.548 -50 0.000977516 0.000977516 0.999999 
-322.107 -451.911 -50 0.000977516 0.000977516 0.999999 
-321.175 -249.339 -50 0.000977516 0.000977516 0.999999 
-365.375 -406.02 -50 0.000977516 0.000977516 0.999999 
-346.076 -426.449 -50 0.000977516 0.000977516 0.999999 
-308.626 -439.075 -50 0.000977516 0.000977516 0.999999 
-325.983 -446.385 -50 0.000977516 0.000977516 0.999999 
-389.898 -416.533 -50 0.000977516 0.000977516 0.999999 
-325.397 -332.007 -50 0.000977516 0.000977516 0.999999 
-333.372 -392.493 -50 0.000977516 0.000977516 0.999999 
-367.541 -383.564 -50 0.000977516 0.000977516 0.999999 
-311.37 -418.446 -50 0.000977516 0.000977516 0.999999 
-323.777 -389.845 -50 0.000977516 0.000977516 0.999999 
-331.8 -368.229 -50 0.000977516 0.000977516 0.999999 
-355.695 -293.225 -50 0.000977516 0.000977516 0.999999 
-321.276 -419.469 -50 0.000977516 0.000977516 0.999999 
-306.5 -205.52 -50 0.000977516 0.000977516 0.999999 
-335.911 -275.747 -50 0.000977516 0.000977516 0.999999 
-324.092 -400.606 -50 0.000977516 0.000977516 0.999999 
-307.352 -326.848 -50 0.000977516 0.000977516 0.999999 
-327.124 -238.717 -50 0.000977516 0.000977516 0.999999 
-355.586 -314.442 -50 0.000977516 0.000977516 0.999999 
-311.993 -259.948 -50 0.000977516 0.000977516 0.999999 
-340.165 -249.611 -50 0.000977516 0.000977516 0.999999 
-309.128 -146.067 -50 0.000977516 0.000977516 0.999999 
-375.205 -361.159 -50 0.000977516 0.000977516 0.999999 
-317.839 -203.445 -50 0.000977516 0.000977516 0.999999 
-301.257 -202.389 -50 0.000977516 0.000977516 0.999999 
-383.834 -454.939 -50 0.000977516 0.000977516 0.999999 
-353.008 -300.598 -50 0.000977516 0.000977516 0.999999 
-343.876 -315.584 -50 0.000977516 0.000977516 0.999999 
-332.109 -280.035 -50 0.000977516 0.000977516 0.999999 
-302.875 -393.486 -50 0.000977516 0.000977516 0.999999 
-320.907 -386.758 -50 0.000977516 0.000977516 0.999999 
-385.478 -423.562 -50 0.000977516 0.000977516 0.999999 
-303.166 -449.779 -50 0.000977516 0.000977516 0.999999 
-332.903 -225.917 -50 0.000977516 0.000977516 0.999999 
-362.838 -351.539 -50 0.000977516 0.000977516 0.999999 
-318.546 -436.174 -50 0.000977516 0.000977516 0.999999 
-331.326 -356.566 -50 0.000977516 0.000977516 0.999999 
-301.68 -269.383 -50 0.000977516 0.000977516 0.999999 
-301.808 -284.799 -50 0.000977516 0.000977516 0.999999 
-302.044 -356.345 -50 0.000977516 0.000977516 0.999999 
-349.175 -421.208 -50 0.000977516 0.000977516 0.999999 
-337.612 -319.541 -50 0.000977516 0.000977516 0.999999 
-304.184 -244.471 -50 0.000977516 0.000977516 0.999999 
-310.635 -292.458 -50 0.000977516 0.000977516 0.999999 
-336.377 -440.915 -50 0.000977516 0.000977516 0.999999 
-313.412 -231.163 -50 0.000977516 0.000977516 0.999999 
-337.293 -316.824 -50 0.000977516 0.000977516 0.999999 
-322.009 -343.191 -50 0.000977516 0.000977516 0.999999 
-344.807 -313.103 -50 0.000977516 0.000977516 0.999999 
-355.432 -455 38.6115 0.000977516 0.999999 0.000977516 
-399.327 -455 31.5544 0.000977516 0.999999 0.000977516 
-331.241 -455 33.338 0.000977516 0.999999 0.000977516 
-363.681 -455 29.0864 0.000977516 0.999999 0.000977516 
-395.108 -455 45.0586 0.000977516 0.999999 0.000977516 
-391.738 -455 30.048 0.000977516 0.999999 0.000977516 
-334.703 -455 31.8066 0.000977516 0.999999 0.000977516 
-388.454 -455 41.4805 0.000977516 0.999999 0.000977516 
-382.137 -455 41.4212 0.000977516 0.999999 0.000977516 
-340.483 -455 35.1845 0.000977516 0.999999 0.000977516 
-357.255 -455 38.0904 0.000977516 0.999999 0.000977516 
-382.16 -455 35.1998 0.000977516 0.999999 0.000977516 
-398.562 -455 46.6225 0.000977516 0.999999 0.000977516 
-390.357 -455 28.7292 0.000977516 0.999999 0.000977516 
-394.733 -455 28.8684 0.000977516 0.999999 0.000977516 
-359.547 -455 40.591 0.000977516 0.999999 0.000977516 
-396.569 -455 36.0455 0.000977516 0.999999 0.000977516 
-331.814 -455 28.5439 0.000977516 0.999999 0.000977516 
-362.905 -455 49.2848 0.000977516 0.999999 0.000977516 
-276.649 -455 47.9669 0.000977516 0.999999 0.000977516 
-297.238 -455 41.1711 0.000977516 0.999999 0.000977516 
-389.43 -455 48.5364 0.000977516 0.999999 0.000977516 
-337.675 -455 38.6246 0.000977516 0.999999 0.000977516 
-325.464 -455 41.8386 0.000977516 0.999999 0.000977516 
-346.113 -455 44.4361 0.000977516 0.999999 0.000977516 
-324.944 -455 41.7003 0.000977516 0.999999 0.000977516 
-300.655 -455 44.7681 0.000977516 0.999999 0.000977516 
-356.308 -455 40.6896 0.000977516 0.999999 0.000977516 
-264.664 -455 47.2976 0.000977516 0.999999 0.000977516 
-305.83 -455 37.4045 0.000977516 0.999999 0.000977516 
-296.896 -455 33.4655 0.000977516 0.999999 0.000977516 
-323.962 -455 40.3516 0.000977516 0.999999 0.000977516 
-344.328 -455 42.5668 0.000977516 0.999999 0.000977516 
-293.177 -455 36.2568 0.000977516 0.999999 0.000977516 
-312.233 -455 31.4409 0.000977516 0.999999 0.000977516 
-286.175 -455 38.5101 0.000977516 0.999999 0.000977516 
-317.237 -455 34.8731 0.000977516 0.999999 0.000977516 
-269.764 -455 42.9398 0.000977516 0.999999 0.000977516 
-309.361 -455 33.9543 0.000977516 0.999999 0.000977516 
-332.811 -455 42.0729 0.000977516 0.999999 0.000977516 
-300.434 -455 30.6546 0.000977516 0.999999 0.000977516 
-338.898 -455 40.3733 0.000977516 0.999999 0.000977516 
-332.931 -455 35.9382 0.000977516 0.999999 0.000977516 
-372.215 -455 49.4535 0.000977516 0.999999 0.000977516 
-248.22 -455 43.1191 0.000977516 0.999999 0.000977516 
-276.1 -455 34.9246 0.000977516 0.999999 0.000977516 
-248.197 -455 45.9133 0.000977516 0.999999 0.000977516 
-249.207 -455 45.9051 0.000977516 0.999999 0.000977516 
-257.699 -455 43.3667 0.000977516 0.999999 0.000977516 
-247.622 -455 42.2649 0.000977516 0.999999 0.000977516 
-262.723 -455 41.9599 0.000977516 0.999999 0.000977516 
-76.668 -455 35.5924 0.000977516 0.999999 0.000977516 
-88.8424 -455 39.571 0.000977516 0.999999 0.000977516 
-83.8845 -455 44.2085 0.000977516 0.999999 0.000977516 
-103.455 -455 47.2557 0.000977516 0.999999 0.000977516 
-84.8333 -455 47.1955 0.000977516 0.999999 0.000977516 
-82.5595 -455 41.702 0.000977516 0.999999 0.000977516 
-79.753 -455 46.3824 0.000977516 0.999999 0.000977516 
-131.368 -455 39.7837 0.000977516 0.999999 0.000977516 
-120.659 -455 38.1955 0.000977516 0.999999 0.000977516 
-122.824 -455 46.4937 0.000977516 0.999999 0.000977516 
-169.708 -455 45.3446 0.000977516 0.999999 0.000977516 
-163.22 -455 43.6392 0.000977516 0.999999 0.000977516 
-115.311 -455 38.6739 0.000977516 0.999999 0.000977516 
-114.27 -455 41.3743 0.000977516 0.999999 0.000977516 
-115.846 -455 49.8809 0.000977516 0.999999 0.000977516 
-126.753 -455 40.1573 0.000977516 0.999999 0.000977516 
-89.8381 -455 37.303 0.000977516 0.999999 0.000977516 
-141.166 -455 41.8196 0.000977516 0.999999 0.000977516 
-81.5598 -455 29.4727 0.000977516 0.999999 0.000977516 
-150.762 -455 44.111 0.000977516 0.999999 0.000977516 
-118.976 -455 37.4199 0.000977516 0.999999 0.000977516 
-126.983 -455 39.8815 0.000977516 0.999999 0.000977516 
-126.364 -455 45.9126 0.000977516 0.999999 0.000977516 
-102.059 -455 35.9107 0.000977516 0.999999 0.000977516 
-149.893 -455 42.3708 0.000977516 0.999999 0.000977516 
-130.024 -455 32.8542 0.000977516 0.999999 0.000977516 
-148.125 -455 31.5818 0.000977516 0.999999 0.000977516 
-220.869 -455 28.4449 0.000977516 0.999999 0.000977516 
-186.19 -455 43.887 0.000977516 0.999999 0.000977516 
-198.401 -455 34.2905 0.000977516 0.999999 0.000977516 
-212.962 -455 31.827 0.000977516 0.999999 0.000977516 
-139.284 -455 36.6505 0.000977516 0.999999 0.000977516 
-229.436 -455 42.0204 0.000977516 0.999999 0.000977516 
-229.797 -455 28.6448 0.000977516 0.999999 0.000977516 
-189.993 -455 32.6619 0.000977516 0.999999 0.000977516 
-226.412 -455 44.4496 0.000977516 0.999999 0.000977516 
-285.43 -455 29.8592 0.000977516 0.999999 0.000977516 
-211.182 -455 38.6165 0.000977516 0.999999 0.000977516 
-179.081 -455 43.2067 0.000977516 0.999999 0.000977516 
-252.499 -455 34.9619 0.000977516 0.999999 0.000977516 
-179.607 -455 32.8606 0.000977516 0.999999 0.000977516 
-227.542 -455 36.7367 0.000977516 0.999999 0.000977516 
-117.615 -455 33.2493 0.000977516 0.999999 0.000977516 
-145.282 -455 33.8293 0.000977516 0.999999 0.000977516 
-269.306 -455 29.5208 0.000977516 0.999999 0.000977516 
-204.91 -455 35.256 0.000977516 0.999999 0.000977516 
-122.051 -455 33.7526 0.000977516 0.999999 0.000977516 
-186.739 -455 41.1754 0.000977516 0.999999 0.000977516 
-264.159 -455 32.289 0.000977516 0.999999 0.000977516 
-157.713 -455 41.0501 0.000977516 0.999999 0.000977516 
-157.465 -455 38.6685 0.000977516 0.999999 0.000977516 
-203.153 -455 43.8162 0.000977516 0.999999 0.000977516 
-118.998 -455 30.3663 0.000977516 0.999999 0.000977516 
-197.595 -455 29.8869 0.000977516 0.999999 0.000977516 
-227.191 -455 37.2302 0.000977516 0.999999 0.000977516 
-287.069 -455 28.1069 0.000977516 0.999999 0.000977516 
-209.427 -455 46.8942 0.000977516 0.999999 0.000977516 
-168.959 -455 42.4268 0.000977516 0.999999 0.000977516 
-252.901 -455 28.3738 0.000977516 0.999999 0.000977516 
-178.957 -455 41.0917 0.000977516 0.999999 0.000977516 
-165.966 -455 30.7891 0.000977516 0.999999 0.000977516 
-179.711 -455 28.6425 0.000977516 0.999999 0.000977516 
-213.395 -455 44.3464 0.000977516 0.999999 0.000977516 
-220.311 -455 46.7886 0.000977516 0.999999 0.000977516 
-127.801 -455 33.7823 0.000977516 0.999999 0.000977516 
-39.0448 -455 49.338 0.000977516 0.999999 0.000977516 
-34.2854 -455 46.0959 0.000977516 0.999999 0.000977516 
14.2586 -455 38.5501 0.000977516 0.999999 0.000977516 
68.6422 -455 46.6895 0.000977516 0.999999 0.000977516 
7.93642 -455 45.4608 0.000977516 0.999999 0.000977516 
31.2866 -455 47.6077 0.000977516 0.999999 0.000977516 
-6.87784 -455 40.6753 0.000977516 0.999999 0.000977516 
68.9788 -455 48.4718 0.000977516 0.999999 0.000977516 
14.1328 -455 41.4888 0.000977516 0.999999 0.000977516 
4.22482 -455 47.8824 0.000977516 0.999999 0.000977516 
27.156 -455 48.7637 0.000977516 0.999999 0.000977516 
32.762 -455 40.5537 0.000977516 0.999999 0.000977516 
35.2929 -455 34.8726 0.000977516 0.999999 0.000977516 
-20.1694 -455 46.867 0.000977516 0.999999 0.000977516 
48.5139 -455 43.1268 0.000977516 0.999999 0.000977516 
10.8505 -455 39.6022 0.000977516 0.999999 0.000977516 
70.9725 -455 29.9467 0.000977516 0.999999 0.000977516 
65.4589 -455 41.9789 0.000977516 0.999999 0.000977516 
40.3748 -455 49.0124 0.000977516 0.999999 0.000977516 
3.88762 -455 44.9051 0.000977516 0.999999 0.000977516 
4.5273 -455 40.5116 0.000977516 0.999999 0.000977516 
49.2787 -455 45.0086 0.000977516 0.999999 0.000977516 
58.0536 -455 33.7285 0.000977516 0.999999 0.000977516 
21.6661 -455 38.469 0.000977516 0.999999 0.000977516 
64.855 -455 36.6662 0.000977516 0.999999 0.000977516 
-22.1597 -455 31.3075 0.000977516 0.999999 0.000977516 
-19.7214 -455 39.9636 0.000977516 0.999999 0.000977516 
-23.2568 -455 39.7292 0.000977516 0.999999 0.000977516 
-57.9724 -455 28.4077 0.000977516 0.999999 0.000977516 
-14.3379 -455 29.9798 0.000977516 0.999999 0.000977516 
-9.78395 -455 36.4853 0.000977516 0.999999 0.000977516 
-52.9564 -455 40.9516 0.000977516 0.999999 0.000977516 
3.08662 -455 28.2886 0.000977516 0.999999 0.000977516 
-61.9084 -455 39.3235 0.000977516 0.999999 0.000977516 
-63.2506 -455 45.2396 0.000977516 0.999999 0.000977516 
-1.12916 -455 28.6971 0.000977516 0.999999 0.000977516 
-31.0018 -455 34.8773 0.000977516 0.999999 0.000977516 
-0.0785294 -455 34.1684 0.000977516 0.999999 0.000977516 
11.021 -455 28.2358 0.000977516 0.999999 0.000977516 
-54.5119 -455 33.5397 0.000977516 0.999999 0.000977516 
-64.1568 -455 32.9032 0.000977516 0.999999 0.000977516 
-37.0348 -455 30.4478 0.000977516 0.999999 0.000977516 
-29.0522 -455 33.3336 0.000977516 0.999999 0.000977516 
3.74867 -455 36.5505 0.000977516 0.999999 0.000977516 
-44.3316 -455 44.5318 0.000977516 0.999999 0.000977516 
-18.6205 -455 30.3163 0.000977516 0.999999 0.000977516 
-27.6344 -455 32.0442 0.000977516 0.999999 0.000977516 
-67.7511 -455 36.4535 0.000977516 0.999999 0.000977516 
3.87259 -455 28.6629 0.000977516 0.999999 0.000977516 
-34.885 -455 29.0179 0.000977516 0.999999 0.000977516 
92.3941 -455 41.2932 0.000977516 0.999999 0.000977516 
87.9826 -455 47.316 0.000977516 0.999999 0.000977516 
73.8476 -455 41.1641 0.000977516 0.999999 0.000977516 
88.2958 -455 41.7569 0.000977516 0.999999 0.000977516 
84.943 -455 40.8891 0.000977516 0.999999 0.000977516 
104.346 -455 46.9794 0.000977516 0.999999 0.000977516 
75.8296 -455 48.7518 0.000977516 0.999999 0.000977516 
121.756 -455 48.1105 0.000977516 0.999999 0.000977516 
143.616 -455 41.6968 0.000977516 0.999999 0.000977516 
86.1405 -455 35.1717 0.000977516 0.999999 0.000977516 
127.558 -455 45.2583 0.000977516 0.999999 0.000977516 
88.5993 -455 35.3299 0.000977516 0.999999 0.000977516 
94.2117 -455 32.3031 0.000977516 0.999999 0.000977516 
158.437 -455 48.9515 0.000977516 0.999999 0.000977516 
163.02 -455 46.8196 0.000977516 0.999999 0.000977516 
148.411 -455 43.6598 0.000977516 0.999999 0.000977516 
110.082 -455 43.8483 0.000977516 0.999999 0.000977516 
132.59 -455 38.2716 0.000977516 0.999999 0.000977516 
105.044 -455 43.5148 0.000977516 0.999999 0.000977516 
125.312 -455 38.4236 0.000977516 0.999999 0.000977516 
128.554 -455 38.4324 0.000977516 0.999999 0.000977516 
164.442 -455 45.1859 0.000977516 0.999999 0.000977516 
99.8625 -455 37.7873 0.000977516 0.999999 0.000977516 
93.5936 -455 35.4883 0.000977516 0.999999 0.000977516 
120.227 -455 48.5253 0.000977516 0.999999 0.000977516 
244.772 -455 46.899 0.000977516 0.999999 0.000977516 
244.489 -455 47.5043 0.000977516 0.999999 0.000977516 
234.209 -455 45.4425 0.000977516 0.999999 0.000977516 
283.101 -455 35.7526 0.000977516 0.999999 0.000977516 
247.131 -455 49.5855 0.000977516 0.999999 0.000977516 
255.361 -455 42.8634 0.000977516 0.999999 0.000977516 
259.736 -455 44.1318 0.000977516 0.999999 0.000977516 
241.566 -455 40.6924 0.000977516 0.999999 0.000977516 
255.678 -455 28.3356 0.000977516 0.999999 0.000977516 
260.915 -455 37.7477 0.000977516 0.999999 0.000977516 
168.196 -455 34.3695 0.000977516 0.999999 0.000977516 
177.027 -455 37.7972 0.000977516 0.999999 0.000977516 
175.94 -455 36.6425 0.000977516 0.999999 0.000977516 
228.449 -455 36.4541 0.000977516 0.999999 0.000977516 
227.238 -455 43.9725 0.000977516 0.999999 0.000977516 
255.562 -455 32.9269 0.000977516 0.999999 0.000977516 
243.462 -455 40.3097 0.000977516 0.999999 0.000977516 
248.303 -455 38.7875 0.000977516 0.999999 0.000977516 
146.799 -455 31.9586 0.000977516 0.999999 0.000977516 
215.806 -455 42.2362 0.000977516 0.999999 0.000977516 
236.175 -455 33.3323 0.000977516 0.999999 0.000977516 
237.385 -455 38.3155 0.000977516 0.999999 0.000977516 
213.863 -455 46.3796 0.000977516 0.999999 0.000977516 
184.478 -455 30.9504 0.000977516 0.999999 0.000977516 
177.22 -455 42.1993 0.000977516 0.999999 0.000977516 
119.778 -455 28.2222 0.000977516 0.999999 0.000977516 
117.637 -455 28.9298 0.000977516 0.999999 0.000977516 
257.442 -455 36.6941 0.000977516 0.999999 0.000977516 
219.73 -455 34.6222 0.000977516 0.999999 0.000977516 
222.53 -455 33.8031 0.000977516 0.999999 0.000977516 
144.994 -455 33.3998 0.000977516 0.999999 0.000977516 
178.663 -455 39.0128 0.000977516 0.999999 0.000977516 
148.724 -455 29.3864 0.000977516 0.999999 0.000977516 
202.379 -455 43.9826 0.000977516 0.999999 0.000977516 
212.278 -455 39.8358 0.000977516 0.999999 0.000977516 
219.21 -455 35.2047 0.000977516 0.999999 0.000977516 
200.104 -455 41.7412 0.000977516 0.999999 0.000977516 
148.013 -455 32.5281 0.000977516 0.999999 0.000977516 
120.166 -455 32.367 0.000977516 0.999999 0.000977516 
240.995 -455 33.8742 0.000977516 0.999999 0.000977516 
152.798 -455 33.0262 0.000977516 0.999999 0.000977516 
242.41 -455 38.6064 0.000977516 0.999999 0.000977516 
121.552 -455 29.9497 0.000977516 0.999999 0.000977516 
135.505 -455 34.6156 0.000977516 0.999999 0.000977516 
254.744 -455 32.8273 0.000977516 0.999999 0.000977516 
227.827 -455 30.3368 0.000977516 0.999999 0.000977516 
322.576 -455 35.6982 0.000977516 0.999999 0.000977516 
330.438 -455 41.7466 0.000977516 0.999999 0.000977516 
256.604 -455 49.5139 0.000977516 0.999999 0.000977516 
309.598 -455 49.9404 0.000977516 0.999999 0.000977516 
261.821 -455 46.8089 0.000977516 0.999999 0.000977516 
359.531 -455 41.2717 0.000977516 0.999999 0.000977516 
310.44 -455 43.7813 0.000977516 0.999999 0.000977516 
278.55 -455 38.6485 0.000977516 0.999999 0.000977516 
316.743 -455 33.343 0.000977516 0.999999 0.000977516 
317.752 -455 46.1971 0.000977516 0.999999 0.000977516 
318.525 -455 49.2203 0.000977516 0.999999 0.000977516 
346.757 -455 47.3902 0.000977516 0.999999 0.000977516 
345.927 -455 39.1243 0.000977516 0.999999 0.000977516 
287.519 -455 49.3301 0.000977516 0.999999 0.000977516 
355.345 -455 44.5899 0.000977516 0.999999 0.000977516 
328.693 -455 41.1381 0.000977516 0.999999 0.000977516 
363.339 -455 44.065 0.000977516 0.999999 0.000977516 
292.682 -455 34.6986 0.000977516 0.999999 0.000977516 
273.848 -455 41.6373 0.000977516 0.999999 0.000977516 
333.81 -455 47.454 0.000977516 0.999999 0.000977516 
350.395 -455 47.8701 0.000977516 0.999999 0.000977516 
264.528 -455 46.4452 0.000977516 0.999999 0.000977516 
278.809 -455 41.9174 0.000977516 0.999999 0.000977516 
321.363 -455 36.4691 0.000977516 0.999999 0.000977516 
303.082 -455 48.5473 0.000977516 0.999999 0.000977516 
354.337 -455 45.4621 0.000977516 0.999999 0.000977516 
330.224 -455 29.2367 0.000977516 0.999999 0.000977516 
393.082 -455 37.673 0.000977516 0.999999 0.000977516 
364.597 -455 33.8962 0.000977516 0.999999 0.000977516 
359.688 -455 40.3596 0.000977516 0.999999 0.000977516 
317.502 -455 28.2365 0.000977516 0.999999 0.000977516 
362.926 -455 28.383 0.000977516 0.999999 0.000977516 
354.777 -455 36.413 0.000977516 0.999999 0.000977516 
394.787 -455 38.2294 0.000977516 0.999999 0.000977516 
357.781 -455 30.6903 0.000977516 0.999999 0.000977516 
341.958 -455 32.0635 0.000977516 0.999999 0.000977516 
372.35 -455 34.0493 0.000977516 0.999999 0.000977516 
396.116 -455 42.4043 0.000977516 0.999999 0.000977516 
358.028 -455 31.3375 0.000977516 0.999999 0.000977516 
378.859 -455 34.5471 0.000977516 0.999999 0.000977516 
383.62 -455 41.2509 0.000977516 0.999999 0.000977516 
397.695 -455 28.7524 0.000977516 0.999999 0.000977516 
396.349 -455 43.8374 0.000977516 0.999999 0.000977516 
352.921 -455 34.5197 0.000977516 0.999999 0.000977516 
-314.03 -72.5 7.61012 0.000977516 -0.999999 0.000977516 
-308.231 -72.5 -36.9628 0.000977516 -0.999999 0.000977516 
-334.625 -72.5 7.10915 0.000977516 -0.999999 0.000977516 
-395.356 -72.5 24.4788 0.000977516 -0.999999 0.000977516 
-349.517 -72.5 17.5291 0.000977516 -0.999999 0.000977516 
-329.623 -72.5 22.8585 0.000977516 -0.999999 0.000977516 
-364.666 -72.5 7.33274 0.000977516 -0.999999 0.000977516 
-385.715 -72.5 20.3469 0.000977516 -0.999999 0.000977516 
-321.817 -72.5 6.01278 0.000977516 -0.999999 0.000977516 
-306.604 -72.5 -28.4548 0.000977516 -0.999999 0.000977516 
-342.944 -72.5 19.9869 0.000977516 -0.999999 0.000977516 
-315.556 -72.5 23.3498 0.000977516 -0.999999 0.000977516 
-300.692 -72.5 10.4586 0.000977516 -0.999999 0.000977516 
-351.906 -72.5 15.0939 0.000977516 -0.999999 0.000977516 
-316.436 -72.5 -36.7219 0.000977516 -0.999999 0.000977516 
-368.171 -72.5 10.1275 0.000977516 -0.999999 0.000977516 
-340.863 -72.5 7.3864 0.000977516 -0.999999 0.000977516 
-312.896 -72.5 13.2766 0.000977516 -0.999999 0.000977516 
-313.662 -72.5 -38.1328 0.000977516 -0.999999 0.000977516 
-306.154 -72.5 -7.01668 0.000977516 -0.999999 0.000977516 
-321.899 -72.5 0.205013 0.000977516 -0.999999 0.000977516 
-311.469 -72.5 -20.6675 0.000977516 -0.999999 0.000977516 
-316.466 -72.5 -21.0895 0.000977516 -0.999999 0.000977516 
-308.537 -72.5 -1.30485 0.000977516 -0.999999 0.000977516 
-317.688 -72.5 5.04529 0.000977516 -0.999999 0.000977516 
-318.349 -72.5 12.7384 0.000977516 -0.999999 0.000977516 
-312.772 -72.5 -30.9218 0.000977516 -0.999999 0.000977516 
-324.849 -72.5 -26.4857 0.000977516 -0.999999 0.000977516 
-306.348 -72.5 -16.4988 0.000977516 -0.999999 0.000977516 
-348.748 -72.5 7.47066 0.000977516 -0.999999 0.000977516 
-324.736 -72.5 -27.0579 0.000977516 -0.999999 0.000977516 
-333.857 -72.5 -8.74777 0.000977516 -0.999999 0.000977516 
-329.663 -72.5 16.2329 0.000977516 -0.999999 0.000977516 
-356.119 -72.5 13.2993 0.000977516 -0.999999 0.000977516 
-355.773 -72.5 24.8822 0.000977516 -0.999999 0.000977516 
-352.832 -72.5 -8.57262 0.000977516 -0.999999 0.000977516 
-318.828 -72.5 -6.46526 0.000977516 -0.999999 0.000977516 
-338.434 -72.5 8.63763 0.000977516 -0.999999 0.000977516 
-340.907 -72.5 -9.29304 0.000977516 -0.999999 0.000977516 
-344.336 -72.5 12.5138 0.000977516 -0.999999 0.000977516 
-376.514 -72.5 18.6805 0.000977516 -0.999999 0.000977516 
-369.291 -72.5 20.2816 0.000977516 -0.999999 0.000977516 
