ply
format ascii 1.0
comment Created by CloudCompare v2.11.3 (Anoia)
comment Created 01/05/2022 16:51
obj_info Generated by CloudCompare!
element vertex 880
property float x
property float y
property float z
property float nx
property float ny
property float nz
end_header
-0.996045 2.13525 2.09331 0.572003 0.729345 0.375326 
-0.804156 2.05112 1.96518 0.572003 0.729345 0.375326 
-1.10693 2.19107 2.15334 0.572003 0.729345 0.375326 
-0.962785 2.10822 2.0953 0.572003 0.729345 0.375326 
-1.30141 2.28096 2.27422 0.572003 0.729345 0.375326 
-1.25168 2.25514 2.24881 0.572003 0.729345 0.375326 
-0.83933 2.03971 2.04085 0.572003 0.729345 0.375326 
-1.14441 2.20719 2.17897 0.572003 0.729345 0.375326 
-1.34816 2.3102 2.2884 0.572003 0.729345 0.375326 
-1.39354 2.33686 2.30557 0.572003 0.729345 0.375326 
-1.19917 2.22898 2.21985 0.572003 0.729345 0.375326 
-1.49432 2.38202 2.37096 0.572003 0.729345 0.375326 
-1.01883 2.13404 2.1303 0.572003 0.729345 0.375326 
-0.785746 2.01472 2.00799 0.572003 0.729345 0.375326 
-1.32418 2.29282 2.28576 0.572003 0.729345 0.375326 
-1.11958 2.18483 2.1847 0.572003 0.729345 0.375326 
-1.18331 2.22818 2.19731 0.572003 0.729345 0.375326 
-1.47149 2.35621 2.38645 0.572003 0.729345 0.375326 
-1.41293 2.31299 2.38145 0.572003 0.729345 0.375326 
-1.56197 2.38155 2.47472 0.572003 0.729345 0.375326 
-1.39852 2.32737 2.33159 0.572003 0.729345 0.375326 
-1.17838 2.20693 2.23111 0.572003 0.729345 0.375326 
-1.43868 2.34484 2.35867 0.572003 0.729345 0.375326 
-1.34279 2.28729 2.3248 0.572003 0.729345 0.375326 
-1.4514 2.3356 2.39597 0.572003 0.729345 0.375326 
-1.08015 2.15879 2.17539 0.572003 0.729345 0.375326 
-0.90321 2.06395 2.09083 0.572003 0.729345 0.375326 
-1.53557 2.37556 2.44623 0.572003 0.729345 0.375326 
-0.957451 2.09248 2.11781 0.572003 0.729345 0.375326 
-1.5363 2.39712 2.40542 0.572003 0.729345 0.375326 
-1.36341 2.30187 2.32781 0.572003 0.729345 0.375326 
-1.14184 2.19008 2.20834 0.572003 0.729345 0.375326 
-1.28548 2.25455 2.30134 0.572003 0.729345 0.375326 
-1.22674 2.23139 2.25708 0.572003 0.729345 0.375326 
-1.50784 2.37079 2.41335 0.572003 0.729345 0.375326 
-1.24474 2.2353 2.27683 0.572003 0.729345 0.375326 
-1.10586 2.16438 2.2036 0.572003 0.729345 0.375326 
-0.932356 2.08417 2.09583 0.572003 0.729345 0.375326 
-0.990412 2.10672 2.14024 0.572003 0.729345 0.375326 
-1.48898 2.34855 2.42793 0.572003 0.729345 0.375326 
-1.51061 2.36017 2.43822 0.572003 0.729345 0.375326 
-1.16769 2.18967 2.24843 0.572003 0.729345 0.375326 
-1.26958 2.25252 2.28111 0.572003 0.729345 0.375326 
-1.31336 2.27037 2.31295 0.572003 0.729345 0.375326 
-1.38501 2.30619 2.35222 0.572003 0.729345 0.375326 
-1.57187 2.40165 2.45069 0.572003 0.729345 0.375326 
-1.05909 2.13766 2.18448 0.572003 0.729345 0.375326 
-1.35654 2.28677 2.34672 0.572003 0.729345 0.375326 
-1.20559 2.21374 2.25925 0.572003 0.729345 0.375326 
-1.02987 2.12537 2.16395 0.572003 0.729345 0.375326 
-1.37844 2.2913 2.3712 0.572003 0.729345 0.375326 
-1.42909 2.31387 2.4043 0.572003 0.729345 0.375326 
-1.12351 2.16869 2.22207 0.572003 0.729345 0.375326 
-1.40706 2.32095 2.35706 0.572003 0.729345 0.375326 
-0.815848 2.0222 2.0392 0.572003 0.729345 0.375326 
-1.29972 2.25305 2.3259 0.572003 0.729345 0.375326 
-0.808195 1.99883 2.02255 0.203589 -0.567906 0.797518 
-0.784328 1.98736 2.00833 0.203589 -0.567906 0.797518 
-1.5116 2.33491 2.44042 0.203589 -0.567906 0.797518 
-1.53114 2.34511 2.45264 0.203589 -0.567906 0.797518 
-1.34164 2.26598 2.3482 0.203589 -0.567906 0.797518 
-1.26246 2.22697 2.30032 0.203589 -0.567906 0.797518 
-1.08997 2.14065 2.19507 0.203589 -0.567906 0.797518 
-1.46854 2.3316 2.42714 0.203589 -0.567906 0.797518 
-0.888708 2.04049 2.07266 0.203589 -0.567906 0.797518 
-1.15373 2.167 2.23002 0.203589 -0.567906 0.797518 
-1.1973 2.18963 2.25719 0.203589 -0.567906 0.797518 
-1.3279 2.25007 2.33337 0.203589 -0.567906 0.797518 
-1.36985 2.26691 2.35602 0.203589 -0.567906 0.797518 
-1.45493 2.3135 2.41079 0.203589 -0.567906 0.797518 
-0.792753 1.97836 2.03807 0.572003 0.729345 0.375326 
-0.8414 2.00717 2.056 0.572003 0.729345 0.375326 
-0.820398 1.98877 2.05986 0.572003 0.729345 0.375326 
-1.56111 2.34141 2.50149 -0.200652 0.568258 -0.798011 
-1.57337 2.3632 2.52013 -0.200652 0.568258 -0.798011 
-1.53274 2.33367 2.48878 -0.200652 0.568258 -0.798011 
-1.44253 2.30346 2.44438 -0.200652 0.568258 -0.798011 
-0.941555 2.06472 2.14721 -0.200652 0.568258 -0.798011 
-1.50697 2.331 2.48034 -0.200652 0.568258 -0.798011 
-1.37485 2.26075 2.39678 -0.200652 0.568258 -0.798011 
-1.30103 2.22456 2.35227 -0.200652 0.568258 -0.798011 
-1.03403 2.10533 2.1996 -0.200652 0.568258 -0.798011 
-1.20043 2.18062 2.29544 -0.200652 0.568258 -0.798011 
-1.12855 2.14815 2.25408 -0.200652 0.568258 -0.798011 
-1.48062 2.32176 2.46707 -0.200652 0.568258 -0.798011 
-1.1649 2.17086 2.27948 -0.200652 0.568258 -0.798011 
-1.3931 2.27731 2.41321 -0.200652 0.568258 -0.798011 
-1.3302 2.23999 2.37066 -0.200652 0.568258 -0.798011 
-1.24695 2.21039 2.32846 -0.200652 0.568258 -0.798011 
-0.979488 2.08166 2.1689 -0.200652 0.568258 -0.798011 
-1.08991 2.13536 2.23516 -0.200652 0.568258 -0.798011 
-1.42104 2.27919 2.42163 -0.200652 0.568258 -0.798011 
-1.3532 2.24602 2.38079 -0.200652 0.568258 -0.798011 
-0.845299 2.01846 2.08983 -0.200652 0.568258 -0.798011 
-1.23088 2.18708 2.30777 -0.200652 0.568258 -0.798011 
-0.8968 2.03896 2.11751 -0.200652 0.568258 -0.798011 
-1.07384 2.1162 2.21744 -0.200652 0.568258 -0.798011 
-1.01059 2.0851 2.17924 -0.200652 0.568258 -0.798011 
-1.15673 2.14966 2.2623 -0.200652 0.568258 -0.798011 
-0.815768 1.98209 2.11708 0.572003 0.729345 0.375326 
-0.85538 1.99979 2.14288 0.572003 0.729345 0.375326 
-0.793944 1.96765 2.11197 0.572003 0.729345 0.375326 
-0.933776 2.03661 2.19047 0.572003 0.729345 0.375326 
-1.10598 2.13068 2.26931 0.572003 0.729345 0.375326 
-0.769111 1.93427 2.13912 0.572003 0.729345 0.375326 
-0.806131 1.95106 2.16277 0.572003 0.729345 0.375326 
-0.890245 2.00443 2.18687 0.572003 0.729345 0.375326 
-1.34367 2.24171 2.41478 0.572003 0.729345 0.375326 
-1.2691 2.21812 2.34728 0.572003 0.729345 0.375326 
-0.876611 2.01408 2.14737 0.572003 0.729345 0.375326 
-0.749838 1.93449 2.10941 0.572003 0.729345 0.375326 
-1.01735 2.07301 2.24673 0.572003 0.729345 0.375326 
-0.760278 1.95096 2.09326 0.572003 0.729345 0.375326 
-0.857629 1.98627 2.17259 0.572003 0.729345 0.375326 
-1.2628 2.20308 2.36695 0.572003 0.729345 0.375326 
-1.20907 2.17859 2.33288 0.572003 0.729345 0.375326 
-1.01113 2.08193 2.21993 0.572003 0.729345 0.375326 
-1.04447 2.09376 2.24761 0.572003 0.729345 0.375326 
-0.943693 2.02406 2.22994 0.572003 0.729345 0.375326 
-0.746125 1.9162 2.13933 0.572003 0.729345 0.375326 
-0.762264 1.97743 2.0448 0.572003 0.729345 0.375326 
-1.29339 2.21912 2.38226 0.572003 0.729345 0.375326 
-0.983592 2.06368 2.21355 0.572003 0.729345 0.375326 
-0.911657 2.02527 2.17888 0.572003 0.729345 0.375326 
-1.07764 2.10139 2.2832 0.572003 0.729345 0.375326 
-1.1738 2.16452 2.30663 0.572003 0.729345 0.375326 
-0.969795 2.0668 2.18651 0.572003 0.729345 0.375326 
-1.13466 2.13854 2.29765 0.572003 0.729345 0.375326 
-1.32335 2.23467 2.39757 0.572003 0.729345 0.375326 
-1.11323 2.12158 2.29803 0.572003 0.729345 0.375326 
-0.761782 1.96391 2.07036 0.572003 0.729345 0.375326 
-0.791343 1.98647 2.07142 0.572003 0.729345 0.375326 
-0.906493 2.00608 2.20835 0.572003 0.729345 0.375326 
-0.922775 2.04746 2.15264 0.572003 0.729345 0.375326 
-0.834177 1.97082 2.16697 0.572003 0.729345 0.375326 
-1.39347 2.26875 2.43791 0.572003 0.729345 0.375326 
-0.965283 2.04481 2.22241 0.572003 0.729345 0.375326 
-1.04914 2.1102 2.22274 0.572003 0.729345 0.375326 
-0.855263 2.01449 2.11411 0.572003 0.729345 0.375326 
-1.45641 2.30361 2.4658 0.572003 0.729345 0.375326 
-1.16036 2.14238 2.32925 0.572003 0.729345 0.375326 
-0.994563 2.05219 2.25258 0.572003 0.729345 0.375326 
-1.07072 2.11295 2.25021 0.572003 0.729345 0.375326 
-1.36878 2.25784 2.42159 0.572003 0.729345 0.375326 
-1.24122 2.18552 2.36829 0.572003 0.729345 0.375326 
-0.806675 1.98715 2.09341 0.572003 0.729345 0.375326 
-1.04952 2.08517 2.27198 0.572003 0.729345 0.375326 
-0.867747 1.98161 2.19702 0.572003 0.729345 0.375326 
-0.795098 1.95632 2.13576 0.572003 0.729345 0.375326 
-0.901969 2.03548 2.14429 0.572003 0.729345 0.375326 
-0.722724 1.91167 2.11255 0.572003 0.729345 0.375326 
-0.834921 1.99985 2.11166 0.572003 0.729345 0.375326 
-1.51246 2.29452 2.56868 0.572003 0.729345 0.375326 
-1.42331 2.25772 2.50471 0.572003 0.729345 0.375326 
-1.39029 2.23796 2.49294 0.572003 0.729345 0.375326 
-1.36137 2.22081 2.48231 0.572003 0.729345 0.375326 
-0.843631 1.96021 2.20199 0.572003 0.729345 0.375326 
-1.04883 2.06448 2.31118 0.572003 0.729345 0.375326 
-0.903291 1.98765 2.23931 0.572003 0.729345 0.375326 
-1.39075 2.253 2.46438 0.572003 0.729345 0.375326 
-1.41212 2.27015 2.46353 0.572003 0.729345 0.375326 
-1.2755 2.17542 2.44004 0.572003 0.729345 0.375326 
-1.4358 2.28025 2.47989 0.572003 0.729345 0.375326 
-1.45896 2.2518 2.57042 0.572003 0.729345 0.375326 
-1.53047 2.29375 2.59755 0.572003 0.729345 0.375326 
-1.31078 2.1994 2.44704 0.572003 0.729345 0.375326 
-1.53105 2.31532 2.5565 0.572003 0.729345 0.375326 
-1.17398 2.12559 2.38261 0.572003 0.729345 0.375326 
-1.53647 2.33082 2.5346 0.572003 0.729345 0.375326 
-1.08332 2.08442 2.32483 0.572003 0.729345 0.375326 
-1.50086 2.27661 2.58587 0.572003 0.729345 0.375326 
-1.21289 2.16428 2.36651 0.572003 0.729345 0.375326 
-1.10076 2.10163 2.31789 0.572003 0.729345 0.375326 
-1.25953 2.18013 2.4066 0.572003 0.729345 0.375326 
-0.9625 2.02841 2.25007 0.572003 0.729345 0.375326 
-1.33897 2.21655 2.45654 0.572003 0.729345 0.375326 
-1.01599 2.0539 2.28183 0.572003 0.729345 0.375326 
-1.1458 2.11355 2.36318 0.572003 0.729345 0.375326 
-1.42252 2.23856 2.54077 0.572003 0.729345 0.375326 
-1.50801 2.32389 2.5048 0.572003 0.729345 0.375326 
-1.47911 2.29033 2.52612 0.572003 0.729345 0.375326 
-1.36299 2.23606 2.45513 0.572003 0.729345 0.375326 
-0.887755 1.98672 2.2175 0.572003 0.729345 0.375326 
-1.22055 2.1519 2.40224 0.572003 0.729345 0.375326 
-1.24421 2.16105 2.42042 0.572003 0.729345 0.375326 
-1.46628 2.27066 2.54487 0.572003 0.729345 0.375326 
-1.47988 2.26421 2.57809 0.572003 0.729345 0.375326 
-1.1382 2.12735 2.32478 0.572003 0.729345 0.375326 
-1.44437 2.2695 2.51382 0.572003 0.729345 0.375326 
-1.20223 2.13 2.41698 0.572003 0.729345 0.375326 
-1.46691 2.29634 2.49589 0.572003 0.729345 0.375326 
-0.972309 2.02234 2.27679 0.572003 0.729345 0.375326 
-1.49507 2.29013 2.55077 0.572003 0.729345 0.375326 
-1.32601 2.22292 2.42447 0.572003 0.729345 0.375326 
-1.35623 2.2055 2.50428 0.572003 0.729345 0.375326 
-1.28154 2.19955 2.4023 0.572003 0.729345 0.375326 
-1.38369 2.2207 2.51647 0.572003 0.729345 0.375326 
-1.34071 2.20473 2.48218 0.572003 0.729345 0.375326 
-1.19335 2.14556 2.37322 0.572003 0.729345 0.375326 
-0.933034 2.00497 2.25085 0.572003 0.729345 0.375326 
-1.12829 2.09558 2.3715 0.572003 0.729345 0.375326 
-1.30517 2.18245 2.47147 0.572003 0.729345 0.375326 
-1.02365 2.0443 2.31213 0.572003 0.729345 0.375326 
-1.07055 2.08557 2.30317 0.572003 0.729345 0.375326 
-1.11551 2.10259 2.33844 0.572003 0.729345 0.375326 
-1.44492 2.25759 2.53783 0.572003 0.729345 0.375326 
-1.18029 2.1474 2.34978 0.572003 0.729345 0.375326 
-0.820793 1.94879 2.18946 0.572003 0.729345 0.375326 
-1.25539 2.15547 2.44826 0.572003 0.729345 0.375326 
-0.995707 2.03136 2.29483 0.572003 0.729345 0.375326 
-0.775871 1.9268 2.16393 0.572003 0.729345 0.375326 
-1.10289 2.08256 2.3582 0.572003 0.729345 0.375326 
-1.50644 2.31103 2.52743 0.572003 0.729345 0.375326 
-0.802956 1.92233 2.16968 0.203589 -0.567906 0.797518 
-1.54411 2.28959 2.61933 0.203589 -0.567906 0.797518 
-1.22693 2.13464 2.42848 0.203589 -0.567906 0.797518 
-1.40525 2.21431 2.53048 0.203589 -0.567906 0.797518 
-1.33759 2.17771 2.48723 0.203589 -0.567906 0.797518 
-1.28051 2.15342 2.45545 0.203589 -0.567906 0.797518 
-1.1617 2.10465 2.39057 0.203589 -0.567906 0.797518 
-1.18279 2.11864 2.40588 0.203589 -0.567906 0.797518 
-1.06276 2.05053 2.32691 0.203589 -0.567906 0.797518 
-0.871797 1.9591 2.21333 0.203589 -0.567906 0.797518 
-0.770276 1.90367 2.14914 0.572003 0.729345 0.375326 
-0.747862 1.88307 2.15512 0.572003 0.729345 0.375326 
-0.767023 1.88938 2.17199 0.572003 0.729345 0.375326 
-0.798902 1.90231 2.1953 0.572003 0.729345 0.375326 
-1.52522 2.25129 2.63113 -0.200652 0.568258 -0.798011 
-1.4969 2.24272 2.61784 -0.200652 0.568258 -0.798011 
-0.951447 1.98895 2.29869 -0.200652 0.568258 -0.798011 
-1.14696 2.08236 2.41483 -0.200652 0.568258 -0.798011 
-0.86582 1.9393 2.24159 -0.200652 0.568258 -0.798011 
-1.45884 2.23391 2.60192 -0.200652 0.568258 -0.798011 
-1.1758 2.09213 2.42911 -0.200652 0.568258 -0.798011 
-0.993968 2.00552 2.32128 -0.200652 0.568258 -0.798011 
-1.27488 2.14207 2.48982 -0.200652 0.568258 -0.798011 
-1.21594 2.11794 2.45768 -0.200652 0.568258 -0.798011 
-0.912844 1.96873 2.27449 -0.200652 0.568258 -0.798011 
-1.05356 2.03555 2.35779 -0.200652 0.568258 -0.798011 
-0.884938 1.95517 2.25775 -0.200652 0.568258 -0.798011 
-0.835399 1.93324 2.22956 -0.200652 0.568258 -0.798011 
-1.30416 2.16001 2.51003 -0.200652 0.568258 -0.798011 
-1.42131 2.21626 2.57982 -0.200652 0.568258 -0.798011 
-1.11542 2.06628 2.39538 -0.200652 0.568258 -0.798011 
-1.00947 2.01968 2.3353 -0.200652 0.568258 -0.798011 
-1.24047 2.12413 2.46831 -0.200652 0.568258 -0.798011 
-1.08885 2.05848 2.38308 -0.200652 0.568258 -0.798011 
-1.39755 2.20524 2.56594 -0.200652 0.568258 -0.798011 
-1.037 2.02041 2.3428 -0.200652 0.568258 -0.798011 
-0.937361 1.96825 2.28037 -0.200652 0.568258 -0.798011 
-1.33331 2.16587 2.5216 -0.200652 0.568258 -0.798011 
-1.35741 2.17791 2.53629 -0.200652 0.568258 -0.798011 
-0.855065 1.92601 2.28586 0.572003 0.729345 0.375326 
-1.12795 2.06501 2.43042 0.572003 0.729345 0.375326 
-0.773262 1.88101 2.249 0.572003 0.729345 0.375326 
-0.824707 1.90961 2.27161 0.572003 0.729345 0.375326 
-1.06009 2.03322 2.38908 0.572003 0.729345 0.375326 
-0.950696 1.97474 2.33649 0.572003 0.729345 0.375326 
-0.888209 1.9449 2.29951 0.572003 0.729345 0.375326 
-0.718274 1.85811 2.20994 0.572003 0.729345 0.375326 
-1.19082 2.10416 2.44987 0.572003 0.729345 0.375326 
-0.915732 1.96367 2.30487 0.572003 0.729345 0.375326 
-0.921761 1.95401 2.33282 0.572003 0.729345 0.375326 
-1.14672 2.06719 2.45471 0.572003 0.729345 0.375326 
-1.09703 2.04607 2.42025 0.572003 0.729345 0.375326 
-0.791396 1.90792 2.22425 0.572003 0.729345 0.375326 
-0.817347 1.91643 2.24715 0.572003 0.729345 0.375326 
-1.2306 2.1127 2.49375 0.572003 0.729345 0.375326 
-0.751499 1.88121 2.21553 0.572003 0.729345 0.375326 
-0.978607 1.97896 2.37072 0.572003 0.729345 0.375326 
-0.73628 1.8606 2.23247 0.572003 0.729345 0.375326 
-1.37199 2.18753 2.56318 0.572003 0.729345 0.375326 
-0.720338 1.87648 2.17735 0.572003 0.729345 0.375326 
-0.871691 1.92779 2.30767 0.572003 0.729345 0.375326 
-0.844402 1.9337 2.2547 0.572003 0.729345 0.375326 
-1.28114 2.14059 2.51635 0.572003 0.729345 0.375326 
-1.252 2.12842 2.49571 0.572003 0.729345 0.375326 
-1.18126 2.08661 2.46945 0.572003 0.729345 0.375326 
-1.03733 2.00966 2.40029 0.572003 0.729345 0.375326 
-0.793866 1.89552 2.25211 0.572003 0.729345 0.375326 
-0.75222 1.86105 2.25583 0.572003 0.729345 0.375326 
-1.00711 2.00399 2.36538 0.572003 0.729345 0.375326 
-0.79775 1.88525 2.27799 0.572003 0.729345 0.375326 
-1.07561 2.03436 2.41046 0.572003 0.729345 0.375326 
-0.755174 1.89492 2.19445 0.572003 0.729345 0.375326 
-0.714778 1.84307 2.23387 0.572003 0.729345 0.375326 
-0.901615 1.93859 2.33217 0.572003 0.729345 0.375326 
-0.96732 1.99214 2.32793 0.572003 0.729345 0.375326 
-0.84513 1.90907 2.30371 0.572003 0.729345 0.375326 
-1.12966 2.04732 2.46742 0.572003 0.729345 0.375326 
-1.32868 2.15423 2.5621 0.572003 0.729345 0.375326 
-1.30895 2.13857 2.56255 0.572003 0.729345 0.375326 
-1.51005 2.24158 2.66797 0.572003 0.729345 0.375326 
-1.05029 2.00637 2.4264 0.572003 0.729345 0.375326 
-1.48457 2.23446 2.64308 0.572003 0.729345 0.375326 
-1.48318 2.22071 2.6677 0.572003 0.729345 0.375326 
-1.40581 2.19881 2.59267 0.572003 0.729345 0.375326 
-1.38089 2.17271 2.60554 0.572003 0.729345 0.375326 
-1.42032 2.18827 2.63521 0.572003 0.729345 0.375326 
-1.46479 2.20079 2.67847 0.572003 0.729345 0.375326 
-1.02013 1.98702 2.41817 0.572003 0.729345 0.375326 
-1.25784 2.10586 2.54845 0.572003 0.729345 0.375326 
-1.14516 2.04525 2.495 0.572003 0.729345 0.375326 
-1.201 2.07633 2.51947 0.572003 0.729345 0.375326 
-1.00465 1.9893 2.39021 0.572003 0.729345 0.375326 
-1.32078 2.13608 2.58538 0.572003 0.729345 0.375326 
-1.07726 2.01848 2.44384 0.572003 0.729345 0.375326 
-0.77564 1.86849 2.27696 0.572003 0.729345 0.375326 
-1.45649 2.21059 2.6468 0.572003 0.729345 0.375326 
-1.28155 2.12314 2.55089 0.572003 0.729345 0.375326 
-1.44245 2.21435 2.61815 0.572003 0.729345 0.375326 
-1.17133 2.0674 2.49173 0.572003 0.729345 0.375326 
-1.10248 2.03211 2.45568 0.572003 0.729345 0.375326 
-0.861381 1.90911 2.32834 0.572003 0.729345 0.375326 
-1.2288 2.0848 2.54526 0.572003 0.729345 0.375326 
-1.29627 2.12097 2.57748 0.572003 0.729345 0.375326 
-0.952675 1.96294 2.36245 0.572003 0.729345 0.375326 
-1.3566 2.1627 2.58806 0.572003 0.729345 0.375326 
-0.998445 1.97447 2.40961 0.572003 0.729345 0.375326 
-1.21763 2.09364 2.51107 0.572003 0.729345 0.375326 
-0.820549 1.893 2.29759 0.572003 0.729345 0.375326 
-1.51331 2.22189 2.71122 0.572003 0.729345 0.375326 
-1.38622 2.16069 2.637 0.572003 0.729345 0.375326 
-1.35058 2.17202 2.56079 0.572003 0.729345 0.375326 
-0.911976 1.93444 2.35598 0.572003 0.729345 0.375326 
-1.2966 2.14216 2.53679 0.572003 0.729345 0.375326 
-1.501 2.22407 2.68825 0.572003 0.729345 0.375326 
-1.43643 2.19076 2.65487 0.572003 0.729345 0.375326 
-1.24517 2.11146 2.5183 0.572003 0.729345 0.375326 
-0.967785 1.96243 2.3864 0.572003 0.729345 0.375326 
-1.36016 2.15175 2.61477 0.572003 0.729345 0.375326 
-1.4931 2.19987 2.69606 0.203589 -0.567906 0.797518 
-1.34662 2.12394 2.60481 0.203589 -0.567906 0.797518 
-1.2787 2.09805 2.56913 0.203589 -0.567906 0.797518 
-1.42564 2.1681 2.65631 0.203589 -0.567906 0.797518 
-1.11589 2.02915 2.47875 0.203589 -0.567906 0.797518 
-1.09774 2.00552 2.4573 0.203589 -0.567906 0.797518 
-1.18851 2.04976 2.51185 0.203589 -0.567906 0.797518 
-0.892955 1.9169 2.34222 0.203589 -0.567906 0.797518 
-0.947298 1.93211 2.36684 0.203589 -0.567906 0.797518 
-0.711061 1.81076 2.23978 0.572003 0.729345 0.375326 
-0.751036 1.83321 2.25691 0.572003 0.729345 0.375326 
-0.730476 1.81805 2.25513 0.572003 0.729345 0.375326 
-0.776999 1.83764 2.28775 0.572003 0.729345 0.375326 
-0.706853 1.81277 2.26471 -0.200652 0.568258 -0.798011 
-0.740007 1.82161 2.27942 -0.200652 0.568258 -0.798011 
-1.48537 2.17718 2.72181 -0.200652 0.568258 -0.798011 
-1.5098 2.19052 2.73751 -0.200652 0.568258 -0.798011 
-1.0693 1.98143 2.47681 -0.200652 0.568258 -0.798011 
-0.908559 1.89896 2.37728 -0.200652 0.568258 -0.798011 
-1.0302 1.96484 2.45508 -0.200652 0.568258 -0.798011 
-1.37885 2.13624 2.66563 -0.200652 0.568258 -0.798011 
-0.878227 1.89106 2.36396 -0.200652 0.568258 -0.798011 
-1.16191 2.03203 2.53636 -0.200652 0.568258 -0.798011 
-0.934518 1.92722 2.404 -0.200652 0.568258 -0.798011 
-0.817633 1.86254 2.32827 -0.200652 0.568258 -0.798011 
-1.22514 2.05858 2.57131 -0.200652 0.568258 -0.798011 
-1.13598 2.01516 2.51775 -0.200652 0.568258 -0.798011 
-0.999641 1.95159 2.43788 -0.200652 0.568258 -0.798011 
-0.792367 1.85833 2.31886 -0.200652 0.568258 -0.798011 
-1.11644 2.00479 2.50541 -0.200652 0.568258 -0.798011 
-1.41234 2.15308 2.68612 -0.200652 0.568258 -0.798011 
-0.842238 1.8824 2.34866 -0.200652 0.568258 -0.798011 
-0.981764 1.93575 2.42206 -0.200652 0.568258 -0.798011 
-1.3376 2.11798 2.64216 -0.200652 0.568258 -0.798011 
-0.959768 1.92558 2.40924 -0.200652 0.568258 -0.798011 
-1.31218 2.1044 2.62603 -0.200652 0.568258 -0.798011 
-1.26997 2.08144 2.59897 -0.200652 0.568258 -0.798011 
-1.09456 1.98988 2.48924 -0.200652 0.568258 -0.798011 
-1.1952 2.03803 2.54907 -0.200652 0.568258 -0.798011 
-1.36405 2.12057 2.6507 -0.200652 0.568258 -0.798011 
-1.44963 2.16461 2.70379 -0.200652 0.568258 -0.798011 
-1.29978 2.08333 2.60787 -0.200652 0.568258 -0.798011 
-0.884262 1.86752 2.44398 0.572003 0.729345 0.375326 
-1.24313 2.07378 2.58847 0.572003 0.729345 0.375326 
-0.772752 1.80427 2.39745 0.572003 0.729345 0.375326 
-1.2102 2.04138 2.60141 0.572003 0.729345 0.375326 
-1.25011 2.06647 2.6133 0.572003 0.729345 0.375326 
-0.847286 1.83859 2.44403 0.572003 0.729345 0.375326 
-0.996124 1.92282 2.5065 0.572003 0.729345 0.375326 
-1.13169 1.99834 2.56575 0.572003 0.729345 0.375326 
-0.722327 1.77662 2.37456 0.572003 0.729345 0.375326 
-1.16434 2.02579 2.562 0.572003 0.729345 0.375326 
-0.818861 1.82857 2.4203 0.572003 0.729345 0.375326 
-0.931485 1.90856 2.43597 0.572003 0.729345 0.375326 
-0.872435 1.88019 2.40137 0.572003 0.729345 0.375326 
-1.23137 2.0498 2.61723 0.572003 0.729345 0.375326 
-1.10381 1.97967 2.55968 0.572003 0.729345 0.375326 
-0.982725 1.93955 2.45362 0.572003 0.729345 0.375326 
-1.07992 1.97135 2.53954 0.572003 0.729345 0.375326 
-0.774628 1.81776 2.37407 0.572003 0.729345 0.375326 
-1.28297 2.08521 2.62681 0.572003 0.729345 0.375326 
-0.696331 1.78587 2.31705 0.572003 0.729345 0.375326 
-0.946909 1.89583 2.48417 0.572003 0.729345 0.375326 
-0.795394 1.83946 2.36344 0.572003 0.729345 0.375326 
-0.752397 1.78923 2.39575 0.572003 0.729345 0.375326 
-1.02131 1.94248 2.50658 0.572003 0.729345 0.375326 
-1.07101 1.97833 2.51242 0.572003 0.729345 0.375326 
-0.85043 1.85312 2.42055 0.572003 0.729345 0.375326 
-0.744305 1.81556 2.33226 0.572003 0.729345 0.375326 
-0.951368 1.91743 2.44896 0.572003 0.729345 0.375326 
-0.838741 1.85909 2.39118 0.572003 0.729345 0.375326 
-1.05754 1.96074 2.52613 0.572003 0.729345 0.375326 
-1.00585 1.94129 2.48536 0.572003 0.729345 0.375326 
-1.17956 2.02339 2.58981 0.572003 0.729345 0.375326 
-0.745538 1.79991 2.36456 0.572003 0.729345 0.375326 
-0.93041 1.89373 2.46317 0.572003 0.729345 0.375326 
-0.72693 1.79698 2.34198 0.572003 0.729345 0.375326 
-1.11874 2.00175 2.53944 0.572003 0.729345 0.375326 
-0.794849 1.81944 2.40155 0.572003 0.729345 0.375326 
-0.76156 1.83812 2.31463 0.572003 0.729345 0.375326 
-0.729421 1.81601 2.30875 0.572003 0.729345 0.375326 
-0.853009 1.87815 2.37579 0.572003 0.729345 0.375326 
-1.02912 1.96082 2.48277 0.572003 0.729345 0.375326 
-1.30224 2.08832 2.65004 0.572003 0.729345 0.375326 
-0.811852 1.84085 2.38576 0.572003 0.729345 0.375326 
-0.908933 1.88056 2.45614 0.572003 0.729345 0.375326 
-0.708766 1.80542 2.29795 0.572003 0.729345 0.375326 
-1.34124 2.10961 2.66794 0.572003 0.729345 0.375326 
-0.709828 1.77974 2.3495 0.572003 0.729345 0.375326 
-0.90218 1.89161 2.42439 0.572003 0.729345 0.375326 
-0.91396 1.91157 2.40347 0.572003 0.729345 0.375326 
-0.685375 1.76067 2.34939 0.572003 0.729345 0.375326 
-0.975156 1.91196 2.49575 0.572003 0.729345 0.375326 
-0.781143 1.84054 2.33968 0.572003 0.729345 0.375326 
-1.38341 2.13129 2.68991 0.572003 0.729345 0.375326 
-1.13322 1.9781 2.60744 0.572003 0.729345 0.375326 
-1.30385 2.05067 2.72572 0.572003 0.729345 0.375326 
-1.30359 2.07054 2.68669 0.572003 0.729345 0.375326 
-1.42458 2.13198 2.75114 0.572003 0.729345 0.375326 
-1.10126 1.95881 2.59635 0.572003 0.729345 0.375326 
-1.24692 2.03206 2.67537 0.572003 0.729345 0.375326 
-1.27534 2.04611 2.69125 0.572003 0.729345 0.375326 
-1.28011 2.03294 2.7241 0.572003 0.729345 0.375326 
-1.38168 2.11155 2.72566 0.572003 0.729345 0.375326 
-1.19975 1.99728 2.67127 0.572003 0.729345 0.375326 
-1.44763 2.1585 2.73462 0.572003 0.729345 0.375326 
-1.41426 2.11163 2.77503 0.572003 0.729345 0.375326 
-1.25283 2.05664 2.63656 0.572003 0.729345 0.375326 
-0.951566 1.88413 2.514 0.572003 0.729345 0.375326 
-1.13769 1.96364 2.64234 0.572003 0.729345 0.375326 
-1.46442 2.162 2.75334 0.572003 0.729345 0.375326 
-1.36963 2.08764 2.75383 0.572003 0.729345 0.375326 
-1.44694 2.14456 2.76068 0.572003 0.729345 0.375326 
-1.06512 1.93098 2.59554 0.572003 0.729345 0.375326 
-1.33413 2.09077 2.69378 0.572003 0.729345 0.375326 
-1.46456 2.12414 2.82716 0.572003 0.729345 0.375326 
-1.44169 2.11517 2.80986 0.572003 0.729345 0.375326 
-1.02785 1.91972 2.56075 0.572003 0.729345 0.375326 
-1.277 2.06152 2.6638 0.572003 0.729345 0.375326 
-1.1918 2.02157 2.61197 0.572003 0.729345 0.375326 
-0.898199 1.86269 2.47456 0.572003 0.729345 0.375326 
-0.909227 1.85778 2.50087 0.572003 0.729345 0.375326 
-1.15775 1.98242 2.63633 0.572003 0.729345 0.375326 
-1.05147 1.9454 2.54674 0.572003 0.729345 0.375326 
-1.19953 2.01389 2.63865 0.572003 0.729345 0.375326 
-1.32502 2.06993 2.72045 0.572003 0.729345 0.375326 
-1.17434 2.00232 2.62284 0.572003 0.729345 0.375326 
-1.47103 2.15243 2.78199 0.572003 0.729345 0.375326 
-1.3727 2.0782 2.77686 0.572003 0.729345 0.375326 
-0.839042 1.82152 2.4647 0.572003 0.729345 0.375326 
-0.674594 1.74271 2.36793 0.572003 0.729345 0.375326 
-0.800634 1.80395 2.44047 0.572003 0.729345 0.375326 
-0.966999 1.88526 2.53528 0.572003 0.729345 0.375326 
-0.986823 1.90113 2.53454 0.572003 0.729345 0.375326 
-0.875031 1.84715 2.46957 0.572003 0.729345 0.375326 
-1.25807 2.02542 2.70523 0.572003 0.729345 0.375326 
-1.498 2.18318 2.76322 0.572003 0.729345 0.375326 
-1.07315 1.9479 2.57483 0.572003 0.729345 0.375326 
-1.01461 1.92646 2.52754 0.572003 0.729345 0.375326 
-1.10403 1.94734 2.62288 0.572003 0.729345 0.375326 
-1.32605 2.05886 2.74354 0.572003 0.729345 0.375326 
-1.35553 2.10417 2.70027 0.572003 0.729345 0.375326 
-0.922608 1.87687 2.4841 0.572003 0.729345 0.375326 
-1.17721 1.98474 2.6614 0.572003 0.729345 0.375326 
-1.15429 2.00378 2.58954 0.572003 0.729345 0.375326 
-1.4382 2.12572 2.78404 0.572003 0.729345 0.375326 
-1.04951 1.92964 2.5744 0.572003 0.729345 0.375326 
-1.45989 2.1337 2.80149 0.572003 0.729345 0.375326 
-1.0073 1.90704 2.55417 0.572003 0.729345 0.375326 
-1.22745 2.03024 2.64931 0.572003 0.729345 0.375326 
-1.40983 2.13961 2.71388 0.572003 0.729345 0.375326 
-0.780815 1.79811 2.4217 0.572003 0.729345 0.375326 
-0.695744 1.75494 2.37632 0.572003 0.729345 0.375326 
-1.22478 2.00896 2.68662 0.572003 0.729345 0.375326 
-1.34701 2.07681 2.7405 0.572003 0.729345 0.375326 
-1.11827 1.97686 2.58712 0.572003 0.729345 0.375326 
-0.930715 1.87126 2.50734 0.572003 0.729345 0.375326 
-1.48664 2.1108 2.83665 0.203589 -0.567906 0.797518 
-1.51438 2.04753 2.79861 0.203589 -0.567906 0.797518 
-1.46569 2.05863 2.79417 0.203589 -0.567906 0.797518 
-1.45588 2.09365 2.81663 0.203589 -0.567906 0.797518 
-1.44234 2.07827 2.80224 0.203589 -0.567906 0.797518 
-1.48223 2.07939 2.81315 0.203589 -0.567906 0.797518 
-1.50443 2.06772 2.81047 0.203589 -0.567906 0.797518 
-1.42599 2.05117 2.77878 0.203589 -0.567906 0.797518 
-1.47886 2.03901 2.78353 0.203589 -0.567906 0.797518 
-1.49323 2.01877 2.77275 0.203589 -0.567906 0.797518 
-1.45572 2.0251 2.76775 0.203589 -0.567906 0.797518 
-1.32147 1.93883 2.67223 0.203589 -0.567906 0.797518 
-1.28706 1.92524 2.65382 0.203589 -0.567906 0.797518 
-1.41261 1.97636 2.72208 0.203589 -0.567906 0.797518 
-1.43589 1.994 2.74056 0.203589 -0.567906 0.797518 
-1.37903 1.96726 2.70709 0.203589 -0.567906 0.797518 
-1.24785 1.90718 2.63101 0.203589 -0.567906 0.797518 
-1.344 1.95208 2.68739 0.203589 -0.567906 0.797518 
-1.47293 2.00838 2.7602 0.203589 -0.567906 0.797518 
-1.16383 1.87764 2.58865 0.203589 -0.567906 0.797518 
-1.1151 1.87515 2.57452 0.203589 -0.567906 0.797518 
-1.14338 1.86834 2.57684 0.203589 -0.567906 0.797518 
-1.14559 1.90577 2.60406 0.203589 -0.567906 0.797518 
-1.10896 1.85021 2.55519 0.203589 -0.567906 0.797518 
-1.07967 1.88534 2.5728 0.203589 -0.567906 0.797518 
-1.11228 1.9116 2.59978 0.203589 -0.567906 0.797518 
-1.08981 1.83884 2.54223 0.203589 -0.567906 0.797518 
-1.05467 1.87329 2.55786 0.203589 -0.567906 0.797518 
-1.08667 1.86188 2.55785 0.203589 -0.567906 0.797518 
-1.0791 1.90838 2.58906 0.203589 -0.567906 0.797518 
-1.12999 1.92362 2.61283 0.203589 -0.567906 0.797518 
-0.779507 1.68631 2.35485 0.203589 -0.567906 0.797518 
-0.802458 1.69774 2.36881 0.203589 -0.567906 0.797518 
-0.778894 1.73659 2.39052 0.203589 -0.567906 0.797518 
-0.735341 1.65093 2.31844 0.203589 -0.567906 0.797518 
-0.763019 1.71413 2.37049 0.203589 -0.567906 0.797518 
-0.753734 1.66801 2.33527 0.203589 -0.567906 0.797518 
-0.91608 1.74492 2.43125 0.203589 -0.567906 0.797518 
-0.83636 1.70973 2.38596 0.203589 -0.567906 0.797518 
-0.960831 1.76679 2.45818 0.203589 -0.567906 0.797518 
-0.889103 1.73185 2.4151 0.203589 -0.567906 0.797518 
-0.861388 1.72208 2.4011 0.203589 -0.567906 0.797518 
-0.986361 1.78104 2.47481 0.203589 -0.567906 0.797518 
-1.05667 1.81725 2.51844 0.203589 -0.567906 0.797518 
-0.94296 1.75364 2.44428 0.203589 -0.567906 0.797518 
-1.03116 1.80255 2.5015 0.203589 -0.567906 0.797518 
-1.19514 1.86849 2.59007 0.203589 -0.567906 0.797518 
-1.0134 1.77816 2.47962 0.203589 -0.567906 0.797518 
-1.21169 1.88494 2.60599 0.203589 -0.567906 0.797518 
-1.11174 1.82681 2.53922 0.203589 -0.567906 0.797518 
-1.15104 1.84628 2.56306 0.203589 -0.567906 0.797518 
-0.740025 1.75761 2.39564 0.203589 -0.567906 0.797518 
-0.73074 1.72161 2.36763 0.203589 -0.567906 0.797518 
-0.738801 1.68939 2.34672 0.203589 -0.567906 0.797518 
-0.697723 1.72151 2.35919 0.203589 -0.567906 0.797518 
-0.711515 1.69975 2.34718 0.203589 -0.567906 0.797518 
-0.885186 1.82726 2.48208 0.203589 -0.567906 0.797518 
-1.34354 2.06039 2.76445 0.203589 -0.567906 0.797518 
-0.836137 1.80075 2.45075 0.203589 -0.567906 0.797518 
-1.00452 1.88146 2.55097 0.203589 -0.567906 0.797518 
-1.16859 1.96232 2.6502 0.203589 -0.567906 0.797518 
-1.25079 2.00075 2.69843 0.203589 -0.567906 0.797518 
-1.30404 2.02503 2.72923 0.203589 -0.567906 0.797518 
-1.09272 1.82838 2.50145 -0.570637 -0.730873 -0.374429 
-1.31104 1.93772 2.62072 -0.570637 -0.730873 -0.374429 
-1.26219 1.91326 2.59403 -0.570637 -0.730873 -0.374429 
-1.54683 2.03659 2.78694 -0.570637 -0.730873 -0.374429 
-1.35009 1.9611 2.63465 -0.570637 -0.730873 -0.374429 
-1.06843 1.81947 2.48185 -0.570637 -0.730873 -0.374429 
-1.2267 1.89182 2.58175 -0.570637 -0.730873 -0.374429 
-1.41455 1.99851 2.65988 -0.570637 -0.730873 -0.374429 
-1.46252 2.00501 2.72017 -0.570637 -0.730873 -0.374429 
-1.50549 2.04804 2.70182 -0.570637 -0.730873 -0.374429 
-1.37156 1.96426 2.66113 -0.570637 -0.730873 -0.374429 
-1.28707 1.92922 2.60083 -0.570637 -0.730873 -0.374429 
-1.48605 2.02037 2.72607 -0.570637 -0.730873 -0.374429 
-0.980803 1.77346 2.43809 -0.570637 -0.730873 -0.374429 
-1.18769 1.87177 2.56146 -0.570637 -0.730873 -0.374429 
-1.40526 1.9795 2.68272 -0.570637 -0.730873 -0.374429 
-1.17035 1.8713 2.53599 -0.570637 -0.730873 -0.374429 
-1.50438 2.02502 2.7449 -0.570637 -0.730873 -0.374429 
-1.11665 1.84074 2.51378 -0.570637 -0.730873 -0.374429 
-1.00637 1.78545 2.45365 -0.570637 -0.730873 -0.374429 
-1.55171 2.05937 2.75005 -0.570637 -0.730873 -0.374429 
-1.31335 1.92438 2.65018 -0.570637 -0.730873 -0.374429 
-1.45779 2.02002 2.68378 -0.570637 -0.730873 -0.374429 
-1.53111 2.04854 2.7398 -0.570637 -0.730873 -0.374429 
-1.43663 1.99224 2.70565 -0.570637 -0.730873 -0.374429 
-1.144 1.85941 2.51907 -0.570637 -0.730873 -0.374429 
-1.04069 1.8032 2.47131 -0.570637 -0.730873 -0.374429 
-0.825765 1.69187 2.36105 -0.570637 -0.730873 -0.374429 
-1.24119 1.88715 2.61287 -0.570637 -0.730873 -0.374429 
-1.33431 1.94303 2.64576 -0.570637 -0.730873 -0.374429 
-1.22002 1.89884 2.55796 -0.570637 -0.730873 -0.374429 
-1.33105 1.95574 2.6161 -0.570637 -0.730873 -0.374429 
-1.52267 2.02714 2.76857 -0.570637 -0.730873 -0.374429 
-1.43948 2.01519 2.66535 -0.570637 -0.730873 -0.374429 
-1.37882 1.98217 2.63733 -0.570637 -0.730873 -0.374429 
-1.5649 2.07948 2.73101 -0.570637 -0.730873 -0.374429 
-0.912098 1.73651 2.40549 -0.570637 -0.730873 -0.374429 
-1.13418 1.84263 2.53676 -0.570637 -0.730873 -0.374429 
-1.52619 2.05804 2.71385 -0.570637 -0.730873 -0.374429 
-1.11357 1.85608 2.47927 -0.570637 -0.730873 -0.374429 
-0.884815 1.75397 2.33007 -0.570637 -0.730873 -0.374429 
-0.976421 1.79501 2.38952 -0.570637 -0.730873 -0.374429 
-1.20321 1.89745 2.53511 -0.570637 -0.730873 -0.374429 
-0.930474 1.75733 2.39294 -0.570637 -0.730873 -0.374429 
-1.17938 1.88953 2.51429 -0.570637 -0.730873 -0.374429 
-0.863244 1.74738 2.31009 -0.570637 -0.730873 -0.374429 
-0.952655 1.78124 2.38018 -0.570637 -0.730873 -0.374429 
-0.903181 1.75832 2.34953 -0.570637 -0.730873 -0.374429 
-1.0044 1.80282 2.41688 -0.570637 -0.730873 -0.374429 
-1.02343 1.80567 2.44026 -0.570637 -0.730873 -0.374429 
-0.807082 1.71894 2.28002 -0.570637 -0.730873 -0.374429 
-0.890604 1.73317 2.37932 -0.570637 -0.730873 -0.374429 
-0.774726 1.68996 2.28718 -0.570637 -0.730873 -0.374429 
-0.851288 1.72529 2.33487 -0.570637 -0.730873 -0.374429 
-1.04714 1.83029 2.42844 -0.570637 -0.730873 -0.374429 
-1.05243 1.82134 2.45388 -0.570637 -0.730873 -0.374429 
-1.34084 1.97268 2.59806 -0.570637 -0.730873 -0.374429 
-0.785703 1.67483 2.3333 -0.570637 -0.730873 -0.374429 
-1.30826 1.95468 2.58353 -0.570637 -0.730873 -0.374429 
-1.15922 1.88668 2.48917 -0.570637 -0.730873 -0.374429 
-1.28551 1.94361 2.57047 -0.570637 -0.730873 -0.374429 
-0.826264 1.71542 2.31603 -0.570637 -0.730873 -0.374429 
-0.748276 1.69255 2.24194 -0.570637 -0.730873 -0.374429 
-0.925402 1.76574 2.36889 -0.570637 -0.730873 -0.374429 
-0.878837 1.73784 2.35234 -0.570637 -0.730873 -0.374429 
-0.950532 1.76256 2.41327 -0.570637 -0.730873 -0.374429 
-1.09337 1.85071 2.45901 -0.570637 -0.730873 -0.374429 
-1.22525 1.91545 2.53362 -0.570637 -0.730873 -0.374429 
-1.25419 1.92098 2.56685 -0.570637 -0.730873 -0.374429 
-0.7926 1.69007 2.31414 -0.570637 -0.730873 -0.374429 
-1.40967 2.00674 2.63647 -0.570637 -0.730873 -0.374429 
-1.06895 1.84145 2.43988 -0.570637 -0.730873 -0.374429 
-1.24841 1.92942 2.54165 -0.570637 -0.730873 -0.374429 
-1.13969 1.87821 2.47595 -0.570637 -0.730873 -0.374429 
-0.971544 1.77986 2.41159 -0.570637 -0.730873 -0.374429 
-0.826501 1.7039 2.33878 -0.570637 -0.730873 -0.374429 
-0.757068 1.67263 2.29404 -0.570637 -0.730873 -0.374429 
-0.861596 1.71556 2.36947 -0.570637 -0.730873 -0.374429 
-0.997296 1.81018 2.39177 -0.570637 -0.730873 -0.374429 
-0.773337 1.70266 2.26037 -0.570637 -0.730873 -0.374429 
-1.48451 2.04009 2.68539 -0.570637 -0.730873 -0.374429 
-0.772903 1.78456 2.31348 -0.200652 0.568258 -0.798011 
-0.828422 1.7608 2.31063 -0.200652 0.568258 -0.798011 
-0.80179 1.77407 2.31333 -0.200652 0.568258 -0.798011 
-0.72819 1.76828 2.29054 -0.200652 0.568258 -0.798011 
-0.755277 1.76502 2.29508 -0.200652 0.568258 -0.798011 
-0.799893 1.79606 2.32852 -0.200652 0.568258 -0.798011 
-0.812894 1.74639 2.29642 -0.200652 0.568258 -0.798011 
-0.7319 1.73822 2.27006 -0.200652 0.568258 -0.798011 
-0.765574 1.72735 2.27085 -0.200652 0.568258 -0.798011 
-1.13465 1.93044 2.50916 -0.200652 0.568258 -0.798011 
-1.14387 1.9504 2.52572 -0.200652 0.568258 -0.798011 
-1.08229 1.93621 2.5 -0.200652 0.568258 -0.798011 
-1.16113 1.96326 2.53927 -0.200652 0.568258 -0.798011 
-1.10526 1.9441 2.51144 -0.200652 0.568258 -0.798011 
-1.19783 1.93157 2.52599 -0.200652 0.568258 -0.798011 
-1.16147 1.93016 2.51577 -0.200652 0.568258 -0.798011 
-1.12311 1.8992 2.48397 -0.200652 0.568258 -0.798011 
-1.09774 1.89997 2.47809 -0.200652 0.568258 -0.798011 
-1.51124 2.12452 2.74296 -0.200652 0.568258 -0.798011 
-1.48007 2.09861 2.71659 -0.200652 0.568258 -0.798011 
-1.45316 2.0807 2.69701 -0.200652 0.568258 -0.798011 
-1.48405 2.11926 2.73232 -0.200652 0.568258 -0.798011 
-1.47178 2.06335 2.68937 -0.200652 0.568258 -0.798011 
-1.52957 2.13598 2.75578 -0.200652 0.568258 -0.798011 
-1.50417 2.10227 2.72531 -0.200652 0.568258 -0.798011 
-1.53997 2.08577 2.72264 -0.200652 0.568258 -0.798011 
-1.55464 2.10511 2.74014 -0.200652 0.568258 -0.798011 
-1.49972 2.08072 2.70884 -0.200652 0.568258 -0.798011 
-1.19565 1.90785 2.50854 -0.200652 0.568258 -0.798011 
-0.938031 1.79154 2.36033 -0.200652 0.568258 -0.798011 
-1.00834 1.83027 2.40576 -0.200652 0.568258 -0.798011 
-1.10576 1.87497 2.46231 -0.200652 0.568258 -0.798011 
-1.37407 1.99188 2.61367 -0.200652 0.568258 -0.798011 
-1.07507 1.86489 2.44734 -0.200652 0.568258 -0.798011 
-1.4585 2.04441 2.67251 -0.200652 0.568258 -0.798011 
-1.31804 1.98163 2.59215 -0.200652 0.568258 -0.798011 
-1.3827 2.01024 2.62894 -0.200652 0.568258 -0.798011 
-0.774753 1.86019 2.18923 -0.570637 -0.730873 -0.374429 
-0.760114 1.83602 2.21398 -0.570637 -0.730873 -0.374429 
-0.731354 1.81847 2.20438 -0.570637 -0.730873 -0.374429 
-0.806551 1.89634 2.16727 -0.570637 -0.730873 -0.374429 
-0.748054 1.84586 2.17651 -0.570637 -0.730873 -0.374429 
-0.750277 1.81833 2.23341 -0.570637 -0.730873 -0.374429 
-0.756097 1.87613 2.12987 -0.570637 -0.730873 -0.374429 
-0.793266 1.87678 2.18511 -0.570637 -0.730873 -0.374429 
-0.72932 1.79342 2.25 -0.570637 -0.730873 -0.374429 
-0.78573 1.849 2.22767 -0.570637 -0.730873 -0.374429 
-0.801451 1.86935 2.21201 -0.570637 -0.730873 -0.374429 
-0.764293 1.79849 2.2933 -0.570637 -0.730873 -0.374429 
-0.783656 1.83285 2.25592 -0.570637 -0.730873 -0.374429 
-0.759396 1.80959 2.26427 -0.570637 -0.730873 -0.374429 
-0.774141 1.85297 2.11295 0.203589 -0.567906 0.797518 
-0.818774 1.83541 2.11175 0.203589 -0.567906 0.797518 
-0.843891 1.8604 2.13593 0.203589 -0.567906 0.797518 
-0.800573 1.85774 2.12305 0.203589 -0.567906 0.797518 
-0.798189 1.82469 2.0989 0.203589 -0.567906 0.797518 
-0.855593 1.88623 2.1573 0.203589 -0.567906 0.797518 
-0.820374 1.88666 2.14868 0.203589 -0.567906 0.797518 
-0.790599 1.87759 2.13467 0.203589 -0.567906 0.797518 
-1.15794 2.02918 2.33584 0.203589 -0.567906 0.797518 
-1.22972 2.03611 2.35898 0.203589 -0.567906 0.797518 
-1.18354 2.02863 2.34194 0.203589 -0.567906 0.797518 
-1.13104 2.04013 2.33682 0.203589 -0.567906 0.797518 
-1.15816 2.00293 2.31719 0.203589 -0.567906 0.797518 
-1.13365 2.01219 2.31758 0.203589 -0.567906 0.797518 
-1.15959 2.0546 2.35437 0.203589 -0.567906 0.797518 
-1.19942 2.06257 2.37015 0.203589 -0.567906 0.797518 
-1.22991 2.05744 2.37423 0.203589 -0.567906 0.797518 
-1.17176 2.07233 2.37009 0.203589 -0.567906 0.797518 
-1.51341 2.2169 2.55976 0.203589 -0.567906 0.797518 
-1.54297 2.23231 2.57823 0.203589 -0.567906 0.797518 
-1.56001 2.25424 2.59818 0.203589 -0.567906 0.797518 
-1.51536 2.19423 2.54409 0.203589 -0.567906 0.797518 
-1.54522 2.2005 2.55613 0.203589 -0.567906 0.797518 
-1.56858 2.22113 2.57676 0.203589 -0.567906 0.797518 
-1.57212 2.19021 2.55562 0.203589 -0.567906 0.797518 
-1.59209 2.20283 2.56968 0.203589 -0.567906 0.797518 
-1.2734 2.03741 2.37098 0.203589 -0.567906 0.797518 
-1.20727 2.0108 2.33526 0.203589 -0.567906 0.797518 
-1.39783 2.10193 2.44852 0.203589 -0.567906 0.797518 
-1.11942 1.97253 2.2857 0.203589 -0.567906 0.797518 
-1.03372 1.93095 2.23434 0.203589 -0.567906 0.797518 
-1.35394 2.08204 2.42321 0.203589 -0.567906 0.797518 
-0.878876 1.85258 2.13923 0.203589 -0.567906 0.797518 
-1.48432 2.14026 2.49776 0.203589 -0.567906 0.797518 
-1.06541 1.94364 2.25142 0.203589 -0.567906 0.797518 
-0.907581 1.87021 2.15907 0.203589 -0.567906 0.797518 
-0.949417 1.88699 2.18164 0.203589 -0.567906 0.797518 
-1.55682 2.17224 2.53894 0.203589 -0.567906 0.797518 
-0.989589 1.91133 2.20917 0.203589 -0.567906 0.797518 
-1.29633 2.05259 2.38762 0.203589 -0.567906 0.797518 
-1.4584 2.12524 2.48049 0.203589 -0.567906 0.797518 
-0.97147 1.8954 2.19322 0.203589 -0.567906 0.797518 
-1.33409 2.06815 2.40828 0.203589 -0.567906 0.797518 
-1.42127 2.11163 2.46138 0.203589 -0.567906 0.797518 
-0.858379 1.8414 2.12606 0.203589 -0.567906 0.797518 
-1.13481 1.99 2.30205 0.203589 -0.567906 0.797518 
-1.50966 2.15347 2.51361 0.203589 -0.567906 0.797518 
-1.37164 2.09425 2.4364 0.203589 -0.567906 0.797518 
-1.52494 2.16845 2.52816 0.203589 -0.567906 0.797518 
-1.56651 2.22272 2.45492 -0.570637 -0.730873 -0.374429 
-1.52792 2.17058 2.49765 -0.570637 -0.730873 -0.374429 
-1.14296 1.987 2.2694 -0.570637 -0.730873 -0.374429 
-1.1902 2.01094 2.29463 -0.570637 -0.730873 -0.374429 
-1.23648 2.04192 2.30476 -0.570637 -0.730873 -0.374429 
-1.28459 2.06517 2.33269 -0.570637 -0.730873 -0.374429 
-1.43823 2.14909 2.40307 -0.570637 -0.730873 -0.374429 
-1.60354 2.21294 2.53022 -0.570637 -0.730873 -0.374429 
-1.50812 2.16598 2.47647 -0.570637 -0.730873 -0.374429 
-1.5385 2.20513 2.44653 -0.570637 -0.730873 -0.374429 
-1.61099 2.25401 2.46169 -0.570637 -0.730873 -0.374429 
-1.08644 1.96248 2.23114 -0.570637 -0.730873 -0.374429 
-1.17417 2.0159 2.26063 -0.570637 -0.730873 -0.374429 
-1.49789 2.18585 2.42228 -0.570637 -0.730873 -0.374429 
-1.36608 2.11133 2.36681 -0.570637 -0.730873 -0.374429 
-1.51819 2.20016 2.42532 -0.570637 -0.730873 -0.374429 
-1.41602 2.11689 2.43193 -0.570637 -0.730873 -0.374429 
-1.61404 2.23159 2.50991 -0.570637 -0.730873 -0.374429 
-1.30841 2.07523 2.34934 -0.570637 -0.730873 -0.374429 
-1.46894 2.14588 2.45599 -0.570637 -0.730873 -0.374429 
-1.6221 2.25059 2.48523 -0.570637 -0.730873 -0.374429 
-1.21102 2.02073 2.30725 -0.570637 -0.730873 -0.374429 
-1.33088 2.07837 2.37739 -0.570637 -0.730873 -0.374429 
-1.58643 2.22861 2.47374 -0.570637 -0.730873 -0.374429 
-1.57283 2.19866 2.51131 -0.570637 -0.730873 -0.374429 
-1.50612 2.17661 2.45275 -0.570637 -0.730873 -0.374429 
-0.999447 1.91975 2.18197 -0.570637 -0.730873 -0.374429 
-1.40981 2.13824 2.38095 -0.570637 -0.730873 -0.374429 
-1.11778 1.97381 2.25675 -0.570637 -0.730873 -0.374429 
-0.936272 1.88354 2.15634 -0.570637 -0.730873 -0.374429 
-1.24118 2.02943 2.33619 -0.570637 -0.730873 -0.374429 
-1.47407 2.17749 2.40233 -0.570637 -0.730873 -0.374429 
-1.34475 2.10445 2.34776 -0.570637 -0.730873 -0.374429 
-1.1683 1.99856 2.28542 -0.570637 -0.730873 -0.374429 
-1.53363 2.1868 2.47476 -0.570637 -0.730873 -0.374429 
-0.97068 1.90392 2.16902 -0.570637 -0.730873 -0.374429 
-1.45679 2.15124 2.4271 -0.570637 -0.730873 -0.374429 
-1.212 2.03541 2.28021 -0.570637 -0.730873 -0.374429 
-1.35454 2.08873 2.39321 -0.570637 -0.730873 -0.374429 
-1.06432 1.95541 2.21125 -0.570637 -0.730873 -0.374429 
-1.39572 2.11018 2.41411 -0.570637 -0.730873 -0.374429 
-1.04258 1.94171 2.20485 -0.570637 -0.730873 -0.374429 
-1.43645 2.1342 2.42932 -0.570637 -0.730873 -0.374429 
-1.55423 2.20269 2.4752 -0.570637 -0.730873 -0.374429 
-1.01691 1.91756 2.21278 -0.570637 -0.730873 -0.374429 
-1.29571 2.08262 2.31566 -0.570637 -0.730873 -0.374429 
-1.37424 2.10455 2.3924 -0.570637 -0.730873 -0.374429 
-1.29213 2.05702 2.36 -0.570637 -0.730873 -0.374429 
-1.25611 2.04913 2.32059 -0.570637 -0.730873 -0.374429 
-1.38807 2.13147 2.36108 -0.570637 -0.730873 -0.374429 
-1.25465 2.06041 2.29643 -0.570637 -0.730873 -0.374429 
-1.10781 1.97925 2.23102 -0.570637 -0.730873 -0.374429 
-1.4785 2.16264 2.43794 -0.570637 -0.730873 -0.374429 
-1.44667 2.12985 2.45331 -0.570637 -0.730873 -0.374429 
-1.15136 2.00308 2.25088 -0.570637 -0.730873 -0.374429 
-1.59228 2.2163 2.50658 -0.570637 -0.730873 -0.374429 
-0.951444 1.92574 2.09735 -0.570637 -0.730873 -0.374429 
-0.91844 1.92368 2.05119 -0.570637 -0.730873 -0.374429 
-1.07073 1.97908 2.17497 -0.570637 -0.730873 -0.374429 
-1.0407 1.96103 2.16442 -0.570637 -0.730873 -0.374429 
-1.09428 1.98808 2.19327 -0.570637 -0.730873 -0.374429 
-1.03468 1.98217 2.11416 -0.570637 -0.730873 -0.374429 
-1.30861 2.10501 2.29172 -0.570637 -0.730873 -0.374429 
-1.15547 2.02904 2.20666 -0.570637 -0.730873 -0.374429 
-1.23865 2.07281 2.24799 -0.570637 -0.730873 -0.374429 
-0.885862 1.87099 2.10412 -0.570637 -0.730873 -0.374429 
-0.948374 1.93917 2.06656 -0.570637 -0.730873 -0.374429 
-1.43001 2.16939 2.3511 -0.570637 -0.730873 -0.374429 
-0.879842 1.88652 2.06477 -0.570637 -0.730873 -0.374429 
-1.14148 2.03294 2.17778 -0.570637 -0.730873 -0.374429 
-0.831046 1.87494 2.01311 -0.570637 -0.730873 -0.374429 
-1.00293 1.95011 2.12824 -0.570637 -0.730873 -0.374429 
-1.112 2.01584 2.16624 -0.570637 -0.730873 -0.374429 
-0.963882 1.92288 2.12182 -0.570637 -0.730873 -0.374429 
-0.852354 1.89521 2.00607 -0.570637 -0.730873 -0.374429 
-1.36226 2.12695 2.33064 -0.570637 -0.730873 -0.374429 
-1.02079 1.94257 2.17005 -0.570637 -0.730873 -0.374429 
-1.08858 2.00183 2.15788 -0.570637 -0.730873 -0.374429 
-0.913411 1.89621 2.09696 -0.570637 -0.730873 -0.374429 
-0.975452 1.95025 2.08618 -0.570637 -0.730873 -0.374429 
-1.04516 1.97649 2.14114 -0.570637 -0.730873 -0.374429 
-1.17844 2.03805 2.22405 -0.570637 -0.730873 -0.374429 
-1.11492 2.00514 2.19148 -0.570637 -0.730873 -0.374429 
-1.44855 2.1708 2.37655 -0.570637 -0.730873 -0.374429 
-1.02399 1.96577 2.1298 -0.570637 -0.730873 -0.374429 
-1.19217 2.03711 2.24676 -0.570637 -0.730873 -0.374429 
-0.990173 1.92692 2.15394 -0.570637 -0.730873 -0.374429 
-1.20977 2.0622 2.22473 -0.570637 -0.730873 -0.374429 
-0.897965 1.86864 2.12708 -0.570637 -0.730873 -0.374429 
-0.853873 1.86053 2.07583 -0.570637 -0.730873 -0.374429 
-1.22016 2.05175 2.26083 -0.570637 -0.730873 -0.374429 
-1.06711 1.99073 2.14681 -0.570637 -0.730873 -0.374429 
-1.26809 2.07894 2.28083 -0.570637 -0.730873 -0.374429 
-1.31996 2.10241 2.31404 -0.570637 -0.730873 -0.374429 
-1.54646 2.22592 2.41821 -0.570637 -0.730873 -0.374429 
-0.826325 1.83467 2.08424 -0.570637 -0.730873 -0.374429 
-0.861197 1.85199 2.10357 -0.570637 -0.730873 -0.374429 
-0.918117 1.91175 2.07389 -0.570637 -0.730873 -0.374429 
-0.854219 1.88466 2.02943 -0.570637 -0.730873 -0.374429 
-0.937947 1.89948 2.12789 -0.570637 -0.730873 -0.374429 
-1.00228 1.96612 2.09611 -0.570637 -0.730873 -0.374429 
-1.33274 2.11945 2.30032 -0.570637 -0.730873 -0.374429 
-0.823751 1.85067 2.0492 -0.570637 -0.730873 -0.374429 
-1.27569 2.09556 2.26007 -0.570637 -0.730873 -0.374429 
-1.35515 2.13367 2.30676 -0.570637 -0.730873 -0.374429 
-1.13017 2.0001 2.22447 -0.570637 -0.730873 -0.374429 
-1.39177 2.14992 2.33083 -0.570637 -0.730873 -0.374429 
-1.18048 2.05101 2.20194 -0.570637 -0.730873 -0.374429 
-0.898773 1.90455 2.05848 -0.570637 -0.730873 -0.374429 
-1.52365 2.21466 2.40542 -0.570637 -0.730873 -0.374429 
-1.46878 2.18695 2.3759 -0.570637 -0.730873 -0.374429 
-0.824819 1.93253 2.02341 -0.200652 0.568258 -0.798011 
-0.876219 1.92113 2.02833 -0.200652 0.568258 -0.798011 
-0.853908 1.93825 2.03487 -0.200652 0.568258 -0.798011 
-0.828685 1.90586 2.00539 -0.200652 0.568258 -0.798011 
-0.800651 1.92693 2.01329 -0.200652 0.568258 -0.798011 
-0.811969 1.95394 2.03541 -0.200652 0.568258 -0.798011 
-0.886929 1.95579 2.05573 -0.200652 0.568258 -0.798011 
-0.860343 1.97314 2.06135 -0.200652 0.568258 -0.798011 
-0.836937 1.95571 2.04301 -0.200652 0.568258 -0.798011 
-1.21368 2.09905 2.24068 -0.200652 0.568258 -0.798011 
-1.19766 2.08514 2.22671 -0.200652 0.568258 -0.798011 
-1.17705 2.07601 2.21498 -0.200652 0.568258 -0.798011 
-1.15503 2.11141 2.23462 -0.200652 0.568258 -0.798011 
-1.23462 2.11129 2.25472 -0.200652 0.568258 -0.798011 
-1.20845 2.15003 2.27569 -0.200652 0.568258 -0.798011 
-1.19058 2.12215 2.25129 -0.200652 0.568258 -0.798011 
-1.25395 2.12155 2.26693 -0.200652 0.568258 -0.798011 
-1.23222 2.13637 2.27198 -0.200652 0.568258 -0.798011 
-1.54804 2.28577 2.45853 -0.200652 0.568258 -0.798011 
-1.52322 2.28993 2.4552 -0.200652 0.568258 -0.798011 
-1.53712 2.30569 2.46996 -0.200652 0.568258 -0.798011 
-1.53827 2.26823 2.44356 -0.200652 0.568258 -0.798011 
-1.56666 2.31155 2.48162 -0.200652 0.568258 -0.798011 
-1.5786 2.27634 2.45956 -0.200652 0.568258 -0.798011 
-1.60067 2.28394 2.47057 -0.200652 0.568258 -0.798011 
-1.56465 2.25709 2.44231 -0.200652 0.568258 -0.798011 
-1.61139 2.3127 2.49379 -0.200652 0.568258 -0.798011 
-1.48863 2.20211 2.38385 -0.200652 0.568258 -0.798011 
-1.2892 2.11613 2.27201 -0.200652 0.568258 -0.798011 
-1.05318 2.01054 2.13691 -0.200652 0.568258 -0.798011 
-1.14611 2.05376 2.19128 -0.200652 0.568258 -0.798011 
-1.59201 2.25064 2.44465 -0.200652 0.568258 -0.798011 
-1.36121 2.15643 2.31899 -0.200652 0.568258 -0.798011 
-1.40385 2.17573 2.34355 -0.200652 0.568258 -0.798011 
-0.851745 2.02938 1.97727 -0.570637 -0.730873 -0.374429 
-0.853883 2.00867 2.02079 -0.570637 -0.730873 -0.374429 
-0.783122 1.95669 2.0143 -0.570637 -0.730873 -0.374429 
