ply
format ascii 1.0
comment Created by CloudCompare v2.11.3 (Anoia)
comment Created 05/05/2022 12:43
obj_info Generated by CloudCompare!
element vertex 865
property float x
property float y
property float z
property float nx
property float ny
property float nz
end_header
-3.05761 -1.12112 2.42222 0.237292 -0.497548 0.834349 
-2.85091 -1.10508 2.37987 -0.382697 -0.268638 0.883955 
-2.40485 -1.28524 2.84769 -0.685731 -0.727629 -0.0181558 
-1.5464 -1.64575 3.78352 0.6867 -0.673954 -0.27245 
-1.47287 -1.68316 3.88045 -0.382737 -0.910942 -0.153942 
-1.2285 -1.73595 4.01719 -0.329575 -0.821571 0.465189 
-0.997641 -1.79827 4.17934 -0.230958 -0.451349 0.861941 
0.67194 -1.12348 2.42389 0.475443 0.0338634 0.879095 
1.44624 -1.16654 2.53563 0.573367 0.273257 0.772387 
-3.5233 -1.88561 4.37974 -0.0441467 -0.696378 0.716316 
-2.47309 -1.26691 2.7664 0.143304 -0.107177 0.983858 
-1.57458 -1.62093 3.68755 0.705002 -0.643977 -0.297096 
-1.7059 -1.32187 2.90817 0.724417 -0.662896 -0.189179 
-1.39593 -1.71607 3.93527 -0.271332 -0.948986 0.160639 
-0.790525 -1.81624 4.19564 0.362376 -0.467737 0.806167 
-0.534893 -1.72188 3.94972 0.989917 -0.131912 0.0516179 
-0.490747 -1.19384 2.57346 -0.509283 0.012158 0.860513 
0.303651 -1.16268 2.49174 0.431621 0.337449 0.836559 
1.15086 -1.12973 2.40583 -0.746113 -0.505644 0.433174 
-3.23401 -1.87739 4.32821 0.485364 -0.485364 0.727217 
-1.69956 -1.29507 2.80473 0.624944 0.236508 0.743982 
-1.43507 -1.66392 3.76832 -0.625508 -0.768822 -0.132864 
-0.522233 -1.69276 3.84314 0.993522 -0.0733019 0.0868345 
-0.625983 -1.20601 2.57126 0.70258 -0.68405 -0.196105 
-0.018539 -1.26206 2.71717 -0.139835 -0.0167802 0.990033 
0.184165 -1.22487 2.62002 0.650011 0.227112 0.725193 
-3.03565 -1.87626 4.29512 0.60778 -0.409051 0.680647 
-3.36519 -1.20563 2.53766 0.824163 0.505631 0.255135 
-3.21803 -1.24625 2.64438 -0.702918 -0.711237 -0.00693213 
-2.80893 -1.18279 2.47723 -0.933678 0.011464 0.357931 
-2.75065 -1.24813 2.64859 -0.919853 -0.0142312 0.392005 
-1.76282 -1.56388 3.47511 0.854193 -0.46716 0.228289 
-1.08041 -1.80957 4.11858 -0.722279 -0.286669 0.629392 
-0.711813 -1.81185 4.12424 0.216343 -0.367347 0.904573 
-0.53534 -1.64874 3.69713 0.729099 -0.644429 -0.230489 
-0.33927 -1.23967 2.62483 -0.562491 0.0206293 0.826546 
0.475353 -1.16722 2.43487 0.292096 -0.124041 0.948311 
1.34729 -1.21516 2.56041 -0.391869 -0.297332 0.87065 
1.52654 -1.1663 2.4323 0.898983 0.164885 0.405761 
-2.86733 -1.83795 4.1644 0.593812 0.386553 0.705666 
-3.28705 -1.18772 2.45537 0.221913 -0.852931 0.472508 
-3.12677 -1.35729 2.901 -0.726201 -0.68747 0.00414972 
-3.05897 -1.42737 3.08543 -0.409343 -0.497409 0.764868 
-2.11655 -1.75285 3.94015 -0.713802 -0.699723 -0.0295658 
-1.92133 -1.81863 4.11297 0.182101 -0.423932 0.887198 
-1.60657 -1.30724 2.76872 0.250103 -0.0455852 0.967146 
-0.604721 -1.81888 4.11288 -0.388518 -0.666267 0.636508 
0.746816 -1.15343 2.36382 0.766024 0.0646737 0.639551 
0.810317 -1.1246 2.28847 0.463936 -0.118482 0.87791 
0.961168 -1.10182 2.22844 0.193524 -0.326307 0.925242 
-3.42208 -1.9288 4.37314 -0.0910256 -0.381764 0.919766 
-3.13583 -1.17923 2.39775 0.453279 -0.67072 0.587089 
-2.96593 -1.16553 2.36146 0.151759 -0.599522 0.785839 
-2.70133 -1.30654 2.73294 -0.601894 -0.0179876 0.798374 
-1.84029 -1.63503 3.59843 0.669166 0.548415 0.501456 
-1.53589 -1.39445 2.96414 -0.698541 -0.707402 -0.107809 
-1.13737 -1.79516 4.02004 -0.685586 -0.599265 0.413344 
-0.912871 -1.84439 4.14966 -0.00963866 -0.59622 0.802763 
-0.63862 -1.18678 2.41678 -0.792293 -0.0762096 0.605363 
-0.240772 -1.26698 2.62815 0.604981 -0.257472 0.753462 
0.573733 -1.19163 2.42945 -0.191858 -0.181417 0.96451 
1.23203 -1.20465 2.46412 -0.690304 -0.341072 0.638083 
-3.09679 -1.25872 2.57213 0.915682 0.398528 -0.0519819 
-1.31164 -1.75758 3.88982 -0.448519 -0.868727 0.210104 
0.0781329 -1.30714 2.69974 0.398057 -0.21592 0.891588 
0.256345 -1.25192 2.55437 0.690581 0.0441402 0.721907 
1.05944 -1.13502 2.24568 -0.70668 -0.176287 0.685219 
-2.87543 -1.8048 3.98394 0.705352 0.702419 0.0953179 
-3.29428 -1.27723 2.58584 0.726777 0.679793 0.0983718 
-3.07386 -1.42724 2.98334 -0.679774 -0.733035 0.0238271 
-2.78483 -1.2641 2.55099 -0.926548 0.0820311 0.367123 
-2.594 -1.34126 2.75549 -0.0895893 -0.187769 0.978119 
-2.06477 -1.83098 4.05347 -0.598073 -0.383887 0.703519 
-1.83765 -1.82291 4.03216 0.915688 -0.180298 0.359177 
-0.438555 -1.27812 2.58854 -0.26041 -0.294939 0.919346 
-0.104327 -1.30893 2.67021 -0.741429 -0.299454 0.600509 
0.377426 -1.2313 2.465 0.472199 -0.137183 0.870752 
-3.151 -1.92097 4.26167 -0.0647309 -0.737932 0.671763 
-2.86347 -1.20078 2.34745 -0.592692 -0.354309 0.723313 
-2.40434 -1.35838 2.76652 -0.37411 -0.169274 0.911805 
-1.2166 -1.79308 3.92221 -0.423831 -0.833482 0.354506 
-0.567696 -1.26008 2.50561 -0.710904 -0.13677 0.689862 
0.671961 -1.22566 2.41556 0.369619 -0.259772 0.892132 
1.1294 -1.19045 2.32256 -0.754108 -0.10773 0.647854 
1.44355 -1.27342 2.5433 0.412587 -0.281655 0.866281 
-3.29596 -1.96396 4.34516 0.38824 -0.32072 0.863949 
-2.95782 -1.91296 4.20974 0.1891 -0.65647 0.730266 
-2.97965 -1.47636 3.04594 0.632829 -0.301117 0.713341 
-1.52048 -1.36496 2.74987 -0.541863 -0.791467 0.28278 
-1.32873 -1.74947 3.7745 -0.683136 -0.728773 -0.0470636 
-3.0549 -1.88815 4.11246 0.170983 -0.95185 -0.254455 
-3.2541 -1.23592 2.36924 0.542968 -0.449983 0.709014 
-3.01703 -1.40823 2.82961 0.976217 0.126246 -0.176244 
-1.00058 -1.89068 4.1206 -0.209227 -0.640081 0.73927 
-0.772431 -1.89534 4.13323 0.528575 -0.521863 0.669528 
-0.54554 -1.85749 4.03241 0.882014 -0.36336 0.300035 
0.17289 -1.32553 2.61143 0.603997 -0.576927 0.549857 
0.873343 -1.18651 2.24076 0.386277 -0.269041 0.882274 
-3.07248 -1.23272 2.32469 0.219966 -0.638058 0.7379 
-2.81978 -1.27996 2.45116 -0.933324 0.0322726 0.357581 
-2.34772 -1.44302 2.8887 -0.723555 -0.690096 -0.0153355 
-1.75411 -1.66676 3.48928 0.819006 0.41825 0.392805 
1.2901 -1.29142 2.4874 -0.567725 -0.377938 0.731335 
1.50926 -1.28363 2.46686 0.834524 -0.207495 0.510408 
1.55561 -1.23978 2.34929 0.966397 -0.11136 0.231679 
-3.42456 -1.51833 3.05534 -0.0213619 -0.315402 0.948718 
-3.34649 -1.55151 3.14465 -0.57121 -0.819804 -0.0405014 
-2.78831 -1.9084 4.1045 0.720508 0.172861 0.671556 
-3.25535 -1.30585 2.48458 0.72909 0.67585 0.107959 
-1.61046 -1.41655 2.78371 0.765463 0.372168 0.524935 
-1.46294 -1.44704 2.86628 -0.693281 -0.713888 -0.0986196 
-0.5529 -1.80554 3.83086 0.916489 -0.371929 -0.147368 
-0.0182811 -1.37613 2.67739 -0.171476 -0.611548 0.772402 
0.500221 -1.26998 2.39302 0.121034 -0.393708 0.911233 
0.759686 -1.24235 2.31952 0.848252 -0.347083 0.400002 
0.974161 -1.19498 2.19244 0.332174 -0.317143 0.888302 
-3.14855 -1.93858 4.15417 0.756264 -0.583586 0.29579 
-3.55317 -1.31356 2.46914 0.807219 -0.571469 -0.147717 
-2.96257 -1.24821 2.2938 0.0633015 -0.530326 0.845427 
-2.75588 -1.37501 2.63587 -0.920727 -0.0656705 0.384641 
-2.6676 -1.4117 2.73458 -0.303632 -0.178852 0.935852 
-2.51639 -1.41503 2.74364 0.0759664 -0.23039 0.970129 
-1.98164 -1.90207 4.0577 -0.27661 -0.557961 0.78241 
-1.09063 -1.88428 4.01093 -0.905456 -0.386003 0.176499 
-0.704562 -1.90062 4.05529 0.421099 -0.667434 0.614172 
-0.663783 -1.32912 2.51513 0.737235 -0.651403 -0.179327 
-0.624463 -1.28724 2.40214 -0.819497 -0.356648 0.448583 
-0.502128 -1.33526 2.53149 -0.501247 -0.544834 0.672241 
-0.352584 -1.34717 2.56383 -0.0176253 -0.508422 0.860928 
-0.203405 -1.36364 2.60865 -0.215468 -0.0859383 0.972722 
0.292542 -1.31882 2.48903 0.548596 -0.61274 0.568852 
1.18657 -1.27939 2.38473 -0.785889 -0.180891 0.591317 
-3.38088 -2.01719 4.33513 0.146537 -0.70549 0.693405 
-3.22933 -1.99255 4.26889 0.704621 -0.544707 0.454756 
-3.70823 -1.29618 2.38538 -0.226482 0.188958 0.955511 
-3.42185 -1.48862 2.90625 0.727789 -0.598116 -0.335529 
-3.46381 -1.36919 2.58367 -0.688853 -0.724889 0.00415807 
-2.94939 -1.92256 4.0801 -0.65057 -0.75923 0.0181101 
-2.87194 -1.94842 4.14989 0.279902 -0.708552 0.647773 
-3.01605 -1.50239 2.94434 -0.665131 -0.746347 0.0238047 
-1.70233 -1.66516 3.386 0.715663 0.519728 0.466593 
-1.24081 -1.82371 3.81555 -0.431621 -0.836559 0.337449 
-0.893812 -1.92732 4.09626 0.181217 -0.589335 0.787302 
1.07084 -1.24049 2.24357 -0.783302 -0.168175 0.598461 
-3.65369 -1.33963 2.46729 -0.772977 -0.612634 0.164882 
-3.13892 -1.31105 2.39041 0.729131 -0.651398 -0.209878 
-2.08028 -1.87124 3.91119 -0.709745 -0.704146 -0.0209984 
-1.80255 -1.88933 3.96031 0.817742 0.363617 0.446185 
-1.29998 -1.74808 3.57835 -0.73573 -0.671372 -0.0892237 
-1.12637 -1.86992 3.90894 -0.665175 -0.622046 0.413039 
-0.1054 -1.39021 2.61099 -0.0835304 -0.338099 0.937396 
0.0772259 -1.39671 2.62867 0.504237 -0.717247 0.480938 
1.38428 -1.35061 2.50735 -0.161636 -0.614821 0.771925 
-3.46006 -1.33831 2.42726 -0.606002 -0.229003 0.761787 
-2.85791 -1.30388 2.33498 -0.773103 0.235835 0.588807 
-2.79507 -1.37296 2.52332 -0.935204 0.0428041 0.351512 
-2.37445 -1.45828 2.75606 -0.278014 -0.380203 0.88213 
-1.88276 -1.93235 4.04585 0.266629 -0.26948 0.925359 
0.195853 -1.36845 2.51688 0.462115 -0.835542 0.297185 
0.365469 -1.33155 2.41708 0.348503 -0.675737 0.649558 
0.610964 -1.3205 2.38763 0.109788 -0.592854 0.797791 
-3.60757 -1.40015 2.55924 -0.699723 -0.713802 0.0295658 
-3.37042 -1.40975 2.58619 -0.701451 -0.712607 0.0125508 
-1.48752 -1.44802 2.69445 0.355433 -0.310059 0.881777 
-1.26295 -1.80316 3.66334 -0.685495 -0.723336 -0.082958 
-0.564032 -1.89884 3.92574 0.851645 -0.518331 -0.077679 
-0.572034 -1.82564 3.72621 0.858088 -0.476052 -0.19251 
0.82351 -1.27559 2.23052 0.43417 -0.336991 0.835424 
1.12904 -1.30188 2.30274 -0.781074 -0.25201 0.571327 
-2.76824 -1.94026 4.00202 0.795311 0.589395 0.141753 
-0.621495 -1.93869 4.00263 -0.100688 -0.798205 0.593911 
1.52826 -1.33595 2.36127 0.899723 -0.407664 0.155914 
-3.23586 -2.01338 4.16909 0.785005 -0.619451 -0.00689811 
-3.18876 -1.94454 3.98071 0.751471 0.656275 0.067791 
-3.3481 -1.39972 2.48643 -0.750756 -0.641995 0.155589 
-3.23507 -1.35087 2.35257 0.192048 0.385541 0.902483 
-3.08303 -1.3314 2.29936 0.211535 0.346802 0.913773 
-2.0479 -1.94619 3.98807 -0.634681 -0.4899 0.597644 
-0.994017 -1.97016 4.05669 -0.254217 -0.633174 0.731071 
-0.557662 -1.37694 2.43113 -0.643253 -0.619862 0.449441 
-0.428132 -1.4054 2.50994 -0.272416 -0.692989 0.6675 
1.25685 -1.36797 2.41232 -0.542518 -0.5628 0.623643 
1.55145 -1.30035 2.22829 0.8551 -0.518447 -0.00403984 
-3.30003 -2.07101 4.29561 0.238314 -0.205631 0.949169 
-2.32934 -1.53604 2.82758 -0.675708 -0.73701 -0.0153253 
-1.66765 -1.75226 3.42399 0.619502 0.435822 0.652898 
-1.3942 -1.49983 2.73023 -0.662386 -0.746086 -0.067826 
-0.80997 -1.98043 4.05398 -0.123256 -0.643012 0.755873 
-0.688029 -1.36336 2.35718 0.516708 -0.239074 0.822105 
-0.291032 -1.42936 2.54037 -0.711455 -0.14652 0.687287 
0.243057 -1.38266 2.41359 0.238299 -0.937865 0.252234 
0.475948 -1.36133 2.35561 0.254463 -0.446454 0.857862 
0.685684 -1.34577 2.31349 0.771377 -0.501801 0.391373 
0.924415 -1.29197 2.16668 0.481018 -0.349976 0.803827 
1.45995 -1.39433 2.45004 0.637947 -0.513387 0.573984 
-3.586 -1.41475 2.4537 -0.138046 0.369517 0.918913 
-2.85157 -1.92526 3.864 -0.597167 -0.799549 -0.0641349 
-2.83694 -1.39212 2.39338 -0.928434 0.0324627 0.370075 
-2.72498 -1.49354 2.67326 -0.776735 -0.194567 0.599021 
-2.62815 -1.50703 2.71111 0.0310902 -0.282299 0.958822 
-1.20618 -1.87281 3.72454 -0.614069 -0.771755 0.165268 
-0.178128 -1.45974 2.58862 -0.0761888 -0.362231 0.928969 
-0.00897181 -1.45011 2.56267 -0.0486027 -0.854019 0.517966 
0.0867234 -1.43253 2.51454 0.563019 -0.799272 0.210173 
1.02423 -1.30046 2.15395 -0.644983 -0.434989 0.628317 
1.56063 -1.28493 2.11281 0.9849 -0.125962 0.118764 
-3.16422 -2.01401 4.0759 0.817367 -0.153349 0.555333 
-3.47771 -1.43325 2.46802 0.329941 0.50846 0.795366 
-2.97774 -1.37011 2.29518 0.182525 0.386608 0.904002 
-2.47807 -1.52007 2.71197 -0.125867 -0.276908 0.952617 
-1.96153 -1.99111 4.01636 -0.288368 -0.578328 0.763139 
-1.72834 -1.95548 3.91851 0.663414 0.522334 0.53577 
-1.5665 -1.52012 2.71465 0.802605 -0.213312 0.557066 
-1.39635 -1.48852 2.62827 0.531603 -0.14956 0.833684 
-1.35534 -1.55687 2.81738 -0.691032 -0.714707 -0.10802 
-0.681419 -1.45969 2.55083 0.890439 -0.427238 -0.156798 
-3.30101 -1.4723 2.54048 -0.0400428 0.231763 0.971948 
-3.25513 -1.43631 2.44085 0.471053 -0.880306 -0.0563066 
-3.19792 -1.48955 2.58841 -0.0865854 -0.970008 -0.22713 
-2.77891 -1.47747 2.55642 -0.934993 -0.12349 0.332472 
-1.78872 -1.99536 3.9967 0.507237 -0.0175842 0.861627 
-1.11061 -1.93644 3.8359 -0.829817 -0.477962 0.288023 
-1.06928 -1.98518 3.97104 -0.833059 -0.334165 0.440847 
-0.707751 -1.99095 3.98838 0.709609 -0.393495 0.58448 
0.328393 -1.39922 2.35076 -0.00135394 -0.832674 0.553762 
1.18837 -1.38741 2.32167 -0.681534 -0.557618 0.473892 
1.36359 -1.42744 2.43388 -0.400568 -0.710472 0.578598 
-3.14886 -1.42161 2.36342 0.254463 0.446454 0.857862 
-2.05423 -1.95341 3.84669 -0.689247 -0.723354 -0.0412127 
-1.58219 -1.78115 3.36911 0.587448 0.577291 0.567133 
-0.91108 -2.01032 4.00969 0.462269 -0.748514 0.47543 
-0.601239 -1.40759 2.33388 -0.708428 -0.426384 0.562429 
0.586884 -1.40217 2.32363 0.0619114 -0.72422 0.686785 
0.724333 -1.36123 2.2107 0.523036 -0.66767 0.529764 
1.09587 -1.35825 2.2037 -0.753717 -0.46471 0.46471 
-3.22033 -2.10202 4.22422 0.943677 0.0529285 0.326608 
-2.34887 -1.5628 2.72329 0.0512936 -0.364316 0.929862 
-0.582309 -1.95327 3.81977 0.912055 -0.409306 -0.0250058 
-0.481522 -1.45422 2.42796 -0.503128 -0.56034 0.657937 
0.145376 -1.44813 2.41364 0.571402 -0.341546 0.746221 
-3.60853 -1.50515 2.52004 -0.135988 0.620167 0.772593 
-3.05026 -1.44045 2.34122 0.186457 0.357257 0.915205 
-1.16533 -1.88821 3.60256 -0.729145 -0.679662 -0.0800458 
0.824543 -1.37105 2.16452 0.350617 -0.591973 0.725697 
1.49104 -1.43335 2.34195 0.83416 -0.466194 0.294685 
1.56732 -1.31602 2.01422 0.986896 -0.040494 0.156191 
-3.50685 -1.51649 2.51529 0.058884 0.736769 0.673576 
-3.3971 -1.51117 2.50105 0.0611455 0.326543 0.943202 
-1.48884 -1.55954 2.64508 0.424743 -0.40551 0.809416 
-0.617643 -2.00466 3.89863 0.621531 -0.680882 0.387427 
-0.379492 -1.49409 2.46657 -0.404957 -0.427365 0.808313 
-0.105281 -1.52612 2.55827 0.264764 -0.416058 0.86994 
1.28321 -1.45108 2.35446 -0.565256 -0.66254 0.491454 
1.52432 -1.40676 2.23115 0.96694 -0.154037 0.203226 
-3.13521 -2.04739 3.9743 0.855209 0.498507 0.141804 
-3.55479 -1.55906 2.59791 0.345912 -0.808191 0.476626 
-2.92517 -1.45982 2.32154 0.0711508 0.301421 0.950833 
-1.32815 -1.54409 2.56595 0.31833 -0.370116 0.872743 
-1.12773 -1.94643 3.69956 -0.799835 -0.600218 -0.00136724 
-0.59428 -1.93959 3.68326 0.999856 0.000994882 -0.016913 
-0.701215 -1.45383 2.31535 0.425725 -0.365586 0.827711 
0.230513 -1.4647 2.35083 0.106661 -0.207048 0.972499 
0.451674 -1.44844 2.30609 0.220259 -0.490646 0.843061 
0.913248 -1.3772 2.10783 0.363069 -0.648925 0.668639 
-3.23431 -2.09466 4.07436 0.611799 -0.598316 0.517417 
-2.70865 -1.59134 2.65637 -0.725174 -0.278913 0.629547 
-2.59136 -1.59877 2.67743 0.039338 -0.308359 0.950456 
-1.65555 -1.872 3.45343 0.477264 -0.00398828 0.878751 
-1.41756 -1.51983 2.46089 0.67762 -0.699529 -0.226916 
-0.791453 -2.06173 3.99377 0.219072 -0.604391 0.765976 
-0.277552 -1.53825 2.51876 -0.59761 -0.361841 0.715495 
0.00117767 -1.52198 2.47394 0.563114 -0.392374 0.727287 
0.649606 -1.43619 2.23573 0.526607 -0.777832 0.343019 
1.04994 -1.39067 2.10922 -0.714608 -0.376196 0.589757 
1.54478 -1.39546 2.12563 0.979875 -0.0789242 0.183347 
-3.29228 -2.16899 4.25188 0.49659 -0.361595 0.78908 
-3.43935 -1.58407 2.59511 -0.143163 -0.670604 0.72787 
-3.26428 -1.53836 2.46629 0.400224 0.322961 0.857623 
-3.17768 -1.5199 2.41477 0.388069 0.282369 0.877308 
-2.80293 -1.52701 2.43692 -0.938812 -0.0559902 0.339848 
-2.43935 -1.61473 2.68709 -0.282369 -0.388069 0.877308 
-2.25863 -1.62628 2.72058 -0.350089 -0.454641 0.818987 
-2.21148 -1.68093 2.87547 -0.690581 -0.721907 -0.0441402 
-1.97232 -2.02137 3.84086 -0.677797 -0.734398 -0.0353756 
-1.93831 -2.05773 3.94372 -0.437323 -0.828861 0.348911 
-1.71446 -2.06233 3.958 0.458532 0.112149 0.881573 
-1.64396 -2.03002 3.86716 0.80732 0.378881 0.452419 
-1.59638 -1.08812 1.20039 0.434228 -0.872933 -0.222337 
-1.50393 -1.11268 1.27023 -0.398615 -0.897246 -0.189886 
-0.989398 -2.06566 3.97115 -0.195518 -0.635819 0.746664 
1.1679 -1.444 2.22342 -0.699421 -0.426963 0.57316 
-2.76101 -1.5777 2.54367 -0.928303 -0.18342 0.323436 
-1.65647 -1.05793 1.07332 0.316653 -0.383961 0.867355 
-1.54465 -1.06071 1.08157 -0.166338 -0.33687 0.926742 
-0.69529 -1.55651 2.49448 0.706734 -0.672411 -0.219977 
-0.549929 -1.49531 2.32189 -0.621554 -0.434921 0.651548 
1.41543 -1.50523 2.36153 0.281621 -0.587107 0.758943 
-3.28025 -2.05562 3.8643 -0.662897 -0.748699 0.00415175 
-1.84363 -2.08806 3.96496 -0.293751 -0.68863 0.662947 
-1.54648 -1.89233 3.40917 0.733316 0.343081 0.586978 
-1.504 -1.86137 3.32146 0.810166 0.331359 0.483563 
-1.08959 -2.02703 3.79544 -0.953942 -0.268586 0.133631 
0.328748 -1.5019 2.30841 0.222338 -0.361844 0.905337 
0.55051 -1.4824 2.25392 0.38294 -0.576876 0.721506 
0.72547 -1.44308 2.14307 0.566174 -0.502332 0.653536 
-3.64481 -1.71892 2.867 0.947148 0.27042 -0.172579 
-3.68865 -1.66184 2.70355 0.967652 0.121436 -0.221141 
-3.08158 -1.54817 2.38225 0.366295 0.125784 0.921958 
-2.85226 -1.5308 2.33425 -0.134104 0.0281731 0.990567 
-1.5732 -1.63174 2.62997 -0.484006 -0.346632 0.803483 
-1.06488 -2.07125 3.88885 -0.82084 -0.5074 0.262234 
-0.71086 -2.08216 3.92223 0.641001 -0.486219 0.593893 
-0.17853 -1.59194 2.52471 -0.0660439 -0.526946 0.847329 
0.0854932 -1.55331 2.41623 0.506837 -0.269793 0.818736 
-3.5009 -1.68648 2.73782 0.983386 0.122167 -0.134263 
-3.52045 -1.65231 2.63981 0.136375 0.669886 0.729832 
-3.34612 -1.60801 2.51396 0.475849 0.306239 0.824491 
-0.907849 -2.09111 3.9135 -0.395885 -0.654287 0.644348 
-0.598443 -2.02732 3.73291 0.920873 -0.38711 -0.0462418 
-0.457551 -1.55499 2.38008 -0.594469 -0.437942 0.674398 
0.813648 -1.45153 2.092 0.367701 -0.737035 0.567076 
0.965671 -1.4265 2.02141 0.197983 -0.775048 0.600087 
1.26183 -1.51648 2.28146 -0.58347 -0.433862 0.686533 
1.49589 -1.50644 2.25431 0.87112 -0.303595 0.385978 
-3.2223 -2.20186 4.18406 0.617798 -0.644586 0.450373 
-2.96104 -1.5628 2.34887 0.243432 0.0686602 0.967485 
-2.51886 -1.66491 2.64507 0.0390575 -0.448488 0.892935 
-2.33846 -1.67482 2.6749 0.0467399 -0.407305 0.912096 
-2.15793 -1.68707 2.71114 -0.114772 -0.333515 0.935732 
-1.8915 -2.05919 3.78234 -0.690325 -0.721768 -0.0500235 
-0.667347 -1.52149 2.2453 0.425724 -0.551619 0.71727 
-0.355142 -1.5844 2.42783 -0.328188 -0.480392 0.813336 
1.1102 -1.47789 2.13196 -0.728633 -0.350461 0.588448 
1.56277 -1.44401 2.03786 0.971313 0.00118309 0.2378 
-3.30194 -2.15501 4.01552 0.105973 -0.953755 -0.281286 
-3.16627 -2.14492 3.98719 0.61779 -0.486489 0.61779 
-1.49807 -1.86958 3.20475 0.99404 0.106544 -0.0230661 
-0.622033 -2.08117 3.82055 0.763509 -0.498652 0.410366 
-0.0820813 -1.61805 2.4895 0.500942 -0.484299 0.717295 
0.181867 -1.56438 2.33635 0.661482 -0.359465 0.658199 
0.427242 -1.53448 2.25208 0.114451 -0.522996 0.844616 
-3.18802 -2.12125 3.88523 -0.64048 -0.767168 0.0351912 
-3.25075 -1.63618 2.48239 0.318351 -0.0317082 0.947442 
-2.66634 -1.69033 2.64329 -0.298656 -0.434831 0.849545 
-2.08076 -1.75538 2.83514 -0.687909 -0.724786 -0.0382959 
-1.64173 -2.12618 3.91053 0.872455 0.261585 0.412791 
-1.63205 -1.15892 1.11368 0.367214 0.732797 0.572855 
-1.48149 -1.15727 1.11028 -0.30807 0.659689 0.685495 
-0.715862 -1.59538 2.38225 0.792524 -0.587223 -0.164543 
-3.76638 -1.72986 2.71211 -0.406046 0.534271 0.741404 
-3.48477 -1.76244 2.80873 0.718619 -0.632193 -0.289688 
-3.43353 -1.71082 2.65952 0.419524 0.518236 0.745272 
-3.16333 -1.63161 2.43147 0.46354 0.0448587 0.88494 
-2.7789 -1.63586 2.44701 -0.916373 -0.321813 0.238113 
-1.81383 -2.12604 3.87529 -0.674158 -0.738364 0.018145 
-1.60454 -1.97777 3.4469 -0.287138 -0.211501 0.934248 
-1.55291 -1.75566 2.80277 0.769948 0.623434 0.136049 
-0.816734 -2.14249 3.93017 -0.0800458 -0.679662 0.729145 
0.600744 -1.53284 2.17281 0.640733 -0.580191 0.502832 
0.877999 -1.47715 2.01309 0.383864 -0.798244 0.46417 
1.05305 -1.4771 2.01476 -0.808894 -0.561857 0.173227 
-3.66518 -1.75482 2.7477 0.231399 0.42249 0.876331 
-3.47653 -1.808 2.90411 0.665927 -0.65611 -0.355052 
-3.35681 -1.69668 2.58096 0.678253 0.47059 0.564374 
-0.566112 -1.57271 2.24131 -0.722656 -0.50669 0.470142 
-0.253923 -1.64713 2.4604 -0.413221 -0.595768 0.688701 
0.0010525 -1.6324 2.41934 0.245517 -0.423253 0.872112 
1.18099 -1.5476 2.18205 -0.712893 -0.336148 0.615458 
1.33327 -1.58567 2.29384 -0.405447 -0.431088 0.806087 
1.52729 -1.53697 2.15367 0.937277 -0.0779963 0.339747 
-2.74265 -1.69038 2.52971 -0.912932 -0.0889664 0.398296 
-2.43271 -1.7213 2.62222 -0.341146 -0.564265 0.751814 
-2.23832 -1.73417 2.66112 -0.415224 -0.560801 0.716304 
-2.0511 -1.758 2.73228 -0.643115 -0.764671 0.0409898 
-1.74317 -2.1724 3.94329 -0.361243 -0.398775 0.842901 
-1.60475 -2.083 3.68381 0.99486 0.0474794 -0.089438 
-1.49288 -1.97019 3.35546 0.71806 -0.0209959 0.695664 
-0.995192 -2.1527 3.89181 -0.244312 -0.691955 0.679345 
0.267115 -1.59094 2.26302 0.193031 -0.718076 0.66866 
0.676079 -1.53646 2.10706 0.620071 -0.579522 0.528835 
0.752222 -1.51266 2.03809 0.218569 -0.826893 0.518146 
0.968571 -1.47421 1.92777 0.234365 -0.927517 0.291181 
-3.03695 -1.65044 2.37211 0.433888 -0.108121 0.894456 
-2.88413 -1.63406 2.32565 0.212917 -0.143235 0.966514 
-1.07597 -2.12599 3.77944 -0.93799 -0.282092 0.201494 
0.109735 -1.63977 2.36652 0.0138285 0.0797799 0.996717 
1.43113 -1.60662 2.27988 0.4698 -0.503001 0.72545 
-1.58859 -2.15383 3.823 0.804747 -0.0320783 0.592751 
-1.47403 -1.95994 3.255 0.971813 -0.0401375 0.232311 
-0.70409 -2.16076 3.85057 0.655351 -0.527314 0.540791 
-0.731527 -1.59769 2.1974 0.599154 -0.51139 0.616031 
-0.622164 -1.58416 2.15907 -0.0461935 -0.830084 0.555722 
-0.473306 -1.63194 2.30004 -0.644841 -0.540454 0.540454 
0.501635 -1.58881 2.18163 0.272436 -0.670733 0.689852 
-3.56262 -1.8036 2.74082 0.0801786 0.324658 0.942427 
-2.59385 -1.75665 2.61087 0.258524 -0.281377 0.924117 
-0.890632 -2.16993 3.84197 -0.0258871 -0.86245 0.50548 
-0.617003 -2.13211 3.73285 0.933747 -0.327703 0.14397 
-0.382317 -1.6635 2.35542 -0.481357 -0.585344 0.652432 
-0.143042 -1.69726 2.45704 0.0615481 -0.622638 0.780086 
0.353331 -1.61298 2.21288 0.0644525 -0.614447 0.786321 
1.12421 -1.56267 2.07202 -0.80109 -0.538745 0.260784 
1.56163 -1.54547 2.02479 0.96613 -0.0664136 0.249364 
-3.86214 -1.82722 2.77012 0.0535818 -0.0688909 0.996184 
-3.75339 -1.82376 2.76084 -0.451164 0.24457 0.858275 
-3.45732 -1.80795 2.71697 0.310934 0.313909 0.897096 
-2.13774 -1.78307 2.65458 -0.184136 -0.576756 0.795893 
-1.97638 -1.84625 2.84268 -0.682396 -0.728368 -0.0617748 
-1.66345 -1.97622 3.22906 -0.704026 -0.706917 -0.067945 
-1.52324 -2.04397 3.4307 0.68407 -0.101507 0.722319 
-0.617353 -2.10304 3.61296 0.999964 -0.00692359 0.00494542 
-0.732901 -1.6606 2.30557 0.81732 -0.561079 -0.131066 
0.829713 -1.52913 1.93113 0.469413 -0.83122 0.297867 
0.984623 -1.49346 1.82727 0.148596 -0.98549 0.0820251 
1.05761 -1.5161 1.89491 -0.763075 -0.55335 0.333946 
1.25189 -1.62306 2.21204 -0.633643 -0.325735 0.701707 
-3.11427 -1.71187 2.39699 0.531844 -0.114484 0.839068 
-2.34394 -1.78191 2.6115 -0.14175 -0.601316 0.786337 
-1.62811 -2.03051 3.35419 -0.712624 -0.701511 0.00694566 
1.48518 -1.63044 2.19799 0.798153 -0.353491 0.487849 
-3.37214 -1.81547 2.6637 0.646541 0.262111 0.716437 
-3.28078 -1.76481 2.51404 0.849209 0.186557 0.494004 
-3.21472 -1.73958 2.4394 0.115239 -0.459533 0.880653 
-2.77172 -1.72304 2.39424 -0.925344 -0.263773 0.272328 
-1.65272 -2.2379 3.9346 0.312876 -0.105179 0.943952 
0.564117 -1.61499 2.10439 0.475748 -0.777758 0.410799 
-3.64554 -1.86625 2.77379 0.32011 0.0718614 0.944651 
-2.70579 -1.7873 2.54715 -0.787171 -0.344688 0.511421 
-2.02749 -1.81645 2.64076 -0.065772 -0.178182 0.981797 
-1.74358 -2.20673 3.8068 -0.708204 -0.705388 -0.0295672 
-0.788613 -2.22055 3.85714 0.123611 -0.683585 0.719328 
-0.54443 -1.65197 2.16482 -0.690135 -0.624564 0.365559 
-0.282894 -1.71376 2.35169 -0.206108 -0.723702 0.658616 
-0.0593517 -1.72968 2.40134 0.3286 -0.723567 0.607019 
0.690175 -1.58911 1.98909 0.729158 -0.647967 0.220153 
0.870215 -1.53498 1.82989 0.422467 -0.897212 0.128577 
0.988453 -1.49654 1.71666 0.0621325 -0.992991 0.100542 
1.11654 -1.57917 1.96361 -0.81093 -0.574226 0.112507 
-2.96593 -1.72637 2.32416 0.308084 -0.371826 0.875688 
-2.83237 -1.71766 2.29935 -0.119788 -0.370378 0.921125 
-2.49983 -1.80669 2.56898 0.15494 -0.609231 0.777709 
-2.24846 -1.81096 2.58385 -0.161936 -0.612937 0.77336 
-1.59427 -2.18584 3.71118 0.997696 0.00312758 -0.0677641 
-1.02338 -2.21905 3.81589 -0.489833 -0.594196 0.637961 
-0.687966 -1.64421 2.1006 0.48985 -0.725642 0.483208 
0.42746 -1.65724 2.15087 0.215705 -0.765053 0.606766 
1.19502 -1.64446 2.12042 -0.796654 -0.499705 0.340055 
1.35946 -1.6829 2.23659 -0.175458 -0.642327 0.746076 
-1.60207 -2.16229 3.60529 0.839343 0.532019 0.111622 
-1.47367 -2.05964 3.29883 0.735463 -0.64217 0.21613 
0.729726 -1.58177 1.88808 0.384197 -0.906933 0.172817 
1.52955 -1.64657 2.0909 0.902233 -0.34588 0.257571 
-3.52354 -1.89842 2.75644 0.232311 0.0683267 0.970239 
-2.40452 -1.82385 2.5436 -0.179652 -0.701717 0.689433 
-1.62488 -2.25075 3.83589 0.885294 -0.463597 0.0364931 
-1.48042 -2.03423 3.18607 0.779986 -0.519454 0.348983 
-1.07039 -2.20614 3.70737 -0.934773 -0.318016 0.158319 
-0.677826 -2.2218 3.75861 0.784303 -0.423816 0.453045 
-0.639275 -2.12961 3.48145 0.895431 -0.416913 -0.156163 
-0.59116 -1.65077 2.04204 -0.359776 -0.891228 0.276176 
-0.465036 -1.70594 2.20949 -0.579278 -0.729401 0.363884 
0.304356 -1.70152 2.2036 0.879512 0.148752 0.452031 
0.886231 -1.53577 1.71122 0.378313 -0.881725 0.281851 
1.01806 -1.50068 1.60695 -0.59253 -0.79926 -0.100453 
1.06183 -1.55732 1.77795 -0.805649 -0.588908 0.0641667 
-3.73601 -1.9209 2.78319 -0.323702 0.0214122 0.945917 
-3.41083 -1.89802 2.7177 0.47221 0.0228706 0.881189 
-3.29552 -1.84816 2.56876 0.867697 0.116171 0.483329 
-0.385996 -1.73752 2.26606 -0.499786 -0.758691 0.417854 
-0.183282 -1.76559 2.3527 -0.352634 -0.886837 0.298613 
0.782105 -1.57958 1.80143 0.450498 -0.888443 0.087868 
1.17547 -1.65003 2.01831 -0.824451 -0.552075 0.124473 
-3.05831 -1.78518 2.34163 0.479047 -0.309417 0.821447 
-0.926992 -2.25346 3.78216 0.274869 -0.952082 0.134115 
-0.632339 -2.2105 3.65526 0.91159 -0.395439 0.112388 
0.489777 -1.68071 2.06418 0.438716 -0.815214 0.378093 
0.589739 -1.66384 2.01378 0.469715 -0.743303 0.476307 
1.10879 -1.60851 1.852 -0.802721 -0.579329 0.141481 
1.2777 -1.71176 2.16653 -0.493188 -0.64468 0.584083 
-3.86848 -1.94773 2.78582 -0.334789 -0.129816 0.933308 
-2.63636 -1.86572 2.55049 -0.227254 -0.551903 0.802346 
-2.14747 -1.8713 2.57305 -0.275998 -0.684411 0.674839 
-1.91719 -1.96519 2.86069 -0.914496 -0.388765 0.112064 
-1.60575 -2.13637 3.3838 -0.470451 -0.473753 0.744469 
-0.0373541 -1.77718 2.31106 0.19173 -0.888397 0.417122 
1.4358 -1.72761 2.17721 0.449321 -0.679828 0.579607 
-3.33149 -1.9114 2.64268 0.776291 0.0645713 0.627059 
-3.24777 -1.85293 2.4656 0.933805 0.0564749 0.353296 
-3.1689 -1.82791 2.39046 0.150979 -0.49691 0.854568 
-2.77144 -1.80119 2.31354 -0.874882 -0.383614 0.295671 
-2.72877 -1.83927 2.42991 -0.906464 -0.312929 0.283546 
-1.98351 -1.90798 2.64777 -0.323914 -0.111556 0.939486 
-0.510974 -1.71667 2.08205 -0.681385 -0.703115 0.203329 
0.353014 -1.7193 2.09963 0.776767 -0.47062 0.41851 
0.628412 -1.65576 1.90928 0.617417 -0.780894 0.0948749 
0.784156 -1.58656 1.70065 0.298458 -0.800626 0.519539 
-3.63596 -1.96728 2.77033 0.333695 -0.138696 0.932422 
-2.92079 -1.80193 2.2736 0.287158 -0.295904 0.911033 
-2.31719 -1.88191 2.52517 -0.0708949 -0.672779 0.736439 
-0.762992 -1.77053 2.20351 0.706296 -0.684846 -0.179255 
-0.740027 -1.72064 2.05099 0.417443 -0.848852 0.324333 
-0.659162 -1.69253 1.96594 0.610433 -0.754803 0.240093 
-0.273672 -1.78818 2.26304 -0.189826 -0.812456 0.551255 
0.680195 -1.63713 1.81249 0.649195 -0.759515 0.0410167 
1.06064 -1.53248 1.49693 -0.718769 -0.689491 -0.0892971 
1.0806 -1.57594 1.62988 -0.778496 -0.621342 -0.0887631 
-2.52975 -1.89288 2.51663 0.213925 -0.570981 0.792601 
-1.70937 -2.31934 3.83404 -0.76601 0.43282 0.475285 
-1.54132 -2.13858 3.28201 0.130223 -0.728948 0.672069 
-1.58342 -1.92319 2.62097 0.84891 -0.498047 0.176918 
-0.75092 -2.29507 3.77097 0.337478 -0.689629 0.640719 
-0.560741 -1.69095 1.92158 -0.458384 -0.881289 0.114951 
1.16852 -1.67612 1.89693 -0.752419 -0.640838 0.152293 
1.23465 -1.72664 2.05227 -0.76003 -0.621843 0.188856 
1.52456 -1.70095 1.97731 0.738307 -0.674348 0.0125137 
-3.46945 -1.98297 2.74253 0.26829 -0.199498 0.942455 
-1.78115 -1.97441 2.73694 0.708247 -0.693273 -0.133264 
-1.78724 -1.94233 2.63839 0.197953 0.905961 0.374233 
-0.365232 -1.78745 2.17993 -0.486357 -0.816891 0.310072 
-0.16246 -1.81053 2.2528 -0.108138 -0.921227 0.373693 
0.41483 -1.7271 2.00382 0.237284 -0.933691 0.268173 
-2.43669 -1.90663 2.48095 0.199513 -0.644937 0.737734 
-2.21038 -1.90907 2.4913 -0.107379 -0.763418 0.636917 
-1.63368 -2.31846 3.76109 0.114098 -0.65347 0.748304 
-1.01874 -2.30612 3.73102 -0.41665 -0.692203 0.589286 
-0.650389 -2.25025 3.56345 0.768678 -0.629992 -0.110654 
0.527595 -1.72201 1.94845 0.343238 -0.907024 0.243918 
1.13773 -1.65746 1.75728 -0.765536 -0.643272 0.0125042 
1.35273 -1.77611 2.12568 -0.243959 -0.862189 0.443975 
1.46637 -1.76177 2.08303 0.665217 -0.678165 0.312377 
-3.7268 -2.02093 2.77798 -0.0237899 -0.146138 0.988978 
-2.67461 -1.91817 2.47388 -0.704864 -0.504903 0.498237 
-2.06294 -1.95626 2.5994 -0.638463 -0.326542 0.696948 
-0.912463 -2.30558 3.69497 0.109916 -0.792861 0.599409 
-0.6814 -2.30309 3.68987 0.768336 -0.556602 0.315996 
-0.747836 -1.74176 1.95268 0.237871 -0.967846 0.0818075 
-0.491855 -1.74868 1.97749 -0.64788 -0.76164 0.0124859 
-0.421392 -1.78188 2.08072 -0.516512 -0.836899 0.181153 
-0.0651087 -1.82314 2.21312 0.134526 -0.938967 0.316613 
0.656054 -1.65934 1.71538 0.656641 -0.753081 0.0411287 
-3.27009 -1.95299 2.53378 0.917539 -0.00128687 0.397643 
-3.08261 -1.88114 2.31306 0.600139 -0.30731 0.738508 
-2.83938 -1.85137 2.22407 0.166431 -0.556271 0.814164 
-1.95349 -2.02436 2.7726 -0.676396 0.58621 0.445921 
-1.75268 -2.32671 3.71362 -0.679959 0.593509 0.430585 
-1.64178 -2.30637 3.65227 0.719567 -0.667179 -0.192604 
-1.6765 -2.14831 3.16077 -0.756549 0.524519 0.39053 
0.578857 -1.70878 1.82602 0.541408 -0.815925 0.202837 
1.12236 -1.61554 1.54397 -0.754189 -0.643674 -0.12993 
-3.56173 -2.03564 2.74724 0.0974704 -0.279415 0.95521 
-3.38312 -2.0157 2.68715 0.639959 -0.146061 0.754399 
-3.2226 -1.92089 2.39447 0.926906 -0.136757 0.349489 
-2.99405 -1.87705 2.26105 0.406974 -0.511578 0.756743 
-2.11659 -1.95379 2.51143 -0.823103 -0.484455 0.296317 
-1.79534 -2.05728 2.83785 0.709248 -0.6587 -0.251159 
-1.65521 -2.19591 3.27195 -0.516967 0.74673 0.418497 
-0.652202 -1.74291 1.87467 0.0314018 -0.300201 0.953359 
-0.266033 -1.83171 2.15623 -0.264868 -0.934747 0.23684 
1.11464 -1.59288 1.43059 -0.7489 -0.662435 0.0181298 
1.14325 -1.65917 1.63747 -0.744474 -0.663206 -0.0769145 
1.24036 -1.75542 1.93847 -0.733031 -0.674739 0.0859818 
1.52151 -1.67225 1.68335 0.789375 -0.613337 0.0265454 
1.54173 -1.64222 1.58998 0.971312 -0.185073 0.149334 
-3.84605 -2.05967 2.77854 0.242928 -0.311925 0.918525 
-2.74737 -1.89386 2.27552 -0.881621 -0.391998 0.262834 
-2.30369 -1.9466 2.44658 -0.141189 -0.809977 0.569213 
-0.515207 -1.74019 1.82603 0.199305 -0.724605 0.659715 
-0.166252 -1.84412 2.15531 0.0727713 -0.973162 0.218314 
1.49613 -1.7372 1.84376 0.702588 -0.708359 -0.0678062 
-1.9961 -2.02968 2.67078 -0.649084 0.527697 0.547928 
-1.85239 -2.02468 2.65722 0.247164 -0.377406 0.892454 
-1.29202 -1.83139 2.05949 -0.587623 0.510171 0.628032 
-1.06296 -2.28014 3.4683 -0.699667 -0.708468 -0.0924089 
-0.820832 -2.35561 3.70823 -0.222446 -0.82075 0.526201 
-0.819329 -1.76426 1.85535 -0.106961 -0.962652 0.248717 
1.2105 -1.73623 1.79533 -0.65057 -0.75923 0.0181101 
1.32213 -1.80558 2.01422 -0.403169 -0.899597 0.167867 
1.46064 -1.79358 1.97889 0.617587 -0.78247 0.0795487 
-3.30712 -2.02607 2.60051 0.838065 -0.120973 0.531989 
-2.57301 -1.97812 2.46063 -0.00415175 -0.662897 0.748699 
-1.72002 -2.05402 2.7114 -0.388643 -0.914209 -0.114795 
-1.03384 -2.33264 3.59686 -0.659573 -0.750353 -0.0439715 
-0.434557 -1.78078 1.87102 -0.46902 -0.877109 -0.103439 
-0.389671 -1.81247 1.97073 -0.399425 -0.916173 0.0329559 
-0.321825 -1.83556 2.04478 -0.289234 -0.953306 0.0869 
-0.0694268 -1.8479 2.08711 0.125093 -0.990417 0.0585299 
0.414939 -1.79588 1.92983 0.910358 0.0551325 0.410132 
-2.18614 -1.97048 2.40171 0.0878045 -0.821908 0.562813 
-1.69283 -2.02747 2.58862 0.836899 0.181153 0.516512 
-0.2201 -1.85481 2.0651 -0.0455379 -0.99406 0.0988506 
0.47771 -1.77859 1.83465 0.561086 -0.815722 0.140642 
-3.17815 -1.95915 2.31026 0.324849 -0.586667 0.741819 
-2.93006 -1.9216 2.1947 0.286619 -0.664509 0.690128 
-2.78393 -1.91198 2.16663 -0.411844 -0.699638 0.583859 
-2.69952 -1.96875 2.34734 -0.84594 -0.450034 0.286104 
-2.48311 -1.98778 2.41071 0.182073 -0.748183 0.638021 
-0.729593 -2.36335 3.62523 0.604917 -0.789468 0.103993 
-0.46941 -1.76406 1.73275 0.28312 -0.950379 0.128932 
1.18707 -1.68759 1.51537 -0.774793 -0.620723 -0.119997 
1.21639 -1.7402 1.68234 -0.683151 -0.730265 0.00415711 
1.28238 -1.7911 1.8439 -0.509855 -0.859782 -0.0287049 
1.53507 -1.67982 1.49562 0.896649 -0.42944 0.10771 
-3.76437 -2.1122 2.74529 -0.473421 -0.263697 0.840438 
-3.644 -2.10861 2.73573 0.195859 -0.434424 0.879156 
-3.47829 -2.10103 2.71402 0.260924 -0.319231 0.911049 
-2.3437 -1.98392 2.35992 0.226946 -0.842288 0.488923 
-2.06892 -2.03888 2.53845 -0.771605 -0.481233 0.415981 
-1.77188 -2.22183 3.12352 -0.574666 0.691265 0.438078 
-1.21448 -1.94124 2.24134 -0.635138 -0.766546 -0.0949057 
-0.883829 -2.37668 3.62886 -0.49572 -0.837386 0.230319 
-0.859416 -1.84634 1.94534 0.714098 -0.683904 -0.149462 
-0.148203 -1.85802 1.99364 0.0412831 -0.998204 0.0434002 
1.18079 -1.66014 1.38507 -0.749711 -0.656543 -0.0829777 
1.36589 -1.82192 1.90141 -0.148389 -0.988109 -0.0402606 
1.46632 -1.7657 1.72431 0.784115 -0.620353 -0.0180416 
-3.24719 -2.03051 2.4527 0.951906 -0.0953211 0.291187 
-3.08821 -1.96932 2.26059 0.444045 -0.503471 0.741175 
-1.93465 -2.0676 2.59142 -0.375467 -0.591893 0.713223 
-1.86225 -2.12496 2.77504 -0.68271 0.593011 0.426901 
-1.75859 -2.27345 3.24987 -0.344621 0.501704 0.793429 
-1.35932 -1.91044 2.09947 -0.355796 0.650926 0.670601 
-0.730113 -1.82266 1.82968 -0.0736481 -0.651281 0.755255 
-0.603572 -1.81642 1.81224 0.409577 -0.638409 0.651675 
-0.364023 -1.79934 1.7614 -0.350885 -0.934379 -0.0617663 
-0.30571 -1.83585 1.87828 -0.236149 -0.963953 -0.122591 
1.4876 -1.74217 1.60735 0.846489 -0.527112 0.074898 
-1.65379 -2.26485 3.18575 0.626597 0.747873 0.219231 
-0.753927 -2.32358 3.38721 0.709775 -0.672501 -0.209671 
-0.89754 -1.83244 1.81613 0.269259 -0.499608 0.823342 
-0.190132 -1.85572 1.90126 -0.135342 -0.989041 -0.0589954 
1.30107 -1.79731 1.73779 -0.438211 -0.898794 0.0118436 
1.41012 -1.81571 1.79816 0.208834 -0.976572 -0.0519068 
-3.35328 -2.1115 2.62817 0.673364 -0.283101 0.682961 
-2.08941 -2.04239 2.42695 -0.865015 -0.482496 0.137649 
-1.65853 -2.30729 3.28303 0.233458 0.622032 0.747378 
-1.66305 -2.15776 2.80355 0.654267 0.739276 0.159392 
-1.52159 -2.01265 2.3408 0.728518 0.540193 0.421252 
-1.22731 -1.91722 2.03942 0.687775 -0.652173 0.318804 
-0.954291 -2.3712 3.49867 0.662857 -0.735004 -0.142792 
-0.259776 -1.83326 1.78594 -0.2924 -0.956161 -0.0160388 
-3.85994 -2.1613 2.7392 0.363489 -0.342017 0.866545 
-2.62552 -2.04084 2.37164 -0.274698 -0.833406 0.479558 
-2.26423 -2.01861 2.30593 -0.335389 -0.910343 0.242468 
-2.14933 -2.02092 2.31536 0.0119282 -0.891965 0.451947 
-1.88015 -2.1301 2.67102 -0.69589 -0.718114 0.00694501 
-1.4726 -1.99827 2.25361 0.527697 0.649084 0.547928 
-1.13316 -1.91133 1.97951 -0.0888374 -0.986688 -0.136217 
-0.807213 -2.38482 3.50761 0.347949 -0.918868 -0.186046 
1.24829 -1.76648 1.55178 -0.675492 -0.735472 -0.0528397 
-3.2848 -2.1031 2.51985 0.877087 -0.317697 0.360259 
-2.8795 -1.97677 2.11897 0.284213 -0.773251 0.566839 
-2.70972 -2.01107 2.23289 -0.887934 -0.385218 0.251358 
-2.43507 -2.03816 2.3243 0.201568 -0.832037 0.516803 
-1.55658 -2.30473 3.1996 0.594493 0.621439 0.510287 
-1.36889 -1.99104 2.1904 0.289321 0.618603 0.730495 
-1.0703 -1.88803 1.86306 0.717284 -0.694284 -0.0589351 
-0.961464 -1.90543 1.92103 0.720899 -0.678759 -0.139966 
-0.81223 -1.8545 1.75909 0.268769 -0.704526 0.656815 
-0.486552 -1.8177 1.64534 0.703654 -0.688324 0.176297 
1.3069 -1.80482 1.63358 -0.393543 -0.918266 0.0437269 
1.42045 -1.80755 1.64361 0.439664 -0.896914 0.0473484 
1.51451 -1.734 1.40789 0.869433 -0.482386 0.106723 
-3.57722 -2.17016 2.69014 0.0806035 -0.516145 0.8527 
-3.22539 -2.05897 2.33683 0.96451 -0.191858 0.181417 
-3.02977 -2.00827 2.17543 0.548784 -0.579178 0.602818 
-0.987739 -1.88031 1.79626 -0.0565061 -0.475478 0.877911 
-0.545147 -1.85417 1.71902 0.668452 -0.484167 0.564583 
1.24761 -1.72504 1.33055 -0.713858 -0.686807 -0.13676 
1.25486 -1.75544 1.42914 -0.750681 -0.6496 -0.120406 
-2.77526 -1.98673 2.06755 -0.325912 -0.82344 0.464464 
-2.53341 -2.06455 2.3247 0.273378 -0.817009 0.507702 
-2.00605 -2.12097 2.5166 -0.539763 -0.667557 0.512859 
-0.669227 -1.88298 1.76702 0.145273 -0.786271 0.600561 
1.46955 -1.78559 1.48663 0.734796 -0.673925 0.076813 
-3.71892 -2.19984 2.70253 0.197572 -0.505241 0.840058 
-3.46029 -2.18602 2.66172 0.295598 -0.529547 0.795111 
-3.16377 -2.05342 2.2351 0.15596 -0.673807 0.722261 
-1.8736 -2.14683 2.56221 -0.217055 -0.682397 0.698012 
-1.32817 -1.9783 2.02239 0.451627 -0.881749 0.136205 
-1.23892 -1.9499 1.93146 0.400595 -0.911935 0.0888692 
-1.17347 -1.92266 1.84379 0.459331 -0.888217 -0.00926605 
-2.37272 -2.06674 2.24986 0.236686 -0.863827 0.444728 
-2.26808 -2.05391 2.20978 0.17602 -0.885921 0.429141 
-1.71888 -2.31098 3.05998 -0.605879 -0.790969 -0.0853147 
-1.57555 -2.37522 3.27268 0.73946 -0.0984967 0.665955 
1.32753 -1.81573 1.49467 -0.374896 -0.924566 0.0680417 
-3.2611 -2.13435 2.41241 0.914774 -0.338538 0.22041 
-2.71858 -2.04411 2.1267 -0.868447 -0.439473 0.229486 
-2.63058 -2.08915 2.27592 -0.340261 -0.849876 0.402409 
-2.1513 -2.06952 2.22056 0.0117252 -0.91066 0.412989 
-3.37941 -2.20271 2.59287 0.598935 -0.50783 0.619181 
-2.98419 -2.04669 2.08727 0.384585 -0.770792 0.507911 
-2.85969 -2.02648 2.02263 0.32068 -0.853597 0.410532 
-2.4732 -2.09137 2.24362 0.267538 -0.872144 0.40962 
-2.05337 -2.11454 2.32733 -0.832949 -0.54818 0.0754637 
-1.7554 -2.23424 2.72702 -0.681516 -0.730093 -0.0500064 
-1.65703 -2.3572 3.13382 -0.601425 -0.794688 -0.0822092 
-1.48584 -2.35068 3.11533 0.925146 0.0194087 0.379116 
-1.48249 -2.10919 2.32034 0.888315 0.0561185 0.455792 
-1.41951 -2.08556 2.24415 0.774263 -0.515637 0.366926 
-1.38048 -2.03725 2.08576 0.918313 -0.372063 0.135169 
-1.0899 -1.94275 1.78015 0.146688 0.0668898 0.986919 
-0.900341 -1.93275 1.75074 0.316419 -0.519945 0.793433 
-0.749075 -1.92235 1.71911 0.156798 -0.427238 0.890439 
-0.625466 -1.904 1.6607 0.331621 -0.938927 0.0918949 
-0.52889 -1.87678 1.57342 0.517011 -0.0543488 0.854252 
-3.82798 -2.24836 2.6933 0.0883659 -0.38745 0.917646 
-1.75753 -2.20181 2.57858 -0.64048 -0.767168 0.0351912 
-1.35259 -2.00051 1.92149 0.599021 -0.776735 0.194567 
1.46298 -1.82167 1.38326 0.522327 -0.295091 0.80006 
-3.64394 -2.24636 2.64858 0.351509 -0.616366 0.704652 
-3.10801 -2.09023 2.14157 0.496069 -0.746575 0.44333 
-2.76716 -2.03733 1.97252 -0.499187 -0.822648 0.272143 
-2.21939 -2.08016 2.12498 0.137544 -0.938296 0.317305 
-2.00946 -2.16626 2.41435 -0.616768 -0.75898 0.208681 
-1.9225 -2.18535 2.47969 -0.297999 -0.766512 0.568908 
-1.13735 -2.00814 1.90736 -0.147205 0.896092 0.418748 
-3.32807 -2.21433 2.50595 0.75923 -0.490302 0.427989 
-3.2498 -2.15412 2.30706 0.932182 -0.345002 0.109589 
-2.35222 -2.10201 2.15192 0.135657 -0.946915 0.291462 
-2.10249 -2.09545 2.1348 -0.205232 -0.950048 0.235134 
-1.12534 -2.04872 1.99859 -0.283722 0.81041 0.51258 
-3.22385 -2.12742 2.17555 0.627131 -0.679803 0.380229 
-2.04703 -2.13312 2.2177 -0.764757 -0.643187 0.0381672 
-1.82146 -2.21189 2.48517 -0.0809017 -0.8445 0.529409 
-1.52904 -2.42045 3.18662 0.569592 -0.702442 0.426779 
-1.2697 -2.04983 1.95537 -0.148296 0.792411 0.591687 
-3.74079 -2.28335 2.64344 0.0469911 -0.71341 0.69917 
-3.53023 -2.27099 2.60589 0.0678701 -0.737907 0.671481 
-2.95548 -2.08078 1.98144 0.360749 -0.899664 0.245898 
-2.86915 -2.0608 1.91585 0.303778 -0.948157 0.0933691 
-2.63866 -2.13451 2.16748 -0.461989 -0.824643 0.326388 
-2.45267 -2.12777 2.14848 0.216857 -0.925539 0.310403 
-1.46361 -2.38153 3.01808 0.929816 0.13597 0.341986 
-1.01928 -2.01917 1.81429 0.425644 0.744467 0.514389 
-3.0666 -2.11334 2.04341 0.500606 -0.826077 0.258827 
-2.71011 -2.10685 2.02951 -0.825352 -0.523283 0.212059 
-2.2928 -2.11436 2.06282 0.226366 -0.955024 0.191541 
-2.17196 -2.1043 2.0319 0.0397029 -0.975728 0.215358 
-1.72739 -2.22745 2.4543 0.0832037 -0.861652 0.500633 
-1.44495 -2.13033 2.13437 0.913373 -0.376925 0.153876 
-1.2205 -2.09836 2.03096 -0.207531 0.794769 0.570327 
-1.13719 -2.11565 2.09086 0.122137 0.810811 0.572424 
-0.823911 -2.00213 1.71614 -0.0778506 0.411106 0.908257 
-3.29877 -2.22791 2.38024 0.800265 -0.568569 0.190539 
-0.934916 -2.02842 1.75735 0.525883 0.673735 0.519162 
-3.4351 -2.28943 2.54184 0.409129 -0.787532 0.460876 
-2.87949 -2.07003 1.81219 0.28068 -0.959707 -0.0134825 
-2.54473 -2.15981 2.12281 0.249043 -0.932857 0.260299 
-2.39445 -2.13945 2.05674 0.207376 -0.956605 0.2047 
-1.97688 -2.20967 2.30299 -0.630753 -0.772204 0.0764987 
-1.91227 -2.23197 2.37967 -0.304277 -0.926982 0.219362 
-1.65995 -2.30184 2.62126 -0.801756 -0.597522 0.0124196 
-1.56817 -2.43643 3.07886 -0.491848 -0.869345 0.0482204 
1.46263 -1.96249 1.53884 0.12628 0.765107 0.631399 
-3.62489 -2.31051 2.56654 0.333717 -0.765776 0.549746 
-3.26774 -2.20689 2.22275 0.857066 -0.51424 0.03154 
-3.15886 -2.16107 2.06941 0.501167 -0.77689 0.381147 
-2.99028 -2.10518 1.88321 0.301806 -0.953007 0.0262985 
-2.87923 -2.05246 1.70724 0.235744 -0.962511 -0.134152 
-2.27439 -2.12254 1.95756 0.308359 -0.950456 0.039338 
-2.18095 -2.10862 1.91284 -0.0377991 -0.996817 -0.0701984 
-2.02449 -2.16889 2.12007 -0.727347 -0.583512 0.361222 
-1.58773 -2.41428 2.96248 -0.635691 -0.771005 -0.0380569 
-3.81995 -2.33731 2.61028 -0.0612693 -0.899978 0.431608 
-2.75255 -2.12014 1.89396 -0.183455 -0.140438 0.972945 
-2.63106 -2.17196 2.07347 -0.312809 -0.899882 0.303914 
-2.17765 -2.08831 1.79841 0.108262 -0.98166 -0.15692 
-1.79967 -2.25655 2.37936 -0.0376655 -0.970797 0.236928 
-1.42807 -2.41561 2.92881 0.716641 0.41873 0.557755 
0.174394 -2.59771 3.58334 -0.275695 0.712345 0.645413 
-3.37586 -2.29761 2.44082 0.598658 -0.762071 0.246691 
-3.2702 -2.20275 2.11949 0.827118 -0.561893 -0.0123042 
-3.0897 -2.14874 1.93908 0.455072 -0.890008 0.0281903 
-2.98376 -2.09338 1.75194 0.379346 -0.910714 -0.163389 
-2.4882 -2.16997 2.02517 0.282669 -0.937123 0.204691 
-2.37572 -2.14895 1.95545 0.283276 -0.958686 0.0259773 
-2.28383 -2.11586 1.84472 0.311993 -0.941381 -0.128309 
-3.72343 -2.34672 2.55778 0.101341 -0.857827 0.503848 
-3.52697 -2.3321 2.512 0.102051 -0.896095 0.431971 
-2.26551 -2.09924 1.7422 0.334824 -0.937774 -0.0920433 
-2.19424 -2.07008 1.64434 0.168754 -0.979264 -0.112092 
-2.08698 -2.16876 1.98449 -0.703562 -0.706463 0.0768841 
-1.72292 -2.26291 2.31555 0.0583137 -0.995733 0.0715168 
-3.09196 -2.14306 1.82807 0.361406 -0.929519 -0.073348 
-1.93342 -2.23873 2.18408 -0.4226 -0.906315 -0.00130031 
-1.85534 -2.26217 2.26626 -0.131221 -0.991323 0.00771887 
-1.49161 -2.48202 3.03037 0.333135 -0.641895 0.690646 
-3.34596 -2.30111 2.32158 0.68839 -0.712386 0.136478 
-3.08202 -2.12396 1.71607 0.410704 -0.901856 -0.134079 
-2.65524 -2.19095 1.95777 -0.577855 -0.798134 0.17049 
-2.48315 -2.17991 1.92317 0.323705 -0.946118 0.00874878 
-2.40246 -2.15023 1.82259 0.346646 -0.931185 -0.11283 
-2.30901 -2.09996 1.65191 0.248648 -0.962384 -0.109508 
-2.24907 -2.07307 1.56014 0.195965 -0.979827 -0.0391931 
0.273103 -2.64539 3.59278 0.5839 0.466786 0.664208 
1.43292 -2.05416 1.57787 -0.709155 0.389953 0.587398 
-3.62367 -2.35903 2.4715 0.33352 -0.903588 0.268873 
-3.24254 -2.2268 2.02215 0.357922 -0.89996 0.248925 
-3.17987 -2.19813 1.92442 0.554636 -0.82839 -0.078419 
-2.38748 -2.13041 1.70851 0.303343 -0.947118 -0.104647 
-1.76761 -2.26576 2.19168 -0.0150425 -0.999826 -0.0110312 
0.0767256 -2.65389 3.57887 -0.744182 0.313424 0.58988 
1.53672 -2.05578 1.54004 0.746036 0.162578 0.645754 
-3.47731 -2.35516 2.41698 0.227865 -0.943224 0.241675 
-3.3362 -2.29763 2.22048 0.690492 -0.721813 -0.0469819 
0.155048 -2.68169 3.63802 0.0609519 0.418537 0.906152 
-3.75906 -2.38518 2.47017 0.288218 -0.900129 0.326648 
-3.19426 -2.19475 1.81956 0.502899 -0.859059 -0.095451 
-2.57725 -2.21176 1.89435 0.302261 -0.952311 -0.0417348 
-2.51874 -2.18782 1.81208 0.341087 -0.934282 -0.103809 
-2.41071 -2.12431 1.59345 0.373696 -0.91976 -0.119969 
-2.36306 -2.09966 1.50829 0.276815 -0.952296 0.128474 
-2.02148 -2.24899 2.03765 -0.655632 -0.581852 0.481244 
-1.58332 -2.49041 2.88972 -0.728175 -0.682033 0.0677707 
-2.49363 -2.16589 1.6892 0.299677 -0.946978 -0.115875 
-1.88101 -2.2812 2.10818 -0.223271 -0.719776 0.657322 
-1.39827 -2.49331 2.86231 0.957099 0.00611174 0.289697 
-3.61665 -2.37885 2.36247 0.141204 -0.983598 0.112239 
-3.45542 -2.36425 2.31514 0.27202 -0.960293 0.0619952 
-3.36238 -2.30856 2.12178 0.566411 -0.816855 -0.109205 
-3.34134 -2.27953 2.01998 0.665294 -0.743225 -0.0707146 
-3.28832 -2.25549 1.93672 0.479431 -0.873098 -0.0885752 
-2.6487 -2.21269 1.80312 0.105041 -0.987856 -0.114483 
-2.60873 -2.19446 1.6928 0.260927 -0.959327 -0.107746 
-2.54235 -2.16245 1.58127 0.289457 -0.948406 -0.129389 
-2.48481 -2.13449 1.48436 0.409023 -0.907563 -0.0950256 
-1.45341 -2.5431 2.95073 0.437719 -0.567537 0.697355 
-3.72508 -2.40729 2.36957 0.164459 -0.967329 0.192948 
-3.55134 -2.38167 2.28344 0.0866674 -0.99614 0.0139096 
-3.42997 -2.35288 2.18471 0.399694 -0.912611 -0.085941 
-3.30293 -2.25281 1.83397 0.377777 -0.925874 -0.006403 
0.231956 -2.74497 3.66437 0.395189 0.0714848 0.915814 
0.337911 -2.70447 3.52387 0.85434 0.208705 0.475968 
1.10169 -2.15238 1.58968 -0.123492 0.757317 0.641265 
1.38178 -2.14233 1.56107 -0.816015 0.33116 0.473764 
1.46612 -2.15756 1.6167 0.20188 0.125699 0.971311 
-3.41682 -2.29379 1.92888 0.357656 -0.907896 -0.218648 
-1.94308 -2.31129 2.02997 -0.325928 -0.907628 0.264542 
-1.78474 -2.32029 2.06572 0.458942 -0.848812 0.262472 
-3.68152 -2.40307 2.26466 0.253609 -0.966654 0.0355297 
-3.55777 -2.37719 2.17534 0.0501916 -0.993794 -0.0992679 
-3.46938 -2.35267 2.09038 0.551968 -0.810466 -0.196154 
-3.41953 -2.27896 1.82898 0.158019 -0.447962 0.879977 
0.0908182 -2.7594 3.63274 -0.712229 -0.0768802 0.697724 
1.20282 -2.17634 1.58355 0.374026 0.654134 0.657429 
1.54657 -2.16414 1.5485 0.753978 -0.0124969 0.65678 
1.61573 -2.14407 1.47866 -0.303339 0.73347 0.608282 
-3.54086 -2.33551 1.98085 -0.0080714 -0.981252 -0.192561 
-3.52996 -2.28652 1.80555 0.0396099 -0.975843 -0.214853 
-1.37267 -2.5414 2.77449 0.934389 0.0810778 0.346907 
0.0330139 -2.74432 3.53661 -0.72663 -0.627617 0.279473 
-3.6463 -2.39136 2.13079 0.396782 -0.913011 -0.0947335 
-1.86522 -2.32951 1.95748 -0.00493566 -0.999964 -0.00690992 
-3.62919 -2.37357 2.0203 0.535196 -0.838138 -0.105308 
-1.8221 -2.30936 1.83887 0.868793 -0.262306 0.419993 
-1.53363 -2.59318 2.86907 -0.562646 -0.702062 0.436507 
0.657545 -2.21907 1.58088 0.252173 0.778447 0.574829 
1.02497 -2.21911 1.59055 -0.692674 0.405024 0.59679 
-1.41506 -2.60475 2.87026 0.567041 -0.700071 0.434011 
1.12391 -2.24369 1.63386 0.0361055 0.173539 0.984165 
1.30276 -2.2305 1.59095 0.117083 0.742514 0.659518 
1.40105 -2.24004 1.6283 -0.157272 0.381136 0.911044 
1.7032 -2.19624 1.47802 0.431272 0.654401 0.621098 
-1.33967 -2.55879 2.66223 0.51072 0.681518 0.524116 
