ply
format ascii 1.0
comment Created by CloudCompare v2.11.3 (Anoia)
comment Created 08/09/2022 00:10
obj_info Generated by CloudCompare!
element vertex 880
property float x
property float y
property float z
property float nx
property float ny
property float nz
end_header
249.833 8.42179 1036.89 0.999821 0.0189021 -0.000994847 
249.988 0.602482 1320.73 0.999821 0.0189021 -0.000994847 
249.966 1.71858 1523.06 0.999821 0.0189021 -0.000994847 
249.82 9.03601 1720.36 0.999821 0.0189021 0.000994847 
249.865 6.80974 1960.88 0.999821 0.0189021 0.000994847 
249.909 4.5887 1979.89 0.999821 0.0189021 0.000994847 
249.91 4.52727 1912.6 0.999821 0.0189021 0.000994847 
249.806 9.73914 1709.52 0.999821 0.0189021 0.000994847 
249.817 9.20057 1696.3 0.999821 0.0189021 0.000994847 
249.89 5.54804 1882.41 0.999821 0.0189021 0.000994847 
249.733 11.0948 1708.7 0.998267 0.058843 0.00103233 
249.672 12.119 1253.71 0.998267 0.058843 0.00103233 
249.501 14.9811 1839.89 0.998267 0.058843 0.00103233 
249.524 14.597 1585.11 0.998267 0.058843 0.00103233 
249.708 11.5261 1697.84 0.998267 0.058843 0.00103233 
249.785 10.2281 1150.19 0.998267 0.058843 0.00103233 
249.347 17.5705 1371.13 0.998267 0.058843 0.00103233 
249.42 16.3381 1250.19 0.998267 0.058843 0.00103233 
249.339 17.7043 1444.49 0.998267 0.058843 0.00103233 
249.532 14.4612 1349.51 0.998267 0.058843 0.00103233 
249.601 13.3097 1049.85 0.998267 0.058843 0.00103233 
249.292 18.4789 1601.81 0.998267 0.058843 0.00103233 
249.263 18.9672 1279.16 0.998267 0.058843 0.00103233 
248.706 24.9093 1745.83 0.995047 0.0993978 0.00106879 
248.635 25.6226 1515.68 0.995047 0.0993978 0.00106879 
248.462 27.3601 1292 0.995047 0.0993978 0.00106879 
248.991 22.0563 1935.91 0.995047 0.0993978 0.00106879 
248.747 24.505 1722.51 0.995047 0.0993978 0.00106879 
248.619 25.7879 1791.33 0.995047 0.0993978 0.00106879 
248.783 24.1444 1272.8 0.995047 0.0993978 0.00106879 
248.926 22.7049 1777.93 0.995047 0.0993978 0.00106879 
249.152 20.4444 1502.76 0.995047 0.0993978 0.00106879 
249.023 21.7295 1727.11 0.995047 0.0993978 0.00106879 
248.852 23.4533 1205.63 0.995047 0.0993978 0.00106879 
249.063 21.3288 1024.53 0.995047 0.0993978 0.00106879 
248.545 26.5307 1224.9 0.995047 0.0993978 0.00106879 
247.461 35.1924 1983.13 0.990471 0.137718 0.00110175 
247.416 35.5154 2067.99 0.990471 0.137718 0.00110175 
247.351 35.9812 1773.77 0.990471 0.137718 0.00110175 
247.501 34.9062 2037.06 0.990471 0.137718 0.00110175 
247.325 36.1629 1639.41 0.990471 0.137718 0.00110175 
247.782 32.9034 1914.72 0.990471 0.137718 0.00110175 
247.632 33.977 1380.89 0.990471 0.137718 0.00110175 
247.813 32.683 1223.29 0.990471 0.137718 0.00110175 
247.67 33.7036 1492.81 0.990471 0.137718 0.00110175 
247.65 33.8451 1601.29 0.990471 0.137718 0.00110175 
247.045 38.1643 1113.32 0.990471 0.137718 0.00110175 
247.656 33.8007 1318.28 0.990471 0.137718 0.00110175 
247.356 35.9437 1276.39 0.990471 0.137718 0.00110175 
245.91 44.7625 1638.16 0.983996 0.178186 0.00113494 
245.339 47.9166 1966.11 0.983996 0.178186 0.00113494 
245.467 47.2126 1895.44 0.983996 0.178186 0.00113494 
245.946 44.5624 1996.19 0.983996 0.178186 0.00113494 
245.271 48.2969 1797.51 0.983996 0.178186 0.00113494 
245.375 47.7194 1797.83 0.983996 0.178186 0.00113494 
246.167 43.3427 1927.9 0.983996 0.178186 0.00113494 
246.35 42.3289 1555.43 0.983996 0.178186 0.00113494 
246.147 43.4541 1414.64 0.983996 0.178186 0.00113494 
246.733 40.2104 1178 0.983996 0.178186 0.00113494 
245.38 47.6932 1101.46 0.983996 0.178186 0.00113494 
246.16 43.3812 1284.79 0.983996 0.178186 0.00113494 
245.91 44.7593 1349.16 0.983996 0.178186 0.00113494 
246.443 41.8169 1595.14 0.983996 0.178186 0.00113494 
242.954 58.9191 1830.07 0.975939 0.218041 0.001166 
243.089 58.3122 1847.29 0.975939 0.218041 0.001166 
243.16 57.9962 1461.29 0.975939 0.218041 0.001166 
243.183 57.8908 1508.13 0.975939 0.218041 0.001166 
243.95 54.44 1903.89 0.975939 0.218041 0.001166 
243.838 54.9433 1814.86 0.975939 0.218041 0.001166 
243.966 54.3697 1754.07 0.975939 0.218041 0.001166 
245.039 49.5415 1886.53 0.975939 0.218041 0.001166 
244.541 51.7803 1448.72 0.975939 0.218041 0.001166 
243.887 54.7257 1027.49 0.975939 0.218041 0.001166 
244.567 51.6654 1443.99 0.975939 0.218041 0.001166 
244.788 50.671 1074.28 0.975939 0.218041 0.001166 
243.389 56.9658 1080.83 0.975939 0.218041 0.001166 
244.318 52.7866 1266.18 0.975939 0.218041 0.001166 
241.301 65.1992 1848.86 0.966452 0.256844 0.00119463 
241.022 66.2532 2040.29 0.966452 0.256844 0.00119463 
240.69 67.5107 1890.52 0.966452 0.256844 0.00119463 
240.849 66.9092 1408.88 0.966452 0.256844 0.00119463 
240.902 66.709 1295.71 0.966452 0.256844 0.00119463 
240.435 68.4743 1284.49 0.966452 0.256844 0.00119463 
240.509 68.196 1406.87 0.966452 0.256844 0.00119463 
242.85 59.339 1011.4 0.966452 0.256844 0.00119463 
241.564 64.2028 1170.36 0.966452 0.256844 0.00119463 
241.728 63.5861 1554.15 0.966452 0.256844 0.00119463 
241.13 65.8442 1101.02 0.966452 0.256844 0.00119463 
242.748 59.725 1686.6 0.966452 0.256844 0.00119463 
242.039 62.4071 1617.41 0.966452 0.256844 0.00119463 
240.551 68.0374 1049.16 0.966452 0.256844 0.00119463 
238.364 75.2421 1768.96 0.955752 0.294171 0.00122063 
238.422 75.0532 1774.46 0.955752 0.294171 0.00122063 
238.999 73.1765 1607.82 0.955752 0.294171 0.00122063 
237.47 78.1516 2011.44 0.955752 0.294171 0.00122063 
237.781 77.1385 1707.87 0.955752 0.294171 0.00122063 
238.668 74.2525 1575.05 0.955752 0.294171 0.00122063 
239.826 70.486 1733.98 0.955752 0.294171 0.00122063 
239.411 71.8359 1606.83 0.955752 0.294171 0.00122063 
238.903 73.4904 1208.29 0.955752 0.294171 0.00122063 
239.143 72.7099 1151.01 0.955752 0.294171 0.00122063 
238.574 74.5592 1128.14 0.955752 0.294171 0.00122063 
240.094 69.6155 1772.9 0.955752 0.294171 0.00122063 
239.536 71.4294 1231.03 0.955752 0.294171 0.00122063 
236.385 81.2446 2095.84 0.943059 0.332624 0.00124578 
234.337 87.0708 1306.9 0.943059 0.332624 0.00124578 
235.099 84.9013 1364.36 0.943059 0.332624 0.00124578 
234.188 87.4922 1273.18 0.943059 0.332624 0.00124578 
237.047 79.3593 2038.27 0.943059 0.332624 0.00124578 
234.505 86.5921 1638.27 0.943059 0.332624 0.00124578 
234.839 85.6422 1257.88 0.943059 0.332624 0.00124578 
231.483 94.3186 1866.99 0.929435 0.368984 0.00126799 
233.261 89.8385 2020.85 0.929435 0.368984 0.00126799 
233.026 90.4309 1380.92 0.929435 0.368984 0.00126799 
233.231 89.9137 1742.72 0.929435 0.368984 0.00126799 
233.491 89.2597 1208.17 0.929435 0.368984 0.00126799 
231.981 93.0656 2001.56 0.929435 0.368984 0.00126799 
236.438 81.0935 1609.19 0.943059 0.332624 0.00124578 
236.892 79.7997 1464.19 0.943059 0.332624 0.00124578 
237.428 78.277 1895.23 0.943059 0.332624 0.00124578 
237.315 78.5973 1972.18 0.943059 0.332624 0.00124578 
237.2 78.9238 1263.28 0.943059 0.332624 0.00124578 
236.569 80.7204 1281.38 0.943059 0.332624 0.00124578 
235.776 82.9747 1274.89 0.943059 0.332624 0.00124578 
231.034 95.4509 1721.89 0.929435 0.368984 0.00126799 
230.522 96.7414 1787.37 0.929435 0.368984 0.00126799 
233.226 89.9273 1100.32 0.929435 0.368984 0.00126799 
232.218 92.4664 1299.95 0.929435 0.368984 0.00126799 
232.98 90.5478 1129.89 0.929435 0.368984 0.00126799 
231.507 94.2587 1049.29 0.929435 0.368984 0.00126799 
231.299 94.7833 1810.38 0.929435 0.368984 0.00126799 
226.962 104.774 1764.94 0.913864 0.406019 0.00128895 
228.765 100.709 2019.54 0.913864 0.406019 0.00128895 
228.246 101.879 1781.5 0.913864 0.406019 0.00128895 
228.277 101.808 1664.85 0.913864 0.406019 0.00128895 
227.361 103.874 1271.03 0.913864 0.406019 0.00128895 
226.489 105.841 2049.25 0.913864 0.406019 0.00128895 
229.99 97.9492 1144.7 0.913864 0.406019 0.00128895 
229.594 98.8413 1404.67 0.913864 0.406019 0.00128895 
227.881 102.703 1379.41 0.913864 0.406019 0.00128895 
229.539 98.9658 1006.3 0.913864 0.406019 0.00128895 
227.987 102.463 1026.01 0.913864 0.406019 0.00128895 
228.096 102.218 1178.59 0.913864 0.406019 0.00128895 
229.778 98.4257 1027.83 0.913864 0.406019 0.00128895 
224.286 110.322 1880.31 0.897798 0.440405 0.00130684 
225.54 107.775 1979.51 0.897798 0.440405 0.00130684 
223.544 111.83 1970.37 0.897798 0.440405 0.00130684 
222.347 114.264 1447.54 0.897798 0.440405 0.00130684 
222.072 114.821 1260.54 0.897798 0.440405 0.00130684 
225.04 108.789 2022.72 0.897798 0.440405 0.00130684 
226.374 106.079 1305.03 0.897798 0.440405 0.00130684 
224.031 110.841 1037.71 0.897798 0.440405 0.00130684 
223.009 112.917 1181.45 0.897798 0.440405 0.00130684 
222.712 113.52 1092.66 0.897798 0.440405 0.00130684 
225.835 107.174 1175.48 0.897798 0.440405 0.00130684 
225.778 107.291 1681.68 0.897798 0.440405 0.00130684 
219.606 119.367 1703.57 0.878249 0.478202 0.00132466 
218.926 120.621 1943.84 0.878249 0.478202 0.00132466 
219.514 119.537 1813.76 0.878249 0.478202 0.00132466 
218.695 121.047 1477 0.878249 0.478202 0.00132466 
217.646 122.98 1321.87 0.878249 0.478202 0.00132466 
219.357 119.825 2037.38 0.878249 0.478202 0.00132466 
218.686 121.063 1369.44 0.878249 0.478202 0.00132466 
219.773 119.059 1144.77 0.878249 0.478202 0.00132466 
220.138 118.386 1380.43 0.878249 0.478202 0.00132466 
219.654 119.279 1125.22 0.878249 0.478202 0.00132466 
219.211 120.096 1405.46 0.878249 0.478202 0.00132466 
221.539 115.804 1217.26 0.878249 0.478202 0.00132466 
221.127 116.564 1731.96 0.878249 0.478202 0.00132466 
219.926 118.777 1548.13 0.878249 0.478202 0.00132466 
216.245 125.385 1994.21 0.858436 0.512919 0.00133921 
213.108 130.657 1412.06 0.858436 0.512919 0.00133921 
215.451 126.719 1714.41 0.858436 0.512919 0.00133921 
212.411 131.828 1363.27 0.858436 0.512919 0.00133921 
216.024 125.757 1919.39 0.858436 0.512919 0.00133921 
212.349 131.932 1199.92 0.858436 0.512919 0.00133921 
213.869 129.378 1684.97 0.858436 0.512919 0.00133921 
216.756 124.527 1100.69 0.858436 0.512919 0.00133921 
215.442 126.734 1062.79 0.858436 0.512919 0.00133921 
214.387 128.507 1142.91 0.858436 0.512919 0.00133921 
216.602 124.785 1002.64 0.858436 0.512919 0.00133921 
214.377 128.524 1165.78 0.858436 0.512919 0.00133921 
214.943 127.572 1335.14 0.858436 0.512919 0.00133921 
213.699 129.663 1118.4 0.858436 0.512919 0.00133921 
209.862 135.77 1727.61 0.838844 0.54437 0.0013508 
210.76 134.389 1898.05 0.838844 0.54437 0.0013508 
208.16 138.388 2079.51 0.838844 0.54437 0.0013508 
207.251 139.785 2080.27 0.838844 0.54437 0.0013508 
209.152 136.861 2052.31 0.838844 0.54437 0.0013508 
208.475 137.903 2034.8 0.838844 0.54437 0.0013508 
208.656 137.625 1423.22 0.838844 0.54437 0.0013508 
209.539 136.267 1299.64 0.838844 0.54437 0.0013508 
212.172 132.218 2025.55 0.838844 0.54437 0.0013508 
210.43 134.896 1632.49 0.838844 0.54437 0.0013508 
210.713 134.462 1330.28 0.838844 0.54437 0.0013508 
211.047 133.949 1129.73 0.838844 0.54437 0.0013508 
210.344 135.03 1176.76 0.838844 0.54437 0.0013508 
211.547 133.18 1170.23 0.838844 0.54437 0.0013508 
202.868 146.026 1709.5 0.815569 0.578659 0.00136155 
201.712 147.658 1454.41 0.815569 0.578659 0.00136155 
202.635 146.354 1438.96 0.815569 0.578659 0.00136155 
201.815 147.512 1709.16 0.815569 0.578659 0.00136155 
201.19 148.394 1985.65 0.815569 0.578659 0.00136155 
201.488 147.973 1414.11 0.815569 0.578659 0.00136155 
202.916 145.957 1705.62 0.815569 0.578659 0.00136155 
206.505 140.892 1138.3 0.815569 0.578659 0.00136155 
205.684 142.05 1594.41 0.815569 0.578659 0.00136155 
206.407 141.03 1483.74 0.815569 0.578659 0.00136155 
206.048 141.537 1730.47 0.815569 0.578659 0.00136155 
204.418 143.838 1593.18 0.815569 0.578659 0.00136155 
206.249 141.254 1459.22 0.815569 0.578659 0.00136155 
202.529 146.503 1041.1 0.815569 0.578659 0.00136155 
195.694 155.545 1389.92 0.792878 0.609379 0.00136939 
198.787 151.528 1729.67 0.792878 0.609379 0.00136939 
196.309 154.746 1883.13 0.792878 0.609379 0.00136939 
195.806 155.399 2097.64 0.792878 0.609379 0.00136939 
195.207 156.177 1652.99 0.792878 0.609379 0.00136939 
195.908 155.266 1514.92 0.792878 0.609379 0.00136939 
196.934 153.933 1545.63 0.792878 0.609379 0.00136939 
192.306 159.669 2042.12 0.7663 0.642481 0.00137576 
193.407 158.351 1441.66 0.7663 0.642481 0.00137576 
194.994 156.451 2006.92 0.7663 0.642481 0.00137576 
193.868 157.799 1551.07 0.7663 0.642481 0.00137576 
189.473 163.061 2039.16 0.7663 0.642481 0.00137576 
194.534 157.001 1391.99 0.7663 0.642481 0.00137576 
196.625 154.335 1177.32 0.792878 0.609379 0.00136939 
199.496 150.606 1601.07 0.792878 0.609379 0.00136939 
199.275 150.893 1728.23 0.792878 0.609379 0.00136939 
197.293 153.468 1408.98 0.792878 0.609379 0.00136939 
200.11 149.809 1382.88 0.792878 0.609379 0.00136939 
196.915 153.959 1045.57 0.792878 0.609379 0.00136939 
197.425 153.296 1006.18 0.792878 0.609379 0.00136939 
190.635 161.669 1366.08 0.7663 0.642481 0.00137576 
189.368 163.186 1890.14 0.7663 0.642481 0.00137576 
192.593 159.325 1095.21 0.7663 0.642481 0.00137576 
193.163 158.643 1020.09 0.7663 0.642481 0.00137576 
189.918 162.528 1611.37 0.7663 0.642481 0.00137576 
190.559 161.761 1172.25 0.7663 0.642481 0.00137576 
190.964 161.276 1207.55 0.7663 0.642481 0.00137576 
185.864 167.125 2031.07 0.74075 0.671779 0.00137942 
182.587 170.745 1127.98 0.74075 0.671779 0.00137942 
182.468 170.875 2093.85 0.74075 0.671779 0.00137942 
187.379 165.451 2008.9 0.74075 0.671779 0.00137942 
183.289 169.969 1243.94 0.74075 0.671779 0.00137942 
182.873 170.429 1498.71 0.74075 0.671779 0.00137942 
184.202 168.96 1837.76 0.74075 0.671779 0.00137942 
185.069 168.002 1396.32 0.74075 0.671779 0.00137942 
183.684 169.533 1152.84 0.74075 0.671779 0.00137942 
188.53 164.179 1827.14 0.74075 0.671779 0.00137942 
183.113 170.163 1083.19 0.74075 0.671779 0.00137942 
188.33 164.401 1500.85 0.74075 0.671779 0.00137942 
187.97 164.797 1557.05 0.74075 0.671779 0.00137942 
183.448 169.793 1184.59 0.74075 0.671779 0.00137942 
179.712 173.729 1756.59 0.713977 0.700167 0.001381 
179.586 173.858 2038.39 0.713977 0.700167 0.001381 
177.487 175.999 1954.72 0.713977 0.700167 0.001381 
175.531 177.995 1669.22 0.713977 0.700167 0.001381 
175.466 178.061 2077.93 0.713977 0.700167 0.001381 
177.06 176.435 1820.04 0.713977 0.700167 0.001381 
179.418 174.03 1850.34 0.713977 0.700167 0.001381 
179.493 173.953 1531.2 0.713977 0.700167 0.001381 
181.514 171.891 1317.51 0.713977 0.700167 0.001381 
177.595 175.889 1257.21 0.713977 0.700167 0.001381 
178.278 175.193 1432.04 0.713977 0.700167 0.001381 
179.912 173.525 1256.69 0.713977 0.700167 0.001381 
178.451 175.016 1259.95 0.713977 0.700167 0.001381 
172.986 180.433 1253.29 0.686096 0.72751 0.00138047 
170.168 183.087 1314.91 0.686096 0.72751 0.00138047 
174.883 178.645 1597.03 0.686096 0.72751 0.00138047 
173.551 179.9 1136.67 0.686096 0.72751 0.00138047 
169.118 184.077 1048.84 0.686096 0.72751 0.00138047 
171.946 181.412 1414.81 0.686096 0.72751 0.00138047 
173.591 179.862 1488.52 0.686096 0.72751 0.00138047 
172.197 181.176 1818.53 0.686096 0.72751 0.00138047 
168.531 184.63 2062.35 0.686096 0.72751 0.00138047 
169.029 184.16 1857.24 0.686096 0.72751 0.00138047 
168.979 184.208 1861.16 0.686096 0.72751 0.00138047 
170.565 182.713 1702.68 0.686096 0.72751 0.00138047 
169.065 184.127 1892.51 0.686096 0.72751 0.00138047 
168.363 184.788 1327.24 0.686096 0.72751 0.00138047 
163.942 188.675 1793.59 0.657235 0.753685 0.00137785 
164.256 188.402 1542.48 0.657235 0.753685 0.00137785 
166.259 186.66 1295.44 0.657235 0.753685 0.00137785 
167.53 185.555 1962.32 0.657235 0.753685 0.00137785 
166.344 186.587 1494.62 0.657235 0.753685 0.00137785 
167.74 185.372 2032.49 0.657235 0.753685 0.00137785 
163.257 189.27 1343.8 0.657235 0.753685 0.00137785 
162.95 189.538 1531.7 0.657235 0.753685 0.00137785 
161.106 191.141 1905.06 0.657235 0.753685 0.00137785 
165.929 186.947 1020.25 0.657235 0.753685 0.00137785 
164.947 187.801 1239.54 0.657235 0.753685 0.00137785 
161.229 191.034 1163.24 0.657235 0.753685 0.00137785 
162.178 190.209 1539.9 0.657235 0.753685 0.00137785 
159.791 192.253 1014.74 0.624527 0.781002 0.00137259 
159.747 192.288 1537.89 0.624527 0.781002 0.00137259 
159.956 192.121 1524.93 0.624527 0.781002 0.00137259 
159.795 192.25 1894.72 0.624527 0.781002 0.00137259 
160.142 191.971 1671.23 0.624527 0.781002 0.00137259 
156.875 194.591 1136.88 0.624527 0.781002 0.00137259 
160.014 192.074 1389.42 0.624527 0.781002 0.00137259 
157.726 193.909 1770.08 0.624527 0.781002 0.00137259 
153.396 197.382 1512.98 0.624527 0.781002 0.00137259 
154.934 196.148 1820.71 0.624527 0.781002 0.00137259 
153.714 197.127 1309.81 0.624527 0.781002 0.00137259 
153.893 196.983 1478.26 0.624527 0.781002 0.00137259 
157.807 193.844 1979.14 0.624527 0.781002 0.00137259 
152.883 197.794 1578.11 0.624527 0.781002 0.00137259 
152.068 198.419 1404.69 0.594083 0.804402 0.00136571 
150.247 199.764 2062.43 0.594083 0.804402 0.00136571 
151.172 199.081 1938.98 0.594083 0.804402 0.00136571 
151.535 198.813 1144.99 0.594083 0.804402 0.00136571 
151.135 199.108 1399.9 0.594083 0.804402 0.00136571 
149.291 200.471 1704.56 0.594083 0.804402 0.00136571 
150.954 199.242 1430.29 0.594083 0.804402 0.00136571 
145.417 203.332 1033.94 0.594083 0.804402 0.00136571 
148.85 200.796 1056.53 0.594083 0.804402 0.00136571 
147.263 201.969 1211.63 0.594083 0.804402 0.00136571 
147.972 201.445 1125.98 0.594083 0.804402 0.00136571 
149.513 200.307 1313.43 0.594083 0.804402 0.00136571 
145.099 203.568 1991.01 0.594083 0.804402 0.00136571 
148.243 201.245 1453.84 0.594083 0.804402 0.00136571 
140.226 206.911 1232.36 0.563126 0.82637 0.00135693 
141.205 206.246 1503.07 0.563126 0.82637 0.00135693 
142.887 205.103 1570.53 0.563126 0.82637 0.00135693 
143.553 204.652 1938.73 0.563126 0.82637 0.00135693 
142.273 205.52 1485 0.563126 0.82637 0.00135693 
143.615 204.61 1307.02 0.563126 0.82637 0.00135693 
141.957 205.735 1251.66 0.563126 0.82637 0.00135693 
136.682 209.317 1497.04 0.563126 0.82637 0.00135693 
139.241 207.579 1409.35 0.563126 0.82637 0.00135693 
138.379 208.165 1934.35 0.563126 0.82637 0.00135693 
140.488 206.733 1777.58 0.563126 0.82637 0.00135693 
138.322 208.203 1874.71 0.563126 0.82637 0.00135693 
138.909 207.805 2048.28 0.563126 0.82637 0.00135693 
141.162 206.275 1992.1 0.563126 0.82637 0.00135693 
133.649 211.226 2062.15 0.528668 0.848828 0.00134521 
133.816 211.123 1817.21 0.528668 0.848828 0.00134521 
135.452 210.105 2052.86 0.528668 0.848828 0.00134521 
134.32 210.809 2085.66 0.528668 0.848828 0.00134521 
134.093 210.95 1942.69 0.528668 0.848828 0.00134521 
135.646 209.984 2034.56 0.528668 0.848828 0.00134521 
133.199 211.506 2032.74 0.528668 0.848828 0.00134521 
129.816 213.612 1698.49 0.528668 0.848828 0.00134521 
135.888 209.833 1023.85 0.528668 0.848828 0.00134521 
128.682 214.318 1940.91 0.528668 0.848828 0.00134521 
127.947 214.775 1211.22 0.528668 0.848828 0.00134521 
128.165 214.64 1127.08 0.528668 0.848828 0.00134521 
129.126 214.042 1410.49 0.528668 0.848828 0.00134521 
131.242 212.724 1215.54 0.528668 0.848828 0.00134521 
126.468 215.621 1142.25 0.493986 0.869469 0.0013315 
125.802 216 1253.74 0.493986 0.869469 0.0013315 
126.956 215.344 1331.47 0.493986 0.869469 0.0013315 
125.83 215.984 1383.65 0.493986 0.869469 0.0013315 
125.649 216.087 1632.54 0.493986 0.869469 0.0013315 
127.545 215.009 1788.95 0.493986 0.869469 0.0013315 
122.295 217.994 2068.85 0.493986 0.869469 0.0013315 
121.722 218.32 1667.44 0.493986 0.869469 0.0013315 
125.985 215.896 2086.21 0.493986 0.869469 0.0013315 
122.832 217.688 1538.93 0.493986 0.869469 0.0013315 
121.099 218.673 2048.97 0.493986 0.869469 0.0013315 
122.129 218.088 1706.23 0.493986 0.869469 0.0013315 
120.6 218.957 1501.28 0.493986 0.869469 0.0013315 
118.943 219.885 1590.76 0.459279 0.888291 0.00131599 
112.085 223.431 2009.85 0.459279 0.888291 0.00131599 
119.064 219.823 1249.79 0.459279 0.888291 0.00131599 
117.708 220.524 1286.48 0.459279 0.888291 0.00131599 
118.293 220.222 1588.12 0.459279 0.888291 0.00131599 
113.302 222.802 1969.1 0.459279 0.888291 0.00131599 
116.226 221.29 1522.29 0.459279 0.888291 0.00131599 
114.388 222.241 1326.36 0.459279 0.888291 0.00131599 
114.935 221.958 1448.89 0.459279 0.888291 0.00131599 
114.091 222.394 1280 0.459279 0.888291 0.00131599 
114.868 221.993 1265.44 0.459279 0.888291 0.00131599 
111.515 223.726 1704.3 0.459279 0.888291 0.00131599 
113.798 222.546 1004.38 0.459279 0.888291 0.00131599 
110.529 224.236 1986.85 0.459279 0.888291 0.00131599 
102.649 227.928 1569.83 0.424733 0.905318 0.00129888 
103.015 227.757 1441.95 0.424733 0.905318 0.00129888 
108.35 225.262 1975.66 0.424733 0.905318 0.00129888 
106.784 225.995 1938.25 0.424733 0.905318 0.00129888 
103.682 227.445 1447.78 0.424733 0.905318 0.00129888 
102.836 227.841 1986.2 0.424733 0.905318 0.00129888 
101.814 228.318 1936.76 0.424733 0.905318 0.00129888 
105.769 226.469 1125.01 0.424733 0.905318 0.00129888 
109.754 224.606 1256.61 0.424733 0.905318 0.00129888 
106.69 226.038 1226.31 0.424733 0.905318 0.00129888 
109.035 224.941 1157.26 0.424733 0.905318 0.00129888 
110.131 224.429 1387.05 0.424733 0.905318 0.00129888 
105.759 226.474 1112.29 0.424733 0.905318 0.00129888 
109.775 224.596 1400.7 0.424733 0.905318 0.00129888 
96.2856 230.661 1789.08 0.387428 0.921899 0.00127864 
93.4003 231.873 1148.67 0.387428 0.921899 0.00127864 
99.3821 229.361 1916.98 0.387428 0.921899 0.00127864 
92.6728 232.179 1460.93 0.387428 0.921899 0.00127864 
96.9297 230.391 1892.71 0.387428 0.921899 0.00127864 
99.3038 229.394 1993.99 0.387428 0.921899 0.00127864 
98.2325 229.844 1888.19 0.387428 0.921899 0.00127864 
90.2358 233.111 1372.87 0.35071 0.936483 0.00125702 
91.0526 232.806 1152.91 0.35071 0.936483 0.00125702 
89.8846 233.243 1499.71 0.35071 0.936483 0.00125702 
88.1283 233.9 1667.58 0.35071 0.936483 0.00125702 
85.8436 234.754 1974.15 0.35071 0.936483 0.00125702 
89.5201 233.379 2070.9 0.35071 0.936483 0.00125702 
89.9345 233.224 1444.59 0.35071 0.936483 0.00125702 
100.67 228.82 1771.89 0.387428 0.921899 0.00127864 
100.026 229.09 1372.82 0.387428 0.921899 0.00127864 
98.8552 229.582 1410.99 0.387428 0.921899 0.00127864 
96.4681 230.585 1028.34 0.387428 0.921899 0.00127864 
101.058 228.657 1968.9 0.387428 0.921899 0.00127864 
100.456 228.91 1595.18 0.387428 0.921899 0.00127864 
98.9681 229.535 1040.29 0.387428 0.921899 0.00127864 
86.4957 234.51 1134.15 0.35071 0.936483 0.00125702 
84.9489 235.089 1706.32 0.35071 0.936483 0.00125702 
88.3154 233.83 1186 0.35071 0.936483 0.00125702 
84.1814 235.376 1865.15 0.35071 0.936483 0.00125702 
87.1157 234.278 1368.04 0.35071 0.936483 0.00125702 
87.9405 233.97 1397.79 0.35071 0.936483 0.00125702 
82.9281 235.845 2034.39 0.35071 0.936483 0.00125702 
76.6629 237.909 1452.81 0.311788 0.950151 0.00123236 
77.6328 237.59 1616.27 0.311788 0.950151 0.00123236 
79.1898 237.077 2040.73 0.311788 0.950151 0.00123236 
73.5211 238.944 1345.28 0.311788 0.950151 0.00123236 
74.6585 238.569 1799.03 0.311788 0.950151 0.00123236 
79.1401 237.093 2064.79 0.311788 0.950151 0.00123236 
76.4451 237.981 1920.28 0.311788 0.950151 0.00123236 
80.9541 236.496 1663.53 0.311788 0.950151 0.00123236 
77.6935 237.57 1184.45 0.311788 0.950151 0.00123236 
80.0749 236.785 1142.46 0.311788 0.950151 0.00123236 
82.4717 235.996 1904.02 0.311788 0.950151 0.00123236 
79.6094 236.939 1383.59 0.311788 0.950151 0.00123236 
77.6964 237.569 1240.69 0.311788 0.950151 0.00123236 
82.3088 236.05 1253.22 0.311788 0.950151 0.00123236 
65.6226 241.203 1516.44 0.273924 0.961751 0.00120671 
71.4113 239.549 1976.5 0.273924 0.961751 0.00120671 
69.4634 240.106 1673.8 0.273924 0.961751 0.00120671 
64.2629 241.592 1524.57 0.273924 0.961751 0.00120671 
71.2591 239.593 1937.46 0.273924 0.961751 0.00120671 
68.3139 240.434 1899.22 0.273924 0.961751 0.00120671 
70.1274 239.916 1278.76 0.273924 0.961751 0.00120671 
67.4958 240.668 1145.66 0.273924 0.961751 0.00120671 
72.8134 239.148 1807.18 0.273924 0.961751 0.00120671 
71.0107 239.664 1411.93 0.273924 0.961751 0.00120671 
70.6176 239.776 1009.62 0.273924 0.961751 0.00120671 
64.2637 241.592 1005.62 0.273924 0.961751 0.00120671 
72.2128 239.32 1476.82 0.273924 0.961751 0.00120671 
54.5545 243.969 1169.27 0.237255 0.971447 0.00118037 
57.2284 243.318 1789.98 0.237255 0.971447 0.00118037 
59.2066 242.837 2044.22 0.237255 0.971447 0.00118037 
56.67 243.454 1566.72 0.237255 0.971447 0.00118037 
60.8899 242.428 1852.86 0.237255 0.971447 0.00118037 
54.6288 243.951 1209.37 0.237255 0.971447 0.00118037 
55.075 243.842 1382.11 0.237255 0.971447 0.00118037 
50.6765 244.763 1978.32 0.196558 0.980491 0.00114946 
51.0868 244.68 1698.12 0.196558 0.980491 0.00114946 
51.4722 244.603 1528.95 0.196558 0.980491 0.00114946 
49.5899 244.982 1700.31 0.196558 0.980491 0.00114946 
50.1599 244.867 1627.13 0.196558 0.980491 0.00114946 
53.5811 244.178 1212.75 0.196558 0.980491 0.00114946 
48.291 245.244 1726.64 0.196558 0.980491 0.00114946 
57.1227 243.344 1174.21 0.237255 0.971447 0.00118037 
63.6937 241.746 1393.56 0.237255 0.971447 0.00118037 
59.9674 242.652 1103.35 0.237255 0.971447 0.00118037 
56.1013 243.592 1109.78 0.237255 0.971447 0.00118037 
63.2472 241.854 1051.4 0.237255 0.971447 0.00118037 
61.1747 242.358 1111.78 0.237255 0.971447 0.00118037 
56.3014 243.544 1071.07 0.237255 0.971447 0.00118037 
50.0113 244.897 1319.5 0.196558 0.980491 0.00114946 
46.6068 245.583 1576.22 0.196558 0.980491 0.00114946 
45.8002 245.746 1549.21 0.196558 0.980491 0.00114946 
47.2987 245.444 1571.37 0.196558 0.980491 0.00114946 
45.3403 245.838 1663.62 0.196558 0.980491 0.00114946 
47.2088 245.462 1213.36 0.196558 0.980491 0.00114946 
46.5706 245.59 1186.04 0.196558 0.980491 0.00114946 
35.626 247.431 1316.79 0.157685 0.987489 0.00111833 
38.0551 247.042 1381.33 0.157685 0.987489 0.00111833 
42.1129 246.391 1889.67 0.157685 0.987489 0.00111833 
34.8229 247.56 1106.71 0.157685 0.987489 0.00111833 
38.1797 247.022 2037.53 0.157685 0.987489 0.00111833 
40.8538 246.593 1890.16 0.157685 0.987489 0.00111833 
40.7254 246.613 1238.77 0.157685 0.987489 0.00111833 
40.862 246.591 1229.13 0.157685 0.987489 0.00111833 
41.2339 246.532 1138.78 0.157685 0.987489 0.00111833 
42.8402 246.274 1344.55 0.157685 0.987489 0.00111833 
41.9654 246.414 1249.51 0.157685 0.987489 0.00111833 
43.066 246.238 1519.92 0.157685 0.987489 0.00111833 
43.1552 246.223 1070.81 0.157685 0.987489 0.00111833 
27.2746 248.471 1493.56 0.118289 0.992979 0.00108522 
28.8862 248.277 1621.04 0.118289 0.992979 0.00108522 
29.69 248.181 1670.61 0.118289 0.992979 0.00108522 
28.2286 248.356 2056.68 0.118289 0.992979 0.00108522 
26.6695 248.543 1880.01 0.118289 0.992979 0.00108522 
28.16 248.364 1596.15 0.118289 0.992979 0.00108522 
26.7814 248.53 1536.7 0.118289 0.992979 0.00108522 
32.7549 247.814 1425.42 0.118289 0.992979 0.00108522 
31.1015 248.012 1192.04 0.118289 0.992979 0.00108522 
28.4175 248.334 1044.11 0.118289 0.992979 0.00108522 
27.1575 248.485 1063.95 0.118289 0.992979 0.00108522 
33.2455 247.755 1582.23 0.118289 0.992979 0.00108522 
29.3184 248.226 1335.16 0.118289 0.992979 0.00108522 
28.0969 248.372 1121.16 0.118289 0.992979 0.00108522 
15.4719 249.51 1235.9 0.0787849 0.996891 0.00105046 
19.6659 249.176 1922.82 0.0787849 0.996891 0.00105046 
18.2823 249.286 1576 0.0787849 0.996891 0.00105046 
15.6748 249.494 1517.72 0.0787849 0.996891 0.00105046 
18.4611 249.272 1408.36 0.0787849 0.996891 0.00105046 
15.9007 249.476 1694.84 0.0787849 0.996891 0.00105046 
19.0995 249.221 1926.56 0.0787849 0.996891 0.00105046 
21.8931 248.998 1654.19 0.0787849 0.996891 0.00105046 
23.2908 248.887 1578.34 0.0787849 0.996891 0.00105046 
24.1519 248.818 1279.05 0.0787849 0.996891 0.00105046 
20.9567 249.073 1367.71 0.0787849 0.996891 0.00105046 
18.017 249.307 1068.1 0.0787849 0.996891 0.00105046 
16.0551 249.464 1018.98 0.0787849 0.996891 0.00105046 
22.2013 248.974 1456.8 0.0787849 0.996891 0.00105046 
7.07429 249.867 1260.15 0.0395629 0.999217 0.00101443 
5.03584 249.948 2059.02 0.0395629 0.999217 0.00101443 
6.04162 249.908 1653.91 0.0395629 0.999217 0.00101443 
5.23605 249.94 1573.26 0.0395629 0.999217 0.00101443 
7.15336 249.864 1705.68 0.0395629 0.999217 0.00101443 
6.75322 249.88 1840.24 0.0395629 0.999217 0.00101443 
13.3685 249.616 1144.48 0.0395629 0.999217 0.00101443 
14.4352 249.574 1451.11 0.0395629 0.999217 0.00101443 
11.756 249.681 1410.33 0.0395629 0.999217 0.00101443 
9.94795 249.753 1429.62 0.0395629 0.999217 0.00101443 
10.2087 249.742 1275.34 0.0395629 0.999217 0.00101443 
8.771 249.799 1311.56 0.0395629 0.999217 0.00101443 
8.70749 249.802 1173.47 0.0395629 0.999217 0.00101443 
-3.64726 249.951 1633.8 0.000977516 0.999999 0.000977516 
1.63477 249.951 1880.1 0.000977516 0.999999 0.000977516 
-0.956021 249.951 1749.83 0.000977516 0.999999 0.000977516 
0.571798 249.951 1755.47 0.000977516 0.999999 0.000977516 
-0.588268 249.951 1820.2 0.000977516 0.999999 0.000977516 
1.9927 249.951 1899.28 0.000977516 0.999999 0.000977516 
2.92045 249.951 2096.27 0.000977516 0.999999 0.000977516 
3.58771 249.951 1505.16 0.000977516 0.999999 0.000977516 
2.4401 249.951 1700.85 0.000977516 0.999999 0.000977516 
-1.26752 249.951 1391.59 0.000977516 0.999999 0.000977516 
3.99621 249.951 1149.86 0.000977516 0.999999 0.000977516 
0.531467 249.951 1360.97 0.000977516 0.999999 0.000977516 
1.12851 249.951 1129.31 0.000977516 0.999999 0.000977516 
-14.4367 249.574 1406.86 -0.0395629 0.999217 0.00101443 
-10.84 249.717 1619.47 -0.0395629 0.999217 0.00101443 
-11.1299 249.706 1763.22 -0.0395629 0.999217 0.00101443 
-13.9544 249.593 1994.7 -0.0395629 0.999217 0.00101443 
-11.7874 249.679 1455.53 -0.0395629 0.999217 0.00101443 
-13.6752 249.604 1938.53 -0.0395629 0.999217 0.00101443 
-14.4494 249.573 1535.88 -0.0395629 0.999217 0.00101443 
-10.9828 249.711 1003.6 -0.0395629 0.999217 0.00101443 
-9.05496 249.788 1424.38 -0.0395629 0.999217 0.00101443 
-5.91329 249.913 1161.86 -0.0395629 0.999217 0.00101443 
-10.8349 249.717 1286.36 -0.0395629 0.999217 0.00101443 
-9.61153 249.766 1108.74 -0.0395629 0.999217 0.00101443 
-6.13589 249.904 1636.95 -0.0395629 0.999217 0.00101443 
-6.17614 249.903 1186.95 -0.0395629 0.999217 0.00101443 
-19.5598 249.184 1592.18 -0.0787849 0.996891 0.00105046 
-20.3989 249.117 1788.83 -0.0787849 0.996891 0.00105046 
-23.3408 248.883 1256.64 -0.0787849 0.996891 0.00105046 
-17.7348 249.33 2049.78 -0.0787849 0.996891 0.00105046 
-23.1206 248.9 1635.04 -0.0787849 0.996891 0.00105046 
-22.4943 248.95 1321.05 -0.0787849 0.996891 0.00105046 
-23.7099 248.853 1933.73 -0.0787849 0.996891 0.00105046 
-20.415 249.116 1438.47 -0.0787849 0.996891 0.00105046 
-17.1331 249.378 1572.51 -0.0787849 0.996891 0.00105046 
-20.0595 249.144 1122.34 -0.0787849 0.996891 0.00105046 
-15.9288 249.474 1673.82 -0.0787849 0.996891 0.00105046 
-21.7659 249.008 1290.17 -0.0787849 0.996891 0.00105046 
-14.9512 249.552 1547.2 -0.0787849 0.996891 0.00105046 
-18.673 249.255 1373.02 -0.0787849 0.996891 0.00105046 
-32.2047 247.88 1738.98 -0.118289 0.992979 0.00108522 
-31.9307 247.912 1521.39 -0.118289 0.992979 0.00108522 
-31.9001 247.916 1712.23 -0.118289 0.992979 0.00108522 
-33.2005 247.76 1263.73 -0.118289 0.992979 0.00108522 
-30.9971 248.024 2003.77 -0.118289 0.992979 0.00108522 
-34.5066 247.604 1723.98 -0.118289 0.992979 0.00108522 
-26.8204 248.525 1887.96 -0.118289 0.992979 0.00108522 
-26.2936 248.588 1385.72 -0.118289 0.992979 0.00108522 
-32.5611 247.837 1089.36 -0.118289 0.992979 0.00108522 
-28.0818 248.374 1214.96 -0.118289 0.992979 0.00108522 
-29.2864 248.229 1487.18 -0.118289 0.992979 0.00108522 
-26.6075 248.55 1501.82 -0.118289 0.992979 0.00108522 
-27.5994 248.432 1503.2 -0.118289 0.992979 0.00108522 
-27.5836 248.433 1475.31 -0.118289 0.992979 0.00108522 
-39.7328 246.772 1704.28 -0.157685 0.987489 0.00111833 
-43.3571 246.191 1920.89 -0.157685 0.987489 0.00111833 
-41.8253 246.437 1333.54 -0.157685 0.987489 0.00111833 
-38.048 247.043 1940.77 -0.157685 0.987489 0.00111833 
-36.3819 247.31 1941.9 -0.157685 0.987489 0.00111833 
-38.22 247.015 1873.82 -0.157685 0.987489 0.00111833 
-38.1471 247.027 2012.88 -0.157685 0.987489 0.00111833 
-46.6128 245.582 1943.49 -0.196558 0.980491 0.00114946 
-52.151 244.466 1999.87 -0.196558 0.980491 0.00114946 
-45.927 245.72 1732.28 -0.196558 0.980491 0.00114946 
-48.3935 245.223 1956.4 -0.196558 0.980491 0.00114946 
-51.5425 244.589 1964.94 -0.196558 0.980491 0.00114946 
-45.3258 245.841 1688.88 -0.196558 0.980491 0.00114946 
-45.7067 245.764 1804.81 -0.196558 0.980491 0.00114946 
-38.6895 246.94 1535.58 -0.157685 0.987489 0.00111833 
-35.1203 247.512 1189.73 -0.157685 0.987489 0.00111833 
-42.2367 246.371 1192.38 -0.157685 0.987489 0.00111833 
-37.0756 247.199 1536.98 -0.157685 0.987489 0.00111833 
-43.5742 246.156 1101.81 -0.157685 0.987489 0.00111833 
-37.0565 247.202 1163.83 -0.157685 0.987489 0.00111833 
-34.9726 247.536 1383.08 -0.157685 0.987489 0.00111833 
-47.9498 245.312 1141.06 -0.196558 0.980491 0.00114946 
-50.2088 244.857 1107.39 -0.196558 0.980491 0.00114946 
-53.4269 244.209 1760.71 -0.196558 0.980491 0.00114946 
-48.0484 245.293 1114.1 -0.196558 0.980491 0.00114946 
-49.6534 244.969 1071.07 -0.196558 0.980491 0.00114946 
-52.0223 244.492 1145.1 -0.196558 0.980491 0.00114946 
-58.3481 243.046 1541.42 -0.237255 0.971447 0.00118037 
-54.5536 243.969 2048.22 -0.237255 0.971447 0.00118037 
-59.6186 242.737 1267.7 -0.237255 0.971447 0.00118037 
-55.1032 243.835 1119.57 -0.237255 0.971447 0.00118037 
-55.1973 243.812 1040.75 -0.237255 0.971447 0.00118037 
-57.322 243.296 1301.97 -0.237255 0.971447 0.00118037 
-57.8043 243.178 1647.84 -0.237255 0.971447 0.00118037 
-63.6929 241.746 1770.8 -0.237255 0.971447 0.00118037 
-62.2444 242.098 1336.42 -0.237255 0.971447 0.00118037 
-58.3069 243.056 1712.9 -0.237255 0.971447 0.00118037 
-62.9862 241.918 1199.17 -0.237255 0.971447 0.00118037 
-57.9001 243.155 2078.77 -0.237255 0.971447 0.00118037 
-57.0296 243.367 2086.4 -0.237255 0.971447 0.00118037 
-64.0933 241.641 1427.66 -0.273924 0.961751 0.00120671 
-65.6644 241.191 1721.82 -0.273924 0.961751 0.00120671 
-64.3074 241.579 1338.4 -0.273924 0.961751 0.00120671 
-65.7102 241.178 1600.79 -0.273924 0.961751 0.00120671 
-68.6219 240.346 1206.75 -0.273924 0.961751 0.00120671 
-63.9384 241.685 1223.98 -0.273924 0.961751 0.00120671 
-66.9734 240.817 1222.41 -0.273924 0.961751 0.00120671 
-73.4519 238.966 1544.75 -0.273924 0.961751 0.00120671 
-68.2517 240.452 1847.71 -0.273924 0.961751 0.00120671 
-69.5702 240.075 1787.42 -0.273924 0.961751 0.00120671 
-71.3889 239.555 1362.83 -0.273924 0.961751 0.00120671 
-69.6053 240.065 1588.24 -0.273924 0.961751 0.00120671 
-70.1428 239.912 1471.75 -0.273924 0.961751 0.00120671 
-76.8494 237.847 1490.46 -0.311788 0.950151 0.00123236 
-80.002 236.809 1269.44 -0.311788 0.950151 0.00123236 
-73.8517 238.835 1004.1 -0.311788 0.950151 0.00123236 
-77.9437 237.487 1306.05 -0.311788 0.950151 0.00123236 
-75.2284 238.381 1037.57 -0.311788 0.950151 0.00123236 
-73.4655 238.962 1184.16 -0.311788 0.950151 0.00123236 
-74.2911 238.69 1851.74 -0.311788 0.950151 0.00123236 
-82.7556 235.902 1554.31 -0.311788 0.950151 0.00123236 
-77.483 237.639 1727.79 -0.311788 0.950151 0.00123236 
-82.1186 236.112 1997.24 -0.311788 0.950151 0.00123236 
-75.6474 238.243 1859.89 -0.311788 0.950151 0.00123236 
-80.6485 236.596 1799.98 -0.311788 0.950151 0.00123236 
-79.3171 237.035 1643.49 -0.311788 0.950151 0.00123236 
-82.5755 235.962 1210.34 -0.311788 0.950151 0.00123236 
-85.762 234.785 1260.36 -0.35071 0.936483 0.00125702 
-85.251 234.976 1446.81 -0.35071 0.936483 0.00125702 
-83.5275 235.62 1268.99 -0.35071 0.936483 0.00125702 
-85.7158 234.802 1487.55 -0.35071 0.936483 0.00125702 
-83.4702 235.642 1726.35 -0.35071 0.936483 0.00125702 
-84.1807 235.376 1502.34 -0.35071 0.936483 0.00125702 
-88.8724 233.621 1310.1 -0.35071 0.936483 0.00125702 
-90.2478 233.107 1578.91 -0.35071 0.936483 0.00125702 
-91.4444 232.659 1483.44 -0.35071 0.936483 0.00125702 
-86.7231 234.425 1888.3 -0.35071 0.936483 0.00125702 
-91.6573 232.58 1288.47 -0.35071 0.936483 0.00125702 
-89.9386 233.223 1913.48 -0.35071 0.936483 0.00125702 
-90.8916 232.866 1284.25 -0.35071 0.936483 0.00125702 
-88.3027 233.834 1793.71 -0.35071 0.936483 0.00125702 
-96.5689 230.542 1993.84 -0.387428 0.921899 0.00127864 
-92.9252 232.073 1291.57 -0.387428 0.921899 0.00127864 
-97.2622 230.251 1804.11 -0.387428 0.921899 0.00127864 
-93.8757 231.674 1702.81 -0.387428 0.921899 0.00127864 
-93.2364 231.942 1797.95 -0.387428 0.921899 0.00127864 
-97.1429 230.301 2020.93 -0.387428 0.921899 0.00127864 
-92.3703 232.306 1134.11 -0.387428 0.921899 0.00127864 
-100.18 229.025 1286.27 -0.387428 0.921899 0.00127864 
-97.422 230.184 1548.81 -0.387428 0.921899 0.00127864 
-94.4986 231.412 1118.5 -0.387428 0.921899 0.00127864 
-100.629 228.837 1698.45 -0.387428 0.921899 0.00127864 
-100.886 228.729 1531.28 -0.387428 0.921899 0.00127864 
-98.7637 229.62 1008.7 -0.387428 0.921899 0.00127864 
-98.6908 229.651 1601.49 -0.387428 0.921899 0.00127864 
-106.381 226.183 1398.56 -0.424733 0.905318 0.00129888 
-108.589 225.15 1059.33 -0.424733 0.905318 0.00129888 
-101.996 228.233 1723.41 -0.424733 0.905318 0.00129888 
-106.563 226.098 1418.88 -0.424733 0.905318 0.00129888 
-104.514 227.056 1546.4 -0.424733 0.905318 0.00129888 
-109.782 224.592 1035.7 -0.424733 0.905318 0.00129888 
-106.009 226.357 1031.65 -0.424733 0.905318 0.00129888 
-107.214 225.793 1404.03 -0.424733 0.905318 0.00129888 
-109.674 224.643 1776.08 -0.424733 0.905318 0.00129888 
-106.08 226.324 2092.44 -0.424733 0.905318 0.00129888 
-107.686 225.573 1512.67 -0.424733 0.905318 0.00129888 
-106.845 225.966 1792.17 -0.424733 0.905318 0.00129888 
-102.388 228.05 2071.51 -0.424733 0.905318 0.00129888 
-103.467 227.545 2063.04 -0.424733 0.905318 0.00129888 
-110.927 224.03 1615.81 -0.459279 0.888291 0.00131599 
-112.07 223.439 1664.34 -0.459279 0.888291 0.00131599 
-113.74 222.576 1459.47 -0.459279 0.888291 0.00131599 
-110.634 224.182 1917.07 -0.459279 0.888291 0.00131599 
-112.675 223.126 1796.12 -0.459279 0.888291 0.00131599 
-116.101 221.355 1266.19 -0.459279 0.888291 0.00131599 
-118.262 220.237 1036.25 -0.459279 0.888291 0.00131599 
-117.736 220.51 1402.54 -0.459279 0.888291 0.00131599 
-113.056 222.93 1976.76 -0.459279 0.888291 0.00131599 
-116.031 221.391 1689.52 -0.459279 0.888291 0.00131599 
-114.425 222.221 1638.74 -0.459279 0.888291 0.00131599 
-114.325 222.273 1612.85 -0.459279 0.888291 0.00131599 
-112.831 223.046 1905.01 -0.459279 0.888291 0.00131599 
-116.387 221.207 2037.06 -0.459279 0.888291 0.00131599 
-120.589 218.964 1613.05 -0.493986 0.869469 0.0013315 
-123.185 217.488 1516.45 -0.493986 0.869469 0.0013315 
-121.169 218.634 1479.34 -0.493986 0.869469 0.0013315 
-122.498 217.879 1091.67 -0.493986 0.869469 0.0013315 
-120.181 219.196 1058.95 -0.493986 0.869469 0.0013315 
-120.093 219.246 1036.49 -0.493986 0.869469 0.0013315 
-125.06 216.422 1272.64 -0.493986 0.869469 0.0013315 
-127.709 214.916 1048.01 -0.493986 0.869469 0.0013315 
-121.516 218.437 1849.05 -0.493986 0.869469 0.0013315 
-126.501 215.603 1316.84 -0.493986 0.869469 0.0013315 
-124.767 216.588 1886.37 -0.493986 0.869469 0.0013315 
-125.108 216.395 1542.1 -0.493986 0.869469 0.0013315 
-121.502 218.445 1823.22 -0.493986 0.869469 0.0013315 
-126.936 215.355 1398.53 -0.493986 0.869469 0.0013315 
-132.288 212.074 1452.85 -0.528668 0.848828 0.00134521 
-130.111 213.429 1709.27 -0.528668 0.848828 0.00134521 
-129.655 213.712 1683.56 -0.528668 0.848828 0.00134521 
-134.461 210.721 1035.46 -0.528668 0.848828 0.00134521 
-129.887 213.568 1291.86 -0.528668 0.848828 0.00134521 
-132.171 212.146 1185.1 -0.528668 0.848828 0.00134521 
-133.348 211.414 1150.98 -0.528668 0.848828 0.00134521 
-132.74 211.792 2091.49 -0.528668 0.848828 0.00134521 
-135.931 209.806 1568.25 -0.528668 0.848828 0.00134521 
-134.824 210.495 1413.86 -0.528668 0.848828 0.00134521 
-134.84 210.485 1401.07 -0.528668 0.848828 0.00134521 
-134.56 210.66 1880.79 -0.528668 0.848828 0.00134521 
-131.815 212.368 1595.68 -0.528668 0.848828 0.00134521 
-135.895 209.829 1912.97 -0.528668 0.848828 0.00134521 
-139.183 207.619 1204.64 -0.563126 0.82637 0.00135693 
-137.696 208.629 1430.62 -0.563126 0.82637 0.00135693 
-140.704 206.586 1369.03 -0.563126 0.82637 0.00135693 
-142.823 205.147 1003.26 -0.563126 0.82637 0.00135693 
-137.661 208.652 1768.33 -0.563126 0.82637 0.00135693 
-142.125 205.621 1214.37 -0.563126 0.82637 0.00135693 
-140.803 206.519 1755.24 -0.563126 0.82637 0.00135693 
-143.764 204.508 1235.67 -0.563126 0.82637 0.00135693 
-142.667 205.253 2023.36 -0.563126 0.82637 0.00135693 
-143.99 204.355 2003.36 -0.563126 0.82637 0.00135693 
-140.876 206.469 1969.66 -0.563126 0.82637 0.00135693 
-141.395 206.117 1529.28 -0.563126 0.82637 0.00135693 
-142.98 205.041 1328.2 -0.563126 0.82637 0.00135693 
-149.785 200.105 1020.25 -0.594083 0.804402 0.00136571 
-149.121 200.596 1277.18 -0.594083 0.804402 0.00136571 
-145.814 203.039 1889.83 -0.594083 0.804402 0.00136571 
-152.111 198.387 1006.66 -0.594083 0.804402 0.00136571 
-145.269 203.442 1575.84 -0.594083 0.804402 0.00136571 
-146.366 202.632 1825.66 -0.594083 0.804402 0.00136571 
-147.902 201.496 1777.18 -0.594083 0.804402 0.00136571 
-150.946 199.248 1537.31 -0.594083 0.804402 0.00136571 
-151.95 198.506 1486.98 -0.594083 0.804402 0.00136571 
-145.248 203.457 2071.94 -0.594083 0.804402 0.00136571 
-148.419 201.115 2087.67 -0.594083 0.804402 0.00136571 
-150.211 199.791 1758.19 -0.594083 0.804402 0.00136571 
-149.834 200.069 1629.75 -0.594083 0.804402 0.00136571 
-153.556 197.254 1013.02 -0.624527 0.781002 0.00137259 
-158.986 192.898 1044.99 -0.624527 0.781002 0.00137259 
-155.22 195.919 1043.36 -0.624527 0.781002 0.00137259 
-156.677 194.751 1193.74 -0.624527 0.781002 0.00137259 
-155.925 195.353 1139.04 -0.624527 0.781002 0.00137259 
-156.453 194.93 1013.65 -0.624527 0.781002 0.00137259 
-157.648 193.971 1034.66 -0.624527 0.781002 0.00137259 
-159.506 192.481 1358.14 -0.624527 0.781002 0.00137259 
-158.026 193.669 1906.6 -0.624527 0.781002 0.00137259 
-159.779 192.262 1590.48 -0.624527 0.781002 0.00137259 
-156.767 194.678 1768.87 -0.624527 0.781002 0.00137259 
-158.29 193.457 1813.71 -0.624527 0.781002 0.00137259 
-155.623 195.596 1956.3 -0.624527 0.781002 0.00137259 
-155.694 195.539 1885.6 -0.624527 0.781002 0.00137259 
-165.049 187.713 1292.72 -0.657235 0.753685 0.00137785 
-164.659 188.051 1152.06 -0.657235 0.753685 0.00137785 
-161.348 190.931 1782.7 -0.657235 0.753685 0.00137785 
-160.379 191.774 1799.97 -0.657235 0.753685 0.00137785 
-164.107 188.532 1255.1 -0.657235 0.753685 0.00137785 
-167.141 185.893 1049.99 -0.657235 0.753685 0.00137785 
-161.223 191.04 1141.77 -0.657235 0.753685 0.00137785 
-165.999 186.886 1263.79 -0.657235 0.753685 0.00137785 
-165.845 187.02 1561.74 -0.657235 0.753685 0.00137785 
-164.479 188.208 2085 -0.657235 0.753685 0.00137785 
-166.453 186.491 1215.63 -0.657235 0.753685 0.00137785 
-162.482 189.945 2058.59 -0.657235 0.753685 0.00137785 
-166.905 186.099 2052.66 -0.657235 0.753685 0.00137785 
-166.735 186.246 1257.3 -0.657235 0.753685 0.00137785 
-172.94 180.476 1167.33 -0.686096 0.72751 0.00138047 
-168.631 184.535 1324.16 -0.686096 0.72751 0.00138047 
-172.037 181.326 1338.95 -0.686096 0.72751 0.00138047 
-170.76 182.529 1508.33 -0.686096 0.72751 0.00138047 
-169.073 184.119 1894.95 -0.686096 0.72751 0.00138047 
-167.949 185.178 1873.4 -0.686096 0.72751 0.00138047 
-168.593 184.571 2077.8 -0.686096 0.72751 0.00138047 
-170.646 182.637 1836.52 -0.686096 0.72751 0.00138047 
-173.42 180.024 1269.47 -0.686096 0.72751 0.00138047 
-174.726 178.793 1400.82 -0.686096 0.72751 0.00138047 
-171.916 181.44 1668.04 -0.686096 0.72751 0.00138047 
-168.827 184.351 2035.31 -0.686096 0.72751 0.00138047 
-174.95 178.582 1865.74 -0.686096 0.72751 0.00138047 
-178.31 175.16 1027.45 -0.713977 0.700167 0.001381 
-176.451 177.056 1014.34 -0.713977 0.700167 0.001381 
-176.861 176.637 1411.98 -0.713977 0.700167 0.001381 
-178.065 175.41 1458.16 -0.713977 0.700167 0.001381 
-180.88 172.538 1130.51 -0.713977 0.700167 0.001381 
-177.45 176.037 1231.65 -0.713977 0.700167 0.001381 
-177.82 175.659 1507.09 -0.713977 0.700167 0.001381 
-179.811 173.629 2016.6 -0.713977 0.700167 0.001381 
-181.313 172.096 1453.28 -0.713977 0.700167 0.001381 
-180.306 173.123 1605.65 -0.713977 0.700167 0.001381 
-181.52 171.885 1171.71 -0.713977 0.700167 0.001381 
-179.503 173.943 2032.29 -0.713977 0.700167 0.001381 
-178.66 174.803 1778.8 -0.713977 0.700167 0.001381 
-179.237 174.215 1886.6 -0.713977 0.700167 0.001381 
-187.268 165.573 2095.23 -0.74075 0.671779 0.00137942 
-187.048 165.816 1352.84 -0.74075 0.671779 0.00137942 
-187.332 165.502 1512.58 -0.74075 0.671779 0.00137942 
-184.19 168.973 1816.75 -0.74075 0.671779 0.00137942 
-187.258 165.584 1426.71 -0.74075 0.671779 0.00137942 
-187.19 165.659 1516.63 -0.74075 0.671779 0.00137942 
-183.885 169.311 1806.43 -0.74075 0.671779 0.00137942 
-185.2 167.858 1153.57 -0.74075 0.671779 0.00137942 
-182.102 171.28 1950.85 -0.74075 0.671779 0.00137942 
-183.05 170.233 1535.23 -0.74075 0.671779 0.00137942 
-186.098 166.866 1307.9 -0.74075 0.671779 0.00137942 
-186.47 166.455 1189.37 -0.74075 0.671779 0.00137942 
-183.763 169.445 1080.79 -0.74075 0.671779 0.00137942 
-183.265 169.995 1475.39 -0.74075 0.671779 0.00137942 
-191.417 160.734 1705.23 -0.7663 0.642481 0.00137576 
-194.284 157.301 1799.21 -0.7663 0.642481 0.00137576 
-192.768 159.116 1839.39 -0.7663 0.642481 0.00137576 
-192.83 159.042 2018.81 -0.7663 0.642481 0.00137576 
-193.358 158.41 1743.31 -0.7663 0.642481 0.00137576 
-192.994 158.846 1815.1 -0.7663 0.642481 0.00137576 
-194.245 157.348 1145.28 -0.7663 0.642481 0.00137576 
-191.145 161.059 1396.33 -0.7663 0.642481 0.00137576 
-189.249 163.329 1264.3 -0.7663 0.642481 0.00137576 
-191.456 160.687 1464.78 -0.7663 0.642481 0.00137576 
-190.038 162.385 1713.8 -0.7663 0.642481 0.00137576 
-189.299 163.269 1798.88 -0.7663 0.642481 0.00137576 
-190.259 162.12 1591.55 -0.7663 0.642481 0.00137576 
-192.936 158.914 1302.08 -0.7663 0.642481 0.00137576 
-199.223 150.96 1382.27 -0.792878 0.609379 0.00136939 
-198.179 152.317 1882.34 -0.792878 0.609379 0.00136939 
-200.257 149.618 1622.65 -0.792878 0.609379 0.00136939 
-199.641 150.418 2097.39 -0.792878 0.609379 0.00136939 
-200.127 149.787 1950.12 -0.792878 0.609379 0.00136939 
-198.901 151.379 1868.23 -0.792878 0.609379 0.00136939 
-200.508 149.291 1345 -0.792878 0.609379 0.00136939 
-197.605 153.063 1138.1 -0.792878 0.609379 0.00136939 
-196.509 154.486 1039.17 -0.792878 0.609379 0.00136939 
-195.906 155.269 1083.46 -0.792878 0.609379 0.00136939 
-195.693 155.546 1803.6 -0.792878 0.609379 0.00136939 
-199.13 151.082 1351.4 -0.792878 0.609379 0.00136939 
-197.501 153.198 1076.27 -0.792878 0.609379 0.00136939 
-195.209 156.174 1353.22 -0.792878 0.609379 0.00136939 
-203.954 144.492 1959.99 -0.815569 0.578659 0.00136155 
-203.688 144.868 1775.41 -0.815569 0.578659 0.00136155 
-205.792 141.898 2051.12 -0.815569 0.578659 0.00136155 
-204.4 143.863 1516.45 -0.815569 0.578659 0.00136155 
-206.411 141.024 1746.32 -0.815569 0.578659 0.00136155 
-204.016 144.405 1937.88 -0.815569 0.578659 0.00136155 
-203.724 144.816 2075.15 -0.815569 0.578659 0.00136155 
-201.109 148.508 2007.62 -0.815569 0.578659 0.00136155 
-205.27 142.635 1145.67 -0.815569 0.578659 0.00136155 
-204.354 143.928 1180.39 -0.815569 0.578659 0.00136155 
-201.973 147.289 1333.7 -0.815569 0.578659 0.00136155 
-202.461 146.599 1409.24 -0.815569 0.578659 0.00136155 
-203.002 145.836 1068.22 -0.815569 0.578659 0.00136155 
-203.223 145.525 1193.59 -0.815569 0.578659 0.00136155 
-207.912 138.769 1968.82 -0.838844 0.54437 0.0013508 
-210.21 135.235 1699.66 -0.838844 0.54437 0.0013508 
-211.822 132.757 1559.45 -0.838844 0.54437 0.0013508 
-208.878 137.283 2022.47 -0.838844 0.54437 0.0013508 
-211.353 133.477 1544.29 -0.838844 0.54437 0.0013508 
-211.206 133.704 2018.37 -0.838844 0.54437 0.0013508 
-211.898 132.639 1597.4 -0.838844 0.54437 0.0013508 
-208.873 137.292 1006.6 -0.838844 0.54437 0.0013508 
-210.498 134.792 1191.35 -0.838844 0.54437 0.0013508 
-207.742 139.03 1874.6 -0.838844 0.54437 0.0013508 
