ply
format ascii 1.0
comment Created by CloudCompare v2.11.3 (Anoia)
comment Created 01/07/2022 12:37
obj_info Generated by CloudCompare!
element vertex 503
property float x
property float y
property float z
property float nx
property float ny
property float nz
end_header
-1.06175 2.84257 3.15682 -0.420905 0.502793 -0.755009 
-1.37665 2.75436 2.56693 -0.420905 0.502793 -0.755009 
-1.07405 2.77214 2.92233 -0.420905 0.502793 -0.755009 
-0.880113 2.71726 2.9409 -0.420905 0.502793 -0.755009 
-0.688584 2.62072 2.82557 -0.420905 0.502793 -0.755009 
-1.02451 2.87236 3.28768 -0.420905 0.502793 -0.755009 
-1.23836 2.83701 2.96463 -0.420905 0.502793 -0.755009 
-0.798314 2.7436 3.10493 -0.420905 0.502793 -0.755009 
-0.964152 2.89931 3.43247 -0.420905 0.502793 -0.755009 
-0.913149 2.83515 3.28036 -0.420905 0.502793 -0.755009 
-1.07157 2.80401 3.02538 -0.420905 0.502793 -0.755009 
-1.21181 2.79655 2.86315 -0.420905 0.502793 -0.755009 
-1.27186 2.75762 2.68086 -0.420905 0.502793 -0.755009 
-0.94677 2.79908 3.13326 -0.420905 0.502793 -0.755009 
-1.09217 2.68452 2.62783 -0.420905 0.502793 -0.755009 
-0.817756 2.64366 2.77023 -0.420905 0.502793 -0.755009 
-0.888853 2.63451 2.67102 -0.420905 0.502793 -0.755009 
-1.17505 2.75671 2.77375 -0.420905 0.502793 -0.755009 
-1.33057 2.80602 2.77558 -0.420905 0.502793 -0.755009 
-1.46412 2.80106 2.62786 -0.420905 0.502793 -0.755009 
-1.03899 2.70836 2.75566 -0.420905 0.502793 -0.755009 
-1.33231 2.83732 2.87268 -0.420905 0.502793 -0.755009 
-1.25916 2.7157 2.56109 -0.420905 0.502793 -0.755009 
-1.4004 2.80615 2.70694 -0.420905 0.502793 -0.755009 
-0.910246 2.68822 2.81941 -0.420905 0.502793 -0.755009 
-0.742978 2.66911 2.92452 -0.420905 0.502793 -0.755009 
-1.13468 2.88693 3.22474 -0.420905 0.502793 -0.755009 
-1.17298 2.84908 3.06738 -0.420905 0.502793 -0.755009 
-1.45041 2.75908 2.5089 -0.420905 0.502793 -0.755009 
-0.948197 2.92991 3.54485 -0.420905 0.502793 -0.755009 
-0.81394 2.71774 3.00784 -0.420905 0.502793 -0.755009 
-1.07769 2.91819 3.37977 -0.420905 0.502793 -0.755009 
-0.971475 2.75995 2.98531 -0.420905 0.502793 -0.755009 
-0.789825 2.60527 2.67668 -0.420905 0.502793 -0.755009 
-0.985275 2.65163 2.6297 -0.420905 0.502793 -0.755009 
-0.665752 2.58178 2.72522 -0.420905 0.502793 -0.755009 
-1.37344 2.90343 3.04067 -0.420905 0.502793 -0.755009 
-1.33691 3.03196 3.48254 -0.420905 0.502793 -0.755009 
-1.15563 2.99959 3.55965 -0.420905 0.502793 -0.755009 
-1.49279 2.95883 3.09756 -0.420905 0.502793 -0.755009 
-1.78363 3.04495 3.08178 -0.420905 0.502793 -0.755009 
-1.59404 2.99597 3.11465 -0.420905 0.502793 -0.755009 
-1.5139 2.88685 2.84945 -0.420905 0.502793 -0.755009 
-1.39426 2.98494 3.27741 -0.420905 0.502793 -0.755009 
-1.2192 2.96885 3.39974 -0.420905 0.502793 -0.755009 
-1.51974 2.92823 2.9743 -0.420905 0.502793 -0.755009 
-1.58398 3.07152 3.36311 -0.420905 0.502793 -0.755009 
-1.28756 2.92847 3.20468 -0.420905 0.502793 -0.755009 
-1.39004 2.94981 3.17068 -0.420905 0.502793 -0.755009 
-1.80071 3.10838 3.2651 -0.420905 0.502793 -0.755009 
-1.66321 2.97539 2.98127 -0.420905 0.502793 -0.755009 
-1.67248 2.91517 2.78201 -0.420905 0.502793 -0.755009 
-1.56176 2.79003 2.49648 -0.420905 0.502793 -0.755009 
-1.20546 2.93462 3.30528 -0.420905 0.502793 -0.755009 
-1.61037 2.83896 2.60286 -0.420905 0.502793 -0.755009 
-1.0989 2.95517 3.47554 -0.420905 0.502793 -0.755009 
-1.64626 3.04842 3.22856 -0.420905 0.502793 -0.755009 
-1.45047 3.05069 3.42936 -0.420905 0.502793 -0.755009 
-1.53154 3.02781 3.27695 -0.420905 0.502793 -0.755009 
-1.32095 2.99291 3.37506 -0.420905 0.502793 -0.755009 
-1.71019 3.09313 3.30647 -0.420905 0.502793 -0.755009 
-1.56995 2.86168 2.71456 -0.420905 0.502793 -0.755009 
-1.28084 2.89274 3.09853 -0.420905 0.502793 -0.755009 
-1.83969 3.14955 3.35652 -0.420905 0.502793 -0.755009 
-1.7209 3.04774 3.1526 -0.420905 0.502793 -0.755009 
-1.69262 2.95601 2.891 -0.420905 0.502793 -0.755009 
-1.74491 3.13348 3.39952 -0.420905 0.502793 -0.755009 
-1.03754 2.97303 3.59261 -0.420905 0.502793 -0.755009 
-0.619974 2.53986 2.75889 0.323266 -0.375356 -0.868681 
-0.591093 2.4971 2.82382 0.323266 -0.375356 -0.868681 
-0.753547 2.56096 2.73567 0.323266 -0.375356 -0.868681 
-0.792862 2.50645 2.82409 0.323266 -0.375356 -0.868681 
-0.8015 2.45035 2.91273 0.323266 -0.375356 -0.868681 
-0.953857 2.47624 2.88339 0.323266 -0.375356 -0.868681 
-1.12505 2.50809 2.8461 0.323266 -0.375356 -0.868681 
-0.718943 2.41563 2.96107 0.323266 -0.375356 -0.868681 
-0.844279 2.55061 2.75863 0.323266 -0.375356 -0.868681 
-1.10946 2.54037 2.79431 0.323266 -0.375356 -0.868681 
-0.866754 2.48937 2.85634 0.323266 -0.375356 -0.868681 
-1.22514 2.54147 2.80115 0.323266 -0.375356 -0.868681 
-0.533985 2.40353 2.96636 0.323266 -0.375356 -0.868681 
-0.758995 2.54193 2.76593 0.323266 -0.375356 -0.868681 
-0.607274 2.46362 2.87753 0.323266 -0.375356 -0.868681 
-0.812782 2.42981 2.94577 0.323266 -0.375356 -0.868681 
-0.653974 2.44055 2.91717 0.323266 -0.375356 -0.868681 
-0.535912 2.37717 3.00786 0.323266 -0.375356 -0.868681 
-1.18895 2.5109 2.84642 0.323266 -0.375356 -0.868681 
-0.621181 2.37762 3.01346 0.323266 -0.375356 -0.868681 
-0.905405 2.53297 2.79082 0.323266 -0.375356 -0.868681 
-0.924114 2.55847 2.7522 0.323266 -0.375356 -0.868681 
-1.3431 2.53954 2.81292 0.323266 -0.375356 -0.868681 
-0.525149 2.42474 2.93244 0.323266 -0.375356 -0.868681 
-0.739849 2.47185 2.87444 0.323266 -0.375356 -0.868681 
-0.606109 2.41087 2.96019 0.323266 -0.375356 -0.868681 
-0.937702 2.52227 2.80999 0.323266 -0.375356 -0.868681 
-1.19034 2.54971 2.78565 0.323266 -0.375356 -0.868681 
-1.04937 2.5498 2.77508 0.323266 -0.375356 -0.868681 
-0.721784 2.50966 2.8138 0.323266 -0.375356 -0.868681 
-1.05041 2.50482 2.84571 0.323266 -0.375356 -0.868681 
-0.948964 2.45111 2.92245 0.323266 -0.375356 -0.868681 
-0.45577 2.34007 3.06011 0.323266 -0.375356 -0.868681 
-1.28909 2.54455 2.80105 0.323266 -0.375356 -0.868681 
-1.01836 2.52192 2.81651 0.323266 -0.375356 -0.868681 
-0.644468 2.52801 2.77929 0.323266 -0.375356 -0.868681 
-0.69666 2.42906 2.93835 0.323266 -0.375356 -0.868681 
-1.14842 2.66253 2.60558 0.323266 -0.375356 -0.868681 
-1.34461 2.58977 2.73424 0.323266 -0.375356 -0.868681 
-1.36591 2.64698 2.64607 0.323266 -0.375356 -0.868681 
-1.40672 2.69034 2.58108 0.323266 -0.375356 -0.868681 
-1.19546 2.61964 2.67635 0.323266 -0.375356 -0.868681 
-1.34406 2.70882 2.54746 0.323266 -0.375356 -0.868681 
-1.00631 2.62469 2.65442 0.323266 -0.375356 -0.868681 
-0.855821 2.59068 2.69663 0.323266 -0.375356 -0.868681 
-1.14564 2.62446 2.6651 0.323266 -0.375356 -0.868681 
-1.18844 2.57462 2.74644 0.323266 -0.375356 -0.868681 
-1.0105 2.55895 2.75785 0.323266 -0.375356 -0.868681 
-1.21781 2.65762 2.61843 0.323266 -0.375356 -0.868681 
-1.43604 2.63081 2.67662 0.323266 -0.375356 -0.868681 
-1.43834 2.72984 2.52147 0.323266 -0.375356 -0.868681 
-1.08419 2.63052 2.65104 0.323266 -0.375356 -0.868681 
-1.08593 2.59016 2.71448 0.323266 -0.375356 -0.868681 
-1.48312 2.68882 2.58912 0.323266 -0.375356 -0.868681 
-1.53562 2.75319 2.49204 0.323266 -0.375356 -0.868681 
-1.0174 2.59568 2.70075 0.323266 -0.375356 -0.868681 
-0.904063 2.58454 2.70984 0.323266 -0.375356 -0.868681 
-1.33755 2.61481 2.69444 0.323266 -0.375356 -0.868681 
-1.25006 2.61659 2.68517 0.323266 -0.375356 -0.868681 
-1.30396 2.65662 2.62637 0.323266 -0.375356 -0.868681 
-1.33212 2.6853 2.58347 0.323266 -0.375356 -0.868681 
-1.46331 2.66497 2.62506 0.323266 -0.375356 -0.868681 
-1.32335 2.97963 3.61069 -0.326874 0.375981 0.867059 
-0.93558 2.85189 3.78234 -0.326874 0.375981 0.867059 
-1.30927 3.00515 3.56961 -0.326874 0.375981 0.867059 
-0.809759 2.74993 3.93297 -0.326874 0.375981 0.867059 
-0.927815 2.87598 3.74399 -0.326874 0.375981 0.867059 
-1.16022 2.90747 3.71179 -0.326874 0.375981 0.867059 
-0.989824 2.81665 3.84163 -0.326874 0.375981 0.867059 
-1.10675 2.86886 3.76839 -0.326874 0.375981 0.867059 
-1.08568 2.92997 3.67099 -0.326874 0.375981 0.867059 
-1.44213 2.99663 3.59281 -0.326874 0.375981 0.867059 
-1.22092 2.96908 3.61965 -0.326874 0.375981 0.867059 
-1.21029 2.94501 3.65661 -0.326874 0.375981 0.867059 
-1.27691 2.94198 3.6663 -0.326874 0.375981 0.867059 
-1.20216 2.90076 3.72543 -0.326874 0.375981 0.867059 
-1.25191 3.00878 3.55968 -0.326874 0.375981 0.867059 
-1.15221 2.97324 3.60803 -0.326874 0.375981 0.867059 
-1.63999 3.07766 3.48035 -0.326874 0.375981 0.867059 
-0.988608 2.9144 3.68822 -0.326874 0.375981 0.867059 
-1.03987 2.88925 3.73147 -0.326874 0.375981 0.867059 
-0.852841 2.78039 3.88838 -0.326874 0.375981 0.867059 
-1.4388 3.02977 3.54058 -0.326874 0.375981 0.867059 
-1.52254 3.06908 3.48512 -0.326874 0.375981 0.867059 
-0.954443 2.82794 3.82131 -0.326874 0.375981 0.867059 
-1.56674 3.0383 3.53668 -0.326874 0.375981 0.867059 
-1.62382 3.09524 3.45159 -0.326874 0.375981 0.867059 
-0.977264 2.93481 3.65536 -0.326874 0.375981 0.867059 
-1.06258 2.87508 3.75538 -0.326874 0.375981 0.867059 
-0.859117 2.8108 3.84114 -0.326874 0.375981 0.867059 
-1.7374 3.10747 3.44081 -0.326874 0.375981 0.867059 
-1.07189 2.96318 3.61788 -0.326874 0.375981 0.867059 
-1.54562 2.98675 3.61596 -0.326874 0.375981 0.867059 
-1.69516 3.00602 3.5968 -0.326874 0.375981 0.867059 
-1.43527 2.94799 3.66859 -0.326874 0.375981 0.867059 
-1.53973 3.00405 3.5884 -0.326874 0.375981 0.867059 
-1.18842 2.82397 3.84485 -0.326874 0.375981 0.867059 
-1.38477 2.95846 3.64843 -0.326874 0.375981 0.867059 
-1.32798 2.88745 3.75561 -0.326874 0.375981 0.867059 
-1.00958 2.80373 3.86336 -0.326874 0.375981 0.867059 
-1.33775 2.86842 3.78618 -0.326874 0.375981 0.867059 
-1.8398 3.12979 3.41337 -0.326874 0.375981 0.867059 
-1.18047 2.85211 3.80013 -0.326874 0.375981 0.867059 
-1.67854 2.93298 3.71015 -0.326874 0.375981 0.867059 
-1.47057 2.93393 3.69326 -0.326874 0.375981 0.867059 
-1.24656 2.89473 3.73816 -0.326874 0.375981 0.867059 
-1.63745 2.94167 3.69346 -0.326874 0.375981 0.867059 
-1.7401 3.08001 3.48408 -0.326874 0.375981 0.867059 
-1.11424 2.85108 3.79684 -0.326874 0.375981 0.867059 
-1.64705 3.04861 3.52644 -0.326874 0.375981 0.867059 
-1.52403 2.9248 3.71154 -0.326874 0.375981 0.867059 
-1.71673 2.98686 3.62846 -0.326874 0.375981 0.867059 
-1.51223 2.90184 3.74667 -0.326874 0.375981 0.867059 
-1.03359 2.79013 3.88648 -0.326874 0.375981 0.867059 
-1.77556 3.04731 3.538 -0.326874 0.375981 0.867059 
-1.5887 2.95797 3.6643 -0.326874 0.375981 0.867059 
-1.35298 2.91434 3.71529 -0.326874 0.375981 0.867059 
-0.912661 2.75984 3.92504 -0.326874 0.375981 0.867059 
-1.70927 3.04336 3.53928 -0.326874 0.375981 0.867059 
-1.83583 3.10429 3.45307 -0.326874 0.375981 0.867059 
-1.80494 3.07293 3.49998 -0.326874 0.375981 0.867059 
-0.911154 2.7788 3.89519 -0.326874 0.375981 0.867059 
-1.56552 2.97186 3.64078 -0.326874 0.375981 0.867059 
-1.42667 2.90032 3.74274 -0.326874 0.375981 0.867059 
-0.80617 2.75983 3.81458 0.941079 -0.211432 0.263944 
-0.860608 2.82663 3.54342 0.941079 -0.211432 0.263944 
-0.77951 2.73106 3.50997 0.941079 -0.211432 0.263944 
-0.780116 2.73338 3.33259 0.941079 -0.211432 0.263944 
-0.796966 2.75075 3.61529 0.941079 -0.211432 0.263944 
-0.737333 2.68105 3.52733 0.941079 -0.211432 0.263944 
-0.793465 2.74564 3.72244 0.941079 -0.211432 0.263944 
-0.791024 2.74752 3.19506 0.941079 -0.211432 0.263944 
-0.70458 2.64539 3.18877 0.941079 -0.211432 0.263944 
-0.766183 2.71628 3.40299 0.941079 -0.211432 0.263944 
-0.84615 2.80908 3.59357 0.941079 -0.211432 0.263944 
-0.873876 2.84324 3.44087 0.941079 -0.211432 0.263944 
-0.821522 2.7822 3.34681 0.941079 -0.211432 0.263944 
-0.890907 2.86145 3.6536 0.941079 -0.211432 0.263944 
-0.744554 2.69324 3.12283 0.941079 -0.211432 0.263944 
-0.743968 2.69187 3.19816 0.941079 -0.211432 0.263944 
-0.840492 2.801 3.74797 0.941079 -0.211432 0.263944 
-0.690572 2.6299 3.07118 0.941079 -0.211432 0.263944 
-0.732408 2.676 3.44238 0.941079 -0.211432 0.263944 
-0.697837 2.63942 2.96784 0.941079 -0.211432 0.263944 
-0.75728 2.70296 3.71265 0.941079 -0.211432 0.263944 
-0.821267 2.78073 3.47639 0.941079 -0.211432 0.263944 
-0.706172 2.64655 3.26877 0.941079 -0.211432 0.263944 
-0.905932 2.87995 3.57098 0.941079 -0.211432 0.263944 
-0.840034 2.80127 3.65828 0.941079 -0.211432 0.263944 
-0.780768 2.72959 3.83728 0.941079 -0.211432 0.263944 
-0.554949 2.46767 3.28271 0.941079 -0.211432 0.263944 
-0.729102 2.6692 3.76155 0.941079 -0.211432 0.263944 
-0.604083 2.52671 3.17655 0.941079 -0.211432 0.263944 
-0.681518 2.61515 3.51846 0.941079 -0.211432 0.263944 
-0.638987 2.56509 3.49466 0.941079 -0.211432 0.263944 
-0.682812 2.61738 3.44067 0.941079 -0.211432 0.263944 
-0.539935 2.45114 3.14747 0.941079 -0.211432 0.263944 
-0.503905 2.40841 3.163 0.941079 -0.211432 0.263944 
-0.593116 2.51544 2.9891 0.941079 -0.211432 0.263944 
-0.635335 2.56386 3.15363 0.941079 -0.211432 0.263944 
-0.575878 2.49133 3.40216 0.941079 -0.211432 0.263944 
-0.711016 2.64911 3.6196 0.941079 -0.211432 0.263944 
-0.674763 2.60877 3.34132 0.941079 -0.211432 0.263944 
-0.640815 2.56836 3.37244 0.941079 -0.211432 0.263944 
-0.636982 2.56697 3.02384 0.941079 -0.211432 0.263944 
-0.544515 2.45758 3.03433 0.941079 -0.211432 0.263944 
-0.646091 2.57879 2.9076 0.941079 -0.211432 0.263944 
-0.597849 2.51769 3.35875 0.941079 -0.211432 0.263944 
-0.678587 2.61031 3.67039 0.941079 -0.211432 0.263944 
-0.615124 2.53665 3.52055 0.941079 -0.211432 0.263944 
-0.588696 2.5081 3.22252 0.941079 -0.211432 0.263944 
-0.5581 2.47417 2.97495 0.941079 -0.211432 0.263944 
-0.554627 2.47082 2.89177 0.941079 -0.211432 0.263944 
-0.663304 2.59718 3.12496 0.941079 -0.211432 0.263944 
-0.73884 2.68209 3.60877 0.941079 -0.211432 0.263944 
-0.592666 2.51419 3.06818 0.941079 -0.211432 0.263944 
-0.498849 2.40328 3.06903 0.941079 -0.211432 0.263944 
-0.741324 2.6828 3.8558 0.941079 -0.211432 0.263944 
-1.57408 2.79464 2.60391 -0.941763 0.211585 -0.26137 
-1.60215 2.82559 2.85057 -0.941763 0.211585 -0.26137 
-1.58939 2.8115 2.74107 -0.941763 0.211585 -0.26137 
-1.56761 2.78489 2.83487 -0.941763 0.211585 -0.26137 
-1.63735 2.86706 2.86512 -0.941763 0.211585 -0.26137 
-1.55811 2.77447 2.74654 -0.941763 0.211585 -0.26137 
-1.55645 2.77339 2.64876 -0.941763 0.211585 -0.26137 
-1.39464 2.58101 2.77183 -0.941763 0.211585 -0.26137 
-1.43448 2.62797 2.78608 -0.941763 0.211585 -0.26137 
-1.5109 2.71909 2.69959 -0.941763 0.211585 -0.26137 
-1.49267 2.69654 2.80952 -0.941763 0.211585 -0.26137 
-1.5214 2.73281 2.55353 -0.941763 0.211585 -0.26137 
-1.53219 2.7429 2.85011 -0.941763 0.211585 -0.26137 
-1.52942 2.73854 2.96891 -0.941763 0.211585 -0.26137 
-1.46776 2.66624 2.9047 -0.941763 0.211585 -0.26137 
-1.78163 3.03488 3.16831 -0.941763 0.211585 -0.26137 
-1.69648 2.93545 3.03195 -0.941763 0.211585 -0.26137 
-1.73934 2.98542 3.10969 -0.941763 0.211585 -0.26137 
-1.82138 3.08106 3.25652 -0.941763 0.211585 -0.26137 
-1.72113 2.96354 3.14808 -0.941763 0.211585 -0.26137 
-1.63285 2.86317 2.70748 -0.941763 0.211585 -0.26137 
-1.69155 2.93073 2.90966 -0.941763 0.211585 -0.26137 
-1.63961 2.87039 2.7932 -0.941763 0.211585 -0.26137 
-1.74668 2.99511 2.99668 -0.941763 0.211585 -0.26137 
-1.76326 3.0127 3.22006 -0.941763 0.211585 -0.26137 
-1.42917 2.62067 2.89925 -0.941763 0.211585 -0.26137 
-1.54683 2.75824 3.067 -0.941763 0.211585 -0.26137 
-1.7545 3.00176 3.28531 -0.941763 0.211585 -0.26137 
-1.80282 3.05863 3.31161 -0.941763 0.211585 -0.26137 
-1.50587 2.71004 3.04257 -0.941763 0.211585 -0.26137 
-1.71186 2.95091 3.33386 -0.941763 0.211585 -0.26137 
-1.72733 2.96822 3.44187 -0.941763 0.211585 -0.26137 
-1.77387 3.02346 3.41656 -0.941763 0.211585 -0.26137 
-1.71738 2.95572 3.52332 -0.941763 0.211585 -0.26137 
-1.72027 2.95836 3.60924 -0.941763 0.211585 -0.26137 
-1.67688 2.90946 3.34476 -0.941763 0.211585 -0.26137 
-1.68019 2.91253 3.43815 -0.941763 0.211585 -0.26137 
-1.67448 2.90505 3.51876 -0.941763 0.211585 -0.26137 
-1.63596 2.86162 3.28594 -0.941763 0.211585 -0.26137 
-1.6355 2.86037 3.36403 -0.941763 0.211585 -0.26137 
-1.58746 2.80506 3.20031 -0.941763 0.211585 -0.26137 
-1.51879 2.72412 3.17441 -0.941763 0.211585 -0.26137 
-1.47461 2.67287 3.06681 -0.941763 0.211585 -0.26137 
-1.54704 2.75658 3.27821 -0.941763 0.211585 -0.26137 
-1.61681 2.83722 3.48112 -0.941763 0.211585 -0.26137 
-1.60771 2.82739 3.37817 -0.941763 0.211585 -0.26137 
-1.53905 2.7484 3.13748 -0.941763 0.211585 -0.26137 
-1.57822 2.79354 3.2674 -0.941763 0.211585 -0.26137 
-1.66429 2.89231 3.59523 -0.941763 0.211585 -0.26137 
-0.548627 2.43873 3.28091 0.417169 -0.502238 0.757448 
-0.786997 2.51631 3.29007 0.417169 -0.502238 0.757448 
-0.802848 2.62652 3.6223 0.417169 -0.502238 0.757448 
-0.801687 2.66879 3.75688 0.417169 -0.502238 0.757448 
-0.994902 2.71872 3.7234 0.417169 -0.502238 0.757448 
-0.897892 2.6008 3.4471 0.417169 -0.502238 0.757448 
-0.595441 2.41742 3.16734 0.417169 -0.502238 0.757448 
-1.02313 2.62909 3.41254 0.417169 -0.502238 0.757448 
-1.55076 2.87708 3.67356 0.417169 -0.502238 0.757448 
-1.30771 2.77176 3.58147 0.417169 -0.502238 0.757448 
-1.02113 2.68358 3.58652 0.417169 -0.502238 0.757448 
-0.661254 2.46782 3.26134 0.417169 -0.502238 0.757448 
-1.10382 2.67368 3.47349 0.417169 -0.502238 0.757448 
-1.20921 2.74854 3.60559 0.417169 -0.502238 0.757448 
-1.23533 2.72533 3.5065 0.417169 -0.502238 0.757448 
-1.4199 2.83137 3.6587 0.417169 -0.502238 0.757448 
-1.15418 2.77373 3.73953 0.417169 -0.502238 0.757448 
-0.903913 2.63659 3.55413 0.417169 -0.502238 0.757448 
-0.753031 2.54171 3.40385 0.417169 -0.502238 0.757448 
-1.35236 2.8393 3.75051 0.417169 -0.502238 0.757448 
-0.789784 2.59186 3.5258 0.417169 -0.502238 0.757448 
-0.932388 2.73513 3.83704 0.417169 -0.502238 0.757448 
-0.925725 2.5786 3.34949 0.417169 -0.502238 0.757448 
-0.708317 2.58603 3.58796 0.417169 -0.502238 0.757448 
-0.8961 2.686 3.71783 0.417169 -0.502238 0.757448 
-0.783785 2.45622 3.10355 0.417169 -0.502238 0.757448 
-1.36654 2.73714 3.41399 0.417169 -0.502238 0.757448 
-1.20207 2.66956 3.36332 0.417169 -0.502238 0.757448 
-1.20687 2.57807 3.06978 0.417169 -0.502238 0.757448 
-1.15771 2.59292 3.16527 0.417169 -0.502238 0.757448 
-0.901802 2.53233 3.22708 0.417169 -0.502238 0.757448 
-1.02373 2.57867 3.25277 0.417169 -0.502238 0.757448 
-1.37497 2.66222 3.16915 0.417169 -0.502238 0.757448 
-1.05922 2.55723 3.15001 0.417169 -0.502238 0.757448 
-1.26761 2.63684 3.19524 0.417169 -0.502238 0.757448 
-1.39956 2.77865 3.51238 0.417169 -0.502238 0.757448 
-1.31744 2.57085 2.93761 0.417169 -0.502238 0.757448 
-1.40703 2.70203 3.26314 0.417169 -0.502238 0.757448 
-1.07137 2.5318 3.05771 0.417169 -0.502238 0.757448 
-1.38251 2.62023 3.02917 0.417169 -0.502238 0.757448 
-1.06552 2.49184 2.93737 0.417169 -0.502238 0.757448 
-0.932875 2.48265 3.03953 0.417169 -0.502238 0.757448 
-1.2835 2.67642 3.30445 0.417169 -0.502238 0.757448 
-1.5071 2.79974 3.4726 0.417169 -0.502238 0.757448 
-1.22979 2.55609 2.97773 0.417169 -0.502238 0.757448 
-1.52554 2.77677 3.38186 0.417169 -0.502238 0.757448 
-1.47613 2.82494 3.5828 0.417169 -0.502238 0.757448 
-1.10016 2.62918 3.33665 0.417169 -0.502238 0.757448 
-0.697595 2.44733 3.16073 0.417169 -0.502238 0.757448 
-0.891547 2.49902 3.13208 0.417169 -0.502238 0.757448 
-1.17999 2.62985 3.25982 0.417169 -0.502238 0.757448 
-2.15017 3.05079 3.18773 -0.319178 0.371102 0.872014 
-2.0167 3.0204 3.22547 -0.319178 0.371102 0.872014 
-2.3402 3.0942 3.13381 -0.319178 0.371102 0.872014 
-2.45632 3.12057 3.10107 -0.319178 0.371102 0.872014 
-2.64347 3.16203 3.0498 -0.321918 0.370739 0.871161 
-1.86785 2.98606 3.26812 -0.313285 0.358688 0.879315 
-2.54783 3.13241 3.08423 -0.284745 0.326056 0.901448 
-2.21952 3.05305 3.1776 -0.265432 0.303143 0.915232 
-2.68768 3.15188 3.0468 -0.245855 0.279962 0.927996 
-2.08364 3.01302 3.21439 -0.234631 0.268351 0.93431 
-1.91537 2.97619 3.26164 -0.234631 0.268351 0.93431 
-2.45022 3.09343 3.11135 -0.226231 0.256765 0.939623 
-1.78358 2.93934 3.2951 -0.21537 0.245549 0.945157 
-2.58422 3.1138 3.06786 -0.193474 0.217491 0.956695 
-2.28211 3.04605 3.15227 -0.193474 0.217491 0.956695 
-1.9527 2.96068 3.23325 -0.159515 0.177381 0.971129 
-2.35518 3.04583 3.1145 -0.131309 0.146036 0.980526 
-2.08713 2.98075 3.18287 -0.119291 0.128931 0.984452 
-2.66949 3.11448 3.0242 -0.119291 0.128931 0.984452 
-2.48308 3.06776 3.06951 -0.104824 0.111891 0.988176 
-1.8382 2.92046 3.24609 -0.0884656 0.095359 0.991504 
-2.19711 2.99184 3.13088 -0.0552056 0.0552056 0.996948 
-1.73478 2.8759 3.23768 0.000987108 -0.0108582 0.999941 
-1.95304 2.92338 3.17354 0.0216973 -0.0361622 0.99911 
-2.33952 3.00555 3.05583 0.0441972 -0.0614449 0.997131 
-2.62064 3.06443 2.9679 0.0687854 -0.091338 0.993441 
-2.4494 3.02274 3.00844 0.0953597 -0.123614 0.987738 
-2.09364 2.93902 3.09894 0.124478 -0.156521 0.979799 
-1.84312 2.8758 3.1517 0.185782 -0.228552 0.955641 
-2.17676 2.94676 3.0479 0.221874 -0.27211 0.936337 
-2.51549 3.01858 2.94138 0.296031 -0.359144 0.885088 
-1.72035 2.8378 3.15769 0.296031 -0.359144 0.885088 
-1.91896 2.87962 3.09397 0.334327 -0.405858 0.850591 
-2.00572 2.89175 3.04704 0.417169 -0.502238 0.757448 
-2.30548 2.96156 2.97095 0.417169 -0.502238 0.757448 
-2.58393 3.01824 2.874 0.49704 -0.594763 0.63183 
-2.39014 2.97264 2.92125 0.49704 -0.594763 0.63183 
-1.80862 2.83597 3.06251 0.567036 -0.674087 0.473367 
-2.19842 2.92422 2.95588 0.567036 -0.674087 0.473367 
-2.08251 2.88961 2.95469 0.629489 -0.750128 0.202612 
-2.46781 2.97768 2.85299 0.629489 -0.750128 0.202612 
-1.68623 2.799 3.05887 0.639367 -0.760449 0.113698 
-1.91569 2.8486 2.98599 0.644255 -0.764442 0.0237578 
-2.25981 2.92058 2.86409 0.640219 -0.756623 -0.132819 
-2.55835 2.98626 2.77303 0.631743 -0.749132 -0.199254 
-1.82299 2.81623 2.95144 0.598903 -0.707197 -0.37575 
-2.34633 2.93349 2.80248 0.598903 -0.707197 -0.37575 
-2.14791 2.88799 2.85212 0.586295 -0.692593 -0.420206 
-1.98026 2.84953 2.89368 0.586295 -0.692593 -0.420206 
-1.71556 2.78778 2.95058 0.5591 -0.659839 -0.502015 
-2.43221 2.94679 2.72984 0.535556 -0.626787 -0.565966 
-2.05338 2.85984 2.81028 0.496701 -0.580888 -0.64487 
-2.26957 2.90813 2.74109 0.48433 -0.568125 -0.665326 
-1.86265 2.81646 2.84773 0.472606 -0.552765 -0.686364 
-2.16406 2.88423 2.76121 0.461675 -0.538343 -0.705013 
-1.97143 2.84124 2.79612 0.436515 -0.512288 -0.739605 
-2.53745 2.96904 2.6303 0.428026 -0.500184 -0.752735 
-1.72316 2.7856 2.86119 0.428026 -0.500184 -0.752735 
-2.36288 2.93044 2.67132 0.415712 -0.487442 -0.767844 
-1.62699 2.76639 2.86539 0.395638 -0.463461 -0.79289 
-2.10004 2.87307 2.73195 0.386881 -0.451093 -0.804262 
-2.23734 2.90538 2.68663 0.377112 -0.437577 -0.81628 
-1.90227 2.83115 2.77548 0.365586 -0.425725 -0.827711 
-1.7741 2.80705 2.79822 0.33972 -0.392462 -0.85473 
-2.49746 2.97413 2.58935 0.319178 -0.371102 -0.872014 
-1.69158 2.794 2.81272 0.310551 -0.359027 -0.880146 
-2.36146 2.94547 2.62504 0.310551 -0.359027 -0.880146 
-2.03767 2.87306 2.71491 0.301661 -0.349686 -0.886973 
-2.15503 2.89995 2.68175 0.301661 -0.349686 -0.886973 
-1.88871 2.84804 2.75151 0.272964 -0.313836 -0.909394 
-2.29095 2.94262 2.63887 0.253899 -0.291195 -0.922356 
-2.46463 2.98923 2.59191 0.234017 -0.267648 -0.934666 
-2.55937 3.01277 2.56648 0.223012 -0.256257 -0.940531 
-1.76787 2.8379 2.78888 0.2122 -0.245057 -0.946001 
-1.98316 2.8843 2.72771 0.2122 -0.245057 -0.946001 
-1.66996 2.81524 2.81582 0.2122 -0.245057 -0.946001 
-2.20742 2.94344 2.67106 0.190416 -0.217048 -0.957409 
-1.88186 2.87439 2.76559 0.16706 -0.190371 -0.967393 
-2.08958 2.92508 2.71171 0.156638 -0.177013 -0.971664 
-2.3818 2.99608 2.63625 0.141319 -0.161329 -0.97673 
-2.62036 3.06011 2.58374 0.102256 -0.111659 -0.988472 
-2.02273 2.92874 2.75505 0.0859891 -0.0951613 -0.991741 
-2.52968 3.04191 2.61235 0.0859891 -0.0951613 -0.991741 
-1.74594 2.86547 2.8307 0.0859891 -0.0951613 -0.991741 
-1.86554 2.9015 2.81226 0.0529326 -0.0550931 -0.997077 
-2.20423 2.97546 2.71401 0.0529326 -0.0550931 -0.997077 
-2.31808 3.01129 2.70071 -0.00297298 0.0128829 -0.999913 
-1.96557 2.94146 2.81826 -0.0465424 0.0638605 -0.996873 
-2.60818 3.09407 2.65704 -0.0979196 0.123874 -0.987455 
-2.17061 2.99515 2.77794 -0.0979196 0.123874 -0.987455 
-2.49033 3.06846 2.69203 -0.12721 0.156851 -0.979395 
-1.72823 2.8975 2.90567 -0.12721 0.156851 -0.979395 
-2.28744 3.03213 2.77157 -0.188843 0.229022 -0.954928 
-2.08152 2.98464 2.82601 -0.188843 0.229022 -0.954928 
-2.40498 3.06391 2.753 -0.259783 0.314933 -0.912869 
-1.86784 2.9451 2.90833 -0.259783 0.314933 -0.912869 
-1.98708 2.98152 2.90327 -0.379861 0.453589 -0.806203 
-2.68721 3.1446 2.72584 -0.4624 0.549204 -0.696104 
-2.56522 3.12068 2.77171 -0.49957 0.593766 -0.630771 
-2.24961 3.0502 2.86149 -0.535172 0.636466 -0.55543 
-1.8066 2.95335 2.99493 -0.567933 0.675154 -0.470765 
-2.13801 3.03133 2.91515 -0.594565 0.706561 -0.38375 
-2.41705 3.09813 2.853 -0.618603 0.730495 -0.289321 
-1.90567 2.9864 3.00922 -0.642545 0.75776 -0.113738 
-2.07477 3.03046 2.9892 -0.646603 0.760793 0.0556678 
-2.50624 3.13201 2.89166 -0.635056 0.746307 0.199324 
-2.62173 3.15758 2.85728 -0.635056 0.746307 0.199324 
-2.35336 3.09629 2.92725 -0.635056 0.746307 0.199324 
-2.71853 3.1831 2.85165 -0.615013 0.721551 0.317999 
-2.23417 3.07283 2.97888 -0.615013 0.721551 0.317999 
-1.99628 3.02158 3.05903 -0.601737 0.706672 0.372192 
-1.83408 2.98471 3.10187 -0.601737 0.706672 0.372192 
-2.42732 3.12473 2.98806 -0.535556 0.626787 0.565966 
-2.57777 3.1597 2.95997 -0.510327 0.597908 0.618119 
-2.12008 3.05668 3.08676 -0.510327 0.597908 0.618119 
-2.3125 3.10066 3.04464 -0.496701 0.580888 0.64487 
-1.91263 3.01066 3.15519 -0.496701 0.580888 0.64487 
-2.03324 3.03834 3.13606 -0.472606 0.552765 0.686364 
-2.68228 3.18442 2.95918 -0.472606 0.552765 0.686364 
-1.81055 2.98814 3.19415 -0.48433 0.568125 0.665326 
-2.19695 3.07499 3.1146 -0.440245 0.512794 0.737039 
-2.51047 3.14489 3.03803 -0.419449 0.487998 0.765454 
-2.38415 3.11615 3.07679 -0.419449 0.487998 0.765454 
-1.96258 3.02003 3.20505 -0.398356 0.462868 0.791875 
-2.09131 3.04811 3.17455 -0.389606 0.450532 0.803261 
-1.7607 2.97275 3.27171 -0.378093 0.438716 0.815214 
-2.74747 3.18546 3.00993 -0.558908 0.410525 0.72048 
-2.7763 3.20043 2.93492 -0.661287 0.509847 0.550231 
-2.82843 3.19645 2.95304 -0.569065 0.423066 0.70511 
-2.9089 3.20327 2.90319 -0.569065 0.423066 0.70511 
-2.85172 3.20633 2.87121 -0.706293 0.54343 0.453689 
-2.792 3.1839 2.78621 -0.807518 0.588435 -0.040727 
-2.97996 3.21727 2.82664 -0.660062 0.508903 0.552571 
-2.91438 3.20456 2.77957 -0.790101 0.591447 0.16103 
-2.72507 3.125 2.65144 -0.500256 0.247819 -0.829656 
-2.84273 3.17214 2.70594 -0.722656 0.470142 -0.50669 
-2.80084 3.12503 2.61574 -0.35074 0.106983 -0.930342 
-2.69635 3.06632 2.5715 -0.127589 -0.106126 -0.986133 
-2.92077 3.17415 2.66273 -0.621888 0.362631 -0.694085 
-2.59918 3.00268 2.56971 0.0363267 -0.291867 -0.955769 
-2.80557 3.09148 2.57182 -0.106126 -0.127589 -0.986133 
-2.70409 3.03619 2.57202 0.0363267 -0.291867 -0.955769 
-2.64617 3.00448 2.62125 0.114092 -0.432422 -0.894424 
-2.80951 3.0667 2.57944 0.0470866 -0.306699 -0.950641 
-2.6426 3.00762 2.71844 0.149462 -0.714098 -0.683904 
-2.76305 3.04269 2.63402 0.132198 -0.495378 -0.858559 
-2.68622 3.04089 2.8123 -0.109414 -0.933399 0.341751 
-2.77092 3.0536 2.72421 0.113025 -0.86557 -0.487867 
-2.85941 3.07715 2.67038 0.146061 -0.639959 -0.754399 
-2.71775 3.09478 2.93855 -0.383441 0.0517446 0.922115 
-2.79771 3.08659 2.82254 -0.286104 -0.450034 0.84594 
-2.81921 3.12723 2.90543 -0.397776 0.112264 0.910588 
-2.78588 3.1665 2.98855 -0.485485 0.317859 0.814414 
-2.91007 3.14049 2.84114 -0.377046 0.0515958 0.924756 
-2.92998 3.15864 2.75635 -0.941763 0.211585 -0.26137 
-2.89251 3.11524 2.65823 -0.941763 0.211585 -0.26137 
-2.95111 3.18273 2.85379 -0.941763 0.211585 -0.26137 
