ply
format ascii 1.0
comment Created by CloudCompare v2.11.3 (Anoia)
comment Created 08/09/2022 00:11
obj_info Generated by CloudCompare!
element vertex 884
property float x
property float y
property float z
property float nx
property float ny
property float nz
end_header
500 -359.476 263.777 0.999999 0.000977516 0.000977516 
500 -392.875 239.441 0.999999 0.000977516 0.000977516 
500 -198.953 51.8705 0.999999 0.000977516 0.000977516 
500 -384.154 778.317 0.999999 0.000977516 0.000977516 
500 -486.573 179.443 0.999999 0.000977516 0.000977516 
500 275.468 183.093 0.999999 0.000977516 0.000977516 
500 -14.4156 224.821 0.999999 0.000977516 0.000977516 
500 -161.582 544.648 0.999999 0.000977516 0.000977516 
500 -149.756 427.231 0.999999 0.000977516 0.000977516 
500 301.27 956.146 0.999999 0.000977516 0.000977516 
500 384.959 578.395 0.999999 0.000977516 0.000977516 
500 96.1387 494.881 0.999999 0.000977516 0.000977516 
500 316.503 546.057 0.999999 0.000977516 0.000977516 
500 444.223 703.469 0.999999 0.000977516 0.000977516 
500 404.112 482.97 0.999999 0.000977516 0.000977516 
500 119.588 977.179 0.999999 0.000977516 0.000977516 
500 -41.7329 685.405 0.999999 0.000977516 0.000977516 
500 -418.671 934.529 0.999999 0.000977516 0.000977516 
500 165.909 385.937 0.999999 0.000977516 0.000977516 
500 417.195 499.107 0.999999 0.000977516 0.000977516 
500 -266.393 877.878 0.999999 0.000977516 0.000977516 
500 424.978 366.679 0.999999 0.000977516 0.000977516 
500 400.905 499.055 0.999999 0.000977516 0.000977516 
500 -222.237 990.812 0.999999 0.000977516 0.000977516 
500 417.341 961.162 0.999999 0.000977516 0.000977516 
500 305.146 464.631 0.999999 0.000977516 0.000977516 
500 447.506 502.213 0.999999 0.000977516 0.000977516 
500 88.7811 871.974 0.999999 0.000977516 0.000977516 
500 49.1281 727.287 0.999999 0.000977516 0.000977516 
500 369.977 577.591 0.999999 0.000977516 0.000977516 
500 206.6 982.872 0.999999 0.000977516 0.000977516 
500 180.171 630.551 0.999999 0.000977516 0.000977516 
500 467.736 305.872 0.999999 0.000977516 0.000977516 
500 91.3152 792.22 0.999999 0.000977516 0.000977516 
500 170.335 395.425 0.999999 0.000977516 0.000977516 
500 -55.5082 981.695 0.999999 0.000977516 0.000977516 
500 -183.907 746.396 0.999999 0.000977516 0.000977516 
500 215.676 787.668 0.999999 0.000977516 0.000977516 
500 477.067 544.093 0.999999 0.000977516 0.000977516 
500 87.1812 592.508 0.999999 0.000977516 0.000977516 
500 433.189 914.443 0.999999 0.000977516 0.000977516 
500 434.878 252.367 0.999999 0.000977516 0.000977516 
500 335.323 833.305 0.999999 0.000977516 0.000977516 
500 489.656 819.042 0.999999 0.000977516 0.000977516 
500 145.677 511.947 0.999999 0.000977516 0.000977516 
500 298.864 556.92 0.999999 0.000977516 0.000977516 
500 1.75583 929.186 0.999999 0.000977516 0.000977516 
500 171.526 793.12 0.999999 0.000977516 0.000977516 
500 -160.536 923.414 0.999999 0.000977516 0.000977516 
500 -40.1958 631.392 0.999999 0.000977516 0.000977516 
500 395.759 898.121 0.999999 0.000977516 0.000977516 
500 97.0555 492.81 0.999999 0.000977516 0.000977516 
500 309.526 756.812 0.999999 0.000977516 0.000977516 
500 38.5619 569.871 0.999999 0.000977516 0.000977516 
500 116.206 905.504 0.999999 0.000977516 0.000977516 
500 378.877 766.524 0.999999 0.000977516 0.000977516 
500 3.94559 902.213 0.999999 0.000977516 0.000977516 
500 -83.9123 976.049 0.999999 0.000977516 0.000977516 
500 182.275 889.217 0.999999 0.000977516 0.000977516 
500 405.68 893.15 0.999999 0.000977516 0.000977516 
500 479.488 472.804 0.999999 0.000977516 0.000977516 
500 -338.515 926.378 0.999999 0.000977516 0.000977516 
500 -147.99 900.408 0.999999 0.000977516 0.000977516 
500 17.8148 707.543 0.999999 0.000977516 0.000977516 
500 -54.6552 809.225 0.999999 0.000977516 0.000977516 
500 367.107 158.929 0.999999 0.000977516 0.000977516 
500 115.509 574.784 0.999999 0.000977516 0.000977516 
500 297.462 367.248 0.999999 0.000977516 0.000977516 
500 43.0816 686.388 0.999999 0.000977516 0.000977516 
500 100.515 471.292 0.999999 0.000977516 0.000977516 
500 -355.07 882.703 0.999999 0.000977516 0.000977516 
500 -274.039 807.809 0.999999 0.000977516 0.000977516 
500 283.902 363.962 0.999999 0.000977516 0.000977516 
500 -182.478 765.233 0.999999 0.000977516 0.000977516 
500 298.698 771.816 0.999999 0.000977516 0.000977516 
500 378.063 450.992 0.999999 0.000977516 0.000977516 
500 -37.481 952.792 0.999999 0.000977516 0.000977516 
500 -50.6277 805.366 0.999999 0.000977516 0.000977516 
500 377.507 677.306 0.999999 0.000977516 0.000977516 
500 -254.98 994.79 0.999999 0.000977516 0.000977516 
500 480.522 378.797 0.999999 0.000977516 0.000977516 
500 475.582 701.576 0.999999 0.000977516 0.000977516 
500 -87.8947 667.103 0.999999 0.000977516 0.000977516 
500 305.7 990.534 0.999999 0.000977516 0.000977516 
500 388.866 488.721 0.999999 0.000977516 0.000977516 
500 413.382 686.592 0.999999 0.000977516 0.000977516 
500 258.865 314.891 0.999999 0.000977516 0.000977516 
500 91.3826 580.863 0.999999 0.000977516 0.000977516 
500 400.909 126.343 0.999999 0.000977516 0.000977516 
500 60.4843 834.518 0.999999 0.000977516 0.000977516 
500 474.275 887.422 0.999999 0.000977516 0.000977516 
500 381.013 482.027 0.999999 0.000977516 0.000977516 
500 -187.532 901.423 0.999999 0.000977516 0.000977516 
500 261.353 312.874 0.999999 0.000977516 0.000977516 
500 34.3252 664.619 0.999999 0.000977516 0.000977516 
500 258.754 567.238 0.999999 0.000977516 0.000977516 
500 468.213 162.923 0.999999 0.000977516 0.000977516 
500 -130.973 691.302 0.999999 0.000977516 0.000977516 
500 51.1617 928.853 0.999999 0.000977516 0.000977516 
500 46.2408 983.266 0.999999 0.000977516 0.000977516 
500 159.792 713.897 0.999999 0.000977516 0.000977516 
500 15.6675 739.873 0.999999 0.000977516 0.000977516 
500 392.834 369.673 0.999999 0.000977516 0.000977516 
500 487.05 136.577 0.999999 0.000977516 0.000977516 
500 174.127 533.913 0.999999 0.000977516 0.000977516 
500 -165.698 995.482 0.999999 0.000977516 0.000977516 
500 32.5265 589.295 0.999999 0.000977516 0.000977516 
500 167.967 439.403 0.999999 0.000977516 0.000977516 
500 175.824 987.243 0.999999 0.000977516 0.000977516 
500 382.681 595.341 0.999999 0.000977516 0.000977516 
500 14.7744 521.72 0.999999 0.000977516 0.000977516 
500 475.913 527.329 0.999999 0.000977516 0.000977516 
500 409.291 360.868 0.999999 0.000977516 0.000977516 
500 428.527 861.052 0.999999 0.000977516 0.000977516 
500 153.363 812.251 0.999999 0.000977516 0.000977516 
500 -338.007 907.066 0.999999 0.000977516 0.000977516 
500 253.335 472.367 0.999999 0.000977516 0.000977516 
500 374.617 992.673 0.999999 0.000977516 0.000977516 
500 40.3577 739.287 0.999999 0.000977516 0.000977516 
500 405.23 498.987 0.999999 0.000977516 0.000977516 
500 -274.809 812.352 0.999999 0.000977516 0.000977516 
500 -342.707 892.593 0.999999 0.000977516 0.000977516 
500 8.25491 822.793 0.999999 0.000977516 0.000977516 
500 323.667 324.542 0.999999 0.000977516 0.000977516 
500 376.646 423.932 0.999999 0.000977516 0.000977516 
500 15.5706 554.051 0.999999 0.000977516 0.000977516 
500 -171.084 864.25 0.999999 0.000977516 0.000977516 
500 346.65 316.787 0.999999 0.000977516 0.000977516 
500 143.601 563.446 0.999999 0.000977516 0.000977516 
500 -242.034 761.702 0.999999 0.000977516 0.000977516 
500 -177.296 950.068 0.999999 0.000977516 0.000977516 
500 258.703 256.142 0.999999 0.000977516 0.000977516 
500 -64.6203 596.895 0.999999 0.000977516 0.000977516 
500 447.751 592.974 0.999999 0.000977516 0.000977516 
500 322.074 451.706 0.999999 0.000977516 0.000977516 
500 350.988 330.288 0.999999 0.000977516 0.000977516 
500 -78.2748 762.229 0.999999 0.000977516 0.000977516 
500 257.067 875.328 0.999999 0.000977516 0.000977516 
500 -286.919 941.539 0.999999 0.000977516 0.000977516 
500 368.603 249.758 0.999999 0.000977516 0.000977516 
500 412.088 817.489 0.999999 0.000977516 0.000977516 
500 275.708 297.79 0.999999 0.000977516 0.000977516 
500 159.893 650.12 0.999999 0.000977516 0.000977516 
500 356.378 594.069 0.999999 0.000977516 0.000977516 
500 240.389 986.307 0.999999 0.000977516 0.000977516 
500 417.545 564.037 0.999999 0.000977516 0.000977516 
500 294.114 689.292 0.999999 0.000977516 0.000977516 
500 344.448 548.062 0.999999 0.000977516 0.000977516 
500 -281.764 994.896 0.999999 0.000977516 0.000977516 
500 -336.587 842.826 0.999999 0.000977516 0.000977516 
500 87.5044 859.255 0.999999 0.000977516 0.000977516 
500 264.161 730.182 0.999999 0.000977516 0.000977516 
500 397.524 170.485 0.999999 0.000977516 0.000977516 
500 -286.126 989.491 0.999999 0.000977516 0.000977516 
500 326.613 644.1 0.999999 0.000977516 0.000977516 
500 181.574 342.108 0.999999 0.000977516 0.000977516 
500 196.101 673.753 0.999999 0.000977516 0.000977516 
500 481.024 391.195 0.999999 0.000977516 0.000977516 
500 -217.049 747.101 0.999999 0.000977516 0.000977516 
500 44.3285 654.717 0.999999 0.000977516 0.000977516 
500 153.761 725.21 0.999999 0.000977516 0.000977516 
500 -36.4293 616.753 0.999999 0.000977516 0.000977516 
500 13.2369 516.446 0.999999 0.000977516 0.000977516 
500 318.27 338.897 0.999999 0.000977516 0.000977516 
500 -162.891 677.604 0.999999 0.000977516 0.000977516 
500 216.508 463.981 0.999999 0.000977516 0.000977516 
500 474.462 746.964 0.999999 0.000977516 0.000977516 
500 429.134 401.124 0.999999 0.000977516 0.000977516 
500 -170.942 959.949 0.999999 0.000977516 0.000977516 
500 253.514 820.234 0.999999 0.000977516 0.000977516 
500 28.3616 979.273 0.999999 0.000977516 0.000977516 
500 -238.476 996.862 0.999999 0.000977516 0.000977516 
500 423.695 664.174 0.999999 0.000977516 0.000977516 
500 -212.746 892.896 0.999999 0.000977516 0.000977516 
500 429.305 198.836 0.999999 0.000977516 0.000977516 
500 274.314 784.794 0.999999 0.000977516 0.000977516 
500 398.049 139.875 0.999999 0.000977516 0.000977516 
500 56.8027 980.741 0.999999 0.000977516 0.000977516 
500 -198.782 900.173 0.999999 0.000977516 0.000977516 
500 88.0981 783.951 0.999999 0.000977516 0.000977516 
500 409.944 237.918 0.999999 0.000977516 0.000977516 
500 331.884 841.987 0.999999 0.000977516 0.000977516 
500 197.048 803.961 0.999999 0.000977516 0.000977516 
500 29.4678 509.713 0.999999 0.000977516 0.000977516 
500 -74.9091 896.485 0.999999 0.000977516 0.000977516 
500 444.27 771.335 0.999999 0.000977516 0.000977516 
500 -50.6701 972.412 0.999999 0.000977516 0.000977516 
500 446.768 879.161 0.999999 0.000977516 0.000977516 
500 366.514 739.225 0.999999 0.000977516 0.000977516 
500 218.454 833.655 0.999999 0.000977516 0.000977516 
500 10.0561 707.859 0.999999 0.000977516 0.000977516 
500 386.386 620.904 0.999999 0.000977516 0.000977516 
500 -342.308 874.515 0.999999 0.000977516 0.000977516 
500 213.911 721.108 0.999999 0.000977516 0.000977516 
500 487.744 304.379 0.999999 0.000977516 0.000977516 
500 201.014 591.702 0.999999 0.000977516 0.000977516 
500 88.1104 729.438 0.999999 0.000977516 0.000977516 
500 -349.198 858.753 0.999999 0.000977516 0.000977516 
500 462.796 236.854 0.999999 0.000977516 0.000977516 
500 -418.531 994.345 0.999999 0.000977516 0.000977516 
500 426.393 870.826 0.999999 0.000977516 0.000977516 
500 -328.409 841.88 0.999999 0.000977516 0.000977516 
500 -318.518 989.528 0.999999 0.000977516 0.000977516 
500 381.694 150.313 0.999999 0.000977516 0.000977516 
500 240.072 456.801 0.999999 0.000977516 0.000977516 
500 387.1 274.41 0.999999 0.000977516 0.000977516 
500 -162.613 740.566 0.999999 0.000977516 0.000977516 
500 -143.936 648.512 0.999999 0.000977516 0.000977516 
500 465.397 779.488 0.999999 0.000977516 0.000977516 
500 428.274 463.517 0.999999 0.000977516 0.000977516 
500 -18.4821 961.126 0.999999 0.000977516 0.000977516 
500 -99.1479 642.955 0.999999 0.000977516 0.000977516 
500 9.89551 896.994 0.999999 0.000977516 0.000977516 
500 -10.0151 579.423 0.999999 0.000977516 0.000977516 
500 -281.082 792.767 0.999999 0.000977516 0.000977516 
500 197.208 326.525 0.999999 0.000977516 0.000977516 
500 196.006 675.336 0.999999 0.000977516 0.000977516 
500 -182.605 769.362 0.999999 0.000977516 0.000977516 
500 25.3748 658.572 0.999999 0.000977516 0.000977516 
500 400.145 415.22 0.999999 0.000977516 0.000977516 
500 350.273 189.18 0.999999 0.000977516 0.000977516 
500 414.413 937.531 0.999999 0.000977516 0.000977516 
500 406.588 850.862 0.999999 0.000977516 0.000977516 
500 -85.3501 839.895 0.999999 0.000977516 0.000977516 
500 196.302 862.167 0.999999 0.000977516 0.000977516 
500 105.691 880.874 0.999999 0.000977516 0.000977516 
500 293.096 567.868 0.999999 0.000977516 0.000977516 
500 88.9181 811.59 0.999999 0.000977516 0.000977516 
500 363.488 157.495 0.999999 0.000977516 0.000977516 
500 316.631 500.605 0.999999 0.000977516 0.000977516 
500 312.285 934.333 0.999999 0.000977516 0.000977516 
500 -260.499 927.44 0.999999 0.000977516 0.000977516 
500 169.005 377.062 0.999999 0.000977516 0.000977516 
500 368.387 639.559 0.999999 0.000977516 0.000977516 
500 496.664 826.753 0.999999 0.000977516 0.000977516 
500 200.637 397.908 0.999999 0.000977516 0.000977516 
500 450.83 412.235 0.999999 0.000977516 0.000977516 
500 375.034 315.518 0.999999 0.000977516 0.000977516 
500 -204.73 802.034 0.999999 0.000977516 0.000977516 
500 97.1092 795.472 0.999999 0.000977516 0.000977516 
500 342.214 869.161 0.999999 0.000977516 0.000977516 
500 271.256 346.813 0.999999 0.000977516 0.000977516 
500 462.101 648.476 0.999999 0.000977516 0.000977516 
500 484.315 389.456 0.999999 0.000977516 0.000977516 
500 -288.552 992.332 0.999999 0.000977516 0.000977516 
500 -178.837 804.044 0.999999 0.000977516 0.000977516 
500 433.381 383.178 0.999999 0.000977516 0.000977516 
500 324.945 210.474 0.999999 0.000977516 0.000977516 
500 428.181 770.886 0.999999 0.000977516 0.000977516 
500 300.199 500.271 0.999999 0.000977516 0.000977516 
500 416.198 525.858 0.999999 0.000977516 0.000977516 
500 -4.67865 618.341 0.999999 0.000977516 0.000977516 
500 341.164 406.077 0.999999 0.000977516 0.000977516 
500 166.885 820.279 0.999999 0.000977516 0.000977516 
500 67.6916 745.384 0.999999 0.000977516 0.000977516 
500 -65.1174 690.869 0.999999 0.000977516 0.000977516 
500 147.098 480.521 0.999999 0.000977516 0.000977516 
500 488.533 555.259 0.999999 0.000977516 0.000977516 
500 -2.49008 862.791 0.999999 0.000977516 0.000977516 
500 165.407 814.263 0.999999 0.000977516 0.000977516 
500 -31.0459 601.303 0.999999 0.000977516 0.000977516 
500 392.595 119.642 0.999999 0.000977516 0.000977516 
500 252.764 996.445 0.999999 0.000977516 0.000977516 
500 209.615 664.097 0.999999 0.000977516 0.000977516 
500 480.974 888.079 0.999999 0.000977516 0.000977516 
500 135.26 577.069 0.999999 0.000977516 0.000977516 
500 338.953 977.886 0.999999 0.000977516 0.000977516 
500 -128.884 672.799 0.999999 0.000977516 0.000977516 
500 -262.643 858.453 0.999999 0.000977516 0.000977516 
500 239.345 750.84 0.999999 0.000977516 0.000977516 
500 330.167 447.579 0.999999 0.000977516 0.000977516 
500 -119.233 998.952 0.999999 0.000977516 0.000977516 
500 -380.422 911.399 0.999999 0.000977516 0.000977516 
500 473.04 491.449 0.999999 0.000977516 0.000977516 
500 274.296 270.081 0.999999 0.000977516 0.000977516 
500 -33.8542 718.644 0.999999 0.000977516 0.000977516 
500 105.759 561.232 0.999999 0.000977516 0.000977516 
500 207.544 960.999 0.999999 0.000977516 0.000977516 
500 257.681 820.389 0.999999 0.000977516 0.000977516 
500 361.676 627.265 0.999999 0.000977516 0.000977516 
500 -108.863 860.25 0.999999 0.000977516 0.000977516 
500 436.78 335.55 0.999999 0.000977516 0.000977516 
500 238.905 743.131 0.999999 0.000977516 0.000977516 
500 332.998 484.826 0.999999 0.000977516 0.000977516 
500 418.563 655.953 0.999999 0.000977516 0.000977516 
500 32.3605 651.194 0.999999 0.000977516 0.000977516 
500 309.454 980.064 0.999999 0.000977516 0.000977516 
500 180.413 712.34 0.999999 0.000977516 0.000977516 
500 380.336 145.701 0.999999 0.000977516 0.000977516 
500 453.557 165.533 0.999999 0.000977516 0.000977516 
500 300.122 849.118 0.999999 0.000977516 0.000977516 
500 -64.6911 815.901 0.999999 0.000977516 0.000977516 
500 258.805 292.475 0.999999 0.000977516 0.000977516 
500 202.507 474.547 0.999999 0.000977516 0.000977516 
500 345.779 901.014 0.999999 0.000977516 0.000977516 
500 216.583 438.357 0.999999 0.000977516 0.000977516 
500 436.288 949.898 0.999999 0.000977516 0.000977516 
500 218.158 899.039 0.999999 0.000977516 0.000977516 
500 173.303 973.762 0.999999 0.000977516 0.000977516 
500 -84.989 936.729 0.999999 0.000977516 0.000977516 
500 -98.8694 701.753 0.999999 0.000977516 0.000977516 
500 420.125 710.238 0.999999 0.000977516 0.000977516 
500 -4.07343 842.456 0.999999 0.000977516 0.000977516 
500 -282.156 970.198 0.999999 0.000977516 0.000977516 
500 142.544 563.385 0.999999 0.000977516 0.000977516 
500 43.1827 552.54 0.999999 0.000977516 0.000977516 
500 -2.1719 577.711 0.999999 0.000977516 0.000977516 
500 -39.5859 700.333 0.999999 0.000977516 0.000977516 
500 197.524 490.774 0.999999 0.000977516 0.000977516 
500 -17.3455 564.12 0.999999 0.000977516 0.000977516 
500 -101.839 852.315 0.999999 0.000977516 0.000977516 
500 496.47 548.15 0.999999 0.000977516 0.000977516 
500 -357.015 924.435 0.999999 0.000977516 0.000977516 
500 -58.2255 558.75 0.999999 0.000977516 0.000977516 
500 322.707 576.344 0.999999 0.000977516 0.000977516 
500 238.842 645.356 0.999999 0.000977516 0.000977516 
500 223.516 346.387 0.999999 0.000977516 0.000977516 
500 26.7268 707.731 0.999999 0.000977516 0.000977516 
500 338.304 574.19 0.999999 0.000977516 0.000977516 
500 203.464 810.773 0.999999 0.000977516 0.000977516 
500 288.192 356.122 0.999999 0.000977516 0.000977516 
500 372.51 324.091 0.999999 0.000977516 0.000977516 
500 110.384 414.073 0.999999 0.000977516 0.000977516 
500 460.927 434.425 0.999999 0.000977516 0.000977516 
500 -272.813 791.508 0.999999 0.000977516 0.000977516 
500 377.246 193.047 0.999999 0.000977516 0.000977516 
500 217.02 924.474 0.999999 0.000977516 0.000977516 
500 321.018 247.826 0.999999 0.000977516 0.000977516 
500 -95.8271 866.93 0.999999 0.000977516 0.000977516 
500 419.312 545.694 0.999999 0.000977516 0.000977516 
500 301.709 641.47 0.999999 0.000977516 0.000977516 
500 216.364 763.866 0.999999 0.000977516 0.000977516 
500 477.722 719.533 0.999999 0.000977516 0.000977516 
500 375.273 130.053 0.999999 0.000977516 0.000977516 
500 -123.985 672.775 0.999999 0.000977516 0.000977516 
500 380.123 410.054 0.999999 0.000977516 0.000977516 
500 209.922 765.36 0.999999 0.000977516 0.000977516 
500 -285.271 991.721 0.999999 0.000977516 0.000977516 
500 -3.78647 762.546 0.999999 0.000977516 0.000977516 
500 95.2491 657.156 0.999999 0.000977516 0.000977516 
500 251.586 401.34 0.999999 0.000977516 0.000977516 
500 435.162 968.84 0.999999 0.000977516 0.000977516 
500 121.112 536.519 0.999999 0.000977516 0.000977516 
500 43.0738 649.899 0.999999 0.000977516 0.000977516 
500 448.704 157.136 0.999999 0.000977516 0.000977516 
500 -381.363 919.057 0.999999 0.000977516 0.000977516 
500 -25.3537 543.892 0.999999 0.000977516 0.000977516 
500 -139.742 780.268 0.999999 0.000977516 0.000977516 
500 188.604 540.585 0.999999 0.000977516 0.000977516 
500 456.9 949.499 0.999999 0.000977516 0.000977516 
500 325.139 471.428 0.999999 0.000977516 0.000977516 
500 408.893 756.66 0.999999 0.000977516 0.000977516 
500 267.704 395.639 0.999999 0.000977516 0.000977516 
500 43.4219 719.949 0.999999 0.000977516 0.000977516 
500 330.515 551.189 0.999999 0.000977516 0.000977516 
500 329.438 635.706 0.999999 0.000977516 0.000977516 
500 290.446 517.622 0.999999 0.000977516 0.000977516 
500 -326.294 987.867 0.999999 0.000977516 0.000977516 
500 -436.325 954.731 0.999999 0.000977516 0.000977516 
500 279.337 714.259 0.999999 0.000977516 0.000977516 
500 -178.819 871.244 0.999999 0.000977516 0.000977516 
500 98.2987 853.77 0.999999 0.000977516 0.000977516 
500 -186.33 879.763 0.999999 0.000977516 0.000977516 
500 -98.6876 682.53 0.999999 0.000977516 0.000977516 
500 -410.235 917.656 0.999999 0.000977516 0.000977516 
500 327.249 376.613 0.999999 0.000977516 0.000977516 
500 121.446 821.165 0.999999 0.000977516 0.000977516 
500 377.906 716.624 0.999999 0.000977516 0.000977516 
500 -255.178 942.643 0.999999 0.000977516 0.000977516 
500 405.153 156.249 0.999999 0.000977516 0.000977516 
500 -24.7365 833.899 0.999999 0.000977516 0.000977516 
500 -56.2927 874.953 0.999999 0.000977516 0.000977516 
500 65.0378 826.328 0.999999 0.000977516 0.000977516 
500 96.3479 879.804 0.999999 0.000977516 0.000977516 
500 -375.479 878.324 0.999999 0.000977516 0.000977516 
500 261.092 355.051 0.999999 0.000977516 0.000977516 
500 160.664 374.357 0.999999 0.000977516 0.000977516 
500 337.681 869.95 0.999999 0.000977516 0.000977516 
500 465.136 797.558 0.999999 0.000977516 0.000977516 
500 70.6505 905.601 0.999999 0.000977516 0.000977516 
500 366.764 898.885 0.999999 0.000977516 0.000977516 
500 -287.88 832.104 0.999999 0.000977516 0.000977516 
500 87.6235 683.467 0.999999 0.000977516 0.000977516 
500 413.27 199.78 0.999999 0.000977516 0.000977516 
500 215.203 969.561 0.999999 0.000977516 0.000977516 
500 303.407 590.096 0.999999 0.000977516 0.000977516 
500 280.877 318.38 0.999999 0.000977516 0.000977516 
500 173.565 719.555 0.999999 0.000977516 0.000977516 
500 492.923 112.845 0.999999 0.000977516 0.000977516 
500 -121.755 877.86 0.999999 0.000977516 0.000977516 
500 489.317 93.4739 0.999999 0.000977516 0.000977516 
500 194.85 740.732 0.999999 0.000977516 0.000977516 
500 -0.363831 989.057 0.999999 0.000977516 0.000977516 
500 149.573 721.354 0.999999 0.000977516 0.000977516 
500 148.146 687.96 0.999999 0.000977516 0.000977516 
500 496.582 218.867 0.999999 0.000977516 0.000977516 
500 372.305 479.263 0.999999 0.000977516 0.000977516 
500 443.552 317.39 0.999999 0.000977516 0.000977516 
500 435.47 632.006 0.999999 0.000977516 0.000977516 
500 -63.8821 692.673 0.999999 0.000977516 0.000977516 
500 -106.281 903 0.999999 0.000977516 0.000977516 
500 387.446 768.813 0.999999 0.000977516 0.000977516 
500 332.111 408.343 0.999999 0.000977516 0.000977516 
500 411.79 276.569 0.999999 0.000977516 0.000977516 
500 268.671 409.797 0.999999 0.000977516 0.000977516 
500 -12.6255 746.541 0.999999 0.000977516 0.000977516 
500 30.3498 775.767 0.999999 0.000977516 0.000977516 
500 -240.155 801.803 0.999999 0.000977516 0.000977516 
500 -81.3687 774.225 0.999999 0.000977516 0.000977516 
500 63.9555 774.65 0.999999 0.000977516 0.000977516 
500 344.812 799.763 0.999999 0.000977516 0.000977516 
500 113.93 609.969 0.999999 0.000977516 0.000977516 
500 156.025 807.265 0.999999 0.000977516 0.000977516 
500 124.621 667.624 0.999999 0.000977516 0.000977516 
500 -97.9913 916.648 0.999999 0.000977516 0.000977516 
500 9.3056 825.193 0.999999 0.000977516 0.000977516 
500 -111.069 828.132 0.999999 0.000977516 0.000977516 
500 414.85 736.495 0.999999 0.000977516 0.000977516 
500 160.831 886.936 0.999999 0.000977516 0.000977516 
500 327.987 443.134 0.999999 0.000977516 0.000977516 
500 100.409 422.812 0.999999 0.000977516 0.000977516 
500 -137.647 946.523 0.999999 0.000977516 0.000977516 
500 160.983 999.532 0.999999 0.000977516 0.000977516 
500 488.349 690.22 0.999999 0.000977516 0.000977516 
500 188.012 317.395 0.999999 0.000977516 0.000977516 
500 414.803 367.07 0.999999 0.000977516 0.000977516 
500 443.725 550.246 0.999999 0.000977516 0.000977516 
500 37.8046 951.143 0.999999 0.000977516 0.000977516 
500 209.054 610.288 0.999999 0.000977516 0.000977516 
500 -61.8567 898.593 0.999999 0.000977516 0.000977516 
500 -48.3018 655.438 0.999999 0.000977516 0.000977516 
500 -20.326 895.349 0.999999 0.000977516 0.000977516 
500 108.33 452.745 0.999999 0.000977516 0.000977516 
500 4.32819 980.444 0.999999 0.000977516 0.000977516 
500 292.885 868.264 0.999999 0.000977516 0.000977516 
500 479.798 409.898 0.999999 0.000977516 0.000977516 
500 -150.829 990.245 0.999999 0.000977516 0.000977516 
500 272.102 263.852 0.999999 0.000977516 0.000977516 
500 305.62 693.231 0.999999 0.000977516 0.000977516 
500 487.782 101.171 0.999999 0.000977516 0.000977516 
500 205.556 898.965 0.999999 0.000977516 0.000977516 
500 397.076 198.985 0.999999 0.000977516 0.000977516 
500 419.365 828.574 0.999999 0.000977516 0.000977516 
500 272.891 463.677 0.999999 0.000977516 0.000977516 
500 159.466 864.101 0.999999 0.000977516 0.000977516 
500 390.278 151.83 0.999999 0.000977516 0.000977516 
500 -11.5892 888.339 0.999999 0.000977516 0.000977516 
500 267.236 325.918 0.999999 0.000977516 0.000977516 
500 -81.5628 672.5 0.999999 0.000977516 0.000977516 
500 404.384 299.685 0.999999 0.000977516 0.000977516 
500 105.073 611.062 0.999999 0.000977516 0.000977516 
500 -366.423 987.472 0.999999 0.000977516 0.000977516 
500 -20.8025 871.922 0.999999 0.000977516 0.000977516 
500 205.881 467.7 0.999999 0.000977516 0.000977516 
500 20.2692 583.132 0.999999 0.000977516 0.000977516 
500 -150.43 677.482 0.999999 0.000977516 0.000977516 
500 -182.121 982.018 0.999999 0.000977516 0.000977516 
500 460.642 659.066 0.999999 0.000977516 0.000977516 
500 130.831 389.237 0.999999 0.000977516 0.000977516 
500 426.381 648.663 0.999999 0.000977516 0.000977516 
500 428.655 770.967 0.999999 0.000977516 0.000977516 
500 -58.7221 822.445 0.999999 0.000977516 0.000977516 
500 -439.854 953.658 0.999999 0.000977516 0.000977516 
500 476.224 172.034 0.999999 0.000977516 0.000977516 
500 -218.111 812.914 0.999999 0.000977516 0.000977516 
500 6.32591 669.203 0.999999 0.000977516 0.000977516 
500 287.392 455.243 0.999999 0.000977516 0.000977516 
500 167.789 832.273 0.999999 0.000977516 0.000977516 
500 383.486 944.749 0.999999 0.000977516 0.000977516 
500 361.447 828.843 0.999999 0.000977516 0.000977516 
500 363.873 560.571 0.999999 0.000977516 0.000977516 
500 -49.5985 554.886 0.999999 0.000977516 0.000977516 
500 318.282 446.573 0.999999 0.000977516 0.000977516 
500 197.293 985.794 0.999999 0.000977516 0.000977516 
500 4.17889 855.899 0.999999 0.000977516 0.000977516 
500 453.481 223.489 0.999999 0.000977516 0.000977516 
500 206.291 725.088 0.999999 0.000977516 0.000977516 
500 380.019 548.574 0.999999 0.000977516 0.000977516 
500 401.18 936.498 0.999999 0.000977516 0.000977516 
500 116.029 991.481 0.999999 0.000977516 0.000977516 
500 175.978 517.171 0.999999 0.000977516 0.000977516 
500 201.882 920.917 0.999999 0.000977516 0.000977516 
500 381.734 925.562 0.999999 0.000977516 0.000977516 
500 -24.3436 813.001 0.999999 0.000977516 0.000977516 
500 465.846 839.763 0.999999 0.000977516 0.000977516 
500 429.57 327.261 0.999999 0.000977516 0.000977516 
500 417.823 91.2213 0.999999 0.000977516 0.000977516 
500 458.598 995.471 0.999999 0.000977516 0.000977516 
500 108.008 886.015 0.999999 0.000977516 0.000977516 
500 337.67 271.876 0.999999 0.000977516 0.000977516 
500 301.643 431.943 0.999999 0.000977516 0.000977516 
500 50.1508 816.607 0.999999 0.000977516 0.000977516 
500 224.488 528.933 0.999999 0.000977516 0.000977516 
500 282.823 687.506 0.999999 0.000977516 0.000977516 
500 213.432 462.216 0.999999 0.000977516 0.000977516 
500 -33.9525 768.992 0.999999 0.000977516 0.000977516 
500 -321.913 903.645 0.999999 0.000977516 0.000977516 
500 84.0456 495.489 0.999999 0.000977516 0.000977516 
500 170 479.572 0.999999 0.000977516 0.000977516 
500 498.207 525.052 0.999999 0.000977516 0.000977516 
500 133.201 687.711 0.999999 0.000977516 0.000977516 
500 478.257 210.41 0.999999 0.000977516 0.000977516 
500 434.339 413.02 0.999999 0.000977516 0.000977516 
500 280.352 318.062 0.999999 0.000977516 0.000977516 
500 499.396 684.328 0.999999 0.000977516 0.000977516 
500 10.2944 636.764 0.999999 0.000977516 0.000977516 
500 -117.49 692.325 0.999999 0.000977516 0.000977516 
500 -351.661 918.394 0.999999 0.000977516 0.000977516 
500 -60.8515 607.185 0.999999 0.000977516 0.000977516 
500 420.62 874.333 0.999999 0.000977516 0.000977516 
500 -306.208 984.571 0.999999 0.000977516 0.000977516 
500 392.557 636.092 0.999999 0.000977516 0.000977516 
500 159.97 924.086 0.999999 0.000977516 0.000977516 
500 382.582 447.72 0.999999 0.000977516 0.000977516 
500 -209.591 843.108 0.999999 0.000977516 0.000977516 
500 406.163 656.656 0.999999 0.000977516 0.000977516 
500 153.801 983.857 0.999999 0.000977516 0.000977516 
500 384.583 557.034 0.999999 0.000977516 0.000977516 
500 482.362 88.6477 0.999999 0.000977516 0.000977516 
500 384.527 752.329 0.999999 0.000977516 0.000977516 
500 -149.052 787.7 0.999999 0.000977516 0.000977516 
500 452.679 669.907 0.999999 0.000977516 0.000977516 
500 19.2528 975.54 0.999999 0.000977516 0.000977516 
500 90.2238 433.132 0.999999 0.000977516 0.000977516 
500 375.196 483.225 0.999999 0.000977516 0.000977516 
500 328.195 386.195 0.999999 0.000977516 0.000977516 
500 61.6288 843.566 0.999999 0.000977516 0.000977516 
500 349.274 885.084 0.999999 0.000977516 0.000977516 
500 204.386 928.22 0.999999 0.000977516 0.000977516 
500 459.003 536.141 0.999999 0.000977516 0.000977516 
500 109.364 663.702 0.999999 0.000977516 0.000977516 
500 130.948 767.735 0.999999 0.000977516 0.000977516 
500 147.197 477.585 0.999999 0.000977516 0.000977516 
500 77.2997 822.648 0.999999 0.000977516 0.000977516 
500 223.78 752.5 0.999999 0.000977516 0.000977516 
500 56.4174 471.948 0.999999 0.000977516 0.000977516 
500 424.684 877.473 0.999999 0.000977516 0.000977516 
500 479.651 299.093 0.999999 0.000977516 0.000977516 
500 345.784 886.337 0.999999 0.000977516 0.000977516 
500 288.999 573.309 0.999999 0.000977516 0.000977516 
500 429.468 764.984 0.999999 0.000977516 0.000977516 
500 -344.178 943.352 0.999999 0.000977516 0.000977516 
500 189.514 742.024 0.999999 0.000977516 0.000977516 
500 -210.195 875.008 0.999999 0.000977516 0.000977516 
500 -341.776 877.256 0.999999 0.000977516 0.000977516 
500 398.995 864.881 0.999999 0.000977516 0.000977516 
500 140.877 405.305 0.999999 0.000977516 0.000977516 
500 -171.724 753.528 0.999999 0.000977516 0.000977516 
500 337.828 674.995 0.999999 0.000977516 0.000977516 
500 337.725 782.371 0.999999 0.000977516 0.000977516 
500 499.211 739.597 0.999999 0.000977516 0.000977516 
500 412.094 954.098 0.999999 0.000977516 0.000977516 
500 -280.696 933.73 0.999999 0.000977516 0.000977516 
500 252.497 709.178 0.999999 0.000977516 0.000977516 
500 475.775 693.594 0.999999 0.000977516 0.000977516 
500 -128.554 886.084 0.999999 0.000977516 0.000977516 
500 415.01 760.944 0.999999 0.000977516 0.000977516 
500 55.5245 754.75 0.999999 0.000977516 0.000977516 
500 283.859 450.188 0.999999 0.000977516 0.000977516 
500 -270.082 866.363 0.999999 0.000977516 0.000977516 
500 271.633 573.735 0.999999 0.000977516 0.000977516 
500 167.006 464.166 0.999999 0.000977516 0.000977516 
500 197.015 543.839 0.999999 0.000977516 0.000977516 
500 31.1383 893.906 0.999999 0.000977516 0.000977516 
500 389.565 736.233 0.999999 0.000977516 0.000977516 
500 -121.791 804.96 0.999999 0.000977516 0.000977516 
500 90.2164 986.596 0.999999 0.000977516 0.000977516 
500 459.666 601.259 0.999999 0.000977516 0.000977516 
500 89.5249 908.818 0.999999 0.000977516 0.000977516 
500 46.8884 845.953 0.999999 0.000977516 0.000977516 
500 308.103 714.919 0.999999 0.000977516 0.000977516 
500 164.012 757.689 0.999999 0.000977516 0.000977516 
500 313.16 889.095 0.999999 0.000977516 0.000977516 
500 350.497 391.815 0.999999 0.000977516 0.000977516 
500 431.112 913.94 0.999999 0.000977516 0.000977516 
500 -138.838 982.193 0.999999 0.000977516 0.000977516 
500 428.274 436.522 0.999999 0.000977516 0.000977516 
500 211.932 288.596 0.999999 0.000977516 0.000977516 
500 381.899 839.439 0.999999 0.000977516 0.000977516 
500 202.933 684.058 0.999999 0.000977516 0.000977516 
500 416.277 939.112 0.999999 0.000977516 0.000977516 
500 -198.445 882.443 0.999999 0.000977516 0.000977516 
500 446.132 439.741 0.999999 0.000977516 0.000977516 
500 422.547 403.873 0.999999 0.000977516 0.000977516 
500 -169.713 719.912 0.999999 0.000977516 0.000977516 
500 10.8533 551.848 0.999999 0.000977516 0.000977516 
500 -291.957 931.006 0.999999 0.000977516 0.000977516 
500 238.573 892.63 0.999999 0.000977516 0.000977516 
500 28.791 986.642 0.999999 0.000977516 0.000977516 
500 381.96 605.554 0.999999 0.000977516 0.000977516 
500 425.555 454.566 0.999999 0.000977516 0.000977516 
500 -191.495 751.157 0.999999 0.000977516 0.000977516 
500 -247.264 802.901 0.999999 0.000977516 0.000977516 
500 -36.0889 734.24 0.999999 0.000977516 0.000977516 
500 154.548 858.528 0.999999 0.000977516 0.000977516 
500 401.079 556.383 0.999999 0.000977516 0.000977516 
500 240.65 953.652 0.999999 0.000977516 0.000977516 
500 251.102 998.203 0.999999 0.000977516 0.000977516 
500 136.729 782.939 0.999999 0.000977516 0.000977516 
500 482.142 255.624 0.999999 0.000977516 0.000977516 
500 -2.41553 581.169 0.999999 0.000977516 0.000977516 
500 7.32613 722.244 0.999999 0.000977516 0.000977516 
500 489.369 76.8359 0.999999 0.000977516 0.000977516 
500 348.204 987.735 0.999999 0.000977516 0.000977516 
500 188.929 415.468 0.999999 0.000977516 0.000977516 
500 382.509 668.333 0.999999 0.000977516 0.000977516 
500 200.257 621.926 0.999999 0.000977516 0.000977516 
500 427.684 323.099 0.999999 0.000977516 0.000977516 
500 -79.1336 757.174 0.999999 0.000977516 0.000977516 
500 303.104 522.624 0.999999 0.000977516 0.000977516 
500 -16.5 524.926 0.999999 0.000977516 0.000977516 
500 173.628 465.305 0.999999 0.000977516 0.000977516 
500 327.758 788.454 0.999999 0.000977516 0.000977516 
500 255.903 859.944 0.999999 0.000977516 0.000977516 
500 171.87 411.603 0.999999 0.000977516 0.000977516 
500 -74.6638 987.472 0.999999 0.000977516 0.000977516 
500 -108.794 755.088 0.999999 0.000977516 0.000977516 
500 364.641 481.413 0.999999 0.000977516 0.000977516 
500 -25.3853 946.991 0.999999 0.000977516 0.000977516 
500 -90.0529 754.012 0.999999 0.000977516 0.000977516 
500 233.645 800.13 0.999999 0.000977516 0.000977516 
500 -101.87 721.26 0.999999 0.000977516 0.000977516 
500 69.7644 435.612 0.999999 0.000977516 0.000977516 
500 217.165 936.493 0.999999 0.000977516 0.000977516 
500 491.441 364.836 0.999999 0.000977516 0.000977516 
500 -221.703 789.296 0.999999 0.000977516 0.000977516 
500 147.739 789.964 0.999999 0.000977516 0.000977516 
500 -195.504 716.534 0.999999 0.000977516 0.000977516 
500 -106.71 703.694 0.999999 0.000977516 0.000977516 
500 -135.678 709.714 0.999999 0.000977516 0.000977516 
500 -365.593 894.211 0.999999 0.000977516 0.000977516 
500 409.47 153.882 0.999999 0.000977516 0.000977516 
500 219.313 407.15 0.999999 0.000977516 0.000977516 
500 144.5 574.319 0.999999 0.000977516 0.000977516 
409.327 -84.6437 0 0.000977516 0.000977516 -0.999999 
177.691 35.513 0 0.000977516 0.000977516 -0.999999 
224.798 -398.352 0 0.000977516 0.000977516 -0.999999 
205.108 -348.566 0 0.000977516 0.000977516 -0.999999 
106.159 -490.384 0 0.000977516 0.000977516 -0.999999 
-121.904 -484.86 0 0.000977516 0.000977516 -0.999999 
-16.9142 -175.203 0 0.000977516 0.000977516 -0.999999 
369.072 143.076 0 0.000977516 0.000977516 -0.999999 
81.7159 -439.008 0 0.000977516 0.000977516 -0.999999 
-189.321 -472.688 0 0.000977516 0.000977516 -0.999999 
378.629 -37.4943 0 0.000977516 0.000977516 -0.999999 
285.933 -341.193 0 0.000977516 0.000977516 -0.999999 
276.377 -356.862 0 0.000977516 0.000977516 -0.999999 
229.613 -427.245 0 0.000977516 0.000977516 -0.999999 
479.487 -479.837 0 0.000977516 0.000977516 -0.999999 
203.48 -389.461 0 0.000977516 0.000977516 -0.999999 
-164.073 -484.27 0 0.000977516 0.000977516 -0.999999 
-137.12 -460.341 0 0.000977516 0.000977516 -0.999999 
81.2112 -99.2072 0 0.000977516 0.000977516 -0.999999 
272.057 -52.6173 0 0.000977516 0.000977516 -0.999999 
225.861 -245.633 0 0.000977516 0.000977516 -0.999999 
264.253 66.4436 0 0.000977516 0.000977516 -0.999999 
-195.095 -407.86 0 0.000977516 0.000977516 -0.999999 
338.6 -497.851 0 0.000977516 0.000977516 -0.999999 
111.25 -176.28 0 0.000977516 0.000977516 -0.999999 
85.58 -479.443 0 0.000977516 0.000977516 -0.999999 
238.226 -30.3472 0 0.000977516 0.000977516 -0.999999 
442.122 414.085 0 0.000977516 0.000977516 -0.999999 
472.921 -467.556 0 0.000977516 0.000977516 -0.999999 
434.121 -49.6023 0 0.000977516 0.000977516 -0.999999 
-273.802 -439.999 0 0.000977516 0.000977516 -0.999999 
289.738 -61.0351 0 0.000977516 0.000977516 -0.999999 
348.086 -74.2336 0 0.000977516 0.000977516 -0.999999 
-108.324 -445.52 0 0.000977516 0.000977516 -0.999999 
259.604 -23.2006 0 0.000977516 0.000977516 -0.999999 
325.003 -45.4326 0 0.000977516 0.000977516 -0.999999 
116.363 -197.898 0 0.000977516 0.000977516 -0.999999 
238.623 -310.723 0 0.000977516 0.000977516 -0.999999 
-39.8246 -237.393 0 0.000977516 0.000977516 -0.999999 
478.304 465.061 0 0.000977516 0.000977516 -0.999999 
-3.33472 -13.4515 0 0.000977516 0.000977516 -0.999999 
387.53 15.4703 0 0.000977516 0.000977516 -0.999999 
116.221 -67.3715 0 0.000977516 0.000977516 -0.999999 
-287.448 -392.391 0 0.000977516 0.000977516 -0.999999 
266.149 -307.956 0 0.000977516 0.000977516 -0.999999 
4.91102 3.52304 0 0.000977516 0.000977516 -0.999999 
-31.5948 -86.2095 0 0.000977516 0.000977516 -0.999999 
152.614 -499.373 0 0.000977516 0.000977516 -0.999999 
-75.4915 -180.435 0 0.000977516 0.000977516 -0.999999 
110.161 -413.635 0 0.000977516 0.000977516 -0.999999 
335.803 -365.545 0 0.000977516 0.000977516 -0.999999 
400.245 -195.766 0 0.000977516 0.000977516 -0.999999 
148.677 -322.64 0 0.000977516 0.000977516 -0.999999 
480.986 234.583 0 0.000977516 0.000977516 -0.999999 
-355.407 -480.366 0 0.000977516 0.000977516 -0.999999 
-70.6966 -330.664 0 0.000977516 0.000977516 -0.999999 
307.908 -358.608 0 0.000977516 0.000977516 -0.999999 
90.4104 -14.2905 0 0.000977516 0.000977516 -0.999999 
-390.535 -418.211 0 0.000977516 0.000977516 -0.999999 
-452.793 -471.78 0 0.000977516 0.000977516 -0.999999 
-256.418 -441.164 0 0.000977516 0.000977516 -0.999999 
219.11 -420.24 0 0.000977516 0.000977516 -0.999999 
248.756 -79.0602 0 0.000977516 0.000977516 -0.999999 
-81.021 -313.956 0 0.000977516 0.000977516 -0.999999 
9.64007 -52.1904 0 0.000977516 0.000977516 -0.999999 
494.992 -343.861 0 0.000977516 0.000977516 -0.999999 
476.046 394.532 0 0.000977516 0.000977516 -0.999999 
432.636 -173.591 0 0.000977516 0.000977516 -0.999999 
216.743 -177.471 0 0.000977516 0.000977516 -0.999999 
422.832 5.68884 0 0.000977516 0.000977516 -0.999999 
37.8764 -342.174 0 0.000977516 0.000977516 -0.999999 
279.296 129.618 0 0.000977516 0.000977516 -0.999999 
-112.05 -498.431 0 0.000977516 0.000977516 -0.999999 
-108.227 -423.339 0 0.000977516 0.000977516 -0.999999 
44.9375 -64.4654 0 0.000977516 0.000977516 -0.999999 
-89.3846 -298.455 0 0.000977516 0.000977516 -0.999999 
433.478 215.95 0 0.000977516 0.000977516 -0.999999 
-36.2605 -117.737 0 0.000977516 0.000977516 -0.999999 
-301.035 -406.519 0 0.000977516 0.000977516 -0.999999 
290.138 144.281 0 0.000977516 0.000977516 -0.999999 
489.164 403.047 0 0.000977516 0.000977516 -0.999999 
482.628 307.484 0 0.000977516 0.000977516 -0.999999 
383.372 -86.8293 0 0.000977516 0.000977516 -0.999999 
392.945 32.3392 0 0.000977516 0.000977516 -0.999999 
-416.252 -492.62 0 0.000977516 0.000977516 -0.999999 
145.675 13.4239 0 0.000977516 0.000977516 -0.999999 
71.5882 -162.404 0 0.000977516 0.000977516 -0.999999 
163.891 128.045 0 0.000977516 0.000977516 -0.999999 
-68.9091 -115.833 0 0.000977516 0.000977516 -0.999999 
4.81006 -325.354 0 0.000977516 0.000977516 -0.999999 
414.914 249.186 0 0.000977516 0.000977516 -0.999999 
-180.074 -207.721 0 0.000977516 0.000977516 -0.999999 
358.811 -247.803 0 0.000977516 0.000977516 -0.999999 
487.145 -340.727 0 0.000977516 0.000977516 -0.999999 
-309.769 -460.288 0 0.000977516 0.000977516 -0.999999 
-184.195 -191.453 0 0.000977516 0.000977516 -0.999999 
272.822 268.53 0 0.000977516 0.000977516 -0.999999 
43.3302 -480.945 0 0.000977516 0.000977516 -0.999999 
262.878 -152.274 0 0.000977516 0.000977516 -0.999999 
465.545 -44.5717 0 0.000977516 0.000977516 -0.999999 
172.639 -284.482 0 0.000977516 0.000977516 -0.999999 
391.226 -159.936 0 0.000977516 0.000977516 -0.999999 
224.303 -466.311 0 0.000977516 0.000977516 -0.999999 
244.251 -113.025 0 0.000977516 0.000977516 -0.999999 
180.488 -195.034 0 0.000977516 0.000977516 -0.999999 
-67.7001 -76.309 0 0.000977516 0.000977516 -0.999999 
65.9846 -342.463 0 0.000977516 0.000977516 -0.999999 
219.901 194.67 0 0.000977516 0.000977516 -0.999999 
-283.751 -485.872 0 0.000977516 0.000977516 -0.999999 
59.4459 -76.7469 0 0.000977516 0.000977516 -0.999999 
97.9573 -43.005 0 0.000977516 0.000977516 -0.999999 
27.8695 -73.6619 0 0.000977516 0.000977516 -0.999999 
418.459 96.5635 0 0.000977516 0.000977516 -0.999999 
190.295 -267.463 0 0.000977516 0.000977516 -0.999999 
-41.6023 -472.422 0 0.000977516 0.000977516 -0.999999 
73.2461 -326.49 0 0.000977516 0.000977516 -0.999999 
-110.44 -252.19 0 0.000977516 0.000977516 -0.999999 
179.098 -164.19 0 0.000977516 0.000977516 -0.999999 
287.27 -18.1555 0 0.000977516 0.000977516 -0.999999 
107.37 -103.937 0 0.000977516 0.000977516 -0.999999 
326.406 -488.138 0 0.000977516 0.000977516 -0.999999 
388.906 -442.483 0 0.000977516 0.000977516 -0.999999 
26.2377 -425.04 0 0.000977516 0.000977516 -0.999999 
-6.02373 -35.9236 0 0.000977516 0.000977516 -0.999999 
406.612 -410.804 0 0.000977516 0.000977516 -0.999999 
404.76 -250.027 0 0.000977516 0.000977516 -0.999999 
443.258 49.5334 0 0.000977516 0.000977516 -0.999999 
452.266 234.951 0 0.000977516 0.000977516 -0.999999 
361.331 199.053 0 0.000977516 0.000977516 -0.999999 
183.424 -290.045 0 0.000977516 0.000977516 -0.999999 
329.2 -491.267 0 0.000977516 0.000977516 -0.999999 
402.799 248.264 0 0.000977516 0.000977516 -0.999999 
-92.245 -208.805 0 0.000977516 0.000977516 -0.999999 
488.388 163.973 0 0.000977516 0.000977516 -0.999999 
84.7482 -22.8784 0 0.000977516 0.000977516 -0.999999 
-52.8996 -482.232 0 0.000977516 0.000977516 -0.999999 
-42.8971 -263.325 0 0.000977516 0.000977516 -0.999999 
-229.828 -394.341 0 0.000977516 0.000977516 -0.999999 
22.8778 -492.748 0 0.000977516 0.000977516 -0.999999 
295.66 -232.475 0 0.000977516 0.000977516 -0.999999 
-278.585 -321.04 0 0.000977516 0.000977516 -0.999999 
-49.433 -374.313 0 0.000977516 0.000977516 -0.999999 
-253.662 -253.956 0 0.000977516 0.000977516 -0.999999 
327.952 118.03 0 0.000977516 0.000977516 -0.999999 
435.419 -342.265 0 0.000977516 0.000977516 -0.999999 
162.062 -457.11 0 0.000977516 0.000977516 -0.999999 
193.163 -89.3043 0 0.000977516 0.000977516 -0.999999 
71.8641 -399.092 0 0.000977516 0.000977516 -0.999999 
260.507 -486.333 0 0.000977516 0.000977516 -0.999999 
121.092 -397.721 0 0.000977516 0.000977516 -0.999999 
276.81 -275.037 0 0.000977516 0.000977516 -0.999999 
258.038 -423.522 0 0.000977516 0.000977516 -0.999999 
-145.249 -225.523 0 0.000977516 0.000977516 -0.999999 
328.335 59.7812 0 0.000977516 0.000977516 -0.999999 
285.124 -499.561 0 0.000977516 0.000977516 -0.999999 
-175.799 -339.402 0 0.000977516 0.000977516 -0.999999 
214.211 -132.965 0 0.000977516 0.000977516 -0.999999 
417.407 -64.5102 0 0.000977516 0.000977516 -0.999999 
369.866 68.1214 0 0.000977516 0.000977516 -0.999999 
-53.196 -284.836 0 0.000977516 0.000977516 -0.999999 
41.246 -467.44 0 0.000977516 0.000977516 -0.999999 
377.554 -280.638 0 0.000977516 0.000977516 -0.999999 
263.888 97.5875 0 0.000977516 0.000977516 -0.999999 
-212.499 -261.04 0 0.000977516 0.000977516 -0.999999 
384.87 -249.012 0 0.000977516 0.000977516 -0.999999 
410.429 273.843 0 0.000977516 0.000977516 -0.999999 
441.101 -161.771 0 0.000977516 0.000977516 -0.999999 
136.056 -247.495 0 0.000977516 0.000977516 -0.999999 
430.423 335.535 0 0.000977516 0.000977516 -0.999999 
177.414 -191.887 0 0.000977516 0.000977516 -0.999999 
162.99 -279.675 0 0.000977516 0.000977516 -0.999999 
447.139 104.223 0 0.000977516 0.000977516 -0.999999 
-14.1709 -78.8968 0 0.000977516 0.000977516 -0.999999 
250.667 -228.32 0 0.000977516 0.000977516 -0.999999 
220.115 -338.984 0 0.000977516 0.000977516 -0.999999 
405.952 -492.412 0 0.000977516 0.000977516 -0.999999 
71.5325 31.4273 0 0.000977516 0.000977516 -0.999999 
415.575 323.843 0 0.000977516 0.000977516 -0.999999 
225.833 -427.307 0 0.000977516 0.000977516 -0.999999 
151.893 -473.821 0 0.000977516 0.000977516 -0.999999 
65.9866 -145.027 0 0.000977516 0.000977516 -0.999999 
-33.4206 -104.655 0 0.000977516 0.000977516 -0.999999 
258.201 247.581 0 0.000977516 0.000977516 -0.999999 
465.18 98.5349 0 0.000977516 0.000977516 -0.999999 
-244.232 -359.027 0 0.000977516 0.000977516 -0.999999 
147.052 -468.716 0 0.000977516 0.000977516 -0.999999 
237.221 124.184 0 0.000977516 0.000977516 -0.999999 
235.702 -466.594 0 0.000977516 0.000977516 -0.999999 
-21.7255 -206.797 0 0.000977516 0.000977516 -0.999999 
143.935 95.1472 0 0.000977516 0.000977516 -0.999999 
470.69 -48.4192 0 0.000977516 0.000977516 -0.999999 
176.755 -385.593 0 0.000977516 0.000977516 -0.999999 
-124.861 -325.18 0 0.000977516 0.000977516 -0.999999 
174.194 -353.853 0 0.000977516 0.000977516 -0.999999 
74.7394 -161.769 0 0.000977516 0.000977516 -0.999999 
-78.6973 -273.861 0 0.000977516 0.000977516 -0.999999 
-127.78 -478.416 0 0.000977516 0.000977516 -0.999999 
226.249 -312.297 0 0.000977516 0.000977516 -0.999999 
343.965 -97.0654 0 0.000977516 0.000977516 -0.999999 
-62.9937 -482.927 0 0.000977516 0.000977516 -0.999999 
-135.91 -333.821 0 0.000977516 0.000977516 -0.999999 
483.147 452.07 0 0.000977516 0.000977516 -0.999999 
-37.3318 -83.0911 0 0.000977516 0.000977516 -0.999999 
354.34 -496.359 0 0.000977516 0.000977516 -0.999999 
-315.962 -464.735 0 0.000977516 0.000977516 -0.999999 
479.273 -191.499 0 0.000977516 0.000977516 -0.999999 
28.2564 -22.5032 0 0.000977516 0.000977516 -0.999999 
-85.0706 -452.096 0 0.000977516 0.000977516 -0.999999 
-227.492 -282.517 0 0.000977516 0.000977516 -0.999999 
65.1196 -365.725 0 0.000977516 0.000977516 -0.999999 
283.311 92.1741 0 0.000977516 0.000977516 -0.999999 
394.312 -18.7685 0 0.000977516 0.000977516 -0.999999 
73.7273 -104.016 0 0.000977516 0.000977516 -0.999999 
52.4761 -392.98 0 0.000977516 0.000977516 -0.999999 
-355.062 -387.349 0 0.000977516 0.000977516 -0.999999 
-77.7569 -367.969 0 0.000977516 0.000977516 -0.999999 
378.486 228.909 0 0.000977516 0.000977516 -0.999999 
-121.746 -435.355 0 0.000977516 0.000977516 -0.999999 
192.787 15.9124 0 0.000977516 0.000977516 -0.999999 
263.715 -415.886 0 0.000977516 0.000977516 -0.999999 
-123.122 -253.885 0 0.000977516 0.000977516 -0.999999 
390.534 347.642 0 0.000977516 0.000977516 -0.999999 
295.599 -284.8 0 0.000977516 0.000977516 -0.999999 
267.212 -411.717 0 0.000977516 0.000977516 -0.999999 
-31.1543 -280.851 0 0.000977516 0.000977516 -0.999999 
309.042 -119.724 0 0.000977516 0.000977516 -0.999999 
-62.4936 -334.423 0 0.000977516 0.000977516 -0.999999 
-86.4621 -162.989 0 0.000977516 0.000977516 -0.999999 
271.502 -350.532 0 0.000977516 0.000977516 -0.999999 
362.289 -84.6955 0 0.000977516 0.000977516 -0.999999 
179.218 -45.5052 0 0.000977516 0.000977516 -0.999999 
-253.63 -330.987 0 0.000977516 0.000977516 -0.999999 
-34.4998 -291.895 0 0.000977516 0.000977516 -0.999999 
426.464 297.049 0 0.000977516 0.000977516 -0.999999 
358.993 351.635 0 0.000977516 0.000977516 -0.999999 
252.583 74.8145 0 0.000977516 0.000977516 -0.999999 
443.587 -450.016 0 0.000977516 0.000977516 -0.999999 
347.552 123.531 0 0.000977516 0.000977516 -0.999999 
98.0578 -234.517 0 0.000977516 0.000977516 -0.999999 
-49.661 -360.743 0 0.000977516 0.000977516 -0.999999 
-205.562 -333.778 0 0.000977516 0.000977516 -0.999999 
481.129 319.277 0 0.000977516 0.000977516 -0.999999 
178.881 -405.311 0 0.000977516 0.000977516 -0.999999 
195.584 -386.104 0 0.000977516 0.000977516 -0.999999 
86.8564 -122.562 0 0.000977516 0.000977516 -0.999999 
321.817 186.182 0 0.000977516 0.000977516 -0.999999 
202.812 58.0854 0 0.000977516 0.000977516 -0.999999 
-22.488 -360.319 0 0.000977516 0.000977516 -0.999999 
374.888 -76.9308 0 0.000977516 0.000977516 -0.999999 
418.588 -370.626 0 0.000977516 0.000977516 -0.999999 
