ply
format ascii 1.0
comment Created by CloudCompare v2.11.3 (Anoia)
comment Created 08/09/2022 00:13
obj_info Generated by CloudCompare!
element vertex 487
property float x
property float y
property float z
property float nx
property float ny
property float nz
end_header
-119.601 -500 414.451 0.000977516 -0.999999 0.000977516 
-398.689 -500 809.769 0.000977516 -0.999999 0.000977516 
-272.711 -500 382.544 0.000977516 -0.999999 0.000977516 
-398.973 -500 73.6622 0.000977516 -0.999999 0.000977516 
-256.096 -500 400.667 0.000977516 -0.999999 0.000977516 
169.815 -500 261.444 0.000977516 -0.999999 0.000977516 
-400.598 -500 626.827 0.000977516 -0.999999 0.000977516 
-454.41 -500 783.88 0.000977516 -0.999999 0.000977516 
-319.095 -500 191.145 0.000977516 -0.999999 0.000977516 
97.21 -500 335.262 0.000977516 -0.999999 0.000977516 
-250.019 -500 58.9416 0.000977516 -0.999999 0.000977516 
62.814 -500 221.888 0.000977516 -0.999999 0.000977516 
-470.958 -500 507.444 0.000977516 -0.999999 0.000977516 
235.333 -500 29.5484 0.000977516 -0.999999 0.000977516 
-401.251 -500 313.457 0.000977516 -0.999999 0.000977516 
-317.301 -500 787.024 0.000977516 -0.999999 0.000977516 
-201.397 -500 533.983 0.000977516 -0.999999 0.000977516 
-409.992 -500 704.353 0.000977516 -0.999999 0.000977516 
-300.76 -500 754.852 0.000977516 -0.999999 0.000977516 
-4.10995 -500 366.321 0.000977516 -0.999999 0.000977516 
176.339 -500 255.523 0.000977516 -0.999999 0.000977516 
-432.921 -500 896.914 0.000977516 -0.999999 0.000977516 
-391.568 -500 71.442 0.000977516 -0.999999 0.000977516 
-239.721 -500 731.158 0.000977516 -0.999999 0.000977516 
-190.649 -500 21.3535 0.000977516 -0.999999 0.000977516 
-464.371 -500 214.713 0.000977516 -0.999999 0.000977516 
-230.497 -500 160.852 0.000977516 -0.999999 0.000977516 
-450.977 -500 554.304 0.000977516 -0.999999 0.000977516 
40.2103 -500 146.621 0.000977516 -0.999999 0.000977516 
-143.184 -500 598.209 0.000977516 -0.999999 0.000977516 
-32.0135 -500 178.64 0.000977516 -0.999999 0.000977516 
387.373 -500 82.9868 0.000977516 -0.999999 0.000977516 
241.257 -500 941.38 0.000977516 -0.999999 0.000977516 
-141.811 -500 761.505 0.000977516 -0.999999 0.000977516 
-18.6071 -500 921.073 0.000977516 -0.999999 0.000977516 
257.374 -500 400.842 0.000977516 -0.999999 0.000977516 
376.003 -500 338.634 0.000977516 -0.999999 0.000977516 
165.249 -500 965.781 0.000977516 -0.999999 0.000977516 
369.193 -500 483.201 0.000977516 -0.999999 0.000977516 
66.2288 -500 570.787 0.000977516 -0.999999 0.000977516 
339.829 -500 846.162 0.000977516 -0.999999 0.000977516 
243.218 -500 460.304 0.000977516 -0.999999 0.000977516 
128.185 -500 612.034 0.000977516 -0.999999 0.000977516 
-77.267 -500 995.183 0.000977516 -0.999999 0.000977516 
-0.629272 -500 698.042 0.000977516 -0.999999 0.000977516 
84.0113 -500 873.426 0.000977516 -0.999999 0.000977516 
426.028 -500 878.532 0.000977516 -0.999999 0.000977516 
474.495 -500 718.281 0.000977516 -0.999999 0.000977516 
309.912 -500 386.534 0.000977516 -0.999999 0.000977516 
308.838 -500 471.807 0.000977516 -0.999999 0.000977516 
282.707 -500 604.972 0.000977516 -0.999999 0.000977516 
218.705 -500 572.656 0.000977516 -0.999999 0.000977516 
432.076 -500 476.428 0.000977516 -0.999999 0.000977516 
-76.1202 -500 859.343 0.000977516 -0.999999 0.000977516 
339.896 -500 724.146 0.000977516 -0.999999 0.000977516 
328.221 -500 820.067 0.000977516 -0.999999 0.000977516 
443.407 -500 546.588 0.000977516 -0.999999 0.000977516 
-84.0875 -500 973.888 0.000977516 -0.999999 0.000977516 
77.2678 -500 671.029 0.000977516 -0.999999 0.000977516 
31.2629 -500 942.881 0.000977516 -0.999999 0.000977516 
102.052 -500 546.255 0.000977516 -0.999999 0.000977516 
73.2753 -500 977.736 0.000977516 -0.999999 0.000977516 
145.287 -500 689.323 0.000977516 -0.999999 0.000977516 
-500 259.287 616.741 -0.999999 0.000977516 0.000977516 
-500 -289.101 15.1717 -0.999999 0.000977516 0.000977516 
-500 137.167 390.469 -0.999999 0.000977516 0.000977516 
-500 360.864 270.473 -0.999999 0.000977516 0.000977516 
-500 373.631 100.984 -0.999999 0.000977516 0.000977516 
-500 369.708 679.476 -0.999999 0.000977516 0.000977516 
-500 -190.755 186.344 -0.999999 0.000977516 0.000977516 
-500 443.915 789.283 -0.999999 0.000977516 0.000977516 
-500 341.703 102.925 -0.999999 0.000977516 0.000977516 
-500 367.537 689.955 -0.999999 0.000977516 0.000977516 
-500 -241.522 144.56 -0.999999 0.000977516 0.000977516 
-500 433.162 886.121 -0.999999 0.000977516 0.000977516 
-500 -118.559 64.9415 -0.999999 0.000977516 0.000977516 
-500 377.26 445.265 -0.999999 0.000977516 0.000977516 
-500 384.468 504.335 -0.999999 0.000977516 0.000977516 
-500 -392.636 62.0585 -0.999999 0.000977516 0.000977516 
-500 -1.77753 429.033 -0.999999 0.000977516 0.000977516 
-500 313.467 95.9652 -0.999999 0.000977516 0.000977516 
-500 104.51 202.25 -0.999999 0.000977516 0.000977516 
-500 342.731 244.718 -0.999999 0.000977516 0.000977516 
-500 -157.325 202.99 -0.999999 0.000977516 0.000977516 
-500 -247.073 69.4821 -0.999999 0.000977516 0.000977516 
-500 377.914 812.07 -0.999999 0.000977516 0.000977516 
-500 -186.786 263.567 -0.999999 0.000977516 0.000977516 
-500 -124.522 234.153 -0.999999 0.000977516 0.000977516 
-500 361.229 850.629 -0.999999 0.000977516 0.000977516 
-500 -229.108 67.9169 -0.999999 0.000977516 0.000977516 
-500 497.597 536.166 -0.999999 0.000977516 0.000977516 
-500 345.073 286.074 -0.999999 0.000977516 0.000977516 
-500 -297.67 113.007 -0.999999 0.000977516 0.000977516 
-500 309.743 711.081 -0.999999 0.000977516 0.000977516 
-500 399.829 297.428 -0.999999 0.000977516 0.000977516 
-500 111.218 841.52 -0.999999 0.000977516 0.000977516 
-500 -16.2145 842.133 -0.999999 0.000977516 0.000977516 
-500 171.84 708.226 -0.999999 0.000977516 0.000977516 
-500 -433.747 530.069 -0.999999 0.000977516 0.000977516 
-500 -148.442 670.423 -0.999999 0.000977516 0.000977516 
-500 -396.98 317.694 -0.999999 0.000977516 0.000977516 
-500 -283.061 240.875 -0.999999 0.000977516 0.000977516 
-500 307.189 812.566 -0.999999 0.000977516 0.000977516 
-500 -375.556 541.05 -0.999999 0.000977516 0.000977516 
-500 -20.4786 486.065 -0.999999 0.000977516 0.000977516 
-500 -447.424 342.253 -0.999999 0.000977516 0.000977516 
-500 -445.727 568.772 -0.999999 0.000977516 0.000977516 
-500 -233.095 437.632 -0.999999 0.000977516 0.000977516 
-500 363.981 936.817 -0.999999 0.000977516 0.000977516 
-500 62.166 568.54 -0.999999 0.000977516 0.000977516 
-500 -333.304 484.532 -0.999999 0.000977516 0.000977516 
-500 -147.24 732.181 -0.999999 0.000977516 0.000977516 
-500 -391.137 386.291 -0.999999 0.000977516 0.000977516 
-500 -89.4536 700.233 -0.999999 0.000977516 0.000977516 
-500 -477.625 559.205 -0.999999 0.000977516 0.000977516 
-500 52.3157 979.607 -0.999999 0.000977516 0.000977516 
-500 -328.849 884.443 -0.999999 0.000977516 0.000977516 
-500 -330.673 663.686 -0.999999 0.000977516 0.000977516 
-500 -413.874 901.113 -0.999999 0.000977516 0.000977516 
-500 -427.201 877.171 -0.999999 0.000977516 0.000977516 
-500 -251.407 812.723 -0.999999 0.000977516 0.000977516 
-500 -345.17 406.557 -0.999999 0.000977516 0.000977516 
-500 212.012 803.982 -0.999999 0.000977516 0.000977516 
-500 -480.329 161.888 -0.999999 0.000977516 0.000977516 
-500 -282.267 322.973 -0.999999 0.000977516 0.000977516 
-500 297.296 892.523 -0.999999 0.000977516 0.000977516 
-500 343.546 905.295 -0.999999 0.000977516 0.000977516 
500 -56.3023 267.3 0.999999 0.000977516 0.000977516 
500 -499.41 557.182 0.999999 0.000977516 0.000977516 
500 -175.848 378.649 0.999999 0.000977516 0.000977516 
500 -471.809 886.82 0.999999 0.000977516 0.000977516 
500 -471.104 658.662 0.999999 0.000977516 0.000977516 
500 -218.97 36.7004 0.999999 0.000977516 0.000977516 
500 99.3466 214.822 0.999999 0.000977516 0.000977516 
500 131.174 216.895 0.999999 0.000977516 0.000977516 
500 -320.208 495.927 0.999999 0.000977516 0.000977516 
500 -92.0402 245.005 0.999999 0.000977516 0.000977516 
500 -411.637 655.835 0.999999 0.000977516 0.000977516 
500 -158.862 348.503 0.999999 0.000977516 0.000977516 
500 -364.361 140.086 0.999999 0.000977516 0.000977516 
500 -189.222 669.731 0.999999 0.000977516 0.000977516 
500 -445.912 668.85 0.999999 0.000977516 0.000977516 
500 -499.136 822.099 0.999999 0.000977516 0.000977516 
500 -158.093 252.821 0.999999 0.000977516 0.000977516 
500 -464.196 121.183 0.999999 0.000977516 0.000977516 
500 111.164 129.317 0.999999 0.000977516 0.000977516 
500 -76.1693 436.184 0.999999 0.000977516 0.000977516 
500 -158.665 143.274 0.999999 0.000977516 0.000977516 
500 65.8218 139.732 0.999999 0.000977516 0.000977516 
500 126.527 53.3431 0.999999 0.000977516 0.000977516 
500 195.904 101.439 0.999999 0.000977516 0.000977516 
500 -289.135 727.367 0.999999 0.000977516 0.000977516 
500 -370.108 161.76 0.999999 0.000977516 0.000977516 
500 326.593 66.9553 0.999999 0.000977516 0.000977516 
500 -359.543 487.514 0.999999 0.000977516 0.000977516 
500 124.652 93.0877 0.999999 0.000977516 0.000977516 
500 -27.7834 429.871 0.999999 0.000977516 0.000977516 
500 26.0531 66.2506 0.999999 0.000977516 0.000977516 
500 -252.608 78.467 0.999999 0.000977516 0.000977516 
500 -340.297 984.67 0.999999 0.000977516 0.000977516 
500 97.8246 839.048 0.999999 0.000977516 0.000977516 
500 77.2769 907.835 0.999999 0.000977516 0.000977516 
500 5.64502 834.107 0.999999 0.000977516 0.000977516 
500 -154.406 987.416 0.999999 0.000977516 0.000977516 
500 -95.6343 875.07 0.999999 0.000977516 0.000977516 
500 268.191 713.246 0.999999 0.000977516 0.000977516 
500 448.736 156.785 0.999999 0.000977516 0.000977516 
500 442.037 101.897 0.999999 0.000977516 0.000977516 
500 -456.504 991.737 0.999999 0.000977516 0.000977516 
500 286.093 237.825 0.999999 0.000977516 0.000977516 
500 68.758 686.1 0.999999 0.000977516 0.000977516 
500 219.534 630.178 0.999999 0.000977516 0.000977516 
500 488.704 856.013 0.999999 0.000977516 0.000977516 
500 54.2173 459.722 0.999999 0.000977516 0.000977516 
500 -64.9131 905.246 0.999999 0.000977516 0.000977516 
500 155.329 361.528 0.999999 0.000977516 0.000977516 
500 -0.950409 824.808 0.999999 0.000977516 0.000977516 
500 -146.952 767.737 0.999999 0.000977516 0.000977516 
500 389.05 663.026 0.999999 0.000977516 0.000977516 
500 274.484 974.282 0.999999 0.000977516 0.000977516 
500 224.78 475.219 0.999999 0.000977516 0.000977516 
500 383.587 328.592 0.999999 0.000977516 0.000977516 
500 407.885 961.401 0.999999 0.000977516 0.000977516 
500 299.293 895.469 0.999999 0.000977516 0.000977516 
500 352.02 594.589 0.999999 0.000977516 0.000977516 
500 138.241 662.673 0.999999 0.000977516 0.000977516 
500 169.797 594.206 0.999999 0.000977516 0.000977516 
500 416.1 608.319 0.999999 0.000977516 0.000977516 
500 -347.717 958.944 0.999999 0.000977516 0.000977516 
500 470.24 816.792 0.999999 0.000977516 0.000977516 
391.938 192.543 0 0.000977516 0.000977516 -0.999999 
396.409 85.3458 0 0.000977516 0.000977516 -0.999999 
94.7164 -150.224 0 0.000977516 0.000977516 -0.999999 
251.972 136.447 0 0.000977516 0.000977516 -0.999999 
-213.313 -362.345 0 0.000977516 0.000977516 -0.999999 
303.756 28.9907 0 0.000977516 0.000977516 -0.999999 
141.962 -242.522 0 0.000977516 0.000977516 -0.999999 
-37.5904 -133.538 0 0.000977516 0.000977516 -0.999999 
337.382 -430.149 0 0.000977516 0.000977516 -0.999999 
-196.159 -480.601 0 0.000977516 0.000977516 -0.999999 
72.7508 -99.894 0 0.000977516 0.000977516 -0.999999 
400.131 214.219 0 0.000977516 0.000977516 -0.999999 
40.7127 -332.712 0 0.000977516 0.000977516 -0.999999 
240.557 57.1747 0 0.000977516 0.000977516 -0.999999 
-74.09 -263.513 0 0.000977516 0.000977516 -0.999999 
320.324 316.786 0 0.000977516 0.000977516 -0.999999 
236.51 -339.016 0 0.000977516 0.000977516 -0.999999 
448.808 66.7593 0 0.000977516 0.000977516 -0.999999 
349.861 158.032 0 0.000977516 0.000977516 -0.999999 
256.343 -361.184 0 0.000977516 0.000977516 -0.999999 
265.922 106.775 0 0.000977516 0.000977516 -0.999999 
-33.3151 -438.414 0 0.000977516 0.000977516 -0.999999 
391.246 121.008 0 0.000977516 0.000977516 -0.999999 
356.318 -213.531 0 0.000977516 0.000977516 -0.999999 
245.45 195.273 0 0.000977516 0.000977516 -0.999999 
291.263 -21.2851 0 0.000977516 0.000977516 -0.999999 
194.044 178.217 0 0.000977516 0.000977516 -0.999999 
492.324 -345.277 0 0.000977516 0.000977516 -0.999999 
172.453 -458.886 0 0.000977516 0.000977516 -0.999999 
51.7215 -69.5063 0 0.000977516 0.000977516 -0.999999 
233.135 -374.902 0 0.000977516 0.000977516 -0.999999 
99.4393 398.009 0 0.000977516 0.000977516 -0.999999 
-409.856 219.113 0 0.000977516 0.000977516 -0.999999 
-264.491 389.943 0 0.000977516 0.000977516 -0.999999 
-0.755615 166.881 0 0.000977516 0.000977516 -0.999999 
-459.68 135.227 0 0.000977516 0.000977516 -0.999999 
-95.7446 461.04 0 0.000977516 0.000977516 -0.999999 
257.262 310.878 0 0.000977516 0.000977516 -0.999999 
-266.651 157.544 0 0.000977516 0.000977516 -0.999999 
-482.884 -283.849 0 0.000977516 0.000977516 -0.999999 
37.8039 446.244 0 0.000977516 0.000977516 -0.999999 
-185.924 193.798 0 0.000977516 0.000977516 -0.999999 
-456.062 -64.1687 0 0.000977516 0.000977516 -0.999999 
-108.206 347.549 0 0.000977516 0.000977516 -0.999999 
-302.709 -16.0498 0 0.000977516 0.000977516 -0.999999 
-192.26 -2.39288 0 0.000977516 0.000977516 -0.999999 
77.5599 88.2688 0 0.000977516 0.000977516 -0.999999 
-392.862 -168.483 0 0.000977516 0.000977516 -0.999999 
-259.34 349.85 0 0.000977516 0.000977516 -0.999999 
-476.06 -29.4376 0 0.000977516 0.000977516 -0.999999 
0.572266 46.7451 0 0.000977516 0.000977516 -0.999999 
-436.068 271.666 0 0.000977516 0.000977516 -0.999999 
-406.006 205.568 0 0.000977516 0.000977516 -0.999999 
-180.935 11.4739 0 0.000977516 0.000977516 -0.999999 
131.377 312.663 0 0.000977516 0.000977516 -0.999999 
-409.385 75.8059 0 0.000977516 0.000977516 -0.999999 
-220.825 -209.656 0 0.000977516 0.000977516 -0.999999 
-435.77 -334.119 0 0.000977516 0.000977516 -0.999999 
-357.237 496.933 0 0.000977516 0.000977516 -0.999999 
-450.296 -10.4521 0 0.000977516 0.000977516 -0.999999 
-152.337 267.775 0 0.000977516 0.000977516 -0.999999 
-143.441 22.2032 0 0.000977516 0.000977516 -0.999999 
-251.658 -209.441 1000 0.000977516 0.000977516 0.999999 
-391.666 -346.905 1000 0.000977516 0.000977516 0.999999 
-346.444 -229.353 1000 0.000977516 0.000977516 0.999999 
-299.707 -126.968 1000 0.000977516 0.000977516 0.999999 
-267.42 -37.072 1000 0.000977516 0.000977516 0.999999 
-310.258 2.26672 1000 0.000977516 0.000977516 0.999999 
-283.171 -26.0722 1000 0.000977516 0.000977516 0.999999 
-437.437 -181.196 1000 0.000977516 0.000977516 0.999999 
-498.501 -89.7891 1000 0.000977516 0.000977516 0.999999 
-489.009 -111.865 1000 0.000977516 0.000977516 0.999999 
-487.796 -97.8607 1000 0.000977516 0.000977516 0.999999 
-434.14 355.88 1000 0.000977516 0.000977516 0.999999 
-378.258 348.632 1000 0.000977516 0.000977516 0.999999 
-260.055 176.798 1000 0.000977516 0.000977516 0.999999 
-249.113 115.847 1000 0.000977516 0.000977516 0.999999 
304.46 -381.322 1000 0.000977516 0.000977516 0.999999 
53.0063 -332.597 1000 0.000977516 0.000977516 0.999999 
-19.34 -422.716 1000 0.000977516 0.000977516 0.999999 
188.656 -402.863 1000 0.000977516 0.000977516 0.999999 
-77.206 -481.75 1000 0.000977516 0.000977516 0.999999 
45.5894 -425.658 1000 0.000977516 0.000977516 0.999999 
-261.375 -393.93 1000 0.000977516 0.000977516 0.999999 
-204.072 -409.843 1000 0.000977516 0.000977516 0.999999 
-386.811 -485.43 1000 0.000977516 0.000977516 0.999999 
302.204 -327.794 1000 0.000977516 0.000977516 0.999999 
-310.087 359.491 1000 0.000977516 0.000977516 0.999999 
-85.9351 244.353 1000 0.000977516 0.000977516 0.999999 
-267.614 360.678 1000 0.000977516 0.000977516 0.999999 
-187.058 332.411 1000 0.000977516 0.000977516 0.999999 
478.977 -458.489 1000 0.000977516 0.000977516 0.999999 
302.939 -59.2244 1000 0.000977516 0.000977516 0.999999 
291.468 -23.2519 1000 0.000977516 0.000977516 0.999999 
420.972 172.773 1000 0.000977516 0.000977516 0.999999 
437.483 -362.323 1000 0.000977516 0.000977516 0.999999 
453.66 393.198 1000 0.000977516 0.000977516 0.999999 
489.674 94.4675 1000 0.000977516 0.000977516 0.999999 
328.292 -2.49808 1000 0.000977516 0.000977516 0.999999 
491.168 357.19 1000 0.000977516 0.000977516 0.999999 
411.401 356.51 1000 0.000977516 0.000977516 0.999999 
268.495 203.09 1000 0.000977516 0.000977516 0.999999 
304.872 349.674 1000 0.000977516 0.000977516 0.999999 
376.69 411.761 1000 0.000977516 0.000977516 0.999999 
31.887 328.993 1000 0.000977516 0.000977516 0.999999 
-40.6505 310.15 1000 0.000977516 0.000977516 0.999999 
155.667 471.168 1000 0.000977516 0.000977516 0.999999 
-177.741 499.467 1000 0.000977516 0.000977516 0.999999 
8.39413 264.419 1000 0.000977516 0.000977516 0.999999 
-37.5298 353.865 1000 0.000977516 0.000977516 0.999999 
-386.801 450.308 1000 0.000977516 0.000977516 0.999999 
-22.5941 381.552 1000 0.000977516 0.000977516 0.999999 
288.609 500 603.06 0.000977516 0.999999 0.000977516 
187.39 500 364.313 0.000977516 0.999999 0.000977516 
-2.36279 500 108.608 0.000977516 0.999999 0.000977516 
99.3246 500 368.971 0.000977516 0.999999 0.000977516 
374.286 500 858.446 0.000977516 0.999999 0.000977516 
227.634 500 78.3177 0.000977516 0.999999 0.000977516 
300.467 500 301.023 0.000977516 0.999999 0.000977516 
469.893 500 100.05 0.000977516 0.999999 0.000977516 
309.938 500 66.4571 0.000977516 0.999999 0.000977516 
-281.215 500 82.6904 0.000977516 0.999999 0.000977516 
495.72 500 840.899 0.000977516 0.999999 0.000977516 
354.885 500 101.578 0.000977516 0.999999 0.000977516 
-178.86 500 193.541 0.000977516 0.999999 0.000977516 
-108.453 500 2.31566 0.000977516 0.999999 0.000977516 
204.602 500 534.805 0.000977516 0.999999 0.000977516 
133.228 500 327.348 0.000977516 0.999999 0.000977516 
479.182 500 839.486 0.000977516 0.999999 0.000977516 
-271.921 500 115.809 0.000977516 0.999999 0.000977516 
-83.9225 500 340.801 0.000977516 0.999999 0.000977516 
253.004 500 733.767 0.000977516 0.999999 0.000977516 
426.662 500 245.088 0.000977516 0.999999 0.000977516 
303.6 500 566.6 0.000977516 0.999999 0.000977516 
-84.3015 500 35.5731 0.000977516 0.999999 0.000977516 
-50.4836 500 261.798 0.000977516 0.999999 0.000977516 
330.658 500 505.755 0.000977516 0.999999 0.000977516 
65.2707 500 71.5888 0.000977516 0.999999 0.000977516 
236.576 500 232.035 0.000977516 0.999999 0.000977516 
421.493 500 833.846 0.000977516 0.999999 0.000977516 
405.911 500 98.3399 0.000977516 0.999999 0.000977516 
171.677 500 18.423 0.000977516 0.999999 0.000977516 
383.512 500 145.375 0.000977516 0.999999 0.000977516 
250.841 500 862.674 0.000977516 0.999999 0.000977516 
-495.25 500 320.142 0.000977516 0.999999 0.000977516 
-59.4175 500 857.18 0.000977516 0.999999 0.000977516 
-331.643 500 487.33 0.000977516 0.999999 0.000977516 
71.6873 500 986.538 0.000977516 0.999999 0.000977516 
212.463 500 832.648 0.000977516 0.999999 0.000977516 
-183.311 500 390.447 0.000977516 0.999999 0.000977516 
321.217 500 964.822 0.000977516 0.999999 0.000977516 
341.735 500 938.126 0.000977516 0.999999 0.000977516 
151.731 500 794.689 0.000977516 0.999999 0.000977516 
-356.661 500 393.344 0.000977516 0.999999 0.000977516 
-51.0687 500 651.943 0.000977516 0.999999 0.000977516 
211.541 500 830.986 0.000977516 0.999999 0.000977516 
-203.123 500 341.877 0.000977516 0.999999 0.000977516 
-455.806 500 548.948 0.000977516 0.999999 0.000977516 
-470.776 500 174.386 0.000977516 0.999999 0.000977516 
197.322 500 935.816 0.000977516 0.999999 0.000977516 
-390.237 500 360.122 0.000977516 0.999999 0.000977516 
144.11 500 974.99 0.000977516 0.999999 0.000977516 
62.6163 500 909.216 0.000977516 0.999999 0.000977516 
481.953 500 990.575 0.000977516 0.999999 0.000977516 
-409.432 500 624.219 0.000977516 0.999999 0.000977516 
-403.899 500 576.283 0.000977516 0.999999 0.000977516 
-43.2095 500 532.023 0.000977516 0.999999 0.000977516 
214.837 500 730.819 0.000977516 0.999999 0.000977516 
-163.23 500 551.799 0.000977516 0.999999 0.000977516 
-345.345 500 815.922 0.000977516 0.999999 0.000977516 
317.579 500 851.38 0.000977516 0.999999 0.000977516 
-318.759 500 469.819 0.000977516 0.999999 0.000977516 
-488.861 500 843.499 0.000977516 0.999999 0.000977516 
130.101 500 691.228 0.000977516 0.999999 0.000977516 
249.685 11.9095 1835.67 0.998267 0.058843 0.00103233 
249.102 20.946 1666.17 0.995047 0.0993978 0.00106879 
245.463 47.2328 1857.29 0.983996 0.178186 0.00113494 
242.036 62.4205 1082.44 0.966452 0.256844 0.00119463 
217.627 123.016 1830.54 0.878249 0.478202 0.00132466 
203.337 145.363 1544.92 0.815569 0.578659 0.00136155 
195.254 156.116 1559.47 0.792878 0.609379 0.00136939 
189.029 163.592 1804.91 0.7663 0.642481 0.00137576 
177.081 176.413 1024.86 0.713977 0.700167 0.001381 
173.599 179.855 1275.54 0.686096 0.72751 0.00138047 
173.063 180.36 1858.17 0.686096 0.72751 0.00138047 
146.443 202.574 1678.52 0.594083 0.804402 0.00136571 
129.752 213.652 1707.17 0.528668 0.848828 0.00134521 
115.879 221.47 1342.22 0.459279 0.888291 0.00131599 
105.815 226.448 1794.41 0.424733 0.905318 0.00129888 
100.485 228.897 1362.91 0.387428 0.921899 0.00127864 
90.9228 232.855 1043.83 0.35071 0.936483 0.00125702 
79.9698 236.82 1803.4 0.311788 0.950151 0.00123236 
81.0444 236.466 1769.75 0.311788 0.950151 0.00123236 
36.6393 247.269 1538.66 0.157685 0.987489 0.00111833 
39.3949 246.827 1506.28 0.157685 0.987489 0.00111833 
27.8657 248.4 1471.41 0.118289 0.992979 0.00108522 
24.758 248.77 1526.09 0.0787849 0.996891 0.00105046 
-11.1879 249.703 2039.54 -0.0395629 0.999217 0.00101443 
-9.52589 249.769 1190.14 -0.0395629 0.999217 0.00101443 
-23.7657 248.849 1650.34 -0.0787849 0.996891 0.00105046 
-34.2184 247.638 1255.06 -0.118289 0.992979 0.00108522 
-57.2716 243.308 1577.55 -0.237255 0.971447 0.00118037 
-59.236 242.83 1848.6 -0.237255 0.971447 0.00118037 
-102.349 228.069 1100.64 -0.424733 0.905318 0.00129888 
-102.079 228.195 2018.16 -0.424733 0.905318 0.00129888 
-113.905 222.49 1134.68 -0.459279 0.888291 0.00131599 
-119.795 219.415 1886.74 -0.493986 0.869469 0.0013315 
-138.911 207.803 1420.15 -0.563126 0.82637 0.00135693 
-154.778 196.274 1624.55 -0.624527 0.781002 0.00137259 
-161.303 190.97 1093.59 -0.657235 0.753685 0.00137785 
-164.237 188.419 1528.7 -0.657235 0.753685 0.00137785 
-184.771 168.332 1576.01 -0.74075 0.671779 0.00137942 
-199.835 150.166 1280.63 -0.792878 0.609379 0.00136939 
-203.111 145.683 2022.19 -0.815569 0.578659 0.00136155 
-222.318 114.322 1725.27 -0.897798 0.440405 0.00130684 
-230.195 97.4858 1127.08 -0.913864 0.406019 0.00128895 
-228.659 100.947 1418.84 -0.913864 0.406019 0.00128895 
-232.28 92.3119 1281.69 -0.929435 0.368984 0.00126799 
-240.973 66.4382 2079.2 -0.966452 0.256844 0.00119463 
-243.92 54.5761 1105.33 -0.975939 0.218041 0.001166 
-247.989 31.4245 1468.85 -0.990471 0.137718 0.00110175 
-249.865 -6.78377 1101.09 -0.999821 -0.0189021 0.000994847 
-249.413 -16.4591 1334.19 -0.998267 -0.058843 0.00103233 
-243.258 -57.554 1041.8 -0.975939 -0.218041 0.001166 
-243.241 -57.63 1737.26 -0.975939 -0.218041 0.001166 
-239.564 -71.3381 1164.4 -0.955752 -0.294171 0.00122063 
-217.885 -122.539 1319.31 -0.878249 -0.478202 0.00132466 
-211.253 -133.632 1690.9 -0.838844 -0.54437 0.0013508 
-207.341 -139.647 2011.94 -0.838844 -0.54437 0.0013508 
-204.976 -143.05 1581.56 -0.815569 -0.578659 0.00136155 
-199.883 -150.103 1482.92 -0.792878 -0.609379 0.00136939 
-189.038 -163.582 2015.51 -0.7663 -0.642481 0.00137576 
-180.598 -172.825 1075.36 -0.713977 -0.700167 0.001381 
-120.25 -219.156 1613.11 -0.493986 -0.869469 0.0013315 
-126.793 -215.436 1781.14 -0.493986 -0.869469 0.0013315 
-114.505 -222.18 2001.84 -0.459279 -0.888291 0.00131599 
-97.5902 -230.113 1695.96 -0.387428 -0.921899 0.00127864 
-109.302 -224.817 1415.89 -0.424733 -0.905318 0.00129888 
-86.3255 -234.574 1809.85 -0.35071 -0.936483 0.00125702 
-70.7026 -239.752 1490.45 -0.273924 -0.961751 0.00120671 
-33.7756 -247.691 1545.92 -0.118289 -0.992979 0.00108522 
-20.6444 -249.098 1689.48 -0.0787849 -0.996891 0.00105046 
-24.5816 -248.784 2041.86 -0.0787849 -0.996891 0.00105046 
-2.48299 -249.951 1390.29 0.000977516 -0.999999 0.000977516 
11.6792 -249.684 1738.02 0.0395629 -0.999217 0.00101443 
7.98502 -249.831 1488.12 0.0395629 -0.999217 0.00101443 
42.1909 -246.378 1863.53 0.157685 -0.987489 0.00111833 
81.8033 -236.216 1743.56 0.311788 -0.950151 0.00123236 
106.962 -225.911 1875.76 0.424733 -0.905318 0.00129888 
109.881 -224.546 1343.48 0.424733 -0.905318 0.00129888 
134.826 -210.494 1908.54 0.528668 -0.848828 0.00134521 
133.186 -211.515 1381.78 0.528668 -0.848828 0.00134521 
138.645 -207.984 2065.56 0.563126 -0.82637 0.00135693 
148.528 -201.034 1239.79 0.594083 -0.804402 0.00136571 
163.495 -189.064 1706.08 0.657235 -0.753685 0.00137785 
178.209 -175.262 1205.92 0.713977 -0.700167 0.001381 
193.245 -158.545 1124.13 0.7663 -0.642481 0.00137576 
197.877 -152.709 1976.13 0.792878 -0.609379 0.00136939 
199.088 -151.137 1111.6 0.792878 -0.609379 0.00136939 
206.12 -141.435 1935.86 0.815569 -0.578659 0.00136155 
213.932 -129.273 2088.27 0.858436 -0.512919 0.00133921 
218.078 -122.184 1389.52 0.878249 -0.478202 0.00132466 
227.96 -102.524 1085.55 0.913864 -0.406019 0.00128895 
232.601 -91.5029 1077.04 0.929435 -0.368984 0.00126799 
237.191 -78.9497 1980.22 0.943059 -0.332624 0.00124578 
237.994 -76.4471 1217.1 0.955752 -0.294171 0.00122063 
241.446 -64.6493 1434.48 0.966452 -0.256844 0.00119463 
246.132 -43.536 1428.57 0.983996 -0.178186 0.00113494 
249.623 -12.9481 1590.28 0.998267 -0.058843 0.00103233 
249.822 -8.93741 2034.57 0.999821 -0.0189021 0.000994847 
190.208 -73.5771 2249.12 0.892886 -0.341354 0.293654 
173.748 -77.5969 2293.42 0.872168 -0.391182 0.293767 
115.015 -178.045 2223.17 0.529547 -0.795111 0.295598 
59.4714 -212.93 2193.66 0.238101 -0.925314 0.295131 
102.207 -146.307 2331.88 0.529547 -0.795111 0.295598 
-94.6297 -221.622 2129.06 -0.391182 -0.872168 0.293767 
69.3455 -162.961 2336.3 0.391182 -0.872168 0.293767 
-114.479 -181.34 2215.25 -0.529547 -0.795111 0.295598 
-234.164 83.3221 2104.62 -0.902485 0.317569 0.290981 
-135.751 -126.171 2309.52 -0.694908 -0.656391 0.293691 
-204.697 -32.2515 2238.56 -0.946512 -0.132914 0.294023 
-191.415 -26.1655 2283.99 -0.946512 -0.132914 0.294023 
-201.697 45.7996 2239.98 -0.937099 0.186866 0.294833 
-156.485 189.682 2113.03 -0.615769 0.728312 0.30065 
-145.966 -68.0788 2388.31 -0.872894 -0.390146 0.292989 
-161.228 10.8341 2386.6 -0.952479 0.0790493 0.294167 
-165.96 62.8296 2335.06 -0.892886 0.341354 0.293654 
61.6782 197.245 2240.3 0.29085 0.910551 0.293773 
175.137 123.594 2215.55 0.795111 0.529547 0.295598 
231.594 42.2273 2147.11 0.937099 0.186866 0.294833 
181.301 72.4109 2277.47 0.892886 0.341354 0.293654 
-150.904 25.3335 2400 0.000977516 0.000977516 0.999999 
71.845 130.617 2400 0.000977516 0.000977516 0.999999 
-76.2637 36.5788 2400 0.000977516 0.000977516 0.999999 
-42.5624 101.509 2400 0.000977516 0.000977516 0.999999 
65.297 62.3279 2400 0.000977516 0.000977516 0.999999 
53.5698 -97.2912 2400 0.000977516 0.000977516 0.999999 
