ply
format ascii 1.0
comment Created by CloudCompare v2.11.3 (Anoia)
comment Created 08/09/2022 00:11
obj_info Generated by CloudCompare!
element vertex 874
property float x
property float y
property float z
property float nx
property float ny
property float nz
end_header
154.982 500 723.895 0.000977516 0.999999 0.000977516 
-62.3843 500 874.276 0.000977516 0.999999 0.000977516 
6.12313 500 563.232 0.000977516 0.999999 0.000977516 
-481.744 500 515.126 0.000977516 0.999999 0.000977516 
396.462 500 956.039 0.000977516 0.999999 0.000977516 
236.564 500 849.925 0.000977516 0.999999 0.000977516 
-290.915 500 238.932 0.000977516 0.999999 0.000977516 
-92.5645 500 665.164 0.000977516 0.999999 0.000977516 
-308.878 500 946.864 0.000977516 0.999999 0.000977516 
159.999 500 904.789 0.000977516 0.999999 0.000977516 
322.238 500 976.371 0.000977516 0.999999 0.000977516 
-221.154 500 950.634 0.000977516 0.999999 0.000977516 
-173.039 500 328.717 0.000977516 0.999999 0.000977516 
32.5339 500 864.08 0.000977516 0.999999 0.000977516 
-330.078 500 558.82 0.000977516 0.999999 0.000977516 
300.254 500 825.703 0.000977516 0.999999 0.000977516 
-199.069 500 983.064 0.000977516 0.999999 0.000977516 
-186.198 500 789.677 0.000977516 0.999999 0.000977516 
-445.639 500 992.897 0.000977516 0.999999 0.000977516 
-127.626 500 571.814 0.000977516 0.999999 0.000977516 
-315.727 500 453.594 0.000977516 0.999999 0.000977516 
44.8853 500 792.322 0.000977516 0.999999 0.000977516 
-401.788 500 272.431 0.000977516 0.999999 0.000977516 
-228.824 500 472.29 0.000977516 0.999999 0.000977516 
-344.907 500 936.47 0.000977516 0.999999 0.000977516 
-5.46536 500 771.555 0.000977516 0.999999 0.000977516 
25.1098 500 551.764 0.000977516 0.999999 0.000977516 
-92.9108 500 970.566 0.000977516 0.999999 0.000977516 
72.0728 500 947.788 0.000977516 0.999999 0.000977516 
21.8037 500 874.752 0.000977516 0.999999 0.000977516 
-144.475 500 591.83 0.000977516 0.999999 0.000977516 
-339.487 500 413.294 0.000977516 0.999999 0.000977516 
-436.448 500 630.89 0.000977516 0.999999 0.000977516 
-342.027 500 418.285 0.000977516 0.999999 0.000977516 
146.345 500 891.039 0.000977516 0.999999 0.000977516 
-395.165 500 428.914 0.000977516 0.999999 0.000977516 
-482.64 500 935.205 0.000977516 0.999999 0.000977516 
-177.662 500 633.839 0.000977516 0.999999 0.000977516 
65.3775 500 990.365 0.000977516 0.999999 0.000977516 
-466.47 500 876.257 0.000977516 0.999999 0.000977516 
-492.433 500 700.297 0.000977516 0.999999 0.000977516 
-87.7781 500 447.999 0.000977516 0.999999 0.000977516 
23.1364 500 861.522 0.000977516 0.999999 0.000977516 
-186.845 500 465.65 0.000977516 0.999999 0.000977516 
125.368 500 916.788 0.000977516 0.999999 0.000977516 
-411.586 500 174.085 0.000977516 0.999999 0.000977516 
-34.9243 500 510.705 0.000977516 0.999999 0.000977516 
247.691 500 822.542 0.000977516 0.999999 0.000977516 
241.533 500 822.395 0.000977516 0.999999 0.000977516 
42.8187 500 911.15 0.000977516 0.999999 0.000977516 
-122.745 500 947.824 0.000977516 0.999999 0.000977516 
15.5878 500 950.683 0.000977516 0.999999 0.000977516 
-251.296 500 880.664 0.000977516 0.999999 0.000977516 
97.0635 500 711.317 0.000977516 0.999999 0.000977516 
-250.311 500 909.022 0.000977516 0.999999 0.000977516 
-309.807 500 825.254 0.000977516 0.999999 0.000977516 
18.7756 500 547.858 0.000977516 0.999999 0.000977516 
2.16519 500 882.074 0.000977516 0.999999 0.000977516 
-305.79 500 683.879 0.000977516 0.999999 0.000977516 
-268.216 500 268.261 0.000977516 0.999999 0.000977516 
-27.668 500 927.767 0.000977516 0.999999 0.000977516 
-491.694 500 939.559 0.000977516 0.999999 0.000977516 
-439.162 500 153.583 0.000977516 0.999999 0.000977516 
-16.884 500 635.006 0.000977516 0.999999 0.000977516 
-323.284 500 381.224 0.000977516 0.999999 0.000977516 
252.097 500 970.501 0.000977516 0.999999 0.000977516 
-41.0693 500 491.389 0.000977516 0.999999 0.000977516 
244.073 500 751.568 0.000977516 0.999999 0.000977516 
-483.85 500 642.586 0.000977516 0.999999 0.000977516 
166.254 500 897.182 0.000977516 0.999999 0.000977516 
97.2584 500 841.451 0.000977516 0.999999 0.000977516 
69.5838 500 836.805 0.000977516 0.999999 0.000977516 
-173.745 500 650.535 0.000977516 0.999999 0.000977516 
-225.699 500 575.334 0.000977516 0.999999 0.000977516 
-328.751 500 589.905 0.000977516 0.999999 0.000977516 
-40.7029 500 616.937 0.000977516 0.999999 0.000977516 
17.4002 500 866.961 0.000977516 0.999999 0.000977516 
-456.981 500 841.044 0.000977516 0.999999 0.000977516 
-256.202 500 426.221 0.000977516 0.999999 0.000977516 
101.734 500 698.48 0.000977516 0.999999 0.000977516 
374.881 500 886.516 0.000977516 0.999999 0.000977516 
176.947 500 724.278 0.000977516 0.999999 0.000977516 
10.1494 500 925.909 0.000977516 0.999999 0.000977516 
-358.335 500 623.849 0.000977516 0.999999 0.000977516 
-309.88 500 652.886 0.000977516 0.999999 0.000977516 
-199.185 500 689.536 0.000977516 0.999999 0.000977516 
74.4417 500 787.406 0.000977516 0.999999 0.000977516 
73.5323 500 752.703 0.000977516 0.999999 0.000977516 
-276.256 500 632.682 0.000977516 0.999999 0.000977516 
-112.22 500 466.546 0.000977516 0.999999 0.000977516 
187.617 500 837.131 0.000977516 0.999999 0.000977516 
6.23004 500 995.566 0.000977516 0.999999 0.000977516 
-486.472 500 705.177 0.000977516 0.999999 0.000977516 
-41.7256 500 757.132 0.000977516 0.999999 0.000977516 
121.189 500 667.293 0.000977516 0.999999 0.000977516 
-287.481 500 380.818 0.000977516 0.999999 0.000977516 
156.854 500 704.572 0.000977516 0.999999 0.000977516 
-454.488 500 430.979 0.000977516 0.999999 0.000977516 
-209.755 500 667.569 0.000977516 0.999999 0.000977516 
-370.629 500 328.985 0.000977516 0.999999 0.000977516 
-60.3742 500 642.979 0.000977516 0.999999 0.000977516 
-341.935 500 388.041 0.000977516 0.999999 0.000977516 
28.5055 500 818.7 0.000977516 0.999999 0.000977516 
-268.155 500 878.959 0.000977516 0.999999 0.000977516 
413.553 500 926.928 0.000977516 0.999999 0.000977516 
-225.925 500 275.238 0.000977516 0.999999 0.000977516 
413.79 500 940.321 0.000977516 0.999999 0.000977516 
-233.95 500 426.59 0.000977516 0.999999 0.000977516 
-188.77 500 968.125 0.000977516 0.999999 0.000977516 
-421.64 500 608.851 0.000977516 0.999999 0.000977516 
-146.256 500 606.36 0.000977516 0.999999 0.000977516 
-489.607 500 89.94 0.000977516 0.999999 0.000977516 
-408.291 500 118.753 0.000977516 0.999999 0.000977516 
-80.2203 500 465.231 0.000977516 0.999999 0.000977516 
444.164 500 969.269 0.000977516 0.999999 0.000977516 
-160.355 500 861.283 0.000977516 0.999999 0.000977516 
-308.28 500 281.555 0.000977516 0.999999 0.000977516 
-394.366 500 317.963 0.000977516 0.999999 0.000977516 
51.1707 500 848.311 0.000977516 0.999999 0.000977516 
-433.857 500 163.634 0.000977516 0.999999 0.000977516 
110.322 500 698.354 0.000977516 0.999999 0.000977516 
-489.442 500 155.614 0.000977516 0.999999 0.000977516 
-299.63 500 908.891 0.000977516 0.999999 0.000977516 
-412.966 500 141.857 0.000977516 0.999999 0.000977516 
59.219 500 571.371 0.000977516 0.999999 0.000977516 
-360.251 500 187.055 0.000977516 0.999999 0.000977516 
-393.715 500 680.159 0.000977516 0.999999 0.000977516 
-385.493 500 519.895 0.000977516 0.999999 0.000977516 
-285.184 500 837.41 0.000977516 0.999999 0.000977516 
179.438 500 883.66 0.000977516 0.999999 0.000977516 
-369.519 500 208.485 0.000977516 0.999999 0.000977516 
-330.312 500 733.309 0.000977516 0.999999 0.000977516 
190.389 500 737.451 0.000977516 0.999999 0.000977516 
134.181 500 886.969 0.000977516 0.999999 0.000977516 
-338.204 500 901.95 0.000977516 0.999999 0.000977516 
-485.773 500 565.741 0.000977516 0.999999 0.000977516 
-433.694 500 737.801 0.000977516 0.999999 0.000977516 
-406.123 500 264.89 0.000977516 0.999999 0.000977516 
-137.487 500 645.913 0.000977516 0.999999 0.000977516 
-132.626 500 721.562 0.000977516 0.999999 0.000977516 
269.464 500 822.916 0.000977516 0.999999 0.000977516 
40.3193 500 955.432 0.000977516 0.999999 0.000977516 
216.35 500 829.458 0.000977516 0.999999 0.000977516 
194.186 500 825.589 0.000977516 0.999999 0.000977516 
-476.09 500 979.494 0.000977516 0.999999 0.000977516 
-176.418 500 616.575 0.000977516 0.999999 0.000977516 
-98.0076 500 512.321 0.000977516 0.999999 0.000977516 
-64.1581 500 926.531 0.000977516 0.999999 0.000977516 
-336.132 500 270.584 0.000977516 0.999999 0.000977516 
-471.696 500 129.766 0.000977516 0.999999 0.000977516 
-420.376 500 104.98 0.000977516 0.999999 0.000977516 
-482.834 500 514.602 0.000977516 0.999999 0.000977516 
264.906 500 775.549 0.000977516 0.999999 0.000977516 
145.482 500 699.871 0.000977516 0.999999 0.000977516 
-198.94 500 584.415 0.000977516 0.999999 0.000977516 
-241.137 500 644.982 0.000977516 0.999999 0.000977516 
-365.997 500 931.398 0.000977516 0.999999 0.000977516 
-443.426 500 813.179 0.000977516 0.999999 0.000977516 
-43.5813 500 512.904 0.000977516 0.999999 0.000977516 
122.779 500 888.622 0.000977516 0.999999 0.000977516 
-120.949 500 695.251 0.000977516 0.999999 0.000977516 
400.683 500 978.708 0.000977516 0.999999 0.000977516 
-315.95 500 271.005 0.000977516 0.999999 0.000977516 
-302.211 500 658.675 0.000977516 0.999999 0.000977516 
-84.6857 500 719.159 0.000977516 0.999999 0.000977516 
-324.753 500 472.813 0.000977516 0.999999 0.000977516 
-308.528 500 399.79 0.000977516 0.999999 0.000977516 
-188.976 500 698.841 0.000977516 0.999999 0.000977516 
-356.739 500 984.611 0.000977516 0.999999 0.000977516 
-422.595 500 402.143 0.000977516 0.999999 0.000977516 
-216.932 500 858.528 0.000977516 0.999999 0.000977516 
-473.448 500 531.547 0.000977516 0.999999 0.000977516 
-330.337 500 670.606 0.000977516 0.999999 0.000977516 
286.601 500 970.058 0.000977516 0.999999 0.000977516 
232.114 500 918.538 0.000977516 0.999999 0.000977516 
-300.35 500 733.311 0.000977516 0.999999 0.000977516 
-251.193 500 414.032 0.000977516 0.999999 0.000977516 
-108.281 500 711.627 0.000977516 0.999999 0.000977516 
110.317 500 942.13 0.000977516 0.999999 0.000977516 
283.642 500 985.813 0.000977516 0.999999 0.000977516 
-113.123 500 535.961 0.000977516 0.999999 0.000977516 
-382.825 500 973.321 0.000977516 0.999999 0.000977516 
145.602 500 731.363 0.000977516 0.999999 0.000977516 
6.24355 500 520.589 0.000977516 0.999999 0.000977516 
172.197 500 993.091 0.000977516 0.999999 0.000977516 
-144.168 500 485.866 0.000977516 0.999999 0.000977516 
-276.587 500 495.99 0.000977516 0.999999 0.000977516 
-378.893 500 607.863 0.000977516 0.999999 0.000977516 
141.511 500 642.975 0.000977516 0.999999 0.000977516 
260.331 500 921.934 0.000977516 0.999999 0.000977516 
165.78 500 960.029 0.000977516 0.999999 0.000977516 
-423.255 500 313.038 0.000977516 0.999999 0.000977516 
-448.496 500 96.284 0.000977516 0.999999 0.000977516 
-41.3176 500 868.194 0.000977516 0.999999 0.000977516 
359.597 500 975.315 0.000977516 0.999999 0.000977516 
-223.77 500 804.606 0.000977516 0.999999 0.000977516 
-112.708 500 518.988 0.000977516 0.999999 0.000977516 
12.4334 500 592.685 0.000977516 0.999999 0.000977516 
-286.097 500 390.448 0.000977516 0.999999 0.000977516 
-171.504 500 641.043 0.000977516 0.999999 0.000977516 
96.1582 500 600.7 0.000977516 0.999999 0.000977516 
227.726 500 839.3 0.000977516 0.999999 0.000977516 
-259.158 500 472.535 0.000977516 0.999999 0.000977516 
-494.97 500 559.395 0.000977516 0.999999 0.000977516 
-258.431 500 332.474 0.000977516 0.999999 0.000977516 
60.4901 500 784.659 0.000977516 0.999999 0.000977516 
-10.4534 500 820.896 0.000977516 0.999999 0.000977516 
-306.122 500 971.082 0.000977516 0.999999 0.000977516 
463.472 500 983.912 0.000977516 0.999999 0.000977516 
-83.3127 500 425.39 0.000977516 0.999999 0.000977516 
-196.758 500 794.495 0.000977516 0.999999 0.000977516 
215.73 500 940.037 0.000977516 0.999999 0.000977516 
-218.336 500 295.328 0.000977516 0.999999 0.000977516 
-75.6271 500 632.204 0.000977516 0.999999 0.000977516 
-238.995 500 530.161 0.000977516 0.999999 0.000977516 
-53.1747 500 556.553 0.000977516 0.999999 0.000977516 
-111.032 500 682.003 0.000977516 0.999999 0.000977516 
-97.1287 500 485.73 0.000977516 0.999999 0.000977516 
172.388 500 806.498 0.000977516 0.999999 0.000977516 
-463.024 500 329.328 0.000977516 0.999999 0.000977516 
394.386 500 937.254 0.000977516 0.999999 0.000977516 
-56.1219 500 694.747 0.000977516 0.999999 0.000977516 
-99.3775 500 431.827 0.000977516 0.999999 0.000977516 
-54.2117 500 449.53 0.000977516 0.999999 0.000977516 
-421.543 500 989.344 0.000977516 0.999999 0.000977516 
-211.178 500 708.461 0.000977516 0.999999 0.000977516 
-93.9935 500 998.743 0.000977516 0.999999 0.000977516 
183.886 500 742.132 0.000977516 0.999999 0.000977516 
-300.583 500 873.251 0.000977516 0.999999 0.000977516 
-221.493 500 772.438 0.000977516 0.999999 0.000977516 
372.291 500 899.398 0.000977516 0.999999 0.000977516 
30.9377 500 745.733 0.000977516 0.999999 0.000977516 
206.807 500 914.503 0.000977516 0.999999 0.000977516 
-151.176 500 364.351 0.000977516 0.999999 0.000977516 
-388.447 500 152.236 0.000977516 0.999999 0.000977516 
94.9111 500 700.044 0.000977516 0.999999 0.000977516 
173.825 500 851.087 0.000977516 0.999999 0.000977516 
-399.775 500 145.94 0.000977516 0.999999 0.000977516 
-435.62 500 440.436 0.000977516 0.999999 0.000977516 
-421.17 500 348.126 0.000977516 0.999999 0.000977516 
-403.633 500 464.613 0.000977516 0.999999 0.000977516 
-350.208 500 381.559 0.000977516 0.999999 0.000977516 
-344.874 500 669.954 0.000977516 0.999999 0.000977516 
-327.783 500 513.159 0.000977516 0.999999 0.000977516 
-427.858 500 332.934 0.000977516 0.999999 0.000977516 
36.3742 500 905.619 0.000977516 0.999999 0.000977516 
-478.249 500 215.268 0.000977516 0.999999 0.000977516 
-372.868 500 884.618 0.000977516 0.999999 0.000977516 
-187.81 500 348.577 0.000977516 0.999999 0.000977516 
-356.708 500 467.218 0.000977516 0.999999 0.000977516 
241.381 500 996.189 0.000977516 0.999999 0.000977516 
-318.951 500 430.753 0.000977516 0.999999 0.000977516 
-382.779 500 537.093 0.000977516 0.999999 0.000977516 
-98.7751 500 814.626 0.000977516 0.999999 0.000977516 
-85.4388 500 421.226 0.000977516 0.999999 0.000977516 
146.311 500 865.317 0.000977516 0.999999 0.000977516 
-211.067 500 423.483 0.000977516 0.999999 0.000977516 
-485.097 500 331.777 0.000977516 0.999999 0.000977516 
347.779 500 940.036 0.000977516 0.999999 0.000977516 
-456.926 500 857.085 0.000977516 0.999999 0.000977516 
-334.37 500 926.727 0.000977516 0.999999 0.000977516 
-413.793 500 442.987 0.000977516 0.999999 0.000977516 
371.869 500 934.271 0.000977516 0.999999 0.000977516 
-309.359 500 861.585 0.000977516 0.999999 0.000977516 
79.3756 500 831.361 0.000977516 0.999999 0.000977516 
-407.879 500 684.144 0.000977516 0.999999 0.000977516 
-226.778 500 820.229 0.000977516 0.999999 0.000977516 
429.16 500 933.568 0.000977516 0.999999 0.000977516 
-176.489 500 903.136 0.000977516 0.999999 0.000977516 
-52.6357 500 868.965 0.000977516 0.999999 0.000977516 
-411.906 500 955.247 0.000977516 0.999999 0.000977516 
350.509 500 853.115 0.000977516 0.999999 0.000977516 
-399.731 500 979.216 0.000977516 0.999999 0.000977516 
26.5255 500 652.25 0.000977516 0.999999 0.000977516 
-295.822 500 582.666 0.000977516 0.999999 0.000977516 
-162.608 500 705.303 0.000977516 0.999999 0.000977516 
-457.826 500 957.014 0.000977516 0.999999 0.000977516 
-24.2588 500 581.549 0.000977516 0.999999 0.000977516 
-12.9949 500 692.079 0.000977516 0.999999 0.000977516 
-222.74 500 774.422 0.000977516 0.999999 0.000977516 
195.169 500 976.188 0.000977516 0.999999 0.000977516 
-454.491 500 46.7847 0.000977516 0.999999 0.000977516 
65.8049 500 831.981 0.000977516 0.999999 0.000977516 
-317.612 500 914.703 0.000977516 0.999999 0.000977516 
156.596 500 836.458 0.000977516 0.999999 0.000977516 
-117.608 500 434.572 0.000977516 0.999999 0.000977516 
-445.72 500 114.226 0.000977516 0.999999 0.000977516 
-279.096 500 843.315 0.000977516 0.999999 0.000977516 
60.703 500 837.704 0.000977516 0.999999 0.000977516 
-145.601 500 619.545 0.000977516 0.999999 0.000977516 
-419.171 500 719.292 0.000977516 0.999999 0.000977516 
246.33 500 793.609 0.000977516 0.999999 0.000977516 
301.081 500 974.025 0.000977516 0.999999 0.000977516 
127.29 500 678.1 0.000977516 0.999999 0.000977516 
-233.47 500 376.055 0.000977516 0.999999 0.000977516 
-423.017 500 100.748 0.000977516 0.999999 0.000977516 
-419.938 500 749.093 0.000977516 0.999999 0.000977516 
59.0295 500 826.851 0.000977516 0.999999 0.000977516 
118.811 500 628.244 0.000977516 0.999999 0.000977516 
-103.647 500 418.996 0.000977516 0.999999 0.000977516 
-2.78683 500 637.273 0.000977516 0.999999 0.000977516 
-342.252 500 250.989 0.000977516 0.999999 0.000977516 
-195.067 500 431.046 0.000977516 0.999999 0.000977516 
377.014 500 963.93 0.000977516 0.999999 0.000977516 
-161.575 500 697.111 0.000977516 0.999999 0.000977516 
-168.376 500 414.057 0.000977516 0.999999 0.000977516 
-89.4015 500 881.192 0.000977516 0.999999 0.000977516 
10.3135 500 561.712 0.000977516 0.999999 0.000977516 
389.463 500 956.837 0.000977516 0.999999 0.000977516 
-175.527 500 560.535 0.000977516 0.999999 0.000977516 
-225.219 500 587.241 0.000977516 0.999999 0.000977516 
-184.822 500 825.325 0.000977516 0.999999 0.000977516 
-258.652 500 299.733 0.000977516 0.999999 0.000977516 
-337.406 500 330.076 0.000977516 0.999999 0.000977516 
-172.778 500 858.972 0.000977516 0.999999 0.000977516 
-240.718 500 521.982 0.000977516 0.999999 0.000977516 
-159.07 500 541.387 0.000977516 0.999999 0.000977516 
-198.898 500 522.832 0.000977516 0.999999 0.000977516 
-228.305 500 281.682 0.000977516 0.999999 0.000977516 
-409.513 500 952.595 0.000977516 0.999999 0.000977516 
-147.658 500 693.835 0.000977516 0.999999 0.000977516 
-445.82 500 638.378 0.000977516 0.999999 0.000977516 
-204.988 500 902.677 0.000977516 0.999999 0.000977516 
-337.318 500 428.971 0.000977516 0.999999 0.000977516 
-231.04 500 867.294 0.000977516 0.999999 0.000977516 
-382.531 500 610.059 0.000977516 0.999999 0.000977516 
-129.252 500 797.502 0.000977516 0.999999 0.000977516 
-410.644 500 296.579 0.000977516 0.999999 0.000977516 
-39.8908 500 539.984 0.000977516 0.999999 0.000977516 
-474.285 500 899.674 0.000977516 0.999999 0.000977516 
29.9248 500 878.479 0.000977516 0.999999 0.000977516 
-140.171 500 683.313 0.000977516 0.999999 0.000977516 
59.7596 500 725.798 0.000977516 0.999999 0.000977516 
-305.646 500 443.825 0.000977516 0.999999 0.000977516 
-126.863 500 824.607 0.000977516 0.999999 0.000977516 
-479.25 500 660.638 0.000977516 0.999999 0.000977516 
-428.012 500 734.711 0.000977516 0.999999 0.000977516 
-406.799 500 588.955 0.000977516 0.999999 0.000977516 
-35.0817 500 985.72 0.000977516 0.999999 0.000977516 
-272.36 500 464.766 0.000977516 0.999999 0.000977516 
-193.991 500 330.009 0.000977516 0.999999 0.000977516 
-11.9801 500 823.777 0.000977516 0.999999 0.000977516 
-64.7406 500 598.732 0.000977516 0.999999 0.000977516 
-288.32 500 564.898 0.000977516 0.999999 0.000977516 
16.7335 500 761.503 0.000977516 0.999999 0.000977516 
-311.411 500 443.182 0.000977516 0.999999 0.000977516 
-420.512 500 760.168 0.000977516 0.999999 0.000977516 
-391.612 500 361.914 0.000977516 0.999999 0.000977516 
-349.324 500 481.041 0.000977516 0.999999 0.000977516 
84.8539 500 870.193 0.000977516 0.999999 0.000977516 
3.65387 500 573.828 0.000977516 0.999999 0.000977516 
-328.932 500 954.154 0.000977516 0.999999 0.000977516 
178.279 500 993.804 0.000977516 0.999999 0.000977516 
-190.809 500 654.183 0.000977516 0.999999 0.000977516 
-472.216 500 675.782 0.000977516 0.999999 0.000977516 
-213.056 500 598.683 0.000977516 0.999999 0.000977516 
-360.045 500 644.765 0.000977516 0.999999 0.000977516 
-347.362 500 336.059 0.000977516 0.999999 0.000977516 
-219.659 500 989.591 0.000977516 0.999999 0.000977516 
0.0624847 500 543.416 0.000977516 0.999999 0.000977516 
112.771 500 797.188 0.000977516 0.999999 0.000977516 
-376.405 500 589.711 0.000977516 0.999999 0.000977516 
-229.233 500 352.142 0.000977516 0.999999 0.000977516 
-87.1556 500 635.104 0.000977516 0.999999 0.000977516 
-190.189 500 849.021 0.000977516 0.999999 0.000977516 
-323.779 500 351.294 0.000977516 0.999999 0.000977516 
318.398 500 830.04 0.000977516 0.999999 0.000977516 
12.9539 500 725.636 0.000977516 0.999999 0.000977516 
-447.864 500 597.271 0.000977516 0.999999 0.000977516 
-222.225 500 348.235 0.000977516 0.999999 0.000977516 
-335.121 500 383.726 0.000977516 0.999999 0.000977516 
2.21558 500 852.572 0.000977516 0.999999 0.000977516 
-147.551 500 856.386 0.000977516 0.999999 0.000977516 
-469.035 500 449.273 0.000977516 0.999999 0.000977516 
-424.966 500 575.098 0.000977516 0.999999 0.000977516 
-391.47 500 314.918 0.000977516 0.999999 0.000977516 
-26.2256 500 895.402 0.000977516 0.999999 0.000977516 
-327.779 500 576.538 0.000977516 0.999999 0.000977516 
-210.894 500 563.907 0.000977516 0.999999 0.000977516 
-18.6846 500 786.197 0.000977516 0.999999 0.000977516 
-273.657 500 229.431 0.000977516 0.999999 0.000977516 
118.484 500 658.435 0.000977516 0.999999 0.000977516 
-232.998 500 267.997 0.000977516 0.999999 0.000977516 
-416.102 500 105.377 0.000977516 0.999999 0.000977516 
21.2717 500 916.525 0.000977516 0.999999 0.000977516 
-102.103 500 810.887 0.000977516 0.999999 0.000977516 
82.3298 500 655.208 0.000977516 0.999999 0.000977516 
-194.383 500 959.307 0.000977516 0.999999 0.000977516 
-289.034 500 405.478 0.000977516 0.999999 0.000977516 
-131.682 500 955.307 0.000977516 0.999999 0.000977516 
7.43817 500 893.175 0.000977516 0.999999 0.000977516 
-175.137 500 534.899 0.000977516 0.999999 0.000977516 
-472.994 500 949.519 0.000977516 0.999999 0.000977516 
-262.81 500 490.136 0.000977516 0.999999 0.000977516 
-320.644 500 710.312 0.000977516 0.999999 0.000977516 
64.9774 500 998.179 0.000977516 0.999999 0.000977516 
203.155 500 818.617 0.000977516 0.999999 0.000977516 
145.846 500 782.312 0.000977516 0.999999 0.000977516 
-200.324 500 960.21 0.000977516 0.999999 0.000977516 
-225.026 500 605.508 0.000977516 0.999999 0.000977516 
181.391 500 705.096 0.000977516 0.999999 0.000977516 
-285.617 500 912.151 0.000977516 0.999999 0.000977516 
-196.713 500 346.71 0.000977516 0.999999 0.000977516 
56.2919 500 831.946 0.000977516 0.999999 0.000977516 
-167.441 500 916.389 0.000977516 0.999999 0.000977516 
125.096 500 648.349 0.000977516 0.999999 0.000977516 
-337.803 500 712.57 0.000977516 0.999999 0.000977516 
283.16 500 868.184 0.000977516 0.999999 0.000977516 
-394.541 500 287.297 0.000977516 0.999999 0.000977516 
22.5585 500 866.471 0.000977516 0.999999 0.000977516 
-289.478 500 289.036 0.000977516 0.999999 0.000977516 
-201.019 500 819.332 0.000977516 0.999999 0.000977516 
-80.3138 500 908.298 0.000977516 0.999999 0.000977516 
78.7022 500 730.255 0.000977516 0.999999 0.000977516 
-90.0018 500 751.076 0.000977516 0.999999 0.000977516 
-220.848 500 934.673 0.000977516 0.999999 0.000977516 
-377.559 500 645.962 0.000977516 0.999999 0.000977516 
148.388 500 677.856 0.000977516 0.999999 0.000977516 
-407.664 500 283.26 0.000977516 0.999999 0.000977516 
-398.059 500 130.112 0.000977516 0.999999 0.000977516 
-396.671 500 186.753 0.000977516 0.999999 0.000977516 
-350.654 500 416.01 0.000977516 0.999999 0.000977516 
-436.948 500 670.919 0.000977516 0.999999 0.000977516 
-11.2139 500 767.324 0.000977516 0.999999 0.000977516 
-255.011 500 633.362 0.000977516 0.999999 0.000977516 
119.841 500 984.926 0.000977516 0.999999 0.000977516 
-145.11 500 610.274 0.000977516 0.999999 0.000977516 
-30.4262 500 654.618 0.000977516 0.999999 0.000977516 
-312.675 500 276.134 0.000977516 0.999999 0.000977516 
-398.385 500 217.251 0.000977516 0.999999 0.000977516 
-296.425 500 300.588 0.000977516 0.999999 0.000977516 
47.6706 500 905.934 0.000977516 0.999999 0.000977516 
-498.296 500 973.134 0.000977516 0.999999 0.000977516 
128.592 500 643.06 0.000977516 0.999999 0.000977516 
-355.727 500 755.719 0.000977516 0.999999 0.000977516 
-322.713 500 234.879 0.000977516 0.999999 0.000977516 
329.621 500 930.267 0.000977516 0.999999 0.000977516 
-407.359 500 674.406 0.000977516 0.999999 0.000977516 
-104.173 500 990.059 0.000977516 0.999999 0.000977516 
-401.296 500 866.78 0.000977516 0.999999 0.000977516 
-487.601 500 163.887 0.000977516 0.999999 0.000977516 
-245.204 500 328.633 0.000977516 0.999999 0.000977516 
-329.291 500 736.047 0.000977516 0.999999 0.000977516 
44.6688 500 934.895 0.000977516 0.999999 0.000977516 
203.841 500 879.5 0.000977516 0.999999 0.000977516 
-130.122 500 403.802 0.000977516 0.999999 0.000977516 
-272.881 500 428.558 0.000977516 0.999999 0.000977516 
-470.554 500 888.584 0.000977516 0.999999 0.000977516 
-230.406 500 291.663 0.000977516 0.999999 0.000977516 
-213.944 500 497.43 0.000977516 0.999999 0.000977516 
-285.343 500 265.859 0.000977516 0.999999 0.000977516 
-454.243 500 906.153 0.000977516 0.999999 0.000977516 
-463.908 500 80.9012 0.000977516 0.999999 0.000977516 
357.081 500 993.094 0.000977516 0.999999 0.000977516 
132.39 500 635.204 0.000977516 0.999999 0.000977516 
0.640167 500 991.946 0.000977516 0.999999 0.000977516 
-237.926 500 793.609 0.000977516 0.999999 0.000977516 
316.368 500 827.587 0.000977516 0.999999 0.000977516 
-25.9998 500 701.175 0.000977516 0.999999 0.000977516 
-145.23 500 476.733 0.000977516 0.999999 0.000977516 
-423.454 500 346.241 0.000977516 0.999999 0.000977516 
-203.25 500 885.572 0.000977516 0.999999 0.000977516 
-415.071 500 282.643 0.000977516 0.999999 0.000977516 
-278.232 500 497.669 0.000977516 0.999999 0.000977516 
-79.9983 500 962.499 0.000977516 0.999999 0.000977516 
-197.209 500 757.156 0.000977516 0.999999 0.000977516 
-46.9528 500 470.423 0.000977516 0.999999 0.000977516 
65.5071 500 918.136 0.000977516 0.999999 0.000977516 
-148.835 500 459.542 0.000977516 0.999999 0.000977516 
-242.764 500 720.917 0.000977516 0.999999 0.000977516 
-350.087 500 766.072 0.000977516 0.999999 0.000977516 
-393.235 500 572.469 0.000977516 0.999999 0.000977516 
-87.4672 500 456.075 0.000977516 0.999999 0.000977516 
177.708 500 890.883 0.000977516 0.999999 0.000977516 
-467.582 500 160.578 0.000977516 0.999999 0.000977516 
-281.39 500 630.272 0.000977516 0.999999 0.000977516 
-120.757 500 631.776 0.000977516 0.999999 0.000977516 
-452.192 500 52.5373 0.000977516 0.999999 0.000977516 
244.954 500 956.902 0.000977516 0.999999 0.000977516 
-251.042 500 969.71 0.000977516 0.999999 0.000977516 
405.594 500 999.58 0.000977516 0.999999 0.000977516 
-307.343 500 781.97 0.000977516 0.999999 0.000977516 
-387.066 500 897.985 0.000977516 0.999999 0.000977516 
-283.224 500 742.551 0.000977516 0.999999 0.000977516 
201.011 500 764.513 0.000977516 0.999999 0.000977516 
-32.796 500 680.967 0.000977516 0.999999 0.000977516 
358.465 500 990.71 0.000977516 0.999999 0.000977516 
-496.278 500 45.9716 0.000977516 0.999999 0.000977516 
-406.665 500 577.779 0.000977516 0.999999 0.000977516 
-483.317 500 817.249 0.000977516 0.999999 0.000977516 
-7.02747 500 878.529 0.000977516 0.999999 0.000977516 
-389.691 500 163.587 0.000977516 0.999999 0.000977516 
-184.543 500 569.688 0.000977516 0.999999 0.000977516 
77.1216 500 958.36 0.000977516 0.999999 0.000977516 
-264.802 500 438.928 0.000977516 0.999999 0.000977516 
-420.111 500 570.013 0.000977516 0.999999 0.000977516 
244.513 500 771.27 0.000977516 0.999999 0.000977516 
102.127 500 701.977 0.000977516 0.999999 0.000977516 
-495.276 500 950.227 0.000977516 0.999999 0.000977516 
-457.063 500 983.162 0.000977516 0.999999 0.000977516 
-290.733 500 654.373 0.000977516 0.999999 0.000977516 
90.2026 500 657.689 0.000977516 0.999999 0.000977516 
-43.5037 500 821.397 0.000977516 0.999999 0.000977516 
120.851 500 858.99 0.000977516 0.999999 0.000977516 
-308.795 500 285.129 0.000977516 0.999999 0.000977516 
-120.669 500 420.31 0.000977516 0.999999 0.000977516 
-395.054 500 692.876 0.000977516 0.999999 0.000977516 
-456.872 500 852.253 0.000977516 0.999999 0.000977516 
-464.516 500 991.185 0.000977516 0.999999 0.000977516 
245.453 500 760.208 0.000977516 0.999999 0.000977516 
-348.922 500 352.614 0.000977516 0.999999 0.000977516 
-220.329 500 448.337 0.000977516 0.999999 0.000977516 
-27.1879 500 951.049 0.000977516 0.999999 0.000977516 
-230.829 500 735.828 0.000977516 0.999999 0.000977516 
-198.235 500 798.34 0.000977516 0.999999 0.000977516 
-367.867 500 419.867 0.000977516 0.999999 0.000977516 
-169.779 500 453.377 0.000977516 0.999999 0.000977516 
-251.59 500 763.002 0.000977516 0.999999 0.000977516 
6.37381 500 979.648 0.000977516 0.999999 0.000977516 
-405.841 500 137.552 0.000977516 0.999999 0.000977516 
-380.236 500 472.803 0.000977516 0.999999 0.000977516 
14.7193 500 853.292 0.000977516 0.999999 0.000977516 
-367.582 500 259.82 0.000977516 0.999999 0.000977516 
-488.842 500 652.636 0.000977516 0.999999 0.000977516 
-39.3843 500 788.133 0.000977516 0.999999 0.000977516 
30.5043 500 644.065 0.000977516 0.999999 0.000977516 
-151.401 500 853.44 0.000977516 0.999999 0.000977516 
-42.8334 500 978.971 0.000977516 0.999999 0.000977516 
-333.128 500 262.789 0.000977516 0.999999 0.000977516 
-129.776 500 968.573 0.000977516 0.999999 0.000977516 
-360.523 500 382.396 0.000977516 0.999999 0.000977516 
-234.472 500 448.725 0.000977516 0.999999 0.000977516 
278.756 500 869.904 0.000977516 0.999999 0.000977516 
-296.296 500 761.867 0.000977516 0.999999 0.000977516 
101.341 500 625.399 0.000977516 0.999999 0.000977516 
229.946 500 921.282 0.000977516 0.999999 0.000977516 
164.652 500 705.946 0.000977516 0.999999 0.000977516 
-285.843 500 478.661 0.000977516 0.999999 0.000977516 
-387.938 500 653.143 0.000977516 0.999999 0.000977516 
-257.181 500 445.868 0.000977516 0.999999 0.000977516 
-425.643 500 933.226 0.000977516 0.999999 0.000977516 
-192.665 500 715.766 0.000977516 0.999999 0.000977516 
-55.1702 500 644.433 0.000977516 0.999999 0.000977516 
21.7239 500 716.778 0.000977516 0.999999 0.000977516 
-80.072 500 834.26 0.000977516 0.999999 0.000977516 
104.858 500 875.332 0.000977516 0.999999 0.000977516 
-464.84 500 217.035 0.000977516 0.999999 0.000977516 
186.319 500 711.672 0.000977516 0.999999 0.000977516 
-413.111 500 229.734 0.000977516 0.999999 0.000977516 
-123.863 500 537.06 0.000977516 0.999999 0.000977516 
453.735 500 984.969 0.000977516 0.999999 0.000977516 
384.503 500 897.709 0.000977516 0.999999 0.000977516 
-118.156 500 389.834 0.000977516 0.999999 0.000977516 
-117.823 500 837.562 0.000977516 0.999999 0.000977516 
-42.1028 500 615.422 0.000977516 0.999999 0.000977516 
-377.341 500 212.773 0.000977516 0.999999 0.000977516 
-155.274 500 596.643 0.000977516 0.999999 0.000977516 
-466.291 500 558.763 0.000977516 0.999999 0.000977516 
-444.01 500 714.15 0.000977516 0.999999 0.000977516 
-449.569 500 229.98 0.000977516 0.999999 0.000977516 
-125.843 500 687.309 0.000977516 0.999999 0.000977516 
-327.693 500 434.716 0.000977516 0.999999 0.000977516 
-311.414 500 256.202 0.000977516 0.999999 0.000977516 
-344.55 500 342.486 0.000977516 0.999999 0.000977516 
232.654 500 795.938 0.000977516 0.999999 0.000977516 
-478.782 500 734.118 0.000977516 0.999999 0.000977516 
-158.809 500 370.768 0.000977516 0.999999 0.000977516 
-472.882 500 985.671 0.000977516 0.999999 0.000977516 
-258.849 500 709.957 0.000977516 0.999999 0.000977516 
-391.471 500 507.32 0.000977516 0.999999 0.000977516 
-67.9007 500 515.635 0.000977516 0.999999 0.000977516 
19.2873 500 596.224 0.000977516 0.999999 0.000977516 
-429.374 500 692.926 0.000977516 0.999999 0.000977516 
-287.812 500 469.594 0.000977516 0.999999 0.000977516 
175.618 500 736.371 0.000977516 0.999999 0.000977516 
349.548 500 997.25 0.000977516 0.999999 0.000977516 
-289.822 500 645.667 0.000977516 0.999999 0.000977516 
-468.595 500 869.352 0.000977516 0.999999 0.000977516 
-489.318 500 501.484 0.000977516 0.999999 0.000977516 
-238.56 500 596.913 0.000977516 0.999999 0.000977516 
-135.724 500 812.385 0.000977516 0.999999 0.000977516 
-180.64 500 625.297 0.000977516 0.999999 0.000977516 
-159.287 500 682.084 0.000977516 0.999999 0.000977516 
340.035 500 959.8 0.000977516 0.999999 0.000977516 
-421.87 500 731.09 0.000977516 0.999999 0.000977516 
52.1389 500 727.828 0.000977516 0.999999 0.000977516 
399.356 500 902.275 0.000977516 0.999999 0.000977516 
-478.424 500 942.81 0.000977516 0.999999 0.000977516 
-285.196 500 312.866 0.000977516 0.999999 0.000977516 
17.959 500 719.376 0.000977516 0.999999 0.000977516 
-112.132 500 768.418 0.000977516 0.999999 0.000977516 
-303.688 500 393.052 0.000977516 0.999999 0.000977516 
131.164 500 734.839 0.000977516 0.999999 0.000977516 
135.552 500 932.737 0.000977516 0.999999 0.000977516 
22.4686 500 543.637 0.000977516 0.999999 0.000977516 
-200.695 500 540.182 0.000977516 0.999999 0.000977516 
-91.6814 500 551.913 0.000977516 0.999999 0.000977516 
186.086 500 959.329 0.000977516 0.999999 0.000977516 
-184.597 500 897.439 0.000977516 0.999999 0.000977516 
-475.841 500 222.5 0.000977516 0.999999 0.000977516 
-372.499 500 395.723 0.000977516 0.999999 0.000977516 
-165.413 500 797.261 0.000977516 0.999999 0.000977516 
86.5268 500 914.108 0.000977516 0.999999 0.000977516 
-449.684 500 980.184 0.000977516 0.999999 0.000977516 
-452.758 500 145.453 0.000977516 0.999999 0.000977516 
-251.183 500 899.811 0.000977516 0.999999 0.000977516 
-235.395 500 448.38 0.000977516 0.999999 0.000977516 
-476.944 500 697.343 0.000977516 0.999999 0.000977516 
218.321 500 764.206 0.000977516 0.999999 0.000977516 
-471.411 500 51.8558 0.000977516 0.999999 0.000977516 
-43.004 500 636.062 0.000977516 0.999999 0.000977516 
-449.96 500 670.81 0.000977516 0.999999 0.000977516 
-363.538 500 427.728 0.000977516 0.999999 0.000977516 
-350.508 500 814.126 0.000977516 0.999999 0.000977516 
-459.915 500 222.377 0.000977516 0.999999 0.000977516 
-74.0492 500 764.562 0.000977516 0.999999 0.000977516 
2.90675 500 630.759 0.000977516 0.999999 0.000977516 
-281.206 500 240.065 0.000977516 0.999999 0.000977516 
23.2285 500 976.117 0.000977516 0.999999 0.000977516 
-447.428 500 299.256 0.000977516 0.999999 0.000977516 
-338.217 500 867.271 0.000977516 0.999999 0.000977516 
-99.3585 500 568.688 0.000977516 0.999999 0.000977516 
-312.377 500 765.325 0.000977516 0.999999 0.000977516 
-448.504 500 478.294 0.000977516 0.999999 0.000977516 
-100.952 500 868.592 0.000977516 0.999999 0.000977516 
37.7917 500 914.576 0.000977516 0.999999 0.000977516 
293.905 500 978.44 0.000977516 0.999999 0.000977516 
-406.186 500 224.578 0.000977516 0.999999 0.000977516 
-25.8134 500 820.546 0.000977516 0.999999 0.000977516 
293.485 500 820.516 0.000977516 0.999999 0.000977516 
-485.246 500 100.289 0.000977516 0.999999 0.000977516 
-285.788 500 415.864 0.000977516 0.999999 0.000977516 
-332.078 500 312.901 0.000977516 0.999999 0.000977516 
-380.613 500 550.537 0.000977516 0.999999 0.000977516 
-494.487 500 220.491 0.000977516 0.999999 0.000977516 
-490.048 500 888.319 0.000977516 0.999999 0.000977516 
-443.418 500 90.7173 0.000977516 0.999999 0.000977516 
4.22272 500 596.457 0.000977516 0.999999 0.000977516 
-160.84 500 567.204 0.000977516 0.999999 0.000977516 
-249.369 500 693.207 0.000977516 0.999999 0.000977516 
178.094 500 998.941 0.000977516 0.999999 0.000977516 
-117.899 500 663.787 0.000977516 0.999999 0.000977516 
62.5841 500 924.404 0.000977516 0.999999 0.000977516 
-201.732 500 507.612 0.000977516 0.999999 0.000977516 
160.267 500 854.23 0.000977516 0.999999 0.000977516 
-80.1345 500 757.724 0.000977516 0.999999 0.000977516 
-5.82376 500 936.29 0.000977516 0.999999 0.000977516 
-13.6686 500 512.913 0.000977516 0.999999 0.000977516 
-133.914 500 761.911 0.000977516 0.999999 0.000977516 
-90.5457 500 571.395 0.000977516 0.999999 0.000977516 
-196.62 500 722.857 0.000977516 0.999999 0.000977516 
-486.649 500 663.856 0.000977516 0.999999 0.000977516 
-487.955 500 559.583 0.000977516 0.999999 0.000977516 
-241.632 500 419.139 0.000977516 0.999999 0.000977516 
249.917 4.16931 1126.74 0.999821 0.0189021 -0.000994847 
249.968 1.59165 1518.73 0.999821 0.0189021 -0.000994847 
249.992 0.391983 1351.55 0.999821 0.0189021 -0.000994847 
249.936 3.23342 1246.05 0.999821 0.0189021 -0.000994847 
249.989 0.566305 1135.9 0.999821 0.0189021 -0.000994847 
249.878 6.15732 1122.01 0.999821 0.0189021 -0.000994847 
249.83 8.53597 1110.69 0.999821 0.0189021 -0.000994847 
249.951 2.47852 1459.33 0.999821 0.0189021 -0.000994847 
249.994 0.306179 1483.05 0.999821 0.0189021 -0.000994847 
249.94 3.00941 1326.04 0.999821 0.0189021 -0.000994847 
249.919 4.09533 1322.82 0.999821 0.0189021 -0.000994847 
249.946 2.69672 1709.05 0.999821 0.0189021 -0.000994847 
249.992 0.398775 1595.79 0.999821 0.0189021 -0.000994847 
249.933 3.38301 1299.6 0.999821 0.0189021 -0.000994847 
249.931 3.48689 1049 0.999821 0.0189021 -0.000994847 
249.967 1.64307 1393.69 0.999821 0.0189021 -0.000994847 
249.892 5.41702 1162.72 0.999821 0.0189021 -0.000994847 
249.93 3.50257 1107.11 0.999821 0.0189021 -0.000994847 
249.896 5.24489 1251.37 0.999821 0.0189021 -0.000994847 
249.843 7.90601 1062.24 0.999821 0.0189021 -0.000994847 
249.831 8.47415 1095.38 0.999821 0.0189021 -0.000994847 
249.906 4.71585 1385.45 0.999821 0.0189021 -0.000994847 
249.975 1.26481 1835.39 0.999821 0.0189021 -0.000994847 
249.88 6.03401 1156.85 0.999821 0.0189021 -0.000994847 
249.905 4.76251 1537.75 0.999821 0.0189021 -0.000994847 
249.971 1.45022 1741.04 0.999821 0.0189021 -0.000994847 
249.952 2.41889 1315.02 0.999821 0.0189021 -0.000994847 
249.917 4.19092 1231.42 0.999821 0.0189021 -0.000994847 
249.929 3.55862 1524.6 0.999821 0.0189021 -0.000994847 
249.847 7.68526 1226.85 0.999821 0.0189021 -0.000994847 
249.936 3.22892 1531.98 0.999821 0.0189021 -0.000994847 
249.896 5.20651 1467.54 0.999821 0.0189021 -0.000994847 
249.98 1.03013 1441.4 0.999821 0.0189021 -0.000994847 
249.941 2.98974 1266.15 0.999821 0.0189021 -0.000994847 
249.869 6.61048 1496.13 0.999821 0.0189021 0.000994847 
249.808 9.63943 2091.59 0.999821 0.0189021 0.000994847 
249.962 1.90461 2005.74 0.999821 0.0189021 0.000994847 
249.964 1.81147 2027.63 0.999821 0.0189021 0.000994847 
249.926 3.73893 1730.5 0.999821 0.0189021 0.000994847 
249.814 9.36276 1588.74 0.999821 0.0189021 0.000994847 
249.994 0.301393 2068.48 0.999821 0.0189021 0.000994847 
249.967 1.64906 2098.93 0.999821 0.0189021 0.000994847 
249.899 5.08349 1567.77 0.999821 0.0189021 0.000994847 
249.895 5.29484 2012.32 0.999821 0.0189021 0.000994847 
249.809 9.59669 1403.69 0.999821 0.0189021 0.000994847 
249.831 8.5075 1494.07 0.999821 0.0189021 0.000994847 
249.835 8.29846 1448.73 0.999821 0.0189021 0.000994847 
249.933 3.36413 1922.19 0.999821 0.0189021 0.000994847 
249.83 8.54539 1544.79 0.999821 0.0189021 0.000994847 
249.817 9.21411 1892.3 0.999821 0.0189021 0.000994847 
249.805 9.82748 1079.58 0.999821 0.0189021 0.000994847 
249.879 6.08225 1507.65 0.999821 0.0189021 0.000994847 
249.923 3.89483 1919.78 0.999821 0.0189021 0.000994847 
249.837 8.18633 1997.04 0.999821 0.0189021 0.000994847 
249.82 9.03411 1303.78 0.999821 0.0189021 0.000994847 
249.868 6.6396 1526.46 0.999821 0.0189021 0.000994847 
249.808 9.64652 1065.12 0.999821 0.0189021 0.000994847 
249.82 9.02928 1504.05 0.999821 0.0189021 0.000994847 
249.828 8.6534 1659.83 0.999821 0.0189021 0.000994847 
249.92 4.02304 2001.76 0.999821 0.0189021 0.000994847 
249.944 2.82893 1953.73 0.999821 0.0189021 0.000994847 
249.989 0.534872 2064.85 0.999821 0.0189021 0.000994847 
249.902 4.94013 1722.52 0.999821 0.0189021 0.000994847 
249.893 5.40094 1713.5 0.999821 0.0189021 0.000994847 
249.931 3.4764 1886.09 0.999821 0.0189021 0.000994847 
249.87 6.55052 1654.74 0.999821 0.0189021 0.000994847 
249.844 7.86214 1370.09 0.999821 0.0189021 0.000994847 
249.87 6.5147 1722.1 0.999821 0.0189021 0.000994847 
249.876 6.21819 1466.91 0.999821 0.0189021 0.000994847 
249.728 11.1886 1890.62 0.998267 0.058843 0.00103233 
249.686 11.8922 1403.01 0.998267 0.058843 0.00103233 
249.444 15.9426 1773.65 0.998267 0.058843 0.00103233 
249.624 12.9263 1924.21 0.998267 0.058843 0.00103233 
249.465 15.5851 1721.86 0.998267 0.058843 0.00103233 
249.408 16.5414 2091.4 0.998267 0.058843 0.00103233 
249.609 13.1724 2055.36 0.998267 0.058843 0.00103233 
249.418 16.3748 1857.84 0.998267 0.058843 0.00103233 
249.371 17.1543 1985.83 0.998267 0.058843 0.00103233 
249.754 10.7564 1628.31 0.998267 0.058843 0.00103233 
249.601 13.3127 1498.26 0.998267 0.058843 0.00103233 
249.535 14.4106 1584.09 0.998267 0.058843 0.00103233 
249.636 12.7269 1328.39 0.998267 0.058843 0.00103233 
249.784 10.2437 1087.1 0.998267 0.058843 0.00103233 
249.483 15.292 1887.9 0.998267 0.058843 0.00103233 
249.69 11.8195 1452.89 0.998267 0.058843 0.00103233 
249.629 12.844 1535.12 0.998267 0.058843 0.00103233 
249.714 11.4113 1225.88 0.998267 0.058843 0.00103233 
249.611 13.1352 2085.6 0.998267 0.058843 0.00103233 
249.621 12.9731 1779.76 0.998267 0.058843 0.00103233 
249.752 10.7817 1855.68 0.998267 0.058843 0.00103233 
249.595 13.4184 1769.26 0.998267 0.058843 0.00103233 
249.338 17.7193 1900.29 0.998267 0.058843 0.00103233 
249.634 12.759 1936.15 0.998267 0.058843 0.00103233 
249.785 10.2365 1627.33 0.998267 0.058843 0.00103233 
249.364 17.2749 2095.36 0.998267 0.058843 0.00103233 
249.697 11.6981 1633.25 0.998267 0.058843 0.00103233 
249.498 15.028 1991.95 0.998267 0.058843 0.00103233 
249.74 10.9811 1159.31 0.998267 0.058843 0.00103233 
249.386 16.9043 2000.55 0.998267 0.058843 0.00103233 
249.481 15.3204 1617.46 0.998267 0.058843 0.00103233 
249.476 15.4072 1981.77 0.998267 0.058843 0.00103233 
249.674 12.0867 1883.28 0.998267 0.058843 0.00103233 
249.672 12.1215 1906.43 0.998267 0.058843 0.00103233 
249.64 12.6504 1093.7 0.998267 0.058843 0.00103233 
249.292 18.4793 1690.25 0.998267 0.058843 0.00103233 
249.351 17.5041 1112.34 0.998267 0.058843 0.00103233 
249.4 16.6776 1110.02 0.998267 0.058843 0.00103233 
249.288 18.5538 1257.7 0.998267 0.058843 0.00103233 
249.359 17.3683 1519.13 0.998267 0.058843 0.00103233 
249.48 15.3398 1370.04 0.998267 0.058843 0.00103233 
249.48 15.3415 1379.82 0.998267 0.058843 0.00103233 
249.346 17.5781 1317.2 0.998267 0.058843 0.00103233 
249.342 17.6454 1363.22 0.998267 0.058843 0.00103233 
249.34 17.6822 1260.94 0.998267 0.058843 0.00103233 
249.526 14.5602 1079.36 0.998267 0.058843 0.00103233 
249.281 18.6709 1185.08 0.998267 0.058843 0.00103233 
249.287 18.5721 1600.68 0.998267 0.058843 0.00103233 
249.22 19.697 1774.91 0.998267 0.058843 0.00103233 
249.363 17.2981 1108.71 0.998267 0.058843 0.00103233 
249.486 15.241 1569.43 0.998267 0.058843 0.00103233 
249.26 19.0253 1010.44 0.998267 0.058843 0.00103233 
249.289 18.5277 1814.97 0.998267 0.058843 0.00103233 
249.441 15.9878 1395.45 0.998267 0.058843 0.00103233 
249.403 16.6291 1366.29 0.998267 0.058843 0.00103233 
249.36 17.3453 1297.52 0.998267 0.058843 0.00103233 
249.542 14.3006 1221.3 0.998267 0.058843 0.00103233 
249.476 15.4088 1530.06 0.998267 0.058843 0.00103233 
249.332 17.8075 1533.15 0.998267 0.058843 0.00103233 
249.263 18.9772 1827.28 0.998267 0.058843 0.00103233 
249.331 17.8246 1036.68 0.998267 0.058843 0.00103233 
249.213 19.8012 2047.25 0.998267 0.058843 0.00103233 
249.275 18.7729 1640.85 0.998267 0.058843 0.00103233 
249.388 16.8743 1389.86 0.998267 0.058843 0.00103233 
249.325 17.9274 1072.02 0.998267 0.058843 0.00103233 
249.38 17.0161 1186.8 0.998267 0.058843 0.00103233 
249.236 19.4307 1284.39 0.998267 0.058843 0.00103233 
249.238 19.3843 1716.65 0.998267 0.058843 0.00103233 
248.303 28.9532 2025.29 0.995047 0.0993978 0.00106879 
248.403 27.9522 1639.34 0.995047 0.0993978 0.00106879 
248.462 27.3561 1531.68 0.995047 0.0993978 0.00106879 
248.265 29.337 2063.42 0.995047 0.0993978 0.00106879 
248.251 29.4734 1961.44 0.995047 0.0993978 0.00106879 
248.685 25.1219 1992 0.995047 0.0993978 0.00106879 
248.616 25.8117 1614.12 0.995047 0.0993978 0.00106879 
248.911 22.8616 1947.22 0.995047 0.0993978 0.00106879 
248.422 27.7573 1889.18 0.995047 0.0993978 0.00106879 
248.321 28.775 1432.52 0.995047 0.0993978 0.00106879 
248.257 29.4115 1954.93 0.995047 0.0993978 0.00106879 
248.654 25.4314 1711.87 0.995047 0.0993978 0.00106879 
248.403 27.9465 1632.37 0.995047 0.0993978 0.00106879 
248.226 29.7256 2006.15 0.995047 0.0993978 0.00106879 
248.589 26.0821 1860.03 0.995047 0.0993978 0.00106879 
248.367 28.3081 2096.48 0.995047 0.0993978 0.00106879 
248.324 28.7437 1608.05 0.995047 0.0993978 0.00106879 
248.517 26.8066 1982.95 0.995047 0.0993978 0.00106879 
248.284 29.1468 1390.08 0.995047 0.0993978 0.00106879 
248.509 26.8859 1833.12 0.995047 0.0993978 0.00106879 
248.389 28.0942 1489.6 0.995047 0.0993978 0.00106879 
248.624 25.7395 2006.35 0.995047 0.0993978 0.00106879 
248.339 28.5964 1749.55 0.995047 0.0993978 0.00106879 
248.935 22.6121 1801.08 0.995047 0.0993978 0.00106879 
248.901 22.9555 1866.22 0.995047 0.0993978 0.00106879 
248.512 26.8604 1559.5 0.995047 0.0993978 0.00106879 
248.462 27.3565 1801.18 0.995047 0.0993978 0.00106879 
248.283 29.151 1572.35 0.995047 0.0993978 0.00106879 
248.277 29.2131 1209.52 0.995047 0.0993978 0.00106879 
248.8 23.9723 1981.69 0.995047 0.0993978 0.00106879 
248.401 27.9747 1613.13 0.995047 0.0993978 0.00106879 
248.358 28.4038 1924.34 0.995047 0.0993978 0.00106879 
248.236 29.6209 1706.03 0.995047 0.0993978 0.00106879 
248.545 26.5293 1435.81 0.995047 0.0993978 0.00106879 
249.115 20.8168 1971.99 0.995047 0.0993978 0.00106879 
248.435 27.6257 1133.47 0.995047 0.0993978 0.00106879 
249.164 20.3166 1845.92 0.995047 0.0993978 0.00106879 
248.951 22.4538 1138.07 0.995047 0.0993978 0.00106879 
249.18 20.1643 1356.84 0.995047 0.0993978 0.00106879 
248.957 22.3932 1687.48 0.995047 0.0993978 0.00106879 
248.818 23.7849 1592.85 0.995047 0.0993978 0.00106879 
249.15 20.4569 1478.08 0.995047 0.0993978 0.00106879 
248.679 25.1876 1247.53 0.995047 0.0993978 0.00106879 
249.007 21.899 1406.56 0.995047 0.0993978 0.00106879 
248.403 27.954 1180 0.995047 0.0993978 0.00106879 
248.349 28.4892 1102.21 0.995047 0.0993978 0.00106879 
248.768 24.2944 1594.16 0.995047 0.0993978 0.00106879 
249.014 21.8253 1059.81 0.995047 0.0993978 0.00106879 
249.171 20.2517 1234.72 0.995047 0.0993978 0.00106879 
248.999 21.9718 1709.74 0.995047 0.0993978 0.00106879 
249.134 20.6223 1032.86 0.995047 0.0993978 0.00106879 
248.572 26.2568 1079.35 0.995047 0.0993978 0.00106879 
249.134 20.6198 1475.66 0.995047 0.0993978 0.00106879 
248.485 27.128 1090.9 0.995047 0.0993978 0.00106879 
249.096 21.0003 1419.52 0.995047 0.0993978 0.00106879 
248.865 23.3143 1406.49 0.995047 0.0993978 0.00106879 
248.5 26.9758 1111.2 0.995047 0.0993978 0.00106879 
248.923 22.7353 1422.46 0.995047 0.0993978 0.00106879 
248.882 23.1469 1558.27 0.995047 0.0993978 0.00106879 
249.124 20.7236 1239.49 0.995047 0.0993978 0.00106879 
249.099 20.9758 1967.52 0.995047 0.0993978 0.00106879 
248.642 25.5576 1383.84 0.995047 0.0993978 0.00106879 
249.051 21.4562 1413.2 0.995047 0.0993978 0.00106879 
248.401 27.9689 1161.44 0.995047 0.0993978 0.00106879 
249.162 20.336 1173.61 0.995047 0.0993978 0.00106879 
248.505 26.9309 1034.54 0.995047 0.0993978 0.00106879 
249.168 20.2785 1619.83 0.995047 0.0993978 0.00106879 
248.949 22.4775 1435.33 0.995047 0.0993978 0.00106879 
247.416 35.518 1940.19 0.990471 0.137718 0.00110175 
246.922 39.041 1523.22 0.990471 0.137718 0.00110175 
246.999 38.4952 1854.72 0.990471 0.137718 0.00110175 
247.924 31.8884 1900.61 0.990471 0.137718 0.00110175 
247.262 36.6135 1678.89 0.990471 0.137718 0.00110175 
247.042 38.1857 1370.9 0.990471 0.137718 0.00110175 
247.345 36.0189 1933.6 0.990471 0.137718 0.00110175 
247.387 35.7233 1761.59 0.990471 0.137718 0.00110175 
246.968 38.716 1914.14 0.990471 0.137718 0.00110175 
247.138 37.4995 1346.98 0.990471 0.137718 0.00110175 
247.332 36.1175 1468.11 0.990471 0.137718 0.00110175 
247.614 34.1018 1925.42 0.990471 0.137718 0.00110175 
247.224 36.8891 1481.44 0.990471 0.137718 0.00110175 
247.004 38.4561 1668.5 0.990471 0.137718 0.00110175 
247.546 34.5877 1687.16 0.990471 0.137718 0.00110175 
