ply
format ascii 1.0
comment Created by CloudCompare v2.11.3 (Anoia)
comment Created 04/04/2022 14:22
obj_info Generated by CloudCompare!
element vertex 875
property float x
property float y
property float z
property float nx
property float ny
property float nz
end_header
230.89 95.8139 1431.23 0.929435 0.368984 0.00126799 
233.347 89.6228 1216.85 0.929435 0.368984 0.00126799 
232.634 91.4192 1244.3 0.929435 0.368984 0.00126799 
228.049 102.324 1966.42 0.913864 0.406019 0.00128895 
227.168 104.309 2016.84 0.913864 0.406019 0.00128895 
228.612 101.054 1828.51 0.913864 0.406019 0.00128895 
229.457 99.1505 2006.98 0.913864 0.406019 0.00128895 
227.082 104.502 1982.5 0.913864 0.406019 0.00128895 
228.858 100.499 1803.67 0.913864 0.406019 0.00128895 
226.867 104.987 1208.97 0.913864 0.406019 0.00128895 
229.547 98.9464 1800.07 0.913864 0.406019 0.00128895 
229.045 100.078 1018.63 0.913864 0.406019 0.00128895 
229.535 98.9732 1060.08 0.913864 0.406019 0.00128895 
228.549 101.196 1228.69 0.913864 0.406019 0.00128895 
230.091 97.7203 1691.21 0.913864 0.406019 0.00128895 
229.111 99.9296 1592.05 0.913864 0.406019 0.00128895 
229.625 98.7701 1509.15 0.913864 0.406019 0.00128895 
222.126 114.712 1269.11 0.897798 0.440405 0.00130684 
222.871 113.199 1302.95 0.897798 0.440405 0.00130684 
222.561 113.828 1882.14 0.897798 0.440405 0.00130684 
223.146 112.639 1883.89 0.897798 0.440405 0.00130684 
222.461 114.032 1507.78 0.897798 0.440405 0.00130684 
225.245 108.374 1922.13 0.897798 0.440405 0.00130684 
224.066 110.769 1616.63 0.897798 0.440405 0.00130684 
224.986 108.901 1531.16 0.897798 0.440405 0.00130684 
226.432 105.961 1297.28 0.897798 0.440405 0.00130684 
225.938 106.966 1335.77 0.897798 0.440405 0.00130684 
223.253 112.422 1201.19 0.897798 0.440405 0.00130684 
225.9 107.042 1520.46 0.897798 0.440405 0.00130684 
224.793 109.292 1490.53 0.897798 0.440405 0.00130684 
222.838 113.265 1109.41 0.897798 0.440405 0.00130684 
219.409 119.731 1566.97 0.878249 0.478202 0.00132466 
218.902 120.666 1635.96 0.878249 0.478202 0.00132466 
217.545 123.166 2064.95 0.878249 0.478202 0.00132466 
218.018 122.294 1571.66 0.878249 0.478202 0.00132466 
219.301 119.93 1598.45 0.878249 0.478202 0.00132466 
219.055 120.383 1502.3 0.878249 0.478202 0.00132466 
217.905 122.502 1952.15 0.878249 0.478202 0.00132466 
218.857 120.748 1134.01 0.878249 0.478202 0.00132466 
221.743 115.429 1129.58 0.878249 0.478202 0.00132466 
221.893 115.152 1993.09 0.878249 0.478202 0.00132466 
219.635 119.313 1362.11 0.878249 0.478202 0.00132466 
221.606 115.68 1373.82 0.878249 0.478202 0.00132466 
219.631 119.321 1146.15 0.878249 0.478202 0.00132466 
221.101 116.611 1081.43 0.878249 0.478202 0.00132466 
216.201 125.459 2025.44 0.858436 0.512919 0.00133921 
214.215 128.796 1985.12 0.858436 0.512919 0.00133921 
216.6 124.789 1985.42 0.858436 0.512919 0.00133921 
215.951 125.88 1835.32 0.858436 0.512919 0.00133921 
213.993 129.169 1604.28 0.858436 0.512919 0.00133921 
213.257 130.407 1982.41 0.858436 0.512919 0.00133921 
214.555 128.225 1656.86 0.858436 0.512919 0.00133921 
217.164 123.842 1018.83 0.858436 0.512919 0.00133921 
216.666 124.678 1045.64 0.858436 0.512919 0.00133921 
213.888 129.346 1041.63 0.858436 0.512919 0.00133921 
216.268 125.348 1174.88 0.858436 0.512919 0.00133921 
215.643 126.397 1287.8 0.858436 0.512919 0.00133921 
214.508 128.304 1254.77 0.858436 0.512919 0.00133921 
215.244 127.067 1247.84 0.858436 0.512919 0.00133921 
208.912 137.23 1764.86 0.838844 0.54437 0.0013508 
209.918 135.684 2011.84 0.838844 0.54437 0.0013508 
210.781 134.357 1997.02 0.838844 0.54437 0.0013508 
207.008 140.159 1234.47 0.838844 0.54437 0.0013508 
208.847 137.33 1574.4 0.838844 0.54437 0.0013508 
208.201 138.325 1390.82 0.838844 0.54437 0.0013508 
209.092 136.955 1242.21 0.838844 0.54437 0.0013508 
208.977 137.131 1425.23 0.838844 0.54437 0.0013508 
210.515 134.766 1440.4 0.838844 0.54437 0.0013508 
210.415 134.92 1667.6 0.838844 0.54437 0.0013508 
211.82 132.76 1213.55 0.838844 0.54437 0.0013508 
211.515 133.229 1912.36 0.838844 0.54437 0.0013508 
211.497 133.256 1049.26 0.838844 0.54437 0.0013508 
201.693 147.683 1423.95 0.815569 0.578659 0.00136155 
203.654 144.917 2068.63 0.815569 0.578659 0.00136155 
204.969 143.06 1849.47 0.815569 0.578659 0.00136155 
201.483 147.981 1885.78 0.815569 0.578659 0.00136155 
201.433 148.051 1597.77 0.815569 0.578659 0.00136155 
201.116 148.498 1676.56 0.815569 0.578659 0.00136155 
201.934 147.343 1959.33 0.815569 0.578659 0.00136155 
206.489 140.915 1153.17 0.815569 0.578659 0.00136155 
203.997 144.431 1194.75 0.815569 0.578659 0.00136155 
204.314 143.984 1577.24 0.815569 0.578659 0.00136155 
206.627 140.719 1586.99 0.815569 0.578659 0.00136155 
206.522 140.867 1753.07 0.815569 0.578659 0.00136155 
205.571 142.21 1660.11 0.815569 0.578659 0.00136155 
205.858 141.805 1131.31 0.815569 0.578659 0.00136155 
199.827 150.177 1912.97 0.792878 0.609379 0.00136939 
195.941 155.223 1434.47 0.792878 0.609379 0.00136939 
195.38 155.952 1312.08 0.792878 0.609379 0.00136939 
198.144 152.362 1799.47 0.792878 0.609379 0.00136939 
198.95 151.316 1991.8 0.792878 0.609379 0.00136939 
198.439 151.979 1762.44 0.792878 0.609379 0.00136939 
198.068 152.461 1580.04 0.792878 0.609379 0.00136939 
193.554 158.175 1575.86 0.7663 0.642481 0.00137576 
194.059 157.57 1200.86 0.7663 0.642481 0.00137576 
195.014 156.428 1445.09 0.7663 0.642481 0.00137576 
189.219 163.365 2080.3 0.7663 0.642481 0.00137576 
190.252 162.128 1947.13 0.7663 0.642481 0.00137576 
193.912 157.747 1934.27 0.7663 0.642481 0.00137576 
193.685 158.019 2095.07 0.7663 0.642481 0.00137576 
197.251 153.522 1190.03 0.792878 0.609379 0.00136939 
201.075 148.556 2090.09 0.792878 0.609379 0.00136939 
196.986 153.866 1332.95 0.792878 0.609379 0.00136939 
198.075 152.452 1454.34 0.792878 0.609379 0.00136939 
197.07 153.757 1203.25 0.792878 0.609379 0.00136939 
198.124 152.389 1033.29 0.792878 0.609379 0.00136939 
201.006 148.645 1128.26 0.792878 0.609379 0.00136939 
190.734 161.551 1710.39 0.7663 0.642481 0.00137576 
193.946 157.706 1041.78 0.7663 0.642481 0.00137576 
189.059 163.557 1173.95 0.7663 0.642481 0.00137576 
192.548 159.379 1063.64 0.7663 0.642481 0.00137576 
189.712 162.775 1808.75 0.7663 0.642481 0.00137576 
191.881 160.178 1316.83 0.7663 0.642481 0.00137576 
189.204 163.383 1438.12 0.7663 0.642481 0.00137576 
184.231 168.928 1473.61 0.74075 0.671779 0.00137942 
184.49 168.642 1958.46 0.74075 0.671779 0.00137942 
183.626 169.597 1668.99 0.74075 0.671779 0.00137942 
185.335 167.708 1755.23 0.74075 0.671779 0.00137942 
184.51 168.62 1658.13 0.74075 0.671779 0.00137942 
184.402 168.74 1721 0.74075 0.671779 0.00137942 
183.961 169.226 1409.09 0.74075 0.671779 0.00137942 
187.152 165.702 1184.68 0.74075 0.671779 0.00137942 
187.381 165.448 1040.77 0.74075 0.671779 0.00137942 
186.778 166.114 1362.15 0.74075 0.671779 0.00137942 
187.503 165.314 1021.04 0.74075 0.671779 0.00137942 
187.251 165.592 1020.32 0.74075 0.671779 0.00137942 
186.486 166.437 1311.88 0.74075 0.671779 0.00137942 
186.944 165.931 1116.53 0.74075 0.671779 0.00137942 
176.015 177.5 1469.67 0.713977 0.700167 0.001381 
176.597 176.907 1468.65 0.713977 0.700167 0.001381 
181.378 172.03 2098.85 0.713977 0.700167 0.001381 
177.033 176.463 1401.77 0.713977 0.700167 0.001381 
177.934 175.544 1655.49 0.713977 0.700167 0.001381 
178.151 175.322 2090.18 0.713977 0.700167 0.001381 
176.918 176.58 1962.76 0.713977 0.700167 0.001381 
181.071 172.344 1825.4 0.713977 0.700167 0.001381 
181.89 171.508 1282.68 0.713977 0.700167 0.001381 
176.224 177.287 1150.47 0.713977 0.700167 0.001381 
180.417 173.011 1376.78 0.713977 0.700167 0.001381 
175.602 177.922 1089.55 0.713977 0.700167 0.001381 
181.571 171.833 1584.3 0.713977 0.700167 0.001381 
176.512 176.993 1017.53 0.713977 0.700167 0.001381 
171.206 182.11 1471.43 0.686096 0.72751 0.00138047 
169.656 183.57 1088.22 0.686096 0.72751 0.00138047 
173.778 179.686 1660.58 0.686096 0.72751 0.00138047 
170.59 182.69 1027.3 0.686096 0.72751 0.00138047 
171.736 181.61 1317.76 0.686096 0.72751 0.00138047 
172.787 180.62 1761.32 0.686096 0.72751 0.00138047 
171.375 181.95 1049.74 0.686096 0.72751 0.00138047 
171.86 181.493 1901.94 0.686096 0.72751 0.00138047 
167.926 185.2 1755.5 0.686096 0.72751 0.00138047 
170.271 182.99 1504.94 0.686096 0.72751 0.00138047 
169.635 183.589 1457.84 0.686096 0.72751 0.00138047 
168.123 185.013 1751.52 0.686096 0.72751 0.00138047 
169.909 183.331 1941.41 0.686096 0.72751 0.00138047 
165.274 187.517 1702.52 0.657235 0.753685 0.00137785 
166.626 186.341 1962.84 0.657235 0.753685 0.00137785 
166.402 186.536 1836.27 0.657235 0.753685 0.00137785 
167.736 185.375 1975.25 0.657235 0.753685 0.00137785 
167.228 185.817 1627.19 0.657235 0.753685 0.00137785 
166.372 186.562 1837.19 0.657235 0.753685 0.00137785 
167.339 185.721 1204.31 0.657235 0.753685 0.00137785 
165.076 187.689 1371.7 0.657235 0.753685 0.00137785 
163.449 189.104 1048.81 0.657235 0.753685 0.00137785 
161.022 191.215 1387.51 0.657235 0.753685 0.00137785 
161.879 190.47 1212.84 0.657235 0.753685 0.00137785 
161.547 190.758 1149.58 0.657235 0.753685 0.00137785 
161.652 190.666 1157.12 0.657235 0.753685 0.00137785 
162.181 190.207 1123.65 0.657235 0.753685 0.00137785 
158.218 193.514 1312.33 0.624527 0.781002 0.00137259 
155.532 195.669 1080.24 0.624527 0.781002 0.00137259 
157.444 194.135 1025.41 0.624527 0.781002 0.00137259 
156.62 194.796 1220.84 0.624527 0.781002 0.00137259 
156.789 194.661 1423.43 0.624527 0.781002 0.00137259 
157.015 194.48 1145.16 0.624527 0.781002 0.00137259 
155.929 195.35 1420.66 0.624527 0.781002 0.00137259 
154.689 196.345 1390.66 0.624527 0.781002 0.00137259 
152.891 197.787 1061.37 0.624527 0.781002 0.00137259 
153.571 197.242 1506.37 0.624527 0.781002 0.00137259 
154.504 196.494 1689.66 0.624527 0.781002 0.00137259 
152.705 197.936 1814.31 0.624527 0.781002 0.00137259 
154.889 196.185 1799.35 0.624527 0.781002 0.00137259 
154.408 196.57 1356.99 0.624527 0.781002 0.00137259 
146.354 202.64 1925.81 0.594083 0.804402 0.00136571 
149.455 200.349 1867.97 0.594083 0.804402 0.00136571 
150.252 199.761 1962.49 0.594083 0.804402 0.00136571 
152.16 198.351 1425.18 0.594083 0.804402 0.00136571 
151.853 198.578 1861.11 0.594083 0.804402 0.00136571 
151.669 198.713 1701.73 0.594083 0.804402 0.00136571 
147.906 201.494 1836.32 0.594083 0.804402 0.00136571 
148.605 200.977 1320.81 0.594083 0.804402 0.00136571 
147.324 201.924 1604.74 0.594083 0.804402 0.00136571 
149.073 200.631 1251.15 0.594083 0.804402 0.00136571 
145.715 203.112 1268.03 0.594083 0.804402 0.00136571 
147.941 201.468 1470.69 0.594083 0.804402 0.00136571 
144.622 203.92 1086.49 0.594083 0.804402 0.00136571 
144.976 203.658 1812.73 0.594083 0.804402 0.00136571 
141.081 206.33 1449.35 0.563126 0.82637 0.00135693 
142.859 205.123 1530.85 0.563126 0.82637 0.00135693 
144.229 204.193 1748.34 0.563126 0.82637 0.00135693 
144.332 204.123 2026.1 0.563126 0.82637 0.00135693 
141.062 206.343 1610.14 0.563126 0.82637 0.00135693 
143.674 204.569 1249.03 0.563126 0.82637 0.00135693 
144.476 204.025 1034.18 0.563126 0.82637 0.00135693 
137.85 208.524 1698.96 0.563126 0.82637 0.00135693 
137.035 209.077 1444.98 0.563126 0.82637 0.00135693 
141.05 206.351 2064.14 0.563126 0.82637 0.00135693 
139.929 207.112 1544.08 0.563126 0.82637 0.00135693 
138.187 208.295 1518.81 0.563126 0.82637 0.00135693 
140.099 206.997 1965.06 0.563126 0.82637 0.00135693 
137.499 208.762 1580.64 0.563126 0.82637 0.00135693 
135.744 209.922 2052.81 0.528668 0.848828 0.00134521 
135.266 210.22 1842.59 0.528668 0.848828 0.00134521 
133.585 211.267 1678.67 0.528668 0.848828 0.00134521 
135.489 210.081 1304.46 0.528668 0.848828 0.00134521 
130.781 213.012 1843.26 0.528668 0.848828 0.00134521 
131.999 212.254 1739.84 0.528668 0.848828 0.00134521 
135.255 210.227 1765.17 0.528668 0.848828 0.00134521 
129.181 214.007 1458.74 0.528668 0.848828 0.00134521 
131.895 212.318 1263.67 0.528668 0.848828 0.00134521 
129.22 213.983 1442.35 0.528668 0.848828 0.00134521 
129.257 213.96 1435.98 0.528668 0.848828 0.00134521 
130.845 212.972 1687.04 0.528668 0.848828 0.00134521 
128.297 214.558 1838.22 0.528668 0.848828 0.00134521 
127.888 214.813 1212.71 0.528668 0.848828 0.00134521 
123.841 217.115 1493.13 0.493986 0.869469 0.0013315 
126.566 215.566 1899.27 0.493986 0.869469 0.0013315 
122.022 218.149 1044.49 0.493986 0.869469 0.0013315 
127.522 215.022 1496.32 0.493986 0.869469 0.0013315 
121.851 218.246 1186.62 0.493986 0.869469 0.0013315 
126.014 215.88 1537.22 0.493986 0.869469 0.0013315 
126.111 215.824 1281.38 0.493986 0.869469 0.0013315 
119.907 219.352 1116.5 0.493986 0.869469 0.0013315 
119.937 219.334 1127.11 0.493986 0.869469 0.0013315 
124.14 216.945 1979.4 0.493986 0.869469 0.0013315 
124.099 216.968 1740.93 0.493986 0.869469 0.0013315 
120.753 218.871 1741.55 0.493986 0.869469 0.0013315 
123.034 217.573 1982.67 0.493986 0.869469 0.0013315 
121.275 218.574 1983.39 0.493986 0.869469 0.0013315 
116.596 221.099 1681.46 0.459279 0.888291 0.00131599 
116.1 221.355 1465.63 0.459279 0.888291 0.00131599 
117.836 220.458 1535.78 0.459279 0.888291 0.00131599 
113.712 222.59 2069.04 0.459279 0.888291 0.00131599 
114.935 221.958 2072.53 0.459279 0.888291 0.00131599 
114.638 222.112 2050.95 0.459279 0.888291 0.00131599 
118.407 220.163 1899.27 0.459279 0.888291 0.00131599 
116.01 221.402 1355.33 0.459279 0.888291 0.00131599 
113.915 222.485 1520.41 0.459279 0.888291 0.00131599 
112.033 223.458 1274.92 0.459279 0.888291 0.00131599 
110.646 224.175 2044.75 0.459279 0.888291 0.00131599 
115.129 221.858 1138.55 0.459279 0.888291 0.00131599 
112.254 223.344 1604.3 0.459279 0.888291 0.00131599 
111.907 223.524 1419.56 0.459279 0.888291 0.00131599 
103.253 227.646 1588.02 0.424733 0.905318 0.00129888 
102.004 228.23 1252.32 0.424733 0.905318 0.00129888 
101.998 228.232 1330.35 0.424733 0.905318 0.00129888 
107.005 225.891 2098.57 0.424733 0.905318 0.00129888 
102.626 227.939 1629.33 0.424733 0.905318 0.00129888 
104.308 227.152 1780.45 0.424733 0.905318 0.00129888 
104.399 227.11 1428.71 0.424733 0.905318 0.00129888 
103.117 227.709 1125.11 0.424733 0.905318 0.00129888 
107 225.893 1447.85 0.424733 0.905318 0.00129888 
103.038 227.746 1070.06 0.424733 0.905318 0.00129888 
109.123 224.901 1778.9 0.424733 0.905318 0.00129888 
108.144 225.358 1067.41 0.424733 0.905318 0.00129888 
106.815 225.98 1439.13 0.424733 0.905318 0.00129888 
110.175 224.408 1304.19 0.424733 0.905318 0.00129888 
93.3025 231.914 2090.71 0.387428 0.921899 0.00127864 
94.674 231.338 1809.31 0.387428 0.921899 0.00127864 
96.9769 230.371 1615.21 0.387428 0.921899 0.00127864 
94.8441 231.267 1769.01 0.387428 0.921899 0.00127864 
93.3924 231.877 1804.38 0.387428 0.921899 0.00127864 
99.6471 229.249 2088.27 0.387428 0.921899 0.00127864 
87.6533 234.077 1589.44 0.35071 0.936483 0.00125702 
91.9734 232.462 1675.93 0.35071 0.936483 0.00125702 
85.1347 235.019 1908.44 0.35071 0.936483 0.00125702 
89.2409 233.484 1799.48 0.35071 0.936483 0.00125702 
91.497 232.64 1883.59 0.35071 0.936483 0.00125702 
89.4605 233.401 2009.72 0.35071 0.936483 0.00125702 
88.4822 233.767 1902.3 0.35071 0.936483 0.00125702 
100.799 228.765 1337.92 0.387428 0.921899 0.00127864 
96.0286 230.769 1122.11 0.387428 0.921899 0.00127864 
93.9404 231.646 1168.42 0.387428 0.921899 0.00127864 
99.5448 229.292 1607.05 0.387428 0.921899 0.00127864 
94.4698 231.424 1175.42 0.387428 0.921899 0.00127864 
93.8194 231.697 1048.23 0.387428 0.921899 0.00127864 
95.6294 230.937 1339.12 0.387428 0.921899 0.00127864 
84.8954 235.109 1181.56 0.35071 0.936483 0.00125702 
84.2299 235.358 1433.8 0.35071 0.936483 0.00125702 
83.942 235.465 1007.71 0.35071 0.936483 0.00125702 
86.3768 234.555 1684.85 0.35071 0.936483 0.00125702 
84.004 235.442 1787.66 0.35071 0.936483 0.00125702 
86.8371 234.383 1586.67 0.35071 0.936483 0.00125702 
90.0099 233.196 1033.77 0.35071 0.936483 0.00125702 
75.4099 238.322 1526.44 0.311788 0.950151 0.00123236 
76.1056 238.092 2035.46 0.311788 0.950151 0.00123236 
73.5663 238.929 1036.71 0.311788 0.950151 0.00123236 
82.25 236.069 2057.41 0.311788 0.950151 0.00123236 
74.8017 238.522 1571.82 0.311788 0.950151 0.00123236 
75.6175 238.253 1417.32 0.311788 0.950151 0.00123236 
74.0195 238.779 1921.73 0.311788 0.950151 0.00123236 
77.3403 237.686 1181.09 0.311788 0.950151 0.00123236 
77.7212 237.56 1392.5 0.311788 0.950151 0.00123236 
76.232 238.051 1184.62 0.311788 0.950151 0.00123236 
82.5319 235.976 2026.3 0.311788 0.950151 0.00123236 
82.4655 235.998 1299.33 0.311788 0.950151 0.00123236 
79.1824 237.079 1043.28 0.311788 0.950151 0.00123236 
78.3669 237.348 1078.03 0.311788 0.950151 0.00123236 
64.7107 241.464 1494.05 0.273924 0.961751 0.00120671 
64.3317 241.572 1900.37 0.273924 0.961751 0.00120671 
68.3149 240.434 1526.67 0.273924 0.961751 0.00120671 
65.3968 241.268 1836.41 0.273924 0.961751 0.00120671 
66.3545 240.994 1349.53 0.273924 0.961751 0.00120671 
64.0905 241.641 1568.23 0.273924 0.961751 0.00120671 
65.8995 241.124 1112.99 0.273924 0.961751 0.00120671 
66.8038 240.866 1105.79 0.273924 0.961751 0.00120671 
73.3444 238.997 1813.79 0.273924 0.961751 0.00120671 
68.2267 240.459 1296.42 0.273924 0.961751 0.00120671 
67.2566 240.736 1029.26 0.273924 0.961751 0.00120671 
68.0873 240.499 1368.42 0.273924 0.961751 0.00120671 
69.9383 239.97 1318.06 0.273924 0.961751 0.00120671 
57.1859 243.329 1828.15 0.237255 0.971447 0.00118037 
58.6341 242.976 2061.9 0.237255 0.971447 0.00118037 
58.9223 242.906 1871.48 0.237255 0.971447 0.00118037 
60.5258 242.516 1947.22 0.237255 0.971447 0.00118037 
59.1261 242.857 1755.83 0.237255 0.971447 0.00118037 
60.944 242.415 2014.53 0.237255 0.971447 0.00118037 
61.3457 242.317 2059.71 0.237255 0.971447 0.00118037 
48.9295 245.115 1934.79 0.196558 0.980491 0.00114946 
51.0924 244.679 1519.71 0.196558 0.980491 0.00114946 
53.5024 244.194 1311.01 0.196558 0.980491 0.00114946 
48.8214 245.137 1854.25 0.196558 0.980491 0.00114946 
52.8115 244.333 1903.89 0.196558 0.980491 0.00114946 
50.3426 244.83 1913.41 0.196558 0.980491 0.00114946 
47.7428 245.354 1795.52 0.196558 0.980491 0.00114946 
56.7049 243.446 1262.38 0.237255 0.971447 0.00118037 
57.2245 243.319 1204.23 0.237255 0.971447 0.00118037 
60.3863 242.55 1611.38 0.237255 0.971447 0.00118037 
57.2385 243.316 1300.2 0.237255 0.971447 0.00118037 
55.2483 243.8 1028.01 0.237255 0.971447 0.00118037 
60.111 242.617 1630.53 0.237255 0.971447 0.00118037 
62.3341 242.076 1058.29 0.237255 0.971447 0.00118037 
45.5592 245.794 1879.58 0.196558 0.980491 0.00114946 
47.1254 245.479 1297.04 0.196558 0.980491 0.00114946 
46.9787 245.508 1194.8 0.196558 0.980491 0.00114946 
48.6941 245.163 1078.21 0.196558 0.980491 0.00114946 
51.3305 244.631 1232.44 0.196558 0.980491 0.00114946 
45.1557 245.876 1629.38 0.196558 0.980491 0.00114946 
46.6707 245.57 1084.45 0.196558 0.980491 0.00114946 
36.9527 247.218 1885.07 0.157685 0.987489 0.00111833 
37.1364 247.189 2030.21 0.157685 0.987489 0.00111833 
36.8621 247.233 2037.25 0.157685 0.987489 0.00111833 
36.0751 247.359 1598.99 0.157685 0.987489 0.00111833 
38.1663 247.024 1885.69 0.157685 0.987489 0.00111833 
36.5275 247.287 1656.75 0.157685 0.987489 0.00111833 
41.9455 246.417 1817.53 0.157685 0.987489 0.00111833 
43.4463 246.177 1965.31 0.157685 0.987489 0.00111833 
42.8331 246.275 1278.85 0.157685 0.987489 0.00111833 
44.144 246.065 1618.79 0.157685 0.987489 0.00111833 
39.3978 246.826 1292.58 0.157685 0.987489 0.00111833 
40.901 246.585 1321.69 0.157685 0.987489 0.00111833 
41.749 246.449 1400.03 0.157685 0.987489 0.00111833 
41.6531 246.464 1308.4 0.157685 0.987489 0.00111833 
32.709 247.819 2016.2 0.118289 0.992979 0.00108522 
26.8999 248.515 1340.28 0.118289 0.992979 0.00108522 
27.2198 248.477 1540.93 0.118289 0.992979 0.00108522 
25.7821 248.649 1736.66 0.118289 0.992979 0.00108522 
25.0959 248.732 1971.63 0.118289 0.992979 0.00108522 
29.2034 248.239 1826.83 0.118289 0.992979 0.00108522 
32.4432 247.851 2002.23 0.118289 0.992979 0.00108522 
31.6472 247.946 1093.64 0.118289 0.992979 0.00108522 
33.427 247.733 1466.66 0.118289 0.992979 0.00108522 
33.9371 247.672 1661.08 0.118289 0.992979 0.00108522 
27.0786 248.494 1044.36 0.118289 0.992979 0.00108522 
31.3742 247.979 1730.46 0.118289 0.992979 0.00108522 
27.8744 248.399 1099.82 0.118289 0.992979 0.00108522 
26.8084 248.526 1141.12 0.118289 0.992979 0.00108522 
18.9618 249.232 1795.65 0.0787849 0.996891 0.00105046 
19.7348 249.17 1852.27 0.0787849 0.996891 0.00105046 
21.0191 249.068 1716.43 0.0787849 0.996891 0.00105046 
18.5748 249.263 1958.89 0.0787849 0.996891 0.00105046 
18.4383 249.274 1497.18 0.0787849 0.996891 0.00105046 
21.2589 249.049 1801.3 0.0787849 0.996891 0.00105046 
21.9333 248.995 1911.19 0.0787849 0.996891 0.00105046 
18.1993 249.293 1360.08 0.0787849 0.996891 0.00105046 
20.6249 249.099 1082.66 0.0787849 0.996891 0.00105046 
20.9312 249.075 1087.93 0.0787849 0.996891 0.00105046 
21.6354 249.019 1113.09 0.0787849 0.996891 0.00105046 
23.2052 248.894 1045.87 0.0787849 0.996891 0.00105046 
24.1065 248.822 1895.25 0.0787849 0.996891 0.00105046 
21.4055 249.037 1195.16 0.0787849 0.996891 0.00105046 
10.1632 249.744 2073.4 0.0395629 0.999217 0.00101443 
11.5426 249.689 1798.3 0.0395629 0.999217 0.00101443 
5.28155 249.938 1223.6 0.0395629 0.999217 0.00101443 
6.82051 249.877 1308.66 0.0395629 0.999217 0.00101443 
7.84668 249.836 1393.86 0.0395629 0.999217 0.00101443 
9.88092 249.755 1662.4 0.0395629 0.999217 0.00101443 
8.75779 249.8 1855.07 0.0395629 0.999217 0.00101443 
12.2274 249.662 1655.18 0.0395629 0.999217 0.00101443 
10.5217 249.73 1376.91 0.0395629 0.999217 0.00101443 
12.6816 249.644 1685.21 0.0395629 0.999217 0.00101443 
11.7219 249.682 1223.3 0.0395629 0.999217 0.00101443 
10.4029 249.734 1117.06 0.0395629 0.999217 0.00101443 
10.4779 249.731 1589.44 0.0395629 0.999217 0.00101443 
10.3666 249.736 1009.19 0.0395629 0.999217 0.00101443 
-4.20783 249.951 1282.49 0.000977516 0.999999 0.000977516 
0.801981 249.951 2086.95 0.000977516 0.999999 0.000977516 
-2.31626 249.951 2018.74 0.000977516 0.999999 0.000977516 
-3.03671 249.951 2009.91 0.000977516 0.999999 0.000977516 
-4.19555 249.951 1906.33 0.000977516 0.999999 0.000977516 
-4.84672 249.951 1462.87 0.000977516 0.999999 0.000977516 
-2.21346 249.951 1667.84 0.000977516 0.999999 0.000977516 
2.68992 249.951 1785.57 0.000977516 0.999999 0.000977516 
3.21788 249.951 1354.51 0.000977516 0.999999 0.000977516 
3.89822 249.951 1721 0.000977516 0.999999 0.000977516 
2.86163 249.951 1436.37 0.000977516 0.999999 0.000977516 
-0.372263 249.951 1160.09 0.000977516 0.999999 0.000977516 
1.70899 249.951 1259.35 0.000977516 0.999999 0.000977516 
-11.3309 249.698 1448.17 -0.0395629 0.999217 0.00101443 
-10.7671 249.72 1820.05 -0.0395629 0.999217 0.00101443 
-9.87926 249.755 1978.51 -0.0395629 0.999217 0.00101443 
-9.84193 249.757 1758.83 -0.0395629 0.999217 0.00101443 
-10.0368 249.749 2025.19 -0.0395629 0.999217 0.00101443 
-9.88631 249.755 1808.59 -0.0395629 0.999217 0.00101443 
-10.6476 249.725 1772.37 -0.0395629 0.999217 0.00101443 
-14.4351 249.574 1050.06 -0.0395629 0.999217 0.00101443 
-9.1885 249.783 1350.21 -0.0395629 0.999217 0.00101443 
-6.06771 249.907 1572.42 -0.0395629 0.999217 0.00101443 
-5.63184 249.924 1931.67 -0.0395629 0.999217 0.00101443 
-7.58753 249.846 1435.77 -0.0395629 0.999217 0.00101443 
-5.28094 249.938 1804.47 -0.0395629 0.999217 0.00101443 
-10.7348 249.721 1293.75 -0.0395629 0.999217 0.00101443 
-21.8624 249.001 1524.9 -0.0787849 0.996891 0.00105046 
-23.6947 248.855 1199.79 -0.0787849 0.996891 0.00105046 
-20.3556 249.121 1523.25 -0.0787849 0.996891 0.00105046 
-16.5517 249.424 2094.84 -0.0787849 0.996891 0.00105046 
-23.218 248.893 1886.77 -0.0787849 0.996891 0.00105046 
-19.4138 249.196 1747.11 -0.0787849 0.996891 0.00105046 
-22.6609 248.937 1948.92 -0.0787849 0.996891 0.00105046 
-22.841 248.923 1010.57 -0.0787849 0.996891 0.00105046 
-19.0589 249.224 1592.03 -0.0787849 0.996891 0.00105046 
-19.9178 249.156 1287.76 -0.0787849 0.996891 0.00105046 
-15.8018 249.484 1207.18 -0.0787849 0.996891 0.00105046 
-19.4946 249.189 1315.77 -0.0787849 0.996891 0.00105046 
-15.5163 249.507 1019.68 -0.0787849 0.996891 0.00105046 
-15.2024 249.532 1258.76 -0.0787849 0.996891 0.00105046 
-31.4066 247.975 1500.36 -0.118289 0.992979 0.00108522 
-32.6367 247.828 1983.93 -0.118289 0.992979 0.00108522 
-34.2139 247.639 1444.76 -0.118289 0.992979 0.00108522 
-30.478 248.087 2098.91 -0.118289 0.992979 0.00108522 
-34.1404 247.648 1645.05 -0.118289 0.992979 0.00108522 
-30.9183 248.034 1483.23 -0.118289 0.992979 0.00108522 
-25.4711 248.687 1631.68 -0.118289 0.992979 0.00108522 
-24.9208 248.753 1838.23 -0.118289 0.992979 0.00108522 
-32.4503 247.85 1086.76 -0.118289 0.992979 0.00108522 
-28.3048 248.347 1002.67 -0.118289 0.992979 0.00108522 
-28.3576 248.341 1404.54 -0.118289 0.992979 0.00108522 
-32.1711 247.884 1195.81 -0.118289 0.992979 0.00108522 
-25.5099 248.682 1543.55 -0.118289 0.992979 0.00108522 
-43.4095 246.183 1262.22 -0.157685 0.987489 0.00111833 
-42.2645 246.366 1969.58 -0.157685 0.987489 0.00111833 
-38.292 247.004 1895.89 -0.157685 0.987489 0.00111833 
-38.6459 246.947 1872.09 -0.157685 0.987489 0.00111833 
-38.0692 247.039 2031.23 -0.157685 0.987489 0.00111833 
-41.4285 246.5 1684.78 -0.157685 0.987489 0.00111833 
-48.8308 245.135 1729.19 -0.196558 0.980491 0.00114946 
-49.5214 244.996 1860.35 -0.196558 0.980491 0.00114946 
-45.7591 245.754 1971.3 -0.196558 0.980491 0.00114946 
-45.7762 245.75 1266.33 -0.196558 0.980491 0.00114946 
-51.69 244.559 2028.58 -0.196558 0.980491 0.00114946 
-50.166 244.866 1750.4 -0.196558 0.980491 0.00114946 
-48.9043 245.12 1941.09 -0.196558 0.980491 0.00114946 
-40.7278 246.613 1249.6 -0.157685 0.987489 0.00111833 
-39.7798 246.765 1390.67 -0.157685 0.987489 0.00111833 
-34.9203 247.544 1158.24 -0.157685 0.987489 0.00111833 
-36.4175 247.304 1197.83 -0.157685 0.987489 0.00111833 
-34.7541 247.571 1174.31 -0.157685 0.987489 0.00111833 
-38.8451 246.915 1123.97 -0.157685 0.987489 0.00111833 
-43.5617 246.158 1044.54 -0.157685 0.987489 0.00111833 
-52.5335 244.389 1900.26 -0.196558 0.980491 0.00114946 
-52.3028 244.435 1509.54 -0.196558 0.980491 0.00114946 
-53.2532 244.244 1169.11 -0.196558 0.980491 0.00114946 
-50.9866 244.701 1196.54 -0.196558 0.980491 0.00114946 
-51.2726 244.643 1388.57 -0.196558 0.980491 0.00114946 
-51.8405 244.529 1066.29 -0.196558 0.980491 0.00114946 
-54.1911 244.055 1083.6 -0.196558 0.980491 0.00114946 
-55.7059 243.689 1928.78 -0.237255 0.971447 0.00118037 
-54.2604 244.04 1531.29 -0.237255 0.971447 0.00118037 
-57.8305 243.172 1022.19 -0.237255 0.971447 0.00118037 
-57.1478 243.338 1629.2 -0.237255 0.971447 0.00118037 
-56.6251 243.465 1152.54 -0.237255 0.971447 0.00118037 
-57.0053 243.373 1312.56 -0.237255 0.971447 0.00118037 
-55.6094 243.712 1296.45 -0.237255 0.971447 0.00118037 
-60.4301 242.54 2018.67 -0.237255 0.971447 0.00118037 
-63.2703 241.849 1596.86 -0.237255 0.971447 0.00118037 
-56.8055 243.421 2016.05 -0.237255 0.971447 0.00118037 
-63.2759 241.847 1127.44 -0.237255 0.971447 0.00118037 
-63.7287 241.737 1337.43 -0.237255 0.971447 0.00118037 
-58.6122 242.982 1835.02 -0.237255 0.971447 0.00118037 
-63.2267 241.859 2026.78 -0.237255 0.971447 0.00118037 
-66.4063 240.979 1696.88 -0.273924 0.961751 0.00120671 
-68.1287 240.487 1513.7 -0.273924 0.961751 0.00120671 
-65.5675 241.219 1342.57 -0.273924 0.961751 0.00120671 
-71.1151 239.634 1006.15 -0.273924 0.961751 0.00120671 
-64.9738 241.389 1014.19 -0.273924 0.961751 0.00120671 
-66.2818 241.015 1301.13 -0.273924 0.961751 0.00120671 
-65.1589 241.336 1454.79 -0.273924 0.961751 0.00120671 
-73.3392 238.998 1351.06 -0.273924 0.961751 0.00120671 
-73.1711 239.046 1746.14 -0.273924 0.961751 0.00120671 
-65.0216 241.375 2030.34 -0.273924 0.961751 0.00120671 
-73.1161 239.062 1242.5 -0.273924 0.961751 0.00120671 
-69.5189 240.09 1738.63 -0.273924 0.961751 0.00120671 
-72.9146 239.119 1568.93 -0.273924 0.961751 0.00120671 
-67.5954 240.64 1985.64 -0.273924 0.961751 0.00120671 
-78.0639 237.448 1046.61 -0.311788 0.950151 0.00123236 
-77.2782 237.706 1341.67 -0.311788 0.950151 0.00123236 
-76.4466 237.98 1483.16 -0.311788 0.950151 0.00123236 
-76.1692 238.072 1549.38 -0.311788 0.950151 0.00123236 
-73.9606 238.799 1797.04 -0.311788 0.950151 0.00123236 
-78.7051 237.236 1140.4 -0.311788 0.950151 0.00123236 
-77.8197 237.528 1618.81 -0.311788 0.950151 0.00123236 
-76.9551 237.813 2060.63 -0.311788 0.950151 0.00123236 
-78.9564 237.154 2095.63 -0.311788 0.950151 0.00123236 
-82.7555 235.902 1348.64 -0.311788 0.950151 0.00123236 
-82.2066 236.083 1316.8 -0.311788 0.950151 0.00123236 
-82.3838 236.025 1639.31 -0.311788 0.950151 0.00123236 
-81.8333 236.206 1897.04 -0.311788 0.950151 0.00123236 
-86.8052 234.395 1391.91 -0.35071 0.936483 0.00125702 
-85.7001 234.808 1595.11 -0.35071 0.936483 0.00125702 
-84.2641 235.345 1367.19 -0.35071 0.936483 0.00125702 
-84.6279 235.209 1490.87 -0.35071 0.936483 0.00125702 
-85.5184 234.876 1485.11 -0.35071 0.936483 0.00125702 
-87.1517 234.265 1392.33 -0.35071 0.936483 0.00125702 
-89.7671 233.287 1934.5 -0.35071 0.936483 0.00125702 
-89.8543 233.254 1401.65 -0.35071 0.936483 0.00125702 
-84.484 235.263 2034.4 -0.35071 0.936483 0.00125702 
-90.6611 232.952 1390.54 -0.35071 0.936483 0.00125702 
-91.8627 232.503 1546.78 -0.35071 0.936483 0.00125702 
-92.2057 232.375 1029.93 -0.35071 0.936483 0.00125702 
-91.2698 232.725 1718.15 -0.35071 0.936483 0.00125702 
-95.1198 231.151 1549.39 -0.387428 0.921899 0.00127864 
-95.16 231.134 1374.17 -0.387428 0.921899 0.00127864 
-96.4313 230.6 1974.22 -0.387428 0.921899 0.00127864 
-100.707 228.804 2053.17 -0.387428 0.921899 0.00127864 
-94.2689 231.508 1982.21 -0.387428 0.921899 0.00127864 
-92.3725 232.305 1233.7 -0.387428 0.921899 0.00127864 
-98.7562 229.624 1913.33 -0.387428 0.921899 0.00127864 
-98.2228 229.848 1286.12 -0.387428 0.921899 0.00127864 
-93.1967 231.959 1054.98 -0.387428 0.921899 0.00127864 
-97.0742 230.33 1012.46 -0.387428 0.921899 0.00127864 
-93.6947 231.75 1068.72 -0.387428 0.921899 0.00127864 
-98.4832 229.738 1108.26 -0.387428 0.921899 0.00127864 
-100.782 228.773 1706.34 -0.387428 0.921899 0.00127864 
-100.586 228.855 1422.33 -0.387428 0.921899 0.00127864 
-103.069 227.732 1249.82 -0.424733 0.905318 0.00129888 
-102.336 228.074 1174.86 -0.424733 0.905318 0.00129888 
-105.703 226.5 1236.54 -0.424733 0.905318 0.00129888 
-103.107 227.714 1841.03 -0.424733 0.905318 0.00129888 
-104.276 227.167 1365.88 -0.424733 0.905318 0.00129888 
-101.739 228.354 1890.53 -0.424733 0.905318 0.00129888 
-109.311 224.813 1031.28 -0.424733 0.905318 0.00129888 
-109.709 224.626 1740.24 -0.424733 0.905318 0.00129888 
-108.175 225.344 1673.08 -0.424733 0.905318 0.00129888 
-107.66 225.585 1555.07 -0.424733 0.905318 0.00129888 
-105.456 226.615 1860.06 -0.424733 0.905318 0.00129888 
-106.655 226.055 1897.98 -0.424733 0.905318 0.00129888 
-109.932 224.522 1771.94 -0.424733 0.905318 0.00129888 
-109.091 224.915 1593.69 -0.424733 0.905318 0.00129888 
-117.737 220.509 1005.84 -0.459279 0.888291 0.00131599 
-111.881 223.537 1034.19 -0.459279 0.888291 0.00131599 
-117.158 220.808 1086.33 -0.459279 0.888291 0.00131599 
-117.306 220.732 1077.54 -0.459279 0.888291 0.00131599 
-112.185 223.379 1540.23 -0.459279 0.888291 0.00131599 
-110.644 224.177 1241.41 -0.459279 0.888291 0.00131599 
-111.559 223.703 2043.48 -0.459279 0.888291 0.00131599 
-116.578 221.108 1803.34 -0.459279 0.888291 0.00131599 
-113.391 222.756 1890.59 -0.459279 0.888291 0.00131599 
-116.749 221.02 2097.84 -0.459279 0.888291 0.00131599 
-114.238 222.318 1959.33 -0.459279 0.888291 0.00131599 
-116.62 221.086 1812.67 -0.459279 0.888291 0.00131599 
-117.901 220.424 1267.72 -0.459279 0.888291 0.00131599 
-125.722 216.045 1164.28 -0.493986 0.869469 0.0013315 
-119.426 219.625 2037.29 -0.493986 0.869469 0.0013315 
-121.269 218.577 1059.05 -0.493986 0.869469 0.0013315 
-120.931 218.769 1490.52 -0.493986 0.869469 0.0013315 
-121.023 218.717 1578.54 -0.493986 0.869469 0.0013315 
-121.134 218.654 1796.03 -0.493986 0.869469 0.0013315 
-123.592 217.256 1016.14 -0.493986 0.869469 0.0013315 
-121.998 218.163 1751.88 -0.493986 0.869469 0.0013315 
-122.821 217.695 1858.73 -0.493986 0.869469 0.0013315 
-124.349 216.826 1864.28 -0.493986 0.869469 0.0013315 
-122.705 217.761 1999.34 -0.493986 0.869469 0.0013315 
-123.03 217.576 1974.74 -0.493986 0.869469 0.0013315 
-125.332 216.267 2092.1 -0.493986 0.869469 0.0013315 
-131.8 212.377 1346.32 -0.528668 0.848828 0.00134521 
-129.002 214.119 1068.92 -0.528668 0.848828 0.00134521 
-131.931 212.296 1185.51 -0.528668 0.848828 0.00134521 
-136.002 209.762 1033.19 -0.528668 0.848828 0.00134521 
-128.844 214.217 1294.22 -0.528668 0.848828 0.00134521 
-133.086 211.577 1157.55 -0.528668 0.848828 0.00134521 
-130.099 213.436 1587.06 -0.528668 0.848828 0.00134521 
-134.368 210.779 2050.81 -0.528668 0.848828 0.00134521 
-131.826 212.361 1666.53 -0.528668 0.848828 0.00134521 
-133.578 211.271 2065.28 -0.528668 0.848828 0.00134521 
-133.371 211.399 1384.3 -0.528668 0.848828 0.00134521 
-131.558 212.528 1917.85 -0.528668 0.848828 0.00134521 
-130.939 212.913 1711.17 -0.528668 0.848828 0.00134521 
-134.408 210.754 1496.35 -0.528668 0.848828 0.00134521 
-137.87 208.511 1152.41 -0.563126 0.82637 0.00135693 
-141.563 206.003 1355.49 -0.563126 0.82637 0.00135693 
-139.476 207.42 1304.91 -0.563126 0.82637 0.00135693 
-136.441 209.481 1207.65 -0.563126 0.82637 0.00135693 
-142.128 205.619 1304.34 -0.563126 0.82637 0.00135693 
-140.573 206.675 1261.7 -0.563126 0.82637 0.00135693 
-140.091 207.002 1603.79 -0.563126 0.82637 0.00135693 
-142.006 205.702 1873.69 -0.563126 0.82637 0.00135693 
-144.154 204.244 1169.62 -0.563126 0.82637 0.00135693 
-142.829 205.143 1806.36 -0.563126 0.82637 0.00135693 
-143.686 204.561 1241.3 -0.563126 0.82637 0.00135693 
-142.049 205.673 1868.17 -0.563126 0.82637 0.00135693 
-142.357 205.463 1340.39 -0.563126 0.82637 0.00135693 
-144.642 203.905 1622.79 -0.594083 0.804402 0.00136571 
-150.855 199.315 1174.34 -0.594083 0.804402 0.00136571 
-146.733 202.36 1659.28 -0.594083 0.804402 0.00136571 
-148.26 201.232 1446.6 -0.594083 0.804402 0.00136571 
-147.252 201.977 1441.73 -0.594083 0.804402 0.00136571 
-148.257 201.234 1129.36 -0.594083 0.804402 0.00136571 
-149.619 200.228 1978.94 -0.594083 0.804402 0.00136571 
-146.716 202.373 1962.15 -0.594083 0.804402 0.00136571 
-151.088 199.143 1367.98 -0.594083 0.804402 0.00136571 
-152.516 198.088 1113.3 -0.594083 0.804402 0.00136571 
-151.006 199.203 1478.16 -0.594083 0.804402 0.00136571 
-149.499 200.317 1733.35 -0.594083 0.804402 0.00136571 
-151.977 198.486 1314.63 -0.594083 0.804402 0.00136571 
-153.839 197.027 1078.55 -0.624527 0.781002 0.00137259 
-153.207 197.534 1189.79 -0.624527 0.781002 0.00137259 
-152.92 197.764 1918.26 -0.624527 0.781002 0.00137259 
-156.94 194.539 1168.54 -0.624527 0.781002 0.00137259 
-153.047 197.662 2008.95 -0.624527 0.781002 0.00137259 
-153.451 197.338 1105.45 -0.624527 0.781002 0.00137259 
-152.524 198.082 1696.76 -0.624527 0.781002 0.00137259 
-156.139 195.182 1740.3 -0.624527 0.781002 0.00137259 
-154.318 196.643 2060.23 -0.624527 0.781002 0.00137259 
-158.239 193.498 1954.29 -0.624527 0.781002 0.00137259 
-154.089 196.826 2048.69 -0.624527 0.781002 0.00137259 
-159.404 192.563 1288.73 -0.624527 0.781002 0.00137259 
-158.446 193.332 1851.67 -0.624527 0.781002 0.00137259 
-156.47 194.916 1742.95 -0.624527 0.781002 0.00137259 
-164.679 188.034 1193.43 -0.657235 0.753685 0.00137785 
-162.505 189.925 1050.52 -0.657235 0.753685 0.00137785 
-163.85 188.755 1370.09 -0.657235 0.753685 0.00137785 
-165.508 187.314 1203.19 -0.657235 0.753685 0.00137785 
-161.493 190.805 1404.1 -0.657235 0.753685 0.00137785 
-161.024 191.213 1779.46 -0.657235 0.753685 0.00137785 
-160.789 191.418 1923.43 -0.657235 0.753685 0.00137785 
-167.65 185.45 1953.33 -0.657235 0.753685 0.00137785 
-166.27 186.65 1604.77 -0.657235 0.753685 0.00137785 
-164.861 187.876 1473.12 -0.657235 0.753685 0.00137785 
-165.222 187.562 1943.16 -0.657235 0.753685 0.00137785 
-166.255 186.663 1555.88 -0.657235 0.753685 0.00137785 
-163.659 188.921 2018.37 -0.657235 0.753685 0.00137785 
-162.116 190.263 2093.87 -0.657235 0.753685 0.00137785 
-172.567 180.827 1010.32 -0.686096 0.72751 0.00138047 
-171.378 181.947 1115.63 -0.686096 0.72751 0.00138047 
-171.573 181.764 1340.11 -0.686096 0.72751 0.00138047 
-171.331 181.991 1064.23 -0.686096 0.72751 0.00138047 
-168.519 184.64 1955.25 -0.686096 0.72751 0.00138047 
-170.279 182.982 1044.78 -0.686096 0.72751 0.00138047 
-168.008 185.122 1882.34 -0.686096 0.72751 0.00138047 
-172.994 180.425 1559.77 -0.686096 0.72751 0.00138047 
-170.081 183.169 1790.54 -0.686096 0.72751 0.00138047 
-173.271 180.164 1299.6 -0.686096 0.72751 0.00138047 
-169.338 183.869 1957.08 -0.686096 0.72751 0.00138047 
-172.843 180.567 1408.34 -0.686096 0.72751 0.00138047 
-172.952 180.464 1373.83 -0.686096 0.72751 0.00138047 
-174.236 179.255 1881.45 -0.686096 0.72751 0.00138047 
-176.717 176.785 1352.65 -0.713977 0.700167 0.001381 
-175.223 178.309 1323.09 -0.713977 0.700167 0.001381 
-179.042 174.413 1355.15 -0.713977 0.700167 0.001381 
-175.753 177.768 1528.03 -0.713977 0.700167 0.001381 
-175.794 177.726 1783 -0.713977 0.700167 0.001381 
-176.788 176.712 1159.2 -0.713977 0.700167 0.001381 
-176.178 177.334 1466.38 -0.713977 0.700167 0.001381 
-180.137 173.296 2061.3 -0.713977 0.700167 0.001381 
-180.045 173.389 1497.88 -0.713977 0.700167 0.001381 
-181.391 172.017 1532.52 -0.713977 0.700167 0.001381 
-181.032 172.383 1974.23 -0.713977 0.700167 0.001381 
-179.06 174.395 1633.68 -0.713977 0.700167 0.001381 
-180.018 173.417 1467.34 -0.713977 0.700167 0.001381 
-177.57 175.915 2065.9 -0.713977 0.700167 0.001381 
-186.167 166.789 2036.42 -0.74075 0.671779 0.00137942 
-184.456 168.68 1911.01 -0.74075 0.671779 0.00137942 
-185.423 167.611 1896.35 -0.74075 0.671779 0.00137942 
-184.516 168.613 1707.98 -0.74075 0.671779 0.00137942 
-188.44 164.278 1980.17 -0.74075 0.671779 0.00137942 
-186.866 166.017 2075.86 -0.74075 0.671779 0.00137942 
-184.012 169.171 1883.83 -0.74075 0.671779 0.00137942 
-185.681 167.327 1422.26 -0.74075 0.671779 0.00137942 
-183.383 169.865 1567.11 -0.74075 0.671779 0.00137942 
-184.226 168.934 1364.61 -0.74075 0.671779 0.00137942 
-182.291 171.072 1938.14 -0.74075 0.671779 0.00137942 
-186.976 165.896 1133.05 -0.74075 0.671779 0.00137942 
-184.432 168.706 1256.54 -0.74075 0.671779 0.00137942 
-182.283 171.08 1924.81 -0.74075 0.671779 0.00137942 
-193.245 158.545 1891.71 -0.7663 0.642481 0.00137576 
-190.965 161.274 1969.33 -0.7663 0.642481 0.00137576 
-193.493 158.248 1814.89 -0.7663 0.642481 0.00137576 
-193.381 158.382 1604.46 -0.7663 0.642481 0.00137576 
-194.833 156.644 1653.62 -0.7663 0.642481 0.00137576 
-190.882 161.374 1871.06 -0.7663 0.642481 0.00137576 
-189.006 163.62 1578.9 -0.7663 0.642481 0.00137576 
-191.895 160.162 1478.17 -0.7663 0.642481 0.00137576 
-193.667 158.04 1196.08 -0.7663 0.642481 0.00137576 
-190.421 161.926 1306.99 -0.7663 0.642481 0.00137576 
-192.553 159.373 1115.44 -0.7663 0.642481 0.00137576 
-192.978 158.865 1042.52 -0.7663 0.642481 0.00137576 
-190.709 161.581 1404.84 -0.7663 0.642481 0.00137576 
-200.865 148.829 1340.78 -0.792878 0.609379 0.00136939 
-199.723 150.312 1474.41 -0.792878 0.609379 0.00136939 
-199.78 150.238 1273.81 -0.792878 0.609379 0.00136939 
-198.138 152.37 2028.02 -0.792878 0.609379 0.00136939 
-195.714 155.518 2037.09 -0.792878 0.609379 0.00136939 
-199.379 150.759 1831.38 -0.792878 0.609379 0.00136939 
-199.774 150.245 1565.14 -0.792878 0.609379 0.00136939 
-197.998 152.551 1109.6 -0.792878 0.609379 0.00136939 
-197.814 152.791 1313.61 -0.792878 0.609379 0.00136939 
-195.134 156.272 1888.8 -0.792878 0.609379 0.00136939 
-199.262 150.91 1019.28 -0.792878 0.609379 0.00136939 
-198.528 151.864 1104.26 -0.792878 0.609379 0.00136939 
-197.33 153.42 1113.62 -0.792878 0.609379 0.00136939 
-197.603 153.064 1603.45 -0.792878 0.609379 0.00136939 
-203.54 145.077 2021.12 -0.815569 0.578659 0.00136155 
-205.617 142.145 1548.54 -0.815569 0.578659 0.00136155 
-206.11 141.449 1800.34 -0.815569 0.578659 0.00136155 
-206.68 140.645 2012.97 -0.815569 0.578659 0.00136155 
-204.512 143.705 1509.5 -0.815569 0.578659 0.00136155 
-206.691 140.63 1745.22 -0.815569 0.578659 0.00136155 
-205.128 142.835 1547.59 -0.815569 0.578659 0.00136155 
-201.343 148.178 1790.28 -0.815569 0.578659 0.00136155 
-202.288 146.843 1790.15 -0.815569 0.578659 0.00136155 
-201.241 148.322 1731.52 -0.815569 0.578659 0.00136155 
-202.092 147.12 1649.06 -0.815569 0.578659 0.00136155 
-201.278 148.269 1234.69 -0.815569 0.578659 0.00136155 
-205.259 142.651 1137.02 -0.815569 0.578659 0.00136155 
-202.087 147.128 1087.95 -0.815569 0.578659 0.00136155 
-210.908 134.163 1518.96 -0.838844 0.54437 0.0013508 
-209.22 136.757 1909.18 -0.838844 0.54437 0.0013508 
-210.259 135.159 1643.01 -0.838844 0.54437 0.0013508 
-208.151 138.401 1978.83 -0.838844 0.54437 0.0013508 
-210.837 134.271 1358.75 -0.838844 0.54437 0.0013508 
-208.341 138.109 1911.83 -0.838844 0.54437 0.0013508 
-211.223 133.678 1448.49 -0.838844 0.54437 0.0013508 
-209.851 135.788 1257.43 -0.838844 0.54437 0.0013508 
-206.909 140.311 1617.18 -0.838844 0.54437 0.0013508 
-210.815 134.304 1021.87 -0.838844 0.54437 0.0013508 
-207.437 139.499 1285.46 -0.838844 0.54437 0.0013508 
-209.92 135.681 1309.71 -0.838844 0.54437 0.0013508 
-207.28 139.741 1966.81 -0.838844 0.54437 0.0013508 
-206.991 140.185 1713.06 -0.838844 0.54437 0.0013508 
-214.828 127.766 1556.57 -0.858436 0.512919 0.00133921 
-217.229 123.732 2008.95 -0.858436 0.512919 0.00133921 
-215.493 126.649 1822.28 -0.858436 0.512919 0.00133921 
-216.617 124.761 1265.11 -0.858436 0.512919 0.00133921 
-217.088 123.969 1552.63 -0.858436 0.512919 0.00133921 
-212.846 131.096 2044.04 -0.858436 0.512919 0.00133921 
-214.15 128.905 1839.25 -0.858436 0.512919 0.00133921 
-213.519 129.966 1702.69 -0.858436 0.512919 0.00133921 
-213.386 130.188 1346.7 -0.858436 0.512919 0.00133921 
-214.345 128.578 1402.52 -0.858436 0.512919 0.00133921 
-212.532 131.624 1686.07 -0.858436 0.512919 0.00133921 
-212.583 131.538 1276.3 -0.858436 0.512919 0.00133921 
-215.048 127.397 1083.04 -0.858436 0.512919 0.00133921 
-212.255 132.09 1010.75 -0.858436 0.512919 0.00133921 
-221.411 116.041 1187.67 -0.878249 0.478202 0.00132466 
-220.701 117.349 1908.08 -0.878249 0.478202 0.00132466 
-221.914 115.112 1500.57 -0.878249 0.478202 0.00132466 
-221.229 116.376 1620.85 -0.878249 0.478202 0.00132466 
-220.007 118.628 1563.69 -0.878249 0.478202 0.00132466 
-220.47 117.774 1719.9 -0.878249 0.478202 0.00132466 
-218.727 120.988 1658.46 -0.878249 0.478202 0.00132466 
-218.524 121.362 1783.5 -0.878249 0.478202 0.00132466 
-220.797 117.172 1174.07 -0.878249 0.478202 0.00132466 
-218.335 121.709 1405.15 -0.878249 0.478202 0.00132466 
-218.248 121.869 1298.35 -0.878249 0.478202 0.00132466 
-218.539 121.335 1815.82 -0.878249 0.478202 0.00132466 
-217.702 122.876 1679.98 -0.878249 0.478202 0.00132466 
-224.793 109.293 1476.72 -0.897798 0.440405 0.00130684 
-224.43 110.029 1524.34 -0.897798 0.440405 0.00130684 
-223.723 111.466 1734.79 -0.897798 0.440405 0.00130684 
-225.53 107.795 1282.97 -0.897798 0.440405 0.00130684 
-225.21 108.445 1613.67 -0.897798 0.440405 0.00130684 
-223.863 111.182 1972.76 -0.897798 0.440405 0.00130684 
-224.433 110.025 1909.44 -0.897798 0.440405 0.00130684 
-222.446 114.061 1428.85 -0.897798 0.440405 0.00130684 
-223.96 110.985 1401.35 -0.897798 0.440405 0.00130684 
-222.945 113.048 1295.85 -0.897798 0.440405 0.00130684 
-222.849 113.243 1604.14 -0.897798 0.440405 0.00130684 
-222.643 113.661 1766.29 -0.897798 0.440405 0.00130684 
-222.77 113.403 1422.6 -0.897798 0.440405 0.00130684 
-227.9 102.659 1939.66 -0.913864 0.406019 0.00128895 
-229.66 98.6925 2090.83 -0.913864 0.406019 0.00128895 
-228.678 100.906 1505.88 -0.913864 0.406019 0.00128895 
-229.707 98.5867 1775.25 -0.913864 0.406019 0.00128895 
-229.381 99.3204 1779.03 -0.913864 0.406019 0.00128895 
-228.855 100.507 1827.92 -0.913864 0.406019 0.00128895 
-228.592 101.098 2094.89 -0.913864 0.406019 0.00128895 
-228.117 102.17 1552.37 -0.913864 0.406019 0.00128895 
-227.36 103.876 1206.97 -0.913864 0.406019 0.00128895 
-227.36 103.877 1254.42 -0.913864 0.406019 0.00128895 
-226.617 105.552 1867.28 -0.913864 0.406019 0.00128895 
-227.688 103.137 1587.48 -0.913864 0.406019 0.00128895 
-228.263 101.84 1288.61 -0.913864 0.406019 0.00128895 
-226.913 104.883 1638.92 -0.913864 0.406019 0.00128895 
-233.836 88.3894 1268.26 -0.929435 0.368984 0.00126799 
-232.55 91.6314 1510.88 -0.929435 0.368984 0.00126799 
-233.366 89.5735 1978.24 -0.929435 0.368984 0.00126799 
-233.039 90.3973 1677.46 -0.929435 0.368984 0.00126799 
-233.813 88.4477 1418.3 -0.929435 0.368984 0.00126799 
-234.096 87.7353 1900.61 -0.929435 0.368984 0.00126799 
-234.027 87.9089 1449.93 -0.929435 0.368984 0.00126799 
-232.783 91.0445 1066.98 -0.929435 0.368984 0.00126799 
-232.262 92.3568 1195.68 -0.929435 0.368984 0.00126799 
-232.313 92.2289 1536.51 -0.929435 0.368984 0.00126799 
-231.566 94.1093 1062.86 -0.929435 0.368984 0.00126799 
-231.626 93.9602 1293.51 -0.929435 0.368984 0.00126799 
-232.947 90.6309 1047.5 -0.929435 0.368984 0.00126799 
-231.312 94.7507 1566.32 -0.929435 0.368984 0.00126799 
-236.43 81.1145 2093.16 -0.943059 0.332624 0.00124578 
-237.446 78.2237 1875.8 -0.943059 0.332624 0.00124578 
-235.496 83.773 1684.92 -0.943059 0.332624 0.00124578 
-237.112 79.1763 1327.55 -0.943059 0.332624 0.00124578 
-237.396 78.3677 1345.83 -0.943059 0.332624 0.00124578 
-236.472 80.9947 1395.59 -0.943059 0.332624 0.00124578 
-236.552 80.768 1528.9 -0.943059 0.332624 0.00124578 
-234.315 87.1309 1720.06 -0.943059 0.332624 0.00124578 
-235.469 83.8482 1354.77 -0.943059 0.332624 0.00124578 
-236.586 80.6701 1253.34 -0.943059 0.332624 0.00124578 
-235.296 84.3413 1571.14 -0.943059 0.332624 0.00124578 
-236.819 80.0074 1119.97 -0.943059 0.332624 0.00124578 
-235.805 82.8926 1146.39 -0.943059 0.332624 0.00124578 
-236.393 81.2212 1188.02 -0.943059 0.332624 0.00124578 
-238.985 73.2226 1072.98 -0.955752 0.294171 0.00122063 
-238.168 75.8805 1531.98 -0.955752 0.294171 0.00122063 
-237.706 77.3827 1570.12 -0.955752 0.294171 0.00122063 
-239.994 69.9404 1100.05 -0.955752 0.294171 0.00122063 
-237.617 77.6726 1338.73 -0.955752 0.294171 0.00122063 
-239.522 71.4754 1036.12 -0.955752 0.294171 0.00122063 
-239.625 71.1405 1249.85 -0.955752 0.294171 0.00122063 
-239.638 71.0987 1303.77 -0.955752 0.294171 0.00122063 
-239.433 71.7652 1841.29 -0.955752 0.294171 0.00122063 
-238.712 74.1116 1928.78 -0.955752 0.294171 0.00122063 
-240.121 69.5286 1912.73 -0.955752 0.294171 0.00122063 
-238.742 74.0134 1776.18 -0.955752 0.294171 0.00122063 
-240.162 69.3952 1943.72 -0.955752 0.294171 0.00122063 
-239.691 70.9266 1650.72 -0.955752 0.294171 0.00122063 
-241.668 63.8112 1287.95 -0.966452 0.256844 0.00119463 
-240.748 67.2924 1613.38 -0.966452 0.256844 0.00119463 
-240.708 67.4436 1642.72 -0.966452 0.256844 0.00119463 
-241.007 66.3126 1101.52 -0.966452 0.256844 0.00119463 
-240.886 66.7692 1470.77 -0.966452 0.256844 0.00119463 
-240.877 66.8033 1198.31 -0.966452 0.256844 0.00119463 
-241.148 65.7794 1762.15 -0.966452 0.256844 0.00119463 
-242.22 61.7244 1829.43 -0.966452 0.256844 0.00119463 
-242.222 61.717 1375.9 -0.966452 0.256844 0.00119463 
-242.896 59.1656 1747.26 -0.966452 0.256844 0.00119463 
-241.328 65.0974 1884.52 -0.966452 0.256844 0.00119463 
-242.233 61.6747 1546.65 -0.966452 0.256844 0.00119463 
-242.203 61.786 1671.81 -0.966452 0.256844 0.00119463 
-242.15 61.9871 2013.59 -0.966452 0.256844 0.00119463 
-244.203 53.3018 1108.29 -0.975939 0.218041 0.001166 
-242.953 58.9255 1041.59 -0.975939 0.218041 0.001166 
-243.264 57.5264 1680.32 -0.975939 0.218041 0.001166 
-243.045 58.5104 1911.68 -0.975939 0.218041 0.001166 
-243.328 57.2363 1056.98 -0.975939 0.218041 0.001166 
-243.529 56.3352 1019.04 -0.975939 0.218041 0.001166 
