ply
format ascii 1.0
element vertex 1759
property float x
property float y
property float z
end_header
0.653851 -0.0970037 1.24171
0.653831 -0.0973427 1.24168
0.65318 -0.100043 1.24168
0.653245 -0.100384 1.2416
0.653197 -0.100722 1.24158
0.653236 -0.101062 1.24151
0.6533 -0.101402 1.24144
0.653323 -0.101741 1.24138
0.653269 -0.102079 1.24137
0.65328 -0.102417 1.24132
0.653297 -0.102756 1.24126
0.653264 -0.103094 1.24124
0.653194 -0.103432 1.24123
0.653082 -0.10377 1.24125
0.65294 -0.104109 1.24128
0.652806 -0.104448 1.24131
0.652704 -0.104787 1.24132
0.652541 -0.105128 1.24136
0.652332 -0.105469 1.24143
0.652122 -0.105811 1.2415
0.651895 -0.106153 1.24157
0.651669 -0.106497 1.24165
0.651358 -0.106842 1.24177
0.65098 -0.107191 1.24193
0.650552 -0.107541 1.24211
0.650182 -0.107892 1.24226
0.649927 -0.108241 1.24235
0.65934 -0.0788808 1.24151
0.659427 -0.0792306 1.24141
0.659568 -0.0795873 1.24129
0.659706 -0.0799428 1.24117
0.6599 -0.0803052 1.24102
0.660017 -0.0806564 1.24091
0.660095 -0.0810021 1.24083
0.660118 -0.0813402 1.24077
0.660153 -0.0816797 1.24071
0.660152 -0.0820144 1.24066
0.660152 -0.0823491 1.24062
0.660171 -0.0826859 1.24057
0.660247 -0.0830292 1.24048
0.660309 -0.0833705 1.2404
0.660371 -0.0837113 1.24033
0.660446 -0.0840532 1.24024
0.66052 -0.0843946 1.24016
0.660578 -0.0847337 1.24008
0.660598 -0.0850685 1.24003
0.660645 -0.0854059 1.23996
0.656404 -0.0873445 1.24198
0.656509 -0.0876932 1.24188
0.656638 -0.0880434 1.24177
0.656749 -0.0883915 1.24166
0.656659 -0.0887223 1.24167
0.65652 -0.0890494 1.2417
0.656279 -0.0893688 1.24179
0.655835 -0.0896733 1.24199
0.655396 -0.0899798 1.24218
0.655065 -0.0902957 1.24232
0.654699 -0.0906103 1.24248
0.654364 -0.0909282 1.24261
0.654191 -0.0912582 1.24266
0.654033 -0.0915898 1.24271
0.653853 -0.0919203 1.24276
0.653699 -0.0922531 1.2428
0.653598 -0.0925894 1.24281
0.653516 -0.092927 1.24281
0.653379 -0.0932618 1.24284
0.653343 -0.0936024 1.24281
0.653323 -0.0939438 1.24278
0.653326 -0.0942863 1.24274
0.653271 -0.0946258 1.24272
0.653228 -0.0949659 1.2427
0.653162 -0.0953051 1.24269
0.653181 -0.0956479 1.24264
0.653196 -0.0959903 1.24258
0.653252 -0.0963342 1.24251
0.653408 -0.0966813 1.24238
0.65349 -0.0970251 1.24229
0.653497 -0.097366 1.24224
0.653583 -0.0977092 1.24215
0.651936 -0.100058 1.24273
0.652118 -0.100403 1.24259
0.652302 -0.100748 1.24245
0.652465 -0.101091 1.24232
0.652656 -0.101433 1.24217
0.65281 -0.101775 1.24204
0.652896 -0.102115 1.24195
0.65299 -0.102455 1.24186
0.6531 -0.102795 1.24175
0.653107 -0.103134 1.24171
0.653039 -0.103472 1.2417
0.652911 -0.103812 1.24172
0.652767 -0.104151 1.24176
0.652649 -0.104491 1.24178
0.652553 -0.104831 1.24178
0.65243 -0.105171 1.2418
0.652243 -0.105512 1.24186
0.652049 -0.105854 1.24192
0.651819 -0.106198 1.242
0.651573 -0.106542 1.24209
0.651284 -0.106888 1.2422
0.650924 -0.107236 1.24235
0.650496 -0.107588 1.24253
0.650106 -0.107939 1.24269
0.649827 -0.108289 1.2428
0.65946 -0.0789126 1.24182
0.659553 -0.0792632 1.24173
0.659669 -0.0796165 1.24162
0.659769 -0.0799671 1.24152
0.659914 -0.0803231 1.24139
0.660011 -0.0806721 1.2413
0.660072 -0.0810159 1.24122
0.660094 -0.0813542 1.24116
0.660129 -0.0816941 1.2411
0.660128 -0.0820292 1.24106
0.66013 -0.0823645 1.24101
0.660151 -0.0827019 1.24096
0.660226 -0.0830455 1.24087
0.660288 -0.0833871 1.24079
0.660369 -0.0837305 1.24071
0.660446 -0.0840729 1.24062
0.660521 -0.0844148 1.24054
0.660577 -0.084754 1.24046
0.660605 -0.08509 1.2404
0.660637 -0.0854261 1.24034
0.656546 -0.0883992 1.24216
0.656342 -0.0887213 1.24223
0.656151 -0.0890451 1.24229
0.65586 -0.0893617 1.2424
0.655457 -0.0896706 1.24258
0.655094 -0.0899839 1.24273
0.65479 -0.0903027 1.24286
0.654449 -0.09062 1.243
0.654151 -0.0909414 1.24312
0.654017 -0.0912748 1.24315
0.653843 -0.091606 1.2432
0.653682 -0.0919385 1.24324
0.653585 -0.0922754 1.24325
0.653528 -0.0926149 1.24324
0.653488 -0.0929555 1.24321
0.653394 -0.0932931 1.24322
0.653372 -0.0936347 1.24319
0.653313 -0.0939744 1.24318
0.653276 -0.0943152 1.24315
0.653162 -0.0946523 1.24317
0.653077 -0.0949911 1.24317
0.65297 -0.095329 1.24318
0.652946 -0.0956707 1.24315
0.652898 -0.0960114 1.24313
0.652871 -0.096353 1.24311
0.652973 -0.0966991 1.24301
0.653039 -0.0970436 1.24292
0.651879 -0.0997515 1.2432
0.651951 -0.100096 1.24311
0.652046 -0.10044 1.24302
0.652171 -0.100784 1.24291
0.652283 -0.101127 1.2428
0.652425 -0.10147 1.24268
0.652524 -0.101812 1.24258
0.652613 -0.102153 1.24249
0.652728 -0.102494 1.24238
0.652843 -0.102834 1.24228
0.652871 -0.103174 1.24222
0.652828 -0.103513 1.2422
0.652737 -0.103853 1.2422
0.652611 -0.104193 1.24223
0.652531 -0.104533 1.24223
0.652454 -0.104873 1.24222
0.652337 -0.105214 1.24224
0.652169 -0.105556 1.24229
0.651993 -0.105898 1.24234
0.651763 -0.106242 1.24242
0.651519 -0.106587 1.2425
0.651248 -0.106933 1.2426
0.650888 -0.107282 1.24275
0.650439 -0.107634 1.24295
0.650026 -0.107987 1.24313
0.649721 -0.108338 1.24325
0.659701 -0.079299 1.24203
0.659765 -0.0796452 1.24195
0.659826 -0.0799907 1.24187
0.659941 -0.0803428 1.24176
0.660005 -0.0806878 1.24168
0.660029 -0.0810272 1.24162
0.660033 -0.0813636 1.24158
0.660068 -0.0817039 1.24151
0.660069 -0.0820397 1.24147
0.660074 -0.0823758 1.24142
0.660113 -0.0827159 1.24136
0.660206 -0.0830619 1.24126
0.660269 -0.083404 1.24118
0.660352 -0.083748 1.24109
0.660431 -0.084091 1.24101
0.660506 -0.0844332 1.24092
0.660545 -0.084771 1.24086
0.660568 -0.0851068 1.2408
0.655799 -0.0887018 1.24291
0.655634 -0.0890291 1.24296
0.65538 -0.08935 1.24305
0.655083 -0.0896683 1.24317
0.654848 -0.0899923 1.24326
0.654632 -0.0903184 1.24333
0.654337 -0.0906397 1.24345
0.654083 -0.0909647 1.24354
0.65397 -0.0913 1.24356
0.653785 -0.0916309 1.24362
0.653646 -0.0919653 1.24365
0.653588 -0.092305 1.24364
0.65355 -0.092646 1.24361
0.653528 -0.0929879 1.24358
0.653471 -0.0933278 1.24357
0.653428 -0.0936685 1.24355
0.653348 -0.0940073 1.24355
0.653285 -0.0943472 1.24354
0.653127 -0.0946825 1.24358
0.653001 -0.0950198 1.2436
0.652868 -0.0953571 1.24363
0.652783 -0.0956968 1.24363
0.652629 -0.0960338 1.24367
0.652485 -0.0963717 1.24371
0.652475 -0.0967149 1.24367
0.652474 -0.0970584 1.24362
0.651931 -0.0997898 1.24356
0.651976 -0.100134 1.24349
0.652018 -0.100477 1.24342
0.652074 -0.10082 1.24335
0.652142 -0.101164 1.24327
0.652221 -0.101506 1.24318
0.652261 -0.101848 1.24311
0.652349 -0.102191 1.24302
0.652462 -0.102532 1.24292
0.652578 -0.102873 1.24281
0.652628 -0.103214 1.24274
0.652627 -0.103554 1.24269
0.652559 -0.103895 1.24269
0.652452 -0.104235 1.2427
0.652409 -0.104576 1.24268
0.652336 -0.104916 1.24267
0.65224 -0.105258 1.24268
0.652092 -0.1056 1.24272
0.651939 -0.105942 1.24276
0.651729 -0.106286 1.24282
0.651505 -0.106631 1.2429
0.651237 -0.106977 1.243
0.650876 -0.107327 1.24315
0.650426 -0.107679 1.24335
0.649988 -0.108033 1.24354
0.649658 -0.108386 1.24367
0.659854 -0.0796729 1.24228
0.659883 -0.0800141 1.24222
0.659969 -0.0803628 1.24213
0.660036 -0.0807083 1.24204
0.660044 -0.0810459 1.242
0.660065 -0.0813849 1.24194
0.660116 -0.0817274 1.24187
0.660117 -0.0820635 1.24182
0.660105 -0.0823978 1.24179
0.660145 -0.0827381 1.24172
0.66022 -0.0830824 1.24163
0.660283 -0.0834247 1.24156
0.660366 -0.0837691 1.24147
0.660447 -0.0841126 1.24138
0.660524 -0.0844552 1.24129
0.660554 -0.0847924 1.24123
0.660558 -0.0851265 1.24118
0.654773 -0.0886426 1.24387
0.654885 -0.0889946 1.24376
0.654829 -0.0893329 1.24375
0.654664 -0.0896627 1.24379
0.654577 -0.089999 1.2438
0.654467 -0.0903338 1.24381
0.654275 -0.0906629 1.24387
0.654098 -0.0909938 1.24393
0.654047 -0.0913336 1.24391
0.653905 -0.0916675 1.24394
0.653806 -0.0920045 1.24395
0.653747 -0.0923442 1.24394
0.65369 -0.0926842 1.24393
0.653649 -0.093025 1.24391
0.653569 -0.0933638 1.24391
0.653489 -0.0937027 1.2439
0.653384 -0.0940404 1.24392
0.653281 -0.0943785 1.24393
0.653095 -0.0947129 1.24399
0.652945 -0.0950495 1.24402
0.652773 -0.0953856 1.24407
0.652624 -0.0957231 1.24411
0.652362 -0.0960566 1.24421
0.652157 -0.096393 1.24428
0.651995 -0.0967316 1.24432
0.651807 -0.0970699 1.24438
0.651902 -0.0998264 1.24397
0.651945 -0.100171 1.2439
0.651964 -0.100514 1.24384
0.651961 -0.100857 1.2438
0.652026 -0.101201 1.24372
0.652064 -0.101544 1.24366
0.652065 -0.101886 1.24361
0.652128 -0.102229 1.24353
0.652216 -0.102571 1.24344
0.652327 -0.102913 1.24333
0.652397 -0.103254 1.24325
0.652421 -0.103595 1.24319
0.65238 -0.103936 1.24317
0.652316 -0.104277 1.24316
0.652276 -0.104618 1.24314
0.652221 -0.10496 1.24313
0.652144 -0.105301 1.24312
0.652039 -0.105643 1.24313
0.651907 -0.105986 1.24316
0.651722 -0.10633 1.24322
0.651499 -0.106675 1.24329
0.651231 -0.107022 1.24339
0.650868 -0.107371 1.24355
0.650416 -0.107725 1.24374
0.649978 -0.108079 1.24394
0.649629 -0.108433 1.24408
0.658374 -0.0798265 1.24345
0.660187 -0.080408 1.24238
0.660223 -0.0807493 1.24232
0.660191 -0.0810817 1.24229
0.660176 -0.0814163 1.24226
0.66019 -0.0817543 1.24221
0.660191 -0.0820905 1.24216
0.660162 -0.0824229 1.24214
0.6602 -0.0827633 1.24207
0.660254 -0.0831053 1.242
0.660297 -0.0834456 1.24193
0.660363 -0.0837882 1.24185
0.66046 -0.084134 1.24175
0.660522 -0.0844752 1.24167
0.660532 -0.0848106 1.24162
0.660537 -0.0851452 1.24158
0.653938 -0.0885996 1.24472
0.654185 -0.0889643 1.24454
0.65435 -0.0893216 1.2444
0.654335 -0.0896643 1.24437
0.654375 -0.0900109 1.2443
0.654346 -0.0903523 1.24427
0.654231 -0.0906876 1.24429
0.654117 -0.0910232 1.24431
0.654108 -0.0913661 1.24427
0.654007 -0.0917029 1.24428
0.653946 -0.0920425 1.24427
0.653907 -0.0923835 1.24424
0.653828 -0.0927222 1.24424
0.653768 -0.0930621 1.24423
0.653686 -0.0934008 1.24423
0.653583 -0.0937386 1.24424
0.653459 -0.0940756 1.24427
0.653332 -0.0944127 1.24429
0.653127 -0.0947465 1.24436
0.652953 -0.0950823 1.24441
0.652743 -0.095417 1.24448
0.652497 -0.0957509 1.24457
0.652128 -0.0960807 1.24473
0.651854 -0.0964154 1.24484
0.651606 -0.0967518 1.24493
0.651325 -0.097088 1.24504
0.651881 -0.100207 1.24433
0.651888 -0.100551 1.24428
0.651865 -0.100894 1.24424
0.651893 -0.101238 1.24419
0.65195 -0.101582 1.24411
0.651949 -0.101925 1.24406
0.651991 -0.102268 1.244
0.652056 -0.10261 1.24392
0.652143 -0.102953 1.24382
0.652212 -0.103295 1.24374
0.652259 -0.103637 1.24367
0.652261 -0.103978 1.24363
0.652241 -0.104319 1.24359
0.652241 -0.104661 1.24355
0.652187 -0.105002 1.24353
0.65213 -0.105344 1.24352
0.652028 -0.105686 1.24353
0.6519 -0.106029 1.24356
0.651734 -0.106373 1.2436
0.651512 -0.106719 1.24368
0.651222 -0.107066 1.24379
0.65086 -0.107417 1.24394
0.650424 -0.10777 1.24413
0.649992 -0.108125 1.24432
0.649647 -0.108478 1.24446
0.658933 -0.080597 1.24343
0.66041 -0.0811269 1.24255
0.660372 -0.0814583 1.24253
0.658844 -0.0816036 1.24335
0.660543 -0.0844977 1.24204
0.660576 -0.0848358 1.24198
0.660618 -0.0851746 1.24191
0.653232 -0.0882206 1.24555
0.653442 -0.0885847 1.24539
0.653719 -0.0889531 1.24519
0.653958 -0.0893174 1.24501
0.654065 -0.0896705 1.24491
0.654224 -0.0900268 1.24477
0.654256 -0.0903733 1.24471
0.654199 -0.0907132 1.2447
0.654145 -0.0910533 1.24468
0.654166 -0.0913985 1.24463
0.654087 -0.091737 1.24463
0.654046 -0.092078 1.2446
0.654003 -0.0924189 1.24458
0.653906 -0.0927567 1.24459
0.653826 -0.0930956 1.24459
0.653721 -0.0934334 1.2446
0.653597 -0.0937703 1.24463
0.653452 -0.0941065 1.24466
0.653309 -0.0944432 1.2447
0.653104 -0.0947774 1.24477
0.652931 -0.0951137 1.24482
0.65272 -0.0954488 1.24489
0.652471 -0.095783 1.24498
0.652115 -0.0961138 1.24513
0.65183 -0.0964485 1.24524
0.651558 -0.0967845 1.24535
0.651754 -0.100243 1.24479
0.651759 -0.100587 1.24474
0.651722 -0.100931 1.24472
0.651716 -0.101275 1.24467
0.651793 -0.101619 1.24459
0.651797 -0.101963 1.24454
0.651842 -0.102307 1.24447
0.651926 -0.10265 1.24438
0.65201 -0.102993 1.24429
0.652076 -0.103335 1.24421
0.652164 -0.103678 1.24411
0.652211 -0.104019 1.24404
0.652235 -0.104361 1.24399
0.652255 -0.104702 1.24393
0.652237 -0.105044 1.2439
0.65218 -0.105386 1.24388
0.65208 -0.105728 1.24389
0.651953 -0.106072 1.24392
0.651806 -0.106416 1.24395
0.65158 -0.106761 1.24403
0.651268 -0.10711 1.24416
0.650903 -0.10746 1.24431
0.65049 -0.107814 1.24449
0.650084 -0.108168 1.24467
0.649745 -0.108522 1.24481
0.648052 -0.108871 1.24528
0.648265 -0.108912 1.24556
0.65313 -0.0878649 1.24566
0.652967 -0.0878762 1.24614
0.65306 -0.0882318 1.24605
0.653253 -0.0885951 1.24589
0.653505 -0.0889622 1.24571
0.653772 -0.0893294 1.24551
0.653926 -0.0896868 1.24538
0.654109 -0.0900455 1.24523
0.65418 -0.0903953 1.24515
0.654159 -0.0907382 1.24511
0.65413 -0.0910805 1.24508
0.654176 -0.0914277 1.24501
0.654123 -0.0917682 1.245
0.654099 -0.0921106 1.24497
0.654054 -0.0924517 1.24495
0.653939 -0.0927886 1.24496
0.653838 -0.0931266 1.24498
0.653748 -0.0934655 1.24498
0.653601 -0.0938016 1.24502
0.65344 -0.0941373 1.24506
0.653299 -0.0944745 1.2451
0.653094 -0.0948091 1.24516
0.652903 -0.0951449 1.24522
0.652712 -0.0954814 1.24529
0.652446 -0.0958152 1.24539
0.652063 -0.0961454 1.24556
0.651819 -0.0964821 1.24565
0.651547 -0.0968186 1.24575
0.651498 -0.100621 1.24528
0.651474 -0.100966 1.24525
0.651447 -0.101311 1.24522
0.651567 -0.101656 1.24511
0.651616 -0.102001 1.24503
0.651749 -0.102346 1.24492
0.651878 -0.10269 1.2448
0.652003 -0.103033 1.24469
0.652069 -0.103376 1.2446
0.652154 -0.103719 1.24451
0.652185 -0.104061 1.24445
0.652213 -0.104403 1.24439
0.652254 -0.104744 1.24432
0.652255 -0.105086 1.24428
0.652219 -0.105428 1.24425
0.652137 -0.105771 1.24425
0.652029 -0.106114 1.24427
0.651858 -0.106458 1.24432
0.651611 -0.106805 1.24441
0.651278 -0.107154 1.24454
0.650912 -0.107505 1.2447
0.6505 -0.107859 1.24488
0.650115 -0.108213 1.24504
0.6498 -0.108566 1.24517
0.649567 -0.108918 1.24525
0.652863 -0.0875441 1.24664
0.652926 -0.0878981 1.24656
0.652998 -0.0882523 1.24648
0.653166 -0.088614 1.24634
0.653388 -0.0889792 1.24617
0.653653 -0.0893467 1.24597
0.653807 -0.0897046 1.24584
0.653996 -0.0900644 1.24569
0.654068 -0.0904149 1.2456
0.654067 -0.0907597 1.24556
0.654057 -0.0911038 1.24552
0.654126 -0.091453 1.24543
0.654095 -0.0917954 1.24541
0.654087 -0.0921392 1.24537
0.654041 -0.0924805 1.24535
0.653906 -0.0928167 1.24538
0.653786 -0.0931541 1.2454
0.653678 -0.0934924 1.24541
0.653545 -0.0938297 1.24544
0.653385 -0.0941659 1.24549
0.653245 -0.0945037 1.24552
0.65306 -0.0948397 1.24558
0.652906 -0.0951776 1.24562
0.652696 -0.0955136 1.24569
0.652451 -0.0958488 1.24578
0.652139 -0.0961822 1.24591
0.651983 -0.0965224 1.24595
0.651278 -0.100656 1.2458
0.651241 -0.101002 1.24577
0.651201 -0.101347 1.24575
0.651307 -0.101693 1.24564
0.651424 -0.102039 1.24553
0.651647 -0.102385 1.24537
0.651849 -0.10273 1.24521
0.65204 -0.103074 1.24506
0.652145 -0.103417 1.24496
0.652228 -0.10376 1.24486
0.652256 -0.104102 1.2448
0.652283 -0.104444 1.24474
0.652307 -0.104786 1.24469
0.652311 -0.105128 1.24464
0.652275 -0.10547 1.24461
0.652193 -0.105813 1.24461
0.652067 -0.106157 1.24464
0.651895 -0.106502 1.24469
0.651625 -0.106849 1.24479
0.651272 -0.107199 1.24494
0.650884 -0.107551 1.24511
0.65049 -0.107904 1.24528
0.650126 -0.108259 1.24543
0.649812 -0.108612 1.24556
0.6496 -0.108964 1.24563
0.648152 -0.10931 1.24598
0.649385 -0.109316 1.2457
0.652603 -0.0871969 1.24724
0.652715 -0.0875562 1.24713
0.652844 -0.0879164 1.24701
0.652935 -0.0882728 1.24691
0.653099 -0.0886346 1.24677
0.653286 -0.0889974 1.24662
0.653546 -0.0893651 1.24643
0.653697 -0.0897233 1.2463
0.653888 -0.0900837 1.24614
0.653998 -0.0904374 1.24604
0.654054 -0.0907868 1.24596
0.654065 -0.0911327 1.24591
0.654134 -0.0914822 1.24582
0.6541 -0.0918247 1.2458
0.654072 -0.0921676 1.24577
0.653987 -0.092507 1.24577
0.653853 -0.0928437 1.2458
0.653694 -0.0931793 1.24584
0.653563 -0.093517 1.24587
0.653433 -0.093855 1.2459
0.653272 -0.0941918 1.24594
0.653132 -0.0945301 1.24598
0.652984 -0.0948684 1.24601
0.652867 -0.0952085 1.24603
0.652699 -0.0955468 1.24608
0.652537 -0.0958857 1.24613
0.652319 -0.096223 1.2462
0.652223 -0.0965655 1.24621
0.652024 -0.0969045 1.24628
0.65103 -0.100691 1.24633
0.65099 -0.101037 1.24631
0.650967 -0.101384 1.24627
0.651096 -0.101731 1.24616
0.651234 -0.102078 1.24603
0.651546 -0.102425 1.24582
0.651818 -0.10277 1.24562
0.652056 -0.103115 1.24544
0.652184 -0.103458 1.24533
0.652285 -0.103801 1.24523
0.652308 -0.104143 1.24517
0.652332 -0.104486 1.24511
0.652374 -0.104828 1.24504
0.652378 -0.10517 1.24499
0.652324 -0.105512 1.24498
0.652226 -0.105856 1.24499
0.652096 -0.1062 1.24501
0.651926 -0.106545 1.24506
0.651639 -0.106893 1.24518
0.651281 -0.107244 1.24533
0.65089 -0.107596 1.2455
0.650475 -0.107951 1.24568
0.650092 -0.108306 1.24585
0.649757 -0.10866 1.24599
0.649545 -0.109013 1.24606
0.649314 -0.109366 1.24614
0.652671 -0.0872279 1.2476
0.652745 -0.087584 1.24751
0.652865 -0.0879437 1.24739
0.652973 -0.0883018 1.24729
0.653119 -0.0886624 1.24716
0.653268 -0.0890225 1.24703
0.6535 -0.0893883 1.24685
0.653626 -0.089745 1.24673
0.653795 -0.0901043 1.24659
0.653911 -0.0904589 1.24648
0.654011 -0.0908118 1.24638
0.654042 -0.0911596 1.24632
0.654109 -0.0915093 1.24623
0.654073 -0.0918521 1.24621
0.654042 -0.0921952 1.24618
0.65392 -0.0925327 1.2462
0.65376 -0.0928684 1.24625
0.653578 -0.0932033 1.2463
0.653444 -0.0935414 1.24633
0.653315 -0.09388 1.24636
0.653177 -0.0942186 1.24639
0.653078 -0.0945594 1.2464
0.652951 -0.0948992 1.24643
0.652858 -0.0952409 1.24644
0.652732 -0.0955813 1.24646
0.652712 -0.0959263 1.24643
0.652583 -0.0962671 1.24645
0.652588 -0.0966132 1.2464
0.650674 -0.101072 1.24688
0.650691 -0.10142 1.24683
0.650838 -0.101768 1.2467
0.651033 -0.102116 1.24654
0.651408 -0.102464 1.24629
0.651725 -0.10281 1.24607
0.652007 -0.103155 1.24586
0.652159 -0.103499 1.24573
0.65228 -0.103842 1.24562
0.652303 -0.104185 1.24556
0.652327 -0.104528 1.24551
0.652347 -0.10487 1.24545
0.652348 -0.105213 1.2454
0.652292 -0.105556 1.24539
0.65221 -0.105899 1.24539
0.652084 -0.106244 1.24541
0.651915 -0.106589 1.24546
0.651625 -0.106938 1.24558
0.651266 -0.107289 1.24573
0.650854 -0.107642 1.24591
0.650418 -0.107998 1.24611
0.650011 -0.108354 1.24629
0.649654 -0.10871 1.24644
0.649421 -0.109064 1.24652
0.649167 -0.109418 1.24662
0.652632 -0.0868989 1.24807
0.652735 -0.0872584 1.24796
0.652804 -0.0876144 1.24787
0.652952 -0.0879767 1.24774
0.653084 -0.0883369 1.24762
0.653215 -0.0886964 1.2475
0.653342 -0.0890549 1.24738
0.653548 -0.0894188 1.24722
0.653663 -0.089775 1.24711
0.653794 -0.0901317 1.24699
0.653918 -0.0904872 1.24687
0.654025 -0.0908409 1.24677
0.654041 -0.0911879 1.24671
0.654087 -0.0915366 1.24664
0.654045 -0.0918795 1.24662
0.653997 -0.0922218 1.2466
0.653854 -0.0925586 1.24663
0.653708 -0.0928956 1.24667
0.653517 -0.0932305 1.24673
0.653403 -0.0935701 1.24675
0.653296 -0.0939104 1.24677
0.6532 -0.0942515 1.24678
0.653106 -0.0945928 1.24678
0.653 -0.0949339 1.2468
0.65293 -0.0952768 1.24679
0.652824 -0.0956183 1.24681
0.652829 -0.0959646 1.24676
0.652742 -0.0963071 1.24676
0.652788 -0.0966547 1.24669
0.65035 -0.101456 1.24742
0.650538 -0.101806 1.24726
0.650797 -0.102155 1.24707
0.651212 -0.102504 1.2468
0.651546 -0.102851 1.24656
0.651885 -0.103196 1.24633
0.652058 -0.10354 1.24619
0.652186 -0.103884 1.24607
0.652216 -0.104227 1.24601
0.652238 -0.10457 1.24595
0.652238 -0.104914 1.2459
0.652218 -0.105257 1.24587
0.65216 -0.105601 1.24586
0.652096 -0.105944 1.24585
0.651968 -0.106289 1.24587
0.651801 -0.106636 1.24592
0.651511 -0.106985 1.24604
0.651172 -0.107336 1.24618
0.650738 -0.107691 1.24637
0.6503 -0.108047 1.24657
0.649871 -0.108404 1.24676
0.649485 -0.108762 1.24693
0.649224 -0.109117 1.24703
0.648986 -0.109472 1.24712
0.652758 -0.0872854 1.24835
0.65284 -0.0876427 1.24825
0.653012 -0.0880073 1.24811
0.653181 -0.0883708 1.24797
0.653311 -0.0887304 1.24785
0.653419 -0.0890875 1.24774
0.653583 -0.0894484 1.2476
0.653673 -0.0898029 1.2475
0.653783 -0.0901584 1.24739
0.65391 -0.0905145 1.24727
0.654019 -0.0908687 1.24717
0.65405 -0.0912171 1.2471
0.654094 -0.091566 1.24703
0.654052 -0.0919091 1.24701
0.653988 -0.0922509 1.247
0.653825 -0.0925868 1.24705
0.653678 -0.0929242 1.24709
0.653483 -0.0932592 1.24715
0.653352 -0.0935984 1.24718
0.653271 -0.0939404 1.24718
0.65322 -0.0942842 1.24716
0.653147 -0.094627 1.24716
0.653081 -0.0949702 1.24715
0.653069 -0.0953158 1.24711
0.652975 -0.0956579 1.24712
0.653042 -0.0960067 1.24703
0.653065 -0.0963534 1.24698
0.653214 -0.0967045 1.24685
0.649991 -0.101143 1.24806
0.65005 -0.101493 1.24798
0.650289 -0.101844 1.2478
0.650606 -0.102194 1.24758
0.651023 -0.102543 1.2473
0.651377 -0.102891 1.24706
0.651736 -0.103237 1.24681
0.651928 -0.103581 1.24666
0.652081 -0.103926 1.24652
0.652133 -0.104269 1.24645
0.652175 -0.104613 1.24638
0.652176 -0.104957 1.24633
0.652136 -0.105301 1.24631
0.652056 -0.105645 1.24631
0.651974 -0.10599 1.24631
0.651811 -0.106336 1.24636
0.65164 -0.106683 1.24641
0.651368 -0.107032 1.24651
0.651048 -0.107384 1.24664
0.65062 -0.107739 1.24684
0.650201 -0.108095 1.24703
0.649765 -0.108454 1.24722
0.649335 -0.108813 1.24742
0.649048 -0.10917 1.24753
0.648827 -0.109525 1.24761
0.652713 -0.0869554 1.24882
0.652848 -0.0873183 1.2487
0.652926 -0.0876755 1.24861
0.653112 -0.0880415 1.24845
0.65328 -0.0884051 1.24831
0.653407 -0.0887645 1.24819
0.65348 -0.089119 1.2481
0.653605 -0.0894771 1.24799
0.653692 -0.0898316 1.24789
0.653798 -0.0901871 1.24778
0.653925 -0.0905435 1.24766
0.654053 -0.0908993 1.24754
0.654082 -0.0912478 1.24748
0.6541 -0.0915953 1.24743
0.654037 -0.0919375 1.24742
0.653954 -0.0922784 1.24742
0.653777 -0.0926139 1.24747
0.65365 -0.0929529 1.2475
0.653477 -0.0932896 1.24755
0.653371 -0.0936305 1.24757
0.653293 -0.093973 1.24756
0.653263 -0.0943182 1.24754
0.65319 -0.0946612 1.24753
0.653124 -0.0950046 1.24752
0.653091 -0.0953496 1.2475
0.653028 -0.0956934 1.24749
0.653121 -0.0960435 1.24739
0.649778 -0.10118 1.24859
0.649849 -0.10153 1.2485
0.650135 -0.101882 1.24829
0.650487 -0.102233 1.24805
0.650894 -0.102583 1.24777
0.651231 -0.102931 1.24754
0.651589 -0.103278 1.24729
0.651744 -0.103623 1.24716
0.651899 -0.103968 1.24702
0.651969 -0.104312 1.24694
0.652033 -0.104656 1.24686
0.652031 -0.105001 1.24681
0.651992 -0.105345 1.24679
0.651894 -0.10569 1.2468
0.65179 -0.106036 1.24681
0.651624 -0.106383 1.24686
0.65145 -0.106731 1.24691
0.651199 -0.107081 1.247
0.650904 -0.107432 1.24712
0.650498 -0.107788 1.2473
0.650083 -0.108145 1.24749
0.649621 -0.108504 1.2477
0.649169 -0.108865 1.24791
0.648859 -0.109223 1.24804
0.648642 -0.109579 1.24811
0.652876 -0.0869949 1.24913
0.65302 -0.0873586 1.249
0.653103 -0.0877162 1.24891
0.65325 -0.0880789 1.24878
0.653436 -0.0884439 1.24862
0.653562 -0.0888034 1.2485
0.653635 -0.0891579 1.24841
0.653743 -0.0895146 1.24831
0.653826 -0.089869 1.24821
0.653911 -0.090223 1.24812
0.653998 -0.0905767 1.24802
0.654089 -0.0909301 1.24792
0.654096 -0.0912773 1.24787
0.654092 -0.0916238 1.24783
0.654009 -0.091965 1.24783
0.653924 -0.0923062 1.24783
0.653766 -0.0926433 1.24788
0.653661 -0.092984 1.24789
0.653515 -0.0933226 1.24793
0.653428 -0.0936647 1.24793
0.653369 -0.0940085 1.24792
0.653336 -0.0943537 1.24789
0.653263 -0.0946969 1.24789
0.653193 -0.0950404 1.24788
0.653141 -0.0953848 1.24787
0.653057 -0.0957279 1.24787
0.653103 -0.0960763 1.2478
0.649655 -0.101218 1.24906
0.649716 -0.101569 1.24898
0.649987 -0.101921 1.24878
0.650327 -0.102273 1.24854
0.650738 -0.102623 1.24826
0.651096 -0.102972 1.24801
0.651473 -0.103319 1.24775
0.651627 -0.103665 1.24762
0.65176 -0.10401 1.2475
0.651813 -0.104355 1.24742
0.651854 -0.1047 1.24735
0.651833 -0.105045 1.24732
0.651776 -0.105391 1.24731
0.651695 -0.105737 1.24731
0.651588 -0.106083 1.24732
0.651417 -0.106431 1.24737
0.651222 -0.10678 1.24744
0.651008 -0.10713 1.24751
0.65072 -0.107482 1.24763
0.650319 -0.107838 1.2478
0.64992 -0.108195 1.24798
0.649479 -0.108555 1.24818
0.649025 -0.108917 1.24839
0.648742 -0.109275 1.2485
0.648588 -0.109629 1.24854
0.652925 -0.087024 1.24951
0.653095 -0.0873902 1.24936
0.653195 -0.0877495 1.24926
0.65339 -0.0881164 1.2491
0.653596 -0.0884832 1.24893
0.653742 -0.0888442 1.2488
0.653815 -0.0891987 1.24871
0.653903 -0.089554 1.24861
0.653965 -0.0899068 1.24853
0.654028 -0.0902592 1.24845
0.654094 -0.0906115 1.24836
0.654165 -0.0909637 1.24828
0.654155 -0.09131 1.24824
0.65413 -0.0916553 1.2482
0.654038 -0.0919962 1.24821
0.653932 -0.0923365 1.24823
0.653795 -0.0926752 1.24826
0.653731 -0.0930184 1.24825
0.653609 -0.0933586 1.24827
0.653504 -0.0937 1.24829
0.65344 -0.0940437 1.24828
0.653381 -0.0943878 1.24827
0.653249 -0.0947285 1.2483
0.65316 -0.0950715 1.2483
0.653087 -0.0954154 1.2483
0.652968 -0.0957575 1.24832
0.652878 -0.0961011 1.24832
0.649659 -0.101257 1.24946
0.649663 -0.101608 1.24941
0.649938 -0.101961 1.24921
0.650277 -0.102313 1.24897
0.650651 -0.102664 1.24871
0.651008 -0.103013 1.24846
0.6514 -0.10336 1.24819
0.651535 -0.103707 1.24807
0.651649 -0.104052 1.24796
0.651695 -0.104398 1.24789
0.651695 -0.104744 1.24784
0.651673 -0.10509 1.24781
0.651594 -0.105436 1.24781
0.651475 -0.105783 1.24783
0.651326 -0.106131 1.24787
0.651147 -0.10648 1.24792
0.650914 -0.106831 1.24801
0.650705 -0.107181 1.24808
0.650454 -0.107533 1.24818
0.650094 -0.107889 1.24833
0.649734 -0.108247 1.24849
0.649353 -0.108606 1.24866
0.648964 -0.108966 1.24883
0.648725 -0.109323 1.24892
0.648616 -0.109676 1.24893
0.653294 -0.0874329 1.24965
0.653418 -0.0877943 1.24953
0.653612 -0.0881609 1.24937
0.65384 -0.0885294 1.24919
0.653989 -0.0888905 1.24906
0.65406 -0.0892447 1.24897
0.654126 -0.0895981 1.24889
0.654146 -0.0899477 1.24883
0.654186 -0.0902985 1.24876
0.654231 -0.0906493 1.24869
0.654283 -0.0910002 1.24861
0.654233 -0.091344 1.24859
0.654186 -0.091688 1.24857
0.654054 -0.0920267 1.2486
0.653946 -0.0923672 1.24862
0.653828 -0.0927073 1.24864
0.653788 -0.0930523 1.24862
0.653689 -0.093394 1.24863
0.653581 -0.0937354 1.24864
0.653491 -0.094078 1.24865
0.653371 -0.0944193 1.24867
0.653212 -0.0947591 1.24872
0.653085 -0.0951008 1.24874
0.652951 -0.0954425 1.24877
0.652721 -0.0957807 1.24886
0.652458 -0.0961182 1.24896
0.649806 -0.101298 1.24978
0.649818 -0.10165 1.24973
0.650057 -0.102002 1.24955
0.650371 -0.102354 1.24932
0.650698 -0.102705 1.24909
0.651012 -0.103054 1.24886
0.651348 -0.103401 1.24863
0.651463 -0.103748 1.24851
0.651554 -0.104095 1.24841
0.651579 -0.104441 1.24835
0.651495 -0.104788 1.24836
0.651425 -0.105135 1.24835
0.65132 -0.105483 1.24836
0.651162 -0.105831 1.24841
0.650975 -0.106181 1.24847
0.650856 -0.10653 1.24849
0.650658 -0.10688 1.24855
0.65051 -0.107231 1.24859
0.650323 -0.107582 1.24865
0.650044 -0.107937 1.24876
0.649726 -0.108293 1.2489
0.649389 -0.108651 1.24904
0.649027 -0.109011 1.2492
0.648816 -0.109368 1.24927
0.648712 -0.109721 1.24928
0.653402 -0.0871166 1.25004
0.653592 -0.0874843 1.24988
0.653721 -0.0878459 1.24976
0.653899 -0.0882109 1.24961
0.654131 -0.0885794 1.24942
0.654262 -0.0889389 1.2493
0.65431 -0.0892911 1.24923
0.654352 -0.0896425 1.24915
0.654352 -0.0899904 1.24911
0.654351 -0.0903382 1.24906
0.654374 -0.0906874 1.249
0.6544 -0.0910367 1.24894
0.654327 -0.091379 1.24894
0.654242 -0.0917208 1.24894
0.654089 -0.0920584 1.24898
0.653961 -0.0923979 1.24901
0.653844 -0.0927385 1.24903
0.653808 -0.093084 1.24901
0.65371 -0.0934261 1.24902
0.653603 -0.0937679 1.24903
0.653488 -0.0941095 1.24905
0.653342 -0.0944499 1.24909
0.653123 -0.0947873 1.24917
0.652952 -0.0951276 1.24922
0.652754 -0.0954671 1.24929
0.652451 -0.095803 1.24942
0.652087 -0.0961375 1.24958
0.649702 -0.101337 1.25025
0.649853 -0.10169 1.25012
0.650143 -0.102043 1.2499
0.650427 -0.102395 1.24969
0.650727 -0.102746 1.24948
0.651017 -0.103095 1.24926
0.651312 -0.103443 1.24905
0.651408 -0.10379 1.24895
0.651476 -0.104137 1.24886
0.651497 -0.104484 1.2488
0.651331 -0.104832 1.24885
0.651196 -0.105181 1.24888
0.65104 -0.10553 1.24892
0.650854 -0.10588 1.24898
0.65063 -0.106231 1.24906
0.650613 -0.106579 1.24903
0.650464 -0.106929 1.24907
0.6504 -0.107279 1.24906
0.650278 -0.107629 1.24908
0.650085 -0.107982 1.24914
0.64982 -0.108337 1.24925
0.64955 -0.108694 1.24935
0.649214 -0.109053 1.2495
0.649021 -0.109409 1.24956
0.648916 -0.109762 1.24957
0.653921 -0.0875384 1.25009
0.654067 -0.0879012 1.24996
0.654229 -0.0882645 1.24981
0.654483 -0.0886345 1.24962
0.654613 -0.0889935 1.2495
0.654659 -0.0893452 1.24942
0.654657 -0.0896929 1.24938
0.654614 -0.0900374 1.24936
0.654572 -0.090382 1.24933
0.654574 -0.0907297 1.24929
0.65456 -0.0910761 1.24925
0.654482 -0.0914182 1.24925
0.654372 -0.0917584 1.24926
0.654197 -0.0920947 1.24932
0.65405 -0.0924333 1.24936
0.653932 -0.092774 1.24938
0.653861 -0.0931176 1.24938
0.653744 -0.093459 1.2494
0.653616 -0.0937999 1.24943
0.65348 -0.0941409 1.24946
0.653294 -0.0944797 1.24952
0.653051 -0.0948164 1.24961
0.652853 -0.095156 1.24968
0.652609 -0.0954941 1.24978
0.652254 -0.0958286 1.24994
0.651882 -0.0961635 1.2501
0.651656 -0.0965052 1.25019
0.649524 -0.101375 1.25076
0.649793 -0.10173 1.25056
0.650122 -0.102083 1.25032
0.650406 -0.102435 1.25011
0.650697 -0.102786 1.2499
0.651002 -0.103136 1.24967
0.651241 -0.103485 1.24949
0.651311 -0.103832 1.2494
0.651373 -0.10418 1.24932
0.651412 -0.104527 1.24925
0.651191 -0.104876 1.24933
0.65105 -0.105225 1.24937
0.650897 -0.105575 1.24941
0.650705 -0.105926 1.24947
0.650505 -0.106277 1.24954
0.65058 -0.106624 1.24945
0.650524 -0.106973 1.24944
0.650531 -0.107321 1.24938
0.650497 -0.10767 1.24936
0.650357 -0.108021 1.24939
0.650142 -0.108375 1.24947
0.649919 -0.10873 1.24955
0.649621 -0.109087 1.24967
0.649423 -0.109443 1.24974
0.649333 -0.109795 1.24974
0.654341 -0.0876005 1.25025
0.65448 -0.0879621 1.25012
0.654642 -0.088325 1.24998
0.654873 -0.0886927 1.24979
0.654982 -0.0890495 1.24968
0.655008 -0.0893992 1.24962
0.654982 -0.0897448 1.24959
0.654897 -0.0900859 1.24959
0.654814 -0.0904273 1.24959
0.654794 -0.0907734 1.24956
0.654739 -0.0911169 1.24954
0.654642 -0.0914577 1.24955
0.654512 -0.0917966 1.24958
0.654319 -0.092132 1.24965
0.654165 -0.0924703 1.24969
0.654025 -0.0928098 1.24973
0.653927 -0.0931521 1.24974
0.653808 -0.0934935 1.24976
0.653677 -0.0938346 1.24979
0.653486 -0.094173 1.24986
0.65328 -0.0945112 1.24993
0.652993 -0.0948463 1.25005
0.652752 -0.0951844 1.25014
0.652465 -0.0955213 1.25026
0.652116 -0.0958567 1.25042
0.651761 -0.096193 1.25058
0.651568 -0.0965365 1.25064
0.651353 -0.0968449 1.25032
0.651331 -0.0968791 1.25074
0.649098 -0.101057 1.25146
0.649336 -0.101413 1.25128
0.649683 -0.101769 1.25103
0.65008 -0.102124 1.25075
0.650412 -0.102476 1.25051
0.650725 -0.102827 1.25029
0.651032 -0.103177 1.25006
0.651249 -0.103526 1.24989
0.651335 -0.103874 1.24979
0.651415 -0.104222 1.2497
0.651514 -0.104569 1.2496
0.651264 -0.104919 1.24969
0.651103 -0.105268 1.24974
0.650942 -0.105618 1.24979
0.650706 -0.10597 1.24987
0.650533 -0.106321 1.24993
0.650723 -0.106666 1.24977
0.650761 -0.107013 1.2497
0.650822 -0.10736 1.24962
0.650883 -0.107706 1.24954
0.650789 -0.108056 1.24955
0.650621 -0.108408 1.2496
0.650444 -0.108761 1.24965
0.650183 -0.109117 1.24975
0.649981 -0.109472 1.24982
0.649886 -0.109823 1.24983
0.655064 -0.0876892 1.25022
0.655143 -0.0880445 1.25013
0.655189 -0.0883967 1.25006
0.655343 -0.0887572 1.24992
0.655411 -0.0891103 1.24983
0.655415 -0.0894578 1.24978
0.655351 -0.0897999 1.24977
0.655243 -0.090139 1.24979
0.655136 -0.0904784 1.24981
0.655094 -0.0908226 1.24978
0.654985 -0.0911622 1.2498
0.654868 -0.0915016 1.24982
0.654696 -0.0918377 1.24988
0.654463 -0.0921705 1.24997
0.65427 -0.0925066 1.25003
0.654107 -0.092845 1.25008
0.653984 -0.0931861 1.25011
0.653859 -0.0935274 1.25013
0.653708 -0.0938678 1.25018
0.653498 -0.0942055 1.25025
0.653268 -0.0945429 1.25034
0.652938 -0.0948764 1.25049
0.652655 -0.0952131 1.2506
0.652351 -0.0955499 1.25074
0.652016 -0.0958865 1.25088
0.6517 -0.0962249 1.25102
0.651545 -0.0965703 1.25106
0.651367 -0.0969154 1.25112
0.64881 -0.100699 1.25168
0.648839 -0.100739 1.25207
0.649113 -0.101097 1.25186
0.649338 -0.101453 1.25168
0.649713 -0.101809 1.25142
0.650106 -0.102164 1.25115
0.650413 -0.102517 1.25092
0.650752 -0.102869 1.25068
0.651083 -0.103219 1.25044
0.651302 -0.103568 1.25026
0.651432 -0.103916 1.25014
0.65155 -0.104263 1.25003
0.651696 -0.10461 1.2499
0.651513 -0.104959 1.24995
0.65138 -0.105309 1.24998
0.651244 -0.105658 1.25002
0.651045 -0.106009 1.25008
0.650915 -0.106359 1.25011
0.651135 -0.106703 1.24994
0.651245 -0.107048 1.24983
0.651344 -0.107393 1.24972
0.651428 -0.107738 1.24963
0.651344 -0.108087 1.24963
0.651198 -0.108438 1.24967
0.651025 -0.10879 1.24972
0.650789 -0.109144 1.24981
0.650609 -0.109498 1.24987
0.650518 -0.109848 1.24987
0.65571 -0.087771 1.25024
0.65575 -0.088122 1.25017
0.655768 -0.0884709 1.25011
0.655854 -0.0888252 1.25002
0.655901 -0.0891757 1.24994
0.655866 -0.0895197 1.24992
0.655762 -0.0898583 1.24993
0.655615 -0.090194 1.24997
0.655469 -0.0905302 1.25001
0.655365 -0.0908697 1.25003
0.655232 -0.0912076 1.25006
0.655112 -0.0915467 1.25008
0.654922 -0.0918815 1.25015
0.654687 -0.0922142 1.25024
0.654472 -0.0925489 1.25032
0.654266 -0.0928847 1.25039
0.654107 -0.0932238 1.25044
0.653958 -0.093564 1.25048
0.653771 -0.0939026 1.25054
0.653537 -0.0942393 1.25063
0.653263 -0.094575 1.25075
0.652885 -0.0949066 1.25092
0.65258 -0.0952429 1.25105
0.652297 -0.0955811 1.25117
0.652009 -0.0959201 1.25129
0.651759 -0.0962615 1.25139
0.651649 -0.0966089 1.25141
0.65151 -0.0969555 1.25145
0.648869 -0.100779 1.25246
0.649138 -0.101137 1.25226
0.64936 -0.101493 1.25208
0.64974 -0.10185 1.25181
0.65014 -0.102205 1.25153
0.650463 -0.102558 1.2513
0.650845 -0.10291 1.25103
0.651217 -0.10326 1.25077
0.651481 -0.103609 1.25056
0.651658 -0.103957 1.25042
0.651827 -0.104304 1.25027
0.65202 -0.10465 1.25011
0.651938 -0.104998 1.25011
0.651875 -0.105346 1.2501
0.651784 -0.105695 1.25011
0.65163 -0.106044 1.25015
0.651539 -0.106393 1.25016
0.651715 -0.106737 1.25001
0.651808 -0.107082 1.24991
0.651882 -0.107427 1.24982
0.651938 -0.107771 1.24974
0.651849 -0.10812 1.24974
0.651723 -0.108469 1.24977
0.651596 -0.108819 1.2498
0.651426 -0.109171 1.24985
0.651291 -0.109522 1.24988
0.651225 -0.109871 1.24987
0.656665 -0.0878797 1.25008
0.656572 -0.0882178 1.25009
0.656506 -0.0885584 1.25008
0.656491 -0.0889032 1.25004
0.656472 -0.0892477 1.25001
0.656374 -0.0895859 1.25002
0.656215 -0.0899197 1.25006
0.656011 -0.0902507 1.25014
0.655839 -0.0905846 1.25019
0.655694 -0.0909209 1.25023
0.655535 -0.0912567 1.25028
0.655376 -0.091593 1.25033
0.655182 -0.0919275 1.2504
0.654928 -0.0922589 1.2505
0.654693 -0.0925922 1.25059
0.654467 -0.0929268 1.25068
0.654287 -0.0932648 1.25074
0.654121 -0.093604 1.25079
0.653913 -0.0939416 1.25086
0.653638 -0.0942764 1.25098
0.653298 -0.0946091 1.25113
0.652914 -0.0949408 1.25131
0.652585 -0.0952763 1.25146
0.652306 -0.0956151 1.25157
0.652059 -0.0959562 1.25167
0.651852 -0.0962995 1.25175
0.65173 -0.0966467 1.25177
0.651548 -0.0969921 1.25183
0.649893 -0.101892 1.25213
0.650264 -0.102247 1.25187
0.650588 -0.1026 1.25163
0.650968 -0.102951 1.25136
0.65136 -0.103302 1.25109
0.651669 -0.10365 1.25086
0.651895 -0.103998 1.25068
0.652112 -0.104345 1.25051
0.652326 -0.104691 1.25034
0.652345 -0.105037 1.25028
0.65235 -0.105384 1.25023
0.652355 -0.10573 1.25018
0.652266 -0.106078 1.25019
0.652246 -0.106425 1.25015
0.652375 -0.106769 1.25003
0.652469 -0.107113 1.24993
0.652499 -0.107458 1.24986
0.652512 -0.107802 1.24981
0.652403 -0.108151 1.24983
0.652296 -0.108499 1.24984
0.652176 -0.108848 1.24986
0.652073 -0.109197 1.24988
0.65197 -0.109546 1.24989
0.651905 -0.109894 1.24988
0.65018 -0.110257 1.25042
0.651805 -0.110243 1.24989
0.657538 -0.0879809 1.24996
0.657367 -0.0883111 1.25001
0.657249 -0.0886461 1.25004
0.657151 -0.0889831 1.25005
0.657049 -0.08932 1.25006
0.656887 -0.0896525 1.25011
0.656703 -0.0899837 1.25017
0.656457 -0.090311 1.25027
0.656245 -0.0906416 1.25035
0.656038 -0.0909732 1.25043
0.655855 -0.091307 1.25049
0.655638 -0.0916392 1.25057
0.655429 -0.0919726 1.25065
0.655173 -0.0923038 1.25076
0.654937 -0.0926369 1.25085
0.654691 -0.0929703 1.25095
0.654508 -0.0933081 1.25101
0.654304 -0.0936452 1.25108
0.654034 -0.0939796 1.2512
0.653718 -0.0943125 1.25134
0.653332 -0.0946432 1.25152
0.652926 -0.0949742 1.25171
0.652595 -0.0953101 1.25186
0.652358 -0.095651 1.25195
0.652153 -0.095994 1.25203
0.65197 -0.0963385 1.25209
0.651845 -0.0966857 1.25211
0.650922 -0.0970057 1.25261
0.650236 -0.101935 1.25234
0.650544 -0.102289 1.25212
0.650819 -0.102642 1.25191
0.651175 -0.102993 1.25165
0.651589 -0.103343 1.25136
0.65196 -0.103692 1.2511
0.652264 -0.104039 1.25087
0.652524 -0.104385 1.25067
0.652739 -0.10473 1.2505
0.652836 -0.105075 1.2504
0.652883 -0.105421 1.25032
0.652902 -0.105766 1.25026
0.652862 -0.106113 1.25024
0.652863 -0.106458 1.25019
0.652926 -0.106803 1.25011
0.652952 -0.107147 1.25005
0.652936 -0.107493 1.25001
0.652908 -0.107838 1.24998
0.652823 -0.108185 1.24998
0.652739 -0.108532 1.24999
0.652661 -0.108879 1.24998
0.652603 -0.109226 1.24997
0.652523 -0.109574 1.24997
0.652439 -0.109922 1.24997
0.652314 -0.110271 1.25
0.650728 -0.110632 1.25047
0.65219 -0.110621 1.25002
0.657695 -0.084888 1.25028
0.65769 -0.0845415 1.25033
0.657931 -0.0845886 1.25059
0.657981 -0.0849397 1.25051
0.658069 -0.0852945 1.25041
0.658392 -0.086682 1.24963
0.658601 -0.0863815 1.24995
0.658759 -0.0867403 1.24981
0.658793 -0.0870868 1.24974
0.658507 -0.0877471 1.24982
0.658277 -0.0880704 1.24991
0.658102 -0.088399 1.24997
0.657968 -0.0887316 1.25001
0.657791 -0.0890611 1.25006
0.657622 -0.0893918 1.25012
0.657412 -0.0897198 1.2502
0.65717 -0.0900461 1.2503
0.656884 -0.0903699 1.25042
0.656652 -0.0906985 1.25051
0.6564 -0.0910266 1.25062
0.65618 -0.0913576 1.2507
0.655921 -0.0916868 1.25081
0.655692 -0.0920187 1.2509
0.655437 -0.0923498 1.251
0.655187 -0.092682 1.2511
0.65494 -0.0930152 1.2512
0.654752 -0.0933526 1.25127
0.654525 -0.0936884 1.25136
0.654211 -0.0940204 1.2515
0.653871 -0.0943522 1.25165
0.653442 -0.094681 1.25186
0.653015 -0.0950113 1.25207
0.65267 -0.0953467 1.25222
0.652436 -0.095688 1.25231
0.652254 -0.0960322 1.25237
0.652094 -0.0963778 1.25242
0.651383 -0.0967038 1.2528
0.649749 -0.0970009 1.25372
0.650906 -0.102331 1.25231
0.651096 -0.102683 1.25215
0.651419 -0.103035 1.25192
0.651838 -0.103384 1.25162
0.652251 -0.103733 1.25133
0.652575 -0.104079 1.25109
0.652852 -0.104425 1.25088
0.653046 -0.10477 1.25072
0.653218 -0.105114 1.25058
0.653308 -0.105459 1.25048
0.653395 -0.105803 1.25038
0.653438 -0.106148 1.25031
0.653462 -0.106492 1.25025
0.653466 -0.106836 1.2502
0.653467 -0.107181 1.25015
0.653429 -0.107526 1.25013
0.653349 -0.107872 1.25013
0.653264 -0.108219 1.25013
0.65318 -0.108566 1.25013
0.653105 -0.108912 1.25013
0.653048 -0.109258 1.25011
0.652969 -0.109605 1.25011
0.652863 -0.109954 1.25013
0.652694 -0.110305 1.25018
0.652523 -0.110656 1.25023
0.65699 -0.0841609 1.25161
0.65823 -0.084642 1.25081
0.658314 -0.0849964 1.25071
0.658427 -0.0853533 1.2506
0.658205 -0.0856535 1.25028
0.658575 -0.0857133 1.25046
0.658388 -0.0860165 1.25013
0.65875 -0.0860751 1.25031
0.658954 -0.0864388 1.25014
0.659095 -0.0867956 1.25001
0.659136 -0.0871424 1.24993
0.658673 -0.0874189 1.24977
0.6591 -0.0874818 1.24991
0.659025 -0.0878178 1.24991
0.658865 -0.0881465 1.24996
0.658737 -0.0884783 1.24999
0.658613 -0.0888109 1.25002
0.658431 -0.0891391 1.25008
0.658224 -0.0894658 1.25016
0.657975 -0.08979 1.25026
0.657674 -0.0901111 1.25039
0.65733 -0.0904301 1.25055
0.65704 -0.090754 1.25068
0.656749 -0.091079 1.25081
0.656487 -0.0914069 1.25092
0.656205 -0.0917343 1.25104
0.655976 -0.0920661 1.25113
0.655721 -0.092397 1.25124
0.655473 -0.0927292 1.25134
0.655228 -0.0930624 1.25144
0.655021 -0.0933985 1.25151
0.654769 -0.0937328 1.25162
0.654412 -0.0940625 1.25178
0.654025 -0.094392 1.25197
0.653539 -0.0947181 1.25221
0.653092 -0.0950478 1.25243
0.652729 -0.0953827 1.2526
0.652497 -0.0957244 1.25269
0.652318 -0.096069 1.25275
0.651655 -0.0963957 1.25309
0.650328 -0.0967009 1.25383
0.651082 -0.102021 1.25267
0.651244 -0.102374 1.25252
0.651449 -0.102725 1.25235
0.651766 -0.103076 1.25212
0.652169 -0.103426 1.25183
0.652582 -0.103773 1.25154
0.652908 -0.10412 1.2513
0.653164 -0.104465 1.25111
0.653339 -0.10481 1.25096
0.653509 -0.105154 1.25081
0.653618 -0.105498 1.2507
0.653746 -0.105842 1.25058
0.653833 -0.106185 1.25048
0.653881 -0.106528 1.2504
0.653904 -0.106872 1.25034
0.653904 -0.107216 1.2503
0.653864 -0.107561 1.25027
0.653784 -0.107907 1.25027
0.65372 -0.108252 1.25026
0.653655 -0.108598 1.25025
0.653575 -0.108944 1.25025
0.653497 -0.10929 1.25025
0.653396 -0.109638 1.25027
0.653248 -0.109987 1.25031
0.653057 -0.110338 1.25037
0.652863 -0.11069 1.25044
0.651345 -0.111052 1.25087
0.652674 -0.111043 1.2505
0.658557 -0.0843528 1.25106
0.658625 -0.0847055 1.25097
0.658729 -0.0850617 1.25086
0.658833 -0.0854172 1.25075
0.658975 -0.085776 1.25062
0.659119 -0.0861342 1.25048
0.659303 -0.0864957 1.25033
0.659434 -0.0868511 1.2502
0.659482 -0.0871982 1.25012
0.659494 -0.0875418 1.25007
0.659446 -0.0878797 1.25005
0.65935 -0.0882135 1.25006
0.659273 -0.0885491 1.25006
0.659191 -0.0888844 1.25007
0.658992 -0.0892105 1.25014
0.658764 -0.0895348 1.25023
0.658515 -0.0898583 1.25033
0.658179 -0.0901761 1.25049
0.657782 -0.0904906 1.25068
0.657446 -0.0908108 1.25084
0.657113 -0.0911324 1.25099
0.656791 -0.091456 1.25114
0.656494 -0.0917822 1.25127
0.656279 -0.0921147 1.25135
0.656043 -0.0924466 1.25145
0.655797 -0.0927786 1.25155
0.655555 -0.0931118 1.25164
0.65533 -0.0934466 1.25173
0.655018 -0.0937775 1.25187
0.654584 -0.0941032 1.25209
0.654134 -0.0944296 1.25231
0.653601 -0.0947537 1.25258
0.65313 -0.0950826 1.25281
0.652766 -0.0954178 1.25298
0.652553 -0.0957606 1.25306
0.652392 -0.0961062 1.25311
0.651212 -0.0964137 1.25377
0.651641 -0.102416 1.2527
0.651829 -0.102768 1.25254
0.652102 -0.103118 1.25233
0.652502 -0.103467 1.25204
0.652918 -0.103814 1.25175
0.653224 -0.10416 1.25152
0.653459 -0.104505 1.25134
0.653628 -0.10485 1.25119
0.653777 -0.105194 1.25105
0.653909 -0.105538 1.25093
0.654058 -0.105881 1.25079
0.654187 -0.106223 1.25067
0.654257 -0.106566 1.25058
0.654298 -0.106909 1.25051
0.654317 -0.107252 1.25045
0.654297 -0.107596 1.25042
0.65422 -0.107941 1.25042
0.654154 -0.108286 1.25041
0.654085 -0.108631 1.2504
0.653982 -0.108978 1.25042
0.653883 -0.109324 1.25043
0.65376 -0.109672 1.25045
0.653572 -0.110022 1.25052
0.653358 -0.110375 1.2506
0.653123 -0.110728 1.25069
0.652871 -0.111083 1.25079
0.652485 -0.111396 1.25056
0.652622 -0.111439 1.25089
0.65117 -0.111803 1.25129
0.652301 -0.111799 1.25103
0.657566 -0.083918 1.25211
0.658927 -0.0844141 1.25124
0.659032 -0.0847705 1.25112
0.659196 -0.0851323 1.25098
0.659321 -0.0854894 1.25085
0.65948 -0.0858492 1.25071
0.659601 -0.0862046 1.25059
0.659743 -0.0865613 1.25046
0.659832 -0.0869123 1.25036
0.659877 -0.0872586 1.25028
0.659873 -0.0876002 1.25024
0.659829 -0.0879381 1.25022
0.659752 -0.0882731 1.25022
0.659677 -0.0886085 1.25022
0.659578 -0.088942 1.25023
0.659419 -0.0892708 1.25028
0.659215 -0.0895966 1.25036
0.659007 -0.0899228 1.25044
0.65867 -0.0902399 1.25059
0.658269 -0.0905535 1.25079
0.657886 -0.0908699 1.25097
0.65751 -0.0911881 1.25115
0.657131 -0.0915074 1.25134
0.656832 -0.0918332 1.25147
0.656602 -0.0921645 1.25156
0.656371 -0.0924964 1.25165
0.656125 -0.0928282 1.25175
0.655864 -0.09316 1.25186
0.655599 -0.0934924 1.25198
0.655246 -0.093821 1.25214
0.654729 -0.0941424 1.2524
0.654234 -0.0944667 1.25266
0.653693 -0.0947907 1.25293
0.653221 -0.0951198 1.25317
0.652857 -0.0954553 1.25334
0.652661 -0.095799 1.25341
0.652003 -0.0961251 1.25376
0.652072 -0.102459 1.25285
0.652232 -0.10281 1.25271
0.652486 -0.10316 1.25251
0.65286 -0.103508 1.25224
0.653252 -0.103855 1.25196
0.653534 -0.104201 1.25174
0.653748 -0.104546 1.25157
0.653912 -0.10489 1.25142
0.65404 -0.105235 1.2513
0.654173 -0.105578 1.25118
0.654325 -0.10592 1.25104
0.654478 -0.106262 1.2509
0.654545 -0.106605 1.25081
0.654588 -0.106947 1.25074
0.654625 -0.10729 1.25067
0.654626 -0.107633 1.25063
0.65459 -0.107977 1.2506
0.654548 -0.108321 1.25058
0.654482 -0.108666 1.25057
0.654357 -0.109012 1.2506
0.654234 -0.109359 1.25062
0.654088 -0.109708 1.25066
0.653882 -0.110058 1.25074
0.653649 -0.110411 1.25083
0.653392 -0.110766 1.25093
0.653117 -0.111121 1.25105
0.652825 -0.111479 1.25117
0.65247 -0.111841 1.25133
0.657785 -0.083615 1.25243
0.65913 -0.084112 1.25156
0.659314 -0.0844771 1.2514
0.65944 -0.0848353 1.25128
0.659622 -0.0851986 1.25112
0.659764 -0.0855569 1.25098
0.659904 -0.0859143 1.25085
0.660004 -0.0862671 1.25074
0.660141 -0.0866228 1.25061
0.660186 -0.0869691 1.25054
0.660206 -0.0873129 1.25048
0.660186 -0.0876527 1.25045
0.660143 -0.0879904 1.25042
0.660068 -0.0883253 1.25042
0.660012 -0.088662 1.25041
0.659916 -0.0889954 1.25042
0.659797 -0.0893272 1.25045
0.659634 -0.0896559 1.2505
0.659468 -0.0899848 1.25056
0.659121 -0.0903006 1.25072
0.658697 -0.0906122 1.25093
0.658271 -0.090925 1.25114
0.657849 -0.0912397 1.25135
0.657415 -0.091555 1.25157
0.657137 -0.0918821 1.25169
0.656929 -0.0922145 1.25177
0.656703 -0.0925464 1.25186
0.656458 -0.0928781 1.25196
0.656173 -0.0932082 1.25208
0.655862 -0.0935379 1.25222
0.655467 -0.0938641 1.25241
0.654922 -0.0941841 1.2527
0.654419 -0.0945081 1.25295
0.653879 -0.0948322 1.25323
0.653413 -0.0951617 1.25346
0.653052 -0.0954973 1.25363
0.652859 -0.0958412 1.2537
0.651651 -0.0961456 1.25438
0.652615 -0.102502 1.25294
0.652744 -0.102852 1.25281
0.652928 -0.103201 1.25265
0.653236 -0.103549 1.25242
0.653581 -0.103896 1.25217
0.653823 -0.104241 1.25198
0.653992 -0.104586 1.25183
0.654152 -0.104931 1.25169
0.654259 -0.105275 1.25158
0.654394 -0.105618 1.25145
0.654565 -0.10596 1.2513
0.654736 -0.106302 1.25115
0.654805 -0.106644 1.25106
0.654885 -0.106986 1.25097
0.654944 -0.107327 1.25089
0.65497 -0.10767 1.25082
0.654959 -0.108012 1.25078
0.65494 -0.108355 1.25075
0.654855 -0.1087 1.25075
0.65471 -0.109047 1.25079
0.654566 -0.109395 1.25083
0.654403 -0.109744 1.25088
0.65416 -0.110096 1.25098
0.653905 -0.110449 1.25108
0.653644 -0.110804 1.25119
0.65337 -0.111159 1.2513
0.65306 -0.111518 1.25144
0.652742 -0.111878 1.25158
0.659171 -0.0834459 1.25203
0.659304 -0.0838065 1.2519
0.659488 -0.0841722 1.25174
0.659709 -0.084541 1.25156
0.659874 -0.0849028 1.25141
0.660055 -0.0852655 1.25125
0.660179 -0.0856215 1.25113
0.6603 -0.0859765 1.25101
0.66038 -0.0863268 1.25091
0.660476 -0.0866781 1.25081
0.660498 -0.087022 1.25075
0.660517 -0.0873653 1.25069
0.660512 -0.0877062 1.25064
0.660471 -0.0880438 1.25062
0.660413 -0.0883799 1.25061
0.660357 -0.0887163 1.2506
0.660278 -0.0890508 1.2506
0.660181 -0.089384 1.25061
0.660043 -0.0897142 1.25065
0.659904 -0.0900448 1.25069
0.659595 -0.090363 1.25083
0.659155 -0.0906728 1.25105
0.658693 -0.0909826 1.25129
0.658232 -0.0912942 1.25152
0.657756 -0.0916064 1.25176
0.657458 -0.0919319 1.2519
0.657255 -0.0922644 1.25197
0.657034 -0.0925964 1.25206
0.656769 -0.0929266 1.25217
0.656459 -0.093255 1.25231
0.656083 -0.093581 1.25249
0.655622 -0.0939038 1.25273
0.655035 -0.0942217 1.25303
0.654537 -0.0945462 1.25329
0.654004 -0.0948709 1.25356
0.653563 -0.0952017 1.25378
0.653231 -0.0955387 1.25394
0.653056 -0.0958833 1.25399
0.651368 -0.0961692 1.25497
0.652422 -0.102542 1.25346
0.653225 -0.102894 1.25293
0.653347 -0.103242 1.25281
0.653607 -0.10359 1.25261
0.653888 -0.103936 1.25239
0.654067 -0.104282 1.25224
0.654215 -0.104627 1.2521
0.654374 -0.104971 1.25196
0.654461 -0.105316 1.25186
0.654611 -0.105659 1.25172
0.654784 -0.106001 1.25157
0.654934 -0.106342 1.25144
0.655005 -0.106684 1.25135
0.655104 -0.107026 1.25124
0.655166 -0.107367 1.25116
0.655214 -0.107709 1.25108
0.655245 -0.10805 1.25101
0.655249 -0.108392 1.25097
0.655166 -0.108737 1.25097
0.65502 -0.109084 1.25101
0.654871 -0.109431 1.25105
0.654689 -0.109781 1.25111
0.654426 -0.110133 1.25122
0.654171 -0.110487 1.25133
0.65391 -0.110841 1.25143
0.653636 -0.111197 1.25155
0.653332 -0.111555 1.25168
0.653056 -0.111913 1.2518
0.659095 -0.083091 1.25212
0.659358 -0.0827952 1.25241
0.65938 -0.0831438 1.25235
0.659448 -0.0834974 1.25226
0.659602 -0.0838603 1.25212
0.659809 -0.0842284 1.25195
0.660047 -0.0845987 1.25175
0.660234 -0.0849625 1.25159
0.660413 -0.0853246 1.25143
0.660517 -0.0856781 1.25132
0.660633 -0.0860322 1.2512
0.660694 -0.0863803 1.25112
