ply
format ascii 1.0
element vertex 1785
property float x
property float y
property float z
end_header
0.157276 0.0900063 0.837869
0.155745 0.0877655 0.838643
0.154271 0.085535 0.839407
0.148064 0.0814134 0.839524
0.153512 0.0835334 0.840013
0.144969 0.232374 0.805766
0.146021 0.23092 0.805981
0.147322 0.229512 0.806148
0.148887 0.228153 0.806266
0.150512 0.226809 0.806371
0.152114 0.225464 0.80648
0.153588 0.224101 0.806612
0.154671 0.22267 0.806816
0.155619 0.221217 0.807045
0.156352 0.219726 0.807314
0.156968 0.218214 0.807605
0.157587 0.216703 0.807895
0.158508 0.21525 0.808127
0.159566 0.213826 0.808334
0.160555 0.21239 0.808552
0.161607 0.210969 0.808758
0.162725 0.209563 0.808951
0.163665 0.208123 0.809178
0.164529 0.206671 0.809418
0.165331 0.205207 0.809671
0.166157 0.20375 0.809918
0.143737 0.189148 0.816754
0.145163 0.187783 0.816893
0.146591 0.186421 0.817031
0.148267 0.185118 0.817119
0.149887 0.183807 0.817217
0.151002 0.182387 0.817414
0.151451 0.180819 0.817742
0.151512 0.179163 0.818148
0.150535 0.177268 0.818761
0.149219 0.17529 0.819443
0.147982 0.173323 0.820111
0.146779 0.171359 0.820772
0.145418 0.169352 0.821468
0.144928 0.167545 0.82199
0.144978 0.165865 0.822402
0.145 0.164177 0.822822
0.144531 0.162368 0.823341
0.144819 0.160741 0.823707
0.144786 0.159035 0.824138
0.144536 0.157273 0.824615
0.144965 0.155678 0.824953
0.146319 0.154317 0.825101
0.147125 0.15282 0.825361
0.147818 0.151295 0.825644
0.148463 0.14976 0.825937
0.148892 0.148168 0.826274
0.14965 0.146663 0.826542
0.150549 0.145196 0.826782
0.15156 0.143761 0.826998
0.152842 0.1424 0.827156
0.154003 0.141009 0.827339
0.154561 0.139458 0.827648
0.161737 0.126138 0.829961
0.16104 0.124233 0.830536
0.16128 0.122597 0.830911
0.161781 0.121036 0.831231
0.162152 0.119437 0.831578
0.162019 0.117689 0.832034
0.162334 0.116072 0.832394
0.162742 0.114482 0.832734
0.162722 0.112764 0.833166
0.162684 0.111039 0.833604
0.162506 0.109269 0.834071
0.162013 0.1074 0.834609
0.161558 0.105539 0.835139
0.16155 0.103814 0.835572
0.161189 0.101978 0.836083
0.160542 0.100048 0.836657
0.159988 0.098144 0.837212
0.159453 0.0962417 0.837764
0.15892 0.0943366 0.838316
0.157757 0.0922262 0.839009
0.156309 0.0900164 0.839767
0.154788 0.0877775 0.840544
0.153427 0.0855822 0.841286
0.152862 0.0836433 0.841852
0.144881 0.232723 0.807412
0.145954 0.231272 0.807621
0.147114 0.229839 0.807814
0.148566 0.228459 0.807951
0.150096 0.227096 0.808072
0.151793 0.225767 0.808162
0.153161 0.224383 0.808312
0.154231 0.222949 0.808517
0.155092 0.221478 0.808762
0.155825 0.219985 0.809031
0.156347 0.218454 0.80934
0.15696 0.21694 0.809631
0.157692 0.21545 0.809899
0.158735 0.21402 0.810108
0.159708 0.212579 0.810329
0.160764 0.211156 0.810534
0.161798 0.209731 0.810742
0.162823 0.208307 0.810952
0.163684 0.206851 0.811193
0.164467 0.205382 0.811449
0.165286 0.203921 0.811697
0.145462 0.188201 0.818486
0.146931 0.186848 0.818614
0.148507 0.185523 0.81872
0.15005 0.184194 0.818831
0.15086 0.182705 0.819088
0.151156 0.181102 0.819447
0.150896 0.179372 0.819918
0.149477 0.177375 0.820623
0.14789 0.175332 0.821363
0.146678 0.173369 0.822029
0.145373 0.171379 0.822715
0.144117 0.169394 0.823393
0.143732 0.16761 0.823896
0.143556 0.165873 0.824356
0.143239 0.1641 0.824846
0.142762 0.162286 0.825369
0.142881 0.160614 0.825771
0.14282 0.158897 0.826211
0.142505 0.157114 0.826702
0.142738 0.155467 0.827082
0.143471 0.153944 0.827358
0.144146 0.152408 0.827646
0.144812 0.150871 0.827936
0.145544 0.149351 0.828211
0.146162 0.147803 0.82851
0.147203 0.146366 0.828721
0.148122 0.144899 0.828956
0.149162 0.143466 0.829166
0.150606 0.142142 0.82929
0.15156 0.140692 0.829517
0.152092 0.139129 0.829832
0.153746 0.125897 0.83291
0.154727 0.124461 0.833129
0.155109 0.122855 0.833477
0.155949 0.121381 0.833726
0.15692 0.119947 0.833946
0.157675 0.118452 0.834212
0.158029 0.116838 0.834565
0.158719 0.115325 0.834845
0.159445 0.113824 0.835117
0.159902 0.112242 0.835448
0.160172 0.110605 0.83582
0.160219 0.108898 0.83624
0.160109 0.107142 0.836696
0.160045 0.105398 0.837142
0.16015 0.103705 0.837552
0.159929 0.101909 0.838034
0.159478 0.100038 0.838567
0.159017 0.0981613 0.839104
0.158474 0.0962551 0.83966
0.157933 0.0943453 0.840216
0.156956 0.0922928 0.840871
0.15563 0.090121 0.841606
0.154046 0.0878593 0.8424
0.152768 0.0856903 0.843127
0.152085 0.0837106 0.843722
0.145657 0.231586 0.809306
0.146771 0.230143 0.809506
0.148178 0.228754 0.809651
0.149568 0.227364 0.809797
0.151263 0.226033 0.809885
0.152532 0.22463 0.810053
0.15359 0.223191 0.81026
0.154341 0.221698 0.810526
0.155163 0.22022 0.810777
0.155785 0.218705 0.811067
0.156413 0.217193 0.811356
0.157145 0.215701 0.811624
0.158187 0.21427 0.811831
0.159152 0.212825 0.812054
0.160114 0.211382 0.812276
0.161145 0.209955 0.812485
0.162176 0.20853 0.812692
0.163113 0.207088 0.812918
0.163844 0.205606 0.813184
0.164724 0.204156 0.81342
0.14615 0.188704 0.820002
0.147354 0.187293 0.820181
0.148686 0.185914 0.820333
0.149918 0.184516 0.820505
0.150064 0.182878 0.820895
0.149952 0.181181 0.821337
0.149286 0.179357 0.821892
0.147533 0.17728 0.822669
0.145809 0.175202 0.823441
0.144665 0.173252 0.824098
0.143343 0.171254 0.824791
0.142183 0.169288 0.825454
0.141894 0.167523 0.825939
0.141691 0.165776 0.826407
0.141366 0.163998 0.826901
0.141183 0.162251 0.827366
0.141284 0.160571 0.827774
0.141488 0.158916 0.828159
0.141401 0.157188 0.828606
0.141851 0.155592 0.828941
0.142386 0.154017 0.829258
0.143043 0.152474 0.829551
0.14339 0.150852 0.829907
0.143802 0.149247 0.83025
0.144093 0.14761 0.830619
0.144834 0.146091 0.830893
0.145556 0.144567 0.83117
0.146494 0.143102 0.831402
0.147958 0.141778 0.831521
0.149035 0.140355 0.831722
0.149709 0.138824 0.832008
0.150805 0.13741 0.832204
0.146581 0.124195 0.836136
0.148181 0.122923 0.836223
0.14979 0.121656 0.836307
0.151285 0.120362 0.836414
0.152929 0.119115 0.836488
0.154376 0.117814 0.836605
0.155468 0.116412 0.836798
0.156596 0.115024 0.836982
0.157808 0.113663 0.837148
0.158479 0.112143 0.837432
0.15876 0.110505 0.837802
0.158724 0.10877 0.838243
0.158605 0.107009 0.838703
0.158627 0.105288 0.839132
0.15876 0.1036 0.839536
0.158754 0.101869 0.839972
0.158414 0.10003 0.840482
0.158038 0.098178 0.841003
0.157478 0.0962634 0.841564
0.156835 0.0943194 0.842146
0.155971 0.0923005 0.842779
0.154738 0.0901577 0.843496
0.153155 0.0878943 0.844294
0.151769 0.0856882 0.84505
0.150965 0.0836672 0.845675
0.145679 0.231954 0.810933
0.146824 0.230516 0.811126
0.148094 0.229101 0.811295
0.149279 0.227676 0.811479
0.150705 0.226295 0.811617
0.151868 0.224871 0.811804
0.152834 0.223413 0.812028
0.15358 0.221918 0.812294
0.154402 0.220437 0.812546
0.155028 0.218922 0.812835
0.155666 0.217409 0.813121
0.156405 0.215917 0.813388
0.157444 0.214482 0.813596
0.15841 0.213036 0.813818
0.159481 0.211612 0.814018
0.160525 0.210186 0.814223
0.16156 0.208759 0.81443
0.162487 0.207314 0.814657
0.163264 0.205839 0.814914
0.164062 0.204371 0.815166
0.148198 0.184486 0.822503
0.147731 0.182709 0.823019
0.147337 0.180944 0.82352
0.146408 0.179055 0.824132
0.144874 0.177024 0.824869
0.14356 0.175036 0.825562
0.14256 0.173114 0.826193
0.141372 0.171144 0.826864
0.140412 0.169222 0.827489
0.140332 0.167503 0.827933
0.140045 0.165733 0.82842
0.139825 0.163976 0.828895
0.139945 0.1623 0.829299
0.140282 0.160675 0.829657
0.140714 0.159074 0.829997
0.140853 0.1574 0.830397
0.141379 0.155821 0.830717
0.141707 0.154193 0.831079
0.142149 0.152594 0.831416
0.142185 0.150891 0.831839
0.142373 0.149225 0.83223
0.142448 0.14753 0.832646
0.142964 0.145948 0.832968
0.14335 0.144332 0.833318
0.143847 0.142745 0.833643
0.14503 0.141342 0.833822
0.146025 0.13989 0.834041
0.145021 0.125822 0.837728
0.146043 0.12438 0.83794
0.147185 0.122975 0.838126
0.148486 0.121617 0.838275
0.149721 0.120244 0.838439
0.151104 0.118917 0.838569
0.152263 0.117528 0.838748
0.153374 0.116126 0.838937
0.154615 0.114767 0.839096
0.155855 0.11341 0.839255
0.156639 0.11192 0.839515
0.157051 0.110317 0.839857
0.157212 0.108638 0.840256
0.157187 0.106903 0.840696
0.157404 0.105239 0.841083
0.15764 0.10358 0.841465
0.157663 0.101854 0.841896
0.157426 0.100046 0.842386
0.157144 0.0982211 0.842886
0.156584 0.0963057 0.843451
0.155952 0.0943626 0.844032
0.155181 0.0923717 0.844647
0.153949 0.0902285 0.845368
0.152257 0.0879287 0.846195
0.150751 0.0856816 0.846982
0.149811 0.0836129 0.847641
0.147002 0.23091 0.812723
0.147987 0.229446 0.812945
0.148957 0.227981 0.81317
0.150217 0.22657 0.813338
0.151202 0.225112 0.813558
0.151966 0.223616 0.813821
0.152616 0.222101 0.814107
0.153437 0.220618 0.814358
0.15407 0.219101 0.814646
0.154729 0.21759 0.814929
0.155572 0.216115 0.815175
0.156708 0.214697 0.815363
0.157678 0.21325 0.815583
0.158761 0.211826 0.815781
0.159818 0.2104 0.815983
0.160854 0.208972 0.816188
0.161692 0.207506 0.816433
0.16244 0.206024 0.816695
0.144173 0.182269 0.825402
0.143918 0.180529 0.825879
0.143191 0.17868 0.826453
0.142228 0.176772 0.827077
0.141606 0.174939 0.827632
0.14108 0.173124 0.828168
0.140139 0.171209 0.828791
0.139417 0.16934 0.82937
0.139452 0.167646 0.829791
0.139099 0.165858 0.830294
0.139002 0.164129 0.830744
0.139331 0.162501 0.831106
0.139772 0.1609 0.831443
0.140298 0.159321 0.831763
0.140636 0.157694 0.832122
0.141049 0.156087 0.832466
0.141265 0.154429 0.832852
0.141575 0.152795 0.833218
0.141377 0.151031 0.833692
0.141349 0.149308 0.83413
0.141283 0.147574 0.834577
0.141472 0.145905 0.834969
0.141295 0.144138 0.835441
0.141175 0.142385 0.835901
0.141767 0.140818 0.836207
0.142407 0.139265 0.836503
0.144679 0.126063 0.839492
0.145561 0.124581 0.839735
0.146424 0.123094 0.839981
0.147361 0.12163 0.84021
0.148363 0.120186 0.840425
0.14942 0.118761 0.840626
0.150272 0.117279 0.840874
0.151375 0.115871 0.841064
0.152608 0.114504 0.841225
0.153858 0.113145 0.841381
0.154755 0.111684 0.841616
0.15539 0.110145 0.841909
0.155673 0.1085 0.842281
0.155751 0.106792 0.8427
0.156164 0.105186 0.843044
0.156419 0.10353 0.843423
0.156554 0.101837 0.843829
0.15642 0.100058 0.844298
0.15626 0.0982686 0.844772
0.155803 0.096384 0.845316
0.155273 0.0944724 0.845876
0.154522 0.0924862 0.846489
0.153282 0.0903386 0.847215
0.151581 0.0880347 0.848049
0.149947 0.0857449 0.848869
0.148878 0.0836327 0.84956
0.147839 0.229784 0.814604
0.14863 0.228286 0.814863
0.149738 0.226847 0.81506
0.150734 0.225389 0.815278
0.151413 0.223877 0.815557
0.152157 0.222377 0.815824
0.153067 0.220909 0.816057
0.153705 0.219392 0.816344
0.154268 0.217862 0.816646
0.155114 0.216385 0.816891
0.156153 0.214947 0.817098
0.157126 0.213499 0.817317
0.15821 0.212074 0.817513
0.159282 0.210649 0.817712
0.160324 0.20922 0.817915
0.161116 0.207744 0.818169
0.161762 0.206239 0.818451
0.137997 0.181251 0.828341
0.139243 0.179835 0.828511
0.139588 0.17822 0.828867
0.139337 0.176468 0.829347
0.139512 0.174812 0.829739
0.139564 0.173126 0.830157
0.139173 0.171336 0.830667
0.138867 0.169563 0.831161
0.139233 0.167946 0.831515
0.139117 0.166214 0.831969
0.139228 0.164534 0.832376
0.139556 0.162906 0.832738
0.139894 0.16128 0.833098
0.140317 0.159674 0.83344
0.140532 0.158018 0.833826
0.140748 0.15636 0.834211
0.140832 0.154668 0.834626
0.140926 0.152978 0.835038
0.140578 0.151175 0.835546
0.140419 0.149417 0.836014
0.140148 0.147628 0.836507
0.14 0.145868 0.836974
0.139251 0.143949 0.837571
0.138804 0.142105 0.838104
0.138592 0.140321 0.838586
0.138239 0.138496 0.8391
0.143908 0.126186 0.841354
0.144781 0.124698 0.841598
0.145523 0.123174 0.841871
0.146153 0.12162 0.842169
0.147137 0.120168 0.842387
0.14798 0.118678 0.842636
0.148628 0.117132 0.842929
0.149601 0.115682 0.843148
0.150704 0.114273 0.843338
0.151928 0.112902 0.8435
0.152936 0.11147 0.84371
0.153703 0.109967 0.843974
0.154126 0.10836 0.844315
0.154428 0.106718 0.844685
0.15486 0.105114 0.845024
0.155209 0.103484 0.845383
0.155447 0.10182 0.845768
0.155536 0.100109 0.846186
0.155487 0.0983526 0.846637
0.155161 0.0965069 0.847152
0.154641 0.094597 0.847713
0.153881 0.0926068 0.84833
0.152633 0.0904555 0.849061
0.150924 0.0881478 0.849901
0.149292 0.0858574 0.850725
0.148122 0.0837109 0.851444
0.139686 0.227089 0.818253
0.1503 0.227308 0.81658
0.151126 0.22582 0.81683
0.151584 0.224268 0.817153
0.152134 0.222733 0.817457
0.152843 0.221227 0.81773
0.153476 0.219708 0.818018
0.153947 0.21816 0.818338
0.154785 0.216681 0.818584
0.155712 0.21522 0.818812
0.156575 0.213749 0.819053
0.157566 0.212304 0.819268
0.158726 0.210894 0.819447
0.15969 0.209448 0.819666
0.160373 0.207949 0.819941
0.161028 0.206444 0.820222
0.13285 0.180465 0.831088
0.134826 0.179203 0.831106
0.136366 0.177848 0.831214
0.136931 0.176276 0.831526
0.137788 0.174771 0.831776
0.138276 0.173182 0.832104
0.138302 0.171486 0.832529
0.138337 0.169791 0.832952
0.138929 0.168226 0.833258
0.139031 0.166545 0.833668
0.13935 0.164915 0.834031
0.139782 0.163311 0.834371
0.140007 0.161658 0.834755
0.140326 0.160026 0.835119
0.140532 0.158366 0.835508
0.140626 0.156678 0.83592
0.140607 0.15496 0.836358
0.14057 0.153236 0.8368
0.140119 0.151405 0.837331
0.139838 0.149615 0.837827
0.139361 0.147772 0.838366
0.138697 0.145876 0.838947
0.137378 0.143806 0.839672
0.136566 0.141863 0.840287
0.135896 0.139953 0.840872
0.135049 0.137991 0.841497
0.143824 0.124766 0.843505
0.144502 0.123222 0.843793
0.14503 0.121635 0.844114
0.145818 0.120125 0.844376
0.146765 0.118661 0.844602
0.147404 0.11711 0.844897
0.148266 0.115624 0.845141
0.149249 0.114176 0.845357
0.150352 0.112766 0.845546
0.151352 0.111327 0.845758
0.15224 0.109857 0.845994
0.152896 0.108318 0.846284
0.153431 0.106743 0.8466
0.154068 0.1052 0.846894
0.154426 0.103571 0.847251
0.154766 0.101937 0.847613
0.154875 0.10023 0.848028
0.154845 0.0984781 0.848476
0.154621 0.0966636 0.848969
0.154102 0.0947525 0.849531
0.153232 0.0927262 0.850176
0.151985 0.0905728 0.850911
0.150361 0.0882926 0.851736
0.148757 0.0860101 0.852557
0.147607 0.0838695 0.853274
0.143392 0.224808 0.82
0.152153 0.224731 0.818669
0.152573 0.223172 0.819
0.144817 0.22012 0.820969
0.159178 0.209701 0.821395
0.159986 0.208225 0.821645
0.160845 0.20676 0.821884
0.127734 0.181403 0.833414
0.129524 0.180088 0.833472
0.131672 0.178857 0.833452
0.133611 0.177585 0.833476
0.134839 0.176157 0.833648
0.13634 0.174795 0.833762
0.13716 0.173279 0.83402
0.137497 0.171653 0.83438
0.137854 0.170031 0.834736
0.138607 0.168503 0.835007
0.138832 0.16685 0.835392
0.139255 0.165243 0.835733
0.139669 0.163635 0.836077
0.13979 0.161955 0.836484
0.140006 0.160298 0.836871
0.14009 0.158607 0.837286
0.140071 0.156889 0.837725
0.13994 0.155142 0.838188
0.139819 0.153395 0.838649
0.139369 0.151563 0.839183
0.139089 0.149771 0.83968
0.138613 0.147926 0.840221
0.137931 0.146025 0.840808
0.136678 0.14397 0.841522
0.135811 0.142011 0.842152
0.135011 0.140065 0.842768
0.142533 0.124741 0.845493
0.143202 0.123191 0.845782
0.143656 0.12158 0.846121
0.144268 0.120015 0.846423
0.145318 0.118578 0.846625
0.145986 0.117032 0.846914
0.146867 0.115549 0.847154
0.147953 0.114127 0.847347
0.149038 0.112709 0.847539
0.150029 0.111265 0.847753
0.151131 0.109855 0.84794
0.15202 0.108384 0.848176
0.152787 0.106877 0.848439
0.153535 0.105366 0.848707
0.15408 0.103793 0.849021
0.15442 0.102158 0.849383
0.154538 0.100453 0.849797
0.154518 0.0987034 0.850244
0.154387 0.0969171 0.850717
0.15385 0.0949991 0.851285
0.152861 0.0929347 0.851961
0.151606 0.0907779 0.852701
0.150093 0.088533 0.853504
0.148629 0.0862952 0.854296
0.147507 0.0841637 0.855009
0.139965 0.0795872 0.855522
0.140459 0.0800779 0.857131
0.126531 0.182851 0.833232
0.125006 0.182881 0.835249
0.126162 0.181419 0.83544
0.127858 0.180079 0.835516
0.129874 0.178814 0.835523
0.131964 0.177572 0.835512
0.133448 0.176199 0.835629
0.135082 0.174863 0.835714
0.13611 0.173393 0.835927
0.136647 0.17181 0.836245
0.137136 0.170217 0.836573
0.138031 0.16872 0.836814
0.138389 0.167097 0.83717
0.138906 0.165512 0.837492
0.13931 0.1639 0.837838
0.139338 0.162196 0.838266
0.139441 0.16051 0.838678
0.139602 0.158836 0.839078
0.139461 0.157087 0.839545
0.139246 0.155318 0.840027
0.139134 0.153571 0.840488
0.138686 0.151738 0.841024
0.138313 0.149921 0.841543
0.13794 0.148101 0.842063
0.137166 0.146174 0.842673
0.135773 0.144082 0.843421
0.135123 0.142178 0.844006
0.134323 0.140231 0.844625
0.141204 0.122963 0.847937
0.141724 0.121367 0.848261
0.142226 0.119767 0.848589
0.143509 0.118392 0.848738
0.14441 0.11691 0.848974
0.145757 0.115559 0.849107
0.147085 0.114207 0.849243
0.148384 0.112849 0.849386
0.149376 0.111403 0.849598
0.150469 0.109989 0.849787
0.151274 0.10849 0.850042
0.15206 0.106987 0.850301
0.15292 0.105508 0.850542
0.153567 0.103966 0.850833
0.154019 0.102363 0.851169
0.15423 0.100686 0.851563
0.154303 0.0989638 0.851988
0.154052 0.0971392 0.852491
0.153405 0.0951857 0.853087
0.152306 0.0930847 0.853792
0.151042 0.0909241 0.854538
0.14954 0.0886815 0.855341
0.148178 0.0864766 0.856114
0.147187 0.0843855 0.856799
0.14662 0.0824295 0.857384
0.123139 0.184556 0.836907
0.124135 0.183055 0.837132
0.125179 0.181565 0.837347
0.126742 0.180193 0.837449
0.128597 0.17889 0.837488
0.130678 0.177642 0.837478
0.132162 0.176265 0.837594
0.133834 0.174935 0.837669
0.134873 0.173464 0.837879
0.135514 0.171903 0.838175
0.136108 0.170332 0.838481
0.137126 0.168861 0.838695
0.137606 0.167264 0.839025
0.138209 0.165698 0.839329
0.138604 0.164082 0.839678
0.138529 0.162352 0.84013
0.13853 0.160638 0.840565
0.138596 0.158939 0.840987
0.138532 0.157207 0.841438
0.138317 0.155436 0.841922
0.138216 0.15369 0.842382
0.137871 0.151881 0.842897
0.137696 0.150112 0.843374
0.137222 0.148265 0.843919
0.13656 0.146366 0.844506
0.135544 0.14437 0.845174
0.135362 0.142588 0.845656
0.139413 0.122795 0.850052
0.139869 0.121177 0.850392
0.140307 0.119554 0.850736
0.141516 0.118154 0.850901
0.142781 0.116772 0.851053
0.144602 0.115557 0.851075
0.146311 0.114314 0.851122
0.147963 0.113058 0.851181
0.149159 0.111671 0.851345
0.150243 0.110254 0.851535
0.15103 0.108748 0.851794
0.151816 0.107245 0.852053
0.152584 0.105736 0.852315
0.153249 0.104197 0.852602
0.153701 0.102594 0.852938
0.153913 0.100916 0.853332
0.153894 0.0991641 0.853781
0.153635 0.0973351 0.854287
0.152868 0.0953432 0.854914
0.151668 0.0932082 0.855646
0.150286 0.0910096 0.856424
0.148877 0.0887954 0.857209
0.147627 0.0866247 0.857958
0.146636 0.0845334 0.858646
0.146181 0.0826121 0.859206
0.13991 0.0784417 0.859442
0.145709 0.0806827 0.859772
0.120419 0.186056 0.838753
0.121682 0.184607 0.838921
0.123039 0.18318 0.839069
0.124186 0.181711 0.83926
0.125731 0.180332 0.839365
0.127397 0.178983 0.839443
0.129459 0.177728 0.839434
0.130925 0.176344 0.839554
0.132607 0.175013 0.839625
0.133853 0.173586 0.83979
0.134806 0.172095 0.840018
0.135514 0.170548 0.840299
0.136532 0.169075 0.840513
0.136994 0.167473 0.840847
0.137494 0.16588 0.841174
0.137682 0.164213 0.841568
0.137608 0.162481 0.842021
0.137402 0.160715 0.842504
0.137347 0.158984 0.842954
0.137293 0.157251 0.843404
0.13708 0.155477 0.84389
0.136979 0.15373 0.844352
0.136833 0.151968 0.844824
0.136855 0.150248 0.845259
0.136607 0.148456 0.845755
0.136387 0.146669 0.846245
0.135877 0.144805 0.846802
0.136014 0.143107 0.847213
0.135599 0.141262 0.847749
0.137474 0.122587 0.852209
0.137913 0.12096 0.852554
0.138444 0.11936 0.852877
0.139776 0.11799 0.853014
0.141153 0.116637 0.853139
0.143448 0.115557 0.853049
0.145529 0.114419 0.853007
0.147431 0.113236 0.853005
0.148748 0.111883 0.85314
0.149925 0.110491 0.853307
0.150694 0.108979 0.85357
0.151461 0.107469 0.853833
0.152322 0.105987 0.854073
0.152987 0.104447 0.854359
0.153347 0.102814 0.854718
0.153476 0.101108 0.855132
0.153439 0.0993503 0.855586
0.15319 0.0975232 0.856092
0.152331 0.0955009 0.856744
0.151105 0.0933569 0.857486
0.149705 0.0911511 0.858271
0.148187 0.0889004 0.859086
0.146836 0.0866969 0.859863
0.145736 0.0845684 0.860581
0.145282 0.0826454 0.861144
0.144727 0.080686 0.861731
0.120138 0.186362 0.84052
0.121192 0.184866 0.840733
0.122502 0.183427 0.840889
0.123744 0.181977 0.841059
0.125194 0.180575 0.841183
0.126652 0.179179 0.841305
0.128563 0.177887 0.841327
0.129897 0.176471 0.841473
0.131465 0.175111 0.841568
0.13274 0.173688 0.841726
0.13393 0.172248 0.841902
0.134751 0.170726 0.842158
0.13576 0.169249 0.842372
0.136213 0.167642 0.842709
0.136694 0.166043 0.84304
0.136686 0.164326 0.84348
0.136471 0.162559 0.843966
0.136144 0.160761 0.844477
0.136072 0.159023 0.844933
0.136028 0.15729 0.845382
0.135937 0.155544 0.845843
0.136054 0.153848 0.846257
0.13602 0.152113 0.846705
0.136175 0.150424 0.847111
0.136152 0.148689 0.847558
0.136691 0.147096 0.847878
0.13665 0.145354 0.84833
0.137329 0.143798 0.848617
0.135614 0.120647 0.854804
0.136361 0.119103 0.855078
0.137786 0.117756 0.855192
0.13947 0.116488 0.855245
0.1421 0.115501 0.855073
0.144422 0.114431 0.854972
0.146557 0.113313 0.854914
0.148004 0.111996 0.855017
0.149283 0.110633 0.855159
0.150052 0.109119 0.855421
0.15082 0.107606 0.855684
0.15157 0.106089 0.85595
0.152217 0.104542 0.856241
0.152569 0.102903 0.856603
0.152781 0.101222 0.856998
0.152763 0.0994681 0.857448
0.152524 0.0976423 0.857953
0.151648 0.0956133 0.858612
0.150413 0.0934658 0.85936
0.148903 0.0912237 0.860175
0.147276 0.0889363 0.861021
0.145797 0.0866898 0.861833
0.144588 0.0845235 0.862581
0.144025 0.0825615 0.863173
0.143352 0.0805605 0.863792
0.118612 0.188127 0.842119
0.119828 0.186662 0.842296
0.120864 0.18516 0.842511
0.122325 0.183753 0.842634
0.123699 0.18233 0.842773
0.125064 0.180909 0.842915
0.126409 0.179486 0.84306
0.128178 0.178161 0.84311
0.129455 0.17673 0.843268
0.130816 0.175322 0.843407
0.132138 0.173908 0.843553
0.133365 0.172475 0.84372
0.134102 0.170931 0.843995
0.134998 0.169425 0.844234
0.135424 0.167811 0.844578
0.135811 0.166187 0.84493
0.135691 0.164442 0.845396
0.135552 0.16269 0.845867
0.135179 0.160879 0.846391
0.13521 0.159164 0.846824
0.135289 0.15746 0.847247
0.135424 0.155768 0.847658
0.135569 0.154078 0.848067
0.135649 0.15237 0.84849
0.135926 0.150711 0.84887
0.136006 0.149001 0.849294
0.136686 0.147444 0.849581
0.13687 0.145759 0.849982
0.137765 0.144259 0.85022
0.133925 0.118748 0.857371
0.135574 0.11746 0.857432
0.137594 0.116284 0.857404
0.140438 0.115354 0.857179
0.142853 0.114307 0.857053
0.145294 0.113275 0.856919
0.146853 0.111988 0.856994
0.148169 0.110634 0.857127
0.148976 0.109128 0.85738
0.149735 0.10761 0.857645
0.150383 0.106059 0.857936
0.15092 0.104475 0.858254
0.151263 0.102831 0.858618
0.151569 0.101177 0.858992
0.151543 0.0994169 0.859446
0.151313 0.0975916 0.85995
0.150439 0.0955613 0.860612
0.149307 0.093443 0.861338
0.147688 0.091164 0.862185
0.146043 0.0888697 0.86304
0.144456 0.086585 0.863882
0.143091 0.0843659 0.864672
0.142382 0.0823539 0.865303
0.141793 0.0803777 0.865904
0.119301 0.186916 0.844122
0.120403 0.185427 0.844322
0.121997 0.184047 0.844413
0.12357 0.182665 0.844508
0.124934 0.181243 0.844648
0.126175 0.179796 0.844814
0.127717 0.178419 0.844913
0.128862 0.176957 0.8451
0.13011 0.175521 0.845262
0.131452 0.174109 0.845403
0.132688 0.172676 0.845567
0.13351 0.17115 0.845823
0.134397 0.169641 0.846063
0.134823 0.168024 0.846408
0.135126 0.166379 0.846779
0.134894 0.164605 0.847272
0.134756 0.162852 0.847744
0.134355 0.161033 0.848276
0.134303 0.159296 0.84873
0.134514 0.157621 0.849124
0.134894 0.155988 0.84948
0.135152 0.154325 0.849864
0.135448 0.15267 0.850239
0.136034 0.151089 0.850548
0.13618 0.149395 0.850958
0.137188 0.147922 0.85117
0.137961 0.14639 0.851435
0.139407 0.145034 0.851544
0.130733 0.119946 0.859401
0.131705 0.118456 0.859622
0.133625 0.117241 0.859618
0.13596 0.116151 0.859513
0.138814 0.11522 0.859282
0.141341 0.114201 0.859127
0.143884 0.113196 0.858966
0.145545 0.111936 0.859015
0.147001 0.110619 0.859113
0.147919 0.109144 0.85934
0.14879 0.107658 0.859577
0.149439 0.106104 0.859868
0.149875 0.104486 0.860211
0.150098 0.102804 0.860606
0.150312 0.101118 0.861003
0.150102 0.0992978 0.861503
0.149855 0.0974646 0.862014
0.149074 0.0954598 0.862656
0.148045 0.0933728 0.86336
0.146455 0.0911007 0.864204
0.144913 0.0888366 0.865038
0.143281 0.0865358 0.865897
0.141688 0.0842396 0.866747
0.140841 0.0821802 0.867414
0.140346 0.0802312 0.867995
0.117739 0.188678 0.845735
0.119135 0.187248 0.84587
0.120218 0.185753 0.846074
0.121887 0.184387 0.846147
0.12346 0.183005 0.84624
0.124805 0.181577 0.846383
0.125857 0.180088 0.84659
0.127191 0.178663 0.846734
0.128317 0.177195 0.846923
0.129547 0.175753 0.847089
0.130888 0.174339 0.847229
0.132229 0.172928 0.847368
0.133041 0.171398 0.847626
0.133788 0.169854 0.847898
0.134101 0.16821 0.848268
0.134301 0.166538 0.848664
0.133994 0.164745 0.849175
0.13396 0.163014 0.849625
0.133682 0.161224 0.850131
0.133762 0.159517 0.850556
0.133992 0.157846 0.850947
0.134485 0.15624 0.851277
0.134744 0.154575 0.851661
0.13504 0.152919 0.852037
0.135514 0.151308 0.852372
0.135829 0.149655 0.852744
0.136978 0.148217 0.852922
0.12897 0.11979 0.861552
0.130008 0.118316 0.861758
0.132178 0.117169 0.861692
0.134699 0.116129 0.861539
0.137507 0.11518 0.861315
0.139941 0.11413 0.86118
0.142484 0.11312 0.861016
0.143951 0.111799 0.861111
0.145416 0.110482 0.861206
0.146437 0.109034 0.861408
0.14742 0.107577 0.861618
0.14806 0.106019 0.861912
0.148497 0.104398 0.862255
0.148629 0.102684 0.862673
0.148733 0.10096 0.863098
0.148505 0.0991316 0.863605
0.148241 0.0972901 0.864122
0.147572 0.0953172 0.86474
0.146674 0.0932681 0.865416
0.145196 0.0910293 0.866236
0.143674 0.0887691 0.867069
0.141914 0.0864256 0.867964
0.140203 0.0840888 0.868849
0.139238 0.081988 0.869549
0.138762 0.0800417 0.870127
0.11797 0.189095 0.847399
0.119413 0.187673 0.847522
0.120525 0.186185 0.847718
0.121985 0.184774 0.847836
0.123652 0.183411 0.847906
0.124997 0.181982 0.848047
0.126049 0.180492 0.848254
0.127289 0.179046 0.848417
0.128396 0.177573 0.84861
0.129512 0.176104 0.8488
0.130636 0.17464 0.848987
0.131779 0.173183 0.84917
0.13247 0.171623 0.849455
0.133103 0.170051 0.849753
0.133304 0.168379 0.850149
0.133496 0.166703 0.850548
0.133293 0.164933 0.851038
0.133381 0.16323 0.85146
0.133245 0.161472 0.851936
0.133429 0.159789 0.852337
0.133762 0.158143 0.852705
0.134237 0.156531 0.85304
0.134496 0.154865 0.853424
0.134773 0.153204 0.853805
0.135145 0.151565 0.854164
0.135348 0.149884 0.854563
0.136244 0.148378 0.854799
0.127682 0.119772 0.863596
0.128665 0.118277 0.863815
0.130761 0.117105 0.863764
0.133217 0.116043 0.863625
0.136052 0.115098 0.863391
0.138597 0.114077 0.863226
0.141243 0.113093 0.863034
0.14271 0.111769 0.863128
0.144065 0.110415 0.863248
0.144993 0.108936 0.863472
0.145857 0.10744 0.863712
0.146396 0.105847 0.864031
0.146741 0.104195 0.864398
0.146966 0.102506 0.864795
0.147053 0.100773 0.865226
0.146799 0.0989327 0.865741
0.146426 0.0970532 0.866288
0.145952 0.0951389 0.86686
0.145091 0.0930978 0.867529
0.143643 0.0908658 0.868347
0.142205 0.0886301 0.869164
0.140548 0.0863162 0.870037
0.138829 0.0839749 0.870929
0.138004 0.0819169 0.871597
0.13786 0.0800763 0.872094
0.117577 0.18938 0.849203
0.119162 0.187987 0.849293
0.120368 0.186517 0.849467
0.122093 0.185162 0.849523
0.123873 0.183823 0.849566
0.125322 0.182416 0.849682
0.126373 0.180926 0.849887
0.127509 0.179456 0.850073
0.128503 0.177957 0.85029
0.129496 0.17646 0.850507
0.130508 0.17497 0.85072
0.131547 0.173487 0.850925
0.132143 0.171905 0.851232
0.132664 0.170306 0.851555
0.132818 0.168621 0.851963
0.132898 0.166918 0.852389
0.132808 0.165173 0.852853
0.133113 0.163521 0.853227
0.133109 0.161794 0.853673
0.133199 0.160088 0.854097
0.133505 0.158433 0.854472
0.133839 0.156785 0.85484
0.13378 0.155039 0.855299
0.133955 0.153351 0.855705
0.134215 0.151682 0.856091
0.134231 0.149951 0.856534
0.134398 0.148256 0.856942
0.127064 0.119943 0.865484
0.12775 0.118362 0.865774
0.129864 0.117193 0.865717
0.132321 0.116127 0.865574
0.134961 0.115122 0.865384
0.137506 0.114098 0.865216
0.140234 0.113136 0.865
0.1416 0.111778 0.865118
0.142853 0.110391 0.865262
0.143745 0.108899 0.865496
0.144397 0.107336 0.865788
0.144928 0.105736 0.866109
0.145163 0.104048 0.866505
0.145186 0.102293 0.866953
0.145052 0.100488 0.867441
0.144763 0.0986332 0.867968
0.144188 0.0966861 0.868567
0.143743 0.0947764 0.869135
0.143078 0.0927936 0.869759
0.141842 0.0906255 0.870527
0.140609 0.0884508 0.871297
0.139267 0.0862355 0.872096
0.137889 0.0840023 0.872905
0.137295 0.0820177 0.873518
0.137381 0.0802512 0.873958
0.119592 0.188445 0.850912
0.12093 0.187003 0.851054
0.122645 0.185645 0.851111
0.124547 0.184333 0.851123
0.126014 0.18293 0.851233
0.127056 0.181438 0.85144
0.128069 0.179942 0.851652
0.128836 0.178393 0.85192
0.129707 0.176868 0.852164
0.130605 0.175351 0.852402
0.131541 0.173844 0.85263
0.131921 0.172212 0.852986
0.13232 0.170583 0.853338
0.132258 0.168847 0.853797
0.132328 0.16714 0.854225
0.132343 0.165419 0.854667
0.13278 0.163797 0.855011
0.132898 0.162098 0.855429
0.132969 0.160386 0.855859
0.133135 0.158697 0.856267
0.133142 0.156967 0.856712
0.132942 0.155185 0.857206
0.132912 0.153442 0.857661
0.132845 0.151689 0.858125
0.132264 0.149804 0.858712
0.131507 0.147869 0.859341
0.127208 0.12033 0.867188
0.127931 0.11876 0.867469
0.129859 0.117536 0.867454
0.132185 0.116431 0.86734
0.134574 0.115352 0.867209
0.136897 0.114261 0.867092
0.139329 0.113209 0.866946
0.140593 0.111819 0.867088
0.141726 0.110393 0.867261
0.142508 0.108865 0.867522
0.142716 0.107165 0.867925
0.142999 0.105487 0.868309
0.143096 0.103753 0.86874
0.142917 0.101932 0.869241
0.142583 0.10006 0.869782
0.142608 0.0982977 0.870232
0.142219 0.0964049 0.870788
0.142098 0.0945927 0.871276
0.141765 0.0927118 0.871819
0.140955 0.0906759 0.872484
0.139943 0.0885711 0.8732
0.138832 0.0864286 0.873944
0.137593 0.08424 0.874722
0.137147 0.0823019 0.875299
0.137261 0.0805436 0.875733
0.118863 0.190385 0.852348
0.120561 0.189016 0.852408
0.121926 0.187581 0.852542
0.123555 0.186205 0.852615
0.125476 0.184897 0.85262
0.126848 0.183475 0.852751
0.127767 0.181956 0.852984
0.128647 0.180431 0.853226
0.129301 0.178857 0.853519
0.129955 0.177284 0.853813
0.130731 0.175739 0.854078
0.131525 0.1742 0.854338
0.131783 0.172538 0.854723
0.131976 0.170861 0.855124
0.131802 0.169098 0.85561
0.13176 0.167363 0.856066
0.131784 0.165642 0.856506
0.13224 0.164023 0.856846
0.132368 0.162326 0.857263
0.13244 0.160613 0.857693
0.132475 0.15889 0.858133
0.132342 0.157124 0.858613
0.131816 0.155259 0.859186
0.131553 0.153456 0.859698
0.13114 0.151613 0.860246
0.130168 0.149625 0.860929
0.12887 0.14755 0.861691
0.126015 0.12034 0.869222
0.127481 0.118978 0.869321
0.129678 0.117829 0.869237
0.131846 0.116678 0.869159
0.134096 0.115556 0.869058
0.136289 0.114425 0.868971
0.138507 0.113307 0.868875
0.13967 0.111885 0.869042
0.140683 0.110422 0.869244
0.141447 0.108885 0.869509
0.141222 0.107053 0.870022
0.141163 0.105268 0.870494
0.140995 0.103449 0.870994
0.140669 0.101579 0.871534
0.140142 0.0996436 0.872125
0.140704 0.0980421 0.872442
0.140574 0.0962262 0.872934
0.140896 0.094549 0.873312
0.140905 0.0927735 0.87377
0.140547 0.0908791 0.874322
0.139812 0.0888622 0.874971
0.139051 0.0868322 0.875628
0.137951 0.0846875 0.876373
0.137596 0.0827798 0.876928
0.137701 0.0810195 0.877365
0.121699 0.189622 0.853862
0.123159 0.188208 0.853973
0.124702 0.186815 0.854064
0.126744 0.185534 0.854038
0.128106 0.184111 0.854168
0.129015 0.182591 0.854402
0.129659 0.181016 0.854698
0.130077 0.17939 0.855046
0.130505 0.177767 0.855392
0.131168 0.176197 0.855682
0.131746 0.174609 0.855993
0.131975 0.172941 0.856385
0.132036 0.171233 0.856816
0.131741 0.169441 0.857332
0.131596 0.167682 0.857814
0.131611 0.165958 0.858257
0.13188 0.164294 0.858642
0.131905 0.16257 0.859084
0.131865 0.160829 0.859542
0.131788 0.159077 0.860009
0.13144 0.157257 0.860542
0.130784 0.155358 0.861149
0.130372 0.153516 0.861698
0.129717 0.15161 0.862307
0.128466 0.149549 0.86306
0.127122 0.147458 0.863837
0.126565 0.145563 0.864425
0.124424 0.12024 0.871361
0.126521 0.119053 0.871301
0.128932 0.117961 0.871162
0.1311 0.116807 0.871081
0.133303 0.11567 0.87099
0.135579 0.11456 0.870879
0.137502 0.113353 0.870855
0.138526 0.111888 0.871055
0.139512 0.110413 0.871265
0.140369 0.108901 0.871506
0.139858 0.106981 0.872093
0.139764 0.105183 0.872576
0.139614 0.103366 0.873073
0.139253 0.101482 0.873624
0.138856 0.0995844 0.874185
0.139907 0.0981316 0.874378
0.140266 0.0964651 0.874746
0.140957 0.094903 0.87503
0.141435 0.0932744 0.875368
0.141353 0.0914684 0.87585
0.140876 0.0895346 0.876435
0.140363 0.0875858 0.87703
0.139456 0.0855058 0.877727
0.139073 0.083592 0.878291
0.13926 0.08186 0.878706
0.123338 0.190332 0.855199
0.124758 0.188912 0.855316
0.126301 0.187521 0.855404
0.12822 0.186214 0.855404
0.129468 0.184768 0.855558
0.130262 0.183226 0.855818
0.130774 0.181623 0.856144
0.130966 0.179949 0.856544
0.131167 0.178276 0.856943
0.131717 0.176681 0.85726
0.132069 0.175041 0.857623
0.132196 0.17335 0.85804
0.132144 0.171616 0.858499
0.131755 0.169802 0.859038
0.131573 0.168034 0.85953
0.131466 0.166281 0.860003
0.131595 0.164582 0.860422
0.131602 0.162853 0.860869
0.131553 0.161109 0.86133
0.131177 0.159284 0.861871
0.130717 0.157434 0.862432
0.129828 0.155476 0.863098
0.129183 0.153574 0.863706
0.128296 0.151608 0.864373
0.127073 0.149551 0.865123
0.125825 0.147483 0.865881
0.125446 0.14563 0.866428
0.125598 0.143558 0.865114
0.124834 0.143715 0.867034
0.120848 0.121369 0.873539
0.12278 0.120125 0.87352
0.125294 0.119052 0.873354
0.128066 0.11806 0.873121
0.130494 0.116978 0.872973
0.132817 0.115873 0.872849
0.135102 0.114763 0.872732
0.136913 0.113522 0.872734
0.138021 0.112079 0.872913
0.1391 0.11063 0.873098
0.14028 0.109213 0.873257
0.139613 0.107245 0.873886
0.139417 0.105416 0.874395
0.139222 0.103584 0.874905
0.138631 0.101629 0.875517
0.138373 0.0997724 0.876045
0.140032 0.0985056 0.87608
0.140889 0.0969942 0.876321
0.141864 0.0955211 0.87653
0.14284 0.0940503 0.87674
0.142996 0.0923217 0.877161
0.142767 0.0904695 0.877682
0.142492 0.0886009 0.878216
0.141777 0.0865869 0.878865
0.141376 0.0846702 0.879433
0.141535 0.082933 0.879856
0.126637 0.191389 0.856143
0.127726 0.189903 0.856335
0.128635 0.188382 0.856568
0.130128 0.186987 0.856664
0.131158 0.185496 0.856868
0.131829 0.183929 0.857155
0.132134 0.182283 0.857529
0.132203 0.180583 0.857959
0.132272 0.178883 0.858388
0.132699 0.177261 0.858734
0.132759 0.175557 0.859166
0.132773 0.17384 0.85961
0.132496 0.172055 0.860124
0.131882 0.17019 0.860719
0.131493 0.168373 0.86126
0.131266 0.166591 0.861764
0.131254 0.164858 0.862217
0.131233 0.163121 0.862673
0.131072 0.161349 0.863162
0.130594 0.159497 0.863729
0.130004 0.157616 0.864324
0.128882 0.155599 0.865049
0.128013 0.153639 0.865714
0.127034 0.151647 0.866406
0.125888 0.149608 0.867141
0.124846 0.147589 0.867853
0.124673 0.145787 0.868352
0.12438 0.143952 0.868882
0.118645 0.122542 0.873624
0.118152 0.122757 0.875506
0.12028 0.12156 0.875437
0.122147 0.120296 0.875432
0.124809 0.119263 0.875225
0.127562 0.118263 0.874993
0.12986 0.117141 0.874874
0.132322 0.116074 0.874712
0.134736 0.115 0.87456
0.136556 0.113759 0.874557
0.137904 0.112385 0.874674
0.139187 0.110995 0.874806
0.140616 0.109652 0.8749
0.1403 0.10779 0.875441
0.140252 0.106006 0.875913
0.140186 0.104214 0.876391
0.139789 0.102319 0.876954
0.139761 0.100536 0.877423
0.141576 0.0993183 0.877416
0.142809 0.097926 0.877558
0.143986 0.0965187 0.877713
0.14508 0.0950879 0.87789
0.14529 0.0933808 0.878296
0.14518 0.0915699 0.878787
0.144923 0.0897107 0.879316
0.144336 0.0877424 0.879933
0.144044 0.0858657 0.880473
0.14422 0.0841393 0.88089
0.129519 0.192356 0.857175
0.13039 0.190828 0.857416
0.131146 0.189279 0.857683
0.13227 0.187809 0.857863
0.133177 0.186294 0.858094
0.133641 0.184685 0.85843
0.133728 0.182993 0.858855
0.13358 0.181248 0.859336
0.133432 0.179502 0.859818
0.13352 0.177806 0.860244
0.133449 0.176072 0.860708
0.133454 0.174354 0.861155
0.133073 0.172547 0.861694
0.13245 0.170679 0.862293
0.13194 0.168835 0.862866
0.131478 0.166999 0.863428
0.13127 0.165219 0.863929
0.131118 0.16345 0.864417
0.130761 0.16163 0.864955
0.130152 0.159747 0.865556
0.129329 0.157806 0.86621
0.127946 0.155724 0.867002
0.126957 0.153733 0.867699
0.126091 0.151767 0.868368
0.125198 0.14979 0.869044
0.124512 0.14786 0.86967
0.124582 0.146119 0.870111
0.124494 0.144336 0.870591
0.117659 0.122973 0.87739
0.119769 0.121768 0.877323
0.121617 0.120497 0.877321
0.124307 0.119469 0.877104
0.127106 0.11848 0.876856
0.129486 0.11738 0.876713
0.132179 0.116377 0.876489
0.134815 0.115365 0.876277
0.136875 0.114194 0.87621
0.138472 0.112893 0.876261
0.140022 0.111582 0.876323
0.1417 0.110313 0.876351
0.141919 0.108613 0.876754
0.142239 0.106942 0.877131
0.142413 0.105226 0.877547
0.142254 0.103408 0.878049
0.142428 0.10169 0.878466
0.144011 0.100405 0.878515
0.145151 0.0989874 0.878678
0.146198 0.0975426 0.878866
0.147144 0.0960689 0.879079
0.147326 0.0943557 0.879492
0.147316 0.092581 0.879957
0.147297 0.0908012 0.880424
0.147058 0.0889495 0.880949
0.147004 0.0871543 0.881427
0.147307 0.0854736 0.88181
0.134098 0.193674 0.857797
0.13424 0.192001 0.858208
0.134533 0.190359 0.858583
0.1351 0.188775 0.858893
0.135647 0.187188 0.859208
0.135761 0.185507 0.859626
0.135547 0.183752 0.860123
0.135088 0.181942 0.860679
0.134799 0.180166 0.861195
0.134661 0.178421 0.861675
0.134449 0.176657 0.862174
0.134237 0.174892 0.862674
0.133838 0.173081 0.863219
0.133112 0.171191 0.863844
0.13249 0.169321 0.864446
0.131915 0.167459 0.865037
0.131595 0.165653 0.865566
0.13135 0.163863 0.866078
0.130881 0.162016 0.866646
0.130048 0.160078 0.867303
0.12887 0.158051 0.868047
0.12745 0.155959 0.868851
0.126332 0.153934 0.869584
0.125485 0.151972 0.87025
0.124817 0.15005 0.870873
0.124365 0.148179 0.871444
0.12437 0.146421 0.871902
0.12405 0.144577 0.872441
0.124481 0.119866 0.878812
0.127122 0.118831 0.878601
0.129511 0.117733 0.878453
0.132194 0.116725 0.878227
0.13494 0.115744 0.877982
0.13724 0.114642 0.877851
0.139095 0.113416 0.877833
0.140903 0.112182 0.877826
0.142691 0.110946 0.877822
0.143444 0.109407 0.878087
0.144124 0.107846 0.87837
0.144804 0.106286 0.878654
0.144986 0.104576 0.879067
0.145536 0.102977 0.879384
0.146868 0.10162 0.879495
0.148016 0.10021 0.879654
0.148823 0.0986946 0.879903
0.149547 0.0971554 0.880172
0.149618 0.0954111 0.880615
0.149708 0.0936721 0.881052
0.149725 0.0919075 0.88151
0.149834 0.0901715 0.881943
0.149944 0.0884335 0.882376
0.150255 0.0867603 0.882756
0.14248 0.0821136 0.883556
0.150383 0.0850277 0.883185
0.138231 0.194897 0.85851
0.137947 0.193141 0.859021
0.137946 0.191443 0.859465
0.138059 0.189768 0.859882
0.138153 0.188088 0.860304
0.137919 0.186335 0.860806
0.137562 0.184553 0.861337
0.136868 0.182694 0.861951
0.136362 0.180873 0.862521
0.135886 0.179055 0.863083
0.135542 0.177263 0.863615
0.135011 0.175426 0.864193
0.134528 0.173597 0.86476
0.133792 0.171706 0.86539
0.133161 0.169835 0.865995
0.132484 0.16795 0.866613
0.132144 0.166141 0.867148
0.131694 0.164302 0.867712
0.130888 0.162375 0.868364
0.129831 0.160382 0.869079
0.128402 0.158293 0.869888
0.126862 0.156171 0.870727
0.125735 0.154143 0.871464
0.125113 0.152236 0.872077
0.12467 0.15037 0.872647
0.124349 0.148531 0.873187
0.124336 0.146768 0.87365
0.120028 0.143902 0.875192
0.125664 0.120549 0.880261
0.127971 0.11942 0.880132
0.1301 0.118246 0.880047
0.132653 0.117201 0.879851
0.135518 0.116255 0.879571
0.13815 0.115249 0.87935
0.14042 0.114145 0.879221
0.142457 0.112979 0.879151
0.144253 0.111748 0.879142
0.145421 0.110335 0.879297
0.146321 0.108843 0.879522
0.147073 0.107309 0.879784
0.147512 0.10568 0.88013
0.148172 0.104119 0.880416
0.149154 0.102658 0.880618
0.149941 0.101139 0.88087
0.150508 0.099552 0.88118
0.151011 0.0979465 0.881508
0.151211 0.0962446 0.881916
0.151419 0.0945456 0.882322
0.151656 0.0928543 0.882721
0.152003 0.091197 0.88309
0.152231 0.0895015 0.883492
0.152441 0.0877993 0.883898
0.152431 0.0860247 0.884364
0.145385 0.0816086 0.884988
0.152431 0.0842503 0.884828
0.133239 0.209131 0.855706
0.13256 0.210691 0.855424
0.133231 0.211187 0.856958
0.134156 0.209675 0.857182
0.135299 0.208206 0.857355
0.140328 0.202085 0.856245
0.140178 0.204104 0.857523
0.141696 0.202723 0.857603
0.142532 0.201208 0.857845
0.142251 0.19778 0.858795
0.141635 0.195965 0.859384
0.141322 0.194209 0.859903
0.141235 0.192499 0.860367
0.140913 0.190736 0.860888
0.140639 0.188982 0.861399
0.14014 0.187176 0.861964
0.139463 0.185328 0.862574
0.138553 0.183424 0.863242
0.137934 0.181581 0.86384
0.137214 0.17971 0.864464
0.136663 0.177875 0.865047
0.135907 0.175988 0.865681
0.135311 0.174135 0.866277
0.134576 0.172245 0.866909
0.133869 0.170358 0.867534
0.133183 0.168472 0.868156
0.132816 0.166657 0.8687
0.132243 0.16479 0.869295
0.131195 0.162805 0.870009
0.130008 0.160782 0.87076
0.128346 0.158637 0.87163
0.126694 0.156487 0.8725
0.125484 0.154439 0.873262
0.124882 0.152536 0.873872
0.12456 0.150699 0.874413
0.124361 0.14889 0.874924
0.121189 0.146324 0.876185
0.113047 0.142473 0.878706
0.129254 0.120131 0.881548
0.130929 0.118829 0.881578
0.133314 0.117736 0.881421
0.136206 0.116797 0.88113
0.139059 0.115855 0.880847
0.141439 0.114784 0.880686
0.143567 0.113646 0.880588
0.145252 0.112382 0.880606
0.146816 0.111088 0.880655
0.147946 0.109667 0.880817
0.149056 0.108243 0.880984
0.149936 0.106751 0.881211
0.150714 0.105231 0.881465
0.151382 0.103677 0.881748
0.15204 0.102121 0.882034
0.152487 0.1005 0.882375
0.152713 0.0988103 0.882776
0.152912 0.0971121 0.883184
0.153121 0.0954148 0.883589
0.153375 0.0937311 0.883983
0.153722 0.0920776 0.884352
0.153958 0.090387 0.884751
0.154048 0.0886484 0.88519
0.153809 0.0868013 0.885718
0.153561 0.0849502 0.886249
0.126705 0.212019 0.859752
0.134224 0.211744 0.858415
0.135338 0.210269 0.858593
0.136613 0.208826 0.858733
0.136696 0.20679 0.857466
0.138085 0.207426 0.858824
0.138358 0.205428 0.857514
0.139698 0.206057 0.858881
0.141471 0.204723 0.858899
0.142893 0.203325 0.858999
0.143766 0.201819 0.85923
0.142519 0.199521 0.858289
0.144215 0.200228 0.859564
0.144447 0.198593 0.85995
0.144217 0.196861 0.860447
0.144157 0.195162 0.860904
0.144126 0.193468 0.861354
0.143775 0.191704 0.861883
0.143284 0.189908 0.862447
0.142568 0.188059 0.863066
0.141571 0.186146 0.863755
0.14034 0.184176 0.864503
0.139402 0.182265 0.86518
0.138465 0.180349 0.865859
0.137689 0.178464 0.866499
0.136802 0.17655 0.867167
0.136206 0.174698 0.867765
0.135471 0.17281 0.868398
0.134774 0.170926 0.869023
0.134097 0.169044 0.869644
0.133627 0.167205 0.870215
0.132915 0.165307 0.870847
0.131633 0.163267 0.871622
0.130194 0.161184 0.872439
0.128215 0.158963 0.873392
0.126453 0.156786 0.874294
0.12515 0.154714 0.875082
0.124558 0.152813 0.875692
0.124255 0.15098 0.87623
0.121335 0.148485 0.877432
0.11484 0.145071 0.879546
0.128889 0.122153 0.882926
0.130416 0.120806 0.882992
0.132174 0.11953 0.882998
0.134521 0.118427 0.882847
0.137329 0.117464 0.882574
0.140189 0.116525 0.882284
0.142577 0.115457 0.882116
0.144595 0.114287 0.882045
0.146177 0.112994 0.882088
0.147731 0.111697 0.882137
0.148961 0.110307 0.882271
0.150292 0.108951 0.882377
0.151402 0.107531 0.882542
0.152308 0.10605 0.88276
0.153076 0.10453 0.883015
0.153724 0.102974 0.883302
0.154161 0.101353 0.883645
0.154387 0.0996654 0.884046
0.154696 0.0980034 0.884424
0.155005 0.0963409 0.884803
0.155231 0.0946519 0.885203
0.155466 0.0929652 0.885602
0.155583 0.0912389 0.886033
0.155453 0.0894317 0.886532
0.155095 0.087548 0.887093
0.154728 0.0856594 0.887657
0.148029 0.0813506 0.888219
0.154381 0.083773 0.888218
0.134718 0.213892 0.859546
0.135747 0.2124 0.859743
0.136974 0.210948 0.859893
0.1382 0.209499 0.860042
0.139633 0.208093 0.86014
0.141076 0.206692 0.860235
0.142743 0.205339 0.860276
0.144108 0.20393 0.860388
0.145019 0.202433 0.860609
0.145731 0.200897 0.860878
0.146113 0.199295 0.861227
0.146231 0.197638 0.86164
0.146454 0.196001 0.862028
0.146648 0.194358 0.862423
0.146202 0.192578 0.862975
0.145598 0.190762 0.863568
0.144881 0.188917 0.864188
0.143686 0.186965 0.864928
0.142164 0.184934 0.865749
0.140972 0.18297 0.866491
0.139801 0.181005 0.86723
0.138696 0.179049 0.867953
0.137725 0.177117 0.868645
0.137204 0.175284 0.869225
0.136572 0.173421 0.869834
0.135885 0.171542 0.870459
0.135227 0.169665 0.871077
0.134654 0.167804 0.871674
0.133614 0.16583 0.87239
0.131912 0.163691 0.873274
0.130128 0.161526 0.874181
0.127898 0.159244 0.875203
0.126006 0.157035 0.876142
0.124695 0.15496 0.876936
0.124206 0.153083 0.877522
0.123997 0.151273 0.878037
0.118283 0.148075 0.879959
0.131893 0.121571 0.884351
0.133557 0.120269 0.884378
0.135672 0.119101 0.884285
0.138469 0.118135 0.88401
0.141338 0.1172 0.883713
0.143623 0.116102 0.883569
0.145529 0.1149 0.883524
0.147083 0.1136 0.883572
0.148526 0.11227 0.883648
0.149875 0.110917 0.883748
0.151316 0.109595 0.883823
0.152655 0.108244 0.883925
0.153671 0.1068 0.884113
0.15454 0.105312 0.884339
0.155289 0.103788 0.884598
0.155826 0.102201 0.884914
0.156069 0.100521 0.885309
0.156368 0.0988593 0.88569
0.156649 0.0971908 0.886075
0.156755 0.095466 0.886508
0.156881 0.0937456 0.886937
0.156878 0.0919837 0.887401
0.156537 0.0901107 0.887958
0.15606 0.0881895 0.888553
0.155474 0.0862298 0.889179
0.154798 0.0842366 0.889831
0.154043 0.0818868 0.888776
0.15414 0.0822457 0.890479
0.147797 0.0780292 0.890959
0.15311 0.0801261 0.891231
0.12791 0.214685 0.862426
0.136108 0.214521 0.860903
0.137344 0.21307 0.861049
0.138901 0.211683 0.861117
0.14024 0.210257 0.861237
0.141767 0.208872 0.86131
0.143085 0.207449 0.861433
0.144516 0.206052 0.861528
0.145653 0.2046 0.861693
0.146544 0.203101 0.861917
0.147171 0.20155 0.862206
0.147571 0.199953 0.86255
0.147793 0.19832 0.862938
0.148024 0.196687 0.863324
0.148124 0.195027 0.863742
0.147894 0.193295 0.864242
0.147421 0.191509 0.864803
0.14693 0.189716 0.865369
0.145725 0.187765 0.866113
0.144175 0.185733 0.866944
0.142729 0.183716 0.867751
0.141323 0.181702 0.86855
0.1399 0.179677 0.869356
0.138919 0.177746 0.870052
0.138314 0.175895 0.870655
0.13771 0.17404 0.871259
0.137023 0.172163 0.871884
0.136252 0.170262 0.872532
0.135464 0.168352 0.873186
0.134201 0.166326 0.873961
0.132051 0.164082 0.874962
0.130016 0.161856 0.875937
0.12774 0.159563 0.876976
0.12584 0.157353 0.877921
0.124529 0.155278 0.878718
0.124134 0.153424 0.879282
0.121233 0.150941 0.88049
0.133553 0.122386 0.885657
0.135068 0.121044 0.885721
0.137081 0.119848 0.885651
0.139738 0.118844 0.885408
0.142486 0.117873 0.885139
0.144641 0.116739 0.885026
0.146435 0.115505 0.885008
0.147961 0.114197 0.885061
0.149293 0.112835 0.885165
0.150651 0.111485 0.885262
0.15211 0.110168 0.88533
0.153567 0.108855 0.885397
0.154574 0.107408 0.885586
0.155451 0.105923 0.885809
0.156291 0.104429 0.886042
0.156948 0.10288 0.886325
0.157402 0.101268 0.886663
0.157829 0.0996476 0.887008
0.158127 0.0979862 0.887388
0.158114 0.0962261 0.887855
0.158111 0.0944669 0.888318
0.157989 0.0926685 0.888815
0.157548 0.0907651 0.889401
0.15697 0.0888127 0.890026
0.156265 0.0868157 0.890686
0.15547 0.0847854 0.891373
0.154585 0.0827186 0.892086
0.153373 0.0805393 0.892892
0.127797 0.216733 0.863709
0.13592 0.216538 0.862195
0.137592 0.215166 0.862234
0.138941 0.213738 0.862351
0.140601 0.212372 0.862391
0.142033 0.210967 0.862486
0.143455 0.209563 0.862582
0.144659 0.208121 0.862731
0.146061 0.20672 0.86283
0.146952 0.20522 0.863054
0.14771 0.203696 0.86331
0.148242 0.202127 0.863621
0.148652 0.200534 0.863962
0.148883 0.198904 0.864348
0.149217 0.197294 0.864708
0.149335 0.195639 0.865122
0.149322 0.193955 0.865569
0.149074 0.19222 0.866075
0.148808 0.190478 0.866586
0.147547 0.188518 0.867346
0.145874 0.186462 0.868211
0.144185 0.184395 0.869082
0.142526 0.182327 0.869947
0.140803 0.180237 0.870831
0.139935 0.178333 0.871501
0.139452 0.176511 0.872075
0.138866 0.174663 0.872675
0.138188 0.172789 0.8733
0.137287 0.17086 0.873983
0.136247 0.168893 0.874703
0.13475 0.166813 0.87554
0.132442 0.164533 0.876587
0.13037 0.162299 0.877575
0.128095 0.160008 0.878619
0.126224 0.157805 0.879561
0.124933 0.155736 0.880356
0.124547 0.153884 0.880919
0.118667 0.150661 0.882903
0.135813 0.12337 0.886798
