ply
format ascii 1.0
element vertex 1684
property float x
property float y
property float z
end_header
0.203954 -0.115275 0.842457
0.205409 -0.115139 0.841982
0.206651 -0.114874 0.840608
0.207871 -0.114598 0.839156
0.209111 -0.114338 0.837809
0.21029 -0.114043 0.836221
0.211384 -0.113701 0.834308
0.212722 -0.113505 0.83341
0.214103 -0.113335 0.832691
0.215445 -0.113144 0.831826
0.216819 -0.112972 0.831096
0.218317 -0.112872 0.830862
0.219794 -0.11276 0.830547
0.221236 -0.112628 0.830093
0.222724 -0.112522 0.829819
0.224276 -0.112451 0.829794
0.225807 -0.112369 0.829687
0.227296 -0.112262 0.829412
0.228778 -0.112153 0.829115
0.230231 -0.112028 0.828707
0.231706 -0.111914 0.828383
0.233192 -0.111808 0.828104
0.234712 -0.111718 0.827945
0.236203 -0.111613 0.827678
0.237657 -0.111489 0.827279
0.239052 -0.111335 0.826669
0.240526 -0.111222 0.826344
0.242016 -0.111117 0.826077
0.242512 -0.110513 0.822295
0.24224 -0.109532 0.815856
0.241764 -0.108462 0.808777
0.24122 -0.107372 0.801548
0.240679 -0.106297 0.794419
0.24116 -0.10573 0.790874
0.242273 -0.105476 0.789526
0.243337 -0.105198 0.788025
0.244313 -0.104881 0.786241
0.245374 -0.104609 0.784763
0.246427 -0.104333 0.783269
0.247505 -0.104072 0.781876
0.24866 -0.103849 0.780746
0.249895 -0.103663 0.77989
0.251207 -0.103515 0.779288
0.252642 -0.103422 0.779089
0.254085 -0.103333 0.778915
0.25556 -0.103259 0.778843
0.257128 -0.103225 0.77906
0.258625 -0.103159 0.779052
0.260095 -0.103081 0.778953
0.261634 -0.103032 0.77907
0.263101 -0.102953 0.778959
0.26447 -0.102829 0.778541
0.265878 -0.102724 0.778248
0.267361 -0.10265 0.778181
0.268887 -0.102594 0.778244
0.270541 -0.102591 0.77869
0.272302 -0.102632 0.779447
0.274144 -0.102705 0.780434
0.275908 -0.102744 0.781176
0.277569 -0.102738 0.781605
0.279165 -0.102705 0.781835
0.184874 -0.11783 0.863769
0.18641 -0.117725 0.863516
0.187816 -0.117532 0.862645
0.189115 -0.117268 0.861277
0.190291 -0.116923 0.859352
0.191339 -0.116498 0.856861
0.192421 -0.116101 0.854564
0.193567 -0.11575 0.852588
0.194778 -0.115445 0.85093
0.196007 -0.115155 0.84938
0.197274 -0.114892 0.848014
0.198514 -0.114615 0.846546
0.199813 -0.114378 0.845357
0.201095 -0.114132 0.844109
0.202462 -0.113941 0.843244
0.203871 -0.113776 0.842564
0.205303 -0.113627 0.841988
0.206482 -0.113325 0.840347
0.207389 -0.112865 0.837585
0.208323 -0.112427 0.834969
0.209197 -0.111957 0.832142
0.210149 -0.11154 0.829672
0.211394 -0.111296 0.828427
0.212885 -0.111196 0.828192
0.214342 -0.111076 0.827819
0.215915 -0.111021 0.827909
0.217598 -0.111028 0.82843
0.219278 -0.111032 0.828928
0.220878 -0.110989 0.829106
0.222502 -0.110958 0.829364
0.224123 -0.110926 0.829611
0.225705 -0.11087 0.829697
0.227243 -0.110789 0.829608
0.228751 -0.110694 0.829408
0.23023 -0.110582 0.829094
0.231709 -0.110471 0.828784
0.233196 -0.110364 0.828501
0.23471 -0.110271 0.828319
0.2362 -0.110164 0.828047
0.237655 -0.110041 0.82765
0.239081 -0.109902 0.827145
0.240579 -0.1098 0.826904
0.242094 -0.109707 0.826722
0.242205 -0.108916 0.821569
0.241821 -0.107892 0.814739
0.241224 -0.106776 0.807241
0.24062 -0.105669 0.79981
0.240064 -0.1046 0.792636
0.240895 -0.104209 0.790303
0.242055 -0.103977 0.789116
0.243165 -0.103725 0.787773
0.244141 -0.103411 0.785992
0.245177 -0.103128 0.784427
0.246227 -0.102853 0.782927
0.24728 -0.102583 0.781448
0.248409 -0.10235 0.780238
0.249621 -0.102155 0.779307
0.250905 -0.101994 0.778619
0.252313 -0.10189 0.778336
0.253729 -0.101789 0.778078
0.255197 -0.101713 0.777986
0.256761 -0.101677 0.778199
0.258305 -0.101632 0.778343
0.259831 -0.101579 0.778424
0.261452 -0.101565 0.778799
0.262979 -0.10151 0.778874
0.264454 -0.101432 0.778783
0.265912 -0.101348 0.778642
0.267426 -0.101286 0.778667
0.26896 -0.101232 0.778748
0.270615 -0.101229 0.779193
0.272352 -0.101258 0.779878
0.274139 -0.101306 0.7807
0.275873 -0.10133 0.781352
0.277502 -0.10131 0.781688
0.27907 -0.101265 0.781833
0.184781 -0.116301 0.86386
0.186333 -0.116207 0.863685
0.187754 -0.116024 0.862884
0.18907 -0.115772 0.861592
0.190283 -0.115454 0.859836
0.191351 -0.115044 0.857431
0.192458 -0.114666 0.855241
0.193628 -0.114333 0.853369
0.194862 -0.114044 0.851811
0.196077 -0.113746 0.850186
0.197339 -0.113481 0.848792
0.198557 -0.113192 0.847223
0.199837 -0.112942 0.845943
0.201098 -0.112684 0.844594
0.202448 -0.112482 0.843648
0.203552 -0.112134 0.841655
0.204658 -0.111791 0.839699
0.205417 -0.111244 0.836296
0.206009 -0.110607 0.832241
0.206684 -0.110026 0.828581
0.207542 -0.109559 0.825733
0.208621 -0.109225 0.823826
0.209988 -0.109059 0.82312
0.211541 -0.108999 0.823175
0.213089 -0.108936 0.823202
0.214759 -0.10894 0.823712
0.216481 -0.108971 0.824417
0.218217 -0.109008 0.825166
0.220031 -0.109085 0.826203
0.221835 -0.109154 0.827185
0.223626 -0.109214 0.828097
0.225397 -0.10926 0.828916
0.227132 -0.109285 0.829586
0.22867 -0.109204 0.829494
0.230177 -0.109108 0.829288
0.231683 -0.10901 0.829074
0.233193 -0.108914 0.828875
0.234706 -0.10882 0.828687
0.236196 -0.108713 0.828411
0.237654 -0.10859 0.82802
0.239109 -0.108466 0.827621
0.240617 -0.108369 0.82741
0.242136 -0.108278 0.827241
0.241857 -0.107304 0.820701
0.241388 -0.106249 0.813569
0.240692 -0.105098 0.805731
0.240044 -0.103983 0.798154
0.239469 -0.102917 0.790918
0.24067 -0.102706 0.789865
0.241859 -0.102491 0.78878
0.243018 -0.102264 0.787606
0.243999 -0.101954 0.78584
0.245056 -0.101683 0.784348
0.246083 -0.1014 0.782769
0.24711 -0.101119 0.781206
0.248193 -0.100867 0.779843
0.249401 -0.100672 0.778899
0.250635 -0.10049 0.778051
0.252033 -0.100382 0.777738
0.253444 -0.10028 0.777468
0.254885 -0.100191 0.777296
0.256425 -0.100145 0.777433
0.258015 -0.10012 0.777727
0.259593 -0.100088 0.777973
0.261278 -0.100101 0.778549
0.262891 -0.100083 0.778894
0.264474 -0.10005 0.779137
0.265994 -0.0999913 0.779182
0.267536 -0.0999397 0.779291
0.269068 -0.0998844 0.779364
0.270714 -0.0998744 0.779779
0.272423 -0.09989 0.780375
0.274157 -0.0999145 0.781036
0.275842 -0.0999168 0.78154
0.277438 -0.0998829 0.781777
0.186184 -0.114638 0.863506
0.187582 -0.114441 0.862597
0.188902 -0.114193 0.861328
0.190154 -0.113904 0.859754
0.191245 -0.113513 0.857456
0.192416 -0.113179 0.855556
0.193613 -0.112864 0.853804
0.194889 -0.112604 0.852432
0.196123 -0.112319 0.850888
0.197389 -0.112057 0.849503
0.198607 -0.111768 0.847925
0.199896 -0.111525 0.846679
0.200865 -0.111091 0.844054
0.201876 -0.110687 0.841641
0.202616 -0.110126 0.8381
0.203392 -0.109594 0.834759
0.203698 -0.108792 0.829471
0.205871 -0.107172 0.819248
0.207054 -0.106906 0.817817
0.208539 -0.106814 0.817634
0.210138 -0.106786 0.817914
0.211759 -0.106767 0.818272
0.21347 -0.106798 0.818982
0.215229 -0.106853 0.819866
0.217015 -0.10692 0.820842
0.218903 -0.107039 0.822197
0.220908 -0.107218 0.823988
0.222921 -0.107396 0.825778
0.224894 -0.10755 0.827388
0.226829 -0.10768 0.828828
0.228562 -0.107702 0.829483
0.230096 -0.107618 0.829376
0.231606 -0.107522 0.829176
0.233119 -0.107427 0.828987
0.234633 -0.107333 0.828802
0.236123 -0.107226 0.828523
0.237584 -0.107104 0.828141
0.239089 -0.107006 0.827923
0.240651 -0.106935 0.827902
0.242226 -0.106869 0.82793
0.241902 -0.105883 0.821223
0.241352 -0.1048 0.813799
0.240561 -0.103616 0.805625
0.239832 -0.102475 0.797761
0.239186 -0.101387 0.790281
0.240421 -0.101194 0.789347
0.241659 -0.101003 0.788432
0.242849 -0.100792 0.787362
0.243857 -0.100497 0.785689
0.24492 -0.100231 0.784216
0.245942 -0.099948 0.78262
0.246967 -0.0996689 0.78105
0.248048 -0.0994178 0.779681
0.249232 -0.0992136 0.778662
0.250485 -0.0990405 0.777873
0.251855 -0.0989207 0.777473
0.253238 -0.0988064 0.777113
0.254656 -0.0987072 0.776866
0.256218 -0.0986698 0.777077
0.257815 -0.0986471 0.777393
0.259444 -0.0986369 0.777803
0.261209 -0.0986826 0.77863
0.262907 -0.0986985 0.779239
0.264554 -0.0986911 0.779677
0.266133 -0.0986555 0.7799
0.267678 -0.0986045 0.780013
0.269205 -0.0985448 0.780065
0.270819 -0.0985216 0.78038
0.272523 -0.0985328 0.780958
0.274232 -0.0985444 0.781539
0.275914 -0.0985435 0.782035
0.277484 -0.0984979 0.782188
0.184523 -0.113191 0.863699
0.18599 -0.11304 0.863115
0.187372 -0.112834 0.862132
0.188703 -0.112596 0.860918
0.189997 -0.112335 0.859541
0.191116 -0.111966 0.857372
0.192335 -0.111665 0.855695
0.193592 -0.111391 0.854213
0.19491 -0.111157 0.853026
0.196168 -0.110888 0.851582
0.197454 -0.11064 0.850286
0.198713 -0.110377 0.84888
0.199997 -0.110132 0.847605
0.200586 -0.109472 0.843307
0.201143 -0.108802 0.838933
0.203413 -0.105291 0.815815
0.204352 -0.104892 0.813389
0.205641 -0.104694 0.812436
0.207225 -0.104662 0.812694
0.208829 -0.104641 0.813029
0.210494 -0.104652 0.8136
0.212241 -0.104704 0.814482
0.214008 -0.104767 0.815434
0.21582 -0.104849 0.816543
0.217763 -0.105 0.818145
0.219904 -0.105251 0.820489
0.222061 -0.105505 0.822863
0.224218 -0.105755 0.825198
0.226332 -0.105976 0.827332
0.228251 -0.106093 0.828702
0.229855 -0.106045 0.828861
0.231433 -0.105985 0.828921
0.232971 -0.105902 0.828825
0.234512 -0.105822 0.828738
0.236002 -0.105714 0.828461
0.237485 -0.105605 0.82816
0.239037 -0.105528 0.828107
0.240653 -0.105482 0.82828
0.242285 -0.105444 0.828507
0.241923 -0.104449 0.821657
0.241295 -0.103341 0.813956
0.240417 -0.102128 0.805473
0.239606 -0.100961 0.79732
0.23891 -0.0998633 0.789665
0.240214 -0.099703 0.788973
0.241504 -0.0995373 0.788238
0.242749 -0.0993518 0.787353
0.243784 -0.0990725 0.785772
0.244826 -0.0987986 0.784224
0.245821 -0.098506 0.782539
0.246842 -0.098227 0.780956
0.2479 -0.0979675 0.779511
0.249087 -0.0977654 0.778501
0.250341 -0.0975948 0.777718
0.251711 -0.0974744 0.777314
0.253094 -0.0973599 0.776956
0.254516 -0.0972626 0.776722
0.256058 -0.0972167 0.77687
0.257673 -0.0972008 0.777246
0.259327 -0.0971996 0.777736
0.261097 -0.097246 0.778579
0.262877 -0.0972935 0.77944
0.264628 -0.0973286 0.780201
0.266267 -0.0973152 0.7806
0.267816 -0.0972652 0.780725
0.269364 -0.0972131 0.780837
0.270925 -0.0971656 0.780986
0.2726 -0.0971637 0.781475
0.274288 -0.097165 0.781991
0.275969 -0.0971627 0.782479
0.277538 -0.0971155 0.782628
0.185775 -0.11143 0.862624
0.187136 -0.11121 0.861539
0.188481 -0.110984 0.860397
0.189815 -0.110752 0.859212
0.190982 -0.110416 0.857267
0.192247 -0.110146 0.8558
0.193547 -0.1099 0.854513
0.194906 -0.109693 0.853509
0.196198 -0.109447 0.852214
0.197518 -0.109219 0.851062
0.198789 -0.108965 0.849703
0.199678 -0.108484 0.846681
0.201903 -0.106317 0.822319
0.199988 -0.104744 0.82114
0.200343 -0.104001 0.816158
0.202597 -0.105766 0.81879
0.201398 -0.103667 0.814187
0.202439 -0.103329 0.812186
0.203534 -0.103023 0.81043
0.204933 -0.102891 0.809951
0.206384 -0.102788 0.809684
0.207811 -0.102671 0.809319
0.209399 -0.102642 0.809608
0.211082 -0.102663 0.810263
0.212835 -0.102719 0.811186
0.214655 -0.102808 0.812356
0.216649 -0.102987 0.814188
0.218867 -0.103278 0.816862
0.221119 -0.103582 0.819627
0.223415 -0.103901 0.822518
0.225695 -0.104206 0.825306
0.227767 -0.104399 0.827262
0.22951 -0.104423 0.827958
0.231187 -0.104411 0.828388
0.232794 -0.104363 0.828553
0.234357 -0.104293 0.828548
0.235868 -0.104197 0.828351
0.237352 -0.104087 0.828052
0.238931 -0.104024 0.828096
0.240575 -0.10399 0.828373
0.242262 -0.103976 0.828794
0.241867 -0.102977 0.821822
0.241192 -0.101859 0.81395
0.240235 -0.100622 0.805185
0.239363 -0.0994414 0.796821
0.238597 -0.098323 0.788925
0.239949 -0.0981863 0.7884
0.241289 -0.098045 0.787837
0.242604 -0.0978918 0.787193
0.243667 -0.0976275 0.785704
0.244706 -0.0973542 0.784149
0.245696 -0.0970612 0.782445
0.246712 -0.0967827 0.780843
0.247751 -0.0965166 0.779335
0.248966 -0.0963276 0.778417
0.250249 -0.0961708 0.777727
0.251622 -0.0960521 0.777337
0.253009 -0.0959397 0.77699
0.254428 -0.0958403 0.776745
0.255968 -0.095793 0.776887
0.257584 -0.095776 0.777264
0.259264 -0.0957846 0.777836
0.261032 -0.0958277 0.778672
0.262837 -0.0958843 0.779611
0.264591 -0.0959177 0.780379
0.266257 -0.0959148 0.780864
0.267835 -0.0958742 0.781074
0.269413 -0.0958341 0.781275
0.271002 -0.0957964 0.781504
0.272709 -0.0958052 0.782084
0.274423 -0.0958148 0.782676
0.276112 -0.0958138 0.783181
0.277708 -0.0957754 0.78341
0.185547 -0.109812 0.862067
0.186884 -0.109579 0.860873
0.188235 -0.109359 0.859762
0.189612 -0.109156 0.858781
0.190829 -0.108855 0.857074
0.192137 -0.108612 0.855802
0.193479 -0.108394 0.85471
0.194864 -0.108204 0.853818
0.196174 -0.10797 0.852603
0.197549 -0.107776 0.851691
0.198837 -0.107532 0.850401
0.199774 -0.105579 0.826798
0.197947 -0.103099 0.819395
0.198484 -0.102464 0.815163
0.199222 -0.101954 0.811849
0.20059 -0.101802 0.811228
0.201915 -0.101628 0.810432
0.203228 -0.101448 0.809591
0.204543 -0.10127 0.808771
0.205942 -0.10114 0.8083
0.207281 -0.100977 0.807588
0.208801 -0.100912 0.807612
0.210376 -0.100876 0.807853
0.212021 -0.100876 0.808362
0.213734 -0.10091 0.809128
0.215648 -0.101046 0.810668
0.217807 -0.101306 0.813141
0.22008 -0.101618 0.816012
0.222442 -0.101969 0.819183
0.224852 -0.102338 0.822488
0.227117 -0.102627 0.825199
0.229035 -0.102738 0.826563
0.230863 -0.1028 0.827566
0.232589 -0.102812 0.828179
0.234198 -0.102763 0.828344
0.235732 -0.102678 0.828233
0.237217 -0.102569 0.827938
0.238799 -0.102506 0.827994
0.240469 -0.102484 0.828364
0.242209 -0.102494 0.828972
0.242272 -0.101719 0.823621
0.241593 -0.10061 0.81572
0.239665 -0.098171 0.798217
0.238791 -0.0970151 0.789933
0.239682 -0.0966706 0.787817
0.241051 -0.0965424 0.787359
0.242371 -0.0963926 0.786732
0.243476 -0.0961498 0.785388
0.244535 -0.0958869 0.783898
0.245525 -0.0955976 0.782197
0.246565 -0.0953312 0.780675
0.247628 -0.0950772 0.779245
0.248868 -0.0949009 0.778411
0.250181 -0.0947568 0.777817
0.251583 -0.0946501 0.777519
0.252991 -0.0945469 0.777237
0.25441 -0.0944475 0.776992
0.255947 -0.094397 0.777124
0.257539 -0.094369 0.777421
0.259217 -0.0943753 0.777984
0.260961 -0.0944069 0.778747
0.262787 -0.0944698 0.779751
0.264539 -0.0945001 0.78051
0.266233 -0.0945074 0.781083
0.267843 -0.0944786 0.781385
0.269453 -0.0944487 0.781684
0.271073 -0.0944229 0.782004
0.272812 -0.0944414 0.782678
0.274558 -0.0944624 0.783364
0.276254 -0.0944617 0.783888
0.18661 -0.107935 0.860096
0.187984 -0.107731 0.8591
0.189364 -0.107532 0.858142
0.190618 -0.107257 0.856607
0.191961 -0.107038 0.855502
0.193359 -0.106856 0.854664
0.194768 -0.106681 0.853885
0.196137 -0.106482 0.852929
0.197564 -0.106321 0.852247
0.196123 -0.10158 0.818556
0.196933 -0.101105 0.81548
0.197948 -0.100751 0.81332
0.199027 -0.100437 0.811464
0.200365 -0.10027 0.810717
0.201619 -0.100058 0.809626
0.202889 -0.0998563 0.808614
0.204142 -0.0996471 0.807546
0.205495 -0.0994933 0.806892
0.206808 -0.0993182 0.806084
0.208303 -0.0992413 0.80602
0.209878 -0.0992056 0.806269
0.211555 -0.0992228 0.806918
0.213286 -0.0992655 0.807765
0.215095 -0.0993465 0.808907
0.217146 -0.099548 0.810968
0.219304 -0.0997982 0.81341
0.221527 -0.100076 0.816065
0.22389 -0.10042 0.819216
0.22629 -0.100774 0.822459
0.22839 -0.100973 0.824528
0.230371 -0.101111 0.826118
0.232247 -0.101194 0.827293
0.233927 -0.10118 0.82773
0.235509 -0.101118 0.827794
0.237017 -0.10102 0.827587
0.238624 -0.100968 0.827736
0.240341 -0.100968 0.828276
0.241642 -0.100773 0.827319
0.241637 -0.0999755 0.821732
0.24091 -0.0988592 0.813671
0.240623 -0.0993807 0.806895
0.239933 -0.0976418 0.804829
0.238943 -0.0964346 0.796049
0.238527 -0.0954993 0.789361
0.239452 -0.0951726 0.787364
0.24087 -0.0950671 0.787073
0.242215 -0.094929 0.786533
0.243347 -0.0946994 0.785279
0.244408 -0.0944404 0.7838
0.245402 -0.0941541 0.78211
0.246445 -0.0938918 0.780598
0.247509 -0.0936404 0.779172
0.248774 -0.0934753 0.778416
0.250111 -0.0933413 0.777901
0.251518 -0.0932364 0.777615
0.252927 -0.0931337 0.777339
0.254364 -0.0930414 0.77715
0.2559 -0.0929905 0.777276
0.257471 -0.0929522 0.777507
0.259151 -0.0929579 0.778079
0.260865 -0.0929751 0.778744
0.262662 -0.093024 0.779657
0.264387 -0.0930426 0.780333
0.266108 -0.0930579 0.780987
0.267774 -0.0930506 0.781463
0.269492 -0.0930627 0.78209
0.271175 -0.0930589 0.7826
0.272994 -0.0931069 0.783514
0.274801 -0.0931483 0.784375
0.276503 -0.0931476 0.784908
0.187823 -0.106162 0.858866
0.189202 -0.105963 0.857903
0.190472 -0.1057 0.856445
0.191826 -0.10549 0.85539
0.19325 -0.105324 0.854673
0.19467 -0.105156 0.85394
0.196066 -0.104974 0.853107
0.195082 -0.0995748 0.814494
0.196407 -0.0993979 0.813665
0.197495 -0.0990893 0.81183
0.198837 -0.0989252 0.811097
0.200154 -0.0987482 0.810265
0.201404 -0.0985353 0.809162
0.202654 -0.0983248 0.808071
0.203888 -0.0981061 0.806922
0.205216 -0.09794 0.806175
0.20653 -0.0977675 0.805373
0.207985 -0.0976696 0.80515
0.209535 -0.0976215 0.80531
0.211205 -0.0976347 0.805937
0.212927 -0.097671 0.806754
0.214731 -0.0977474 0.807881
0.216648 -0.0978786 0.809429
0.218655 -0.0980516 0.811298
0.220716 -0.0982461 0.813347
0.222972 -0.0985327 0.816108
0.225307 -0.0988521 0.819125
0.227576 -0.0991336 0.821852
0.229732 -0.0993539 0.824117
0.231805 -0.0995312 0.826038
0.233632 -0.0995863 0.827023
0.23531 -0.0995702 0.827447
0.236867 -0.0994949 0.827419
0.238474 -0.0994426 0.827567
0.240167 -0.0994296 0.828019
0.240941 -0.0989946 0.825183
0.240847 -0.0981683 0.819291
0.240072 -0.0970444 0.811073
0.239165 -0.0958751 0.802487
0.238176 -0.0946837 0.793721
0.238287 -0.0939948 0.788869
0.239246 -0.0936867 0.786991
0.240691 -0.093593 0.786796
0.242061 -0.0934666 0.786342
0.243216 -0.0932483 0.785165
0.244305 -0.0930034 0.783778
0.24533 -0.0927323 0.782189
0.246403 -0.0924843 0.780777
0.247467 -0.0922341 0.779348
0.248774 -0.0920879 0.77873
0.250089 -0.0919453 0.778141
0.251497 -0.0918412 0.777857
0.252908 -0.0917382 0.777584
0.254368 -0.0916553 0.777469
0.255862 -0.0915854 0.777458
0.257431 -0.0915466 0.777683
0.259086 -0.0915396 0.778171
0.260749 -0.0915349 0.778676
0.262517 -0.0915708 0.7795
0.264239 -0.0915871 0.780168
0.265986 -0.091611 0.780906
0.267735 -0.0916344 0.781635
0.269567 -0.0916879 0.782606
0.27134 -0.091717 0.783387
0.273221 -0.091786 0.78448
0.275056 -0.0918343 0.785418
0.276727 -0.0918206 0.785861
0.190316 -0.104137 0.856234
0.191684 -0.103937 0.855249
0.193121 -0.103779 0.854587
0.194544 -0.103614 0.85387
0.19306 -0.0979494 0.812742
0.194482 -0.0978298 0.812347
0.195914 -0.0977149 0.811994
0.197295 -0.0975718 0.81142
0.1986 -0.0973881 0.810533
0.199913 -0.0972102 0.809688
0.20116 -0.0969983 0.808574
0.202408 -0.0967881 0.807478
0.203658 -0.0965799 0.806399
0.204988 -0.0964169 0.805663
0.206322 -0.0962554 0.804946
0.207758 -0.0961486 0.804651
0.209285 -0.0960873 0.804715
0.210926 -0.0960845 0.805234
0.212623 -0.0961076 0.805959
0.214387 -0.0961627 0.806934
0.216214 -0.0962465 0.808138
0.218143 -0.0963782 0.809713
0.220069 -0.096505 0.811255
0.222213 -0.0967334 0.813602
0.224465 -0.0970098 0.816325
0.226816 -0.0973284 0.819381
0.229075 -0.0975958 0.822046
0.231323 -0.0978529 0.824632
0.233305 -0.0979814 0.8262
0.235107 -0.0980209 0.827082
0.236716 -0.0979698 0.827243
0.238322 -0.0979166 0.827392
0.239965 -0.0978804 0.827668
0.240635 -0.0974012 0.824454
0.240461 -0.0965495 0.818284
0.239578 -0.0953916 0.809684
0.23869 -0.094246 0.80117
0.237818 -0.0931212 0.792818
0.238028 -0.0924835 0.788313
0.239007 -0.0921867 0.786503
0.240476 -0.0921039 0.786392
0.24187 -0.0919889 0.786026
0.243075 -0.0917931 0.785018
0.244214 -0.0915708 0.783799
0.245287 -0.0913229 0.782368
0.246386 -0.0910874 0.781041
0.247474 -0.0908486 0.779688
0.248782 -0.0907031 0.779072
0.250095 -0.0905592 0.778474
0.251504 -0.090455 0.77819
0.252916 -0.0903529 0.777918
0.25438 -0.090271 0.777814
0.255875 -0.0902011 0.777801
0.257423 -0.0901514 0.777957
0.259046 -0.0901311 0.778346
0.260679 -0.0901136 0.778757
0.262419 -0.0901363 0.779493
0.264142 -0.0901506 0.780162
0.265943 -0.090194 0.781065
0.267777 -0.0902482 0.782055
0.269705 -0.0903351 0.783316
0.271595 -0.090406 0.784446
0.273541 -0.0904951 0.785727
0.275399 -0.0905504 0.786732
0.277068 -0.0905331 0.787156
0.193086 -0.0965569 0.813315
0.194497 -0.0964306 0.812866
0.195893 -0.0962954 0.812353
0.197211 -0.0961179 0.811511
0.198495 -0.0959246 0.810531
0.199785 -0.0957347 0.809587
0.200994 -0.0955036 0.808314
0.202223 -0.0952848 0.80714
0.203491 -0.0950883 0.806137
0.204824 -0.0949265 0.805411
0.206158 -0.0947667 0.804699
0.207595 -0.0946607 0.804407
0.209118 -0.0945973 0.80446
0.210717 -0.0945715 0.804809
0.212391 -0.094582 0.805445
0.214134 -0.0946257 0.806341
0.215919 -0.0946869 0.807385
0.217776 -0.094781 0.808691
0.219622 -0.0948661 0.809931
0.221634 -0.0950289 0.811784
0.223777 -0.0952501 0.814104
0.226089 -0.095546 0.817031
0.228391 -0.0958311 0.819873
0.230742 -0.0961334 0.822856
0.232877 -0.09633 0.825
0.234809 -0.0964299 0.826369
0.236516 -0.0964232 0.826895
0.238147 -0.0963807 0.827131
0.239782 -0.096339 0.827379
0.240391 -0.0958389 0.82395
0.240196 -0.0949873 0.817704
0.239324 -0.0938487 0.809145
0.238483 -0.0927378 0.800795
0.237684 -0.0916582 0.792695
0.237988 -0.0910688 0.788512
0.239003 -0.0907893 0.786827
0.240451 -0.0906969 0.78664
0.241824 -0.0905732 0.7862
0.24303 -0.0903791 0.785195
0.244193 -0.090168 0.784053
0.245294 -0.0899331 0.782714
0.246444 -0.0897201 0.781554
0.247561 -0.0894941 0.780294
0.248871 -0.0893486 0.779677
0.250157 -0.0891944 0.778988
0.251542 -0.0890811 0.778625
0.252906 -0.0889586 0.778195
0.254373 -0.0888774 0.778095
0.255842 -0.0887965 0.778001
0.257362 -0.0887348 0.778065
0.258956 -0.0887026 0.778362
0.260608 -0.088691 0.77883
0.262348 -0.0887117 0.779567
0.2641 -0.088736 0.780327
0.265981 -0.0888076 0.781476
0.267903 -0.0888915 0.78273
0.269897 -0.0890006 0.784191
0.271856 -0.0890934 0.785524
0.273833 -0.0891914 0.786896
0.275667 -0.0892338 0.787819
0.277304 -0.0892032 0.788144
0.193132 -0.0951742 0.813979
0.194508 -0.0950275 0.813371
0.195861 -0.0948686 0.812667
0.197146 -0.0946739 0.811677
0.198405 -0.0944673 0.810589
0.199673 -0.0942677 0.809554
0.200848 -0.0940203 0.808136
0.202077 -0.0938026 0.806961
0.203345 -0.0936077 0.805962
0.204677 -0.0934464 0.80523
0.206014 -0.0932894 0.804532
0.207452 -0.0931831 0.804243
0.208954 -0.0931096 0.804213
0.210549 -0.0930802 0.804546
0.21222 -0.0930892 0.805176
0.213982 -0.0931389 0.806147
0.215771 -0.0932006 0.80721
0.217604 -0.0932806 0.808421
0.219384 -0.0933326 0.80941
0.221275 -0.0934336 0.810805
0.22327 -0.0935819 0.812573
0.225496 -0.0938337 0.815182
0.227787 -0.0941104 0.817996
0.230186 -0.0944318 0.821175
0.232446 -0.0946823 0.82379
0.234505 -0.0948377 0.825634
0.236314 -0.0948758 0.826533
0.23797 -0.094844 0.826867
0.239577 -0.09479 0.827012
0.240126 -0.0942687 0.823371
0.239793 -0.0933674 0.816636
0.239133 -0.0923349 0.808828
0.238129 -0.0911673 0.799905
0.237211 -0.0900507 0.791391
0.237877 -0.089622 0.788467
0.238993 -0.0893878 0.787129
0.240454 -0.0893006 0.786986
0.241852 -0.089187 0.786625
0.243104 -0.0890125 0.785775
0.244293 -0.0888131 0.784716
0.245423 -0.088591 0.78347
0.246577 -0.0883803 0.782317
0.247699 -0.0881582 0.781066
0.24901 -0.0880137 0.780448
0.250275 -0.0878508 0.779686
0.251632 -0.0877248 0.779225
0.252967 -0.0875907 0.778698
0.254406 -0.0874983 0.778506
0.255849 -0.087407 0.778326
0.257366 -0.0873439 0.778382
0.25896 -0.0873091 0.778673
0.260614 -0.087297 0.779148
0.262359 -0.0873177 0.779895
0.264115 -0.0873408 0.780669
0.266054 -0.0874311 0.781991
0.268037 -0.0875353 0.783434
0.270116 -0.0876719 0.785147
0.272133 -0.0877827 0.78665
0.274139 -0.0878874 0.788101
0.275947 -0.0879178 0.788945
0.277584 -0.0878849 0.789261
0.191827 -0.0939489 0.81537
0.193188 -0.0937932 0.814684
0.194523 -0.0936241 0.813892
0.195841 -0.0934467 0.813033
0.197084 -0.0932307 0.811859
0.198301 -0.0930035 0.810591
0.199568 -0.0928044 0.809548
0.200762 -0.0925685 0.80821
0.202012 -0.0923636 0.807123
0.203301 -0.0921801 0.806205
0.204632 -0.0920189 0.805471
0.20595 -0.0918516 0.80469
0.207368 -0.0917351 0.804317
0.208849 -0.0916505 0.804202
0.210402 -0.0916009 0.804368
0.21207 -0.0916059 0.804987
0.213811 -0.0916441 0.805879
0.215601 -0.0917036 0.806946
0.217398 -0.0917641 0.808019
0.219174 -0.0918123 0.808995
0.220997 -0.0918797 0.810132
0.222916 -0.0919897 0.811619
0.225062 -0.0922012 0.813933
0.227336 -0.0924656 0.816695
0.229729 -0.0927796 0.819859
0.232041 -0.0930496 0.822675
0.234198 -0.0932465 0.824886
0.236063 -0.0933081 0.825994
0.237746 -0.0932881 0.826428
0.239305 -0.0932122 0.826406
0.240338 -0.0929067 0.824497
0.240397 -0.0921847 0.819146
0.237631 -0.0888243 0.7932
0.238007 -0.0882768 0.78926
0.239007 -0.0879952 0.787514
0.240455 -0.087902 0.787323
0.241863 -0.0877924 0.786997
0.243139 -0.0876285 0.786221
0.244354 -0.0874406 0.785248
0.245535 -0.0872401 0.784168
0.246743 -0.0870512 0.783188
0.247892 -0.0868407 0.782021
0.249202 -0.0866958 0.781394
0.250462 -0.0865306 0.780609
0.251769 -0.086385 0.779982
0.253054 -0.0862321 0.779289
0.25446 -0.0861253 0.778987
0.255875 -0.086023 0.778714
0.257373 -0.0859516 0.778703
0.258948 -0.0859082 0.778934
0.260605 -0.0858963 0.779417
0.262353 -0.0859153 0.780172
0.264138 -0.0859486 0.781034
0.266134 -0.0860565 0.782531
0.268197 -0.0861863 0.784216
0.270311 -0.086331 0.78603
0.272378 -0.0864573 0.787683
0.274381 -0.0865562 0.789121
0.276189 -0.0865843 0.789955
0.277855 -0.0865597 0.790355
0.190442 -0.0926791 0.816423
0.191819 -0.092531 0.815802
0.19316 -0.0923647 0.815023
0.194506 -0.092202 0.814274
0.195765 -0.0919941 0.813157
0.196988 -0.0917692 0.811894
0.198202 -0.0915412 0.810612
0.199491 -0.0913547 0.80966
0.200705 -0.0911308 0.808408
0.201999 -0.0909486 0.807496
0.203327 -0.0907859 0.80674
0.20466 -0.0906253 0.806009
0.205976 -0.090458 0.805214
0.207372 -0.09033 0.804748
0.20883 -0.0902333 0.804537
0.21034 -0.0901616 0.804531
0.211984 -0.0901535 0.805054
0.213686 -0.0901716 0.80579
0.215455 -0.0902188 0.806775
0.217229 -0.0902666 0.807762
0.219003 -0.0903115 0.80873
0.220825 -0.0903769 0.809869
0.222744 -0.0904832 0.811352
0.22482 -0.0906593 0.813409
0.227085 -0.0909148 0.816137
0.229426 -0.0911998 0.819112
0.231712 -0.0914544 0.82184
0.233872 -0.091649 0.824068
0.235783 -0.0917292 0.825351
0.237492 -0.0917191 0.825882
0.239069 -0.0916515 0.825929
0.240591 -0.0915582 0.825771
0.241095 -0.0910329 0.821992
0.240025 -0.0912851 0.812334
0.238934 -0.0900925 0.803082
0.23993 -0.089087 0.806931
0.238124 -0.0869227 0.790005
0.239002 -0.0865939 0.787837
0.240432 -0.0864922 0.787582
0.24185 -0.0863862 0.787284
0.243197 -0.0862514 0.786749
0.244443 -0.086077 0.785873
0.245653 -0.0858883 0.784887
0.246888 -0.0857111 0.783991
0.248057 -0.0855092 0.782885
0.249344 -0.085355 0.782179
0.250606 -0.0851915 0.781395
0.251888 -0.0850363 0.78068
0.253144 -0.0848711 0.779886
0.254522 -0.0847542 0.779492
0.255914 -0.0846415 0.779142
0.257388 -0.0845609 0.779054
0.258968 -0.0845183 0.779297
0.260627 -0.0845051 0.779783
0.262374 -0.0845225 0.780534
0.264181 -0.0845609 0.781463
0.266231 -0.0846853 0.783124
0.26833 -0.0848238 0.784913
0.270449 -0.084967 0.786745
0.272543 -0.0850977 0.788472
0.274546 -0.0851948 0.789907
0.276354 -0.0852193 0.790735
0.278053 -0.0852053 0.791228
0.190406 -0.0912448 0.816736
0.191795 -0.0911039 0.816162
0.193142 -0.0909398 0.815403
0.194499 -0.0907833 0.814702
0.195742 -0.0905685 0.813508
0.196964 -0.0903446 0.812244
0.19818 -0.0901184 0.810962
0.199472 -0.0899338 0.810023
0.200712 -0.0897238 0.808869
0.202033 -0.0895563 0.80807
0.203388 -0.0894061 0.807417
0.204725 -0.0892486 0.806695
0.206038 -0.0890794 0.805885
0.207407 -0.0889386 0.805306
0.208821 -0.0888205 0.804914
0.210328 -0.088746 0.804893
0.211975 -0.0887375 0.805421
0.213672 -0.0887511 0.806138
0.215418 -0.0887849 0.807032
0.217183 -0.0888267 0.807982
0.218935 -0.0888588 0.808862
0.220758 -0.0889221 0.810003
0.222666 -0.0890209 0.811445
0.2247 -0.0891734 0.813343
0.226938 -0.0894122 0.815972
0.229226 -0.0896686 0.818752
0.231461 -0.089896 0.821294
0.233594 -0.0900747 0.823427
0.235522 -0.0901605 0.824776
0.237254 -0.0901591 0.825395
0.238843 -0.0900961 0.825485
0.240379 -0.09001 0.825383
0.241342 -0.0896818 0.823236
0.239017 -0.0851982 0.788225
0.240434 -0.0850915 0.787921
0.241849 -0.0849833 0.787613
0.243225 -0.0848603 0.787173
0.244521 -0.0847064 0.786466
0.245762 -0.0845311 0.785578
0.247024 -0.0843653 0.784768
0.248219 -0.0841734 0.783741
0.249506 -0.0840186 0.783028
0.250768 -0.0838556 0.782238
0.252053 -0.0837017 0.781528
0.253291 -0.0835299 0.78067
0.254643 -0.0834027 0.780186
0.256007 -0.0832799 0.779744
0.257458 -0.0831891 0.779578
0.259012 -0.0831366 0.779738
0.260692 -0.0831289 0.780287
0.262459 -0.0831518 0.781099
0.264295 -0.0831978 0.782112
0.266376 -0.0833291 0.783866
0.268511 -0.0834762 0.78576
0.270638 -0.0836178 0.787609
0.272734 -0.0837459 0.789343
0.274762 -0.0838469 0.790845
0.276659 -0.0838999 0.791936
0.278507 -0.0839349 0.792866
0.191739 -0.0896572 0.816379
0.193064 -0.0894829 0.815522
0.194412 -0.0893218 0.814778
0.195659 -0.0891102 0.813605
0.19692 -0.0889075 0.8125
0.19814 -0.0886856 0.811237
0.199456 -0.0885131 0.810395
0.200739 -0.0883255 0.809421
0.202064 -0.0881601 0.808631
0.203427 -0.0880144 0.808007
0.204767 -0.0878582 0.807293
0.206081 -0.0876892 0.806479
0.207428 -0.0875379 0.805807
0.208819 -0.0874086 0.805318
0.210325 -0.0873327 0.805289
0.211971 -0.0873224 0.805814
0.213651 -0.0873251 0.806457
0.215391 -0.0873548 0.807327
0.21715 -0.0873908 0.808251
0.218878 -0.0874106 0.809038
0.220658 -0.0874518 0.810012
0.222552 -0.0875418 0.811404
0.224552 -0.0876751 0.813172
0.226881 -0.0879493 0.816147
0.229235 -0.0882287 0.819168
0.23142 -0.0884296 0.821524
0.233464 -0.0885661 0.823327
0.235312 -0.088615 0.824389
0.237023 -0.0886041 0.824933
0.238596 -0.0885336 0.824969
0.240135 -0.0884478 0.824877
0.238955 -0.0837709 0.788349
0.24042 -0.0836823 0.78821
0.241871 -0.0835896 0.788022
0.243318 -0.0834934 0.787818
0.244645 -0.083351 0.787208
0.245916 -0.0831883 0.786417
0.247179 -0.0830225 0.785604
0.248374 -0.0828317 0.784573
0.249639 -0.0826685 0.783782
0.250905 -0.0825067 0.782999
0.252197 -0.0823561 0.782308
0.25346 -0.0821936 0.781525
0.254817 -0.0820681 0.781055
0.25618 -0.0819442 0.780601
0.257648 -0.0818597 0.780486
0.2592 -0.0818044 0.780631
0.260834 -0.0817776 0.781032
0.262604 -0.0817992 0.781847
0.264466 -0.0818514 0.782936
0.26653 -0.0819734 0.784635
0.268673 -0.0821186 0.786551
0.270826 -0.0822654 0.788477
0.272924 -0.0823896 0.790209
0.275009 -0.0825067 0.791878
0.277056 -0.082608 0.793416
0.279068 -0.0826949 0.794827
0.191654 -0.0881946 0.816469
0.192956 -0.0880103 0.815512
0.194302 -0.0878482 0.814756
0.195576 -0.0876514 0.813696
0.196857 -0.0874603 0.812682
0.198085 -0.0872431 0.811447
0.199439 -0.0870907 0.810764
0.200781 -0.0869323 0.810034
0.202127 -0.0867773 0.809325
0.203531 -0.086651 0.808867
0.204893 -0.0865049 0.808236
0.20621 -0.0863384 0.807425
0.20752 -0.0861688 0.806594
0.208909 -0.0860384 0.806093
0.210398 -0.0859527 0.805988
0.212028 -0.085933 0.806443
0.213673 -0.085918 0.806947
0.215412 -0.0859446 0.807807
0.217106 -0.0859493 0.808479
0.21878 -0.0859433 0.809058
0.220533 -0.0859701 0.809927
0.222442 -0.0860636 0.811375
0.224437 -0.0861915 0.813125
0.226811 -0.0864798 0.816269
0.229181 -0.0867602 0.819351
0.231328 -0.0869409 0.821568
0.233295 -0.0870403 0.823085
0.235089 -0.0870649 0.823949
0.236775 -0.0870422 0.824407
0.238317 -0.0869582 0.824332
0.239905 -0.0868933 0.824421
0.239067 -0.0824113 0.789077
0.240539 -0.0823251 0.788954
0.241994 -0.0822318 0.788773
0.243447 -0.082138 0.788586
0.244777 -0.081997 0.787981
0.24605 -0.0818349 0.787192
0.247316 -0.0816698 0.786383
0.248509 -0.0814797 0.785342
0.249774 -0.0813168 0.784544
0.251066 -0.0811649 0.783842
0.252386 -0.0810239 0.783235
0.253658 -0.0808652 0.782476
0.255018 -0.0807403 0.782007
0.256352 -0.0806055 0.781458
0.257795 -0.0805106 0.781255
0.259299 -0.0804376 0.781247
0.260938 -0.0804109 0.781657
0.262711 -0.0804308 0.782479
0.264629 -0.0805 0.783738
0.266699 -0.0806197 0.785451
0.268867 -0.0807704 0.787442
0.271047 -0.0809207 0.78944
0.273193 -0.0810572 0.791314
0.275345 -0.0811935 0.793184
0.27755 -0.0813435 0.795184
0.279703 -0.0814733 0.797011
0.192842 -0.0865338 0.815476
0.194182 -0.0863698 0.814693
0.195499 -0.0861961 0.813819
0.196834 -0.0860316 0.813033
0.198105 -0.085837 0.811976
0.199467 -0.0856884 0.811319
0.200845 -0.085548 0.810736
0.202189 -0.0853917 0.810015
0.203594 -0.0852657 0.809554
0.204976 -0.0851289 0.809003
0.206337 -0.0849822 0.808366
0.207651 -0.0848147 0.807543
0.209024 -0.0846763 0.806967
0.210509 -0.0845888 0.806845
0.2121 -0.0845484 0.807136
0.21369 -0.0845076 0.807418
0.215392 -0.0845152 0.80813
0.217086 -0.0845173 0.808797
0.218728 -0.0844947 0.809252
0.220476 -0.0845181 0.8101
0.22238 -0.0846063 0.811529
0.231274 -0.0854666 0.82175
0.233149 -0.0855253 0.82293
0.234917 -0.0855371 0.823697
0.236585 -0.085506 0.824089
0.238126 -0.0854217 0.824017
0.240778 -0.0810109 0.790111
0.242242 -0.0809194 0.789954
0.243712 -0.0808312 0.789815
0.245042 -0.0806896 0.789203
0.246314 -0.0805263 0.788402
0.247554 -0.0803529 0.7875
0.248748 -0.0801631 0.786453
0.250013 -0.0799997 0.785649
0.251282 -0.0798397 0.784864
0.252604 -0.0796986 0.784255
0.2539 -0.0795493 0.78357
0.255239 -0.0794158 0.783026
0.256554 -0.0792738 0.782409
0.25802 -0.0791867 0.782274
0.259527 -0.0791124 0.782268
0.261172 -0.0790864 0.782692
0.262975 -0.0791144 0.783603
0.264921 -0.0791894 0.784942
0.266971 -0.0792981 0.786586
0.26909 -0.0794266 0.788419
0.27124 -0.0795632 0.790322
0.273391 -0.0796978 0.792207
0.275608 -0.0798502 0.794265
0.277915 -0.0800301 0.796571
0.280228 -0.080208 0.798867
0.284875 -0.0826027 0.807775
0.28246 -0.0803554 0.800889
0.192666 -0.0850255 0.815163
0.194006 -0.0848633 0.814381
0.195374 -0.0847148 0.81373
0.196742 -0.0845679 0.813085
0.19805 -0.0843924 0.812188
0.199434 -0.0842552 0.811625
0.200853 -0.0841342 0.811209
0.202202 -0.0839805 0.810505
0.203608 -0.0838543 0.810045
0.205013 -0.0837276 0.809578
0.206396 -0.0835925 0.809029
0.207714 -0.0834271 0.808216
0.209089 -0.0832883 0.807644
0.210549 -0.0831885 0.807414
0.212093 -0.0831265 0.807516
0.213641 -0.0830645 0.80763
0.2153 -0.083052 0.808174
0.216996 -0.0830536 0.808847
0.218657 -0.0830381 0.809372
0.234802 -0.0840327 0.823654
0.241328 -0.0798097 0.792337
0.242765 -0.0797069 0.792073
0.244166 -0.0795906 0.791687
0.245532 -0.0794613 0.791185
0.246728 -0.0792705 0.790117
0.247901 -0.0790711 0.788979
0.249093 -0.0788803 0.787918
0.25036 -0.078718 0.787109
0.251631 -0.0785581 0.78632
0.252929 -0.0784081 0.785627
0.254248 -0.0782668 0.785007
0.255565 -0.0781249 0.784384
0.256879 -0.0779827 0.783754
0.258348 -0.0778943 0.783622
0.259859 -0.0778205 0.783619
0.261484 -0.0777854 0.783973
0.26329 -0.0778112 0.784885
0.26524 -0.0778836 0.78623
0.26724 -0.0779714 0.787711
0.269306 -0.0780785 0.789378
0.193838 -0.0833608 0.814108
0.195253 -0.0832368 0.813663
0.197075 -0.0833084 0.814968
0.198777 -0.0833197 0.815737
0.200552 -0.0833639 0.816803
0.202027 -0.0832643 0.816583
0.203373 -0.083105 0.815827
0.204383 -0.0827919 0.813686
0.205406 -0.0824882 0.811621
0.206388 -0.0821684 0.809417
0.207707 -0.0820047 0.808606
0.209091 -0.0818701 0.808067
0.210525 -0.081758 0.80773
0.212026 -0.0816763 0.807657
0.213532 -0.0815958 0.807606
0.215176 -0.0815751 0.80809
0.242041 -0.0786627 0.795126
0.243402 -0.0785293 0.794583
0.244678 -0.0783651 0.793759
0.246013 -0.0782235 0.793139
0.247129 -0.0780026 0.79179
0.248254 -0.0777865 0.790481
0.249453 -0.0775983 0.789432
0.250746 -0.0774451 0.788701
0.252042 -0.0772936 0.787984
0.25334 -0.0771433 0.78728
0.25466 -0.0770016 0.78665
0.255977 -0.0768583 0.786017
0.257294 -0.0767168 0.785388
0.258765 -0.0766274 0.785252
0.260279 -0.0765534 0.785248
0.261881 -0.0765081 0.785522
0.263638 -0.0765148 0.786272
0.265535 -0.0765662 0.787445
0.267481 -0.0766313 0.788752
0.269493 -0.0767164 0.790247
0.187787 -0.0898652 0.864554
0.186296 -0.0899988 0.865045
0.186236 -0.0884759 0.865299
0.187705 -0.0883307 0.864699
0.189194 -0.0881961 0.864195
0.19896 -0.0827767 0.823531
0.200242 -0.082581 0.822442
0.201702 -0.0824697 0.822121
0.202852 -0.0822156 0.820496
0.203834 -0.0818869 0.818189
0.204725 -0.0815211 0.815533
0.205616 -0.0811588 0.812916
0.206456 -0.0807778 0.810119
0.207771 -0.0806117 0.809287
0.209142 -0.080471 0.808686
0.210543 -0.0803449 0.808213
0.211981 -0.0802345 0.80789
0.213426 -0.0801273 0.807591
0.215006 -0.0800781 0.807826
0.243819 -0.0772627 0.796346
0.245059 -0.0770846 0.795387
0.246369 -0.0769339 0.794672
0.247456 -0.0767031 0.793213
0.248558 -0.0764791 0.791818
0.249785 -0.0763015 0.790854
0.251105 -0.0761569 0.790204
0.252409 -0.0760079 0.789502
0.253735 -0.0758671 0.788881
0.255084 -0.0757347 0.788337
0.256403 -0.0755917 0.787698
0.257725 -0.0754504 0.787075
0.259196 -0.0753607 0.786928
0.260712 -0.0752846 0.786923
0.262315 -0.0752378 0.787187
0.264021 -0.0752242 0.787768
0.265857 -0.0752525 0.788745
0.267745 -0.0752959 0.789866
0.269702 -0.0753594 0.791184
0.186096 -0.0869091 0.865169
0.187563 -0.086763 0.864554
0.189046 -0.0866253 0.864026
0.190658 -0.0880477 0.863574
0.19049 -0.0864682 0.863312
0.192028 -0.0878531 0.862524
0.191865 -0.0862774 0.862289
0.193438 -0.0876802 0.861672
0.193273 -0.0861044 0.861426
0.194877 -0.0875232 0.860962
0.194672 -0.0859287 0.860535
0.196045 -0.08574 0.859532
0.244112 -0.0759444 0.797684
0.245333 -0.0757605 0.796651
0.246626 -0.075603 0.795872
0.247714 -0.0753734 0.794407
0.248844 -0.0751606 0.793101
0.250125 -0.0750022 0.792305
0.251478 -0.0748681 0.791752
0.252811 -0.0747291 0.79114
0.254147 -0.0745904 0.790537
0.255502 -0.0744589 0.790003
0.256851 -0.0743259 0.789453
0.258199 -0.0741931 0.7889
0.259678 -0.0741039 0.788767
0.261221 -0.0740358 0.788839
0.262803 -0.0739798 0.789023
0.264455 -0.0739455 0.789426
0.266261 -0.0739599 0.790297
0.268141 -0.0739977 0.791388
0.270053 -0.0740431 0.792557
0.187445 -0.0852086 0.864533
0.188918 -0.0850661 0.863951
0.190332 -0.0848947 0.8631
0.191707 -0.0847051 0.862075
0.193118 -0.084535 0.861225
0.194517 -0.0843593 0.860335
0.195875 -0.0841641 0.859262
0.197222 -0.0839667 0.858157
0.243254 -0.0748325 0.800317
0.244369 -0.0746096 0.798901
0.245552 -0.0744122 0.79773
0.246814 -0.074244 0.79684
0.247865 -0.0740033 0.795246
0.248982 -0.0737866 0.793889
0.250314 -0.0736451 0.793256
0.251696 -0.0735219 0.792794
0.253082 -0.0733996 0.792346
0.254472 -0.073279 0.791913
0.255856 -0.0731571 0.791463
0.257236 -0.0730338 0.791004
0.25864 -0.0729181 0.790621
0.260127 -0.0728302 0.790504
0.261702 -0.0727702 0.790663
0.263264 -0.0727059 0.79078
0.264916 -0.0726693 0.791171
0.2667 -0.0726744 0.791963
0.26856 -0.0727014 0.79298
0.270452 -0.0727367 0.794082
0.188751 -0.0834871 0.863694
0.190148 -0.0833081 0.862762
0.191514 -0.0831157 0.861697
0.192917 -0.082943 0.860816
0.194327 -0.0827743 0.859975
0.195717 -0.0825964 0.859052
0.197115 -0.0824239 0.858176
0.198585 -0.0837781 0.857133
0.198499 -0.0822458 0.857246
0.199967 -0.083599 0.856206
0.199895 -0.0820742 0.856375
0.200884 -0.0832025 0.85324
0.201331 -0.0819226 0.855695
0.201859 -0.0828384 0.850567
0.202805 -0.0817896 0.855184
0.202876 -0.0824977 0.848111
0.20428 -0.0816561 0.854681
0.20394 -0.0821824 0.845894
0.205747 -0.081521 0.854148
0.229854 -0.0804265 0.84199
0.228421 -0.0790797 0.842986
0.229875 -0.0789473 0.842476
0.231318 -0.0788103 0.841926
0.245075 -0.0793724 0.839505
0.243587 -0.0779992 0.840255
0.245035 -0.0778659 0.839735
0.24423 -0.073132 0.798767
0.245462 -0.0729535 0.79776
0.246744 -0.0727927 0.796935
0.247875 -0.072581 0.795609
0.249019 -0.0723757 0.794339
0.250404 -0.0722523 0.793879
0.251791 -0.0721299 0.793429
0.253204 -0.0720171 0.793066
0.254666 -0.0719195 0.792864
0.25608 -0.0718064 0.792506
0.257516 -0.0717012 0.792218
0.259 -0.0716116 0.792084
0.260547 -0.0715407 0.792149
0.262157 -0.0714906 0.79241
0.263771 -0.0714407 0.792678
0.265459 -0.0714131 0.79317
0.267277 -0.0714254 0.79406
0.269152 -0.0714531 0.795112
0.271053 -0.0714877 0.796229
0.289567 -0.0752555 0.823476
0.287758 -0.0737838 0.823137
0.286642 -0.0728987 0.815063
0.285508 -0.0734794 0.806735
0.285616 -0.0720505 0.807344
0.189936 -0.0817089 0.86229
0.191319 -0.0815261 0.861307
0.19273 -0.0813583 0.860466
0.194152 -0.0811962 0.859682
0.195569 -0.0810324 0.858884
0.197007 -0.0808805 0.858189
0.198399 -0.0807069 0.85729
0.199808 -0.0805423 0.856482
0.20124 -0.0803895 0.85578
0.202699 -0.0802488 0.855202
0.204139 -0.0801012 0.854549
0.205587 -0.0799566 0.853935
0.207152 -0.0813571 0.853353
0.206995 -0.0797958 0.85315
0.208548 -0.0811906 0.852528
0.208392 -0.0796309 0.85233
0.20996 -0.0810323 0.851778
0.209789 -0.0794668 0.851516
0.211389 -0.0808829 0.851105
0.211226 -0.0793213 0.850881
0.212745 -0.0792106 0.850586
0.227021 -0.0792346 0.843708
0.225741 -0.0779476 0.845323
0.22698 -0.0777296 0.843964
0.228369 -0.0775712 0.843197
0.229803 -0.0774304 0.842608
0.231229 -0.0772878 0.841992
0.232837 -0.0787043 0.841667
0.232745 -0.0771798 0.84172
0.234467 -0.0786399 0.841822
0.234375 -0.0771145 0.841874
0.235988 -0.0785337 0.841563
0.235929 -0.0770211 0.841739
0.237557 -0.0784455 0.841486
0.237521 -0.076941 0.841743
0.239141 -0.0768698 0.841844
0.242098 -0.0781177 0.840628
0.240701 -0.0767778 0.841725
0.242071 -0.076615 0.840911
0.243533 -0.0764867 0.840437
0.244959 -0.0763459 0.83984
0.246478 -0.0762385 0.839572
0.243972 -0.0716144 0.798221
0.245292 -0.0714668 0.797521
0.246627 -0.0713249 0.796872
0.247873 -0.071154 0.795933
0.249101 -0.0709779 0.794941
0.250536 -0.0708713 0.794644
0.251926 -0.0707496 0.794196
0.253342 -0.0706362 0.793839
0.254807 -0.07054 0.793643
0.256298 -0.0704516 0.793528
0.257818 -0.0703713 0.793505
0.259393 -0.0703089 0.793656
0.260999 -0.0702562 0.793899
0.26269 -0.0702284 0.794407
0.264311 -0.0701785 0.794683
0.266061 -0.0701675 0.795358
0.267948 -0.070197 0.796448
0.269841 -0.0702267 0.797542
0.271743 -0.0702587 0.798652
0.275962 -0.072442 0.806534
0.273797 -0.070333 0.800207
0.282122 -0.0706419 0.806557
0.284059 -0.070671 0.807666
0.285879 -0.070664 0.80841
0.19267 -0.0806764 0.868135
0.19347 -0.0802135 0.864406
0.194443 -0.0798376 0.861528
0.195506 -0.0795088 0.859104
0.196967 -0.0793669 0.858509
0.198363 -0.0791967 0.857629
0.199774 -0.0790329 0.856823
0.201183 -0.0788702 0.856017
0.202637 -0.0787275 0.855413
0.204031 -0.0785599 0.854559
0.205439 -0.0783993 0.853769
0.206819 -0.078226 0.852866
0.208196 -0.078054 0.851961
0.2096 -0.077894 0.851182
0.211072 -0.0777631 0.85069
0.21259 -0.0776524 0.850393
0.214263 -0.0790998 0.85029
0.214109 -0.0775424 0.850101
0.215781 -0.0789891 0.849995
0.215651 -0.0774415 0.849907
0.2173 -0.0788783 0.8497
0.21717 -0.0773308 0.849612
0.218818 -0.0787676 0.849404
0.218688 -0.07722 0.849317
0.220297 -0.0786406 0.848952
0.220178 -0.0770975 0.848908
0.221696 -0.0784815 0.848183
0.221579 -0.0769408 0.848146
0.223081 -0.0783168 0.847363
0.222968 -0.0767786 0.847343
0.224418 -0.0781348 0.846364
0.224315 -0.0766015 0.846382
0.225654 -0.0764223 0.845401
0.226984 -0.0762405 0.844392
0.228394 -0.0760898 0.8437
0.229831 -0.075951 0.843122
0.231267 -0.0758117 0.842537
0.232782 -0.0757032 0.842258
0.234346 -0.0756127 0.84216
0.235901 -0.075518 0.842028
0.237507 -0.0754427 0.842083
0.23913 -0.0753726 0.842193
0.240708 -0.0752855 0.842135
0.242173 -0.075158 0.841663
0.243645 -0.0750329 0.841221
0.245057 -0.074886 0.840564
0.246551 -0.0747693 0.840203
0.247933 -0.076108 0.839079
0.248017 -0.0746428 0.839745
0.249652 -0.0760712 0.839515
0.250214 -0.0747696 0.841854
0.246502 -0.0704416 0.801971
0.247525 -0.070194 0.800245
0.248699 -0.0699983 0.799038
0.249207 -0.0695851 0.795624
0.250721 -0.0695034 0.795584
0.25219 -0.0694067 0.79539
0.253683 -0.069318 0.795278
0.2552 -0.0692368 0.795241
0.256701 -0.0691503 0.795148
0.258234 -0.0690729 0.795159
0.259846 -0.0690207 0.795418
0.261488 -0.0689758 0.795765
0.263213 -0.0689571 0.796372
0.264866 -0.0689142 0.796737
0.266702 -0.0689256 0.797668
0.268631 -0.0689651 0.79888
0.270532 -0.0689928 0.799982
0.272439 -0.0690213 0.801093
0.274458 -0.0690819 0.802528
0.275886 -0.0704161 0.801847
0.276434 -0.0691269 0.803816
0.277975 -0.0704965 0.803468
0.278466 -0.0691863 0.805251
0.280106 -0.0705868 0.805196
0.280518 -0.0692492 0.806733
0.282455 -0.069277 0.807847
0.284368 -0.069296 0.808875
0.286192 -0.0692875 0.809623
0.1951 -0.0794698 0.872475
0.195547 -0.0788487 0.867117
0.196204 -0.0783328 0.862791
0.19732 -0.0780318 0.860609
0.198409 -0.0777217 0.858333
0.199821 -0.0775591 0.857522
0.201209 -0.0773871 0.856617
0.20262 -0.0772254 0.855825
0.203989 -0.077047 0.854853
0.205352 -0.0768671 0.853866
0.206706 -0.0766846 0.852852
0.208063 -0.0765044 0.85186
0.209467 -0.0763457 0.851078
0.210941 -0.0762159 0.850597
0.21246 -0.0761058 0.850307
0.213981 -0.0759962 0.850022
0.215522 -0.0758949 0.84982
0.21704 -0.0757841 0.849524
0.218558 -0.0756734 0.849229
0.220055 -0.0755537 0.848848
0.221457 -0.0753976 0.84809
0.222847 -0.0752371 0.847291
0.224229 -0.0750737 0.846467
0.225596 -0.0749068 0.845591
0.226943 -0.0747326 0.844648
0.228377 -0.0745913 0.844048
0.22983 -0.0744589 0.843523
0.231267 -0.0743202 0.842943
0.232781 -0.0742104 0.842654
0.234348 -0.0741201 0.842565
0.235918 -0.0740311 0.842484
0.237557 -0.0739659 0.842656
0.239201 -0.0739026 0.84284
0.240799 -0.0738218 0.84285
0.242318 -0.0737129 0.842572
0.243773 -0.0735806 0.842059
0.245142 -0.0734198 0.841244
0.246592 -0.0732874 0.840724
0.248435 -0.07329 0.841593
0.250969 -0.073526 0.844871
0.250185 -0.0684702 0.799219
0.250998 -0.0681623 0.79683
0.252529 -0.0680844 0.796834
0.25408 -0.0680129 0.796903
0.255627 -0.067939 0.796953
0.257154 -0.0678586 0.796938
0.258716 -0.0677888 0.797029
0.260365 -0.0677453 0.797394
0.262064 -0.067716 0.797914
0.26382 -0.067703 0.798602
0.265504 -0.0676671 0.799055
0.267373 -0.0676862 0.800078
0.269311 -0.0677233 0.801303
0.271168 -0.0677347 0.802255
0.273046 -0.067751 0.803263
0.275008 -0.0677896 0.804512
0.276903 -0.0678072 0.80554
0.278907 -0.0678547 0.806883
0.280962 -0.0679146 0.808362
0.282907 -0.0679407 0.809492
0.284828 -0.0679591 0.810537
0.286685 -0.0679582 0.811377
0.196949 -0.0771648 0.8667
0.1977 -0.0767004 0.862828
0.198455 -0.0762437 0.859038
0.199889 -0.0760916 0.858319
0.201281 -0.0759206 0.857425
0.202672 -0.0757516 0.856534
0.204016 -0.0755632 0.855448
0.205353 -0.0753723 0.854346
0.206664 -0.0751727 0.853144
0.207998 -0.0749838 0.852049
0.209378 -0.074815 0.851167
0.210828 -0.0746764 0.850582
0.212329 -0.0745585 0.850214
0.21385 -0.0744488 0.849932
0.215392 -0.0743473 0.849732
0.21691 -0.0742366 0.849437
0.218428 -0.0741258 0.849141
0.219947 -0.0740151 0.848846
0.221372 -0.0738683 0.848182
0.222787 -0.0737189 0.847479
0.224171 -0.073557 0.846661
0.225559 -0.0733985 0.845865
0.226908 -0.0732257 0.844927
0.228348 -0.0730869 0.844345
0.229808 -0.0729572 0.843848
0.231295 -0.0728372 0.843451
0.232833 -0.072736 0.843252
0.234423 -0.0726528 0.843245
0.23604 -0.0725796 0.843334
0.23771 -0.0725244 0.843613
0.239361 -0.0724614 0.843817
0.240967 -0.0723825 0.843848
0.242538 -0.0722903 0.843752
0.244023 -0.0721685 0.843339
0.245425 -0.0720183 0.842633
0.247176 -0.0719875 0.843173
0.249443 -0.0721289 0.845525
0.252365 -0.0724865 0.850143
0.252845 -0.0673091 0.803294
0.253653 -0.0670017 0.800871
0.254548 -0.0667238 0.798764
0.256151 -0.0666649 0.798984
0.257704 -0.066591 0.799039
0.259314 -0.0665337 0.799273
0.26096 -0.0664867 0.799616
0.262665 -0.0664568 0.80014
0.264403 -0.0664352 0.800761
0.266117 -0.066405 0.801295
0.267963 -0.0664131 0.802234
0.269879 -0.0664402 0.803375
0.271709 -0.0664403 0.804237
0.273583 -0.0664517 0.805217
0.275471 -0.0664658 0.806231
0.277341 -0.0664728 0.807172
0.279351 -0.0665182 0.808524
0.281412 -0.066576 0.810014
0.283394 -0.0666091 0.811246
0.285348 -0.0666326 0.812377
0.287212 -0.0666305 0.813227
0.196819 -0.0812897 0.904146
0.195492 -0.0799675 0.90633
0.197106 -0.0798549 0.906066
0.196847 -0.0804392 0.896428
0.197774 -0.0793094 0.901345
0.197966 -0.0761033 0.871851
0.198373 -0.07549 0.866382
0.198815 -0.0749004 0.861151
0.199983 -0.0746321 0.859231
0.201358 -0.0744546 0.858253
0.202728 -0.074276 0.857266
0.204032 -0.0740718 0.855999
0.205343 -0.0738714 0.854778
0.206612 -0.0736546 0.853389
0.20792 -0.0734564 0.852183
0.209277 -0.0732789 0.851198
0.210724 -0.0731401 0.850603
0.212221 -0.0730205 0.850219
0.213744 -0.0729114 0.849941
0.215285 -0.0728099 0.849741
0.216803 -0.0726983 0.849444
0.21832 -0.0725871 0.849142
0.219817 -0.0724685 0.848758
0.221266 -0.0723311 0.848188
