ply
format ascii 1.0
element vertex 1697
property float x
property float y
property float z
end_header
0.0920817 0.0909624 0.684359
0.0945755 0.0916162 0.681444
0.0919462 0.0916463 0.673082
0.0932742 0.0920658 0.672595
0.0957143 0.0918387 0.678992
0.0946119 0.092497 0.672219
0.0968734 0.0920872 0.676813
0.0959933 0.0929721 0.672274
0.0279999 0.0744429 0.717169
0.0294248 0.0748838 0.716532
0.0308543 0.0753435 0.716137
0.0322753 0.0757829 0.71549
0.0337089 0.0762595 0.715311
0.0351417 0.0767365 0.715128
0.036576 0.0772163 0.714994
0.0380249 0.0777316 0.715283
0.0394713 0.0782388 0.715472
0.0409067 0.0787216 0.715365
0.0423368 0.0791931 0.71513
0.0437833 0.0796999 0.715306
0.0609539 0.0837864 0.690332
0.062319 0.0842113 0.689751
0.0636657 0.0846113 0.688916
0.0650559 0.0850756 0.688768
0.0664563 0.0855555 0.688779
0.0678469 0.0860205 0.688643
0.069249 0.0865016 0.688675
0.0706589 0.0869926 0.688809
0.0720422 0.0874488 0.68858
0.0733929 0.0878628 0.687927
0.0747395 0.0882757 0.687256
0.076061 0.0886571 0.686285
0.0773645 0.089021 0.685135
0.0786438 0.0893574 0.683729
0.07994 0.0897179 0.682576
0.0812206 0.0900634 0.681283
0.0824905 0.0904001 0.679913
0.0837538 0.0907323 0.678517
0.0850197 0.0910696 0.677191
0.0862841 0.09141 0.675899
0.0875794 0.0917861 0.674975
0.0888815 0.092173 0.674156
0.0906275 0.0912383 0.673681
0.0901974 0.0925753 0.673501
0.0915249 0.092992 0.672987
0.0928615 0.0934187 0.672577
0.0941997 0.0938492 0.672198
0.0955814 0.0943247 0.672251
0.0984366 0.0945127 0.682446
0.0969823 0.0948201 0.672485
0.0261082 0.0754182 0.717888
0.0275434 0.0758847 0.717562
0.0289721 0.0763345 0.717028
0.0303954 0.0767706 0.716343
0.0318141 0.0771982 0.715567
0.033242 0.0776579 0.715176
0.0346579 0.0780879 0.714442
0.0360822 0.0785438 0.714022
0.0375221 0.0790388 0.714076
0.0389627 0.0795367 0.71415
0.0403963 0.0800181 0.714031
0.0418426 0.0805261 0.714229
0.0432929 0.0810413 0.71451
0.0447189 0.0815061 0.714204
0.0466024 0.0805664 0.713961
0.0461454 0.081974 0.713933
0.0480267 0.081033 0.713675
0.0475678 0.0824345 0.713583
0.0494457 0.0814893 0.713287
0.0489809 0.0828788 0.713062
0.0508468 0.0819167 0.712567
0.0503812 0.0833021 0.712308
0.0619256 0.08565 0.690416
0.0632742 0.08605 0.689578
0.0646721 0.086523 0.68952
0.066039 0.0869521 0.689005
0.067432 0.087419 0.688888
0.0688342 0.0878994 0.688905
0.0702377 0.0883816 0.688939
0.0716078 0.0888182 0.688517
0.0729379 0.0892053 0.687586
0.0742701 0.0895962 0.686716
0.0755774 0.0899597 0.685567
0.0768809 0.0903198 0.684409
0.0781609 0.0906553 0.683013
0.0794647 0.091024 0.681951
0.0807535 0.0913764 0.68075
0.0820377 0.091727 0.679539
0.083304 0.0920589 0.678165
0.084578 0.0924038 0.676925
0.0858505 0.0927498 0.675709
0.0871536 0.0931329 0.674861
0.0884581 0.0935201 0.674057
0.0897834 0.0939312 0.673493
0.0911139 0.09435 0.673001
0.0924513 0.094777 0.672591
0.093791 0.0952069 0.672216
0.0951726 0.0956822 0.672261
0.0965657 0.0961688 0.672413
0.0994353 0.09638 0.682639
0.0979525 0.0966496 0.672502
0.0242214 0.0764365 0.719094
0.0256422 0.0768394 0.717981
0.0270733 0.0772872 0.717436
0.028501 0.07773 0.716828
0.0299247 0.0781635 0.716125
0.0313433 0.0785879 0.71532
0.0327686 0.0790385 0.714828
0.034185 0.0794665 0.714087
0.0356065 0.0799138 0.713573
0.0370398 0.080393 0.713438
0.0384765 0.0808824 0.713414
0.0399102 0.0813636 0.713304
0.041356 0.0818733 0.713511
0.0428127 0.0824036 0.713959
0.044245 0.0828817 0.713802
0.0456786 0.0833624 0.713685
0.0471041 0.0838275 0.713393
0.0485222 0.0842799 0.712962
0.0499275 0.0847106 0.712296
0.0513592 0.0851914 0.712191
0.0630464 0.0877384 0.692797
0.0643832 0.0881139 0.691722
0.0657087 0.0884786 0.690532
0.0670829 0.0889154 0.690097
0.0684606 0.0893587 0.689732
0.0698394 0.0898037 0.689391
0.0711959 0.0902213 0.688769
0.0725202 0.0905972 0.68774
0.0738337 0.0909609 0.686608
0.0751346 0.0913127 0.685364
0.0764315 0.0916623 0.684114
0.0777067 0.0919886 0.682646
0.079006 0.0923491 0.681523
0.0803021 0.0927084 0.680403
0.0815956 0.0930671 0.67929
0.0828767 0.0934141 0.678074
0.0841611 0.093768 0.676938
0.0854424 0.0941212 0.675805
0.0867459 0.0945028 0.67495
0.0880589 0.0948962 0.67422
0.0893866 0.0953086 0.67367
0.0907202 0.0957295 0.673197
0.09206 0.0961574 0.6728
0.0934004 0.0965873 0.672421
0.0947665 0.0970444 0.672303
0.0961423 0.0975136 0.672285
0.0975272 0.0979914 0.672351
0.100424 0.098237 0.682715
0.0989203 0.0984775 0.672491
0.0223232 0.0774382 0.720056
0.023751 0.0778491 0.719057
0.0251748 0.0782575 0.718028
0.0266054 0.0786988 0.717412
0.0280373 0.079151 0.716927
0.0294623 0.0795852 0.716235
0.0308825 0.0800105 0.715447
0.0323093 0.0804606 0.714959
0.033727 0.0808895 0.714229
0.0351441 0.0813206 0.713539
0.036575 0.081792 0.713313
0.0380086 0.0822731 0.713189
0.0394391 0.0827448 0.712977
0.040886 0.0832568 0.71321
0.0423423 0.0837877 0.71365
0.0437793 0.0842742 0.713594
0.045221 0.0847723 0.713658
0.046656 0.0852549 0.713557
0.0480776 0.0857117 0.713178
0.0494891 0.0861508 0.712611
0.0509303 0.0866474 0.712671
0.0527983 0.085686 0.712234
0.0523758 0.0871514 0.71281
0.0616724 0.089378 0.700355
0.0628783 0.0895344 0.697006
0.0641457 0.089795 0.694751
0.0654217 0.0900777 0.692734
0.066759 0.0904549 0.691696
0.068105 0.0908488 0.69083
0.0694466 0.0912396 0.68994
0.0707862 0.0916302 0.689058
0.0721047 0.0919943 0.687929
0.0734062 0.0923392 0.686622
0.0746949 0.0926708 0.685201
0.0759914 0.0930175 0.683937
0.0772606 0.0933327 0.682381
0.0785545 0.0936835 0.681183
0.0798588 0.0940491 0.680147
0.0811676 0.0944242 0.679203
0.0824517 0.0947729 0.678012
0.0837462 0.0951361 0.676976
0.0850435 0.0955054 0.676007
0.0863567 0.0958957 0.675242
0.0876641 0.0962812 0.674439
0.0890004 0.0967014 0.673965
0.0903419 0.0971287 0.673558
0.0916833 0.0975559 0.67316
0.0930173 0.0979764 0.672702
0.0943826 0.0984335 0.672568
0.0957492 0.0988911 0.672448
0.0971246 0.0993581 0.672417
0.0985011 0.0998264 0.67239
0.100314 0.098964 0.672628
0.099894 0.100312 0.672515
0.0194671 0.0766547 0.72258
0.0175559 0.0776723 0.723696
0.018992 0.0780714 0.722517
0.0208964 0.0770434 0.721274
0.0204231 0.0784591 0.721229
0.0218521 0.0788569 0.720063
0.0232815 0.0792697 0.719093
0.0247098 0.0796879 0.718205
0.0261407 0.0801268 0.717556
0.0275749 0.080583 0.71712
0.0290042 0.0810251 0.716534
0.030429 0.0814587 0.715853
0.0318581 0.0819106 0.71539
0.0332804 0.0823465 0.714747
0.0346962 0.0827695 0.713967
0.0361222 0.0832243 0.713551
0.0375529 0.0836948 0.713312
0.0389804 0.0841583 0.712998
0.0404246 0.0846628 0.71314
0.0418814 0.0851953 0.713588
0.0433263 0.0856986 0.713709
0.0447742 0.0862062 0.713885
0.0462191 0.0867078 0.713986
0.0476442 0.0871686 0.713647
0.0490603 0.087613 0.713139
0.0505025 0.0881095 0.713188
0.0519472 0.0886111 0.713289
0.0533967 0.0891189 0.713461
0.0602743 0.0910475 0.708055
0.0614603 0.0911416 0.704068
0.0626656 0.0912826 0.700583
0.0638986 0.091478 0.697687
0.0651284 0.0916788 0.694877
0.0664289 0.0919956 0.693236
0.0677442 0.092339 0.691878
0.0690563 0.0926825 0.690533
0.0703774 0.0930427 0.689367
0.0716849 0.093388 0.688068
0.0729755 0.093714 0.686596
0.0742577 0.0940336 0.685076
0.0755472 0.0943671 0.683705
0.076808 0.0946689 0.682038
0.0781018 0.0950155 0.680824
0.0794069 0.0953813 0.679795
0.0807243 0.0957653 0.678945
0.0820256 0.0961314 0.67794
0.0833369 0.0965125 0.677082
0.0846459 0.096893 0.676228
0.0859612 0.0972833 0.67547
0.0872611 0.097658 0.674572
0.088589 0.0980666 0.673998
0.0899303 0.0984923 0.67358
0.0912731 0.0989205 0.67319
0.0926154 0.0993491 0.672805
0.0939811 0.0998047 0.672664
0.0953374 0.10025 0.672435
0.0966949 0.100698 0.672222
0.0980614 0.101155 0.672105
0.0994563 0.101642 0.672242
0.102387 0.10194 0.682705
0.100879 0.102159 0.672644
0.011779 0.0761054 0.728913
0.00984289 0.0771555 0.730371
0.0113002 0.0775686 0.729302
0.0127511 0.0779453 0.727815
0.0161155 0.0772684 0.724826
0.0141996 0.0783409 0.726572
0.0156406 0.0787085 0.725001
0.0170818 0.0791086 0.723832
0.0185177 0.0794946 0.722521
0.0199501 0.0798825 0.721249
0.0213808 0.0802795 0.720095
0.0228104 0.0806868 0.719073
0.0242391 0.0811016 0.718152
0.0256713 0.0815389 0.717506
0.0271064 0.0819951 0.717072
0.0285394 0.0824468 0.716601
0.0299702 0.0828964 0.716104
0.0314009 0.0833485 0.715646
0.0328274 0.0837918 0.715095
0.034247 0.0842214 0.714389
0.0356711 0.0846664 0.713868
0.0370995 0.0851261 0.713516
0.0385273 0.0855867 0.713177
0.0399685 0.086083 0.71322
0.0414227 0.0866089 0.713583
0.0428726 0.087122 0.713809
0.0443289 0.0876487 0.714172
0.0457852 0.0881719 0.714499
0.0472218 0.088653 0.714376
0.0486455 0.089108 0.713982
0.0500864 0.0895999 0.713971
0.0515236 0.0900831 0.713876
0.0529624 0.09057 0.71382
0.0548555 0.0896441 0.713801
0.0544069 0.0910682 0.713872
0.0563098 0.0901595 0.714039
0.0558385 0.0915423 0.713685
0.0577132 0.0905877 0.713374
0.0572434 0.0919713 0.713037
0.0590705 0.0909406 0.711952
0.0586008 0.0923205 0.711601
0.0598868 0.092556 0.709046
0.0611307 0.0927334 0.705933
0.0623702 0.0929147 0.702901
0.0636029 0.0930994 0.699918
0.0648291 0.093283 0.696968
0.0660962 0.0935397 0.69476
0.0673825 0.0938345 0.692933
0.068671 0.0941369 0.69121
0.0699682 0.0944593 0.689685
0.0712568 0.0947733 0.688103
0.0725347 0.0950772 0.686444
0.0738043 0.0953758 0.684745
0.0750806 0.0956888 0.683198
0.0763407 0.0959854 0.681509
0.0776335 0.0963292 0.680282
0.0789391 0.0966929 0.679252
0.0802576 0.0970771 0.678415
0.0815745 0.0974607 0.677585
0.0829095 0.0978699 0.676992
0.0842364 0.0982701 0.676326
0.0855624 0.0986711 0.675673
0.0868702 0.0990522 0.674844
0.0881961 0.0994569 0.674234
0.0895136 0.0998518 0.673553
0.0908502 0.100272 0.673092
0.0921875 0.100693 0.672648
0.0935535 0.101149 0.672506
0.094909 0.101593 0.672264
0.0962739 0.102049 0.672119
0.0976415 0.102506 0.672004
0.0990542 0.103013 0.672313
0.100491 0.103545 0.672823
0.00789951 0.078219 0.73195
0.00936002 0.0786 0.730485
0.0108178 0.0789948 0.729223
0.0122704 0.0793743 0.727789
0.0137195 0.0797646 0.726493
0.015165 0.0801533 0.725202
0.016609 0.0805585 0.724114
0.0180467 0.0809414 0.722789
0.0194797 0.0813213 0.72144
0.0209107 0.0817111 0.720217
0.0223419 0.0821181 0.719205
0.0237739 0.0825395 0.718374
0.0252097 0.0829858 0.717833
0.0266485 0.0834505 0.717497
0.028085 0.0839098 0.717107
0.0295176 0.0843588 0.716609
0.0309501 0.084811 0.716156
0.0323754 0.085246 0.715508
0.0337938 0.0856657 0.714705
0.0352163 0.086101 0.714086
0.0366393 0.0865436 0.713547
0.0380614 0.0869861 0.713018
0.0394993 0.0874727 0.712959
0.0409497 0.0879901 0.713223
0.0424029 0.0885128 0.713538
0.0438681 0.0890588 0.714101
0.0453378 0.0896118 0.714728
0.046789 0.0901221 0.714903
0.048228 0.0906054 0.7148
0.0496683 0.091092 0.714731
0.0510994 0.0915614 0.714483
0.0525308 0.092031 0.714247
0.0539628 0.0925038 0.71404
0.0553788 0.0929477 0.713547
0.0567808 0.0933676 0.712826
0.0581468 0.0937278 0.711521
0.0594703 0.0940215 0.709568
0.0607574 0.0942622 0.707118
0.0620238 0.094478 0.704454
0.0632648 0.0946641 0.701525
0.064506 0.0948616 0.698736
0.0657531 0.0950778 0.696161
0.0670062 0.0953134 0.693792
0.0682711 0.0955751 0.691695
0.0695432 0.095855 0.68979
0.0708179 0.0961447 0.687998
0.0720824 0.0964253 0.686142
0.0733454 0.0967118 0.684346
0.074616 0.0970122 0.682713
0.0758774 0.0973071 0.681031
0.0771707 0.0976486 0.679803
0.0784773 0.0980125 0.678782
0.0797961 0.0983948 0.677943
0.0811197 0.0987856 0.677188
0.082464 0.0992048 0.676696
0.0838017 0.0996173 0.676145
0.0851373 0.100029 0.675592
0.0864603 0.100426 0.674917
0.0877929 0.100836 0.674365
0.0891195 0.101242 0.67377
0.0904656 0.10167 0.673391
0.0917977 0.102085 0.672885
0.0931568 0.102531 0.672661
0.0945052 0.102966 0.672339
0.0958636 0.103412 0.672119
0.0972331 0.103871 0.672017
0.0986653 0.104401 0.672503
0.100121 0.104954 0.673193
0.103051 0.105275 0.683554
0.101592 0.105522 0.673997
0.00594717 0.0792567 0.733164
0.00741399 0.079661 0.731985
0.00887638 0.0800384 0.730515
0.0103348 0.0804184 0.729099
0.0117896 0.0808112 0.727837
0.013241 0.0812073 0.726627
0.0146904 0.0816105 0.725531
0.0161363 0.0820179 0.724476
0.0175752 0.0823953 0.723104
0.0190101 0.082773 0.72175
0.0204413 0.0831538 0.720435
0.0218743 0.0835595 0.719427
0.0233098 0.0839901 0.718704
0.024749 0.084444 0.718252
0.0261894 0.0849094 0.717924
0.0276275 0.085368 0.717527
0.0290613 0.0858159 0.717018
0.0304951 0.0862674 0.716555
0.0319222 0.0867005 0.715902
0.0333399 0.0871118 0.715017
0.0347637 0.0875463 0.714395
0.0361852 0.0879803 0.713768
0.0376049 0.0884132 0.713138
0.039043 0.0888985 0.713062
0.0404941 0.0894152 0.713317
0.0419516 0.0899467 0.713718
0.0434216 0.0905045 0.714385
0.0448966 0.0910693 0.715117
0.0463503 0.0915834 0.715319
0.0477949 0.0920766 0.715311
0.0492371 0.0925647 0.715251
0.050665 0.0930235 0.7149
0.0520926 0.0934834 0.714562
0.0535204 0.0939441 0.714243
0.054927 0.0943677 0.713554
0.0563195 0.0947688 0.712649
0.0576853 0.095125 0.711322
0.0590204 0.0954337 0.709544
0.0603322 0.0957106 0.707472
0.0616273 0.0959667 0.705231
0.0628917 0.0961808 0.702613
0.064147 0.0963924 0.699986
0.0653843 0.0965842 0.697207
0.0666142 0.0967751 0.694446
0.0678556 0.0969943 0.691973
0.0691032 0.0972305 0.689692
0.0703523 0.0974781 0.687531
0.0716017 0.0977343 0.685466
0.0728585 0.0980068 0.683577
0.074124 0.0982978 0.681876
0.0753944 0.0986016 0.680305
0.076696 0.0989524 0.679177
0.0780034 0.0993145 0.678163
0.0793217 0.0996948 0.677315
0.0806514 0.100093 0.676632
0.0820101 0.10053 0.676304
0.0833575 0.100953 0.67586
0.0847111 0.101386 0.675498
0.0860436 0.101794 0.674922
0.0873864 0.102214 0.674467
0.0887152 0.10262 0.673883
0.0900704 0.103059 0.673591
0.0914023 0.103471 0.673068
0.0927702 0.103926 0.672921
0.0941198 0.10436 0.672597
0.0954726 0.104799 0.672313
0.0968436 0.105261 0.672219
0.0982867 0.105801 0.672795
0.099743 0.106357 0.673485
0.101224 0.106937 0.674378
0.00398774 0.0802968 0.734361
0.00546 0.0807249 0.73348
0.00692904 0.0811327 0.732367
0.00839337 0.0815091 0.730898
0.00985332 0.0818835 0.729428
0.0113094 0.0822659 0.728066
0.0127628 0.0826592 0.726852
0.0142136 0.0830615 0.725752
0.0156611 0.0834675 0.724695
0.0171011 0.0838369 0.723256
0.0185385 0.0842207 0.721982
0.019973 0.0846074 0.720755
0.0214078 0.0850123 0.71975
0.0228449 0.0854425 0.71903
0.0242857 0.0858977 0.718591
0.0257259 0.0863543 0.718175
0.0271648 0.0868124 0.717769
0.0286022 0.087267 0.71734
0.0300374 0.087718 0.716875
0.0314662 0.0881524 0.716238
0.0328882 0.0885704 0.715433
0.0343106 0.0889951 0.714715
0.0357303 0.0894197 0.71399
0.0371483 0.0898427 0.713269
0.0385871 0.0903277 0.713184
0.0400354 0.0908374 0.713354
0.0414939 0.0913695 0.713759
0.0429644 0.0919291 0.714428
0.0444396 0.0924963 0.715163
0.0458938 0.0930084 0.715352
0.047339 0.0935018 0.715341
0.0487783 0.0939821 0.7152
0.0502029 0.0944318 0.714764
0.0516261 0.0948816 0.714329
0.0530482 0.0953311 0.713895
0.0544505 0.0957442 0.713116
0.0558472 0.0961501 0.712275
0.057224 0.0965234 0.71113
0.058576 0.096858 0.70962
0.0599188 0.0971813 0.708029
0.061241 0.097478 0.70619
0.0625289 0.0977235 0.703892
0.0637889 0.0979316 0.70127
0.065021 0.0981057 0.698354
0.0662269 0.098249 0.695182
0.0674447 0.0984226 0.692324
0.0686627 0.0986075 0.689593
0.069887 0.0988121 0.687068
0.071117 0.099034 0.684725
0.0723609 0.0992847 0.682662
0.0736209 0.0995652 0.680891
0.0748996 0.0998774 0.679423
0.0762158 0.100247 0.678482
0.0775236 0.10061 0.677475
0.078842 0.100987 0.676624
0.0801776 0.101392 0.676011
0.0815364 0.101829 0.675687
0.0828846 0.102253 0.675253
0.0842464 0.102697 0.674986
0.0856038 0.103134 0.674677
0.0869589 0.103569 0.67435
0.0882986 0.103987 0.673874
0.0896636 0.104436 0.673673
0.0909953 0.104846 0.673138
0.0923616 0.105299 0.672968
0.0937106 0.105731 0.672629
0.0950639 0.106169 0.672344
0.0964448 0.106641 0.672331
0.0978964 0.107192 0.672985
0.0993465 0.10774 0.673604
0.100827 0.108321 0.674489
0.00497202 0.0822075 0.733932
0.00644313 0.0826094 0.732771
0.00790987 0.082994 0.731414
0.00937136 0.0833468 0.729727
0.0108293 0.0837275 0.728364
0.0122836 0.0841139 0.727074
0.0137369 0.0845226 0.726064
0.0151864 0.0849287 0.725022
0.0166293 0.0853045 0.72367
0.0180692 0.0856879 0.722412
0.0195072 0.0860818 0.72128
0.0209439 0.0864857 0.720273
0.0223827 0.0869143 0.71954
0.0238234 0.0873605 0.719007
0.0252648 0.0878164 0.718581
0.0267032 0.0882654 0.718084
0.0281422 0.0887201 0.717658
0.0295792 0.0891719 0.717205
0.0310122 0.089616 0.716667
0.0324364 0.0900332 0.71587
0.0338628 0.0904662 0.715234
0.0352838 0.0908879 0.71449
0.0367034 0.0913099 0.71376
0.0381413 0.0917876 0.713604
0.0395876 0.0922896 0.713687
0.0410435 0.0928148 0.714004
0.0425105 0.093365 0.714568
0.0439784 0.0939129 0.715105
0.0454317 0.0944238 0.715269
0.0468727 0.0949073 0.715155
0.0483079 0.0953773 0.714917
0.0497287 0.0958173 0.714392
0.0511563 0.0962742 0.714035
0.0525748 0.096714 0.713518
0.0539821 0.0971357 0.712826
0.0553849 0.0975511 0.712085
0.0567734 0.0979439 0.711134
0.0581435 0.098307 0.709913
0.0595232 0.0986915 0.708911
0.060879 0.0990392 0.707572
0.0621898 0.0993148 0.705575
0.0634535 0.0995188 0.702941
0.0646695 0.0996548 0.699705
0.0658526 0.0997498 0.69613
0.0670355 0.0998583 0.692712
0.0682184 0.0999806 0.689447
0.0694178 0.10014 0.68655
0.0706335 0.100336 0.684001
0.0718584 0.100552 0.681673
0.0731188 0.100831 0.679909
0.0744107 0.101161 0.678615
0.0757341 0.10154 0.677764
0.0770497 0.10191 0.676851
0.078375 0.102298 0.676088
0.0797116 0.102701 0.675479
0.0810704 0.103138 0.675158
0.0824258 0.103571 0.674803
0.083803 0.104033 0.674706
0.0851768 0.104491 0.674572
0.0865495 0.104949 0.674432
0.0879007 0.105379 0.674067
0.0892669 0.105829 0.673869
0.0905985 0.106237 0.67332
0.0919658 0.106689 0.673147
0.0933166 0.107123 0.672818
0.0946793 0.10757 0.672611
0.0960685 0.10805 0.672664
0.0975109 0.108591 0.673227
0.0989524 0.109131 0.673759
0.100424 0.109702 0.674559
0.10231 0.108903 0.675368
0.101907 0.110285 0.675439
0.103756 0.109441 0.675888
0.103362 0.110835 0.676036
0.00300719 0.0832653 0.735261
0.00448335 0.0836912 0.734376
0.00595643 0.084095 0.733247
0.00742513 0.084466 0.731757
0.00888815 0.0848087 0.729974
0.0103479 0.0851884 0.728616
0.0118041 0.0855719 0.727319
0.0132588 0.0859786 0.726295
0.0147099 0.0863836 0.725254
0.0161559 0.0867673 0.724007
0.017599 0.0871601 0.72286
0.0190404 0.0875609 0.721817
0.0204809 0.0879715 0.720897
0.0219216 0.0884003 0.720169
0.0233637 0.0888441 0.71961
0.0248067 0.0892985 0.719169
0.0262469 0.0897458 0.718662
0.0276875 0.0902021 0.718242
0.029127 0.0906564 0.717814
0.0305627 0.0911011 0.717293
0.0319864 0.0915095 0.71641
0.0334116 0.0919307 0.715663
0.0348312 0.0923432 0.714828
0.0362523 0.0927636 0.714092
0.0376883 0.0932342 0.713855
0.0391359 0.093736 0.713937
0.0405918 0.0942598 0.714231
0.0420515 0.0947912 0.714595
0.0435115 0.09532 0.714931
0.0449608 0.0958201 0.71499
0.0464011 0.096301 0.714853
0.0478365 0.0967693 0.714606
0.0492612 0.0972178 0.71416
0.0506941 0.0976838 0.713896
0.0521183 0.098135 0.713484
0.0535371 0.0985759 0.712987
0.054943 0.0989946 0.712281
0.056345 0.0994076 0.711537
0.05773 0.0997947 0.710546
0.0591297 0.100211 0.709845
0.0605066 0.100591 0.708811
0.0618446 0.100905 0.707189
0.0631129 0.101106 0.704559
0.0643369 0.101244 0.701371
0.0654877 0.101272 0.697235
0.0666292 0.101303 0.693156
0.0677749 0.101356 0.689313
0.0689471 0.101466 0.686013
0.0701328 0.101607 0.683032
0.0713613 0.101828 0.680757
0.0726286 0.102112 0.679076
0.0739209 0.102441 0.677789
0.0752452 0.10282 0.676953
0.0765675 0.103198 0.676122
0.0779001 0.103595 0.675449
0.0792311 0.103991 0.674779
0.0805903 0.104427 0.674459
0.0819516 0.104868 0.674178
0.0833351 0.105338 0.674153
0.0847178 0.105808 0.674121
0.0861069 0.106287 0.674158
0.0874742 0.106737 0.67396
0.0888406 0.107185 0.673756
0.0901803 0.107603 0.673286
0.0915494 0.108056 0.673123
0.0928948 0.108481 0.672729
0.094252 0.108921 0.672459
0.0956479 0.10941 0.672582
0.0970733 0.109932 0.672974
0.0985049 0.11046 0.673417
0.0999756 0.111032 0.674206
0.101467 0.111626 0.675159
0.102923 0.112179 0.675772
0.00399283 0.085238 0.735489
0.00546878 0.08563 0.734232
0.00694024 0.0859795 0.732527
0.00840548 0.0863098 0.730624
0.00986704 0.0866697 0.729074
0.0113243 0.0870423 0.727666
0.0127799 0.0874384 0.726539
0.0142329 0.0878394 0.72548
0.0156814 0.088233 0.72434
0.0171278 0.0886341 0.723299
0.0185731 0.0890438 0.722371
0.0200167 0.0894635 0.721543
0.0214594 0.0898902 0.720801
0.0229003 0.0903175 0.720072
0.0243429 0.0907616 0.719529
0.0257839 0.0912069 0.718999
0.0272265 0.0916627 0.718585
0.0286674 0.0921175 0.71816
0.0301071 0.0925712 0.717734
0.0315347 0.0929871 0.716929
0.0329617 0.0934082 0.716184
0.034386 0.0938269 0.715424
0.0358096 0.0942485 0.714706
0.0372445 0.0947098 0.714377
0.0386893 0.0952016 0.714348
0.0401384 0.0957033 0.714426
0.0415876 0.0962054 0.7145
0.0430397 0.0967162 0.714646
0.0444851 0.0972073 0.714611
0.045922 0.0976783 0.714387
0.0473574 0.0981466 0.714141
0.0487871 0.0986034 0.713788
0.0502209 0.0990721 0.713544
0.051651 0.0995334 0.713237
0.0530808 0.0999964 0.712945
0.0544983 0.100435 0.712435
0.0559179 0.10088 0.711988
0.0573265 0.101306 0.711372
0.0587398 0.101745 0.710869
0.0601415 0.102164 0.710197
0.0615056 0.102518 0.708947
0.0628026 0.102758 0.706692
0.0640615 0.102942 0.703956
0.0651904 0.102918 0.699389
0.0662905 0.102864 0.694607
0.0673845 0.102819 0.68995
0.0684983 0.102825 0.68578
0.0696221 0.102863 0.681926
0.0708584 0.10309 0.679748
0.0721267 0.103374 0.678086
0.0734256 0.103711 0.676886
0.0747498 0.104088 0.676052
0.0760783 0.104475 0.675303
0.0774111 0.104871 0.674634
0.0787429 0.105266 0.673976
0.0801079 0.105712 0.673736
0.0814764 0.106162 0.673538
0.0828603 0.106633 0.673522
0.0842509 0.107114 0.673581
0.0856479 0.107603 0.673706
0.0870079 0.108044 0.673428
0.0883649 0.108481 0.673128
0.0897194 0.108916 0.67281
0.0910975 0.10938 0.67274
0.0924485 0.109812 0.672401
0.0938134 0.110262 0.672212
0.0952184 0.11076 0.67241
0.096625 0.11126 0.672627
0.0980387 0.111768 0.672894
0.0995072 0.112339 0.673667
0.101006 0.112945 0.674701
0.102474 0.113511 0.67542
0.104378 0.112727 0.676354
0.103942 0.114077 0.676125
0.106931 0.114499 0.686554
0.10538 0.114606 0.67654
0.00201874 0.0863668 0.737515
0.00350092 0.086771 0.736394
0.00497972 0.0871682 0.735208
0.00645382 0.0875064 0.73339
0.00792216 0.0878258 0.7314
0.00938521 0.0881652 0.729642
0.0108444 0.0885226 0.728096
0.0123005 0.0888974 0.726761
0.0137546 0.0892972 0.725691
0.0152053 0.08969 0.724569
0.0166547 0.0901009 0.723641
0.0181039 0.0905288 0.722899
0.0195513 0.0909566 0.722171
0.0209964 0.0913846 0.721446
0.0224393 0.0918113 0.720717
0.0238837 0.0922535 0.720158
0.0253249 0.0926896 0.719538
0.0267707 0.0931528 0.719195
0.0282138 0.0936079 0.718778
0.0296553 0.0940619 0.71835
0.0310844 0.0944758 0.717529
0.0325132 0.0948957 0.716778
0.0339372 0.0953052 0.715936
0.0353628 0.0957271 0.715223
0.036796 0.0961789 0.714801
0.0382352 0.0966507 0.714577
0.0396771 0.0971315 0.714441
0.0411189 0.0976125 0.714309
0.0425642 0.0981024 0.714268
0.0440059 0.0985846 0.714146
0.0454436 0.0990557 0.713931
0.0468796 0.0995263 0.7137
0.0483148 0.099995 0.713461
0.0497542 0.100474 0.713323
0.0511897 0.100947 0.713119
0.0526296 0.101429 0.713004
0.0540631 0.101898 0.712775
0.055495 0.102365 0.712527
0.0569156 0.10281 0.71209
0.0583407 0.103268 0.711758
0.0597607 0.103715 0.711348
0.0611454 0.104102 0.710387
0.0624733 0.104387 0.708558
0.0637646 0.104618 0.706253
0.0648601 0.104518 0.701076
0.0659095 0.104362 0.695455
0.0669309 0.104182 0.689685
0.0679823 0.104076 0.684596
0.0691112 0.104114 0.680803
0.0703561 0.104352 0.678747
0.0716315 0.104644 0.677177
0.072938 0.104991 0.676081
0.0742621 0.105366 0.675244
0.0755959 0.105761 0.674568
0.0769288 0.106156 0.673903
0.0782539 0.106541 0.673165
0.0796186 0.106986 0.672926
0.0809927 0.107444 0.672799
0.0823777 0.107918 0.672802
0.083777 0.108411 0.672962
0.0851822 0.108912 0.673181
0.0865415 0.10935 0.672896
0.0878893 0.109775 0.672497
0.0892503 0.110218 0.672249
0.0906302 0.110685 0.672199
0.0919833 0.111119 0.671882
0.0933565 0.111579 0.671778
0.0947597 0.112075 0.671959
0.0961565 0.112564 0.672078
0.0975614 0.113061 0.672264
0.0990284 0.113633 0.673033
0.100535 0.114251 0.674149
0.102024 0.114843 0.675055
0.103504 0.115424 0.675871
0.104963 0.115978 0.67647
0.00152236 0.0879117 0.738493
0.00300746 0.088316 0.737386
0.00448922 0.0887138 0.736217
0.00596638 0.0890365 0.734254
0.00743747 0.0893438 0.732157
0.00890264 0.0896606 0.730185
0.010363 0.0899967 0.728436
0.0118199 0.0903581 0.72697
0.0132752 0.0907474 0.725813
0.0147279 0.0911489 0.724782
0.0161802 0.0915684 0.723957
0.0176325 0.0920065 0.723326
0.0190831 0.092443 0.722692
0.0205317 0.0928801 0.722065
0.0219769 0.0933064 0.721341
0.0234231 0.0937499 0.720787
0.0248661 0.0941827 0.720146
0.0263117 0.0946374 0.719717
0.0277563 0.095093 0.7193
0.0291998 0.0955457 0.71887
0.0306289 0.0959505 0.71797
0.0320589 0.0963687 0.717203
0.0334845 0.0967781 0.716362
0.034912 0.097199 0.715651
0.0363441 0.0976416 0.715144
0.0377804 0.0981019 0.714805
0.0392161 0.0985603 0.714464
0.0406509 0.0990197 0.714127
0.0420889 0.0994896 0.713895
0.0435268 0.0999618 0.71368
0.0449686 0.100443 0.713559
0.0464095 0.100924 0.713431
0.0478499 0.101405 0.713301
0.0492946 0.101895 0.71326
0.0507355 0.102377 0.713145
0.0521802 0.102869 0.713113
0.0536201 0.103349 0.712983
0.0550586 0.103828 0.712839
0.0564868 0.104285 0.712513
0.0579186 0.104752 0.712266
0.0593501 0.105219 0.712026
0.0607548 0.105637 0.711354
0.062123 0.10599 0.710125
0.0633989 0.106183 0.707515
0.0644692 0.106022 0.701871
0.0654821 0.105786 0.695634
0.0664503 0.105502 0.689033
0.0674506 0.105297 0.683182
0.0686019 0.105366 0.679696
0.069868 0.105633 0.677929
0.0711448 0.105926 0.676379
0.0724579 0.106281 0.675367
0.0737693 0.106635 0.674369
0.0751025 0.107027 0.673685
0.0764278 0.107411 0.672933
0.0777519 0.107794 0.672189
0.0791159 0.108238 0.671949
0.0805035 0.108716 0.67199
0.0818961 0.109202 0.672087
0.0833034 0.109708 0.672345
0.0847165 0.11022 0.672656
0.0860752 0.110657 0.672364
0.0874149 0.11107 0.671878
0.0887822 0.111521 0.671698
0.0901552 0.111979 0.671577
0.0915083 0.112413 0.671262
0.0928814 0.112872 0.671157
0.0942817 0.113366 0.671316
0.0956612 0.113834 0.671272
0.0970641 0.11433 0.671448
0.0985316 0.114904 0.672225
0.100056 0.115546 0.673511
0.101563 0.116163 0.6746
0.103063 0.116769 0.675593
0.104542 0.117346 0.676363
0.00102391 0.0894721 0.739587
0.00251278 0.0898513 0.738221
0.00399721 0.0902345 0.736906
0.00547768 0.0905499 0.734905
0.00695138 0.0908465 0.732722
0.00841863 0.0911486 0.73062
0.00988058 0.0914714 0.728753
0.0113382 0.0918127 0.727097
0.0127941 0.0921931 0.725855
0.0142482 0.0925915 0.724814
0.0157017 0.0930105 0.723993
0.0171564 0.0934567 0.723454
0.0186097 0.0939045 0.722931
0.0200617 0.0943505 0.722408
0.0215114 0.0947945 0.721858
0.0229611 0.0952471 0.721398
0.0244082 0.09569 0.720857
0.0258581 0.0961538 0.720521
0.0273052 0.096609 0.720104
0.0287485 0.0970548 0.719595
0.0301796 0.0974566 0.718678
0.0316092 0.0978644 0.717819
0.0330337 0.098262 0.716874
0.0344598 0.0986732 0.716067
0.0358876 0.0990964 0.715382
0.037319 0.0995361 0.714857
0.0387482 0.0999733 0.714315
0.0401757 0.10041 0.713773
0.0416099 0.100869 0.713439
0.0430477 0.101339 0.713214
0.044493 0.10183 0.71318
0.0459383 0.102321 0.713145
0.0473836 0.102812 0.713111
0.048829 0.103304 0.713076
0.0502743 0.103795 0.713042
0.0517195 0.104286 0.713007
0.0531605 0.104767 0.712886
0.0546006 0.105247 0.712758
0.0560352 0.105717 0.712535
0.0574686 0.106186 0.712305
0.058907 0.106665 0.712168
0.0603297 0.107114 0.711773
0.0617341 0.107531 0.711103
0.062991 0.107678 0.70813
0.064033 0.10745 0.701984
0.0659573 0.106797 0.688191
0.0669188 0.106513 0.681751
0.0680976 0.106622 0.678651
0.0693878 0.106927 0.677216
0.0706654 0.107217 0.675671
0.0719788 0.107569 0.674659
0.0732827 0.107913 0.673571
0.0746149 0.108302 0.672876
0.075933 0.108673 0.672037
0.0772569 0.109056 0.671297
0.0786201 0.109499 0.671054
0.0800078 0.109978 0.671104
0.0814001 0.110465 0.671207
0.0828076 0.110971 0.671474
0.0842272 0.111494 0.671867
0.0855866 0.111933 0.671588
0.0869336 0.112355 0.671183
0.0883006 0.112805 0.671
0.0896718 0.113261 0.670867
0.0910085 0.113673 0.670386
0.0923711 0.114119 0.670183
0.0937608 0.114601 0.670249
0.095147 0.115078 0.670279
0.0965498 0.115576 0.670465
0.0980351 0.116174 0.671419
0.0995769 0.116841 0.67288
0.101093 0.117472 0.674062
0.102594 0.118081 0.675067
0.104081 0.11867 0.675916
0.000526327 0.0909924 0.740216
0.00201745 0.0913707 0.738851
0.00350459 0.0917363 0.737369
0.0049875 0.0920398 0.735268
0.00646357 0.0923217 0.732965
0.00793255 0.0926119 0.730765
0.00939613 0.0929213 0.728792
0.0108554 0.0932601 0.727136
0.0123126 0.0936387 0.725891
0.0137682 0.0940363 0.724856
0.0152228 0.0944526 0.724019
0.0166786 0.0948979 0.723476
0.0181329 0.0953456 0.722959
0.0195872 0.0958025 0.722536
0.0210401 0.0962578 0.722104
0.0224933 0.0967199 0.721742
0.0239438 0.0971743 0.72131
0.0253974 0.0976486 0.721072
0.0268487 0.0981137 0.720754
0.028294 0.0985589 0.720242
0.0297272 0.0989598 0.719323
0.0311583 0.0993642 0.718439
0.0325844 0.0997587 0.717474
0.034007 0.100149 0.716484
0.0354301 0.100551 0.715604
0.0368587 0.100978 0.714965
0.0382852 0.101403 0.714314
0.039707 0.101819 0.71359
0.0411382 0.102267 0.713163
0.0425794 0.102746 0.713016
0.0440252 0.103237 0.712981
0.0454675 0.10372 0.71287
0.0469131 0.104211 0.712835
0.0483584 0.104701 0.712791
0.0498035 0.105192 0.712749
0.0512495 0.105683 0.712722
0.0527 0.106186 0.712783
0.054146 0.106678 0.712755
0.0555868 0.107158 0.712628
0.0570217 0.107628 0.712404
0.058466 0.108117 0.712354
0.059901 0.108588 0.712146
0.0613405 0.109068 0.712022
0.0625523 0.10912 0.708273
0.0635796 0.108848 0.701836
0.0645405 0.108487 0.694701
0.0654566 0.108076 0.687228
0.0663784 0.10771 0.68018
0.067612 0.107907 0.67786
0.0689027 0.108211 0.676433
0.0701804 0.108497 0.674883
0.0714931 0.108848 0.673865
0.0727955 0.109186 0.672754
0.0741207 0.109564 0.671976
0.0754377 0.109932 0.671126
0.0767621 0.110315 0.670396
0.0781254 0.110758 0.670161
0.0795123 0.111238 0.670214
0.0809032 0.111722 0.670306
0.0823164 0.11224 0.67065
0.0837431 0.112774 0.671131
0.0851111 0.113225 0.670951
0.0864672 0.113659 0.670644
0.0878413 0.114119 0.670541
0.0892117 0.114574 0.670399
0.0905465 0.114982 0.669896
0.0919086 0.115427 0.669682
0.0932906 0.115899 0.669671
0.0946757 0.116375 0.669694
0.096088 0.116885 0.669974
0.0975733 0.117488 0.670943
0.0991182 0.11816 0.672432
0.100643 0.118805 0.673698
0.102143 0.119414 0.674699
0.10362 0.119994 0.675468
-0.00146139 0.0920144 0.740916
3.05564e-05 0.0924606 0.740265
0.00152233 0.0928548 0.739076
0.00301169 0.093219 0.73761
0.00449637 0.0935292 0.735595
0.00597502 0.0938065 0.733282
0.0074463 0.0940843 0.730991
0.00891213 0.094399 0.729093
0.0103734 0.0947376 0.727451
0.0118321 0.0951048 0.726116
0.0132891 0.0955016 0.72508
0.0147451 0.0959147 0.724222
0.0162008 0.0963495 0.723578
0.0176553 0.0967867 0.722967
0.0191106 0.0972439 0.722551
0.0205664 0.0977096 0.722224
0.0220229 0.0981839 0.721983
0.0234769 0.0986505 0.721667
0.0249342 0.0991353 0.72153
0.0263869 0.099602 0.721219
0.0278317 0.100036 0.720609
0.0292615 0.100415 0.719494
0.0306887 0.100799 0.718421
0.0321107 0.101171 0.717269
0.0335335 0.101559 0.716259
0.0349567 0.101957 0.71536
0.0363884 0.102391 0.714792
0.0378182 0.102824 0.714217
0.0392445 0.10325 0.713589
0.0406768 0.103698 0.713167
0.0421195 0.104178 0.71303
0.043566 0.104669 0.712996
0.0450088 0.105153 0.712883
0.0464512 0.105634 0.712762
0.0478925 0.106113 0.712618
0.0493376 0.106602 0.712564
0.0507841 0.107095 0.71254
0.0522362 0.1076 0.712624
0.0536835 0.108093 0.712606
0.0551286 0.108583 0.712555
0.0565635 0.10905 0.712314
0.0580086 0.109538 0.712263
0.0594501 0.110022 0.712159
0.0608266 0.110377 0.710981
0.0619527 0.110255 0.705839
0.0629584 0.109932 0.699066
0.0639055 0.109533 0.69172
0.0648185 0.109105 0.68421
0.0658185 0.108866 0.678311
0.067131 0.109199 0.677132
0.0684284 0.109511 0.675792
0.0697007 0.109786 0.674167
0.0710064 0.110123 0.673055
0.0723019 0.110448 0.671852
0.0736131 0.110803 0.670901
0.0749236 0.111161 0.669977
0.076254 0.111552 0.669331
0.0776109 0.111986 0.669028
0.079003 0.112475 0.669154
0.0803985 0.112968 0.669314
0.0818099 0.113484 0.669647
0.0832363 0.114021 0.67014
0.0846194 0.114493 0.670132
0.0859847 0.114941 0.669933
0.0873605 0.115403 0.669849
0.0887308 0.115858 0.66971
0.0900722 0.116274 0.669276
0.0914331 0.116719 0.669059
0.0928149 0.117191 0.669049
0.0942098 0.117679 0.669168
0.0956389 0.118212 0.669617
0.0971267 0.118818 0.670606
0.0986703 0.119494 0.672091
0.100194 0.120139 0.673349
0.101692 0.120749 0.674337
0.10316 0.121318 0.67502
-0.00295276 0.0915372 0.741246
-0.00444457 0.0910575 0.741559
-0.00493672 0.0924616 0.740918
-0.00344678 0.0929614 0.740821
-0.00195642 0.0934527 0.740638
-0.000465671 0.0939254 0.740257
0.00102697 0.0943392 0.739296
0.00251775 0.0947038 0.737842
0.00400462 0.0950203 0.735921
0.00548565 0.0952945 0.733607
0.00695915 0.0955695 0.731312
0.00842711 0.0958729 0.729333
0.0098908 0.0962178 0.727775
0.011351 0.0965745 0.726355
0.0128096 0.0969702 0.725317
0.0142652 0.0973642 0.724281
0.0157208 0.0977851 0.723515
0.0171745 0.0982101 0.722789
0.0186306 0.0986657 0.722367
0.0200872 0.0991325 0.722052
0.0215443 0.0996094 0.721831
0.0230026 0.100095 0.721695
0.0244591 0.100571 0.72148
0.0259106 0.101028 0.721075
0.0273517 0.101441 0.720277
0.0287772 0.101797 0.718966
0.0301968 0.102146 0.717594
0.0316158 0.102505 0.716338
0.0330355 0.102881 0.715241
0.0344588 0.103278 0.71435
0.0358959 0.103732 0.713964
0.0373324 0.104185 0.713585
0.0387667 0.104634 0.713172
0.0402068 0.105105 0.71295
0.0416566 0.105606 0.712992
0.0431074 0.106107 0.713044
0.0445518 0.106591 0.712941
0.045995 0.107072 0.712812
0.0474359 0.107549 0.712646
0.0488813 0.108037 0.712584
0.0503288 0.10853 0.712562
0.0517826 0.109038 0.712667
0.0532308 0.109532 0.712655
0.054672 0.110011 0.712511
0.0561008 0.110464 0.71215
0.0575454 0.110951 0.712083
0.058993 0.111445 0.712071
0.060302 0.111661 0.709753
0.0613674 0.11141 0.70361
0.0623743 0.111076 0.696845
0.0633289 0.110676 0.6896
0.0642576 0.110264 0.682314
0.0653416 0.110166 0.677639
0.0666496 0.110489 0.676392
0.0679475 0.1108 0.675059
0.0692152 0.111063 0.673364
0.0705132 0.111386 0.672151
0.0718023 0.111697 0.670865
0.0730995 0.112029 0.669738
0.0744095 0.112385 0.668818
0.0757456 0.112785 0.668252
0.0770958 0.11321 0.66788
0.0784862 0.113697 0.667997
0.0798804 0.11419 0.668156
0.0812833 0.114696 0.66841
0.0827089 0.115233 0.668906
0.0841065 0.115729 0.669077
0.0854871 0.116198 0.669051
0.0868793 0.116685 0.669152
0.0882509 0.117142 0.669031
0.0895928 0.117558 0.668604
0.0909539 0.118002 0.668387
0.0923441 0.118487 0.668467
0.0937499 0.11899 0.668693
0.0952044 0.119558 0.669393
0.0967001 0.120177 0.670463
0.0982423 0.120852 0.671937
0.0997539 0.121485 0.673087
0.101241 0.122083 0.673978
0.102699 0.122642 0.674573
-0.00542895 0.0938679 0.740306
-0.00393964 0.0943716 0.740247
-0.0024514 0.0948886 0.740326
-0.000961164 0.0953752 0.74009
0.000531811 0.0958017 0.73927
0.00202366 0.0961734 0.737901
0.00351232 0.0964959 0.73607
0.00499537 0.09676 0.733681
0.00647143 0.0970396 0.731475
0.00794153 0.0973507 0.72959
0.00940704 0.0976939 0.728032
0.010869 0.0980498 0.726618
0.0123293 0.0984426 0.72557
0.0137856 0.0988239 0.724421
0.0152414 0.099234 0.723558
0.0166949 0.0996457 0.722718
0.0181516 0.100099 0.722276
0.0196084 0.100565 0.721949
0.0210664 0.10104 0.721723
0.022506 0.101415 0.720561
0.0239407 0.101779 0.719319
0.0253738 0.102154 0.718183
0.0267977 0.102499 0.716797
0.0282086 0.102806 0.715072
0.0296424 0.103228 0.714403
0.0310795 0.103671 0.713921
0.0325106 0.104096 0.713286
0.033944 0.104537 0.712791
0.0353934 0.105034 0.712814
0.0368398 0.105523 0.712751
0.0382808 0.105996 0.712543
0.0397287 0.106489 0.712525
0.0411864 0.107012 0.712765
0.0426416 0.107526 0.71292
0.0440901 0.10802 0.712901
0.0455374 0.108511 0.712857
0.0469797 0.108988 0.712698
0.0484256 0.109476 0.712626
0.0498739 0.109968 0.712602
0.0513283 0.110477 0.712703
0.0527772 0.110971 0.712691
0.0542189 0.111449 0.712541
0.055648 0.111901 0.71217
0.057093 0.112388 0.712097
0.0585415 0.112882 0.712086
0.0597701 0.112925 0.708389
0.0608158 0.112623 0.701903
0.0617992 0.112229 0.694743
0.0627498 0.111808 0.687422
0.0636839 0.111391 0.680201
0.0648492 0.111437 0.676737
0.0661634 0.111768 0.67558
0.0674622 0.112079 0.674261
0.0687358 0.11235 0.672645
0.0700281 0.112659 0.671349
0.0713149 0.112966 0.670035
0.0726059 0.113284 0.668826
0.0739148 0.113637 0.667894
0.0752439 0.114027 0.66725
0.0765931 0.114449 0.666873
0.0779765 0.114928 0.666919
0.0793623 0.11541 0.666992
0.0807576 0.115905 0.667172
0.082181 0.116442 0.667658
0.083584 0.116948 0.667906
0.0849798 0.11744 0.668059
0.0863968 0.117965 0.66844
0.0877929 0.118456 0.668579
0.0891581 0.118905 0.668396
0.0905355 0.119371 0.668344
0.091937 0.119869 0.668531
0.0933527 0.120387 0.668855
0.0948111 0.120961 0.669584
0.0963064 0.12158 0.670642
0.0978307 0.122235 0.671945
0.0993319 0.122855 0.672988
0.1008 0.12343 0.673702
0.102247 0.123977 0.674205
-0.00294353 0.0962862 0.739624
-0.00145484 0.0967964 0.739633
3.7447e-05 0.0972414 0.739004
0.00152971 0.0976332 0.737859
0.00301947 0.0979652 0.736136
0.00450473 0.0982336 0.733825
0.0059826 0.0985211 0.731715
0.00745521 0.0988401 0.729935
0.00892344 0.0991924 0.728485
0.0103878 0.0995549 0.727146
0.0118496 0.0999361 0.725998
0.0133069 0.100305 0.724743
0.0147633 0.100703 0.723776
0.0162161 0.101093 0.722748
0.0176711 0.101526 0.722117
0.019127 0.101979 0.721679
0.0205837 0.102443 0.721348
0.022019 0.102786 0.71991
0.0234269 0.102997 0.717304
0.0248302 0.103222 0.714849
0.0262203 0.103421 0.712173
0.0276113 0.103658 0.709867
0.0290285 0.104036 0.708836
0.0304718 0.104532 0.708856
0.0319109 0.105011 0.708732
0.0333645 0.105547 0.709091
0.034834 0.106134 0.7099
0.0363057 0.106718 0.710686
0.0377676 0.107266 0.711137
0.0392346 0.107823 0.711673
0.0407027 0.10838 0.712197
0.0421658 0.108918 0.712554
0.0436223 0.109435 0.712728
0.045075 0.109937 0.712786
0.0465221 0.110427 0.712726
0.0479695 0.110916 0.712669
0.0494184 0.111409 0.712641
0.0508723 0.111914 0.712718
0.0523216 0.112409 0.7127
0.0537642 0.112887 0.712553
0.0552002 0.113352 0.712291
0.0566512 0.11385 0.712307
0.0581058 0.114356 0.712385
0.0592523 0.114216 0.707252
0.0602757 0.113852 0.70036
0.0612336 0.113392 0.692763
0.0621718 0.112932 0.685232
0.0631037 0.112498 0.677966
0.0643536 0.112698 0.675777
0.0656789 0.11305 0.674788
0.0669898 0.113378 0.673636
0.068264 0.113647 0.672023
0.0695499 0.113943 0.670636
0.0708363 0.114247 0.669316
0.0721206 0.114552 0.668018
0.073423 0.114892 0.667002
0.0747452 0.11527 0.666278
0.0760862 0.115681 0.66581
0.0774612 0.116147 0.665768
0.0788385 0.116617 0.665753
0.0802309 0.117109 0.665912
0.0816519 0.117645 0.666392
0.0830681 0.118173 0.666801
0.0844798 0.118691 0.667143
0.0859211 0.119252 0.667796
0.0873349 0.119771 0.668132
0.0887333 0.120267 0.668293
0.0901271 0.120754 0.668401
0.0915384 0.121267 0.668685
0.0929576 0.121788 0.669029
0.0944166 0.122363 0.669757
0.0959036 0.122974 0.670739
0.0974106 0.123607 0.671866
0.0989008 0.124215 0.672814
0.100358 0.124778 0.673429
0.101796 0.125312 0.673843
-0.00343854 0.0977234 0.739329
-0.00195034 0.0982425 0.739421
-0.000457872 0.0986945 0.738863
0.00103503 0.0990934 0.737797
0.00252609 0.0994409 0.73625
0.00401304 0.0997162 0.73403
0.00549346 0.100012 0.732031
0.00696843 0.10034 0.730361
0.00843901 0.100702 0.729015
0.0099054 0.101055 0.727599
0.0113691 0.101431 0.726422
0.0128276 0.101787 0.725062
0.0142846 0.102175 0.724002
0.0157378 0.102553 0.722871
0.0171928 0.102976 0.722156
0.0186302 0.103277 0.720354
0.0200624 0.103581 0.718588
0.0214624 0.103716 0.715318
0.0228391 0.103771 0.711367
0.0242122 0.103867 0.707826
0.025593 0.104055 0.705127
0.0269888 0.104352 0.703406
0.0284115 0.104789 0.702935
0.029854 0.105317 0.703255
0.0312972 0.105842 0.703547
0.0327566 0.106425 0.704343
0.0342249 0.107033 0.705342
0.035698 0.107648 0.706386
0.0371854 0.108298 0.707733
0.0386747 0.108944 0.709023
0.0401656 0.109583 0.71024
0.0416569 0.110211 0.711361
0.0431449 0.110823 0.712328
0.0446022 0.11134 0.712499
0.046055 0.111842 0.712551
0.0475073 0.112344 0.712594
0.0489608 0.112848 0.712654
0.0504153 0.113353 0.712725
0.0518653 0.113847 0.712704
0.053309 0.114327 0.712563
0.0547518 0.114805 0.712412
0.0562056 0.115307 0.71246
0.0576619 0.115815 0.712551
0.0587269 0.115486 0.705968
0.0597332 0.115071 0.698763
0.0606712 0.114553 0.690812
0.0616013 0.114062 0.68313
0.06253 0.113607 0.675802
0.0638673 0.113976 0.674955
0.0652003 0.114339 0.674075
0.0665235 0.114689 0.6731
0.0677996 0.114958 0.671503
0.0690914 0.115262 0.670193
0.0703725 0.115553 0.668791
0.0716505 0.115844 0.667405
0.0729405 0.116162 0.666229
0.0742618 0.116536 0.665492
0.0755889 0.116924 0.664855
0.0769604 0.117385 0.664782
0.0783357 0.117853 0.664753
0.0797197 0.118335 0.664828
0.0811327 0.11886 0.665229
0.0825615 0.119409 0.665794
0.0839878 0.119951 0.666309
0.0854475 0.120543 0.667174
0.0868876 0.1211 0.667794
0.0883194 0.121645 0.668307
0.0897332 0.122161 0.668612
0.0911543 0.122687 0.668985
0.0925726 0.123208 0.66932
0.0940295 0.12378 0.670016
0.0955078 0.12438 0.670904
0.0969966 0.12499 0.671861
0.0984712 0.125578 0.672652
0.0999172 0.126127 0.673162
-0.0024435 0.0996526 0.738847
-0.000950189 0.100092 0.738177
0.000542818 0.100492 0.737136
0.00203393 0.100856 0.735778
0.00352185 0.10114 0.733669
0.00500355 0.101465 0.731971
0.00647984 0.101805 0.730426
0.00795288 0.102186 0.729274
0.00942136 0.102546 0.727943
0.010887 0.102922 0.726776
0.0123474 0.103276 0.725408
0.0138066 0.103666 0.724384
0.0152472 0.103896 0.721928
0.016683 0.104148 0.71969
0.0180953 0.104266 0.716281
0.0195004 0.104403 0.713077
0.0208606 0.104308 0.707847
0.0249708 0.104661 0.698008
0.0263686 0.105008 0.696781
0.0277952 0.105505 0.696852
0.0292354 0.106056 0.697405
0.0306793 0.106619 0.69804
0.0321362 0.107225 0.699041
0.0336024 0.107854 0.700226
0.0350755 0.108496 0.701505
0.0365664 0.109186 0.703181
0.0380793 0.109931 0.705313
0.0395988 0.110681 0.707445
0.0411179 0.111409 0.70939
0.0426361 0.112118 0.711159
0.0441253 0.11273 0.71211
0.0455826 0.113245 0.712265
0.047036 0.113749 0.712324
0.0484902 0.114254 0.712393
0.049945 0.11476 0.712467
0.0513951 0.115254 0.712444
0.0528396 0.115735 0.712312
0.0542932 0.116237 0.712351
0.0557585 0.116764 0.712598
0.0572272 0.117299 0.712894
0.0582866 0.116938 0.706141
0.0592797 0.116473 0.698632
0.0602005 0.1159 0.690332
0.0611155 0.115358 0.682353
0.0620309 0.114859 0.674772
0.0633761 0.115242 0.67405
0.0647207 0.115627 0.673348
0.0660518 0.115989 0.672482
0.0673351 0.116269 0.670984
0.0686291 0.116573 0.669694
0.0699095 0.11686 0.668275
0.0711875 0.117148 0.666882
0.0724777 0.117462 0.6657
0.0737928 0.117826 0.664885
0.0751249 0.11822 0.664311
0.0764887 0.118669 0.664145
0.0778558 0.119124 0.664022
0.0792327 0.119595 0.664018
0.0806514 0.120132 0.664496
0.0820815 0.120685 0.665084
0.0835227 0.121252 0.665773
0.0850061 0.12188 0.666901
0.0864718 0.122479 0.667798
0.0879234 0.123053 0.668517
0.0893557 0.123596 0.669011
0.0907788 0.124123 0.669387
0.0921969 0.124643 0.669701
0.0936438 0.1252 0.670291
0.0951208 0.125799 0.67116
0.0966015 0.1264 0.672032
0.0980746 0.126989 0.672814
0.0995131 0.127526 0.673236
-0.00442628 0.100564 0.738385
-0.00293445 0.101038 0.738053
-0.00144086 0.101469 0.737308
5.19402e-05 0.101872 0.736323
0.00154219 0.102257 0.73517
0.00303086 0.102552 0.733195
0.00451314 0.1029 0.73173
0.00599109 0.103268 0.730465
0.00746587 0.103668 0.729505
0.00893638 0.104039 0.728278
0.0104043 0.104425 0.727204
0.0118681 0.104796 0.726015
0.0133294 0.105182 0.724961
0.0147551 0.105213 0.720772
0.0161665 0.105232 0.716499
0.022997 0.105099 0.693807
0.0243692 0.105323 0.691544
0.0257699 0.105722 0.690814
0.027199 0.106269 0.691342
0.0286321 0.106826 0.691951
0.0300742 0.107413 0.692806
0.0315282 0.10804 0.693984
0.0329886 0.108675 0.695237
0.0344582 0.109334 0.696654
0.0359501 0.110054 0.698585
0.0374758 0.110871 0.701291
0.0390111 0.111696 0.70403
0.040554 0.112517 0.70673
0.0420971 0.113317 0.709222
0.0436144 0.114021 0.710917
0.0450825 0.114571 0.71135
0.0465475 0.115108 0.711679
0.0480058 0.115627 0.711847
0.0494655 0.116145 0.712023
0.0509157 0.11664 0.712001
0.0523649 0.11713 0.711954
0.0538277 0.117654 0.712166
0.0553039 0.118209 0.712615
0.0567854 0.118771 0.713121
0.0578408 0.11838 0.70622
0.0588211 0.117867 0.698424
0.0597269 0.117239 0.689805
0.0606271 0.116646 0.681526
0.0615343 0.116111 0.673765
0.0628955 0.116526 0.673296
0.0642523 0.116935 0.672784
0.065597 0.117322 0.672112
0.066888 0.117612 0.670711
0.0681775 0.117904 0.669343
0.0694519 0.118175 0.667831
0.0707294 0.11846 0.666425
0.0720141 0.118762 0.665163
0.0733301 0.119126 0.664358
0.074663 0.11952 0.66379
0.0760265 0.119968 0.663621
0.0773934 0.120424 0.6635
0.0787713 0.120896 0.663509
0.0801841 0.121424 0.663921
0.0816194 0.121987 0.664572
0.0830672 0.122567 0.665344
0.0845518 0.123199 0.666488
0.0860416 0.123837 0.667652
0.0875255 0.12446 0.668711
0.088977 0.12503 0.66939
0.0904016 0.12556 0.669779
0.0918272 0.126089 0.670155
0.0932568 0.126625 0.670571
0.0947252 0.127212 0.671345
0.0961998 0.127804 0.672148
0.0976728 0.128393 0.672922
0.099111 0.12893 0.67334
-0.00342439 0.102413 0.737157
-0.0019303 0.102831 0.736307
-0.000438262 0.10324 0.735396
0.00105124 0.103645 0.734442
0.00253971 0.103962 0.7327
0.00402257 0.104331 0.731452
0.00550145 0.10472 0.73039
0.00697773 0.105141 0.72962
0.00845064 0.105526 0.728548
0.00992084 0.105928 0.727623
0.0113872 0.106303 0.726484
0.0128354 0.106483 0.723621
0.0202599 0.104841 0.700042
0.0183355 0.105552 0.698184
0.019684 0.10547 0.693272
0.021628 0.104939 0.696637
0.0210727 0.105748 0.691485
0.0224551 0.10602 0.689666
0.0238371 0.106321 0.688101
0.0252444 0.106776 0.687862
0.0266563 0.107257 0.687843
0.0280655 0.107726 0.687722
0.0294928 0.108278 0.688282
0.0309335 0.108874 0.689223
0.0323852 0.109507 0.690444
0.0338492 0.110172 0.691922
0.0353415 0.110923 0.694092
0.0368712 0.111784 0.697138
0.0384145 0.11266 0.700283
0.0399726 0.113556 0.70356
0.0415373 0.114443 0.706732
0.0430761 0.115225 0.709039
0.0445656 0.115845 0.71003
0.046046 0.116431 0.710746
0.0475163 0.116983 0.711186
0.0489796 0.117513 0.711447
0.0504338 0.118018 0.711509
0.051883 0.118509 0.711464
0.0533511 0.119046 0.711778
0.0548331 0.119616 0.712335
0.0563256 0.120205 0.713043
0.0573779 0.119788 0.706018
0.0583523 0.11924 0.698046
0.0592449 0.11856 0.689135
0.0601353 0.117924 0.680638
0.0610295 0.117345 0.672628
0.0624014 0.117782 0.672334
0.06377 0.118213 0.672002
0.0651314 0.118634 0.671584
0.0664299 0.118934 0.670279
0.0677193 0.119223 0.668905
0.0689929 0.11949 0.667373
0.07027 0.119769 0.665948
0.0715499 0.120061 0.664621
0.0728737 0.120436 0.663911
0.0742148 0.120843 0.663443
0.0755796 0.121293 0.663287
0.0769479 0.12175 0.663178
0.0783249 0.122222 0.663176
0.0797372 0.122749 0.663581
0.0811721 0.123313 0.664233
0.0826276 0.123906 0.665091
0.0841111 0.12454 0.666227
0.0856083 0.12519 0.667473
0.0870926 0.125817 0.668539
0.0885527 0.126401 0.669308
0.0899859 0.126946 0.669786
0.0914216 0.127489 0.670257
0.0928612 0.128038 0.670757
0.0943401 0.12864 0.671628
0.0958224 0.129246 0.672511
0.0972996 0.129839 0.673304
0.0987465 0.13039 0.673805
-0.00391296 0.103778 0.736193
-0.00241834 0.104182 0.73523
-0.000927003 0.104594 0.734352
0.000561022 0.105019 0.733609
0.0020491 0.105361 0.732114
0.00353187 0.105752 0.731068
0.00501138 0.106162 0.730207
0.00648887 0.106594 0.729554
0.00796326 0.106988 0.728566
0.00943575 0.107417 0.727891
0.0109042 0.1078 0.726824
0.0169804 0.105709 0.703793
0.0164094 0.106192 0.695739
0.017776 0.106196 0.691609
0.0191446 0.106307 0.68843
0.0205514 0.106746 0.688043
0.0219535 0.107162 0.687475
0.0233532 0.107572 0.686861
0.0247513 0.107985 0.686267
0.0261566 0.108439 0.686036
0.0275545 0.108864 0.685554
0.0289715 0.109382 0.685838
0.0303962 0.109927 0.686348
0.0318307 0.110506 0.687136
0.0332764 0.11112 0.688193
