ply
format ascii 1.0
element vertex 1706
property float x
property float y
property float z
end_header
0.0610519 0.232265 0.850861
0.0626503 0.232763 0.850792
0.0642196 0.233148 0.850254
0.0657785 0.2335 0.849583
0.0673499 0.233905 0.849132
0.0689491 0.234409 0.849092
0.0705237 0.23483 0.848707
0.0720953 0.235241 0.848285
0.0736859 0.23572 0.84814
0.0752906 0.236245 0.848186
0.0769141 0.236826 0.848462
0.0785509 0.237448 0.848899
0.0801866 0.238058 0.849289
0.081809 0.238627 0.849507
0.0834608 0.239279 0.850058
0.0851351 0.23999 0.850849
0.0868135 0.240705 0.851649
0.0885021 0.241442 0.852534
0.0901944 0.24218 0.85342
0.0919308 0.243031 0.854753
0.0937066 0.243974 0.856449
0.0955138 0.244986 0.858412
0.0972974 0.24592 0.86006
0.099026 0.246704 0.861096
-0.0422843 0.198357 0.839454
-0.0406873 0.19869 0.838645
-0.0390794 0.198961 0.837541
-0.0374755 0.199235 0.836455
-0.0358621 0.199443 0.83506
-0.0342698 0.19974 0.834094
-0.0326884 0.200079 0.833337
-0.03112 0.200483 0.832889
-0.0295504 0.200872 0.83237
-0.0279886 0.201303 0.832053
-0.0264274 0.201732 0.831728
-0.0248637 0.202138 0.831299
-0.0232924 0.202478 0.830557
-0.0217251 0.202834 0.829893
-0.0201598 0.203189 0.829231
-0.0185946 0.203529 0.828499
-0.0170315 0.203869 0.827767
-0.0154722 0.204228 0.827129
-0.0139184 0.204631 0.826699
-0.0123632 0.205001 0.826118
-0.00164142 0.21309 0.847048
-5.63045e-05 0.213399 0.846146
0.00152645 0.213677 0.845113
0.00310613 0.213978 0.844181
0.00468507 0.214521 0.844347
0.00626584 0.215124 0.844775
0.00785118 0.215852 0.845764
0.00944756 0.216829 0.847857
0.0110511 0.217802 0.84992
0.0126558 0.218645 0.851397
0.014268 0.219531 0.853056
0.0158837 0.220382 0.854551
0.0174918 0.221034 0.855164
0.0191007 0.221668 0.85569
0.0207141 0.22233 0.85634
0.0223271 0.22296 0.856846
0.023936 0.223525 0.857065
0.0255435 0.224066 0.857178
0.0271593 0.224676 0.857588
0.0287625 0.22516 0.857452
0.0303629 0.225624 0.857229
0.0319589 0.22606 0.856882
0.0335646 0.226568 0.856851
0.0351685 0.227061 0.856753
0.0367766 0.227583 0.856779
0.0383683 0.227998 0.856346
0.0399596 0.228417 0.855932
0.0415412 0.228784 0.855298
0.0430991 0.229024 0.854127
0.0446703 0.229356 0.85335
0.0462578 0.229784 0.852984
0.0478245 0.23011 0.852188
0.0594333 0.235299 0.858773
0.0609714 0.235501 0.85746
0.0625049 0.2357 0.856138
0.0640415 0.235925 0.85493
0.0655646 0.236112 0.85357
0.0670966 0.236347 0.852411
0.0686506 0.236669 0.851616
0.0701992 0.236981 0.850782
0.0717389 0.237271 0.849863
0.0733166 0.237697 0.849498
0.0749237 0.238221 0.849534
0.0765564 0.238825 0.849895
0.0781971 0.239451 0.850342
0.079828 0.240042 0.850645
0.0814515 0.240605 0.850834
0.0830874 0.241204 0.851165
0.0847548 0.241888 0.851841
0.0864267 0.242584 0.852554
0.0881196 0.243328 0.853458
0.0898229 0.244094 0.854448
0.0915507 0.244919 0.855666
0.0933184 0.245842 0.857266
0.0951271 0.246858 0.859227
0.0969225 0.247825 0.860988
0.0986651 0.248642 0.862148
-0.0427902 0.199929 0.839323
-0.0411909 0.200254 0.838483
-0.0395883 0.200553 0.837517
-0.037992 0.200868 0.836635
-0.0363883 0.201132 0.835512
-0.0347983 0.20145 0.834652
-0.0332184 0.201809 0.833989
-0.0316484 0.202214 0.833547
-0.0300766 0.202602 0.833028
-0.0285129 0.203032 0.832706
-0.0269494 0.20346 0.832371
-0.0253837 0.203865 0.831935
-0.0238104 0.204205 0.831197
-0.0222411 0.20456 0.830532
-0.0206709 0.204892 0.829762
-0.0191035 0.205228 0.829017
-0.0175383 0.205566 0.828282
-0.0159776 0.205927 0.827654
-0.0144211 0.20632 0.827178
-0.0128656 0.206708 0.82668
0.00260959 0.215962 0.845814
0.00419256 0.216647 0.846602
0.00577838 0.217316 0.847316
0.0073692 0.218108 0.848573
0.00896845 0.219041 0.850443
0.0105726 0.219925 0.852092
0.0121795 0.220739 0.853424
0.0137934 0.221599 0.854948
0.0154095 0.222408 0.856241
0.0170176 0.223014 0.856642
0.0186307 0.223669 0.857253
0.0202452 0.224309 0.857798
0.021855 0.224871 0.857997
0.0234615 0.225381 0.857975
0.0250659 0.22587 0.857858
0.0266776 0.226428 0.858038
0.0282801 0.226895 0.857825
0.0298875 0.227409 0.857813
0.0314922 0.227896 0.857686
0.0331099 0.228479 0.857971
0.0347236 0.229027 0.858103
0.0363419 0.229602 0.858349
0.0379453 0.230071 0.858145
0.0395537 0.230572 0.858076
0.0411578 0.231046 0.857891
0.0427326 0.231354 0.857008
0.0443134 0.231707 0.856317
0.0574019 0.236721 0.859939
0.0589792 0.237067 0.859219
0.0605469 0.237381 0.858375
0.0621028 0.237655 0.857368
0.0636594 0.237945 0.856429
0.0652034 0.238196 0.855337
0.0667591 0.238503 0.854474
0.0683165 0.23882 0.85366
0.0698613 0.239104 0.852711
0.0714035 0.239387 0.851763
0.0729771 0.239785 0.851283
0.0745779 0.240278 0.851186
0.0761987 0.240834 0.851346
0.0778345 0.241438 0.851696
0.0794526 0.24198 0.851799
0.0810701 0.242518 0.851882
0.0827064 0.243111 0.852185
0.0843663 0.243772 0.852755
0.0860324 0.244445 0.853372
0.087726 0.245192 0.854276
0.0894303 0.245958 0.855255
0.0911511 0.246762 0.856377
0.0929191 0.247688 0.857976
0.0947387 0.248737 0.860051
0.0965477 0.24974 0.861935
0.0983065 0.250596 0.863237
-0.0416888 0.201793 0.838196
-0.0400985 0.202151 0.837515
-0.0385106 0.202511 0.83685
-0.0369123 0.202808 0.835893
-0.0353278 0.203163 0.835212
-0.0337539 0.203565 0.834753
-0.0321854 0.203991 0.834408
-0.0306113 0.20438 0.833889
-0.0290451 0.204809 0.833561
-0.0274789 0.205232 0.833207
-0.0259076 0.205615 0.832666
-0.0243293 0.205934 0.831831
-0.0227578 0.206288 0.831162
-0.0211853 0.206616 0.830379
-0.0196156 0.20695 0.829623
-0.0180484 0.207287 0.828886
-0.0164874 0.207667 0.828349
-0.0149295 0.208067 0.827902
0.00369812 0.219061 0.850095
0.00528964 0.219702 0.85067
0.00688523 0.220453 0.851723
0.00848618 0.221259 0.853017
0.0100891 0.221989 0.853965
0.0116948 0.222697 0.854817
0.013308 0.223503 0.85609
0.0149233 0.224259 0.857142
0.0165318 0.22484 0.857428
0.0181476 0.225513 0.858106
0.0197617 0.226126 0.858525
0.0213695 0.22664 0.858514
0.0229753 0.227127 0.858387
0.0245787 0.227594 0.858173
0.026187 0.228106 0.858152
0.0277932 0.2286 0.858054
0.0294051 0.229141 0.858156
0.0310148 0.22966 0.858163
0.0326407 0.2303 0.858687
0.0342636 0.230901 0.859039
0.0358888 0.231511 0.859429
0.0375069 0.232061 0.85956
0.0391395 0.232699 0.860064
0.0407719 0.233324 0.860511
0.0423768 0.233777 0.86023
0.0439795 0.234217 0.859902
0.0569345 0.238443 0.860183
0.0585211 0.238823 0.859607
0.0601073 0.239207 0.859049
0.0616876 0.239571 0.858416
0.0632622 0.239919 0.857715
0.064831 0.240252 0.856958
0.0664108 0.240636 0.85641
0.0679728 0.240956 0.855605
0.0695232 0.241242 0.854667
0.0710697 0.241523 0.85371
0.0726387 0.241893 0.853115
0.0742267 0.242329 0.852788
0.0758408 0.242856 0.852823
0.0774715 0.243435 0.853069
0.0790768 0.243929 0.85297
0.0806957 0.244463 0.853034
0.0823245 0.245029 0.853223
0.0839775 0.245665 0.853687
0.0856356 0.246309 0.85418
0.0873213 0.247031 0.854978
0.0890173 0.247773 0.855852
0.0907374 0.248575 0.856954
0.0925076 0.249506 0.858561
0.0943291 0.250562 0.860645
0.0961513 0.251602 0.862661
0.0979239 0.252495 0.864095
-0.0406111 0.203758 0.837555
-0.0390302 0.204156 0.83707
-0.0374369 0.204485 0.836266
-0.0358503 0.204838 0.835573
-0.0342783 0.205258 0.835199
-0.0327046 0.205664 0.83476
-0.0311259 0.206033 0.834154
-0.0295583 0.206461 0.83382
-0.0279938 0.206905 0.833562
-0.0264211 0.207287 0.833019
-0.0248438 0.207626 0.832282
-0.0232706 0.207979 0.83161
-0.0216962 0.208307 0.830827
-0.0201244 0.208636 0.830056
-0.0185554 0.208972 0.829313
-0.0169937 0.209362 0.828823
-0.0154362 0.209785 0.82848
0.0032001 0.222092 0.856236
0.00479917 0.222392 0.855295
0.00639891 0.222899 0.855264
0.00800198 0.223545 0.855837
0.00960423 0.224093 0.855979
0.0112086 0.224669 0.856245
0.0128187 0.225349 0.856962
0.0144305 0.226011 0.857592
0.0160357 0.226516 0.857542
0.0176486 0.227133 0.857981
0.0192593 0.227699 0.858189
0.020867 0.228213 0.858177
0.0224751 0.228725 0.858155
0.0240815 0.229216 0.858047
0.0256927 0.229758 0.85815
0.0273051 0.230299 0.858253
0.0289214 0.230873 0.85849
0.0305387 0.231444 0.858717
0.0321705 0.232123 0.859393
0.033799 0.232757 0.859878
0.0354334 0.233418 0.860478
0.0370655 0.234051 0.860953
0.0387224 0.234831 0.862041
0.0403712 0.235539 0.862822
0.0420136 0.23619 0.863363
0.0436644 0.236877 0.864048
0.0564894 0.240275 0.860866
0.0580788 0.240657 0.8603
0.0596747 0.241071 0.859866
0.0612761 0.241513 0.859548
0.0628546 0.241866 0.858867
0.0644401 0.242253 0.858329
0.0660374 0.24269 0.857991
0.0676121 0.243043 0.85732
0.0691752 0.243362 0.856515
0.0707281 0.243649 0.855587
0.0722929 0.243991 0.854877
0.073875 0.244395 0.854417
0.0754819 0.244887 0.854309
0.0770981 0.24541 0.854325
0.0787049 0.245899 0.854207
0.0803181 0.246411 0.854176
0.0819408 0.246951 0.854258
0.0835774 0.247531 0.854494
0.0852272 0.248147 0.854872
0.0869034 0.248837 0.855536
0.0885997 0.249579 0.8564
0.0903216 0.250385 0.857511
0.0920934 0.251323 0.859127
0.0939164 0.252384 0.861219
0.0957389 0.253429 0.863234
0.0975226 0.254352 0.864772
-0.0399378 0.207663 0.84593
-0.0379171 0.20594 0.835593
-0.0363379 0.206328 0.835072
-0.0347745 0.206796 0.834919
-0.0332078 0.207244 0.834675
-0.0316358 0.207656 0.834271
-0.0300674 0.208085 0.833943
-0.028505 0.20855 0.833777
-0.0269312 0.208933 0.833243
-0.025356 0.209296 0.832618
-0.0237843 0.209673 0.832058
-0.0222107 0.210021 0.831369
-0.0206346 0.21033 0.830509
-0.0190657 0.210683 0.829846
-0.0175047 0.211097 0.829465
-0.0159452 0.211518 0.829113
0.00269553 0.224907 0.861336
0.00430336 0.225038 0.859656
0.00590725 0.22527 0.858418
0.00751208 0.225728 0.858166
0.00911452 0.226118 0.857617
0.0107185 0.226593 0.857443
0.0123269 0.227178 0.857737
0.0139365 0.227761 0.858022
0.0155402 0.228213 0.857742
0.0171505 0.22878 0.85796
0.0187584 0.229297 0.857957
0.0203647 0.229786 0.85784
0.0219749 0.230325 0.857933
0.0235839 0.230842 0.85793
0.025196 0.231386 0.858043
0.0268116 0.231958 0.85827
0.0284313 0.232557 0.858611
0.0300531 0.233161 0.858972
0.031689 0.233867 0.859754
0.033322 0.234532 0.860363
0.0349646 0.235246 0.861172
0.0366165 0.236007 0.862173
0.0382963 0.23693 0.863843
0.0399628 0.23773 0.864996
0.0416276 0.238498 0.866005
0.043304 0.23931 0.867196
0.057646 0.242539 0.861173
0.0592476 0.24297 0.860806
0.0608584 0.243439 0.860593
0.0624517 0.243841 0.860112
0.064034 0.244202 0.859469
0.065634 0.244642 0.859141
0.0672192 0.245024 0.858584
0.0687944 0.245374 0.857904
0.070359 0.245692 0.857099
0.0719286 0.246036 0.8564
0.0735047 0.246409 0.855815
0.0750966 0.246841 0.855468
0.0766973 0.247305 0.855246
0.0782903 0.247742 0.854918
0.0799048 0.248252 0.854877
0.0815204 0.248766 0.854855
0.0831573 0.249342 0.855071
0.0848066 0.249955 0.855429
0.0864746 0.250619 0.855988
0.0881721 0.251363 0.856851
0.0899049 0.252202 0.858076
0.0916785 0.253142 0.859691
0.0934928 0.254186 0.861696
0.0953135 0.255227 0.863682
0.0970954 0.256149 0.8652
-0.0371682 0.209595 0.842724
-0.0352549 0.208247 0.83424
-0.0336936 0.208723 0.834126
-0.0324373 0.211001 0.842224
-0.0195741 0.21237 0.830254
-0.0180088 0.212756 0.829748
-0.0164437 0.213131 0.829191
0.000567368 0.227137 0.86608
0.00218678 0.227314 0.864592
0.00380145 0.227405 0.86274
0.00541075 0.227543 0.861098
0.00701804 0.227847 0.860176
0.00862106 0.228085 0.858976
0.0102256 0.228483 0.858466
0.0118334 0.228995 0.858445
0.0134411 0.229503 0.858404
0.0150443 0.229916 0.857961
0.0166537 0.230455 0.858054
0.0182609 0.230947 0.857946
0.019868 0.231442 0.857847
0.021481 0.232006 0.858046
0.0230931 0.232549 0.858148
0.0247089 0.233123 0.858385
0.0263283 0.233723 0.858726
0.0279521 0.234351 0.859182
0.0295778 0.234977 0.859629
0.0312149 0.235685 0.86041
0.0328496 0.236351 0.861018
0.0344933 0.237067 0.861827
0.0361473 0.237835 0.862847
0.037826 0.238746 0.864449
0.0394955 0.239563 0.865658
0.0411668 0.240365 0.866801
0.0572309 0.244511 0.862388
0.0588362 0.244945 0.862031
0.0604538 0.245434 0.861894
0.0620614 0.245882 0.861594
0.0636401 0.246217 0.860846
0.0652424 0.246649 0.86049
0.0668291 0.247027 0.859914
0.0684005 0.24735 0.859128
0.0699692 0.247673 0.858343
0.0715422 0.24802 0.857653
0.0731057 0.248337 0.856849
0.0746834 0.248709 0.856264
0.0762684 0.249112 0.855803
0.0778536 0.24952 0.855362
0.0794546 0.249981 0.85513
0.0810718 0.250496 0.855107
0.0827082 0.251071 0.855313
0.0843576 0.251682 0.855662
0.0860184 0.252323 0.856125
0.0877184 0.253074 0.857007
0.0894618 0.253947 0.858355
0.0912367 0.254893 0.859979
0.0930407 0.255911 0.861868
0.0948482 0.256918 0.86371
0.0966272 0.257836 0.865199
0.0995393 0.258821 0.873419
0.0990084 0.260361 0.872805
-0.00105412 0.226823 0.866975
-0.00157142 0.228819 0.868407
5.33196e-05 0.229145 0.86756
0.00167652 0.229343 0.866168
0.0032954 0.229463 0.86445
0.00490883 0.229564 0.862656
0.00651901 0.229807 0.861476
0.00812469 0.230013 0.860142
0.00973069 0.230361 0.859421
0.0113389 0.230827 0.859198
0.0129474 0.231303 0.859023
0.0145505 0.231683 0.858437
0.0161598 0.232191 0.858396
0.0177666 0.232661 0.858192
0.0193753 0.233158 0.858103
0.020991 0.233746 0.858397
0.0226065 0.234317 0.858614
0.0242219 0.234874 0.858774
0.0258453 0.235505 0.859239
0.0274725 0.236155 0.859781
0.0290996 0.23678 0.860218
0.0307377 0.23749 0.860998
0.0323767 0.238181 0.861702
0.0340186 0.238874 0.862405
0.0356768 0.239667 0.863519
0.0373612 0.240616 0.865264
0.0390243 0.241382 0.866253
0.0406966 0.242187 0.867395
0.0584635 0.247106 0.86397
0.060081 0.247579 0.863765
0.0616989 0.248056 0.86358
0.0632682 0.248331 0.862594
0.0648582 0.248704 0.861999
0.066418 0.24896 0.860946
0.0679751 0.249221 0.859913
0.0695313 0.249488 0.858909
0.0711067 0.249834 0.858219
0.0726729 0.250152 0.857425
0.0742581 0.250546 0.856926
0.0758438 0.250945 0.856446
0.0774228 0.251323 0.85589
0.0790166 0.251758 0.855553
0.0806266 0.252244 0.855416
0.0822559 0.252794 0.855527
0.0838986 0.253382 0.85578
0.0855703 0.254057 0.856367
0.0872806 0.254839 0.857362
0.0890352 0.255745 0.858823
0.0908115 0.256697 0.860456
0.0926153 0.257716 0.862335
0.0944128 0.258699 0.864071
0.0961807 0.259584 0.865426
0.0979103 0.260355 0.866343
-0.00371589 0.230304 0.86986
-0.00208737 0.230668 0.869176
-0.000460545 0.23102 0.868444
0.00116533 0.231247 0.867187
0.00278734 0.231404 0.865632
0.00440445 0.231506 0.863849
0.00601769 0.231748 0.862668
0.00762671 0.231943 0.861297
0.00923562 0.232289 0.860566
0.0108456 0.232731 0.860238
0.0124554 0.233183 0.859958
0.0140599 0.233533 0.859247
0.0156695 0.234012 0.859082
0.017277 0.234461 0.858792
0.0188874 0.234961 0.858712
0.0205066 0.235576 0.859111
0.0221259 0.236173 0.859433
0.0237454 0.236754 0.859688
0.0253689 0.237369 0.860076
0.026998 0.238021 0.860617
0.0286266 0.238645 0.861044
0.0302634 0.239331 0.861719
0.0318982 0.239975 0.862222
0.0335442 0.240695 0.86303
0.0351998 0.241463 0.864028
0.036872 0.242321 0.86539
0.0385178 0.242971 0.865901
0.0580761 0.249221 0.865697
0.0597011 0.249711 0.865559
0.0613272 0.250207 0.86544
0.0629048 0.250501 0.86453
0.0644764 0.25078 0.863563
0.0660081 0.250911 0.862025
0.0675429 0.251071 0.860602
0.0690766 0.251243 0.859235
0.0706391 0.251535 0.858336
0.0722071 0.251856 0.857552
0.0737951 0.252254 0.857072
0.0753816 0.252652 0.856592
0.0769686 0.253055 0.856132
0.0785631 0.253484 0.855776
0.0801739 0.253971 0.855639
0.0818039 0.254522 0.855749
0.0834553 0.255135 0.856098
0.0851294 0.255814 0.856693
0.0868505 0.256631 0.857812
0.088616 0.257568 0.859377
0.0904028 0.258556 0.861132
0.0921991 0.259553 0.862915
0.0939875 0.26051 0.864536
0.0957555 0.261398 0.86589
0.0974756 0.26214 0.866693
0.100269 0.262807 0.873602
0.0991995 0.262888 0.867514
-0.00587581 0.231995 0.872173
-0.00423971 0.232296 0.871221
-0.00260579 0.232574 0.870174
-0.000975837 0.232901 0.869337
0.000652678 0.233132 0.868099
0.00227767 0.233333 0.866736
0.0038982 0.233436 0.864973
0.00551472 0.233682 0.863811
0.00712693 0.233874 0.862431
0.00873741 0.23417 0.86149
0.0103475 0.234536 0.860846
0.0119582 0.234961 0.860451
0.0135643 0.235311 0.859741
0.0151757 0.235795 0.859594
0.0167865 0.23627 0.859409
0.0184018 0.236821 0.85954
0.020023 0.237438 0.859938
0.0216481 0.238087 0.86047
0.0232726 0.2387 0.860849
0.0248984 0.239313 0.861227
0.0265298 0.239967 0.861768
0.0281603 0.240594 0.862194
0.0297942 0.241232 0.862668
0.031425 0.241829 0.86297
0.0330658 0.242494 0.863548
0.0347077 0.243153 0.864098
0.0363621 0.243886 0.864943
0.0379961 0.244457 0.86513
0.0396522 0.245168 0.865879
0.0576953 0.251381 0.867574
0.0593251 0.251878 0.867455
0.0609492 0.252351 0.86724
0.0625237 0.252613 0.866207
0.0640922 0.252862 0.865126
0.0655964 0.252867 0.863102
0.0671096 0.252927 0.861299
0.0686284 0.253032 0.859676
0.0701843 0.25329 0.858653
0.0717474 0.253585 0.857774
0.0733379 0.253989 0.857313
0.0749272 0.254391 0.856852
0.0765088 0.254769 0.856297
0.0781042 0.255198 0.855941
0.0797229 0.25571 0.855899
0.081362 0.256284 0.856095
0.0830157 0.256904 0.856462
0.0846898 0.257582 0.857047
0.0864202 0.258427 0.85826
0.0881882 0.259374 0.859853
0.089978 0.26037 0.861626
0.0917852 0.261402 0.863522
0.0935832 0.26239 0.865247
0.0953631 0.263311 0.866714
0.0970848 0.264055 0.867516
0.0988197 0.264829 0.868423
-0.00639355 0.233713 0.872347
-0.00475771 0.234064 0.871606
-0.00312217 0.234352 0.870606
-0.00148993 0.234655 0.869674
0.000140193 0.234907 0.868532
0.00176693 0.235157 0.86738
0.00339011 0.235295 0.86577
0.0050096 0.235572 0.864743
0.00662511 0.23579 0.863477
0.00823844 0.236079 0.862508
0.00984943 0.236387 0.861626
0.0114614 0.236784 0.861116
0.0130699 0.237135 0.860415
0.0146832 0.237623 0.860278
0.016296 0.238103 0.860112
0.0179164 0.238704 0.860443
0.0195416 0.239357 0.860984
0.0211715 0.240038 0.861639
0.0227985 0.240658 0.862037
0.0244266 0.24127 0.862405
0.0260576 0.241895 0.862822
0.0276848 0.242469 0.863028
0.0293174 0.243081 0.863387
0.0309461 0.243646 0.863554
0.0325812 0.244256 0.863903
0.0341996 0.244724 0.86368
0.0358374 0.24534 0.864048
0.0374511 0.245772 0.863681
0.0589664 0.254143 0.869701
0.0605829 0.25456 0.869267
0.0621561 0.254798 0.868138
0.063709 0.254965 0.866744
0.0651964 0.254879 0.864378
0.066697 0.254873 0.862327
0.0682034 0.254914 0.860467
0.0697526 0.255137 0.859312
0.0713101 0.255404 0.858328
0.0729023 0.255808 0.857867
0.0744944 0.25621 0.857407
0.0760858 0.256618 0.856965
0.0776843 0.257052 0.856628
0.0793067 0.257567 0.856596
0.0809396 0.25812 0.856706
0.0825937 0.258736 0.857053
0.0842686 0.259413 0.857629
0.0860014 0.260265 0.85886
0.0877706 0.261218 0.860462
0.0895712 0.262249 0.862348
0.0913898 0.263315 0.864357
0.0932012 0.264342 0.866213
0.0949934 0.265297 0.867794
0.0967288 0.266074 0.868709
0.0984779 0.266884 0.869738
-0.00855352 0.235129 0.873452
-0.00691235 0.23544 0.872548
-0.00527518 0.235794 0.871826
-0.00363711 0.236045 0.870674
-0.00200285 0.236315 0.869609
-0.000371843 0.236587 0.868553
0.00125596 0.236863 0.867516
0.00288094 0.237033 0.86605
0.00450214 0.237323 0.865081
0.00612017 0.23759 0.864026
0.00773533 0.237866 0.863009
0.00934815 0.238165 0.862089
0.0109624 0.238583 0.861665
0.012574 0.238962 0.861079
0.0141895 0.239456 0.86097
0.0158055 0.23996 0.8609
0.0174295 0.240591 0.861345
0.0190553 0.241227 0.861809
0.0206875 0.241922 0.862512
0.0223147 0.242517 0.862804
0.0239419 0.2431 0.863048
0.025569 0.24367 0.863235
0.0271967 0.244237 0.863412
0.0288273 0.244822 0.863656
0.0304535 0.245356 0.863699
0.0320863 0.245941 0.863943
0.033701 0.246374 0.863577
0.0353319 0.246933 0.863716
0.036938 0.24731 0.86313
0.0602347 0.256872 0.871653
0.0617996 0.257049 0.870296
0.0633369 0.257127 0.868559
0.0648146 0.256982 0.865976
0.0663135 0.256948 0.863831
0.0678036 0.256905 0.861657
0.0693479 0.257098 0.860388
0.0709058 0.257354 0.859366
0.0724986 0.257747 0.858867
0.0740927 0.258153 0.858416
0.0756952 0.258588 0.858079
0.077305 0.259054 0.857856
0.0789309 0.259572 0.857833
0.0805591 0.260101 0.857848
0.0822163 0.260721 0.858205
0.0838927 0.261397 0.85877
0.0856267 0.262253 0.86
0.0873897 0.263181 0.861496
0.0892019 0.264246 0.863495
0.0910229 0.265321 0.865522
0.0928472 0.266383 0.867491
0.0946562 0.267386 0.869232
0.0964078 0.268207 0.870299
0.098151 0.268996 0.871242
-0.00743402 0.237222 0.872969
-0.00579452 0.23756 0.87218
-0.00415363 0.237777 0.870895
-0.00251669 0.237998 0.869629
-0.000884419 0.238268 0.868573
0.000744526 0.238568 0.867642
0.00237091 0.238792 0.866406
0.00399402 0.239113 0.86557
0.00561445 0.239408 0.864631
0.00723173 0.239678 0.863595
0.00884658 0.239974 0.862665
0.010462 0.240371 0.862155
0.0120754 0.240751 0.861579
0.0136926 0.241247 0.86147
0.0153113 0.241772 0.861486
0.0169382 0.242432 0.862045
0.0185659 0.24307 0.862509
0.0202 0.243774 0.863239
0.0218304 0.244392 0.863617
0.0234567 0.244943 0.863727
0.0250799 0.245452 0.863666
0.0267064 0.245991 0.863729
0.0283325 0.246522 0.863753
0.0299505 0.246978 0.863482
0.0315816 0.247547 0.863659
0.0331863 0.247895 0.862959
0.0347969 0.248302 0.862497
0.0363831 0.248535 0.861349
0.0582577 0.258776 0.874481
0.0598707 0.259135 0.873818
0.061424 0.25924 0.872186
0.0629466 0.259231 0.870126
0.0644285 0.259081 0.867534
0.0659247 0.259015 0.865275
0.0674117 0.258942 0.862998
0.0689526 0.259106 0.861624
0.0705042 0.259324 0.86046
0.0720915 0.259687 0.859847
0.0736798 0.260063 0.859282
0.0752849 0.260498 0.858945
0.0769052 0.260992 0.858826
0.0785417 0.261544 0.858926
0.0801807 0.262099 0.859036
0.0818559 0.262772 0.859582
0.083536 0.263456 0.860166
0.0852654 0.264289 0.861301
0.0870203 0.265192 0.862691
0.0888316 0.266254 0.864661
0.0906455 0.267305 0.866582
0.0924751 0.268384 0.868597
0.0943085 0.269455 0.870575
0.0960758 0.270318 0.871783
0.0978128 0.271084 0.87263
-0.00959932 0.238653 0.87411
-0.00795267 0.238919 0.873026
-0.00631214 0.239261 0.872256
-0.00466911 0.239458 0.870895
-0.00303083 0.239677 0.869629
-0.00139739 0.239951 0.868593
0.000232179 0.240296 0.867854
0.00186003 0.24057 0.866828
0.00348494 0.240895 0.866012
0.00510731 0.241193 0.865091
0.00672659 0.241463 0.864056
0.00834287 0.241731 0.863021
0.00995977 0.242131 0.862521
0.011576 0.242547 0.862088
0.0131961 0.24307 0.862094
0.0148175 0.243623 0.862214
0.0164471 0.244304 0.862849
0.018075 0.244917 0.863208
0.0197084 0.245592 0.863814
0.0213376 0.246178 0.864057
0.022965 0.246725 0.864148
0.024587 0.247205 0.863973
0.0262147 0.247746 0.864035
0.0278418 0.248277 0.864059
0.0294645 0.248762 0.863902
0.0310921 0.249288 0.863908
0.0326941 0.249599 0.863065
0.0578611 0.260925 0.876177
0.0594738 0.261267 0.875448
0.061016 0.261303 0.873559
0.0625312 0.261242 0.87131
0.0640205 0.2611 0.868766
0.0655262 0.261057 0.866603
0.0670176 0.260982 0.864327
0.0685756 0.261198 0.863153
0.0701301 0.261413 0.86198
0.0717131 0.261748 0.861263
0.0732974 0.262093 0.860583
0.0749053 0.262532 0.860256
0.0765286 0.263027 0.860137
0.078176 0.263606 0.860332
0.0798266 0.264193 0.860555
0.0815065 0.264873 0.86112
0.0831907 0.265564 0.861722
0.0849134 0.266369 0.862742
0.0866597 0.267239 0.863999
0.0884629 0.268274 0.865853
0.090277 0.269324 0.867754
0.0921196 0.270444 0.869901
0.0939661 0.271553 0.872
0.0957472 0.272453 0.873331
0.0974856 0.273216 0.874159
-0.0101145 0.240256 0.873765
-0.00846645 0.240509 0.872633
-0.00682528 0.240843 0.871835
-0.00518337 0.241089 0.870685
-0.00354346 0.241283 0.869324
-0.00190929 0.241556 0.868289
-0.000279242 0.2419 0.867549
0.00134919 0.242196 0.866619
0.00297483 0.242525 0.865822
0.00459836 0.24285 0.865017
0.00621936 0.243173 0.864201
0.00783813 0.24349 0.863367
0.00945734 0.24392 0.862991
0.0110763 0.244364 0.862672
0.0126991 0.244917 0.862792
0.0143226 0.245473 0.862922
0.0159521 0.24613 0.863452
0.0175796 0.246712 0.863686
0.0192121 0.247353 0.864149
0.0208405 0.247913 0.864287
0.0224665 0.248435 0.864273
0.02409 0.24892 0.864116
0.0257187 0.249461 0.864179
0.0273471 0.249997 0.864222
0.0289735 0.25051 0.86417
0.0306053 0.251066 0.864289
0.0322167 0.251442 0.863704
0.0574347 0.262953 0.877387
0.0590544 0.26331 0.876715
0.0606047 0.263364 0.874903
0.0621276 0.263318 0.872721
0.0636197 0.263166 0.87015
0.0651222 0.26309 0.867873
0.0666106 0.262985 0.865493
0.0681721 0.2632 0.86432
0.0697377 0.263444 0.863261
0.0713311 0.263805 0.862638
0.072927 0.264183 0.862083
0.0745461 0.264651 0.861859
0.0761798 0.265172 0.861835
0.0778236 0.265727 0.861935
0.0794787 0.266321 0.862176
0.0811642 0.267011 0.862769
0.0828609 0.267735 0.863485
0.0845694 0.268489 0.864304
0.086316 0.269352 0.865522
0.0881186 0.270384 0.867347
0.089927 0.271414 0.869162
0.0917631 0.27251 0.871203
0.0936117 0.273626 0.873311
0.0953816 0.27449 0.874498
0.0970902 0.275161 0.874984
-0.0106384 0.242013 0.87405
-0.00898696 0.24223 0.872775
-0.00734339 0.242539 0.871882
-0.00569775 0.242719 0.870465
-0.00405597 0.242883 0.86899
-0.0024206 0.243128 0.86785
-0.000790105 0.243471 0.867111
0.000838478 0.243792 0.866286
0.00246466 0.244148 0.865604
0.00408897 0.244503 0.864923
0.00571132 0.244853 0.864222
0.00733158 0.245196 0.863493
0.00895257 0.245649 0.863213
0.0105738 0.246122 0.863008
0.012198 0.246688 0.863176
0.0138239 0.247274 0.863419
0.0154534 0.247903 0.863834
0.0170788 0.248431 0.863849
0.0187097 0.24904 0.864178
0.0203407 0.249624 0.864412
0.0219681 0.250154 0.864426
0.0235957 0.250676 0.864412
0.0252328 0.2513 0.864798
0.0268655 0.251864 0.864946
0.0284971 0.252406 0.865008
0.0301359 0.253012 0.865317
0.031772 0.25358 0.865474
0.0569699 0.264804 0.877911
0.0586084 0.265242 0.877544
0.0601605 0.265289 0.875713
0.061687 0.26524 0.873532
0.0631946 0.265139 0.871161
0.0647005 0.26506 0.868885
0.0661871 0.264928 0.866421
0.0677587 0.26517 0.865352
0.0693343 0.265442 0.864397
0.0709324 0.265814 0.863813
0.0725472 0.266251 0.863476
0.0741706 0.266722 0.863262
0.0758156 0.267276 0.863351
0.0774785 0.267889 0.863659
0.079155 0.268547 0.864128
0.0808462 0.269249 0.864758
0.0825641 0.270033 0.865681
0.0842742 0.270782 0.866472
0.0860068 0.271594 0.86749
0.0877938 0.27257 0.869095
0.0895875 0.273547 0.8707
0.0913965 0.274558 0.872418
0.093215 0.275581 0.874174
0.094964 0.276382 0.875124
0.0966512 0.276988 0.875373
-0.00949927 0.243783 0.872229
-0.00785401 0.244058 0.871203
-0.00620814 0.244238 0.869796
-0.00456508 0.244369 0.868198
-0.0029296 0.244608 0.867039
-0.00129944 0.244952 0.86631
0.000328583 0.245302 0.865609
0.00195435 0.245715 0.865157
0.00357899 0.2461 0.864599
0.00520211 0.246478 0.864014
0.00682366 0.246846 0.86339
0.0084465 0.247355 0.863328
0.0100695 0.247859 0.863248
0.0116966 0.248481 0.863634
0.0133241 0.24907 0.863887
0.0149534 0.249674 0.864197
0.0165782 0.250169 0.864078
0.0182084 0.250747 0.864283
0.0198401 0.251338 0.864536
0.0214713 0.251904 0.864693
0.0231069 0.252512 0.865012
0.0247483 0.253175 0.86554
0.0263882 0.253793 0.865897
0.0280301 0.254423 0.866292
0.0296885 0.255188 0.86721
0.0313554 0.256001 0.868308
0.0564618 0.26645 0.877656
0.0580985 0.266878 0.87725
0.0596632 0.266973 0.875611
0.0611988 0.266957 0.873563
0.0627243 0.266921 0.871449
0.0642469 0.266901 0.869403
0.0657554 0.266848 0.867242
0.0673366 0.267118 0.866278
0.068923 0.267423 0.865447
0.0705325 0.267825 0.864977
0.0721821 0.268387 0.865095
0.0738269 0.268929 0.865136
0.0754861 0.269523 0.865368
0.0771686 0.270196 0.865884
0.0788662 0.270913 0.86656
0.0805365 0.27153 0.866867
0.0822422 0.272264 0.867601
0.0839286 0.272924 0.868059
0.0856351 0.273644 0.868735
0.0873869 0.274502 0.869904
0.0891612 0.27542 0.87128
0.09095 0.276368 0.872761
0.0927553 0.277355 0.874373
0.0944916 0.278115 0.875171
0.0961769 0.278714 0.875391
-0.0116574 0.245017 0.872528
-0.0100043 0.245202 0.87114
-0.0083593 0.245468 0.870086
-0.00671471 0.245666 0.868765
-0.00507169 0.24579 0.867149
-0.00343733 0.246051 0.866086
-0.00180835 0.246425 0.865481
-0.000181067 0.246808 0.864914
0.00144437 0.247248 0.864576
0.00306904 0.247688 0.864238
0.00469271 0.248096 0.863776
0.00631525 0.2485 0.863296
0.0079394 0.24904 0.863358
0.00956449 0.249598 0.863487
0.0111935 0.25025 0.863987
0.0128231 0.25087 0.864354
0.0144539 0.251472 0.864654
0.0160798 0.251963 0.864516
0.0177109 0.25254 0.864711
0.0193441 0.253131 0.864964
0.0209791 0.253732 0.865254
0.0226189 0.254379 0.865715
0.0242694 0.255129 0.866576
0.0259167 0.255811 0.86717
0.0275702 0.256534 0.867917
0.0292422 0.257406 0.869233
0.030928 0.258366 0.870882
0.0560271 0.268465 0.878767
0.0576241 0.268688 0.877602
0.0591753 0.268707 0.875688
0.0607222 0.268732 0.873802
0.0622587 0.268732 0.871832
0.0637919 0.268745 0.869919
0.0653173 0.268749 0.867978
0.0669071 0.269046 0.867118
0.0685046 0.269384 0.866411
0.070118 0.269792 0.865959
0.0718005 0.270478 0.866522
0.0734743 0.271118 0.866914
0.0751576 0.271789 0.86742
0.0768548 0.272506 0.868087
0.0785715 0.273281 0.868962
0.0802034 0.273747 0.868719
0.0818913 0.274411 0.869186
0.083544 0.274945 0.86919
0.0852231 0.27557 0.869515
0.0869368 0.276301 0.870218
0.0886864 0.277142 0.87131
0.0904427 0.277992 0.87243
0.0922358 0.278942 0.8739
0.0939627 0.279677 0.874603
0.0956478 0.280279 0.874832
-0.0105064 0.246576 0.86988
-0.00886099 0.246816 0.868731
-0.00721824 0.247034 0.867496
-0.00557468 0.247123 0.865757
-0.00394144 0.247384 0.864704
-0.00231374 0.247759 0.864109
-0.000688694 0.248201 0.863781
0.000935173 0.248701 0.863681
0.00255902 0.249199 0.863572
0.00418278 0.249635 0.863225
0.00580585 0.250094 0.862963
0.0074301 0.250642 0.863054
0.0090562 0.251234 0.863316
0.0106862 0.25192 0.86394
0.0123175 0.252567 0.864411
0.0139488 0.253173 0.86472
0.0155782 0.253713 0.864773
0.0172119 0.254317 0.865072
0.0188479 0.254939 0.865438
0.0204864 0.255572 0.865842
0.0221319 0.256276 0.866522
0.0237868 0.257064 0.867516
0.0254395 0.257787 0.868262
0.0271011 0.258577 0.869254
0.0287828 0.259527 0.870855
0.0304726 0.260504 0.872551
0.0321449 0.261272 0.873448
0.0556117 0.270596 0.880285
0.0571776 0.270643 0.878475
0.0587198 0.2706 0.876343
0.0602694 0.270623 0.874459
0.0618111 0.270633 0.872536
0.0633421 0.270621 0.870538
0.0648895 0.270706 0.868901
0.0664909 0.271042 0.868184
0.0680936 0.271387 0.867505
0.0697027 0.271769 0.866959
0.0714084 0.272538 0.867815
0.0730869 0.27319 0.868245
0.0747716 0.273858 0.868731
0.0764749 0.274587 0.869435
0.0781832 0.275328 0.870177
0.0797783 0.275655 0.869432
0.0814287 0.276179 0.869397
0.0830506 0.276609 0.869021
0.0846906 0.277099 0.868863
0.0863791 0.277751 0.869283
0.0881047 0.278519 0.870109
0.0898367 0.279298 0.870973
0.0916093 0.280194 0.872244
0.0933359 0.280938 0.872975
0.0950117 0.281516 0.873119
-0.0110003 0.24782 0.868115
-0.00935708 0.248067 0.867005
-0.00771581 0.248283 0.865771
-0.0060747 0.248401 0.864157
-0.00444379 0.248688 0.863219
-0.00281827 0.249091 0.862738
-0.00119524 0.249566 0.862543
0.000426665 0.250124 0.862672
0.00204939 0.25068 0.862792
0.00367276 0.251145 0.862559
0.00529612 0.251662 0.862526
0.0069207 0.252237 0.862721
0.00854733 0.25286 0.863097
0.0101784 0.253571 0.863816
0.01181 0.254229 0.864325
0.013443 0.254868 0.864757
0.0150748 0.255446 0.864952
0.0167095 0.256056 0.865271
0.0183467 0.256681 0.865646
0.0199911 0.257394 0.866354
0.0216401 0.258131 0.867147
0.023301 0.258983 0.868378
0.0249607 0.259771 0.869361
0.0266302 0.260626 0.87059
0.0283131 0.261572 0.872162
0.0300023 0.262528 0.873761
0.0316718 0.26325 0.874477
0.0338337 0.262152 0.874763
0.033351 0.264038 0.87543
0.0536127 0.272655 0.883497
0.0551974 0.272749 0.881858
0.0567445 0.272677 0.879622
0.0582698 0.272531 0.877121
0.0598074 0.272478 0.874971
0.0613439 0.272452 0.872927
0.0628767 0.272435 0.87092
0.0644336 0.272549 0.869397
0.0660314 0.272861 0.868595
0.0676297 0.27318 0.867822
0.0692179 0.273469 0.866944
0.0709354 0.274285 0.867961
0.0726215 0.274967 0.868494
0.0743109 0.27565 0.869028
0.0760318 0.276447 0.869968
0.0777311 0.27715 0.870567
0.0792797 0.2773 0.869198
0.0808891 0.277681 0.868651
0.0824876 0.278027 0.867982
0.0840838 0.278373 0.867314
0.0857498 0.278956 0.867487
0.0874507 0.279652 0.868057
0.0891575 0.280362 0.868675
0.0909081 0.281202 0.869747
0.0926335 0.281952 0.870496
0.0943081 0.282538 0.870669
-0.011468 0.248636 0.864675
-0.00983361 0.248965 0.863899
-0.00820355 0.249339 0.863304
-0.00656922 0.249562 0.862119
-0.00494233 0.249904 0.861401
-0.00331968 0.250337 0.861044
-0.00169972 0.250865 0.861059
-8.00931e-05 0.251455 0.861312
0.00154087 0.252044 0.861564
0.00316292 0.252541 0.861455
0.0047858 0.253134 0.861717
0.00640992 0.253739 0.862027
0.00803708 0.254421 0.862631
0.009669 0.255193 0.863577
0.0113026 0.255907 0.864295
0.0129374 0.256579 0.864851
0.0145716 0.257195 0.865188
0.0162075 0.257814 0.865535
0.0178474 0.25847 0.866024
0.0194945 0.259213 0.866836
0.0211467 0.259986 0.867762
0.0228136 0.260903 0.869229
0.0244801 0.261755 0.870439
0.0261538 0.262637 0.871763
0.0278366 0.263567 0.873258
0.0295216 0.26447 0.874648
0.0311868 0.26514 0.875154
0.0328577 0.265843 0.875783
0.0520369 0.272635 0.885412
0.0515547 0.274476 0.885806
0.0531372 0.274514 0.883968
0.0547274 0.274624 0.882396
0.0562694 0.274508 0.880009
0.057798 0.274363 0.877528
0.0593456 0.274345 0.875512
0.0608766 0.274277 0.873326
0.0624037 0.27422 0.871188
0.063962 0.27433 0.869656
0.0655459 0.274572 0.868608
0.0671314 0.274832 0.867626
0.0687038 0.275049 0.866493
0.0703956 0.275766 0.867149
0.0720703 0.276406 0.867531
0.0737489 0.277053 0.867932
0.0754539 0.277795 0.868673
0.0771329 0.278432 0.869036
0.0786679 0.278535 0.867506
0.0802448 0.278805 0.866572
0.081824 0.27909 0.865695
0.0834078 0.279398 0.864904
0.085065 0.279965 0.865021
0.086752 0.280626 0.865468
0.0884534 0.281331 0.866067
0.090188 0.282134 0.867006
0.0918985 0.282852 0.867642
0.0935665 0.283431 0.867796
-0.011939 0.249549 0.861657
-0.0103115 0.249931 0.861101
-0.008687 0.250343 0.860659
-0.00705964 0.250659 0.859845
-0.00543652 0.25103 0.859251
-0.00381807 0.251516 0.859104
-0.00220189 0.2521 0.859338
-0.000585329 0.252745 0.859809
0.00103322 0.253392 0.860281
0.00265373 0.253977 0.860514
0.00427572 0.254604 0.860909
0.00589914 0.255213 0.861228
0.00752583 0.255923 0.861937
0.00915691 0.256699 0.862892
0.0107906 0.257447 0.863733
0.0124268 0.258182 0.864526
0.0140635 0.258851 0.865063
0.0157014 0.259506 0.865542
0.0173445 0.260217 0.866231
0.0189944 0.260996 0.867175
0.0206519 0.261835 0.868338
0.0223246 0.262826 0.87007
0.0239954 0.263713 0.871403
0.0256678 0.264568 0.872612
0.0273458 0.265432 0.873849
0.0290225 0.266242 0.874878
0.0306815 0.266846 0.875137
0.0323467 0.267495 0.875557
0.0510719 0.27632 0.886199
0.0526576 0.276361 0.884381
0.0542512 0.276474 0.882829
0.0557939 0.276347 0.880414
0.0573226 0.276186 0.877887
0.0588677 0.276141 0.875786
0.0603877 0.276004 0.873364
0.0619029 0.275881 0.871
0.0634474 0.275919 0.869222
0.0650153 0.276089 0.867919
0.0665827 0.27627 0.866663
0.0681376 0.276414 0.865275
0.0697905 0.276976 0.865383
0.071437 0.27751 0.865386
0.073094 0.278087 0.865541
0.0747776 0.278761 0.866036
0.076437 0.279338 0.86619
0.077987 0.279504 0.864897
0.0795685 0.279799 0.864059
0.0811556 0.280119 0.863315
0.0827485 0.280469 0.862676
0.0844053 0.281043 0.862821
0.0860794 0.281674 0.863165
0.0877564 0.282309 0.863518
0.0894545 0.283009 0.864097
0.0911385 0.283656 0.864488
0.0927904 0.284196 0.86451
-0.01238 0.250015 0.856928
-0.01077 0.250583 0.857105
-0.00915702 0.251111 0.85713
-0.00754052 0.251569 0.856879
-0.00592472 0.252032 0.856647
-0.0043126 0.252608 0.856852
-0.00270129 0.253271 0.85739
-0.00108892 0.253998 0.858175
0.000527002 0.254682 0.858789
0.00214544 0.255327 0.85925
0.00376578 0.255992 0.859788
0.00538842 0.256658 0.860325
0.00701398 0.257375 0.861052
0.00864433 0.25818 0.862112
0.0102778 0.258958 0.863066
0.0119143 0.259726 0.863973
0.0135517 0.260426 0.864624
0.0151905 0.261107 0.865198
0.0168349 0.261849 0.866
0.0184882 0.262691 0.867171
0.0201521 0.263628 0.868694
0.0218262 0.264633 0.870463
0.0235001 0.265558 0.871928
0.0251732 0.266411 0.873118
0.0268463 0.267217 0.874127
0.0285175 0.267965 0.874917
0.0301789 0.268588 0.875242
0.0318519 0.269301 0.8759
0.0552816 0.277996 0.880128
0.056821 0.277876 0.877762
0.0583667 0.277825 0.875653
0.0598889 0.277688 0.873241
0.0613994 0.277529 0.870764
0.0629292 0.277496 0.868742
0.0644818 0.277589 0.867174
0.0660323 0.277694 0.865654
0.0675792 0.277802 0.864153
0.0691935 0.27821 0.863712
0.0708123 0.278638 0.863346
0.0724299 0.279067 0.862981
0.0740839 0.279641 0.863126
0.0757108 0.280107 0.862893
0.0772757 0.280342 0.861857
0.0788519 0.280632 0.861009
0.0804546 0.281021 0.860512
0.0820622 0.281433 0.8601
0.0837248 0.28204 0.860358
0.0853863 0.282641 0.860598
0.0870565 0.283264 0.860913
0.0887193 0.28386 0.861134
0.0903841 0.284457 0.861355
0.0920305 0.284993 0.861367
0.0949379 0.28627 0.869821
0.0936941 0.285585 0.861569
-0.0128241 0.250582 0.85265
-0.0112268 0.251259 0.853256
-0.00962345 0.251863 0.853576
-0.00801726 0.252438 0.853781
-0.00641025 0.253017 0.854006
-0.0048048 0.253684 0.854563
-0.00319789 0.254384 0.855244
-0.00158988 0.255175 0.856266
2.24334e-05 0.255916 0.857098
0.00163806 0.256651 0.857902
0.00325657 0.257352 0.858572
0.00487821 0.258104 0.859432
0.00650289 0.258845 0.860244
0.00813207 0.259654 0.861313
0.00976442 0.260437 0.862277
0.0114008 0.261233 0.863288
0.0130376 0.26194 0.863956
0.0146781 0.262678 0.864739
0.0163266 0.263513 0.865882
0.0179835 0.264418 0.867281
0.0196517 0.265427 0.869059
0.0213284 0.266468 0.870951
0.0230033 0.267399 0.872425
0.0246723 0.268193 0.873386
0.0263404 0.268939 0.874166
0.0280087 0.269653 0.874823
0.0296711 0.270282 0.875167
0.0314603 0.272104 0.879882
0.0547147 0.279356 0.878809
0.056272 0.279328 0.876786
0.0578335 0.279348 0.874942
0.0593637 0.279244 0.872664
0.0608675 0.279047 0.870065
0.0623779 0.278915 0.867703
0.0639039 0.278884 0.86571
0.0654381 0.278919 0.863954
0.0669835 0.279022 0.862445
0.0685667 0.279307 0.861579
0.0701673 0.27967 0.860986
0.071776 0.280075 0.860546
0.0734073 0.280572 0.860427
0.0750223 0.281004 0.86008
0.0766114 0.281341 0.859404
0.0782135 0.281734 0.858926
0.0798327 0.282192 0.858674
0.0814558 0.28267 0.858489
0.0831057 0.283238 0.858616
0.0847546 0.283803 0.858732
0.0864023 0.28436 0.858821
0.0880413 0.284885 0.858796
0.089691 0.285445 0.858894
0.0913432 0.286011 0.859011
0.093017 0.286644 0.859354
0.0958601 0.287722 0.867057
0.0946928 0.287275 0.859688
-0.0273299 0.246451 0.854813
-0.0289477 0.246023 0.855178
-0.0294418 0.247489 0.854392
-0.0278165 0.247853 0.85378
-0.0261861 0.248161 0.852948
-0.0191667 0.247636 0.849266
-0.0212723 0.248704 0.84899
-0.0196449 0.248911 0.847779
-0.0180362 0.249293 0.847253
-0.0148595 0.250566 0.84817
-0.0132764 0.251328 0.849108
-0.0116852 0.252012 0.849742
-0.0100883 0.252637 0.850148
-0.00849253 0.253325 0.850791
-0.00689372 0.254001 0.851386
-0.00529453 0.254738 0.852209
-0.00369348 0.255523 0.853213
-0.00208987 0.256372 0.854453
-0.000480723 0.257144 0.855399
0.00113175 0.257946 0.85645
0.00274824 0.258703 0.857328
0.00436833 0.259516 0.858416
0.00599186 0.260289 0.859342
0.00761957 0.261099 0.86041
0.00925125 0.261904 0.861449
0.0108865 0.262705 0.862469
0.0125223 0.26342 0.863166
0.0141635 0.264192 0.864072
0.0158142 0.265096 0.865461
0.0174721 0.266039 0.866992
0.0191434 0.267115 0.869006
0.0208217 0.268191 0.871011
0.0224982 0.269148 0.872569
0.0241673 0.269939 0.873511
0.0258332 0.270653 0.874168
0.0274988 0.271335 0.874701
0.0292464 0.272845 0.878258
0.0311491 0.275747 0.886874
0.0557006 0.280653 0.875365
0.0572862 0.280801 0.873986
0.0588267 0.280742 0.871879
0.0603296 0.280532 0.869253
0.0618271 0.280331 0.866665
0.0633457 0.280265 0.86456
0.0648736 0.28027 0.86271
0.0664258 0.280403 0.861315
0.0679813 0.28057 0.860042
0.0695635 0.280863 0.859214
0.0711454 0.281161 0.858406
0.0727415 0.281527 0.857833
0.074343 0.281922 0.857365
0.0759525 0.282349 0.85701
0.0775619 0.282779 0.856664
0.0791878 0.283272 0.856536
0.080832 0.283831 0.856634
0.0824781 0.284399 0.856761
0.0841254 0.284963 0.856877
0.0857696 0.285515 0.856947
0.0874049 0.286039 0.856923
0.0890517 0.286596 0.857011
0.0907128 0.287198 0.85725
0.0924063 0.2879 0.857829
0.0941015 0.288606 0.858418
-0.0317877 0.250199 0.860519
-0.0299245 0.24887 0.853283
-0.0282939 0.249185 0.852481
-0.0266604 0.249457 0.851516
-0.0245507 0.248403 0.85186
-0.025024 0.249677 0.850353
-0.0229114 0.248575 0.850506
-0.0233871 0.249859 0.849047
-0.0217501 0.249998 0.847579
-0.0201261 0.250226 0.846464
-0.0185179 0.250597 0.8459
-0.0164462 0.249896 0.847583
-0.0169199 0.251079 0.845765
-0.0153262 0.251618 0.845847
-0.0137399 0.252279 0.846396
-0.0121489 0.252896 0.846773
-0.0105557 0.253506 0.847122
-0.00896497 0.254201 0.847793
-0.0073732 0.254935 0.848607
-0.00578035 0.255729 0.849648
-0.0041858 0.256601 0.850975
-0.00258786 0.257537 0.852538
-0.000983103 0.258396 0.853806
0.000626332 0.259257 0.855074
0.00224057 0.260076 0.85618
0.00385887 0.260927 0.8574
0.0054811 0.2617 0.858326
0.00710724 0.262513 0.859393
0.00873723 0.263316 0.860423
0.0103707 0.264116 0.861433
0.0120063 0.26486 0.862234
0.0136475 0.265672 0.863281
0.0152998 0.266643 0.864907
0.0169602 0.267658 0.866693
0.018636 0.268826 0.869029
0.0203159 0.269936 0.871146
0.0219944 0.270922 0.872798
0.0236639 0.271712 0.87373
0.0253302 0.272423 0.874367
0.0270636 0.273867 0.877667
0.0289028 0.276316 0.884604
0.0535395 0.281819 0.875295
0.0551367 0.282009 0.874068
0.0567167 0.282131 0.872604
0.0582591 0.282079 0.870536
0.0597669 0.281889 0.867996
0.0612633 0.281681 0.8654
0.0627809 0.281608 0.863287
0.0643159 0.281642 0.861551
0.0658742 0.281803 0.86026
0.0674303 0.28197 0.858998
0.0690048 0.282232 0.858067
0.0705695 0.282463 0.857032
0.072147 0.282759 0.856224
0.0737381 0.283114 0.855623
0.0753375 0.283511 0.855165
0.0769452 0.283942 0.854829
0.0785692 0.284437 0.85471
0.0802108 0.284996 0.854808
0.081846 0.28553 0.854822
0.0834818 0.286064 0.854835
0.085125 0.286623 0.854933
0.0867679 0.28718 0.855022
0.0884231 0.287773 0.855233
0.0901019 0.288442 0.855699
0.0918043 0.289181 0.8564
0.0935095 0.289924 0.857111
0.0963224 0.290928 0.864456
0.0952167 0.290662 0.857802
-0.0320162 0.249777 0.852359
-0.0303881 0.250112 0.851642
-0.0287552 0.250396 0.850726
-0.027125 0.250678 0.84981
-0.0254914 0.250905 0.848685
-0.0238608 0.251129 0.847551
-0.0222275 0.251293 0.846188
-0.0206059 0.251534 0.845131
-0.018998 0.251894 0.844529
-0.0173959 0.252306 0.844128
-0.0158013 0.252805 0.844058
-0.0142115 0.253373 0.844255
-0.0126188 0.253915 0.844347
-0.0110258 0.254464 0.844468
-0.00944042 0.255185 0.845235
-0.00785396 0.255949 0.846162
-0.00626511 0.256745 0.847203
-0.00467627 0.257671 0.848728
-0.00308404 0.258687 0.850585
-0.00148368 0.259616 0.852109
0.000122212 0.260542 0.853614
0.00173364 0.261452 0.855052
0.00335026 0.262327 0.856357
0.00497062 0.263082 0.857206
0.00659464 0.263868 0.858169
0.00822259 0.26467 0.859188
0.00985427 0.265466 0.860179
0.0114889 0.26624 0.861084
0.0131316 0.267144 0.862463
0.0147877 0.268233 0.864514
0.0164521 0.269348 0.86665
0.0181308 0.27059 0.869241
0.0198132 0.27174 0.871489
0.0214923 0.272732 0.87315
0.0231604 0.273496 0.873977
0.0248254 0.274182 0.874519
0.0266254 0.276418 0.880658
0.0545565 0.283271 0.87245
0.0561404 0.283417 0.871082
0.0576948 0.283429 0.869251
0.0592036 0.283238 0.866722
0.0606993 0.283023 0.864118
0.0622231 0.282976 0.862109
0.0637645 0.28304 0.860488
0.0653244 0.283207 0.859226
0.0668874 0.283405 0.858078
0.0684532 0.28363 0.857024
0.0700094 0.283826 0.855876
0.07157 0.284051 0.854832
0.073151 0.284372 0.854119
0.0747411 0.284737 0.853557
0.0763398 0.285137 0.853118
0.0779533 0.285601 0.852895
0.0795913 0.286154 0.852975
0.0812242 0.28669 0.852998
0.0828596 0.287232 0.853039
0.084511 0.287827 0.85326
0.0861622 0.288417 0.853462
0.0878254 0.289046 0.853796
0.0895213 0.28978 0.854478
0.0912336 0.290557 0.855302
0.092959 0.291369 0.856238
0.0946968 0.29221 0.857268
0.0969259 0.291399 0.858484
0.0964366 0.293047 0.858279
0.0992372 0.293959 0.865263
0.0982181 0.294001 0.859677
-0.0343879 0.252577 0.858766
-0.0324819 0.251051 0.850851
-0.0308477 0.251331 0.849926
-0.0292055 0.251526 0.848678
-0.027574 0.251776 0.847648
-0.0259397 0.251976 0.846429
-0.024315 0.25223 0.845419
-0.0226903 0.252453 0.844295
-0.0210765 0.252752 0.843466
-0.0194708 0.253115 0.842884
-0.0178725 0.253549 0.842568
-0.0162794 0.254042 0.84248
-0.0146896 0.254583 0.842572
-0.0130989 0.255122 0.842655
-0.0115096 0.255696 0.842871
-0.00992367 0.256359 0.843418
-0.00833847 0.257089 0.844213
-0.00675043 0.257825 0.845026
-0.00516542 0.258755 0.84656
-0.0035773 0.259781 0.848444
-0.00198201 0.260781 0.850224
-0.000380169 0.261773 0.851965
0.00122782 0.262772 0.853725
0.00284207 0.263652 0.855039
0.00446069 0.26443 0.855973
0.00608271 0.26521 0.856907
0.00770875 0.266014 0.857926
0.00933914 0.266842 0.85903
0.0109738 0.267677 0.860153
0.0126172 0.268645 0.861758
0.0142769 0.269863 0.864263
0.0159439 0.271052 0.866654
0.0176229 0.272311 0.869291
0.0193047 0.273469 0.871548
0.0209839 0.274463 0.873208
0.0226504 0.275203 0.873939
0.0243748 0.276651 0.877217
0.0539677 0.284475 0.870645
0.0555587 0.284662 0.869428
0.0571172 0.2847 0.867702
0.0586332 0.284546 0.865316
0.0601362 0.284362 0.862836
0.0616671 0.28435 0.86096
0.0632158 0.284445 0.859453
0.0647768 0.284617 0.85822
0.0663469 0.284846 0.857186
0.0679119 0.285066 0.856123
0.0694666 0.285255 0.854957
0.0710182 0.285443 0.853791
0.072599 0.285765 0.853087
0.0741881 0.286126 0.852516
0.0757781 0.286498 0.851983
0.0773813 0.286925 0.851638
0.079 0.287413 0.851501
0.0806215 0.28791 0.851391
0.0822539 0.288446 0.851414
0.0839131 0.289077 0.851758
0.0855735 0.289707 0.852091
0.0872455 0.290373 0.852548
0.0889484 0.291139 0.853333
0.0906687 0.291948 0.85426
0.0924037 0.292798 0.855319
0.094151 0.293678 0.856471
0.0959135 0.294587 0.857717
0.0977123 0.295601 0.859302
-0.0365153 0.253647 0.858448
-0.034595 0.252132 0.850612
-0.0329428 0.252297 0.84925
-0.031306 0.252545 0.848211
-0.0296617 0.25271 0.846859
-0.0280289 0.252934 0.845735
-0.0263998 0.253159 0.844621
-0.0247803 0.25344 0.843725
-0.023158 0.253668 0.842631
-0.0215521 0.254031 0.842049
-0.0199509 0.254429 0.8416
-0.018356 0.254886 0.841379
-0.016764 0.255377 0.841282
-0.0151755 0.255915 0.841365
-0.0135844 0.256426 0.841343
-0.0119964 0.256995 0.84154
-0.0104093 0.2576 0.841869
-0.00882357 0.25827 0.842435
-0.00723575 0.258945 0.843021
-0.00565472 0.259893 0.844611
-0.0040711 0.260954 0.846618
-0.0024805 0.262024 0.848644
-0.000882658 0.263088 0.85064
0.000722233 0.264171 0.852703
0.00233493 0.265022 0.853902
0.00395151 0.265769 0.854713
0.00557165 0.266544 0.855627
0.0071957 0.267347 0.856636
0.00882476 0.268213 0.857872
0.0104596 0.26912 0.85925
0.0121036 0.270157 0.861092
0.0137633 0.271423 0.863757
0.0154292 0.272626 0.866184
0.0171068 0.27389 0.86882
0.0187871 0.275043 0.871047
0.0204648 0.276036 0.872687
0.0221306 0.276774 0.873409
0.0239166 0.279074 0.879713
0.0533488 0.285497 0.868227
0.0549458 0.28573 0.867181
0.0565236 0.285875 0.865834
0.0580588 0.28582 0.863807
0.0595752 0.285706 0.861583
0.0611194 0.285755 0.859925
0.0626821 0.285918 0.858664
0.0642444 0.286095 0.857451
0.0658218 0.286356 0.85653
0.0673869 0.286571 0.855458
0.0689345 0.286727 0.854189
0.070479 0.286883 0.85292
0.0720589 0.287201 0.852207
0.0736328 0.287503 0.851438
0.0752129 0.287837 0.850782
0.0768051 0.288224 0.850306
0.0784111 0.288669 0.850027
0.0800209 0.289129 0.849796
0.0816593 0.289695 0.849923
0.0833258 0.290361 0.850379
0.0849941 0.291025 0.850825
0.0866729 0.29172 0.851376
0.0883925 0.292547 0.852359
0.0901214 0.293394 0.853408
0.0918575 0.294252 0.854484
0.0936032 0.295133 0.855636
0.0953725 0.296073 0.856976
0.0971507 0.297029 0.858362
-0.0383627 0.253017 0.851612
-0.0367155 0.253256 0.850535
-0.0350598 0.25342 0.849173
-0.0334005 0.253527 0.847602
-0.0317575 0.253716 0.846345
-0.0301151 0.25388 0.845003
-0.0284873 0.254127 0.843975
-0.0268632 0.254377 0.842966
-0.0252488 0.254687 0.842185
-0.0236341 0.254973 0.841318
-0.0220326 0.255368 0.84086
-0.0204328 0.255767 0.840421
-0.0188371 0.256201 0.840115
-0.0172463 0.256689 0.840008
-0.0156574 0.257201 0.839996
-0.0140679 0.257712 0.839975
-0.0124801 0.258256 0.840077
-0.0108931 0.258828 0.840283
-0.00930795 0.259462 0.840716
-0.00772094 0.260097 0.84115
-0.00614122 0.260989 0.842531
-0.00456223 0.26208 0.844632
-0.00297656 0.263206 0.846856
-0.00138303 0.264332 0.849069
0.000218031 0.265484 0.851368
0.00182843 0.266367 0.85268
0.00344336 0.267107 0.853462
0.00506155 0.267876 0.854348
0.00668399 0.268711 0.85547
