ply
format ascii 1.0
element vertex 878
property float x
property float y
property float z
property float nx
property float ny
property float nz
end_header
-1.53647 -4.26477 3.0885 -0.920775 0.294976 -0.255269
-1.51818 -4.24118 3.04956 -0.920775 0.294976 -0.255269
-1.46327 -4.14719 2.95936 -0.920775 0.294976 -0.255269
-1.55685 -4.31195 3.10777 -0.920775 0.294976 -0.255269
-1.47139 -4.1636 2.96982 -0.920775 0.294976 -0.255269
-1.49846 -4.21189 3.01201 -0.920775 0.294976 -0.255269
-1.55325 -4.31777 3.08807 -0.920775 0.294976 -0.255269
-1.48304 -4.1879 2.98393 -0.920775 0.294976 -0.255269
-1.52668 -4.27078 3.04616 -0.920775 0.294976 -0.255269
-1.54772 -4.3093 3.07782 -0.920775 0.294976 -0.255269
-1.53423 -4.29046 3.05075 -0.920775 0.294976 -0.255269
-1.4963 -4.21795 2.99721 -0.920775 0.294976 -0.255269
-1.4702 -4.17337 2.95423 -0.920775 0.294976 -0.255269
-1.47666 -4.1903 2.95809 -0.920775 0.294976 -0.255269
-1.45422 -4.14508 2.92908 -0.920775 0.294976 -0.255269
-1.48314 -4.20685 2.96241 -0.920775 0.294976 -0.255269
-1.46598 -4.17318 2.93921 -0.920775 0.294976 -0.255269
-1.38064 -4.00262 2.82726 -0.920775 0.294976 -0.255269
-1.53152 -4.30968 3.01878 -0.920775 0.294976 -0.255269
-1.45888 -4.16471 2.92329 -0.920775 0.294976 -0.255269
-1.49894 -4.24966 2.97018 -0.920775 0.294976 -0.255269
-1.4647 -4.17731 2.92981 -0.920775 0.294976 -0.255269
-1.48618 -4.22318 2.95456 -0.920775 0.294976 -0.255269
-1.44054 -4.1313 2.89547 -0.920775 0.294976 -0.255269
-1.51656 -4.2937 2.98313 -0.920775 0.294976 -0.255269
-1.52913 -4.32218 2.99571 -0.920775 0.294976 -0.255269
-1.49726 -4.25817 2.95429 -0.920775 0.294976 -0.255269
-1.43691 -4.12801 2.88617 -0.920775 0.294976 -0.255269
-1.47335 -4.20927 2.92423 -0.920775 0.294976 -0.255269
-1.5107 -4.28957 2.9667 -0.920775 0.294976 -0.255269
-1.4951 -4.26118 2.94302 -0.920775 0.294976 -0.255269
-1.53173 -4.35089 2.97204 -0.920775 0.294976 -0.255269
-1.42637 -4.10997 2.86884 -0.920775 0.294976 -0.255269
-1.45481 -4.1751 2.89657 -0.920775 0.294976 -0.255269
-1.41115 -4.07833 2.85031 -0.920775 0.294976 -0.255269
-1.38611 -4.02014 2.82685 -0.920775 0.294976 -0.255269
-1.51577 -4.32382 2.94552 -0.920775 0.294976 -0.255269
-1.52218 -4.34117 2.94867 -0.920775 0.294976 -0.255269
-1.48218 -4.25188 2.90702 -0.920775 0.294976 -0.255269
-1.44019 -4.15063 2.87195 -0.920775 0.294976 -0.255269
-1.48732 -4.26163 2.91434 -0.920775 0.294976 -0.255269
-1.5219 -4.35215 2.935 -0.920775 0.294976 -0.255269
-1.47813 -4.24532 2.89993 -0.920775 0.294976 -0.255269
-1.50374 -4.30801 2.92026 -0.920775 0.294976 -0.255269
-1.52907 -4.37369 2.9361 -0.920775 0.294976 -0.255269
-1.46906 -4.22984 2.88499 -0.920775 0.294976 -0.255269
-1.411 -4.08562 2.84134 -0.920775 0.294976 -0.255269
-1.50645 -4.32908 2.90574 -0.920775 0.294976 -0.255269
-1.51874 -4.35762 2.91727 -0.920775 0.294976 -0.255269
-1.49862 -4.31382 2.89503 -0.920775 0.294976 -0.255269
-1.39093 -4.03887 2.82269 -0.920775 0.294976 -0.255269
-1.51309 -4.35391 2.90111 -0.920775 0.294976 -0.255269
-1.45488 -4.20579 2.86145 -0.920775 0.294976 -0.255269
-1.49352 -4.30824 2.88303 -0.920775 0.294976 -0.255269
-1.46568 -4.23851 2.86276 -0.920775 0.294976 -0.255269
-1.51829 -4.38101 2.88869 -0.920775 0.294976 -0.255269
-1.48857 -4.30214 2.87216 -0.920775 0.294976 -0.255269
-1.53347 -4.42702 2.89051 -0.920775 0.294976 -0.255269
-1.38311 -4.02093 2.81509 -0.920775 0.294976 -0.255269
-1.51241 -4.37198 2.87781 -0.920775 0.294976 -0.255269
-1.37337 -3.99468 2.81012 -0.920775 0.294976 -0.255269
-1.47591 -4.27699 2.85539 -0.920775 0.294976 -0.255269
-1.43511 -4.16604 2.83578 -0.920775 0.294976 -0.255269
-1.52504 -4.41761 2.87086 -0.920775 0.294976 -0.255269
-1.47883 -4.29113 2.84964 -0.920775 0.294976 -0.255269
-1.50195 -4.35708 2.85719 -0.920775 0.294976 -0.255269
-1.5132 -4.3913 2.8584 -0.920775 0.294976 -0.255269
-1.45966 -4.24052 2.83868 -0.920775 0.294976 -0.255269
-1.45295 -4.22326 2.83432 -0.920775 0.294976 -0.255269
-1.49983 -4.35965 2.84655 -0.920775 0.294976 -0.255269
-1.52095 -4.42261 2.8503 -0.920775 0.294976 -0.255269
-1.49051 -4.33504 2.84123 -0.920775 0.294976 -0.255269
-1.53434 -4.46413 2.85084 -0.920775 0.294976 -0.255269
-1.49281 -4.50471 2.65383 -0.920775 0.294976 -0.255269
-1.51281 -4.61426 2.59983 -0.920775 0.294976 -0.255269
-1.50061 -4.52264 2.66139 -0.920775 0.294976 -0.255269
-1.47217 -4.28727 2.82999 -0.920775 0.294976 -0.255269
-1.54198 -4.58409 2.74011 -0.920775 0.294976 -0.255269
-1.46204 -4.40256 2.66036 -0.920775 0.294976 -0.255269
-1.51209 -4.53291 2.69105 -0.920775 0.294976 -0.255269
-1.52059 -4.61566 2.62633 -0.920775 0.294976 -0.255269
-1.40417 -4.10275 2.79689 -0.920775 0.294976 -0.255269
-1.41348 -4.19929 2.71921 -0.920775 0.294976 -0.255269
-1.45912 -4.29598 2.77273 -0.920775 0.294976 -0.255269
-1.41505 -4.17548 2.75236 -0.920775 0.294976 -0.255269
-1.53931 -4.70709 2.58857 -0.920775 0.294976 -0.255269
-1.54286 -4.70365 2.60541 -0.920775 0.294976 -0.255269
-1.50785 -4.59823 2.60038 -0.920775 0.294976 -0.255269
-1.55337 -4.82557 2.50281 -0.920775 0.294976 -0.255269
-1.52796 -4.53364 2.74762 -0.920775 0.294976 -0.255269
-1.44969 -4.35073 2.67551 -0.920775 0.294976 -0.255269
-1.43403 -4.19773 2.79532 -0.920775 0.294976 -0.255269
-1.49783 -4.38836 2.80622 -0.920775 0.294976 -0.255269
-1.55048 -4.7365 2.59505 -0.920775 0.294976 -0.255269
-1.51395 -4.63327 2.58201 -0.920775 0.294976 -0.255269
-1.55298 -4.74994 2.5886 -0.920775 0.294976 -0.255269
-1.51996 -4.64589 2.58918 -0.920775 0.294976 -0.255269
-1.52835 -4.48385 2.80643 -0.920775 0.294976 -0.255269
-1.49144 -4.53697 2.61169 -0.920775 0.294976 -0.255269
-1.53424 -4.67893 2.60275 -0.920775 0.294976 -0.255269
-1.51702 -4.46475 2.7875 -0.920775 0.294976 -0.255269
-1.442 -4.28556 2.72284 -0.920775 0.294976 -0.255269
-1.42791 -4.24584 2.7177 -0.920775 0.294976 -0.255269
-1.49558 -4.44356 2.73438 -0.920775 0.294976 -0.255269
-1.54339 -4.74611 2.55835 -0.920775 0.294976 -0.255269
-1.48325 -4.39814 2.74217 -0.920775 0.294976 -0.255269
-1.55135 -4.77807 2.55028 -0.920775 0.294976 -0.255269
-1.53777 -4.51127 2.80887 -0.920775 0.294976 -0.255269
-1.4655 -4.37517 2.70448 -0.920775 0.294976 -0.255269
-1.45197 -4.26168 2.78645 -0.920775 0.294976 -0.255269
-1.50651 -4.55723 2.6428 -0.920775 0.294976 -0.255269
-1.44604 -4.26429 2.76199 -0.920775 0.294976 -0.255269
-1.54512 -4.65164 2.67356 -0.920775 0.294976 -0.255269
-1.44588 -4.22324 2.80875 -0.920775 0.294976 -0.255269
-1.47666 -4.40033 2.71582 -0.920775 0.294976 -0.255269
-1.50533 -4.4983 2.70652 -0.920775 0.294976 -0.255269
-1.44638 -4.20899 2.82702 -0.920775 0.294976 -0.255269
-1.54868 -4.82213 2.48979 -0.920775 0.294976 -0.255269
-1.54114 -4.71887 2.58161 -0.920775 0.294976 -0.255269
-1.40984 -4.13908 2.7755 -0.920775 0.294976 -0.255269
-1.49544 -4.37883 2.80853 -0.920775 0.294976 -0.255269
-1.52848 -4.69383 2.56471 -0.920775 0.294976 -0.255269
-1.53853 -4.56026 2.75512 -0.920775 0.294976 -0.255269
-1.47853 -4.3033 2.83449 -0.920775 0.294976 -0.255269
-1.45395 -4.24682 2.81074 -0.920775 0.294976 -0.255269
-1.48419 -4.45683 2.67788 -0.920775 0.294976 -0.255269
-1.54191 -4.75724 2.54014 -0.920775 0.294976 -0.255269
-1.46688 -4.40121 2.67943 -0.920775 0.294976 -0.255269
-1.49098 -4.48575 2.66907 -0.920775 0.294976 -0.255269
-1.46486 -4.31067 2.77658 -0.920775 0.294976 -0.255269
-1.54551 -4.75765 2.55269 -0.920775 0.294976 -0.255269
-1.50688 -4.49367 2.71746 -0.920775 0.294976 -0.255269
-1.54027 -4.5536 2.76909 -0.920775 0.294976 -0.255269
-1.49264 -4.47703 2.68516 -0.920775 0.294976 -0.255269
-1.44188 -4.2532 2.75974 -0.920775 0.294976 -0.255269
-1.52078 -4.53629 2.71859 -0.920775 0.294976 -0.255269
-1.49977 -4.44874 2.74356 -0.920775 0.294976 -0.255269
-1.52994 -4.71268 2.54827 -0.920775 0.294976 -0.255269
-1.512 -4.43946 2.79852 -0.920775 0.294976 -0.255269
-1.41884 -4.21556 2.71981 -0.920775 0.294976 -0.255269
-1.44554 -4.24861 2.77827 -0.920775 0.294976 -0.255269
-1.48908 -4.45916 2.6929 -0.920775 0.294976 -0.255269
-1.48913 -4.41644 2.74233 -0.920775 0.294976 -0.255269
-1.54032 -4.77742 2.51112 -0.920775 0.294976 -0.255269
-1.5393 -4.5864 2.72777 -0.920775 0.294976 -0.255269
-1.48963 -4.54233 2.59896 -0.920775 0.294976 -0.255269
-1.43858 -4.3058 2.68714 -0.920775 0.294976 -0.255269
-1.45803 -4.27463 2.79344 -0.920775 0.294976 -0.255269
-1.46918 -4.39613 2.69361 -0.920775 0.294976 -0.255269
-1.45414 -4.27909 2.77423 -0.920775 0.294976 -0.255269
-1.51443 -4.42196 2.8275 -0.920775 0.294976 -0.255269
-1.4977 -4.57458 2.59094 -0.920775 0.294976 -0.255269
-1.49249 -4.40484 2.76787 -0.920775 0.294976 -0.255269
-1.52975 -4.6811 2.58399 -0.920775 0.294976 -0.255269
-1.45967 -4.31055 2.75792 -0.920775 0.294976 -0.255269
-1.39276 -4.08296 2.77844 -0.920775 0.294976 -0.255269
-1.53131 -4.7078 2.55885 -0.920775 0.294976 -0.255269
-1.54328 -4.68562 2.6277 -0.920775 0.294976 -0.255269
-1.47043 -4.44412 2.64277 -0.920775 0.294976 -0.255269
-1.46875 -4.36224 2.73116 -0.920775 0.294976 -0.255269
-1.52545 -4.56966 2.69699 -0.920775 0.294976 -0.255269
-1.41764 -4.14311 2.79903 -0.920775 0.294976 -0.255269
-1.54466 -4.63552 2.69051 -0.920775 0.294976 -0.255269
-1.52974 -4.45338 2.84661 -0.920775 0.294976 -0.255269
-1.47343 -4.41672 2.68523 -0.920775 0.294976 -0.255269
-1.52838 -4.45746 2.83698 -0.920775 0.294976 -0.255269
-1.53236 -4.50997 2.79081 -0.920775 0.294976 -0.255269
-1.53823 -4.48341 2.8427 -0.920775 0.294976 -0.255269
-1.52815 -4.52188 2.76186 -0.920775 0.294976 -0.255269
-1.45935 -4.26006 2.81502 -0.920775 0.294976 -0.255269
-1.50543 -4.61725 2.56967 -0.920775 0.294976 -0.255269
-1.44166 -4.22553 2.79087 -0.920775 0.294976 -0.255269
-1.49853 -4.49303 2.688 -0.920775 0.294976 -0.255269
-1.53625 -4.56323 2.74344 -0.920775 0.294976 -0.255269
-1.42861 -4.26254 2.70097 -0.920775 0.294976 -0.255269
-1.43692 -4.2455 2.75068 -0.920775 0.294976 -0.255269
-1.5474 -4.7961 2.5152 -0.920775 0.294976 -0.255269
-1.46778 -4.44603 2.63101 -0.920775 0.294976 -0.255269
-1.50424 -4.44308 2.76628 -0.920775 0.294976 -0.255269
-1.51139 -4.47494 2.75537 -0.920775 0.294976 -0.255269
-1.4851 -4.384 2.76518 -0.920775 0.294976 -0.255269
-1.39986 -4.0869 2.79957 -0.920775 0.294976 -0.255269
-1.50677 -4.61037 2.58246 -0.920775 0.294976 -0.255269
-1.53407 -4.5292 2.77483 -0.920775 0.294976 -0.255269
-1.52195 -4.485 2.78195 -0.920775 0.294976 -0.255269
-1.53071 -4.66068 2.611 -0.920775 0.294976 -0.255269
-1.51169 -4.41109 2.83013 -0.920775 0.294976 -0.255269
-1.4774 -4.46022 2.64944 -0.920775 0.294976 -0.255269
-1.53503 -4.60032 2.69625 -0.920775 0.294976 -0.255269
-1.53299 -4.54666 2.75079 -0.920775 0.294976 -0.255269
-1.45986 -4.3701 2.68994 -0.920775 0.294976 -0.255269
-1.51962 -4.56132 2.6855 -0.920775 0.294976 -0.255269
-1.44899 -4.28059 2.75386 -0.920775 0.294976 -0.255269
-1.4729 -4.46812 2.62404 -0.920775 0.294976 -0.255269
-1.47281 -4.39424 2.70895 -0.920775 0.294976 -0.255269
-1.43259 -4.26151 2.71655 -0.920775 0.294976 -0.255269
-1.50442 -4.50801 2.69202 -0.920775 0.294976 -0.255269
-1.48964 -4.42445 2.73493 -0.920775 0.294976 -0.255269
-1.41692 -4.15783 2.77948 -0.920775 0.294976 -0.255269
-1.47701 -4.46949 2.63733 -0.920775 0.294976 -0.255269
-1.42414 -4.15489 2.80896 -0.920775 0.294976 -0.255269
-1.52375 -4.64739 2.60116 -0.920775 0.294976 -0.255269
-1.53128 -4.72263 2.54161 -0.920775 0.294976 -0.255269
-1.52106 -4.68913 2.5433 -0.920775 0.294976 -0.255269
-1.43081 -4.20992 2.7696 -0.920775 0.294976 -0.255269
-1.49179 -4.43927 2.72561 -0.920775 0.294976 -0.255269
-1.38442 -4.06366 2.77054 -0.920775 0.294976 -0.255269
-1.50003 -4.38291 2.82044 -0.920775 0.294976 -0.255269
-1.51497 -4.45158 2.79527 -0.920775 0.294976 -0.255269
-0.616705 -4.93923 2.78929 0.336077 0.276592 -0.900305
-0.637115 -5.10114 2.73214 0.336077 0.276592 -0.900305
-0.813391 -4.80272 2.75748 0.336077 0.276592 -0.900305
-0.588965 -4.29862 2.99562 0.336077 0.276592 -0.900305
-0.486848 -4.32935 3.02441 0.336077 0.276592 -0.900305
-0.868189 -4.14125 2.93931 0.336077 0.276592 -0.900305
-0.650223 -4.52627 2.90307 0.336077 0.276592 -0.900305
-0.577717 -4.4184 2.96318 0.336077 0.276592 -0.900305
-0.758884 -4.34072 2.91918 0.336077 0.276592 -0.900305
-0.823701 -4.61604 2.81072 0.336077 0.276592 -0.900305
-0.716647 -5.00544 2.73166 0.336077 0.276592 -0.900305
-0.947963 -4.57606 2.77647 0.336077 0.276592 -0.900305
-1.25538 -4.07978 2.81329 0.336077 0.276592 -0.900305
-1.09881 -4.28569 2.80887 0.336077 0.276592 -0.900305
-0.646301 -4.37179 2.95179 0.336077 0.276592 -0.900305
-0.924668 -4.56401 2.78887 0.336077 0.276592 -0.900305
-1.15887 -4.05337 2.85746 0.336077 0.276592 -0.900305
-0.903067 -4.13446 2.92834 0.336077 0.276592 -0.900305
-1.01218 -4.09879 2.89844 0.336077 0.276592 -0.900305
-0.853803 -4.43687 2.85427 0.336077 0.276592 -0.900305
-0.602102 -4.54012 2.91683 0.336077 0.276592 -0.900305
-0.814851 -4.83474 2.74714 0.336077 0.276592 -0.900305
-0.654831 -4.9034 2.78599 0.336077 0.276592 -0.900305
-0.722337 -4.894 2.76362 0.336077 0.276592 -0.900305
-1.09999 -4.37049 2.78249 0.336077 0.276592 -0.900305
-0.892012 -4.14027 2.9307 0.336077 0.276592 -0.900305
-0.671099 -5.11984 2.7137 0.336077 0.276592 -0.900305
-0.644386 -4.97929 2.76669 0.336077 0.276592 -0.900305
-1.01418 -4.50235 2.77425 0.336077 0.276592 -0.900305
-0.576422 -4.22566 3.02262 0.336077 0.276592 -0.900305
-0.768837 -4.93353 2.73413 0.336077 0.276592 -0.900305
-1.00528 -4.49798 2.77892 0.336077 0.276592 -0.900305
-0.596421 -4.24957 3.00783 0.336077 0.276592 -0.900305
-0.567859 -4.42306 2.96545 0.336077 0.276592 -0.900305
-0.983797 -4.4832 2.79147 0.336077 0.276592 -0.900305
-0.65084 -5.03439 2.74742 0.336077 0.276592 -0.900305
-0.498578 -4.39521 2.99988 0.336077 0.276592 -0.900305
-1.01305 -4.25842 2.84929 0.336077 0.276592 -0.900305
-0.705253 -4.46675 2.90069 0.336077 0.276592 -0.900305
-0.836769 -4.22052 2.92681 0.336077 0.276592 -0.900305
-1.0027 -4.3196 2.83444 0.336077 0.276592 -0.900305
-0.602194 -4.90381 2.80556 0.336077 0.276592 -0.900305
-0.667187 -4.21063 2.99327 0.336077 0.276592 -0.900305
-0.889558 -4.55146 2.80584 0.336077 0.276592 -0.900305
-1.01125 -4.27624 2.84451 0.336077 0.276592 -0.900305
-0.791803 -4.67333 2.80513 0.336077 0.276592 -0.900305
-0.529035 -4.55518 2.93956 0.336077 0.276592 -0.900305
-0.616572 -4.69735 2.86333 0.336077 0.276592 -0.900305
-1.07745 -4.38535 2.78637 0.336077 0.276592 -0.900305
-0.651353 -4.81169 2.81534 0.336077 0.276592 -0.900305
-1.15262 -4.16265 2.82637 0.336077 0.276592 -0.900305
-0.884992 -4.24143 2.90238 0.336077 0.276592 -0.900305
-0.771909 -4.52648 2.85749 0.336077 0.276592 -0.900305
-0.546071 -4.44526 2.96681 0.336077 0.276592 -0.900305
-0.724201 -4.72938 2.81327 0.336077 0.276592 -0.900305
-0.483945 -4.30909 3.03169 0.336077 0.276592 -0.900305
-1.03698 -4.27704 2.83464 0.336077 0.276592 -0.900305
-0.601821 -4.85562 2.82043 0.336077 0.276592 -0.900305
-0.587796 -4.76846 2.85234 0.336077 0.276592 -0.900305
-1.28465 -4.07298 2.80442 0.336077 0.276592 -0.900305
-1.06555 -4.37085 2.79526 0.336077 0.276592 -0.900305
-0.642852 -5.11012 2.72724 0.336077 0.276592 -0.900305
-0.741377 -4.85715 2.76777 0.336077 0.276592 -0.900305
-0.571283 -4.2709 3.01071 0.336077 0.276592 -0.900305
-0.887813 -4.17427 2.92187 0.336077 0.276592 -0.900305
-0.715185 -4.42244 2.91053 0.336077 0.276592 -0.900305
-0.754864 -4.54231 2.85902 0.336077 0.276592 -0.900305
-0.644051 -4.77906 2.82806 0.336077 0.276592 -0.900305
-1.04672 -4.12522 2.87744 0.336077 0.276592 -0.900305
-0.653827 -4.19801 3.00213 0.336077 0.276592 -0.900305
-1.24233 -4.05467 2.82584 0.336077 0.276592 -0.900305
-0.727997 -4.25299 2.95757 0.336077 0.276592 -0.900305
-0.563919 -4.28869 3.00802 0.336077 0.276592 -0.900305
-1.16996 -4.22189 2.80177 0.336077 0.276592 -0.900305
-0.807399 -4.35237 2.89747 0.336077 0.276592 -0.900305
-1.06168 -4.15594 2.86244 0.336077 0.276592 -0.900305
-0.910641 -4.48338 2.81878 0.336077 0.276592 -0.900305
-0.53919 -4.36781 2.99307 0.336077 0.276592 -0.900305
-1.00661 -4.34224 2.82605 0.336077 0.276592 -0.900305
-0.716203 -4.27739 2.95452 0.336077 0.276592 -0.900305
-0.610632 -4.99503 2.7745 0.336077 0.276592 -0.900305
-0.740573 -4.92404 2.74761 0.336077 0.276592 -0.900305
-0.705877 -4.51637 2.88528 0.336077 0.276592 -0.900305
-0.887411 -4.38871 2.85643 0.336077 0.276592 -0.900305
-0.553281 -4.30477 3.00708 0.336077 0.276592 -0.900305
-0.709186 -5.01738 2.7308 0.336077 0.276592 -0.900305
-0.905335 -4.60019 2.78504 0.336077 0.276592 -0.900305
-0.67443 -4.68402 2.84576 0.336077 0.276592 -0.900305
-1.15803 -4.2364 2.80179 0.336077 0.276592 -0.900305
-0.726081 -4.47948 2.88901 0.336077 0.276592 -0.900305
-1.13309 -4.14357 2.83952 0.336077 0.276592 -0.900305
-0.663927 -4.48368 2.91097 0.336077 0.276592 -0.900305
-1.04219 -4.48102 2.7703 0.336077 0.276592 -0.900305
-0.688699 -4.47934 2.90303 0.336077 0.276592 -0.900305
-0.705823 -4.45381 2.90444 0.336077 0.276592 -0.900305
-0.678167 -4.60558 2.86836 0.336077 0.276592 -0.900305
-0.8781 -4.29545 2.88844 0.336077 0.276592 -0.900305
-0.695228 -4.3361 2.94441 0.336077 0.276592 -0.900305
-0.810235 -4.33014 2.90321 0.336077 0.276592 -0.900305
-0.679885 -4.44797 2.91593 0.336077 0.276592 -0.900305
-1.21638 -4.12577 2.81381 0.336077 0.276592 -0.900305
-0.899501 -4.57869 2.7938 0.336077 0.276592 -0.900305
-0.774952 -4.61637 2.82886 0.336077 0.276592 -0.900305
-0.90909 -4.25897 2.888 0.336077 0.276592 -0.900305
-0.812076 -4.74723 2.77494 0.336077 0.276592 -0.900305
-0.761202 -4.26988 2.93998 0.336077 0.276592 -0.900305
-0.905739 -4.32571 2.86884 0.336077 0.276592 -0.900305
-0.671474 -4.26286 2.97569 0.336077 0.276592 -0.900305
-1.2339 -4.07209 2.82367 0.336077 0.276592 -0.900305
-1.06171 -4.19962 2.84907 0.336077 0.276592 -0.900305
-0.828923 -4.39467 2.87648 0.336077 0.276592 -0.900305
-0.971245 -4.53827 2.77932 0.336077 0.276592 -0.900305
-0.814336 -4.40491 2.8788 0.336077 0.276592 -0.900305
-0.717994 -4.25232 2.96152 0.336077 0.276592 -0.900305
-1.29089 -4.0576 2.80679 0.336077 0.276592 -0.900305
-0.594701 -4.93727 2.79812 0.336077 0.276592 -0.900305
-0.94985 -4.30719 2.85801 0.336077 0.276592 -0.900305
-0.68796 -4.84606 2.79114 0.336077 0.276592 -0.900305
-0.523252 -4.43436 2.97868 0.336077 0.276592 -0.900305
-1.08205 -4.24324 2.82812 0.336077 0.276592 -0.900305
-0.52495 -4.35911 3.00106 0.336077 0.276592 -0.900305
-1.07439 -4.20258 2.84342 0.336077 0.276592 -0.900305
-0.894543 -4.48295 2.82494 0.336077 0.276592 -0.900305
-0.765551 -4.95814 2.72783 0.336077 0.276592 -0.900305
-0.827114 -4.83366 2.74288 0.336077 0.276592 -0.900305
-0.8772 -4.52799 2.81765 0.336077 0.276592 -0.900305
-1.04211 -4.33896 2.81378 0.336077 0.276592 -0.900305
-1.04014 -4.49601 2.76648 0.336077 0.276592 -0.900305
-0.959348 -4.204 2.88602 0.336077 0.276592 -0.900305
-0.529693 -4.47352 2.96429 0.336077 0.276592 -0.900305
-0.797382 -4.8812 2.73946 0.336077 0.276592 -0.900305
-0.599359 -4.43476 2.95008 0.336077 0.276592 -0.900305
-0.690462 -4.61115 2.86206 0.336077 0.276592 -0.900305
-0.614808 -4.87669 2.80913 0.336077 0.276592 -0.900305
-0.662485 -4.23296 2.9882 0.336077 0.276592 -0.900305
-0.945392 -4.2755 2.86937 0.336077 0.276592 -0.900305
-1.03249 -4.30237 2.82857 0.336077 0.276592 -0.900305
-1.1481 -4.23737 2.80521 0.336077 0.276592 -0.900305
-0.718988 -4.81597 2.78874 0.336077 0.276592 -0.900305
-0.844811 -4.42109 2.86246 0.336077 0.276592 -0.900305
-1.33167 -3.99977 2.80922 0.336077 0.276592 -0.900305
-0.764102 -4.83968 2.76461 0.336077 0.276592 -0.900305
-0.834376 -4.36993 2.88201 0.336077 0.276592 -0.900305
-0.735056 -5.00225 2.72575 0.336077 0.276592 -0.900305
-0.958428 -4.53419 2.78537 0.336077 0.276592 -0.900305
-1.18569 -4.05564 2.84674 0.336077 0.276592 -0.900305
-0.622274 -4.44295 2.93901 0.336077 0.276592 -0.900305
-0.86796 -4.54289 2.81654 0.336077 0.276592 -0.900305
-0.865223 -4.30046 2.89172 0.336077 0.276592 -0.900305
-0.806129 -4.15904 2.95708 0.336077 0.276592 -0.900305
-0.939921 -4.59366 2.7741 0.336077 0.276592 -0.900305
-1.25383 -4.09969 2.80778 0.336077 0.276592 -0.900305
-1.11235 -4.10012 2.86056 0.336077 0.276592 -0.900305
-0.786648 -4.34484 2.90754 0.336077 0.276592 -0.900305
-0.860977 -4.25731 2.90651 0.336077 0.276592 -0.900305
-0.645624 -4.28296 2.97921 0.336077 0.276592 -0.900305
-0.574533 -4.84981 2.83242 0.336077 0.276592 -0.900305
-0.852311 -4.75945 2.75616 0.336077 0.276592 -0.900305
-0.727252 -4.59628 2.85284 0.336077 0.276592 -0.900305
-0.925144 -4.26956 2.87876 0.336077 0.276592 -0.900305
-0.591389 -4.58963 2.9057 0.336077 0.276592 -0.900305
-0.558213 -4.49576 2.94682 0.336077 0.276592 -0.900305
-1.01921 -4.35577 2.8172 0.336077 0.276592 -0.900305
-0.825603 -4.19008 2.9403 0.336077 0.276592 -0.900305
-0.686237 -4.36005 2.94044 0.336077 0.276592 -0.900305
-0.509625 -4.44175 2.98151 0.336077 0.276592 -0.900305
-1.23634 -4.04702 2.83043 0.336077 0.276592 -0.900305
-0.707836 -4.34212 2.93785 0.336077 0.276592 -0.900305
-0.64887 -4.32134 2.96626 0.336077 0.276592 -0.900305
-0.972491 -4.56316 2.77124 0.336077 0.276592 -0.900305
-0.910881 -4.20659 2.90336 0.336077 0.276592 -0.900305
-0.621428 -4.29323 2.98512 0.336077 0.276592 -0.900305
-0.74332 -4.30008 2.93743 0.336077 0.276592 -0.900305
-0.699058 -4.97245 2.74833 0.336077 0.276592 -0.900305
-0.773495 -4.43399 2.88519 0.336077 0.276592 -0.900305
-0.824096 -4.45329 2.86036 0.336077 0.276592 -0.900305
-1.03911 -4.44484 2.78252 0.336077 0.276592 -0.900305
-0.731642 -4.27745 2.94872 0.336077 0.276592 -0.900305
-1.1589 -4.06925 2.8526 0.336077 0.276592 -0.900305
-1.12618 -4.17448 2.83264 0.336077 0.276592 -0.900305
-0.861803 -4.79444 2.7419 0.336077 0.276592 -0.900305
-1.21895 -4.08336 2.82582 0.336077 0.276592 -0.900305
-0.775184 -4.6826 2.80851 0.336077 0.276592 -0.900305
-1.16957 -4.1155 2.83446 0.336077 0.276592 -0.900305
-1.26127 -4.03507 2.82476 0.336077 0.276592 -0.900305
-0.975603 -4.19079 2.88398 0.336077 0.276592 -0.900305
-0.583507 -4.35552 2.98025 0.336077 0.276592 -0.900305
-0.724748 -4.34004 2.93216 0.336077 0.276592 -0.900305
-0.639195 -5.03317 2.75215 0.336077 0.276592 -0.900305
-1.07914 -4.09718 2.87388 0.336077 0.276592 -0.900305
-0.693193 -4.75851 2.81596 0.336077 0.276592 -0.900305
-0.944113 -4.32688 2.85413 0.336077 0.276592 -0.900305
-1.11945 -4.06923 2.86735 0.336077 0.276592 -0.900305
-0.634824 -4.79115 2.82781 0.336077 0.276592 -0.900305
-0.52374 -4.29774 3.02028 0.336077 0.276592 -0.900305
-0.523069 -4.53055 2.94932 0.336077 0.276592 -0.900305
-1.06193 -4.43277 2.77767 0.336077 0.276592 -0.900305
-1.04301 -4.37036 2.80384 0.336077 0.276592 -0.900305
-0.606886 -4.34992 2.97322 0.336077 0.276592 -0.900305
-0.872782 -4.12741 2.94182 0.336077 0.276592 -0.900305
-0.718641 -5.03999 2.72034 0.336077 0.276592 -0.900305
-0.682343 -4.71691 2.83275 0.336077 0.276592 -0.900305
-0.578765 -4.69819 2.87721 0.336077 0.276592 -0.900305
-1.07285 -4.15783 2.85768 0.336077 0.276592 -0.900305
-1.35232 -3.98376 2.80639 0.336077 0.276592 -0.900305
-0.89911 -4.67965 2.76306 0.336077 0.276592 -0.900305
-0.778319 -4.5604 2.84472 0.336077 0.276592 -0.900305
-0.876228 -4.25746 2.90076 0.336077 0.276592 -0.900305
-0.985863 -4.38289 2.82138 0.336077 0.276592 -0.900305
-0.892555 -4.59196 2.79233 0.336077 0.276592 -0.900305
-0.831142 -4.53723 2.83205 0.336077 0.276592 -0.900305
-0.558362 -4.33601 2.99563 0.336077 0.276592 -0.900305
-0.790937 -4.66176 2.809 0.336077 0.276592 -0.900305
-1.08494 -4.28501 2.81427 0.336077 0.276592 -0.900305
-0.614765 -4.66841 2.87286 0.336077 0.276592 -0.900305
-0.633508 -4.52543 2.90958 0.336077 0.276592 -0.900305
-0.539544 -4.40993 2.98005 0.336077 0.276592 -0.900305
-0.703181 -4.31779 2.94703 0.336077 0.276592 -0.900305
-0.736173 -4.42118 2.90307 0.336077 0.276592 -0.900305
-1.31021 -4.01003 2.81411 0.336077 0.276592 -0.900305
-0.61795 -4.25559 2.99794 0.336077 0.276592 -0.900305
-0.706047 -4.67437 2.83689 0.336077 0.276592 -0.900305
-0.863993 -4.64366 2.7872 0.336077 0.276592 -0.900305
-0.708023 -4.75325 2.81202 0.336077 0.276592 -0.900305
-0.554567 -4.52093 2.94048 0.336077 0.276592 -0.900305
-0.638007 -4.80265 2.8231 0.336077 0.276592 -0.900305
-1.00317 -4.26341 2.85145 0.336077 0.276592 -0.900305
-0.783106 -4.5867 2.83488 0.336077 0.276592 -0.900305
-1.00527 -4.1391 2.8887 0.336077 0.276592 -0.900305
-0.952807 -4.25629 2.87247 0.336077 0.276592 -0.900305
-0.721333 -4.71652 2.81828 0.336077 0.276592 -0.900305
-0.656445 -4.94574 2.77244 0.336077 0.276592 -0.900305
-1.03088 -4.12453 2.88357 0.336077 0.276592 -0.900305
-0.589712 -4.78531 2.84647 0.336077 0.276592 -0.900305
-0.827899 -4.41038 2.87206 0.336077 0.276592 -0.900305
-1.05621 -4.06951 2.89093 0.336077 0.276592 -0.900305
-0.679106 -4.49013 2.90332 0.336077 0.276592 -0.900305
-0.968337 -4.58277 2.7668 0.336077 0.276592 -0.900305
-0.772234 -4.73718 2.79292 0.336077 0.276592 -0.900305
-1.214 -4.11159 2.81903 0.336077 0.276592 -0.900305
-0.705581 -4.72412 2.82185 0.336077 0.276592 -0.900305
-1.12544 -4.32022 2.78834 0.336077 0.276592 -0.900305
-1.01145 -4.54795 2.76132 0.336077 0.276592 -0.900305
-0.463345 -4.32617 3.03417 0.336077 0.276592 -0.900305
-0.603881 -4.47096 2.93732 0.336077 0.276592 -0.900305
-0.786614 -4.62506 2.82184 0.336077 0.276592 -0.900305
-0.694357 -4.83496 2.79214 0.336077 0.276592 -0.900305
-0.760644 -4.89896 2.74777 0.336077 0.276592 -0.900305
-0.66839 -4.79004 2.8156 0.336077 0.276592 -0.900305
-1.03818 -4.23872 2.84591 0.336077 0.276592 -0.900305
-0.654402 -4.46023 2.92171 0.336077 0.276592 -0.900305
-0.705578 -4.22779 2.97366 0.336077 0.276592 -0.900305
-0.609995 -4.45373 2.9403 0.336077 0.276592 -0.900305
-0.847845 -4.40114 2.86743 0.336077 0.276592 -0.900305
-1.22552 -4.16124 2.79954 0.336077 0.276592 -0.900305
-0.746362 -4.39638 2.90684 0.336077 0.276592 -0.900305
-0.852869 -4.33361 2.8862 0.336077 0.276592 -0.900305
-0.846598 -4.14124 2.94739 0.336077 0.276592 -0.900305
-0.65918 -4.99208 2.75724 0.336077 0.276592 -0.900305
-0.723107 -4.36263 2.92586 0.336077 0.276592 -0.900305
-0.78002 -4.29864 2.92415 0.336077 0.276592 -0.900305
-0.674971 -4.33092 2.95356 0.336077 0.276592 -0.900305
-0.957776 -4.59261 2.76774 0.336077 0.276592 -0.900305
-0.972539 -4.41808 2.8156 0.336077 0.276592 -0.900305
-1.1704 -4.25829 2.79047 0.336077 0.276592 -0.900305
-0.861577 -4.78046 2.74627 0.336077 0.276592 -0.900305
-0.761125 -4.85516 2.76099 0.336077 0.276592 -0.900305
-0.997166 -4.29948 2.84267 0.336077 0.276592 -0.900305
-0.711979 -4.4017 2.91807 0.336077 0.276592 -0.900305
-0.807869 -4.45367 2.86631 0.336077 0.276592 -0.900305
-1.01782 -4.20084 2.86511 0.336077 0.276592 -0.900305
-0.876566 -4.6968 2.76625 0.336077 0.276592 -0.900305
-0.688661 -4.69065 2.83841 0.336077 0.276592 -0.900305
-0.725381 -4.19531 2.97619 0.336077 0.276592 -0.900305
-1.17622 -4.27497 2.78319 0.336077 0.276592 -0.900305
-0.941023 -4.5018 2.80178 0.336077 0.276592 -0.900305
-0.611553 -5.01639 2.76762 0.336077 0.276592 -0.900305
-0.865292 -4.35161 2.87605 0.336077 0.276592 -0.900305
-0.584815 -4.53056 2.92622 0.336077 0.276592 -0.900305
-0.588543 -4.60517 2.90201 0.336077 0.276592 -0.900305
-0.755085 -4.41384 2.89824 0.336077 0.276592 -0.900305
-0.755441 -4.28143 2.9386 0.336077 0.276592 -0.900305
-0.592188 -4.46662 2.94302 0.336077 0.276592 -0.900305
-0.839979 -4.80439 2.74702 0.336077 0.276592 -0.900305
-0.679597 -4.86315 2.78904 0.336077 0.276592 -0.900305
-1.15152 -4.22377 2.80809 0.336077 0.276592 -0.900305
-0.994684 -4.16661 2.88424 0.336077 0.276592 -0.900305
-0.734979 -4.52242 2.87255 0.336077 0.276592 -0.900305
-0.789348 -4.33065 2.91087 0.336077 0.276592 -0.900305
-1.10828 -4.34463 2.7873 0.336077 0.276592 -0.900305
-0.553685 -4.59275 2.91885 0.336077 0.276592 -0.900305
-0.698851 -4.38404 2.92839 0.336077 0.276592 -0.900305
-0.669698 -4.88947 2.78469 0.336077 0.276592 -0.900305
-0.987058 -4.42488 2.80809 0.336077 0.276592 -0.900305
-0.661347 -4.57677 2.88346 0.336077 0.276592 -0.900305
-0.636374 -4.29725 2.9783 0.336077 0.276592 -0.900305
-1.1488 -4.11434 2.84258 0.336077 0.276592 -0.900305
-0.848222 -4.44979 2.8524 0.336077 0.276592 -0.900305
-0.473066 -4.34254 3.02553 0.336077 0.276592 -0.900305
-1.2427 -4.09066 2.8147 0.336077 0.276592 -0.900305
-0.687947 -4.46071 2.90901 0.336077 0.276592 -0.900305
-0.92624 -4.46918 2.81729 0.336077 0.276592 -0.900305
-0.815884 -4.64216 2.80566 0.336077 0.276592 -0.900305
-0.655812 -4.79372 2.81917 0.336077 0.276592 -0.900305
-0.797438 -4.61243 2.82165 0.336077 0.276592 -0.900305
-0.784414 -4.3896 2.89468 0.336077 0.276592 -0.900305
-0.992009 -4.19629 2.87616 0.336077 0.276592 -0.900305
-0.76749 -4.24949 2.94387 0.336077 0.276592 -0.900305
-1.17426 -4.05673 2.85068 0.336077 0.276592 -0.900305
-1.02114 -4.10517 2.89313 0.336077 0.276592 -0.900305
-0.891377 -4.74347 2.74643 0.336077 0.276592 -0.900305
-0.842247 -4.3439 2.88703 0.336077 0.276592 -0.900305
-1.09278 -4.35899 2.7887 0.336077 0.276592 -0.900305
-0.967079 -4.21969 2.87833 0.336077 0.276592 -0.900305
-0.83716 -4.44224 2.85885 0.336077 0.276592 -0.900305
-0.979804 -4.33065 2.83963 0.336077 0.276592 -0.900305
-0.577971 -4.60292 2.90665 0.336077 0.276592 -0.900305
-0.508991 -4.30546 3.02344 0.336077 0.276592 -0.900305
-0.718192 -4.29561 2.9482 0.336077 0.276592 -0.900305
-1.07504 -4.23557 2.83309 0.336077 0.276592 -0.900305
-0.852696 -4.18386 2.93207 0.336077 0.276592 -0.900305
-0.471593 -4.3022 3.03842 0.336077 0.276592 -0.900305
-0.595814 -4.34444 2.97904 0.336077 0.276592 -0.900305
-0.676404 -4.87443 2.78678 0.336077 0.276592 -0.900305
-0.939134 -4.62799 2.76389 0.336077 0.276592 -0.900305
-0.735251 -4.87032 2.76603 0.336077 0.276592 -0.900305
-0.478672 -4.32311 3.02938 0.336077 0.276592 -0.900305
-1.08181 -4.16623 2.85177 0.336077 0.276592 -0.900305
-0.753055 -4.30392 2.93262 0.336077 0.276592 -0.900305
-0.497096 -4.4123 2.99521 0.336077 0.276592 -0.900305
-1.16454 -4.15527 2.82417 0.336077 0.276592 -0.900305
-0.813274 -4.59733 2.82035 0.336077 0.276592 -0.900305
-1.07501 -4.13886 2.86268 0.336077 0.276592 -0.900305
-0.650188 -4.33326 2.96212 0.336077 0.276592 -0.900305
-0.85525 -4.23756 2.91469 0.336077 0.276592 -0.900305
-0.556065 -4.62931 2.90677 0.336077 0.276592 -0.900305
-0.764467 -4.42079 2.8926 0.336077 0.276592 -0.900305
-0.726505 -4.6563 2.83476 0.336077 0.276592 -0.900305
-0.530369 -4.49548 2.95732 0.336077 0.276592 -0.900305
-0.602387 -4.36472 2.97038 0.336077 0.276592 -0.900305
-0.969312 -4.16734 2.8935 0.336077 0.276592 -0.900305
-0.593918 -4.2184 3.0183 0.336077 0.276592 -0.900305
-1.12283 -4.04999 2.87198 0.336077 0.276592 -0.900305
-1.02817 -4.29202 2.83335 0.336077 0.276592 -0.900305
-0.832415 -4.14306 2.95214 0.336077 0.276592 -0.900305
-0.866868 -4.57272 2.80783 0.336077 0.276592 -0.900305
-1.06116 -4.28184 2.82413 0.336077 0.276592 -0.900305
-0.622931 -4.71205 2.85645 0.336077 0.276592 -0.900305
-0.590456 -4.88337 2.8162 0.336077 0.276592 -0.900305
-0.752462 -4.62206 2.83553 0.336077 0.276592 -0.900305
-1.1113 -4.35709 2.78236 0.336077 0.276592 -0.900305
-0.864179 -4.24494 2.90909 0.336077 0.276592 -0.900305
-1.24047 -4.11683 2.80753 0.336077 0.276592 -0.900305
-1.14066 -4.07215 2.85853 0.336077 0.276592 -0.900305
-0.50015 -4.33487 3.01775 0.336077 0.276592 -0.900305
-0.568285 -4.39833 2.97285 0.336077 0.276592 -0.900305
-0.594089 -4.70776 2.86855 0.336077 0.276592 -0.900305
-0.934857 -4.24697 2.88204 0.336077 0.276592 -0.900305
-0.752728 -4.51491 2.8682 0.336077 0.276592 -0.900305
-0.821665 -4.20928 2.9359 0.336077 0.276592 -0.900305
-0.618063 -4.82732 2.82302 0.336077 0.276592 -0.900305
-0.801743 -4.64537 2.80997 0.336077 0.276592 -0.900305
-0.522888 -4.32952 3.01088 0.336077 0.276592 -0.900305
-0.486263 -4.35093 3.01803 0.336077 0.276592 -0.900305
-0.618528 -4.68272 2.86707 0.336077 0.276592 -0.900305
-0.870297 -4.75232 2.75161 0.336077 0.276592 -0.900305
-1.30228 -4.01641 2.81513 0.336077 0.276592 -0.900305
-0.513018 -4.45869 2.97506 0.336077 0.276592 -0.900305
-0.958313 -4.41624 2.82149 0.336077 0.276592 -0.900305
-0.635309 -4.42228 2.94046 0.336077 0.276592 -0.900305
-1.16973 -4.13241 2.82922 0.336077 0.276592 -0.900305
-1.00701 -4.11714 2.89476 0.336077 0.276592 -0.900305
-1.03441 -4.1657 2.86966 0.336077 0.276592 -0.900305
-0.891614 -4.53727 2.80942 0.336077 0.276592 -0.900305
-0.808007 -4.24339 2.93058 0.336077 0.276592 -0.900305
-0.933614 -4.43551 2.82483 0.336077 0.276592 -0.900305
-0.747655 -4.17111 2.97526 0.336077 0.276592 -0.900305
-0.875941 -4.34406 2.87438 0.336077 0.276592 -0.900305
-0.769253 -4.79079 2.77764 0.336077 0.276592 -0.900305
-0.729372 -4.57296 2.85918 0.336077 0.276592 -0.900305
-0.740444 -4.95588 2.73792 0.336077 0.276592 -0.900305
-0.69705 -4.87419 2.77914 0.336077 0.276592 -0.900305
-0.621789 -4.60567 2.88942 0.336077 0.276592 -0.900305
-0.716708 -4.51622 2.88128 0.336077 0.276592 -0.900305
-0.6502 -4.55217 2.89516 0.336077 0.276592 -0.900305
-0.739516 -4.61678 2.84199 0.336077 0.276592 -0.900305
-0.757635 -4.9205 2.74231 0.336077 0.276592 -0.900305
-0.557587 -4.65663 2.89785 0.336077 0.276592 -0.900305
-0.863012 -4.69834 2.77085 0.336077 0.276592 -0.900305
-1.08933 -4.25885 2.82062 0.336077 0.276592 -0.900305
-0.541818 -4.28259 3.01815 0.336077 0.276592 -0.900305
-0.7993 -4.4871 2.85929 0.336077 0.276592 -0.900305
-0.823062 -4.32745 2.89924 0.336077 0.276592 -0.900305
-0.748603 -4.24318 2.95286 0.336077 0.276592 -0.900305
-0.858287 -4.15985 2.93732 0.336077 0.276592 -0.900305
-0.735404 -5.01323 2.72226 0.336077 0.276592 -0.900305
-1.12734 -4.25993 2.80608 0.336077 0.276592 -0.900305
-0.69131 -4.9327 2.76339 0.336077 0.276592 -0.900305
-0.798442 -4.56879 2.83462 0.336077 0.276592 -0.900305
-1.10129 -4.16636 2.84444 0.336077 0.276592 -0.900305
-0.555021 -4.36597 2.98771 0.336077 0.276592 -0.900305
-0.666104 -5.03678 2.74098 0.336077 0.276592 -0.900305
-0.752837 -4.37265 2.91167 0.336077 0.276592 -0.900305
-0.754849 -4.7537 2.79437 0.336077 0.276592 -0.900305
-1.08338 -4.33145 2.80064 0.336077 0.276592 -0.900305
-0.625051 -5.04654 2.75335 0.336077 0.276592 -0.900305
-0.62178 -4.31757 2.97755 0.336077 0.276592 -0.900305
-0.949147 -4.56156 2.78047 0.336077 0.276592 -0.900305
-0.608147 -4.42336 2.95029 0.336077 0.276592 -0.900305
-0.554053 -4.69737 2.88671 0.336077 0.276592 -0.900305
-0.864551 -4.41873 2.85579 0.336077 0.276592 -0.900305
-0.927602 -4.38345 2.843 0.336077 0.276592 -0.900305
-0.890167 -4.18685 2.91714 0.336077 0.276592 -0.900305
-1.17332 -4.10518 2.83621 0.336077 0.276592 -0.900305
-0.713644 -4.62855 2.84806 0.336077 0.276592 -0.900305
-0.582253 -4.75847 2.85747 0.336077 0.276592 -0.900305
-0.603274 -4.63367 2.88778 0.336077 0.276592 -0.900305
-0.542347 -4.35074 2.99711 0.336077 0.276592 -0.900305
-0.985095 -4.30569 2.84528 0.336077 0.276592 -0.900305
-1.19739 -4.2109 2.79487 0.336077 0.276592 -0.900305
-0.591654 -4.44777 2.94899 0.336077 0.276592 -0.900305
-0.769766 -4.4539 2.88049 0.336077 0.276592 -0.900305
-1.05693 -4.46341 2.77017 0.336077 0.276592 -0.900305
-0.813393 -4.69973 2.78898 0.336077 0.276592 -0.900305
-0.706036 -4.50501 2.8887 0.336077 0.276592 -0.900305
-0.656933 -5.10946 2.72218 0.336077 0.276592 -0.900305
-0.626995 -4.75319 2.84235 0.336077 0.276592 -0.900305
-1.20032 -4.07943 2.83399 0.336077 0.276592 -0.900305
-0.623901 -4.3976 2.95227 0.336077 0.276592 -0.900305
-0.77314 -4.64505 2.82076 0.336077 0.276592 -0.900305
-0.787142 -4.52753 2.85147 0.336077 0.276592 -0.900305
-0.920237 -4.62318 2.77243 0.336077 0.276592 -0.900305
-1.30434 -4.03166 2.80969 0.336077 0.276592 -0.900305
-0.678796 -5.07243 2.72533 0.336077 0.276592 -0.900305
-0.541372 -4.62423 2.91382 0.336077 0.276592 -0.900305
-0.83012 -4.23336 2.92538 0.336077 0.276592 -0.900305
-0.717993 -4.3742 2.92424 0.336077 0.276592 -0.900305
-0.780922 -4.40717 2.89061 0.336077 0.276592 -0.900305
-1.02165 -4.46341 2.78337 0.336077 0.276592 -0.900305
-0.770027 -4.81241 2.77074 0.336077 0.276592 -0.900305
-0.942788 -4.12501 2.91637 0.336077 0.276592 -0.900305
-0.582883 -4.71026 2.87198 0.336077 0.276592 -0.900305
-0.87569 -4.58636 2.80036 0.336077 0.276592 -0.900305
-0.709412 -4.93175 2.7569 0.336077 0.276592 -0.900305
-0.65361 -4.61355 2.87511 0.336077 0.276592 -0.900305
-0.870512 -4.43787 2.84771 0.336077 0.276592 -0.900305
-1.32091 -4.00791 2.81076 0.336077 0.276592 -0.900305
-1.07252 -4.2207 2.83858 0.336077 0.276592 -0.900305
-0.919924 -4.34924 2.85634 0.336077 0.276592 -0.900305
-0.734988 -4.54962 2.86422 0.336077 0.276592 -0.900305
-0.897043 -4.72257 2.75071 0.336077 0.276592 -0.900305
-1.26575 -4.11077 2.79993 0.336077 0.276592 -0.900305
-0.543974 -4.50676 2.94878 0.336077 0.276592 -0.900305
-0.63001 -4.73563 2.84659 0.336077 0.276592 -0.900305
-0.9674 -4.14119 2.90222 0.336077 0.276592 -0.900305
-0.811565 -4.36129 2.89318 0.336077 0.276592 -0.900305
-0.576531 -4.68422 2.88232 0.336077 0.276592 -0.900305
-0.660128 -4.62592 2.86888 0.336077 0.276592 -0.900305
-0.900181 -4.37981 2.85437 0.336077 0.276592 -0.900305
-0.960079 -4.55222 2.77923 0.336077 0.276592 -0.900305
-1.01001 -4.15896 2.88084 0.336077 0.276592 -0.900305
-0.749385 -4.20016 2.96573 0.336077 0.276592 -0.900305
-0.858397 -4.54876 2.81832 0.336077 0.276592 -0.900305
-0.896378 -4.45629 2.8324 0.336077 0.276592 -0.900305
-0.59529 -4.48564 2.93605 0.336077 0.276592 -0.900305
-1.02174 -4.31689 2.82815 0.336077 0.276592 -0.900305
-0.770261 -4.65937 2.81746 0.336077 0.276592 -0.900305
-0.763449 -4.43075 2.88994 0.336077 0.276592 -0.900305
-0.888739 -4.1568 2.92687 0.336077 0.276592 -0.900305
-0.678298 -4.39873 2.93158 0.336077 0.276592 -0.900305
-0.843934 -4.22954 2.92138 0.336077 0.276592 -0.900305
-1.10753 -4.11809 2.85687 0.336077 0.276592 -0.900305
-0.85938 -4.61818 2.79672 0.336077 0.276592 -0.900305
-0.560111 -4.25884 3.01858 0.336077 0.276592 -0.900305
-0.877338 -4.72815 2.75637 0.336077 0.276592 -0.900305
-0.629731 -4.9384 2.78467 0.336077 0.276592 -0.900305
-0.560589 -4.50695 2.94251 0.336077 0.276592 -0.900305
-0.743513 -4.74715 2.80061 0.336077 0.276592 -0.900305
-0.89303 -4.24658 2.8978 0.336077 0.276592 -0.900305
-0.945067 -4.46658 2.81104 0.336077 0.276592 -0.900305
-0.852228 -4.4606 2.8476 0.336077 0.276592 -0.900305
-1.22026 -4.20882 2.78695 0.336077 0.276592 -0.900305
-0.671941 -4.31579 2.95933 0.336077 0.276592 -0.900305
-0.684178 -5.09248 2.71718 0.336077 0.276592 -0.900305
-0.71586 -4.48609 2.89081 0.336077 0.276592 -0.900305
-0.950461 -4.60758 2.7659 0.336077 0.276592 -0.900305
-1.19321 -4.23041 2.79047 0.336077 0.276592 -0.900305
-0.534383 -4.31725 3.01033 0.336077 0.276592 -0.900305
-1.09925 -4.07223 2.87399 0.336077 0.276592 -0.900305
-0.743873 -4.93779 2.74217 0.336077 0.276592 -0.900305
-1.13715 -4.33448 2.7796 0.336077 0.276592 -0.900305
-0.590143 -4.31797 2.98926 0.336077 0.276592 -0.900305
-1.00708 -4.18732 2.87327 0.336077 0.276592 -0.900305
-0.683226 -4.99178 2.74834 0.336077 0.276592 -0.900305
-0.915787 -4.63515 2.77044 0.336077 0.276592 -0.900305
-0.906108 -4.29043 2.87949 0.336077 0.276592 -0.900305
-1.02986 -4.19539 2.86228 0.336077 0.276592 -0.900305
-0.727077 -4.49183 2.88486 0.336077 0.276592 -0.900305
-0.532379 -4.60015 2.92455 0.336077 0.276592 -0.900305
-0.774594 -4.5079 2.86217 0.336077 0.276592 -0.900305
-0.94214 -4.37667 2.83964 0.336077 0.276592 -0.900305
-0.67403 -4.52375 2.89494 0.336077 0.276592 -0.900305
-0.855561 -4.3801 2.87097 0.336077 0.276592 -0.900305
-0.864902 -4.38311 2.86656 0.336077 0.276592 -0.900305
-0.903597 -4.5483 2.80156 0.336077 0.276592 -0.900305
-0.810779 -4.58152 2.82611 0.336077 0.276592 -0.900305
-0.963229 -4.49511 2.79552 0.336077 0.276592 -0.900305
-0.499522 -4.44659 2.98381 0.336077 0.276592 -0.900305
-0.871071 -4.23144 2.91064 0.336077 0.276592 -0.900305
-0.620214 -4.42335 2.94577 0.336077 0.276592 -0.900305
-0.655553 -4.21698 2.99568 0.336077 0.276592 -0.900305
-1.00208 -4.43974 2.79793 0.336077 0.276592 -0.900305
-0.78513 -4.49476 2.86225 0.336077 0.276592 -0.900305
-0.837954 -4.30082 2.90181 0.336077 0.276592 -0.900305
-0.637054 -4.8283 2.81561 0.336077 0.276592 -0.900305
-0.820422 -4.31694 2.90344 0.336077 0.276592 -0.900305
-0.899668 -4.17629 2.91682 0.336077 0.276592 -0.900305
-1.26909 -4.07366 2.81003 0.336077 0.276592 -0.900305
-0.796167 -4.4699 2.86572 0.336077 0.276592 -0.900305
-0.801318 -4.50494 2.85308 0.336077 0.276592 -0.900305
-0.67225 -4.24169 2.98188 0.336077 0.276592 -0.900305
-0.86899 -4.3929 2.86204 0.336077 0.276592 -0.900305
-0.564664 -4.45983 2.95539 0.336077 0.276592 -0.900305
-0.578221 -4.78517 2.85081 0.336077 0.276592 -0.900305
-0.564162 -4.55323 2.92702 0.336077 0.276592 -0.900305
-0.768113 -4.38563 2.90199 0.336077 0.276592 -0.900305
-1.08775 -4.0897 2.87295 0.336077 0.276592 -0.900305
-0.690867 -4.53516 2.88515 0.336077 0.276592 -0.900305
-0.648887 -4.67584 2.85782 0.336077 0.276592 -0.900305
-0.999127 -4.28677 2.84582 0.336077 0.276592 -0.900305
-1.01917 -4.26842 2.84394 0.336077 0.276592 -0.900305
-0.887306 -4.57317 2.80004 0.336077 0.276592 -0.900305
-0.659441 -4.28071 2.97473 0.336077 0.276592 -0.900305
-0.909805 -4.95484 2.67489 0.336077 0.276592 -0.900305
-1.23756 -4.38885 2.72541 0.336077 0.276592 -0.900305
-1.12542 -4.5188 2.72761 0.336077 0.276592 -0.900305
-1.28549 -4.75286 2.59614 0.336077 0.276592 -0.900305
-0.95398 -4.68087 2.74217 0.336077 0.276592 -0.900305
-1.19318 -4.70251 2.64608 0.336077 0.276592 -0.900305
-0.94394 -4.7913 2.71214 0.336077 0.276592 -0.900305
-1.03338 -4.70454 2.70522 0.336077 0.276592 -0.900305
-1.37482 -4.58168 2.61509 0.336077 0.276592 -0.900305
-1.11801 -4.76817 2.65411 0.336077 0.276592 -0.900305
-1.45689 -4.85741 2.50006 0.336077 0.276592 -0.900305
-1.27017 -4.61881 2.64288 0.336077 0.276592 -0.900305
-1.21534 -4.53298 2.68964 0.336077 0.276592 -0.900305
-0.932955 -5.01037 2.64924 0.336077 0.276592 -0.900305
-1.21319 -4.29163 2.76427 0.336077 0.276592 -0.900305
-1.21782 -4.73628 2.62653 0.336077 0.276592 -0.900305
-1.44923 -4.79952 2.52063 0.336077 0.276592 -0.900305
-0.922755 -5.03759 2.64473 0.336077 0.276592 -0.900305
-0.882017 -4.97121 2.68027 0.336077 0.276592 -0.900305
-1.17841 -4.567 2.69305 0.336077 0.276592 -0.900305
-1.35197 -4.48853 2.65213 0.336077 0.276592 -0.900305
-1.2118 -4.45631 2.71442 0.336077 0.276592 -0.900305
-1.20662 -4.24197 2.78191 0.336077 0.276592 -0.900305
-1.1007 -4.41129 2.76974 0.336077 0.276592 -0.900305
-1.17734 -4.836 2.61117 0.336077 0.276592 -0.900305
-1.45559 -4.69046 2.55161 0.336077 0.276592 -0.900305
-1.23635 -4.93619 2.55845 0.336077 0.276592 -0.900305
-1.06735 -4.73247 2.68397 0.336077 0.276592 -0.900305
-1.53037 -4.80475 2.48868 0.336077 0.276592 -0.900305
-1.06989 -4.92568 2.62393 0.336077 0.276592 -0.900305
-1.08644 -5.00004 2.59499 0.336077 0.276592 -0.900305
-1.07695 -4.55309 2.73525 0.336077 0.276592 -0.900305
-1.01901 -4.79846 2.68187 0.336077 0.276592 -0.900305
-1.29714 -4.71005 2.60488 0.336077 0.276592 -0.900305
-1.12512 -4.72868 2.66352 0.336077 0.276592 -0.900305
-1.37993 -4.62464 2.60004 0.336077 0.276592 -0.900305
-0.870801 -4.98229 2.68108 0.336077 0.276592 -0.900305
-1.41112 -4.89399 2.50599 0.336077 0.276592 -0.900305
-1.19117 -4.68819 2.65121 0.336077 0.276592 -0.900305
-1.22557 -4.52215 2.68913 0.336077 0.276592 -0.900305
-1.2311 -4.90903 2.56872 0.336077 0.276592 -0.900305
-1.45081 -4.45366 2.62583 0.336077 0.276592 -0.900305
-1.4 -4.63993 2.58786 0.336077 0.276592 -0.900305
-1.0423 -4.92231 2.63528 0.336077 0.276592 -0.900305
-1.18027 -4.41638 2.73842 0.336077 0.276592 -0.900305
-0.969844 -4.99772 2.63931 0.336077 0.276592 -0.900305
-1.14727 -4.70867 2.66136 0.336077 0.276592 -0.900305
-1.16385 -4.34152 2.76746 0.336077 0.276592 -0.900305
-1.00935 -5.04186 2.61104 0.336077 0.276592 -0.900305
-1.29157 -4.15715 2.77608 0.336077 0.276592 -0.900305
-1.42321 -4.40399 2.65134 0.336077 0.276592 -0.900305
-1.06081 -4.53657 2.74634 0.336077 0.276592 -0.900305
-1.38391 -4.51099 2.63331 0.336077 0.276592 -0.900305
-0.781305 -5.10502 2.67701 0.336077 0.276592 -0.900305
-1.10826 -4.80506 2.64647 0.336077 0.276592 -0.900305
-1.27975 -4.9079 2.55087 0.336077 0.276592 -0.900305
-1.32137 -4.69709 2.59978 0.336077 0.276592 -0.900305
-1.44225 -4.59757 2.58501 0.336077 0.276592 -0.900305
-0.837529 -4.87158 2.72739 0.336077 0.276592 -0.900305
-1.18892 -4.33509 2.76005 0.336077 0.276592 -0.900305
-1.51614 -4.78157 2.50109 0.336077 0.276592 -0.900305
-1.501 -4.84343 2.48783 0.336077 0.276592 -0.900305
-0.667767 -5.13572 2.71009 0.336077 0.276592 -0.900305
-1.28983 -4.42072 2.69611 0.336077 0.276592 -0.900305
-1.24602 -4.60772 2.6553 0.336077 0.276592 -0.900305
-1.30171 -4.54635 2.65325 0.336077 0.276592 -0.900305
-1.34306 -4.93359 2.51933 0.336077 0.276592 -0.900305
-1.2938 -4.94485 2.53431 0.336077 0.276592 -0.900305
-0.804773 -5.02502 2.69271 0.336077 0.276592 -0.900305
-1.39853 -4.77151 2.54816 0.336077 0.276592 -0.900305
-1.17768 -4.86026 2.60362 0.336077 0.276592 -0.900305
-1.37262 -4.8881 2.52219 0.336077 0.276592 -0.900305
-1.35642 -4.04779 2.78528 0.336077 0.276592 -0.900305
-1.3993 -4.91455 2.50412 0.336077 0.276592 -0.900305
-0.904908 -4.81323 2.72003 0.336077 0.276592 -0.900305
-1.44865 -4.49031 2.61542 0.336077 0.276592 -0.900305
-1.49738 -4.88334 2.47698 0.336077 0.276592 -0.900305
-1.0078 -4.86448 2.66587 0.336077 0.276592 -0.900305
-1.29539 -4.14467 2.77847 0.336077 0.276592 -0.900305
-1.3371 -4.18907 2.74929 0.336077 0.276592 -0.900305
-1.32526 -4.26544 2.73036 0.336077 0.276592 -0.900305
-1.10359 -4.82341 2.6426 0.336077 0.276592 -0.900305
-1.096 -4.53951 2.73228 0.336077 0.276592 -0.900305
-1.35045 -4.52735 2.64083 0.336077 0.276592 -0.900305
-1.12896 -4.75199 2.65496 0.336077 0.276592 -0.900305
-1.32719 -4.54664 2.64363 0.336077 0.276592 -0.900305
-1.33165 -4.4776 2.66307 0.336077 0.276592 -0.900305
-1.32937 -4.28747 2.72208 0.336077 0.276592 -0.900305
-1.01637 -4.78681 2.68642 0.336077 0.276592 -0.900305
-1.36734 -4.12877 2.75642 0.336077 0.276592 -0.900305
-1.20693 -4.68168 2.6473 0.336077 0.276592 -0.900305
-1.16592 -4.59846 2.6881 0.336077 0.276592 -0.900305
-1.15427 -4.81613 2.62587 0.336077 0.276592 -0.900305
-1.11389 -4.61281 2.70317 0.336077 0.276592 -0.900305
-1.28708 -4.39933 2.70368 0.336077 0.276592 -0.900305
-1.05117 -4.52189 2.75444 0.336077 0.276592 -0.900305
-0.853187 -4.9336 2.70256 0.336077 0.276592 -0.900305
-1.2423 -4.817 2.59268 0.336077 0.276592 -0.900305
-1.20386 -4.78923 2.61555 0.336077 0.276592 -0.900305
-1.21735 -4.55449 2.68231 0.336077 0.276592 -0.900305
-1.08719 -4.83248 2.64596 0.336077 0.276592 -0.900305
-1.1124 -4.94218 2.60298 0.336077 0.276592 -0.900305
-1.45164 -4.81425 2.51522 0.336077 0.276592 -0.900305
-1.39316 -4.58852 2.60614 0.336077 0.276592 -0.900305
-1.43159 -4.39665 2.65045 0.336077 0.276592 -0.900305
-1.25189 -4.72502 2.61723 0.336077 0.276592 -0.900305
-1.20802 -4.81942 2.60476 0.336077 0.276592 -0.900305
-1.40902 -4.71045 2.56291 0.336077 0.276592 -0.900305
-1.0936 -5.01639 2.58731 0.336077 0.276592 -0.900305
-1.35282 -4.16943 2.74942 0.336077 0.276592 -0.900305
-1.25926 -4.84379 2.57814 0.336077 0.276592 -0.900305
-0.711163 -5.12802 2.69622 0.336077 0.276592 -0.900305
-1.31989 -4.19824 2.75292 0.336077 0.276592 -0.900305
-0.731235 -5.05678 2.7105 0.336077 0.276592 -0.900305
-1.51911 -4.71773 2.51951 0.336077 0.276592 -0.900305
-1.15409 -4.9817 2.5753 0.336077 0.276592 -0.900305
-1.12697 -4.91288 2.60649 0.336077 0.276592 -0.900305
-1.24014 -4.56993 2.66906 0.336077 0.276592 -0.900305
-1.45816 -4.67954 2.55399 0.336077 0.276592 -0.900305
-1.22598 -4.50745 2.69347 0.336077 0.276592 -0.900305
-0.733079 -5.1418 2.6838 0.336077 0.276592 -0.900305
-1.34854 -4.0995 2.77241 0.336077 0.276592 -0.900305
-1.03913 -4.81618 2.66893 0.336077 0.276592 -0.900305
-1.07011 -4.63443 2.71293 0.336077 0.276592 -0.900305
-0.973049 -4.79629 2.69973 0.336077 0.276592 -0.900305
-1.3933 -4.11837 2.7499 0.336077 0.276592 -0.900305
-1.12677 -4.97115 2.58874 0.336077 0.276592 -0.900305
-1.27289 -4.56349 2.65878 0.336077 0.276592 -0.900305
-0.844221 -4.8957 2.71751 0.336077 0.276592 -0.900305
-1.06868 -5.00297 2.60074 0.336077 0.276592 -0.900305
-1.22669 -4.95451 2.55646 0.336077 0.276592 -0.900305
-1.18724 -4.27424 2.77929 0.336077 0.276592 -0.900305
-1.11687 -4.38538 2.77162 0.336077 0.276592 -0.900305
-1.40744 -4.77937 2.54242 0.336077 0.276592 -0.900305
-1.19899 -4.94943 2.56838 0.336077 0.276592 -0.900305
-1.3538 -4.81466 2.55169 0.336077 0.276592 -0.900305
