ply
format ascii 1.0
element vertex 895
property float x
property float y
property float z
property float nx
property float ny
property float nz
end_header
-1.61411 2.41912 2.83784 0.158922 0.0160304 -0.987161
-1.55957 2.41492 2.84654 0.158922 0.0160304 -0.987161
-1.60676 2.43919 2.83938 0.158922 0.0160304 -0.987161
-1.58616 2.42325 2.84241 0.158922 0.0160304 -0.987161
-1.54285 2.38688 2.84873 0.158922 0.0160304 -0.987161
-1.58954 2.41585 2.84173 0.158922 0.0160304 -0.987161
-1.57124 2.41921 2.84473 0.158922 0.0160304 -0.987161
-1.60526 2.38438 2.83865 0.158922 0.0160304 -0.987161
-1.58954 2.42093 2.84182 0.158922 0.0160304 -0.987161
-1.55613 2.39372 2.84672 0.158922 0.0160304 -0.987161
-1.59133 2.40733 2.8413 0.158922 0.0160304 -0.987161
-1.52266 2.39527 2.85212 0.158922 0.0160304 -0.987161
-1.62557 2.40203 2.8357 0.158922 0.0160304 -0.987161
-1.57883 2.41389 2.84342 0.158922 0.0160304 -0.987161
-1.63091 2.40397 2.83487 0.158922 0.0160304 -0.987161
-1.58448 2.4268 2.84274 0.158922 0.0160304 -0.987161
-1.57078 2.43077 2.84501 0.158922 0.0160304 -0.987161
-1.65087 2.38217 2.83128 0.158922 0.0160304 -0.987161
-1.54929 2.41474 2.84819 0.158922 0.0160304 -0.987161
-1.64932 2.3792 2.83147 0.158922 0.0160304 -0.987161
-1.63085 2.38209 2.8345 0.158922 0.0160304 -0.987161
-1.64399 2.38736 2.83248 0.158922 0.0160304 -0.987161
-1.62303 2.41139 2.83627 0.158922 0.0160304 -0.987161
-1.58758 2.44739 2.8426 0.158922 0.0160304 -0.987161
-1.59523 2.40917 2.8407 0.158922 0.0160304 -0.987161
-1.57904 2.42925 2.84366 0.158922 0.0160304 -0.987161
-1.5549 2.41788 2.84734 0.158922 0.0160304 -0.987161
-1.59544 2.39303 2.84038 0.158922 0.0160304 -0.987161
-1.61892 2.39699 2.83668 0.158922 0.0160304 -0.987161
-1.61729 2.38786 2.83678 0.158922 0.0160304 -0.987161
-1.56633 2.42508 2.84563 0.158922 0.0160304 -0.987161
-1.63448 2.38025 2.83388 0.158922 0.0160304 -0.987161
-1.59722 2.40251 2.84026 0.158922 0.0160304 -0.987161
-1.61224 2.38636 2.83756 0.158922 0.0160304 -0.987161
-1.63182 2.38322 2.83436 0.158922 0.0160304 -0.987161
-1.56448 2.3923 2.84535 0.158922 0.0160304 -0.987161
-1.56392 2.4014 2.8456 0.158922 0.0160304 -0.987161
-1.6382 2.3953 2.83355 0.158922 0.0160304 -0.987161
-1.56987 2.39165 2.84447 0.158922 0.0160304 -0.987161
-1.60704 2.4183 2.83896 0.158922 0.0160304 -0.987161
-1.57888 2.40255 2.84321 0.158922 0.0160304 -0.987161
-1.58771 2.39462 2.84165 0.158922 0.0160304 -0.987161
-1.61661 2.42594 2.83756 0.158922 0.0160304 -0.987161
-1.59494 2.45099 2.84148 0.158922 0.0160304 -0.987161
-1.59768 2.38013 2.83979 0.158922 0.0160304 -0.987161
-1.58135 2.39981 2.84277 0.158922 0.0160304 -0.987161
-1.63676 2.39789 2.83382 0.158922 0.0160304 -0.987161
-1.58088 2.42364 2.84326 0.158922 0.0160304 -0.987161
-1.59096 2.4245 2.84166 0.158922 0.0160304 -0.987161
-1.62194 2.39208 2.8361 0.158922 0.0160304 -0.987161
-1.55165 2.39603 2.84748 0.158922 0.0160304 -0.987161
-1.56313 2.40982 2.84587 0.158922 0.0160304 -0.987161
-1.60012 2.44068 2.84047 0.158922 0.0160304 -0.987161
-1.54787 2.41097 2.84835 0.158922 0.0160304 -0.987161
-1.63348 2.37554 2.83396 0.158922 0.0160304 -0.987161
-1.56636 2.42134 2.84556 0.158922 0.0160304 -0.987161
-1.60316 2.4041 2.83934 0.158922 0.0160304 -0.987161
-1.55282 2.41911 2.8477 0.158922 0.0160304 -0.987161
-1.56849 2.41013 2.84502 0.158922 0.0160304 -0.987161
-1.59164 2.39826 2.84109 0.158922 0.0160304 -0.987161
-1.54882 2.40987 2.84818 0.158922 0.0160304 -0.987161
-1.57737 2.40328 2.84347 0.158922 0.0160304 -0.987161
-1.62022 2.379 2.83615 0.158922 0.0160304 -0.987161
-1.59517 2.43695 2.8412 0.158922 0.0160304 -0.987161
-1.56457 2.42782 2.84596 0.158922 0.0160304 -0.987161
-1.60394 2.39148 2.83899 0.158922 0.0160304 -0.987161
-1.57119 2.38448 2.84413 0.158922 0.0160304 -0.987161
-1.53 2.39345 2.85091 0.158922 0.0160304 -0.987161
-1.62064 2.40347 2.83651 0.158922 0.0160304 -0.987161
-1.63301 2.38479 2.8342 0.158922 0.0160304 -0.987161
-1.56335 2.38634 2.84542 0.158922 0.0160304 -0.987161
-1.5683 2.4116 2.84507 0.158922 0.0160304 -0.987161
-1.58229 2.43414 2.84322 0.158922 0.0160304 -0.987161
-1.54289 2.41193 2.84917 0.158922 0.0160304 -0.987161
-1.5972 2.4181 2.84054 0.158922 0.0160304 -0.987161
-1.59005 2.38841 2.84117 0.158922 0.0160304 -0.987161
-1.61838 2.41677 2.83711 0.158922 0.0160304 -0.987161
-1.62484 2.38809 2.83557 0.158922 0.0160304 -0.987161
-1.63335 2.40002 2.83441 0.158922 0.0160304 -0.987161
-1.60507 2.39839 2.83893 0.158922 0.0160304 -0.987161
-1.56814 2.39237 2.84476 0.158922 0.0160304 -0.987161
-1.63858 2.38637 2.83333 0.158922 0.0160304 -0.987161
-1.62127 2.39726 2.8363 0.158922 0.0160304 -0.987161
-1.6272 2.37704 2.83499 0.158922 0.0160304 -0.987161
-1.62936 2.37649 2.83464 0.158922 0.0160304 -0.987161
-1.57163 2.39884 2.84431 0.158922 0.0160304 -0.987161
-1.58464 2.43403 2.84284 0.158922 0.0160304 -0.987161
-1.63945 2.37982 2.83307 0.158922 0.0160304 -0.987161
-1.60532 2.43054 2.83945 0.158922 0.0160304 -0.987161
-1.5932 2.40249 2.84091 0.158922 0.0160304 -0.987161
-1.62566 2.38994 2.83547 0.158922 0.0160304 -0.987161
-1.62956 2.40035 2.83503 0.158922 0.0160304 -0.987161
-1.62772 2.398 2.83528 0.158922 0.0160304 -0.987161
-1.57841 2.39327 2.84313 0.158922 0.0160304 -0.987161
-1.60207 2.40571 2.83954 0.158922 0.0160304 -0.987161
-1.60195 2.39406 2.83935 0.158922 0.0160304 -0.987161
-1.62183 2.37914 2.83589 0.158922 0.0160304 -0.987161
-1.65119 2.37546 2.83111 0.158922 0.0160304 -0.987161
-1.55681 2.42118 2.84709 0.158922 0.0160304 -0.987161
-1.59279 2.42512 2.84137 0.158922 0.0160304 -0.987161
-1.57504 2.40082 2.8438 0.158922 0.0160304 -0.987161
-1.58049 2.41618 2.84319 0.158922 0.0160304 -0.987161
-1.60701 2.4043 2.83872 0.158922 0.0160304 -0.987161
-1.60095 2.44513 2.84041 0.158922 0.0160304 -0.987161
-1.61582 2.38289 2.83693 0.158922 0.0160304 -0.987161
-1.55065 2.41736 2.84801 0.158922 0.0160304 -0.987161
-1.64498 2.39156 2.83239 0.158922 0.0160304 -0.987161
-1.61353 2.39746 2.83755 0.158922 0.0160304 -0.987161
-1.56459 2.39771 2.84543 0.158922 0.0160304 -0.987161
-1.55612 2.39196 2.84669 0.158922 0.0160304 -0.987161
-1.53729 2.38813 2.84965 0.158922 0.0160304 -0.987161
-1.58142 2.40122 2.84278 0.158922 0.0160304 -0.987161
-1.62136 2.40429 2.83641 0.158922 0.0160304 -0.987161
-1.59622 2.44179 2.84112 0.158922 0.0160304 -0.987161
-1.63804 2.39238 2.83352 0.158922 0.0160304 -0.987161
-1.6141 2.38088 2.83717 0.158922 0.0160304 -0.987161
-1.61338 2.39021 2.83745 0.158922 0.0160304 -0.987161
-1.61155 2.40756 2.83805 0.158922 0.0160304 -0.987161
-1.60882 2.39278 2.83823 0.158922 0.0160304 -0.987161
-1.5485 2.39404 2.84795 0.158922 0.0160304 -0.987161
-1.60288 2.42717 2.83979 0.158922 0.0160304 -0.987161
-1.5926 2.44006 2.84167 0.158922 0.0160304 -0.987161
-1.61781 2.40789 2.83705 0.158922 0.0160304 -0.987161
-1.55945 2.39493 2.8462 0.158922 0.0160304 -0.987161
-1.63269 2.40114 2.83454 0.158922 0.0160304 -0.987161
-1.60111 2.42917 2.84011 0.158922 0.0160304 -0.987161
-1.56683 2.40206 2.84514 0.158922 0.0160304 -0.987161
-1.62085 2.41777 2.83673 0.158922 0.0160304 -0.987161
-1.59618 2.42124 2.84076 0.158922 0.0160304 -0.987161
-1.59768 2.39387 2.84004 0.158922 0.0160304 -0.987161
-1.59756 2.44221 2.84091 0.158922 0.0160304 -0.987161
-1.64082 2.37493 2.83277 0.158922 0.0160304 -0.987161
-1.58843 2.39546 2.84155 0.158922 0.0160304 -0.987161
-1.60811 2.42587 2.83892 0.158922 0.0160304 -0.987161
-1.5746 2.38297 2.84356 0.158922 0.0160304 -0.987161
-1.63079 2.38827 2.83461 0.158922 0.0160304 -0.987161
-1.58021 2.4189 2.84329 0.158922 0.0160304 -0.987161
-1.52257 2.38962 2.85204 0.158922 0.0160304 -0.987161
-1.5466 2.40329 2.84842 0.158922 0.0160304 -0.987161
-1.595 2.39433 2.84048 0.158922 0.0160304 -0.987161
-1.55422 2.41163 2.84734 0.158922 0.0160304 -0.987161
-1.56643 2.41165 2.84538 0.158922 0.0160304 -0.987161
-1.56754 2.38899 2.8448 0.158922 0.0160304 -0.987161
-1.59893 2.38867 2.83974 0.158922 0.0160304 -0.987161
-1.60667 2.38783 2.83849 0.158922 0.0160304 -0.987161
-1.61473 2.42089 2.83777 0.158922 0.0160304 -0.987161
-1.56423 2.42939 2.84604 0.158922 0.0160304 -0.987161
-1.59107 2.39634 2.84114 0.158922 0.0160304 -0.987161
-1.58022 2.40859 2.8431 0.158922 0.0160304 -0.987161
-1.56838 2.41682 2.84515 0.158922 0.0160304 -0.987161
-1.60205 2.39868 2.83942 0.158922 0.0160304 -0.987161
-1.58227 2.43734 2.84328 0.158922 0.0160304 -0.987161
-1.5358 2.40165 2.85012 0.158922 0.0160304 -0.987161
-1.56653 2.42616 2.84561 0.158922 0.0160304 -0.987161
-1.60625 2.44042 2.83948 0.158922 0.0160304 -0.987161
-1.54123 2.40461 2.8493 0.158922 0.0160304 -0.987161
-1.61281 2.38051 2.83737 0.158922 0.0160304 -0.987161
-1.59852 2.43312 2.84059 0.158922 0.0160304 -0.987161
-1.55976 2.41044 2.84643 0.158922 0.0160304 -0.987161
-1.55903 2.40558 2.84646 0.158922 0.0160304 -0.987161
-1.6071 2.42105 2.839 0.158922 0.0160304 -0.987161
-1.52396 2.39501 2.85191 0.158922 0.0160304 -0.987161
-1.57801 2.39507 2.84322 0.158922 0.0160304 -0.987161
-1.54641 2.39831 2.84836 0.158922 0.0160304 -0.987161
-1.58014 2.398 2.84293 0.158922 0.0160304 -0.987161
-1.62685 2.37853 2.83508 0.158922 0.0160304 -0.987161
-1.57629 2.39328 2.84347 0.158922 0.0160304 -0.987161
-1.52668 2.39018 2.85139 0.158922 0.0160304 -0.987161
-1.58309 2.42647 2.84296 0.158922 0.0160304 -0.987161
-1.60958 2.40764 2.83837 0.158922 0.0160304 -0.987161
-1.62063 2.38667 2.83622 0.158922 0.0160304 -0.987161
-1.54283 2.40556 2.84906 0.158922 0.0160304 -0.987161
-1.54356 2.40662 2.84896 0.158922 0.0160304 -0.987161
-1.63303 2.38056 2.83412 0.158922 0.0160304 -0.987161
-1.6449 2.37779 2.83216 0.158922 0.0160304 -0.987161
-1.59985 2.40552 2.83989 0.158922 0.0160304 -0.987161
-1.62458 2.41808 2.83614 0.158922 0.0160304 -0.987161
-1.59779 2.38127 2.8398 0.158922 0.0160304 -0.987161
-1.56546 2.39031 2.84516 0.158922 0.0160304 -0.987161
-1.57154 2.40482 2.84443 0.158922 0.0160304 -0.987161
-1.54868 2.40207 2.84806 0.158922 0.0160304 -0.987161
-1.63958 2.38728 2.83318 0.158922 0.0160304 -0.987161
-1.58744 2.42476 2.84223 0.158922 0.0160304 -0.987161
-1.64594 2.38875 2.83219 0.158922 0.0160304 -0.987161
-1.62954 2.38851 2.83482 0.158922 0.0160304 -0.987161
-1.56199 2.39718 2.84583 0.158922 0.0160304 -0.987161
-1.57266 2.38803 2.84396 0.158922 0.0160304 -0.987161
-1.5822 2.41563 2.84291 0.158922 0.0160304 -0.987161
-1.59012 2.38343 2.84107 0.158922 0.0160304 -0.987161
-1.57856 2.4186 2.84355 0.158922 0.0160304 -0.987161
-1.59085 2.38229 2.84093 0.158922 0.0160304 -0.987161
-1.61542 2.3898 2.83711 0.158922 0.0160304 -0.987161
-1.58595 2.40074 2.84204 0.158922 0.0160304 -0.987161
-1.55311 2.41287 2.84754 0.158922 0.0160304 -0.987161
-1.54104 2.40104 2.84927 0.158922 0.0160304 -0.987161
-1.55563 2.39697 2.84685 0.158922 0.0160304 -0.987161
-1.62065 2.39176 2.83631 0.158922 0.0160304 -0.987161
-1.56433 2.41354 2.84575 0.158922 0.0160304 -0.987161
-1.55488 2.38686 2.8468 0.158922 0.0160304 -0.987161
-1.59993 2.41556 2.84006 0.158922 0.0160304 -0.987161
-1.58441 2.40115 2.8423 0.158922 0.0160304 -0.987161
-1.57645 2.41626 2.84385 0.158922 0.0160304 -0.987161
-1.58266 2.42816 2.84306 0.158922 0.0160304 -0.987161
-1.61817 2.39342 2.83673 0.158922 0.0160304 -0.987161
-1.55559 2.41377 2.84716 0.158922 0.0160304 -0.987161
-1.54546 2.38982 2.84836 0.158922 0.0160304 -0.987161
-1.55565 2.40717 2.84703 0.158922 0.0160304 -0.987161
-1.62641 2.39349 2.83541 0.158922 0.0160304 -0.987161
-1.59653 2.43835 2.84101 0.158922 0.0160304 -0.987161
-1.61151 2.41556 2.8382 0.158922 0.0160304 -0.987161
-1.59325 2.40389 2.84093 0.158922 0.0160304 -0.987161
-1.5929 2.4378 2.84158 0.158922 0.0160304 -0.987161
-1.54642 2.39977 2.84838 0.158922 0.0160304 -0.987161
-1.60192 2.40683 2.83958 0.158922 0.0160304 -0.987161
-1.59046 2.44204 2.84205 0.158922 0.0160304 -0.987161
-1.55345 2.40543 2.84735 0.158922 0.0160304 -0.987161
-1.5884 2.43483 2.84225 0.158922 0.0160304 -0.987161
-1.55653 2.41426 2.84701 0.158922 0.0160304 -0.987161
-1.6144 2.41656 2.83775 0.158922 0.0160304 -0.987161
-1.58578 2.44467 2.84285 0.158922 0.0160304 -0.987161
-1.63577 2.38112 2.83369 0.158922 0.0160304 -0.987161
-1.61449 2.37776 2.83705 0.158922 0.0160304 -0.987161
-1.60997 2.4136 2.83841 0.158922 0.0160304 -0.987161
-1.57006 2.42143 2.84496 0.158922 0.0160304 -0.987161
-1.54003 2.39367 2.8493 0.158922 0.0160304 -0.987161
-1.5464 2.4126 2.84861 0.158922 0.0160304 -0.987161
-1.58671 2.41953 2.84225 0.158922 0.0160304 -0.987161
-1.56686 2.41733 2.84541 0.158922 0.0160304 -0.987161
-1.648 2.38515 2.83179 0.158922 0.0160304 -0.987161
-1.60715 2.40876 2.83878 0.158922 0.0160304 -0.987161
-1.59946 2.43937 2.84055 0.158922 0.0160304 -0.987161
-1.55779 2.41814 2.84688 0.158922 0.0160304 -0.987161
-1.58554 2.44108 2.84282 0.158922 0.0160304 -0.987161
-1.64837 2.37491 2.83155 0.158922 0.0160304 -0.987161
-1.60181 2.41481 2.83974 0.158922 0.0160304 -0.987161
-1.60191 2.40109 2.83948 0.158922 0.0160304 -0.987161
-1.5599 2.42353 2.84664 0.158922 0.0160304 -0.987161
-1.59558 2.38404 2.8402 0.158922 0.0160304 -0.987161
-1.56063 2.40535 2.8462 0.158922 0.0160304 -0.987161
-1.5468 2.3864 2.84809 0.158922 0.0160304 -0.987161
-1.5865 2.4284 2.84244 0.158922 0.0160304 -0.987161
-1.62913 2.40422 2.83516 0.158922 0.0160304 -0.987161
-1.57538 2.40195 2.84377 0.158922 0.0160304 -0.987161
-1.59115 2.4444 2.84198 0.158922 0.0160304 -0.987161
-1.58841 2.42801 2.84213 0.158922 0.0160304 -0.987161
-1.64542 2.38417 2.83219 0.158922 0.0160304 -0.987161
-1.57591 2.389 2.84345 0.158922 0.0160304 -0.987161
-1.59675 2.41106 2.84049 0.158922 0.0160304 -0.987161
-1.58089 2.40622 2.84295 0.158922 0.0160304 -0.987161
-1.56739 2.39162 2.84487 0.158922 0.0160304 -0.987161
-1.52806 2.40117 2.85136 0.158922 0.0160304 -0.987161
-1.63774 2.3767 2.83329 0.158922 0.0160304 -0.987161
-1.58028 2.42511 2.84339 0.158922 0.0160304 -0.987161
-1.59321 2.39769 2.84082 0.158922 0.0160304 -0.987161
-1.58975 2.44714 2.84225 0.158922 0.0160304 -0.987161
-1.56936 2.40156 2.84473 0.158922 0.0160304 -0.987161
-1.57918 2.41044 2.8433 0.158922 0.0160304 -0.987161
-1.61953 2.41975 2.83698 0.158922 0.0160304 -0.987161
-1.64102 2.37811 2.83279 0.158922 0.0160304 -0.987161
-1.58883 2.40595 2.84167 0.158922 0.0160304 -0.987161
-1.61865 2.37913 2.83641 0.158922 0.0160304 -0.987161
-1.52049 2.38399 2.85228 0.158922 0.0160304 -0.987161
-1.59865 2.35842 2.83926 0.158922 0.0160304 -0.987161
-1.60371 2.33839 2.83809 0.158922 0.0160304 -0.987161
-1.61294 2.37485 2.83725 0.158922 0.0160304 -0.987161
-1.58579 2.36242 2.84139 0.158922 0.0160304 -0.987161
-1.60516 2.36715 2.83836 0.158922 0.0160304 -0.987161
-1.60471 2.35368 2.8382 0.158922 0.0160304 -0.987161
-1.53576 2.38245 2.84979 0.158922 0.0160304 -0.987161
-1.54316 2.35496 2.84812 0.158922 0.0160304 -0.987161
-1.59039 2.37665 2.84091 0.158922 0.0160304 -0.987161
-1.5648 2.35626 2.84466 0.158922 0.0160304 -0.987161
-1.61258 2.344 2.83676 0.158922 0.0160304 -0.987161
-1.59314 2.35521 2.84009 0.158922 0.0160304 -0.987161
-1.53815 2.38015 2.84937 0.158922 0.0160304 -0.987161
-1.55759 2.34604 2.84564 0.158922 0.0160304 -0.987161
-1.56934 2.34775 2.84378 0.158922 0.0160304 -0.987161
-1.55187 2.34371 2.84652 0.158922 0.0160304 -0.987161
-1.60746 2.37139 2.83807 0.158922 0.0160304 -0.987161
-1.55557 2.34752 2.84599 0.158922 0.0160304 -0.987161
-1.61222 2.33666 2.83669 0.158922 0.0160304 -0.987161
-1.58242 2.36375 2.84196 0.158922 0.0160304 -0.987161
-1.64768 2.36522 2.83149 0.158922 0.0160304 -0.987161
-1.52694 2.38737 2.8513 0.158922 0.0160304 -0.987161
-1.55373 2.36884 2.84666 0.158922 0.0160304 -0.987161
-1.63382 2.37385 2.83387 0.158922 0.0160304 -0.987161
-1.5768 2.30946 2.84191 0.158922 0.0160304 -0.987161
-1.58007 2.34951 2.84209 0.158922 0.0160304 -0.987161
-1.55023 2.35024 2.8469 0.158922 0.0160304 -0.987161
-1.56359 2.3556 2.84485 0.158922 0.0160304 -0.987161
-1.56865 2.37498 2.84437 0.158922 0.0160304 -0.987161
-1.58939 2.3545 2.84068 0.158922 0.0160304 -0.987161
-1.57145 2.31623 2.84289 0.158922 0.0160304 -0.987161
-1.64294 2.36158 2.83219 0.158922 0.0160304 -0.987161
-1.58061 2.32111 2.8415 0.158922 0.0160304 -0.987161
-1.56393 2.35384 2.84476 0.158922 0.0160304 -0.987161
-1.60847 2.35547 2.83762 0.158922 0.0160304 -0.987161
-1.63058 2.36234 2.83419 0.158922 0.0160304 -0.987161
-1.55428 2.38101 2.84679 0.158922 0.0160304 -0.987161
-1.62021 2.36628 2.83593 0.158922 0.0160304 -0.987161
-1.61812 2.36708 2.83628 0.158922 0.0160304 -0.987161
-1.62613 2.3554 2.83478 0.158922 0.0160304 -0.987161
-1.58497 2.37226 2.8417 0.158922 0.0160304 -0.987161
-1.54445 2.3609 2.84802 0.158922 0.0160304 -0.987161
-1.57593 2.33531 2.8425 0.158922 0.0160304 -0.987161
-1.59629 2.32586 2.83906 0.158922 0.0160304 -0.987161
-1.54542 2.37346 2.84808 0.158922 0.0160304 -0.987161
-1.55792 2.38214 2.84622 0.158922 0.0160304 -0.987161
-1.56756 2.32747 2.84371 0.158922 0.0160304 -0.987161
-1.53276 2.3696 2.85005 0.158922 0.0160304 -0.987161
-1.61793 2.34122 2.83585 0.158922 0.0160304 -0.987161
-1.55723 2.35295 2.84582 0.158922 0.0160304 -0.987161
-1.57016 2.32489 2.84325 0.158922 0.0160304 -0.987161
-1.52934 2.37011 2.85061 0.158922 0.0160304 -0.987161
-1.63359 2.36426 2.83374 0.158922 0.0160304 -0.987161
-1.57761 2.36142 2.84269 0.158922 0.0160304 -0.987161
-1.59432 2.35644 2.83992 0.158922 0.0160304 -0.987161
-1.64506 2.37178 2.83203 0.158922 0.0160304 -0.987161
-1.63486 2.36276 2.83351 0.158922 0.0160304 -0.987161
-1.62141 2.34319 2.83533 0.158922 0.0160304 -0.987161
-1.55669 2.37611 2.84632 0.158922 0.0160304 -0.987161
-1.55011 2.3675 2.84722 0.158922 0.0160304 -0.987161
-1.58368 2.33445 2.84124 0.158922 0.0160304 -0.987161
-1.54064 2.3661 2.84872 0.158922 0.0160304 -0.987161
-1.58554 2.32116 2.84071 0.158922 0.0160304 -0.987161
-1.59092 2.35358 2.84041 0.158922 0.0160304 -0.987161
-1.59746 2.35204 2.83934 0.158922 0.0160304 -0.987161
-1.59464 2.37275 2.84015 0.158922 0.0160304 -0.987161
-1.57719 2.35466 2.84264 0.158922 0.0160304 -0.987161
-1.59557 2.33009 2.83925 0.158922 0.0160304 -0.987161
-1.53461 2.37574 2.84986 0.158922 0.0160304 -0.987161
-1.55695 2.38444 2.84642 0.158922 0.0160304 -0.987161
-1.53911 2.37642 2.84915 0.158922 0.0160304 -0.987161
-1.56947 2.35108 2.84382 0.158922 0.0160304 -0.987161
-1.59191 2.32748 2.83979 0.158922 0.0160304 -0.987161
-1.59689 2.32436 2.83894 0.158922 0.0160304 -0.987161
-1.54104 2.36932 2.84871 0.158922 0.0160304 -0.987161
-1.59785 2.36225 2.83945 0.158922 0.0160304 -0.987161
-1.56924 2.37788 2.84433 0.158922 0.0160304 -0.987161
-1.54189 2.36746 2.84854 0.158922 0.0160304 -0.987161
-1.60605 2.33481 2.83765 0.158922 0.0160304 -0.987161
-1.58312 2.34135 2.84145 0.158922 0.0160304 -0.987161
-1.6546 2.36873 2.83044 0.158922 0.0160304 -0.987161
-1.59428 2.33355 2.83952 0.158922 0.0160304 -0.987161
-1.62766 2.35215 2.83448 0.158922 0.0160304 -0.987161
-1.54033 2.3815 2.84904 0.158922 0.0160304 -0.987161
-1.58517 2.3348 2.84101 0.158922 0.0160304 -0.987161
-1.56776 2.37719 2.84455 0.158922 0.0160304 -0.987161
-1.5822 2.32442 2.8413 0.158922 0.0160304 -0.987161
-1.64874 2.36936 2.83139 0.158922 0.0160304 -0.987161
-1.59401 2.3398 2.83967 0.158922 0.0160304 -0.987161
-1.64249 2.36559 2.83233 0.158922 0.0160304 -0.987161
-1.55731 2.37297 2.84616 0.158922 0.0160304 -0.987161
-1.57731 2.34609 2.84247 0.158922 0.0160304 -0.987161
-1.63535 2.36749 2.83351 0.158922 0.0160304 -0.987161
-1.55143 2.3805 2.84724 0.158922 0.0160304 -0.987161
-1.58735 2.33756 2.84071 0.158922 0.0160304 -0.987161
-1.55085 2.37509 2.84724 0.158922 0.0160304 -0.987161
-1.54532 2.37546 2.84813 0.158922 0.0160304 -0.987161
-1.64132 2.36702 2.83255 0.158922 0.0160304 -0.987161
-1.56825 2.34958 2.84399 0.158922 0.0160304 -0.987161
-1.56123 2.34914 2.84511 0.158922 0.0160304 -0.987161
-1.59561 2.3434 2.83948 0.158922 0.0160304 -0.987161
-1.59856 2.35626 2.83923 0.158922 0.0160304 -0.987161
-1.56508 2.34392 2.8444 0.158922 0.0160304 -0.987161
-1.59255 2.37156 2.84047 0.158922 0.0160304 -0.987161
-1.51855 2.38945 2.85268 0.158922 0.0160304 -0.987161
-1.57444 2.36331 2.84324 0.158922 0.0160304 -0.987161
-1.57157 2.34282 2.84334 0.158922 0.0160304 -0.987161
-1.5232 2.37933 2.85176 0.158922 0.0160304 -0.987161
-1.61739 2.35211 2.83613 0.158922 0.0160304 -0.987161
-1.55628 2.33616 2.84568 0.158922 0.0160304 -0.987161
-1.57758 2.36648 2.84279 0.158922 0.0160304 -0.987161
-1.57344 2.38095 2.84371 0.158922 0.0160304 -0.987161
-1.569 2.37666 2.84435 0.158922 0.0160304 -0.987161
-1.56017 2.37482 2.84573 0.158922 0.0160304 -0.987161
-1.56674 2.32991 2.84389 0.158922 0.0160304 -0.987161
-1.61683 2.36757 2.83649 0.158922 0.0160304 -0.987161
-1.56768 2.33326 2.84379 0.158922 0.0160304 -0.987161
-1.60012 2.33772 2.83865 0.158922 0.0160304 -0.987161
-1.63826 2.35477 2.83282 0.158922 0.0160304 -0.987161
-1.58119 2.31964 2.84138 0.158922 0.0160304 -0.987161
-1.55136 2.34834 2.84668 0.158922 0.0160304 -0.987161
-1.55164 2.38506 2.84729 0.158922 0.0160304 -0.987161
-1.61425 2.37617 2.83706 0.158922 0.0160304 -0.987161
-1.57522 2.3288 2.8425 0.158922 0.0160304 -0.987161
-1.58877 2.37454 2.84113 0.158922 0.0160304 -0.987161
-1.58969 2.3654 2.84082 0.158922 0.0160304 -0.987161
-1.56476 2.34592 2.84449 0.158922 0.0160304 -0.987161
-1.62704 2.34688 2.83449 0.158922 0.0160304 -0.987161
-1.59238 2.33179 2.8398 0.158922 0.0160304 -0.987161
-1.55878 2.35536 2.84561 0.158922 0.0160304 -0.987161
-1.55464 2.34473 2.84609 0.158922 0.0160304 -0.987161
-1.65881 2.37038 2.82979 0.158922 0.0160304 -0.987161
-1.57119 2.36117 2.84372 0.158922 0.0160304 -0.987161
-1.60257 2.34397 2.83837 0.158922 0.0160304 -0.987161
-1.6204 2.36968 2.83596 0.158922 0.0160304 -0.987161
-1.55636 2.37111 2.84628 0.158922 0.0160304 -0.987161
-1.57795 2.37729 2.84292 0.158922 0.0160304 -0.987161
-1.62761 2.3649 2.83471 0.158922 0.0160304 -0.987161
-1.57679 2.36543 2.8429 0.158922 0.0160304 -0.987161
-1.53576 2.3867 2.84987 0.158922 0.0160304 -0.987161
-1.57326 2.31884 2.84264 0.158922 0.0160304 -0.987161
-1.57553 2.32511 2.84239 0.158922 0.0160304 -0.987161
-1.54084 2.37707 2.84888 0.158922 0.0160304 -0.987161
-1.61888 2.34741 2.83581 0.158922 0.0160304 -0.987161
-1.61086 2.37482 2.83758 0.158922 0.0160304 -0.987161
-1.55835 2.33982 2.84541 0.158922 0.0160304 -0.987161
-1.51542 2.38847 2.85317 0.158922 0.0160304 -0.987161
-1.5834 2.37332 2.84197 0.158922 0.0160304 -0.987161
-1.61631 2.35615 2.83638 0.158922 0.0160304 -0.987161
-1.56406 2.37193 2.84506 0.158922 0.0160304 -0.987161
-1.58442 2.33167 2.84107 0.158922 0.0160304 -0.987161
-1.5789 2.34158 2.84214 0.158922 0.0160304 -0.987161
-1.56473 2.35808 2.84471 0.158922 0.0160304 -0.987161
-1.58885 2.33062 2.84034 0.158922 0.0160304 -0.987161
-1.59785 2.34893 2.83922 0.158922 0.0160304 -0.987161
-1.588 2.31807 2.84026 0.158922 0.0160304 -0.987161
-1.57263 2.34548 2.84321 0.158922 0.0160304 -0.987161
-1.56386 2.32796 2.84431 0.158922 0.0160304 -0.987161
-1.58858 2.32574 2.8403 0.158922 0.0160304 -0.987161
-1.58721 2.35852 2.8411 0.158922 0.0160304 -0.987161
-1.58243 2.33976 2.84154 0.158922 0.0160304 -0.987161
-1.57717 2.35792 2.8427 0.158922 0.0160304 -0.987161
-1.59529 2.37872 2.84015 0.158922 0.0160304 -0.987161
-1.62173 2.36998 2.83575 0.158922 0.0160304 -0.987161
-1.56134 2.33132 2.84478 0.158922 0.0160304 -0.987161
-1.5981 2.34207 2.83906 0.158922 0.0160304 -0.987161
-1.63754 2.36058 2.83304 0.158922 0.0160304 -0.987161
-1.63179 2.35001 2.83378 0.158922 0.0160304 -0.987161
-1.62671 2.37219 2.83499 0.158922 0.0160304 -0.987161
-1.58033 2.35727 2.84218 0.158922 0.0160304 -0.987161
-1.6106 2.36034 2.83737 0.158922 0.0160304 -0.987161
-1.59046 2.32502 2.83998 0.158922 0.0160304 -0.987161
-1.55578 2.36419 2.84625 0.158922 0.0160304 -0.987161
-1.57701 2.35261 2.84263 0.158922 0.0160304 -0.987161
-1.61297 2.33808 2.8366 0.158922 0.0160304 -0.987161
-1.56589 2.37926 2.84489 0.158922 0.0160304 -0.987161
-1.53877 2.37322 2.84915 0.158922 0.0160304 -0.987161
-1.53049 2.36848 2.85039 0.158922 0.0160304 -0.987161
-1.57143 2.31429 2.84286 0.158922 0.0160304 -0.987161
-1.53934 2.36143 2.84885 0.158922 0.0160304 -0.987161
-1.57407 2.31968 2.84253 0.158922 0.0160304 -0.987161
-1.60586 2.35449 2.83803 0.158922 0.0160304 -0.987161
-1.58576 2.3272 2.84078 0.158922 0.0160304 -0.987161
-1.57514 2.35972 2.84306 0.158922 0.0160304 -0.987161
-1.59081 2.32989 2.84001 0.158922 0.0160304 -0.987161
-1.57382 2.36728 2.84341 0.158922 0.0160304 -0.987161
-1.56586 2.3765 2.84485 0.158922 0.0160304 -0.987161
-1.58349 2.31305 2.84089 0.158922 0.0160304 -0.987161
-1.55928 2.37565 2.84589 0.158922 0.0160304 -0.987161
-1.65366 2.36782 2.83058 0.158922 0.0160304 -0.987161
-1.61514 2.37463 2.83689 0.158922 0.0160304 -0.987161
-1.59719 2.32225 2.83885 0.158922 0.0160304 -0.987161
-1.61762 2.35624 2.83617 0.158922 0.0160304 -0.987161
-1.55595 2.35108 2.84599 0.158922 0.0160304 -0.987161
-1.55414 2.33999 2.84609 0.158922 0.0160304 -0.987161
-1.59871 2.37001 2.83945 0.158922 0.0160304 -0.987161
-1.54734 2.3608 2.84755 0.158922 0.0160304 -0.987161
-1.55554 2.36138 2.84624 0.158922 0.0160304 -0.987161
-1.62122 2.34922 2.83547 0.158922 0.0160304 -0.987161
-1.56971 2.3667 2.84406 0.158922 0.0160304 -0.987161
-1.61797 2.36145 2.8362 0.158922 0.0160304 -0.987161
-1.59455 2.37965 2.84029 0.158922 0.0160304 -0.987161
-1.5651 2.34027 2.84433 0.158922 0.0160304 -0.987161
-1.56855 2.31814 2.84339 0.158922 0.0160304 -0.987161
-1.53166 2.38237 2.85045 0.158922 0.0160304 -0.987161
-1.59662 2.32818 2.83905 0.158922 0.0160304 -0.987161
-1.59462 2.341 2.8396 0.158922 0.0160304 -0.987161
-1.56549 2.33708 2.84421 0.158922 0.0160304 -0.987161
-1.53342 2.38704 2.85025 0.158922 0.0160304 -0.987161
-1.53373 2.38092 2.85009 0.158922 0.0160304 -0.987161
-1.53848 2.37094 2.84915 0.158922 0.0160304 -0.987161
-1.57291 2.36824 2.84357 0.158922 0.0160304 -0.987161
-1.62956 2.35331 2.8342 0.158922 0.0160304 -0.987161
-1.63137 2.36079 2.83404 0.158922 0.0160304 -0.987161
-1.59832 2.37858 2.83967 0.158922 0.0160304 -0.987161
-1.61529 2.3471 2.83638 0.158922 0.0160304 -0.987161
-1.5953 2.35717 2.83977 0.158922 0.0160304 -0.987161
-1.62563 2.37418 2.83519 0.158922 0.0160304 -0.987161
-1.53026 2.38795 2.85077 0.158922 0.0160304 -0.987161
-1.52537 2.37677 2.85136 0.158922 0.0160304 -0.987161
-1.59826 2.37388 2.83959 0.158922 0.0160304 -0.987161
-1.62309 2.37391 2.8356 0.158922 0.0160304 -0.987161
-1.5873 2.3775 2.84142 0.158922 0.0160304 -0.987161
-1.62426 2.3654 2.83526 0.158922 0.0160304 -0.987161
-1.59997 2.35989 2.83907 0.158922 0.0160304 -0.987161
-1.53302 2.38192 2.85022 0.158922 0.0160304 -0.987161
-1.61227 2.34513 2.83683 0.158922 0.0160304 -0.987161
-1.62801 2.35777 2.83452 0.158922 0.0160304 -0.987161
-1.59185 2.32177 2.8397 0.158922 0.0160304 -0.987161
-1.5895 2.3183 2.84002 0.158922 0.0160304 -0.987161
-1.53214 2.37072 2.85017 0.158922 0.0160304 -0.987161
-1.62349 2.36704 2.83541 0.158922 0.0160304 -0.987161
-1.58505 2.37526 2.84174 0.158922 0.0160304 -0.987161
-1.62175 2.3606 2.83558 0.158922 0.0160304 -0.987161
-1.52599 2.37441 2.85122 0.158922 0.0160304 -0.987161
-1.60257 2.36779 2.83879 0.158922 0.0160304 -0.987161
-1.60058 2.33198 2.83848 0.158922 0.0160304 -0.987161
-1.56981 2.33717 2.84352 0.158922 0.0160304 -0.987161
-1.576 2.35641 2.84286 0.158922 0.0160304 -0.987161
-1.60196 2.34955 2.83857 0.158922 0.0160304 -0.987161
-1.55938 2.3769 2.8459 0.158922 0.0160304 -0.987161
-1.65487 2.37061 2.83043 0.158922 0.0160304 -0.987161
-1.55449 2.35485 2.8463 0.158922 0.0160304 -0.987161
-1.55476 2.34859 2.84614 0.158922 0.0160304 -0.987161
-1.57289 2.33009 2.8429 0.158922 0.0160304 -0.987161
-1.53448 2.3786 2.84993 0.158922 0.0160304 -0.987161
-1.60424 2.33044 2.83786 0.158922 0.0160304 -0.987161
-1.5989 2.36849 2.83939 0.158922 0.0160304 -0.987161
-1.63683 2.36238 2.83319 0.158922 0.0160304 -0.987161
-1.55239 2.37079 2.84691 0.158922 0.0160304 -0.987161
-1.5589 2.38339 2.84609 0.158922 0.0160304 -0.987161
-1.56557 2.33546 2.84417 0.158922 0.0160304 -0.987161
-1.5672 2.35551 2.84426 0.158922 0.0160304 -0.987161
-1.57812 2.37522 2.84285 0.158922 0.0160304 -0.987161
-1.56926 2.3192 2.84329 0.158922 0.0160304 -0.987161
-1.63327 2.35305 2.83359 0.158922 0.0160304 -0.987161
-1.63399 2.3674 2.83373 0.158922 0.0160304 -0.987161
-1.52421 2.38877 2.85176 0.158922 0.0160304 -0.987161
-1.57118 2.33238 2.84321 0.158922 0.0160304 -0.987161
-1.62274 2.36021 2.83541 0.158922 0.0160304 -0.987161
-1.61855 2.34539 2.83583 0.158922 0.0160304 -0.987161
-1.59204 2.35653 2.84029 0.158922 0.0160304 -0.987161
-1.53859 2.38163 2.84932 0.158922 0.0160304 -0.987161
-1.59333 2.3376 2.83974 0.158922 0.0160304 -0.987161
-1.57392 2.3593 2.84325 0.158922 0.0160304 -0.987161
-1.6193 2.35266 2.83583 0.158922 0.0160304 -0.987161
-1.57289 2.35807 2.84339 0.158922 0.0160304 -0.987161
-1.65169 2.36862 2.83091 0.158922 0.0160304 -0.987161
-1.60067 2.37109 2.83915 0.158922 0.0160304 -0.987161
-1.53742 2.37811 2.84945 0.158922 0.0160304 -0.987161
-1.593 2.3511 2.84004 0.158922 0.0160304 -0.987161
-1.58798 2.32162 2.84032 0.158922 0.0160304 -0.987161
-1.55205 2.35589 2.84671 0.158922 0.0160304 -0.987161
-1.56904 2.33271 2.84356 0.158922 0.0160304 -0.987161
-1.62416 2.34672 2.83495 0.158922 0.0160304 -0.987161
-1.59043 2.36043 2.84061 0.158922 0.0160304 -0.987161
-1.64332 2.36336 2.83216 0.158922 0.0160304 -0.987161
-1.6097 2.34722 2.83728 0.158922 0.0160304 -0.987161
-1.58276 2.32209 2.84117 0.158922 0.0160304 -0.987161
-1.59983 2.34918 2.8389 0.158922 0.0160304 -0.987161
-1.54923 2.37077 2.84742 0.158922 0.0160304 -0.987161
-1.60802 2.35245 2.83764 0.158922 0.0160304 -0.987161
-1.63777 2.36315 2.83305 0.158922 0.0160304 -0.987161
-1.52914 2.3816 2.85084 0.158922 0.0160304 -0.987161
-1.61275 2.36674 2.83713 0.158922 0.0160304 -0.987161
-1.63866 2.3653 2.83294 0.158922 0.0160304 -0.987161
-1.52694 2.37613 2.8511 0.158922 0.0160304 -0.987161
-1.55706 2.38001 2.84632 0.158922 0.0160304 -0.987161
-1.53275 2.37967 2.85023 0.158922 0.0160304 -0.987161
-1.561 2.38115 2.84571 0.158922 0.0160304 -0.987161
-1.58254 2.32639 2.84128 0.158922 0.0160304 -0.987161
-1.56333 2.38242 2.84536 0.158922 0.0160304 -0.987161
-1.53022 2.38658 2.85076 0.158922 0.0160304 -0.987161
-1.56862 2.37185 2.84432 0.158922 0.0160304 -0.987161
-1.61939 2.35579 2.83587 0.158922 0.0160304 -0.987161
-1.60865 2.3701 2.83785 0.158922 0.0160304 -0.987161
-1.58471 2.36625 2.84164 0.158922 0.0160304 -0.987161
-1.57217 2.33726 2.84314 0.158922 0.0160304 -0.987161
-1.53315 2.37697 2.85012 0.158922 0.0160304 -0.987161
-1.5953 2.36848 2.83997 0.158922 0.0160304 -0.987161
-1.58016 2.36776 2.84239 0.158922 0.0160304 -0.987161
-1.53989 2.37326 2.84897 0.158922 0.0160304 -0.987161
-1.52136 2.38 2.85207 0.158922 0.0160304 -0.987161
-1.58448 2.35675 2.84151 0.158922 0.0160304 -0.987161
-1.54151 2.38446 2.8489 0.158922 0.0160304 -0.987161
-1.63375 2.37226 2.83386 0.158922 0.0160304 -0.987161
-1.58528 2.34862 2.84123 0.158922 0.0160304 -0.987161
-1.53956 2.36276 2.84884 0.158922 0.0160304 -0.987161
-1.59082 2.35858 2.84052 0.158922 0.0160304 -0.987161
-1.56913 2.32664 2.84344 0.158922 0.0160304 -0.987161
-1.5908 2.3459 2.8403 0.158922 0.0160304 -0.987161
-1.60245 2.32581 2.83807 0.158922 0.0160304 -0.987161
-1.60637 2.37738 2.83835 0.158922 0.0160304 -0.987161
-1.60224 2.34843 2.8385 0.158922 0.0160304 -0.987161
-1.59503 2.33258 2.83938 0.158922 0.0160304 -0.987161
-1.63229 2.35842 2.83385 0.158922 0.0160304 -0.987161
-1.62222 2.36472 2.83558 0.158922 0.0160304 -0.987161
-1.59044 2.37018 2.84078 0.158922 0.0160304 -0.987161
-1.57277 2.34709 2.84322 0.158922 0.0160304 -0.987161
-1.58775 2.36646 2.84115 0.158922 0.0160304 -0.987161
-1.56628 2.34016 2.84414 0.158922 0.0160304 -0.987161
-1.64374 2.36435 2.83211 0.158922 0.0160304 -0.987161
-1.60335 2.35082 2.83837 0.158922 0.0160304 -0.987161
-1.61128 2.33894 2.83688 0.158922 0.0160304 -0.987161
-1.61222 2.37605 2.83739 0.158922 0.0160304 -0.987161
-1.58491 2.33586 2.84107 0.158922 0.0160304 -0.987161
-1.58624 2.31914 2.84056 0.158922 0.0160304 -0.987161
-1.63301 2.36224 2.8338 0.158922 0.0160304 -0.987161
-1.62571 2.36441 2.83501 0.158922 0.0160304 -0.987161
-1.59284 2.34809 2.84001 0.158922 0.0160304 -0.987161
-1.60616 2.33591 2.83765 0.158922 0.0160304 -0.987161
-1.58013 2.37001 2.84244 0.158922 0.0160304 -0.987161
-1.59081 2.33332 2.84007 0.158922 0.0160304 -0.987161
-1.59611 2.3555 2.83961 0.158922 0.0160304 -0.987161
-1.58313 2.35588 2.84171 0.158922 0.0160304 -0.987161
-1.54761 2.37119 2.84769 0.158922 0.0160304 -0.987161
-1.56819 2.34311 2.84388 0.158922 0.0160304 -0.987161
-1.58626 2.37367 2.84152 0.158922 0.0160304 -0.987161
-1.52282 2.38445 2.85191 0.158922 0.0160304 -0.987161
-1.58432 2.34815 2.84138 0.158922 0.0160304 -0.987161
-1.58379 2.33298 2.8412 0.158922 0.0160304 -0.987161
-1.60226 2.37565 2.83898 0.158922 0.0160304 -0.987161
-1.62815 2.37298 2.83477 0.158922 0.0160304 -0.987161
-1.62184 2.35226 2.83542 0.158922 0.0160304 -0.987161
-1.56525 2.34698 2.84442 0.158922 0.0160304 -0.987161
-1.57683 2.37687 2.84309 0.158922 0.0160304 -0.987161
-1.56772 2.37439 2.84451 0.158922 0.0160304 -0.987161
-1.54872 2.37938 2.84765 0.158922 0.0160304 -0.987161
-1.58789 2.3613 2.84104 0.158922 0.0160304 -0.987161
-1.59343 2.34385 2.83984 0.158922 0.0160304 -0.987161
-1.63727 2.36491 2.83316 0.158922 0.0160304 -0.987161
-1.52526 2.38068 2.85145 0.158922 0.0160304 -0.987161
-1.59488 2.35454 2.83979 0.158922 0.0160304 -0.987161
-1.60735 2.33408 2.83743 0.158922 0.0160304 -0.987161
-1.60639 2.35212 2.8379 0.158922 0.0160304 -0.987161
-1.64421 2.36094 2.83197 0.158922 0.0160304 -0.987161
-1.61333 2.34538 2.83667 0.158922 0.0160304 -0.987161
-1.57645 2.34074 2.84251 0.158922 0.0160304 -0.987161
-1.52328 2.3858 2.85186 0.158922 0.0160304 -0.987161
-1.5979 2.37236 2.83962 0.158922 0.0160304 -0.987161
-1.59541 2.35323 2.83969 0.158922 0.0160304 -0.987161
-1.57624 2.34639 2.84265 0.158922 0.0160304 -0.987161
-1.54328 2.37107 2.84838 0.158922 0.0160304 -0.987161
-1.57911 2.36041 2.84243 0.158922 0.0160304 -0.987161
-1.59506 2.32024 2.83916 0.158922 0.0160304 -0.987161
-1.62465 2.35574 2.83503 0.158922 0.0160304 -0.987161
-1.58289 2.35259 2.84169 0.158922 0.0160304 -0.987161
-1.55224 2.36447 2.84683 0.158922 0.0160304 -0.987161
-1.62034 2.35121 2.83564 0.158922 0.0160304 -0.987161
-1.56304 2.36714 2.84514 0.158922 0.0160304 -0.987161
-1.54216 2.37212 2.84858 0.158922 0.0160304 -0.987161
-1.56915 2.35755 2.84399 0.158922 0.0160304 -0.987161
-1.65053 2.36505 2.83103 0.158922 0.0160304 -0.987161
-1.52109 2.38284 2.85216 0.158922 0.0160304 -0.987161
-1.60394 2.37179 2.83864 0.158922 0.0160304 -0.987161
-1.6446 2.36657 2.83201 0.158922 0.0160304 -0.987161
-1.58199 2.37655 2.84225 0.158922 0.0160304 -0.987161
-1.61053 2.35758 2.83733 0.158922 0.0160304 -0.987161
-1.62004 2.3593 2.83583 0.158922 0.0160304 -0.987161
-1.58277 2.31636 2.84107 0.158922 0.0160304 -0.987161
-1.57817 2.33452 2.84213 0.158922 0.0160304 -0.987161
-1.5902 2.34903 2.84045 0.158922 0.0160304 -0.987161
-1.61494 2.36901 2.83682 0.158922 0.0160304 -0.987161
-1.57461 2.32772 2.84258 0.158922 0.0160304 -0.987161
-1.58 2.35598 2.84221 0.158922 0.0160304 -0.987161
-1.61137 2.34128 2.83691 0.158922 0.0160304 -0.987161
-1.57027 2.31649 2.84308 0.158922 0.0160304 -0.987161
-1.58292 2.36921 2.84198 0.158922 0.0160304 -0.987161
-1.56796 2.37026 2.8444 0.158922 0.0160304 -0.987161
-1.57996 2.36273 2.84234 0.158922 0.0160304 -0.987161
-1.55261 2.38027 2.84704 0.158922 0.0160304 -0.987161
-1.60585 2.35578 2.83805 0.158922 0.0160304 -0.987161
-1.57225 2.32669 2.84294 0.158922 0.0160304 -0.987161
-1.56729 2.3383 2.84394 0.158922 0.0160304 -0.987161
-1.52767 2.38327 2.85111 0.158922 0.0160304 -0.987161
-1.59633 2.36259 2.8397 0.158922 0.0160304 -0.987161
-1.60352 2.37837 2.83882 0.158922 0.0160304 -0.987161
-1.61579 2.35085 2.83637 0.158922 0.0160304 -0.987161
-1.52236 2.38226 2.85194 0.158922 0.0160304 -0.987161
-1.54096 2.36106 2.84858 0.158922 0.0160304 -0.987161
-1.58742 2.37056 2.84128 0.158922 0.0160304 -0.987161
-1.55755 2.34227 2.84558 0.158922 0.0160304 -0.987161
-1.55285 2.38388 2.84707 0.158922 0.0160304 -0.987161
-1.56022 2.35224 2.84533 0.158922 0.0160304 -0.987161
-1.56549 2.34902 2.84442 0.158922 0.0160304 -0.987161
-1.56307 2.35666 2.84495 0.158922 0.0160304 -0.987161
-1.5489 2.35207 2.84714 0.158922 0.0160304 -0.987161
-1.58105 2.31629 2.84134 0.158922 0.0160304 -0.987161
-1.53438 2.38264 2.85002 0.158922 0.0160304 -0.987161
-1.54264 2.36124 2.84831 0.158922 0.0160304 -0.987161
-1.57047 2.37247 2.84404 0.158922 0.0160304 -0.987161
-1.56005 2.35002 2.84532 0.158922 0.0160304 -0.987161
-1.57679 2.37095 2.84299 0.158922 0.0160304 -0.987161
-1.63822 2.3563 2.83286 0.158922 0.0160304 -0.987161
-1.62219 2.34205 2.83518 0.158922 0.0160304 -0.987161
-1.60905 2.33224 2.83712 0.158922 0.0160304 -0.987161
-1.60867 2.36733 2.8378 0.158922 0.0160304 -0.987161
-1.54844 2.36947 2.84753 0.158922 0.0160304 -0.987161
-1.63886 2.36209 2.83286 0.158922 0.0160304 -0.987161
-1.64269 2.37156 2.83241 0.158922 0.0160304 -0.987161
-1.59703 2.3422 2.83923 0.158922 0.0160304 -0.987161
-1.57785 2.35556 2.84255 0.158922 0.0160304 -0.987161
-1.60712 2.36473 2.83801 0.158922 0.0160304 -0.987161
-1.51718 2.38656 2.85285 0.158922 0.0160304 -0.987161
-1.61899 2.36416 2.83609 0.158922 0.0160304 -0.987161
-1.58121 2.37818 2.84241 0.158922 0.0160304 -0.987161
-1.54824 2.34615 2.84715 0.158922 0.0160304 -0.987161
-1.56351 2.35857 2.84491 0.158922 0.0160304 -0.987161
-1.55641 2.34427 2.8458 0.158922 0.0160304 -0.987161
-1.61647 2.37671 2.83671 0.158922 0.0160304 -0.987161
-1.56459 2.33501 2.84432 0.158922 0.0160304 -0.987161
-1.56444 2.35988 2.84478 0.158922 0.0160304 -0.987161
-1.62816 2.36708 2.83466 0.158922 0.0160304 -0.987161
-1.55916 2.3784 2.84596 0.158922 0.0160304 -0.987161
-1.64006 2.36185 2.83266 0.158922 0.0160304 -0.987161
-1.59053 2.32738 2.84002 0.158922 0.0160304 -0.987161
-1.65209 2.3671 2.83082 0.158922 0.0160304 -0.987161
-1.57918 2.34623 2.84217 0.158922 0.0160304 -0.987161
-1.63109 2.35426 2.83397 0.158922 0.0160304 -0.987161
-1.52021 2.38221 2.85229 0.158922 0.0160304 -0.987161
-1.57385 2.3562 2.8432 0.158922 0.0160304 -0.987161
-1.56877 2.33002 2.84356 0.158922 0.0160304 -0.987161
-1.58384 2.3682 2.84181 0.158922 0.0160304 -0.987161
-1.59327 2.35941 2.84014 0.158922 0.0160304 -0.987161
-1.59834 2.33351 2.83887 0.158922 0.0160304 -0.987161
-1.56893 2.3553 2.84398 0.158922 0.0160304 -0.987161
-1.55525 2.37432 2.84651 0.158922 0.0160304 -0.987161
-1.60435 2.35479 2.83828 0.158922 0.0160304 -0.987161
-1.64478 2.36297 2.83192 0.158922 0.0160304 -0.987161
-1.59322 2.32145 2.83948 0.158922 0.0160304 -0.987161
-1.54556 2.35856 2.8478 0.158922 0.0160304 -0.987161
-1.60338 2.32661 2.83793 0.158922 0.0160304 -0.987161
-1.56067 2.36038 2.8454 0.158922 0.0160304 -0.987161
-1.57449 2.35707 2.84312 0.158922 0.0160304 -0.987161
-1.60828 2.36226 2.83778 0.158922 0.0160304 -0.987161
-1.61772 2.35811 2.83618 0.158922 0.0160304 -0.987161
-1.57161 2.33982 2.84328 0.158922 0.0160304 -0.987161
-1.56094 2.38377 2.84577 0.158922 0.0160304 -0.987161
-1.60838 2.33777 2.83733 0.158922 0.0160304 -0.987161
-1.52616 2.38373 2.85136 0.158922 0.0160304 -0.987161
-1.59358 2.36492 2.84019 0.158922 0.0160304 -0.987161
-1.63748 2.36701 2.83316 0.158922 0.0160304 -0.987161
-1.607 2.35423 2.83784 0.158922 0.0160304 -0.987161
-1.59533 2.37374 2.84006 0.158922 0.0160304 -0.987161
-1.58929 2.32377 2.84015 0.158922 0.0160304 -0.987161
-1.59379 2.36386 2.84013 0.158922 0.0160304 -0.987161
-1.57822 2.31853 2.84184 0.158922 0.0160304 -0.987161
-1.59901 2.36644 2.83934 0.158922 0.0160304 -0.987161
-1.63415 2.35181 2.83343 0.158922 0.0160304 -0.987161
-1.58192 2.35573 2.8419 0.158922 0.0160304 -0.987161
-1.55546 2.38058 2.84659 0.158922 0.0160304 -0.987161
-1.58048 2.35474 2.84211 0.158922 0.0160304 -0.987161
-1.56225 2.36953 2.8453 0.158922 0.0160304 -0.987161
-1.55048 2.34241 2.84672 0.158922 0.0160304 -0.987161
-1.55075 2.36225 2.84703 0.158922 0.0160304 -0.987161
-1.59046 2.31734 2.83985 0.158922 0.0160304 -0.987161
-1.65524 2.37195 2.8304 0.158922 0.0160304 -0.987161
-1.60177 2.35656 2.83872 0.158922 0.0160304 -0.987161
-1.57739 2.34738 2.84248 0.158922 0.0160304 -0.987161
-1.5426 2.36331 2.84836 0.158922 0.0160304 -0.987161
-1.55869 2.35898 2.84569 0.158922 0.0160304 -0.987161
-1.63027 2.34925 2.83401 0.158922 0.0160304 -0.987161
-1.6156 2.36001 2.83656 0.158922 0.0160304 -0.987161
-1.58385 2.34706 2.84144 0.158922 0.0160304 -0.987161
-1.55509 2.38454 2.84672 0.158922 0.0160304 -0.987161
-1.58124 2.3648 2.84217 0.158922 0.0160304 -0.987161
-1.55545 2.38176 2.84661 0.158922 0.0160304 -0.987161
-1.63475 2.35836 2.83345 0.158922 0.0160304 -0.987161
-1.63543 2.35206 2.83323 0.158922 0.0160304 -0.987161
-1.56398 2.37566 2.84513 0.158922 0.0160304 -0.987161
-1.56643 2.34392 2.84418 0.158922 0.0160304 -0.987161
-1.57403 2.37127 2.84344 0.158922 0.0160304 -0.987161
-1.61739 2.34375 2.83598 0.158922 0.0160304 -0.987161
-1.58684 2.36517 2.84127 0.158922 0.0160304 -0.987161
-1.63727 2.35556 2.833 0.158922 0.0160304 -0.987161
-1.57206 2.3568 2.8435 0.158922 0.0160304 -0.987161
-1.63829 2.3722 2.83313 0.158922 0.0160304 -0.987161
-1.613 2.348 2.83677 0.158922 0.0160304 -0.987161
-1.56567 2.32897 2.84404 0.158922 0.0160304 -0.987161
-1.60692 2.33072 2.83744 0.158922 0.0160304 -0.987161
-1.60022 2.34782 2.83882 0.158922 0.0160304 -0.987161
-1.52847 2.37382 2.85081 0.158922 0.0160304 -0.987161
-1.54976 2.35375 2.84704 0.158922 0.0160304 -0.987161
-1.5446 2.38379 2.84839 0.158922 0.0160304 -0.987161
-1.57136 2.33845 2.84329 0.158922 0.0160304 -0.987161
-1.59451 2.3383 2.83957 0.158922 0.0160304 -0.987161
-1.60616 2.36871 2.83823 0.158922 0.0160304 -0.987161
-1.61577 2.37566 2.83681 0.158922 0.0160304 -0.987161
-1.64069 2.3651 2.83261 0.158922 0.0160304 -0.987161
-1.6172 2.36235 2.83634 0.158922 0.0160304 -0.987161
-1.62637 2.34999 2.83465 0.158922 0.0160304 -0.987161
-1.57713 2.31607 2.84197 0.158922 0.0160304 -0.987161
-1.59327 2.35818 2.84012 0.158922 0.0160304 -0.987161
-1.58951 2.36915 2.84092 0.158922 0.0160304 -0.987161
-1.58255 2.35907 2.84186 0.158922 0.0160304 -0.987161
-1.59321 2.31858 2.83943 0.158922 0.0160304 -0.987161
-1.59771 2.3295 2.8389 0.158922 0.0160304 -0.987161
-1.57397 2.33202 2.84276 0.158922 0.0160304 -0.987161
-1.60971 2.3591 2.83749 0.158922 0.0160304 -0.987161
-1.58519 2.36495 2.84154 0.158922 0.0160304 -0.987161
-1.59393 2.36834 2.84019 0.158922 0.0160304 -0.987161
-1.53554 2.4069 2.8577 0.601593 0.791234 0.109698
-1.57763 2.43797 2.86385 0.601593 0.791234 0.109698
-1.56202 2.42402 2.87898 0.601593 0.791234 0.109698
-1.58126 2.43725 2.88872 0.601593 0.791234 0.109698
-1.5599 2.42168 2.88418 0.601593 0.791234 0.109698
-1.60313 2.45097 2.90929 0.601593 0.791234 0.109698
-1.55482 2.41977 2.87027 0.601593 0.791234 0.109698
-1.59318 2.45203 2.84764 0.601593 0.791234 0.109698
-1.60237 2.44888 2.92016 0.601593 0.791234 0.109698
-1.55015 2.41419 2.88492 0.601593 0.791234 0.109698
-1.58512 2.43921 2.89568 0.601593 0.791234 0.109698
-1.54245 2.41114 2.8649 0.601593 0.791234 0.109698
-1.59865 2.44963 2.89457 0.601593 0.791234 0.109698
-1.57884 2.43258 2.90907 0.601593 0.791234 0.109698
-1.54603 2.41224 2.87647 0.601593 0.791234 0.109698
-1.57038 2.42922 2.8871 0.601593 0.791234 0.109698
-1.56323 2.42452 2.88192 0.601593 0.791234 0.109698
-1.60535 2.45448 2.89622 0.601593 0.791234 0.109698
-1.58541 2.44127 2.88249 0.601593 0.791234 0.109698
-1.54516 2.41204 2.87314 0.601593 0.791234 0.109698
-1.60922 2.45158 2.93806 0.601593 0.791234 0.109698
-1.52828 2.40111 2.85976 0.601593 0.791234 0.109698
-1.56881 2.43134 2.86343 0.601593 0.791234 0.109698
-1.54455 2.41335 2.86041 0.601593 0.791234 0.109698
-1.59182 2.44824 2.86737 0.601593 0.791234 0.109698
-1.58954 2.44459 2.88116 0.601593 0.791234 0.109698
-1.59642 2.44771 2.89619 0.601593 0.791234 0.109698
-1.58597 2.43739 2.91334 0.601593 0.791234 0.109698
-1.5567 2.41813 2.89225 0.601593 0.791234 0.109698
-1.57295 2.43597 2.85277 0.601593 0.791234 0.109698
-1.56147 2.42595 2.86213 0.601593 0.791234 0.109698
-1.55996 2.42637 2.85093 0.601593 0.791234 0.109698
-1.57568 2.43874 2.84774 0.601593 0.791234 0.109698
-1.56852 2.42648 2.89665 0.601593 0.791234 0.109698
-1.59541 2.44555 2.90619 0.601593 0.791234 0.109698
-1.58717 2.43986 2.9021 0.601593 0.791234 0.109698
-1.57138 2.4343 2.85615 0.601593 0.791234 0.109698
-1.56723 2.43031 2.86227 0.601593 0.791234 0.109698
-1.59762 2.45168 2.87426 0.601593 0.791234 0.109698
-1.60583 2.44907 2.93758 0.601593 0.791234 0.109698
-1.54169 2.41156 2.85776 0.601593 0.791234 0.109698
-1.58154 2.44185 2.85728 0.601593 0.791234 0.109698
-1.60168 2.45232 2.89175 0.601593 0.791234 0.109698
-1.54732 2.41319 2.87664 0.601593 0.791234 0.109698
-1.54944 2.41703 2.86063 0.601593 0.791234 0.109698
-1.55084 2.41878 2.85578 0.601593 0.791234 0.109698
-1.56589 2.43049 2.85362 0.601593 0.791234 0.109698
-1.60957 2.45141 2.94113 0.601593 0.791234 0.109698
-1.59829 2.44892 2.89766 0.601593 0.791234 0.109698
-1.5822 2.43882 2.88257 0.601593 0.791234 0.109698
-1.58778 2.43887 2.91257 0.601593 0.791234 0.109698
-1.53507 2.40518 2.86746 0.601593 0.791234 0.109698
-1.56514 2.42584 2.88288 0.601593 0.791234 0.109698
-1.57329 2.43141 2.88726 0.601593 0.791234 0.109698
-1.5846 2.4403 2.88506 0.601593 0.791234 0.109698
-1.61017 2.45233 2.93784 0.601593 0.791234 0.109698
-1.5461 2.41341 2.86842 0.601593 0.791234 0.109698
-1.58443 2.43656 2.91092 0.601593 0.791234 0.109698
-1.5911 2.44536 2.88414 0.601593 0.791234 0.109698
-1.58443 2.44593 2.84378 0.601593 0.791234 0.109698
-1.55297 2.41997 2.85878 0.601593 0.791234 0.109698
-1.60174 2.45018 2.90741 0.601593 0.791234 0.109698
-1.58201 2.43827 2.88545 0.601593 0.791234 0.109698
-1.58818 2.43843 2.91789 0.601593 0.791234 0.109698
-1.60936 2.45399 2.92153 0.601593 0.791234 0.109698
-1.55813 2.41947 2.89044 0.601593 0.791234 0.109698
-1.57851 2.44115 2.84585 0.601593 0.791234 0.109698
-1.53976 2.40938 2.86286 0.601593 0.791234 0.109698
-1.58172 2.44223 2.85556 0.601593 0.791234 0.109698
-1.57726 2.43902 2.85433 0.601593 0.791234 0.109698
-1.53432 2.40563 2.86014 0.601593 0.791234 0.109698
-1.59654 2.4504 2.87758 0.601593 0.791234 0.109698
-1.56801 2.43003 2.86848 0.601593 0.791234 0.109698
-1.54308 2.41124 2.86757 0.601593 0.791234 0.109698
-1.58005 2.4415 2.85172 0.601593 0.791234 0.109698
-1.60103 2.44754 2.92244 0.601593 0.791234 0.109698
-1.55778 2.42137 2.87491 0.601593 0.791234 0.109698
-1.5919 2.44609 2.88322 0.601593 0.791234 0.109698
-1.59641 2.45432 2.8488 0.601593 0.791234 0.109698
-1.60758 2.45211 2.92525 0.601593 0.791234 0.109698
-1.54834 2.41428 2.87444 0.601593 0.791234 0.109698
-1.57857 2.44017 2.85321 0.601593 0.791234 0.109698
-1.53811 2.40867 2.85902 0.601593 0.791234 0.109698
-1.58607 2.43648 2.92042 0.601593 0.791234 0.109698
-1.56597 2.43095 2.85074 0.601593 0.791234 0.109698
-1.58382 2.44064 2.87835 0.601593 0.791234 0.109698
-1.58391 2.44144 2.87314 0.601593 0.791234 0.109698
-1.60157 2.45407 2.87866 0.601593 0.791234 0.109698
-1.53493 2.40453 2.87136 0.601593 0.791234 0.109698
-1.57557 2.42997 2.90999 0.601593 0.791234 0.109698
-1.59713 2.4504 2.88074 0.601593 0.791234 0.109698
-1.57886 2.43649 2.88113 0.601593 0.791234 0.109698
-1.58494 2.44018 2.88776 0.601593 0.791234 0.109698
-1.57553 2.43496 2.87401 0.601593 0.791234 0.109698
-1.58498 2.44537 2.85083 0.601593 0.791234 0.109698
-1.60218 2.44698 2.93271 0.601593 0.791234 0.109698
-1.59254 2.44812 2.87222 0.601593 0.791234 0.109698
-1.58431 2.44283 2.86529 0.601593 0.791234 0.109698
-1.5614 2.4213 2.89506 0.601593 0.791234 0.109698
-1.5597 2.4265 2.84857 0.601593 0.791234 0.109698
-1.58017 2.43548 2.89547 0.601593 0.791234 0.109698
-1.56984 2.42903 2.88558 0.601593 0.791234 0.109698
-1.5657 2.4252 2.89051 0.601593 0.791234 0.109698
-1.58853 2.43997 2.90879 0.601593 0.791234 0.109698
-1.58908 2.44183 2.8984 0.601593 0.791234 0.109698
-1.581 2.43934 2.87238 0.601593 0.791234 0.109698
-1.59348 2.45176 2.85117 0.601593 0.791234 0.109698
-1.56804 2.43203 2.8543 0.601593 0.791234 0.109698
-1.58917 2.4457 2.87116 0.601593 0.791234 0.109698
-1.56476 2.42915 2.85708 0.601593 0.791234 0.109698
-1.61012 2.45198 2.94002 0.601593 0.791234 0.109698
-1.55359 2.41664 2.88602 0.601593 0.791234 0.109698
