ply
format ascii 1.0
element vertex 872
property float x
property float y
property float z
property float nx
property float ny
property float nz
end_header
-6.58239 -74.2581 -639.254 0.712632 -0.698097 -0.069395
54.2435 -63.2187 -632.885 -0.136786 0.587654 -0.797466
-84.5032 -79.6735 -634.718 -0.587378 0.00691842 0.809283
5.89053 -64.5967 -635.28 0.43448 -0.725787 -0.533349
58.8249 -60.2197 -626.472 0.903835 0.382901 -0.190968
38.6243 -60.1127 -625.635 -0.0743128 -0.861902 -0.5016
-72.8431 -70.3848 -629.386 -0.261923 0.362199 0.894544
57.6735 -57.3881 -622.446 0.930978 0.237301 0.277431
57.8679 -57.7674 -622.776 0.924257 -0.00130359 0.381769
14.1971 -56.5834 -613.721 -0.158961 -0.229955 0.960131
24.9311 -49.8687 -605.077 -0.631467 -0.256673 0.731688
30.4262 -41.9056 -598.994 -0.113429 -0.597403 0.793879
-104.871 -194.356 -804.278 0.323324 0.37064 -0.870682
-104.586 -194.152 -804.011 0.359398 0.233 -0.903628
-104.627 -193.715 -804.08 0.369723 0.315581 -0.873907
-104.67 -193.419 -803.679 0.433101 0.835517 -0.338134
-104.698 -193.32 -803.143 0.451173 0.86483 -0.220254
-104.732 -193.145 -802.66 0.392486 0.905776 -0.159765
-105.793 -192.632 -802.508 0.543507 0.831909 -0.11193
-105.27 -192.933 -802.252 0.402408 0.907981 -0.116783
-105.801 -192.779 -801.868 0.645244 0.762531 0.0469721
-106.286 -192.514 -801.426 0.717529 0.639197 -0.276729
-105.807 -192.742 -801.812 -0.641015 -0.0492641 -0.765946
-105.868 -192.191 -801.602 -0.532154 0.251353 -0.808476
-106.405 -191.988 -801.188 -0.131049 0.95522 -0.265294
-106.828 -192.284 -801.031 0.801746 0.515424 0.302558
-106.944 -191.761 -800.79 -0.334849 0.839953 -0.42703
-107.343 -192.052 -800.634 -0.407516 0.665415 -0.625423
-107.48 -191.565 -800.371 -0.376074 0.541162 -0.752138
-107.834 -191.817 -800.237 -0.690473 0.655327 -0.306259
-119.72 -189.753 -796.77 0.165362 0.971512 -0.169762
-134.357 -186.486 -789.722 -0.462048 0.541719 -0.702177
-138.685 -181.078 -781.73 -0.247942 0.730873 -0.635884
-140.026 -174.521 -772.494 0.144288 0.815359 -0.560688
-141.82 -177.993 -776.811 -0.396171 0.66579 -0.632276
-143.616 -173.585 -770.507 -0.36429 0.682773 -0.633335
-145.003 -169.338 -765.404 -0.31251 0.699954 -0.642186
-150.641 -167.155 -759.458 0.5599 -0.218162 -0.799323
-150.371 -165.882 -757.584 0.139752 0.721073 -0.678619
-150.512 -163.711 -754.505 -0.264152 0.846867 -0.461562
-150.556 -163.401 -754.114 -0.679035 0.536848 -0.500705
-150.456 -160.546 -750.582 -0.848873 0.514112 -0.122892
-150.457 -160.519 -750.646 -0.694737 0.657757 0.291027
-150.496 -160.293 -750.152 -0.916765 0.23035 -0.326313
-151.285 -158.388 -747.28 -0.969908 0.209869 -0.123426
-151.392 -158.742 -747.052 -0.980706 0.167843 -0.100218
-151.263 -158.314 -747.328 -0.975771 0.185184 -0.116526
-151.274 -158.032 -746.914 -0.990537 0.101166 -0.0927443
-151.277 -157.75 -746.499 -0.983896 0.145876 -0.103293
-132.637 -154.402 -743.721 0.78008 0.324979 -0.534663
-151.566 -156.929 -742.589 -0.99564 0.0925607 0.0115858
-148.493 -146.909 -731.037 -0.960304 0.235168 0.150041
-147.315 -146.808 -726.697 -0.900695 -0.0382944 0.43276
-97.2937 -128.813 -704.174 0.514951 -0.85575 -0.0501677
-96.4167 -126.425 -708.763 0.638543 -0.572728 -0.514048
-93.7179 -126.774 -702.827 0.501195 -0.858099 -0.111664
-57.0923 -109.366 -687.512 0.516651 -0.671713 -0.530918
-50.6157 -106.135 -684.285 0.640601 -0.647898 -0.41214
-43.5987 -102.01 -681.566 0.547764 -0.702639 -0.45415
-114.937 -108.009 -677.327 -0.796004 -0.131114 0.590921
-107.472 -98.095 -663.013 -0.902908 -0.0934915 0.419543
-19.2096 -84.8368 -655.13 0.643167 -0.754367 0.131403
58.9011 -65.4652 -634.002 0.291731 0.667126 -0.685446
58.883 -60.6389 -628.493 0.751847 0.569909 -0.331556
59.3625 -61.4309 -627.416 0.838262 0.544595 0.0270695
59.2452 -61.1595 -627.006 0.822674 0.56851 -0.00203747
59.1983 -61.1023 -626.917 0.883591 0.466565 -0.0397926
45.0851 -63.481 -628.062 -0.50869 -0.860543 -0.0264512
59.1561 -60.8199 -626.499 0.92291 0.324685 -0.206922
59.1064 -60.3673 -626.344 0.529406 0.326568 -0.782996
18.3988 -64.0099 -627.868 0.167262 -0.942602 -0.289008
58.3248 -58.4271 -623.792 0.928078 0.279662 0.245886
58.3575 -58.8536 -623.531 0.931219 0.195128 0.307824
58.2109 -58.2996 -623.592 0.544508 0.811113 -0.213558
58.0329 -58.0341 -623.184 0.939214 0.165661 0.300722
-65.0248 -70.2328 -626.003 -0.362178 0.21084 0.90795
-2.24445 -57.3583 -616.96 -0.238405 -0.19811 0.950745
-42.5086 -63.3261 -617.622 -0.274178 -0.0618275 0.959689
-17.456 -58.1273 -615.34 0.0907294 0.227582 0.969523
-105.479 -195.143 -804.477 0.209031 -0.0317796 -0.977393
-105.343 -195.1 -804.428 0.302671 0.135438 -0.943423
-104.997 -194.987 -804.3 0.269515 0.120628 -0.955411
-104.55 -194.463 -804.173 0.411816 0.456921 -0.788436
-105.803 -192.775 -801.806 0.33185 0.858517 -0.390928
-107.95 -191.978 -800.14 -0.658805 0.697004 -0.283129
-108.481 -191.859 -799.668 -0.463314 0.686507 -0.560401
-108.811 -192.045 -799.576 0.0464395 0.848567 -0.527046
-109.016 -191.684 -799.235 0.198453 0.947986 -0.248874
-109.224 -191.802 -799.176 0.0337167 0.891682 0.451405
-109.78 -191.574 -798.781 -0.374289 0.92614 0.0466005
-109.553 -191.483 -798.82 0.137228 0.97851 -0.153904
-110.094 -191.23 -798.439 -0.349245 0.491875 -0.797551
-110.373 -191.349 -798.387 -0.356099 0.489848 -0.795766
-110.064 -191.472 -798.601 -0.34077 0.486909 -0.804236
-124.629 -191.729 -797.787 -0.520033 0.154407 -0.840074
-112.205 -190.625 -797.245 -0.140279 0.305105 -0.941931
-112.566 -190.715 -797.22 -0.182523 0.144632 -0.972506
-112.194 -190.729 -797.28 -0.162425 0.248401 -0.954942
-112.742 -190.421 -796.831 -0.195631 0.74919 -0.632806
-112.938 -190.469 -796.819 -0.224182 0.78479 -0.577795
-130.043 -187.86 -792.919 -0.31794 0.617043 -0.719842
-132.256 -183.574 -785.622 0.181284 0.903104 -0.389281
-146.074 -167.188 -762.488 -0.411106 0.633523 -0.655469
-147.755 -166.359 -760.283 -0.611237 0.453109 -0.648908
-150.439 -167.799 -759.534 0.812739 0.240485 -0.530682
-150.339 -167.541 -759.167 -0.76551 -0.393763 0.508868
-151.49 -159.449 -747.189 -0.99179 0.126688 -0.0173954
-120.492 -142.754 -725.581 0.786416 -0.486989 -0.379989
-88.8596 -124.353 -700.47 0.506222 -0.847521 -0.15952
-63.0988 -110.572 -691.259 0.518093 -0.613538 -0.595946
-45.6538 -105.836 -677.449 0.56077 -0.788951 -0.251184
60.3575 -65.6883 -632.872 0.495849 0.721051 -0.483961
60.3176 -65.4118 -632.502 0.677605 0.596868 -0.42965
60.3288 -65.429 -632.489 0.868578 0.437602 -0.232545
60.2727 -65.0902 -632.118 0.634211 0.625817 -0.454015
60.2273 -64.7619 -631.739 0.612393 0.613595 -0.498474
60.1775 -64.3735 -631.401 0.568898 0.58568 -0.577351
60.1287 -63.999 -631.053 0.69622 0.567419 -0.439675
60.105 -63.9617 -630.476 0.930341 0.364739 -0.0378311
60.0587 -63.6211 -630.105 0.799658 0.497319 -0.336484
46.754 -63.2768 -629.706 -0.386038 0.0445773 -0.921405
60.019 -63.3695 -629.673 0.863399 0.454243 -0.219559
59.9693 -62.9827 -629.334 0.75038 0.502211 -0.429783
59.9266 -62.6891 -628.931 0.857 0.47774 -0.19317
59.8972 -62.5759 -628.405 0.880515 0.455179 -0.132307
59.8512 -62.2394 -628.032 0.858034 0.445469 -0.255607
59.8105 -61.9738 -627.61 0.848576 0.517691 -0.109152
59.1728 -60.9792 -626.529 0.9745 0.195595 -0.109967
58.4034 -59.3682 -623.402 0.916057 0.121557 0.382182
41.2906 -59.874 -622.265 0.186609 -0.973746 -0.130369
-52.4732 -67.1098 -621.42 -0.348432 -0.0295479 0.936868
-28.3802 -61.5062 -613.53 -0.155081 0.225269 0.961875
-105.929 -195.711 -804.371 0.15767 -0.124331 -0.979634
-104.978 -195.168 -804.346 0.26003 0.257917 -0.930518
-105.228 -193.498 -801.866 0.53832 -0.0705291 0.839784
-105.182 -193.958 -801.885 0.517566 0.0209145 0.855387
-105.76 -193.355 -801.411 0.559638 -0.268632 0.783991
-106.3 -193.123 -801.016 0.553335 -0.20308 0.807823
-106.834 -192.961 -800.575 0.619288 -0.124554 0.775222
-106.669 -194.002 -800.984 0.47743 -0.385625 0.789527
-106.976 -193.129 -800.475 0.667275 -0.0835119 0.740115
-107.375 -192.698 -800.201 0.560766 -0.0153007 0.827833
-107.346 -192.987 -800.227 0.556542 -0.0193443 0.830594
-107.556 -192.903 -800.081 0.564142 -0.0181089 0.825479
-110.62 -191.475 -799.719 0.236477 0.956394 -0.171433
-110.539 -191.694 -798.777 0.116466 0.969532 0.215509
-110.039 -191.685 -798.732 -0.324302 0.942528 -0.0804249
-111.062 -191.681 -798.233 0.438004 0.863493 0.250065
-111.596 -191.512 -797.796 0.387804 0.904629 0.176789
-112.137 -191.261 -797.414 0.0840139 0.802546 -0.590646
-113.631 -190.823 -797.032 -0.0289735 0.970909 -0.23769
-113.234 -190.54 -796.801 -0.257631 0.801178 -0.54013
-113.762 -190.459 -796.303 -0.318735 0.823602 -0.469135
-114.29 -190.38 -795.805 -0.46718 0.721204 -0.511476
-114.458 -190.467 -795.763 -0.465725 0.707008 -0.532202
-124.795 -187.176 -789.416 0.423871 0.901383 -0.088552
-137.042 -184.279 -785.962 -0.442076 0.575685 -0.687863
-136.37 -172.542 -766.915 0.627639 0.622484 -0.467528
-148.583 -170.271 -762.595 -0.636934 0.496157 -0.590037
-148.56 -170.45 -762.733 -0.784143 0.291609 -0.547799
-148.63 -169.918 -762.233 -0.660317 0.572727 -0.485763
-148.756 -169.781 -761.732 -0.695261 0.53775 -0.476903
-149.328 -168.673 -760.116 -0.537238 0.309031 -0.784777
-149.32 -168.742 -760.148 -0.510953 0.290424 -0.809062
-149.388 -168.149 -759.871 -0.608009 0.43598 -0.66351
-149.911 -168.139 -759.325 -0.503333 0.713351 -0.487633
-149.951 -167.885 -758.895 -0.694535 0.54572 -0.468839
-151.5 -160.714 -748.153 -0.982394 0.124749 -0.13907
-151.411 -160.008 -748.015 -0.979335 0.122697 -0.160775
-151.454 -159.729 -747.603 -0.978627 0.115966 -0.169829
-143.851 -140.753 -719.403 -0.895272 -0.0532602 0.442325
-102.876 -131.586 -709.297 0.542578 -0.828588 -0.138026
-129.845 -122.812 -698.068 -0.758465 -0.0577672 0.649149
-101.798 -88.3503 -651.697 -0.847157 0.0486818 0.529107
56.8028 -64.2721 -632.997 0.113855 0.658777 -0.743673
60.3606 -65.7096 -632.902 0.621063 0.62869 -0.468006
60.6597 -66.0947 -632.612 0.927427 0.309758 -0.209593
59.0366 -60.2284 -624.731 0.89797 0.0511624 0.437073
59.1016 -60.8705 -624.79 0.901842 0.00475595 0.432039
58.9998 -60.1842 -624.662 0.901006 0.0363901 0.432278
58.8129 -59.9197 -624.254 0.915598 0.00131307 0.402092
57.7427 -61.3202 -621.946 0.762989 -0.241773 0.599494
58.62 -59.6556 -623.846 0.920812 0.0844964 0.380742
58.5442 -60.0783 -623.569 0.921322 -0.0619542 0.383834
58.4117 -59.4538 -623.398 0.899591 0.0781526 0.429684
57.475 -57.3385 -621.822 0.950553 0.179905 0.253148
38.0757 -42.2197 -600.321 -0.19952 -0.514189 0.834147
39.2736 -45.4256 -601.652 -0.305101 -0.402945 0.862872
-108.21 -196.494 -804.382 -0.274206 -0.208226 -0.938857
-107.873 -196.37 -804.432 -0.0449427 -0.165693 -0.985153
-107.377 -196.307 -804.424 0.0329859 -0.188485 -0.981522
-106.882 -196.229 -804.426 0.0217837 -0.188331 -0.981864
-106.387 -196.145 -804.433 0.123228 -0.117679 -0.985376
-105.884 -196.174 -804.363 0.138267 -0.00238745 -0.990392
-105.145 -194.337 -801.896 0.467492 -0.210491 0.858571
-105.106 -194.678 -802.059 0.465137 -0.267029 0.844004
-107.247 -193.571 -800.204 0.721056 -0.220424 0.65688
-114.82 -190.276 -795.323 -0.486923 0.633424 -0.601398
-115.341 -190.288 -794.762 -0.411921 0.70051 -0.582758
-115.879 -190.072 -794.357 -0.366734 0.623782 -0.690219
-116.152 -190.2 -794.298 -0.402451 0.560131 -0.724076
-116.422 -189.79 -793.996 -0.4299 0.420835 -0.798802
-116.691 -189.97 -793.903 -0.544871 0.498315 -0.674387
-116.897 -190.43 -794.077 -0.244427 0.747708 -0.617405
-116.95 -189.696 -793.508 -0.49145 0.511347 -0.704983
-116.984 -189.715 -793.498 -0.49719 0.508298 -0.703161
-132.247 -189.968 -792.451 -0.64154 -0.00419348 -0.767078
-134.047 -180.531 -779.236 0.420847 0.833866 -0.357149
-144.454 -178.315 -774.408 -0.71625 0.42697 -0.55198
-147.183 -172.176 -766.054 -0.66708 0.493407 -0.55817
-148.393 -171.702 -764.031 -0.747442 0.389648 -0.538057
-148.346 -172.093 -764.276 -0.808514 0.235189 -0.539437
-148.44 -171.344 -763.672 -0.727541 0.48349 -0.486746
-148.682 -171.603 -763.521 -0.771217 0.464029 -0.435777
-148.242 -170.711 -763.329 -0.687424 0.487848 -0.538008
-148.955 -170.781 -762.288 -0.828168 0.197119 -0.524673
-149.184 -169.773 -761.175 -0.696063 0.518451 -0.496694
-149.133 -170.177 -761.503 -0.735783 0.367877 -0.568586
-149.224 -169.51 -760.752 -0.677122 0.577228 -0.456415
-149.267 -169.219 -760.347 -0.644144 0.452069 -0.617019
-134.731 -161.532 -751.95 0.816524 0.328922 -0.474447
-151.447 -163.105 -750.771 -0.98318 0.123224 -0.134808
-151.369 -162.399 -750.634 -0.979622 0.144574 -0.139427
-151.378 -162.117 -750.22 -0.973693 0.177224 -0.143225
-151.392 -161.835 -749.806 -0.97689 0.159183 -0.14264
-151.407 -161.554 -749.393 -0.977167 0.157257 -0.142879
-151.409 -161.522 -749.345 -0.977651 0.153577 -0.143573
-151.424 -161.273 -748.979 -0.978831 0.141859 -0.14753
-151.456 -160.993 -748.565 -0.980759 0.110734 -0.16078
-151.809 -161.933 -747.059 -0.996617 -0.0537592 0.0621668
-125.972 -147.248 -733.197 0.817244 -0.0802715 -0.570673
-115.533 -138.867 -721.493 0.724146 -0.580013 -0.373093
-107.891 -134.392 -711.604 0.518485 -0.854489 -0.031965
-136.404 -130.199 -706.771 -0.80594 -0.0538675 0.589541
-123.133 -115.928 -689.11 -0.798329 -0.0384738 0.600991
-50.5753 -107.969 -680.162 0.555435 -0.774921 -0.301645
-39.6045 -103.381 -664.779 0.631818 -0.77103 0.0794901
-37.6686 -102.07 -669.641 0.60438 -0.795479 -0.044016
-23.2327 -86.5835 -649.548 0.623669 -0.759409 0.185294
-18.2841 -81.96 -644.902 0.536726 -0.835293 0.11921
55.4351 -68.9734 -637.606 -0.269583 0.604048 -0.749968
61.0288 -68.454 -635.219 0.347458 0.777797 -0.523741
60.9444 -68.1793 -634.808 0.70255 0.545675 -0.456797
60.6842 -66.7903 -632.745 0.99302 0.106261 -0.0511869
50.8027 -66.135 -632.003 -0.658835 0.219874 -0.719438
49.5736 -66.2831 -630.24 -0.685537 -0.727276 0.0333015
59.8254 -62.4567 -626.677 0.877901 0.0630717 0.47467
60.0281 -62.8941 -626.966 0.856386 0.117517 0.502784
59.788 -62.0868 -626.646 0.911226 0.00190591 0.411902
59.7023 -61.9451 -626.429 0.92988 -0.0357097 0.366126
59.5621 -61.6759 -626.02 0.938465 -0.0337133 0.343724
59.4071 -61.4082 -625.611 0.938187 0.0133538 0.345871
59.3113 -61.8327 -625.334 0.924387 -0.0423731 0.379096
59.1677 -61.4759 -624.984 0.903898 -0.0481705 0.425028
59.102 -60.8739 -624.791 0.902533 -0.036656 0.429057
59.0576 -61.4523 -624.749 0.903881 -0.0447726 0.425435
10.4605 -65.2297 -628.166 0.240803 -0.9526 -0.185923
47.1062 -60.5788 -623.73 -0.386725 -0.869622 0.306923
37.351 -62.2751 -620.691 0.188958 -0.926174 -0.326338
-33.8251 -57.0203 -615.5 -0.280046 0.148214 0.948476
20.6581 -57.915 -612.614 -0.270502 -0.500288 0.822521
22.232 -54.0404 -610.185 -0.629611 -0.325539 0.705418
41.314 -45.2668 -599.772 -0.255201 -0.439282 0.861338
-107.819 -196.99 -804.262 -0.0539818 -0.940278 -0.336101
-106.333 -196.799 -804.144 0.284464 -0.957619 -0.0452322
-105.849 -196.642 -804.043 0.594222 -0.686203 0.419554
-107.124 -197.089 -802.967 0.265655 -0.907173 0.326289
-105.375 -196.28 -804.24 0.529671 -0.843897 -0.0853622
-105.313 -196.21 -804.281 0.59611 -0.754129 -0.275576
-104.909 -196.099 -803.71 0.325157 -0.885628 -0.331566
-104.905 -196.02 -804.047 0.502598 -0.842838 -0.192403
-104.459 -195.698 -803.329 0.464628 -0.783499 0.412613
-104.42 -195.938 -803.769 0.454925 -0.807988 0.374432
-104.969 -195.798 -802.827 0.457109 -0.804642 0.378949
-105.026 -195.373 -802.395 0.321839 -0.540087 0.777641
-104.98 -195.726 -802.719 0.352145 -0.572774 0.740219
-105.483 -195.516 -802.318 0.277186 -0.562275 0.779111
-105.083 -194.882 -802.128 0.40505 -0.361721 0.839698
-115.526 -197.877 -801.012 -0.186858 -0.885393 -0.425634
-107.286 -193.609 -800.183 0.410692 -0.654115 0.63519
-107.819 -193.463 -799.73 0.272966 -0.731169 0.625205
-108.359 -193.216 -799.345 0.267072 -0.632321 0.727215
-108.897 -193.01 -798.933 0.278935 -0.648836 0.707959
-109.933 -192.825 -798.557 0.306044 -0.55449 0.773872
-109.435 -192.793 -798.529 0.0789004 -0.711619 0.698121
-110.471 -192.616 -798.148 0.328878 -0.550235 0.767516
-111.01 -192.384 -797.753 0.297349 -0.570066 0.765904
-112.582 -192.772 -797.434 0.416141 -0.484287 0.769606
-111.551 -192.127 -797.375 0.292518 -0.539948 0.789234
-113.071 -192.171 -796.894 0.341392 -0.568138 0.74878
-112.715 -192.258 -796.799 -0.32021 -0.768458 0.554019
-112.092 -191.868 -796.999 0.466711 -0.576185 0.670963
-112.507 -192.238 -796.792 0.729396 -0.565233 0.385348
-114.798 -192.263 -795.709 0.496725 -0.559146 0.663792
-113.11 -191.929 -796.456 0.381267 -0.764341 0.520018
-113.642 -191.79 -796.012 0.435703 -0.702918 0.5622
-115.938 -190.897 -795.071 -0.102394 0.951433 -0.290329
-117.43 -189.987 -793.36 -0.245087 0.723277 -0.645603
-117.971 -189.731 -792.982 -0.159916 0.704099 -0.691861
-118.51 -189.498 -792.588 -0.197486 0.775696 -0.599413
-119.041 -189.375 -792.119 -0.219199 0.827776 -0.516468
-119.2 -189.862 -792.831 0.0929163 0.950501 -0.296505
-119.574 -189.222 -791.671 -0.251284 0.811165 -0.528079
-119.743 -189.269 -791.656 -0.405799 0.726758 -0.554211
-122.026 -188.734 -790.46 0.236683 0.948683 -0.209718
-136.874 -188.391 -787.637 -0.787185 -0.0468129 -0.614937
-126.645 -186.187 -787.444 0.432124 0.900216 -0.0536639
-143.314 -181.074 -777.605 -0.705477 0.360848 -0.609992
-144.749 -179.483 -774.602 -0.813088 0.289423 -0.505096
-145.448 -178.152 -772.698 -0.815255 0.289468 -0.501566
-145.431 -178.298 -772.793 -0.831076 0.232935 -0.505029
-145.499 -177.754 -772.367 -0.761443 0.426955 -0.487765
-145.672 -177.947 -772.253 -0.788387 0.345486 -0.509004
-146.108 -177.142 -771.025 -0.689825 0.396139 -0.605982
-146.108 -177.142 -771.026 -0.68512 0.402164 -0.607351
-145.471 -176.734 -771.475 -0.67095 0.477984 -0.566885
-146.555 -175.327 -769.395 -0.685917 0.43161 -0.585859
-146.734 -176.306 -769.836 -0.770513 0.373528 -0.516513
-146.712 -176.481 -769.992 -0.746762 0.344306 -0.569035
-146.78 -175.969 -769.463 -0.841906 0.339525 -0.419424
-146.828 -175.613 -769.103 -0.82784 0.306628 -0.469745
-147.115 -175.543 -768.574 -0.792559 0.140771 -0.593324
-147.455 -174.762 -767.924 -0.742715 0.39832 -0.538253
-147.397 -175.274 -768.15 -0.819706 0.123822 -0.55924
-147.709 -174.752 -767.351 -0.861645 0.357494 -0.360231
-148.15 -173.558 -765.781 -0.755467 0.430981 -0.493482
-148.109 -173.885 -766.037 -0.598132 0.316834 -0.736108
-148.188 -173.326 -765.336 -0.799072 0.44684 -0.402265
-148.235 -172.978 -764.969 -0.788706 0.370872 -0.490303
-148.284 -172.598 -764.626 -0.795424 0.307965 -0.521975
-148.337 -172.165 -764.318 -0.807142 0.242791 -0.538121
-148.948 -171.538 -762.987 -0.77261 0.480016 -0.415521
-148.904 -171.849 -763.378 -0.779353 0.445281 -0.440833
-148.988 -171.274 -762.564 -0.783299 0.430837 -0.448131
-149.036 -170.913 -762.207 -0.822958 0.267166 -0.501361
-149.077 -170.576 -761.973 -0.84715 0.228871 -0.479537
-135.507 -169.846 -760.219 0.866466 0.422707 -0.265624
-151.387 -164.08 -751.318 -0.998102 0.00427573 -0.0614321
-151.425 -163.385 -751.185 -0.996127 -0.0215275 -0.0852553
-124.695 -125.344 -693.76 -0.566425 -0.384727 0.728799
-47.4594 -106.729 -676.11 0.479866 -0.867975 -0.127858
57.3629 -75.4723 -643.364 -0.0381708 0.632106 -0.773941
59.6273 -69.2115 -637.275 0.34657 0.641838 -0.684056
60.9591 -70.3349 -637.079 0.548688 0.53869 -0.63934
60.9508 -70.2671 -637.03 0.551233 0.543598 -0.632964
60.8994 -69.8581 -636.706 0.559455 0.665524 -0.494052
61.0681 -69.714 -636.181 0.602421 0.368275 -0.70814
61.3388 -69.4993 -635.896 0.585808 0.353029 -0.72952
61.3183 -69.3185 -635.817 0.517261 0.533103 -0.669509
60.7558 -68.7719 -635.638 0.688288 0.351135 -0.634794
61.264 -68.8699 -635.52 0.286897 0.552655 -0.782472
52.9397 -68.6686 -635.085 -0.715115 0.291693 -0.635236
61.1273 -68.2937 -634.107 0.921566 0.388112 0.00922266
60.6424 -67.0569 -634.114 0.797284 0.483227 -0.361704
51.4984 -68.3883 -633.199 -0.781589 -0.284351 -0.555215
60.8222 -67.4749 -632.874 0.977155 0.199095 -0.074364
51.0748 -68.1469 -632.799 -0.798796 -0.196827 -0.568493
50.989 -67.6781 -632.519 -0.913271 0.0290358 -0.406316
51.0427 -68.1345 -632.778 -0.602785 -0.525072 -0.600791
50.4558 -67.5263 -632.07 -0.819767 0.230123 -0.52443
50.4315 -67.4217 -631.667 -0.781 0.322431 -0.534861
-79.2678 -79.1587 -631.566 -0.499984 -0.0855191 0.861802
60.4757 -63.6211 -627.641 0.874653 -0.062501 0.480703
60.5206 -64.0269 -627.791 0.877344 -0.0466766 0.477587
60.4364 -63.256 -627.541 0.869679 0.0166778 0.493337
60.3144 -63.149 -627.371 0.846719 0.144596 0.512015
0.906739 -62.6587 -617.735 -0.112566 -0.519258 0.847172
10.2221 -61.3864 -616.822 -0.0517425 -0.588527 0.80682
9.30411 -57.8148 -614.509 -0.209624 -0.315063 0.925631
44.4999 -49.4705 -602.263 0.636956 -0.3502 0.686766
43.2277 -44.6042 -599.716 0.446606 -0.219444 0.867403
-107.318 -196.961 -804.274 0.0782714 -0.99096 -0.108959
-106.821 -196.909 -804.253 0.177904 -0.979464 -0.0948663
-111.368 -197.11 -803.175 -0.155856 -0.772246 -0.61591
-104.977 -195.752 -802.74 0.379094 -0.677887 0.629887
-109.031 -193.841 -799.642 0.34674 -0.559916 0.752506
-112.561 -192.291 -796.761 0.303544 -0.779794 0.547524
-113.643 -191.786 -796.001 0.434753 -0.80754 0.398582
-114.173 -191.679 -795.521 0.470896 -0.682849 0.558546
-114.693 -191.7 -794.954 0.651616 -0.648745 0.393098
-114.735 -191.74 -794.931 0.596718 -0.687082 0.414543
-120.103 -189.126 -791.184 -0.179351 0.857915 -0.481471
-120.636 -188.977 -790.733 0.0829867 0.945105 -0.316053
-121.169 -188.829 -790.281 0.176864 0.913671 -0.365956
-121.215 -188.494 -789.907 0.0966128 0.852873 -0.513102
-121.751 -188.306 -789.482 -0.242467 0.911892 -0.331152
-122.217 -188.512 -789.39 0.888394 0.454571 0.0641957
-122.28 -188.206 -788.998 -0.13601 0.924135 -0.357036
-122.417 -188.249 -788.983 -0.314761 0.873756 -0.370777
-124.401 -187.485 -787.883 0.329492 0.944153 0.00313726
-123.984 -187.554 -787.794 0.420938 0.830979 -0.363709
-124.437 -187.282 -787.418 0.354245 0.907768 -0.22465
-124.969 -187.109 -787.036 0.448583 0.889466 0.0873106
-124.445 -187.244 -787.29 0.108896 0.954085 -0.279041
-130.593 -183.186 -780.388 0.529849 0.815518 -0.232787
-143.966 -181.52 -776.934 -0.777514 0.344072 -0.52639
-143.936 -181.751 -777.126 -0.766918 0.304334 -0.564994
-144.016 -181.127 -776.599 -0.797928 0.263015 -0.542341
-144.072 -180.646 -776.324 -0.839181 0.24547 -0.485303
-144.219 -181.049 -776.066 -0.920243 0.141983 -0.364683
-144.361 -180.78 -775.657 -0.871647 0.194964 -0.449689
-144.68 -180.06 -774.965 -0.123366 0.316118 -0.940665
-144.642 -180.407 -775.08 -0.410088 0.312118 -0.856977
-144.736 -179.592 -774.681 -0.735461 0.292525 -0.611168
-145.143 -179.725 -774.026 -0.823798 0.281207 -0.492219
-145.278 -179.526 -773.72 -0.760574 0.337349 -0.554728
-145.323 -179.46 -773.618 -0.801912 0.306252 -0.512979
-145.394 -178.598 -772.997 -0.831334 0.262283 -0.489991
-145.345 -179.077 -773.356 -0.838996 0.255904 -0.480207
-145.757 -178.654 -772.39 -0.804094 0.273423 -0.527894
-145.955 -178.355 -772.007 -0.785207 0.187606 -0.59013
-145.948 -178.423 -772.031 -0.786874 0.19471 -0.585591
-146.009 -177.912 -771.706 -0.773545 0.387314 -0.501614
-146.055 -177.574 -771.333 -0.729939 0.416635 -0.541853
-146.627 -177.178 -770.447 -0.673962 0.384551 -0.63079
-146.683 -176.708 -770.165 -0.515865 0.415731 -0.749033
-146.844 -177.063 -769.942 -0.907899 0.173721 -0.381497
-146.965 -176.792 -769.531 -0.907247 0.173427 -0.383178
-135.284 -173.81 -766.408 0.856518 0.432309 -0.281933
-147.394 -175.302 -768.159 -0.800517 0.125362 -0.586052
-147.339 -175.748 -768.458 -0.666561 0.357433 -0.654169
-147.991 -174.856 -766.704 -0.854735 0.350476 -0.382876
-148.04 -174.473 -766.362 -0.752432 0.355095 -0.554756
-148.097 -173.993 -766.087 -0.613346 0.321204 -0.72155
-135.523 -171.114 -763.14 0.798894 0.52442 -0.294536
-151.375 -164.361 -751.732 -0.998044 -0.0302115 -0.0547251
-151.361 -164.775 -751.451 -0.997732 -0.0315292 -0.059468
-151.239 -156.775 -739.663 -0.965825 -0.0987547 0.239645
-112.585 -137.494 -713.228 0.491515 -0.867887 0.072012
-140.648 -136.915 -712.79 -0.81763 -0.104728 0.566139
-127.546 -127.747 -697.031 -0.550542 -0.386374 0.740013
-23.1411 -87.3502 -655.339 0.633724 -0.766928 0.101073
-99.7312 -94.574 -649.703 -0.934849 0.165179 0.314281
-98.9184 -88.5994 -647.79 -0.742435 -0.0211715 0.669584
59.6753 -74.015 -641.514 0.387723 0.616878 -0.684932
61.1804 -72.7391 -638.894 0.555187 0.497711 -0.666372
61.1045 -71.4902 -638.005 0.530702 0.544797 -0.64927
61.2146 -71.5293 -637.968 0.473933 0.526457 -0.705854
61.0542 -71.0951 -637.672 0.5828 0.564308 -0.584722
61.0033 -70.6919 -637.344 0.566753 0.554524 -0.609339
61.3782 -69.843 -636.063 0.473246 0.426851 -0.770608
61.1646 -68.3789 -634.046 0.879803 0.460149 0.119202
61.1618 -68.5232 -633.558 0.919367 0.375779 0.116427
61.1042 -68.4282 -633.413 0.920897 0.373438 0.11177
-85.4833 -84.6082 -636.275 -0.594064 -0.12915 0.793982
51.4583 -69.0903 -633.334 -0.771968 0.147969 -0.6182
60.9452 -68.1609 -633.004 0.952831 0.300963 0.0391814
51.0148 -68.026 -632.281 -0.577267 -0.789882 0.207002
51.3342 -68.2538 -632.095 -0.729032 -0.68443 0.00827023
50.4728 -67.7555 -631.913 0.0381191 -0.740037 0.671485
60.5407 -64.2148 -627.839 0.877204 -0.0423617 0.478246
60.6018 -64.7771 -628.01 0.866621 -0.0938943 0.490053
-6.8531 -70.7169 -625.755 0.610695 -0.691711 0.385469
40.3649 -62.4103 -618.512 0.329028 -0.921072 -0.208247
-8.02083 -60.8311 -617.891 0.0935613 -0.245539 0.964861
-47.0589 -66.2479 -619.254 -0.299459 -0.113086 0.947384
4.60813 -56.6293 -615.656 -0.162958 -0.134522 0.977419
-38.3981 -67.6657 -617.231 -0.416107 0.379925 0.826143
49.2856 -54.028 -611.48 0.553767 -0.56877 0.608148
-110.072 -196.791 -800.692 0.340286 -0.78191 0.522324
-115.177 -191.925 -794.851 0.546042 -0.668435 0.505008
-116.175 -192.138 -794.469 0.0599957 -0.985084 0.161277
-115.68 -192.072 -794.426 0.203491 -0.938005 0.280604
-116.792 -191.26 -793.647 0.534481 -0.15399 0.831034
-116.746 -191.693 -793.756 0.564338 -0.0681713 0.822724
-117.114 -191.539 -793.491 0.545457 -0.0929739 0.832966
-122.77 -188.362 -788.942 0.277087 0.955748 -0.0988377
-123.314 -188.061 -788.595 0.472884 0.876315 0.0919402
-123.847 -187.912 -788.144 0.625872 0.776642 -0.0714909
-123.894 -187.559 -787.781 0.145996 0.718125 -0.680428
-124.972 -187.105 -786.986 0.455195 0.88362 0.109611
-125.498 -187.047 -786.473 0.619201 0.784396 -0.0362345
-125.543 -186.718 -786.094 0.517194 0.851452 -0.0868377
-126.07 -186.657 -785.583 0.422606 0.904914 0.0503423
-126.349 -186.503 -785.11 0.314711 0.948382 0.0391043
-126.088 -186.587 -785.261 0.195453 0.960647 -0.197371
-126.613 -186.448 -785 0.866372 0.497628 0.0420244
-129.227 -184.733 -782.889 0.564528 0.82287 -0.0647613
-141.241 -183.399 -781.307 -0.716184 0.25243 -0.65066
-129.992 -183.182 -779.849 0.378355 0.820532 -0.428457
-130.142 -183.096 -779.706 -0.115754 0.991713 -0.0557316
-143.28 -183.403 -778.499 -0.839647 0.0552327 -0.540318
-143.853 -182.471 -777.491 -0.763038 0.189789 -0.617862
-143.837 -182.622 -777.523 -0.862587 0.0163867 -0.505643
-143.913 -181.945 -777.247 -0.733178 0.242158 -0.63546
-144.616 -180.634 -775.176 -0.805462 0.236395 -0.543459
-145.692 -179.628 -772.936 -0.860576 0.178896 -0.47687
-145.843 -179.297 -772.57 -0.852575 0.185509 -0.488571
-145.827 -179.438 -772.643 -0.852777 0.160655 -0.496953
-145.898 -178.84 -772.279 -0.811049 0.26393 -0.522055
-135.962 -175.834 -770.656 0.59448 0.705296 -0.3862
-135.303 -168.826 -758.242 0.966816 0.15847 -0.200386
-135.301 -166.352 -756.403 0.903722 0.255709 -0.343366
-151.361 -165.473 -751.585 -0.997854 0.012759 -0.0642303
-151.583 -164.39 -747.922 -0.974162 -0.167074 0.151969
-131.848 -158.278 -743.712 0.974302 -0.212333 -0.0751739
-132.428 -127.473 -701.357 -0.728353 -0.146387 0.669383
-77.4388 -118.946 -692.786 0.485678 -0.844091 -0.227215
-40.9941 -104.515 -667.475 0.509654 -0.854147 -0.103373
-28.7796 -92.905 -654.024 0.665599 -0.73397 0.135156
61.6876 -72.2476 -638.183 0.4149 0.582339 -0.699099
61.6753 -72.1482 -638.109 0.444657 0.558422 -0.700318
61.6221 -71.7152 -637.801 0.500578 0.52164 -0.690879
-14.2074 -79.6394 -641.66 0.495655 -0.868441 0.0116748
52.9125 -71.6262 -636.319 -0.937935 0.114644 -0.327314
52.7783 -71.3564 -635.909 -0.931671 0.156704 -0.327769
52.1749 -70.284 -634.272 -0.780447 0.0565394 -0.62266
52.3411 -70.4845 -634.584 -0.8603 0.149747 -0.487299
51.7871 -70.039 -633.871 -0.762078 0.0393935 -0.646285
51.7025 -69.4115 -633.698 -0.768795 0.0995285 -0.631702
51.7672 -70.0205 -633.842 -0.81141 0.0518941 -0.58217
51.6017 -68.9015 -632.236 -0.916275 -0.289538 0.276781
51.6076 -68.9535 -632.262 -0.882092 -0.35837 0.305753
51.5595 -68.6161 -631.828 -0.697334 -0.669127 0.256893
60.6676 -65.3586 -628.265 0.860223 -0.136167 0.491401
60.7698 -65.7643 -628.586 0.877137 -0.149539 0.456365
60.6067 -64.8209 -628.029 0.86043 -0.117796 0.495767
59.2121 -63.7946 -625.366 0.809445 -0.190864 0.55531
50.8003 -65.7308 -628.447 -0.608719 -0.696025 0.380801
-0.229299 -68.2092 -628.374 0.336853 -0.93996 0.0548204
51.7778 -65.3024 -623.913 -0.351668 -0.771363 0.530404
47.195 -59.9843 -619.461 -0.232648 -0.936205 0.26343
11.1913 -65.3141 -621.019 0.0885804 -0.935789 0.34125
54.3979 -57.121 -616.608 0.609512 -0.388093 0.691288
2.9219 -61.1798 -616.709 -0.0373958 -0.340861 0.93937
-116.186 -192.11 -794.223 0.0568177 -0.98041 0.188592
-116.721 -191.946 -793.782 0.287632 -0.672806 0.681616
-117.262 -191.685 -793.407 0.288687 -0.571606 0.768067
-117.8 -191.466 -793.004 0.223896 -0.717804 0.659263
-118.337 -191.261 -792.591 0.377398 -0.640456 0.66887
-118.87 -191.118 -792.136 0.470375 -0.538674 0.698983
-118.925 -190.658 -791.847 0.51758 -0.410302 0.750842
-119.458 -190.509 -791.396 0.517217 -0.436587 0.736124
-119.987 -190.415 -790.908 0.505597 -0.518052 0.689923
-120.522 -190.237 -790.476 0.537907 -0.458467 0.707435
-120.611 -190.317 -790.431 0.676605 -0.547785 0.492074
-126.635 -186.36 -784.63 0.34979 0.935144 0.0561508
-127.164 -186.256 -784.148 0.536392 0.843789 0.0173904
-127.198 -186.089 -783.659 0.500127 0.847825 -0.176255
-127.738 -185.838 -783.277 0.618631 0.745669 0.247534
-127.868 -185.653 -782.81 0.561295 0.827528 -0.0120303
-127.758 -185.746 -782.959 0.554093 0.814602 -0.171477
-128.303 -185.479 -782.509 0.578338 0.79926 0.163427
-128.65 -185.164 -782.009 0.584615 0.811185 0.0143056
-128.872 -185.047 -781.813 0.715267 0.69812 -0.0319698
-129.444 -184.512 -781.318 0.625279 0.778346 -0.0566016
-129.109 -184.643 -781.196 0.575695 0.813425 -0.0831551
-129.478 -184.34 -780.832 0.613472 0.718464 -0.327812
-129.527 -183.961 -780.488 0.430092 0.669522 -0.605608
-130.082 -183.517 -780.238 0.580302 0.737865 -0.344681
-130.153 -183.133 -779.294 0.201289 0.971031 -0.128772
-130.693 -182.881 -778.913 0.959131 0.282885 0.00665468
-130.73 -182.672 -778.452 0.293473 0.928822 -0.226192
-131.269 -182.443 -778.056 0.568435 0.800489 -0.189995
-131.304 -182.255 -777.581 0.672415 0.724426 -0.151872
-143.781 -183.157 -777.626 -0.867092 0.00198324 -0.498145
-143.765 -183.312 -777.653 -0.868687 -0.0355877 -0.494082
-131.866 -181.705 -777.403 0.145287 -0.43744 -0.887433
-131.51 -182.049 -777.135 0.567229 0.809652 -0.150717
-131.311 -182.238 -777.433 0.630863 0.77091 -0.0878054
-131.893 -181.625 -776.855 0.663473 0.743993 -0.0792382
-131.918 -181.55 -776.36 0.61661 0.785326 -0.0552812
-132.374 -181.285 -777.694 0.645877 0.729723 -0.224381
-132.487 -180.945 -776.163 0.677188 0.728115 -0.106139
-132.087 -181.257 -775.912 0.706953 0.696066 -0.12534
-132.514 -180.856 -775.62 0.696732 0.714848 -0.0596346
-132.531 -180.823 -775.228 0.699612 0.71421 -0.0211399
-134.582 -178.817 -775.328 0.60375 0.756468 -0.251479
-133.142 -180.111 -774.119 0.75705 0.599415 -0.259957
-133.758 -178.026 -770.998 0.660844 0.730437 -0.172472
-133.983 -177.861 -770.731 0.715454 0.696754 0.0515686
-134.407 -176.675 -768.948 0.662346 0.703843 -0.256715
-134.623 -176.413 -768.541 0.795727 0.552509 -0.248099
-134.782 -175.014 -766.475 0.680355 0.320749 -0.658967
-134.85 -174.738 -766.063 0.912127 0.406474 -0.0529423
-134.814 -172.306 -762.504 0.882951 0.374706 -0.282831
-134.834 -172.148 -762.361 0.876957 0.44185 -0.188986
-134.844 -172.1 -762.2 0.864555 0.490461 -0.109515
-135.217 -169.609 -758.51 0.971911 0.145208 -0.185215
-135.271 -169.097 -758.411 0.950881 0.221522 -0.216227
-135.124 -169.107 -757.784 0.983212 0.127958 -0.13008
-135.115 -168.103 -755.469 0.983544 -0.177468 0.0338438
-151.361 -166.171 -751.719 -0.99733 0.0191194 -0.0704835
-130.414 -154.643 -739.6 0.96652 -0.254211 -0.0348727
-149.567 -152.313 -732.931 -0.93186 -0.102023 0.348178
-115.79 -139.287 -717.755 0.55849 -0.829476 0.00757112
-73.0863 -118.156 -687.193 0.325203 -0.927054 -0.186586
-69.0213 -116.212 -687.894 0.427064 -0.843046 -0.326941
61.6424 -73.4493 -639.05 0.459235 0.465433 -0.756621
61.8197 -73.3392 -638.908 0.386661 0.431464 -0.815065
61.7797 -72.9893 -638.741 0.40154 0.49051 -0.773412
61.727 -72.563 -638.429 0.407521 0.585447 -0.700841
-95.3234 -86.5296 -643.973 -0.663093 -0.0515752 0.746758
53.5443 -73.3159 -638.797 -0.862128 0.224249 -0.454365
53.1556 -72.8662 -637.273 -0.898175 0.303025 -0.318525
53.2055 -73.0984 -637.619 -0.916652 0.251832 -0.310372
53.104 -72.5884 -636.86 -0.969828 -0.19385 -0.147836
52.9818 -72.3175 -636.45 -0.976449 -0.0719748 -0.203391
52.627 -71.5035 -635.219 -0.949499 0.118729 -0.290439
52.4699 -71.236 -634.81 -0.874848 -0.17204 -0.452816
52.3543 -70.5965 -634.648 -0.750499 0.0801922 -0.655988
52.4176 -71.2037 -634.757 -0.732026 -0.564154 -0.381927
51.7071 -69.7559 -632.86 -0.561572 -0.626705 0.540258
51.6523 -69.3007 -632.567 -0.926216 -0.281351 0.250928
51.7297 -68.61 -631.507 -0.711389 -0.605524 0.356744
52.0019 -69.8674 -632.755 -0.479634 -0.668224 0.568707
-81.5286 -80.23 -633.209 -0.496875 -0.0843735 0.863711
60.7812 -66.3234 -628.813 0.884662 -0.154793 0.439786
60.8184 -66.6411 -628.987 0.878942 -0.144658 0.454461
-78.5946 -71.4406 -631.62 -0.532077 0.210135 0.820206
6.20491 -66.6141 -623.524 0.157571 -0.961053 0.227044
-52.5802 -70.7293 -623.537 0.420401 0.906959 0.0262354
-52.5863 -70.7318 -623.355 0.534294 0.690789 -0.487177
-52.7367 -70.6602 -623.419 0.533101 0.703423 -0.470105
-52.6012 -70.589 -623.329 0.462053 0.205756 -0.862654
-49.9495 -71.962 -621.362 -0.413243 0.0339614 0.909987
-14.3378 -57.5193 -615.828 0.226335 0.0896411 0.969916
47.463 -56.3175 -612.176 0.672676 -0.637699 0.375296
24.7344 -55.7512 -607.419 -0.562959 -0.490977 0.664845
-118.763 -197.733 -799.143 -0.232418 -0.897771 -0.374152
-117.814 -192.102 -793.691 0.407999 -0.559754 0.721257
-121.001 -190.532 -790.326 0.73598 -0.393688 0.550766
-121.043 -190.243 -789.919 0.389959 -0.595754 0.702146
-121.581 -190.028 -789.513 0.3706 -0.565613 0.736708
-121.634 -189.603 -789.2 0.395704 -0.543925 0.739976
-122.166 -189.465 -788.742 0.343118 -0.696361 0.630358
-122.702 -189.273 -788.32 0.353271 -0.578754 0.735013
-123.24 -189.051 -787.919 0.362703 -0.552868 0.750189
-123.777 -188.857 -787.499 0.36308 -0.5625 0.74281
-124.314 -188.653 -787.085 0.306711 -0.598837 0.739813
-123.535 -189.694 -788.251 0.490089 -0.42549 0.76077
-124.852 -188.43 -786.685 0.55905 -0.408091 0.721751
-124.9 -188.073 -786.325 0.532367 -0.602611 0.594512
-125.411 -188.157 -785.857 0.565568 -0.750878 0.34105
-126.024 -187.272 -785.164 0.623057 -0.0126812 0.782074
-125.975 -187.758 -785.211 0.607064 -0.0633776 0.792122
-126.285 -187.61 -784.961 0.719969 -0.225051 0.656504
-128.308 -185.474 -782.37 0.635913 0.771443 -0.0221554
-128.887 -184.987 -781.546 0.795132 0.600127 -0.0872458
-142.725 -184.977 -779.317 -0.851837 -0.0282905 -0.523042
-142.507 -185.181 -779.639 -0.84093 -0.101118 -0.531612
-143.223 -184.46 -778.506 -0.899879 -0.0457798 -0.43373
-143.103 -184.574 -778.686 0.988994 0.143418 0.0363617
-143.705 -183.92 -777.661 -0.863414 -0.0930993 -0.495831
-131.336 -182.103 -777.082 0.367807 0.876924 -0.30939
-131.92 -181.544 -776.307 0.742464 0.659076 -0.119856
-132.539 -180.813 -775.047 0.697698 0.71625 0.0142375
-132.559 -180.825 -774.435 0.714117 0.699826 -0.0167467
-132.564 -180.813 -774.322 0.759736 0.649886 -0.021175
-132.734 -180.604 -773.997 0.758879 0.649389 -0.0489568
-133.162 -180.014 -773.833 0.757238 0.611424 -0.229676
-133.201 -179.763 -773.401 0.782477 0.551119 -0.289823
-133.244 -179.47 -772.997 0.755306 0.599194 -0.265479
-133.281 -179.249 -772.545 0.761677 0.591726 -0.264024
-133.321 -178.995 -772.115 0.785614 0.553027 -0.277439
-133.363 -178.722 -771.698 0.823467 0.488008 -0.289399
-133.407 -178.404 -771.312 0.665701 0.69705 -0.26639
-133.994 -177.806 -770.565 0.698677 0.687911 -0.196541
-134.03 -177.615 -770.091 0.694718 0.673858 -0.251559
-134.068 -177.384 -769.646 0.694093 0.658146 -0.291682
-134.107 -177.143 -769.208 0.697998 0.644758 -0.311585
-134.492 -176.533 -767.842 0.933354 0.33693 -0.123807
-134.531 -176.254 -767.429 0.926465 0.346652 -0.146612
-134.567 -175.974 -767.016 0.929698 0.343622 -0.132608
-134.624 -175.697 -766.603 0.934544 0.335325 -0.119102
-134.788 -174.864 -765.366 0.942542 0.301592 -0.143726
-134.78 -174.581 -764.951 0.950623 0.231215 -0.207015
-134.672 -173.461 -763.322 0.94241 0.25546 -0.215878
-134.676 -173.426 -763.299 0.943249 0.252604 -0.215576
-134.732 -172.965 -763.01 0.906657 0.333799 -0.257974
-134.785 -172.525 -762.707 0.874699 0.356882 -0.327929
-134.868 -171.978 -761.874 0.894463 0.423586 -0.143219
-134.904 -171.778 -761.408 0.933882 0.346414 -0.0886735
-134.945 -171.497 -760.996 0.920268 0.371238 -0.12365
-134.972 -171.424 -760.442 0.94384 0.326921 -0.0478423
-135.016 -171.108 -760.055 0.928596 0.342633 -0.142519
-135.054 -170.885 -759.604 0.927879 0.363035 -0.0851276
-135.078 -170.748 -759.305 0.949482 0.313115 0.0210632
-135.112 -170.653 -759.161 0.99418 0.0776342 -0.0746881
-135.098 -170.614 -759.107 0.979485 -0.184194 -0.0817456
-135.151 -170.139 -758.907 0.945266 0.258898 -0.198607
-135.2 -169.77 -758.555 0.961567 0.201018 -0.18703
-135.079 -169.518 -757.503 0.99954 -0.0134332 0.027176
-133.84 -164.764 -749.622 0.946417 -0.319395 0.0477685
-151.401 -166.09 -751.173 -0.997039 0.0286529 -0.0713608
-151.367 -166.256 -751.663 -0.997071 0.0191203 -0.074047
-151.411 -166.308 -751.026 -0.998885 -0.0262043 -0.0392705
-102.267 -131.398 -704.399 0.424976 -0.899164 0.104404
-83.5463 -122.431 -688.553 0.446088 -0.884427 0.137096
-73.2536 -116.804 -691.759 0.463316 -0.812691 -0.353373
-42.4179 -104.514 -669.313 0.468848 -0.875112 -0.119838
-105.205 -100.231 -659.843 -0.919802 -0.170428 0.353437
55.479 -78.6668 -645.152 -0.528279 0.554364 -0.643119
61.5226 -74.9343 -640.323 0.629851 0.528053 -0.569604
61.4846 -74.6315 -640.084 0.635324 0.501648 -0.587122
61.4302 -74.182 -639.787 0.651038 0.475176 -0.59191
61.3787 -73.7704 -639.465 0.857921 0.364861 -0.36173
53.2618 -73.5287 -638.026 -0.937531 -0.0132856 -0.347647
53.2308 -73.8398 -637.819 -0.825639 -0.342447 -0.448387
53.2132 -73.1567 -637.676 -0.938446 0.168714 -0.301421
52.3948 -71.1415 -634.276 -0.727918 -0.677682 0.104315
52.6458 -71.3511 -634.11 -0.649704 -0.760057 -0.0141011
52.3517 -70.8437 -633.876 -0.852026 -0.457779 0.25395
52.3081 -70.5385 -633.482 -0.852691 -0.453792 0.258825
52.2642 -70.2309 -633.088 -0.855438 -0.461903 0.234245
52.2232 -69.9603 -632.67 -0.786733 -0.538934 0.301001
60.8954 -67.2965 -629.355 0.88107 -0.155573 0.446668
60.9339 -67.6213 -629.547 0.880821 -0.169727 0.44198
60.8386 -66.8149 -629.081 0.879229 -0.146393 0.453349
-66.5642 -77.4282 -625.973 -0.281918 -0.0310086 0.958937
-3.92319 -68.5246 -624.508 0.32579 -0.819114 0.472137
28.9908 -63.2551 -622.167 0.147914 -0.969921 -0.193324
-4.33991 -64.8938 -620.125 0.069879 -0.635437 0.768984
-1.04187 -66.57 -621.917 0.062311 -0.84991 0.523231
5.71152 -63.2445 -617.936 0.0273686 -0.64187 0.766325
20.8127 -64.2738 -621.894 0.111137 -0.991218 0.0716582
15.3259 -63.2674 -617.982 -0.0112734 -0.787106 0.616715
42.7478 -50.1152 -601.786 0.0619828 -0.462199 0.884608
-123.207 -196.888 -797.198 -0.480871 -0.614122 -0.625794
-126.341 -196.057 -795.233 -0.557064 -0.611682 -0.561716
-125.418 -188.129 -785.734 0.493561 -0.757274 0.427707
-125.948 -188.015 -785.26 -0.13905 -0.738255 0.660033
-126.492 -187.883 -784.45 0.670116 -0.741359 -0.0364795
-141.875 -185.259 -780.631 -0.783975 -0.088927 -0.61439
-141.889 -186.151 -780.239 -0.802808 -0.229571 -0.55027
-142.478 -185.513 -779.536 -0.82665 -0.23628 -0.510707
-142.464 -185.677 -779.482 -0.818842 -0.260219 -0.511648
-143.045 -185.141 -778.634 -0.830533 -0.107993 -0.5464
-143.049 -185.138 -778.629 -0.764897 -0.135711 -0.629695
-130.671 -183.464 -777.912 0.66033 0.142928 0.737248
-130.648 -183.71 -777.885 0.666044 0.150845 0.7305
-130.763 -183.655 -777.792 0.662555 0.155234 0.73275
-143.434 -184.613 -777.818 -0.868002 -0.151548 -0.47287
-143.698 -183.992 -777.659 -0.826658 -0.172089 -0.535744
-143.657 -184.451 -777.556 -0.803725 -0.198592 -0.560881
-132.581 -180.811 -773.841 0.795033 0.606029 0.0255186
-134.458 -176.096 -766.317 0.940173 0.328558 -0.0901353
-134.596 -174.695 -764.25 0.924445 0.158604 -0.346765
-134.541 -174.548 -764.041 0.938848 0.182582 -0.29194
-134.571 -174.275 -763.926 0.9368 0.273886 -0.217696
-134.62 -173.906 -763.574 0.942289 0.25906 -0.212081
-134.939 -171.871 -760.137 0.968403 0.0607666 0.241875
-134.936 -171.905 -760.126 0.964604 0.0796597 0.251385
-134.992 -171.433 -759.833 0.979319 -0.041133 0.198098
-135.041 -171.054 -759.489 0.956183 -0.0651528 0.285428
-135.12 -170.555 -758.623 0.99939 0.0293729 0.0188856
-135.125 -170.641 -758.254 0.997855 0.0653253 -0.00424493
-135.217 -169.664 -756.813 0.926909 -0.232271 0.294769
-151.373 -167.003 -751.159 -0.997448 0.0173176 -0.0692699
-147.314 -152.566 -729.463 -0.681799 -0.441228 0.583497
-124.414 -146.895 -726.344 0.663139 -0.740135 0.111565
-122.731 -122.866 -690.896 -0.582245 -0.360226 0.728854
-120.057 -121.608 -688.371 -0.528848 -0.434972 0.728779
-43.904 -105.988 -671.657 0.612804 -0.783079 -0.106106
-35.7439 -99.7562 -669.718 0.636912 -0.763245 -0.108625
-30.4196 -94.8851 -657.59 0.633785 -0.768635 0.0866961
58.8017 -81.1901 -647.782 0.286174 0.600402 -0.74674
60.5488 -76.0859 -642.614 0.526271 0.532054 -0.663294
61.7111 -76.4027 -641.606 0.655226 0.42989 -0.621188
61.6808 -76.144 -641.464 0.625825 0.509128 -0.590874
61.6309 -75.7547 -641.127 0.608059 0.563776 -0.558946
53.9527 -76.0917 -640.437 -0.950718 0.114377 -0.28819
61.5815 -75.3721 -640.785 0.619064 0.592192 -0.515818
61.536 -75.0413 -640.407 0.628412 0.578104 -0.520475
53.3518 -74.526 -637.949 -0.875877 -0.175692 -0.449413
53.2634 -74.2518 -637.537 -0.954365 -0.0943198 -0.283357
53.0528 -72.409 -635.17 -0.742052 -0.643663 0.187235
53.0062 -72.065 -634.802 -0.924468 -0.346992 0.157972
53.2868 -72.5521 -635.05 -0.753324 -0.637373 0.162049
52.9754 -71.933 -634.289 -0.755799 -0.639404 0.141178
52.936 -71.6846 -633.855 -0.834177 -0.532714 0.142702
52.9965 -68.4347 -628.188 -0.55443 -0.681949 0.477026
61.0587 -68.6482 -630.242 0.847315 -0.229681 0.478858
61.069 -68.7327 -630.301 0.848551 -0.230164 0.476429
61.0051 -68.2095 -629.938 0.840794 -0.229008 0.490531
60.9511 -67.7641 -629.639 0.871815 -0.207763 0.443591
57.2241 -65.5246 -624.386 0.333675 -0.581415 0.742036
51.9536 -61.1247 -619.895 0.0309267 -0.71914 0.694176
23.6115 -63.0476 -617.799 0.0412397 -0.890923 0.452279
21.2233 -60.6171 -615.066 -0.154972 -0.721335 0.675026
29.7602 -51.9384 -604.051 -0.146989 -0.445413 0.883177
-115.119 -196.926 -797.572 0.346631 -0.738392 0.578467
-130.264 -195.089 -791.99 -0.601218 -0.693125 -0.397636
-121.094 -191.017 -790.548 0.545183 -0.418674 0.726284
-137.493 -190.104 -785.619 -0.83258 -0.273883 -0.481456
-138.594 -189.044 -784.218 -0.848534 -0.193838 -0.492358
-125.852 -188.521 -785.926 0.632806 -0.454245 0.627071
-126.508 -187.79 -784.257 0.790572 -0.452349 0.412767
-127.026 -187.839 -783.671 0.746622 -0.290126 0.598651
-127.077 -187.434 -783.344 0.745239 -0.240357 0.62197
-127.611 -187.268 -782.905 0.557314 0.309142 0.770605
-127.888 -187.466 -782.799 -0.13737 0.814826 0.563194
-128.184 -186.862 -782.026 0.679327 -0.115218 0.724734
-128.161 -187.053 -782.163 0.93216 -0.125635 0.339549
-140.454 -187.321 -781.8 -0.803589 -0.154788 -0.574704
-128.723 -186.634 -781.628 0.940753 0.174855 0.290535
-128.73 -186.621 -781.469 0.960981 0.276615 0.000727005
-141.276 -187.083 -780.782 -0.785314 -0.222092 -0.57789
-141.279 -187.081 -780.778 -0.815036 -0.223071 -0.534749
-141.884 -186.201 -780.222 -0.710091 -0.273904 -0.648651
-141.846 -186.644 -780.077 -0.722277 -0.276702 -0.633839
-142.198 -186.322 -779.567 -0.820991 -0.184884 -0.540178
-129.98 -184.897 -779.296 0.607594 -0.358607 0.708682
-129.931 -185.339 -779.461 0.65422 -0.127891 0.745413
-142.425 -186.149 -779.29 -0.814714 -0.19674 -0.545466
-130.028 -184.526 -778.946 0.636525 -0.512845 0.576043
-130.547 -184.564 -778.367 0.759237 -0.469945 0.450234
-130.556 -184.53 -778.207 0.665269 -0.713007 0.221447
-130.595 -184.269 -777.821 0.61606 -0.0783638 0.783792
-130.957 -184.089 -777.518 0.677987 -0.0838124 0.73028
-134.511 -174.804 -764.168 0.83712 0.316609 -0.446081
-134.783 -173.118 -761.096 0.182669 -0.601061 0.778047
-134.769 -173.225 -761.189 0.254596 -0.633663 0.730515
-134.835 -172.706 -760.774 0.538234 -0.613526 0.577833
-135.281 -173.749 -761.467 0.621703 -0.546022 0.561556
-134.878 -172.401 -760.378 0.687457 -0.529954 0.49654
-135.044 -171.974 -759.691 0.927287 -0.25205 0.276784
-135.044 -171.39 -758.472 0.99711 -0.0684669 0.032913
-135.08 -171.097 -758.252 0.99284 0.111526 -0.0427753
-135.161 -170.578 -757.4 0.865613 -0.28955 0.408504
-135.127 -170.832 -757.646 0.87086 -0.27121 0.409936
-135.207 -170.229 -757.035 0.87036 -0.250704 0.423816
-136.174 -170.611 -755.275 0.769893 -0.517328 0.37368
-151.295 -168.825 -752.948 -0.997458 -0.0509242 -0.0498492
-151.334 -168.131 -752.815 -0.998227 -0.0335534 -0.04916
-151.354 -167.85 -752.401 -0.999175 0.00568279 -0.0402143
-151.36 -167.567 -751.987 -0.999217 0.025838 -0.0299774
-151.364 -167.285 -751.573 -0.999056 0.0254631 -0.0351899
-150.483 -165.633 -745.705 -0.711897 -0.526168 0.465133
-134.756 -161.351 -741.321 0.634022 -0.647386 0.422974
-149.962 -162.716 -744.224 0.245964 -0.887706 0.389204
-149.955 -162.784 -744.245 0.0511301 0.71513 0.697119
-149.968 -162.75 -744.179 0.484861 0.0581873 -0.872653
-149.928 -162.75 -744.198 -0.928761 0.0157017 -0.370347
-128.037 -151.226 -732.971 0.768472 -0.638664 -0.0394856
-108.265 -133.919 -704.184 0.347821 -0.917621 0.192335
-132.311 -132.399 -703.108 -0.545038 -0.385034 0.74477
-48.7468 -108.34 -673.79 0.640784 -0.756046 -0.13338
61.4516 -78.1082 -643.188 0.648973 0.451455 -0.612391
61.6377 -77.8071 -642.767 0.710096 0.37347 -0.596895
61.8337 -77.505 -642.346 0.638424 0.478045 -0.603232
61.8425 -77.4893 -642.324 0.644228 0.480773 -0.594834
61.7911 -77.0644 -642.042 0.648972 0.478384 -0.591594
61.7376 -76.6265 -641.738 0.6523 0.463293 -0.599886
-28.0985 -88.444 -644.008 0.566879 -0.748032 0.345104
-92.576 -91.916 -643.343 -0.68249 0.15388 0.714513
53.3985 -75.0125 -637.778 -0.957271 -0.0837453 -0.276802
53.4477 -72.9515 -634.764 -0.977889 -0.202907 0.0506196
-84.4838 -90.556 -637.047 -0.479549 -0.329357 0.813361
61.1652 -69.5182 -630.855 0.850516 -0.233618 0.471216
61.2116 -69.8944 -631.13 0.851741 -0.235443 0.468085
61.112 -69.0845 -630.548 0.848659 -0.230414 0.476117
60.0604 -68.0314 -627.965 0.704287 -0.348482 0.618499
55.1665 -68.1467 -626.928 -0.115961 -0.718832 0.685444
-46.5904 -71.0363 -620.377 -0.479315 0.358766 0.800965
27.7246 -63.0311 -617.873 -0.092625 -0.97763 0.188841
-42.3201 -68.2581 -618.989 -0.346462 -0.00446889 0.938053
46.7248 -59.2929 -616.879 0.276984 -0.911484 0.3041
-34.1549 -65.2252 -615.167 -0.409225 0.116483 0.904968
37.0548 -51.5131 -603.586 -0.0558073 -0.467743 0.882101
-135.726 -192.135 -787.321 -0.713905 -0.583979 -0.386404
-137.226 -190.753 -785.709 -0.809351 -0.270517 -0.521316
-137.788 -190.266 -784.935 -0.838484 -0.277083 -0.469223
-138.117 -190.015 -784.532 -0.80584 -0.217638 -0.550686
-137.805 -190.254 -784.917 -0.782964 -0.163403 -0.600222
-138.51 -189.771 -784.131 -0.852832 -0.156914 -0.498052
-138.368 -189.867 -784.288 -0.745396 -0.148921 -0.649775
-139.091 -189.262 -783.323 -0.753814 -0.404869 -0.517539
-139.628 -188.748 -782.513 0.724609 -0.454124 0.518375
-139.534 -188.816 -782.622 -0.833048 -0.330323 -0.443754
-128.131 -187.302 -782.328 0.906651 -0.10049 0.409739
-128.323 -188.034 -782.082 0.763921 -0.209366 0.610402
