ply
format ascii 1.0
element vertex 876
property float x
property float y
property float z
property float nx
property float ny
property float nz
end_header
-1.70789 -4.41314 3.51496 -0.920903 0.291041 -0.259293
-1.70695 -4.505 3.40872 -0.920903 0.291041 -0.259293
-1.7075 -4.54079 3.37057 -0.920903 0.291041 -0.259293
-1.70578 -4.46295 3.45165 -0.920903 0.291041 -0.259293
-1.704 -4.45021 3.45957 -0.920903 0.291041 -0.259293
-1.70313 -4.53115 3.3658 -0.920903 0.291041 -0.259293
-1.70397 -4.40952 3.50505 -0.920903 0.291041 -0.259293
-1.70065 -4.50521 3.38604 -0.920903 0.291041 -0.259293
-1.70332 -4.39467 3.51938 -0.920903 0.291041 -0.259293
-1.70461 -4.28648 3.64517 -0.920903 0.291041 -0.259293
-1.69652 -4.54157 3.33059 -0.920903 0.291041 -0.259293
-1.69551 -4.51797 3.35344 -0.920903 0.291041 -0.259293
-1.6999 -4.36609 3.53923 -0.920903 0.291041 -0.259293
-1.69284 -4.48366 3.38237 -0.920903 0.291041 -0.259293
-1.69879 -4.38967 3.50885 -0.920903 0.291041 -0.259293
-1.69813 -4.34895 3.5521 -0.920903 0.291041 -0.259293
-1.69097 -4.45764 3.40485 -0.920903 0.291041 -0.259293
-1.68626 -4.47322 3.37065 -0.920903 0.291041 -0.259293
-1.70319 -4.27085 3.65764 -0.920903 0.291041 -0.259293
-1.6958 -4.36664 3.52401 -0.920903 0.291041 -0.259293
-1.70059 -4.29132 3.62543 -0.920903 0.291041 -0.259293
-1.68738 -4.43437 3.41817 -0.920903 0.291041 -0.259293
-1.69095 -4.37539 3.49693 -0.920903 0.291041 -0.259293
-1.69743 -4.31383 3.58897 -0.920903 0.291041 -0.259293
-1.69126 -4.35279 3.52335 -0.920903 0.291041 -0.259293
-1.68131 -4.43033 3.40106 -0.920903 0.291041 -0.259293
-1.68848 -4.35941 3.50604 -0.920903 0.291041 -0.259293
-1.67222 -4.47402 3.31975 -0.920903 0.291041 -0.259293
-1.82776 -4.90322 3.39282 -0.920903 0.291041 -0.259293
-1.73249 -4.47811 3.52977 -0.920903 0.291041 -0.259293
-1.74011 -4.42916 3.61175 -0.920903 0.291041 -0.259293
-1.84117 -4.94959 3.38861 -0.920903 0.291041 -0.259293
-1.82549 -4.86973 3.42223 -0.920903 0.291041 -0.259293
-1.74775 -4.68789 3.3491 -0.920903 0.291041 -0.259293
-1.8765 -5.07062 3.37883 -0.920903 0.291041 -0.259293
-1.76295 -4.73833 3.34672 -0.920903 0.291041 -0.259293
-1.7274 -4.48476 3.50423 -0.920903 0.291041 -0.259293
-1.7155 -4.50266 3.44177 -0.920903 0.291041 -0.259293
-1.77126 -4.70176 3.41728 -0.920903 0.291041 -0.259293
-1.82242 -4.81998 3.46705 -0.920903 0.291041 -0.259293
-1.86126 -5.02754 3.37281 -0.920903 0.291041 -0.259293
-1.75227 -4.69211 3.36049 -0.920903 0.291041 -0.259293
-1.74857 -4.51823 3.54208 -0.920903 0.291041 -0.259293
-1.77315 -4.74847 3.37169 -0.920903 0.291041 -0.259293
-1.78899 -4.82229 3.34541 -0.920903 0.291041 -0.259293
-1.74695 -4.46273 3.5985 -0.920903 0.291041 -0.259293
-1.73748 -4.64349 3.3623 -0.920903 0.291041 -0.259293
-1.82736 -4.85858 3.44137 -0.920903 0.291041 -0.259293
-1.76435 -4.68614 3.4102 -0.920903 0.291041 -0.259293
-1.81497 -4.90884 3.34095 -0.920903 0.291041 -0.259293
-1.80555 -4.78601 3.44501 -0.920903 0.291041 -0.259293
-1.73624 -4.67233 3.32557 -0.920903 0.291041 -0.259293
-1.81201 -4.86155 3.38338 -0.920903 0.291041 -0.259293
-1.84205 -4.95948 3.38067 -0.920903 0.291041 -0.259293
-1.82726 -4.90923 3.3843 -0.920903 0.291041 -0.259293
-1.77135 -4.60767 3.52303 -0.920903 0.291041 -0.259293
-1.79541 -4.67811 3.52978 -0.920903 0.291041 -0.259293
-1.86332 -5.04459 3.36105 -0.920903 0.291041 -0.259293
-1.74743 -4.70891 3.32444 -0.920903 0.291041 -0.259293
-1.87374 -5.07817 3.36053 -0.920903 0.291041 -0.259293
-1.84402 -4.9496 3.39873 -0.920903 0.291041 -0.259293
-1.76852 -4.70426 3.40474 -0.920903 0.291041 -0.259293
-1.74583 -4.65273 3.38168 -0.920903 0.291041 -0.259293
-1.77897 -4.72053 3.42373 -0.920903 0.291041 -0.259293
-1.73383 -4.65028 3.34169 -0.920903 0.291041 -0.259293
-1.80222 -4.84826 3.36343 -0.920903 0.291041 -0.259293
-1.72438 -4.63414 3.3261 -0.920903 0.291041 -0.259293
-1.79688 -4.79306 3.40623 -0.920903 0.291041 -0.259293
-1.7185 -4.59159 3.35283 -0.920903 0.291041 -0.259293
-1.80147 -4.82404 3.38788 -0.920903 0.291041 -0.259293
-1.7275 -4.62827 3.3438 -0.920903 0.291041 -0.259293
-1.83986 -4.92399 3.41261 -0.920903 0.291041 -0.259293
-1.75354 -4.6547 3.4069 -0.920903 0.291041 -0.259293
-1.74974 -4.60575 3.44822 -0.920903 0.291041 -0.259293
-1.83632 -4.9128 3.41255 -0.920903 0.291041 -0.259293
-1.80514 -4.72241 3.51482 -0.920903 0.291041 -0.259293
-1.73825 -4.43241 3.60148 -0.920903 0.291041 -0.259293
-1.89338 -5.14556 3.35496 -0.920903 0.291041 -0.259293
-1.72254 -4.49945 3.47046 -0.920903 0.291041 -0.259293
-1.7759 -4.74667 3.3835 -0.920903 0.291041 -0.259293
-1.82085 -4.83616 3.44332 -0.920903 0.291041 -0.259293
-1.76881 -4.72472 3.38284 -0.920903 0.291041 -0.259293
-1.71821 -4.37971 3.58917 -0.920903 0.291041 -0.259293
-1.74544 -4.55476 3.49004 -0.920903 0.291041 -0.259293
-1.79548 -4.75408 3.44492 -0.920903 0.291041 -0.259293
-1.75985 -4.55144 3.54508 -0.920903 0.291041 -0.259293
-1.80024 -4.79133 3.42017 -0.920903 0.291041 -0.259293
-1.82401 -4.81559 3.47761 -0.920903 0.291041 -0.259293
-1.76826 -4.62457 3.49309 -0.920903 0.291041 -0.259293
-1.71157 -4.36492 3.58209 -0.920903 0.291041 -0.259293
-1.84962 -5.0109 3.35002 -0.920903 0.291041 -0.259293
-1.72224 -4.38721 3.5951 -0.920903 0.291041 -0.259293
-1.77968 -4.73371 3.4115 -0.920903 0.291041 -0.259293
-1.71559 -4.40073 3.55629 -0.920903 0.291041 -0.259293
-1.76934 -4.56326 3.5656 -0.920903 0.291041 -0.259293
-1.73332 -4.52711 3.47786 -0.920903 0.291041 -0.259293
-1.72341 -4.4014 3.58339 -0.920903 0.291041 -0.259293
-1.75353 -4.73031 3.32219 -0.920903 0.291041 -0.259293
-1.85984 -5.00694 3.39083 -0.920903 0.291041 -0.259293
-1.79075 -4.81008 3.36535 -0.920903 0.291041 -0.259293
-1.85644 -5.0163 3.36823 -0.920903 0.291041 -0.259293
-1.71038 -4.28154 3.67126 -0.920903 0.291041 -0.259293
-1.82916 -4.89016 3.41243 -0.920903 0.291041 -0.259293
-1.75691 -4.52292 3.56655 -0.920903 0.291041 -0.259293
-1.77871 -4.77957 3.35666 -0.920903 0.291041 -0.259293
-1.73566 -4.46178 3.55935 -0.920903 0.291041 -0.259293
-1.73479 -4.52116 3.48973 -0.920903 0.291041 -0.259293
-1.84678 -4.97947 3.3751 -0.920903 0.291041 -0.259293
-1.796 -4.78228 3.41518 -0.920903 0.291041 -0.259293
-1.7112 -4.40956 3.53078 -0.920903 0.291041 -0.259293
-1.78618 -4.71406 3.45664 -0.920903 0.291041 -0.259293
-1.78683 -4.72724 3.4442 -0.920903 0.291041 -0.259293
-1.74052 -4.59415 3.42837 -0.920903 0.291041 -0.259293
-1.81003 -4.80216 3.44287 -0.920903 0.291041 -0.259293
-1.87204 -5.04855 3.38769 -0.920903 0.291041 -0.259293
-1.7874 -4.68796 3.49024 -0.920903 0.291041 -0.259293
-1.72913 -4.65252 3.32243 -0.920903 0.291041 -0.259293
-1.80328 -4.77637 3.44774 -0.920903 0.291041 -0.259293
-1.72067 -4.31965 3.66522 -0.920903 0.291041 -0.259293
-1.78816 -4.74065 3.4339 -0.920903 0.291041 -0.259293
-1.73146 -4.60515 3.38379 -0.920903 0.291041 -0.259293
-1.72882 -4.4623 3.53442 -0.920903 0.291041 -0.259293
-1.7738 -4.63512 3.50101 -0.920903 0.291041 -0.259293
-1.816 -4.78791 3.48011 -0.920903 0.291041 -0.259293
-1.71375 -4.29332 3.67007 -0.920903 0.291041 -0.259293
-1.78932 -4.67202 3.51492 -0.920903 0.291041 -0.259293
-1.74298 -4.52354 3.51623 -0.920903 0.291041 -0.259293
-1.78065 -4.81718 3.32143 -0.920903 0.291041 -0.259293
-1.70971 -4.354 3.58772 -0.920903 0.291041 -0.259293
-1.74868 -4.6337 3.41313 -0.920903 0.291041 -0.259293
-1.73842 -4.6263 3.38488 -0.920903 0.291041 -0.259293
-1.72744 -4.36669 3.63661 -0.920903 0.291041 -0.259293
-1.88086 -5.08407 3.37928 -0.920903 0.291041 -0.259293
-1.72311 -4.57865 3.38374 -0.920903 0.291041 -0.259293
-1.74412 -4.47723 3.57216 -0.920903 0.291041 -0.259293
-1.71835 -4.5834 3.36148 -0.920903 0.291041 -0.259293
-1.75814 -4.71017 3.36113 -0.920903 0.291041 -0.259293
-1.7471 -4.61934 3.42358 -0.920903 0.291041 -0.259293
-1.80121 -4.85365 3.35378 -0.920903 0.291041 -0.259293
-1.74823 -4.50349 3.55739 -0.920903 0.291041 -0.259293
-1.75966 -4.53879 3.55856 -0.920903 0.291041 -0.259293
-1.74427 -4.67615 3.34988 -0.920903 0.291041 -0.259293
-1.74347 -4.61831 3.41182 -0.920903 0.291041 -0.259293
-1.76327 -4.56388 3.5433 -0.920903 0.291041 -0.259293
-1.76589 -4.63155 3.47681 -0.920903 0.291041 -0.259293
-1.73345 -4.62935 3.36377 -0.920903 0.291041 -0.259293
-1.72891 -4.49388 3.49936 -0.920903 0.291041 -0.259293
-1.79907 -4.78269 3.42567 -0.920903 0.291041 -0.259293
-1.73647 -4.54535 3.46865 -0.920903 0.291041 -0.259293
-1.75797 -4.74509 3.32141 -0.920903 0.291041 -0.259293
-1.78813 -4.75343 3.41948 -0.920903 0.291041 -0.259293
-1.73631 -4.47339 3.54868 -0.920903 0.291041 -0.259293
-1.77947 -4.64119 3.5144 -0.920903 0.291041 -0.259293
-1.72366 -4.44969 3.53017 -0.920903 0.291041 -0.259293
-1.80918 -4.88165 3.35079 -0.920903 0.291041 -0.259293
-1.84738 -5.00139 3.35269 -0.920903 0.291041 -0.259293
-1.70898 -4.32747 3.61484 -0.920903 0.291041 -0.259293
-1.75928 -4.57616 3.51532 -0.920903 0.291041 -0.259293
-1.68833 -4.33793 3.52956 -0.920903 0.291041 -0.259293
-1.67143 -4.4504 3.34339 -0.920903 0.291041 -0.259293
-1.68086 -4.39164 3.44279 -0.920903 0.291041 -0.259293
-1.68995 -4.32346 3.55153 -0.920903 0.291041 -0.259293
-1.66824 -4.43293 3.35158 -0.920903 0.291041 -0.259293
-1.67537 -4.38498 3.43072 -0.920903 0.291041 -0.259293
-1.69857 -4.27047 3.64161 -0.920903 0.291041 -0.259293
-1.66273 -4.43997 3.32409 -0.920903 0.291041 -0.259293
-1.59876 -4.69278 2.81308 -0.920903 0.291041 -0.259293
-1.58212 -4.76802 2.66955 -0.920903 0.291041 -0.259293
-1.58967 -4.74441 2.72288 -0.920903 0.291041 -0.259293
-1.66946 -4.39704 3.39616 -0.920903 0.291041 -0.259293
-1.67258 -4.36965 3.43796 -0.920903 0.291041 -0.259293
-1.67796 -4.35686 3.47145 -0.920903 0.291041 -0.259293
-1.57153 -4.80715 2.588 -0.920903 0.291041 -0.259293
-1.59025 -4.72493 2.74679 -0.920903 0.291041 -0.259293
-1.59208 -4.70659 2.77384 -0.920903 0.291041 -0.259293
-1.66438 -4.3871 3.38919 -0.920903 0.291041 -0.259293
-1.66745 -4.37545 3.41318 -0.920903 0.291041 -0.259293
-1.57258 -4.78635 2.61504 -0.920903 0.291041 -0.259293
-1.58704 -4.70339 2.75946 -0.920903 0.291041 -0.259293
-1.57532 -4.78112 2.63066 -0.920903 0.291041 -0.259293
-1.67482 -4.33459 3.48518 -0.920903 0.291041 -0.259293
-1.66493 -4.37974 3.39939 -0.920903 0.291041 -0.259293
-1.68255 -4.31357 3.53626 -0.920903 0.291041 -0.259293
-1.58936 -4.68561 2.78764 -0.920903 0.291041 -0.259293
-1.57986 -4.72701 2.70743 -0.920903 0.291041 -0.259293
-1.5791 -4.73983 2.69037 -0.920903 0.291041 -0.259293
-1.67086 -4.34488 3.45957 -0.920903 0.291041 -0.259293
-1.58454 -4.66935 2.78869 -0.920903 0.291041 -0.259293
-1.5651 -4.81746 2.55356 -0.920903 0.291041 -0.259293
-1.67305 -4.32375 3.49105 -0.920903 0.291041 -0.259293
-1.6661 -4.34635 3.44095 -0.920903 0.291041 -0.259293
-1.6599 -4.36397 3.39914 -0.920903 0.291041 -0.259293
-1.56889 -4.77296 2.61689 -0.920903 0.291041 -0.259293
-1.58871 -4.63292 2.84435 -0.920903 0.291041 -0.259293
-1.64017 -4.39925 3.28938 -0.920903 0.291041 -0.259293
-1.65148 -4.36651 3.36634 -0.920903 0.291041 -0.259293
-1.57861 -4.66444 2.7731 -0.920903 0.291041 -0.259293
-1.65796 -4.33965 3.41951 -0.920903 0.291041 -0.259293
-1.63729 -4.38308 3.29723 -0.920903 0.291041 -0.259293
-1.66089 -4.33447 3.43574 -0.920903 0.291041 -0.259293
-1.57689 -4.6344 2.80063 -0.920903 0.291041 -0.259293
-1.57015 -4.73467 2.66427 -0.920903 0.291041 -0.259293
-1.69163 -4.26464 3.62343 -0.920903 0.291041 -0.259293
-1.6395 -4.37249 3.31697 -0.920903 0.291041 -0.259293
-1.57399 -4.64577 2.77756 -0.920903 0.291041 -0.259293
-1.57221 -4.68274 2.72979 -0.920903 0.291041 -0.259293
-1.65575 -4.3261 3.4268 -0.920903 0.291041 -0.259293
-1.64026 -4.35377 3.34064 -0.920903 0.291041 -0.259293
-1.56216 -4.77633 2.58917 -0.920903 0.291041 -0.259293
-1.56632 -4.73063 2.65518 -0.920903 0.291041 -0.259293
-1.6726 -4.29333 3.52353 -0.920903 0.291041 -0.259293
-1.63415 -4.35817 3.31397 -0.920903 0.291041 -0.259293
-1.55932 -4.8081 2.54348 -0.920903 0.291041 -0.259293
-1.56755 -4.67359 2.72346 -0.920903 0.291041 -0.259293
-1.57165 -4.59212 2.82932 -0.920903 0.291041 -0.259293
-1.70427 -4.23917 3.69696 -0.920903 0.291041 -0.259293
-1.67648 -4.28302 3.54888 -0.920903 0.291041 -0.259293
-1.56359 -4.68014 2.70203 -0.920903 0.291041 -0.259293
-1.56293 -4.71093 2.66519 -0.920903 0.291041 -0.259293
-1.56365 -4.68773 2.69373 -0.920903 0.291041 -0.259293
-1.65399 -4.31071 3.43777 -0.920903 0.291041 -0.259293
-1.6635 -4.29516 3.48906 -0.920903 0.291041 -0.259293
-1.56152 -4.66958 2.70646 -0.920903 0.291041 -0.259293
-1.55877 -4.78166 2.57111 -0.920903 0.291041 -0.259293
-1.55999 -4.73919 2.62305 -0.920903 0.291041 -0.259293
-1.62858 -4.33889 3.31575 -0.920903 0.291041 -0.259293
-1.65448 -4.30261 3.44861 -0.920903 0.291041 -0.259293
-1.55868 -4.75372 2.60209 -0.920903 0.291041 -0.259293
-1.56124 -4.58161 2.80402 -0.920903 0.291041 -0.259293
-1.6211 -4.33504 3.29342 -0.920903 0.291041 -0.259293
-1.63181 -4.32273 3.34534 -0.920903 0.291041 -0.259293
-1.56077 -4.56357 2.82257 -0.920903 0.291041 -0.259293
-1.55913 -4.593 2.78376 -0.920903 0.291041 -0.259293
-1.67192 -4.2749 3.54174 -0.920903 0.291041 -0.259293
-1.64535 -4.30209 3.41667 -0.920903 0.291041 -0.259293
-1.55752 -4.61764 2.75043 -0.920903 0.291041 -0.259293
-1.67731 -4.26611 3.57079 -0.920903 0.291041 -0.259293
-1.68487 -4.25838 3.60636 -0.920903 0.291041 -0.259293
-1.55599 -4.62255 2.73947 -0.920903 0.291041 -0.259293
-1.5556 -4.7649 2.57862 -0.920903 0.291041 -0.259293
-1.626 -4.30906 3.33994 -0.920903 0.291041 -0.259293
-1.63241 -4.30543 3.36683 -0.920903 0.291041 -0.259293
-1.55369 -4.57823 2.78093 -0.920903 0.291041 -0.259293
-1.55446 -4.67534 2.67487 -0.920903 0.291041 -0.259293
-1.64376 -4.29227 3.42202 -0.920903 0.291041 -0.259293
-1.55381 -4.70732 2.63675 -0.920903 0.291041 -0.259293
-1.54973 -4.57497 2.77046 -0.920903 0.291041 -0.259293
-1.5508 -4.62484 2.7184 -0.920903 0.291041 -0.259293
-1.64405 -4.28555 3.43056 -0.920903 0.291041 -0.259293
-1.56864 -4.30456 3.14073 -0.920903 0.291041 -0.259293
-1.66515 -4.24406 3.55219 -0.920903 0.291041 -0.259293
-1.62723 -4.2279 3.43526 -0.920903 0.291041 -0.259293
-1.52546 -4.20087 3.10316 -0.920903 0.291041 -0.259293
-1.45618 -4.05799 3.01649 -0.920903 0.291041 -0.259293
-1.62631 -4.26346 3.39215 -0.920903 0.291041 -0.259293
-1.57658 -4.21275 3.27188 -0.920903 0.291041 -0.259293
-1.59621 -4.19466 3.36202 -0.920903 0.291041 -0.259293
-1.49408 -4.1267 3.07448 -0.920903 0.291041 -0.259293
-1.65136 -4.27392 3.46962 -0.920903 0.291041 -0.259293
-1.49079 -4.14154 3.04615 -0.920903 0.291041 -0.259293
-1.4793 -4.09489 3.05749 -0.920903 0.291041 -0.259293
-1.56231 -4.2784 3.14751 -0.920903 0.291041 -0.259293
-1.54144 -4.21222 3.14734 -0.920903 0.291041 -0.259293
-1.57169 -4.17727 3.29419 -0.920903 0.291041 -0.259293
-1.56277 -4.16719 3.27375 -0.920903 0.291041 -0.259293
-1.59044 -4.2933 3.23099 -0.920903 0.291041 -0.259293
-1.55832 -4.2678 3.14518 -0.920903 0.291041 -0.259293
-1.43001 -4.01812 2.96797 -0.920903 0.291041 -0.259293
-1.65352 -4.23859 3.51691 -0.920903 0.291041 -0.259293
-1.6595 -4.23632 3.54073 -0.920903 0.291041 -0.259293
-1.65807 -4.20981 3.56534 -0.920903 0.291041 -0.259293
-1.52939 -4.20028 3.11781 -0.920903 0.291041 -0.259293
-1.43207 -4.0359 2.95538 -0.920903 0.291041 -0.259293
-1.49924 -4.16166 3.05372 -0.920903 0.291041 -0.259293
-1.61676 -4.22858 3.3972 -0.920903 0.291041 -0.259293
-1.41055 -4.02496 2.89102 -0.920903 0.291041 -0.259293
-1.56689 -4.19665 3.25541 -0.920903 0.291041 -0.259293
-1.59322 -4.25868 3.27966 -0.920903 0.291041 -0.259293
-1.64274 -4.19694 3.52517 -0.920903 0.291041 -0.259293
-1.59139 -4.2244 3.31156 -0.920903 0.291041 -0.259293
-1.63588 -4.20985 3.48628 -0.920903 0.291041 -0.259293
-1.5788 -4.23188 3.25834 -0.920903 0.291041 -0.259293
-1.51808 -4.09965 3.19027 -0.920903 0.291041 -0.259293
-1.61397 -4.29251 3.31567 -0.920903 0.291041 -0.259293
-1.56861 -4.18303 3.27678 -0.920903 0.291041 -0.259293
-1.55916 -4.21605 3.20615 -0.920903 0.291041 -0.259293
-1.59208 -4.20598 3.33466 -0.920903 0.291041 -0.259293
-1.50568 -4.1285 3.1138 -0.920903 0.291041 -0.259293
-1.64841 -4.23955 3.49762 -0.920903 0.291041 -0.259293
-1.45495 -4.03548 3.03735 -0.920903 0.291041 -0.259293
-1.46931 -4.08735 3.03035 -0.920903 0.291041 -0.259293
-1.38283 -3.98128 2.84126 -0.920903 0.291041 -0.259293
-1.55215 -4.16745 3.23562 -0.920903 0.291041 -0.259293
-1.66784 -4.24145 3.5647 -0.920903 0.291041 -0.259293
-1.52284 -4.09848 3.20853 -0.920903 0.291041 -0.259293
-1.66166 -4.25933 3.52266 -0.920903 0.291041 -0.259293
-1.6135 -4.2668 3.34278 -0.920903 0.291041 -0.259293
-1.5762 -4.17641 3.31122 -0.920903 0.291041 -0.259293
-1.63278 -4.28869 3.38694 -0.920903 0.291041 -0.259293
-1.6724 -4.24891 3.57256 -0.920903 0.291041 -0.259293
-1.54287 -4.25185 3.10804 -0.920903 0.291041 -0.259293
-1.52769 -4.11635 3.20577 -0.920903 0.291041 -0.259293
-1.65359 -4.20009 3.56027 -0.920903 0.291041 -0.259293
-1.62419 -4.26626 3.38145 -0.920903 0.291041 -0.259293
-1.5494 -4.18085 3.21082 -0.920903 0.291041 -0.259293
-1.67971 -4.25278 3.59428 -0.920903 0.291041 -0.259293
-1.53899 -4.22071 3.12909 -0.920903 0.291041 -0.259293
-1.60581 -4.27812 3.30272 -0.920903 0.291041 -0.259293
-1.63011 -4.18383 3.4949 -0.920903 0.291041 -0.259293
-1.55596 -4.24495 3.16238 -0.920903 0.291041 -0.259293
-1.48837 -4.14671 3.03173 -0.920903 0.291041 -0.259293
-1.53139 -4.19684 3.12877 -0.920903 0.291041 -0.259293
-1.5557 -4.12409 3.29685 -0.920903 0.291041 -0.259293
-1.51219 -4.13661 3.12788 -0.920903 0.291041 -0.259293
-1.55516 -4.14157 3.27535 -0.920903 0.291041 -0.259293
-1.52855 -4.13388 3.18917 -0.920903 0.291041 -0.259293
-1.47523 -4.12803 3.00588 -0.920903 0.291041 -0.259293
-1.60306 -4.20101 3.37933 -0.920903 0.291041 -0.259293
-1.52164 -4.13274 3.16588 -0.920903 0.291041 -0.259293
-1.44183 -4.03043 2.99629 -0.920903 0.291041 -0.259293
-1.5605 -4.25855 3.16329 -0.920903 0.291041 -0.259293
-1.59628 -4.29482 3.25008 -0.920903 0.291041 -0.259293
-1.64072 -4.2313 3.4795 -0.920903 0.291041 -0.259293
-1.65428 -4.22845 3.53097 -0.920903 0.291041 -0.259293
-1.60848 -4.19125 3.40956 -0.920903 0.291041 -0.259293
-1.59577 -4.25221 3.29601 -0.920903 0.291041 -0.259293
-1.58929 -4.30717 3.21136 -0.920903 0.291041 -0.259293
-1.48605 -4.08015 3.09804 -0.920903 0.291041 -0.259293
-1.43319 -4.04788 2.94598 -0.920903 0.291041 -0.259293
-1.52107 -4.08762 3.21437 -0.920903 0.291041 -0.259293
-1.51129 -4.18858 3.06646 -0.920903 0.291041 -0.259293
-1.60358 -4.22454 3.35479 -0.920903 0.291041 -0.259293
-1.58274 -4.20738 3.29982 -0.920903 0.291041 -0.259293
-1.38006 -3.98317 2.82927 -0.920903 0.291041 -0.259293
-1.56905 -4.24513 3.2088 -0.920903 0.291041 -0.259293
-1.57478 -4.13046 3.35765 -0.920903 0.291041 -0.259293
-1.5338 -4.13153 3.21053 -0.920903 0.291041 -0.259293
-1.61866 -4.20072 3.4352 -0.920903 0.291041 -0.259293
-1.58564 -4.29074 3.21675 -0.920903 0.291041 -0.259293
-1.52208 -4.16572 3.13047 -0.920903 0.291041 -0.259293
-1.58359 -4.16447 3.35093 -0.920903 0.291041 -0.259293
-1.63657 -4.19511 3.50524 -0.920903 0.291041 -0.259293
-1.42086 -4.01783 2.93572 -0.920903 0.291041 -0.259293
-1.59958 -4.24338 3.31947 -0.920903 0.291041 -0.259293
-1.60237 -4.28972 3.27749 -0.920903 0.291041 -0.259293
-1.63661 -4.28373 3.40611 -0.920903 0.291041 -0.259293
-1.65101 -4.21157 3.53823 -0.920903 0.291041 -0.259293
-1.47812 -4.06937 3.0819 -0.920903 0.291041 -0.259293
-1.6108 -4.27922 3.31924 -0.920903 0.291041 -0.259293
-1.5705 -4.19931 3.26528 -0.920903 0.291041 -0.259293
-1.55078 -4.22865 3.1622 -0.920903 0.291041 -0.259293
-1.58053 -4.29634 3.19227 -0.920903 0.291041 -0.259293
-1.59728 -4.18265 3.3793 -0.920903 0.291041 -0.259293
-1.53033 -4.22051 3.0985 -0.920903 0.291041 -0.259293
-1.48355 -4.06653 3.1044 -0.920903 0.291041 -0.259293
-1.47403 -4.11761 3.01328 -0.920903 0.291041 -0.259293
-1.68019 -4.2443 3.60548 -0.920903 0.291041 -0.259293
-1.47831 -4.11494 3.03151 -0.920903 0.291041 -0.259293
-1.50947 -4.09369 3.16626 -0.920903 0.291041 -0.259293
-1.67112 -4.23479 3.58382 -0.920903 0.291041 -0.259293
-1.64772 -4.22671 3.50954 -0.920903 0.291041 -0.259293
-1.5529 -4.1508 3.25694 -0.920903 0.291041 -0.259293
-1.50238 -4.12779 3.10282 -0.920903 0.291041 -0.259293
-1.57823 -4.15126 3.34662 -0.920903 0.291041 -0.259293
-1.61533 -4.20074 3.42332 -0.920903 0.291041 -0.259293
-1.56538 -4.27862 3.15818 -0.920903 0.291041 -0.259293
-1.53805 -4.16072 3.19296 -0.920903 0.291041 -0.259293
-1.60474 -4.17898 3.40999 -0.920903 0.291041 -0.259293
-1.51665 -4.21254 3.05868 -0.920903 0.291041 -0.259293
-1.67973 -4.22582 3.62452 -0.920903 0.291041 -0.259293
-1.60873 -4.21049 3.38887 -0.920903 0.291041 -0.259293
-1.4797 -4.14758 2.9999 -0.920903 0.291041 -0.259293
-1.58158 -4.18817 3.3172 -0.920903 0.291041 -0.259293
-1.67562 -4.24149 3.59236 -0.920903 0.291041 -0.259293
-1.54463 -4.19975 3.17268 -0.920903 0.291041 -0.259293
-1.58298 -4.26181 3.2397 -0.920903 0.291041 -0.259293
-1.61468 -4.27916 3.33314 -0.920903 0.291041 -0.259293
-1.592 -4.26865 3.26414 -0.920903 0.291041 -0.259293
-1.54729 -4.24314 3.13352 -0.920903 0.291041 -0.259293
-1.55894 -4.28931 3.1233 -0.920903 0.291041 -0.259293
-1.53985 -4.25786 3.09053 -0.920903 0.291041 -0.259293
-1.52138 -4.23409 3.05138 -0.920903 0.291041 -0.259293
-1.46611 -4.13938 2.96069 -0.920903 0.291041 -0.259293
-1.56025 -4.3054 3.10991 -0.920903 0.291041 -0.259293
-1.47427 -4.15592 2.9712 -0.920903 0.291041 -0.259293
-1.50149 -4.20458 3.01363 -0.920903 0.291041 -0.259293
-1.55653 -4.31127 3.0901 -0.920903 0.291041 -0.259293
-1.48596 -4.18041 2.98539 -0.920903 0.291041 -0.259293
-1.5298 -4.26392 3.04797 -0.920903 0.291041 -0.259293
-1.55095 -4.30274 3.0798 -0.920903 0.291041 -0.259293
-1.53734 -4.28376 3.05258 -0.920903 0.291041 -0.259293
-1.49923 -4.21069 2.99874 -0.920903 0.291041 -0.259293
-1.47296 -4.16577 2.95553 -0.920903 0.291041 -0.259293
-1.47942 -4.18283 2.95941 -0.920903 0.291041 -0.259293
-1.4569 -4.13726 2.93024 -0.920903 0.291041 -0.259293
-1.48589 -4.19951 2.96376 -0.920903 0.291041 -0.259293
-1.46866 -4.16558 2.94043 -0.920903 0.291041 -0.259293
-1.38298 -3.99371 2.82787 -0.920903 0.291041 -0.259293
-1.5344 -4.30313 3.02043 -0.920903 0.291041 -0.259293
-1.46149 -4.15705 2.92443 -0.920903 0.291041 -0.259293
-1.50165 -4.24265 2.97157 -0.920903 0.291041 -0.259293
-1.46732 -4.16975 2.93098 -0.920903 0.291041 -0.259293
-1.48885 -4.21597 2.95587 -0.920903 0.291041 -0.259293
-1.44304 -4.12339 2.89645 -0.920903 0.291041 -0.259293
-1.51927 -4.28704 2.98459 -0.920903 0.291041 -0.259293
-1.53186 -4.31574 2.99724 -0.920903 0.291041 -0.259293
-1.49987 -4.25123 2.95559 -0.920903 0.291041 -0.259293
-1.43937 -4.12007 2.8871 -0.920903 0.291041 -0.259293
-1.47588 -4.20196 2.92537 -0.920903 0.291041 -0.259293
-1.51333 -4.28288 2.96807 -0.920903 0.291041 -0.259293
-1.49764 -4.25427 2.94427 -0.920903 0.291041 -0.259293
-1.53428 -4.34467 2.97344 -0.920903 0.291041 -0.259293
-1.42876 -4.10189 2.86968 -0.920903 0.291041 -0.259293
-1.45724 -4.16753 2.89756 -0.920903 0.291041 -0.259293
-1.4135 -4.07001 2.85104 -0.920903 0.291041 -0.259293
-1.38842 -4.01138 2.82745 -0.920903 0.291041 -0.259293
-1.51821 -4.3174 2.94678 -0.920903 0.291041 -0.259293
-1.5246 -4.33489 2.94995 -0.920903 0.291041 -0.259293
-1.48453 -4.2449 2.90807 -0.920903 0.291041 -0.259293
-1.44253 -4.14287 2.8728 -0.920903 0.291041 -0.259293
-1.48969 -4.25473 2.91542 -0.920903 0.291041 -0.259293
-1.52422 -4.34595 2.93621 -0.920903 0.291041 -0.259293
-1.48045 -4.23829 2.90094 -0.920903 0.291041 -0.259293
-1.50606 -4.30147 2.92138 -0.920903 0.291041 -0.259293
-1.53136 -4.36765 2.93731 -0.920903 0.291041 -0.259293
-1.47132 -4.2227 2.88592 -0.920903 0.291041 -0.259293
-1.41328 -4.07736 2.84203 -0.920903 0.291041 -0.259293
-1.50864 -4.3227 2.90678 -0.920903 0.291041 -0.259293
-1.52095 -4.35147 2.91838 -0.920903 0.291041 -0.259293
-1.50078 -4.30732 2.89602 -0.920903 0.291041 -0.259293
-1.39319 -4.03025 2.82327 -0.920903 0.291041 -0.259293
-1.51521 -4.34773 2.90213 -0.920903 0.291041 -0.259293
-1.45705 -4.19846 2.86224 -0.920903 0.291041 -0.259293
-1.49563 -4.30171 2.88395 -0.920903 0.291041 -0.259293
-1.4678 -4.23144 2.86356 -0.920903 0.291041 -0.259293
-1.5203 -4.37504 2.88964 -0.920903 0.291041 -0.259293
-1.49062 -4.29556 2.87301 -0.920903 0.291041 -0.259293
-1.5354 -4.42141 2.89148 -0.920903 0.291041 -0.259293
-1.38535 -4.01217 2.81563 -0.920903 0.291041 -0.259293
-1.51436 -4.36595 2.8787 -0.920903 0.291041 -0.259293
-1.37563 -3.98572 2.81063 -0.920903 0.291041 -0.259293
-1.47792 -4.27022 2.85616 -0.920903 0.291041 -0.259293
-1.4372 -4.15841 2.83643 -0.920903 0.291041 -0.259293
-1.52687 -4.41193 2.87171 -0.920903 0.291041 -0.259293
-1.48078 -4.28447 2.85038 -0.920903 0.291041 -0.259293
-1.50382 -4.35094 2.85797 -0.920903 0.291041 -0.259293
-1.51501 -4.38542 2.85919 -0.920903 0.291041 -0.259293
-1.46164 -4.23347 2.83936 -0.920903 0.291041 -0.259293
-1.45493 -4.21608 2.83497 -0.920903 0.291041 -0.259293
-1.50163 -4.35353 2.84728 -0.920903 0.291041 -0.259293
-1.52265 -4.41697 2.85104 -0.920903 0.291041 -0.259293
-1.49232 -4.32872 2.84192 -0.920903 0.291041 -0.259293
-1.53597 -4.45882 2.85159 -0.920903 0.291041 -0.259293
-1.49322 -4.49976 2.65351 -0.920903 0.291041 -0.259293
-1.51271 -4.61017 2.59922 -0.920903 0.291041 -0.259293
-1.50104 -4.51782 2.66111 -0.920903 0.291041 -0.259293
-1.474 -4.28058 2.83062 -0.920903 0.291041 -0.259293
-1.54275 -4.57974 2.74027 -0.920903 0.291041 -0.259293
-1.46267 -4.39681 2.66007 -0.920903 0.291041 -0.259293
-1.51267 -4.52817 2.69093 -0.920903 0.291041 -0.259293
-1.52064 -4.61158 2.62587 -0.920903 0.291041 -0.259293
-1.40616 -4.09463 2.79733 -0.920903 0.291041 -0.259293
-1.41484 -4.19194 2.71923 -0.920903 0.291041 -0.259293
-1.46061 -4.28937 2.77305 -0.920903 0.291041 -0.259293
-1.41665 -4.16794 2.75256 -0.920903 0.291041 -0.259293
-1.53897 -4.70373 2.58791 -0.920903 0.291041 -0.259293
-1.54263 -4.70025 2.60483 -0.920903 0.291041 -0.259293
-1.50778 -4.59401 2.59977 -0.920903 0.291041 -0.259293
-1.55232 -4.82314 2.50168 -0.920903 0.291041 -0.259293
-1.52887 -4.52889 2.74781 -0.920903 0.291041 -0.259293
-1.45052 -4.34457 2.6753 -0.920903 0.291041 -0.259293
-1.43583 -4.19036 2.79575 -0.920903 0.291041 -0.259293
-1.49935 -4.38246 2.80672 -0.920903 0.291041 -0.259293
-1.55012 -4.73337 2.59442 -0.920903 0.291041 -0.259293
-1.51371 -4.62933 2.5813 -0.920903 0.291041 -0.259293
-1.55256 -4.74691 2.58794 -0.920903 0.291041 -0.259293
-1.51973 -4.64204 2.58852 -0.920903 0.291041 -0.259293
-1.52968 -4.4787 2.80694 -0.920903 0.291041 -0.259293
-1.49155 -4.53227 2.61114 -0.920903 0.291041 -0.259293
-1.53404 -4.67534 2.60216 -0.920903 0.291041 -0.259293
-1.51828 -4.45945 2.78791 -0.920903 0.291041 -0.259293
-1.44322 -4.27888 2.72289 -0.920903 0.291041 -0.259293
-1.42917 -4.23885 2.71772 -0.920903 0.291041 -0.259293
-1.49657 -4.43811 2.7345 -0.920903 0.291041 -0.259293
-1.54281 -4.74306 2.55752 -0.920903 0.291041 -0.259293
-1.48437 -4.39234 2.74233 -0.920903 0.291041 -0.259293
-1.55066 -4.77526 2.54941 -0.920903 0.291041 -0.259293
-1.53907 -4.50634 2.80939 -0.920903 0.291041 -0.259293
-1.46645 -4.36919 2.70443 -0.920903 0.291041 -0.259293
-1.4536 -4.25481 2.78684 -0.920903 0.291041 -0.259293
-1.50676 -4.55268 2.64243 -0.920903 0.291041 -0.259293
-1.44752 -4.25744 2.76225 -0.920903 0.291041 -0.259293
-1.54538 -4.64782 2.67336 -0.920903 0.291041 -0.259293
-1.44771 -4.21606 2.80926 -0.920903 0.291041 -0.259293
-1.47763 -4.39455 2.71584 -0.920903 0.291041 -0.259293
-1.50606 -4.49329 2.70648 -0.920903 0.291041 -0.259293
-1.44835 -4.2017 2.82763 -0.920903 0.291041 -0.259293
-1.54756 -4.81969 2.48859 -0.920903 0.291041 -0.259293
-1.54074 -4.7156 2.58091 -0.920903 0.291041 -0.259293
-1.41164 -4.13125 2.77582 -0.920903 0.291041 -0.259293
-1.49698 -4.37287 2.80904 -0.920903 0.291041 -0.259293
-1.52802 -4.69036 2.56391 -0.920903 0.291041 -0.259293
-1.53943 -4.55572 2.75536 -0.920903 0.291041 -0.259293
-1.48036 -4.29674 2.83514 -0.920903 0.291041 -0.259293
-1.45575 -4.23982 2.81126 -0.920903 0.291041 -0.259293
-1.48483 -4.4515 2.67769 -0.920903 0.291041 -0.259293
-1.54119 -4.75428 2.53921 -0.920903 0.291041 -0.259293
-1.46763 -4.39545 2.67924 -0.920903 0.291041 -0.259293
-1.49151 -4.48065 2.66883 -0.920903 0.291041 -0.259293
-1.46635 -4.30418 2.77692 -0.920903 0.291041 -0.259293
-1.54487 -4.75469 2.55183 -0.920903 0.291041 -0.259293
-1.50768 -4.48862 2.71748 -0.920903 0.291041 -0.259293
-1.54126 -4.54901 2.7694 -0.920903 0.291041 -0.259293
-1.49329 -4.47185 2.68501 -0.920903 0.291041 -0.259293
-1.44337 -4.24626 2.75998 -0.920903 0.291041 -0.259293
-1.52151 -4.53157 2.71862 -0.920903 0.291041 -0.259293
-1.5008 -4.44333 2.74372 -0.920903 0.291041 -0.259293
-1.52936 -4.70936 2.54739 -0.920903 0.291041 -0.259293
-1.51338 -4.43397 2.79899 -0.920903 0.291041 -0.259293
-1.42017 -4.20833 2.71984 -0.920903 0.291041 -0.259293
-1.44715 -4.24163 2.77861 -0.920903 0.291041 -0.259293
-1.48981 -4.45384 2.6928 -0.920903 0.291041 -0.259293
-1.49021 -4.41078 2.74249 -0.920903 0.291041 -0.259293
-1.5394 -4.77462 2.51004 -0.920903 0.291041 -0.259293
-1.53999 -4.58207 2.72786 -0.920903 0.291041 -0.259293
-1.48966 -4.53768 2.59834 -0.920903 0.291041 -0.259293
-1.43956 -4.29929 2.68699 -0.920903 0.291041 -0.259293
-1.45968 -4.26786 2.79387 -0.920903 0.291041 -0.259293
-1.47002 -4.39032 2.6935 -0.920903 0.291041 -0.259293
-1.45567 -4.27236 2.77455 -0.920903 0.291041 -0.259293
-1.51601 -4.41632 2.82812 -0.920903 0.291041 -0.259293
-1.49762 -4.57018 2.59028 -0.920903 0.291041 -0.259293
-1.49375 -4.39908 2.76817 -0.920903 0.291041 -0.259293
-1.52943 -4.67753 2.5833 -0.920903 0.291041 -0.259293
-1.46105 -4.30407 2.75816 -0.920903 0.291041 -0.259293
-1.39467 -4.07469 2.77878 -0.920903 0.291041 -0.259293
-1.5308 -4.70445 2.55802 -0.920903 0.291041 -0.259293
-1.5432 -4.68208 2.62725 -0.920903 0.291041 -0.259293
-1.47089 -4.4387 2.64239 -0.920903 0.291041 -0.259293
-1.46988 -4.35616 2.73125 -0.920903 0.291041 -0.259293
-1.526 -4.5652 2.69691 -0.920903 0.291041 -0.259293
-1.41956 -4.1353 2.79949 -0.920903 0.291041 -0.259293
-1.54505 -4.63157 2.69039 -0.920903 0.291041 -0.259293
-1.53136 -4.44798 2.84734 -0.920903 0.291041 -0.259293
-1.47418 -4.41107 2.68507 -0.920903 0.291041 -0.259293
-1.52994 -4.4521 2.83765 -0.920903 0.291041 -0.259293
-1.53355 -4.50502 2.79123 -0.920903 0.291041 -0.259293
-1.53978 -4.47825 2.8434 -0.920903 0.291041 -0.259293
-1.52916 -4.51704 2.76213 -0.920903 0.291041 -0.259293
-1.46115 -4.25317 2.81557 -0.920903 0.291041 -0.259293
-1.50514 -4.61319 2.56889 -0.920903 0.291041 -0.259293
-1.44339 -4.21837 2.79128 -0.920903 0.291041 -0.259293
-1.49916 -4.48798 2.68787 -0.920903 0.291041 -0.259293
-1.53707 -4.55872 2.74361 -0.920903 0.291041 -0.259293
-1.42975 -4.25569 2.7009 -0.920903 0.291041 -0.259293
-1.43837 -4.23851 2.75087 -0.920903 0.291041 -0.259293
-1.54647 -4.79344 2.51414 -0.920903 0.291041 -0.259293
-1.46817 -4.44063 2.63056 -0.920903 0.291041 -0.259293
-1.50542 -4.43762 2.76657 -0.920903 0.291041 -0.259293
-1.51244 -4.46974 2.7556 -0.920903 0.291041 -0.259293
-1.48638 -4.37808 2.76546 -0.920903 0.291041 -0.259293
-1.40189 -4.07866 2.80002 -0.920903 0.291041 -0.259293
-1.50657 -4.60626 2.58175 -0.920903 0.291041 -0.259293
-1.53514 -4.52441 2.77517 -0.920903 0.291041 -0.259293
-1.52314 -4.47987 2.78233 -0.920903 0.291041 -0.259293
-1.53058 -4.65695 2.61046 -0.920903 0.291041 -0.259293
-1.5133 -4.40537 2.83076 -0.920903 0.291041 -0.259293
-1.47787 -4.45492 2.64909 -0.920903 0.291041 -0.259293
-1.53551 -4.5961 2.69617 -0.920903 0.291041 -0.259293
-1.53389 -4.54201 2.751 -0.920903 0.291041 -0.259293
-1.46073 -4.36408 2.68982 -0.920903 0.291041 -0.259293
-1.52011 -4.5568 2.68536 -0.920903 0.291041 -0.259293
-1.4504 -4.27387 2.75408 -0.920903 0.291041 -0.259293
-1.47321 -4.46289 2.62356 -0.920903 0.291041 -0.259293
-1.47375 -4.38841 2.70892 -0.920903 0.291041 -0.259293
-1.43382 -4.25464 2.71656 -0.920903 0.291041 -0.259293
-1.50505 -4.50308 2.69191 -0.920903 0.291041 -0.259293
-1.49067 -4.41886 2.73505 -0.920903 0.291041 -0.259293
-1.41871 -4.15014 2.77983 -0.920903 0.291041 -0.259293
-1.47739 -4.46426 2.63692 -0.920903 0.291041 -0.259293
-1.4261 -4.14717 2.80947 -0.920903 0.291041 -0.259293
-1.52359 -4.64356 2.60056 -0.920903 0.291041 -0.259293
-1.53063 -4.71939 2.54069 -0.920903 0.291041 -0.259293
-1.52049 -4.68564 2.54239 -0.920903 0.291041 -0.259293
-1.43244 -4.20265 2.7699 -0.920903 0.291041 -0.259293
-1.49274 -4.43379 2.72568 -0.920903 0.291041 -0.259293
-1.38633 -4.05525 2.77083 -0.920903 0.291041 -0.259293
-1.50164 -4.37698 2.82102 -0.920903 0.291041 -0.259293
-1.5163 -4.44618 2.79572 -0.920903 0.291041 -0.259293
-0.610229 -4.93349 2.79392 0.338557 0.276747 -0.899328
-0.629907 -5.09661 2.73652 0.338557 0.276747 -0.899328
-0.808609 -4.7969 2.76093 0.338557 0.276747 -0.899328
-0.58565 -4.28831 3.00086 0.338557 0.276747 -0.899328
-0.48286 -4.3188 3.03029 0.338557 0.276747 -0.899328
-0.867092 -4.13109 2.94287 0.338557 0.276747 -0.899328
-0.646043 -4.51782 2.90776 0.338557 0.276747 -0.899328
-0.573729 -4.40888 2.96842 0.338557 0.276747 -0.899328
-0.756208 -4.33146 2.9233 0.338557 0.276747 -0.899328
-0.819933 -4.60897 2.81424 0.338557 0.276747 -0.899328
-0.710333 -5.0006 2.7356 0.338557 0.276747 -0.899328
-0.945027 -4.56927 2.77922 0.338557 0.276747 -0.899328
-1.25655 -4.0709 2.8144 0.338557 0.276747 -0.899328
-1.09813 -4.27755 2.81084 0.338557 0.276747 -0.899328
-0.642899 -4.36224 2.95661 0.338557 0.276747 -0.899328
-0.921677 -4.55703 2.79178 0.338557 0.276747 -0.899328
-1.15969 -4.04389 2.85921 0.338557 0.276747 -0.899328
-0.902181 -4.12441 2.93168 0.338557 0.276747 -0.899328
-1.01203 -4.08897 2.9011 0.338557 0.276747 -0.899328
-0.85111 -4.42869 2.85771 0.338557 0.276747 -0.899328
-0.597609 -4.53155 2.92182 0.338557 0.276747 -0.899328
-0.809912 -4.82915 2.75056 0.338557 0.276747 -0.899328
-0.648731 -4.89758 2.7904 0.338557 0.276747 -0.899328
-0.716626 -4.88841 2.76759 0.338557 0.276747 -0.899328
-1.09888 -4.36295 2.7844 0.338557 0.276747 -0.899328
-0.89104 -4.13021 2.9341 0.338557 0.276747 -0.899328
-0.663966 -5.11559 2.71785 0.338557 0.276747 -0.899328
-0.637842 -4.97395 2.77111 0.338557 0.276747 -0.899328
-1.01196 -4.49534 2.77662 0.338557 0.276747 -0.899328
-0.57342 -4.2148 3.028 0.338557 0.276747 -0.899328
-0.763156 -4.92842 2.73778 0.338557 0.276747 -0.899328
-1.00304 -4.4909 2.78135 0.338557 0.276747 -0.899328
-0.593397 -4.23895 3.01306 0.338557 0.276747 -0.899328
-0.563797 -4.41352 2.97074 0.338557 0.276747 -0.899328
-0.98152 -4.47592 2.79405 0.338557 0.276747 -0.899328
-0.644045 -5.02946 2.75176 0.338557 0.276747 -0.899328
-0.494311 -4.38518 3.00564 0.338557 0.276747 -0.899328
-1.01208 -4.24971 2.85183 0.338557 0.276747 -0.899328
-0.701658 -4.45812 2.90507 0.338557 0.276747 -0.899328
-0.835106 -4.21077 2.93052 0.338557 0.276747 -0.899328
-1.00137 -4.31128 2.83701 0.338557 0.276747 -0.899328
-0.595827 -4.89776 2.8103 0.338557 0.276747 -0.899328
-0.66472 -4.20006 2.99807 0.338557 0.276747 -0.899328
-0.886455 -4.54424 2.80898 0.338557 0.276747 -0.899328
-1.01018 -4.26765 2.84705 0.338557 0.276747 -0.899328
-0.787579 -4.66652 2.80881 0.338557 0.276747 -0.899328
-0.524096 -4.54639 2.94501 0.338557 0.276747 -0.899328
-0.611342 -4.68993 2.86812 0.338557 0.276747 -0.899328
-1.07615 -4.37781 2.78842 0.338557 0.276747 -0.899328
-0.645708 -4.80522 2.81983 0.338557 0.276747 -0.899328
-1.15285 -4.15389 2.82809 0.338557 0.276747 -0.899328
-0.883464 -4.23204 2.90576 0.338557 0.276747 -0.899328
-0.768341 -4.51857 2.8614 0.338557 0.276747 -0.899328
-0.541784 -4.43578 2.97222 0.338557 0.276747 -0.899328
-0.719347 -4.72266 2.81735 0.338557 0.276747 -0.899328
-0.480047 -4.2984 3.0376 0.338557 0.276747 -0.899328
-1.03603 -4.26857 2.83702 0.338557 0.276747 -0.899328
-0.595701 -4.84923 2.82521 0.338557 0.276747 -0.899328
-0.582054 -4.76141 2.85727 0.338557 0.276747 -0.899328
-1.286 -4.06419 2.80535 0.338557 0.276747 -0.899328
-1.06427 -4.36315 2.79739 0.338557 0.276747 -0.899328
-0.635627 -5.10567 2.73158 0.338557 0.276747 -0.899328
-0.735952 -4.85139 2.77165 0.338557 0.276747 -0.899328
-0.568022 -4.26033 3.01608 0.338557 0.276747 -0.899328
-0.886645 -4.16443 2.92528 0.338557 0.276747 -0.899328
-0.711868 -4.41356 2.91488 0.338557 0.276747 -0.899328
-0.75113 -4.53443 2.86303 0.338557 0.276747 -0.899328
-0.638538 -4.77233 2.83261 0.338557 0.276747 -0.899328
-1.0466 -4.11574 2.87986 0.338557 0.276747 -0.899328
-0.651357 -4.18729 3.00702 0.338557 0.276747 -0.899328
-1.24357 -4.04557 2.82706 0.338557 0.276747 -0.899328
-0.725618 -4.24299 2.96195 0.338557 0.276747 -0.899328
-0.560529 -4.2782 3.01343 0.338557 0.276747 -0.899328
-1.16996 -4.21362 2.80333 0.338557 0.276747 -0.899328
-0.804908 -4.3434 2.90127 0.338557 0.276747 -0.899328
-1.06149 -4.14674 2.86474 0.338557 0.276747 -0.899328
-0.907995 -4.47577 2.82183 0.338557 0.276747 -0.899328
-0.535268 -4.35777 2.99858 0.338557 0.276747 -0.899328
-1.00518 -4.33409 2.82858 0.338557 0.276747 -0.899328
-0.713638 -4.2675 2.95896 0.338557 0.276747 -0.899328
-0.603837 -4.98965 2.77912 0.338557 0.276747 -0.899328
-0.734798 -4.91875 2.75144 0.338557 0.276747 -0.899328
-0.702029 -4.50809 2.88962 0.338557 0.276747 -0.899328
-0.885136 -4.38035 2.85969 0.338557 0.276747 -0.899328
-0.549755 -4.29435 3.01255 0.338557 0.276747 -0.899328
-0.702773 -5.01259 2.73477 0.338557 0.276747 -0.899328
-0.90206 -4.59338 2.78804 0.338557 0.276747 -0.899328
-0.66956 -4.67676 2.85019 0.338557 0.276747 -0.899328
-1.15791 -4.22818 2.80342 0.338557 0.276747 -0.899328
-0.722525 -4.47104 2.89324 0.338557 0.276747 -0.899328
-1.13331 -4.13459 2.84137 0.338557 0.276747 -0.899328
-0.660037 -4.47499 2.91561 0.338557 0.276747 -0.899328
-1.04021 -4.47398 2.77251 0.338557 0.276747 -0.899328
-0.684956 -4.47073 2.90751 0.338557 0.276747 -0.899328
-0.702298 -4.4451 2.90882 0.338557 0.276747 -0.899328
-0.67372 -4.5978 2.87282 0.338557 0.276747 -0.899328
-0.876258 -4.2864 2.89182 0.338557 0.276747 -0.899328
-0.692256 -4.32652 2.94894 0.338557 0.276747 -0.899328
-0.807873 -4.32103 2.90701 0.338557 0.276747 -0.899328
-0.676259 -4.4391 2.92048 0.338557 0.276747 -0.899328
-1.21711 -4.11704 2.81514 0.338557 0.276747 -0.899328
-0.896307 -4.5717 2.79685 0.338557 0.276747 -0.899328
-0.770936 -4.60909 2.83269 0.338557 0.276747 -0.899328
-0.907593 -4.2498 2.89122 0.338557 0.276747 -0.899328
-0.807573 -4.74102 2.77844 0.338557 0.276747 -0.899328
-0.758903 -4.26014 2.94414 0.338557 0.276747 -0.899328
-0.90388 -4.317 2.87203 0.338557 0.276747 -0.899328
-0.668759 -4.25267 2.98043 0.338557 0.276747 -0.899328
-1.235 -4.06307 2.82493 0.338557 0.276747 -0.899328
-1.06129 -4.19072 2.85134 0.338557 0.276747 -0.899328
-0.826322 -4.38609 2.88012 0.338557 0.276747 -0.899328
-0.968621 -4.53132 2.78194 0.338557 0.276747 -0.899328
-0.81161 -4.39634 2.88253 0.338557 0.276747 -0.899328
-0.715568 -4.24226 2.96596 0.338557 0.276747 -0.899328
-1.29235 -4.04873 2.80769 0.338557 0.276747 -0.899328
-0.588124 -4.93142 2.80289 0.338557 0.276747 -0.899328
-0.948309 -4.29854 2.86093 0.338557 0.276747 -0.899328
-0.682323 -4.83999 2.79537 0.338557 0.276747 -0.899328
-0.518907 -4.4247 2.98425 0.338557 0.276747 -0.899328
-1.0815 -4.23473 2.83023 0.338557 0.276747 -0.899328
-0.521001 -4.34894 3.00667 0.338557 0.276747 -0.899328
-1.07401 -4.19376 2.84561 0.338557 0.276747 -0.899328
-0.891818 -4.47527 2.82809 0.338557 0.276747 -0.899328
-0.759727 -4.95319 2.73149 0.338557 0.276747 -0.899328
-0.822242 -4.82812 2.74623 0.338557 0.276747 -0.899328
-0.874155 -4.52055 2.82088 0.338557 0.276747 -0.899328
-1.04087 -4.33094 2.81608 0.338557 0.276747 -0.899328
-1.03808 -4.48907 2.76869 0.338557 0.276747 -0.899328
-0.958387 -4.19468 2.88895 0.338557 0.276747 -0.899328
-0.525178 -4.46417 2.96979 0.338557 0.276747 -0.899328
-0.792115 -4.87586 2.74296 0.338557 0.276747 -0.899328
-0.595396 -4.42545 2.95517 0.338557 0.276747 -0.899328
-0.686048 -4.60346 2.86643 0.338557 0.276747 -0.899328
-0.608645 -4.87051 2.81381 0.338557 0.276747 -0.899328
-0.659879 -4.22252 2.99302 0.338557 0.276747 -0.899328
-0.943992 -4.26661 2.87234 0.338557 0.276747 -0.899328
-1.03139 -4.29405 2.83096 0.338557 0.276747 -0.899328
-1.14792 -4.22911 2.8069 0.338557 0.276747 -0.899328
-0.713662 -4.80982 2.79279 0.338557 0.276747 -0.899328
-0.842154 -4.41277 2.86597 0.338557 0.276747 -0.899328
-1.33364 -3.99068 2.8099 0.338557 0.276747 -0.899328
-0.758882 -4.8339 2.76835 0.338557 0.276747 -0.899328
-0.831931 -4.36121 2.88563 0.338557 0.276747 -0.899328
-0.728851 -4.99747 2.72957 0.338557 0.276747 -0.899328
-0.955761 -4.52715 2.78807 0.338557 0.276747 -0.899328
-1.18663 -4.04629 2.84831 0.338557 0.276747 -0.899328
-0.618384 -4.43379 2.94394 0.338557 0.276747 -0.899328
-0.864792 -4.53551 2.81983 0.338557 0.276747 -0.899328
-0.863291 -4.29139 2.89519 0.338557 0.276747 -0.899328
-0.804628 -4.14873 2.96102 0.338557 0.276747 -0.899328
-0.936854 -4.58696 2.77688 0.338557 0.276747 -0.899328
-1.25489 -4.09095 2.80888 0.338557 0.276747 -0.899328
-1.11269 -4.09076 2.86258 0.338557 0.276747 -0.899328
-0.784091 -4.33573 2.91148 0.338557 0.276747 -0.899328
-0.859245 -4.24792 2.91003 0.338557 0.276747 -0.899328
-0.642676 -4.2728 2.9841 0.338557 0.276747 -0.899328
-0.568305 -4.84326 2.83737 0.338557 0.276747 -0.899328
-0.847948 -4.75351 2.75939 0.338557 0.276747 -0.899328
-0.7231 -4.58865 2.85699 0.338557 0.276747 -0.899328
-0.923673 -4.26054 2.88186 0.338557 0.276747 -0.899328
-0.586587 -4.58135 2.91072 0.338557 0.276747 -0.899328
-0.553727 -4.48669 2.95212 0.338557 0.276747 -0.899328
-1.01777 -4.34777 2.81964 0.338557 0.276747 -0.899328
-0.82404 -4.18007 2.9441 0.338557 0.276747 -0.899328
-0.683096 -4.3506 2.94502 0.338557 0.276747 -0.899328
-0.505174 -4.43209 2.98717 0.338557 0.276747 -0.899328
-1.23759 -4.03783 2.83168 0.338557 0.276747 -0.899328
-0.704896 -4.33264 2.9423 0.338557 0.276747 -0.899328
-0.64574 -4.31146 2.9711 0.338557 0.276747 -0.899328
-0.969745 -4.55639 2.77384 0.338557 0.276747 -0.899328
-0.909662 -4.19707 2.90659 0.338557 0.276747 -0.899328
-0.618305 -4.28303 2.99016 0.338557 0.276747 -0.899328
-0.740776 -4.29046 2.94168 0.338557 0.276747 -0.899328
-0.692825 -4.9673 2.7524 0.338557 0.276747 -0.899328
-0.770412 -4.42544 2.88915 0.338557 0.276747 -0.899328
-0.821169 -4.4451 2.86398 0.338557 0.276747 -0.899328
-1.03731 -4.43754 2.78477 0.338557 0.276747 -0.899328
-0.729156 -4.26763 2.95306 0.338557 0.276747 -0.899328
-1.15964 -4.05987 2.85434 0.338557 0.276747 -0.899328
-1.12621 -4.1657 2.83452 0.338557 0.276747 -0.899328
-0.857308 -4.78878 2.74505 0.338557 0.276747 -0.899328
-1.21992 -4.07435 2.82716 0.338557 0.276747 -0.899328
-0.770829 -4.67578 2.81229 0.338557 0.276747 -0.899328
-1.17012 -4.10649 2.8361 0.338557 0.276747 -0.899328
-1.2627 -4.02591 2.82586 0.338557 0.276747 -0.899328
-0.974792 -4.18145 2.88681 0.338557 0.276747 -0.899328
-0.579872 -4.34559 2.98549 0.338557 0.276747 -0.899328
-0.721904 -4.33063 2.9365 0.338557 0.276747 -0.899328
-0.632348 -5.02818 2.75656 0.338557 0.276747 -0.899328
-1.07934 -4.08765 2.87612 0.338557 0.276747 -0.899328
-0.688033 -4.75186 2.82022 0.338557 0.276747 -0.899328
-0.942442 -4.31834 2.85707 0.338557 0.276747 -0.899328
-1.11999 -4.05969 2.86935 0.338557 0.276747 -0.899328
-0.629202 -4.78447 2.83242 0.338557 0.276747 -0.899328
-0.520102 -4.28714 3.02595 0.338557 0.276747 -0.899328
-0.518228 -4.52156 2.95483 0.338557 0.276747 -0.899328
-1.06031 -4.42548 2.77979 0.338557 0.276747 -0.899328
-1.04161 -4.36256 2.80612 0.338557 0.276747 -0.899328
-0.603398 -4.34005 2.97831 0.338557 0.276747 -0.899328
-0.871779 -4.11717 2.94536 0.338557 0.276747 -0.899328
-0.712158 -5.0354 2.72424 0.338557 0.276747 -0.899328
-0.677343 -4.70991 2.8371 0.338557 0.276747 -0.899328
-0.57334 -4.69061 2.88225 0.338557 0.276747 -0.899328
-1.0727 -4.14869 2.85992 0.338557 0.276747 -0.899328
-1.35448 -3.97465 2.80695 0.338557 0.276747 -0.899328
-0.895394 -4.67336 2.76605 0.338557 0.276747 -0.899328
-0.774609 -4.55274 2.84856 0.338557 0.276747 -0.899328
-0.874573 -4.24814 2.90418 0.338557 0.276747 -0.899328
-0.984113 -4.37493 2.82402 0.338557 0.276747 -0.899328
-0.889258 -4.58503 2.79542 0.338557 0.276747 -0.899328
-0.827818 -4.52965 2.83557 0.338557 0.276747 -0.899328
-0.554701 -4.32583 3.00104 0.338557 0.276747 -0.899328
-0.786769 -4.65486 2.81269 0.338557 0.276747 -0.899328
-1.08419 -4.2768 2.81633 0.338557 0.276747 -0.899328
-0.609675 -4.66078 2.87768 0.338557 0.276747 -0.899328
-0.629249 -4.51689 2.91438 0.338557 0.276747 -0.899328
-0.535407 -4.40018 2.98554 0.338557 0.276747 -0.899328
-0.700343 -4.30812 2.95153 0.338557 0.276747 -0.899328
-0.732968 -4.41237 2.90728 0.338557 0.276747 -0.899328
-1.31201 -4.00092 2.81492 0.338557 0.276747 -0.899328
-0.615003 -4.24511 3.00302 0.338557 0.276747 -0.899328
-0.701386 -4.66718 2.84112 0.338557 0.276747 -0.899328
-0.860286 -4.63696 2.79044 0.338557 0.276747 -0.899328
-0.702965 -4.74662 2.81619 0.338557 0.276747 -0.899328
-0.549934 -4.51202 2.94579 0.338557 0.276747 -0.899328
-0.632342 -4.79605 2.82768 0.338557 0.276747 -0.899328
-1.00213 -4.25469 2.85406 0.338557 0.276747 -0.899328
-0.779285 -4.57925 2.83868 0.338557 0.276747 -0.899328
-1.00487 -4.12953 2.89137 0.338557 0.276747 -0.899328
-0.951543 -4.24731 2.8754 0.338557 0.276747 -0.899328
-0.716531 -4.7097 2.82238 0.338557 0.276747 -0.899328
-0.650135 -4.94022 2.7768 0.338557 0.276747 -0.899328
-1.03069 -4.11497 2.88609 0.338557 0.276747 -0.899328
-0.583893 -4.77838 2.85137 0.338557 0.276747 -0.899328
-0.825212 -4.40191 2.87569 0.338557 0.276747 -0.899328
-1.05643 -4.05969 2.89332 0.338557 0.276747 -0.899328
-0.675258 -4.48155 2.90785 0.338557 0.276747 -0.899328
-0.965469 -4.57611 2.76941 0.338557 0.276747 -0.899328
-0.767583 -4.73072 2.79668 0.338557 0.276747 -0.899328
-1.2148 -4.10275 2.82039 0.338557 0.276747 -0.899328
-0.700661 -4.71728 2.82605 0.338557 0.276747 -0.899328
-1.12472 -4.31244 2.79013 0.338557 0.276747 -0.899328
-1.00898 -4.54125 2.76368 0.338557 0.276747 -0.899328
-0.459256 -4.3155 3.04021 0.338557 0.276747 -0.899328
-0.599753 -4.46192 2.94235 0.338557 0.276747 -0.899328
-0.782612 -4.61789 2.82559 0.338557 0.276747 -0.899328
-0.688809 -4.82883 2.79634 0.338557 0.276747 -0.899328
-0.755101 -4.89358 2.7515 0.338557 0.276747 -0.899328
-0.662943 -4.78349 2.81999 0.338557 0.276747 -0.899328
-1.03744 -4.22999 2.84831 0.338557 0.276747 -0.899328
-0.650585 -4.45133 2.92642 0.338557 0.276747 -0.899328
-0.703216 -4.21751 2.9782 0.338557 0.276747 -0.899328
-0.605987 -4.4446 2.9453 0.338557 0.276747 -0.899328
-0.845306 -4.39269 2.87094 0.338557 0.276747 -0.899328
-1.22612 -4.1528 2.80078 0.338557 0.276747 -0.899328
-0.743336 -4.38745 2.91101 0.338557 0.276747 -0.899328
-0.850703 -4.32472 2.88972 0.338557 0.276747 -0.899328
-0.845393 -4.13098 2.95109 0.338557 0.276747 -0.899328
-0.652646 -4.98689 2.76156 0.338557 0.276747 -0.899328
-0.720139 -4.35336 2.9302 0.338557 0.276747 -0.899328
-0.777668 -4.28918 2.92816 0.338557 0.276747 -0.899328
-0.671923 -4.32122 2.95823 0.338557 0.276747 -0.899328
-0.954804 -4.58598 2.77041 0.338557 0.276747 -0.899328
-0.970541 -4.4103 2.8183 0.338557 0.276747 -0.899328
-1.17022 -4.25028 2.792 0.338557 0.276747 -0.899328
-0.857152 -4.7747 2.74942 0.338557 0.276747 -0.899328
-0.755809 -4.84947 2.76474 0.338557 0.276747 -0.899328
-0.995903 -4.29099 2.84529 0.338557 0.276747 -0.899328
-0.708753 -4.39265 2.92246 0.338557 0.276747 -0.899328
-0.804858 -4.44541 2.87004 0.338557 0.276747 -0.899328
-1.01717 -4.19176 2.86767 0.338557 0.276747 -0.899328
-0.872648 -4.69053 2.76937 0.338557 0.276747 -0.899328
-0.683828 -4.68351 2.84274 0.338557 0.276747 -0.899328
-0.723286 -4.18489 2.98063 0.338557 0.276747 -0.899328
-1.17598 -4.2671 2.78468 0.338557 0.276747 -0.899328
-0.938435 -4.49446 2.80462 0.338557 0.276747 -0.899328
-0.604653 -5.01116 2.77222 0.338557 0.276747 -0.899328
-0.863096 -4.34289 2.87948 0.338557 0.276747 -0.899328
-0.580284 -4.52184 2.93133 0.338557 0.276747 -0.899328
-0.583647 -4.59699 2.90704 0.338557 0.276747 -0.899328
-0.752013 -4.40507 2.90233 0.338557 0.276747 -0.899328
-0.753053 -4.27174 2.94279 0.338557 0.276747 -0.899328
-0.588024 -4.45749 2.94813 0.338557 0.276747 -0.899328
-0.835323 -4.7987 2.7503 0.338557 0.276747 -0.899328
-0.67383 -4.85716 2.79331 0.338557 0.276747 -0.899328
-1.15142 -4.21544 2.80977 0.338557 0.276747 -0.899328
-0.994093 -4.15719 2.88696 0.338557 0.276747 -0.899328
