ply
format ascii 1.0
element vertex 895
property float x
property float y
property float z
property float nx
property float ny
property float nz
end_header
-1.75798 -4.56689 3.13502 0.666572 -0.223243 0.711227
-1.73874 -4.48918 3.14147 0.666572 -0.223243 0.711227
-1.85958 -4.64493 3.20548 0.666572 -0.223243 0.711227
-1.79777 -4.53997 3.18068 0.666572 -0.223243 0.711227
-1.58016 -4.48229 2.99539 0.666572 -0.223243 0.711227
-1.7318 -4.44119 3.15005 0.666572 -0.223243 0.711227
-1.75419 -4.54281 3.13905 0.666572 -0.223243 0.711227
-1.72998 -4.51352 3.12563 0.666572 -0.223243 0.711227
-1.72658 -4.56966 3.10481 0.666572 -0.223243 0.711227
-1.5546 -4.49237 2.96833 0.666572 -0.223243 0.711227
-1.84917 -4.6396 3.19741 0.666572 -0.223243 0.711227
-1.78736 -4.48526 3.18814 0.666572 -0.223243 0.711227
-1.66812 -4.44199 3.09028 0.666572 -0.223243 0.711227
-1.71238 -4.45577 3.12732 0.666572 -0.223243 0.711227
-1.70848 -4.47893 3.1164 0.666572 -0.223243 0.711227
-1.6805 -4.54826 3.06846 0.666572 -0.223243 0.711227
-1.78597 -4.58828 3.15447 0.666572 -0.223243 0.711227
-1.62986 -4.43729 3.05599 0.666572 -0.223243 0.711227
-1.7968 -4.51827 3.1866 0.666572 -0.223243 0.711227
-1.72682 -4.54955 3.11135 0.666572 -0.223243 0.711227
-1.81797 -4.60764 3.1783 0.666572 -0.223243 0.711227
-1.76742 -4.5074 3.16254 0.666572 -0.223243 0.711227
-1.6999 -4.50743 3.09942 0.666572 -0.223243 0.711227
-1.54751 -4.48952 2.9626 0.666572 -0.223243 0.711227
-1.627 -4.49269 3.03591 0.666572 -0.223243 0.711227
-1.67543 -4.49403 3.08076 0.666572 -0.223243 0.711227
-1.74245 -4.50796 3.13903 0.666572 -0.223243 0.711227
-1.74887 -4.59189 3.11866 0.666572 -0.223243 0.711227
-1.57556 -4.50556 2.98378 0.666572 -0.223243 0.711227
-1.76498 -4.45344 3.17723 0.666572 -0.223243 0.711227
-1.79401 -4.5358 3.17848 0.666572 -0.223243 0.711227
-1.62895 -4.44726 3.05201 0.666572 -0.223243 0.711227
-1.69501 -4.47313 3.10563 0.666572 -0.223243 0.711227
-1.79295 -4.50966 3.1857 0.666572 -0.223243 0.711227
-1.76869 -4.51227 3.1622 0.666572 -0.223243 0.711227
-1.6843 -4.49805 3.08779 0.666572 -0.223243 0.711227
-1.70695 -4.559 3.08981 0.666572 -0.223243 0.711227
-1.62545 -4.46168 3.04421 0.666572 -0.223243 0.711227
-1.67483 -4.41479 3.1051 0.666572 -0.223243 0.711227
-1.72256 -4.53531 3.11184 0.666572 -0.223243 0.711227
-1.6992 -4.51829 3.09536 0.666572 -0.223243 0.711227
-1.75283 -4.45908 3.16409 0.666572 -0.223243 0.711227
-1.6531 -4.50787 3.05554 0.666572 -0.223243 0.711227
-1.75733 -4.54612 3.14095 0.666572 -0.223243 0.711227
-1.71568 -4.48153 3.12231 0.666572 -0.223243 0.711227
-1.64444 -4.43398 3.07066 0.666572 -0.223243 0.711227
-1.72331 -4.45367 3.1382 0.666572 -0.223243 0.711227
-1.6652 -4.44403 3.08691 0.666572 -0.223243 0.711227
-1.60222 -4.47221 3.01919 0.666572 -0.223243 0.711227
-1.73538 -4.55468 3.11774 0.666572 -0.223243 0.711227
-1.71606 -4.38866 3.15185 0.666572 -0.223243 0.711227
-1.75306 -4.58902 3.12348 0.666572 -0.223243 0.711227
-1.83196 -4.59167 3.19639 0.666572 -0.223243 0.711227
-1.76236 -4.4572 3.17359 0.666572 -0.223243 0.711227
-1.77801 -4.56435 3.15455 0.666572 -0.223243 0.711227
-1.66054 -4.4597 3.07763 0.666572 -0.223243 0.711227
-1.69334 -4.53202 3.08556 0.666572 -0.223243 0.711227
-1.70707 -4.50961 3.10544 0.666572 -0.223243 0.711227
-1.60116 -4.52244 3.00241 0.666572 -0.223243 0.711227
-1.70882 -4.42937 3.1323 0.666572 -0.223243 0.711227
-1.85205 -4.64634 3.198 0.666572 -0.223243 0.711227
-1.73364 -4.48616 3.13764 0.666572 -0.223243 0.711227
-1.71884 -4.57211 3.0968 0.666572 -0.223243 0.711227
-1.60952 -4.52234 3.01025 0.666572 -0.223243 0.711227
-1.73109 -4.39902 3.16265 0.666572 -0.223243 0.711227
-1.59497 -4.45771 3.01697 0.666572 -0.223243 0.711227
-1.81359 -4.61701 3.17126 0.666572 -0.223243 0.711227
-1.63793 -4.53852 3.03173 0.666572 -0.223243 0.711227
-1.72231 -4.41168 3.15046 0.666572 -0.223243 0.711227
-1.63122 -4.46885 3.04735 0.666572 -0.223243 0.711227
-1.83338 -4.61835 3.18934 0.666572 -0.223243 0.711227
-1.72953 -4.57197 3.10684 0.666572 -0.223243 0.711227
-1.66664 -4.47472 3.07861 0.666572 -0.223243 0.711227
-1.62909 -4.47617 3.04306 0.666572 -0.223243 0.711227
-1.73292 -4.49025 3.13568 0.666572 -0.223243 0.711227
-1.7843 -4.4766 3.188 0.666572 -0.223243 0.711227
-1.72832 -4.50531 3.12666 0.666572 -0.223243 0.711227
-1.677 -4.50656 3.07829 0.666572 -0.223243 0.711227
-1.74736 -4.4872 3.15015 0.666572 -0.223243 0.711227
-1.69149 -4.48815 3.09762 0.666572 -0.223243 0.711227
-1.69056 -4.49107 3.09583 0.666572 -0.223243 0.711227
-1.71525 -4.54529 3.10187 0.666572 -0.223243 0.711227
-1.7363 -4.5337 3.12519 0.666572 -0.223243 0.711227
-1.69577 -4.54395 3.08409 0.666572 -0.223243 0.711227
-1.76084 -4.4269 3.18169 0.666572 -0.223243 0.711227
-1.66122 -4.45062 3.08112 0.666572 -0.223243 0.711227
-1.7372 -4.44747 3.15313 0.666572 -0.223243 0.711227
-1.69298 -4.39845 3.1272 0.666572 -0.223243 0.711227
-1.67921 -4.53736 3.07068 0.666572 -0.223243 0.711227
-1.72418 -4.50404 3.12319 0.666572 -0.223243 0.711227
-1.67948 -4.46235 3.0945 0.666572 -0.223243 0.711227
-1.8102 -4.56293 3.18509 0.666572 -0.223243 0.711227
-1.6853 -4.46288 3.09977 0.666572 -0.223243 0.711227
-1.64634 -4.4418 3.06998 0.666572 -0.223243 0.711227
-1.56808 -4.49607 2.97978 0.666572 -0.223243 0.711227
-1.71777 -4.49965 3.11857 0.666572 -0.223243 0.711227
-1.7235 -4.51046 3.12053 0.666572 -0.223243 0.711227
-1.69492 -4.409 3.1257 0.666572 -0.223243 0.711227
-1.69173 -4.49469 3.09579 0.666572 -0.223243 0.711227
-1.7529 -4.44512 3.16855 0.666572 -0.223243 0.711227
-1.81155 -4.53789 3.19422 0.666572 -0.223243 0.711227
-1.77044 -4.47077 3.17688 0.666572 -0.223243 0.711227
-1.7065 -4.47013 3.11732 0.666572 -0.223243 0.711227
-1.60008 -4.45996 3.02103 0.666572 -0.223243 0.711227
-1.7468 -4.49411 3.14745 0.666572 -0.223243 0.711227
-1.77981 -4.52353 3.16906 0.666572 -0.223243 0.711227
-1.65109 -4.49451 3.05785 0.666572 -0.223243 0.711227
-1.64445 -4.49392 3.05184 0.666572 -0.223243 0.711227
-1.7225 -4.54851 3.10764 0.666572 -0.223243 0.711227
-1.70427 -4.4169 3.13195 0.666572 -0.223243 0.711227
-1.79025 -4.65881 3.1363 0.666572 -0.223243 0.711227
-1.63204 -4.57596 3.01446 0.666572 -0.223243 0.711227
-1.67426 -4.58674 3.05054 0.666572 -0.223243 0.711227
-1.69242 -4.68708 3.03598 0.666572 -0.223243 0.711227
-1.73197 -4.59312 3.10247 0.666572 -0.223243 0.711227
-1.69777 -4.65256 3.05183 0.666572 -0.223243 0.711227
-1.75422 -4.62133 3.1144 0.666572 -0.223243 0.711227
-1.7237 -4.61739 3.08711 0.666572 -0.223243 0.711227
-1.64614 -4.65983 3.00128 0.666572 -0.223243 0.711227
-1.72206 -4.65386 3.07412 0.666572 -0.223243 0.711227
-1.68456 -4.75424 3.00753 0.666572 -0.223243 0.711227
-1.66981 -4.64668 3.02754 0.666572 -0.223243 0.711227
-1.66254 -4.61075 3.03203 0.666572 -0.223243 0.711227
-1.79693 -4.6793 3.13611 0.666572 -0.223243 0.711227
-1.61777 -4.5437 3.01125 0.666572 -0.223243 0.711227
-1.70014 -4.66738 3.04939 0.666572 -0.223243 0.711227
-1.67496 -4.73656 3.00411 0.666572 -0.223243 0.711227
-1.80365 -4.68453 3.14075 0.666572 -0.223243 0.711227
-1.79775 -4.65711 3.14385 0.666572 -0.223243 0.711227
-1.6748 -4.61188 3.04314 0.666572 -0.223243 0.711227
-1.63238 -4.62903 2.9981 0.666572 -0.223243 0.711227
-1.64877 -4.58881 3.02606 0.666572 -0.223243 0.711227
-1.60953 -4.52853 3.00832 0.666572 -0.223243 0.711227
-1.65812 -4.55156 3.0465 0.666572 -0.223243 0.711227
-1.72526 -4.68584 3.06706 0.666572 -0.223243 0.711227
-1.65356 -4.70789 2.99311 0.666572 -0.223243 0.711227
-1.73455 -4.72666 3.06292 0.666572 -0.223243 0.711227
-1.72349 -4.63269 3.08211 0.666572 -0.223243 0.711227
-1.66297 -4.75614 2.98674 0.666572 -0.223243 0.711227
-1.7592 -4.68655 3.09856 0.666572 -0.223243 0.711227
-1.77045 -4.71076 3.10148 0.666572 -0.223243 0.711227
-1.68842 -4.58536 3.06421 0.666572 -0.223243 0.711227
-1.74356 -4.64009 3.09854 0.666572 -0.223243 0.711227
-1.68256 -4.67788 3.02965 0.666572 -0.223243 0.711227
-1.71355 -4.64456 3.06908 0.666572 -0.223243 0.711227
-1.65336 -4.67283 3.00394 0.666572 -0.223243 0.711227
-1.80162 -4.65766 3.14729 0.666572 -0.223243 0.711227
-1.69872 -4.75409 3.0208 0.666572 -0.223243 0.711227
-1.69542 -4.64816 3.05101 0.666572 -0.223243 0.711227
-1.65888 -4.61005 3.02883 0.666572 -0.223243 0.711227
-1.73031 -4.718 3.06168 0.666572 -0.223243 0.711227
-1.61006 -4.64151 2.97331 0.666572 -0.223243 0.711227
-1.653 -4.68153 3.00088 0.666572 -0.223243 0.711227
-1.76298 -4.67945 3.10433 0.666572 -0.223243 0.711227
-1.64635 -4.57075 3.02947 0.666572 -0.223243 0.711227
-1.78866 -4.68406 3.12689 0.666572 -0.223243 0.711227
-1.70626 -4.644 3.06245 0.666572 -0.223243 0.711227
-1.63498 -4.54643 3.02648 0.666572 -0.223243 0.711227
-1.7906 -4.70507 3.12209 0.666572 -0.223243 0.711227
-1.5801 -4.52413 2.98219 0.666572 -0.223243 0.711227
-1.60519 -4.62164 2.975 0.666572 -0.223243 0.711227
-1.68792 -4.5772 3.0663 0.666572 -0.223243 0.711227
-1.63147 -4.64237 2.99306 0.666572 -0.223243 0.711227
-1.83887 -4.67151 3.17776 0.666572 -0.223243 0.711227
-1.73052 -4.66186 3.07951 0.666572 -0.223243 0.711227
-1.72232 -4.72856 3.05089 0.666572 -0.223243 0.711227
-1.67626 -4.67972 3.02318 0.666572 -0.223243 0.711227
-1.63833 -4.67929 2.98786 0.666572 -0.223243 0.711227
-1.78624 -4.61969 3.14485 0.666572 -0.223243 0.711227
-1.62977 -4.55026 3.02041 0.666572 -0.223243 0.711227
-1.66091 -4.74656 2.98783 0.666572 -0.223243 0.711227
-1.67489 -4.76024 2.9966 0.666572 -0.223243 0.711227
-1.86276 -4.6546 3.20541 0.666572 -0.223243 0.711227
-1.62964 -4.59644 3.00578 0.666572 -0.223243 0.711227
-1.6716 -4.63822 3.03187 0.666572 -0.223243 0.711227
-1.65123 -4.63374 3.01423 0.666572 -0.223243 0.711227
-1.717 -4.7498 3.03924 0.666572 -0.223243 0.711227
-1.72698 -4.74189 3.05106 0.666572 -0.223243 0.711227
-1.82016 -4.65469 3.16556 0.666572 -0.223243 0.711227
-1.67784 -4.7175 3.01278 0.666572 -0.223243 0.711227
-1.72974 -4.6926 3.06912 0.666572 -0.223243 0.711227
-1.70377 -4.74386 3.02874 0.666572 -0.223243 0.711227
-1.54928 -4.50846 2.95831 0.666572 -0.223243 0.711227
-1.70445 -4.75712 3.02521 0.666572 -0.223243 0.711227
-1.76456 -4.61865 3.12491 0.666572 -0.223243 0.711227
-1.61726 -4.65114 2.97701 0.666572 -0.223243 0.711227
-1.68293 -4.77044 3.00091 0.666572 -0.223243 0.711227
-1.75769 -4.65579 3.10682 0.666572 -0.223243 0.711227
-1.57715 -4.52154 2.98025 0.666572 -0.223243 0.711227
-1.57878 -4.54311 2.975 0.666572 -0.223243 0.711227
-1.59495 -4.56153 2.98432 0.666572 -0.223243 0.711227
-1.73469 -4.66588 3.08215 0.666572 -0.223243 0.711227
-1.68284 -4.58587 3.05883 0.666572 -0.223243 0.711227
-1.63988 -4.6394 3.00185 0.666572 -0.223243 0.711227
-1.71729 -4.65185 3.07029 0.666572 -0.223243 0.711227
-1.64721 -4.63952 3.00866 0.666572 -0.223243 0.711227
-1.63359 -4.62148 3.0016 0.666572 -0.223243 0.711227
-1.59841 -4.56852 2.98536 0.666572 -0.223243 0.711227
-1.7418 -4.63628 3.0981 0.666572 -0.223243 0.711227
-1.56268 -4.53324 2.96304 0.666572 -0.223243 0.711227
-1.69168 -4.64989 3.04697 0.666572 -0.223243 0.711227
-1.68268 -4.61776 3.04865 0.666572 -0.223243 0.711227
-1.72523 -4.6752 3.07038 0.666572 -0.223243 0.711227
-1.69368 -4.61009 3.06135 0.666572 -0.223243 0.711227
-1.62608 -4.58992 3.0045 0.666572 -0.223243 0.711227
-1.68672 -4.57099 3.06712 0.666572 -0.223243 0.711227
-1.79533 -4.64029 3.14687 0.666572 -0.223243 0.711227
-1.71132 -4.69512 3.05112 0.666572 -0.223243 0.711227
-1.71227 -4.67886 3.05711 0.666572 -0.223243 0.711227
-1.66624 -4.61713 3.03348 0.666572 -0.223243 0.711227
-1.73901 -4.66471 3.08656 0.666572 -0.223243 0.711227
-1.75549 -4.70061 3.09068 0.666572 -0.223243 0.711227
-1.67733 -4.74116 3.00488 0.666572 -0.223243 0.711227
-1.64449 -4.66582 2.99785 0.666572 -0.223243 0.711227
-1.60248 -4.62149 2.97251 0.666572 -0.223243 0.711227
-1.69259 -4.67189 3.04091 0.666572 -0.223243 0.711227
-1.71725 -4.68812 3.05886 0.666572 -0.223243 0.711227
-1.66474 -4.703 3.0051 0.666572 -0.223243 0.711227
-1.77237 -4.71688 3.10134 0.666572 -0.223243 0.711227
-1.5726 -4.5412 2.96981 0.666572 -0.223243 0.711227
-1.71361 -4.7063 3.04975 0.666572 -0.223243 0.711227
-1.85438 -4.66217 3.1952 0.666572 -0.223243 0.711227
-1.58325 -4.54179 2.97959 0.666572 -0.223243 0.711227
-1.83786 -4.64701 3.18451 0.666572 -0.223243 0.711227
-1.6485 -4.72961 2.98156 0.666572 -0.223243 0.711227
-1.75621 -4.72083 3.085 0.666572 -0.223243 0.711227
-1.74768 -4.69578 3.0849 0.666572 -0.223243 0.711227
-1.66548 -4.62649 3.02984 0.666572 -0.223243 0.711227
-1.65111 -4.70546 2.99158 0.666572 -0.223243 0.711227
-1.65606 -4.60609 3.02744 0.666572 -0.223243 0.711227
-1.85345 -4.67087 3.1916 0.666572 -0.223243 0.711227
-1.56021 -4.52096 2.9646 0.666572 -0.223243 0.711227
-1.74365 -4.64947 3.09568 0.666572 -0.223243 0.711227
-1.70472 -4.60627 3.07287 0.666572 -0.223243 0.711227
-1.7505 -4.62922 3.10845 0.666572 -0.223243 0.711227
-1.55658 -4.53617 2.95642 0.666572 -0.223243 0.711227
-1.75861 -4.71181 3.09007 0.666572 -0.223243 0.711227
-1.65904 -4.63203 3.02207 0.666572 -0.223243 0.711227
-1.78968 -4.62784 3.14551 0.666572 -0.223243 0.711227
-1.77384 -4.7076 3.10564 0.666572 -0.223243 0.711227
-1.73952 -4.72956 3.06665 0.666572 -0.223243 0.711227
-1.61866 -4.5331 3.01542 0.666572 -0.223243 0.711227
-1.65069 -4.54802 3.04067 0.666572 -0.223243 0.711227
-1.67788 -4.72166 3.01152 0.666572 -0.223243 0.711227
-1.743 -4.72196 3.07229 0.666572 -0.223243 0.711227
-1.69305 -4.7194 3.02641 0.666572 -0.223243 0.711227
-1.75612 -4.70691 3.08929 0.666572 -0.223243 0.711227
-1.6024 -4.53312 3.00021 0.666572 -0.223243 0.711227
-1.58025 -4.55957 2.9712 0.666572 -0.223243 0.711227
-1.60746 -4.53046 3.00578 0.666572 -0.223243 0.711227
-1.78158 -4.63365 3.13611 0.666572 -0.223243 0.711227
-1.72428 -4.62822 3.08425 0.666572 -0.223243 0.711227
-1.76028 -4.61173 3.12308 0.666572 -0.223243 0.711227
-1.82693 -4.64517 3.17487 0.666572 -0.223243 0.711227
-1.64776 -4.69783 2.99085 0.666572 -0.223243 0.711227
-1.59454 -4.54908 2.98784 0.666572 -0.223243 0.711227
-1.59656 -4.59322 2.97586 0.666572 -0.223243 0.711227
-1.68097 -4.6397 3.04016 0.666572 -0.223243 0.711227
-1.66089 -4.71877 2.99654 0.666572 -0.223243 0.711227
-1.67256 -4.6042 3.04345 0.666572 -0.223243 0.711227
-1.68053 -4.64748 3.03731 0.666572 -0.223243 0.711227
-1.5943 -4.56777 2.98175 0.666572 -0.223243 0.711227
-1.65667 -4.56227 3.04178 0.666572 -0.223243 0.711227
-1.72313 -4.70841 3.05798 0.666572 -0.223243 0.711227
-1.67746 -4.68481 3.0227 0.666572 -0.223243 0.711227
-1.61015 -4.58775 2.99029 0.666572 -0.223243 0.711227
-1.74473 -4.70178 3.08025 0.666572 -0.223243 0.711227
-1.74384 -4.68903 3.08343 0.666572 -0.223243 0.711227
-1.61904 -4.61961 2.98859 0.666572 -0.223243 0.711227
-1.69629 -4.75463 3.01836 0.666572 -0.223243 0.711227
-1.82343 -4.64208 3.17258 0.666572 -0.223243 0.711227
-1.7092 -4.66982 3.05709 0.666572 -0.223243 0.711227
-1.61792 -4.66468 2.97337 0.666572 -0.223243 0.711227
-1.66226 -4.71189 2.99998 0.666572 -0.223243 0.711227
-1.66794 -4.65251 3.02396 0.666572 -0.223243 0.711227
-1.78398 -4.63813 3.13694 0.666572 -0.223243 0.711227
-1.60913 -4.61895 2.97953 0.666572 -0.223243 0.711227
-1.84443 -4.65269 3.18887 0.666572 -0.223243 0.711227
-1.64775 -4.60672 3.01948 0.666572 -0.223243 0.711227
-1.69132 -4.60845 3.05965 0.666572 -0.223243 0.711227
-1.64088 -4.60571 3.01337 0.666572 -0.223243 0.711227
-1.73125 -4.65131 3.08352 0.666572 -0.223243 0.711227
-1.76767 -4.65136 3.11754 0.666572 -0.223243 0.711227
-1.57298 -4.52722 2.97457 0.666572 -0.223243 0.711227
-1.75438 -4.68303 3.09517 0.666572 -0.223243 0.711227
-1.76425 -4.62308 3.12323 0.666572 -0.223243 0.711227
-1.78412 -4.65362 3.1322 0.666572 -0.223243 0.711227
-1.68167 -4.71016 3.01868 0.666572 -0.223243 0.711227
-1.72817 -4.67154 3.07428 0.666572 -0.223243 0.711227
-1.71223 -4.65073 3.06592 0.666572 -0.223243 0.711227
-1.68363 -4.70079 3.02345 0.666572 -0.223243 0.711227
-1.73224 -4.63042 3.091 0.666572 -0.223243 0.711227
-1.62909 -4.68626 2.97703 0.666572 -0.223243 0.711227
-1.56899 -4.52312 2.97212 0.666572 -0.223243 0.711227
-1.63552 -4.56619 3.02078 0.666572 -0.223243 0.711227
-1.67094 -4.71263 3.00787 0.666572 -0.223243 0.711227
-1.69559 -4.66779 3.045 0.666572 -0.223243 0.711227
-1.67649 -4.58342 3.05366 0.666572 -0.223243 0.711227
-1.69648 -4.7256 3.02767 0.666572 -0.223243 0.711227
-1.71808 -4.67794 3.06284 0.666572 -0.223243 0.711227
-1.58864 -4.55498 2.98047 0.666572 -0.223243 0.711227
-1.66195 -4.62217 3.02789 0.666572 -0.223243 0.711227
-1.74507 -4.613 3.10847 0.666572 -0.223243 0.711227
-1.63223 -4.65891 2.98857 0.666572 -0.223243 0.711227
-1.78752 -4.62954 3.14296 0.666572 -0.223243 0.711227
-1.59503 -4.52271 2.9966 0.666572 -0.223243 0.711227
-1.6992 -4.58404 3.07469 0.666572 -0.223243 0.711227
-1.55711 -4.52324 2.96098 0.666572 -0.223243 0.711227
-1.67405 -4.72545 3.00675 0.666572 -0.223243 0.711227
-1.62675 -4.56008 3.0145 0.666572 -0.223243 0.711227
-1.74989 -4.71505 3.08091 0.666572 -0.223243 0.711227
-1.68262 -4.59319 3.05632 0.666572 -0.223243 0.711227
-1.55317 -4.5276 2.95593 0.666572 -0.223243 0.711227
-1.81629 -4.6849 3.15245 0.666572 -0.223243 0.711227
-1.76128 -4.71009 3.09311 0.666572 -0.223243 0.711227
-1.78358 -4.6738 3.12536 0.666572 -0.223243 0.711227
-1.68206 -4.60516 3.05204 0.666572 -0.223243 0.711227
-1.71423 -4.6952 3.05381 0.666572 -0.223243 0.711227
-1.68555 -4.58847 3.06054 0.666572 -0.223243 0.711227
-1.72113 -4.68547 3.06332 0.666572 -0.223243 0.711227
-1.70936 -4.70627 3.04578 0.666572 -0.223243 0.711227
-1.71628 -4.60563 3.08387 0.666572 -0.223243 0.711227
-1.65155 -4.55336 3.03979 0.666572 -0.223243 0.711227
-1.73875 -4.67584 3.08281 0.666572 -0.223243 0.711227
-1.65484 -4.55184 3.04335 0.666572 -0.223243 0.711227
-1.6856 -4.6169 3.05166 0.666572 -0.223243 0.711227
-1.77086 -4.68645 3.10949 0.666572 -0.223243 0.711227
-1.75577 -4.61205 3.11877 0.666572 -0.223243 0.711227
-1.6506 -4.608 3.02173 0.666572 -0.223243 0.711227
-1.74049 -4.71387 3.07249 0.666572 -0.223243 0.711227
-1.66145 -4.74089 2.99012 0.666572 -0.223243 0.711227
-1.65867 -4.57707 3.039 0.666572 -0.223243 0.711227
-1.7808 -4.63026 3.13645 0.666572 -0.223243 0.711227
-1.76558 -4.67852 3.10705 0.666572 -0.223243 0.711227
-1.70163 -4.70557 3.03878 0.666572 -0.223243 0.711227
-1.5552 -4.50087 2.96623 0.666572 -0.223243 0.711227
-1.67392 -4.76631 2.99378 0.666572 -0.223243 0.711227
-1.69146 -4.6031 3.06147 0.666572 -0.223243 0.711227
-1.7406 -4.64045 3.09567 0.666572 -0.223243 0.711227
-1.6707 -4.60995 3.03991 0.666572 -0.223243 0.711227
-1.67105 -4.73378 3.00133 0.666572 -0.223243 0.711227
-1.59899 -4.5326 2.99719 0.666572 -0.223243 0.711227
-1.59721 -4.55086 2.98979 0.666572 -0.223243 0.711227
-1.68508 -4.70403 3.02379 0.666572 -0.223243 0.711227
-1.8395 -4.65929 3.18219 0.666572 -0.223243 0.711227
-1.66559 -4.69203 3.00934 0.666572 -0.223243 0.711227
-1.73469 -4.63998 3.09029 0.666572 -0.223243 0.711227
-1.59036 -4.54442 2.98541 0.666572 -0.223243 0.711227
-1.64707 -4.6314 3.01108 0.666572 -0.223243 0.711227
-1.5862 -4.58934 2.96741 0.666572 -0.223243 0.711227
-1.77658 -4.70332 3.10954 0.666572 -0.223243 0.711227
-1.74595 -4.73203 3.07188 0.666572 -0.223243 0.711227
-1.62428 -4.58683 3.00378 0.666572 -0.223243 0.711227
-1.69019 -4.65357 3.04442 0.666572 -0.223243 0.711227
-1.76395 -4.71969 3.09259 0.666572 -0.223243 0.711227
-1.65896 -4.62161 3.02527 0.666572 -0.223243 0.711227
-1.63059 -4.66669 2.98459 0.666572 -0.223243 0.711227
-1.73009 -4.63538 3.08744 0.666572 -0.223243 0.711227
-1.65393 -4.56583 3.0381 0.666572 -0.223243 0.711227
-1.8361 -4.6541 3.18064 0.666572 -0.223243 0.711227
-1.82429 -4.65609 3.16898 0.666572 -0.223243 0.711227
-1.6365 -4.68868 2.9832 0.666572 -0.223243 0.711227
-1.6496 -4.66399 3.0032 0.666572 -0.223243 0.711227
-1.8103 -4.67945 3.14856 0.666572 -0.223243 0.711227
-1.79325 -4.66366 3.13759 0.666572 -0.223243 0.711227
-1.7031 -4.5861 3.07769 0.666572 -0.223243 0.711227
-1.78732 -4.63272 3.14176 0.666572 -0.223243 0.711227
-1.72129 -4.7139 3.05453 0.666572 -0.223243 0.711227
-1.5956 -4.57757 2.97988 0.666572 -0.223243 0.711227
-1.73959 -4.60884 3.10465 0.666572 -0.223243 0.711227
-1.70298 -4.57903 3.0798 0.666572 -0.223243 0.711227
-1.78958 -4.66702 3.1331 0.666572 -0.223243 0.711227
-1.78715 -4.69278 3.12274 0.666572 -0.223243 0.711227
-1.71517 -4.59851 3.08508 0.666572 -0.223243 0.711227
-1.66729 -4.65904 3.0213 0.666572 -0.223243 0.711227
-1.7282 -4.68168 3.07112 0.666572 -0.223243 0.711227
-1.76022 -4.66958 3.10485 0.666572 -0.223243 0.711227
-1.70643 -4.59405 3.07831 0.666572 -0.223243 0.711227
-1.65626 -4.68114 3.00404 0.666572 -0.223243 0.711227
-1.79928 -4.66203 3.14374 0.666572 -0.223243 0.711227
-1.62815 -4.62118 2.99661 0.666572 -0.223243 0.711227
-1.73433 -4.62603 3.09433 0.666572 -0.223243 0.711227
-1.75982 -4.67599 3.10246 0.666572 -0.223243 0.711227
-1.63498 -4.62871 3.00062 0.666572 -0.223243 0.711227
-1.77535 -4.62786 3.13211 0.666572 -0.223243 0.711227
-1.67099 -4.65775 3.02516 0.666572 -0.223243 0.711227
-1.76273 -4.7235 3.09025 0.666572 -0.223243 0.711227
-1.70845 -4.58129 3.08421 0.666572 -0.223243 0.711227
-1.70186 -4.6007 3.07194 0.666572 -0.223243 0.711227
-1.75819 -4.6142 3.12036 0.666572 -0.223243 0.711227
-1.56425 -4.55328 2.95822 0.666572 -0.223243 0.711227
-1.62195 -4.65043 2.98162 0.666572 -0.223243 0.711227
-1.71467 -4.69032 3.05575 0.666572 -0.223243 0.711227
-1.67511 -4.59652 3.04825 0.666572 -0.223243 0.711227
-1.62266 -4.62762 2.98945 0.666572 -0.223243 0.711227
-1.79479 -4.68153 3.13342 0.666572 -0.223243 0.711227
-1.64349 -4.60674 3.01548 0.666572 -0.223243 0.711227
-1.58985 -4.58882 2.97098 0.666572 -0.223243 0.711227
-1.65048 -4.60445 3.02274 0.666572 -0.223243 0.711227
-1.58303 -4.55945 2.97383 0.666572 -0.223243 0.711227
-1.588 -4.54569 2.9828 0.666572 -0.223243 0.711227
-1.64567 -4.57524 3.02742 0.666572 -0.223243 0.711227
-1.63822 -4.57178 3.02154 0.666572 -0.223243 0.711227
-1.76343 -4.62733 3.12113 0.666572 -0.223243 0.711227
-1.70648 -4.67953 3.05149 0.666572 -0.223243 0.711227
-1.70639 -4.72427 3.03735 0.666572 -0.223243 0.711227
-1.76719 -4.70881 3.09904 0.666572 -0.223243 0.711227
-1.72038 -4.61518 3.0847 0.666572 -0.223243 0.711227
-1.67433 -4.67449 3.02302 0.666572 -0.223243 0.711227
-1.74809 -4.70212 3.08329 0.666572 -0.223243 0.711227
-1.59607 -4.54689 2.98997 0.666572 -0.223243 0.711227
-1.69199 -4.63177 3.05295 0.666572 -0.223243 0.711227
-1.64264 -4.65075 3.00086 0.666572 -0.223243 0.711227
-1.74496 -4.7288 3.07197 0.666572 -0.223243 0.711227
-1.58952 -4.51918 2.99256 0.666572 -0.223243 0.711227
-1.67122 -4.71591 3.0071 0.666572 -0.223243 0.711227
-1.70012 -4.5918 3.07311 0.666572 -0.223243 0.711227
-1.74586 -4.62451 3.1056 0.666572 -0.223243 0.711227
-1.69134 -4.6224 3.05529 0.666572 -0.223243 0.711227
-1.77671 -4.68118 3.11662 0.666572 -0.223243 0.711227
-1.6563 -4.65633 3.01188 0.666572 -0.223243 0.711227
-1.77245 -4.63799 3.12621 0.666572 -0.223243 0.711227
-1.74812 -4.60517 3.11378 0.666572 -0.223243 0.711227
-1.61245 -4.54445 3.00604 0.666572 -0.223243 0.711227
-1.57962 -4.54688 2.97459 0.666572 -0.223243 0.711227
-1.73339 -4.61875 3.09575 0.666572 -0.223243 0.711227
-1.70591 -4.57657 3.08331 0.666572 -0.223243 0.711227
-1.59139 -4.55568 2.98283 0.666572 -0.223243 0.711227
-1.78608 -4.61513 3.14613 0.666572 -0.223243 0.711227
-1.61445 -4.6413 2.97748 0.666572 -0.223243 0.711227
-1.64275 -4.67787 2.99244 0.666572 -0.223243 0.711227
-1.73129 -4.66746 3.07847 0.666572 -0.223243 0.711227
-1.60699 -4.53522 3.00384 0.666572 -0.223243 0.711227
-1.75272 -4.61269 3.11572 0.666572 -0.223243 0.711227
-1.75194 -4.63733 3.10725 0.666572 -0.223243 0.711227
-1.62804 -4.55699 3.01668 0.666572 -0.223243 0.711227
-1.63317 -4.6902 2.97961 0.666572 -0.223243 0.711227
-1.81853 -4.67984 3.15613 0.666572 -0.223243 0.711227
-1.73196 -4.62678 3.09189 0.666572 -0.223243 0.711227
-1.65822 -4.71531 2.99513 0.666572 -0.223243 0.711227
-1.61418 -4.53488 3.01067 0.666572 -0.223243 0.711227
-1.66655 -4.75288 2.99111 0.666572 -0.223243 0.711227
-1.55388 -4.52333 2.95793 0.666572 -0.223243 0.711227
-1.60456 -4.54678 2.99793 0.666572 -0.223243 0.711227
-1.7058 -4.62625 3.0676 0.666572 -0.223243 0.711227
-1.68965 -4.74748 3.0144 0.666572 -0.223243 0.711227
-1.68788 -4.60771 3.05668 0.666572 -0.223243 0.711227
-1.80634 -4.67888 3.14504 0.666572 -0.223243 0.711227
-1.67578 -4.66055 3.02876 0.666572 -0.223243 0.711227
-1.80174 -4.68962 3.13737 0.666572 -0.223243 0.711227
-1.80901 -4.64814 3.15719 0.666572 -0.223243 0.711227
-1.77804 -4.63957 3.13094 0.666572 -0.223243 0.711227
-1.64065 -4.64329 3.00134 0.666572 -0.223243 0.711227
-1.67449 -4.68462 3.01999 0.666572 -0.223243 0.711227
-1.60856 -4.55338 2.9996 0.666572 -0.223243 0.711227
-1.6992 -4.71755 3.03274 0.666572 -0.223243 0.711227
-1.83509 -4.67568 3.17292 0.666572 -0.223243 0.711227
-1.71296 -4.67332 3.05949 0.666572 -0.223243 0.711227
-1.65994 -4.6154 3.02815 0.666572 -0.223243 0.711227
-1.65971 -4.5556 3.04672 0.666572 -0.223243 0.711227
-1.67999 -4.61531 3.04691 0.666572 -0.223243 0.711227
-1.76908 -4.67397 3.11176 0.666572 -0.223243 0.711227
-1.67225 -4.76175 2.99366 0.666572 -0.223243 0.711227
-1.7431 -4.7262 3.07105 0.666572 -0.223243 0.711227
-1.64661 -4.70389 2.98787 0.666572 -0.223243 0.711227
-1.61686 -4.58856 2.9963 0.666572 -0.223243 0.711227
-1.80134 -4.6732 3.14215 0.666572 -0.223243 0.711227
-1.7243 -4.61119 3.08962 0.666572 -0.223243 0.711227
-1.61754 -4.59795 2.994 0.666572 -0.223243 0.711227
-1.70688 -4.63849 3.06476 0.666572 -0.223243 0.711227
-1.66166 -4.70184 3.00258 0.666572 -0.223243 0.711227
-1.69357 -4.64178 3.05128 0.666572 -0.223243 0.711227
-1.60192 -4.56901 2.98848 0.666572 -0.223243 0.711227
-1.66043 -4.73084 2.99232 0.666572 -0.223243 0.711227
-1.56858 -4.53172 2.96904 0.666572 -0.223243 0.711227
-1.67199 -4.75009 2.99708 0.666572 -0.223243 0.711227
-1.58821 -4.56269 2.97765 0.666572 -0.223243 0.711227
-1.69512 -4.6308 3.05619 0.666572 -0.223243 0.711227
-1.70732 -4.58658 3.08148 0.666572 -0.223243 0.711227
-1.73186 -4.74448 3.05481 0.666572 -0.223243 0.711227
-1.60633 -4.58441 2.98777 0.666572 -0.223243 0.711227
-1.64681 -4.58344 3.02591 0.666572 -0.223243 0.711227
-1.65344 -4.61712 3.02153 0.666572 -0.223243 0.711227
-1.68478 -4.69121 3.02754 0.666572 -0.223243 0.711227
-1.64136 -4.66909 2.99391 0.666572 -0.223243 0.711227
-1.60603 -4.58753 2.9865 0.666572 -0.223243 0.711227
-1.68548 -4.6293 3.04765 0.666572 -0.223243 0.711227
-1.68146 -4.62897 3.04399 0.666572 -0.223243 0.711227
-1.7762 -4.6854 3.11482 0.666572 -0.223243 0.711227
-1.76391 -4.70439 3.09736 0.666572 -0.223243 0.711227
-1.80687 -4.63589 3.15904 0.666572 -0.223243 0.711227
-1.71062 -4.68687 3.05305 0.666572 -0.223243 0.711227
-1.80658 -4.66837 3.14857 0.666572 -0.223243 0.711227
-1.66825 -4.58332 3.04599 0.666572 -0.223243 0.711227
-1.62973 -4.67041 2.98261 0.666572 -0.223243 0.711227
-1.70033 -4.62497 3.06288 0.666572 -0.223243 0.711227
-1.76213 -4.63042 3.11894 0.666572 -0.223243 0.711227
-1.67796 -4.72845 3.00946 0.666572 -0.223243 0.711227
-1.69605 -4.60746 3.06439 0.666572 -0.223243 0.711227
-1.70269 -4.69786 3.04219 0.666572 -0.223243 0.711227
-1.72655 -4.65398 3.07828 0.666572 -0.223243 0.711227
-1.83092 -4.68462 3.16621 0.666572 -0.223243 0.711227
-1.77498 -4.69759 3.10984 0.666572 -0.223243 0.711227
-1.68559 -4.76826 3.00408 0.666572 -0.223243 0.711227
-1.64996 -4.58131 3.02953 0.666572 -0.223243 0.711227
-1.72915 -4.65852 3.07928 0.666572 -0.223243 0.711227
-1.56659 -4.55207 2.96078 0.666572 -0.223243 0.711227
-1.75763 -4.64268 3.11088 0.666572 -0.223243 0.711227
-1.67771 -4.70347 3.01708 0.666572 -0.223243 0.711227
-1.66165 -4.68926 3.00652 0.666572 -0.223243 0.711227
-1.65736 -4.72216 2.99218 0.666572 -0.223243 0.711227
-1.72 -4.63868 3.07697 0.666572 -0.223243 0.711227
-1.65947 -4.64521 3.01833 0.666572 -0.223243 0.711227
-1.61906 -4.58064 3.00085 0.666572 -0.223243 0.711227
-1.72966 -4.7064 3.06471 0.666572 -0.223243 0.711227
-1.7794 -4.71002 3.11007 0.666572 -0.223243 0.711227
-1.68364 -4.67072 3.03291 0.666572 -0.223243 0.711227
-1.73414 -4.70725 3.06864 0.666572 -0.223243 0.711227
-1.7444 -4.68294 3.08586 0.666572 -0.223243 0.711227
-1.76289 -4.65334 3.11245 0.666572 -0.223243 0.711227
-1.69818 -4.74328 3.0237 0.666572 -0.223243 0.711227
-1.58715 -4.55889 2.97786 0.666572 -0.223243 0.711227
-1.80797 -4.66571 3.1507 0.666572 -0.223243 0.711227
-1.6379 -4.54654 3.02918 0.666572 -0.223243 0.711227
-1.7157 -4.63434 3.07431 0.666572 -0.223243 0.711227
-1.65185 -4.63813 3.01344 0.666572 -0.223243 0.711227
-1.74636 -4.65202 3.09741 0.666572 -0.223243 0.711227
-1.58286 -4.53831 2.98032 0.666572 -0.223243 0.711227
-1.72263 -4.69745 3.06096 0.666572 -0.223243 0.711227
-1.67924 -4.69953 3.01974 0.666572 -0.223243 0.711227
-1.62042 -4.55678 3.00962 0.666572 -0.223243 0.711227
-1.76388 -4.65757 3.11204 0.666572 -0.223243 0.711227
-1.70417 -4.75369 3.02603 0.666572 -0.223243 0.711227
-1.80553 -4.65125 3.15297 0.666572 -0.223243 0.711227
-1.76125 -4.72029 3.08988 0.666572 -0.223243 0.711227
-1.74055 -4.61723 3.10291 0.666572 -0.223243 0.711227
-1.64638 -4.58954 3.02359 0.666572 -0.223243 0.711227
-1.74669 -4.6678 3.09276 0.666572 -0.223243 0.711227
-1.63795 -4.55088 3.02786 0.666572 -0.223243 0.711227
-1.68747 -4.70201 3.02665 0.666572 -0.223243 0.711227
-1.73073 -4.67268 3.07631 0.666572 -0.223243 0.711227
-1.60552 -4.62999 2.97268 0.666572 -0.223243 0.711227
-1.60991 -4.57898 2.99282 0.666572 -0.223243 0.711227
-1.63763 -4.69869 2.98111 0.666572 -0.223243 0.711227
-1.76387 -4.6867 3.10288 0.666572 -0.223243 0.711227
-1.69246 -4.65905 3.04482 0.666572 -0.223243 0.711227
-1.80185 -4.66984 3.14369 0.666572 -0.223243 0.711227
-1.65523 -4.63648 3.01711 0.666572 -0.223243 0.711227
-1.77935 -4.70295 3.11225 0.666572 -0.223243 0.711227
-1.6995 -4.57993 3.07626 0.666572 -0.223243 0.711227
-1.68179 -4.65777 3.03525 0.666572 -0.223243 0.711227
-1.67463 -4.63222 3.03658 0.666572 -0.223243 0.711227
-1.62191 -4.57744 3.00452 0.666572 -0.223243 0.711227
-1.55613 -4.52911 2.95822 0.666572 -0.223243 0.711227
-1.58696 -4.54923 2.98072 0.666572 -0.223243 0.711227
-1.70695 -4.73222 3.03538 0.666572 -0.223243 0.711227
-1.86792 -4.65706 3.20945 0.666572 -0.223243 0.711227
-1.656 -4.64579 3.01491 0.666572 -0.223243 0.711227
-1.61709 -4.55472 3.00716 0.666572 -0.223243 0.711227
-1.66602 -4.76437 2.98701 0.666572 -0.223243 0.711227
-1.65525 -4.59333 3.03069 0.666572 -0.223243 0.711227
-1.76008 -4.63474 3.11567 0.666572 -0.223243 0.711227
-1.68256 -4.56725 3.06441 0.666572 -0.223243 0.711227
-1.66706 -4.71796 3.00256 0.666572 -0.223243 0.711227
-1.72669 -4.63827 3.08335 0.666572 -0.223243 0.711227
-1.77052 -4.66353 3.11638 0.666572 -0.223243 0.711227
-1.70698 -4.75791 3.02733 0.666572 -0.223243 0.711227
-1.73665 -4.69127 3.076 0.666572 -0.223243 0.711227
-1.64258 -4.68982 2.98853 0.666572 -0.223243 0.711227
-1.64529 -4.59879 3.01966 0.666572 -0.223243 0.711227
-1.64565 -4.71841 2.98241 0.666572 -0.223243 0.711227
-1.73522 -4.62333 3.09601 0.666572 -0.223243 0.711227
-1.76502 -4.70141 3.09934 0.666572 -0.223243 0.711227
-1.68324 -4.65372 3.03788 0.666572 -0.223243 0.711227
-1.73555 -4.67552 3.07993 0.666572 -0.223243 0.711227
-1.67899 -4.56423 3.06203 0.666572 -0.223243 0.711227
-1.67875 -4.7357 3.00792 0.666572 -0.223243 0.711227
-1.82078 -4.67608 3.15942 0.666572 -0.223243 0.711227
-1.60106 -4.5258 3.00126 0.666572 -0.223243 0.711227
-1.55304 -4.51835 2.95872 0.666572 -0.223243 0.711227
-1.65625 -4.63135 3.01968 0.666572 -0.223243 0.711227
-1.665 -4.59677 3.03872 0.666572 -0.223243 0.711227
-1.59958 -4.57962 2.98296 0.666572 -0.223243 0.711227
-1.78278 -4.64746 3.13289 0.666572 -0.223243 0.711227
-1.65343 -4.57748 3.03397 0.666572 -0.223243 0.711227
-1.64873 -4.5574 3.03589 0.666572 -0.223243 0.711227
-1.66643 -4.63806 3.02708 0.666572 -0.223243 0.711227
-1.5831 -4.56297 2.97278 0.666572 -0.223243 0.711227
-1.70017 -4.74024 3.02651 0.666572 -0.223243 0.711227
-1.73745 -4.6806 3.08011 0.666572 -0.223243 0.711227
-1.65431 -4.73267 2.98603 0.666572 -0.223243 0.711227
-1.64292 -4.56648 3.02761 0.666572 -0.223243 0.711227
-1.84196 -4.6577 3.18499 0.666572 -0.223243 0.711227
-1.64535 -4.68178 2.99364 0.666572 -0.223243 0.711227
-1.54757 -4.50161 2.95886 0.666572 -0.223243 0.711227
-1.6895 -4.71399 3.02479 0.666572 -0.223243 0.711227
-1.68181 -4.60964 3.0504 0.666572 -0.223243 0.711227
-1.62617 -4.57628 3.00887 0.666572 -0.223243 0.711227
-1.6416 -4.57155 3.02478 0.666572 -0.223243 0.711227
-1.59637 -4.53635 2.99356 0.666572 -0.223243 0.711227
-1.70951 -4.655 3.06203 0.666572 -0.223243 0.711227
-1.72772 -4.62531 3.08839 0.666572 -0.223243 0.711227
-1.68783 -4.73975 3.01513 0.666572 -0.223243 0.711227
-1.67836 -4.60197 3.04957 0.666572 -0.223243 0.711227
-1.68506 -4.71116 3.02152 0.666572 -0.223243 0.711227
-1.7456 -4.60365 3.11191 0.666572 -0.223243 0.711227
-1.63868 -4.56858 3.02298 0.666572 -0.223243 0.711227
-1.7047 -4.62275 3.06767 0.666572 -0.223243 0.711227
-1.68527 -4.73805 3.01328 0.666572 -0.223243 0.711227
-1.81226 -4.63416 3.16463 0.666572 -0.223243 0.711227
-1.61194 -4.6177 2.98255 0.666572 -0.223243 0.711227
-1.75089 -4.70943 3.08361 0.666572 -0.223243 0.711227
-1.78373 -4.64214 3.13545 0.666572 -0.223243 0.711227
-1.68629 -4.62118 3.05095 0.666572 -0.223243 0.711227
-1.71404 -4.71845 3.04632 0.666572 -0.223243 0.711227
-1.7365 -4.59042 3.10755 0.666572 -0.223243 0.711227
-1.66345 -4.55381 3.05078 0.666572 -0.223243 0.711227
-1.65893 -4.7489 2.98525 0.666572 -0.223243 0.711227
-1.65319 -4.71397 2.99086 0.666572 -0.223243 0.711227
-1.8626 -4.66475 3.20207 0.666572 -0.223243 0.711227
-1.75806 -4.63037 3.11515 0.666572 -0.223243 0.711227
-1.58082 -4.58499 2.73604 0.436748 0.89392 -0.100789
-1.60944 -4.56721 2.76926 0.436748 0.89392 -0.100789
-1.54024 -4.61024 2.68862 0.436748 0.89392 -0.100789
-1.62219 -4.55965 2.78089 0.436748 0.89392 -0.100789
-1.51524 -4.62575 2.6598 0.436748 0.89392 -0.100789
-1.5571 -4.5998 2.70793 0.436748 0.89392 -0.100789
-1.5228 -4.62096 2.66936 0.436748 0.89392 -0.100789
-1.54538 -4.60674 2.69726 0.437969 0.893166 -0.102167
-1.47356 -4.65132 2.61432 0.437969 0.893166 -0.102167
-1.66621 -4.53198 2.83486 0.437969 0.893166 -0.102167
-1.5665 -4.59383 2.71998 0.437969 0.893166 -0.102167
-1.55172 -4.60299 2.70301 0.437969 0.893166 -0.102167
-1.4883 -4.64198 2.633 0.437969 0.893166 -0.102167
-1.4641 -4.657 2.60509 0.437969 0.893166 -0.102167
-1.47157 -4.65188 2.61907 0.463914 0.882819 -0.0735761
-1.4648 -4.65615 2.61039 0.463914 0.882819 -0.0735761
-1.52284 -4.62048 2.67366 0.463914 0.882819 -0.0735761
-1.6408 -4.54763 2.8067 0.463914 0.882819 -0.0735761
-1.64399 -4.54566 2.81031 0.463914 0.882819 -0.0735761
-1.45933 -4.65975 2.60137 0.463914 0.882819 -0.0735761
-1.51519 -4.6249 2.66872 0.463914 0.882819 -0.0735761
-1.57135 -4.59022 2.73201 0.463914 0.882819 -0.0735761
-1.63669 -4.54987 2.80562 0.463914 0.882819 -0.0735761
-1.65362 -4.53944 2.82448 0.463914 0.882819 -0.0735761
-1.65015 -4.54162 2.82008 0.463914 0.882819 -0.0735761
-1.59217 -4.57746 2.75428 0.463914 0.882819 -0.0735761
-1.45697 -4.66081 2.6039 0.48956 0.870841 -0.0443555
-1.62774 -4.55514 2.80037 0.48956 0.870841 -0.0443555
-1.52618 -4.61786 2.68598 0.48956 0.870841 -0.0443555
-1.50282 -4.63236 2.65821 0.48956 0.870841 -0.0443555
-1.49307 -4.63833 2.64806 0.48956 0.870841 -0.0443555
-1.46755 -4.65421 2.61711 0.48956 0.870841 -0.0443555
-1.6188 -4.5608 2.78755 0.48956 0.870841 -0.0443555
-1.66207 -4.53402 2.83743 0.48956 0.870841 -0.0443555
-1.595 -4.57544 2.76201 0.48956 0.870841 -0.0443555
-1.58514 -4.58165 2.74828 0.48956 0.870841 -0.0443555
-1.65739 -4.53687 2.83302 0.48956 0.870841 -0.0443555
-1.48424 -4.64373 2.64033 0.513141 0.858145 -0.0165677
-1.54831 -4.60413 2.71396 0.513141 0.858145 -0.0165677
-1.47888 -4.64702 2.63522 0.513141 0.858145 -0.0165677
-1.53664 -4.61135 2.70031 0.513141 0.858145 -0.0165677
-1.49349 -4.63796 2.65359 0.513141 0.858145 -0.0165677
-1.60767 -4.56746 2.7814 0.513141 0.858145 -0.0165677
-1.56235 -4.59547 2.72901 0.513141 0.858145 -0.0165677
-1.56835 -4.59178 2.73524 0.513141 0.858145 -0.0165677
-1.57739 -4.5862 2.74493 0.513141 0.858145 -0.0165677
-1.60222 -4.57084 2.77487 0.513141 0.858145 -0.0165677
-1.59957 -4.57251 2.76971 0.513141 0.858145 -0.0165677
-1.50605 -4.63028 2.6636 0.513141 0.858145 -0.0165677
-1.62701 -4.55556 2.8088 0.537344 0.843263 0.0129676
-1.53103 -4.61484 2.70038 0.537344 0.843263 0.0129676
-1.45667 -4.66072 2.61347 0.537344 0.843263 0.0129676
-1.56598 -4.59326 2.7397 0.537344 0.843263 0.0129676
-1.54865 -4.60395 2.71955 0.537344 0.843263 0.0129676
-1.44816 -4.66603 2.60649 0.537344 0.843263 0.0129676
-1.51341 -4.62572 2.68008 0.537344 0.843263 0.0129676
-1.48491 -4.64327 2.64465 0.537344 0.843263 0.0129676
-1.52265 -4.61996 2.68696 0.537344 0.843263 0.0129676
-1.66237 -4.53371 2.84809 0.537344 0.843263 0.0129676
-1.56982 -4.59084 2.74164 0.537344 0.843263 0.0129676
-1.63777 -4.54889 2.81903 0.537344 0.843263 0.0129676
-1.61371 -4.56397 2.79754 0.560466 0.827099 0.0422497
-1.54338 -4.60743 2.71864 0.560466 0.827099 0.0422497
-1.58536 -4.58146 2.76526 0.560466 0.827099 0.0422497
-1.52153 -4.62092 2.69384 0.560466 0.827099 0.0422497
-1.50458 -4.63133 2.67364 0.560466 0.827099 0.0422497
-1.45147 -4.66406 2.61208 0.560466 0.827099 0.0422497
-1.58293 -4.5829 2.76118 0.560466 0.827099 0.0422497
-1.62407 -4.55746 2.80727 0.560466 0.827099 0.0422497
-1.63827 -4.54876 2.82453 0.560466 0.827099 0.0422497
-1.57544 -4.58751 2.75255 0.560466 0.827099 0.0422497
-1.56953 -4.59114 2.74544 0.560466 0.827099 0.0422497
-1.49325 -4.63862 2.66478 0.582278 0.809888 0.0709489
-1.4574 -4.66075 2.6241 0.582278 0.809888 0.0709489
-1.52459 -4.61927 2.70021 0.582278 0.809888 0.0709489
-1.49636 -4.63668 2.66803 0.582278 0.809888 0.0709489
-1.47096 -4.65243 2.64015 0.582278 0.809888 0.0709489
-1.51048 -4.62793 2.68365 0.582278 0.809888 0.0709489
-1.4653 -4.65578 2.63207 0.582278 0.809888 0.0709489
-1.62568 -4.55685 2.81451 0.582278 0.809888 0.0709489
-1.55122 -4.60273 2.72928 0.582278 0.809888 0.0709489
-1.66157 -4.53464 2.85461 0.582278 0.809888 0.0709489
-1.54783 -4.60476 2.72464 0.582278 0.809888 0.0709489
-1.60396 -4.57026 2.79004 0.582278 0.809888 0.0709489
-1.59357 -4.57648 2.77604 0.582278 0.809888 0.0709489
-1.64854 -4.54262 2.83908 0.582278 0.809888 0.0709489
-1.45382 -4.66365 2.62621 0.602592 0.791918 0.0987384
-1.44818 -4.66701 2.61881 0.602592 0.791918 0.0987384
-1.52602 -4.61898 2.70712 0.602592 0.791918 0.0987384
-1.5196 -4.62289 2.69943 0.602592 0.791918 0.0987384
-1.51717 -4.62424 2.69545 0.602592 0.791918 0.0987384
-1.45078 -4.66545 2.6222 0.602592 0.791918 0.0987384
-1.55968 -4.59803 2.74385 0.602592 0.791918 0.0987384
-1.60064 -4.57251 2.7883 0.602592 0.791918 0.0987384
-1.59215 -4.57781 2.77918 0.602592 0.791918 0.0987384
-1.6229 -4.55893 2.81481 0.602592 0.791918 0.0987384
-1.64484 -4.54549 2.84042 0.602592 0.791918 0.0987384
-1.56914 -4.593 2.75994 0.622807 0.771907 0.127559
-1.45812 -4.66121 2.63243 0.622807 0.771907 0.127559
-1.48922 -4.64218 2.66857 0.622807 0.771907 0.127559
-1.51962 -4.62339 2.70286 0.622807 0.771907 0.127559
-1.44366 -4.67044 2.61789 0.622807 0.771907 0.127559
-1.49883 -4.63644 2.68063 0.622807 0.771907 0.127559
-1.5277 -4.61902 2.71531 0.641232 0.75153 0.154999
-1.48986 -4.64249 2.67307 0.641232 0.75153 0.154999
-1.45075 -4.66642 2.62784 0.641232 0.75153 0.154999
-1.45272 -4.66532 2.63065 0.641232 0.75153 0.154999
-1.47884 -4.64907 2.65956 0.641232 0.75153 0.154999
-1.46319 -4.65901 2.64319 0.641232 0.75153 0.154999
-1.56823 -4.59319 2.75662 0.622807 0.771907 0.127559
-1.65162 -4.54166 2.85066 0.622807 0.771907 0.127559
-1.59773 -4.57485 2.78926 0.622807 0.771907 0.127559
-1.63869 -4.54962 2.83592 0.622807 0.771907 0.127559
-1.58231 -4.58435 2.77165 0.622807 0.771907 0.127559
-1.55613 -4.60158 2.74803 0.641232 0.75153 0.154999
-1.55283 -4.60372 2.7448 0.641232 0.75153 0.154999
-1.57316 -4.59127 2.76824 0.641232 0.75153 0.154999
-1.6009 -4.57373 2.79758 0.641232 0.75153 0.154999
-1.61645 -4.56408 2.81491 0.641232 0.75153 0.154999
-1.61064 -4.56782 2.80913 0.641232 0.75153 0.154999
-1.46382 -4.65958 2.64807 0.659278 0.729253 0.183144
-1.45338 -4.66624 2.63713 0.659278 0.729253 0.183144
-1.49173 -4.64221 2.67903 0.659278 0.729253 0.183144
-1.45617 -4.66397 2.63808 0.659278 0.729253 0.183144
-1.46025 -4.66202 2.64496 0.659278 0.729253 0.183144
-1.4968 -4.63901 2.68452 0.659278 0.729253 0.183144
-1.61558 -4.56613 2.82052 0.659278 0.729253 0.183144
-1.65459 -4.54151 2.86246 0.659278 0.729253 0.183144
-1.64644 -4.54643 2.85278 0.659278 0.729253 0.183144
-1.61221 -4.5678 2.8151 0.659278 0.729253 0.183144
-1.51983 -4.62449 2.70933 0.659278 0.729253 0.183144
-1.53941 -4.61264 2.73237 0.659278 0.729253 0.183144
-1.60204 -4.5757 2.80933 0.67535 0.707127 0.209462
-1.59547 -4.57957 2.80127 0.67535 0.707127 0.209462
-1.47901 -4.65158 2.67007 0.67535 0.707127 0.209462
-1.55419 -4.60517 2.75502 0.67535 0.707127 0.209462
-1.47179 -4.65535 2.65963 0.67535 0.707127 0.209462
-1.53281 -4.61796 2.72952 0.67535 0.707127 0.209462
-1.55026 -4.60695 2.74843 0.67535 0.707127 0.209462
-1.58981 -4.58228 2.79226 0.67535 0.707127 0.209462
-1.61603 -4.56677 2.82415 0.67535 0.707127 0.209462
-1.55269 -4.60522 2.75039 0.67535 0.707127 0.209462
-1.55837 -4.60199 2.75774 0.67535 0.707127 0.209462
-1.63434 -4.55556 2.84518 0.67535 0.707127 0.209462
-1.54148 -4.61383 2.74304 0.692211 0.681109 0.238609
-1.52749 -4.62261 2.72763 0.692211 0.681109 0.238609
-1.44095 -4.67642 2.63098 0.692211 0.681109 0.238609
-1.53513 -4.61778 2.73595 0.692211 0.681109 0.238609
-1.4637 -4.66227 2.65639 0.692211 0.681109 0.238609
-1.62832 -4.56034 2.8415 0.692211 0.681109 0.238609
-1.45652 -4.66564 2.64524 0.692211 0.681109 0.238609
-1.5827 -4.58831 2.7894 0.692211 0.681109 0.238609
-1.58087 -4.58892 2.78582 0.692211 0.681109 0.238609
-1.62609 -4.56151 2.83838 0.692211 0.681109 0.238609
-1.63948 -4.55285 2.85237 0.692211 0.681109 0.238609
-1.44857 -4.67208 2.64052 0.706909 0.655545 0.265596
-1.45622 -4.66791 2.65052 0.706909 0.655545 0.265596
-1.48671 -4.6486 2.68375 0.706909 0.655545 0.265596
-1.53268 -4.62074 2.73699 0.706909 0.655545 0.265596
-1.52225 -4.62703 2.72482 0.706909 0.655545 0.265596
-1.65103 -4.54677 2.8684 0.706909 0.655545 0.265596
-1.64553 -4.5503 2.86254 0.706909 0.655545 0.265596
-1.61947 -4.56651 2.8334 0.706909 0.655545 0.265596
-1.59664 -4.58078 2.80805 0.706909 0.655545 0.265596
-1.60302 -4.57715 2.81603 0.706909 0.655545 0.265596
-1.49937 -4.64275 2.70264 0.719525 0.630911 0.290234
-1.44995 -4.67299 2.64623 0.719525 0.630911 0.290234
-1.4531 -4.6708 2.64925 0.719525 0.630911 0.290234
-1.60556 -4.57771 2.82368 0.719525 0.630911 0.290234
-1.53762 -4.61914 2.74586 0.719525 0.630911 0.290234
-1.57438 -4.59663 2.78775 0.719525 0.630911 0.290234
-1.56762 -4.60058 2.77964 0.719525 0.630911 0.290234
-1.56487 -4.60184 2.77559 0.719525 0.630911 0.290234
-1.51921 -4.63007 2.7241 0.719525 0.630911 0.290234
-1.6107 -4.57316 2.82652 0.719525 0.630911 0.290234
-1.47025 -4.66 2.66815 0.719525 0.630911 0.290234
-1.64365 -4.5529 2.86391 0.719525 0.630911 0.290234
-1.56659 -4.60334 2.78266 0.732464 0.602335 0.317316
-1.4374 -4.68256 2.63573 0.732464 0.602335 0.317316
-1.48165 -4.65484 2.68496 0.732464 0.602335 0.317316
-1.47377 -4.66073 2.678 0.732464 0.602335 0.317316
-1.53162 -4.62501 2.74334 0.732464 0.602335 0.317316
-1.51574 -4.63491 2.72558 0.732464 0.602335 0.317316
-1.45907 -4.66968 2.66115 0.732464 0.602335 0.317316
-1.6218 -4.56783 2.84232 0.732464 0.602335 0.317316
-1.61303 -4.57398 2.8338 0.732464 0.602335 0.317316
-1.53467 -4.62161 2.74388 0.732464 0.602335 0.317316
-1.50128 -4.64226 2.70625 0.732464 0.602335 0.317316
-1.5198 -4.6311 2.72768 0.732464 0.602335 0.317316
-1.62609 -4.56537 2.84751 0.732464 0.602335 0.317316
-1.46806 -4.66475 2.67241 0.743274 0.575084 0.341792
-1.56363 -4.60688 2.78225 0.743274 0.575084 0.341792
-1.58814 -4.59192 2.8102 0.743274 0.575084 0.341792
-1.49062 -4.65132 2.69872 0.743274 0.575084 0.341792
-1.45209 -4.67488 2.65483 0.743274 0.575084 0.341792
-1.4981 -4.64661 2.70702 0.743274 0.575084 0.341792
-1.53469 -4.62412 2.74851 0.743274 0.575084 0.341792
-1.61032 -4.57862 2.83585 0.754018 0.543809 0.368413
-1.56137 -4.60856 2.78016 0.754018 0.543809 0.368413
-1.43304 -4.6896 2.63793 0.754018 0.543809 0.368413
-1.45992 -4.67268 2.66781 0.754018 0.543809 0.368413
-1.46295 -4.66969 2.66956 0.754018 0.543809 0.368413
-1.43062 -4.68973 2.63317 0.754018 0.543809 0.368413
-1.61293 -4.57604 2.83724 0.743274 0.575084 0.341792
-1.43265 -4.68625 2.63181 0.743274 0.575084 0.341792
-1.58418 -4.59388 2.80492 0.743274 0.575084 0.341792
-1.55995 -4.60852 2.77702 0.743274 0.575084 0.341792
-1.64455 -4.55625 2.87249 0.743274 0.575084 0.341792
-1.50754 -4.64312 2.72135 0.754018 0.543809 0.368413
-1.64227 -4.55892 2.87197 0.754018 0.543809 0.368413
-1.61512 -4.57719 2.84354 0.754018 0.543809 0.368413
-1.6377 -4.56217 2.86745 0.754018 0.543809 0.368413
-1.48766 -4.65572 2.69936 0.754018 0.543809 0.368413
-1.56206 -4.60992 2.78358 0.754018 0.543809 0.368413
-1.55441 -4.61619 2.77701 0.762665 0.51431 0.392208
-1.45703 -4.67626 2.66697 0.762665 0.51431 0.392208
-1.5151 -4.64066 2.73288 0.762665 0.51431 0.392208
-1.49795 -4.65072 2.71281 0.762665 0.51431 0.392208
-1.51737 -4.63898 2.73508 0.762665 0.51431 0.392208
-1.50473 -4.64682 2.72085 0.762665 0.51431 0.392208
-1.56735 -4.60828 2.79172 0.762665 0.51431 0.392208
-1.61276 -4.57924 2.84168 0.762665 0.51431 0.392208
-1.64169 -4.56129 2.87425 0.762665 0.51431 0.392208
-1.57707 -4.6014 2.80154 0.762665 0.51431 0.392208
-1.64567 -4.5588 2.87869 0.762665 0.51431 0.392208
-1.58713 -4.59527 2.81302 0.762665 0.51431 0.392208
-1.62643 -4.57086 2.85719 0.762665 0.51431 0.392208
-1.55448 -4.61874 2.78021 0.770185 0.483918 0.415498
-1.42852 -4.69484 2.63604 0.770185 0.483918 0.415498
-1.56821 -4.60994 2.79533 0.770185 0.483918 0.415498
-1.45549 -4.6796 2.66813 0.770185 0.483918 0.415498
-1.48343 -4.66102 2.69814 0.770185 0.483918 0.415498
-1.59254 -4.59337 2.821 0.770185 0.483918 0.415498
-1.61863 -4.57905 2.85255 0.770185 0.483918 0.415498
-1.57351 -4.60559 2.80007 0.770185 0.483918 0.415498
-1.63081 -4.57172 2.86654 0.770185 0.483918 0.415498
-1.53191 -4.63092 2.75268 0.770185 0.483918 0.415498
-1.64536 -4.56245 2.88262 0.770185 0.483918 0.415498
-1.51596 -4.64325 2.73751 0.776537 0.452764 0.438171
-1.64298 -4.56582 2.88195 0.776537 0.452764 0.438171
-1.5847 -4.60145 2.81578 0.776537 0.452764 0.438171
-1.49565 -4.65611 2.71492 0.776537 0.452764 0.438171
-1.63852 -4.56832 2.87666 0.776537 0.452764 0.438171
-1.46734 -4.6739 2.68326 0.776537 0.452764 0.438171
-1.547 -4.62521 2.77371 0.776537 0.452764 0.438171
-1.55642 -4.6196 2.78455 0.776537 0.452764 0.438171
-1.49731 -4.65659 2.71834 0.776537 0.452764 0.438171
-1.45928 -4.67951 2.67481 0.776537 0.452764 0.438171
-1.50701 -4.65153 2.73014 0.781695 0.420993 0.460128
-1.45478 -4.68335 2.67078 0.781695 0.420993 0.460128
-1.48019 -4.66772 2.69954 0.781695 0.420993 0.460128
-1.45234 -4.68449 2.6677 0.781695 0.420993 0.460128
-1.52224 -4.64148 2.74676 0.781695 0.420993 0.460128
-1.60721 -4.58897 2.84264 0.781695 0.420993 0.460128
-1.57346 -4.61055 2.80522 0.781695 0.420993 0.460128
-1.63825 -4.57106 2.87884 0.781695 0.420993 0.460128
-1.57008 -4.61396 2.80261 0.781695 0.420993 0.460128
-1.60522 -4.59198 2.84202 0.781695 0.420993 0.460128
-1.61791 -4.58425 2.85644 0.781695 0.420993 0.460128
-1.62315 -4.5808 2.86217 0.781695 0.420993 0.460128
-1.58508 -4.60562 2.8203 0.785977 0.385514 0.483342
-1.63161 -4.57777 2.87354 0.785977 0.385514 0.483342
-1.64269 -4.57029 2.88555 0.785977 0.385514 0.483342
-1.6034 -4.59483 2.84141 0.785977 0.385514 0.483342
-1.5627 -4.61991 2.79542 0.785977 0.385514 0.483342
-1.63531 -4.57636 2.87841 0.785977 0.385514 0.483342
-1.54593 -4.63134 2.77734 0.785977 0.385514 0.483342
-1.50913 -4.65376 2.73556 0.785977 0.385514 0.483342
-1.48403 -4.66986 2.70769 0.785977 0.385514 0.483342
-1.48711 -4.66723 2.71059 0.785977 0.385514 0.483342
-1.57597 -4.61251 2.81103 0.785977 0.385514 0.483342
-1.46148 -4.68591 2.68374 0.788613 0.352944 0.503508
-1.47317 -4.67765 2.69621 0.788613 0.352944 0.503508
-1.4542 -4.6891 2.6746 0.788613 0.352944 0.503508
