ply
format ascii 1.0
element vertex 900
property float x
property float y
property float z
property float nx
property float ny
property float nz
end_header
53.5277 6.60072 -667.209 0.661233 0.296717 0.689006
59.8929 -4.496 -674.226 0.902467 -0.316995 0.291663
72.5982 -33.6636 -690.365 0.673166 0.456459 0.581802
73.5859 -34.3735 -690.99 0.670364 0.438065 0.598925
58.4946 1.0947 -670.148 0.802833 0.0264917 0.595615
59.9437 -2.13395 -671.381 0.849365 0.037263 0.526489
75.0823 -35.2461 -692.089 0.716732 0.461354 0.522922
75.7299 -36.485 -691.82 0.687766 0.436319 0.580176
86.6391 -61.8735 -707.158 0.618092 -0.349619 -0.704079
87.6948 -61.6789 -706.212 0.699781 -0.332658 -0.632175
78.9523 -41.8407 -691.69 0.778557 0.357561 0.515751
81.8737 -44.6596 -693.386 0.538126 0.585611 0.606201
82.4731 -45.4427 -693.019 0.387546 0.715554 0.581198
89.42 -60.0842 -700.908 0.74038 0.671205 0.0363541
89.7336 -62.0486 -703.124 0.87652 -0.141795 -0.460007
89.242 -58.89 -699.098 0.934146 0.31235 -0.172654
89.3174 -59.9077 -700.245 0.82648 0.550861 -0.116115
88.8743 -57.4518 -698.139 0.942628 0.257971 -0.211905
90.3242 -60.7438 -699.395 0.701598 0.70828 -0.0780962
90.4692 -60.8457 -700.729 0.765673 0.626904 -0.144003
90.83 -61.6656 -700.831 0.913056 0.210308 -0.349428
89.3835 -57.7449 -696.896 0.87665 0.146295 -0.458348
91.1282 -61.6581 -699.708 0.858312 0.47952 -0.182647
84.8632 -48.0231 -689.973 0.396288 0.851833 0.342546
92.3781 -59.5618 -692.959 0.837968 0.169462 -0.518742
94.5954 -59.6429 -689.074 0.80477 0.224143 -0.549642
94.8086 -57.6907 -688.406 0.784529 0.159414 -0.599251
90.989 -51.1252 -683.82 0.201383 0.979399 0.0149261
91.8403 -51.3361 -681.706 0.11771 0.986156 0.116797
96.1294 -59.156 -686.82 0.765633 0.143557 -0.627054
93.5174 -51.7083 -680.57 0.187575 0.975647 0.113705
97.0667 -60.9548 -686.818 0.761765 0.246231 -0.599236
93.361 -51.8881 -679.456 0.103163 0.961132 0.25609
98.1581 -59.9119 -685.068 0.755088 0.206872 -0.62213
99.0402 -62.5034 -684.479 0.872084 -0.133302 -0.47085
99.7871 -61.8942 -683.26 0.864916 -0.266236 -0.425487
99.9545 -62.2112 -682.475 0.803872 -0.546656 -0.234428
100.626 -62.0623 -680.782 0.713771 -0.619133 -0.327422
97.3724 -53.951 -676.409 0.406472 0.788325 0.46187
99.2606 -56.2912 -675.555 0.838166 0.422484 0.34494
101.445 -59.5599 -676.746 0.900992 0.0737771 0.427516
-46.4019 109.328 -707.806 0.498338 0.697094 -0.515479
-46.18 108.414 -708.544 0.723985 0.349369 -0.5948
-43.7013 103.242 -711.119 0.485874 0.578659 -0.655043
-45.5498 108.154 -707.371 0.796523 0.377821 -0.472019
-43.2194 103.429 -710.46 0.680651 0.521889 -0.514146
-43.2627 102.44 -711.25 0.636797 0.408526 -0.653908
-46.2435 110.068 -706.353 0.574682 0.769762 -0.277862
-45.8223 109.195 -707.276 0.757177 0.510936 -0.406972
-45.1825 107.677 -707.369 0.457214 0.640553 -0.616967
-43.9617 106.253 -708.175 0.522016 0.379355 -0.76393
-44.3824 105.057 -709.192 0.640627 0.650864 -0.407397
-43.456 104.166 -709.883 0.591487 0.682432 -0.429453
-42.673 102.086 -710.896 0.415777 0.623226 -0.662358
-42.3712 101.259 -711.622 0.275958 0.607107 -0.745163
-42.039 100.673 -711.91 0.431858 0.449626 -0.781879
-45.727 109.574 -706.316 0.786555 0.592595 -0.173676
-45.2774 108.8 -706.181 0.696762 0.629763 -0.343397
-45.6402 109.441 -705.065 0.693894 0.713833 -0.0946224
-43.8603 105.102 -708.463 0.602619 0.484712 -0.633959
-43.2131 104.402 -708.541 0.557234 0.694151 -0.455682
-41.5095 99.1825 -712.119 0.440708 0.389494 -0.808746
-40.1278 99.2819 -711.525 0.507593 0.391027 -0.767754
-45.2034 109.218 -704.933 0.433328 0.872371 -0.226265
-42.8916 104.631 -708.075 0.44214 0.514813 -0.734493
-42.744 104.079 -708.5 0.624224 0.629009 -0.463349
-42.4063 103.398 -708.905 0.575596 0.704172 -0.41573
-39.5085 98.2644 -711.285 0.518452 0.368652 -0.771559
-43.8681 108.856 -704.05 0.458152 0.875737 -0.152253
-37.3935 95.6255 -711.648 0.455013 0.385777 -0.802583
-43.3257 108.54 -703.816 0.70798 0.699712 -0.09575
-43.6479 108.815 -703.119 0.572028 0.819914 0.0229004
-36.1747 92.8308 -712.367 0.361319 0.346138 -0.865816
-42.7039 107.776 -702.429 0.550967 0.831663 -0.0690762
-35.4335 92.1227 -712.225 0.373746 0.390437 -0.841352
-42.7112 107.895 -701.261 0.463266 0.885525 -0.0350778
-34.4436 90.0697 -712.592 0.3354 0.32564 -0.884005
-32.0202 87.4946 -712.836 0.275855 0.382807 -0.881682
-41.3144 107.371 -701.051 0.538449 0.84245 0.0187446
-40.4831 106.455 -700.45 0.594432 0.804035 -0.0133626
-40.5224 106.481 -699.536 0.527938 0.846337 0.0706806
-28.311 82.4796 -713.919 0.230921 0.307195 -0.923204
-39.0802 105.861 -698.954 0.484757 0.865371 0.127061
-28.2354 80.7566 -714.216 0.195543 0.290183 -0.93678
-38.483 105.303 -698.515 0.658901 0.724359 0.202863
-25.9374 77.612 -714.761 0.282947 0.169581 -0.944025
-37.659 104.188 -697.732 0.611306 0.770204 0.181909
-25.2039 77.9952 -714.451 0.341344 0.136028 -0.930043
-25.0457 76.511 -714.441 0.202699 0.202142 -0.95815
-35.798 102.806 -697.133 0.52284 0.846457 0.10074
-19.8617 70.8836 -715.005 0.161237 0.230439 -0.959636
-33.9131 101.359 -694.728 0.466973 0.848859 0.24774
-16.2743 65.1451 -716.453 0.0284728 0.299432 -0.953693
-14.6575 60.2296 -717.739 0.120632 0.134339 -0.983566
-11.1191 56.9684 -718.13 0.0866517 0.119534 -0.989042
-30.0475 98.3324 -692.738 0.572857 0.769506 0.282306
-9.72174 54.7501 -718.439 0.165726 0.167519 -0.97184
-7.72242 52.162 -718.968 -0.0919837 0.167275 -0.98161
-28.7729 96.9065 -690.895 0.428444 0.853374 0.296966
-7.50056 50.4497 -719.118 0.00794975 0.113709 -0.993482
-1.08317 43.703 -719.555 0.0884298 0.15667 -0.983684
-1.17505 42.1668 -719.745 0.0881401 0.140374 -0.986168
7.07379 32.2383 -719.416 0.139313 0.143725 -0.979763
-18.5603 87.8038 -685.454 0.457802 0.652846 0.603497
6.50062 30.6464 -719.823 0.211799 0.139009 -0.967377
-16.4783 85.3717 -684.287 0.402203 0.701669 0.588126
9.87335 29.7973 -719.61 0.0868848 0.313667 -0.94555
10.2498 28.5482 -719.804 0.209305 0.195867 -0.958033
9.73399 26.8993 -720.282 0.260392 0.142729 -0.954895
-15.4857 84.3756 -683.788 0.331577 0.752114 0.569545
13.634 25.5149 -719.226 0.381571 0.0565143 -0.92261
13.3123 24.5247 -719.492 0.486443 0.0182703 -0.873521
-13.3984 82.888 -682.771 0.294623 0.792906 0.533383
16.0282 21.7857 -718.152 0.213648 0.197055 -0.95683
17.2291 21.1003 -718.342 0.176791 0.0665378 -0.981997
18.2118 18.2808 -717.466 0.470848 -0.18096 -0.863456
-8.93166 79.5488 -679.697 0.284465 0.831069 0.477917
20.7917 18.134 -715.91 0.383402 -0.0899056 -0.919195
20.9808 16.8947 -715.802 0.33122 0.0471103 -0.942377
21.6521 15.579 -715.751 0.384255 0.0628504 -0.921085
22.5939 15.0071 -715.306 0.390389 0.011981 -0.920572
24.5983 13.6488 -714.711 0.35431 -0.0093348 -0.935081
25.435 12.7859 -714.165 0.308196 0.0366177 -0.950618
-3.84393 75.1252 -674.346 0.229336 0.826989 0.513316
26.2431 11.9636 -714.196 0.29547 0.0674311 -0.952969
26.3221 10.7116 -714.074 0.384496 -0.0109773 -0.923061
-1.93368 74.879 -675.135 0.244834 0.840519 0.483306
30.0335 7.90025 -712.654 0.386333 -0.0189757 -0.922164
-0.480791 73.0692 -672.438 0.143494 0.84546 0.514399
0.888999 72.1413 -670.997 0.14857 0.845813 0.512375
32.1896 5.11975 -711.726 0.341305 -0.0128908 -0.939864
32.9228 3.45163 -711.318 0.407635 -0.12182 -0.904983
2.9356 70.6788 -670.113 0.232346 0.766761 0.598409
3.91358 69.9259 -669.238 0.065398 0.814364 0.576657
35.6859 1.96985 -710.28 0.322468 -0.116568 -0.939376
6.65982 67.3225 -666.688 0.157694 0.732654 0.66208
41.1636 -3.61518 -708.515 0.0348188 0.02383 -0.99911
10.3848 64.5914 -665.562 0.426858 0.591694 0.683879
13.8702 60.6148 -663.095 0.251432 0.584581 0.771393
47.2167 -10.7222 -706.996 0.144792 -0.23569 -0.960982
46.9184 -11.8851 -706.711 0.121238 -0.232855 -0.964925
49.0813 -11.6126 -706.62 0.12293 -0.120715 -0.985046
15.1922 59.0528 -662.215 0.333588 0.499566 0.799471
49.2577 -12.2434 -706.47 0.218128 -0.335165 -0.916561
54.4846 -17.6567 -703.092 0.3989 -0.0451154 -0.915884
24.52 49.6743 -660.597 0.40564 0.477952 0.779114
57.3712 -19.3679 -702.259 0.431694 0.0504482 -0.900608
56.5337 -20.6489 -702.636 0.268933 0.161699 -0.949488
25.1415 48.4273 -660.271 0.373197 0.476078 0.796288
56.6482 -21.3258 -702.844 0.0379147 0.41933 -0.907042
57.1807 -21.9042 -703.196 0.0864776 0.446484 -0.890603
58.1371 -21.8547 -702.904 0.411194 0.198568 -0.889657
25.7224 47.0867 -659.648 0.353995 0.453951 0.81769
58.3611 -23.1945 -702.925 0.329379 0.313058 -0.890789
59.305 -23.946 -703.218 0.263255 0.311806 -0.912948
60.284 -24.7552 -702.97 0.304422 0.303275 -0.902968
60.3981 -25.8425 -703.44 0.193885 0.383419 -0.902994
61.0942 -26.7798 -703.639 0.267772 0.353205 -0.896406
63.4193 -29.6666 -703.819 0.352228 0.392883 -0.849458
30.9003 39.8458 -660.24 0.56498 0.0219808 0.824812
32.6737 39.2277 -661.2 0.510453 0.0875911 0.855433
64.3147 -31.3739 -704.127 0.295616 0.338279 -0.893409
65.2633 -32.8058 -704.522 0.269037 0.367189 -0.890388
66.3063 -33.3796 -704.4 0.238073 0.394713 -0.887425
67.6577 -35.4743 -704.79 0.462497 0.297025 -0.835388
68.6715 -36.035 -704.243 0.363234 0.367394 -0.856202
68.3191 -37.0984 -704.853 0.359756 0.394435 -0.845575
70.1022 -39.1454 -705.647 0.314475 0.402312 -0.859797
73.7353 -46.5838 -709.982 0.445373 0.555993 -0.701794
73.8508 -47.2292 -710.356 0.49503 0.534585 -0.684955
73.9774 -48.3285 -711.229 0.574388 0.538415 -0.616594
74.9039 -50.7308 -711.934 0.401189 0.472629 -0.784646
76.476 -50.9735 -711.623 0.356745 0.443562 -0.822184
40.3617 24.5084 -663.421 0.480506 0.369 0.795583
76.6838 -51.9555 -712.036 0.350714 0.490761 -0.797592
77.1276 -52.7815 -712.465 0.409306 0.51079 -0.756018
77.0975 -53.6645 -713.159 0.522013 0.53068 -0.667744
77.3753 -53.689 -712.688 0.801816 0.345036 -0.487895
42.1419 25.3504 -665.039 0.609578 0.369054 0.701579
41.736 24.3491 -664.309 0.59516 0.269252 0.757158
77.8057 -52.5768 -711.889 0.544393 0.399497 -0.73759
78.0226 -54.4418 -711.902 0.605908 0.426933 -0.67127
79.0149 -55.2597 -712.262 0.430704 0.696984 -0.57333
79.1781 -54.5325 -711.526 0.463836 0.417012 -0.781637
80.6027 -56.2971 -712.263 0.526582 0.409952 -0.744749
44.647 20.7978 -665.657 0.675169 0.325371 0.662027
52.253 8.63574 -667.353 0.698291 0.27181 0.6622
61.8226 -11.5255 -680.713 0.928127 0.363228 0.0815271
65.952 -21.5751 -684.452 0.964289 0.176323 0.197628
66.7928 -22.4582 -686.414 0.924854 0.175771 0.337268
66.8317 -23.8785 -686.162 0.902521 0.208434 0.376845
60.1093 -8.03118 -676.554 0.929286 0.190387 0.316514
60.871 -9.36907 -677.762 0.943152 0.190302 0.272487
61.2278 -10.4922 -678.513 0.93594 0.294361 0.193309
62.0312 -11.8407 -678.782 0.890925 0.440009 0.112448
63.4934 -14.6391 -681.33 0.947826 0.296709 0.116574
64.9658 -18.0107 -683.391 0.858916 0.491719 0.143097
65.2317 -18.6836 -683.08 0.933921 0.297476 0.198242
65.5602 -19.3469 -683.92 0.950645 0.103888 0.292371
69.7551 -27.5984 -689.795 0.854746 0.403092 0.326994
59.5004 -5.52295 -673.976 0.90647 -0.30419 0.292883
71.1211 -30.9555 -690.151 0.79774 0.298915 0.523699
56.8757 3.74288 -669.014 0.63987 0.322198 0.697678
56.7477 2.10443 -668.042 0.630227 0.220576 0.744419
57.4246 1.7686 -668.653 0.739057 0.0360085 0.67268
58.8067 -0.172642 -670.199 0.80004 0.114058 0.589005
89.2343 -63.1249 -703.377 0.760315 -0.384774 -0.523327
81.3697 -45.5144 -691.998 0.538083 0.655663 0.529691
81.9892 -46.3572 -691.387 0.388764 0.811503 0.436262
89.1109 -59.323 -699.872 0.928645 0.305357 -0.210654
89.7939 -60.1696 -699.144 0.796097 0.581235 -0.168508
89.3069 -58.624 -697.502 0.918469 0.306727 -0.249666
89.9942 -59.7435 -696.973 0.822586 0.480432 -0.304199
91.2262 -63.0045 -699.91 0.874734 -0.234592 -0.424036
90.5139 -60.6571 -697.486 0.715523 0.667761 -0.205239
91.4489 -61.5741 -698.091 0.71433 0.669426 -0.203964
91.654 -62.0763 -698.744 0.883426 0.371434 -0.285649
91.4975 -62.6602 -699.42 0.931158 -0.0254822 -0.363726
89.6803 -58.7931 -696.742 0.853299 0.259242 -0.45241
92.0497 -62.6699 -697.739 0.952456 0.027059 -0.303473
92.001 -62.0509 -697.478 0.870742 0.396165 -0.291309
92.5052 -62.3279 -696.281 0.915875 0.206661 -0.344185
91.4026 -59.5526 -694.302 0.813442 0.199302 -0.546435
92.3825 -61.7548 -695.824 0.746643 0.586768 -0.313413
87.9687 -50.0915 -687.694 0.398939 0.91396 0.0743306
87.3279 -49.9131 -686.417 0.32951 0.933883 0.138875
92.4375 -60.1377 -693.063 0.817433 0.296789 -0.493679
93.3837 -59.5493 -691.041 0.866117 0.159253 -0.473793
95.1296 -61.5803 -690.214 0.721072 0.539313 -0.434967
93.8591 -60.335 -690.584 0.7959 0.356129 -0.489607
93.8147 -60.7778 -691.071 0.747917 0.507145 -0.42828
95.4019 -62.2491 -690.474 0.892806 0.216653 -0.394916
89.8488 -50.863 -684.07 0.212101 0.973282 0.0879489
95.9064 -59.8542 -687.344 0.745825 0.317963 -0.585358
96.0319 -61.0176 -688.191 0.753503 0.408841 -0.514861
95.7705 -61.8628 -689.366 0.877155 0.228406 -0.422409
96.4003 -61.7307 -688.032 0.847401 0.14155 -0.511738
97.5154 -63.1309 -686.633 0.787297 0.0213627 -0.616203
98.8984 -63.1815 -684.387 0.841021 -0.409764 -0.353238
95.3662 -53.784 -675.645 0.133878 0.841402 0.523565
96.3838 -53.1213 -677.232 0.23423 0.884283 0.403956
96.7327 -54.2906 -675.439 0.317969 0.762527 0.563425
101.391 -61.893 -678.984 0.89371 -0.442953 -0.0712419
99.0266 -56.9498 -674.573 0.738836 0.336 0.584145
99.4771 -57.6837 -674.955 0.874832 0.142386 0.463028
99.9132 -57.7206 -676.114 0.754868 0.423791 0.500575
101.563 -61.3535 -678.148 0.941227 -0.320036 0.108018
-48.9864 110.684 -709.251 0.617256 0.461305 -0.637332
-48.5274 110.875 -708.471 0.793877 0.448644 -0.410462
-46.4781 105.276 -711.949 0.476769 0.591485 -0.650259
-48.114 108.987 -709.054 0.432712 0.605003 -0.66838
-45.6879 103.834 -712.244 0.62738 0.357715 -0.691689
-48.5612 111.286 -707.804 0.78141 0.576158 -0.239667
-47.9037 109.617 -708.182 0.478312 0.681853 -0.553438
-47.014 108.842 -708.904 0.37647 0.590085 -0.714192
-47.8578 108.359 -709.47 0.432542 0.559751 -0.706814
-46.1741 106.209 -710.693 0.48152 0.736754 -0.474693
-45.3616 105.66 -710.432 0.66192 0.63075 -0.40499
-48.3072 111.226 -706.217 0.668104 0.720856 -0.1844
-48.1273 110.497 -707.4 0.731372 0.5719 -0.371517
-47.5061 110.421 -706.956 0.400344 0.794937 -0.45585
-46.2242 107.22 -708.9 0.748549 0.246759 -0.615455
-46.7489 107.095 -709.522 0.575081 0.572758 -0.584149
-44.9243 104.756 -710.796 0.698277 0.486063 -0.525502
-44.7438 103.538 -711.356 0.540581 0.498303 -0.67784
-47.8054 110.82 -706.396 0.43467 0.791189 -0.430211
-45.3033 106.041 -709.19 0.597912 0.671084 -0.438347
-44.3601 104.418 -710.306 0.58692 0.619282 -0.521551
-44.0375 102.619 -711.781 0.438229 0.48943 -0.753932
-45.8258 106.86 -708.625 0.582975 0.574154 -0.57488
-45.056 106.338 -708.706 0.441633 0.592552 -0.673678
-43.267 101.422 -711.715 0.43686 0.480333 -0.760548
-46.9552 110.629 -705.933 0.477944 0.845711 -0.237366
-47.1672 111.062 -703.934 0.537782 0.84067 -0.0637488
-40.8273 98.1145 -712.42 0.463354 0.327559 -0.823412
-46.2011 110.226 -704.945 0.704916 0.708657 -0.0299924
-46.0357 109.973 -704.025 0.714029 0.699335 -0.0330478
-38.7481 97.1966 -711.615 0.415004 0.398871 -0.817725
-45.6322 109.706 -702.967 0.545726 0.836348 -0.052019
-38.1195 94.1858 -712.532 0.404615 0.32197 -0.855933
-37.3619 94.0109 -712.169 0.384702 0.354766 -0.852142
-36.8281 91.6643 -713.043 0.31424 0.335404 -0.88812
-44.1494 108.968 -701.294 0.525303 0.843705 0.11054
-34.7439 88.098 -713.568 0.293987 0.337269 -0.894327
-33.6119 87.153 -713.534 0.271599 0.360723 -0.892252
-33.0713 86.268 -713.634 0.250607 0.35197 -0.901839
-31.8228 86.0228 -713.505 0.289522 0.354315 -0.889178
-31.1789 84.9055 -713.58 0.267254 0.319616 -0.909077
-41.5264 107.323 -699.484 0.503757 0.848732 0.16088
-40.1816 106.175 -698.142 0.410172 0.887043 0.211928
-26.4954 78.8108 -714.449 0.22846 0.260713 -0.937995
-25.9831 78.3705 -714.541 0.167546 0.31168 -0.935299
-38.1942 104.308 -696.762 0.574984 0.77621 0.258635
-19.9375 68.6271 -715.79 0.261656 0.200924 -0.944016
-34.9721 102.238 -695.287 0.493187 0.851453 0.178308
-17.9293 66.3902 -716.404 -0.0292557 0.364629 -0.930693
-17.506 65.664 -716.605 0.139705 0.20849 -0.967995
-16.7667 62.9515 -717.21 0.0372618 0.193771 -0.980339
-15.5532 61.3673 -717.471 -0.076728 0.252395 -0.964577
-30.5023 98.0067 -691.13 0.501791 0.826284 0.255854
-10.7861 55.005 -718.536 -0.0155072 0.153956 -0.987956
-9.83592 53.6334 -718.647 0.066283 0.171088 -0.983024
-28.1702 96.3404 -690.207 0.406752 0.821959 0.398668
-3.88972 44.7805 -719.593 0.0432429 0.0620204 -0.997138
-2.77287 44.39 -719.521 0.0641285 0.0802476 -0.99471
-25.7688 93.7975 -687.954 0.403276 0.733677 0.546887
2.28124 38.716 -719.591 0.163714 0.0237109 -0.986223
1.73225 37.411 -719.705 0.176449 0.0495456 -0.983062
2.13277 34.962 -719.826 0.160152 0.136177 -0.977654
8.43631 29.0252 -720.033 0.0540935 0.389626 -0.919383
11.1629 26.5734 -719.788 0.31415 0.158121 -0.936113
11.6833 25.6116 -719.93 0.292566 0.213128 -0.932192
-14.4066 83.0706 -682.414 0.300962 0.785711 0.540445
15.5556 21.4885 -718.386 0.362758 0.12488 -0.923478
-11.0981 81.3653 -681.347 0.280851 0.810915 0.51336
16.1242 20.5542 -718.599 0.133902 0.145298 -0.980285
16.6432 19.3547 -718.507 0.308374 -0.126977 -0.942752
19.7841 16.3868 -716.336 0.452079 0.0970347 -0.886684
-6.24964 77.2683 -676.834 0.225975 0.84822 0.479018
23.1381 13.2737 -715.201 0.374352 0.123746 -0.918993
-5.08971 75.8906 -675.327 0.217402 0.832213 0.510057
24.7389 12.1486 -714.478 0.377937 0.0866456 -0.921768
27.0946 9.76486 -713.801 0.417583 -0.018636 -0.908448
28.2226 9.32748 -713.186 0.371963 0.0125767 -0.928162
31.5552 5.75233 -711.895 0.320691 -0.0142204 -0.947077
34.3724 2.80987 -710.466 0.289689 -0.0522971 -0.955691
4.63257 69.3268 -668.472 0.129567 0.767543 0.627766
7.48702 66.5724 -666.089 0.136921 0.68157 0.718829
10.9766 63.9847 -665.352 0.27159 0.701097 0.659319
43.6825 -6.29879 -708.003 0.140073 -0.0527892 -0.988733
15.8246 57.9876 -661.945 0.350232 0.497595 0.793559
16.6035 56.553 -661.219 0.342528 0.510631 0.788626
19.0307 54.218 -660.718 0.301467 0.521904 0.797956
21.2148 53.0325 -661.36 0.347377 0.53967 0.766867
22.0851 51.775 -660.617 0.314832 0.541396 0.779597
22.133 50.8867 -660.141 0.399999 0.39699 0.826075
55.156 -20.4225 -703.117 0.2368 0.0742427 -0.968718
57.5147 -22.3427 -703.331 0.318805 0.263709 -0.910396
26.851 46.1035 -659.745 0.359355 0.469995 0.806206
27.6649 43.9707 -658.816 0.426586 0.294207 0.855258
62.6576 -29.1056 -703.963 0.291028 0.3218 -0.90097
30.2861 42.8061 -659.865 0.470687 0.2588 0.843491
63.6031 -30.383 -704.096 0.308835 0.326766 -0.893222
33.8828 33.7576 -662.12 0.569142 0.144676 0.809411
67.383 -36.6457 -705.401 0.432189 0.302567 -0.849509
35.0892 31.6842 -662.541 0.545167 0.188642 0.816827
37.7013 32.5515 -664.652 0.63682 0.199943 0.744636
67.7424 -38.7316 -705.952 0.255479 0.463354 -0.848548
71.6674 -45.4549 -709.756 0.150241 0.650058 -0.744884
73.9687 -50.1068 -712.344 0.501222 0.390048 -0.772424
71.3163 -40.6077 -705.738 0.375421 0.453199 -0.808498
74.0626 -48.8423 -711.558 0.625041 0.437171 -0.646688
70.4492 -41.5307 -706.693 0.314353 0.529478 -0.787931
71.5583 -42.538 -706.987 0.231233 0.621206 -0.748755
74.7996 -52.0219 -712.712 0.354682 0.41027 -0.840166
75.9459 -52.7338 -712.723 0.197747 0.51961 -0.831205
76.408 -53.7195 -713.423 0.13027 0.580021 -0.804118
77.7183 -54.833 -713.462 0.635778 0.46201 -0.618331
77.3623 -55.2877 -713.859 0.385969 0.265236 -0.883559
77.9759 -55.8855 -713.768 0.465365 0.283324 -0.838548
78.2241 -55.2001 -713.124 0.620719 0.586785 -0.519991
78.8807 -55.9703 -713.224 0.50863 0.429651 -0.746121
43.0001 23.7393 -665.231 0.668735 0.304518 0.678279
80.3595 -57.4597 -712.842 0.521322 0.158322 -0.838545
81.5693 -60.5911 -711.696 0.579183 -0.215835 -0.786106
82.6525 -59.1869 -711.242 0.595526 -0.11629 -0.794874
48.7805 11.5147 -665.272 0.615959 0.327149 0.716637
51.0914 11.1835 -667.331 0.648041 0.37065 0.665328
52.7607 8.54596 -667.801 0.631684 0.393866 0.667716
66.1964 -22.2042 -684.784 0.947364 0.124638 0.294901
66.5526 -23.1271 -685.702 0.92959 0.0689839 0.362083
68.3582 -26.9207 -687.753 0.844869 0.311363 0.435028
83.6904 -60.2049 -710.125 0.610523 -0.255153 -0.749773
64.1546 -16.876 -682.375 0.926526 0.346349 0.146944
65.6724 -20.4571 -684.157 0.952976 0.15699 0.259213
84.9887 -60.2874 -709.036 0.597087 -0.262448 -0.758029
59.6473 -6.95861 -675.512 0.914771 -0.132845 0.381504
62.7391 -13.4294 -679.39 0.912344 0.353835 0.205984
63.3234 -14.9999 -679.16 0.952175 0.261988 0.157244
57.0785 0.67644 -668.247 0.716072 0.11259 0.688886
58.8686 -2.58488 -669.674 0.728707 0.161684 0.665466
59.7734 -3.22936 -671.23 0.922748 -0.211074 0.322466
78.1126 -40.6736 -691.251 0.713509 0.374252 0.592317
78.1276 -42.1395 -690.62 0.691639 0.379008 0.614808
89.8373 -63.2309 -702.333 0.801743 -0.371297 -0.468345
91.3595 -63.5985 -699.092 0.845393 -0.392059 -0.362767
83.9801 -48.1272 -688.621 0.345303 0.886787 0.307205
92.1821 -63.3271 -697.09 0.921747 -0.229005 -0.312952
91.6084 -60.3072 -694.407 0.764482 0.460069 -0.451558
91.1854 -60.626 -695.879 0.703102 0.636954 -0.316128
93.0878 -62.3111 -695.001 0.870363 0.229882 -0.435457
92.3083 -60.9066 -694.056 0.697336 0.608481 -0.378779
92.8798 -62.9771 -695.354 0.895987 -0.17967 -0.40611
93.5329 -61.89 -693.587 0.744686 0.55092 -0.376735
88.089 -50.2804 -685.734 0.294745 0.948223 0.118317
94.5192 -62.2473 -692.215 0.829517 0.34525 -0.438982
94.0699 -62.5894 -693.238 0.875349 0.138517 -0.463224
95.0053 -62.9111 -691.422 0.896377 -0.144624 -0.419038
95.6358 -62.7103 -689.797 0.93126 -0.116346 -0.345281
91.493 -51.7751 -679.724 -0.019627 0.947773 0.31834
98.2991 -63.1516 -685.608 0.845751 -0.109024 -0.52232
99.5548 -62.7092 -681.632 0.671461 -0.720699 -0.17243
101.235 -61.6144 -680.213 0.859573 -0.433132 -0.271165
98.5128 -55.5164 -675.219 0.591135 0.610831 0.52673
100.796 -59.3566 -675.811 0.663315 0.24595 0.706769
101.314 -61.0498 -676.621 0.92076 -0.228514 0.3162
100.913 -60.8946 -675.708 0.791746 -0.0787567 0.605752
-52.6425 113.173 -710.397 0.46267 0.561882 -0.68573
-51.9412 114.116 -708.637 0.605873 0.679779 -0.413302
-51.6097 112.61 -709.765 0.790848 0.39219 -0.469837
-51.8405 114.517 -707.135 0.71097 0.697934 -0.0860824
-51.5688 113.854 -708.378 0.846969 0.464028 -0.259462
-50.8409 110.6 -710.336 0.382962 0.599632 -0.702696
-51.0438 111.802 -709.105 0.572901 0.631849 -0.522064
-49.9395 111.555 -708.996 0.348724 0.728554 -0.589577
-49.8972 109.985 -710.17 0.502176 0.416216 -0.758012
-48.1972 107.844 -711.043 0.667541 0.627441 -0.400883
-48.3821 107.19 -712.008 0.619772 0.538418 -0.570954
-47.6789 105.667 -712.192 0.566961 0.540826 -0.621339
-47.91 105.003 -712.884 0.531892 0.422741 -0.733744
-48.8145 108.742 -709.856 0.613698 0.586019 -0.529109
-47.66 106.554 -711.389 0.73017 0.494234 -0.471789
-46.5913 104.392 -712.66 0.480434 0.425864 -0.766696
-49.343 111.882 -708.062 0.49429 0.765771 -0.411428
-48.3273 109.867 -708.592 0.797442 0.361389 -0.483202
-47.7134 107.852 -709.854 0.655802 0.594896 -0.464782
-47.2205 106.315 -711.104 0.468768 0.700578 -0.538003
-47.2152 106.948 -710.095 0.549311 0.662168 -0.509697
-45.7513 102.678 -712.768 0.592354 0.305103 -0.745674
-49.1826 112.255 -706.689 0.631843 0.751132 -0.191247
-44.9904 102.464 -712.235 0.440094 0.460343 -0.770975
-44.2426 101.724 -712.419 0.463444 0.410462 -0.785328
-43.7899 100.222 -712.722 0.39681 0.425267 -0.813443
-49.1419 112.408 -705.648 0.695135 0.711209 -0.104738
-42.5231 99.5813 -712.689 0.422372 0.379284 -0.823253
-48.5151 111.59 -704.499 0.637629 0.766501 -0.0768482
-42.3015 98.1935 -713.008 0.42282 0.32217 -0.847012
-41.6989 97.4309 -713.104 0.397036 0.32032 -0.860092
-40.0666 97.2865 -712.104 0.479005 0.3124 -0.820342
-38.7055 95.2761 -712.34 0.371441 0.347724 -0.860883
-38.9463 93.0539 -713.304 0.351711 0.317584 -0.880591
-36.333 90.5175 -713.189 0.322767 0.318959 -0.891115
-35.5122 90.246 -713.059 0.348411 0.320553 -0.880826
-33.3783 88.3032 -712.955 0.289927 0.369178 -0.882978
-32.1054 84.5464 -714.042 0.343635 0.223129 -0.91221
-31.1617 82.9044 -714.341 0.200588 0.260935 -0.944287
-41.0219 106.681 -698.522 0.511965 0.830987 0.217607
-27.8687 79.3049 -714.811 0.163159 0.254392 -0.953239
-26.7507 77.4254 -714.966 0.143748 0.271859 -0.95154
-39.4164 105.503 -697.13 0.516241 0.811767 0.273001
-25.9139 75.6985 -714.803 0.23593 0.153877 -0.95951
-39.2635 104.938 -695.848 0.571848 0.75144 0.329133
-37.9144 103.786 -695.69 0.459154 0.849678 0.259277
-22.695 72.2148 -715.07 0.110712 0.219795 -0.969244
-21.5803 71.1681 -715.489 0.0736167 0.228139 -0.970841
-35.7925 102.679 -695.715 0.458115 0.877982 0.138848
-20.7863 69.7035 -715.458 0.102284 0.23986 -0.965404
-20.1841 69.1312 -715.721 0.0691006 0.290027 -0.954521
-20.8146 68.0751 -716.073 0.0727326 0.246293 -0.966462
-36.8366 102.817 -694.11 0.424758 0.859835 0.283308
-17.1519 64.5084 -716.655 0.0544778 0.22154 -0.973628
-16.1869 64.1151 -716.897 0.0100031 0.286239 -0.958106
-31.8698 99.3339 -692.809 0.488507 0.805382 0.33574
-12.746 57.2279 -718.442 0.0163153 0.187268 -0.982173
-32.3317 99.0123 -691.535 0.473645 0.836146 0.276623
-30.5155 97.6152 -689.897 0.509703 0.764 0.39561
-8.47823 51.7668 -718.933 0.00384112 0.190294 -0.98172
-29.2835 96.7658 -689.857 0.460947 0.775699 0.431067
-1.50267 40.2608 -720.082 0.113934 0.12423 -0.985691
-22.1387 90.93 -686.862 0.333123 0.770887 0.542921
-20.94 89.4285 -685.868 0.362497 0.710781 0.602815
4.86458 32.8427 -719.735 0.182266 0.175251 -0.967505
-19.3608 88.2836 -685.456 0.379227 0.696088 0.60963
-17.3586 86.5195 -685.082 0.428318 0.681849 0.592979
12.4415 23.797 -719.864 0.407192 0.0166733 -0.91319
14.3612 22.4568 -719.008 0.314705 0.178988 -0.932161
14.1344 21.6831 -719.223 0.438929 0.106091 -0.892237
-10.2428 80.1817 -680.099 0.263022 0.817176 0.512876
-9.43096 79.1419 -678.641 0.254544 0.832395 0.492265
18.5611 16.7098 -717.033 0.520941 0.0424988 -0.852534
20.4738 14.6227 -716.415 0.458208 0.128051 -0.879573
-8.01095 77.9796 -677.589 0.218168 0.845591 0.487214
23.9216 11.3824 -714.984 0.454283 0.161392 -0.876116
25.4232 9.55587 -714.528 0.456677 0.0785484 -0.886158
27.013 8.17095 -713.774 0.450806 0.051583 -0.89113
28.3756 7.86669 -713.339 0.346079 0.0695356 -0.935625
-2.58918 73.4916 -672.505 0.146708 0.819119 0.554545
31.2474 3.58984 -712.088 0.357341 -0.0425067 -0.933006
2.17602 69.5343 -668.52 0.112537 0.732765 0.671112
36.4478 1.56189 -709.891 0.279484 -0.101293 -0.954792
4.00646 68.4184 -667.416 0.0664323 0.698406 0.712612
5.26831 67.4248 -666.61 0.0580155 0.694518 0.717132
39.2808 -2.78149 -708.872 0.174336 -0.0581802 -0.982966
39.7956 -4.01705 -708.553 0.129244 -0.0471457 -0.990491
8.39571 65.2348 -665.012 0.129616 0.627744 0.767552
9.67683 63.3742 -664.206 0.31982 0.602056 0.731604
42.3791 -8.00688 -708.003 0.103383 -0.1171 -0.987724
47.9714 -13.0993 -706.395 0.116474 -0.239879 -0.96379
52.1938 -17.1716 -704.234 0.33872 -0.213294 -0.916392
56.5447 -22.5649 -703.541 0.0232111 0.37603 -0.926317
58.1947 -25.0215 -703.788 0.175686 0.181575 -0.967556
58.8519 -27.5444 -704.336 0.0229255 0.318819 -0.947538
61.3281 -28.8622 -704.16 0.263948 0.284749 -0.921547
26.6983 43.67 -658.292 0.302682 0.326143 0.895553
29.1621 40.9651 -658.89 0.548115 0.0971707 0.830739
63.9398 -34.2312 -705.443 0.172758 0.310056 -0.93489
65.1243 -34.7367 -705.254 0.207959 0.32701 -0.921855
33.1682 37.9177 -661.522 0.629016 -0.111882 0.7693
33.3682 35.6575 -662.065 0.624564 0.0459142 0.779623
66.1636 -34.9292 -705.149 0.226249 0.357029 -0.906279
66.1059 -36.9493 -705.874 0.191113 0.354865 -0.915176
67.8132 -37.9143 -705.496 0.437634 0.357735 -0.824925
72.2945 -46.7473 -710.663 0.223664 0.600563 -0.767658
71.4757 -46.6835 -710.779 0.0916587 0.587561 -0.803972
73.5432 -48.8325 -711.926 0.347291 0.52125 -0.779543
71.6328 -48.7726 -712.206 0.0241728 0.484949 -0.874208
68.8306 -40.7784 -706.914 0.327849 0.450278 -0.830521
71.1118 -43.7554 -708.129 0.21189 0.652048 -0.727967
37.8161 27.8203 -663.112 0.520651 0.319104 0.791893
75.1462 -53.9478 -713.598 -0.0148687 0.503859 -0.863658
76.6379 -54.5831 -713.976 0.214684 0.38153 -0.89908
39.1277 24.8235 -662.927 0.479899 0.285112 0.829704
40.6728 22.2377 -662.888 0.513104 0.274517 0.813243
42.4448 21.1735 -663.664 0.602358 0.26168 0.754114
43.2834 20.07 -664.095 0.61948 0.252163 0.74341
80.1485 -58.2647 -713.013 0.505431 -0.0220111 -0.862586
47.3328 15.5925 -665.74 0.655428 0.286764 0.698699
47.4792 14.3385 -665.307 0.617588 0.256963 0.74334
60.7379 -10.1973 -676.801 0.916627 0.295374 0.269348
67.9197 -25.4789 -687.412 0.882392 0.23507 0.407586
59.2901 -6.97793 -674.628 0.936363 -0.077949 0.34227
59.5643 -7.7902 -675.115 0.927538 0.220094 0.302045
61.3825 -11.4947 -676.772 0.898767 0.333962 0.284055
64.8481 -18.2454 -682.053 0.916142 0.372495 0.148092
69.6595 -28.3225 -688.526 0.839894 0.256223 0.478464
68.8591 -28.2759 -687.458 0.773615 0.095406 0.626433
69.136 -28.9588 -687.832 0.805803 0.0740344 0.587538
70.121 -29.6076 -689.202 0.862462 0.181107 0.47261
85.1037 -62.0378 -708.25 0.580547 -0.341215 -0.739282
54.1742 5.96336 -667.614 0.630919 0.309754 0.711332
63.1081 -14.7405 -678.405 0.909918 0.324549 0.258299
63.5964 -16.2882 -679.253 0.939409 0.307131 0.152254
65.0322 -19.3017 -681.181 0.922976 0.376956 0.0775794
65.3811 -19.9392 -682.407 0.953652 0.293389 0.0668619
54.6113 4.35773 -667.232 0.612896 0.281594 0.738284
59.7197 -4.25093 -672.948 0.92641 -0.336972 0.167969
71.7312 -34.1566 -689.05 0.731528 0.441989 0.519147
59.4058 -4.57579 -671.408 0.940528 -0.284251 0.186035
58.602 -1.36146 -669.797 0.75092 0.132563 0.646952
59.1223 -4.43452 -670.395 0.881666 -0.213161 0.420984
86.8232 -62.9548 -706.295 0.615973 -0.459698 -0.639731
59.1673 -3.25628 -669.949 0.834275 -0.0547917 0.548619
75.8099 -37.9958 -691.04 0.629805 0.417129 0.655247
77.1519 -39.5367 -691.028 0.619631 0.463472 0.633444
80.6107 -45.4667 -691.19 0.637193 0.622594 0.454271
89.5009 -64.7309 -701.296 0.72725 -0.534736 -0.430308
85.9501 -49.1836 -687.759 0.369012 0.904747 0.212749
91.7985 -64.3614 -696.967 0.825597 -0.466294 -0.317739
85.7251 -49.5902 -685.667 0.213427 0.917965 0.334349
89.4796 -51.0392 -682.532 0.0746184 0.976887 0.200307
95.4219 -63.6138 -689.702 0.878367 -0.243802 -0.411134
96.186 -62.8489 -688.376 0.863253 -0.0567691 -0.501569
90.4622 -51.3642 -681.193 0.00587333 0.96696 0.254862
96.9072 -63.6438 -687.389 0.794476 -0.0933389 -0.600079
98.035 -64.1176 -685.437 0.811968 -0.462793 -0.355712
94.4162 -52.5576 -677.903 0.0913211 0.918743 0.384151
99.5414 -62.7243 -682.959 0.830266 -0.537576 -0.147207
100.629 -63.0617 -678.717 0.828323 -0.559076 -0.0362578
99.6417 -58.88 -675.309 0.715574 0.13621 0.685128
100.158 -60.4922 -675.091 0.527357 0.119289 0.841228
-54.9226 115.552 -710.396 0.502478 0.675688 -0.539409
-54.4452 114.583 -710.932 0.655112 0.429629 -0.621487
-54.4955 115.606 -709.8 0.662155 0.64645 -0.379016
-53.5505 114.111 -709.843 0.557309 0.613975 -0.558965
-52.6979 111.924 -711.05 0.525436 0.389839 -0.756269
-51.4575 109.508 -712.773 0.487301 0.60999 -0.62486
-54.6024 116.198 -708.699 0.644566 0.733337 -0.216222
-50.9881 109.57 -712.226 0.66549 0.609073 -0.431454
-51.0194 108.557 -713.122 0.652928 0.429552 -0.623835
-53.7409 115.099 -708.661 0.614282 0.718219 -0.326832
-52.8862 114.427 -709.115 0.407705 0.747713 -0.52412
-52.0591 112.251 -710.526 0.619922 0.340113 -0.707121
-51.7191 111.278 -710.524 0.687031 0.351918 -0.635722
-51.431 110.589 -710.609 0.545028 0.607644 -0.57768
-50.7859 109.962 -710.898 0.662527 0.623258 -0.41546
-53.8624 115.597 -707.334 0.561411 0.823327 -0.0833689
-52.7369 114.865 -708.099 0.469893 0.835486 -0.284891
-51.1331 110.977 -710.108 0.468471 0.60393 -0.644828
-50.2902 108.155 -712.421 0.608764 0.543576 -0.577868
-49.3198 108.269 -711.59 0.4244 0.747983 -0.510301
-52.2402 114.881 -706.549 0.596051 0.802919 -0.00672472
-51.3308 112.947 -708.047 0.893087 0.369235 -0.257024
-51.1286 112.276 -708.469 0.640194 0.65556 -0.400491
-50.3555 109.451 -710.77 0.638677 0.540953 -0.54723
-48.4396 106.571 -712.565 0.595788 0.463571 -0.65585
-49.4993 108.96 -710.467 0.566703 0.629193 -0.531943
-47.054 103.805 -713.174 0.426651 0.386949 -0.817459
-51.3484 113.79 -706.411 0.777324 0.625198 -0.0699547
-50.9235 113.126 -706.98 0.549399 0.760602 -0.345899
-45.4878 101.817 -712.834 0.475511 0.347867 -0.808008
-44.9431 100.343 -713.418 0.39268 0.359987 -0.846293
-51.0412 113.538 -706.004 0.581707 0.802254 -0.134185
-44.3282 99.5142 -713.331 0.388131 0.361998 -0.847533
-43.2589 98.6318 -713.439 0.371873 0.325879 -0.869203
-49.8473 113.115 -704.77 0.555449 0.825036 -0.103882
-49.7173 113.061 -703.488 0.608371 0.789196 0.0839903
-49.1851 112.569 -703.814 0.749061 0.66106 0.0436741
-48.7892 111.971 -703.328 0.695194 0.718068 0.0329108
-41.6534 96.674 -713.354 0.474742 0.273938 -0.836407
-40.9298 95.801 -713.125 0.444925 0.263394 -0.855959
-47.4134 111.194 -702.537 0.486065 0.869818 0.0846002
-46.6527 110.682 -702.534 0.62921 0.775456 0.052557
-37.6845 92.518 -712.921 0.323289 0.351425 -0.878626
-36.3949 88.8866 -713.89 0.343279 0.305063 -0.888311
-45.9085 109.878 -701.527 0.543212 0.830501 0.123244
-35.4459 88.6686 -713.491 0.326767 0.319907 -0.889316
-34.6381 86.8693 -713.89 0.259069 0.329277 -0.907998
-43.1976 108.12 -700.373 0.478723 0.867911 0.132493
-32.7759 85.0492 -714.121 0.222685 0.33031 -0.917228
-32.2627 83.2845 -714.355 0.24317 0.244209 -0.938739
-43.3638 107.982 -699.259 0.422465 0.881582 0.210563
-29.8356 82.6985 -714.004 0.193158 0.303902 -0.932917
-29.7923 80.7583 -714.736 0.160931 0.261475 -0.951699
-26.7949 76.5166 -715.184 0.281378 0.110459 -0.953218
-40.0641 105.336 -695.583 0.424223 0.826379 0.370313
-24.6331 75.2775 -714.884 0.102284 0.23986 -0.965404
-23.9836 72.4463 -715.373 0.173383 0.165571 -0.970837
-36.7718 103.328 -695.97 0.49308 0.84858 0.191789
-19.8546 64.1771 -717.037 -0.0227383 0.267552 -0.963275
-18.2279 61.8454 -717.443 -0.0313482 0.217577 -0.97554
-16.1121 61.7903 -717.262 -0.0508351 0.199867 -0.978503
-33.1365 99.352 -691.06 0.454448 0.840156 0.295999
-12.3533 56.2752 -718.51 0.205883 0.0828524 -0.975063
-31.4218 98.4945 -691.128 0.463327 0.882116 0.0848501
-3.31734 42.4918 -719.876 0.0449929 0.171752 -0.984112
-24.5124 91.7011 -686.389 0.371082 0.705806 0.603436
-23.0445 90.5452 -685.856 0.349294 0.705275 0.616912
4.22902 33.4491 -719.711 0.171297 0.16401 -0.971472
7.29003 29.4436 -719.689 0.0828058 0.32673 -0.941483
8.66875 27.286 -720.416 0.195197 0.187931 -0.96259
10.0366 25.7063 -720.266 0.28453 0.194724 -0.938683
10.5927 24.6856 -720.459 0.269502 0.175304 -0.946909
13.1801 22.881 -719.382 0.446062 0.0191894 -0.894796
13.178 22.206 -719.428 0.345867 0.14447 -0.927095
13.4855 21.2995 -719.623 0.34105 0.197132 -0.919143
14.9682 20.5028 -718.702 0.348246 0.0786386 -0.934099
15.4836 19.1809 -718.768 0.239988 -0.0526007 -0.96935
-12.7861 80.8901 -679.861 0.227575 0.817812 0.528577
15.8558 17.6954 -718.373 0.359584 -0.129655 -0.924061
23.5435 12.3762 -715.177 0.457363 0.0689637 -0.886602
25.098 10.9164 -714.667 0.388467 0.12208 -0.91334
26.2777 8.85309 -714.24 0.471526 0.06166 -0.879694
-4.309 74.5619 -673.285 0.210224 0.804536 0.555452
-3.33787 73.9718 -672.993 0.248405 0.79996 0.546222
29.7989 5.35254 -712.65 0.41676 -0.0258243 -0.90865
30.3968 4.14994 -712.324 0.36481 0.00490375 -0.931069
0.388672 71.8296 -670.455 0.0115873 0.782037 0.623124
1.33553 71.3817 -670.099 0.195801 0.733382 0.651008
33.5482 2.04209 -710.709 0.336327 -0.031279 -0.941226
34.5265 1.14553 -710.625 0.280901 -0.0248739 -0.959414
34.9499 -0.571235 -710.188 0.345301 -0.162082 -0.92439
37.6407 -1.20279 -709.257 0.256494 -0.104604 -0.960869
37.3456 -2.84777 -709.133 0.237343 -0.0420277 -0.970516
5.72892 66.3701 -665.674 0.133673 0.65592 0.7429
40.83 -6.12122 -708.393 0.164438 -0.1258 -0.978333
42.2046 -6.38116 -708.085 0.111655 -0.102807 -0.988415
44.7126 -10.6822 -707.296 0.0526524 -0.171271 -0.983816
47.942 -14.3717 -706.047 0.0951948 -0.238101 -0.966564
48.47 -15.4387 -705.809 0.116584 -0.27173 -0.955286
17.4184 56.1874 -661.41 0.431432 0.48296 0.761981
52.8618 -17.8835 -703.894 0.362193 -0.16721 -0.916982
54.7665 -19.6509 -703.104 0.233627 0.0679027 -0.969952
22.8043 50.2515 -660.243 0.391422 0.426541 0.815384
55.4371 -21.8994 -703.113 0.0698276 0.257447 -0.963766
23.1604 48.8576 -659.578 0.337903 0.392195 0.855572
56.8155 -23.2583 -703.701 0.224105 0.145458 -0.963649
57.6544 -24.0307 -703.479 0.221728 0.231363 -0.947263
58.9398 -25.848 -703.594 0.202961 0.193195 -0.959939
60.578 -28.1837 -704.279 0.227515 0.263577 -0.937424
60.0907 -29.1561 -704.613 0.135391 0.238694 -0.96161
27.6232 42.2609 -658.443 0.41274 0.22347 0.88301
62.5 -32.6377 -705.191 0.196916 0.279163 -0.939836
63.6013 -32.5792 -704.835 0.242497 0.331787 -0.911654
30.2615 37.938 -659.65 0.536902 -0.00520109 0.843629
66.5763 -37.9157 -706.189 0.313355 0.338225 -0.887363
68.4499 -39.7743 -706.509 0.230451 0.49037 -0.840494
69.8663 -42.915 -707.981 0.224747 0.61757 -0.753721
70.3301 -44.738 -709.311 0.177914 0.628178 -0.757455
75.0375 -53.2441 -713.187 0.208096 0.420108 -0.883292
77.9392 -57.3264 -714.098 0.351841 0.0996055 -0.930745
45.2699 18.1552 -664.979 0.61815 0.321983 0.71709
45.5692 14.8733 -664.05 0.56527 0.189938 0.802741
51.2909 9.1759 -666.406 0.680146 0.298557 0.669526
83.6225 -62.4021 -709.274 0.60494 -0.33376 -0.722947
66.3933 -23.8681 -685.101 0.929982 0.23117 0.285823
65.9729 -22.5221 -683.719 0.993347 0.0962827 0.0631697
67.2525 -26.2671 -685.826 0.907059 0.267962 0.324715
68.4507 -27.6797 -687.112 0.851997 0.288481 0.436898
59.2094 -7.49094 -674.18 0.948394 0.21962 0.228727
60.1786 -8.9339 -675.769 0.927564 0.226849 0.296926
62.0194 -13.5403 -677.252 0.85201 0.318985 0.415123
64.1493 -17.3897 -679.508 0.91389 0.367851 0.171731
69.5213 -29.5486 -688.317 0.823069 0.167042 0.542821
70.639 -32.1653 -689.23 0.80645 0.161441 0.568837
85.1881 -63.0781 -707.627 0.59567 -0.42434 -0.681992
61.8958 -12.1125 -677.622 0.906914 0.291637 0.304064
71.0683 -32.8235 -689.443 0.711022 0.392521 0.583416
59.0609 -5.51031 -670.851 0.935911 -0.293301 0.195052
57.6964 -0.375289 -668.579 0.760669 0.0605765 0.646307
57.7274 -2.51697 -668.742 0.567154 0.104232 0.81699
58.5983 -3.57137 -669.288 0.679255 -0.084879 0.728978
74.8301 -36.6152 -690.752 0.65128 0.39591 0.647372
76.3139 -40.3973 -689.777 0.612015 0.450319 0.650116
88.6607 -63.9421 -703.402 0.684466 -0.513601 -0.517418
81.1284 -46.3139 -690.396 0.514116 0.791717 0.329953
81.8502 -46.9961 -689.45 0.404889 0.847431 0.343404
83.6688 -47.3841 -690.282 0.332576 0.864829 0.376117
90.3555 -64.8386 -699.479 0.756181 -0.542792 -0.365468
84.6684 -49.1019 -686.337 0.28818 0.909992 0.298105
92.5071 -64.1109 -695.254 0.850897 -0.401101 -0.339252
93.212 -63.903 -693.963 0.799482 -0.430705 -0.418714
86.9495 -50.0972 -684.985 0.217396 0.931707 0.290964
94.2983 -63.1898 -692.702 0.864068 -0.248598 -0.437705
88.0276 -50.4091 -684.695 0.170109 0.963045 0.208825
97.5686 -64.0554 -686.401 0.797534 -0.341918 -0.497023
92.7205 -52.3011 -678.255 -0.0270663 0.897971 0.439222
93.0003 -52.7049 -677.588 -0.0268052 0.873127 0.486755
98.738 -63.6808 -683.92 0.826408 -0.539047 -0.162722
98.7088 -63.7091 -683.012 0.816224 -0.575648 0.0490615
98.6887 -63.5089 -681.981 0.834776 -0.546209 -0.0693209
99.0721 -63.4086 -680.972 0.763143 -0.497336 -0.412636
100.242 -63.4855 -679.247 0.773792 -0.583824 -0.245755
97.1564 -55.6857 -674.159 0.371031 0.614758 0.695995
98.7668 -59.1262 -673.905 0.760996 -0.154774 0.630024
-56.2118 115.934 -710.813 0.393367 0.689473 -0.608185
-55.4899 114.912 -711.406 0.410468 0.535043 -0.738407
-54.2142 111.388 -713.547 0.394516 0.66346 -0.63575
-53.5864 109.981 -714.318 0.569883 0.376346 -0.730477
-52.6685 109.639 -713.332 0.602739 0.441604 -0.664598
-53.444 111.479 -712.822 0.581499 0.689766 -0.431373
-53.1969 110.878 -713.295 0.658777 0.526467 -0.537444
-55.9319 116.624 -709.603 0.43955 0.816841 -0.373586
-53.8347 113.51 -710.602 0.559318 0.458258 -0.69077
-53.3768 112.053 -711.414 0.537161 0.604411 -0.588341
-51.4766 107.958 -713.899 0.506875 0.393687 -0.766869
-55.1778 116.685 -708.351 0.487055 0.862315 -0.138529
-52.5834 111.137 -711.461 0.656285 0.570508 -0.493771
-52.4366 110.36 -712.429 0.621419 0.623217 -0.474803
-52.0249 110.581 -711.612 0.553668 0.729498 -0.401603
-50.6786 106.921 -713.59 0.513385 0.378585 -0.770136
-54.8311 116.452 -707.359 0.594986 0.802424 0.0459052
-49.6303 107.001 -712.989 0.419667 0.528198 -0.738164
-48.7004 105.124 -713.617 0.545036 0.334974 -0.768589
-53.7889 115.637 -706.185 0.409364 0.912151 -0.0200231
-48.2718 104.211 -713.455 0.498982 0.30906 -0.809629
-47.6932 102.708 -713.986 0.345754 0.374203 -0.860481
-53.1946 115.325 -705.105 0.46039 0.883397 0.087471
-46.7216 101.746 -713.876 0.534625 0.274571 -0.799242
-51.6217 114.011 -704.844 0.589062 0.807889 0.0179513
-46.0243 100.751 -713.55 0.451421 0.314116 -0.835195
-44.67 98.6335 -713.825 0.350526 0.325431 -0.878195
-43.9598 97.4634 -714.099 0.367536 0.268636 -0.890366
-43.0687 97.3562 -713.626 0.398979 0.252661 -0.881464
-50.5534 113.549 -703.869 0.443578 0.896007 0.0202682
-42.373 95.766 -713.962 0.372973 0.23446 -0.89773
-49.8583 112.934 -702.357 0.611749 0.779081 0.137097
-40.5713 94.4064 -713.42 0.364383 0.294851 -0.883339
-40.9211 93.22 -713.942 0.330167 0.275125 -0.902938
-48.3524 111.678 -702.968 0.486399 0.873407 0.0239873
-47.407 110.958 -701.107 0.548416 0.819625 0.165691
-38.1635 91.3919 -713.545 0.331432 0.324715 -0.885841
-37.0918 89.4346 -713.869 0.297662 0.315966 -0.900868
-44.752 108.937 -699.558 0.471797 0.850731 0.231656
-34.2353 86.2079 -714.088 0.274628 0.329493 -0.903335
-34.3047 84.4967 -714.587 0.267999 0.266443 -0.925843
-44.0857 107.943 -697.941 0.407287 0.859252 0.309521
-42.3154 107.3 -697.946 0.412103 0.866949 0.280306
-29.1553 79.7204 -714.731 0.167639 0.247124 -0.954372
-29.1093 77.9369 -715.256 0.130018 0.208828 -0.969271
-27.6913 77.6351 -715.005 0.164593 0.211588 -0.9634
-41.5653 106.114 -696.061 0.388833 0.849636 0.356269
-24.6214 73.8172 -715.11 0.114831 0.196471 -0.973762
-38.714 104.046 -694.953 0.505875 0.800608 0.321118
-21.7936 68.5379 -715.829 0.0765401 0.216643 -0.973246
-20.2283 66.9549 -716.127 0.115001 0.221053 -0.968458
-21.1629 65.9506 -716.411 0.0688957 0.202618 -0.976831
-35.8412 102.082 -693.413 0.456781 0.821717 0.340781
-19.3776 66.1267 -716.339 -0.0293751 0.335322 -0.941646
-18.6241 64.3066 -716.958 0.115207 0.13589 -0.984003
-18.4333 63.0646 -716.989 0.0216397 0.192806 -0.980998
-14.712 58.1437 -717.842 0.00799222 0.191605 -0.98144
-34.0217 100.192 -691.637 0.454642 0.787591 0.415935
-13.8212 56.1057 -718.571 -0.0947742 0.1768 -0.979673
-11.9401 54.7421 -718.445 0.0870043 0.0836552 -0.992689
-31.6718 98.5201 -690.089 0.443889 0.824841 0.350142
-11.5966 52.6706 -718.734 -0.0958528 0.165961 -0.981463
-30.7474 97.3367 -689.262 0.433216 0.704101 0.562641
-29.7044 96.2063 -688.68 0.388709 0.721024 0.573611
-5.59444 45.8301 -719.526 0.0246501 0.0812728 -0.996387
-27.23 94.944 -688.629 0.370781 0.762244 0.530571
-4.52365 43.2006 -719.768 0.0542696 0.155547 -0.986337
-2.54187 40.929 -720.061 0.0757053 0.161905 -0.983898
0.389325 38.25 -719.945 0.173192 0.0528981 -0.983467
3.72368 34.4604 -719.657 0.156732 0.13213 -0.978763
7.09513 29.9416 -719.677 0.237816 0.0519795 -0.969918
6.90426 27.0879 -720.848 0.147273 0.206677 -0.967262
11.4212 23.1564 -720.331 0.361776 0.0353894 -0.931593
12.1071 21.6659 -719.955 0.397328 0.0736041 -0.91472
12.5589 20.2798 -720.072 0.295265 0.094183 -0.950762
14.4256 19.158 -719.079 0.397564 -0.0397361 -0.916714
17.6096 17.0026 -717.64 0.448252 0.00858229 -0.893866
18.4436 15.0744 -717.513 0.48431 0.151559 -0.861669
-10.4307 78.2592 -676.802 0.189009 0.799168 0.570619
19.3045 13.805 -717.213 0.480578 0.106122 -0.870507
21.2261 13.5001 -716.054 0.457365 0.123647 -0.880641
-8.6329 77.5005 -676.505 0.171455 0.827734 0.534283
21.7793 12.0679 -716.146 0.440297 0.166026 -0.882369
22.6874 11.178 -715.79 0.47285 0.0901333 -0.876521
-6.18479 76.5729 -675.739 0.255603 0.808097 0.530704
23.8548 10.5341 -715.269 0.393325 0.226516 -0.891059
-6.26226 75.1834 -673.796 0.128498 0.797201 0.58988
27.7326 6.84038 -713.634 0.410986 0.0276722 -0.911222
-1.93322 72.532 -671.348 0.154916 0.780134 0.606128
28.3638 4.09796 -713.267 0.413952 -0.0644833 -0.908012
-1.00805 72.1621 -671.049 0.0347159 0.785639 0.61771
32.1771 2.03424 -711.465 0.409244 -0.156215 -0.898953
-0.0598643 70.6209 -669.26 0.0479925 0.745182 0.665132
32.9791 1.28607 -710.936 0.329527 -0.021826 -0.943894
2.53 68.3029 -667.202 0.0934463 0.72076 0.686857
37.6246 -4.06218 -709.126 0.226265 -0.085625 -0.970295
39.9797 -5.18904 -708.6 0.0975499 -0.0426279 -0.994317
6.77319 65.0443 -664.92 0.106838 0.615053 0.781214
8.4765 64.186 -664.208 0.221207 0.60591 0.76416
40.4044 -7.88845 -708.112 0.0798286 -0.182846 -0.979895
10.1412 62.6979 -663.738 0.158989 0.677383 0.718244
44.3054 -8.93126 -707.528 0.100081 -0.142325 -0.984747
11.8219 61.1371 -662.676 0.210383 0.553414 0.805898
17.7331 54.6904 -660.679 0.324858 0.509272 0.796937
50.867 -16.3154 -704.962 0.27274 -0.264579 -0.924992
19.4657 53.7747 -660.649 0.429078 0.4111 0.804294
53.6461 -18.7181 -703.395 0.318972 -0.0782864 -0.944525
20.6774 50.3538 -659.277 0.273862 0.441861 0.854259
55.7999 -23.7835 -703.963 0.0515205 0.174588 -0.983293
56.5813 -24.9632 -703.844 0.109826 0.139446 -0.98412
24.4509 48.127 -659.838 0.312771 0.41806 0.852877
56.959 -25.9729 -704.07 0.0805514 0.135087 -0.987554
26.1378 45.3613 -659.039 0.307998 0.419731 0.853793
60.4258 -30.5152 -704.772 0.0739937 0.18529 -0.979894
61.5424 -30.4767 -704.693 0.178244 0.257877 -0.949594
61.966 -31.4161 -704.85 0.157457 0.286449 -0.945068
29.6276 38.9478 -659.147 0.611504 -0.00639578 0.791216
30.4972 35.5097 -659.846 0.567008 -0.00882123 0.823665
69.154 -44.3949 -709.417 0.165601 0.595858 -0.78583
68.8046 -42.2832 -707.668 0.237025 0.522874 -0.818793
72.9957 -49.8178 -712.672 0.204364 0.412974 -0.887518
73.5385 -51.9989 -713.316 0.264822 0.30778 -0.91386
36.1424 29.4894 -662.681 0.527996 0.266182 0.806454
76.4384 -56.0239 -714.285 0.141698 0.159787 -0.976929
78.3983 -58.6144 -713.914 0.39548 -0.0713497 -0.915699
40.1259 23.3961 -662.833 0.481434 0.272626 0.833005
80.1101 -59.9678 -712.828 0.51391 -0.153005 -0.844089
44.1387 17.1175 -663.662 0.564715 0.263469 0.7821
82.4518 -62.7162 -710.141 0.608123 -0.332352 -0.720922
49.5276 10.3796 -665.474 0.61043 0.331464 0.719379
51.6785 7.59767 -666.262 0.622944 0.341928 0.703581
66.0563 -23.3076 -684.279 0.977351 0.169738 0.126392
66.8325 -25.0476 -685.14 0.926534 0.235747 0.293186
66.5369 -24.5937 -684.361 0.956481 0.269222 0.112535
52.9796 3.54018 -665.557 0.566849 0.192578 0.800996
58.9229 -6.74284 -673.471 0.966138 -0.0800469 0.245296
61.0068 -11.5916 -675.579 0.900107 0.247483 0.358553
61.6914 -12.9989 -676.912 0.872934 0.151714 0.463649
65.831 -21.3439 -682.81 0.978259 0.207342 0.00438117
69.9271 -30.7283 -688.232 0.83266 0.195468 0.518141
54.7756 2.81209 -666.889 0.595551 0.262947 0.759064
58.8008 -6.45432 -672.329 0.957159 -0.263906 0.119166
62.6647 -14.7555 -677.214 0.853819 0.316457 0.413338
63.2969 -16.1952 -677.988 0.909882 0.265693 0.318626
65.7863 -20.7196 -680.452 0.953652 0.293389 0.0668619
58.6699 -6.60879 -671.268 0.929347 -0.321805 0.180985
64.6598 -18.7298 -679.757 0.904101 0.387271 0.180617
73.0876 -36.0145 -689.607 0.692082 0.399848 0.600953
73.8611 -37.8781 -689.123 0.71116 0.421022 0.56302
79.1708 -43.8543 -690.726 0.730911 0.453101 0.510361
78.7752 -44.3774 -689.559 0.731981 0.560678 0.387096
81.855 -47.4846 -688.358 0.384074 0.87385 0.298117
92.6205 -64.9545 -693.882 0.810241 -0.428614 -0.399749
86.7917 -50.7564 -683.415 0.00716876 0.921814 0.387566
93.4451 -64.865 -692.46 0.797373 -0.419277 -0.434054
94.7737 -64.2371 -690.541 0.82439 -0.377116 -0.422096
88.0691 -50.944 -682.69 -0.0288326 0.94863 0.31507
95.9058 -64.4062 -688.503 0.80421 -0.260718 -0.534109
96.0835 -64.8395 -688.031 0.751952 -0.390859 -0.530846
90.2816 -52.0517 -679.215 -0.121941 0.894054 0.431043
96.8601 -64.5144 -687.101 0.773218 -0.398359 -0.4934
91.3999 -52.2628 -678.716 -0.0697617 0.894854 0.440874
97.7504 -64.9505 -684.583 0.82636 -0.489089 -0.279143
98.2249 -64.4888 -683.098 0.914053 -0.380621 -0.140125
94.287 -53.4397 -676.059 0.0358436 0.873065 0.486285
98.526 -63.8982 -681.777 0.92099 -0.285989 -0.264552
