ply
format ascii 1.0
element vertex 899
property float x
property float y
property float z
property float nx
property float ny
property float nz
end_header
-1.87979 -0.996644 4.57945 0.56593 -0.0418479 0.82339
-1.7976 -1.29373 4.50737 0.56593 -0.0418479 0.82339
-1.62689 -1.63235 4.37218 0.56593 -0.0418479 0.82339
-1.78495 -1.26666 4.50007 0.56593 -0.0418479 0.82339
-1.52551 -1.32646 4.31827 0.56593 -0.0418479 0.82339
-1.51703 -1.4121 4.30797 0.56593 -0.0418479 0.82339
-1.63359 -1.62369 4.37724 0.56593 -0.0418479 0.82339
-1.75652 -1.23137 4.48233 0.56593 -0.0418479 0.82339
-1.45291 -1.51344 4.25854 0.56593 -0.0418479 0.82339
-1.81827 -1.52326 4.50967 0.56593 -0.0418479 0.82339
-1.5168 -1.60491 4.29778 0.56593 -0.0418479 0.82339
-1.48281 -1.22891 4.29394 0.56593 -0.0418479 0.82339
-1.78558 -1.24925 4.50141 0.56593 -0.0418479 0.82339
-1.3502 -1.60878 4.18283 0.56593 -0.0418479 0.82339
-1.81325 -1.1932 4.52339 0.56593 -0.0418479 0.82339
-1.7376 -1.00145 4.48126 0.56593 -0.0418479 0.82339
-1.41914 -1.6517 4.22808 0.56593 -0.0418479 0.82339
-1.72763 -1.41812 4.45271 0.56593 -0.0418479 0.82339
-1.85195 -0.898618 4.56538 0.56593 -0.0418479 0.82339
-1.76712 -1.17881 4.49236 0.56593 -0.0418479 0.82339
-1.73564 -1.66096 4.44559 0.56593 -0.0418479 0.82339
-1.66268 -1.00001 4.42973 0.56593 -0.0418479 0.82339
-1.23336 -1.6096 4.10231 0.56593 -0.0418479 0.82339
-1.36693 -1.5829 4.1957 0.56593 -0.0418479 0.82339
-1.82761 -1.48679 4.518 0.56593 -0.0418479 0.82339
-1.70411 -1.12924 4.45155 0.56593 -0.0418479 0.82339
-1.79525 -1.1021 4.51573 0.56593 -0.0418479 0.82339
-1.82989 -1.35531 4.52641 0.56593 -0.0418479 0.82339
-1.77404 -0.864646 4.51349 0.56593 -0.0418479 0.82339
-1.48966 -1.50107 4.28449 0.56593 -0.0418479 0.82339
-1.69656 -1.68056 4.41765 0.56593 -0.0418479 0.82339
-1.86157 -1.2885 4.55171 0.56593 -0.0418479 0.82339
-1.53719 -1.54729 4.31482 0.56593 -0.0418479 0.82339
-1.5393 -1.43522 4.32211 0.56593 -0.0418479 0.82339
-1.43591 -1.31248 4.25728 0.56593 -0.0418479 0.82339
-1.76452 -1.55052 4.47123 0.56593 -0.0418479 0.82339
-1.35782 -1.59898 4.18859 0.56593 -0.0418479 0.82339
-1.8566 -1.26665 4.54942 0.56593 -0.0418479 0.82339
-1.237 -1.5811 4.1063 0.56593 -0.0418479 0.82339
-1.4964 -1.36582 4.29617 0.56593 -0.0418479 0.82339
-1.76507 -0.951096 4.5028 0.56593 -0.0418479 0.82339
-1.29369 -1.61198 4.14374 0.56593 -0.0418479 0.82339
-1.61856 -1.49919 4.37337 0.56593 -0.0418479 0.82339
-1.38255 -1.65525 4.20269 0.56593 -0.0418479 0.82339
-1.78919 -1.57743 4.48682 0.56593 -0.0418479 0.82339
-1.77436 -1.35437 4.48821 0.56593 -0.0418479 0.82339
-1.80096 -1.36217 4.50613 0.56593 -0.0418479 0.82339
-1.73855 -1.41203 4.46055 0.56593 -0.0418479 0.82339
-1.4332 -1.5934 4.24079 0.56593 -0.0418479 0.82339
-1.6089 -1.48394 4.36751 0.56593 -0.0418479 0.82339
-1.78411 -1.45716 4.48958 0.56593 -0.0418479 0.82339
-1.57145 -1.40566 4.34579 0.56593 -0.0418479 0.82339
-1.56976 -1.0963 4.36072 0.56593 -0.0418479 0.82339
-1.5521 -1.62265 4.32117 0.56593 -0.0418479 0.82339
-1.86608 -1.12664 4.56324 0.56593 -0.0418479 0.82339
-1.62974 -1.31809 4.3905 0.56593 -0.0418479 0.82339
-1.88449 -1.0305 4.58092 0.56593 -0.0418479 0.82339
-1.72602 -1.61658 4.44127 0.56593 -0.0418479 0.82339
-1.53338 -1.1978 4.33038 0.56593 -0.0418479 0.82339
-1.85516 -1.53899 4.53426 0.56593 -0.0418479 0.82339
-1.70876 -1.09484 4.45654 0.56593 -0.0418479 0.82339
-1.45939 -1.63913 4.25645 0.56593 -0.0418479 0.82339
-1.8461 -0.817979 4.56554 0.56593 -0.0418479 0.82339
-1.50465 -1.61432 4.28892 0.56593 -0.0418479 0.82339
-1.27693 -1.5058 4.13772 0.56593 -0.0418479 0.82339
-1.90099 -1.1991 4.58351 0.56593 -0.0418479 0.82339
-1.40733 -1.4195 4.23203 0.56593 -0.0418479 0.82339
-1.86425 -1.54556 4.54018 0.56593 -0.0418479 0.82339
-1.79012 -1.38407 4.49752 0.56593 -0.0418479 0.82339
-1.68272 -1.35623 4.425 0.56593 -0.0418479 0.82339
-1.71307 -1.54758 4.43595 0.56593 -0.0418479 0.82339
-1.63351 -1.17385 4.4006 0.56593 -0.0418479 0.82339
-1.6667 -1.23698 4.42017 0.56593 -0.0418479 0.82339
-1.82475 -1.55768 4.51234 0.56593 -0.0418479 0.82339
-1.32416 -1.39585 4.17598 0.56593 -0.0418479 0.82339
-1.64459 -1.28117 4.40265 0.56593 -0.0418479 0.82339
-1.79059 -1.17356 4.50881 0.56593 -0.0418479 0.82339
-1.78774 -1.36638 4.4968 0.56593 -0.0418479 0.82339
-1.74199 -1.20727 4.47358 0.56593 -0.0418479 0.82339
-1.83017 -1.41306 4.5236 0.56593 -0.0418479 0.82339
-1.79348 -1.22007 4.50837 0.56593 -0.0418479 0.82339
-1.38197 -1.34607 4.21838 0.56593 -0.0418479 0.82339
-1.65107 -1.41881 4.39995 0.56593 -0.0418479 0.82339
-1.43476 -1.42927 4.25041 0.56593 -0.0418479 0.82339
-1.66242 -1.36304 4.41067 0.56593 -0.0418479 0.82339
-1.59285 -1.55669 4.35267 0.56593 -0.0418479 0.82339
-1.46296 -1.49102 4.26662 0.56593 -0.0418479 0.82339
-1.88957 -1.1428 4.57858 0.56593 -0.0418479 0.82339
-1.71943 -0.935039 4.47221 0.56593 -0.0418479 0.82339
-1.73277 -1.5 4.45199 0.56593 -0.0418479 0.82339
-1.60225 -1.57622 4.35812 0.56593 -0.0418479 0.82339
-1.59749 -1.56675 4.35534 0.56593 -0.0418479 0.82339
-1.5948 -1.66517 4.34836 0.56593 -0.0418479 0.82339
-1.34847 -1.46851 4.18894 0.56593 -0.0418479 0.82339
-1.45856 -1.39105 4.2688 0.56593 -0.0418479 0.82339
-1.42747 -1.44051 4.24481 0.56593 -0.0418479 0.82339
-1.78795 -0.860392 4.52329 0.56593 -0.0418479 0.82339
-1.86929 -0.931879 4.57558 0.56593 -0.0418479 0.82339
-1.65849 -1.18672 4.41714 0.56593 -0.0418479 0.82339
-1.86223 -1.04718 4.56472 0.56593 -0.0418479 0.82339
-1.47717 -1.24029 4.28946 0.56593 -0.0418479 0.82339
-1.4831 -1.38494 4.28601 0.56593 -0.0418479 0.82339
-1.61999 -1.5637 4.371 0.56593 -0.0418479 0.82339
-1.44116 -1.33496 4.25973 0.56593 -0.0418479 0.82339
-1.73794 -1.26169 4.46796 0.56593 -0.0418479 0.82339
-1.21994 -1.63406 4.0918 0.56593 -0.0418479 0.82339
-1.80445 -1.06459 4.52402 0.56593 -0.0418479 0.82339
-1.78968 -1.34545 4.49923 0.56593 -0.0418479 0.82339
-1.62814 -1.11275 4.40008 0.56593 -0.0418479 0.82339
-1.83775 -1.58351 4.51995 0.56593 -0.0418479 0.82339
-1.70771 -1.53017 4.43316 0.56593 -0.0418479 0.82339
-1.49657 -1.51975 4.28827 0.56593 -0.0418479 0.82339
-1.55778 -1.52517 4.33015 0.56593 -0.0418479 0.82339
-1.41615 -1.31613 4.24348 0.56593 -0.0418479 0.82339
-1.75132 -1.64909 4.45701 0.56593 -0.0418479 0.82339
-1.60026 -1.1915 4.37678 0.56593 -0.0418479 0.82339
-1.59147 -1.19673 4.37045 0.56593 -0.0418479 0.82339
-1.88142 -1.3329 4.56307 0.56593 -0.0418479 0.82339
-1.73659 -1.60286 4.44927 0.56593 -0.0418479 0.82339
-1.77551 -1.45334 4.48386 0.56593 -0.0418479 0.82339
-1.47043 -1.61403 4.26537 0.56593 -0.0418479 0.82339
-1.60081 -1.43947 4.36425 0.56593 -0.0418479 0.82339
-1.68873 -1.20411 4.43706 0.56593 -0.0418479 0.82339
-1.52803 -1.4188 4.3152 0.56593 -0.0418479 0.82339
-1.67052 -1.35196 4.41682 0.56593 -0.0418479 0.82339
-1.44084 -1.49133 4.25137 0.56593 -0.0418479 0.82339
-1.6343 -1.40433 4.38915 0.56593 -0.0418479 0.82339
-1.6008 -1.20682 4.37635 0.56593 -0.0418479 0.82339
-1.60258 -1.35273 4.36998 0.56593 -0.0418479 0.82339
-1.29007 -1.5247 4.14579 0.56593 -0.0418479 0.82339
-1.37206 -1.35769 4.21096 0.56593 -0.0418479 0.82339
-1.4965 -1.39705 4.29461 0.56593 -0.0418479 0.82339
-1.72266 -1.0239 4.46981 0.56593 -0.0418479 0.82339
-1.46137 -1.28803 4.27609 0.56593 -0.0418479 0.82339
-1.26964 -1.56673 4.12953 0.56593 -0.0418479 0.82339
-1.40503 -1.56224 4.22301 0.56593 -0.0418479 0.82339
-1.68607 -1.62088 4.41353 0.56593 -0.0418479 0.82339
-1.64948 -1.15673 4.41249 0.56593 -0.0418479 0.82339
-1.58432 -1.49474 4.35002 0.56593 -0.0418479 0.82339
-1.77174 -1.25997 4.49132 0.56593 -0.0418479 0.82339
-1.77729 -1.27329 4.49445 0.56593 -0.0418479 0.82339
-1.46381 -1.21543 4.28155 0.56593 -0.0418479 0.82339
-1.42016 -1.62604 4.23011 0.56593 -0.0418479 0.82339
-1.83802 -1.2317 4.53845 0.56593 -0.0418479 0.82339
-1.66418 -1.48485 4.40554 0.56593 -0.0418479 0.82339
-1.36535 -1.65751 4.19073 0.56593 -0.0418479 0.82339
-1.76767 -1.45727 4.47825 0.56593 -0.0418479 0.82339
-1.87668 -1.28542 4.56227 0.56593 -0.0418479 0.82339
-1.75234 -1.67936 4.45613 0.56593 -0.0418479 0.82339
-1.84835 -0.916094 4.56199 0.56593 -0.0418479 0.82339
-1.31862 -1.43516 4.17011 0.56593 -0.0418479 0.82339
-1.60911 -1.53188 4.36516 0.56593 -0.0418479 0.82339
-1.56664 -1.37431 4.34411 0.56593 -0.0418479 0.82339
-1.57534 -1.50034 4.34354 0.56593 -0.0418479 0.82339
-1.64665 -1.31323 4.4024 0.56593 -0.0418479 0.82339
-1.5427 -1.47877 4.32218 0.56593 -0.0418479 0.82339
-1.83614 -1.60996 4.51747 0.56593 -0.0418479 0.82339
-1.52762 -1.66614 4.30205 0.56593 -0.0418479 0.82339
-1.87387 -1.5201 4.54813 0.56593 -0.0418479 0.82339
-1.61585 -1.14831 4.38976 0.56593 -0.0418479 0.82339
-1.79515 -1.25405 4.50775 0.56593 -0.0418479 0.82339
-1.78147 -1.63074 4.47872 0.56593 -0.0418479 0.82339
-1.88397 -1.05525 4.57928 0.56593 -0.0418479 0.82339
-1.78915 -1.6644 4.48226 0.56593 -0.0418479 0.82339
-1.28071 -1.46763 4.14231 0.56593 -0.0418479 0.82339
-1.81266 -1.34924 4.51486 0.56593 -0.0418479 0.82339
-1.67239 -1.21233 4.42537 0.56593 -0.0418479 0.82339
-1.34494 -1.52009 4.18382 0.56593 -0.0418479 0.82339
-1.83706 -1.31147 4.53363 0.56593 -0.0418479 0.82339
-1.39518 -1.39398 4.22499 0.56593 -0.0418479 0.82339
-1.60746 -1.03953 4.38965 0.56593 -0.0418479 0.82339
-1.63431 -1.26927 4.39618 0.56593 -0.0418479 0.82339
-1.40011 -1.60313 4.2175 0.56593 -0.0418479 0.82339
-1.82846 -0.928442 4.54765 0.56593 -0.0418479 0.82339
-1.18861 -1.67783 4.06794 0.56593 -0.0418479 0.82339
-1.80479 -1.00387 4.52741 0.56593 -0.0418479 0.82339
-1.66095 -1.04301 4.42631 0.56593 -0.0418479 0.82339
-1.89499 -1.13135 4.58291 0.56593 -0.0418479 0.82339
-1.37946 -1.6352 4.20161 0.56593 -0.0418479 0.82339
-1.72276 -1.44829 4.44778 0.56593 -0.0418479 0.82339
-1.60325 -1.21888 4.37742 0.56593 -0.0418479 0.82339
-1.16718 -1.61853 4.05627 0.56593 -0.0418479 0.82339
-1.71257 -1.44267 4.44106 0.56593 -0.0418479 0.82339
-1.34451 -1.39605 4.18998 0.56593 -0.0418479 0.82339
-1.57806 -1.21781 4.36012 0.56593 -0.0418479 0.82339
-1.86164 -0.740658 4.58027 0.56593 -0.0418479 0.82339
-1.38389 -1.56658 4.20823 0.56593 -0.0418479 0.82339
-1.83817 -0.986218 4.55132 0.56593 -0.0418479 0.82339
-1.89829 -1.66108 4.55761 0.56593 -0.0418479 0.82339
-1.83418 -1.08356 4.54351 0.56593 -0.0418479 0.82339
-1.89627 -1.0002 4.59061 0.56593 -0.0418479 0.82339
-1.37134 -1.56648 4.19959 0.56593 -0.0418479 0.82339
-1.87782 -1.46373 4.55378 0.56593 -0.0418479 0.82339
-1.68905 -0.937536 4.45115 0.56593 -0.0418479 0.82339
-1.34804 -1.63932 4.17975 0.56593 -0.0418479 0.82339
-1.77892 -1.66792 4.47504 0.56593 -0.0418479 0.82339
-1.86903 -1.21279 4.56079 0.56593 -0.0418479 0.82339
-1.29006 -1.50815 4.14664 0.56593 -0.0418479 0.82339
-1.58183 -1.08885 4.36943 0.56593 -0.0418479 0.82339
-1.3956 -1.67434 4.21069 0.56593 -0.0418479 0.82339
-1.75414 -1.59889 4.46156 0.56593 -0.0418479 0.82339
-1.87316 -0.833861 4.58335 0.56593 -0.0418479 0.82339
-1.74264 -0.922725 4.48883 0.56593 -0.0418479 0.82339
-1.87389 -1.64008 4.5419 0.56593 -0.0418479 0.82339
-1.69079 -1.22096 4.4376 0.56593 -0.0418479 0.82339
-1.70523 -1.38649 4.43893 0.56593 -0.0418479 0.82339
-1.75006 -1.48007 4.46494 0.56593 -0.0418479 0.82339
-1.81243 -1.60742 4.50126 0.56593 -0.0418479 0.82339
-1.48761 -1.28098 4.29453 0.56593 -0.0418479 0.82339
-1.83432 -1.3339 4.53058 0.56593 -0.0418479 0.82339
-1.5292 -1.20679 4.32704 0.56593 -0.0418479 0.82339
-1.76994 -1.16853 4.49484 0.56593 -0.0418479 0.82339
-1.81627 -1.67028 4.50064 0.56593 -0.0418479 0.82339
-1.68346 -1.40811 4.42281 0.56593 -0.0418479 0.82339
-1.33017 -1.66474 4.16612 0.56593 -0.0418479 0.82339
-1.55547 -1.48292 4.33076 0.56593 -0.0418479 0.82339
-1.77349 -1.65825 4.4718 0.56593 -0.0418479 0.82339
-1.37828 -1.42733 4.21161 0.56593 -0.0418479 0.82339
-1.31476 -1.5361 4.1622 0.56593 -0.0418479 0.82339
-1.7329 -1.62974 4.44533 0.56593 -0.0418479 0.82339
-1.83155 -1.57479 4.51613 0.56593 -0.0418479 0.82339
-1.87377 -1.25438 4.56189 0.56593 -0.0418479 0.82339
-1.74552 -1.09745 4.48172 0.56593 -0.0418479 0.82339
-1.84077 -1.14109 4.54506 0.56593 -0.0418479 0.82339
-1.85306 -1.2299 4.5489 0.56593 -0.0418479 0.82339
-1.72686 -1.11268 4.46808 0.56593 -0.0418479 0.82339
-1.72523 -0.994241 4.47312 0.56593 -0.0418479 0.82339
-1.42474 -1.58077 4.23562 0.56593 -0.0418479 0.82339
-1.40885 -1.49133 4.22934 0.56593 -0.0418479 0.82339
-1.714 -1.46385 4.44094 0.56593 -0.0418479 0.82339
-1.43807 -1.55321 4.24624 0.56593 -0.0418479 0.82339
-1.3994 -1.31465 4.23202 0.56593 -0.0418479 0.82339
-1.80685 -1.22018 4.51758 0.56593 -0.0418479 0.82339
-1.5019 -1.2574 4.3056 0.56593 -0.0418479 0.82339
-1.58164 -1.46558 4.34969 0.56593 -0.0418479 0.82339
-1.32693 -1.42767 4.17623 0.56593 -0.0418479 0.82339
-1.81251 -1.30802 4.5169 0.56593 -0.0418479 0.82339
-1.65307 -1.10458 4.41768 0.56593 -0.0418479 0.82339
-1.70016 -0.977048 4.45675 0.56593 -0.0418479 0.82339
-1.73137 -1.12578 4.4705 0.56593 -0.0418479 0.82339
-1.744 -1.14041 4.47844 0.56593 -0.0418479 0.82339
-1.84038 -1.435 4.52949 0.56593 -0.0418479 0.82339
-1.52156 -1.58675 4.302 0.56593 -0.0418479 0.82339
-1.78873 -0.84752 4.5245 0.56593 -0.0418479 0.82339
-1.41262 -1.60821 4.22585 0.56593 -0.0418479 0.82339
-1.9065 -1.51945 4.57064 0.56593 -0.0418479 0.82339
-1.58959 -1.61687 4.34729 0.56593 -0.0418479 0.82339
-1.7245 -1.62734 4.43966 0.56593 -0.0418479 0.82339
-1.56153 -1.15019 4.35225 0.56593 -0.0418479 0.82339
-1.77476 -1.41502 4.48534 0.56593 -0.0418479 0.82339
-1.38199 -1.52749 4.20895 0.56593 -0.0418479 0.82339
-1.69509 -1.40957 4.43074 0.56593 -0.0418479 0.82339
-1.64255 -1.19836 4.40555 0.56593 -0.0418479 0.82339
-1.42045 -1.33269 4.24558 0.56593 -0.0418479 0.82339
-1.55583 -1.3898 4.33585 0.56593 -0.0418479 0.82339
-1.59626 -1.63687 4.35084 0.56593 -0.0418479 0.82339
-1.82878 -1.66667 4.50944 0.56593 -0.0418479 0.82339
-1.49434 -1.32478 4.29689 0.56593 -0.0418479 0.82339
-1.60184 -1.37836 4.36814 0.56593 -0.0418479 0.82339
-1.62023 -1.32722 4.38347 0.56593 -0.0418479 0.82339
-1.23629 -1.53167 4.10839 0.56593 -0.0418479 0.82339
-1.51928 -1.62443 4.29847 0.56593 -0.0418479 0.82339
-1.82762 -0.980666 4.54435 0.56593 -0.0418479 0.82339
-1.41251 -1.64299 4.22396 0.56593 -0.0418479 0.82339
-1.72612 -1.22145 4.46191 0.56593 -0.0418479 0.82339
-1.70655 -1.28352 4.4452 0.56593 -0.0418479 0.82339
-1.79861 -1.14422 4.51586 0.56593 -0.0418479 0.82339
-1.90493 -1.40548 4.57549 0.56593 -0.0418479 0.82339
-1.26753 -1.60381 4.12615 0.56593 -0.0418479 0.82339
-1.63186 -1.05031 4.40589 0.56593 -0.0418479 0.82339
-1.63988 -1.08597 4.40956 0.56593 -0.0418479 0.82339
-1.56277 -1.50927 4.33442 0.56593 -0.0418479 0.82339
-1.82726 -1.2579 4.52967 0.56593 -0.0418479 0.82339
-1.79892 -1.60641 4.49201 0.56593 -0.0418479 0.82339
-1.78937 -0.997117 4.51714 0.56593 -0.0418479 0.82339
-1.23199 -1.67005 4.09822 0.56593 -0.0418479 0.82339
-1.59735 -1.06194 4.38152 0.56593 -0.0418479 0.82339
-1.22788 -1.52854 4.10276 0.56593 -0.0418479 0.82339
-1.86352 -0.95114 4.57061 0.56593 -0.0418479 0.82339
-1.19503 -1.63177 4.07476 0.56593 -0.0418479 0.82339
-1.72441 -1.32226 4.45548 0.56593 -0.0418479 0.82339
-1.46906 -1.54974 4.26776 0.56593 -0.0418479 0.82339
-1.39574 -1.6318 4.213 0.56593 -0.0418479 0.82339
-1.43283 -1.32258 4.25464 0.56593 -0.0418479 0.82339
-1.80449 -1.45422 4.50377 0.56593 -0.0418479 0.82339
-1.40539 -1.62893 4.2198 0.56593 -0.0418479 0.82339
-1.79077 -1.187 4.50823 0.56593 -0.0418479 0.82339
-1.39622 -1.51039 4.21964 0.56593 -0.0418479 0.82339
-1.48319 -1.36361 4.28719 0.56593 -0.0418479 0.82339
-1.53793 -1.66415 4.30925 0.56593 -0.0418479 0.82339
-1.82186 -0.78576 4.55053 0.56593 -0.0418479 0.82339
-1.5107 -1.48649 4.29974 0.56593 -0.0418479 0.82339
-1.77682 -0.919474 4.51254 0.56593 -0.0418479 0.82339
-1.44945 -1.59168 4.25208 0.56593 -0.0418479 0.82339
-1.79812 -1.32515 4.5061 0.56593 -0.0418479 0.82339
-1.56237 -1.3593 4.34195 0.56593 -0.0418479 0.82339
-1.74676 -0.907809 4.49245 0.56593 -0.0418479 0.82339
-1.67925 -1.60083 4.40988 0.56593 -0.0418479 0.82339
-1.82306 -0.831542 4.54897 0.56593 -0.0418479 0.82339
-1.78817 -0.933077 4.51965 0.56593 -0.0418479 0.82339
-1.82623 -0.890309 4.54809 0.56593 -0.0418479 0.82339
-1.74243 -1.2268 4.47286 0.56593 -0.0418479 0.82339
-1.25913 -1.48875 4.12635 0.56593 -0.0418479 0.82339
-1.67341 -1.25937 4.42363 0.56593 -0.0418479 0.82339
-1.77552 -0.983215 4.50833 0.56593 -0.0418479 0.82339
-1.80631 -1.52092 4.50155 0.56593 -0.0418479 0.82339
-1.69812 -1.45587 4.43042 0.56593 -0.0418479 0.82339
-1.82764 -1.59685 4.51229 0.56593 -0.0418479 0.82339
-1.65779 -1.0552 4.4235 0.56593 -0.0418479 0.82339
-1.73697 -1.05249 4.47817 0.56593 -0.0418479 0.82339
-1.66131 -1.2131 4.4177 0.56593 -0.0418479 0.82339
-1.22028 -1.595 4.09406 0.56593 -0.0418479 0.82339
-1.66492 -1.49619 4.40546 0.56593 -0.0418479 0.82339
-1.62543 -1.28594 4.3892 0.56593 -0.0418479 0.82339
-1.69427 -1.60862 4.41982 0.56593 -0.0418479 0.82339
-1.82317 -1.19737 4.53001 0.56593 -0.0418479 0.82339
-1.2583 -1.59253 4.12038 0.56593 -0.0418479 0.82339
-1.67796 -0.958185 4.44244 0.56593 -0.0418479 0.82339
-1.29718 -0.77708 4.1896 0.56593 -0.0418479 0.82339
-1.23373 -0.762135 4.14668 0.56593 -0.0418479 0.82339
-1.72916 -0.760089 4.48802 0.56593 -0.0418479 0.82339
-1.29446 -1.05049 4.1735 0.56593 -0.0418479 0.82339
-1.6548 -0.728538 4.43844 0.56593 -0.0418479 0.82339
-1.26431 -0.79686 4.16593 0.56593 -0.0418479 0.82339
-1.37399 -1.23092 4.21888 0.56593 -0.0418479 0.82339
-1.10369 -0.867697 4.05162 0.56593 -0.0418479 0.82339
-1.55316 -0.894183 4.35981 0.56593 -0.0418479 0.82339
-1.49576 -0.790925 4.32565 0.56593 -0.0418479 0.82339
-1.51435 -0.987867 4.32821 0.56593 -0.0418479 0.82339
-1.21141 -0.886896 4.12481 0.56593 -0.0418479 0.82339
-1.18123 -0.758261 4.11072 0.56593 -0.0418479 0.82339
-1.4909 -1.12377 4.30498 0.56593 -0.0418479 0.82339
-1.24498 -0.963001 4.14397 0.56593 -0.0418479 0.82339
-1.18602 -1.23295 4.08931 0.56593 -0.0418479 0.82339
-1.31577 -1.17296 4.1818 0.56593 -0.0418479 0.82339
-1.19255 -0.772356 4.11778 0.56593 -0.0418479 0.82339
-1.38106 -0.703658 4.2512 0.56593 -0.0418479 0.82339
-1.32283 -0.728111 4.20982 0.56593 -0.0418479 0.82339
-1.09708 -1.04541 4.03781 0.56593 -0.0418479 0.82339
-1.08627 -1.45306 4.00915 0.56593 -0.0418479 0.82339
-1.70367 -0.804989 4.46812 0.56593 -0.0418479 0.82339
-1.63667 -0.868206 4.41868 0.56593 -0.0418479 0.82339
-1.34573 -1.34049 4.19372 0.56593 -0.0418479 0.82339
-1.85409 -0.684564 4.57799 0.56593 -0.0418479 0.82339
-1.27716 -0.759353 4.17673 0.56593 -0.0418479 0.82339
-1.22263 -0.72591 4.14091 0.56593 -0.0418479 0.82339
-1.18329 -0.71004 4.11465 0.56593 -0.0418479 0.82339
-1.12896 -0.948498 4.06481 0.56593 -0.0418479 0.82339
-1.45451 -1.07769 4.28232 0.56593 -0.0418479 0.82339
-1.10933 -1.2149 4.03743 0.56593 -0.0418479 0.82339
-1.43458 -0.937485 4.27589 0.56593 -0.0418479 0.82339
-1.19574 -1.17404 4.09907 0.56593 -0.0418479 0.82339
-1.09548 -1.49658 4.01323 0.56593 -0.0418479 0.82339
-1.53758 -0.791582 4.35442 0.56593 -0.0418479 0.82339
-1.25048 -1.32769 4.12878 0.56593 -0.0418479 0.82339
-1.63773 -0.885351 4.41852 0.56593 -0.0418479 0.82339
-1.38244 -1.26496 4.22293 0.56593 -0.0418479 0.82339
-1.15784 -1.03143 4.08039 0.56593 -0.0418479 0.82339
-1.11089 -1.55986 4.02055 0.56593 -0.0418479 0.82339
-1.44155 -1.02084 4.27635 0.56593 -0.0418479 0.82339
-1.25566 -0.868268 4.15625 0.56593 -0.0418479 0.82339
-1.66066 -0.871225 4.43505 0.56593 -0.0418479 0.82339
-1.3267 -1.10973 4.19262 0.56593 -0.0418479 0.82339
-1.56124 -0.954519 4.36223 0.56593 -0.0418479 0.82339
-1.18821 -1.32753 4.0859 0.56593 -0.0418479 0.82339
-1.42316 -1.26073 4.2512 0.56593 -0.0418479 0.82339
-1.33361 -0.801439 4.21343 0.56593 -0.0418479 0.82339
-1.51871 -0.789632 4.34153 0.56593 -0.0418479 0.82339
-1.3038 -1.37822 4.16287 0.56593 -0.0418479 0.82339
-1.47884 -1.08239 4.29883 0.56593 -0.0418479 0.82339
-1.1873 -0.882193 4.10845 0.56593 -0.0418479 0.82339
-1.53024 -0.760366 4.35099 0.56593 -0.0418479 0.82339
-1.21486 -0.731697 4.13526 0.56593 -0.0418479 0.82339
-1.16244 -1.06301 4.08191 0.56593 -0.0418479 0.82339
-1.46562 -1.19001 4.28412 0.56593 -0.0418479 0.82339
-1.66512 -0.708009 4.44662 0.56593 -0.0418479 0.82339
-1.73923 -0.826946 4.49147 0.56593 -0.0418479 0.82339
-1.29679 -1.02725 4.17631 0.56593 -0.0418479 0.82339
-1.33533 -0.98728 4.20493 0.56593 -0.0418479 0.82339
-1.13944 -0.984884 4.07014 0.56593 -0.0418479 0.82339
-1.49669 -0.759452 4.32793 0.56593 -0.0418479 0.82339
-1.25405 -0.750961 4.16125 0.56593 -0.0418479 0.82339
-1.12908 -1.31618 4.04576 0.56593 -0.0418479 0.82339
-1.28829 -1.29519 4.15651 0.56593 -0.0418479 0.82339
-1.54897 -0.717752 4.36611 0.56593 -0.0418479 0.82339
-1.51572 -1.13298 4.3216 0.56593 -0.0418479 0.82339
-1.18099 -0.770794 4.1099 0.56593 -0.0418479 0.82339
-1.08621 -1.0266 4.0313 0.56593 -0.0418479 0.82339
-1.43418 -1.05578 4.26945 0.56593 -0.0418479 0.82339
-1.15412 -1.00836 4.07903 0.56593 -0.0418479 0.82339
-1.40279 -1.12158 4.24441 0.56593 -0.0418479 0.82339
-1.25657 -1.04957 4.14745 0.56593 -0.0418479 0.82339
-1.20011 -1.48972 4.08565 0.56593 -0.0418479 0.82339
-1.26368 -1.42862 4.13262 0.56593 -0.0418479 0.82339
-1.16661 -1.20849 4.07721 0.56593 -0.0418479 0.82339
-1.11282 -1.43486 4.02839 0.56593 -0.0418479 0.82339
-1.22638 -0.840042 4.13756 0.56593 -0.0418479 0.82339
-1.73688 -0.73153 4.49481 0.56593 -0.0418479 0.82339
-1.38194 -0.821235 4.24568 0.56593 -0.0418479 0.82339
-1.82553 -0.744959 4.55517 0.56593 -0.0418479 0.82339
-1.15385 -0.840907 4.08756 0.56593 -0.0418479 0.82339
-1.1416 -0.738535 4.08445 0.56593 -0.0418479 0.82339
-1.70931 -0.827834 4.47082 0.56593 -0.0418479 0.82339
-1.31443 -1.36843 4.1707 0.56593 -0.0418479 0.82339
-1.15462 -1.27408 4.06554 0.56593 -0.0418479 0.82339
-1.30831 -0.827587 4.19464 0.56593 -0.0418479 0.82339
-1.30325 -1.13202 4.17531 0.56593 -0.0418479 0.82339
-1.50318 -0.935445 4.32324 0.56593 -0.0418479 0.82339
-1.329 -0.703896 4.21533 0.56593 -0.0418479 0.82339
-1.62851 -0.709978 4.4213 0.56593 -0.0418479 0.82339
-1.4081 -1.08643 4.2499 0.56593 -0.0418479 0.82339
-1.2991 -1.30275 4.16356 0.56593 -0.0418479 0.82339
-1.30508 -1.29394 4.16814 0.56593 -0.0418479 0.82339
-1.66828 -0.745515 4.44684 0.56593 -0.0418479 0.82339
-1.4769 -1.022 4.30064 0.56593 -0.0418479 0.82339
-1.18694 -1.558 4.07302 0.56593 -0.0418479 0.82339
-1.18646 -1.53085 4.07411 0.56593 -0.0418479 0.82339
-1.09933 -1.62629 4.00913 0.56593 -0.0418479 0.82339
-1.43106 -0.92403 4.27416 0.56593 -0.0418479 0.82339
-1.34164 -1.19731 4.19835 0.56593 -0.0418479 0.82339
-1.53146 -0.798069 4.34987 0.56593 -0.0418479 0.82339
-1.22928 -0.907447 4.13605 0.56593 -0.0418479 0.82339
-1.55962 -0.789442 4.36971 0.56593 -0.0418479 0.82339
-1.35747 -1.20169 4.20903 0.56593 -0.0418479 0.82339
-1.68069 -0.843859 4.45027 0.56593 -0.0418479 0.82339
-1.43363 -1.15487 4.26392 0.56593 -0.0418479 0.82339
-1.57466 -0.783793 4.38037 0.56593 -0.0418479 0.82339
-1.48382 -0.687743 4.3228 0.56593 -0.0418479 0.82339
-1.1667 -1.01829 4.08718 0.56593 -0.0418479 0.82339
-1.14746 -1.01837 4.07392 0.56593 -0.0418479 0.82339
-1.07946 -1.04554 4.02567 0.56593 -0.0418479 0.82339
-1.37917 -1.04852 4.23194 0.56593 -0.0418479 0.82339
-1.47669 -0.722014 4.31611 0.56593 -0.0418479 0.82339
-1.35277 -1.15553 4.20819 0.56593 -0.0418479 0.82339
-1.23343 -0.852652 4.14176 0.56593 -0.0418479 0.82339
-1.61866 -0.861958 4.40661 0.56593 -0.0418479 0.82339
-1.10207 -1.1045 4.03818 0.56593 -0.0418479 0.82339
-1.19587 -0.812447 4.11798 0.56593 -0.0418479 0.82339
-1.08694 -1.03688 4.03127 0.56593 -0.0418479 0.82339
-1.82347 -0.709863 4.55558 0.56593 -0.0418479 0.82339
-1.45513 -0.691259 4.30286 0.56593 -0.0418479 0.82339
-1.18374 -1.04766 4.09738 0.56593 -0.0418479 0.82339
-1.09742 -1.58625 4.0099 0.56593 -0.0418479 0.82339
-1.70248 -0.754309 4.46994 0.56593 -0.0418479 0.82339
-1.60293 -0.987224 4.38925 0.56593 -0.0418479 0.82339
-1.26642 -1.20728 4.14602 0.56593 -0.0418479 0.82339
-1.14229 -1.08368 4.06696 0.56593 -0.0418479 0.82339
-1.52286 -1.01654 4.33257 0.56593 -0.0418479 0.82339
-1.26486 -0.843495 4.16388 0.56593 -0.0418479 0.82339
-1.40452 -0.823776 4.2611 0.56593 -0.0418479 0.82339
-1.2794 -0.977304 4.16693 0.56593 -0.0418479 0.82339
-1.1478 -1.18065 4.06571 0.56593 -0.0418479 0.82339
-1.13303 -0.963175 4.06685 0.56593 -0.0418479 0.82339
-1.28339 -1.0914 4.16374 0.56593 -0.0418479 0.82339
-1.12668 -1.35874 4.04189 0.56593 -0.0418479 0.82339
-1.59107 -0.912453 4.38497 0.56593 -0.0418479 0.82339
-1.26855 -1.03135 4.15665 0.56593 -0.0418479 0.82339
-1.14102 -0.84561 4.07848 0.56593 -0.0418479 0.82339
-1.40036 -0.965859 4.25084 0.56593 -0.0418479 0.82339
-1.32143 -1.3581 4.17606 0.56593 -0.0418479 0.82339
-1.84624 -0.710081 4.57126 0.56593 -0.0418479 0.82339
-1.50758 -1.0657 4.3195 0.56593 -0.0418479 0.82339
-1.25056 -0.698866 4.16156 0.56593 -0.0418479 0.82339
-1.46262 -1.16451 4.28338 0.56593 -0.0418479 0.82339
-1.1957 -0.986234 4.10882 0.56593 -0.0418479 0.82339
-1.51481 -0.90136 4.33303 0.56593 -0.0418479 0.82339
-1.59775 -0.749306 4.39806 0.56593 -0.0418479 0.82339
-1.26854 -0.699107 4.17393 0.56593 -0.0418479 0.82339
-1.08292 -0.925952 4.03428 0.56593 -0.0418479 0.82339
-1.39378 -1.0145 4.24378 0.56593 -0.0418479 0.82339
-1.16215 -0.968696 4.08662 0.56593 -0.0418479 0.82339
-1.30188 -0.950196 4.18383 0.56593 -0.0418479 0.82339
-1.42008 -0.833282 4.27132 0.56593 -0.0418479 0.82339
-1.47456 -1.13871 4.29295 0.56593 -0.0418479 0.82339
-1.52501 -0.88229 4.34104 0.56593 -0.0418479 0.82339
-1.25976 -0.937822 4.15546 0.56593 -0.0418479 0.82339
-1.08854 -1.16581 4.02566 0.56593 -0.0418479 0.82339
-1.65893 -0.900842 4.43232 0.56593 -0.0418479 0.82339
-1.53682 -0.952519 4.34552 0.56593 -0.0418479 0.82339
-1.17409 -1.22892 4.0813 0.56593 -0.0418479 0.82339
-1.2179 -0.985683 4.12413 0.56593 -0.0418479 0.82339
-1.07812 -0.769968 4.03909 0.56593 -0.0418479 0.82339
-1.17149 -1.41609 4.06977 0.56593 -0.0418479 0.82339
-1.32672 -1.12211 4.19199 0.56593 -0.0418479 0.82339
-1.23469 -0.923138 4.13896 0.56593 -0.0418479 0.82339
-1.11227 -1.11972 4.04441 0.56593 -0.0418479 0.82339
-1.64021 -0.898441 4.41955 0.56593 -0.0418479 0.82339
-1.43072 -0.768348 4.28203 0.56593 -0.0418479 0.82339
-1.50687 -1.08194 4.31816 0.56593 -0.0418479 0.82339
-1.30872 -0.744597 4.19924 0.56593 -0.0418479 0.82339
-1.20873 -1.41526 4.09546 0.56593 -0.0418479 0.82339
-1.64673 -0.696307 4.43456 0.56593 -0.0418479 0.82339
-1.61069 -0.87333 4.40052 0.56593 -0.0418479 0.82339
-1.56799 -0.767109 4.37664 0.56593 -0.0418479 0.82339
-1.1996 -0.722291 4.12524 0.56593 -0.0418479 0.82339
-1.48866 -1.09563 4.30491 0.56593 -0.0418479 0.82339
-1.55439 -1.00387 4.35495 0.56593 -0.0418479 0.82339
-1.32946 -1.23944 4.18777 0.56593 -0.0418479 0.82339
-1.28718 -1.18698 4.16138 0.56593 -0.0418479 0.82339
-1.60603 -0.975859 4.39197 0.56593 -0.0418479 0.82339
-1.15971 -0.73873 4.09691 0.56593 -0.0418479 0.82339
-1.11154 -1.39309 4.02968 0.56593 -0.0418479 0.82339
-1.07989 -0.727867 4.0425 0.56593 -0.0418479 0.82339
-1.26574 -0.871135 4.16305 0.56593 -0.0418479 0.82339
-1.54363 -0.8469 4.35571 0.56593 -0.0418479 0.82339
-1.63169 -0.984939 4.40918 0.56593 -0.0418479 0.82339
-1.34476 -0.981107 4.21175 0.56593 -0.0418479 0.82339
-1.53895 -1.07284 4.34073 0.56593 -0.0418479 0.82339
-1.41023 -1.11418 4.24992 0.56593 -0.0418479 0.82339
-1.43226 -1.10214 4.26572 0.56593 -0.0418479 0.82339
-1.29437 -0.745438 4.18931 0.56593 -0.0418479 0.82339
-1.59764 -0.965143 4.38676 0.56593 -0.0418479 0.82339
-1.13461 -1.38085 4.0462 0.56593 -0.0418479 0.82339
-1.14158 -1.14165 4.06346 0.56593 -0.0418479 0.82339
-1.11559 -1.49698 4.02706 0.56593 -0.0418479 0.82339
-1.31161 -1.18365 4.17837 0.56593 -0.0418479 0.82339
-1.31247 -1.34952 4.17034 0.56593 -0.0418479 0.82339
-1.70473 -0.908533 4.46346 0.56593 -0.0418479 0.82339
-1.54829 -0.698072 4.36667 0.56593 -0.0418479 0.82339
-1.15254 -1.11456 4.07241 0.56593 -0.0418479 0.82339
-1.57136 -0.969253 4.36844 0.56593 -0.0418479 0.82339
-1.15019 -0.802264 4.08705 0.56593 -0.0418479 0.82339
-1.49819 -1.14629 4.30883 0.56593 -0.0418479 0.82339
-1.32733 -0.765022 4.211 0.56593 -0.0418479 0.82339
-1.20222 -1.06937 4.10898 0.56593 -0.0418479 0.82339
-1.13734 -1.15523 4.05983 0.56593 -0.0418479 0.82339
-1.33295 -0.756771 4.2153 0.56593 -0.0418479 0.82339
-1.59071 -0.769101 4.39219 0.56593 -0.0418479 0.82339
-1.22393 -1.51045 4.10098 0.56593 -0.0418479 0.82339
-1.07763 -0.872417 4.03342 0.56593 -0.0418479 0.82339
-1.49418 -0.969385 4.31527 0.56593 -0.0418479 0.82339
-1.4108 -0.861705 4.26345 0.56593 -0.0418479 0.82339
-1.35399 -0.954488 4.21949 0.56593 -0.0418479 0.82339
-1.43367 -0.897691 4.27733 0.56593 -0.0418479 0.82339
-1.58957 -0.844557 4.38748 0.56593 -0.0418479 0.82339
-1.46634 -0.977379 4.29569 0.56593 -0.0418479 0.82339
-1.27038 -1.32866 4.14243 0.56593 -0.0418479 0.82339
-1.36731 -0.854208 4.23389 0.56593 -0.0418479 0.82339
-1.28305 -0.916352 4.17262 0.56593 -0.0418479 0.82339
-1.40977 -0.930264 4.25918 0.56593 -0.0418479 0.82339
-1.33073 -0.85446 4.20868 0.56593 -0.0418479 0.82339
-1.34674 -0.690982 4.22822 0.56593 -0.0418479 0.82339
-1.44298 -1.09523 4.27346 0.56593 -0.0418479 0.82339
-1.719 -0.738253 4.48215 0.56593 -0.0418479 0.82339
-1.53344 -0.829369 4.3496 0.56593 -0.0418479 0.82339
-1.70111 -0.739434 4.46977 0.56593 -0.0418479 0.82339
-1.43586 -1.03097 4.2719 0.56593 -0.0418479 0.82339
-1.15454 -1.15863 4.07149 0.56593 -0.0418479 0.82339
-1.24132 -1.32812 4.12245 0.56593 -0.0418479 0.82339
-1.08228 -0.820349 4.03933 0.56593 -0.0418479 0.82339
-1.58145 -0.811169 4.38362 0.56593 -0.0418479 0.82339
-1.14202 -1.00662 4.07079 0.56593 -0.0418479 0.82339
-1.3091 -1.3068 4.17024 0.56593 -0.0418479 0.82339
-1.12888 -1.14158 4.05471 0.56593 -0.0418479 0.82339
-1.25178 -1.16376 4.13821 0.56593 -0.0418479 0.82339
-1.1239 -1.1596 4.05034 0.56593 -0.0418479 0.82339
-1.76129 -0.684453 4.51408 0.56593 -0.0418479 0.82339
-1.17526 -0.80952 4.10394 0.56593 -0.0418479 0.82339
-1.12975 -0.71055 4.07775 0.56593 -0.0418479 0.82339
-1.53262 -0.725783 4.35443 0.56593 -0.0418479 0.82339
-1.1193 -1.38514 4.03544 0.56593 -0.0418479 0.82339
-1.62644 -0.78461 4.41599 0.56593 -0.0418479 0.82339
-1.71495 -0.857631 4.47315 0.56593 -0.0418479 0.82339
-1.52787 -1.03116 4.33526 0.56593 -0.0418479 0.82339
-1.21817 -0.843461 4.13172 0.56593 -0.0418479 0.82339
-1.37579 -1.32 4.21548 0.56593 -0.0418479 0.82339
-1.35196 -1.00456 4.21549 0.56593 -0.0418479 0.82339
-1.1724 -0.99025 4.09256 0.56593 -0.0418479 0.82339
-1.54571 -1.06565 4.34576 0.56593 -0.0418479 0.82339
-1.44562 -0.965901 4.28201 0.56593 -0.0418479 0.82339
-1.25885 -1.12347 4.14517 0.56593 -0.0418479 0.82339
-1.22656 -1.48797 4.10396 0.56593 -0.0418479 0.82339
-1.19436 -1.24912 4.09421 0.56593 -0.0418479 0.82339
-1.33965 -1.2133 4.19615 0.56593 -0.0418479 0.82339
-1.12682 -0.755672 4.07338 0.56593 -0.0418479 0.82339
-1.50725 -0.7654 4.3349 0.56593 -0.0418479 0.82339
-1.38498 -0.774415 4.25021 0.56593 -0.0418479 0.82339
-1.36825 -1.09505 4.222 0.56593 -0.0418479 0.82339
-1.37808 -1.08081 4.22951 0.56593 -0.0418479 0.82339
-1.18882 -1.45509 4.07968 0.56593 -0.0418479 0.82339
-1.10618 -1.24406 4.03374 0.56593 -0.0418479 0.82339
-1.09494 -1.2269 4.0269 0.56593 -0.0418479 0.82339
-1.62798 -0.859699 4.41314 0.56593 -0.0418479 0.82339
-1.33131 -1.30836 4.18545 0.56593 -0.0418479 0.82339
-1.52213 -0.775683 4.34461 0.56593 -0.0418479 0.82339
-1.15638 -0.942342 4.08402 0.56593 -0.0418479 0.82339
-1.19865 -0.76047 4.1226 0.56593 -0.0418479 0.82339
-1.33062 -1.29198 4.18583 0.56593 -0.0418479 0.82339
-1.3783 -1.29488 4.21852 0.56593 -0.0418479 0.82339
-1.22184 -1.03056 4.12452 0.56593 -0.0418479 0.82339
-1.37372 -1.25983 4.21719 0.56593 -0.0418479 0.82339
-1.19774 -0.880152 4.11575 0.56593 -0.0418479 0.82339
-1.25027 -1.46641 4.12141 0.56593 -0.0418479 0.82339
-1.56273 -0.902755 4.36596 0.56593 -0.0418479 0.82339
-1.72221 -0.703124 4.48619 0.56593 -0.0418479 0.82339
-1.27845 -1.43198 4.14261 0.56593 -0.0418479 0.82339
-1.43005 -0.82544 4.2786 0.56593 -0.0418479 0.82339
-1.21075 -1.10555 4.11297 0.56593 -0.0418479 0.82339
-1.23998 -1.15352 4.13061 0.56593 -0.0418479 0.82339
-1.45051 -1.12374 4.27716 0.56593 -0.0418479 0.82339
-1.24027 -1.44386 4.1157 0.56593 -0.0418479 0.82339
-1.29392 -0.915029 4.18017 0.56593 -0.0418479 0.82339
-1.76118 -0.724162 4.51194 0.56593 -0.0418479 0.82339
-1.14882 -0.883786 4.08186 0.56593 -0.0418479 0.82339
-1.16593 -1.25068 4.07455 0.56593 -0.0418479 0.82339
-1.49427 -0.779096 4.32524 0.56593 -0.0418479 0.82339
-1.66059 -0.966191 4.43006 0.56593 -0.0418479 0.82339
-1.47604 -0.703234 4.31664 0.56593 -0.0418479 0.82339
-1.09029 -0.986418 4.03621 0.56593 -0.0418479 0.82339
-1.35862 -1.09748 4.21524 0.56593 -0.0418479 0.82339
-1.58168 -0.96905 4.37556 0.56593 -0.0418479 0.82339
-1.08322 -0.701643 4.04616 0.56593 -0.0418479 0.82339
-1.47764 -1.06017 4.29916 0.56593 -0.0418479 0.82339
-1.70169 -0.775358 4.4683 0.56593 -0.0418479 0.82339
-1.5705 -0.698271 4.38195 0.56593 -0.0418479 0.82339
-1.27947 -1.21743 4.15449 0.56593 -0.0418479 0.82339
-1.31591 -0.942811 4.19387 0.56593 -0.0418479 0.82339
-1.19602 -1.00887 4.10786 0.56593 -0.0418479 0.82339
-1.38426 -1.3115 4.22176 0.56593 -0.0418479 0.82339
-1.42301 -1.1664 4.256 0.56593 -0.0418479 0.82339
-1.31883 -1.38519 4.17286 0.56593 -0.0418479 0.82339
-1.14346 -1.41859 4.05033 0.56593 -0.0418479 0.82339
-1.25907 -1.15637 4.14361 0.56593 -0.0418479 0.82339
-1.61519 -0.928055 4.40077 0.56593 -0.0418479 0.82339
-1.22685 -1.37718 4.10993 0.56593 -0.0418479 0.82339
-1.15355 -1.04003 4.07698 0.56593 -0.0418479 0.82339
-1.79061 -0.784115 4.52909 0.56593 -0.0418479 0.82339
-1.53869 -0.884813 4.35034 0.56593 -0.0418479 0.82339
-1.87857 -0.695382 4.59429 0.56593 -0.0418479 0.82339
-1.22639 -1.14038 4.12193 0.56593 -0.0418479 0.82339
-1.41158 -0.94525 4.25964 0.56593 -0.0418479 0.82339
-1.30846 -1.02845 4.18429 0.56593 -0.0418479 0.82339
-1.1173 -1.48248 4.02899 0.56593 -0.0418479 0.82339
-1.77903 -0.781333 4.52126 0.56593 -0.0418479 0.82339
-1.22944 -0.753339 4.14418 0.56593 -0.0418479 0.82339
-1.24444 -1.10996 4.13595 0.56593 -0.0418479 0.82339
-1.12718 -1.29456 4.04558 0.56593 -0.0418479 0.82339
-1.4844 -0.939106 4.31012 0.56593 -0.0418479 0.82339
-1.18981 -1.4368 4.08131 0.56593 -0.0418479 0.82339
-1.44342 -0.783482 4.28999 0.56593 -0.0418479 0.82339
-1.51636 -0.715728 4.34376 0.56593 -0.0418479 0.82339
-1.28017 -1.25726 4.15289 0.56593 -0.0418479 0.82339
-1.33698 -1.33392 4.18803 0.56593 -0.0418479 0.82339
-1.1092 -0.803953 4.05873 0.56593 -0.0418479 0.82339
-1.33576 -0.966075 4.20633 0.56593 -0.0418479 0.82339
-1.3956 -0.822426 4.25503 0.56593 -0.0418479 0.82339
-1.40495 -1.04563 4.24985 0.56593 -0.0418479 0.82339
-1.26314 -1.07389 4.15071 0.56593 -0.0418479 0.82339
-1.47857 -0.876385 4.30936 0.56593 -0.0418479 0.82339
-1.43431 -1.07396 4.26859 0.56593 -0.0418479 0.82339
-1.13847 -1.52563 4.04133 0.56593 -0.0418479 0.82339
-1.33455 -1.28153 4.18908 0.56593 -0.0418479 0.82339
-1.20028 -1.12437 4.10479 0.56593 -0.0418479 0.82339
-1.25779 -1.33829 4.13326 0.56593 -0.0418479 0.82339
-1.30482 -1.07085 4.17957 0.56593 -0.0418479 0.82339
-1.65869 -0.766466 4.43915 0.56593 -0.0418479 0.82339
-1.29888 -1.2701 4.16511 0.56593 -0.0418479 0.82339
-1.1653 -1.32663 4.07016 0.56593 -0.0418479 0.82339
-1.10666 -1.37747 4.02713 0.56593 -0.0418479 0.82339
-1.10322 -1.39783 4.0237 0.56593 -0.0418479 0.82339
-1.29362 -0.833285 4.18422 0.56593 -0.0418479 0.82339
-1.23581 -1.03377 4.13397 0.56593 -0.0418479 0.82339
-1.25559 -0.902943 4.15441 0.56593 -0.0418479 0.82339
-1.7732 -0.756758 4.51852 0.56593 -0.0418479 0.82339
-1.09056 -1.5361 4.00778 0.56593 -0.0418479 0.82339
-1.35953 -0.720377 4.23549 0.56593 -0.0418479 0.82339
-1.62466 -0.931185 4.40713 0.56593 -0.0418479 0.82339
-1.69241 -0.727937 4.46437 0.56593 -0.0418479 0.82339
-1.3711 -0.786436 4.24003 0.56593 -0.0418479 0.82339
-1.24783 -0.999086 4.14405 0.56593 -0.0418479 0.82339
-1.28884 -1.20293 4.16169 0.56593 -0.0418479 0.82339
-1.34204 -1.15053 4.20106 0.56593 -0.0418479 0.82339
-1.48272 -0.885359 4.31176 0.56593 -0.0418479 0.82339
-1.10292 -1.43133 4.02175 0.56593 -0.0418479 0.82339
-1.39191 -1.21023 4.2323 0.56593 -0.0418479 0.82339
-1.53372 -0.868288 4.34777 0.56593 -0.0418479 0.82339
-1.27722 -1.03422 4.16247 0.56593 -0.0418479 0.82339
-1.23964 -1.12486 4.13187 0.56593 -0.0418479 0.82339
-1.57649 -0.873639 4.37695 0.56593 -0.0418479 0.82339
-1.3998 -1.26158 4.23506 0.56593 -0.0418479 0.82339
-1.43386 -0.749059 4.2852 0.56593 -0.0418479 0.82339
-1.81544 -0.740174 4.54848 0.56593 -0.0418479 0.82339
-1.6393 -0.956066 4.41592 0.56593 -0.0418479 0.82339
-1.08386 -0.938902 4.03425 0.56593 -0.0418479 0.82339
-1.24784 -1.29133 4.12885 0.56593 -0.0418479 0.82339
-1.2423 -1.18066 4.13079 0.56593 -0.0418479 0.82339
-1.22682 -1.29401 4.11424 0.56593 -0.0418479 0.82339
-1.38626 -1.10752 4.23375 0.56593 -0.0418479 0.82339
-1.18703 -1.21993 4.09068 0.56593 -0.0418479 0.82339
-1.52953 -0.819436 4.34743 0.56593 -0.0418479 0.82339
-1.30684 -0.724125 4.19901 0.56593 -0.0418479 0.82339
-1.09657 -1.07578 4.03588 0.56593 -0.0418479 0.82339
-1.36478 -1.0732 4.22075 0.56593 -0.0418479 0.82339
-1.37675 -1.10145 4.22752 0.56593 -0.0418479 0.82339
-1.20478 -1.39395 4.09385 0.56593 -0.0418479 0.82339
-1.30046 -1.34527 4.16228 0.56593 -0.0418479 0.82339
-1.62126 -0.920078 4.40537 0.56593 -0.0418479 0.82339
-1.25529 -0.882978 4.15523 0.56593 -0.0418479 0.82339
-1.08292 -0.753698 4.04324 0.56593 -0.0418479 0.82339
-1.17277 -0.873377 4.0989 0.56593 -0.0418479 0.82339
-1.28966 -1.14435 4.1653 0.56593 -0.0418479 0.82339
-1.61679 -1.01419 4.39739 0.56593 -0.0418479 0.82339
-1.14135 -0.811753 4.08047 0.56593 -0.0418479 0.82339
-1.31944 -1.10107 4.18807 0.56593 -0.0418479 0.82339
-1.2658 -1.1486 4.14865 0.56593 -0.0418479 0.82339
-1.14741 -0.788291 4.08586 0.56593 -0.0418479 0.82339
-1.16996 -1.14052 4.08306 0.56593 -0.0418479 0.82339
-1.10706 -0.916444 4.0514 0.56593 -0.0418479 0.82339
-1.27524 -1.35436 4.14444 0.56593 -0.0418479 0.82339
-1.70173 -0.7127 4.47159 0.56593 -0.0418479 0.82339
-1.20183 -0.936426 4.11563 0.56593 -0.0418479 0.82339
-1.1142 -1.45729 4.02817 0.56593 -0.0418479 0.82339
-1.64824 -0.712708 4.43475 0.56593 -0.0418479 0.82339
-1.20469 -0.812542 4.12405 0.56593 -0.0418479 0.82339
-1.55287 -0.734045 4.36795 0.56593 -0.0418479 0.82339
-1.09882 -0.890773 4.04706 0.56593 -0.0418479 0.82339
-1.4671 -0.705003 4.31039 0.56593 -0.0418479 0.82339
-1.68779 -0.891527 4.45268 0.56593 -0.0418479 0.82339
-1.31673 -1.33765 4.17389 0.56593 -0.0418479 0.82339
-1.50566 -1.16156 4.31318 0.56593 -0.0418479 0.82339
-1.31819 -1.12545 4.18594 0.56593 -0.0418479 0.82339
-1.15511 -1.29097 4.065 0.56593 -0.0418479 0.82339
-1.15531 -1.23134 4.06824 0.56593 -0.0418479 0.82339
-1.39405 -1.03118 4.24309 0.56593 -0.0418479 0.82339
-1.25705 -1.30375 4.13455 0.56593 -0.0418479 0.82339
-1.459 -1.01558 4.28864 0.56593 -0.0418479 0.82339
-1.21395 -1.22688 4.10886 0.56593 -0.0418479 0.82339
-1.12733 -0.851091 4.06876 0.56593 -0.0418479 0.82339
-1.57169 -1.00719 4.36669 0.56593 -0.0418479 0.82339
-1.71222 -0.753361 4.4767 0.56593 -0.0418479 0.82339
-1.58461 -0.862767 4.38311 0.56593 -0.0418479 0.82339
-1.38131 -1.24832 4.22302 0.56593 -0.0418479 0.82339
-1.1615 -1.29853 4.06901 0.56593 -0.0418479 0.82339
-1.35081 -0.911209 4.21956 0.56593 -0.0418479 0.82339
-1.4402 -0.822083 4.28576 0.56593 -0.0418479 0.82339
-1.34049 -0.879796 4.21408 0.56593 -0.0418479 0.82339
-1.4696 -0.768136 4.30882 0.56593 -0.0418479 0.82339
-1.16206 -0.824611 4.09406 0.56593 -0.0418479 0.82339
-1.42548 -1.1286 4.25967 0.56593 -0.0418479 0.82339
-1.4858 -0.730336 4.32195 0.56593 -0.0418479 0.82339
-1.666 -0.722982 4.44644 0.56593 -0.0418479 0.82339
-1.14949 -1.38024 4.05648 0.56593 -0.0418479 0.82339
-1.27087 -1.09685 4.15483 0.56593 -0.0418479 0.82339
-1.14574 -1.46253 4.04962 0.56593 -0.0418479 0.82339
-1.51417 -0.850227 4.33524 0.56593 -0.0418479 0.82339
-1.25721 -0.969297 4.15207 0.56593 -0.0418479 0.82339
-1.48683 -0.949811 4.31123 0.56593 -0.0418479 0.82339
-1.68826 -0.824724 4.45648 0.56593 -0.0418479 0.82339
-1.58934 -0.780136 4.39067 0.56593 -0.0418479 0.82339
-1.52744 -1.10449 4.33115 0.56593 -0.0418479 0.82339
-1.49993 -0.916848 4.32197 0.56593 -0.0418479 0.82339
-1.37459 -1.28276 4.2166 0.56593 -0.0418479 0.82339
-1.17706 -1.51882 4.06826 0.56593 -0.0418479 0.82339
-1.67145 -0.782344 4.44711 0.56593 -0.0418479 0.82339
-1.17019 -1.03248 4.08884 0.56593 -0.0418479 0.82339
-1.08432 -1.31038 4.01523 0.56593 -0.0418479 0.82339
-1.40057 -0.776531 4.26084 0.56593 -0.0418479 0.82339
-1.14882 -0.90242 4.08089 0.56593 -0.0418479 0.82339
-1.82194 -0.762851 4.55177 0.56593 -0.0418479 0.82339
-1.29101 -0.859335 4.18107 0.56593 -0.0418479 0.82339
-1.27382 -1.13294 4.15499 0.56593 -0.0418479 0.82339
-1.09993 -1.40867 4.02087 0.56593 -0.0418479 0.82339
-1.44032 -1.13081 4.26977 0.56593 -0.0418479 0.82339
-1.22129 -0.784554 4.13694 0.56593 -0.0418479 0.82339
-1.5006 -0.716459 4.33286 0.56593 -0.0418479 0.82339
-1.37971 -0.685932 4.25119 0.56593 -0.0418479 0.82339
-1.27946 -0.699312 4.18144 0.56593 -0.0418479 0.82339
-1.26595 -1.2208 4.14499 0.56593 -0.0418479 0.82339
-1.50532 -0.842458 4.32956 0.56593 -0.0418479 0.82339
-1.56922 -0.738291 4.37899 0.56593 -0.0418479 0.82339
-1.40143 -0.907805 4.2546 0.56593 -0.0418479 0.82339
-1.16754 -1.55266 4.05994 0.56593 -0.0418479 0.82339
-1.2382 -0.696218 4.15319 0.56593 -0.0418479 0.82339
-1.07735 -1.09134 4.02183 0.56593 -0.0418479 0.82339
-1.24713 -1.40601 4.1224 0.56593 -0.0418479 0.82339
-1.33054 -1.01263 4.20032 0.56593 -0.0418479 0.82339
-1.38966 -0.742327 4.25511 0.56593 -0.0418479 0.82339
-1.15423 -1.49795 4.05362 0.56593 -0.0418479 0.82339
-1.5357 -1.1026 4.33694 0.56593 -0.0418479 0.82339
-1.19905 -0.861117 4.11764 0.56593 -0.0418479 0.82339
-1.74475 -0.710044 4.50136 0.56593 -0.0418479 0.82339
-1.11217 -1.10205 4.04526 0.56593 -0.0418479 0.82339
-1.7908 -0.68897 4.53417 0.56593 -0.0418479 0.82339
-1.07875 -1.17732 4.01833 0.56593 -0.0418479 0.82339
-1.31009 -1.20876 4.17602 0.56593 -0.0418479 0.82339
-1.14567 -1.48527 4.04838 0.56593 -0.0418479 0.82339
-1.14086 -0.727613 4.08451 0.56593 -0.0418479 0.82339
-1.76943 -0.779002 4.51476 0.56593 -0.0418479 0.82339
-1.37323 -1.12576 4.22383 0.56593 -0.0418479 0.82339
-1.19179 -0.89542 4.11085 0.56593 -0.0418479 0.82339
-1.16041 -0.685964 4.10014 0.56593 -0.0418479 0.82339
-1.23067 -1.50316 4.106 0.56593 -0.0418479 0.82339
-1.44929 -1.19853 4.27243 0.56593 -0.0418479 0.82339
-1.7232 -0.71974 4.48601 0.56593 -0.0418479 0.82339
-1.2979 -0.798815 4.18897 0.56593 -0.0418479 0.82339
-1.30683 -1.14739 4.17697 0.56593 -0.0418479 0.82339
-1.11734 -0.800056 4.06454 0.56593 -0.0418479 0.82339
-1.46716 -0.96727 4.29678 0.56593 -0.0418479 0.82339
-1.11885 -0.909835 4.05986 0.56593 -0.0418479 0.82339
-1.17258 -1.00638 4.09185 0.56593 -0.0418479 0.82339
-1.68013 -0.929133 4.44544 0.56593 -0.0418479 0.82339
-1.53772 -1.05397 4.34086 0.56593 -0.0418479 0.82339
-1.16758 -1.18326 4.07919 0.56593 -0.0418479 0.82339
-1.21587 -1.24621 4.10918 0.56593 -0.0418479 0.82339
-1.36126 -0.789649 4.23308 0.56593 -0.0418479 0.82339
-1.64396 -0.978772 4.41795 0.56593 -0.0418479 0.82339
-1.58117 -0.740264 4.38712 0.56593 -0.0418479 0.82339
-1.40789 -0.687191 4.27053 0.56593 -0.0418479 0.82339
-1.75736 -0.842191 4.50316 0.56593 -0.0418479 0.82339
-1.75662 -0.735978 4.50818 0.56593 -0.0418479 0.82339
-1.09844 -1.20098 4.03065 0.56593 -0.0418479 0.82339
-1.60459 -0.840382 4.39803 0.56593 -0.0418479 0.82339
-1.12173 -1.61659 4.02506 0.56593 -0.0418479 0.82339
-1.09443 -0.868076 4.04522 0.56593 -0.0418479 0.82339
-1.74584 -0.738297 4.50064 0.56593 -0.0418479 0.82339
-1.79574 -0.727043 4.53559 0.56593 -0.0418479 0.82339
-1.51071 -1.11747 4.31896 0.56593 -0.0418479 0.82339
-1.12607 -1.18652 4.05043 0.56593 -0.0418479 0.82339
-1.44288 -1.23944 4.26588 0.56593 -0.0418479 0.82339
-1.46118 -0.947857 4.29367 0.56593 -0.0418479 0.82339
-1.68673 -0.760806 4.45875 0.56593 -0.0418479 0.82339
-1.48804 -1.08522 4.30502 0.56593 -0.0418479 0.82339
-1.07441 -0.969665 4.02614 0.56593 -0.0418479 0.82339
-1.66946 -0.758987 4.44695 0.56593 -0.0418479 0.82339
-1.23084 -1.16734 4.12359 0.56593 -0.0418479 0.82339
-1.27959 -0.946204 4.16868 0.56593 -0.0418479 0.82339
-1.36054 -0.978694 4.22275 0.56593 -0.0418479 0.82339
-1.13845 -1.61433 4.0367 0.56593 -0.0418479 0.82339
-1.24425 -1.25832 4.1281 0.56593 -0.0418479 0.82339
-1.55049 -0.782695 4.36378 0.56593 -0.0418479 0.82339
-1.15712 -1.45914 4.05763 0.56593 -0.0418479 0.82339
-1.23954 -1.49303 4.11263 0.56593 -0.0418479 0.82339
-1.34351 -1.06314 4.20662 0.56593 -0.0418479 0.82339
-1.28134 -0.888817 4.17288 0.56593 -0.0418479 0.82339
-1.09358 -0.719061 4.05239 0.56593 -0.0418479 0.82339
-1.63031 -0.947249 4.41019 0.56593 -0.0418479 0.82339
-1.19374 -0.750406 4.11974 0.56593 -0.0418479 0.82339
-1.19666 -0.699481 4.1244 0.56593 -0.0418479 0.82339
-1.57473 -0.910162 4.37384 0.56593 -0.0418479 0.82339
-1.75001 -1.52233 3.24734 -0.567492 0.0438024 -0.822213
-1.90715 -1.32414 3.36589 -0.567492 0.0438024 -0.822213
-1.83707 -1.41121 3.31309 -0.567492 0.0438024 -0.822213
-1.74395 -1.53605 3.24245 -0.567492 0.0438024 -0.822213
-1.83683 -1.42152 3.31239 -0.567492 0.0438024 -0.822213
-1.77013 -1.50534 3.26208 -0.567492 0.0438024 -0.822213
-1.81711 -1.42559 3.29859 -0.567492 0.0438024 -0.822213
-1.68056 -1.60883 3.19501 -0.567492 0.0438024 -0.822213
-1.89961 -1.35921 3.35887 -0.567492 0.0438024 -0.822213
-1.88078 -1.37668 3.34499 -0.567492 0.0438024 -0.822213
-1.75857 -1.51997 3.25336 -0.567492 0.0438024 -0.822213
-1.75617 -1.50287 3.2526 -0.567492 0.0438024 -0.822213
-1.79557 -1.45118 3.28243 -0.567492 0.0438024 -0.822213
-1.88438 -1.32494 3.35016 -0.567492 0.0438024 -0.822213
-1.87398 -1.39525 3.33934 -0.567492 0.0438024 -0.822213
-1.79272 -1.48704 3.2786 -0.567492 0.0438024 -0.822213
-1.80529 -1.4245 3.29051 -0.567492 0.0438024 -0.822213
-1.87184 -1.32693 3.34142 -0.567492 0.0438024 -0.822213
-1.72295 -1.57084 3.22618 -0.567492 0.0438024 -0.822213
-1.78323 -1.4478 3.2741 -0.567492 0.0438024 -0.822213
-1.82838 -1.3787 3.30879 -0.567492 0.0438024 -0.822213
-1.89698 -1.39133 3.35539 -0.567492 0.0438024 -0.822213
-1.7771 -1.51663 3.2663 -0.567492 0.0438024 -0.822213
-1.81741 -1.38986 3.30066 -0.567492 0.0438024 -0.822213
-1.85652 -1.3194 3.33126 -0.567492 0.0438024 -0.822213
-1.88633 -1.41674 3.34673 -0.567492 0.0438024 -0.822213
-1.90072 -1.40306 3.35735 -0.567492 0.0438024 -0.822213
-1.9487 -1.35222 3.39305 -0.567492 0.0438024 -0.822213
-1.83211 -1.34759 3.31299 -0.567492 0.0438024 -0.822213
-1.74793 -1.48679 3.24776 -0.567492 0.0438024 -0.822213
-1.81905 -1.3751 3.30256 -0.567492 0.0438024 -0.822213
-1.84277 -1.46353 3.31429 -0.567492 0.0438024 -0.822213
-1.81916 -1.48757 3.29678 -0.567492 0.0438024 -0.822213
-1.90004 -1.41734 3.35614 -0.567492 0.0438024 -0.822213
-1.77692 -1.43167 3.2706 -0.567492 0.0438024 -0.822213
-1.79774 -1.40193 3.28648 -0.567492 0.0438024 -0.822213
-1.75102 -1.55729 3.24622 -0.567492 0.0438024 -0.822213
-1.78054 -1.52929 3.26801 -0.567492 0.0438024 -0.822213
-1.92803 -1.39392 3.37664 -0.567492 0.0438024 -0.822213
-1.76476 -1.44767 3.26139 -0.567492 0.0438024 -0.822213
-1.86475 -1.26905 3.33956 -0.567492 0.0438024 -0.822213
-1.66607 -1.62343 3.18427 -0.567492 0.0438024 -0.822213
-1.81296 -1.50518 3.29159 -0.567492 0.0438024 -0.822213
-1.97494 -1.37049 3.41017 -0.567492 0.0438024 -0.822213
-1.79381 -1.52257 3.2775 -0.567492 0.0438024 -0.822213
-1.78118 -1.40787 3.27477 -0.567492 0.0438024 -0.822213
-1.80696 -1.36029 3.295 -0.567492 0.0438024 -0.822213
-1.83335 -1.31537 3.31552 -0.567492 0.0438024 -0.822213
-1.88139 -1.45379 3.3414 -0.567492 0.0438024 -0.822213
-1.86495 -1.46944 3.32926 -0.567492 0.0438024 -0.822213
-1.86241 -1.2361 3.33966 -0.567492 0.0438024 -0.822213
-1.85668 -1.24551 3.33522 -0.567492 0.0438024 -0.822213
-1.7706 -1.54899 3.26014 -0.567492 0.0438024 -0.822213
-1.83087 -1.50348 3.30401 -0.567492 0.0438024 -0.822213
-1.8505 -1.48812 3.31834 -0.567492 0.0438024 -0.822213
-1.82638 -1.29278 3.31189 -0.567492 0.0438024 -0.822213
-1.84833 -1.26165 3.32863 -0.567492 0.0438024 -0.822213
-1.79817 -1.36018 3.28896 -0.567492 0.0438024 -0.822213
-1.95199 -1.41553 3.39202 -0.567492 0.0438024 -0.822213
-1.91881 -1.44017 3.36788 -0.567492 0.0438024 -0.822213
