ply
format ascii 1.0
element vertex 865
property float x
property float y
property float z
property float nx
property float ny
property float nz
end_header
-35.707 -143.822 -628.115 0.476179 -0.73175 -0.487642
-35.0464 -144.47 -626.326 0.631488 -0.651518 -0.420412
-38.8272 -144.866 -627.063 -0.220642 -0.874436 -0.432064
-38.6166 -145.56 -625.933 -0.241693 -0.865853 -0.438045
-35.0191 -145.108 -625.176 0.60971 -0.658241 -0.441558
-36.0109 -146.295 -624.419 0.34141 -0.768943 -0.540524
-38.5024 -146.835 -623.264 -0.45088 -0.826789 -0.336345
-35.1736 -146.603 -623.432 0.482434 -0.705037 -0.519788
-34.6743 -147.133 -622.163 0.637 -0.624766 -0.451551
-34.8748 -148.168 -620.855 0.512021 -0.693266 -0.507166
-38.3176 -148.501 -620.819 -0.348507 -0.621951 -0.701227
-37.5215 -148.476 -621.259 -0.228312 -0.722687 -0.652378
-37.9471 -149.502 -620.237 -0.224392 -0.597141 -0.770111
-39.1108 -149.057 -619.98 -0.343529 -0.542499 -0.766604
-39.3731 -150.164 -619.264 -0.342689 -0.281329 -0.896336
-39.7247 -149.908 -619.067 -0.508041 -0.0361501 -0.860574
-34.5828 -149.391 -619.031 0.631714 -0.621857 -0.462852
-35.0224 -150.573 -617.695 0.649912 -0.706455 -0.280243
-41.9615 -152.176 -616.616 -0.833975 0.530872 0.150535
-42.9524 -153.186 -616.143 -0.675138 0.734308 0.0705728
-42.6245 -152.948 -615.486 -0.703409 0.710688 0.0117479
-37.0755 -153.007 -615.088 0.609132 -0.793039 0.00689779
-43.6837 -153.865 -615.752 -0.675133 0.736949 0.0331994
-36.9518 -152.825 -614.007 0.654083 -0.751 0.0904123
-43.445 -153.635 -614.596 -0.731204 0.680598 0.0461188
-38.3183 -153.934 -613.488 0.532956 -0.84195 -0.0841253
-44.5909 -154.777 -614.537 -0.610873 0.791372 -0.0237595
-45.0591 -154.834 -613.705 -0.616498 0.667205 0.418051
-44.1495 -154.563 -613.825 -0.553109 0.708432 0.4384
-39.2889 -154.515 -612.959 0.545694 -0.836508 -0.049726
-44.2112 -155.343 -613.401 -0.505806 -0.00912391 0.862599
-43.6641 -155.462 -612.695 -0.272854 -0.124109 0.954017
-43.1339 -155.439 -612.852 -0.192296 -0.872457 0.449267
-40.1881 -155.169 -612.397 0.475611 -0.878022 0.0535827
-43.8059 -155.612 -612.24 -0.53417 -0.722434 -0.439035
-42.7153 -155.651 -612.399 -0.0361919 -0.982293 -0.183822
-41.8489 -155.684 -611.895 0.213331 -0.97602 -0.0433013
-76.0547 -103.613 -700.498 0.231109 -0.441944 -0.86676
-71.3119 -104.229 -698.375 0.397606 -0.319269 -0.860219
-70.6687 -104.101 -698.16 0.264318 -0.523267 -0.81014
-68.7628 -103.945 -697.918 0.237273 -0.550049 -0.800717
-67.656 -103.59 -697.687 0.302959 -0.474104 -0.826705
-65.7897 -103.959 -696.8 0.373588 -0.468341 -0.80068
-85.0336 -105.761 -699.885 -0.090939 -0.443995 -0.891402
-64.9147 -105.596 -695.28 0.420629 -0.501365 -0.756111
-87.9604 -107.495 -698.701 -0.17866 -0.440688 -0.879702
-63.6995 -105.065 -694.992 0.481717 -0.495394 -0.722865
-89.2619 -108.446 -697.825 -0.189435 -0.347718 -0.918263
-62.6292 -104.833 -694.246 0.481801 -0.556903 -0.676555
-90.5367 -109.017 -697.477 -0.198715 -0.240815 -0.950011
-62.0963 -105.632 -693.107 0.524135 -0.578721 -0.624792
-93.0315 -109.813 -696.568 -0.393712 -0.112752 -0.912293
-61.6836 -106.398 -691.992 0.533389 -0.586629 -0.609396
-94.5115 -111.342 -695.497 -0.449243 -0.183654 -0.874329
-60.8939 -107.63 -690.191 0.55005 -0.606063 -0.574571
-60.3275 -105.963 -691.626 0.534453 -0.61395 -0.580883
-133.922 -116.677 -700.388 0.57408 0.593585 -0.563994
-133.222 -116.907 -699.916 0.147079 0.822927 -0.548779
-132.163 -116.195 -699.619 0.298356 0.122379 -0.946576
-96.2454 -112.234 -694.606 -0.405645 -0.10058 -0.90848
-137.186 -117.57 -699.931 -0.319363 0.737012 -0.595669
-135.053 -117.03 -700.049 -0.123157 0.927978 -0.351695
-134.107 -116.836 -699.853 0.00859824 0.986249 -0.165043
-132.579 -116.816 -699.742 0.111256 0.695304 -0.710052
-131.963 -116.867 -699.643 0.314584 0.346818 -0.883603
-130.154 -116.839 -698.903 0.225919 0.584095 -0.779611
-127.308 -116.547 -698.398 0.198977 0.497025 -0.844615
-125.899 -116.241 -697.945 0.184898 0.575784 -0.79642
-139.878 -118.202 -699.422 -0.39834 0.663224 -0.633608
-124.532 -116.431 -697.701 0.292262 0.288711 -0.911718
-123.282 -116.72 -697.411 0.229471 0.33289 -0.914619
-118.876 -115.764 -696.546 -0.0318671 0.587043 -0.808928
-117.677 -116.335 -696.928 -0.057013 0.603335 -0.795447
-114.349 -115.305 -696.387 0.0539516 0.655078 -0.753633
-109.665 -114.289 -695.277 0.105456 0.686712 -0.71924
-108.17 -115.387 -695.52 0.255259 0.551068 -0.79446
-141.02 -118.836 -699.479 -0.192565 0.788058 -0.584708
-140.643 -118.487 -699.03 -0.429753 0.648163 -0.628647
-107.399 -114.004 -694.356 0.278879 0.67535 -0.682736
-60.3893 -109.469 -687.642 0.572488 -0.6299 -0.524865
-142.763 -119.558 -698.603 -0.612628 0.704848 -0.357598
-102.12 -114.166 -691.516 0.0823769 0.657674 -0.748785
-59.4306 -110.744 -684.119 0.589259 -0.734166 -0.337303
-145.171 -121.128 -696.782 -0.749597 0.61804 -0.236919
-61.4462 -113.421 -681.67 0.550514 -0.811765 -0.194864
-62.5278 -114.029 -681.141 0.475561 -0.869912 -0.130747
-63.6385 -114.838 -680.907 0.443642 -0.887458 -0.124899
-151.08 -126.608 -690.687 -0.822291 0.5553 -0.124418
-66.2248 -116.61 -678.797 0.450994 -0.879692 -0.150818
-66.8915 -116.837 -678.619 0.428005 -0.885316 -0.181735
-66.7572 -117.106 -676.988 0.487045 -0.87191 -0.0505931
-151.699 -127.374 -689.844 -0.764052 0.588787 -0.26373
-68.1586 -118.007 -677.8 0.454504 -0.889421 -0.0485488
-152.967 -129.107 -689.565 -0.856339 0.47401 -0.204935
-132.742 -126.467 -686.361 -0.0319143 -0.434038 0.900329
-134.685 -126.341 -686.282 0.114291 -0.254274 0.960355
-129.268 -125.997 -685.618 -0.218047 -0.583751 0.782107
-69.6863 -118.488 -676.273 0.374253 -0.927122 0.0194719
-127.225 -125.931 -684.747 -0.358188 -0.594292 0.720082
-71.0912 -119.188 -675.613 0.557306 -0.820761 0.125544
-153.335 -129.215 -687.402 -0.658561 0.698007 -0.28122
-139.774 -128.24 -685.722 0.265142 -0.01967 0.964009
-123.617 -126.338 -683.394 -0.33144 -0.630678 0.701707
-155.188 -129.697 -687.02 0.377596 0.920828 -0.0974475
-121.282 -126.492 -682.279 -0.337168 -0.656576 0.674704
-142.477 -129.668 -684.531 0.434825 0.0586153 0.898605
-120.003 -126.268 -681.797 -0.349585 -0.606924 0.713746
-74.6523 -121.012 -674.967 0.431161 -0.88403 0.180534
-118.822 -126.59 -681.22 -0.339924 -0.622133 0.705267
-115.719 -125.188 -678.895 -0.346355 -0.53775 0.768676
-144.46 -130.726 -683.057 0.652809 0.302396 0.694548
-79.6303 -122.376 -673.897 0.262374 -0.910123 0.320681
-110.889 -126.932 -677.88 -0.246665 -0.696323 0.674011
-109.923 -126.757 -677.358 -0.313571 -0.574773 0.75585
-155.454 -132.257 -684.287 -0.966794 -0.254864 -0.0188263
-105.779 -127.453 -676.013 -0.375074 -0.68169 0.628187
-155.399 -132.215 -682.193 -0.990229 -0.136917 -0.0264761
-89.782 -126.014 -673.863 0.277064 -0.792338 0.54354
-101.844 -126.861 -674.083 -0.099802 -0.699966 0.707169
-97.8441 -127.532 -673.817 -0.221226 -0.7392 0.636115
-146.028 -134.416 -678.128 0.984629 0.110017 0.135656
-146.126 -134.316 -677.354 0.978905 0.14053 0.14831
-146.696 -135.453 -676.126 0.983644 -0.0127634 0.17967
-146.831 -135.853 -675.416 0.95101 -0.240325 0.194482
-147.405 -137.17 -674.571 0.930417 -0.315404 0.186668
-148.442 -138.758 -673.14 0.812054 -0.548595 0.199027
-150.476 -139.997 -670.39 0.496742 -0.786657 0.36663
-156.129 -141.029 -671.467 -0.591047 0.215002 0.777456
-154.724 -141.105 -670.285 -0.229019 -0.888188 0.398338
-38.7466 -141.365 -632.378 0.0865393 -0.782055 -0.617171
-37.5454 -142.279 -630.923 0.241298 -0.732901 -0.636106
-36.3823 -141.879 -630.662 0.501652 -0.59173 -0.631031
-38.5225 -142.371 -631.031 0.056616 -0.806497 -0.588521
-37.3701 -143.434 -629.514 0.133108 -0.804561 -0.57876
-35.6719 -143.143 -628.988 0.62139 -0.567607 -0.540089
-38.421 -143.604 -629.398 -0.034052 -0.824184 -0.565298
-36.2301 -143.238 -629.397 0.382227 -0.702537 -0.600286
-37.8885 -144.721 -627.555 0.0574901 -0.858972 -0.508784
-36.7805 -144.71 -627.174 0.215237 -0.819386 -0.5313
-37.6487 -145.376 -626.469 0.0335929 -0.870532 -0.490964
-35.7961 -145.374 -625.635 0.395814 -0.775831 -0.491343
-37.0414 -145.672 -625.824 0.1361 -0.842423 -0.521344
-36.652 -146.71 -624.137 0.130666 -0.850065 -0.510212
-36.1045 -147.127 -623.185 0.199846 -0.82774 -0.524317
-36.8365 -148.525 -621.288 0.0540341 -0.773821 -0.631095
-37.1259 -149.671 -620.183 0.0337783 -0.656236 -0.753799
-35.8395 -148.605 -620.89 0.297482 -0.743946 -0.598372
-35.5645 -150.453 -618.796 0.505019 -0.698562 -0.50692
-38.568 -150.554 -619.341 -0.21305 -0.470951 -0.856046
-40.0522 -151.072 -618.824 -0.219288 -0.395592 -0.891863
-40.7943 -151.744 -618.257 -0.187837 -0.412025 -0.891601
-36.0644 -151.864 -616.041 0.65814 -0.732069 -0.175859
-36.9858 -152.87 -615.666 0.657656 -0.737009 -0.155905
-37.9634 -153.423 -614.529 0.527115 -0.849696 0.0129201
-43.8055 -154.1 -614.446 -0.713298 0.692634 0.107067
-38.5958 -153.824 -614.499 0.574767 -0.816679 0.0517574
-44.5156 -154.638 -615.094 -0.650853 0.75413 0.0876196
-45.588 -155.755 -613.751 -0.5063 -0.0695051 0.859552
-39.3331 -154.402 -613.473 0.496466 -0.851647 -0.167986
-40.6187 -155.277 -613.264 0.469023 -0.881977 0.0462066
-45.098 -155.661 -613.635 -0.16918 -0.249905 0.953376
-42.8871 -155.585 -612.994 -0.0921507 -0.865239 0.492818
-77.474 -104.004 -700.774 0.168966 -0.452748 -0.875482
-73.2322 -103.704 -699.829 0.36372 -0.46141 -0.809203
-80.3557 -104.833 -700.509 -0.0276155 -0.521425 -0.85285
-79.0201 -105.66 -699.965 0.0466326 -0.559705 -0.827379
-74.8456 -104.48 -699.715 0.262632 -0.492676 -0.829635
-81.2786 -105.937 -699.642 0.0185768 -0.503341 -0.863888
-75.7289 -105.182 -699.728 0.266717 -0.510124 -0.817701
-83.791 -106.203 -699.78 -0.00907038 -0.464932 -0.8853
-79.8109 -106.432 -699.362 0.0295005 -0.573463 -0.8187
-73.2572 -104.849 -699.017 0.277585 -0.583409 -0.763269
-71.892 -104.852 -698.443 0.392122 -0.483747 -0.782451
-81.5347 -106.687 -699.307 0.0581878 -0.503651 -0.861945
-69.7152 -105.132 -697.165 0.247924 -0.538179 -0.805541
-70.7337 -105.765 -697.263 0.322014 -0.549323 -0.771071
-67.3348 -104.82 -696.924 0.262844 -0.520274 -0.812544
-87.0955 -106.804 -699.094 -0.0886015 -0.442688 -0.892288
-66.329 -105.659 -695.956 0.332539 -0.523799 -0.784253
-85.7002 -108.969 -698.037 0.00390958 -0.534956 -0.844871
-85.2318 -108.251 -698.383 0.0147367 -0.509129 -0.860564
-88.8607 -109.753 -697.461 -0.0675132 -0.391906 -0.917525
-91.3627 -109.829 -697.061 -0.243051 -0.199525 -0.949271
-91.4329 -110.651 -696.868 -0.18306 -0.321782 -0.928949
-62.3716 -107.76 -691.644 0.590419 -0.564877 -0.576471
-93.5971 -112.006 -695.768 -0.330926 -0.31414 -0.889834
-95.0067 -111.761 -695.118 -0.372402 -0.216413 -0.902487
-61.5783 -108.815 -689.758 0.555099 -0.635007 -0.537244
-136.433 -117.657 -700.593 -0.328201 0.802859 -0.497695
-135.905 -117.489 -700.815 -0.32072 0.565131 -0.760109
-135.597 -117.177 -700.182 -0.403716 0.882967 -0.239545
-134.119 -117.25 -700.447 0.307744 0.124677 -0.943265
-137.353 -118.058 -700.607 -0.459206 0.770777 -0.441624
-136.252 -117.486 -699.947 -0.320212 0.882997 -0.343192
-131.36 -117.294 -699.623 0.288217 0.100546 -0.952272
-138.817 -118.708 -700.801 -0.219617 0.601149 -0.768367
-138.006 -117.931 -699.6 -0.294362 0.745064 -0.598524
-129.891 -117.226 -699.257 0.210306 0.247208 -0.945865
-128.26 -116.967 -698.919 0.203351 0.256648 -0.94487
-127.041 -117.098 -698.537 0.257451 0.0441027 -0.965284
-125.757 -116.963 -698.211 0.289336 0.145547 -0.946098
-97.0424 -113.272 -694.109 -0.40001 -0.115801 -0.909166
-140.399 -119.059 -699.924 -0.314506 0.811747 -0.492091
-124.893 -117.203 -697.691 0.328875 0.0609277 -0.942406
-116.517 -115.683 -696.619 -0.0621543 0.66132 -0.747524
-111.208 -115.281 -696.069 0.216747 0.586048 -0.780748
-97.692 -113.624 -693.786 -0.47823 -0.054665 -0.876532
-122.603 -117.119 -697.323 0.102448 0.492225 -0.864418
-98.4514 -114.177 -693.263 -0.497893 0.0125143 -0.867148
-60.7659 -110.545 -686.832 0.511496 -0.702597 -0.494702
-103.257 -116.026 -693.29 0.377429 0.573274 -0.727258
-102.89 -114.894 -692.466 0.237102 0.608264 -0.757494
-99.9482 -114.795 -692.505 -0.490475 0.183785 -0.851855
-102.208 -115.378 -692.542 0.190952 0.612374 -0.767161
-61.2025 -111.462 -685.662 0.451607 -0.767075 -0.455683
-60.6241 -111.853 -684.379 0.589503 -0.733652 -0.337995
-60.997 -112.789 -682.702 0.591596 -0.761809 -0.263934
-62.5844 -113.903 -682.34 0.519117 -0.825933 -0.219891
-147.825 -124.418 -694.727 -0.786818 0.566001 -0.246089
-147.631 -123.835 -693.692 -0.751206 0.647415 -0.12862
-64.8742 -115.272 -680.591 0.475404 -0.87078 -0.125431
-65.7076 -115.913 -681.093 0.58361 -0.803953 -0.114275
-67.3979 -117.22 -678.621 0.657319 -0.745712 -0.108834
-135.705 -126.784 -686.32 0.146867 -0.254898 0.955749
-153.723 -130.226 -688.514 -0.714342 0.609953 -0.343034
-137.234 -127.47 -686.111 0.226348 -0.154888 0.961653
-154.009 -130.093 -687.924 -0.387648 0.792863 -0.470211
-122.31 -126.492 -683.203 -0.364919 -0.653842 0.662816
-71.7989 -119.958 -676.964 0.512373 -0.857483 0.0468733
-154.976 -130.367 -687.913 -0.167134 0.779205 -0.604075
-117.653 -126.558 -680.875 -0.340851 -0.626068 0.701327
-76.8784 -122.005 -675.372 0.343273 -0.929816 0.132687
-144.018 -130.465 -683.523 0.593075 0.24224 0.767842
-111.693 -127.383 -678.58 -0.226579 -0.730293 0.644464
-82.405 -123.638 -673.771 0.297602 -0.87354 0.385176
-84.496 -124.189 -673.933 0.1889 -0.881958 0.431819
-83.4095 -124.021 -674.401 0.257751 -0.894336 0.365688
-109.171 -127.442 -677.673 -0.262896 -0.817879 0.511821
-108.26 -127.371 -677.061 -0.206972 -0.803016 0.558863
-85.677 -124.364 -673.976 0.296273 -0.823956 0.483031
-145.084 -131.04 -682.164 0.759764 0.330898 0.5597
-88.904 -125.239 -673.638 0.218872 -0.770482 0.598709
-105.183 -126.925 -675.213 -0.380295 -0.630712 0.676445
-92.0649 -126.443 -673.514 0.185034 -0.810608 0.555588
-99.9655 -128.259 -674.875 -0.0760649 -0.670307 0.738175
-99.405 -127.281 -674.075 -0.122009 -0.667291 0.734736
-94.6407 -127.17 -673.828 0.312771 -0.743866 0.590625
-92.9767 -126.731 -674.032 0.140209 -0.821777 0.55229
-96.9561 -127.218 -672.983 -0.0629285 -0.722629 0.688366
-95.8159 -127.155 -673.148 0.235402 -0.709748 0.66396
-145.887 -134.146 -679.133 0.952696 0.0823291 0.292563
-154.496 -135.552 -679.922 -0.956906 -0.281614 0.0708872
-146.589 -136.04 -676.749 0.948613 -0.256997 0.184626
-146.899 -136.325 -675.767 0.935479 -0.290224 0.201613
-147.956 -138.018 -673.439 0.887487 -0.427351 0.172445
-155.959 -141.298 -671.999 -0.0715664 0.973955 -0.21515
-156.45 -141.198 -671.869 -0.343891 0.87406 0.343158
-156.97 -141.748 -671.66 -0.145519 -0.647597 0.747958
-156.27 -141.626 -671.541 -0.299685 -0.335649 0.893045
-155.561 -141.229 -671.167 -0.42039 -0.625088 0.657675
-152.934 -141.101 -670.573 0.300073 -0.798086 0.522508
-151.873 -140.622 -670.59 0.322486 -0.784902 0.529085
-36.543 -150.206 -619.622 0.248471 -0.669333 -0.700182
-38.322 -151.292 -618.965 -0.00125283 -0.570964 -0.820974
-39.3909 -152.147 -618.397 -0.0468751 -0.524753 -0.849963
-36.971 -151.234 -618.777 0.286977 -0.719 -0.632995
-40.9285 -152.783 -617.802 -0.104292 -0.443454 -0.890209
-38.3939 -153.871 -615.475 0.581978 -0.812841 0.0242929
-40.5957 -155.514 -614.478 0.570321 -0.81956 0.0552789
-43.6598 -156.135 -613.486 -0.231868 -0.667648 0.707448
-42.6892 -156.164 -613.432 0.0934923 -0.735739 0.670781
-41.564 -155.689 -613.13 0.301363 -0.915198 0.267569
-77.116 -105.735 -699.599 0.169586 -0.550945 -0.817129
-75.7657 -106.362 -698.754 0.265815 -0.633964 -0.726245
-72.3072 -105.666 -697.989 0.2581 -0.652036 -0.712905
-73.2886 -105.989 -697.943 0.311168 -0.636689 -0.705551
-72.4556 -106.595 -697.055 0.271755 -0.623998 -0.73265
-83.1079 -106.879 -699.332 0.0508805 -0.538155 -0.841309
-81.2696 -107.976 -698.294 0.0984463 -0.604001 -0.79088
-72.9502 -107.394 -696.654 0.25198 -0.568295 -0.783292
-70.1636 -106.436 -696.558 0.239176 -0.541561 -0.80592
-67.5254 -105.967 -696.167 0.213101 -0.566864 -0.795772
-68.3111 -106.482 -695.955 0.221427 -0.529992 -0.818583
-87.2102 -109.188 -697.739 -0.0452589 -0.493024 -0.868838
-87.5391 -109.935 -697.391 0.0260506 -0.4486 -0.893353
-63.1405 -106.083 -693.862 0.537576 -0.511686 -0.670216
-90.1942 -110.053 -697.171 -0.0954929 -0.343357 -0.934338
-63.9164 -107.128 -693.51 0.498049 -0.535943 -0.681698
-63.4383 -108.026 -692.376 0.558057 -0.571666 -0.601474
-62.8041 -107.081 -692.748 0.580485 -0.535956 -0.613016
-92.9138 -111.53 -696.107 -0.264389 -0.325627 -0.90778
-62.8313 -109.027 -690.633 0.568459 -0.62998 -0.529131
-135.897 -117.261 -701.061 0.0735679 -0.970671 -0.228881
-135.857 -117.175 -701.413 -0.113551 -0.962081 -0.248005
-135.97 -117.079 -701.353 -0.69892 -0.672433 -0.243608
-135.499 -117.022 -701.286 0.436779 -0.884024 -0.166512
-136.82 -118.169 -700.952 0.0351306 0.302298 -0.952566
-135.405 -117.335 -700.795 0.022917 0.384979 -0.922641
-134.366 -117.939 -700.589 0.244949 -0.114766 -0.962719
-132.565 -117.278 -700.068 0.270321 0.257103 -0.927806
-137.769 -118.63 -700.733 -0.298268 0.38857 -0.871808
-132.211 -118.013 -699.875 0.286428 0.084953 -0.954328
-95.5619 -113.037 -694.748 -0.267582 -0.201847 -0.942156
-139.454 -118.82 -700.523 -0.326182 0.729826 -0.600799
-130.674 -117.854 -699.333 0.325324 -0.0375516 -0.944857
-129.656 -117.825 -699.035 0.182625 -0.0709072 -0.980622
-141.307 -119.315 -700.227 -0.190035 0.870371 -0.454249
-128.302 -117.695 -698.816 0.300646 0.0351679 -0.953087
-127.444 -117.953 -698.35 0.251778 0.196605 -0.947605
-126.555 -117.626 -698.329 0.124013 0.0822931 -0.988862
-121.599 -116.574 -697.103 0.03918 0.506855 -0.86114
-120.117 -116.872 -697.154 0.00870513 0.58708 -0.809482
-118.907 -116.54 -697.08 -0.0662669 0.603507 -0.794599
-113.259 -115.194 -695.985 0.0526544 0.64131 -0.765473
-97.0824 -114.278 -693.94 -0.280656 -0.190733 -0.940666
-125.382 -117.873 -698.099 0.294172 0.431906 -0.852596
-61.2936 -109.586 -688.457 0.479365 -0.698264 -0.531636
-104.872 -114.94 -693.821 0.431607 0.577469 -0.692997
-62.6377 -110.156 -688.887 0.586207 -0.651763 -0.481213
-142.685 -119.86 -699.404 -0.673913 0.660929 -0.330173
-99.8879 -115.614 -692.73 -0.226183 0.209182 -0.951359
-143.576 -120.705 -699.343 -0.681392 0.623229 -0.383784
-101.04 -115.853 -692.761 0.0810442 0.496174 -0.864433
-61.8801 -111.625 -686.025 0.53102 -0.701428 -0.475412
-62.8969 -112.144 -686.741 0.567337 -0.6766 -0.469404
-61.7393 -112.326 -684.825 0.530224 -0.752788 -0.390094
-147.577 -124.958 -696.37 -0.810214 0.4758 -0.342299
-63.6235 -114.562 -682.326 0.43099 -0.877683 -0.209572
-149.946 -126.287 -693.345 -0.752304 0.58953 -0.294097
-67.0586 -116.493 -680.374 0.494227 -0.854692 -0.158877
-66.0308 -115.944 -682.129 0.393632 -0.90548 -0.158616
-67.8507 -117.609 -679.231 0.681716 -0.722034 -0.118027
-69.2453 -118.223 -677.852 0.368244 -0.928708 -0.0435695
-69.8663 -118.593 -679.589 0.460815 -0.885839 -0.0542111
-131.396 -126.316 -686.376 -0.0142681 -0.440663 0.897559
-135.604 -127.615 -686.634 0.236184 -0.355556 0.904321
-133.643 -126.553 -686.517 0.0282709 -0.382989 0.92332
-70.8742 -119.085 -677.402 0.576144 -0.817251 0.0125945
-72.2043 -120.142 -677.859 0.271848 -0.962204 -0.0162064
-125.661 -126.405 -684.603 -0.0892625 -0.573356 0.814429
-124.671 -126.702 -684.674 -0.298398 -0.66641 0.683269
-72.9479 -120.272 -676.96 0.323106 -0.945643 -0.0368883
-73.2489 -120.462 -675.556 0.400878 -0.913025 0.0753795
-75.6901 -121.668 -675.464 0.371028 -0.918271 0.138265
-78.1071 -122.353 -674.654 0.224055 -0.950639 0.214675
-116.377 -126.797 -680.138 -0.316192 -0.630014 0.709299
-155.244 -132.576 -685.167 -0.951977 -0.305267 -0.0234723
-112.496 -127.617 -679.232 -0.241967 -0.744627 0.62208
-84.1832 -124.75 -675.205 0.229796 -0.918474 0.321868
-106.696 -127.555 -676.921 -0.312392 -0.752479 0.579816
-86.3728 -125.454 -674.926 0.416396 -0.815179 0.402613
-88.1218 -125.05 -673.264 0.00391409 -0.831221 0.555929
-154.935 -133.572 -683.292 -0.956927 -0.290224 -0.00778218
-90.8395 -126.19 -674.022 0.229899 -0.831185 0.50624
-103.606 -128.332 -675.807 -0.31083 -0.727916 0.611165
-102.771 -127.26 -674.383 -0.139116 -0.672445 0.726956
-95.9886 -127.9 -673.941 0.184914 -0.814991 0.549179
-154.477 -135.578 -681.286 -0.975868 -0.218139 -0.00987561
-145.544 -133.427 -680.153 0.876144 0.177529 0.448168
-154.588 -135.516 -680.544 -0.977955 -0.206514 -0.030926
-146.459 -135.463 -677.56 0.983711 0.0279191 0.177575
-146.398 -136.039 -677.809 0.954178 -0.175667 0.24225
-155.839 -141.378 -672.731 -0.581876 0.780342 -0.229103
-155.71 -141.074 -672.249 -0.734696 0.644871 -0.210627
-155.571 -141.195 -672.932 -0.669563 0.69573 -0.260088
-150.534 -140.53 -672.191 0.701556 -0.617048 0.35647
-157.32 -142.001 -672.278 -0.196788 -0.35491 0.913955
-156.292 -141.987 -671.963 -0.0997432 -0.586788 0.803574
-154.524 -141.883 -671.598 -0.170761 -0.663595 0.728342
-153.13 -141.742 -671.322 0.162136 -0.680153 0.714915
-151.849 -141.278 -671.611 0.379704 -0.509092 0.772431
-38.2627 -152.158 -618.246 0.229136 -0.682795 -0.693749
-36.9983 -152.112 -617.467 0.502739 -0.754523 -0.421841
-40.0181 -153.19 -617.691 0.0316009 -0.580564 -0.813601
-41.7943 -154.143 -616.948 0.000318539 -0.55548 -0.83153
-41.7835 -153.092 -617.597 0.0248534 -0.526109 -0.850054
-42.2598 -153.515 -617.474 0.547145 -0.700636 -0.457976
-42.7153 -154.217 -616.943 0.379524 -0.7004 -0.604484
-38.7152 -153.368 -617.172 0.349943 -0.722906 -0.595774
-37.7861 -153.356 -616.265 0.554489 -0.778632 -0.293726
-39.2955 -154.497 -615.908 0.534648 -0.803745 -0.261048
-44.7684 -156.262 -613.991 -0.26011 -0.613227 0.745852
-44.9869 -156.506 -614.595 -0.482481 -0.869053 0.10936
-41.516 -156.148 -614.021 0.468318 -0.859077 0.206556
-43.1395 -156.645 -613.973 0.0810815 -0.92101 0.381007
-78.9523 -107.348 -698.584 0.104282 -0.596258 -0.795991
-77.565 -106.628 -699.125 0.144398 -0.602198 -0.78518
-74.8691 -107.56 -697.123 0.301214 -0.634982 -0.711384
-80.1601 -107.491 -698.719 0.0566641 -0.600224 -0.797822
-74.4964 -106.054 -698.553 0.301985 -0.623812 -0.720877
-78.0562 -108.142 -697.835 0.175777 -0.629588 -0.756784
-82.4367 -108.259 -698.308 0.0682856 -0.590083 -0.80445
-80.3696 -108.794 -697.481 0.133234 -0.631151 -0.764131
-71.1885 -107.443 -696.032 0.228326 -0.52472 -0.820083
-84.8578 -109.657 -697.525 0.0605253 -0.59889 -0.798541
-84.1629 -108.981 -697.813 0.0807207 -0.556782 -0.826727
-83.1885 -109.168 -697.594 0.0634334 -0.632171 -0.772228
-65.337 -106.82 -694.785 0.391744 -0.553634 -0.734864
-67.4007 -107.769 -694.805 0.314856 -0.571075 -0.758115
-66.2859 -107.847 -694.146 0.347986 -0.634865 -0.68982
-86.6597 -109.637 -697.433 0.0369932 -0.53507 -0.843997
-86.0623 -110.058 -697.121 0.0769902 -0.554174 -0.828833
-89.7087 -111.41 -696.678 0.0122105 -0.43248 -0.901561
-88.2386 -111.194 -696.489 0.0790283 -0.576614 -0.813185
-64.6883 -107.74 -693.658 0.399672 -0.605559 -0.688157
-89.0744 -110.694 -696.922 0.0240256 -0.460802 -0.887178
-91.3049 -112.701 -695.849 -0.0634056 -0.472477 -0.879059
-64.136 -108.55 -692.577 0.441435 -0.627467 -0.641421
-63.7863 -109.449 -691.328 0.500008 -0.667628 -0.551602
-137.315 -118.232 -701.149 -0.22382 0.34897 -0.910013
-135.859 -118.026 -700.87 0.0528674 -0.0630504 -0.996609
-94.2357 -113.189 -694.859 -0.210986 -0.285408 -0.934894
-137.23 -118.92 -700.809 0.00217592 -0.0839892 -0.996464
-134.297 -118.494 -700.391 0.183831 0.0301802 -0.982494
-141.093 -119.666 -700.996 -0.166387 0.519164 -0.838322
-138.733 -119.166 -700.974 -0.00871826 0.142996 -0.989685
-131.417 -118.497 -699.801 0.286624 0.446751 -0.847502
-63.4005 -110.397 -689.664 0.559835 -0.65752 -0.504235
-141.744 -119.908 -700.869 -0.383586 0.436061 -0.814072
-130.265 -118.687 -699.208 0.267746 0.397194 -0.877809
-129.271 -118.379 -699.074 -0.000163177 0.357949 -0.933741
-115.137 -116.119 -696.96 0.0347303 0.606168 -0.794578
-109.413 -115.813 -696.27 0.0579252 0.489119 -0.870291
-124.469 -117.709 -697.75 0.0680788 0.424705 -0.902768
-123.282 -117.39 -697.677 0.0553187 0.531332 -0.845355
-106.222 -116.125 -695.491 0.41757 0.509804 -0.752154
-143.468 -121.198 -700.382 -0.689667 0.533315 -0.489831
-104.131 -116.013 -694.069 0.478452 0.506603 -0.717242
-98.8456 -115.422 -693.135 -0.363341 -0.0288966 -0.931208
-97.8407 -115.029 -693.49 -0.314745 -0.133961 -0.939676
-62.1332 -110.736 -687.506 0.513864 -0.687167 -0.513562
-144.555 -121.996 -699.567 -0.716012 0.475659 -0.510955
-101.619 -116.533 -693.302 0.247894 0.332278 -0.910022
-99.3549 -116.33 -692.835 -0.14427 -0.137487 -0.97994
-144.888 -121.861 -698.569 -0.750254 0.569388 -0.33603
-62.9946 -112.953 -685.492 0.532798 -0.750666 -0.390675
-63.2567 -113.794 -684.071 0.50983 -0.80442 -0.30493
-64.6859 -114.861 -682.832 0.488435 -0.848302 -0.204486
-65.8433 -115.676 -683.056 0.471094 -0.853356 -0.223278
-150.989 -127.743 -693.032 -0.811769 0.48114 -0.330961
-68.1601 -117.808 -679.629 0.482824 -0.863985 -0.142867
-151.429 -127.842 -692.197 -0.820455 0.492412 -0.29049
-69.0594 -118.003 -680.176 0.440875 -0.884845 -0.150597
-152.291 -128.658 -690.754 -0.826675 0.502592 -0.253002
-71.589 -119.842 -678.973 0.562041 -0.825878 -0.0451261
-129.825 -126.271 -685.888 -0.199434 -0.597028 0.777035
-72.9901 -120.2 -678.567 0.274025 -0.958875 -0.0739523
-127.337 -126.644 -685.535 -0.302318 -0.671395 0.676634
-126.48 -126.409 -684.673 -0.258125 -0.612751 0.746933
-125.628 -127.597 -685.649 -0.199792 -0.675983 0.709317
-138.084 -128.552 -686.092 0.256018 -0.248371 0.93422
-154.746 -131.356 -688.861 -0.470741 0.700367 -0.536553
-75.097 -121.488 -676.569 0.485395 -0.873987 0.0232119
-139.303 -129.085 -685.973 0.305751 -0.161533 0.938309
-120.194 -127.805 -683.384 -0.350935 -0.706034 0.61511
-119.366 -127.181 -682.211 -0.415094 -0.659148 0.627074
-78.8986 -122.553 -675.592 0.275286 -0.946509 0.168339
-77.6448 -122.58 -676.927 0.266696 -0.962069 0.0574112
-80.5474 -123.331 -675.674 0.362943 -0.916164 0.170049
-114.932 -127.641 -680.525 -0.304846 -0.68381 0.662927
-113.897 -127.649 -679.778 -0.344774 -0.677487 0.649725
-81.8047 -123.785 -674.92 0.370406 -0.898629 0.235088
-154.88 -133.93 -685.166 -0.976806 -0.213354 0.0181405
-110.323 -127.623 -678.701 -0.180175 -0.819225 0.544433
-108.4 -127.805 -678.267 -0.167214 -0.884439 0.435669
-107.677 -127.74 -677.494 -0.270799 -0.841322 0.467808
-93.5107 -127.71 -674.945 0.295452 -0.821969 0.486904
-154.569 -134.908 -682.707 -0.974891 -0.222661 0.0031832
-101.903 -128.636 -675.492 -0.148309 -0.765217 0.626456
-97.9098 -128.303 -674.573 -0.118684 -0.769608 0.627389
-96.8242 -128.234 -674.456 0.0147779 -0.836735 0.547408
-145.595 -135.6 -679.752 0.873555 0.0355532 0.485426
-145.999 -135.212 -678.819 0.911515 -0.037142 0.409586
-146.253 -135.576 -678.233 0.963335 -0.0623883 0.260946
-146.561 -136.439 -677.695 0.923325 -0.273817 0.269248
-146.905 -136.777 -676.668 0.975252 -0.14706 0.165095
-147.017 -137.109 -676.301 0.937384 -0.291691 0.190333
-147.354 -138.171 -676.563 0.910966 -0.298071 0.285122
-148.347 -139.219 -674.462 0.831742 -0.48739 0.265813
-149.116 -139.759 -673.596 0.754557 -0.568787 0.327301
-150.724 -141.025 -672.527 0.881826 0.0842657 0.463985
-150.706 -141.406 -672.076 0.525081 0.347154 0.777029
-155.117 -142.351 -672.076 -0.172887 -0.413461 0.893957
-152.593 -142.081 -671.642 0.0614805 0.0822673 0.994712
-151.407 -141.685 -671.769 0.209004 0.259112 0.942963
-153.945 -142.268 -671.677 -0.22123 -0.167736 0.960688
-158.915 -143.352 -670.957 0.229372 0.797201 0.558443
-158.952 -144.529 -669.64 0.22672 0.639764 0.734371
-158.953 -145.064 -669.211 0.294967 0.597807 0.7454
-43.5287 -153.604 -618.898 0.153032 -0.810695 -0.565115
-44.0461 -153.943 -618.55 0.153575 -0.81046 -0.565305
-43.0152 -154.295 -617.613 0.543384 -0.826492 -0.147119
-39.7148 -153.748 -617.177 0.212544 -0.671916 -0.709474
-43.4605 -154.511 -617.579 0.328124 -0.824187 -0.461574
-44.1568 -155.322 -616.61 0.26681 -0.825604 -0.497183
-41.3191 -155.012 -616.341 0.123699 -0.692201 -0.711024
-40.1174 -155.072 -615.785 0.424606 -0.826814 -0.368902
-44.6907 -156.013 -615.738 0.0262381 -0.748647 -0.662449
-44.6639 -155.792 -616.217 0.48108 -0.805861 -0.345182
-42.5955 -155.359 -616.103 0.0826936 -0.64797 -0.757163
-43.5674 -155.319 -616.306 0.226817 -0.738672 -0.634758
-45.2561 -156.181 -615.304 -0.394124 -0.781063 -0.484362
-41.5868 -156.035 -615.065 0.373551 -0.859455 -0.348993
-44.4088 -156.806 -614.986 -0.151291 -0.941194 -0.302101
-42.652 -156.572 -614.758 0.256098 -0.933586 -0.25066
-44.2634 -156.694 -614.182 -0.183464 -0.844379 0.503354
-79.3241 -108.217 -698.087 0.0806051 -0.635824 -0.767614
-76.6301 -107.556 -698.064 0.25405 -0.658711 -0.708208
-81.3293 -109.364 -697.413 0.122361 -0.605596 -0.786309
-77.1842 -108.625 -697.146 0.247533 -0.692355 -0.677769
-75.7063 -108.105 -697.131 0.313806 -0.643632 -0.698042
-74.531 -108.781 -696.016 0.178659 -0.598109 -0.781247
-71.7151 -108.747 -695.566 0.25201 -0.498357 -0.829537
-68.8329 -107.647 -695.473 0.249161 -0.533893 -0.808008
-83.0655 -109.917 -696.873 0.142276 -0.641754 -0.753598
-82.1902 -109.728 -697.105 0.0212173 -0.711366 -0.702501
-78.3905 -109.001 -697.268 0.154803 -0.695597 -0.701556
-77.5739 -110.14 -695.643 0.186676 -0.662219 -0.725685
-73.4277 -109.27 -695.577 0.108634 -0.543411 -0.832408
-70.0269 -108.562 -695.064 0.222642 -0.535682 -0.81454
-84.1361 -110.096 -697.097 0.110033 -0.627662 -0.77067
-83.5884 -110.671 -696.539 0.12785 -0.640422 -0.757307
-82.3211 -110.41 -696.344 0.103962 -0.657801 -0.745982
-80.3455 -109.61 -696.93 0.303926 -0.527171 -0.793549
-75.4252 -109.165 -695.906 0.189123 -0.648125 -0.737677
-87.0342 -110.796 -696.936 0.0388598 -0.534823 -0.84407
-86.1059 -111.523 -696.39 0.115951 -0.593413 -0.796503
-85.1407 -110.636 -696.578 0.119244 -0.58682 -0.800889
-84.7229 -110.972 -696.265 0.154187 -0.623127 -0.766772
-84.1327 -111.441 -695.693 0.166002 -0.665 -0.728161
-65.4551 -108.868 -692.763 0.375419 -0.629912 -0.679905
-87.7525 -111.795 -696.018 0.107045 -0.55569 -0.824469
-64.6899 -109.747 -691.521 0.419888 -0.674806 -0.606902
-140.386 -119.475 -700.941 -0.122086 0.52862 -0.840033
-138.353 -119.744 -700.874 0.00993951 0.214938 -0.976577
-136.398 -119.573 -700.86 -0.00908881 0.407211 -0.913289
-133.669 -119.029 -700.549 0.155501 0.594868 -0.788639
-132.696 -119.121 -700.3 0.165517 0.512621 -0.84251
-116.067 -116.809 -697.674 -0.0152633 0.562002 -0.826995
-94.5855 -114.355 -694.691 -0.147836 -0.290533 -0.945376
-65.2767 -110.818 -690.867 0.461651 -0.697099 -0.548572
-140.062 -120.539 -700.974 -0.0519275 0.262786 -0.963456
-128.226 -118.277 -699.009 0.229845 0.528237 -0.817397
-113.37 -116.977 -697.504 0.174284 0.496838 -0.850163
-110.82 -116.977 -696.99 0.224767 0.405466 -0.886046
-121.73 -118.808 -698.675 0.0646593 0.506249 -0.85996
-107.03 -115.458 -695.374 0.246166 0.536292 -0.807337
-104.964 -116.587 -694.786 0.456991 0.474417 -0.752388
-96.8044 -115.858 -693.543 -0.178358 -0.285828 -0.941536
-143.665 -121.388 -700.296 -0.659499 0.331068 -0.674874
-97.9025 -116.01 -693.36 -0.212038 -0.200966 -0.956375
-63.9883 -111.719 -688.393 0.519301 -0.688487 -0.506273
-102.77 -116.624 -693.528 0.307557 0.467082 -0.829001
-146.049 -122.831 -697.457 -0.813962 0.471743 -0.339004
-146.846 -123.827 -696.703 -0.839223 0.438308 -0.321855
-64.9816 -114.45 -684.852 0.481498 -0.813313 -0.326623
-149.169 -126.175 -694.919 -0.759112 0.53839 -0.365904
-66.3174 -115.732 -683.552 0.334915 -0.895367 -0.293512
-67.0857 -116.22 -682.302 0.496513 -0.850561 -0.173263
-150.661 -127.705 -693.956 -0.803482 0.468804 -0.366934
-68.8978 -117.368 -682.164 0.282922 -0.90384 -0.320979
-68.3297 -117.165 -682.461 0.291174 -0.910114 -0.294804
-69.9482 -118.439 -681.231 0.493214 -0.845506 -0.204598
-70.6913 -118.898 -679.266 0.525356 -0.849507 -0.0483682
-131.539 -127.727 -687.188 0.00335409 -0.541613 0.840621
-128.599 -127.109 -686.375 -0.20943 -0.624398 0.752506
-74.3698 -120.976 -676.278 0.486983 -0.87332 0.0126332
-154.231 -131.149 -688.92 -0.556087 0.701468 -0.445769
-76.5807 -121.944 -677.313 0.388117 -0.92151 -0.013568
-75.7038 -121.739 -676.934 0.309801 -0.950787 -0.00521773
-139.009 -129.825 -686.244 0.386561 -0.227911 0.893659
-78.6122 -122.644 -677.279 0.308913 -0.949655 0.0522425
-119.179 -128.353 -683.467 -0.331467 -0.754509 0.566433
-117.823 -128.914 -683.226 -0.263323 -0.798578 0.541235
-79.8291 -123.14 -675.901 0.392141 -0.899199 0.194078
-81.4175 -123.903 -676.545 0.379083 -0.92079 0.0918784
-143.163 -130.617 -684.078 0.525145 0.1136 0.843396
-82.9568 -124.269 -675.443 0.348802 -0.904651 0.244835
-155.088 -133.044 -686.141 -0.970045 -0.242592 -0.012759
-113.087 -127.709 -679.545 -0.234767 -0.710743 0.66312
-85.127 -124.875 -675.354 0.293953 -0.896649 0.331076
-109.033 -127.966 -678.57 -0.154528 -0.845991 0.510314
-106.072 -128.432 -677.698 -0.387804 -0.78191 0.488083
-89.4575 -126.843 -675.616 0.262307 -0.912891 0.312771
-88.399 -125.862 -675.022 0.24867 -0.877158 0.410802
-87.2308 -125.992 -675.369 0.198667 -0.90988 0.364212
-105.075 -128.885 -677.195 -0.369927 -0.767019 0.524248
-104.417 -128.473 -676.551 -0.304626 -0.729464 0.612442
-154.471 -135.656 -683.489 -0.988156 -0.143988 0.0530679
-94.517 -127.885 -675.018 0.262772 -0.860606 0.436244
-100.992 -128.486 -675.268 -0.0969278 -0.708791 0.698728
-98.808 -128.357 -674.927 -0.0803636 -0.74025 0.667512
-144.793 -134.247 -681.234 0.816704 0.154868 0.555887
-145.268 -135.728 -680.251 0.815612 0.126382 0.564628
-146.157 -136.394 -678.786 0.883283 -0.0384179 0.467264
-146.727 -137.124 -677.651 0.935993 -0.13668 0.3244
-146.914 -137.239 -677.023 0.936979 -0.232787 0.260538
-148.197 -139.394 -675.172 0.895218 -0.27086 0.353862
-148.953 -140.07 -674.301 0.810912 -0.205011 0.54808
-150.094 -140.662 -673.009 0.761753 -0.106864 0.638993
-149.717 -140.73 -673.535 0.717361 0.192716 0.669518
-156.335 -142.686 -672.153 -0.0212845 0.154471 0.987768
-157.815 -142.742 -672.404 -0.0980479 0.612094 0.784683
-155.376 -142.933 -672.285 -0.0739547 0.151019 0.985761
-151.565 -142.364 -671.347 0.0186744 0.598899 0.800607
-158.076 -143.201 -671.802 0.0701548 0.853343 0.516608
-158.26 -142.831 -672.395 -0.1539 0.816769 0.556061
-157.002 -143.151 -671.956 -0.0599362 0.694316 0.71717
-152.918 -142.624 -671.383 -0.21345 0.556684 0.802833
-152.941 -143.273 -670.776 -0.368582 0.564055 0.738911
-157.82 -143.577 -671.147 0.207583 0.814401 0.541904
-156.762 -143.61 -671.5 0.103634 0.737569 0.667273
-152.197 -143.231 -670.471 -0.085326 0.555297 0.827264
-156.399 -144.188 -670.797 0.305593 0.760467 0.572977
-157.785 -144.414 -670.061 0.181142 0.716993 0.673133
-158.397 -144.995 -669.487 0.161965 0.540992 0.825285
-156.984 -145.226 -669.431 0.0990534 0.582141 0.807032
-42.7809 -156.247 -615.26 0.167653 -0.755744 -0.633043
-80.5097 -110.522 -696.385 0.146701 -0.680459 -0.717952
-79.4315 -109.743 -696.444 0.182004 -0.66891 -0.720717
-78.8666 -110.407 -695.653 0.198218 -0.650096 -0.733542
-74.2155 -110.197 -694.971 0.105093 -0.542218 -0.83364
-72.741 -110.427 -694.735 0.158907 -0.591304 -0.790638
-71.6054 -109.87 -694.732 0.284505 -0.569152 -0.771442
-68.5957 -109.265 -694.196 0.290969 -0.580915 -0.760181
-81.6273 -110.967 -695.698 0.109006 -0.713039 -0.692599
-79.3109 -111.485 -694.969 0.125342 -0.648818 -0.750549
-76.1464 -110.355 -695.157 0.139621 -0.56582 -0.812622
-82.7753 -111.304 -695.87 0.140195 -0.663976 -0.734494
-75.4552 -110.729 -694.862 0.0882248 -0.508357 -0.856615
-88.9915 -112.252 -696.168 0.127607 -0.52494 -0.841519
-86.9177 -112.39 -695.522 0.115496 -0.613885 -0.780901
-81.2232 -111.459 -695.103 0.14302 -0.713211 -0.686203
-79.9047 -111.041 -695.659 0.213683 -0.707405 -0.673735
-77.4961 -110.922 -695.049 0.149847 -0.550541 -0.821249
-66.7477 -109.098 -693.496 0.401448 -0.582614 -0.706683
-88.2877 -112.706 -695.694 0.175001 -0.567556 -0.804522
-85.1218 -112.147 -695.629 0.212549 -0.651816 -0.727983
-82.1443 -111.976 -695.074 0.172893 -0.689962 -0.702894
-80.8274 -111.98 -694.507 0.122824 -0.647982 -0.751687
-89.4517 -113.15 -695.493 0.0995622 -0.606252 -0.789016
-86.2661 -112.809 -695.039 0.201825 -0.650223 -0.732446
-83.2401 -112.218 -694.808 0.127678 -0.683543 -0.718657
-66.6148 -111.172 -691.221 0.373644 -0.731331 -0.570566
-65.9006 -110.06 -692.118 0.419845 -0.635379 -0.648092
-92.4119 -113.747 -695.246 -0.143837 -0.469171 -0.871315
-93.4342 -114.24 -694.707 -0.105405 -0.349167 -0.931114
-141.608 -120.307 -701.035 -0.22012 0.0823252 -0.971993
-138.597 -120.313 -701.157 -0.167171 0.503808 -0.847485
-128.053 -119.474 -700.089 0.114847 0.572851 -0.811574
-126.07 -118.134 -698.553 0.111164 0.60187 -0.790819
-124.344 -118.773 -698.59 0.0691968 0.608129 -0.790817
-122.916 -118.356 -698.596 0.00724141 0.622523 -0.782568
-118.434 -117.5 -697.927 -0.0290569 0.548097 -0.83591
-111.741 -116.054 -696.74 0.0765209 0.506542 -0.858813
-108.827 -115.775 -696.124 0.290441 0.503836 -0.813507
-93.5055 -115.607 -694.255 -0.0112294 -0.451388 -0.892257
-141.476 -120.978 -700.994 -0.224549 0.00787485 -0.974431
-107.737 -116.461 -695.956 0.260977 0.418458 -0.869933
-95.8034 -114.869 -694.079 -0.234733 -0.320817 -0.917593
-64.7428 -111.148 -689.847 0.465753 -0.702246 -0.538447
-142.31 -120.866 -700.787 -0.24407 -0.1893 -0.951102
-142.115 -121.353 -700.684 -0.31017 -0.0497756 -0.949377
-64.8126 -112.034 -688.901 0.442364 -0.713209 -0.543735
-143.677 -121.873 -700.326 -0.473395 0.0240372 -0.880522
-66.4472 -112.323 -689.524 0.374793 -0.765379 -0.523187
-103.715 -116.784 -694.35 0.470626 0.471906 -0.745531
-66.403 -112.928 -688.434 0.403627 -0.764422 -0.502737
-64.6247 -112.763 -687.674 0.453629 -0.742355 -0.493082
-145.156 -122.594 -699.261 -0.76945 0.373255 -0.518293
-100.356 -116.554 -692.893 0.189899 0.0995158 -0.976747
-99.4205 -117.793 -692.546 0.230559 -0.179669 -0.956327
-65.9086 -113.785 -687.018 0.382079 -0.764456 -0.519253
-66.6486 -114.038 -687.172 0.328477 -0.79198 -0.514656
-66.36 -114.923 -685.639 0.332262 -0.844035 -0.42096
-64.1633 -113.211 -686.444 0.476407 -0.762884 -0.437085
-67.1686 -115.9 -683.717 0.445233 -0.84001 -0.31008
-67.8234 -116.776 -682.974 0.535997 -0.802347 -0.262577
-70.1942 -117.975 -683.058 0.501442 -0.799997 -0.329484
-69.3893 -117.839 -681.541 0.574348 -0.776681 -0.258633
-70.7928 -118.602 -681.91 0.475242 -0.847082 -0.237901
-70.7875 -118.881 -680.452 0.540463 -0.833839 -0.112306
-73.5772 -120.326 -680.219 0.456922 -0.880086 -0.12912
-71.4276 -119.429 -680.766 0.567306 -0.80254 -0.184643
-72.0041 -119.953 -679.862 0.314219 -0.9364 -0.156271
-74.406 -120.823 -679.398 0.538029 -0.839981 -0.0704004
-154.042 -131.416 -690.255 -0.824749 0.494349 -0.274605
-133.106 -127.5 -687.056 0.0654615 -0.486186 0.8714
-132.129 -128.526 -687.677 0.102178 -0.509767 0.854223
-130.552 -126.756 -686.55 -0.152746 -0.55618 0.816904
-126.189 -128.524 -686.749 -0.241443 -0.747806 0.618458
-75.2984 -121.516 -679.119 0.44756 -0.8936 -0.0341976
-123.039 -127.542 -684.587 -0.330494 -0.71619 0.614692
-138.276 -130.684 -686.818 0.372616 -0.194436 0.907387
-121.903 -127.348 -683.919 -0.30978 -0.730924 0.608101
-77.3061 -122.401 -676.916 0.504464 -0.862198 0.0461663
-121.365 -127.835 -684.237 -0.396287 -0.748557 0.531619
-117.274 -127.986 -682.076 -0.292724 -0.701116 0.650191
-82.2728 -124.18 -677.613 0.417271 -0.908232 -0.031618
-112.925 -128.9 -680.923 -0.187542 -0.811349 0.553661
-84.7841 -125.144 -676.869 0.313217 -0.941114 0.127279
-110.925 -128.296 -679.64 -0.128625 -0.799522 0.586703
-109.732 -128.46 -679.812 -0.155555 -0.829431 0.536514
-87.2543 -126.293 -676.236 0.177202 -0.966174 0.187369
-85.7279 -125.586 -676.5 0.459858 -0.872404 0.165656
-92.0775 -127.279 -675.209 0.0402146 -0.904877 0.423769
-91.4802 -127.402 -675.565 0.287693 -0.902394 0.320809
-90.5485 -126.771 -675.361 0.257174 -0.903252 0.343507
-102.028 -129.21 -676.528 -0.0758595 -0.88327 0.462688
-99.5568 -129.216 -675.81 -0.0196352 -0.864737 0.501842
-154.255 -136.593 -681.755 -0.988086 -0.141646 0.0601957
-154.206 -136.554 -681.167 -0.962185 -0.254989 0.0958196
-146.733 -137.842 -677.901 0.809767 0.114701 0.575432
-147.488 -138.792 -676.657 0.866092 -0.0242602 0.499296
-148.389 -140.064 -675.013 0.726215 0.259101 0.636772
-148.947 -140.587 -674.202 0.580621 0.420592 0.697124
-149.83 -141.313 -672.807 0.515674 0.522648 0.67891
-149.825 -142.698 -671.881 0.420495 0.611716 0.670065
-155.236 -143.723 -671.855 -0.399101 0.179319 0.899202
-154.197 -143.078 -671.653 -0.414928 0.343296 0.842605
-156.2 -143.41 -671.744 0.264486 0.545035 0.795603
-155.743 -143.842 -671.786 0.640508 -0.117058 0.758977
-150.957 -142.785 -671.131 0.241547 0.608706 0.755733
-155.846 -144.31 -671.215 0.945483 0.314228 0.0855721
-154.615 -143.834 -671.445 -0.444034 0.481156 0.755859
-151.477 -143.523 -670.422 0.104821 0.566282 0.817519
-153.611 -144.513 -670.288 -0.359526 0.592827 0.720623
-152.687 -144.254 -670.112 -0.213073 0.523849 0.824732
-156.015 -145.239 -669.615 0.198263 0.697806 0.688302
-158.218 -146.018 -669.105 -0.0455783 0.58554 0.809361
-156.446 -145.922 -669.086 0.19915 0.517894 0.831941
-69.1713 -110.212 -693.729 0.246401 -0.628473 -0.737773
-76.4627 -111.234 -694.61 0.171607 -0.508034 -0.844069
-70.787 -110.454 -693.901 0.305215 -0.623075 -0.720153
-70.3184 -110.932 -693.207 0.318203 -0.663547 -0.677091
-75.5485 -112.2 -693.843 0.172122 -0.580492 -0.795866
-67.9111 -110.526 -692.759 0.375558 -0.63667 -0.673504
-78.9337 -112.312 -694.321 -0.00430778 -0.585395 -0.810737
-69.8899 -111.308 -692.628 0.314769 -0.65661 -0.685407
-87.4787 -113.393 -695.017 0.132312 -0.635813 -0.760418
-84.2412 -112.853 -694.673 0.192923 -0.686723 -0.700851
-81.7534 -112.705 -694.256 0.115258 -0.622341 -0.774214
-80.1664 -112.585 -694.012 0.0544792 -0.579941 -0.812835
-88.6296 -113.743 -694.793 0.166527 -0.659389 -0.733127
-86.7559 -113.691 -694.646 0.217382 -0.645497 -0.732174
-85.315 -113.491 -694.038 0.209888 -0.685596 -0.697069
-82.4186 -114.007 -693.213 0.0294979 -0.589789 -0.807019
-134.587 -119.154 -700.636 0.00942671 0.474253 -0.880338
-133.372 -120.19 -701.647 0.124697 0.59136 -0.796708
-131.134 -119.562 -700.687 0.144421 0.602213 -0.785163
-91.496 -114.668 -694.758 0.0751336 -0.622743 -0.77881
-90.6724 -114.157 -694.989 0.101766 -0.561068 -0.82149
-84.1241 -113.954 -693.41 0.0993476 -0.651347 -0.752248
-82.9194 -113.153 -693.911 0.107469 -0.652752 -0.74991
-69.4528 -111.898 -691.908 0.337413 -0.670198 -0.66105
-119.422 -118.56 -698.309 0.0422587 0.457455 -0.888228
-115.283 -118.177 -698.342 0.174379 0.383418 -0.906964
-114.731 -117.563 -697.797 0.126863 0.477293 -0.869538
-111.661 -117.561 -697.393 0.0855219 0.342086 -0.935769
-108.686 -117.321 -696.851 0.21536 0.34889 -0.912083
-92.6518 -114.792 -694.5 -0.0224476 -0.489312 -0.87182
-89.3198 -114.348 -694.517 0.212408 -0.630681 -0.746408
-88.0061 -114.191 -694.197 0.172859 -0.682811 -0.709851
-86.3153 -114.269 -693.909 0.241289 -0.7017 -0.67037
-85.3525 -114.821 -692.887 0.157449 -0.644724 -0.748024
-68.5784 -112.639 -690.518 0.407931 -0.721597 -0.559366
-68.06 -111.479 -691.961 0.339152 -0.722344 -0.602656
-140.563 -121.178 -701.279 -0.203346 0.450885 -0.86911
-110.167 -116.525 -696.609 0.106895 0.430647 -0.896168
-106.196 -117.538 -696.253 0.221319 0.35025 -0.910133
-91.8042 -115.398 -694.072 0.106378 -0.581478 -0.806578
-90.092 -115.768 -693.405 0.223267 -0.693425 -0.685064
-87.0537 -115.094 -693.065 0.223209 -0.672276 -0.705849
-94.5155 -116.515 -693.564 -0.0511319 -0.490568 -0.869902
-143.083 -122.44 -700.475 -0.397622 0.118573 -0.909855
-102.684 -117.329 -693.804 0.487761 0.304659 -0.81809
-95.7954 -116.194 -693.635 -0.102364 -0.359664 -0.92745
-144.576 -122.594 -699.842 -0.588359 0.17726 -0.788931
-97.8693 -117.292 -692.978 -0.152964 -0.363315 -0.919024
-68.1817 -113.32 -689.333 0.437242 -0.727308 -0.529002
-67.1179 -113.581 -688.157 0.376323 -0.771124 -0.513566
-98.7279 -117.948 -692.47 -0.0912862 -0.411904 -0.906643
-67.6479 -114.264 -687.388 0.418991 -0.763959 -0.490727
-68.2444 -115.332 -686.496 0.433096 -0.774619 -0.460861
-147.019 -124.996 -697.747 -0.835313 0.356222 -0.418757
-67.3616 -114.955 -686.022 0.39143 -0.802898 -0.449597
-147.482 -125.776 -697.415 -0.803097 0.360205 -0.474644
-68.133 -116.259 -684.677 0.407238 -0.832819 -0.374927
-70.4116 -117.446 -684.448 0.523172 -0.779186 -0.345195
-69.3234 -116.957 -683.597 0.433895 -0.835836 -0.336325
-71.4129 -118.818 -682.45 0.516431 -0.778912 -0.355801
-71.9308 -119.301 -682.198 0.389744 -0.873711 -0.291081
-73.734 -120.242 -681.337 0.503032 -0.842411 -0.193137
-72.9439 -120.028 -680.058 0.284575 -0.944045 -0.166719
-153.455 -131.089 -691.491 -0.851862 0.408367 -0.327975
-134.556 -128.16 -687.148 0.190884 -0.429334 0.882743
-133.591 -129.531 -687.967 0.20275 -0.529371 0.823808
-124.454 -128.262 -686.103 -0.134984 -0.708598 0.692581
-154.608 -131.802 -689.505 -0.823657 0.367621 -0.431791
-136.985 -129.548 -686.884 0.335654 -0.319397 0.886184
-123.801 -127.994 -685.605 -0.304278 -0.717442 0.626652
-78.288 -122.531 -679.997 0.23594 -0.97078 0.0437936
-77.8577 -122.576 -678.901 0.109834 -0.993405 -0.0329158
-77.2936 -122.432 -679.6 0.440095 -0.896026 -0.0587654
-79.5611 -123.298 -677.531 0.363105 -0.931517 0.020777
-80.5215 -123.513 -677.073 0.36248 -0.931021 0.0425297
-116.778 -128.446 -682.415 -0.317812 -0.796552 0.514296
-141.058 -130.711 -685.313 0.482111 -0.0708484 0.873241
-82.4517 -124.274 -676.601 0.411334 -0.906275 0.0973099
-114.471 -128.262 -681.071 -0.251771 -0.783093 0.568662
-83.5545 -124.942 -676.98 0.333365 -0.935683 0.115605
-154.953 -133.606 -687.072 -0.987844 -0.152446 0.0304149
-141.402 -132.026 -685.177 0.602885 -0.00361244 0.79782
-112 -129.053 -681.106 -0.0467529 -0.852835 0.520083
-111.393 -129.005 -680.904 -0.194521 -0.863476 0.465371
-110.634 -129.12 -680.608 -0.121327 -0.854767 0.504632
-108.721 -128.807 -679.679 -0.141593 -0.849146 0.508825
-154.791 -134.615 -687.223 -0.969335 -0.23183 0.0815171
-106.712 -128.804 -678.544 -0.318458 -0.861109 0.396328
-88.2849 -126.235 -676.165 0.282904 -0.934752 0.21495
-105.823 -128.833 -678.329 -0.307413 -0.890688 0.334922
-90.8423 -127.277 -676.676 0.52178 -0.84332 0.128676
-104.779 -129.313 -677.753 -0.344808 -0.87462 0.340804
-92.4632 -127.557 -675.809 0.27589 -0.915593 0.292531
-103.937 -129.186 -677.284 -0.245522 -0.847559 0.470492
-94.3339 -128.199 -676.047 0.26958 -0.931161 0.245492
-93.296 -128.024 -675.812 0.305247 -0.910814 0.277924
-143.521 -133.675 -682.932 0.710329 0.184832 0.679168
-97.2709 -128.944 -675.524 0.0498921 -0.89525 0.442763
-96.0845 -128.79 -675.878 0.232797 -0.934655 0.268749
-95.4754 -128.55 -675.414 0.289195 -0.889288 0.354307
-144.121 -133.998 -682.154 0.753227 0.179051 0.632921
-145.96 -136.953 -679.005 0.77718 0.170802 0.605655
-146.786 -138.691 -677.411 0.609105 0.377185 0.697656
-154.341 -139.345 -677.99 -0.982413 0.0348848 -0.183431
-154.456 -139.951 -677.394 -0.985905 0.0249936 -0.165428
-147.393 -139.339 -676.674 0.714004 0.359609 0.600732
-147.88 -141.085 -674.527 0.51301 0.582867 0.630148
-149.08 -142.66 -672.379 0.403361 0.648922 0.645135
-155.267 -144.234 -671.969 -0.982999 0.020243 0.182492
-154.53 -144.38 -671.042 -0.400013 0.61233 0.681939
-149.785 -143.617 -670.732 0.254603 0.712916 0.653398
-155.705 -144.904 -671.076 0.426386 -0.0858284 -0.90046
-155.191 -144.56 -671.15 -0.483074 0.687964 0.541613
-155.538 -144.796 -671.264 -0.945339 0.248269 -0.211418
-155.536 -145.085 -670.029 0.179704 0.837733 0.515665
-154.15 -144.878 -670.184 -0.235623 0.745432 0.623549
-151.32 -144.167 -669.942 -0.0406016 0.633263 0.772871
-150.512 -144.73 -669.351 0.0566622 0.605095 0.794134
-155.227 -145.428 -669.724 0.047032 0.551222 0.833032
-153.557 -145.345 -669.561 -0.186586 0.581505 0.791857
-155.369 -146.116 -669.44 0.0889926 0.510481 0.855271
-156.652 -146.488 -668.655 0.231985 0.569004 0.788934
-158.902 -147.037 -668.215 -0.210331 0.59917 0.7725
-158.134 -147.013 -668.025 -0.0905016 0.556829 0.825682
-158.329 -147.645 -667.794 -0.104387 0.462313 0.880551
-74.5538 -111.691 -694.231 0.118555 -0.579772 -0.806107
-73.3812 -111.051 -694.293 0.173839 -0.582959 -0.793687
-73.7999 -112.305 -693.539 0.177796 -0.630594 -0.755473
-71.467 -111.417 -693.521 0.307811 -0.610964 -0.729366
-72.2378 -111.915 -693.278 0.236565 -0.61658 -0.750911
-70.6051 -112.294 -692.328 0.377915 -0.633899 -0.674798
-79.1613 -113.698 -693.189 0.0411202 -0.605608 -0.7947
-76.4046 -112.478 -693.982 0.216301 -0.526759 -0.822033
-130.571 -119.879 -700.714 0.379148 0.602094 -0.702659
