ply
format ascii 1.0
element vertex 1670
property float x
property float y
property float z
end_header
0.126309 -0.0774966 0.321835
0.126742 -0.0778745 0.32148
0.127208 -0.0782777 0.321246
0.127638 -0.0786532 0.320883
0.128069 -0.0790297 0.320527
0.128516 -0.0794189 0.32023
0.128998 -0.079834 0.320054
0.129449 -0.0802258 0.319771
0.129885 -0.0806057 0.319436
0.130328 -0.080992 0.319131
0.130754 -0.0813637 0.318764
0.133477 -0.084648 0.3133
0.133628 -0.0839252 0.314139
0.133877 -0.0841584 0.313212
0.134514 -0.0854998 0.314972
0.134441 -0.0846377 0.313328
0.135779 -0.0865316 0.317375
0.135311 -0.0853555 0.314438
0.127083 -0.0773282 0.321167
0.127522 -0.077711 0.320838
0.127936 -0.0780748 0.32042
0.128344 -0.078434 0.319987
0.128751 -0.0787919 0.319548
0.129215 -0.0791941 0.319314
0.129671 -0.0795897 0.319051
0.130111 -0.0799731 0.318735
0.130579 -0.0803782 0.318516
0.131058 -0.0807917 0.318336
0.131175 -0.0817326 0.318385
0.131518 -0.0811901 0.318088
0.131588 -0.0820941 0.317977
0.13194 -0.0815596 0.317715
0.132044 -0.0824896 0.31772
0.132387 -0.0819487 0.317429
0.13276 -0.0822801 0.316892
0.13275 -0.0831207 0.316516
0.133086 -0.0825755 0.316204
0.133045 -0.0833902 0.315724
0.133384 -0.0828491 0.315426
0.133355 -0.0836722 0.314991
0.13371 -0.0831441 0.314746
0.133991 -0.0834048 0.313926
0.134254 -0.083651 0.31305
0.134549 -0.0839216 0.312285
0.135105 -0.0843938 0.312373
0.136217 -0.0861012 0.315652
0.135685 -0.0848851 0.312538
0.119897 -0.070865 0.334433
0.119385 -0.0704251 0.334542
0.119837 -0.0699431 0.334613
0.120322 -0.070363 0.334398
0.120375 -0.0712787 0.334188
0.120777 -0.0707597 0.334062
0.120894 -0.0717241 0.334107
0.121268 -0.0711836 0.333869
0.121776 -0.0716205 0.333743
0.12258 -0.0731568 0.33435
0.12229 -0.0720615 0.333638
0.122835 -0.0725252 0.333651
0.123359 -0.0729738 0.333582
0.123611 -0.0740424 0.334144
0.123859 -0.0734049 0.333423
0.124062 -0.0744362 0.333796
0.124318 -0.0738046 0.333106
0.127841 -0.0771495 0.32045
0.128252 -0.0775108 0.320022
0.128659 -0.07787 0.319586
0.129044 -0.0782124 0.319077
0.129501 -0.0786086 0.318818
0.129966 -0.0790111 0.318588
0.130426 -0.0794107 0.318344
0.130918 -0.0798334 0.318207
0.131427 -0.0802696 0.31813
0.131897 -0.0806764 0.317919
0.132325 -0.0810504 0.317565
0.132755 -0.0814264 0.31722
0.133114 -0.081748 0.316639
0.133437 -0.082042 0.315942
0.133734 -0.0823169 0.315167
0.134076 -0.0826252 0.314542
0.134369 -0.0828956 0.313761
0.134651 -0.0831579 0.31295
0.134947 -0.0834313 0.312192
0.135243 -0.0837033 0.311436
0.135551 -0.0839854 0.310726
0.136312 -0.085412 0.312849
0.135898 -0.0842964 0.310145
0.136966 -0.0859604 0.313244
0.136266 -0.0846244 0.309638
0.137612 -0.0865031 0.313609
0.138189 -0.0870342 0.312062
0.137041 -0.085309 0.30875
0.137452 -0.0856693 0.308384
0.138344 -0.0871957 0.310874
0.137877 -0.0860404 0.308065
0.138532 -0.0873827 0.3098
0.138359 -0.0864557 0.307926
0.119881 -0.0690967 0.335206
0.12031 -0.0694753 0.334765
0.120765 -0.0698726 0.334426
0.121192 -0.0702493 0.333981
0.121669 -0.0706633 0.333735
0.122146 -0.0710766 0.333488
0.122628 -0.0714941 0.333261
0.123157 -0.0719461 0.333215
0.123675 -0.0723904 0.333126
0.124161 -0.07281 0.332911
0.124631 -0.0732189 0.332641
0.125149 -0.073662 0.332546
0.128614 -0.0769828 0.319789
0.129028 -0.0773475 0.319378
0.12941 -0.0776886 0.318861
0.129876 -0.0780919 0.318633
0.130361 -0.0785094 0.318473
0.130828 -0.0789137 0.318251
0.131316 -0.0793334 0.318099
0.131816 -0.0797627 0.317991
0.132271 -0.0801581 0.31773
0.132673 -0.0805136 0.31729
0.133072 -0.0808661 0.316843
0.133432 -0.0811901 0.31627
0.133769 -0.0814955 0.315622
0.134072 -0.0817756 0.314867
0.134406 -0.0820789 0.314218
0.134721 -0.0823673 0.313512
0.135024 -0.082647 0.312773
0.135323 -0.0829229 0.312024
0.135629 -0.0832049 0.311306
0.135938 -0.0834885 0.310601
0.136294 -0.083808 0.310051
0.136663 -0.0841368 0.309546
0.136644 -0.0849595 0.309163
0.137053 -0.0844817 0.309109
0.137461 -0.08484 0.308732
0.137882 -0.0852086 0.308398
0.138307 -0.0855798 0.308078
0.138789 -0.0859949 0.307938
0.140201 -0.0879165 0.312011
0.139296 -0.0864287 0.307873
0.119902 -0.0682317 0.33571
0.120365 -0.0686357 0.335401
0.120806 -0.0690228 0.335003
0.121229 -0.0693977 0.334541
0.121642 -0.0697647 0.33404
0.122097 -0.0701618 0.333704
0.122513 -0.070531 0.333222
0.122963 -0.070925 0.332874
0.123466 -0.0713576 0.332727
0.123971 -0.0717917 0.332589
0.124454 -0.0722099 0.332369
0.124974 -0.0726547 0.332284
0.125502 -0.0731066 0.332234
0.125964 -0.0735093 0.331935
0.125989 -0.0744049 0.331636
0.12643 -0.0739145 0.33165
0.126453 -0.0748083 0.331345
0.126887 -0.0743129 0.331332
0.126905 -0.0752031 0.331011
0.127323 -0.0746966 0.330942
0.127318 -0.0755685 0.330537
0.127732 -0.0750596 0.330453
0.129544 -0.0769347 0.319683
0.129927 -0.0772763 0.319164
0.130404 -0.0776883 0.318974
0.130825 -0.0780585 0.318592
0.131294 -0.078465 0.318378
0.13178 -0.0788835 0.31822
0.132269 -0.0793037 0.318069
0.1327 -0.0796816 0.317726
0.133067 -0.080011 0.317169
0.13344 -0.0803457 0.316639
0.133778 -0.0806528 0.315991
0.134113 -0.0809584 0.31534
0.134416 -0.0812398 0.314589
0.134761 -0.081552 0.313979
0.135087 -0.0818501 0.313311
0.13541 -0.082146 0.312639
0.135711 -0.082425 0.311899
0.136028 -0.0827158 0.311216
0.136347 -0.0830078 0.310544
0.136713 -0.0833354 0.310026
0.137083 -0.0836663 0.309527
0.137485 -0.0840207 0.309128
0.137896 -0.0843817 0.30876
0.138317 -0.0847505 0.308426
0.138742 -0.0851227 0.308107
0.139224 -0.0855372 0.307964
0.13972 -0.0859627 0.307865
0.141146 -0.0878873 0.311949
0.140209 -0.0863818 0.30774
0.119975 -0.0674016 0.336423
0.120355 -0.0677455 0.335777
0.120794 -0.0681329 0.335374
0.121227 -0.0685147 0.334944
0.121648 -0.0688887 0.334475
0.122058 -0.0692539 0.333962
0.122501 -0.0696432 0.333582
0.122916 -0.0700124 0.333097
0.123356 -0.0703991 0.332709
0.123837 -0.0708163 0.332482
0.124331 -0.0712422 0.332302
0.124815 -0.0716612 0.332086
0.125336 -0.0721062 0.332005
0.125884 -0.0725718 0.332026
0.126363 -0.0729869 0.33179
0.126846 -0.0734054 0.33157
0.12731 -0.0738091 0.331277
0.127756 -0.0742006 0.330925
0.128175 -0.0745716 0.330473
0.128659 -0.0749904 0.330259
0.130757 -0.0770933 0.320547
0.13111 -0.0774152 0.319928
0.13145 -0.0777253 0.31926
0.131881 -0.0781035 0.318911
0.13232 -0.0784878 0.318592
0.132762 -0.0788741 0.318283
0.133169 -0.0792336 0.317856
0.133523 -0.0795548 0.317258
0.133864 -0.0798656 0.316617
0.134189 -0.0801646 0.315929
0.134511 -0.080462 0.315239
0.134805 -0.0807374 0.314458
0.135142 -0.0810444 0.313822
0.135478 -0.0813508 0.313188
0.135813 -0.0816569 0.312557
0.136134 -0.081952 0.311884
0.136464 -0.0822537 0.311244
0.136793 -0.0825548 0.310606
0.137158 -0.0828821 0.310085
0.137538 -0.0832213 0.309617
0.137942 -0.0835776 0.309224
0.138355 -0.0839409 0.308864
0.138779 -0.0843116 0.308535
0.139204 -0.0846836 0.308214
0.139664 -0.0850821 0.308003
0.140137 -0.0854902 0.307833
0.140622 -0.0859072 0.307698
0.142077 -0.0878464 0.311838
0.141118 -0.0863319 0.307594
0.120022 -0.0665496 0.337032
0.120414 -0.0669042 0.336434
0.120803 -0.0672553 0.335824
0.121235 -0.0676379 0.335391
0.121681 -0.0680299 0.335014
0.122103 -0.0684052 0.334549
0.122515 -0.0687723 0.334043
0.122958 -0.0691626 0.333665
0.123375 -0.0695331 0.333184
0.123795 -0.0699063 0.332721
0.124266 -0.0703163 0.332455
0.124749 -0.0707342 0.332233
0.125222 -0.0711452 0.331973
0.125745 -0.0715923 0.331903
0.126293 -0.0720569 0.33192
0.126783 -0.0724808 0.331727
0.127288 -0.0729143 0.331585
0.127774 -0.0733344 0.331372
0.128227 -0.0737307 0.331042
0.128657 -0.0741109 0.330632
0.129161 -0.0745442 0.330488
0.129161 -0.0754219 0.330108
0.129674 -0.0749844 0.330378
0.131632 -0.0768727 0.32393
0.131711 -0.0769954 0.322349
0.131922 -0.0772137 0.32123
0.13216 -0.077451 0.320213
0.132517 -0.0777759 0.319609
0.132895 -0.0781155 0.319079
0.133269 -0.078452 0.318538
0.133643 -0.0787884 0.318001
0.133985 -0.0791013 0.317361
0.134303 -0.0793965 0.316646
0.134605 -0.0796799 0.315883
0.134925 -0.0799766 0.315187
0.135207 -0.0802446 0.314369
0.135534 -0.0805452 0.313702
0.13588 -0.0808606 0.313103
0.136237 -0.0811835 0.312543
0.136561 -0.0814815 0.31188
0.136904 -0.0817937 0.311282
0.137254 -0.0821116 0.310713
0.137631 -0.0824485 0.31023
0.138002 -0.082781 0.309731
0.138415 -0.0831453 0.309369
0.138838 -0.0835159 0.309036
0.139261 -0.0838873 0.308708
0.139676 -0.0842522 0.308354
0.140134 -0.084649 0.308135
0.140594 -0.0850473 0.307923
0.141066 -0.0854547 0.307747
0.141539 -0.0858624 0.307573
0.141613 -0.0867565 0.307489
0.142033 -0.0862859 0.307463
0.119289 -0.0658775 0.338453
0.119351 -0.0650306 0.339129
0.119728 -0.0653752 0.338453
0.119652 -0.0662108 0.337723
0.120091 -0.065711 0.337731
0.120467 -0.0660544 0.337062
0.120862 -0.0664118 0.336477
0.121266 -0.0667748 0.335927
0.121694 -0.067155 0.335479
0.122146 -0.0675513 0.335123
0.12258 -0.0679357 0.334703
0.123003 -0.0683121 0.334242
0.12345 -0.068705 0.333875
0.123876 -0.0690833 0.333431
0.124286 -0.06945 0.332929
0.124737 -0.0698452 0.332583
0.125207 -0.0702543 0.332311
0.125668 -0.0706571 0.332008
0.126182 -0.0710969 0.331899
0.12673 -0.071562 0.33192
0.127242 -0.0720006 0.331802
0.12776 -0.0724442 0.331707
0.128269 -0.0728813 0.33158
0.128727 -0.0732816 0.331266
0.129165 -0.0736675 0.330882
0.129668 -0.0741003 0.330733
0.130178 -0.0745373 0.330606
0.130696 -0.0749811 0.330509
0.132524 -0.0766489 0.327376
0.132529 -0.0767221 0.325523
0.132593 -0.0768361 0.323883
0.132725 -0.0769999 0.322493
0.132865 -0.0771688 0.321141
0.133148 -0.0774407 0.320283
0.133465 -0.0777369 0.319544
0.133782 -0.078033 0.318812
0.13412 -0.0783445 0.318155
0.13444 -0.0786426 0.317443
0.134737 -0.0789235 0.316658
0.135026 -0.0791984 0.315854
0.135332 -0.0794861 0.315113
0.135599 -0.0797442 0.314248
0.135923 -0.0800443 0.313574
0.13627 -0.0803605 0.312978
0.136639 -0.080693 0.312458
0.136986 -0.0810098 0.311872
0.137352 -0.0813399 0.311349
0.137718 -0.0816697 0.310828
0.138096 -0.082008 0.310347
0.138454 -0.0823318 0.309808
0.138854 -0.0826868 0.309405
0.139275 -0.0830568 0.309068
0.1397 -0.0834292 0.308742
0.140124 -0.0838017 0.308418
0.140582 -0.0841983 0.308197
0.141027 -0.0845859 0.307939
0.141475 -0.0849751 0.307687
0.141935 -0.0853737 0.307476
0.142431 -0.0857986 0.307371
0.14392 -0.0877471 0.311548
0.142963 -0.0862504 0.307376
0.117884 -0.0636771 0.342052
0.117977 -0.0628434 0.342877
0.118371 -0.0632025 0.342247
0.118721 -0.0635308 0.341437
0.118968 -0.0646811 0.339784
0.119094 -0.0638752 0.340732
0.119432 -0.0641944 0.339887
0.119811 -0.0645417 0.339215
0.120173 -0.0648776 0.338483
0.120538 -0.0652152 0.337767
0.120915 -0.0655605 0.337103
0.121305 -0.0659147 0.336495
0.121704 -0.0662756 0.335931
0.122133 -0.066657 0.335485
0.122585 -0.0670538 0.33513
0.123032 -0.0674476 0.334758
0.123475 -0.0678387 0.334376
0.123923 -0.0682326 0.334011
0.124359 -0.0686189 0.333606
0.124778 -0.0689919 0.333135
0.125217 -0.0693795 0.332744
0.125674 -0.0697802 0.332424
0.126133 -0.0701816 0.33211
0.126636 -0.0706135 0.331959
0.127175 -0.0710716 0.331944
0.127699 -0.0715191 0.33187
0.128239 -0.0719779 0.331855
0.128775 -0.0724343 0.331824
0.129259 -0.0728533 0.331601
0.129711 -0.0732496 0.331265
0.130208 -0.0736776 0.33109
0.130695 -0.0740989 0.33088
0.131186 -0.0745233 0.330686
0.131234 -0.0754391 0.330483
0.13169 -0.0749568 0.330539
0.131761 -0.0758887 0.330414
0.132166 -0.0753699 0.330289
0.132178 -0.0762597 0.329963
0.132585 -0.0757427 0.329846
0.132503 -0.0765639 0.329192
0.132908 -0.0760465 0.329069
0.133091 -0.0762511 0.327819
0.133204 -0.076404 0.326335
0.133322 -0.0765615 0.324886
0.133444 -0.0767199 0.323459
0.133567 -0.0768791 0.322047
0.133779 -0.0771022 0.320949
0.134038 -0.0773574 0.320013
0.134307 -0.0776207 0.31912
0.1346 -0.0779003 0.318313
0.134883 -0.0781735 0.317481
0.135155 -0.0784382 0.316617
0.135421 -0.0786975 0.315738
0.135704 -0.0789694 0.314923
0.135967 -0.0792265 0.314049
0.136289 -0.0795257 0.313369
0.136635 -0.0798425 0.312773
0.137005 -0.0801765 0.312258
0.137375 -0.0805105 0.311746
0.137776 -0.0808664 0.311334
0.138166 -0.0812149 0.310891
0.138558 -0.0815641 0.310455
0.138925 -0.0818954 0.309944
0.139321 -0.0822475 0.309526
0.139707 -0.0825923 0.309078
0.140122 -0.0829579 0.308723
0.140538 -0.0833251 0.308374
0.140996 -0.0837217 0.308152
0.141439 -0.0841082 0.307889
0.141896 -0.0845043 0.307666
0.142357 -0.0849035 0.307455
0.142877 -0.0853455 0.307422
0.143425 -0.0858087 0.307472
0.118082 -0.0620147 0.343756
0.118437 -0.0623475 0.342955
0.11881 -0.062694 0.342241
0.119165 -0.0630267 0.341454
0.119533 -0.063368 0.340726
0.1199 -0.0637088 0.340001
0.120287 -0.064063 0.339364
0.120647 -0.064399 0.338625
0.121004 -0.064732 0.337877
0.121373 -0.0650729 0.337182
0.121764 -0.0654286 0.336579
0.122173 -0.0657972 0.336053
0.122613 -0.0661871 0.335652
0.123076 -0.066592 0.335338
0.123533 -0.0669924 0.335001
0.123976 -0.0673843 0.334618
0.124425 -0.0677793 0.334255
0.124851 -0.0681584 0.333809
0.125259 -0.0685248 0.333296
0.125686 -0.0689054 0.332863
0.126123 -0.0692915 0.332464
0.12656 -0.0696782 0.332069
0.12705 -0.070102 0.331874
0.127579 -0.070552 0.331817
0.128113 -0.0710064 0.331781
0.128677 -0.0714817 0.33185
0.129249 -0.0719627 0.331947
0.129769 -0.0724067 0.331851
0.130255 -0.072828 0.331637
0.130746 -0.0732519 0.331438
0.131215 -0.0736605 0.331162
0.131685 -0.0740703 0.330893
0.132159 -0.074482 0.330635
0.132598 -0.0748693 0.330256
0.133008 -0.0752367 0.329782
0.133346 -0.0755528 0.32906
0.133603 -0.075811 0.328065
0.133796 -0.076024 0.32686
0.13396 -0.0762161 0.325567
0.134088 -0.0763821 0.324162
0.134231 -0.0765579 0.322817
0.134397 -0.0767504 0.321564
0.134587 -0.0769589 0.320399
0.134809 -0.0771898 0.319349
0.135053 -0.0774362 0.31838
0.135309 -0.0776912 0.31746
0.135555 -0.0779388 0.316514
0.135808 -0.0781899 0.315593
0.136078 -0.0784549 0.314742
0.136342 -0.0787135 0.313871
0.136662 -0.0790133 0.313191
0.137009 -0.0793313 0.312598
0.137379 -0.0796655 0.312082
0.137759 -0.0800071 0.311602
0.138172 -0.0803731 0.311232
0.138578 -0.080733 0.310838
0.138983 -0.0810921 0.310443
0.139371 -0.0814391 0.309997
0.139774 -0.0817975 0.309603
0.140172 -0.0821509 0.309191
0.140598 -0.0825254 0.30887
0.141006 -0.0828867 0.308495
0.141453 -0.0832757 0.308239
0.141886 -0.0836547 0.307942
0.142333 -0.0840438 0.307687
0.142795 -0.0844444 0.307482
0.14334 -0.0849044 0.307522
0.143914 -0.0853859 0.307647
0.145404 -0.0873199 0.311781
0.144504 -0.0858793 0.307819
0.118149 -0.0611564 0.34448
0.118535 -0.0615114 0.3438
0.118888 -0.0618452 0.342996
0.119245 -0.0621817 0.342216
0.119618 -0.0625275 0.341502
0.119994 -0.0628758 0.340812
0.120381 -0.0632318 0.34017
0.120772 -0.0635892 0.339546
0.121128 -0.0639228 0.338787
0.121483 -0.0642565 0.338037
0.121842 -0.0645915 0.337303
0.122233 -0.0649485 0.336701
0.122655 -0.0653259 0.336222
0.123105 -0.0657232 0.335858
0.123569 -0.0661291 0.335547
0.124025 -0.0665297 0.335207
0.124468 -0.0669213 0.334819
0.124915 -0.0673161 0.334452
0.125341 -0.0676959 0.334003
0.125739 -0.0680568 0.333456
0.126167 -0.0684377 0.333021
0.126593 -0.0688174 0.332584
0.127019 -0.0691965 0.332146
0.127508 -0.0696192 0.331944
0.128036 -0.0700688 0.331883
0.128581 -0.0705304 0.331884
0.129158 -0.071014 0.331997
0.129743 -0.0715035 0.332137
0.130266 -0.07195 0.332053
0.130764 -0.0723794 0.331879
0.131257 -0.0728045 0.331684
0.131714 -0.0732053 0.331365
0.132172 -0.0736069 0.331052
0.132632 -0.07401 0.330746
0.133047 -0.0743811 0.330285
0.133435 -0.074733 0.329732
0.13377 -0.075048 0.329001
0.134047 -0.0753225 0.328079
0.134287 -0.0755699 0.327035
0.134502 -0.0758007 0.325919
0.134669 -0.0759964 0.324646
0.134831 -0.0761885 0.323369
0.134972 -0.076365 0.322029
0.135111 -0.0765405 0.320698
0.135285 -0.0767391 0.31949
0.13548 -0.0769532 0.318363
0.135688 -0.0771757 0.317287
0.135907 -0.0774049 0.316253
0.136146 -0.0776486 0.315293
0.136407 -0.0779079 0.314413
0.136684 -0.0781775 0.313589
0.137017 -0.0784871 0.312951
0.137364 -0.0788064 0.312361
0.137732 -0.0791401 0.311841
0.138121 -0.0794888 0.311391
0.138556 -0.0798706 0.31109
0.138976 -0.080241 0.310741
0.139406 -0.0806189 0.310426
0.139808 -0.0809755 0.310021
0.140224 -0.081344 0.309668
0.140623 -0.0816992 0.30926
0.141061 -0.0820823 0.308975
0.141468 -0.0824425 0.308594
0.141925 -0.0828397 0.308369
0.142357 -0.0832191 0.308071
0.142796 -0.0836021 0.30779
0.14326 -0.0840035 0.307588
0.143818 -0.0844729 0.307665
0.144393 -0.0849539 0.30779
0.144997 -0.0854564 0.308
0.118215 -0.0602934 0.345196
0.118632 -0.0606711 0.344644
0.119024 -0.061032 0.343993
0.119377 -0.0613669 0.343189
0.119729 -0.0617005 0.342385
0.12009 -0.0620403 0.341629
0.120466 -0.0623897 0.340936
0.120853 -0.062746 0.340293
0.121243 -0.0631041 0.339668
0.121591 -0.0634341 0.33888
0.121955 -0.0637744 0.338164
0.122324 -0.064117 0.337468
0.122715 -0.0644751 0.336867
0.123137 -0.0648535 0.336388
0.123589 -0.0652521 0.33603
0.124043 -0.0656523 0.335682
0.124498 -0.0660525 0.335337
0.12495 -0.0664511 0.334984
0.125398 -0.0668463 0.334615
0.125825 -0.0672278 0.334173
0.126233 -0.0675957 0.33366
0.12665 -0.0679699 0.333184
0.127065 -0.0683425 0.332705
0.12748 -0.0687152 0.332228
0.127968 -0.0691375 0.332022
0.128486 -0.0695801 0.331924
0.129032 -0.0700423 0.331927
0.12961 -0.0705258 0.332041
0.130196 -0.0710152 0.332183
0.130718 -0.0714612 0.332093
0.131217 -0.0718905 0.331918
0.131699 -0.0723091 0.331688
0.132146 -0.0727033 0.331333
0.132593 -0.073097 0.330978
0.133039 -0.0734904 0.330624
0.133443 -0.0738543 0.330124
0.133838 -0.0742124 0.329599
0.134194 -0.0745436 0.328944
0.134505 -0.0748423 0.328137
0.134803 -0.0751329 0.327295
0.135069 -0.0754 0.326349
0.135275 -0.0756255 0.32521
0.135438 -0.0758206 0.323935
0.13556 -0.075987 0.322537
0.135647 -0.0761283 0.321033
0.135771 -0.0762946 0.319661
0.135908 -0.0764696 0.318345
0.136068 -0.0766606 0.317116
0.13625 -0.0768658 0.315964
0.136465 -0.0770943 0.314931
0.136716 -0.0773477 0.314022
0.137005 -0.0776276 0.313241
0.137362 -0.0779548 0.312681
0.13771 -0.0782748 0.312095
0.138077 -0.078609 0.311574
0.138474 -0.0789644 0.311154
0.13891 -0.0793465 0.310854
0.139331 -0.079718 0.310509
0.139774 -0.0801049 0.310234
0.140211 -0.0804877 0.309941
0.140645 -0.0808686 0.309641
0.141058 -0.0812347 0.309279
0.141509 -0.0816272 0.309031
0.141914 -0.0819868 0.308645
0.142368 -0.0823817 0.308411
0.142799 -0.08276 0.308106
0.143237 -0.0831434 0.307825
0.143713 -0.0835533 0.307656
0.144282 -0.0840304 0.307766
0.144848 -0.0845045 0.307861
0.145451 -0.0850057 0.308067
0.119129 -0.0601943 0.344867
0.119516 -0.060553 0.344195
0.119881 -0.0608968 0.343439
0.120209 -0.0612168 0.342542
0.12057 -0.0615577 0.341785
0.120938 -0.0619023 0.34106
0.121334 -0.0622661 0.340454
0.121726 -0.0626261 0.339836
0.122083 -0.0629634 0.339085
0.122449 -0.0633061 0.338375
0.122828 -0.0636567 0.33772
0.123219 -0.0640157 0.337118
0.12364 -0.0643938 0.336634
0.124082 -0.0647862 0.336235
0.124535 -0.0651862 0.335882
0.12498 -0.0655802 0.335499
0.125433 -0.0659795 0.335146
0.125882 -0.0663764 0.334783
0.126321 -0.0667659 0.334382
0.126729 -0.0671356 0.333873
0.127156 -0.0675166 0.333431
0.127569 -0.0678887 0.332944
0.127983 -0.0682615 0.332464
0.128464 -0.0686787 0.332227
0.128972 -0.0691149 0.332093
0.129509 -0.0695698 0.332057
0.130075 -0.0700449 0.332127
0.130638 -0.0705185 0.332184
0.131157 -0.0709623 0.332084
0.131644 -0.0713832 0.331865
0.132115 -0.0717941 0.331593
0.132551 -0.0721812 0.3312
0.133006 -0.0725818 0.330879
0.133442 -0.0729688 0.33049
0.133856 -0.0733403 0.330027
0.134264 -0.0737072 0.329543
0.134644 -0.0740554 0.328971
0.13499 -0.0743798 0.328285
0.135362 -0.0747221 0.327692
0.13569 -0.0750343 0.326957
0.135934 -0.075288 0.325945
0.136095 -0.0754843 0.324665
0.136177 -0.0756253 0.323132
0.136211 -0.0757334 0.321456
0.136262 -0.0758522 0.319849
0.13633 -0.0759813 0.318307
0.136441 -0.0761405 0.316921
0.136595 -0.0763282 0.315683
0.136774 -0.076534 0.314539
0.137025 -0.0767886 0.313632
0.137336 -0.0770848 0.312924
0.137705 -0.0774205 0.312403
0.138064 -0.0777498 0.311856
0.138442 -0.078092 0.311372
0.13884 -0.0784485 0.310953
0.139276 -0.0788309 0.310655
0.139707 -0.0792101 0.310343
0.140173 -0.0796133 0.310139
0.140633 -0.0800131 0.309919
0.141093 -0.0804121 0.309698
0.141522 -0.0807892 0.309381
0.141973 -0.0811824 0.309135
0.142376 -0.0815412 0.308743
0.14283 -0.0819364 0.308507
0.143263 -0.0823159 0.308207
0.143712 -0.0827074 0.307958
0.144197 -0.0831245 0.307816
0.144755 -0.0835923 0.307889
0.145309 -0.0840575 0.307947
0.145901 -0.0845504 0.308118
0.146055 -0.0855074 0.30827
0.146505 -0.0850518 0.308321
0.146609 -0.0859735 0.308323
0.147071 -0.0855254 0.308406
0.11921 -0.0593369 0.34564
0.119626 -0.0597163 0.345086
0.120016 -0.0600781 0.344428
0.120367 -0.0604141 0.343615
0.120685 -0.0607285 0.342677
0.121047 -0.0610707 0.341921
0.121413 -0.061416 0.341193
0.121808 -0.0617796 0.340582
0.1222 -0.0621406 0.339963
0.122568 -0.0624864 0.339257
0.122946 -0.0628379 0.338595
0.123335 -0.0631961 0.337977
0.123735 -0.0635625 0.337412
0.124157 -0.0639418 0.33693
0.124596 -0.0643331 0.33652
0.125048 -0.0647326 0.33616
0.125493 -0.0651268 0.335773
0.125947 -0.0655269 0.335422
0.126399 -0.0659263 0.335069
0.12684 -0.0663183 0.334676
0.127239 -0.0666821 0.334129
0.127653 -0.0670556 0.33364
0.128056 -0.0674213 0.333115
0.128469 -0.0677944 0.332631
0.128941 -0.0682056 0.33236
0.129449 -0.0686421 0.332225
0.129983 -0.0690952 0.332179
0.130526 -0.0695543 0.332164
0.131066 -0.0700117 0.332136
0.131573 -0.0704471 0.331991
0.132057 -0.0708664 0.331762
0.132526 -0.071277 0.331487
0.132972 -0.0716705 0.331128
0.133439 -0.0720792 0.330846
0.133888 -0.072475 0.330501
0.134326 -0.0728635 0.33012
0.134738 -0.073234 0.329651
0.135144 -0.0736009 0.329167
0.135518 -0.0739456 0.328578
0.135928 -0.0743148 0.328112
0.136295 -0.0746542 0.327505
0.136586 -0.0749425 0.326651
0.136748 -0.0751415 0.325372
0.136835 -0.0752893 0.323859
0.136797 -0.0753511 0.321946
0.136762 -0.0754137 0.32006
0.136754 -0.0754939 0.318274
0.136811 -0.0756187 0.316718
0.136907 -0.0757695 0.315298
0.137092 -0.0759804 0.314176
0.137353 -0.0762436 0.313305
0.137664 -0.0765407 0.3126
0.138034 -0.0768782 0.312085
0.138403 -0.0772153 0.311572
0.138793 -0.0775661 0.311126
0.139182 -0.0779168 0.310682
0.139618 -0.0782998 0.310384
0.140059 -0.0786858 0.310103
0.140534 -0.0790959 0.309929
0.141009 -0.0795052 0.309753
0.141493 -0.0799211 0.309605
0.141945 -0.0803146 0.309359
0.142395 -0.0807074 0.30911
0.142809 -0.081074 0.30875
0.143265 -0.0814707 0.308519
0.143688 -0.0818443 0.308191
0.144129 -0.08223 0.307916
0.144624 -0.0826536 0.307804
0.145158 -0.0831045 0.307805
0.1457 -0.0835606 0.307826
0.146291 -0.084052 0.307992
0.146906 -0.0845603 0.308226
0.147474 -0.0850354 0.308317
0.120195 -0.059282 0.345593
0.120572 -0.0596364 0.344879
0.1209 -0.0599594 0.343974
0.121205 -0.0602669 0.342984
0.121545 -0.0605973 0.342146
0.1219 -0.0609357 0.341369
0.122284 -0.0612929 0.340714
0.122674 -0.0616541 0.340088
0.123054 -0.062008 0.339428
0.123443 -0.0623682 0.33881
0.123844 -0.0627359 0.338242
0.124255 -0.0631095 0.337716
0.124675 -0.0634887 0.337227
0.125096 -0.0638683 0.336744
0.125537 -0.0642612 0.336341
0.125979 -0.0646542 0.335944
0.126434 -0.0650556 0.335596
0.126887 -0.0654557 0.335244
0.127339 -0.0658554 0.334891
0.127747 -0.066226 0.334377
0.128161 -0.0666003 0.333889
0.128573 -0.0669728 0.333395
0.128989 -0.0673482 0.332918
0.12945 -0.067753 0.332608
0.129946 -0.068181 0.332426
0.130455 -0.0686176 0.332288
0.130964 -0.069054 0.33215
0.131481 -0.0694957 0.332041
0.131977 -0.0699235 0.331856
0.13245 -0.0703361 0.331591
0.13292 -0.0707467 0.331315
0.133376 -0.0711485 0.330996
0.133846 -0.0715586 0.330722
0.134308 -0.0719635 0.330422
0.134771 -0.0723692 0.330128
0.135207 -0.0727567 0.329742
0.13565 -0.073149 0.329382
0.136072 -0.0735267 0.328952
0.136507 -0.0739133 0.32857
0.13692 -0.0742851 0.328116
0.137259 -0.0746066 0.327418
0.137468 -0.0748406 0.326297
0.137613 -0.0750306 0.324973
0.13752 -0.0750583 0.322879
0.137393 -0.0750629 0.320695
0.137278 -0.0750743 0.318566
0.137221 -0.0751242 0.316644
0.137201 -0.0751985 0.314856
0.137397 -0.0754195 0.313775
0.13766 -0.0756847 0.312912
0.137982 -0.0759902 0.312244
0.138351 -0.0763281 0.311729
0.13873 -0.0766729 0.311251
0.13912 -0.0770244 0.310807
0.139511 -0.0773764 0.310367
0.139957 -0.0777662 0.310103
0.140409 -0.0781603 0.309857
0.140885 -0.0785711 0.309687
0.141372 -0.0789889 0.309548
0.141868 -0.0794131 0.309438
0.142309 -0.0797991 0.309158
0.142746 -0.0801826 0.308869
0.143181 -0.0805643 0.308573
0.143649 -0.0809698 0.308381
0.144081 -0.0813489 0.308076
0.144532 -0.0817422 0.307834
0.145039 -0.0821738 0.307754
0.145548 -0.0826071 0.307681
0.146065 -0.0830457 0.307629
0.146654 -0.083535 0.307788
0.147282 -0.0840507 0.308056
0.147865 -0.0845363 0.308192
0.148039 -0.0855079 0.308396
0.148447 -0.0850209 0.308322
0.149995 -0.0869603 0.312476
0.148988 -0.0854769 0.30833
0.120351 -0.0584664 0.346667
0.120744 -0.0588322 0.346011
0.121128 -0.0591927 0.345328
0.121444 -0.0595092 0.344373
0.121739 -0.0598127 0.343345
0.122058 -0.0601301 0.342418
0.122397 -0.0604606 0.341582
0.122758 -0.0608045 0.340837
0.123146 -0.0611653 0.340207
0.123528 -0.0615219 0.339554
0.12393 -0.0618908 0.338984
0.124352 -0.0622722 0.338495
0.124774 -0.0626542 0.338012
0.125197 -0.0630356 0.33753
0.125618 -0.063416 0.337047
0.126057 -0.0638084 0.336637
0.126489 -0.0641958 0.336201
0.126952 -0.0646029 0.335883
0.127406 -0.0650045 0.335534
0.127859 -0.0654047 0.335181
0.128266 -0.0657748 0.33466
0.128679 -0.0661496 0.334169
0.129082 -0.066517 0.333639
0.129498 -0.0668934 0.333165
0.129949 -0.0672915 0.332815
0.130422 -0.0677047 0.332549
0.130906 -0.0681247 0.332321
0.13139 -0.0685449 0.332094
0.131885 -0.0689724 0.331906
0.132371 -0.0693932 0.331684
0.132844 -0.0698068 0.331423
0.133316 -0.0702185 0.331154
0.133787 -0.0706296 0.330883
0.134269 -0.0710488 0.330654
0.134744 -0.0714622 0.330397
0.135229 -0.071883 0.330178
0.1357 -0.0722943 0.329911
0.136169 -0.0727038 0.329636
0.136613 -0.0730972 0.329281
0.13707 -0.0734989 0.32897
0.137517 -0.0738942 0.328627
0.137894 -0.0742416 0.328051
0.138157 -0.0745142 0.327109
0.138358 -0.0747437 0.325967
0.138184 -0.0747224 0.323614
0.137948 -0.0746575 0.321077
0.137686 -0.0745742 0.318478
0.137507 -0.0745456 0.316169
0.137492 -0.074627 0.314407
0.137704 -0.0748594 0.313377
0.137977 -0.0751337 0.312552
0.138312 -0.0754488 0.311928
0.13868 -0.0757869 0.311412
0.139069 -0.0761383 0.310965
0.139459 -0.0764903 0.310522
0.139838 -0.0768352 0.310049
0.140284 -0.0772252 0.309786
0.140745 -0.0776257 0.30957
0.141225 -0.078038 0.309408
0.141725 -0.0784653 0.309311
0.142234 -0.0788982 0.30924
0.142673 -0.0792836 0.308957
0.143097 -0.0796578 0.308628
0.143541 -0.0800461 0.308361
0.144012 -0.0804536 0.308177
0.144446 -0.0808348 0.307881
0.14491 -0.0812366 0.307674
0.145414 -0.0816664 0.307587
0.145909 -0.08209 0.307474
0.146415 -0.0825207 0.307388
0.147004 -0.0830088 0.307545
0.147643 -0.083532 0.307847
0.148254 -0.084036 0.308061
0.148853 -0.0845313 0.308237
0.149421 -0.0850057 0.308322
0.120908 -0.0580185 0.347117
0.121302 -0.0583866 0.346466
0.121689 -0.0587496 0.34579
0.121989 -0.059058 0.344772
0.122273 -0.0593559 0.343699
0.122568 -0.0596604 0.342679
0.122885 -0.0599783 0.341756
0.123231 -0.060314 0.340955
0.12361 -0.06067 0.340287
0.124002 -0.0610334 0.339673
0.124415 -0.0614105 0.339148
0.124849 -0.0618005 0.338705
0.125282 -0.06219 0.338262
0.125716 -0.0625792 0.337822
0.126138 -0.0629611 0.337341
0.126578 -0.0633544 0.336933
0.127008 -0.0637413 0.336488
0.127462 -0.0641427 0.336133
0.127916 -0.0645447 0.335784
0.128369 -0.0649457 0.335429
0.128766 -0.065311 0.334874
0.129178 -0.0656852 0.334376
0.129581 -0.0660533 0.333847
0.129998 -0.0664308 0.333374
0.130439 -0.0668232 0.332987
0.130899 -0.0672278 0.332672
0.131358 -0.0676325 0.332357
0.131818 -0.0680369 0.332043
0.13229 -0.0684495 0.331774
0.132764 -0.0688629 0.331512
0.133249 -0.069284 0.33129
0.133733 -0.0697042 0.331066
0.134218 -0.0701241 0.33084
0.134712 -0.0705514 0.330652
0.135198 -0.0709725 0.330433
0.135694 -0.0714002 0.33025
0.136178 -0.0718201 0.330024
0.13666 -0.0722385 0.329793
0.137118 -0.0726418 0.329485
0.137587 -0.0730514 0.32921
0.138055 -0.0734614 0.328938
0.138469 -0.0738346 0.328484
0.13881 -0.0741598 0.327795
0.138971 -0.0743651 0.326524
0.138736 -0.0743071 0.323974
0.138416 -0.0741925 0.321176
0.138043 -0.0740401 0.318227
0.137761 -0.0739474 0.315597
0.137785 -0.0740575 0.313964
0.138033 -0.0743164 0.313056
0.138308 -0.0745929 0.31224
0.138653 -0.074916 0.311651
0.138999 -0.0752399 0.311068
0.139387 -0.075591 0.310617
0.139764 -0.0759351 0.310138
0.140142 -0.0762797 0.309662
0.140588 -0.0766694 0.309399
0.141072 -0.0770852 0.309253
0.141563 -0.0775061 0.30913
0.142078 -0.077942 0.309075
0.1426 -0.0783832 0.309043
0.143038 -0.0787681 0.308757
0.143449 -0.0791342 0.30839
0.143902 -0.0795291 0.308152
0.144363 -0.0799299 0.307938
0.144797 -0.0803113 0.307644
0.145261 -0.080713 0.307437
0.145762 -0.0811403 0.30734
0.146234 -0.081548 0.307159
0.146737 -0.0819772 0.307069
0.147328 -0.0824658 0.30723
0.147993 -0.0830051 0.307603
0.148631 -0.0835262 0.307893
0.149255 -0.0840389 0.308143
0.149849 -0.0845305 0.308299
0.121479 -0.0575766 0.347616
0.121846 -0.057929 0.346854
0.122217 -0.0582835 0.346115
0.122513 -0.0585914 0.345081
0.122787 -0.0588852 0.34397
0.123067 -0.0591824 0.342894
0.123371 -0.0594935 0.34192
0.123696 -0.0598173 0.341037
0.124065 -0.0601681 0.340333
0.124455 -0.0605318 0.339714
0.124869 -0.0609099 0.33919
0.125314 -0.061307 0.338788
0.12576 -0.0617047 0.338392
0.126205 -0.0621023 0.337996
0.126647 -0.0624971 0.337589
0.127098 -0.062898 0.337221
0.12754 -0.0632929 0.336818
0.128005 -0.0637021 0.336503
0.12846 -0.064105 0.336154
0.128904 -0.0645007 0.335765
0.129299 -0.0648658 0.335203
0.129701 -0.0652342 0.334665
0.130091 -0.0655953 0.334092
0.130497 -0.0659662 0.333577
0.130917 -0.0663456 0.333115
0.131355 -0.0667368 0.332721
0.13179 -0.0671261 0.33232
0.132225 -0.067515 0.331919
0.132685 -0.0679195 0.331606
0.133157 -0.0683326 0.331341
0.133653 -0.0687604 0.331156
0.134149 -0.0691882 0.33097
0.134645 -0.069616 0.330785
0.135141 -0.0700438 0.3306
0.135637 -0.0704716 0.330415
0.136132 -0.0708994 0.33023
0.136617 -0.0713203 0.330008
0.137101 -0.0717403 0.329784
0.137573 -0.0721524 0.329519
0.138044 -0.0725636 0.329251
0.138526 -0.0729825 0.329023
0.138975 -0.0733797 0.328686
0.139389 -0.0737531 0.328233
0.139502 -0.0739299 0.326808
0.139199 -0.0738324 0.324046
0.138375 -0.07349 0.317896
0.138012 -0.073349 0.315018
0.138085 -0.073494 0.313548
0.138376 -0.0737829 0.312779
0.138651 -0.0740606 0.311965
0.138996 -0.0743844 0.311376
0.139329 -0.0747 0.310755
0.139714 -0.0750505 0.3103
0.14008 -0.075387 0.309784
0.140457 -0.0757318 0.30931
0.140902 -0.0761213 0.309045
0.141387 -0.0765377 0.308903
0.14188 -0.0769588 0.308784
0.142395 -0.0773954 0.308733
0.142928 -0.0778439 0.308734
0.143368 -0.0782299 0.308454
0.14379 -0.0786038 0.308122
0.144242 -0.0789986 0.307882
0.144702 -0.0793979 0.307663
0.145112 -0.0797637 0.307299
0.145561 -0.0801558 0.307052
0.146049 -0.0805737 0.306916
0.146531 -0.0809881 0.306766
0.147036 -0.081418 0.306681
0.147652 -0.0819232 0.306915
0.148343 -0.0824788 0.307361
0.148995 -0.0830083 0.30769
0.149622 -0.0835217 0.307945
0.150227 -0.0840206 0.308134
0.122002 -0.0571031 0.347915
0.122369 -0.0574568 0.347154
0.122722 -0.0578015 0.346342
0.123006 -0.0581043 0.345265
0.123266 -0.0583917 0.344103
0.123535 -0.0586836 0.342985
0.123827 -0.0589891 0.341965
0.124151 -0.0593142 0.341083
0.12452 -0.0596656 0.340376
0.124911 -0.0600305 0.33976
0.125323 -0.0604082 0.339229
0.125767 -0.0608056 0.338825
0.126213 -0.0612042 0.338431
0.12667 -0.061609 0.338079
0.127126 -0.0620128 0.337722
0.127589 -0.0624215 0.337396
0.128043 -0.0628246 0.337039
0.12852 -0.0632414 0.336765
0.128987 -0.0636524 0.336458
0.129431 -0.0640486 0.336068
0.129826 -0.0644146 0.335504
0.130225 -0.0647821 0.334956
0.130613 -0.0651428 0.334374
0.130997 -0.0655009 0.333781
0.131394 -0.0658663 0.333236
0.131818 -0.0662492 0.332793
0.13224 -0.0666308 0.332346
0.132653 -0.0670063 0.331867
0.133101 -0.067404 0.331515
0.133584 -0.0678231 0.331282
0.13408 -0.068251 0.331097
0.134566 -0.0686729 0.330879
0.135062 -0.0691008 0.330694
0.135557 -0.069528 0.330505
0.136052 -0.0699551 0.330317
0.136549 -0.0703837 0.330135
0.137057 -0.0708193 0.32999
0.137554 -0.0712477 0.329808
0.138038 -0.0716682 0.329583
0.138509 -0.0720803 0.329318
0.139003 -0.0725067 0.329126
0.139477 -0.0729201 0.328868
0.139961 -0.0733402 0.328645
0.139973 -0.0734536 0.326893
0.139629 -0.0733348 0.324008
0.139186 -0.0731501 0.320831
0.138691 -0.07293 0.317514
0.138244 -0.0727395 0.314379
0.138418 -0.0729536 0.313238
0.13871 -0.0732435 0.312473
0.138983 -0.0735216 0.311657
0.139326 -0.0738451 0.311065
0.139656 -0.0741593 0.310434
0.140029 -0.0745023 0.309944
0.140392 -0.0748381 0.309424
0.140771 -0.0751842 0.308955
0.141217 -0.0755743 0.308693
0.141702 -0.0759905 0.308553
0.142192 -0.0764105 0.308428
0.142718 -0.0768536 0.30841
0.143264 -0.0773099 0.308448
0.143717 -0.077705 0.30821
0.144152 -0.0780885 0.307918
0.144616 -0.0784905 0.307712
0.145074 -0.0788889 0.30749
0.145481 -0.079253 0.307116
0.145929 -0.0796442 0.306864
0.146405 -0.0800547 0.306696
0.146887 -0.0804683 0.306543
0.147405 -0.0809072 0.306497
0.148024 -0.0814129 0.306738
0.148719 -0.081971 0.307196
0.149384 -0.082508 0.307559
0.150011 -0.0830205 0.307813
0.150605 -0.0835107 0.307969
0.122019 -0.0561901 0.348421
0.122463 -0.0565913 0.347966
0.122849 -0.0569571 0.34728
0.123203 -0.0573043 0.346475
0.123497 -0.0576138 0.345435
0.123755 -0.0579024 0.344268
0.124013 -0.05819 0.343111
0.124313 -0.0585017 0.342123
0.124639 -0.0588287 0.341246
0.124997 -0.0591753 0.340501
0.125387 -0.0595409 0.339884
0.125797 -0.059918 0.339344
0.12623 -0.0603089 0.338896
0.126666 -0.0607017 0.338463
0.127123 -0.0611074 0.338113
0.127591 -0.0615192 0.337801
0.128068 -0.0619368 0.337526
0.128536 -0.0623487 0.337219
0.129025 -0.0627735 0.336988
0.129493 -0.0631853 0.336683
0.129925 -0.0635753 0.336251
0.130298 -0.0639277 0.335604
0.130674 -0.0642817 0.334975
0.13104 -0.0646294 0.334313
0.131421 -0.0649866 0.333712
0.131815 -0.0653511 0.333158
0.132248 -0.0657399 0.332746
0.13268 -0.0661276 0.33233
0.133104 -0.0665109 0.331893
0.133553 -0.0669094 0.331543
0.134036 -0.0673299 0.331314
0.134533 -0.067758 0.331129
0.135019 -0.0681798 0.330911
0.135505 -0.068601 0.330689
0.135987 -0.0690205 0.330457
0.136481 -0.069447 0.330264
0.136978 -0.0698758 0.330083
0.137489 -0.0703133 0.329948
0.137987 -0.0707429 0.32977
0.138482 -0.0711695 0.329578
0.138951 -0.0715808 0.329305
0.139445 -0.0720076 0.329113
0.139932 -0.0724295 0.328899
0.140279 -0.0727619 0.328231
0.140107 -0.07276 0.32589
0.139714 -0.0726152 0.322864
0.139239 -0.0724153 0.319598
0.138734 -0.0721946 0.316266
0.138435 -0.0721055 0.313615
0.13876 -0.0724187 0.312955
0.139062 -0.0727169 0.312226
0.139324 -0.072989 0.311379
0.139654 -0.0733046 0.310748
0.139971 -0.0736113 0.310078
0.14032 -0.0739391 0.309516
0.140672 -0.0742684 0.308965
0.141061 -0.0746218 0.30853
0.141497 -0.0750058 0.30824
0.141992 -0.0754284 0.308131
0.142492 -0.075854 0.308035
0.143016 -0.0762959 0.308012
0.143563 -0.0767525 0.308055
0.144041 -0.0771637 0.307889
0.144491 -0.0775568 0.307643
0.144957 -0.0779607 0.307445
0.145416 -0.0783594 0.307223
0.145832 -0.0787302 0.306879
0.146279 -0.0791207 0.306626
0.146755 -0.0795313 0.306458
0.14725 -0.0799543 0.306345
0.147793 -0.080409 0.30637
0.148416 -0.0809165 0.306619
0.149112 -0.081473 0.307075
0.149776 -0.0820088 0.307435
0.150402 -0.0825194 0.307683
0.150983 -0.0830012 0.307804
0.121539 -0.0557678 0.348739
0.121058 -0.0553445 0.349049
0.121446 -0.0547878 0.348802
0.12195 -0.0552249 0.348585
0.122445 -0.0556565 0.348331
0.122919 -0.0560751 0.347992
0.123329 -0.0564567 0.347403
0.123685 -0.0568055 0.346604
0.123988 -0.0571227 0.345604
0.124245 -0.0574126 0.344436
0.124503 -0.0577013 0.343277
0.124792 -0.0580093 0.342254
0.125127 -0.0583432 0.341413
0.125476 -0.0586853 0.340631
0.125866 -0.0590515 0.340014
0.126255 -0.0594172 0.339397
0.126674 -0.0598004 0.338897
0.127097 -0.0601856 0.338414
0.127554 -0.0605914 0.338061
0.128023 -0.0610043 0.337755
0.128502 -0.0614234 0.337488
0.128991 -0.0618484 0.337258
0.129471 -0.0622679 0.336994
0.129928 -0.0626733 0.336649
0.130339 -0.0630502 0.336137
0.130687 -0.0633889 0.335406
0.131028 -0.0637218 0.33465
0.13138 -0.0640622 0.333943
0.13175 -0.064413 0.333305
0.132144 -0.0647786 0.332755
0.132599 -0.065181 0.33242
0.133054 -0.0655838 0.332088
0.133504 -0.0659837 0.331742
0.133977 -0.0663977 0.331477
0.134483 -0.0668317 0.331324
0.13499 -0.0672668 0.331175
0.135478 -0.0676899 0.330961
0.135963 -0.068111 0.330736
0.136443 -0.0685289 0.330495
0.136936 -0.0689549 0.330298
0.137434 -0.0693842 0.330118
0.137948 -0.0698236 0.329991
0.138447 -0.0702537 0.329816
0.13893 -0.0706731 0.329584
0.139384 -0.0710748 0.329261
0.139876 -0.0715003 0.329062
0.140375 -0.0719303 0.328886
0.140572 -0.0721687 0.327737
0.140266 -0.0720853 0.324974
0.13987 -0.0719441 0.321951
0.139404 -0.071756 0.318728
0.138924 -0.0715573 0.315491
0.138785 -0.0715754 0.313356
0.1391 -0.0718833 0.312667
0.139402 -0.0721825 0.311941
0.139654 -0.0724494 0.311064
0.139969 -0.0727564 0.310391
0.140273 -0.0730563 0.309686
0.140598 -0.0733688 0.30905
0.14095 -0.0736985 0.3085
0.141349 -0.0740593 0.3081
0.141775 -0.0744368 0.307781
0.142269 -0.0748582 0.307668
0.142768 -0.0752834 0.307572
0.143281 -0.0757173 0.307515
0.143828 -0.0761739 0.307561
0.14433 -0.0766008 0.307469
0.144805 -0.07701 0.307296
0.145297 -0.0774308 0.307175
0.145758 -0.0778311 0.306961
0.146175 -0.0782025 0.30662
0.146621 -0.0785934 0.306366
0.147111 -0.0790121 0.306237
0.147622 -0.0794453 0.306169
0.148201 -0.0799237 0.306298
0.148836 -0.0804385 0.306581
0.149531 -0.0809934 0.307032
0.15018 -0.081518 0.307348
0.150792 -0.0820187 0.307555
0.151362 -0.0824913 0.307638
0.121837 -0.0542333 0.348568
0.122346 -0.0546726 0.348368
0.122869 -0.0551206 0.348226
0.123358 -0.0555485 0.347949
0.123783 -0.0559398 0.347421
0.124148 -0.0562948 0.346658
0.12446 -0.0566192 0.345697
0.124709 -0.0569057 0.344496
0.124975 -0.0572021 0.343375
0.125275 -0.0575174 0.342393
0.125609 -0.0578524 0.341551
0.125958 -0.0581958 0.340772
0.126347 -0.0585624 0.34015
0.126723 -0.0589213 0.339485
0.127131 -0.0592986 0.338944
0.127541 -0.0596767 0.338412
0.127995 -0.0600815 0.33805
0.128463 -0.0604936 0.337738
0.128942 -0.0609128 0.337469
0.129311 -0.0612659 0.336801
0.12967 -0.0616123 0.336099
0.13004 -0.0619652 0.335443
0.130378 -0.0622992 0.33468
0.130676 -0.0626072 0.333773
0.131097 -0.0629905 0.333317
0.131541 -0.0633868 0.33294
0.131965 -0.0637715 0.332499
0.132406 -0.0641658 0.332118
0.132909 -0.0645987 0.331957
0.133403 -0.065025 0.33176
0.133878 -0.0654402 0.331501
0.134376 -0.0658699 0.331322
0.134907 -0.0663191 0.331254
0.135427 -0.0667621 0.331149
0.135926 -0.0671918 0.33097
0.136421 -0.0676196 0.330781
0.136902 -0.0680384 0.330542
0.137394 -0.068464 0.330341
0.137892 -0.0688935 0.33016
0.138406 -0.0693327 0.330032
0.138906 -0.0697631 0.329856
0.139387 -0.0701823 0.329622
0.13984 -0.0705835 0.329294
0.140332 -0.0710088 0.329093
0.140831 -0.071439 0.328917
0.140847 -0.0715651 0.327186
0.140492 -0.0714559 0.324278
0.14004 -0.0712847 0.321089
0.139559 -0.0710934 0.317834
0.139083 -0.0709034 0.314623
0.139103 -0.0710258 0.312999
0.139429 -0.0713419 0.312348
0.139733 -0.0716428 0.311629
0.139994 -0.071917 0.310785
0.140297 -0.0722177 0.310076
0.140597 -0.0725154 0.30936
0.14091 -0.0728214 0.308689
0.141259 -0.0731504 0.308135
0.141647 -0.073504 0.307702
0.142072 -0.0738811 0.307381
0.142555 -0.0742957 0.307238
0.143043 -0.0747128 0.307106
0.143545 -0.0751396 0.307019
0.14409 -0.0755947 0.30706
0.144603 -0.076028 0.307001
0.145102 -0.0764534 0.306902
0.145635 -0.0768996 0.306899
0.146132 -0.0773241 0.306794
0.146584 -0.0777183 0.306555
0.147055 -0.0781249 0.30637
0.14756 -0.0785541 0.306285
0.148085 -0.0789962 0.306257
0.14867 -0.0794773 0.306399
0.149304 -0.0799909 0.306677
0.149975 -0.0805287 0.307057
0.150609 -0.0810431 0.307328
0.151196 -0.0815261 0.307461
0.151752 -0.0819893 0.307507
0.12325 -0.0545601 0.347954
0.123766 -0.0550037 0.347782
0.124212 -0.0554073 0.347336
0.1246 -0.0557776 0.346669
0.124924 -0.0561097 0.345754
0.12518 -0.0564029 0.344587
0.125456 -0.0567066 0.343507
0.125767 -0.0570303 0.34257
0.126114 -0.0573737 0.341774
0.126471 -0.0577231 0.341027
0.126849 -0.0580841 0.340362
0.127213 -0.0584369 0.339651
0.127609 -0.058808 0.339065
0.127997 -0.0591741 0.338452
0.128429 -0.0595664 0.33801
0.128884 -0.0599712 0.33765
0.129351 -0.0603835 0.337337
0.129687 -0.0607178 0.33655
0.129884 -0.0609689 0.335266
0.130096 -0.0612285 0.334047
0.130279 -0.0614697 0.332734
0.130503 -0.061735 0.33158
0.130879 -0.0620903 0.330971
0.13138 -0.0625211 0.330809
0.131863 -0.0629414 0.330587
0.132406 -0.0633968 0.33057
0.133004 -0.0638861 0.330744
0.1336 -0.0643748 0.330908
0.134156 -0.0648387 0.330929
0.134722 -0.0653098 0.330986
0.135288 -0.0657803 0.331038
0.135834 -0.0662386 0.331019
0.136357 -0.066683 0.330922
0.136865 -0.0671192 0.330776
0.137359 -0.0675458 0.33058
0.137853 -0.0679727 0.330385
0.138351 -0.0684021 0.330202
0.138862 -0.0688397 0.330064
0.139361 -0.0692696 0.329885
0.139843 -0.0696894 0.329652
0.140311 -0.0700998 0.329371
0.140814 -0.0705325 0.329207
0.141326 -0.0709703 0.329069
0.141151 -0.0709809 0.32673
0.140738 -0.0708416 0.323651
0.140224 -0.0706374 0.320277
0.139711 -0.0704316 0.316934
0.139225 -0.070241 0.313705
0.139413 -0.070472 0.312618
0.139761 -0.0708025 0.312038
0.140086 -0.0711185 0.311389
0.140347 -0.0713937 0.310546
0.140638 -0.071687 0.309799
0.140936 -0.0719847 0.309081
0.141235 -0.0722833 0.308373
0.141572 -0.0726055 0.307783
0.141949 -0.0729522 0.307317
0.142361 -0.0733209 0.306958
0.142831 -0.0737273 0.306778
0.143306 -0.0741361 0.306609
0.143805 -0.0745609 0.306513
0.144349 -0.0750145 0.306552
0.144885 -0.0754622 0.306561
0.145411 -0.0759043 0.306541
0.145982 -0.076375 0.306651
0.146508 -0.0768173 0.306629
0.147009 -0.0772438 0.306534
0.147503 -0.0776656 0.306416
0.148022 -0.0781037 0.306371
0.148551 -0.0785481 0.306352
0.149137 -0.0790292 0.306492
0.14976 -0.0795347 0.306739
0.150406 -0.0800557 0.307045
0.151027 -0.0805601 0.307277
0.1516 -0.0810332 0.307369
0.152142 -0.0814879 0.307377
0.123676 -0.0540253 0.347856
0.1242 -0.0544739 0.34772
0.124654 -0.0548823 0.347305
0.125051 -0.0552582 0.346671
0.125393 -0.0556028 0.345832
0.125659 -0.055903 0.344704
0.125947 -0.0562156 0.343671
0.12627 -0.0565476 0.342781
0.126628 -0.0568988 0.342029
0.126976 -0.0572446 0.341249
0.127351 -0.0576048 0.340571
0.127703 -0.0579518 0.339816
0.128088 -0.0583173 0.339189
0.128464 -0.0586772 0.338532
0.128887 -0.0590643 0.338054
0.129182 -0.0593768 0.337111
0.12948 -0.0596899 0.336185
0.129598 -0.059897 0.334616
0.129632 -0.0600537 0.332758
0.12971 -0.0602357 0.331076
0.129885 -0.0604738 0.329755
0.130175 -0.0607789 0.328852
0.130614 -0.061172 0.328482
0.131149 -0.0616216 0.32845
0.131681 -0.0620698 0.328405
0.132274 -0.0625549 0.328575
0.132894 -0.0630556 0.32883
0.13352 -0.0635607 0.329105
0.134185 -0.0640896 0.329508
0.134844 -0.0646151 0.329886
0.135496 -0.0651366 0.330233
0.136137 -0.0656522 0.330539
0.13676 -0.0661566 0.330778
0.137283 -0.0666012 0.33068
0.13779 -0.0670369 0.330531
0.138298 -0.0674716 0.330379
0.138807 -0.0679078 0.330233
0.139317 -0.0683453 0.330092
0.139816 -0.0687753 0.329913
0.1403 -0.0691958 0.329682
0.140782 -0.0696154 0.329447
0.14129 -0.070051 0.329296
0.141803 -0.0704902 0.329164
0.141435 -0.0703858 0.326213
0.140977 -0.0702238 0.323001
0.140411 -0.0699941 0.319478
0.139873 -0.0697792 0.316071
0.139374 -0.0695864 0.312816
0.139742 -0.06993 0.312296
0.140103 -0.0702705 0.31176
0.140452 -0.0706018 0.311186
0.140714 -0.0708792 0.31035
0.141015 -0.0711796 0.309636
0.1413 -0.071471 0.308883
0.141587 -0.0717625 0.308138
0.141902 -0.0720711 0.307481
0.142276 -0.0724171 0.307009
0.142664 -0.0727712 0.306579
0.14313 -0.0731744 0.306386
0.143602 -0.0735818 0.306212
0.144089 -0.0739984 0.306081
0.144622 -0.0744445 0.306087
0.145179 -0.0749059 0.306161
0.14573 -0.0753632 0.306214
0.146332 -0.0758527 0.306413
0.146899 -0.076321 0.30651
0.147451 -0.0767796 0.306561
0.147974 -0.07722 0.306526
0.148507 -0.0776665 0.306518
0.149035 -0.07811 0.306495
0.149617 -0.0785878 0.306622
0.150227 -0.0790846 0.306829
0.150849 -0.0795889 0.307065
0.151447 -0.0800783 0.30723
0.152004 -0.0805411 0.307279
0.124596 -0.0539215 0.347502
0.125037 -0.0543232 0.347039
0.125436 -0.0547011 0.346416
0.125798 -0.0550585 0.345658
0.126075 -0.0553669 0.344578
0.126396 -0.0556998 0.343674
0.126733 -0.0560406 0.342837
0.127112 -0.0564056 0.342169
0.12747 -0.0567579 0.341425
0.127846 -0.0571198 0.340751
0.128197 -0.0574672 0.339992
0.128586 -0.057836 0.339381
0.128808 -0.0581084 0.338157
0.129052 -0.0583932 0.337027
0.129157 -0.0585965 0.335397
0.129281 -0.0588109 0.333857
0.129163 -0.0588829 0.331452
0.129476 -0.0594799 0.326745
0.129822 -0.0598176 0.326053
0.130323 -0.0602465 0.325916
0.130883 -0.0607103 0.325984
0.131454 -0.0611801 0.326086
0.13207 -0.0616773 0.326344
0.132711 -0.0621888 0.32668
0.133364 -0.0627085 0.327056
0.134068 -0.0632587 0.327599
0.134831 -0.0638445 0.328336
0.135597 -0.0644321 0.329072
0.136341 -0.0650077 0.329728
0.137065 -0.065572 0.330308
0.137687 -0.0660757 0.330541
0.138208 -0.066519 0.330436
0.138717 -0.0669552 0.33029
0.139228 -0.0673923 0.330148
0.139739 -0.0678298 0.330009
0.140238 -0.0682597 0.329828
0.140723 -0.0686809 0.329601
0.14123 -0.069116 0.329447
0.141764 -0.0695677 0.32938
0.142305 -0.0700235 0.329334
0.141911 -0.0699091 0.326311
0.141409 -0.0697269 0.322971
0.140793 -0.0694728 0.3193
0.140211 -0.0692374 0.315767
0.139674 -0.0690274 0.312406
0.140058 -0.0693817 0.311937
0.140444 -0.0697372 0.311478
0.140806 -0.0700783 0.310949
0.141082 -0.0703646 0.310155
0.141384 -0.0706676 0.309449
0.141667 -0.0709582 0.308689
0.141952 -0.0712499 0.307941
0.142265 -0.0715586 0.307282
0.142628 -0.071898 0.306777
0.143024 -0.0722577 0.306373
0.143477 -0.072653 0.306142
0.143935 -0.0730519 0.305928
0.144411 -0.0734612 0.305764
0.144955 -0.0739136 0.305802
0.145516 -0.0743766 0.305886
0.146092 -0.0748493 0.306011
0.146732 -0.0753623 0.306321
0.147339 -0.0758554 0.306533
0.147923 -0.0763329 0.306671
0.148473 -0.0767906 0.306714
0.149007 -0.077238 0.306708
0.149533 -0.0776797 0.306675
0.1501 -0.0781479 0.306758
0.150708 -0.0786426 0.306957
0.151318 -0.0791386 0.307157
0.151916 -0.0796264 0.307319
0.152461 -0.0800813 0.307331
0.124488 -0.0529332 0.347509
0.124966 -0.0533561 0.347191
0.125398 -0.0537533 0.346695
0.125803 -0.0541352 0.346096
0.126188 -0.0545055 0.345426
0.126479 -0.0548236 0.344403
0.126825 -0.055172 0.343599
0.127193 -0.0555317 0.342882
0.127594 -0.0559098 0.342297
0.127964 -0.0562695 0.341597
0.12835 -0.0566383 0.340963
0.128722 -0.0569987 0.34028
0.129108 -0.0573668 0.339656
0.129126 -0.0575262 0.33769
0.12913 -0.0576759 0.33569
0.128922 -0.0582733 0.325146
0.12914 -0.0585385 0.324014
0.129542 -0.0589091 0.323535
0.130096 -0.0593676 0.323594
0.13066 -0.0598325 0.323686
0.131255 -0.0603157 0.323883
0.131892 -0.0608226 0.324217
0.132539 -0.0613365 0.324583
0.133207 -0.061863 0.325018
0.133942 -0.062429 0.325671
0.134776 -0.0630541 0.326653
0.135617 -0.0636839 0.327647
0.136456 -0.0643137 0.328624
0.137272 -0.0649304 0.329512
0.137989 -0.0654889 0.330061
0.138545 -0.0659529 0.330073
0.139089 -0.0664097 0.330042
0.139612 -0.0668541 0.329942
0.140137 -0.0672997 0.329846
0.140636 -0.0677295 0.329666
0.141131 -0.0681579 0.329475
0.141661 -0.0686065 0.329394
0.142223 -0.0690739 0.329412
0.142792 -0.0695467 0.329455
0.142375 -0.0694245 0.326369
0.141832 -0.0692231 0.322907
0.141169 -0.0689476 0.319102
0.140542 -0.068692 0.315443
0.139977 -0.0684714 0.312005
0.140395 -0.0688466 0.311643
0.140806 -0.0692178 0.311263
0.141195 -0.0695755 0.310817
0.141482 -0.0698709 0.310063
0.141773 -0.0701682 0.309325
0.142043 -0.0704517 0.308525
0.142325 -0.0707428 0.307771
0.142626 -0.0710453 0.307078
0.14299 -0.0713858 0.306578
