ply
format ascii 1.0
element vertex 1726
property float x
property float y
property float z
end_header
0.25473 0.0340982 0.734878
0.256351 0.0348685 0.735267
0.257957 0.0356055 0.735547
0.259561 0.0363338 0.735798
0.261152 0.0370308 0.735948
0.262772 0.0377872 0.736282
0.264404 0.0385619 0.736671
0.26608 0.0394218 0.737322
0.267846 0.0404533 0.738501
0.269659 0.0415678 0.739931
0.271556 0.0428388 0.741838
0.273515 0.0442144 0.744057
0.275489 0.0456075 0.74632
0.277395 0.0468583 0.748134
0.279434 0.0483504 0.750679
0.281543 0.0499572 0.753562
0.28362 0.0514894 0.756204
0.287172 0.0530339 0.763936
0.285649 0.0529178 0.758517
0.142259 -0.00103434 0.772653
0.143792 -0.000572687 0.771973
0.145314 -0.00019988 0.770965
0.146826 0.000100288 0.76969
0.148322 0.000304297 0.768064
0.149804 0.000425552 0.766138
0.151278 0.000522139 0.764131
0.152756 0.000691437 0.762398
0.154223 0.000810091 0.760487
0.155686 0.000931775 0.758595
0.157155 0.00113177 0.756997
0.158648 0.00149969 0.756016
0.160138 0.00186228 0.75502
0.161637 0.00228641 0.75425
0.163151 0.00280246 0.753814
0.164654 0.00326329 0.753181
0.166146 0.00367444 0.75237
0.167632 0.00405917 0.751467
0.16912 0.00446239 0.750632
0.170593 0.00480592 0.749588
0.172077 0.00520597 0.748749
0.173561 0.00561553 0.747945
0.175062 0.00611145 0.747451
0.17657 0.00663792 0.747065
0.178103 0.00727426 0.747067
0.179675 0.0080709 0.747632
0.181501 0.0099006 0.75182
0.183389 0.0119299 0.756686
0.185284 0.0139302 0.761426
0.187138 0.0157106 0.765375
0.188884 0.0170352 0.767719
0.190439 0.0176149 0.767466
0.191991 0.018185 0.76718
0.19357 0.0188552 0.767238
0.195151 0.0195261 0.767299
0.196755 0.0202728 0.767617
0.198398 0.0211452 0.768364
0.200015 0.0219246 0.768788
0.201675 0.0228338 0.769651
0.203249 0.0234552 0.769529
0.204774 0.02392 0.768874
0.20624 0.0242013 0.7676
0.207726 0.0245527 0.766566
0.20916 0.0247529 0.765026
0.21068 0.0252225 0.764399
0.212157 0.0255661 0.76335
0.213586 0.025776 0.761856
0.214977 0.0258873 0.760039
0.216328 0.0258957 0.757885
0.21764 0.0258116 0.755433
0.218966 0.0257821 0.753172
0.220301 0.0257915 0.751048
0.221679 0.0259321 0.749366
0.223093 0.0261773 0.748035
0.224595 0.0266627 0.747499
0.226184 0.0273754 0.747709
0.227818 0.0282023 0.748291
0.2294 0.0288879 0.748408
0.230981 0.0295715 0.748516
0.232517 0.0301371 0.748239
0.233918 0.0303742 0.746896
0.235228 0.0303965 0.744862
0.236545 0.0304457 0.742924
0.237829 0.0304294 0.740781
0.239092 0.0303741 0.738521
0.240486 0.0306371 0.737292
0.241951 0.0310708 0.736613
0.243431 0.0315393 0.736047
0.244932 0.0320585 0.735643
0.246453 0.0326204 0.735375
0.24794 0.0331083 0.734873
0.249472 0.0336976 0.734692
0.251066 0.0344189 0.734928
0.252678 0.035175 0.735272
0.254292 0.0359331 0.735618
0.255938 0.036755 0.736162
0.257586 0.0375764 0.736701
0.259241 0.0384088 0.73727
0.260867 0.0391749 0.737629
0.262533 0.0400195 0.73823
0.264217 0.0408954 0.738923
0.265927 0.0418172 0.739754
0.267699 0.0428571 0.740945
0.269541 0.0440266 0.742529
0.271461 0.0453396 0.744546
0.27343 0.046735 0.746806
0.275421 0.0481605 0.749147
0.277352 0.0494571 0.751083
0.279382 0.0509301 0.753547
0.281392 0.0523521 0.755844
0.283367 0.0536931 0.757884
0.285309 0.0549658 0.759706
0.141626 0.000434843 0.772156
0.143163 0.000924555 0.771582
0.144688 0.00132121 0.770666
0.146205 0.00166268 0.76955
0.14771 0.00191919 0.768124
0.149197 0.00206528 0.766299
0.150673 0.00215839 0.764287
0.152149 0.00229574 0.762445
0.153617 0.00240744 0.760517
0.155081 0.00252438 0.758616
0.156553 0.00272632 0.757031
0.158044 0.00307088 0.755969
0.159539 0.00345568 0.755056
0.161038 0.00387378 0.754266
0.162549 0.0043692 0.753756
0.164053 0.00483089 0.753126
0.165547 0.0052433 0.752322
0.167033 0.00562277 0.751403
0.168521 0.00602432 0.750565
0.169997 0.00636939 0.749529
0.171476 0.00674181 0.748594
0.172959 0.00714582 0.747774
0.174455 0.00760889 0.747164
0.175956 0.00810555 0.746673
0.177477 0.00868766 0.746484
0.179029 0.00940376 0.746762
0.180922 0.0115387 0.75199
0.182869 0.0138295 0.757733
0.184778 0.0158939 0.762663
0.186667 0.0178218 0.767094
0.188374 0.0189914 0.768881
0.189873 0.0193538 0.767875
0.191399 0.0198225 0.767237
0.192936 0.0203356 0.766754
0.19448 0.0208781 0.766372
0.196055 0.021528 0.766357
0.197685 0.0223623 0.76697
0.199282 0.0230811 0.767185
0.200927 0.0239505 0.76791
0.202514 0.0246217 0.767958
0.204085 0.0252364 0.767814
0.205605 0.0256908 0.767129
0.207128 0.0261555 0.766481
0.208606 0.0264833 0.765375
0.210136 0.0269796 0.764837
0.211616 0.027324 0.763792
0.213061 0.0275748 0.76244
0.2145 0.0278152 0.761057
0.215892 0.0279283 0.759258
0.217265 0.0280011 0.757332
0.218618 0.028032 0.755275
0.21997 0.0280727 0.753259
0.221372 0.0282626 0.751741
0.222823 0.0285936 0.750691
0.224344 0.0291165 0.750271
0.225975 0.0299316 0.750806
0.227641 0.0308293 0.751605
0.229245 0.0315593 0.751855
0.230846 0.0322807 0.752074
0.2324 0.0328788 0.751893
0.233799 0.0330909 0.750466
0.235125 0.033134 0.7485
0.23641 0.033086 0.746249
0.23763 0.0328977 0.743557
0.238838 0.0326965 0.740835
0.240191 0.0328495 0.739253
0.241621 0.0331914 0.738279
0.243069 0.0335807 0.737457
0.244585 0.0341253 0.73713
0.246095 0.0346591 0.736769
0.247583 0.0351418 0.736247
0.249091 0.0356719 0.735876
0.250712 0.0364483 0.736279
0.252325 0.0372054 0.736617
0.253973 0.0380337 0.737176
0.255654 0.0389263 0.737931
0.257358 0.0398608 0.738813
0.259036 0.0407359 0.739504
0.260684 0.0415412 0.739975
0.262399 0.0424829 0.740865
0.264111 0.043409 0.741701
0.265849 0.0443823 0.742678
0.267646 0.0454693 0.743998
0.269525 0.0467071 0.745774
0.271438 0.0480037 0.74772
0.2734 0.0493822 0.749907
0.275381 0.0507862 0.75216
0.277315 0.0520855 0.754085
0.279295 0.0534627 0.756236
0.28121 0.0547039 0.757965
0.283103 0.0558915 0.759523
0.284984 0.0570502 0.760987
0.142533 0.00242448 0.7712
0.14406 0.0028253 0.770303
0.145581 0.00319007 0.769276
0.147091 0.00348201 0.767986
0.148586 0.00368139 0.766364
0.150064 0.00377059 0.764347
0.151542 0.00390601 0.762506
0.153012 0.00401654 0.760582
0.154478 0.00413021 0.758678
0.155948 0.00430785 0.757013
0.157439 0.0046456 0.75593
0.158931 0.00500177 0.754916
0.16043 0.00541604 0.754115
0.161942 0.0059119 0.753607
0.163452 0.00640402 0.753087
0.164942 0.00678893 0.752187
0.166434 0.00719035 0.751347
0.167923 0.00758928 0.750503
0.1694 0.00793558 0.749475
0.170875 0.00828455 0.74846
0.172359 0.00868236 0.74762
0.173847 0.0091105 0.746889
0.175343 0.00957786 0.746297
0.17685 0.010101 0.745901
0.178374 0.0106957 0.745754
0.180283 0.0129258 0.75128
0.184282 0.0179153 0.764079
0.186167 0.0198334 0.768444
0.187835 0.0208504 0.76969
0.189314 0.0211279 0.768393
0.190815 0.0214929 0.767401
0.192316 0.0218718 0.766459
0.193834 0.0223164 0.765744
0.195382 0.0228718 0.765407
0.196992 0.0236449 0.765808
0.19857 0.0242993 0.765804
0.200192 0.0251022 0.7663
0.201793 0.025826 0.766526
0.20341 0.0265966 0.766906
0.204987 0.0272331 0.766835
0.206576 0.0279055 0.766882
0.208117 0.0284231 0.766412
0.209659 0.028947 0.765963
0.211137 0.02928 0.764881
0.212624 0.0296426 0.763901
0.214092 0.0299585 0.76277
0.215525 0.030177 0.761322
0.216949 0.0303794 0.759825
0.218331 0.0304737 0.75798
0.219667 0.0304497 0.755754
0.221084 0.030666 0.754322
0.222573 0.0310873 0.753563
0.22414 0.0317205 0.753496
0.225797 0.0325925 0.754201
0.227474 0.0335091 0.755047
0.229067 0.0341975 0.755151
0.230649 0.0348568 0.755159
0.232178 0.0353786 0.754723
0.233584 0.0355962 0.753313
0.234922 0.0356495 0.751381
0.236191 0.0355467 0.748958
0.237358 0.035209 0.745797
0.238496 0.0348226 0.742493
0.239809 0.0348719 0.740584
0.241277 0.035296 0.739869
0.242735 0.0356982 0.739087
0.244245 0.0362235 0.738695
0.245794 0.0368367 0.73858
0.247285 0.0373209 0.738059
0.248786 0.0378271 0.737608
0.250425 0.0386398 0.738115
0.252068 0.0394566 0.738631
0.25375 0.0403517 0.739388
0.255451 0.0412841 0.740255
0.257177 0.0422615 0.741257
0.258842 0.0431029 0.741833
0.26055 0.0440293 0.742666
0.262295 0.045027 0.743715
0.264042 0.0460186 0.744739
0.265833 0.0470951 0.746017
0.267683 0.0482816 0.747624
0.269525 0.0494413 0.749141
0.27141 0.0506771 0.750883
0.273345 0.0520019 0.752885
0.275292 0.0533378 0.754912
0.277202 0.0545868 0.756666
0.279089 0.0557837 0.758253
0.280947 0.0569141 0.759632
0.28282 0.0580653 0.761067
0.284669 0.0591622 0.762331
0.141905 0.00393677 0.770861
0.143427 0.00428545 0.769777
0.144947 0.00463555 0.768701
0.146457 0.00492559 0.767411
0.147959 0.00517006 0.76596
0.149443 0.00530037 0.764102
0.150927 0.00546524 0.762376
0.152403 0.00559891 0.760545
0.153878 0.0057642 0.758835
0.155354 0.00596554 0.757261
0.156847 0.0063071 0.756195
0.158344 0.00668286 0.755254
0.159849 0.00712151 0.75454
0.161361 0.00761568 0.754025
0.16287 0.00808624 0.753428
0.164361 0.0084674 0.752516
0.165849 0.0088411 0.751581
0.167339 0.00923365 0.750715
0.168813 0.00955656 0.749608
0.17029 0.00990537 0.748595
0.171775 0.0103043 0.74776
0.173263 0.0107256 0.747007
0.174752 0.0111528 0.746275
0.176247 0.0116176 0.745677
0.179657 0.0143704 0.750772
0.183834 0.0201516 0.76621
0.185689 0.021952 0.770139
0.18729 0.0226961 0.770438
0.188768 0.0229587 0.769094
0.190245 0.0232247 0.767766
0.191721 0.0235016 0.766479
0.193214 0.0238484 0.765434
0.194736 0.0243102 0.764781
0.19632 0.0249916 0.764869
0.197878 0.0255817 0.764648
0.19948 0.0263208 0.764927
0.201097 0.0271068 0.765361
0.202736 0.0279566 0.766003
0.204357 0.0287404 0.766422
0.206004 0.0295975 0.767081
0.207588 0.0302495 0.767055
0.209149 0.0308267 0.766781
0.210645 0.0312039 0.765847
0.212183 0.0317139 0.765353
0.21368 0.032102 0.764458
0.215184 0.0325188 0.763662
0.21668 0.0329133 0.762794
0.218134 0.0331926 0.761553
0.219487 0.0331967 0.75942
0.220935 0.0334786 0.758198
0.222423 0.0338775 0.757359
0.223971 0.0344443 0.757066
0.225602 0.0352337 0.757491
0.227246 0.0360506 0.758
0.228837 0.0367247 0.758048
0.23042 0.0373739 0.758014
0.231953 0.0378963 0.757574
0.233368 0.0381175 0.756173
0.234741 0.0382434 0.754475
0.235997 0.0380866 0.751884
0.237077 0.0375179 0.747998
0.238092 0.0368153 0.743705
0.23936 0.036744 0.741421
0.240826 0.0371579 0.740674
0.242304 0.0376014 0.740021
0.243863 0.0382358 0.739968
0.245451 0.0389353 0.740118
0.246991 0.0395211 0.739911
0.248553 0.0401567 0.739859
0.250243 0.0410775 0.740691
0.251951 0.0420327 0.741625
0.253701 0.0430711 0.742812
0.255457 0.0441126 0.744001
0.257186 0.0450878 0.74498
0.258867 0.045955 0.745621
0.260579 0.0468806 0.746437
0.262322 0.047865 0.747428
0.264068 0.0488483 0.74841
0.265871 0.049941 0.749721
0.267711 0.0511019 0.751231
0.269542 0.0522334 0.752645
0.271382 0.0533751 0.754081
0.273272 0.0546061 0.75578
0.27516 0.0558217 0.757425
0.277 0.0569334 0.758748
0.278784 0.057928 0.759713
0.280607 0.0589899 0.760875
0.282483 0.0601479 0.762317
0.284346 0.0612704 0.763646
0.287824 0.0626944 0.770873
0.286267 0.0624958 0.765274
0.14431 0.00605705 0.76804
0.145825 0.00638305 0.766887
0.147334 0.00667875 0.765628
0.148827 0.00687006 0.763998
0.150317 0.00706675 0.762394
0.151798 0.00722853 0.760672
0.153276 0.00739898 0.758987
0.154754 0.00759687 0.757407
0.156249 0.00793927 0.756346
0.157747 0.00831333 0.755402
0.159254 0.00875596 0.754703
0.160768 0.00924971 0.754186
0.162282 0.0097467 0.753682
0.163775 0.0101277 0.752772
0.165264 0.0104973 0.751824
0.166755 0.0108872 0.750951
0.168235 0.0112348 0.749933
0.16971 0.0115595 0.748839
0.171197 0.0119588 0.748007
0.172686 0.0123791 0.74725
0.174171 0.012784 0.746443
0.175658 0.0132023 0.745684
0.185197 0.0240317 0.771676
0.186702 0.0243803 0.770623
0.188174 0.0246101 0.769172
0.189651 0.0248706 0.76783
0.191106 0.0250556 0.766238
0.192581 0.0253333 0.764964
0.194093 0.0257581 0.764188
0.195666 0.0264036 0.764154
0.197222 0.0269877 0.763914
0.198832 0.0277584 0.764295
0.200468 0.028612 0.76495
0.202129 0.0295384 0.765841
0.203783 0.0304289 0.766608
0.205461 0.0313896 0.767602
0.207077 0.0321405 0.7679
0.208647 0.0327394 0.767692
0.210164 0.0331755 0.766952
0.211747 0.0338147 0.766878
0.213282 0.0343054 0.766318
0.214852 0.0349067 0.766121
0.216419 0.0354966 0.765885
0.217927 0.0359139 0.765088
0.21931 0.0359789 0.763153
0.220799 0.0363555 0.762233
0.222304 0.0367845 0.761484
0.223868 0.0373759 0.761259
0.225491 0.0381273 0.761547
0.22711 0.0388639 0.761786
0.228675 0.0394554 0.761558
0.230236 0.040032 0.761283
0.23174 0.0404637 0.760547
0.233156 0.0406722 0.759104
0.234579 0.0409066 0.757749
0.23585 0.0407684 0.755221
0.238954 0.0387305 0.742603
0.241858 0.0394782 0.740857
0.243628 0.0406037 0.742331
0.245383 0.0416832 0.743654
0.247036 0.0425161 0.744204
0.248706 0.043385 0.744862
0.250481 0.0444833 0.746225
0.252148 0.0453301 0.746806
0.25384 0.0462283 0.74754
0.25557 0.0472018 0.748502
0.25726 0.0480814 0.74917
0.258898 0.048844 0.749476
0.260581 0.0496988 0.750061
0.262314 0.0506543 0.750949
0.264071 0.051653 0.751962
0.265869 0.0527289 0.753204
0.267692 0.0538478 0.754569
0.269488 0.0549051 0.755742
0.271268 0.0559183 0.756775
0.273105 0.0570394 0.758127
0.274909 0.0580874 0.759252
0.276679 0.0590585 0.760141
0.278412 0.0599524 0.760795
0.280225 0.0609956 0.76189
0.282113 0.0621764 0.763387
0.28402 0.0633846 0.764958
0.285944 0.0646175 0.766594
0.145193 0.00784211 0.766369
0.146709 0.00818907 0.765299
0.148211 0.00844223 0.763898
0.149703 0.00864145 0.76231
0.15119 0.00883197 0.760697
0.152673 0.00902836 0.759112
0.154153 0.00922938 0.757549
0.15565 0.00957367 0.756498
0.15715 0.00995069 0.755566
0.158658 0.0103906 0.754859
0.16017 0.010863 0.754267
0.161689 0.0113869 0.753857
0.163189 0.0117959 0.753047
0.164679 0.0121641 0.752096
0.166172 0.0125555 0.75123
0.167658 0.012923 0.750283
0.169135 0.0132495 0.749198
0.170624 0.0136493 0.748369
0.172116 0.014075 0.747631
0.173611 0.0145156 0.746948
0.175096 0.0149204 0.746143
0.184569 0.025564 0.771336
0.186074 0.0259077 0.770271
0.187555 0.0261649 0.768918
0.189039 0.0264472 0.767655
0.190496 0.0266355 0.766081
0.191963 0.0268779 0.764693
0.193468 0.0272695 0.763809
0.195023 0.0278519 0.763563
0.196586 0.0284621 0.763409
0.198222 0.029326 0.764096
0.199888 0.030285 0.765093
0.201579 0.0313153 0.766319
0.203267 0.0323214 0.767459
0.204971 0.0333667 0.768719
0.206602 0.0341573 0.76914
0.208178 0.0347687 0.76897
0.209725 0.0352901 0.768505
0.211347 0.0360417 0.768792
0.212912 0.0366124 0.768489
0.214525 0.0373304 0.768661
0.216143 0.0380603 0.768871
0.217696 0.0385934 0.768444
0.219125 0.0387695 0.766867
0.220656 0.0392488 0.76627
0.222189 0.0397334 0.765691
0.22374 0.0402711 0.765284
0.225338 0.0409393 0.765294
0.226911 0.0415369 0.765076
0.228433 0.0419969 0.764422
0.229951 0.0424473 0.76374
0.231436 0.0428169 0.762803
0.23286 0.0430321 0.761382
0.234346 0.0434163 0.760497
0.243748 0.0438312 0.747328
0.245617 0.0451646 0.749415
0.247339 0.046141 0.750391
0.249077 0.0471479 0.751454
0.250767 0.0480357 0.752146
0.252396 0.0487789 0.75239
0.254024 0.049519 0.752622
0.255718 0.0504009 0.753284
0.257353 0.0511463 0.753527
0.258948 0.051803 0.753498
0.260591 0.0525601 0.753772
0.262282 0.0534172 0.754346
0.263987 0.0542992 0.754992
0.265747 0.0552915 0.755966
0.267519 0.0562989 0.756981
0.269234 0.0571826 0.757618
0.270965 0.0580958 0.758339
0.272749 0.0591075 0.759351
0.274502 0.0600517 0.760156
0.276252 0.0609846 0.760922
0.277973 0.0618524 0.761491
0.279808 0.0629397 0.762706
0.281714 0.064159 0.764305
0.283642 0.0654093 0.765988
0.285566 0.0666427 0.767612
0.288949 0.0678783 0.774212
0.287368 0.067633 0.768514
0.144555 0.00923093 0.7656
0.146074 0.00961538 0.764669
0.147584 0.00992891 0.76349
0.149082 0.0101665 0.762045
0.150574 0.0103855 0.76054
0.152062 0.010609 0.759058
0.153552 0.0108676 0.757704
0.155055 0.011236 0.756741
0.15656 0.0116424 0.755914
0.158074 0.0121094 0.755302
0.159592 0.0126097 0.754807
0.161109 0.0131088 0.754308
0.162611 0.0135203 0.753507
0.164104 0.0138916 0.752569
0.165598 0.0142818 0.7517
0.167088 0.0146528 0.750767
0.168571 0.0150038 0.749768
0.170063 0.0154059 0.748947
0.171557 0.0158292 0.748202
0.173053 0.0162702 0.747519
0.174547 0.0167038 0.746813
0.185457 0.0274812 0.770072
0.186942 0.0277506 0.768765
0.188424 0.0280179 0.767456
0.189884 0.028209 0.765898
0.191343 0.0284153 0.764396
0.19284 0.0287724 0.7634
0.194389 0.0293309 0.763075
0.19597 0.0300076 0.763139
0.197641 0.031001 0.764247
0.199347 0.0321003 0.765697
0.201052 0.0331785 0.767068
0.202759 0.0342479 0.768404
0.204486 0.0353686 0.769901
0.206137 0.0362235 0.770521
0.20774 0.0369121 0.770598
0.209347 0.0376102 0.770703
0.211004 0.0384612 0.771303
0.212587 0.0390785 0.771141
0.214204 0.0397956 0.771303
0.215845 0.0405817 0.771682
0.217416 0.0411553 0.771378
0.218888 0.0414378 0.770143
0.220417 0.0418918 0.769459
0.221957 0.0423814 0.768889
0.223501 0.0428854 0.768366
0.225069 0.0434577 0.768062
0.2266 0.0439254 0.767426
0.228112 0.0443476 0.766648
0.229609 0.0447334 0.765757
0.231072 0.045031 0.764592
0.232547 0.0453666 0.76355
0.234093 0.045895 0.763114
0.247696 0.0499352 0.757025
0.249413 0.0508738 0.757857
0.250999 0.0515049 0.757743
0.252548 0.0520496 0.757365
0.254117 0.0526374 0.757119
0.25576 0.0533927 0.757382
0.257337 0.054 0.757193
0.258902 0.0545757 0.756909
0.260531 0.0552952 0.757058
0.262165 0.0560217 0.757226
0.263824 0.0567954 0.757535
0.265534 0.0576765 0.758163
0.267241 0.0585464 0.758752
0.268879 0.0592661 0.75889
0.270576 0.0601064 0.759385
0.272324 0.0610453 0.76017
0.274059 0.0619541 0.760861
0.275796 0.0628576 0.761533
0.277536 0.0637623 0.762204
0.279387 0.0648848 0.763511
0.281295 0.0661077 0.765109
0.283221 0.0673589 0.766781
0.285127 0.0685578 0.768292
0.286894 0.0694835 0.768996
0.143936 0.0108111 0.765513
0.145456 0.0111888 0.764562
0.146971 0.0115412 0.763524
0.148474 0.0118092 0.762192
0.149971 0.0120538 0.760783
0.151458 0.0122489 0.759206
0.152954 0.0125365 0.757958
0.154459 0.0129081 0.757009
0.15597 0.0133389 0.756268
0.157485 0.0138064 0.755657
0.159009 0.014334 0.755256
0.160528 0.0148351 0.754764
0.162041 0.0153015 0.754153
0.163537 0.015677 0.75323
0.165034 0.0160718 0.752377
0.166526 0.0164414 0.75144
0.168016 0.0168166 0.750525
0.169505 0.0171936 0.74962
0.171002 0.017618 0.748878
0.172501 0.0180651 0.748215
0.173997 0.0185007 0.747516
0.186306 0.0292406 0.768289
0.187786 0.0294937 0.766939
0.189253 0.029713 0.765481
0.19072 0.0299408 0.764057
0.192241 0.03039 0.763369
0.193803 0.0309955 0.763197
0.195412 0.031771 0.763583
0.197122 0.0329035 0.765137
0.198853 0.03409 0.766858
0.200557 0.0351641 0.768204
0.202275 0.036269 0.769643
0.203994 0.0373619 0.771034
0.205638 0.0381866 0.771548
0.207264 0.0389474 0.771853
0.208906 0.0397532 0.7723
0.210567 0.04061 0.772907
0.212171 0.0412817 0.772916
0.213794 0.0420102 0.773105
0.215445 0.042819 0.77355
0.217041 0.0434565 0.773444
0.218585 0.0439363 0.772835
0.220133 0.0444335 0.772283
0.221682 0.0449333 0.77174
0.223222 0.0454122 0.771132
0.224775 0.0459264 0.770637
0.226278 0.046305 0.769716
0.227793 0.0467221 0.768919
0.229292 0.0470995 0.767999
0.23074 0.0473458 0.766672
0.232245 0.0477488 0.765838
0.2338 0.0482877 0.76543
0.246588 0.0534517 0.764791
0.248082 0.0538429 0.76393
0.249658 0.0544314 0.763672
0.25117 0.054868 0.762953
0.252661 0.0552606 0.762102
0.254181 0.0557243 0.761468
0.25576 0.0563214 0.76124
0.257289 0.0568064 0.760672
0.258812 0.0572782 0.760067
0.260374 0.0578408 0.759735
0.261966 0.0584662 0.759591
0.263593 0.0591671 0.759673
0.265247 0.0599224 0.759914
0.266895 0.0606621 0.760108
0.268517 0.0613458 0.760132
0.270194 0.0621408 0.760485
0.271911 0.0630159 0.761073
0.273634 0.0638951 0.761669
0.275372 0.0648044 0.762348
0.277115 0.0657146 0.763028
0.278935 0.0667764 0.764147
0.280823 0.0679615 0.765621
0.282762 0.0692386 0.767357
0.284653 0.0704122 0.768782
0.286443 0.0713819 0.769607
0.144843 0.0128289 0.764685
0.146362 0.0131935 0.763692
0.147868 0.0134733 0.762406
0.149372 0.0137567 0.761138
0.150861 0.0139509 0.759563
0.152363 0.0142661 0.758415
0.15387 0.0146407 0.757477
0.155387 0.0151034 0.756847
0.156901 0.0155449 0.756146
0.158422 0.0160443 0.755646
0.159942 0.0165416 0.75514
0.161456 0.0170079 0.754529
0.162954 0.017383 0.753606
0.164454 0.01778 0.752762
0.165952 0.0181769 0.751919
0.167445 0.0185526 0.751008
0.168935 0.0189275 0.750096
0.170429 0.0193295 0.749279
0.171934 0.0197919 0.748668
0.173428 0.0202095 0.747908
0.185641 0.0306127 0.767423
0.187141 0.0309445 0.766339
0.188628 0.031236 0.765127
0.190119 0.031557 0.764015
0.191694 0.032209 0.763993
0.193291 0.0329406 0.764231
0.194936 0.0338436 0.765026
0.196676 0.0350836 0.766915
0.198421 0.0363172 0.768775
0.200122 0.0373749 0.770051
0.201844 0.0384899 0.771508
0.203557 0.0395575 0.772802
0.205196 0.040355 0.77322
0.206828 0.0411272 0.773552
0.208474 0.0419383 0.774007
0.210109 0.042706 0.77432
0.211718 0.0433854 0.774347
0.213317 0.0440321 0.774269
0.214947 0.0447717 0.774485
0.216523 0.0453413 0.77416
0.21809 0.0458841 0.77375
0.219642 0.0463882 0.773217
0.221229 0.0469908 0.772996
0.222808 0.0475723 0.77271
0.224402 0.0481933 0.772546
0.225943 0.0486692 0.771928
0.227486 0.049151 0.771328
0.229002 0.0495626 0.770512
0.230454 0.049803 0.769165
0.231949 0.0501672 0.768208
0.233492 0.0506617 0.767657
0.234981 0.0510185 0.766681
0.246973 0.0574313 0.771848
0.248394 0.0576211 0.770363
0.24981 0.0578065 0.768869
0.251238 0.0580279 0.767488
0.252641 0.0581979 0.765958
0.254068 0.0584324 0.764626
0.255545 0.0587844 0.763653
0.257013 0.0591231 0.762642
0.258466 0.0594328 0.761547
0.259999 0.0599241 0.760998
0.261592 0.0605476 0.760844
0.263236 0.0612788 0.76101
0.264893 0.0620389 0.761259
0.26653 0.0627523 0.761368
0.268151 0.0634279 0.761363
0.269795 0.0641518 0.7615
0.271497 0.0649907 0.761973
0.273206 0.0658438 0.762484
0.27495 0.0667615 0.763181
0.276712 0.0677094 0.763963
0.278515 0.0687358 0.764968
0.280386 0.0698925 0.766348
0.282327 0.0711735 0.768082
0.284238 0.0723893 0.769618
0.286051 0.0734037 0.770564
0.144221 0.0143798 0.764488
0.145739 0.0147345 0.763465
0.147251 0.0150524 0.762317
0.148763 0.0153933 0.761253
0.150264 0.0156637 0.759948
0.151772 0.0160087 0.758906
0.153284 0.0164099 0.758061
0.154804 0.0168743 0.757437
0.156319 0.017316 0.756736
0.157842 0.0178146 0.756232
0.159363 0.018309 0.755714
0.160879 0.0187736 0.755096
0.162379 0.0191493 0.754178
0.163881 0.0195459 0.753332
0.165376 0.0199106 0.752382
0.16687 0.0202823 0.751457
0.168362 0.0206557 0.750542
0.169859 0.0210602 0.749735
0.171362 0.0215089 0.749077
0.172863 0.0219509 0.748399
0.18964 0.0336624 0.765567
0.191267 0.0345052 0.766162
0.192891 0.0353265 0.766684
0.194561 0.036315 0.767744
0.196286 0.0374927 0.769412
0.198 0.038605 0.770859
0.199692 0.0396223 0.771992
0.201405 0.0407002 0.773314
0.203103 0.0417096 0.774407
0.204725 0.0424444 0.774614
0.206368 0.0432452 0.775031
0.208007 0.0440262 0.775381
0.209616 0.0447006 0.775388
0.211204 0.0453063 0.775177
0.212782 0.0458825 0.774871
0.214391 0.0465517 0.774859
0.21596 0.047098 0.774458
0.21755 0.0477077 0.774256
0.219128 0.0482809 0.773941
0.22075 0.0489839 0.774033
0.222357 0.0496392 0.773973
0.223977 0.0503314 0.774026
0.225548 0.0508812 0.773634
0.227134 0.0514731 0.773375
0.228707 0.0520285 0.773003
0.230198 0.0523611 0.77194
0.231709 0.0527538 0.771066
0.244937 0.0588448 0.773116
0.246443 0.0592274 0.772214
0.247929 0.0595688 0.771191
0.249392 0.0598561 0.770008
0.25086 0.0601645 0.768892
0.252304 0.0604217 0.767625
0.253778 0.0607532 0.766585
0.255256 0.0610992 0.765592
0.256712 0.0614006 0.764468
0.258166 0.0617009 0.763345
0.259686 0.0621552 0.762682
0.261263 0.0627359 0.762396
0.262879 0.0634023 0.762363
0.264524 0.0641328 0.762518
0.266133 0.0647808 0.762429
0.26774 0.0654228 0.76232
0.269382 0.0661385 0.762428
0.271068 0.0669445 0.762797
0.272764 0.0677674 0.763213
0.274509 0.0686877 0.76391
0.27627 0.0696347 0.764681
0.278059 0.0706316 0.765592
0.279931 0.0717918 0.76697
0.28189 0.0731157 0.768815
0.283824 0.0743774 0.770472
0.285664 0.0754431 0.771556
0.145113 0.0162405 0.763112
0.146635 0.0166393 0.762249
0.148155 0.0170418 0.761401
0.149663 0.017359 0.760262
0.151179 0.0177553 0.759398
0.152701 0.0182152 0.758756
0.154227 0.0187082 0.758228
0.155745 0.0191502 0.757528
0.157269 0.0196473 0.757017
0.158792 0.0201365 0.75648
0.160306 0.0205705 0.755758
0.161803 0.0209174 0.754742
0.163307 0.0213126 0.753893
0.164803 0.0216732 0.75293
0.166299 0.0220408 0.751993
0.167793 0.0224135 0.751077
0.169297 0.0228449 0.750359
0.170804 0.0233025 0.749732
0.190931 0.0371889 0.76956
0.19255 0.0379715 0.769943
0.194209 0.0389023 0.7708
0.195892 0.0399081 0.771895
0.197551 0.0408094 0.772646
0.199205 0.0416819 0.773302
0.200898 0.0426868 0.774376
0.202577 0.0436245 0.77523
0.20419 0.0443251 0.775323
0.205841 0.0451489 0.775805
0.20747 0.0458926 0.776031
0.20906 0.046502 0.775829
0.210639 0.0470756 0.775513
0.212209 0.0476225 0.775112
0.213799 0.048229 0.7749
0.215381 0.0488118 0.774613
0.216984 0.0494581 0.774525
0.218577 0.0500744 0.774341
0.220226 0.0508549 0.774669
0.221859 0.0515809 0.774827
0.223497 0.0523202 0.775021
0.225108 0.0529774 0.77496
0.226762 0.0537543 0.775268
0.228411 0.0545134 0.775519
0.229977 0.05504 0.775051
0.231538 0.0555508 0.774535
0.244378 0.0605783 0.773283
0.245904 0.0610074 0.772524
0.247431 0.0614423 0.771783
0.248946 0.0618515 0.770967
0.250451 0.0622379 0.770086
0.251945 0.0626049 0.769148
0.253467 0.0630407 0.768418
0.254951 0.0633903 0.767435
0.256413 0.0636948 0.76632
0.25787 0.063992 0.765187
0.259377 0.0644091 0.764411
0.260923 0.0649147 0.763898
0.262523 0.0655414 0.763743
0.264155 0.0662386 0.763794
0.265736 0.0668208 0.763507
0.267343 0.0674576 0.763379
0.268969 0.0681364 0.763373
0.27064 0.0689091 0.763639
0.272319 0.0696918 0.763932
0.274047 0.0705789 0.764525
0.275792 0.071493 0.765192
0.277579 0.0724859 0.766083
0.279453 0.0736524 0.767469
0.281415 0.0749836 0.769322
0.283372 0.0762946 0.771108
0.285235 0.077409 0.772323
0.146019 0.0182395 0.762222
0.147546 0.0186937 0.761554
0.149061 0.0190544 0.760567
0.150578 0.019447 0.759692
0.152105 0.0199319 0.759135
0.153629 0.0203973 0.758514
0.155144 0.0208133 0.757725
0.15667 0.021309 0.757209
0.158198 0.0218266 0.756768
0.159713 0.0222599 0.756043
0.161217 0.0226349 0.755125
0.162723 0.0230289 0.754272
0.164221 0.0233888 0.753309
0.165717 0.0237515 0.752358
0.167213 0.0241219 0.751435
0.168721 0.0245671 0.750764
0.170236 0.0250559 0.750239
0.190794 0.0407005 0.775586
0.192304 0.0410216 0.774462
0.193885 0.0416222 0.774243
0.195515 0.0424101 0.774622
0.197111 0.0430655 0.774574
0.198718 0.0437594 0.774649
0.200366 0.0445941 0.77517
0.202009 0.0454029 0.775605
0.203594 0.0460001 0.775365
0.205223 0.04675 0.77561
0.206833 0.0474288 0.775626
0.208422 0.0480388 0.775424
0.210012 0.0486455 0.775212
0.211593 0.0492254 0.774916
0.213195 0.0498721 0.774827
0.214799 0.0505185 0.774739
0.216416 0.0512081 0.774782
0.218034 0.051895 0.774817
0.2197 0.052726 0.775295
0.221348 0.0534964 0.775584
0.223011 0.0543044 0.775987
0.224662 0.0550735 0.776265
0.226385 0.0560399 0.777149
0.228076 0.0569094 0.777729
0.229742 0.0577026 0.778073
0.231428 0.058543 0.778557
0.243875 0.0624588 0.773884
0.245404 0.0628909 0.773133
0.24695 0.0633665 0.772514
0.248511 0.0638798 0.772009
0.25002 0.0642727 0.771146
0.251548 0.0647124 0.770425
0.253103 0.0652183 0.769901
0.25461 0.0656124 0.769049
0.256095 0.0659616 0.768065
0.257561 0.0662683 0.76696
0.259055 0.0666479 0.766071
0.260585 0.0671096 0.765427
0.262167 0.0676896 0.76513
0.263767 0.0683115 0.764955
0.265348 0.0688883 0.764648
0.266942 0.0694942 0.764426
0.268554 0.070139 0.764317
0.270191 0.0708357 0.764357
0.271852 0.0715814 0.764537
0.273562 0.072425 0.764998
0.275306 0.0733379 0.765655
0.277095 0.0743366 0.766554
0.278971 0.0755097 0.767949
0.280934 0.0768481 0.76981
0.282891 0.0781632 0.771594
0.284774 0.0793167 0.77291
0.147211 0.0228729 0.770328
0.148423 0.0204466 0.75983
0.149946 0.0208883 0.759126
0.151481 0.0214379 0.75879
0.153013 0.0219601 0.758362
0.154537 0.0224354 0.757776
0.156064 0.0229325 0.757264
0.157597 0.0234776 0.756915
0.159114 0.0239132 0.756199
0.160625 0.0243211 0.755392
0.162137 0.024748 0.754651
0.163642 0.0251354 0.753781
0.165136 0.0254709 0.752741
0.166638 0.0258649 0.751898
0.168153 0.0263429 0.751336
0.16967 0.0268294 0.750802
0.190568 0.0439123 0.780577
0.192031 0.0440064 0.77872
0.193524 0.0442357 0.777301
0.195093 0.0447703 0.776862
0.196636 0.0452125 0.776128
0.19821 0.0457708 0.775765
0.199824 0.0464757 0.775867
0.201439 0.0471782 0.77596
0.203004 0.0477038 0.775492
0.204614 0.0483859 0.775518
0.206205 0.0489988 0.775325
0.207785 0.0495754 0.775019
0.209385 0.0502191 0.774921
0.210977 0.0508326 0.774728
0.212581 0.0514825 0.774649
0.214197 0.0521693 0.774684
0.215825 0.0528934 0.774831
0.217457 0.0536241 0.774998
0.219136 0.0544901 0.77558
0.220798 0.0553023 0.775991
0.222485 0.0561795 0.776601
0.224196 0.0571198 0.777399
0.225985 0.0582775 0.778857
0.227722 0.0592703 0.779804
0.229446 0.0602182 0.780609
0.231195 0.0612261 0.781593
0.244927 0.0648377 0.77392
0.246484 0.0653359 0.773367
0.248061 0.0658843 0.772965
0.249601 0.0663439 0.772299
0.251118 0.066749 0.771474
0.252676 0.0672587 0.77096
0.254202 0.0676914 0.77022
0.255709 0.0680819 0.769358
0.257196 0.0684302 0.768375
0.258695 0.0688131 0.767495
0.26021 0.0692337 0.766728
0.261759 0.0697344 0.766196
0.263326 0.0702767 0.765786
0.264877 0.0707834 0.765273
0.266472 0.0713868 0.765041
0.268068 0.071997 0.764828
0.269705 0.0726882 0.764849
0.271364 0.0734289 0.76501
0.273057 0.0742385 0.765367
0.274802 0.0751534 0.766023
0.27661 0.0761938 0.767034
0.278488 0.0773702 0.768427
0.280436 0.0786832 0.770202
0.282389 0.0799922 0.771958
0.284267 0.0811424 0.773254
0.149595 0.0247357 0.76669
0.150842 0.022826 0.758046
0.152379 0.0233866 0.757748
0.154237 0.0263866 0.765635
0.166055 0.0275736 0.752238
0.167565 0.0280137 0.75155
0.169071 0.028438 0.750813
0.188708 0.0464142 0.785406
0.190198 0.0465695 0.783737
0.191654 0.0466094 0.781709
0.193122 0.0467135 0.77989
0.194642 0.0470402 0.778785
0.196137 0.0472789 0.777405
0.197686 0.0477328 0.776709
0.199275 0.0483399 0.776497
0.200862 0.0489412 0.776267
0.202415 0.0494153 0.775638
0.204015 0.0500591 0.77554
0.205597 0.0506391 0.775243
0.207179 0.0512224 0.774955
0.20879 0.0519 0.774961
0.210393 0.0525473 0.774873
0.21201 0.0532378 0.774916
0.213638 0.0539625 0.775064
0.21528 0.0547247 0.775324
0.216922 0.0554842 0.775575
0.218601 0.0563526 0.776156
0.220265 0.0571663 0.776567
0.221953 0.0580459 0.777176
0.223667 0.0589945 0.777992
0.22545 0.0601339 0.779383
0.227194 0.0611479 0.780386
0.228934 0.0621418 0.781322
0.244493 0.0669027 0.775044
0.246054 0.0674047 0.7745
0.247644 0.0679796 0.774173
0.249212 0.0685002 0.773686
0.250718 0.0688705 0.772757
0.252276 0.0693712 0.772214
0.253802 0.069798 0.771455
0.255297 0.0701533 0.770489
0.256789 0.0705081 0.769525
0.258293 0.0708943 0.768654
0.259779 0.0712409 0.767671
0.261296 0.0716612 0.766905
0.262829 0.0721231 0.76626
0.264364 0.072591 0.765634
0.26593 0.07313 0.765215
0.267529 0.0737407 0.765001
0.269164 0.0744298 0.765013
0.270822 0.0751683 0.765164
0.272501 0.0759466 0.765427
0.27425 0.0768699 0.766101
0.276077 0.0779556 0.767232
0.277957 0.0791384 0.768634
0.279886 0.0804156 0.770296
0.281814 0.0816786 0.771909
0.283688 0.0828217 0.773177
0.287312 0.0846174 0.781121
0.286622 0.0860978 0.780442
0.187172 0.0460735 0.786485
0.186653 0.0481742 0.787836
0.188196 0.04853 0.786804
0.189697 0.048714 0.78523
0.191168 0.0487947 0.783335
0.192628 0.0488494 0.781364
0.194132 0.0490945 0.780003
0.195619 0.0492906 0.77849
0.197153 0.0496784 0.777585
0.198728 0.050223 0.777174
0.200306 0.0507823 0.77681
0.201848 0.0512114 0.776038
0.203437 0.0518132 0.775807
0.205011 0.0523632 0.775415
0.206596 0.0529497 0.775137
0.208217 0.0536589 0.775238
0.209832 0.0543441 0.775262
0.211443 0.0550111 0.775229
0.213084 0.0557773 0.775499
0.214735 0.0565685 0.775844
0.216378 0.0573263 0.776085
0.218058 0.0581968 0.776666
0.219733 0.0590432 0.77717
0.221411 0.0598906 0.777674
0.223137 0.0608728 0.778583
0.224936 0.0620625 0.780115
0.226657 0.0630074 0.7809
0.228398 0.0640038 0.781835
0.245717 0.0697181 0.776337
0.247302 0.0702721 0.775943
0.248889 0.0708324 0.775567
0.250367 0.0711228 0.774404
0.251895 0.0715442 0.773625
0.253358 0.0718101 0.772397
0.25482 0.0720817 0.771187
0.256284 0.0723617 0.770007
0.25779 0.0727475 0.769136
0.259279 0.073097 0.768163
0.26081 0.0735464 0.767481
0.262342 0.0740019 0.766817
0.263863 0.0744308 0.766079
0.265414 0.0749345 0.765556
0.266997 0.0755064 0.76523
0.268617 0.0761637 0.765147
0.270262 0.0768705 0.765205
0.27196 0.0776928 0.765589
0.273728 0.0786576 0.766374
0.275575 0.0797856 0.767617
0.277457 0.0809749 0.769026
0.279384 0.0822526 0.770677
0.281294 0.0834827 0.772187
0.283147 0.0845822 0.773323
0.284928 0.0855302 0.774028
0.184525 0.0496671 0.789399
0.186085 0.0500742 0.788528
0.187639 0.0504654 0.78761
0.189152 0.0506902 0.78617
0.190639 0.0508206 0.784437
0.192104 0.0508766 0.782476
0.193611 0.0511215 0.781114
0.195099 0.0513041 0.779564
0.196635 0.0516888 0.778649
0.198203 0.0522008 0.778133
0.199775 0.0527278 0.777664
0.201309 0.053117 0.77677
0.202889 0.0536797 0.776415
0.204457 0.0542029 0.775938
0.206044 0.0547933 0.775669
0.207677 0.0555375 0.775872
0.209303 0.0562578 0.776
0.210925 0.0569567 0.776062
0.212561 0.0576998 0.776255
0.214214 0.0584928 0.7766
0.215858 0.0592493 0.77683
0.217528 0.0600875 0.777306
0.219184 0.0608704 0.777611
0.220874 0.0617542 0.778218
0.222587 0.0627015 0.779014
0.224345 0.0637691 0.780166
0.226012 0.0645591 0.780479
0.245349 0.0719686 0.777964
0.246946 0.0725462 0.777635
0.248546 0.0731302 0.777325
0.250038 0.0734465 0.776236
0.251519 0.0737425 0.775091
0.252918 0.0738433 0.773384
0.254329 0.0739812 0.77179
0.255743 0.0741372 0.770254
0.257221 0.074451 0.769177
0.258713 0.0748031 0.768213
0.260247 0.0752587 0.76755
0.261781 0.0757141 0.766886
0.263316 0.0761754 0.766242
0.264867 0.0766724 0.7657
0.26645 0.0772448 0.765374
0.268071 0.0779029 0.765291
0.269732 0.0786436 0.765441
0.271433 0.0794708 0.765834
0.273221 0.0804809 0.76674
0.275086 0.0816482 0.768084
0.276987 0.0828842 0.769614
0.2789 0.0841323 0.77117
0.280792 0.0853259 0.772566
0.282644 0.0864283 0.773701
0.284407 0.0873383 0.774294
0.287812 0.088704 0.780951
0.286175 0.0882562 0.774905
0.182447 0.0514334 0.791818
0.183994 0.0517572 0.79068
0.185531 0.0520499 0.789448
0.18708 0.0524079 0.788425
0.188598 0.0526381 0.787004
0.190103 0.0528274 0.785461
0.191572 0.0528876 0.78352
0.193084 0.0531379 0.782177
0.194575 0.0533165 0.780617
0.196097 0.0536343 0.779493
0.197641 0.0540458 0.778664
0.199205 0.0545362 0.778082
0.20074 0.0549253 0.777187
0.202323 0.0554947 0.776851
0.203903 0.056052 0.776478
0.205511 0.0567109 0.776416
0.207145 0.0574566 0.77662
0.208794 0.0582466 0.776955
0.21043 0.0589872 0.777138
0.212067 0.0597289 0.777322
0.213722 0.0605239 0.777665
0.215367 0.0612825 0.777895
0.21702 0.062057 0.778172
0.218656 0.0627761 0.778278
0.220324 0.0635864 0.778658
0.22199 0.0643884 0.779009
0.223691 0.0652886 0.779652
0.225322 0.0659725 0.779644
0.227017 0.0668431 0.780191
0.244997 0.0742774 0.779739
0.246601 0.0748627 0.779428
0.248192 0.0754159 0.779023
0.249671 0.0756901 0.777812
0.251141 0.0759471 0.776554
0.252476 0.0758811 0.77437
0.253837 0.0758877 0.772402
0.255217 0.0759544 0.770612
0.256679 0.076225 0.769414
0.258159 0.0765437 0.768357
0.259698 0.0770058 0.767712
0.261235 0.0774674 0.767067
0.262758 0.0778957 0.766329
0.26431 0.0783928 0.765787
0.265908 0.0789986 0.765555
0.267545 0.0796871 0.765555
0.269209 0.0804357 0.765723
0.270909 0.0812611 0.766106
0.272713 0.0823069 0.767105
0.274583 0.0834874 0.768476
0.276488 0.0847335 0.770023
0.27842 0.0860252 0.77169
0.280329 0.0872591 0.773188
0.282202 0.0884046 0.774433
0.283966 0.0893169 0.775025
0.285751 0.0902673 0.775719
0.181831 0.0531553 0.791918
0.183393 0.0535449 0.79099
0.184936 0.0538514 0.789805
0.186481 0.0541785 0.788688
0.188007 0.0544378 0.787362
0.18953 0.0546928 0.786028
0.191014 0.0548004 0.784239
0.192539 0.0550921 0.783029
0.194041 0.0553066 0.781583
0.195564 0.0556146 0.780431
0.197092 0.0559494 0.779365
0.198648 0.0564029 0.778669
0.200186 0.0567948 0.777784
0.201772 0.0573681 0.777457
0.203356 0.0579322 0.777102
0.204984 0.0586572 0.777239
0.206633 0.0594514 0.777583
0.208295 0.0602833 0.77804
0.209935 0.0610323 0.778242
0.211573 0.0617724 0.778415
0.213219 0.0625286 0.778635
0.214844 0.0632169 0.778647
0.216487 0.0639554 0.77881
0.218111 0.0646316 0.778784
0.219755 0.0653682 0.778936
0.221339 0.0659159 0.778523
0.222988 0.0666595 0.778694
0.224556 0.0671596 0.77814
0.246299 0.0773066 0.781566
0.247866 0.0777863 0.780944
0.249337 0.0780281 0.779639
0.250768 0.0781775 0.778072
0.252061 0.0779923 0.77555
0.25339 0.0779121 0.773339
0.25474 0.0778954 0.771316
0.256186 0.0781194 0.769987
0.257652 0.0784014 0.768827
0.259193 0.0788636 0.768182
0.260733 0.0793253 0.767537
0.262274 0.0797933 0.766911
0.263831 0.0802972 0.766388
0.265433 0.0809071 0.766164
0.267057 0.0815668 0.76608
0.26872 0.0823101 0.766229
0.270421 0.083134 0.766602
0.272228 0.084189 0.767618
0.2741 0.0853764 0.768997
0.276024 0.0866662 0.770654
0.277975 0.088002 0.772432
0.279908 0.0892866 0.774059
0.2818 0.0904759 0.775414
0.283587 0.091431 0.776117
0.285395 0.0924281 0.776931
0.17966 0.0545502 0.793137
0.181216 0.0548884 0.792047
0.182781 0.0552833 0.791138
0.184315 0.0555405 0.789802
0.185852 0.0558237 0.788552
0.187386 0.0561091 0.787312
0.188918 0.0563997 0.786091
0.190415 0.0565509 0.784445
0.191946 0.0568603 0.783293
0.193467 0.0571412 0.782055
0.194988 0.0574331 0.780856
0.196515 0.0577549 0.779752
0.19808 0.0582364 0.779141
0.19963 0.058665 0.778369
0.20122 0.0592481 0.778071
0.202814 0.0598439 0.77781
0.204454 0.0606077 0.778059
0.206098 0.0613786 0.778327
0.207766 0.0622285 0.778831
0.209398 0.0629443 0.778928
0.211026 0.063645 0.778978
0.21265 0.0643276 0.778971
0.214274 0.0650072 0.778954
0.215906 0.0657092 0.779003
0.217518 0.0663453 0.778854
0.219152 0.067048 0.778903
0.220722 0.0675483 0.778348
0.222346 0.0682165 0.778293
0.223891 0.0686432 0.777522
0.247584 0.0802886 0.783219
0.24903 0.080452 0.781689
0.25042 0.0804831 0.779784
0.251687 0.0802203 0.777048
0.253008 0.0801055 0.774743
0.254318 0.0799785 0.772412
0.25575 0.0801624 0.770971
0.257215 0.0804308 0.769773
0.258753 0.08088 0.76909
0.260296 0.0813455 0.768454
0.261856 0.0818502 0.767931
0.263432 0.0823948 0.767519
0.265039 0.083009 0.767304
0.266651 0.0836369 0.767126
0.268318 0.0843851 0.767284
0.270019 0.0852077 0.767647
0.271827 0.0862659 0.768661
0.273685 0.0874197 0.769936
0.275629 0.088754 0.771704
0.277583 0.0901009 0.773499
0.279537 0.09143 0.775236
0.281458 0.0926805 0.776748
0.283272 0.0936926 0.777599
0.285067 0.0946619 0.778327
0.180614 0.0566935 0.792393
0.182177 0.0570664 0.791417
0.183704 0.0572798 0.789949
0.185228 0.0574979 0.7885
0.186763 0.0577821 0.787261
0.188305 0.0581051 0.786145
0.189821 0.0583286 0.784727
0.191364 0.0586803 0.783707
0.192896 0.0589972 0.782583
0.194418 0.0592822 0.781365
0.195946 0.0596004 0.780252
0.197506 0.0600541 0.779556
0.199059 0.0604857 0.778793
0.200651 0.0610694 0.778494
0.202253 0.0616938 0.778318
0.203905 0.0624966 0.77868
0.20555 0.063269 0.778948
0.207222 0.0641304 0.779479
0.208864 0.064876 0.77966
0.210481 0.0655339 0.779577
0.212083 0.0661354 0.779325
0.213697 0.0667779 0.779194
0.215307 0.067408 0.779026
0.216888 0.0679401 0.778566
0.218515 0.0686211 0.778548
0.22005 0.0690095 0.777665
0.221608 0.069477 0.777016
0.223091 0.0697137 0.775691
0.245723 0.0823209 0.786123
0.247269 0.0827244 0.785275
0.248683 0.0827922 0.783473
0.250034 0.0827103 0.781251
0.251305 0.0824415 0.778505
0.252616 0.0822852 0.776089
0.253915 0.0821197 0.773656
0.255336 0.0822665 0.772111
0.256784 0.0824846 0.770774
0.258308 0.0828943 0.769978
0.259837 0.0833201 0.76923
0.261399 0.0838253 0.768706
0.262994 0.0844072 0.768397
0.26462 0.0850661 0.768303
0.26625 0.0857285 0.768218
0.267949 0.0865457 0.768561
0.269655 0.0873772 0.768941
0.271452 0.0884048 0.769862
0.273293 0.0895251 0.771033
0.275233 0.0908535 0.772771
0.277173 0.0921675 0.774461
0.279135 0.0935178 0.776243
0.281098 0.094857 0.777987
0.282937 0.0959232 0.778976
0.28472 0.0968613 0.77961
0.178441 0.0581065 0.793648
0.179988 0.0583849 0.792378
0.181553 0.0587635 0.791421
0.183077 0.0589507 0.789878
0.184602 0.0591671 0.788429
0.186141 0.0594563 0.787209
0.187697 0.0598401 0.786283
0.189231 0.0601303 0.785073
0.190777 0.0604877 0.784072
0.192313 0.0608101 0.782968
0.193837 0.0610941 0.78175
0.195358 0.0613771 0.780533
0.19692 0.0618341 0.779846
0.198487 0.0623122 0.779226
0.20009 0.0629341 0.77904
0.201703 0.063594 0.778967
0.203363 0.0644239 0.779404
0.205001 0.0651632 0.779567
0.206663 0.0659855 0.779974
0.208293 0.0666884 0.780023
0.20991 0.0673408 0.779921
0.211502 0.0679048 0.779555
0.213117 0.068548 0.779424
0.214728 0.0691789 0.779256
0.216322 0.0697492 0.778908
0.217933 0.0703738 0.778721
0.219454 0.0707135 0.777696
0.245341 0.0846029 0.787718
0.246881 0.0849838 0.786805
0.248265 0.0849617 0.78475
0.249595 0.0848115 0.782341
0.250877 0.0845564 0.779643
0.252204 0.084431 0.777321
0.253508 0.0842632 0.774888
0.254962 0.0844789 0.77354
0.256411 0.0846934 0.772193
0.257924 0.0850667 0.771295
0.25944 0.0854528 0.770434
0.261006 0.0859621 0.769919
0.262603 0.086545 0.769609
0.264248 0.0872388 0.769607
0.265898 0.0879432 0.769633
0.267602 0.0887692 0.769994
0.269314 0.0896098 0.770392
0.271095 0.0906 0.7712
0.272917 0.0916763 0.772239
0.274841 0.0929683 0.773864
0.276779 0.0942796 0.775534
0.278763 0.095682 0.777445
0.280748 0.0970699 0.779307
0.282611 0.0981836 0.780416
0.284393 0.0991177 0.781031
0.177788 0.0596718 0.793234
0.179333 0.0599335 0.791917
0.180897 0.0603018 0.790932
0.182435 0.0605551 0.789597
0.183955 0.060739 0.788055
0.185494 0.0610268 0.786835
0.187051 0.0614098 0.785909
0.188593 0.0617297 0.784795
0.190141 0.0620925 0.783813
0.191687 0.0624509 0.782822
0.19323 0.0628059 0.781822
0.194769 0.0631535 0.780804
0.196342 0.0636511 0.78024
0.19792 0.064167 0.779732
0.199535 0.0648274 0.779659
0.201151 0.0654914 0.779596
0.202803 0.0662887 0.779928
0.20443 0.0669881 0.779968
0.20608 0.0677644 0.780233
0.207702 0.0684332 0.780178
0.20931 0.0690516 0.779972
0.210904 0.0696222 0.779624
0.21252 0.0702659 0.779493
0.214135 0.0709038 0.779344
0.21574 0.0715099 0.7791
0.217363 0.0721737 0.779025
0.218913 0.0725997 0.778254
0.244891 0.0867234 0.788834
0.246443 0.0871241 0.787976
0.247841 0.0871267 0.785997
0.249184 0.0869977 0.783654
0.250467 0.0867299 0.780929
0.251783 0.0865624 0.778495
0.253076 0.0863556 0.775959
0.254533 0.0865706 0.774612
0.256003 0.0868245 0.773377
0.257532 0.0872314 0.772571
0.25907 0.0876614 0.771832
0.260655 0.0882086 0.771419
0.262269 0.0888264 0.771202
0.263903 0.0894883 0.771106
0.265559 0.0902011 0.77115
0.267271 0.0910397 0.771538
0.269003 0.0919233 0.772046
0.270755 0.0928453 0.772657
0.272575 0.0939114 0.773658
0.274495 0.0951974 0.775253
0.276421 0.0964822 0.776838
0.278391 0.0978516 0.778644
0.280378 0.0992475 0.780514
0.282218 0.100313 0.781482
0.283945 0.101126 0.781762
0.177173 0.0614409 0.793445
0.178711 0.0616552 0.791986
0.18027 0.061992 0.790907
0.181792 0.0621569 0.789307
0.183306 0.0623019 0.787652
0.184839 0.0625542 0.786328
0.186396 0.0629359 0.785403
0.187946 0.063289 0.784393
0.189503 0.0636883 0.783525
0.191059 0.0640868 0.782657
0.192612 0.0644785 0.781771
0.19416 0.06486 0.780857
0.195743 0.0653888 0.780387
0.197332 0.0659427 0.779993
0.198951 0.06662 0.779967
0.200578 0.067323 0.780016
0.202221 0.0680833 0.780234
0.203831 0.068711 0.780056
0.205469 0.0694439 0.78019
0.2071 0.0701452 0.780228
0.208711 0.0707737 0.78005
0.21032 0.0713927 0.779844
0.211969 0.0721463 0.780033
0.213595 0.0728205 0.779986
0.215214 0.0734657 0.779854
0.216859 0.0741953 0.779967
0.21849 0.0748735 0.779929
0.244352 0.0886101 0.789274
0.245946 0.0891168 0.788716
0.247344 0.0891109 0.786718
0.248691 0.0889795 0.784376
0.250005 0.0887787 0.781848
0.251324 0.0886087 0.779414
0.25261 0.0883692 0.776796
0.254084 0.0886202 0.775551
0.255572 0.0889105 0.774418
0.257109 0.0893312 0.77365
0.258681 0.0898389 0.773125
0.260271 0.0903905 0.772721
0.261906 0.0910502 0.772615
0.263574 0.0917883 0.772723
0.265268 0.0925844 0.77299
0.266988 0.0934393 0.773414
0.268757 0.0944005 0.774126
0.270508 0.0953153 0.774707
0.272299 0.0963133 0.775511
0.274187 0.097525 0.776891
0.276082 0.0987387 0.778269
0.278001 0.0999959 0.779758
0.279932 0.101269 0.781283
0.281733 0.102251 0.782017
0.283421 0.102979 0.782064
0.178046 0.0631554 0.791373
0.179597 0.0634471 0.790162
0.18112 0.0636131 0.788572
0.182626 0.0637152 0.786795
0.184157 0.0639593 0.785453
0.185715 0.0643433 0.784537
0.187274 0.0647358 0.783651
0.188848 0.0652097 0.78301
0.190414 0.0656483 0.782265
0.191976 0.0660769 0.781493
0.193533 0.0664922 0.780683
0.195134 0.067094 0.78043
0.196734 0.0676892 0.780158
0.198373 0.0684405 0.780348
0.200002 0.0691477 0.780406
0.201637 0.0698745 0.780521
0.203236 0.0704581 0.780211
0.204864 0.0711503 0.780221
0.206497 0.0718592 0.780278
0.208123 0.0725363 0.780241
0.209765 0.0732683 0.780364
0.211428 0.074072 0.780693
0.213078 0.0748181 0.780853
0.214732 0.075578 0.781049
0.216441 0.0765165 0.781763
0.218172 0.0775181 0.782654
0.243712 0.0902267 0.788947
0.245301 0.0907199 0.788351
0.246726 0.0907782 0.786541
0.248092 0.0906906 0.78433
0.249443 0.0905771 0.782056
0.250796 0.0904849 0.779847
0.252127 0.09035 0.777528
0.253619 0.0906374 0.776386
0.255126 0.0909711 0.775375
0.256683 0.0914326 0.774718
0.258324 0.0921037 0.77464
0.259955 0.092748 0.774487
0.261614 0.0934604 0.77452
0.263317 0.0942755 0.774832
0.265047 0.0951493 0.775302
0.266722 0.0958908 0.775408
0.268465 0.0967868 0.775933
0.270168 0.0975844 0.776188
0.271907 0.0984617 0.776656
0.273727 0.0995189 0.777606
0.275586 0.100653 0.778761
0.277466 0.101828 0.780016
0.279373 0.103052 0.7814
0.281151 0.103981 0.781986
0.282835 0.104699 0.782004
0.175816 0.0643044 0.791791
0.177347 0.0644773 0.79022
0.178896 0.0647578 0.788981
0.180424 0.0649496 0.787478
0.181929 0.0650428 0.785682
0.183467 0.0653165 0.784436
0.185033 0.0657402 0.783644
0.186601 0.0661758 0.782889
0.188183 0.0666866 0.782362
0.189766 0.0671973 0.781835
0.191337 0.0676665 0.781186
0.192907 0.0681289 0.780517
0.194518 0.0687721 0.780387
0.196136 0.069438 0.780322
0.197785 0.0702287 0.780625
0.199424 0.0709754 0.780796
0.20106 0.0717002 0.7809
0.202659 0.0722779 0.780571
0.204287 0.0729681 0.780572
0.205922 0.0736779 0.780629
0.207561 0.0744011 0.780723
0.209218 0.0751829 0.780986
0.210915 0.0761017 0.781643
0.212589 0.0769306 0.782037
0.214281 0.0778124 0.782581
0.216033 0.0788906 0.783688
0.217825 0.0800847 0.785122
0.243246 0.0923258 0.789965
0.244739 0.0925514 0.788622
0.24613 0.0925103 0.786541
0.24752 0.0924772 0.78449
0.248893 0.0924117 0.782356
0.250267 0.0923641 0.780279
0.251631 0.0923043 0.778175
0.253139 0.0926285 0.777136
0.254667 0.0930059 0.776246
0.256229 0.0934744 0.775608
0.257936 0.0943068 0.775966
0.259621 0.0950785 0.776157
0.261324 0.0958919 0.776459
0.263053 0.0967642 0.776919
0.264817 0.0977128 0.777583
0.266414 0.0982576 0.777149
0.268118 0.0990601 0.777412
0.269754 0.0996947 0.77722
0.271439 0.100446 0.777343
0.273187 0.101337 0.777838
0.275 0.102371 0.778712
0.276821 0.103416 0.779614
0.278705 0.104591 0.780858
0.280466 0.105487 0.78135
0.28215 0.106209 0.781378
0.176639 0.0657409 0.788898
0.178181 0.0659881 0.787565
0.179714 0.0662059 0.786148
0.18121 0.0662551 0.784231
0.182748 0.0665299 0.782994
0.184314 0.0669553 0.782212
0.185897 0.0674689 0.781695
0.187496 0.0680584 0.781404
0.189094 0.068645 0.781103
0.190675 0.0691515 0.780567
0.192261 0.0696868 0.780116
0.193875 0.0703402 0.780014
0.195503 0.0710512 0.780081
0.197162 0.0718848 0.780506
0.198811 0.0726678 0.78078
0.200448 0.0733967 0.780893
0.202064 0.0740392 0.780752
0.203703 0.0747657 0.780856
0.205349 0.0755155 0.781025
0.207 0.0762787 0.781231
0.208679 0.0771369 0.78171
0.21039 0.0781034 0.782498
0.212081 0.0789865 0.783042
0.213799 0.0799555 0.783829
0.215582 0.0811351 0.785216
0.217381 0.0823496 0.786696
0.219102 0.0832905 0.787386
0.242829 0.0945743 0.791383
