ply
format ascii 1.0
element vertex 1701
property float x
property float y
property float z
end_header
0.126473 -0.295265 0.799368
0.0666887 -0.307544 0.807471
0.0681967 -0.307108 0.805867
0.0696988 -0.306692 0.804547
0.0711965 -0.306279 0.803261
0.07269 -0.305857 0.801826
0.0741788 -0.30544 0.800456
0.0756636 -0.305031 0.799184
0.077144 -0.304619 0.797864
0.0786202 -0.30421 0.796557
0.080095 -0.303821 0.795595
0.0815648 -0.303423 0.794446
0.0830319 -0.303032 0.793411
0.0844973 -0.302648 0.792475
0.0859651 -0.302287 0.791916
0.0874332 -0.301934 0.791478
0.0889032 -0.301592 0.791249
0.0903747 -0.301258 0.791112
0.091847 -0.300927 0.791051
0.0933169 -0.300591 0.790899
0.0947793 -0.300239 0.790473
0.0962398 -0.299887 0.790025
0.0977008 -0.299539 0.78965
0.0991611 -0.299193 0.789304
0.100624 -0.298853 0.789072
0.102095 -0.298529 0.789113
0.103565 -0.298205 0.789154
0.105036 -0.297882 0.789196
0.106507 -0.297558 0.789237
0.107978 -0.297234 0.789278
0.109452 -0.296916 0.789412
0.110935 -0.296606 0.789736
0.112424 -0.296303 0.790178
0.113915 -0.296002 0.79064
0.115423 -0.295717 0.791441
0.116943 -0.295442 0.792434
0.118468 -0.295169 0.793471
0.120011 -0.294909 0.794784
0.121567 -0.294658 0.796282
0.123109 -0.294388 0.797433
0.124637 -0.294101 0.798266
0.126159 -0.293807 0.798964
0.127666 -0.293499 0.799377
0.0651775 -0.307964 0.808807
0.0633411 -0.306948 0.810415
0.0648574 -0.306537 0.809197
0.0663709 -0.306114 0.807767
0.067881 -0.305673 0.806033
0.069385 -0.305243 0.804463
0.0708838 -0.304821 0.803012
0.0723777 -0.304389 0.801379
0.0738668 -0.303975 0.800015
0.0753516 -0.303563 0.798659
0.0768325 -0.303158 0.79742
0.0783089 -0.30275 0.796101
0.079784 -0.302363 0.795141
0.081254 -0.301968 0.794001
0.0827228 -0.301584 0.79307
0.0841884 -0.301202 0.79214
0.0856566 -0.300843 0.791591
0.0871246 -0.300489 0.791151
0.0885949 -0.300148 0.790918
0.0900662 -0.299814 0.790781
0.0915389 -0.299484 0.79073
0.0930111 -0.299154 0.790676
0.0944762 -0.298809 0.790346
0.0959374 -0.298457 0.789904
0.0973982 -0.298109 0.789517
0.0988586 -0.297762 0.789151
0.100319 -0.297418 0.78882
0.101787 -0.29709 0.788777
0.103258 -0.296766 0.788818
0.104729 -0.296442 0.788859
0.106199 -0.296118 0.7889
0.107667 -0.29579 0.788856
0.109134 -0.295461 0.788799
0.110608 -0.295141 0.788921
0.112087 -0.294827 0.789157
0.113568 -0.294515 0.789426
0.11507 -0.294226 0.790144
0.116593 -0.293953 0.791226
0.11812 -0.293683 0.792345
0.119666 -0.293427 0.793756
0.12123 -0.293182 0.795429
0.122785 -0.292924 0.79685
0.124319 -0.292642 0.797793
0.125844 -0.29235 0.798549
0.127357 -0.292045 0.799062
0.0615044 -0.305888 0.811361
0.0630221 -0.305499 0.810483
0.064539 -0.305093 0.809322
0.0660525 -0.304683 0.808077
0.0675641 -0.304246 0.806379
0.0690699 -0.303812 0.80471
0.0705705 -0.30338 0.803052
0.0720656 -0.302945 0.801311
0.0735553 -0.302521 0.799758
0.0750401 -0.3021 0.798227
0.0765212 -0.301698 0.796987
0.0779974 -0.301287 0.795579
0.0794725 -0.300902 0.794616
0.0809427 -0.300508 0.79349
0.0824135 -0.300137 0.792742
0.0838799 -0.299758 0.791842
0.0853495 -0.299404 0.791379
0.0868177 -0.299051 0.790921
0.0882881 -0.29871 0.790669
0.0897596 -0.298375 0.790529
0.0912341 -0.298051 0.79057
0.0927088 -0.297726 0.790611
0.0941748 -0.297381 0.790295
0.0956364 -0.29703 0.78985
0.0970956 -0.296678 0.78937
0.0985537 -0.296327 0.788909
0.100011 -0.295978 0.788491
0.101479 -0.295649 0.78844
0.10295 -0.295325 0.788481
0.104421 -0.295001 0.788522
0.105892 -0.294678 0.788564
0.107356 -0.294345 0.788427
0.108815 -0.294006 0.788181
0.110279 -0.293676 0.788093
0.111748 -0.293352 0.788112
0.11322 -0.293029 0.788187
0.114712 -0.29273 0.788714
0.116228 -0.292452 0.789705
0.117758 -0.292185 0.790919
0.119303 -0.291929 0.792359
0.120871 -0.291687 0.794151
0.122431 -0.291433 0.795687
0.123975 -0.29116 0.796859
0.125498 -0.290866 0.797586
0.136105 -0.291322 0.818942
0.134613 -0.291674 0.81928
0.133885 -0.289903 0.812637
0.135503 -0.289645 0.814331
0.13759 -0.290966 0.818517
0.137116 -0.289379 0.81587
0.139052 -0.290597 0.817777
0.13866 -0.289065 0.816365
0.141172 -0.290646 0.826262
0.140167 -0.288729 0.816323
0.0611835 -0.304438 0.811469
0.0627033 -0.304044 0.810489
0.0642204 -0.303644 0.809403
0.0657349 -0.303237 0.808189
0.067248 -0.302802 0.806457
0.0687552 -0.302371 0.804797
0.0702569 -0.30194 0.803115
0.0717534 -0.3015 0.801255
0.0732439 -0.301074 0.79961
0.0747294 -0.300655 0.798075
0.0762115 -0.300254 0.796834
0.0776887 -0.299849 0.79551
0.0791639 -0.299461 0.794463
0.0806357 -0.299075 0.793426
0.0821074 -0.298706 0.792689
0.0835744 -0.298327 0.791794
0.0850435 -0.29797 0.791237
0.086512 -0.297617 0.790773
0.0879809 -0.297271 0.790421
0.089451 -0.296931 0.790191
0.0909255 -0.296606 0.790232
0.0924002 -0.296282 0.790274
0.0938684 -0.295942 0.790045
0.0953306 -0.295593 0.78961
0.0967903 -0.295242 0.789142
0.0982484 -0.29489 0.78867
0.0997063 -0.294543 0.788242
0.101172 -0.294209 0.788103
0.102642 -0.293885 0.788144
0.104113 -0.293561 0.788186
0.105584 -0.293237 0.788227
0.107044 -0.2929 0.787997
0.108499 -0.292557 0.787645
0.109956 -0.292218 0.787354
0.111415 -0.291883 0.787175
0.112876 -0.291551 0.787043
0.114358 -0.291242 0.787375
0.115863 -0.290954 0.788175
0.117391 -0.290686 0.789387
0.118939 -0.290432 0.790929
0.120507 -0.29019 0.79277
0.12207 -0.289939 0.794407
0.123614 -0.289665 0.795597
0.125133 -0.289369 0.796293
0.126644 -0.289065 0.796823
0.138214 -0.287504 0.814155
0.139772 -0.2872 0.814871
0.141675 -0.288392 0.816294
0.141326 -0.286892 0.8155
0.143764 -0.288392 0.824051
0.142863 -0.286572 0.815861
0.0593367 -0.303388 0.812695
0.060863 -0.302984 0.811534
0.0623834 -0.302592 0.81057
0.0639012 -0.302197 0.809539
0.0654167 -0.301795 0.808367
0.0669307 -0.301367 0.806734
0.0684392 -0.300939 0.805081
0.0699426 -0.30051 0.803383
0.0714406 -0.300067 0.801423
0.0729325 -0.299641 0.799755
0.0744195 -0.299225 0.798216
0.0759022 -0.298821 0.796887
0.0773804 -0.298418 0.79556
0.0788562 -0.298027 0.794418
0.0803287 -0.297641 0.793375
0.081801 -0.297273 0.792636
0.08327 -0.296901 0.791829
0.0847398 -0.296544 0.79128
0.0862103 -0.296196 0.790893
0.0876787 -0.295846 0.790453
0.0891473 -0.295501 0.790128
0.0906207 -0.295172 0.790073
0.0920934 -0.294842 0.790023
0.093562 -0.294503 0.789798
0.0950268 -0.294159 0.789455
0.0964895 -0.293813 0.789075
0.0979485 -0.293464 0.788617
0.0994067 -0.293116 0.788182
0.100869 -0.292778 0.787944
0.102337 -0.292449 0.787892
0.103805 -0.292121 0.787849
0.105276 -0.291798 0.78789
0.106737 -0.29146 0.787654
0.108188 -0.291114 0.787214
0.10964 -0.290769 0.786822
0.111095 -0.29043 0.786541
0.112552 -0.290095 0.786307
0.114028 -0.28978 0.786541
0.115527 -0.289486 0.787226
0.117052 -0.289215 0.788408
0.118593 -0.288954 0.789854
0.12016 -0.288711 0.791698
0.121717 -0.288453 0.793242
0.123255 -0.288175 0.794361
0.124769 -0.287876 0.795011
0.136051 -0.286151 0.808798
0.137701 -0.285909 0.810973
0.139312 -0.285637 0.81249
0.140915 -0.285358 0.81385
0.142494 -0.285063 0.814819
0.0574893 -0.302312 0.813545
0.0590177 -0.301918 0.812538
0.0605444 -0.301518 0.811407
0.0620652 -0.301129 0.810475
0.0635832 -0.30074 0.809511
0.0650987 -0.300346 0.80845
0.0666128 -0.299931 0.807009
0.068123 -0.299505 0.805353
0.0696279 -0.299078 0.803652
0.0711276 -0.298637 0.801689
0.0726211 -0.298215 0.800016
0.0741092 -0.297796 0.7984
0.0755932 -0.297393 0.797056
0.0770728 -0.296992 0.795734
0.0785487 -0.296596 0.794487
0.0800214 -0.296207 0.793349
0.0814935 -0.295834 0.792498
0.082963 -0.295464 0.791689
0.0844335 -0.295108 0.791149
0.0859062 -0.294767 0.790868
0.0873751 -0.294416 0.790435
0.0888443 -0.294072 0.790093
0.0903158 -0.293737 0.789932
0.0917869 -0.293403 0.789777
0.0932556 -0.293064 0.789548
0.0947232 -0.292726 0.789308
0.0961892 -0.292386 0.789042
0.0976488 -0.292037 0.788587
0.0991075 -0.291689 0.788143
0.100568 -0.291347 0.787801
0.102033 -0.291013 0.787649
0.103498 -0.290681 0.787512
0.104968 -0.290357 0.787554
0.106429 -0.290021 0.787323
0.107884 -0.289678 0.786972
0.109337 -0.289335 0.78659
0.110793 -0.288998 0.786316
0.112253 -0.288666 0.786171
0.11373 -0.288351 0.786406
0.115217 -0.288045 0.786826
0.116735 -0.287766 0.787885
0.118268 -0.287497 0.789184
0.119819 -0.287238 0.790735
0.121364 -0.28697 0.792095
0.122905 -0.286694 0.793292
0.124422 -0.286397 0.794002
0.125949 -0.286105 0.794857
0.131126 -0.286863 0.802043
0.129082 -0.285568 0.797736
0.130679 -0.285314 0.799553
0.132728 -0.286607 0.803794
0.132253 -0.28504 0.800924
0.134381 -0.286377 0.806224
0.133884 -0.284797 0.803084
0.135551 -0.28457 0.805695
0.137225 -0.284342 0.808294
0.138868 -0.284089 0.810334
0.140512 -0.283832 0.812291
0.142121 -0.283552 0.8137
0.144669 -0.285077 0.823629
0.143708 -0.283258 0.814754
0.0559521 -0.302726 0.814876
0.0541024 -0.301624 0.815343
0.0556362 -0.301236 0.814447
0.0571726 -0.30083 0.813197
0.058701 -0.300438 0.812207
0.0602264 -0.300048 0.811224
0.0617471 -0.299663 0.810346
0.0632648 -0.299281 0.809486
0.0647807 -0.298894 0.80851
0.0662951 -0.298485 0.807162
0.0678068 -0.298062 0.805503
0.0693132 -0.297638 0.803813
0.0708141 -0.2972 0.801855
0.0723091 -0.296781 0.8002
0.0737987 -0.296365 0.798575
0.0752839 -0.295964 0.797237
0.0767648 -0.295565 0.795902
0.0782412 -0.295165 0.79456
0.0797141 -0.294773 0.793316
0.0811867 -0.2944 0.792442
0.082657 -0.294031 0.791631
0.0841283 -0.293677 0.79111
0.0856033 -0.293341 0.790947
0.0870747 -0.292997 0.790606
0.0885446 -0.292652 0.790259
0.0900147 -0.292311 0.789985
0.0914843 -0.291972 0.789723
0.0929512 -0.291629 0.789396
0.0944193 -0.291291 0.78916
0.0958863 -0.290953 0.788919
0.0973473 -0.290606 0.788489
0.0988087 -0.290263 0.788127
0.100271 -0.289923 0.787844
0.101734 -0.289586 0.787594
0.103199 -0.289253 0.787448
0.10467 -0.288929 0.787486
0.106135 -0.288597 0.787347
0.107592 -0.288257 0.787019
0.109053 -0.287923 0.786834
0.110514 -0.287589 0.786659
0.111984 -0.287266 0.786704
0.113459 -0.286949 0.786881
0.114943 -0.286637 0.787215
0.116448 -0.286345 0.787984
0.117967 -0.28606 0.788973
0.119496 -0.285782 0.790117
0.121025 -0.2855 0.791176
0.122553 -0.285214 0.792169
0.124075 -0.284921 0.792998
0.125611 -0.284635 0.794034
0.127501 -0.285828 0.796088
0.127173 -0.284364 0.795449
0.128759 -0.284105 0.797198
0.130353 -0.283846 0.798979
0.13193 -0.283573 0.8004
0.133509 -0.283297 0.801805
0.135132 -0.283043 0.803785
0.136779 -0.282797 0.806024
0.138417 -0.282542 0.808049
0.140065 -0.282287 0.810118
0.141695 -0.282017 0.811847
0.143293 -0.281729 0.813093
0.0522545 -0.300507 0.815567
0.0537914 -0.300118 0.814647
0.0553232 -0.299739 0.813863
0.0568595 -0.299334 0.812618
0.0583883 -0.298943 0.811604
0.059913 -0.298556 0.810655
0.0614333 -0.298175 0.809815
0.06295 -0.2978 0.809064
0.064466 -0.297414 0.808088
0.0659809 -0.297008 0.806732
0.0674926 -0.296591 0.805157
0.0689993 -0.296177 0.803585
0.070501 -0.295748 0.801734
0.0719967 -0.29534 0.800259
0.0734876 -0.29493 0.798717
0.0749742 -0.294532 0.797384
0.0764563 -0.294134 0.796046
0.0779341 -0.293738 0.79471
0.0794071 -0.293341 0.793361
0.0808798 -0.292965 0.792387
0.0823505 -0.292596 0.791564
0.0838228 -0.292243 0.791052
0.0852985 -0.291909 0.790912
0.086772 -0.29157 0.790673
0.0882444 -0.29123 0.790419
0.0897154 -0.29089 0.790138
0.0911839 -0.290546 0.78978
0.092651 -0.290202 0.789434
0.0941198 -0.289865 0.789192
0.0955875 -0.289527 0.788957
0.0970496 -0.289181 0.788538
0.0985144 -0.288843 0.788268
0.0999779 -0.288504 0.78799
0.101439 -0.288163 0.78765
0.102904 -0.28783 0.787498
0.104376 -0.287506 0.787531
0.105845 -0.287177 0.787486
0.107306 -0.286842 0.787263
0.108776 -0.286517 0.78728
0.110243 -0.286188 0.78722
0.111719 -0.285869 0.787368
0.1132 -0.285555 0.787628
0.114686 -0.285243 0.787982
0.116184 -0.284941 0.788568
0.117693 -0.284647 0.789342
0.119212 -0.284357 0.790263
0.120731 -0.284066 0.791123
0.122254 -0.283774 0.792029
0.123784 -0.283485 0.792996
0.125324 -0.283201 0.794088
0.126871 -0.282917 0.795252
0.12844 -0.282645 0.79671
0.130028 -0.28238 0.798411
0.131599 -0.282102 0.799757
0.133149 -0.281809 0.800725
0.134749 -0.281539 0.802389
0.136371 -0.281278 0.804299
0.137998 -0.281016 0.806213
0.139639 -0.280756 0.808217
0.141285 -0.280495 0.810219
0.142888 -0.280208 0.811557
0.0519349 -0.299025 0.815311
0.0534713 -0.298641 0.814444
0.0550049 -0.298257 0.813574
0.0565436 -0.297849 0.812217
0.0580739 -0.297454 0.811115
0.0595976 -0.297074 0.810263
0.0611178 -0.296696 0.809448
0.0626347 -0.296323 0.808702
0.0641518 -0.295933 0.807627
0.0656673 -0.295528 0.80625
0.0671797 -0.29511 0.804594
0.068686 -0.294702 0.803118
0.070188 -0.294283 0.801383
0.0716844 -0.293888 0.800103
0.0731761 -0.293484 0.798655
0.0746637 -0.293092 0.797415
0.0761466 -0.292693 0.795999
0.0776257 -0.292303 0.794753
0.0791 -0.291908 0.793401
0.0805727 -0.291529 0.792343
0.0820443 -0.291162 0.79151
0.0835181 -0.290813 0.791079
0.0849944 -0.290479 0.790934
0.0864688 -0.290141 0.790711
0.0879436 -0.289806 0.790558
0.089416 -0.289467 0.790301
0.0908852 -0.289123 0.789947
0.0923513 -0.288776 0.789499
0.0938201 -0.288437 0.789232
0.0952882 -0.288099 0.788981
0.0967511 -0.287755 0.788566
0.0982171 -0.287417 0.788314
0.0996844 -0.287083 0.788139
0.101144 -0.286739 0.787729
0.10261 -0.286406 0.787577
0.104082 -0.286081 0.787595
0.105555 -0.285757 0.787647
0.107021 -0.285426 0.787523
0.1085 -0.28511 0.787747
0.109972 -0.284785 0.787777
0.111457 -0.284472 0.788105
0.112944 -0.28416 0.788456
0.114435 -0.283852 0.788896
0.115932 -0.283545 0.789401
0.117434 -0.283242 0.789997
0.118939 -0.28294 0.79062
0.120447 -0.282638 0.791276
0.121962 -0.282338 0.792002
0.123492 -0.282049 0.792979
0.125037 -0.281765 0.794157
0.126584 -0.281479 0.795306
0.128146 -0.281201 0.796654
0.129721 -0.280926 0.798148
0.131279 -0.280639 0.799288
0.132816 -0.280335 0.800053
0.134396 -0.280055 0.801446
0.136003 -0.279785 0.803153
0.137628 -0.279519 0.805049
0.139266 -0.279257 0.807053
0.140906 -0.27899 0.808989
0.142513 -0.278705 0.810406
0.0516211 -0.297527 0.814767
0.0531581 -0.297143 0.813876
0.0546924 -0.29676 0.812973
0.0562348 -0.296341 0.81138
0.0577635 -0.295953 0.810374
0.0592855 -0.295579 0.809612
0.0608044 -0.295208 0.808905
0.0623212 -0.294836 0.808152
0.0638385 -0.294447 0.807067
0.0653543 -0.294043 0.805659
0.066867 -0.293628 0.803999
0.0683733 -0.293224 0.802547
0.0698751 -0.292817 0.801021
0.0713717 -0.292429 0.799844
0.0728641 -0.292032 0.798501
0.0743531 -0.291652 0.797446
0.0758374 -0.291259 0.796129
0.0773184 -0.290876 0.794985
0.0787948 -0.290488 0.793733
0.0802689 -0.29011 0.79268
0.0817397 -0.289735 0.79166
0.0832132 -0.289383 0.79112
0.0846874 -0.289039 0.790781
0.0861623 -0.288701 0.790551
0.0876377 -0.288368 0.790414
0.0891125 -0.288034 0.790268
0.0905844 -0.287695 0.790019
0.0920535 -0.287353 0.789667
0.0935207 -0.28701 0.789295
0.0949868 -0.286667 0.788936
0.09645 -0.286323 0.788508
0.0979166 -0.285985 0.788262
0.0993856 -0.285653 0.788117
0.100848 -0.285313 0.787794
0.102318 -0.284985 0.787727
0.10379 -0.284659 0.787744
0.105264 -0.284335 0.7878
0.106735 -0.284008 0.787777
0.108219 -0.283695 0.788092
0.109696 -0.283373 0.788223
0.111189 -0.283067 0.788719
0.112685 -0.282761 0.789248
0.114183 -0.282455 0.789795
0.115682 -0.282149 0.790325
0.117186 -0.281845 0.790915
0.118683 -0.281534 0.791345
0.120183 -0.281223 0.791797
0.121689 -0.280916 0.792346
0.123215 -0.28062 0.793238
0.124757 -0.280333 0.794342
0.126299 -0.280042 0.795404
0.12786 -0.27976 0.796726
0.129423 -0.279477 0.798021
0.130973 -0.279182 0.799034
0.132507 -0.278877 0.799765
0.13408 -0.278591 0.801036
0.135667 -0.278308 0.80247
0.13729 -0.27804 0.80436
0.138914 -0.277769 0.80618
0.14054 -0.277494 0.807942
0.142145 -0.277207 0.80936
0.144718 -0.278678 0.819647
0.143719 -0.276903 0.810299
0.0513027 -0.296043 0.814461
0.0528427 -0.295653 0.813431
0.0543769 -0.295272 0.81254
0.0559216 -0.294849 0.810841
0.0574518 -0.294459 0.809738
0.0589722 -0.294091 0.809078
0.0604898 -0.293726 0.808464
0.0620078 -0.293352 0.807632
0.0635251 -0.292963 0.806527
0.0650426 -0.292552 0.804923
0.0665558 -0.292134 0.803158
0.0680618 -0.291733 0.801707
0.0695631 -0.291334 0.800288
0.0710594 -0.290953 0.799236
0.0725521 -0.290573 0.798178
0.0740418 -0.290202 0.797319
0.0755274 -0.289817 0.796117
0.0770102 -0.289443 0.795153
0.0784893 -0.289066 0.794091
0.0799649 -0.288691 0.793049
0.0814373 -0.288316 0.79203
0.0829117 -0.287964 0.791457
0.0843856 -0.287615 0.791002
0.0858597 -0.287273 0.790673
0.0873373 -0.286943 0.790614
0.0888132 -0.28661 0.790481
0.0902866 -0.286273 0.790247
0.0917567 -0.285931 0.789908
0.0932252 -0.285589 0.789542
0.0946901 -0.285243 0.789084
0.0961562 -0.284902 0.788732
0.0976262 -0.284569 0.78857
0.0990987 -0.284239 0.788516
0.100563 -0.283901 0.788203
0.102037 -0.283575 0.788215
0.103507 -0.283246 0.788145
0.104982 -0.282921 0.788199
0.106458 -0.282597 0.788271
0.107946 -0.282287 0.788676
0.109426 -0.281966 0.788823
0.110924 -0.281662 0.789412
0.112422 -0.281356 0.789958
0.113923 -0.281049 0.79053
0.115424 -0.280742 0.791075
0.116925 -0.280434 0.79158
0.118418 -0.280117 0.791898
0.119913 -0.279802 0.792233
0.12141 -0.279487 0.792585
0.122932 -0.279188 0.793394
0.12447 -0.278895 0.794417
0.126012 -0.278603 0.795482
0.127569 -0.278317 0.796726
0.129121 -0.278024 0.797836
0.130663 -0.277724 0.79873
0.132202 -0.277421 0.799529
0.133762 -0.277126 0.80062
0.135336 -0.276836 0.801866
0.136956 -0.276564 0.803712
0.138571 -0.276285 0.805418
0.140182 -0.276003 0.806997
0.141786 -0.275714 0.808415
0.143372 -0.275414 0.809532
0.145245 -0.276579 0.810584
0.144904 -0.275092 0.809908
0.147403 -0.276502 0.818874
0.14642 -0.274764 0.810059
0.0509773 -0.294572 0.814457
0.05252 -0.294181 0.813346
0.0540562 -0.293797 0.812388
0.0556021 -0.293377 0.810666
0.0571345 -0.292984 0.809469
0.0586565 -0.292612 0.808721
0.0601731 -0.292254 0.808213
0.0616903 -0.291885 0.807483
0.0632075 -0.291503 0.806476
0.0647267 -0.291091 0.804782
0.0662409 -0.290674 0.802986
0.0677481 -0.290269 0.801428
0.06925 -0.289872 0.800007
0.0707468 -0.289494 0.798976
0.07224 -0.289125 0.79813
0.0737306 -0.288761 0.797374
0.075218 -0.288386 0.796363
0.0767032 -0.288023 0.7956
0.0781846 -0.287652 0.794656
0.0796629 -0.287282 0.793713
0.0811371 -0.286908 0.79268
0.082612 -0.286551 0.792008
0.0840849 -0.286195 0.791355
0.085559 -0.28585 0.790916
0.0870358 -0.285515 0.790766
0.088514 -0.285186 0.790709
0.0899884 -0.284849 0.790481
0.0914597 -0.284507 0.790147
0.0929293 -0.284165 0.78979
0.0943955 -0.28382 0.789337
0.0958625 -0.28348 0.788982
0.0973336 -0.283147 0.788824
0.0988071 -0.282818 0.788771
0.100272 -0.282479 0.788457
0.101747 -0.282153 0.788464
0.103219 -0.281824 0.788398
0.104694 -0.281499 0.788445
0.106174 -0.281179 0.788607
0.107664 -0.280867 0.789019
0.109145 -0.280546 0.789172
0.110644 -0.280241 0.789775
0.112148 -0.279938 0.790421
0.11365 -0.279631 0.791004
0.115157 -0.279327 0.791642
0.116659 -0.279016 0.792144
0.118153 -0.278699 0.792445
0.119648 -0.278383 0.792765
0.121145 -0.278065 0.793101
0.122663 -0.277761 0.793807
0.1242 -0.277467 0.794812
0.125739 -0.27717 0.795785
0.127286 -0.276875 0.796855
0.128828 -0.276576 0.797791
0.130365 -0.276272 0.798604
0.131904 -0.275968 0.799409
0.13346 -0.275669 0.800438
0.135035 -0.275377 0.801687
0.136651 -0.275101 0.803494
0.138261 -0.274819 0.80514
0.139864 -0.274529 0.806606
0.141475 -0.274242 0.80812
0.143063 -0.273942 0.809266
0.144604 -0.273622 0.809751
0.146127 -0.273296 0.810002
0.0506483 -0.293109 0.81461
0.0521921 -0.29272 0.813506
0.0537297 -0.292337 0.812532
0.0552773 -0.291919 0.810803
0.0568122 -0.291521 0.809505
0.0583353 -0.291152 0.80875
0.0598537 -0.29079 0.808157
0.0613714 -0.290422 0.807439
0.062891 -0.290036 0.806283
0.0644116 -0.28962 0.804491
0.0659279 -0.289198 0.802496
0.0674358 -0.288794 0.800894
0.0689377 -0.288399 0.799474
0.0704343 -0.288032 0.798635
0.0719279 -0.287673 0.797987
0.0734194 -0.287318 0.797429
0.0749084 -0.286953 0.796605
0.0763951 -0.286594 0.79595
0.0778785 -0.286229 0.795114
0.0793594 -0.285866 0.794279
0.0808355 -0.285494 0.793255
0.082311 -0.285133 0.792477
0.0837842 -0.284774 0.791731
0.0852581 -0.284425 0.791195
0.0867347 -0.284087 0.790952
0.0882132 -0.283756 0.790883
0.0896886 -0.28342 0.790652
0.0911606 -0.283079 0.790303
0.0926311 -0.282738 0.789943
0.0940983 -0.282393 0.789495
0.0955666 -0.282053 0.789158
0.097039 -0.281721 0.789011
0.0985134 -0.281392 0.78896
0.0999795 -0.281054 0.788643
0.101455 -0.280728 0.788649
0.102927 -0.280397 0.788569
0.104404 -0.280073 0.788624
0.105884 -0.279752 0.788782
0.107375 -0.279441 0.78921
0.108857 -0.279119 0.78937
0.110361 -0.278816 0.790048
0.111864 -0.278511 0.790684
0.113371 -0.278206 0.79135
0.114883 -0.277903 0.792076
0.11639 -0.277595 0.792666
0.117882 -0.277275 0.792896
0.119383 -0.27696 0.7933
0.120881 -0.276643 0.793637
0.122391 -0.276331 0.794164
0.123922 -0.276031 0.795059
0.125459 -0.275731 0.795998
0.126995 -0.27543 0.796868
0.128527 -0.275123 0.797629
0.130064 -0.274818 0.798433
0.131615 -0.274518 0.799437
0.133175 -0.27422 0.800508
0.134751 -0.273926 0.80178
0.136366 -0.273647 0.803574
0.137975 -0.27336 0.805183
0.139563 -0.273063 0.806453
0.141176 -0.272773 0.807994
0.142771 -0.272475 0.809242
0.144329 -0.27216 0.809938
0.145862 -0.271837 0.8103
0.148286 -0.273188 0.818201
0.147376 -0.271505 0.810413
0.0503222 -0.291638 0.814621
0.0518682 -0.291246 0.813451
0.0534058 -0.290867 0.812525
0.0549558 -0.290448 0.810716
0.0564935 -0.290049 0.809314
0.0580172 -0.28968 0.808549
0.0595364 -0.289317 0.807926
0.0610546 -0.288951 0.80721
0.0625753 -0.288562 0.805982
0.0640982 -0.288143 0.804019
0.0656152 -0.287722 0.801994
0.0671236 -0.28732 0.800352
0.0686256 -0.286927 0.798934
0.0701216 -0.28657 0.798308
0.0716154 -0.28622 0.797866
0.0731078 -0.28587 0.797398
0.0745979 -0.285513 0.79674
0.0760862 -0.28516 0.796189
0.077571 -0.284797 0.795382
0.0790545 -0.284442 0.794734
0.0805322 -0.284072 0.793704
0.0820082 -0.283709 0.792838
0.0834815 -0.283346 0.79199
0.0849577 -0.283001 0.791534
0.0864341 -0.28266 0.791211
0.0879142 -0.282331 0.791157
0.0893886 -0.28199 0.790824
0.0908612 -0.281649 0.790457
0.0923302 -0.281304 0.789989
0.0937981 -0.280961 0.789542
0.0952675 -0.280621 0.789214
0.0967429 -0.280292 0.789164
0.0982186 -0.279964 0.789119
0.0996853 -0.279625 0.788795
0.101161 -0.279299 0.788797
0.102634 -0.278969 0.788718
0.104112 -0.278645 0.788778
0.105593 -0.278323 0.788946
0.107085 -0.278011 0.789369
0.108567 -0.277689 0.789511
0.110071 -0.277384 0.790186
0.111579 -0.277081 0.790898
0.11309 -0.276777 0.791656
0.114607 -0.276477 0.792482
0.116121 -0.27617 0.79318
0.117618 -0.275853 0.793508
0.119117 -0.275535 0.793846
0.120613 -0.275215 0.794114
0.122119 -0.274899 0.794548
0.123636 -0.27459 0.795166
0.125161 -0.274282 0.795889
0.126695 -0.273977 0.796723
0.12822 -0.273668 0.797371
0.129752 -0.273358 0.798096
0.131329 -0.273068 0.799505
0.132905 -0.272775 0.800827
0.134482 -0.272479 0.802103
0.136103 -0.272198 0.803966
0.137703 -0.271907 0.805451
0.13928 -0.271603 0.806539
0.140893 -0.271311 0.808089
0.142497 -0.271012 0.809449
0.14407 -0.270702 0.810347
0.145612 -0.27038 0.810796
0.147149 -0.270055 0.811184
0.0499846 -0.290187 0.815115
0.051532 -0.289798 0.813966
0.0530726 -0.289417 0.812974
0.0546278 -0.288993 0.810989
0.0561682 -0.288592 0.809503
0.0576949 -0.288218 0.808615
0.0592177 -0.287847 0.807784
0.0607368 -0.287481 0.807048
0.0622604 -0.287087 0.805619
0.0637856 -0.286662 0.803462
0.0653037 -0.286239 0.801306
0.0668126 -0.285836 0.799591
0.0683151 -0.28544 0.798019
0.06981 -0.285092 0.797603
0.0713032 -0.284752 0.797363
0.0727956 -0.284407 0.796996
0.0742862 -0.284057 0.796516
0.0757756 -0.283713 0.796139
0.0772619 -0.283355 0.795428
0.0787469 -0.283004 0.794886
0.0802264 -0.282639 0.793942
0.0817037 -0.282277 0.793067
0.0831781 -0.281916 0.792201
0.0846541 -0.281568 0.791668
0.0861315 -0.281228 0.791345
0.0876138 -0.2809 0.791389
0.0890879 -0.280558 0.790975
0.0905594 -0.280213 0.790514
0.0920286 -0.279868 0.790019
0.093497 -0.279525 0.789561
0.0949649 -0.279183 0.789149
0.0964434 -0.278857 0.789191
0.0979196 -0.278529 0.789146
0.0993844 -0.278188 0.788731
0.100858 -0.277858 0.788637
0.102331 -0.277529 0.788558
0.103809 -0.277204 0.788628
0.105294 -0.276886 0.788887
0.10679 -0.276576 0.789396
0.108272 -0.276253 0.789532
0.109772 -0.275944 0.790109
0.11128 -0.275639 0.790824
0.112793 -0.275336 0.791602
0.114311 -0.275034 0.792457
0.115831 -0.274731 0.793272
0.117338 -0.274418 0.793782
0.118842 -0.274102 0.794214
0.120344 -0.273784 0.794571
0.121851 -0.273468 0.795017
0.123364 -0.273154 0.795533
0.124878 -0.272839 0.796043
0.126394 -0.272525 0.79656
0.127907 -0.272208 0.79701
0.12943 -0.271894 0.797583
0.131009 -0.271603 0.799037
0.132594 -0.271312 0.800511
0.134208 -0.271029 0.802344
0.135848 -0.270752 0.804492
0.137463 -0.270462 0.80618
0.139048 -0.270159 0.807367
0.14067 -0.269867 0.809017
0.142271 -0.269565 0.810306
0.143852 -0.269254 0.811286
0.145388 -0.268928 0.811653
0.146936 -0.268606 0.812139
0.0496489 -0.288729 0.815507
0.0511976 -0.288343 0.814375
0.0527408 -0.287961 0.813326
0.0543013 -0.287531 0.811147
0.0558433 -0.287132 0.809659
0.0573728 -0.286755 0.808662
0.0588994 -0.286377 0.807625
0.0604193 -0.286011 0.806864
0.0619456 -0.28561 0.805238
0.0634726 -0.285185 0.80297
0.0649922 -0.284761 0.800701
0.0665015 -0.284356 0.798883
0.0680043 -0.283959 0.797238
0.0694985 -0.283618 0.79694
0.0709912 -0.283283 0.796811
0.0724834 -0.282942 0.79655
0.0739743 -0.2826 0.796255
0.0754646 -0.282261 0.795992
0.0769518 -0.281907 0.795349
0.0784381 -0.281561 0.794926
0.0799187 -0.281197 0.79399
0.0813951 -0.280831 0.792943
0.082869 -0.280467 0.791981
0.084346 -0.280121 0.7915
0.0858214 -0.279776 0.791021
0.0873071 -0.279456 0.791263
0.0887828 -0.279117 0.790908
0.0902549 -0.278773 0.790442
0.0917232 -0.278426 0.789875
0.0931935 -0.278085 0.789481
0.0946557 -0.277736 0.788811
0.0961315 -0.277406 0.788754
0.0976042 -0.277074 0.788589
0.0990677 -0.276733 0.788136
0.100539 -0.276401 0.787971
0.102016 -0.276076 0.788016
0.103497 -0.275754 0.788182
0.104982 -0.275436 0.788455
0.106477 -0.275125 0.788965
0.107962 -0.274805 0.789184
0.109455 -0.274491 0.789592
0.110963 -0.274185 0.790315
0.112479 -0.273882 0.79119
0.113999 -0.27358 0.792069
0.115522 -0.273279 0.792978
0.117038 -0.27297 0.793672
0.118552 -0.272659 0.79428
0.120063 -0.272345 0.794818
0.121576 -0.272031 0.795353
0.12309 -0.271716 0.795861
0.124604 -0.2714 0.796371
0.12611 -0.271079 0.796689
0.127614 -0.270757 0.796971
0.129128 -0.270439 0.797402
0.130702 -0.270144 0.79879
0.133925 -0.269573 0.802464
0.135577 -0.269298 0.804795
0.137227 -0.269017 0.806978
0.138831 -0.268717 0.808407
0.140466 -0.268425 0.810207
0.142063 -0.268118 0.811427
0.143641 -0.267805 0.812342
0.145165 -0.267475 0.812509
0.146713 -0.26715 0.812992
0.149091 -0.268453 0.820167
0.148214 -0.266813 0.812854
0.0493065 -0.28728 0.816163
0.0508603 -0.286889 0.814888
0.0524127 -0.286494 0.81348
0.0539765 -0.286063 0.811212
0.055518 -0.285671 0.809812
0.0570488 -0.285295 0.808805
0.0585781 -0.284913 0.807654
0.0601024 -0.284538 0.806615
0.0616345 -0.284122 0.804535
0.0631635 -0.283691 0.802054
0.0646837 -0.283266 0.799671
0.0661933 -0.282861 0.797756
0.0676957 -0.282468 0.796108
0.0691878 -0.282136 0.796066
0.0706795 -0.281805 0.796034
0.0721712 -0.28147 0.795892
0.0736619 -0.281133 0.795713
0.0751523 -0.280798 0.795565
0.0766403 -0.280451 0.795093
0.0781274 -0.280108 0.794727
0.079609 -0.279747 0.79383
0.0810847 -0.279377 0.792656
0.0825587 -0.279014 0.791684
0.0840356 -0.278669 0.791153
0.0855096 -0.278321 0.790556
0.0869968 -0.278004 0.79092
0.0884741 -0.277668 0.790657
0.0899483 -0.277328 0.790278
0.0914174 -0.276982 0.789728
0.0928905 -0.276646 0.789433
0.0943463 -0.276288 0.788472
0.0958185 -0.275955 0.788266
0.0972865 -0.275618 0.787943
0.098749 -0.275276 0.787468
0.100218 -0.274943 0.787247
0.101694 -0.274618 0.787285
0.103174 -0.274297 0.78745
0.10466 -0.273979 0.787737
0.106151 -0.273664 0.788166
0.107635 -0.273344 0.788394
0.109127 -0.273029 0.788796
0.110634 -0.272723 0.789515
0.112153 -0.272422 0.790465
0.113675 -0.27212 0.791429
0.115202 -0.27182 0.792429
0.116722 -0.271513 0.793226
0.118245 -0.271205 0.794018
0.119762 -0.270894 0.794675
0.121282 -0.270582 0.795322
0.122796 -0.270266 0.795841
0.124315 -0.269952 0.796429
0.125817 -0.269629 0.796682
0.127317 -0.269304 0.796887
0.136974 -0.267562 0.807532
0.1386 -0.267267 0.80927
0.140233 -0.26697 0.811022
0.14183 -0.266662 0.812214
0.143407 -0.266345 0.81309
0.144927 -0.266013 0.813193
0.146471 -0.265685 0.813593
0.14798 -0.26535 0.813545
0.0489705 -0.285817 0.816526
0.0505267 -0.285426 0.815215
0.0520881 -0.285017 0.813436
0.053655 -0.284587 0.811084
0.0551938 -0.284204 0.809879
0.0567254 -0.283829 0.808883
0.0582559 -0.28345 0.807731
0.0597803 -0.283079 0.806765
0.061312 -0.282672 0.804855
0.0628456 -0.282236 0.802098
0.064369 -0.281806 0.799507
0.0658814 -0.281393 0.7973
0.0673852 -0.280993 0.795389
0.0688768 -0.28066 0.79531
0.0703681 -0.280329 0.795275
0.071859 -0.279997 0.795228
0.0733498 -0.279667 0.795178
0.0748401 -0.279335 0.795137
0.0763291 -0.278995 0.794845
0.0866685 -0.276516 0.789433
0.0881457 -0.276184 0.789261
0.0896217 -0.27585 0.789068
0.0925862 -0.275203 0.789343
0.0984282 -0.273818 0.786712
0.0998966 -0.273486 0.786502
0.101373 -0.273161 0.786555
0.102852 -0.272839 0.786717
0.104336 -0.272521 0.786995
0.105823 -0.272205 0.787331
0.107307 -0.271884 0.78756
0.108795 -0.271566 0.787872
0.110296 -0.271256 0.788486
0.111809 -0.270951 0.789322
0.113325 -0.270645 0.790183
0.11485 -0.270344 0.791185
0.116373 -0.270039 0.792085
0.1179 -0.269733 0.793008
0.119427 -0.269426 0.793862
0.120961 -0.26912 0.794802
0.122479 -0.268805 0.79541
0.124005 -0.268494 0.79612
0.125515 -0.268173 0.796499
0.127019 -0.26785 0.796776
0.140035 -0.265523 0.81233
0.141618 -0.265206 0.813305
0.143184 -0.264885 0.814009
0.144696 -0.264549 0.813976
0.146233 -0.264219 0.814264
0.14775 -0.263885 0.814301
0.047019 -0.284821 0.820231
0.0486197 -0.284373 0.817468
0.0501898 -0.283965 0.815655
0.051762 -0.283543 0.813466
0.0533263 -0.283124 0.811318
0.0548643 -0.282748 0.81024
0.0563954 -0.282378 0.809355
0.057926 -0.282004 0.808309
0.0594523 -0.281634 0.807333
0.0609839 -0.281237 0.805608
0.0625202 -0.280804 0.802861
0.0640488 -0.280368 0.799957
0.0655692 -0.279929 0.796908
0.0670772 -0.279506 0.794286
0.0685685 -0.279168 0.794015
0.0700585 -0.27883 0.793789
0.0715477 -0.278503 0.793834
0.0730369 -0.278179 0.794026
0.0745267 -0.277856 0.794209
0.0760165 -0.27753 0.794316
0.0863473 -0.275044 0.788367
0.0878254 -0.274715 0.788306
0.0893037 -0.274387 0.788291
0.0981073 -0.272361 0.785951
0.0995762 -0.27203 0.785773
0.101053 -0.271707 0.785867
0.102531 -0.271385 0.78601
0.104013 -0.271065 0.786241
0.105496 -0.270745 0.786476
0.106978 -0.270425 0.786696
0.108461 -0.270104 0.786918
0.109953 -0.269788 0.787338
0.11146 -0.269479 0.788066
0.112969 -0.269171 0.788814
0.114489 -0.268867 0.789743
0.116015 -0.268562 0.790741
0.117554 -0.268262 0.791937
0.119094 -0.26796 0.79309
0.120638 -0.267659 0.794248
0.12217 -0.267349 0.795114
0.123705 -0.267039 0.795975
0.125213 -0.266717 0.796334
0.126715 -0.266394 0.796573
0.141413 -0.263749 0.814499
0.142958 -0.26342 0.814883
0.144463 -0.263082 0.814732
0.145986 -0.262748 0.814834
0.147498 -0.262412 0.814774
0.046677 -0.283351 0.820695
0.0482729 -0.282918 0.818214
0.0498509 -0.282503 0.816163
0.0514288 -0.282078 0.813807
0.0529909 -0.28167 0.811858
0.054529 -0.281299 0.810878
0.0560622 -0.280931 0.809989
0.0575933 -0.280561 0.809031
0.0591234 -0.280187 0.807924
0.0606565 -0.279795 0.806268
0.0621991 -0.279353 0.803145
0.0652594 -0.278452 0.79616
0.0667705 -0.278016 0.793018
0.0682613 -0.277669 0.792492
0.06975 -0.277329 0.792135
0.0712369 -0.277001 0.792184
0.0727243 -0.276684 0.792539
0.0742125 -0.276366 0.792857
0.0860147 -0.273551 0.786518
0.0874943 -0.27323 0.78669
0.0977861 -0.270905 0.785162
0.0992607 -0.27058 0.785204
0.100739 -0.270259 0.785362
0.102217 -0.269936 0.785506
0.103692 -0.269611 0.78554
0.10517 -0.269288 0.785664
0.106648 -0.268965 0.78578
0.108126 -0.268642 0.785903
0.109606 -0.26832 0.786054
0.111105 -0.268007 0.786653
0.112604 -0.267694 0.787202
0.114117 -0.267386 0.788036
0.115641 -0.267081 0.789047
0.117191 -0.266786 0.790522
0.118743 -0.266489 0.791947
0.1203 -0.266191 0.793394
0.121839 -0.265884 0.794408
0.123385 -0.265577 0.795496
0.141185 -0.262281 0.81538
0.142703 -0.261946 0.815384
0.144204 -0.261607 0.815163
0.145725 -0.261272 0.815215
0.147237 -0.260936 0.815146
0.0447396 -0.282295 0.823231
0.0463257 -0.28189 0.821479
0.0479264 -0.281458 0.81892
0.0495093 -0.281043 0.816768
0.0510913 -0.280618 0.814326
0.0526505 -0.280222 0.812627
0.0541904 -0.279851 0.811655
0.0557248 -0.279487 0.810826
0.0572554 -0.279124 0.810044
0.0587883 -0.278751 0.80892
0.0603225 -0.278366 0.807398
0.0618737 -0.277912 0.80378
0.0679562 -0.276167 0.790706
0.0694431 -0.275824 0.790226
0.0709277 -0.275497 0.790266
0.0724122 -0.275175 0.790459
0.100427 -0.268811 0.784908
0.101901 -0.268486 0.784949
0.103372 -0.268159 0.784864
0.104846 -0.267834 0.784906
0.106314 -0.267505 0.784762
0.107785 -0.267179 0.784732
0.109253 -0.266851 0.78461
0.110737 -0.266532 0.784918
0.112225 -0.266213 0.785263
0.113731 -0.265904 0.785996
0.115256 -0.265599 0.787093
0.116811 -0.265306 0.788748
0.118371 -0.265011 0.790379
0.119941 -0.264718 0.792114
0.121489 -0.264412 0.793346
0.123036 -0.264105 0.794465
0.140888 -0.260796 0.815323
0.142411 -0.260462 0.815389
0.143917 -0.260124 0.815229
0.14544 -0.259789 0.815302
0.14696 -0.259454 0.815324
0.14939 -0.260714 0.823054
0.148468 -0.259117 0.815199
0.0431379 -0.282712 0.82531
0.0444089 -0.2808 0.823192
0.0459853 -0.280412 0.821842
0.0475807 -0.279993 0.819566
0.0491681 -0.279578 0.817325
0.0507506 -0.27916 0.81497
0.0523123 -0.278764 0.813245
0.0538569 -0.278391 0.812133
0.0553917 -0.278029 0.811361
0.0569219 -0.277673 0.81073
0.0676516 -0.274673 0.789041
0.0691367 -0.27433 0.788506
0.0706189 -0.274002 0.788542
0.0721013 -0.273675 0.788526
0.104493 -0.266364 0.783294
0.105952 -0.266032 0.782986
0.107415 -0.265703 0.782783
0.108877 -0.265374 0.782611
0.110355 -0.265054 0.782793
0.11183 -0.264731 0.782923
0.113324 -0.264417 0.783463
0.114841 -0.264111 0.784473
0.116385 -0.263812 0.785977
0.117932 -0.263513 0.787447
0.119509 -0.263221 0.789419
0.121054 -0.262915 0.790651
0.122594 -0.262607 0.791727
0.142131 -0.258978 0.815568
0.143637 -0.258641 0.815398
0.14516 -0.258305 0.815447
0.146681 -0.25797 0.815481
0.148197 -0.257634 0.815442
0.0424871 -0.2797 0.824791
0.0440675 -0.279315 0.823507
0.0456351 -0.278942 0.822536
0.0472252 -0.278537 0.820566
0.0488155 -0.278124 0.818324
0.0504012 -0.277709 0.815957
0.0519655 -0.277317 0.814248
0.0535184 -0.276935 0.812835
0.0550546 -0.276576 0.812102
0.0565841 -0.276225 0.811626
0.0688329 -0.272824 0.786245
0.0703121 -0.272499 0.786298
0.0717914 -0.272172 0.786291
0.105601 -0.264568 0.781477
0.107059 -0.264238 0.781191
0.108511 -0.263906 0.780798
0.109976 -0.263582 0.780753
0.111441 -0.263256 0.7807
0.112919 -0.262937 0.780953
0.114423 -0.262626 0.781774
0.115954 -0.262324 0.783074
0.117482 -0.262019 0.784266
0.119055 -0.261725 0.786251
0.120599 -0.26142 0.787556
0.122137 -0.261111 0.788693
0.141191 -0.257393 0.806736
0.142981 -0.257102 0.810536
0.144699 -0.256795 0.813237
0.146372 -0.256481 0.815247
0.147894 -0.256146 0.815293
0.0437509 -0.277801 0.822964
0.0453104 -0.277439 0.822289
0.0468917 -0.277049 0.820688
0.0484829 -0.27664 0.818469
0.0500631 -0.276238 0.816412
0.0516287 -0.275849 0.814731
0.0531819 -0.275471 0.813396
0.0547239 -0.275106 0.812432
0.0714822 -0.270703 0.785179
0.103779 -0.263429 0.779812
0.105234 -0.263099 0.779489
0.10669 -0.262772 0.779239
0.108137 -0.26244 0.778784
0.109593 -0.262113 0.778559
0.111043 -0.261784 0.778237
0.112508 -0.261462 0.778282
0.113999 -0.261147 0.778883
0.11551 -0.260839 0.779878
0.117014 -0.260527 0.780659
0.11855 -0.260223 0.782027
0.120044 -0.259906 0.782519
0.0434171 -0.276305 0.823003
0.0449744 -0.275949 0.822446
0.0465601 -0.275556 0.820724
0.0481546 -0.27515 0.818432
0.0497356 -0.274751 0.816397
0.0512994 -0.274368 0.814844
0.0528549 -0.273991 0.813453
0.106326 -0.261311 0.777378
0.107775 -0.260982 0.777034
0.109225 -0.260655 0.776716
0.110668 -0.260325 0.776281
0.112122 -0.26 0.776133
0.113595 -0.259682 0.776425
0.11508 -0.259367 0.776942
0.116555 -0.259048 0.777221
0.118045 -0.258732 0.777784
0.119505 -0.258408 0.777736
0.0494078 -0.273263 0.816381
0.0509718 -0.272883 0.814869
0.105978 -0.259861 0.775933
0.107425 -0.259534 0.775553
0.108881 -0.259209 0.775463
0.110325 -0.258881 0.775065
0.111767 -0.258555 0.77468
0.113215 -0.25823 0.77444
0.114675 -0.257908 0.774487
0.116123 -0.257583 0.77428
0.117564 -0.257258 0.773946
0.119007 -0.256934 0.773684
0.120441 -0.256607 0.773271
0.133205 -0.255057 0.764237
0.131594 -0.253978 0.765867
0.132916 -0.253646 0.764091
0.134959 -0.254778 0.76876
0.134408 -0.253333 0.764844
0.136853 -0.254511 0.775062
0.136072 -0.253037 0.768008
0.107105 -0.258097 0.774868
0.108552 -0.257771 0.774549
0.109989 -0.257443 0.774017
0.111423 -0.257114 0.773448
0.112854 -0.256786 0.772865
0.114306 -0.256464 0.772772
0.115754 -0.256141 0.772613
0.117194 -0.255817 0.772322
0.118647 -0.255495 0.772269
0.120103 -0.255174 0.772306
0.121873 -0.256281 0.772831
0.121551 -0.254852 0.772182
0.123298 -0.255955 0.772317
0.122981 -0.254527 0.771753
0.124744 -0.255632 0.772169
0.124422 -0.254205 0.771534
0.125826 -0.253878 0.77071
0.12753 -0.254973 0.770205
0.127205 -0.253548 0.769518
0.128889 -0.25464 0.76876
0.128566 -0.253218 0.76811
0.130253 -0.254309 0.767458
0.129938 -0.252891 0.766935
0.131283 -0.252562 0.76542
0.132615 -0.252234 0.763767
0.133959 -0.251908 0.762382
0.135445 -0.251594 0.763066
0.137765 -0.252739 0.771425
0.136946 -0.251281 0.763938
0.078027 -0.26498 0.79704
0.0765279 -0.265306 0.796819
0.0762171 -0.26385 0.79705
0.0777155 -0.263518 0.797018
0.0795238 -0.264646 0.796937
0.0792114 -0.263181 0.7967
0.0810242 -0.264321 0.797224
0.0807094 -0.262851 0.79672
0.082209 -0.262524 0.796902
0.0855469 -0.263365 0.799244
0.0837098 -0.262197 0.797133
0.0852149 -0.261874 0.797643
0.0867187 -0.261548 0.797961
0.0885568 -0.26271 0.799719
0.0882196 -0.261219 0.798064
0.0900511 -0.262373 0.79937
0.0897134 -0.260884 0.797789
0.108225 -0.256335 0.773682
0.109661 -0.256008 0.773127
0.111093 -0.255681 0.772551
0.112516 -0.255352 0.771796
0.113964 -0.255029 0.771647
0.115414 -0.254707 0.771565
0.116863 -0.254386 0.771449
0.118324 -0.254066 0.771591
0.119793 -0.253747 0.771876
0.121246 -0.253426 0.77184
0.122678 -0.253102 0.771457
0.124111 -0.252779 0.771098
0.125509 -0.252452 0.770167
0.126887 -0.252125 0.768954
0.128249 -0.251797 0.767549
0.129629 -0.251473 0.766509
0.130981 -0.251147 0.765088
0.132323 -0.250822 0.763593
0.13367 -0.250499 0.762225
0.135012 -0.250176 0.760861
0.136357 -0.249855 0.759608
0.138476 -0.250969 0.765164
0.137721 -0.249536 0.758665
0.140025 -0.250656 0.766595
0.139096 -0.249217 0.757901
0.141573 -0.250343 0.767955
0.144238 -0.249696 0.765137
0.141861 -0.248584 0.756679
0.143255 -0.248268 0.756257
0.145482 -0.249371 0.762717
0.144657 -0.247952 0.755948
0.14674 -0.249048 0.760573
0.146094 -0.247638 0.756077
0.0744082 -0.262735 0.798042
0.0759068 -0.262395 0.797474
0.0774047 -0.262059 0.79715
0.0788996 -0.261718 0.796571
0.0803968 -0.261386 0.796467
0.0818933 -0.261053 0.796358
0.0833902 -0.260722 0.796299
0.0848925 -0.260397 0.796668
0.0863945 -0.260071 0.796938
0.0878919 -0.259739 0.796906
0.0893867 -0.259407 0.796744
0.0908893 -0.259079 0.796999
0.109349 -0.254578 0.772632
0.110784 -0.254252 0.772117
0.112206 -0.253925 0.771343
0.113657 -0.253603 0.771268
0.115115 -0.253282 0.771354
0.116567 -0.252961 0.771291
0.118026 -0.25264 0.771398
0.119492 -0.252321 0.771609
0.120938 -0.251999 0.771451
0.122359 -0.251675 0.770862
0.123778 -0.251351 0.770254
0.125176 -0.251027 0.769342
0.12656 -0.250702 0.768247
0.127925 -0.250377 0.766892
0.129302 -0.250054 0.765794
0.130665 -0.249731 0.764553
0.13202 -0.249409 0.763234
0.133368 -0.249087 0.761888
0.134717 -0.248768 0.760614
0.136063 -0.248448 0.759373
0.137434 -0.248131 0.758507
0.138809 -0.247814 0.757747
0.140473 -0.2489 0.757215
0.140194 -0.247498 0.757154
0.141589 -0.247183 0.756705
0.14299 -0.246868 0.756361
0.144393 -0.246552 0.756049
0.14583 -0.246237 0.756176
0.148402 -0.247328 0.766504
0.147284 -0.245921 0.756488
0.0725941 -0.261615 0.798821
0.0740963 -0.261279 0.798568
0.0755966 -0.26094 0.798104
0.0770946 -0.2606 0.797486
0.0785899 -0.260259 0.796776
0.080086 -0.259923 0.796457
0.0815775 -0.259583 0.795789
0.0830705 -0.259248 0.79544
0.0845689 -0.25892 0.795571
0.0860676 -0.258592 0.795723
0.0875634 -0.25826 0.795679
0.0890651 -0.257934 0.795957
0.0905691 -0.257608 0.796319
0.0920613 -0.257275 0.796086
0.0938563 -0.258403 0.795788
0.0935533 -0.256942 0.795887
0.0953464 -0.25807 0.795575
0.0950427 -0.256609 0.795609
0.0968331 -0.257737 0.795258
0.0965264 -0.256275 0.795157
0.098309 -0.2574 0.794604
0.098002 -0.255938 0.794468
0.110527 -0.252832 0.772917
0.111951 -0.252505 0.772141
0.113408 -0.252184 0.772156
0.114843 -0.25186 0.771708
0.116297 -0.251539 0.771664
0.117757 -0.251218 0.771756
0.119218 -0.250897 0.771865
0.120654 -0.250575 0.771511
0.122061 -0.25025 0.770639
0.123468 -0.249927 0.769829
0.124856 -0.249603 0.768737
0.12624 -0.249281 0.767634
0.127605 -0.248958 0.766288
0.128988 -0.248636 0.765283
0.130357 -0.248316 0.764135
0.131723 -0.247996 0.762977
0.133073 -0.247678 0.761654
0.134428 -0.247359 0.760466
0.135781 -0.247042 0.759303
0.137158 -0.246726 0.758514
0.138535 -0.24641 0.75777
0.139928 -0.246095 0.757269
0.141325 -0.24578 0.756842
0.142727 -0.245465 0.756498
0.144131 -0.245151 0.75619
0.145569 -0.244835 0.75631
0.147016 -0.24452 0.756538
0.149604 -0.245592 0.7669
0.148459 -0.244203 0.756702
0.0707746 -0.260498 0.800094
0.0722797 -0.26015 0.799043
0.0737825 -0.259812 0.798567
0.0752833 -0.259473 0.798028
0.076782 -0.259134 0.797392
0.0782778 -0.258793 0.796652
0.0797734 -0.258457 0.79623
0.0812654 -0.258119 0.795556
0.0827576 -0.257783 0.795111
0.0842534 -0.257452 0.795051
0.0857503 -0.257122 0.795103
0.0872459 -0.256792 0.795069
0.0887471 -0.256465 0.795356
0.090254 -0.256141 0.795887
0.0917493 -0.255809 0.795805
0.0932451 -0.255478 0.795762
0.0947364 -0.255146 0.795543
0.0962231 -0.254813 0.795182
0.0977019 -0.254478 0.794583
0.0991953 -0.254148 0.794553
0.111808 -0.251094 0.775536
0.113225 -0.250768 0.774519
0.114632 -0.25044 0.773385
0.116073 -0.250117 0.773017
0.117517 -0.249795 0.772722
0.11896 -0.249473 0.77245
0.120387 -0.24915 0.771892
0.12179 -0.248826 0.77092
0.123184 -0.248504 0.769845
0.124567 -0.248181 0.768654
0.125946 -0.24786 0.767457
0.127307 -0.24754 0.766039
0.128686 -0.24722 0.764971
0.130061 -0.246901 0.763906
0.131434 -0.246583 0.762848
0.132796 -0.246266 0.761685
0.134159 -0.24595 0.760602
0.13552 -0.245635 0.759523
0.136897 -0.245319 0.758727
0.13828 -0.245005 0.758058
0.139676 -0.24469 0.757572
0.141075 -0.244375 0.757164
0.14248 -0.244061 0.756834
0.143885 -0.243746 0.756522
0.14531 -0.243432 0.756475
0.146743 -0.243115 0.75653
0.148184 -0.2428 0.756671
0.150799 -0.243854 0.767176
0.149632 -0.242484 0.756887
0.0689495 -0.259373 0.80112
0.0704589 -0.259029 0.800184
0.0719651 -0.258684 0.799218
0.0734689 -0.258346 0.798671
0.0749711 -0.25801 0.798256
0.0764709 -0.257671 0.797631
0.0779678 -0.257331 0.796909
0.0794647 -0.256996 0.79649
0.0809578 -0.256658 0.795827
0.0824492 -0.256321 0.795204
0.0839446 -0.25599 0.795051
0.0854405 -0.255658 0.795003
0.0869351 -0.255328 0.794864
0.0884368 -0.255001 0.795177
0.0899436 -0.254675 0.7957
0.0914414 -0.254345 0.795721
0.0929416 -0.254015 0.795863
0.0944384 -0.253684 0.795838
0.0959276 -0.253352 0.795529
0.0974104 -0.253018 0.79503
0.0989101 -0.25269 0.795168
0.100693 -0.25382 0.794673
0.100412 -0.252361 0.795386
0.110375 -0.25001 0.783267
0.111707 -0.249675 0.779939
0.113078 -0.249345 0.777723
0.114452 -0.249016 0.775748
0.115868 -0.248692 0.774767
0.11729 -0.248368 0.773962
0.118707 -0.248045 0.773132
0.120122 -0.247722 0.772311
0.121521 -0.2474 0.771238
0.122906 -0.247079 0.769983
0.12428 -0.246759 0.768613
0.125659 -0.246439 0.767401
0.127016 -0.246121 0.765894
0.12839 -0.245803 0.764749
0.129772 -0.245487 0.76377
0.131156 -0.24517 0.762883
0.13252 -0.244854 0.761745
0.133892 -0.244539 0.760765
0.135265 -0.244225 0.759853
0.13665 -0.24391 0.759148
0.13803 -0.243597 0.758405
0.139432 -0.243282 0.757996
0.140839 -0.242968 0.757655
0.142244 -0.242654 0.757324
0.143644 -0.242341 0.756931
0.145069 -0.242025 0.756869
0.146495 -0.24171 0.75682
0.147928 -0.241394 0.756862
0.149363 -0.241078 0.756908
0.151081 -0.242167 0.757101
0.15081 -0.240761 0.75711
0.0659179 -0.260073 0.803524
0.0640767 -0.258945 0.804705
0.0655988 -0.258597 0.803588
0.067436 -0.259722 0.802277
0.067118 -0.258249 0.802359
0.0686323 -0.257903 0.801255
0.0701428 -0.25756 0.800349
0.0716501 -0.257219 0.799525
0.073155 -0.25688 0.798944
0.0746584 -0.256544 0.798579
0.0761601 -0.256208 0.798061
0.0776592 -0.255871 0.797448
0.079158 -0.255536 0.797055
0.0806537 -0.2552 0.79648
0.0821457 -0.254863 0.795765
0.0836401 -0.254529 0.79542
0.0851356 -0.254197 0.795255
0.0866294 -0.253865 0.795013
0.0881303 -0.253536 0.795233
0.0896377 -0.25321 0.795765
0.0911397 -0.252881 0.795965
0.0926438 -0.252553 0.796221
0.0941464 -0.252223 0.7964
0.0956383 -0.251891 0.796132
0.0971245 -0.251558 0.795694
0.0986254 -0.251229 0.795821
0.100128 -0.250899 0.796
0.101634 -0.25057 0.796252
0.108917 -0.248908 0.791143
0.110242 -0.248572 0.787166
0.111575 -0.24824 0.783701
0.112924 -0.247911 0.780832
0.114268 -0.247584 0.778052
0.115659 -0.247259 0.776459
0.117059 -0.246936 0.775153
0.118456 -0.246614 0.773861
0.119857 -0.246293 0.77275
0.121248 -0.245973 0.771503
0.122625 -0.245654 0.770082
0.123995 -0.245336 0.76861
0.125368 -0.245018 0.76729
0.126719 -0.244702 0.765668
0.128093 -0.244387 0.764508
0.129476 -0.244071 0.763535
0.130867 -0.243755 0.762745
0.132244 -0.243441 0.761796
0.133629 -0.243127 0.760996
0.135012 -0.242814 0.760201
0.136399 -0.2425 0.759503
0.137773 -0.242187 0.758664
0.139168 -0.241874 0.758152
0.140575 -0.24156 0.757801
0.141982 -0.241247 0.757478
0.143388 -0.240933 0.75716
0.144814 -0.240618 0.757089
0.146232 -0.240303 0.75693
0.14765 -0.239989 0.756787
0.149076 -0.239674 0.756741
0.150526 -0.239357 0.756955
0.153177 -0.240372 0.767564
0.151999 -0.239037 0.757438
0.0579434 -0.260353 0.809682
0.0560702 -0.259222 0.81121
0.0576117 -0.258872 0.810205
0.0591557 -0.258519 0.808776
0.0625513 -0.259293 0.805774
0.0606919 -0.25817 0.807594
0.0622275 -0.257817 0.806079
0.0637545 -0.257469 0.804972
0.065279 -0.257121 0.80372
0.0667991 -0.256775 0.802507
0.0683148 -0.256431 0.801415
0.0698263 -0.256088 0.800456
0.0713347 -0.255748 0.799599
0.0728406 -0.255411 0.799021
0.0743449 -0.255075 0.798658
0.0758478 -0.254741 0.798257
0.0773491 -0.254405 0.79783
0.0788492 -0.254071 0.797442
0.0803471 -0.253737 0.796961
0.0818415 -0.2534 0.79632
0.0833361 -0.253067 0.795869
0.0848316 -0.252735 0.795589
0.0863262 -0.252403 0.795321
0.0878263 -0.252073 0.795442
0.0893328 -0.251745 0.795888
0.0908378 -0.251416 0.796194
0.0923466 -0.251087 0.79664
0.093856 -0.250759 0.797049
0.095355 -0.250428 0.797001
0.0968465 -0.250096 0.796678
0.0983475 -0.249765 0.796744
0.0998464 -0.249435 0.796725
0.101346 -0.249105 0.796744
0.103145 -0.250241 0.796674
0.10285 -0.248774 0.796874
0.104655 -0.249912 0.796993
0.104345 -0.248443 0.796761
0.106131 -0.249579 0.796394
0.105822 -0.248112 0.79618
0.107577 -0.249245 0.795026
0.107268 -0.24778 0.794797
0.108664 -0.247449 0.792277
0.110028 -0.247119 0.78919
0.111386 -0.246792 0.786184
0.112736 -0.246466 0.783227
0.114079 -0.246143 0.780303
0.115447 -0.245822 0.778134
0.116828 -0.2455 0.776351
0.118208 -0.245181 0.774674
0.119593 -0.244861 0.773199
0.12097 -0.244543 0.771664
0.122337 -0.244227 0.770051
0.123697 -0.243912 0.768398
0.125061 -0.243597 0.766899
0.126411 -0.243283 0.765255
0.127784 -0.24297 0.764081
0.129167 -0.242656 0.763107
0.130559 -0.242342 0.762329
0.131949 -0.242028 0.761558
0.133352 -0.241714 0.761028
0.134749 -0.2414 0.760424
0.136145 -0.241087 0.759834
