ply
format ascii 1.0
element vertex 874
property float x
property float y
property float z
property float nx
property float ny
property float nz
end_header
-1.68116 -4.92277 3.3262 -0.720033 -0.617259 0.317088
-1.83678 -4.90664 3.00385 -0.720033 -0.617259 0.317088
-1.72816 -4.91255 3.23929 -0.720033 -0.617259 0.317088
-1.82432 -4.9549 2.93788 -0.720033 -0.617259 0.317088
-1.81038 -4.94906 2.98098 -0.720033 -0.617259 0.317088
-1.70752 -5.02773 3.06114 -0.720033 -0.617259 0.317088
-1.97288 -4.8294 2.84533 -0.720033 -0.617259 0.317088
-1.86677 -4.84791 3.05044 -0.720033 -0.617259 0.317088
-1.76556 -4.98172 3.01909 -0.720033 -0.617259 0.317088
-1.64612 -5.03949 3.17779 -0.720033 -0.617259 0.317088
-1.76462 -4.95159 3.0801 -0.720033 -0.617259 0.317088
-1.79705 -4.89308 3.12068 -0.720033 -0.617259 0.317088
-1.76836 -4.887 3.1978 -0.720033 -0.617259 0.317088
-1.77355 -5.02057 2.92498 -0.720033 -0.617259 0.317088
-1.74564 -4.90117 3.2218 -0.720033 -0.617259 0.317088
-1.83643 -4.89926 3.01908 -0.720033 -0.617259 0.317088
-1.73192 -5.04373 2.97439 -0.720033 -0.617259 0.317088
-1.77978 -5.01122 2.9291 -0.720033 -0.617259 0.317088
-1.88333 -4.84792 3.01276 -0.720033 -0.617259 0.317088
-1.7322 -4.99937 3.06043 -0.720033 -0.617259 0.317088
-1.70285 -5.06163 3.00553 -0.720033 -0.617259 0.317088
-1.82938 -4.89066 3.0519 -0.720033 -0.617259 0.317088
-1.94756 -4.81887 2.92347 -0.720033 -0.617259 0.317088
-1.74051 -4.98472 3.07017 -0.720033 -0.617259 0.317088
-1.66371 -5.08086 3.05694 -0.720033 -0.617259 0.317088
-1.70767 -5.05184 3.01368 -0.720033 -0.617259 0.317088
-1.69261 -4.99916 3.15089 -0.720033 -0.617259 0.317088
-1.6218 -4.97476 3.35957 -0.720033 -0.617259 0.317088
-1.85945 -4.90386 2.95773 -0.720033 -0.617259 0.317088
-1.89278 -4.89962 2.89023 -0.720033 -0.617259 0.317088
-1.672 -5.07652 3.04655 -0.720033 -0.617259 0.317088
-1.64362 -5.07098 3.12194 -0.720033 -0.617259 0.317088
-1.68983 -4.9298 3.29273 -0.720033 -0.617259 0.317088
-1.92663 -4.88592 2.84004 -0.720033 -0.617259 0.317088
-1.86673 -4.87351 3.00049 -0.720033 -0.617259 0.317088
-1.74025 -5.03212 2.97812 -0.720033 -0.617259 0.317088
-1.80253 -4.91125 3.07272 -0.720033 -0.617259 0.317088
-1.77761 -4.88615 3.17845 -0.720033 -0.617259 0.317088
-1.67537 -5.12392 2.94627 -0.720033 -0.617259 0.317088
-1.86019 -4.95186 2.86226 -0.720033 -0.617259 0.317088
-1.84551 -4.8639 3.06754 -0.720033 -0.617259 0.317088
-1.73844 -4.97282 3.09813 -0.720033 -0.617259 0.317088
-1.69086 -5.06564 3.02495 -0.720033 -0.617259 0.317088
-1.70085 -4.91105 3.30435 -0.720033 -0.617259 0.317088
-1.64092 -5.01483 3.2378 -0.720033 -0.617259 0.317088
-1.71517 -4.98175 3.13361 -0.720033 -0.617259 0.317088
-1.74956 -4.95504 3.10761 -0.720033 -0.617259 0.317088
-1.65832 -5.13928 2.95504 -0.720033 -0.617259 0.317088
-1.82519 -4.85631 3.12857 -0.720033 -0.617259 0.317088
-1.79521 -4.89193 3.12713 -0.720033 -0.617259 0.317088
-1.85053 -4.92222 2.94214 -0.720033 -0.617259 0.317088
-1.86366 -4.88174 2.99139 -0.720033 -0.617259 0.317088
-1.74253 -4.96576 3.10264 -0.720033 -0.617259 0.317088
-1.6466 -5.06423 3.12834 -0.720033 -0.617259 0.317088
-1.88219 -4.86483 2.98231 -0.720033 -0.617259 0.317088
-1.79577 -4.90944 3.09164 -0.720033 -0.617259 0.317088
-1.93168 -4.85702 2.88504 -0.720033 -0.617259 0.317088
-1.79727 -4.93309 3.042 -0.720033 -0.617259 0.317088
-1.75891 -5.04068 2.91898 -0.720033 -0.617259 0.317088
-1.9474 -4.82991 2.90227 -0.720033 -0.617259 0.317088
-1.7587 -4.96961 3.05834 -0.720033 -0.617259 0.317088
-1.87497 -4.83589 3.05528 -0.720033 -0.617259 0.317088
-1.64277 -4.9342 3.39117 -0.720033 -0.617259 0.317088
-1.71481 -5.05106 2.99898 -0.720033 -0.617259 0.317088
-1.76026 -4.90075 3.18936 -0.720033 -0.617259 0.317088
-1.96333 -4.82263 2.88025 -0.720033 -0.617259 0.317088
-1.75608 -5.04938 2.9084 -0.720033 -0.617259 0.317088
-1.87833 -4.91561 2.89186 -0.720033 -0.617259 0.317088
-1.78549 -4.92769 3.07934 -0.720033 -0.617259 0.317088
-1.67653 -5.06976 3.04947 -0.720033 -0.617259 0.317088
-1.71207 -5.03338 3.03975 -0.720033 -0.617259 0.317088
-1.8276 -4.92563 2.98762 -0.720033 -0.617259 0.317088
-1.66227 -4.96939 3.27805 -0.720033 -0.617259 0.317088
-1.83507 -4.97219 2.87965 -0.720033 -0.617259 0.317088
-1.71816 -4.99089 3.10896 -0.720033 -0.617259 0.317088
-1.70447 -5.05249 3.0197 -0.720033 -0.617259 0.317088
-1.77376 -4.88738 3.1848 -0.720033 -0.617259 0.317088
-1.88694 -4.8408 3.01846 -0.720033 -0.617259 0.317088
-1.81691 -4.86715 3.1262 -0.720033 -0.617259 0.317088
-1.94338 -4.84183 2.88812 -0.720033 -0.617259 0.317088
-1.7592 -4.98842 3.02045 -0.720033 -0.617259 0.317088
-1.84555 -4.92311 2.95172 -0.720033 -0.617259 0.317088
-1.66332 -5.01064 3.19505 -0.720033 -0.617259 0.317088
-1.67434 -5.09302 3.009 -0.720033 -0.617259 0.317088
-1.64075 -4.98024 3.30577 -0.720033 -0.617259 0.317088
-1.7308 -4.98735 3.08711 -0.720033 -0.617259 0.317088
-1.64387 -5.04635 3.16949 -0.720033 -0.617259 0.317088
-1.69118 -5.12248 2.91314 -0.720033 -0.617259 0.317088
-1.84225 -4.84931 3.10345 -0.720033 -0.617259 0.317088
-1.70578 -5.01289 3.0941 -0.720033 -0.617259 0.317088
-1.91927 -4.81456 2.99623 -0.720033 -0.617259 0.317088
-1.70068 -4.93667 3.25465 -0.720033 -0.617259 0.317088
-1.69354 -5.07023 3.00989 -0.720033 -0.617259 0.317088
-1.9178 -4.89326 2.84577 -0.720033 -0.617259 0.317088
-1.64839 -5.08274 3.08808 -0.720033 -0.617259 0.317088
-1.99881 -4.79402 2.85549 -0.720033 -0.617259 0.317088
-1.77885 -5.03416 2.88639 -0.720033 -0.617259 0.317088
-1.86899 -4.88206 2.97865 -0.720033 -0.617259 0.317088
-1.79875 -4.86789 3.16605 -0.720033 -0.617259 0.317088
-1.77824 -4.88143 3.18624 -0.720033 -0.617259 0.317088
-1.78803 -4.94397 3.04174 -0.720033 -0.617259 0.317088
-1.77727 -4.93929 3.07537 -0.720033 -0.617259 0.317088
-1.88018 -4.9163 2.88629 -0.720033 -0.617259 0.317088
-1.79203 -5.00787 2.90779 -0.720033 -0.617259 0.317088
-1.93274 -4.87092 2.85546 -0.720033 -0.617259 0.317088
-1.95555 -4.80647 2.92953 -0.720033 -0.617259 0.317088
-1.86 -4.85701 3.04803 -0.720033 -0.617259 0.317088
-1.614 -5.00553 3.31719 -0.720033 -0.617259 0.317088
-1.74576 -4.92978 3.16561 -0.720033 -0.617259 0.317088
-1.72862 -5.01517 3.0377 -0.720033 -0.617259 0.317088
-1.72027 -4.94433 3.19515 -0.720033 -0.617259 0.317088
-1.83312 -4.87413 3.0757 -0.720033 -0.617259 0.317088
-1.86409 -4.93016 2.89579 -0.720033 -0.617259 0.317088
-1.83688 -4.89382 3.02868 -0.720033 -0.617259 0.317088
-1.75329 -4.93608 3.13618 -0.720033 -0.617259 0.317088
-1.66076 -4.93568 3.34735 -0.720033 -0.617259 0.317088
-1.82018 -4.92709 3.00164 -0.720033 -0.617259 0.317088
-1.73483 -5.01354 3.02677 -0.720033 -0.617259 0.317088
-1.73818 -5.0437 2.96023 -0.720033 -0.617259 0.317088
-1.86142 -4.9473 2.86836 -0.720033 -0.617259 0.317088
-1.69619 -5.04557 3.05204 -0.720033 -0.617259 0.317088
-1.68376 -5.03994 3.09132 -0.720033 -0.617259 0.317088
-1.74865 -4.98356 3.05393 -0.720033 -0.617259 0.317088
-1.66463 -5.09292 3.03128 -0.720033 -0.617259 0.317088
-1.83012 -4.95831 2.91803 -0.720033 -0.617259 0.317088
-1.77151 -5.03268 2.90596 -0.720033 -0.617259 0.317088
-1.75126 -4.88883 3.23315 -0.720033 -0.617259 0.317088
-1.69444 -4.95409 3.2348 -0.720033 -0.617259 0.317088
-1.79747 -4.9007 3.10486 -0.720033 -0.617259 0.317088
-1.73186 -4.94918 3.15931 -0.720033 -0.617259 0.317088
-1.76129 -4.95111 3.08861 -0.720033 -0.617259 0.317088
-1.81988 -4.96025 2.93752 -0.720033 -0.617259 0.317088
-1.93762 -4.84999 2.88525 -0.720033 -0.617259 0.317088
-1.92484 -4.84794 2.91833 -0.720033 -0.617259 0.317088
-1.64048 -5.04374 3.18228 -0.720033 -0.617259 0.317088
-1.65801 -5.02626 3.17661 -0.720033 -0.617259 0.317088
-1.69231 -5.02136 3.10818 -0.720033 -0.617259 0.317088
-1.68952 -4.96144 3.23164 -0.720033 -0.617259 0.317088
-1.63813 -4.97654 3.31898 -0.720033 -0.617259 0.317088
-1.94735 -4.83478 2.89286 -0.720033 -0.617259 0.317088
-1.66699 -4.97902 3.24849 -0.720033 -0.617259 0.317088
-1.78233 -4.98841 2.96787 -0.720033 -0.617259 0.317088
-1.90286 -4.87735 2.91083 -0.720033 -0.617259 0.317088
-1.66989 -5.05714 3.08924 -0.720033 -0.617259 0.317088
-1.74205 -4.98858 3.05913 -0.720033 -0.617259 0.317088
-1.91868 -4.8485 2.93125 -0.720033 -0.617259 0.317088
-1.72272 -5.04969 2.98367 -0.720033 -0.617259 0.317088
-1.75176 -4.95585 3.10101 -0.720033 -0.617259 0.317088
-1.639 -5.09693 3.08172 -0.720033 -0.617259 0.317088
-1.6899 -5.11275 2.93506 -0.720033 -0.617259 0.317088
-1.64837 -4.99829 3.25318 -0.720033 -0.617259 0.317088
-1.6252 -4.96294 3.37495 -0.720033 -0.617259 0.317088
-1.65149 -4.9636 3.31389 -0.720033 -0.617259 0.317088
-1.7781 -4.97132 3.0109 -0.720033 -0.617259 0.317088
-1.76947 -4.94532 3.08132 -0.720033 -0.617259 0.317088
-1.86361 -4.84022 3.07264 -0.720033 -0.617259 0.317088
-1.81023 -4.8769 3.12235 -0.720033 -0.617259 0.317088
-1.78345 -4.88868 3.16022 -0.720033 -0.617259 0.317088
-1.91629 -4.86867 2.89725 -0.720033 -0.617259 0.317088
-1.62548 -4.98937 3.32267 -0.720033 -0.617259 0.317088
-1.7673 -4.89931 3.17617 -0.720033 -0.617259 0.317088
-1.82639 -4.93449 2.97306 -0.720033 -0.617259 0.317088
-1.69739 -5.08224 2.97765 -0.720033 -0.617259 0.317088
-1.69174 -4.91472 3.31788 -0.720033 -0.617259 0.317088
-1.95744 -4.80178 2.93441 -0.720033 -0.617259 0.317088
-1.93592 -4.829 2.93013 -0.720033 -0.617259 0.317088
-1.91984 -4.86033 2.90548 -0.720033 -0.617259 0.317088
-1.73351 -4.89627 3.25897 -0.720033 -0.617259 0.317088
-1.66294 -4.99873 3.21919 -0.720033 -0.617259 0.317088
-1.85943 -4.8525 3.05815 -0.720033 -0.617259 0.317088
-1.85437 -4.94652 2.88593 -0.720033 -0.617259 0.317088
-1.93678 -4.86013 2.86735 -0.720033 -0.617259 0.317088
-1.69116 -4.91874 3.31133 -0.720033 -0.617259 0.317088
-1.7773 -4.93613 3.08147 -0.720033 -0.617259 0.317088
-1.83169 -4.92253 2.98437 -0.720033 -0.617259 0.317088
-1.79268 -4.96566 2.98879 -0.720033 -0.617259 0.317088
-1.85204 -4.86582 3.04894 -0.720033 -0.617259 0.317088
-1.7694 -4.92642 3.11841 -0.720033 -0.617259 0.317088
-1.97063 -4.83455 2.84037 -0.720033 -0.617259 0.317088
-1.72564 -5.02969 3.01612 -0.720033 -0.617259 0.317088
-1.75125 -5.00887 2.99856 -0.720033 -0.617259 0.317088
-1.77071 -4.93449 3.09966 -0.720033 -0.617259 0.317088
-1.65869 -4.94047 3.34271 -0.720033 -0.617259 0.317088
-1.89966 -4.84868 2.97412 -0.720033 -0.617259 0.317088
-1.67852 -5.12763 2.93186 -0.720033 -0.617259 0.317088
-1.77734 -5.01019 2.93665 -0.720033 -0.617259 0.317088
-1.7885 -5.01949 2.89312 -0.720033 -0.617259 0.317088
-1.96131 -4.85065 2.83011 -0.720033 -0.617259 0.317088
-1.77496 -5.00422 2.95374 -0.720033 -0.617259 0.317088
-1.74933 -4.95202 3.11401 -0.720033 -0.617259 0.317088
-1.97218 -4.82067 2.86396 -0.720033 -0.617259 0.317088
-1.9278 -4.83605 2.93483 -0.720033 -0.617259 0.317088
-1.81088 -4.86841 3.13746 -0.720033 -0.617259 0.317088
-1.82986 -4.97647 2.88313 -0.720033 -0.617259 0.317088
-1.69843 -4.98133 3.17249 -0.720033 -0.617259 0.317088
-1.88135 -4.85279 3.00773 -0.720033 -0.617259 0.317088
-1.63429 -4.96087 3.35833 -0.720033 -0.617259 0.317088
-1.75629 -4.91331 3.17385 -0.720033 -0.617259 0.317088
-1.80151 -4.93883 3.02115 -0.720033 -0.617259 0.317088
-1.64104 -4.98701 3.29189 -0.720033 -0.617259 0.317088
-1.80196 -4.89524 3.10532 -0.720033 -0.617259 0.317088
-1.80591 -4.86174 3.16179 -0.720033 -0.617259 0.317088
-1.70728 -4.90496 3.30162 -0.720033 -0.617259 0.317088
-1.73105 -4.9573 3.14526 -0.720033 -0.617259 0.317088
-1.77917 -4.96332 3.02409 -0.720033 -0.617259 0.317088
-1.9403 -4.82065 2.9365 -0.720033 -0.617259 0.317088
-1.64985 -5.034 3.18003 -0.720033 -0.617259 0.317088
-1.93523 -4.84442 2.90158 -0.720033 -0.617259 0.317088
-1.76942 -4.98436 3.00514 -0.720033 -0.617259 0.317088
-1.7106 -5.08532 2.94159 -0.720033 -0.617259 0.317088
-1.86469 -4.93946 2.87625 -0.720033 -0.617259 0.317088
-1.67859 -4.91912 3.33918 -0.720033 -0.617259 0.317088
-1.96036 -4.84662 2.84012 -0.720033 -0.617259 0.317088
-1.76766 -4.8831 3.20704 -0.720033 -0.617259 0.317088
-1.72311 -5.07 2.9431 -0.720033 -0.617259 0.317088
-1.79281 -4.98272 2.95516 -0.720033 -0.617259 0.317088
-1.656 -5.07028 3.09515 -0.720033 -0.617259 0.317088
-1.90692 -4.89631 2.86454 -0.720033 -0.617259 0.317088
-1.72552 -4.9395 3.19262 -0.720033 -0.617259 0.317088
-1.6601 -4.98586 3.25079 -0.720033 -0.617259 0.317088
-1.74879 -4.97718 3.06608 -0.720033 -0.617259 0.317088
-1.67826 -4.9156 3.34682 -0.720033 -0.617259 0.317088
-1.65475 -5.1228 2.99534 -0.720033 -0.617259 0.317088
-1.86154 -4.90661 2.9476 -0.720033 -0.617259 0.317088
-1.63703 -4.99746 3.28058 -0.720033 -0.617259 0.317088
-1.69539 -5.0252 3.09367 -0.720033 -0.617259 0.317088
-1.74204 -5.06237 2.91495 -0.720033 -0.617259 0.317088
-1.71141 -4.96654 3.17188 -0.720033 -0.617259 0.317088
-1.66295 -5.10797 3.00567 -0.720033 -0.617259 0.317088
-1.81577 -4.96354 2.94044 -0.720033 -0.617259 0.317088
-1.93529 -4.83496 2.91994 -0.720033 -0.617259 0.317088
-1.89167 -4.84148 3.00638 -0.720033 -0.617259 0.317088
-1.81454 -4.97593 2.91901 -0.720033 -0.617259 0.317088
-1.67082 -4.93357 3.32861 -0.720033 -0.617259 0.317088
-1.80119 -4.88038 3.13611 -0.720033 -0.617259 0.317088
-1.65383 -5.14176 2.96041 -0.720033 -0.617259 0.317088
-1.66238 -5.07057 3.08007 -0.720033 -0.617259 0.317088
-1.70707 -4.99641 3.12338 -0.720033 -0.617259 0.317088
-1.98443 -4.81892 2.83955 -0.720033 -0.617259 0.317088
-1.68163 -4.95856 3.25521 -0.720033 -0.617259 0.317088
-1.79118 -4.88916 3.14171 -0.720033 -0.617259 0.317088
-1.78175 -4.99958 2.94737 -0.720033 -0.617259 0.317088
-1.77596 -4.92748 3.10142 -0.720033 -0.617259 0.317088
-1.67851 -4.98915 3.20251 -0.720033 -0.617259 0.317088
-1.86771 -4.9027 2.94124 -0.720033 -0.617259 0.317088
-1.95779 -4.83345 2.87171 -0.720033 -0.617259 0.317088
-1.62959 -4.96486 3.36123 -0.720033 -0.617259 0.317088
-1.97455 -4.80479 2.88961 -0.720033 -0.617259 0.317088
-1.98156 -4.83089 2.82266 -0.720033 -0.617259 0.317088
-1.79569 -4.99704 2.92062 -0.720033 -0.617259 0.317088
-1.65727 -5.01911 3.19224 -0.720033 -0.617259 0.317088
-1.721 -5.08831 2.91211 -0.720033 -0.617259 0.317088
-1.70768 -5.03524 3.04609 -0.720033 -0.617259 0.317088
-1.68749 -4.91143 3.33397 -0.720033 -0.617259 0.317088
-1.73706 -5.00112 3.04599 -0.720033 -0.617259 0.317088
-1.6777 -5.02889 3.12669 -0.720033 -0.617259 0.317088
-1.86573 -4.85491 3.03912 -0.720033 -0.617259 0.317088
-1.72328 -5.02281 3.03491 -0.720033 -0.617259 0.317088
-1.70539 -4.93094 3.25513 -0.720033 -0.617259 0.317088
-1.76511 -4.96335 3.056 -0.720033 -0.617259 0.317088
-1.60925 -4.96216 3.41274 -0.720033 -0.617259 0.317088
-1.87356 -4.91553 2.90283 -0.720033 -0.617259 0.317088
-1.71297 -5.00057 3.10182 -0.720033 -0.617259 0.317088
-1.88296 -4.9199 2.87292 -0.720033 -0.617259 0.317088
-1.69343 -5.05167 3.04639 -0.720033 -0.617259 0.317088
-1.64502 -5.0787 3.10365 -0.720033 -0.617259 0.317088
-1.99703 -4.81194 2.82451 -0.720033 -0.617259 0.317088
-1.62952 -5.02589 3.2421 -0.720033 -0.617259 0.317088
-2.00081 -4.80041 2.83846 -0.720033 -0.617259 0.317088
-1.94224 -4.82631 2.92103 -0.720033 -0.617259 0.317088
-1.96401 -4.83923 2.84629 -0.720033 -0.617259 0.317088
-1.84116 -4.95744 2.89462 -0.720033 -0.617259 0.317088
-1.64603 -5.13748 2.98648 -0.720033 -0.617259 0.317088
-1.77084 -4.96833 3.03324 -0.720033 -0.617259 0.317088
-1.67184 -5.06613 3.06725 -0.720033 -0.617259 0.317088
-1.63642 -5.0352 3.20822 -0.720033 -0.617259 0.317088
-1.81526 -4.89911 3.0675 -0.720033 -0.617259 0.317088
-1.86901 -4.89881 2.94587 -0.720033 -0.617259 0.317088
-1.88931 -4.86097 2.97367 -0.720033 -0.617259 0.317088
-1.64825 -5.05762 3.1375 -0.720033 -0.617259 0.317088
-1.9572 -4.81579 2.90757 -0.720033 -0.617259 0.317088
-1.79439 -4.93839 3.0382 -0.720033 -0.617259 0.317088
-1.87954 -4.85824 3.00121 -0.720033 -0.617259 0.317088
-1.94185 -4.83043 2.91386 -0.720033 -0.617259 0.317088
-1.7322 -4.91873 3.21803 -0.720033 -0.617259 0.317088
-1.70593 -4.9581 3.20083 -0.720033 -0.617259 0.317088
-1.92656 -4.87744 2.85676 -0.720033 -0.617259 0.317088
-1.74877 -4.91199 3.19352 -0.720033 -0.617259 0.317088
-1.77851 -4.99871 2.95643 -0.720033 -0.617259 0.317088
-1.74392 -4.95202 3.12633 -0.720033 -0.617259 0.317088
-1.78971 -4.9116 3.10118 -0.720033 -0.617259 0.317088
-1.78402 -5.0244 2.89371 -0.720033 -0.617259 0.317088
-1.65647 -5.14748 2.9432 -0.720033 -0.617259 0.317088
-1.85646 -4.84227 3.08489 -0.720033 -0.617259 0.317088
-1.75815 -4.93846 3.12046 -0.720033 -0.617259 0.317088
-1.91558 -4.88957 2.85804 -0.720033 -0.617259 0.317088
-1.69214 -5.04077 3.07063 -0.720033 -0.617259 0.317088
-1.71748 -5.03705 3.02028 -0.720033 -0.617259 0.317088
-1.89061 -4.87562 2.94205 -0.720033 -0.617259 0.317088
-1.68682 -4.94413 3.27159 -0.720033 -0.617259 0.317088
-1.68092 -4.99468 3.18623 -0.720033 -0.617259 0.317088
-1.69872 -5.09955 2.94081 -0.720033 -0.617259 0.317088
-1.63587 -5.01082 3.25712 -0.720033 -0.617259 0.317088
-1.96724 -4.79637 2.92268 -0.720033 -0.617259 0.317088
-1.6585 -5.0416 3.14551 -0.720033 -0.617259 0.317088
-1.80641 -4.94081 3.00614 -0.720033 -0.617259 0.317088
-1.62736 -5.04199 3.21556 -0.720033 -0.617259 0.317088
-1.69479 -4.99209 3.15975 -0.720033 -0.617259 0.317088
-1.79062 -4.92429 3.07432 -0.720033 -0.617259 0.317088
-1.64147 -5.00541 3.25496 -0.720033 -0.617259 0.317088
-1.73779 -4.95625 3.13201 -0.720033 -0.617259 0.317088
-1.92144 -4.82089 2.97892 -0.720033 -0.617259 0.317088
-1.69521 -5.08726 2.9728 -0.720033 -0.617259 0.317088
-1.63599 -5.07062 3.13997 -0.720033 -0.617259 0.317088
-1.84281 -4.88626 3.02997 -0.720033 -0.617259 0.317088
-1.77185 -4.88037 3.20285 -0.720033 -0.617259 0.317088
-1.63437 -4.94896 3.38143 -0.720033 -0.617259 0.317088
-1.85614 -4.92529 2.9234 -0.720033 -0.617259 0.317088
-1.94085 -4.83627 2.90473 -0.720033 -0.617259 0.317088
-1.74528 -4.89407 3.23648 -0.720033 -0.617259 0.317088
-1.69029 -4.99849 3.15746 -0.720033 -0.617259 0.317088
-1.66748 -5.08468 3.0409 -0.720033 -0.617259 0.317088
-1.61956 -5.01859 3.27902 -0.720033 -0.617259 0.317088
-1.75199 -5.00511 3.00424 -0.720033 -0.617259 0.317088
-1.81298 -4.88333 3.10351 -0.720033 -0.617259 0.317088
-1.81379 -4.98386 2.90524 -0.720033 -0.617259 0.317088
-1.90941 -4.85643 2.93683 -0.720033 -0.617259 0.317088
-1.90042 -4.90119 2.86978 -0.720033 -0.617259 0.317088
-1.82714 -4.91499 3.00945 -0.720033 -0.617259 0.317088
-1.74204 -4.91637 3.20027 -0.720033 -0.617259 0.317088
-1.95184 -4.83895 2.8745 -0.720033 -0.617259 0.317088
-1.87471 -4.89827 2.93395 -0.720033 -0.617259 0.317088
-1.94593 -4.8074 2.9496 -0.720033 -0.617259 0.317088
-1.95335 -4.80345 2.94044 -0.720033 -0.617259 0.317088
-1.73405 -4.94148 3.16936 -0.720033 -0.617259 0.317088
-1.67423 -5.08249 3.02983 -0.720033 -0.617259 0.317088
-1.97202 -4.81029 2.88462 -0.720033 -0.617259 0.317088
-1.74054 -5.05235 2.93794 -0.720033 -0.617259 0.317088
-1.78341 -4.94125 3.05759 -0.720033 -0.617259 0.317088
-1.90665 -4.86373 2.92883 -0.720033 -0.617259 0.317088
-1.88911 -4.90538 2.88733 -0.720033 -0.617259 0.317088
-1.89041 -4.8967 2.90132 -0.720033 -0.617259 0.317088
-1.76782 -4.91266 3.14889 -0.720033 -0.617259 0.317088
-1.79904 -4.94851 3.00785 -0.720033 -0.617259 0.317088
-1.83036 -4.89874 3.03389 -0.720033 -0.617259 0.317088
-1.92548 -4.82031 2.97088 -0.720033 -0.617259 0.317088
-2.01611 -4.78302 2.83765 -0.720033 -0.617259 0.317088
-1.6327 -5.04793 3.19181 -0.720033 -0.617259 0.317088
-1.72083 -5.03837 3.01009 -0.720033 -0.617259 0.317088
-1.73805 -4.94744 3.14863 -0.720033 -0.617259 0.317088
-1.7113 -5.00917 3.08881 -0.720033 -0.617259 0.317088
-1.81643 -4.93886 2.98718 -0.720033 -0.617259 0.317088
-1.68891 -5.11799 2.92709 -0.720033 -0.617259 0.317088
-1.89878 -4.84079 2.99156 -0.720033 -0.617259 0.317088
-1.62615 -5.03611 3.22979 -0.720033 -0.617259 0.317088
-1.95534 -4.85646 2.83232 -0.720033 -0.617259 0.317088
-1.85291 -4.90479 2.97078 -0.720033 -0.617259 0.317088
-1.71778 -4.94183 3.20569 -0.720033 -0.617259 0.317088
-1.71015 -4.92341 3.25902 -0.720033 -0.617259 0.317088
-1.66884 -4.92085 3.35797 -0.720033 -0.617259 0.317088
-1.75451 -4.94445 3.11703 -0.720033 -0.617259 0.317088
-1.85588 -4.92827 2.91814 -0.720033 -0.617259 0.317088
-1.68498 -5.10716 2.95718 -0.720033 -0.617259 0.317088
-1.93403 -4.86508 2.86395 -0.720033 -0.617259 0.317088
-1.89952 -4.83344 3.00424 -0.720033 -0.617259 0.317088
-1.87221 -4.87388 2.98731 -0.720033 -0.617259 0.317088
-1.82006 -4.94945 2.9582 -0.720033 -0.617259 0.317088
-1.85269 -4.88825 3.00362 -0.720033 -0.617259 0.317088
-1.68357 -4.93791 3.29113 -0.720033 -0.617259 0.317088
-1.74296 -5.03975 2.95706 -0.720033 -0.617259 0.317088
-1.67973 -5.10245 2.97832 -0.720033 -0.617259 0.317088
-1.83634 -4.94628 2.92739 -0.720033 -0.617259 0.317088
-1.71122 -4.9337 3.23649 -0.720033 -0.617259 0.317088
-1.89555 -4.90648 2.87053 -0.720033 -0.617259 0.317088
-1.73269 -5.04958 2.96119 -0.720033 -0.617259 0.317088
-1.71215 -4.95876 3.18539 -0.720033 -0.617259 0.317088
-1.81788 -4.98631 2.89114 -0.720033 -0.617259 0.317088
-1.74068 -5.01929 3.00225 -0.720033 -0.617259 0.317088
-1.81913 -4.90107 3.05487 -0.720033 -0.617259 0.317088
-1.68751 -5.10799 2.94979 -0.720033 -0.617259 0.317088
-1.98908 -4.78835 2.8887 -0.720033 -0.617259 0.317088
-1.78941 -4.91467 3.09589 -0.720033 -0.617259 0.317088
-1.76088 -5.03032 2.93476 -0.720033 -0.617259 0.317088
-1.78534 -4.87138 3.18974 -0.720033 -0.617259 0.317088
-1.92529 -4.85279 2.90783 -0.720033 -0.617259 0.317088
-1.70315 -5.02102 3.0842 -0.720033 -0.617259 0.317088
-1.62434 -4.93806 3.42553 -0.720033 -0.617259 0.317088
-1.65324 -4.97887 3.28006 -0.720033 -0.617259 0.317088
-1.8105 -4.90503 3.06676 -0.720033 -0.617259 0.317088
-1.65151 -5.00899 3.22513 -0.720033 -0.617259 0.317088
-1.685 -5.00011 3.16634 -0.720033 -0.617259 0.317088
-1.74958 -4.90233 3.21057 -0.720033 -0.617259 0.317088
-1.83669 -4.87791 3.0602 -0.720033 -0.617259 0.317088
-1.86021 -4.86865 3.0248 -0.720033 -0.617259 0.317088
-1.79259 -5.00416 2.91377 -0.720033 -0.617259 0.317088
-1.63078 -5.07762 3.13815 -0.720033 -0.617259 0.317088
-1.79426 -4.91649 3.08129 -0.720033 -0.617259 0.317088
-1.73118 -4.97688 3.10672 -0.720033 -0.617259 0.317088
-1.67631 -5.0208 3.14566 -0.720033 -0.617259 0.317088
-1.81805 -4.91847 3.02333 -0.720033 -0.617259 0.317088
-1.65872 -5.0984 3.034 -0.720033 -0.617259 0.317088
-1.62802 -4.97981 3.33557 -0.720033 -0.617259 0.317088
-1.64587 -5.06211 3.13415 -0.720033 -0.617259 0.317088
-1.71625 -5.09394 2.91191 -0.720033 -0.617259 0.317088
-1.63489 -4.98848 3.30301 -0.720033 -0.617259 0.317088
-1.89699 -4.83279 3.01125 -0.720033 -0.617259 0.317088
-1.71484 -5.0684 2.96503 -0.720033 -0.617259 0.317088
-1.66996 -4.99983 3.20107 -0.720033 -0.617259 0.317088
-1.68116 -4.97956 3.21522 -0.720033 -0.617259 0.317088
-1.7712 -5.01044 2.95013 -0.720033 -0.617259 0.317088
-1.61351 -4.9601 3.40709 -0.720033 -0.617259 0.317088
-1.76184 -4.92067 3.14686 -0.720033 -0.617259 0.317088
-1.66624 -4.95771 3.29183 -0.720033 -0.617259 0.317088
-1.75971 -4.93165 3.13024 -0.720033 -0.617259 0.317088
-1.94092 -4.81403 2.94803 -0.720033 -0.617259 0.317088
-1.76197 -4.91425 3.1591 -0.720033 -0.617259 0.317088
-1.6341 -4.93742 3.40457 -0.720033 -0.617259 0.317088
-1.69051 -5.05126 3.05384 -0.720033 -0.617259 0.317088
-1.81445 -4.95123 2.9675 -0.720033 -0.617259 0.317088
-1.90174 -4.8534 2.96018 -0.720033 -0.617259 0.317088
-1.63671 -4.99136 3.29323 -0.720033 -0.617259 0.317088
-1.63585 -4.99535 3.28739 -0.720033 -0.617259 0.317088
-1.95239 -4.81817 2.91385 -0.720033 -0.617259 0.317088
-1.99251 -4.79762 2.86279 -0.720033 -0.617259 0.317088
-1.79345 -4.94931 3.01899 -0.720033 -0.617259 0.317088
-1.82727 -4.98489 2.87255 -0.720033 -0.617259 0.317088
-1.85364 -4.84711 3.08185 -0.720033 -0.617259 0.317088
-1.7403 -4.90949 3.21767 -0.720033 -0.617259 0.317088
-1.71758 -4.96712 3.15671 -0.720033 -0.617259 0.317088
-1.66226 -4.97213 3.27272 -0.720033 -0.617259 0.317088
-1.95213 -4.84212 2.86765 -0.720033 -0.617259 0.317088
-1.70711 -5.04077 3.03661 -0.720033 -0.617259 0.317088
-1.96559 -4.84374 2.83386 -0.720033 -0.617259 0.317088
-1.92122 -4.85473 2.91327 -0.720033 -0.617259 0.317088
-1.71211 -4.94144 3.21934 -0.720033 -0.617259 0.317088
-1.76626 -4.89446 3.18802 -0.720033 -0.617259 0.317088
-1.7175 -5.00556 3.08178 -0.720033 -0.617259 0.317088
-1.82671 -4.86196 3.11408 -0.720033 -0.617259 0.317088
-1.69944 -5.02094 3.0928 -0.720033 -0.617259 0.317088
-1.83182 -4.85655 3.11303 -0.720033 -0.617259 0.317088
-1.87893 -4.87063 2.97839 -0.720033 -0.617259 0.317088
-1.76825 -4.93909 3.09628 -0.720033 -0.617259 0.317088
-1.6451 -5.01509 3.22779 -0.720033 -0.617259 0.317088
-1.64407 -4.97334 3.31172 -0.720033 -0.617259 0.317088
-1.69517 -4.94524 3.25042 -0.720033 -0.617259 0.317088
-1.88795 -4.87517 2.94899 -0.720033 -0.617259 0.317088
-1.67411 -5.00971 3.17234 -0.720033 -0.617259 0.317088
-1.7206 -4.9025 3.27613 -0.720033 -0.617259 0.317088
-1.76641 -4.99223 2.99662 -0.720033 -0.617259 0.317088
-1.7629 -4.94196 3.10282 -0.720033 -0.617259 0.317088
-1.70001 -5.01244 3.10808 -0.720033 -0.617259 0.317088
-1.68472 -5.05883 3.05221 -0.720033 -0.617259 0.317088
-1.87665 -4.8841 2.95724 -0.720033 -0.617259 0.317088
-1.64948 -5.01711 3.21389 -0.720033 -0.617259 0.317088
-1.68668 -4.9221 3.31498 -0.720033 -0.617259 0.317088
-1.66754 -4.98884 3.22804 -0.720033 -0.617259 0.317088
-1.8991 -4.87834 2.91745 -0.720033 -0.617259 0.317088
-1.69519 -5.09221 2.96318 -0.720033 -0.617259 0.317088
-1.79821 -4.98372 2.94092 -0.720033 -0.617259 0.317088
-1.77975 -4.94719 3.05429 -0.720033 -0.617259 0.317088
-1.6867 -5.09253 2.98185 -0.720033 -0.617259 0.317088
-1.66231 -4.96394 3.28861 -0.720033 -0.617259 0.317088
-1.79558 -4.95342 3.00613 -0.720033 -0.617259 0.317088
-1.66847 -5.11247 2.98432 -0.720033 -0.617259 0.317088
-1.66623 -4.98302 3.24242 -0.720033 -0.617259 0.317088
-1.68239 -5.08314 3.01 -0.720033 -0.617259 0.317088
-1.65072 -5.01854 3.20827 -0.720033 -0.617259 0.317088
-1.80342 -4.98589 2.92483 -0.720033 -0.617259 0.317088
-1.64847 -5.12716 3.00111 -0.720033 -0.617259 0.317088
-1.95836 -4.81858 2.89947 -0.720033 -0.617259 0.317088
-1.90905 -4.81982 3.00918 -0.720033 -0.617259 0.317088
-1.79929 -4.97648 2.95261 -0.720033 -0.617259 0.317088
-1.66841 -5.03928 3.12751 -0.720033 -0.617259 0.317088
-1.6613 -4.94257 3.33266 -0.720033 -0.617259 0.317088
-1.62739 -5.01887 3.26067 -0.720033 -0.617259 0.317088
-1.71932 -5.0189 3.05155 -0.720033 -0.617259 0.317088
-1.67074 -5.0241 3.15187 -0.720033 -0.617259 0.317088
-1.98104 -4.82683 2.83178 -0.720033 -0.617259 0.317088
-1.80469 -4.95784 2.97678 -0.720033 -0.617259 0.317088
-1.70045 -5.09443 2.94687 -0.720033 -0.617259 0.317088
-1.64362 -5.03423 3.19374 -0.720033 -0.617259 0.317088
-1.65756 -5.11198 3.0101 -0.720033 -0.617259 0.317088
-2.00985 -4.78276 2.85241 -0.720033 -0.617259 0.317088
-1.77359 -4.98764 2.98924 -0.720033 -0.617259 0.317088
-1.81114 -4.92886 3.01873 -0.720033 -0.617259 0.317088
-1.63479 -5.0557 3.17185 -0.720033 -0.617259 0.317088
-1.84005 -4.86057 3.08644 -0.720033 -0.617259 0.317088
-1.68618 -4.9774 3.20803 -0.720033 -0.617259 0.317088
-1.69964 -4.90649 3.31598 -0.720033 -0.617259 0.317088
-1.69466 -5.05701 3.03318 -0.720033 -0.617259 0.317088
-1.8774 -4.92227 2.88093 -0.720033 -0.617259 0.317088
-1.73592 -4.95203 3.14448 -0.720033 -0.617259 0.317088
-1.66395 -5.12207 2.97585 -0.720033 -0.617259 0.317088
-1.70096 -5.05395 3.02484 -0.720033 -0.617259 0.317088
-1.9766 -4.82453 2.84638 -0.720033 -0.617259 0.317088
-1.77255 -4.89622 3.17026 -0.720033 -0.617259 0.317088
-1.76988 -4.97532 3.02176 -0.720033 -0.617259 0.317088
-1.73947 -4.96626 3.10862 -0.720033 -0.617259 0.317088
-1.74204 -4.91368 3.20553 -0.720033 -0.617259 0.317088
-1.60806 -4.98343 3.37388 -0.720033 -0.617259 0.317088
-1.97578 -4.79821 2.89966 -0.720033 -0.617259 0.317088
-1.6865 -5.04751 3.07029 -0.720033 -0.617259 0.317088
-1.79649 -4.92069 3.06802 -0.720033 -0.617259 0.317088
-1.65269 -5.1348 2.97659 -0.720033 -0.617259 0.317088
-1.72046 -4.95477 3.17431 -0.720033 -0.617259 0.317088
-1.7233 -4.98555 3.10768 -0.720033 -0.617259 0.317088
-1.80886 -4.99578 2.89316 -0.720033 -0.617259 0.317088
-1.98097 -4.80183 2.88081 -0.720033 -0.617259 0.317088
-1.76201 -4.95925 3.07105 -0.720033 -0.617259 0.317088
-1.91677 -4.8226 2.9862 -0.720033 -0.617259 0.317088
-1.63391 -4.9155 3.44786 -0.720033 -0.617259 0.317088
-1.91805 -4.74871 3.12768 -0.720033 -0.617259 0.317088
-1.98635 -4.6593 3.1471 -0.720033 -0.617259 0.317088
-1.91272 -4.80849 3.023 -0.720033 -0.617259 0.317088
-1.87187 -4.77526 3.18079 -0.720033 -0.617259 0.317088
-1.91224 -4.78126 3.07729 -0.720033 -0.617259 0.317088
-1.94758 -4.72397 3.10887 -0.720033 -0.617259 0.317088
-1.68005 -4.8977 3.37772 -0.720033 -0.617259 0.317088
-1.77503 -4.77465 3.40221 -0.720033 -0.617259 0.317088
-1.84588 -4.83274 3.12758 -0.720033 -0.617259 0.317088
-1.83093 -4.76432 3.29527 -0.720033 -0.617259 0.317088
-1.9955 -4.67676 3.09216 -0.720033 -0.617259 0.317088
-1.91165 -4.739 3.16122 -0.720033 -0.617259 0.317088
-1.69286 -4.88609 3.37128 -0.720033 -0.617259 0.317088
-1.83889 -4.72587 3.35231 -0.720033 -0.617259 0.317088
-1.86653 -4.72457 3.29199 -0.720033 -0.617259 0.317088
-1.8295 -4.72013 3.3849 -0.720033 -0.617259 0.317088
-1.90703 -4.79773 3.05695 -0.720033 -0.617259 0.317088
-1.82933 -4.73369 3.35879 -0.720033 -0.617259 0.317088
-2.01442 -4.64565 3.10996 -0.720033 -0.617259 0.317088
-1.859 -4.78342 3.19413 -0.720033 -0.617259 0.317088
-2.03428 -4.7418 2.8769 -0.720033 -0.617259 0.317088
-1.64246 -4.92522 3.40942 -0.720033 -0.617259 0.317088
-1.76637 -4.82627 3.32102 -0.720033 -0.617259 0.317088
-1.97276 -4.7889 2.92474 -0.720033 -0.617259 0.317088
-1.991 -4.55527 3.33982 -0.720033 -0.617259 0.317088
-1.89121 -4.72423 3.23655 -0.720033 -0.617259 0.317088
-1.80728 -4.74925 3.3785 -0.720033 -0.617259 0.317088
-1.82939 -4.76239 3.30254 -0.720033 -0.617259 0.317088
-1.79067 -4.84158 3.23584 -0.720033 -0.617259 0.317088
-1.90328 -4.73872 3.18079 -0.720033 -0.617259 0.317088
-1.95792 -4.58816 3.35076 -0.720033 -0.617259 0.317088
-2.03116 -4.72968 2.90768 -0.720033 -0.617259 0.317088
-1.96982 -4.60233 3.29603 -0.720033 -0.617259 0.317088
-1.83513 -4.75461 3.30471 -0.720033 -0.617259 0.317088
-1.95307 -4.72885 3.08686 -0.720033 -0.617259 0.317088
-1.99511 -4.74204 2.96548 -0.720033 -0.617259 0.317088
-1.73482 -4.87795 3.29179 -0.720033 -0.617259 0.317088
-1.95596 -4.76649 3.00674 -0.720033 -0.617259 0.317088
-1.94805 -4.77143 3.01506 -0.720033 -0.617259 0.317088
-2.00176 -4.71559 3.00207 -0.720033 -0.617259 0.317088
-1.84288 -4.81798 3.16325 -0.720033 -0.617259 0.317088
-1.76243 -4.79912 3.38303 -0.720033 -0.617259 0.317088
-1.9184 -4.66652 3.28751 -0.720033 -0.617259 0.317088
-1.99999 -4.61113 3.21021 -0.720033 -0.617259 0.317088
-1.731 -4.85213 3.3509 -0.720033 -0.617259 0.317088
-1.74175 -4.88011 3.27181 -0.720033 -0.617259 0.317088
-1.91671 -4.63912 3.3449 -0.720033 -0.617259 0.317088
-1.7067 -4.8449 3.42029 -0.720033 -0.617259 0.317088
-2.01774 -4.66093 3.07253 -0.720033 -0.617259 0.317088
-1.81913 -4.75572 3.33891 -0.720033 -0.617259 0.317088
-1.93087 -4.62616 3.33802 -0.720033 -0.617259 0.317088
-1.69593 -4.84962 3.43558 -0.720033 -0.617259 0.317088
-1.99818 -4.74804 2.94678 -0.720033 -0.617259 0.317088
-1.85211 -4.77699 3.22238 -0.720033 -0.617259 0.317088
-1.91155 -4.74341 3.15283 -0.720033 -0.617259 0.317088
-2.00926 -4.77178 2.87519 -0.720033 -0.617259 0.317088
-2.00575 -4.74068 2.94395 -0.720033 -0.617259 0.317088
-2.02192 -4.66684 3.05147 -0.720033 -0.617259 0.317088
-1.75476 -4.85518 3.29091 -0.720033 -0.617259 0.317088
-1.76005 -4.82321 3.34139 -0.720033 -0.617259 0.317088
-1.94205 -4.65713 3.25208 -0.720033 -0.617259 0.317088
-1.73786 -4.82414 3.39001 -0.720033 -0.617259 0.317088
-1.98322 -4.59893 3.2722 -0.720033 -0.617259 0.317088
-1.90998 -4.73367 3.17543 -0.720033 -0.617259 0.317088
-1.93211 -4.72228 3.14737 -0.720033 -0.617259 0.317088
-1.86811 -4.81297 3.11566 -0.720033 -0.617259 0.317088
-1.86934 -4.74836 3.23913 -0.720033 -0.617259 0.317088
-1.98654 -4.62973 3.20444 -0.720033 -0.617259 0.317088
-1.69511 -4.86984 3.39792 -0.720033 -0.617259 0.317088
-1.73285 -4.89064 3.27144 -0.720033 -0.617259 0.317088
-1.70562 -4.86942 3.37484 -0.720033 -0.617259 0.317088
-1.85785 -4.73871 3.28411 -0.720033 -0.617259 0.317088
-1.98359 -4.62126 3.22771 -0.720033 -0.617259 0.317088
-2.00575 -4.60425 3.21058 -0.720033 -0.617259 0.317088
-1.73019 -4.83766 3.38105 -0.720033 -0.617259 0.317088
-1.90546 -4.76567 3.12318 -0.720033 -0.617259 0.317088
-1.78444 -4.85353 3.22665 -0.720033 -0.617259 0.317088
-1.73759 -4.82904 3.38104 -0.720033 -0.617259 0.317088
-2.00251 -4.64225 3.14367 -0.720033 -0.617259 0.317088
-1.92176 -4.68706 3.23973 -0.720033 -0.617259 0.317088
-2.04375 -4.75172 2.83596 -0.720033 -0.617259 0.317088
-1.97362 -4.64548 3.20305 -0.720033 -0.617259 0.317088
-2.01479 -4.70055 3.00183 -0.720033 -0.617259 0.317088
-1.69517 -4.89028 3.35784 -0.720033 -0.617259 0.317088
-1.94517 -4.65756 3.24415 -0.720033 -0.617259 0.317088
-1.78222 -4.8517 3.23527 -0.720033 -0.617259 0.317088
-1.9652 -4.61533 3.28113 -0.720033 -0.617259 0.317088
-2.02597 -4.75871 2.86275 -0.720033 -0.617259 0.317088
-1.95588 -4.67243 3.19072 -0.720033 -0.617259 0.317088
-2.01904 -4.74717 2.90107 -0.720033 -0.617259 0.317088
-1.76499 -4.8413 3.29478 -0.720033 -0.617259 0.317088
-1.89293 -4.71161 3.2573 -0.720033 -0.617259 0.317088
-1.99425 -4.76054 2.93128 -0.720033 -0.617259 0.317088
-1.7284 -4.87784 3.30659 -0.720033 -0.617259 0.317088
-1.94365 -4.66777 3.22765 -0.720033 -0.617259 0.317088
-1.74147 -4.85514 3.32122 -0.720033 -0.617259 0.317088
-1.72528 -4.86077 3.34703 -0.720033 -0.617259 0.317088
-2.01192 -4.75415 2.9036 -0.720033 -0.617259 0.317088
-1.85858 -4.73318 3.29325 -0.720033 -0.617259 0.317088
-1.84049 -4.73645 3.328 -0.720033 -0.617259 0.317088
-1.95053 -4.68665 3.17512 -0.720033 -0.617259 0.317088
-1.92368 -4.73953 3.13284 -0.720033 -0.617259 0.317088
-1.86522 -4.71133 3.32088 -0.720033 -0.617259 0.317088
-1.86562 -4.80939 3.12832 -0.720033 -0.617259 0.317088
-1.61376 -4.94028 3.44524 -0.720033 -0.617259 0.317088
-1.83827 -4.78741 3.23347 -0.720033 -0.617259 0.317088
-1.88603 -4.70186 3.29205 -0.720033 -0.617259 0.317088
-1.65401 -4.89357 3.44501 -0.720033 -0.617259 0.317088
-1.98667 -4.70795 3.05129 -0.720033 -0.617259 0.317088
-1.86215 -4.68455 3.38018 -0.720033 -0.617259 0.317088
-1.83828 -4.79866 3.21146 -0.720033 -0.617259 0.317088
-1.78762 -4.86362 3.19972 -0.720033 -0.617259 0.317088
-1.78708 -4.84852 3.23045 -0.720033 -0.617259 0.317088
-1.76782 -4.84712 3.27697 -0.720033 -0.617259 0.317088
-1.90783 -4.65015 3.34354 -0.720033 -0.617259 0.317088
-1.94317 -4.77448 3.02019 -0.720033 -0.617259 0.317088
-1.90131 -4.6638 3.33169 -0.720033 -0.617259 0.317088
-1.97832 -4.65905 3.16585 -0.720033 -0.617259 0.317088
-2.03678 -4.704 2.94507 -0.720033 -0.617259 0.317088
-1.97541 -4.5956 3.29646 -0.720033 -0.617259 0.317088
-1.81551 -4.74032 3.37725 -0.720033 -0.617259 0.317088
-1.71657 -4.89721 3.29564 -0.720033 -0.617259 0.317088
-1.91269 -4.8132 3.01384 -0.720033 -0.617259 0.317088
-1.93417 -4.63915 3.30514 -0.720033 -0.617259 0.317088
-1.84715 -4.82493 3.13997 -0.720033 -0.617259 0.317088
-1.87448 -4.78515 3.15553 -0.720033 -0.617259 0.317088
-1.8589 -4.72012 3.31807 -0.720033 -0.617259 0.317088
-2.02739 -4.67846 3.01633 -0.720033 -0.617259 0.317088
-1.97317 -4.63936 3.21605 -0.720033 -0.617259 0.317088
-1.81684 -4.76489 3.32621 -0.720033 -0.617259 0.317088
-1.83435 -4.72244 3.36935 -0.720033 -0.617259 0.317088
-2.05084 -4.7557 2.81207 -0.720033 -0.617259 0.317088
-1.83517 -4.78061 3.2538 -0.720033 -0.617259 0.317088
-1.96809 -4.68398 3.14039 -0.720033 -0.617259 0.317088
-1.94724 -4.7809 2.99841 -0.720033 -0.617259 0.317088
-1.76742 -4.83405 3.30342 -0.720033 -0.617259 0.317088
-1.80996 -4.84463 3.18602 -0.720033 -0.617259 0.317088
-1.98004 -4.75514 2.97416 -0.720033 -0.617259 0.317088
-1.83898 -4.79473 3.21754 -0.720033 -0.617259 0.317088
-1.66848 -4.9159 3.36847 -0.720033 -0.617259 0.317088
-1.95579 -4.59802 3.33635 -0.720033 -0.617259 0.317088
-1.94504 -4.62314 3.3117 -0.720033 -0.617259 0.317088
-1.70862 -4.87093 3.36508 -0.720033 -0.617259 0.317088
-2.00356 -4.68672 3.05439 -0.720033 -0.617259 0.317088
-1.90708 -4.80988 3.03309 -0.720033 -0.617259 0.317088
-1.85788 -4.69871 3.36223 -0.720033 -0.617259 0.317088
-1.60782 -4.93836 3.46249 -0.720033 -0.617259 0.317088
-1.83571 -4.82362 3.16852 -0.720033 -0.617259 0.317088
-1.97274 -4.72602 3.04766 -0.720033 -0.617259 0.317088
-1.78634 -4.83191 3.26459 -0.720033 -0.617259 0.317088
-1.9516 -4.64472 3.25461 -0.720033 -0.617259 0.317088
-1.90955 -4.69113 3.25953 -0.720033 -0.617259 0.317088
-1.82579 -4.77216 3.29164 -0.720033 -0.617259 0.317088
-1.96663 -4.63696 3.2356 -0.720033 -0.617259 0.317088
-1.94165 -4.70866 3.15228 -0.720033 -0.617259 0.317088
-1.99839 -4.58388 3.26713 -0.720033 -0.617259 0.317088
-1.88174 -4.71243 3.28113 -0.720033 -0.617259 0.317088
-1.90522 -4.64391 3.36166 -0.720033 -0.617259 0.317088
-1.97916 -4.61625 3.24758 -0.720033 -0.617259 0.317088
-1.88636 -4.75754 3.1825 -0.720033 -0.617259 0.317088
-1.9242 -4.68075 3.2465 -0.720033 -0.617259 0.317088
-1.86042 -4.76231 3.23215 -0.720033 -0.617259 0.317088
-1.8537 -4.83801 3.09949 -0.720033 -0.617259 0.317088
-1.95008 -4.78121 2.99134 -0.720033 -0.617259 0.317088
-1.88916 -4.66017 3.36642 -0.720033 -0.617259 0.317088
-1.96096 -4.67916 3.16604 -0.720033 -0.617259 0.317088
-2.01906 -4.72935 2.93583 -0.720033 -0.617259 0.317088
-2.03193 -4.68839 2.98661 -0.720033 -0.617259 0.317088
-1.95775 -4.78699 2.9626 -0.720033 -0.617259 0.317088
-1.87087 -4.75721 3.21836 -0.720033 -0.617259 0.317088
-1.94567 -4.74815 3.06597 -0.720033 -0.617259 0.317088
-1.98628 -4.61181 3.24006 -0.720033 -0.617259 0.317088
-1.78463 -4.80487 3.32133 -0.720033 -0.617259 0.317088
-1.87439 -4.73974 3.24448 -0.720033 -0.617259 0.317088
-2.01263 -4.65116 3.10325 -0.720033 -0.617259 0.317088
-1.77148 -4.86191 3.23977 -0.720033 -0.617259 0.317088
-1.7134 -4.85597 3.38342 -0.720033 -0.617259 0.317088
-1.70351 -4.84179 3.43363 -0.720033 -0.617259 0.317088
-1.96315 -4.57986 3.35511 -0.720033 -0.617259 0.317088
-1.74697 -4.80514 3.40644 -0.720033 -0.617259 0.317088
-1.95575 -4.60099 3.33064 -0.720033 -0.617259 0.317088
-1.94854 -4.72658 3.10159 -0.720033 -0.617259 0.317088
-1.96746 -4.62457 3.25792 -0.720033 -0.617259 0.317088
-1.84996 -4.77153 3.23793 -0.720033 -0.617259 0.317088
-1.97402 -4.63237 3.22776 -0.720033 -0.617259 0.317088
-1.82578 -4.80486 3.22777 -0.720033 -0.617259 0.317088
-1.77889 -4.85012 3.24595 -0.720033 -0.617259 0.317088
-1.99964 -4.5657 3.29979 -0.720033 -0.617259 0.317088
-1.76312 -4.85134 3.27943 -0.720033 -0.617259 0.317088
-2.04365 -4.74851 2.84246 -0.720033 -0.617259 0.317088
-1.91932 -4.80596 3.01292 -0.720033 -0.617259 0.317088
-2.01228 -4.59502 3.21374 -0.720033 -0.617259 0.317088
-1.9761 -4.72543 3.04118 -0.720033 -0.617259 0.317088
-1.82071 -4.74865 3.34914 -0.720033 -0.617259 0.317088
-1.84584 -4.70255 3.38209 -0.720033 -0.617259 0.317088
-1.88675 -4.79825 3.10205 -0.720033 -0.617259 0.317088
-1.77066 -4.79655 3.36934 -0.720033 -0.617259 0.317088
-1.79161 -4.79301 3.32863 -0.720033 -0.617259 0.317088
-2.00504 -4.69276 3.03921 -0.720033 -0.617259 0.317088
-1.81608 -4.80537 3.24883 -0.720033 -0.617259 0.317088
-1.9629 -4.74746 3.02812 -0.720033 -0.617259 0.317088
-1.84916 -4.84253 3.101 -0.720033 -0.617259 0.317088
-1.87519 -4.69569 3.32876 -0.720033 -0.617259 0.317088
-1.94477 -4.59847 3.36053 -0.720033 -0.617259 0.317088
-1.669 -4.90035 3.39765 -0.720033 -0.617259 0.317088
-1.99462 -4.6208 3.20353 -0.720033 -0.617259 0.317088
-1.95431 -4.67711 3.18516 -0.720033 -0.617259 0.317088
-1.88493 -4.68175 3.33384 -0.720033 -0.617259 0.317088
-1.66115 -4.91906 3.37895 -0.720033 -0.617259 0.317088
-1.67863 -4.89263 3.39084 -0.720033 -0.617259 0.317088
-1.71879 -4.84643 3.38983 -0.720033 -0.617259 0.317088
-1.82066 -4.80964 3.23007 -0.720033 -0.617259 0.317088
-2.01686 -4.70414 2.99011 -0.720033 -0.617259 0.317088
-2.00153 -4.73479 2.96506 -0.720033 -0.617259 0.317088
-1.8624 -4.83519 3.08522 -0.720033 -0.617259 0.317088
-1.99453 -4.68804 3.07233 -0.720033 -0.617259 0.317088
-1.91225 -4.74582 3.14654 -0.720033 -0.617259 0.317088
-1.9494 -4.79629 2.96342 -0.720033 -0.617259 0.317088
-1.65001 -4.92526 3.39217 -0.720033 -0.617259 0.317088
-1.66691 -4.88103 3.44017 -0.720033 -0.617259 0.317088
-1.87502 -4.8151 3.09578 -0.720033 -0.617259 0.317088
-1.94313 -4.79702 2.97623 -0.720033 -0.617259 0.317088
-1.83509 -4.83865 3.14057 -0.720033 -0.617259 0.317088
-1.96945 -4.75975 2.98922 -0.720033 -0.617259 0.317088
-1.91771 -4.75401 3.1181 -0.720033 -0.617259 0.317088
-1.67394 -4.89745 3.3921 -0.720033 -0.617259 0.317088
-1.99159 -4.68182 3.09118 -0.720033 -0.617259 0.317088
-2.00047 -4.72436 2.98785 -0.720033 -0.617259 0.317088
-1.9989 -4.5969 3.2405 -0.720033 -0.617259 0.317088
-2.0019 -4.58374 3.25939 -0.720033 -0.617259 0.317088
-1.70194 -4.85018 3.42081 -0.720033 -0.617259 0.317088
-1.96287 -4.76735 2.98933 -0.720033 -0.617259 0.317088
-1.83499 -4.83071 3.15631 -0.720033 -0.617259 0.317088
-1.97561 -4.74105 3.01178 -0.720033 -0.617259 0.317088
-1.67504 -4.87047 3.44232 -0.720033 -0.617259 0.317088
-1.90339 -4.7859 3.08835 -0.720033 -0.617259 0.317088
-1.99516 -4.63416 3.1762 -0.720033 -0.617259 0.317088
-1.89655 -4.67897 3.31287 -0.720033 -0.617259 0.317088
-1.86131 -4.75674 3.24103 -0.720033 -0.617259 0.317088
-1.95124 -4.70833 3.13114 -0.720033 -0.617259 0.317088
-1.75999 -4.85662 3.27622 -0.720033 -0.617259 0.317088
-2.03937 -4.75959 2.83055 -0.720033 -0.617259 0.317088
-1.80643 -4.76587 3.34796 -0.720033 -0.617259 0.317088
-1.82419 -4.73888 3.36033 -0.720033 -0.617259 0.317088
-1.92424 -4.6464 3.31355 -0.720033 -0.617259 0.317088
-1.68699 -4.88217 3.3923 -0.720033 -0.617259 0.317088
-2.00941 -4.62487 3.16197 -0.720033 -0.617259 0.317088
-1.89138 -4.79162 3.10447 -0.720033 -0.617259 0.317088
-2.0122 -4.7376 2.93532 -0.720033 -0.617259 0.317088
-1.75741 -4.83559 3.3232 -0.720033 -0.617259 0.317088
-1.74106 -4.88471 3.26436 -0.720033 -0.617259 0.317088
-1.88955 -4.67474 3.33703 -0.720033 -0.617259 0.317088
-1.83958 -4.75934 3.28534 -0.720033 -0.617259 0.317088
-1.81604 -4.83564 3.18976 -0.720033 -0.617259 0.317088
-1.94385 -4.60247 3.35481 -0.720033 -0.617259 0.317088
-2.02776 -4.7003 2.97282 -0.720033 -0.617259 0.317088
-1.99075 -4.76118 2.93799 -0.720033 -0.617259 0.317088
-1.63115 -4.9332 3.41954 -0.720033 -0.617259 0.317088
-1.91332 -4.65746 3.31677 -0.720033 -0.617259 0.317088
-1.97937 -4.73868 3.00784 -0.720033 -0.617259 0.317088
-2.0081 -4.67835 3.06041 -0.720033 -0.617259 0.317088
-1.90506 -4.74544 3.16361 -0.720033 -0.617259 0.317088
-1.69006 -4.8921 3.3659 -0.720033 -0.617259 0.317088
-1.96 -4.66352 3.19877 -0.720033 -0.617259 0.317088
-1.84773 -4.77063 3.24476 -0.720033 -0.617259 0.317088
-1.99042 -4.7089 3.04092 -0.720033 -0.617259 0.317088
-1.84825 -4.76612 3.25239 -0.720033 -0.617259 0.317088
-2.03606 -4.75339 2.85019 -0.720033 -0.617259 0.317088
-1.88921 -4.80143 3.09024 -0.720033 -0.617259 0.317088
-1.69639 -4.87791 3.37924 -0.720033 -0.617259 0.317088
-1.92243 -4.72151 3.17088 -0.720033 -0.617259 0.317088
-1.98872 -4.59906 3.25944 -0.720033 -0.617259 0.317088
-1.79692 -4.77209 3.35742 -0.720033 -0.617259 0.317088
-1.90656 -4.66043 3.32633 -0.720033 -0.617259 0.317088
-2.01993 -4.67989 3.0305 -0.720033 -0.617259 0.317088
-1.89001 -4.76334 3.16285 -0.720033 -0.617259 0.317088
-2.02737 -4.73701 2.90196 -0.720033 -0.617259 0.317088
-1.97884 -4.69267 3.09896 -0.720033 -0.617259 0.317088
-1.97308 -4.60493 3.28352 -0.720033 -0.617259 0.317088
-1.94641 -4.70829 3.14218 -0.720033 -0.617259 0.317088
-1.74877 -4.83783 3.33845 -0.720033 -0.617259 0.317088
-1.96004 -4.71625 3.09564 -0.720033 -0.617259 0.317088
-2.01266 -4.74022 2.92913 -0.720033 -0.617259 0.317088
-1.66418 -4.89892 3.41143 -0.720033 -0.617259 0.317088
-1.93422 -4.77393 3.04163 -0.720033 -0.617259 0.317088
-2.0093 -4.74873 2.92014 -0.720033 -0.617259 0.317088
-1.67298 -4.87712 3.43402 -0.720033 -0.617259 0.317088
-1.74519 -4.8716 3.2806 -0.720033 -0.617259 0.317088
-1.67934 -4.88799 3.39831 -0.720033 -0.617259 0.317088
-1.75292 -4.87359 3.25915 -0.720033 -0.617259 0.317088
-1.96081 -4.62347 3.27518 -0.720033 -0.617259 0.317088
-1.75588 -4.8773 3.24515 -0.720033 -0.617259 0.317088
-1.65361 -4.91942 3.3954 -0.720033 -0.617259 0.317088
-1.79909 -4.82822 3.24283 -0.720033 -0.617259 0.317088
-1.98219 -4.7222 3.03363 -0.720033 -0.617259 0.317088
-1.91381 -4.79132 3.05405 -0.720033 -0.617259 0.317088
-1.85853 -4.79241 3.17764 -0.720033 -0.617259 0.317088
-1.9028 -4.67759 3.30135 -0.720033 -0.617259 0.317088
-1.68775 -4.87617 3.40228 -0.720033 -0.617259 0.317088
-1.88154 -4.79418 3.12183 -0.720033 -0.617259 0.317088
-1.84191 -4.80223 3.19624 -0.720033 -0.617259 0.317088
-1.71634 -4.85535 3.37797 -0.720033 -0.617259 0.317088
-1.64713 -4.89779 3.45241 -0.720033 -0.617259 0.317088
-1.88366 -4.75197 3.19952 -0.720033 -0.617259 0.317088
-1.69038 -4.90206 3.34572 -0.720033 -0.617259 0.317088
-1.9769 -4.78212 2.92857 -0.720033 -0.617259 0.317088
-1.90794 -4.7166 3.21342 -0.720033 -0.617259 0.317088
-1.74395 -4.81065 3.40252 -0.720033 -0.617259 0.317088
-1.89612 -4.75514 3.16498 -0.720033 -0.617259 0.317088
-1.92327 -4.63441 3.33918 -0.720033 -0.617259 0.317088
-1.93049 -4.70091 3.19282 -0.720033 -0.617259 0.317088
-2.01705 -4.60639 3.18068 -0.720033 -0.617259 0.317088
-1.88777 -4.82417 3.04908 -0.720033 -0.617259 0.317088
-1.95506 -4.70331 3.13227 -0.720033 -0.617259 0.317088
-1.9783 -4.6408 3.20158 -0.720033 -0.617259 0.317088
-2.01046 -4.724 2.96583 -0.720033 -0.617259 0.317088
-1.9657 -4.75833 3.00052 -0.720033 -0.617259 0.317088
-1.86357 -4.80505 3.14149 -0.720033 -0.617259 0.317088
-1.87775 -4.71922 3.27694 -0.720033 -0.617259 0.317088
-1.86628 -4.79111 3.16255 -0.720033 -0.617259 0.317088
-1.87874 -4.69433 3.32335 -0.720033 -0.617259 0.317088
-2.02581 -4.74097 2.89778 -0.720033 -0.617259 0.317088
-1.95162 -4.71272 3.12167 -0.720033 -0.617259 0.317088
-2.00567 -4.65607 3.10948 -0.720033 -0.617259 0.317088
-1.90745 -4.81417 3.02386 -0.720033 -0.617259 0.317088
-1.94161 -4.66224 3.24309 -0.720033 -0.617259 0.317088
-1.99066 -4.58973 3.27326 -0.720033 -0.617259 0.317088
-2.00209 -4.7398 2.95399 -0.720033 -0.617259 0.317088
-1.97613 -4.75445 2.98438 -0.720033 -0.617259 0.317088
-1.93015 -4.70877 3.17823 -0.720033 -0.617259 0.317088
-1.99983 -4.64687 3.14072 -0.720033 -0.617259 0.317088
-1.83573 -4.81187 3.19144 -0.720033 -0.617259 0.317088
-1.96469 -4.64707 3.22026 -0.720033 -0.617259 0.317088
-1.919 -4.73809 3.14629 -0.720033 -0.617259 0.317088
-1.88233 -4.74923 3.2079 -0.720033 -0.617259 0.317088
-1.74319 -4.8408 3.34534 -0.720033 -0.617259 0.317088
-1.87599 -4.70555 3.30769 -0.720033 -0.617259 0.317088
-1.8426 -4.82306 3.15396 -0.720033 -0.617259 0.317088
-1.63906 -4.91576 3.43564 -0.720033 -0.617259 0.317088
-1.90661 -4.71526 3.21906 -0.720033 -0.617259 0.317088
-1.94634 -4.65076 3.25477 -0.720033 -0.617259 0.317088
-1.88119 -4.81978 3.07263 -0.720033 -0.617259 0.317088
-1.95956 -4.78932 2.95392 -0.720033 -0.617259 0.317088
-1.9985 -4.70532 3.02954 -0.720033 -0.617259 0.317088
-1.85741 -4.72425 3.31338 -0.720033 -0.617259 0.317088
-1.80801 -4.84367 3.19232 -0.720033 -0.617259 0.317088
-1.78972 -4.83975 3.24158 -0.720033 -0.617259 0.317088
-1.72398 -4.87505 3.3221 -0.720033 -0.617259 0.317088
-1.8807 -4.7689 3.17315 -0.720033 -0.617259 0.317088
-1.9433 -4.6902 3.18462 -0.720033 -0.617259 0.317088
-2.00652 -4.74811 2.92768 -0.720033 -0.617259 0.317088
-1.65602 -4.89781 3.43214 -0.720033 -0.617259 0.317088
-1.91826 -4.73485 3.1543 -0.720033 -0.617259 0.317088
-2.00806 -4.63817 3.13902 -0.720033 -0.617259 0.317088
-1.95644 -4.71606 3.10419 -0.720033 -0.617259 0.317088
-2.03637 -4.72602 2.90297 -0.720033 -0.617259 0.317088
-1.9938 -4.68212 3.08557 -0.720033 -0.617259 0.317088
-1.90509 -4.68936 3.27314 -0.720033 -0.617259 0.317088
-1.63667 -4.92119 3.43046 -0.720033 -0.617259 0.317088
-1.87814 -4.80889 3.10082 -0.720033 -0.617259 0.317088
-1.92327 -4.72887 3.15459 -0.720033 -0.617259 0.317088
-1.88919 -4.71367 3.26179 -0.720033 -0.617259 0.317088
-1.73163 -4.84345 3.36643 -0.720033 -0.617259 0.317088
