ply
format ascii 1.0
element vertex 870
property float x
property float y
property float z
property float nx
property float ny
property float nz
end_header
-6.34596 -73.6306 -638.776 0.759518 -0.649773 0.0304577
-91.0733 -82.7666 -641.754 -0.595564 0.0239432 0.802951
55.9289 -67.5051 -637.216 0.101949 0.658155 -0.745948
56.8106 -66.0832 -635.492 0.138906 0.67983 -0.720095
58.229 -66.1379 -635.581 0.148523 0.686452 -0.711846
58.2654 -65.4529 -634.852 0.187496 0.682156 -0.70676
59.1513 -66.3719 -635.362 0.427378 0.64096 -0.637588
-5.28282 -71.8313 -636.459 0.766638 -0.633939 0.101921
53.3181 -66.8079 -635.559 -0.520552 0.466813 -0.714921
59.186 -65.307 -634.236 0.489915 0.635074 -0.597214
59.1814 -63.7532 -632.502 0.58577 0.612743 -0.530489
50.927 -64.2902 -632.313 -0.492141 0.386872 -0.779825
59.8008 -63.9684 -631.884 0.72351 0.593485 -0.352575
-2.85949 -69.2554 -633.649 0.517891 -0.855441 -0.00302961
59.7584 -63.794 -631.161 0.81976 0.529176 -0.219012
47.5543 -64.2308 -631.223 -0.459413 0.0770699 -0.884873
49.1447 -63.3431 -631.034 -0.183422 0.499164 -0.846872
-83.1955 -77.0822 -635.267 -0.576529 0.0314289 0.816472
-1.93594 -68.8201 -632.213 0.480084 -0.876725 -0.0295517
-0.750787 -68.1297 -632.927 0.4862 -0.872857 -0.0415814
46.2788 -63.8308 -630.473 -0.516038 -0.224418 -0.826645
-0.20103 -67.9018 -632.154 0.402133 -0.912077 -0.0800307
0.458479 -67.8261 -629.604 0.280254 -0.95711 -0.073472
45.3195 -63.5734 -629.789 -0.603573 -0.638627 -0.477342
44.5673 -63.1026 -629.324 -0.590781 -0.725084 -0.353879
59.3392 -62.1419 -629.381 0.833994 0.527911 -0.160513
1.37708 -67.4138 -631.028 0.310218 -0.942238 -0.126304
3.07838 -67.3511 -628.611 0.256925 -0.962836 -0.083284
5.00316 -66.4401 -630.418 0.380881 -0.898887 -0.216636
43.4509 -62.3398 -628.77 -0.683133 -0.685355 -0.252228
7.02494 -65.8397 -629.912 0.294575 -0.915826 -0.272925
58.7823 -61.0278 -627.547 0.951069 0.295386 0.0906367
58.7944 -60.3941 -627.285 0.6318 0.286544 -0.720224
14.4103 -64.6726 -628.346 0.153711 -0.97944 -0.130654
19.7597 -63.9132 -627.808 0.134326 -0.970772 -0.198895
42.5734 -61.9025 -627.919 -0.509326 -0.860397 -0.0174542
43.3031 -61.976 -627.291 -0.252778 -0.850986 0.460354
-75.1477 -72.1201 -630.458 -0.439872 0.184915 0.878817
23.2816 -63.3985 -627.621 0.216294 -0.915816 -0.338375
24.2121 -63.0947 -627.545 0.232563 -0.900115 -0.368385
25.2184 -63.1231 -627.071 0.247848 -0.917469 -0.311163
27.9153 -62.3379 -626.639 0.309999 -0.854872 -0.416047
41.2452 -60.7764 -625.895 -0.0974214 -0.914518 0.392639
40.0571 -60.4496 -625.19 -0.0274227 -0.979233 0.200873
-69.6123 -71.4332 -629.126 -0.3533 0.301692 0.885529
38.9704 -60.3199 -625.555 -0.123461 -0.992211 0.0165511
58.0062 -58.4414 -624.744 0.932389 0.218093 0.288247
58.0626 -59.176 -624.372 0.919162 0.144283 0.366502
57.3188 -57.4935 -623.238 0.9256 0.195782 0.323935
-60.8324 -68.8491 -626.098 -0.293963 0.209129 0.932658
-59.1333 -68.3208 -625.095 -0.453813 0.0562852 0.889318
55.9365 -55.7455 -620.422 0.902419 0.137906 0.408194
-54.1677 -67.1885 -623.047 -0.354423 0.0331385 0.934498
-54.0083 -63.9665 -623.293 -0.398549 0.0775108 0.913866
-6.47539 -58.435 -618.743 0.00953118 -0.106417 0.994276
-7.60383 -60.0132 -618.775 0.0650372 -0.196595 0.978325
-1.49111 -59.7771 -618.42 -0.206801 -0.148823 0.966998
-1.01539 -58.8137 -617.894 -0.33404 -0.30327 0.892438
53.7448 -54.3623 -616.549 0.848486 -0.035744 0.528009
-0.305139 -58.9902 -617.725 -0.189958 -0.205826 0.959975
0.0642105 -57.4423 -617.613 -0.157093 -0.121695 0.980057
-41.9215 -61.4186 -618.507 -0.203663 0.126223 0.97087
-14.8434 -58.6198 -617.073 0.245573 -0.0331061 0.968813
-40.71 -61.9218 -618.308 -0.217474 0.0230614 0.975794
9.1407 -56.0386 -615.52 -0.141632 -0.036665 0.98924
10.9367 -55.8606 -615.314 -0.183228 -0.100639 0.977906
-22.7496 -58.3709 -615.919 0.0832997 0.277514 0.957103
-31.102 -59.5529 -615.545 -0.171652 0.135395 0.975809
-24.6734 -57.9374 -615.668 0.0562383 0.240553 0.969005
50.9075 -50.3272 -611.802 0.799501 -0.129391 0.586563
21.3202 -51.5114 -610.895 -0.639839 -0.147818 0.754159
49.8941 -49.689 -610.386 0.69733 -0.269291 0.664239
22.0783 -50.3488 -609.936 -0.769103 -0.100728 0.631138
48.2178 -47.5787 -607.829 0.679939 -0.323215 0.65819
25.0205 -47.6463 -605.08 -0.754875 -0.163399 0.635189
25.803 -47.7976 -604.42 -0.567681 -0.30513 0.764614
37.7542 -44.9103 -602.526 -0.0293762 -0.392462 0.919299
39.3157 -45.4661 -602.527 -0.476004 -0.352848 0.805555
34.76 -44.4181 -602.022 0.15266 -0.440612 0.884622
30.3306 -45.3166 -601.952 0.0323311 -0.452328 0.891266
43.2263 -43.4245 -601.063 0.624977 -0.0410715 0.779562
39.9712 -42.9966 -600.231 -0.298375 -0.47463 0.828069
-105.745 -196.709 -804.981 0.11992 -0.208832 -0.970571
-108.751 -195.152 -805.046 -0.219679 -0.0208228 -0.97535
-104.398 -195.575 -804.719 0.575753 0.170561 -0.799636
-115.519 -195.207 -802.802 -0.383792 -0.334768 -0.860601
-116.851 -194.868 -802.284 -0.413051 -0.285152 -0.864914
-118.292 -194.679 -801.795 -0.41772 -0.242341 -0.87566
-106.771 -193.545 -801.592 -0.0873643 0.895444 -0.436518
-108.588 -193.644 -801.565 0.101746 0.994728 -0.0127879
-107.554 -193.478 -801.167 -0.321891 0.853248 -0.41031
-109.796 -192.886 -800.561 0.433327 0.869078 -0.238601
-108.218 -193.597 -800.946 -0.12649 0.910368 -0.393993
-108.833 -193.353 -800.536 0.104918 0.947108 -0.303281
-108.104 -193.05 -800.508 -0.391443 0.627395 -0.673163
-110.667 -192.558 -799.645 0.122848 0.954673 0.271123
-109.746 -192.934 -799.553 0.268643 0.934435 -0.2338
-111.435 -192.695 -798.969 0.197345 0.978368 0.0620498
-109.955 -192.318 -799.012 -0.157941 0.621028 -0.76771
-123.546 -193.85 -798.991 -0.497759 -0.0736867 -0.864179
-114.129 -191.795 -798.096 0.16788 0.98331 0.0701267
-112.664 -192.133 -798.514 0.394017 0.919093 0.00424159
-124.526 -193.424 -798.17 -0.522866 -0.0521936 -0.850816
-113.115 -191.854 -797.725 0.0301679 0.950781 -0.308392
-125.465 -193.077 -797.779 -0.497397 -0.0402201 -0.86659
-112.607 -191.504 -797.414 -0.257148 0.823416 -0.505827
-116.212 -191.641 -797.383 0.170167 0.969578 0.175959
-128.269 -191.677 -795.564 -0.570323 0.112453 -0.813686
-119.272 -190.746 -795.389 0.311286 0.950145 0.0180618
-129.158 -191.298 -794.814 -0.520849 0.119453 -0.84525
-121.618 -189.855 -794.747 0.270946 0.955292 -0.118345
-129.83 -190.58 -794.412 -0.447764 0.220268 -0.866597
-120.688 -190.175 -793.845 0.396318 0.917903 0.0196443
-130.879 -190.282 -793.59 -0.523594 0.270729 -0.807809
-123.813 -189.02 -792.89 0.353622 0.920378 -0.166901
-131.752 -190.206 -793.094 -0.455388 0.171818 -0.873556
-130.289 -189.199 -793.372 -0.352973 0.542918 -0.762004
-131.922 -189.376 -792.786 -0.464517 0.387895 -0.796092
-133.666 -188.625 -791.16 -0.551015 0.398671 -0.733106
-126.296 -187.839 -791.579 0.256037 0.934004 -0.249161
-134.603 -188.549 -790.214 -0.655738 0.256762 -0.709986
-134.187 -187.808 -790.174 -0.480449 0.4729 -0.738603
-127.093 -187.018 -788.649 0.391979 0.913777 -0.106604
-135.139 -187.648 -789.455 -0.619545 0.359728 -0.697682
-135.763 -186.746 -788.151 -0.556292 0.476009 -0.681142
-128.855 -186.343 -788.703 0.277071 0.92532 -0.258871
-129.873 -185.872 -788.05 0.226095 0.909039 -0.350042
-131.506 -184.579 -785.911 0.285661 0.917885 -0.27547
-130.285 -185.186 -786.628 0.344157 0.908727 -0.236157
-136.671 -185.129 -786.207 -0.470275 0.580102 -0.665074
-138.102 -185.619 -785.582 -0.615595 0.380692 -0.690012
-138.057 -184.413 -784.709 -0.490333 0.536377 -0.68693
-134.793 -183.169 -784.104 0.117949 0.85069 -0.512265
-132.464 -183.976 -784.564 0.286488 0.910771 -0.297357
-132.812 -183.465 -783.631 0.349478 0.846068 -0.402535
-138.755 -184.065 -783.966 -0.544636 0.551646 -0.63171
-133.983 -182.837 -783.292 0.224273 0.863032 -0.452634
-133.266 -182.788 -782.709 0.302742 0.89889 -0.316772
-138.955 -183.042 -782.793 -0.422699 0.594807 -0.683762
-139.952 -182.999 -782.229 -0.490294 0.522566 -0.697521
-135.52 -181.787 -781.682 0.226044 0.871219 -0.435753
-139.81 -182.054 -781.291 -0.324758 0.651565 -0.685562
-134.978 -181.165 -780.016 0.346094 0.857521 -0.380626
-140.053 -181.185 -780.551 -0.268938 0.671285 -0.690688
-140.879 -181.825 -780.672 -0.501051 0.518184 -0.693133
-141.676 -181.565 -779.604 -0.619862 0.472756 -0.626317
-142.624 -180.323 -777.677 -0.621675 0.499213 -0.603578
-136.466 -179.487 -778.217 0.376203 0.775055 -0.507702
-141.742 -178.693 -776.975 -0.38293 0.691259 -0.612802
-137.162 -178.049 -776.222 0.352697 0.852136 -0.386612
-143.157 -178.098 -775.282 -0.52214 0.660714 -0.539283
-144.169 -176.861 -772.537 -0.521044 0.570048 -0.635262
-137.551 -175.374 -771.298 0.481313 0.64583 -0.592656
-144.906 -175.224 -770.629 -0.543169 0.538337 -0.644329
-137.794 -174.342 -770.425 0.46661 0.694031 -0.548267
-144.976 -174.384 -769.996 -0.522769 0.564695 -0.638618
-146.702 -173.973 -768.057 -0.622989 0.494072 -0.606446
-146.345 -172.28 -766.759 -0.571282 0.567444 -0.592996
-146.917 -170.495 -764.581 -0.60184 0.556229 -0.57306
-136.632 -170.419 -763.383 0.706779 0.607228 -0.362957
-148.036 -170.346 -763.328 -0.694309 0.520089 -0.497436
-148.601 -168.917 -761.195 -0.646806 0.407755 -0.644498
-137.295 -167.307 -760.052 0.661597 0.564609 -0.493464
-148.564 -167.781 -760.391 -0.64982 0.36628 -0.666013
-150.396 -168.725 -760.305 0.728848 0.439122 -0.525312
-150.476 -168.331 -760.085 0.777508 0.464771 -0.423639
-149.905 -168.751 -759.643 0.0414484 0.523235 -0.85118
-136.397 -166.018 -758.007 0.645841 0.403283 -0.648268
-136.606 -164.973 -757.464 0.651189 0.552748 -0.520022
-150.255 -166.376 -757.142 -0.159668 0.795464 -0.584588
-135.355 -164.72 -755.181 0.81482 0.368169 -0.447795
-135.78 -163.762 -755.035 0.722278 0.487391 -0.490678
-135.383 -163.098 -753.546 0.757466 0.35667 -0.546838
-134.39 -161.886 -751.901 0.692272 0.361572 -0.62452
-133.987 -160.357 -750.257 0.724844 0.411235 -0.552708
-133.557 -159.438 -749.084 0.829429 0.316345 -0.460405
-133.206 -158.394 -747.602 0.783543 0.357161 -0.508425
-151.581 -160.737 -747.727 -0.987187 0.117585 -0.107867
-151.418 -157.387 -744.16 -0.981332 0.175181 -0.0793626
-130.409 -154.362 -739.949 0.981091 0.0539232 -0.185885
-130.186 -151.622 -738.761 0.780404 -0.0908068 -0.618647
-150.613 -153.479 -738.023 -0.981302 0.11646 0.15324
-128.247 -150.499 -735.995 0.865757 -0.0109585 -0.500344
-124.789 -147.481 -731.634 0.926736 -0.204685 -0.315064
-147.777 -146.518 -729.706 -0.943639 0.226808 0.241047
-121.348 -143.707 -727.442 0.843808 -0.260103 -0.469399
-119.993 -142.797 -725.868 0.735974 -0.5149 -0.439569
-146.041 -143.963 -726.045 -0.937971 0.120275 0.325183
-118.611 -141.751 -725.064 0.73223 -0.477353 -0.485771
-145.611 -144.086 -724.425 -0.90796 0.0866009 0.410011
-117.665 -141.218 -723.651 0.71826 -0.661598 -0.215384
-116.598 -140.395 -722.641 0.693221 -0.702702 -0.16017
-145.252 -141.82 -724.483 -0.94396 0.119075 0.307833
-144.848 -141.37 -722.766 -0.949651 0.0755405 0.304068
-114.734 -138.919 -721.448 0.656128 -0.733563 -0.177149
-143.495 -140.974 -719.523 -0.895664 -0.054502 0.441379
-107.943 -134.249 -715.906 0.680356 -0.715446 -0.158912
-107.189 -133.956 -714.467 0.56557 -0.791507 -0.23162
-141.874 -137.121 -716.107 -0.908919 0.0474874 0.414259
-141.203 -137.49 -714.598 -0.849946 -0.106463 0.516001
-100.642 -130.707 -709.611 0.514814 -0.817584 -0.257922
-138.282 -133.07 -710.666 -0.820227 -0.0218186 0.571622
-137.697 -132.181 -709.86 -0.800602 -0.0264893 0.59861
-136.983 -131.764 -708.893 -0.820726 -0.0910855 0.564014
-95.1929 -127.721 -706.263 0.562218 -0.786 -0.25713
-136.145 -131.205 -707.328 -0.801505 -0.161137 0.575869
-92.6248 -126.344 -704.58 0.591765 -0.769021 -0.241704
-131.032 -125.82 -700.388 -0.744706 -0.16041 0.647829
-82.6064 -121.01 -698.56 0.617846 -0.742531 -0.258677
-80.8108 -119.733 -697.973 0.546106 -0.748545 -0.376097
-75.5658 -118.014 -694.359 0.498678 -0.791986 -0.352247
-126.136 -120.036 -694.076 -0.784183 -0.114307 0.609911
-125.285 -119.585 -692.927 -0.785619 -0.12265 0.606432
-64.2051 -113.389 -689.221 0.425151 -0.794388 -0.433813
-57.8567 -110.339 -687.898 0.512075 -0.713951 -0.477549
-119.175 -113.041 -684.561 -0.741666 -0.0785263 0.666157
-47.7207 -106.555 -680.431 0.498198 -0.805451 -0.32101
-44.9694 -105.183 -678.91 0.595849 -0.752752 -0.279874
-116.33 -111.648 -681.141 -0.753732 -0.235733 0.613448
-43.3591 -103.673 -677.769 0.675777 -0.679629 -0.28536
-41.8775 -103.051 -677.82 0.394796 -0.888137 -0.235266
-41.7212 -103.247 -676.668 0.400466 -0.883991 -0.241218
-40.1376 -102.298 -676.756 0.56504 -0.78941 -0.239921
-39.3457 -101.768 -676.084 0.593932 -0.788556 -0.159452
-38.8099 -101.421 -676.22 0.472492 -0.855761 -0.21077
-114.456 -109.408 -678.167 -0.726681 -0.198177 0.657769
-38.279 -101.464 -675.213 0.418711 -0.87694 -0.235919
-36.5311 -100.588 -673.451 0.760666 -0.642336 -0.0937671
-112.153 -108.25 -675.256 -0.716119 -0.284431 0.637395
-32.5284 -98.1574 -670.538 0.55751 -0.797093 -0.232003
-30.6049 -95.6785 -667.056 0.732269 -0.674462 0.0942494
-109.262 -103.172 -668.995 -0.849825 -0.15714 0.503096
-26.4823 -91.6876 -664.112 0.63528 -0.770995 0.0445584
-27.3929 -92.2565 -661.493 0.679197 -0.729574 0.0800885
-26.159 -91.388 -662.595 0.619766 -0.781082 0.0761596
-22.0594 -86.3007 -654.496 0.555215 -0.813413 0.173483
-103.864 -92.1026 -655.536 -0.859205 0.0133108 0.511458
-18.9366 -83.6051 -652.629 0.602778 -0.789939 0.112493
-20.0803 -84.0751 -650.82 0.567276 -0.806341 0.167366
-18.1165 -82.7345 -650.751 0.596146 -0.790962 0.137804
-17.4979 -81.9306 -649.357 0.611815 -0.777172 0.147263
-15.7262 -80.315 -647.442 0.585189 -0.809704 0.0439649
-15.4201 -79.9904 -645.162 0.522468 -0.852614 -0.00878312
-14.2421 -79.4468 -645.119 0.503842 -0.862173 -0.0529319
-95.8971 -84.3126 -645.701 -0.725744 0.0346633 0.687091
-95.0338 -82.622 -645.07 -0.623155 0.125125 0.772024
-92.9964 -84.1592 -643.477 -0.623933 0.0495036 0.779909
55.8157 -68.8447 -638.283 -0.122522 0.613806 -0.779891
54.7059 -68.2205 -637.471 -0.368559 0.542043 -0.755218
55.2262 -67.2915 -636.974 -0.178985 0.618234 -0.765344
-92.1332 -82.8598 -642.454 -0.652613 0.0212805 0.757393
-7.73566 -75.0901 -639.223 0.693079 -0.719168 -0.0493811
54.0269 -68.4778 -637.233 -0.497251 0.461823 -0.734481
57.2879 -68.0019 -637.147 0.117463 0.668512 -0.734366
52.8361 -67.5997 -635.685 -0.653268 0.379425 -0.655193
58.4268 -67.4561 -636.713 0.154263 0.663379 -0.73221
60.0154 -66.3059 -634.495 0.670961 0.555737 -0.490885
51.4965 -66.6325 -633.77 -0.622469 0.286214 -0.728433
60.063 -65.7477 -633.783 0.685922 0.567915 -0.454954
59.9773 -65.1621 -633.046 0.64611 0.590832 -0.483175
60.0334 -65.4864 -633.402 0.934018 0.324412 -0.149554
50.7645 -65.3359 -632.768 -0.511066 0.331734 -0.792947
49.4335 -65.402 -632.095 -0.498743 0.0784106 -0.863196
-3.97728 -70.0485 -634.321 0.662536 -0.740098 0.115329
49.6859 -64.7366 -631.946 -0.313283 0.380751 -0.86999
48.551 -64.5973 -631.642 -0.322683 0.20086 -0.924949
-4.12385 -69.9642 -632.862 0.586759 -0.808844 0.038552
48.2054 -64.9451 -631.447 -0.528764 -0.365367 -0.766104
46.5951 -64.4507 -630.373 -0.647064 -0.548873 -0.529194
59.6458 -62.6923 -629.677 0.848376 0.491257 -0.197295
-1.18176 -68.4284 -630.228 0.395841 -0.918221 0.0134024
59.2407 -61.7603 -628.537 0.8999 0.433147 -0.0506342
-80.3721 -75.7844 -632.97 -0.500484 0.0801167 0.862031
43.7194 -62.7783 -628.623 -0.648223 -0.759216 -0.0582902
44.6924 -63.2179 -628.465 -0.380108 -0.856779 0.348493
4.92143 -66.6897 -629.503 0.290274 -0.939518 -0.181791
43.5181 -62.4012 -627.873 -0.401359 -0.844163 0.355388
7.98868 -65.9206 -628.673 0.29859 -0.927148 -0.226365
-77.1045 -74.5978 -631.71 -0.457525 0.0820963 0.885399
10.4988 -65.292 -628.653 0.25981 -0.946563 -0.191097
-76.3 -73.679 -631 -0.590627 0.0307727 0.806358
11.3034 -65.1433 -628.117 0.153804 -0.974341 -0.164329
15.8854 -64.436 -628.632 0.197297 -0.964652 -0.174702
17.7893 -64.4317 -627.069 0.130928 -0.979437 -0.153498
44.9732 -62.3338 -627.364 -0.168142 -0.761407 0.626089
20.5343 -64.0573 -626.673 0.199639 -0.970147 -0.137691
22.9027 -63.7572 -626.559 0.182368 -0.963225 -0.197331
21.9702 -63.5877 -627.209 0.145885 -0.962131 -0.230263
24.7743 -63.5269 -625.89 0.159335 -0.964348 -0.211296
45.5954 -61.2476 -625.969 -0.113149 -0.785463 0.608478
-72.2311 -73.049 -629.728 -0.388516 0.184531 0.902776
26.8095 -62.4515 -626.948 0.326093 -0.862474 -0.387043
27.3926 -62.8915 -625.431 0.287845 -0.918717 -0.27038
42.5796 -60.5196 -625.153 -0.0438815 -0.880394 0.472209
43.8785 -60.2149 -624.647 -0.0078903 -0.866284 0.49949
45.766 -60.3378 -624.617 -0.2113 -0.878177 0.429136
-71.1184 -71.2809 -629.394 -0.293415 0.341507 0.892906
-69.2836 -72.4099 -628.701 -0.347519 0.242118 0.905875
31.2745 -61.5715 -625.003 0.276824 -0.850821 -0.446623
32.322 -61.0777 -625.598 0.192611 -0.847908 -0.493916
35.355 -60.8504 -624.588 0.122871 -0.878531 -0.461612
36.0957 -60.5071 -625.045 0.0655912 -0.884834 -0.461266
40.9066 -60.1783 -624.456 0.0618078 -0.951753 0.300577
37.0144 -60.721 -624.588 0.146999 -0.897107 -0.416641
38.4738 -60.5402 -624.093 0.1466 -0.966045 -0.212757
39.5554 -60.3568 -624 0.234519 -0.972043 0.0115589
40.5999 -60.0064 -623.645 0.20212 -0.97931 0.00999067
44.3466 -59.7634 -623.701 -0.074979 -0.939479 0.334302
57.3234 -58.9383 -622.74 0.90323 0.0599542 0.424948
41.9195 -59.8583 -623.534 0.142756 -0.977952 0.152418
42.8096 -59.5477 -623.026 0.165188 -0.97871 0.121819
-64.3222 -70.3457 -626.947 -0.401901 0.131321 0.906218
56.2444 -57.4114 -620.641 0.874427 0.0186364 0.4848
-55.8399 -67.1813 -623.982 -0.405664 0.0613987 0.911958
-54.8402 -67.0101 -623.371 -0.471593 0.00794446 0.88178
-48.5922 -64.4082 -621.011 -0.359115 0.0668821 0.930894
-5.20753 -59.8685 -618.785 -0.0913223 -0.145606 0.985119
-47.2205 -64.5444 -620.264 -0.428591 -0.065361 0.901131
-46.4027 -63.6401 -619.9 -0.286293 0.102046 0.952692
-9.95972 -59.9484 -618.4 0.220788 -0.223547 0.949357
-8.81223 -60.2077 -618.694 0.154227 -0.273469 0.949436
-6.2659 -60.5468 -618.884 -0.00982901 -0.178014 0.983979
-2.99786 -60.2829 -618.495 -0.110382 -0.0972679 0.989118
-44.3386 -64.1873 -619.551 -0.253088 0.000462942 0.967443
-0.770108 -59.8125 -618.212 -0.255659 -0.318354 0.912846
1.60745 -59.3944 -617.619 -0.102843 -0.128956 0.986303
2.43053 -58.6772 -617.376 -0.121658 -0.185125 0.975155
4.37235 -58.4251 -617.124 -0.0738509 -0.18922 0.979154
6.713 -57.9062 -616.62 -0.289089 -0.329646 0.898755
-40.1428 -62.9983 -618.236 -0.182292 -0.0652063 0.98108
7.77154 -56.8724 -615.859 -0.246284 -0.210878 0.945978
-17.4298 -58.5952 -616.447 0.183888 0.209508 0.96036
-17.4454 -59.9407 -616.046 0.241569 0.298437 0.923352
12.0322 -56.891 -615.311 -0.111199 -0.191795 0.975115
51.6386 -52.1921 -613.224 0.7571 -0.19131 0.624661
13.8119 -55.685 -614.528 -0.251067 -0.240814 0.937536
-30.945 -60.5237 -615.425 -0.387545 0.0301484 0.921358
-25.0003 -59.228 -615.455 0.0585053 0.186717 0.98067
16.0348 -55.6236 -613.99 -0.264117 -0.197246 0.944106
-29.9918 -58.6862 -615.643 -0.159953 0.173046 0.971839
-28.4624 -59.6691 -615.114 0.00283368 0.226093 0.974102
18.8677 -54.2314 -612.975 -0.448463 -0.218275 0.866739
19.5 -53.5859 -612.348 -0.44904 -0.245719 0.859061
49.829 -50.837 -610.86 0.618852 -0.376539 0.689377
21.0929 -52.8385 -611.452 -0.536888 -0.233082 0.810817
22.0774 -53.1391 -610.685 -0.709261 -0.251105 0.658707
47.6664 -49.5997 -608.339 0.654881 -0.365947 0.661221
25.1477 -49.1796 -605.505 -0.612743 -0.271219 0.742285
26.5869 -46.9568 -603.542 -0.484604 -0.335572 0.807806
35.8588 -45.6851 -602.824 0.088567 -0.386819 0.917893
38.6568 -45.402 -602.723 -0.179894 -0.341327 0.922569
29.1733 -45.8422 -602.209 -0.0849008 -0.440544 0.893707
43.7994 -43.8173 -601.624 0.713479 -0.0311031 0.699986
39.9377 -44.2119 -601.088 -0.535867 -0.445692 0.717081
41.0187 -44.1226 -600.528 -0.19055 -0.338152 0.921599
-108.215 -196.769 -805.055 -0.140867 -0.130631 -0.981373
-104.824 -196.281 -804.889 0.162196 -0.1367 -0.977244
-110.881 -197.476 -803.965 -0.261271 -0.270776 -0.926508
-113.781 -196.872 -803.07 -0.419202 -0.302478 -0.856024
-115.494 -196.13 -802.428 -0.348407 -0.398105 -0.848602
-105.08 -194.599 -802.418 0.657112 0.0411253 0.75267
-105.388 -194.534 -802.154 0.615977 -0.0167808 0.787586
-106.614 -194.181 -801.175 0.588091 -0.169051 0.790931
-106.832 -194.224 -801.033 0.527745 0.120117 0.840867
-107.413 -193.997 -800.641 0.552034 -0.0270481 0.833383
-119.377 -195.378 -800.935 -0.473438 -0.323551 -0.819251
-109.027 -193.173 -799.895 0.054945 0.947104 -0.31619
-121 -194.492 -800.217 -0.574385 -0.199527 -0.793896
-122.332 -193.749 -799.361 -0.426867 -0.0856372 -0.900251
-110.998 -192.769 -798.732 0.156774 0.980546 0.118113
-112.498 -192.359 -798.035 0.360284 0.865866 -0.34709
-112 -192.345 -797.991 0.0250543 0.834294 -0.55075
-113.907 -191.855 -797.153 -0.239883 0.954463 -0.177362
-113.574 -191.526 -796.957 -0.449437 0.72945 -0.515664
-114.157 -191.458 -796.39 0.387041 0.8737 0.294698
-126.976 -192.63 -796.423 -0.568922 0.0833939 -0.818152
-117.506 -191.38 -796.571 0.3062 0.950476 0.0532645
-127.581 -192.552 -796.08 -0.55195 -0.00103682 -0.833876
-119.985 -190.536 -794.585 0.391029 0.920322 0.0101977
-130.505 -191.401 -794.119 -0.572324 -0.0129264 -0.819926
-122.203 -189.684 -793.548 0.33662 0.940583 -0.0446271
-131.501 -191.133 -793.263 -0.56323 -0.0257224 -0.8259
-132.617 -190.02 -792.519 -0.602118 0.234583 -0.763168
-123.604 -188.93 -791.932 0.434978 0.895486 -0.0943395
-124.407 -188.387 -790.858 0.443351 0.893895 -0.0662623
-134.158 -189.599 -791.021 -0.699948 0.103419 -0.706666
-125.867 -187.613 -789.695 0.398466 0.912248 -0.0950135
-136.834 -186.282 -787.206 -0.585931 0.430144 -0.686776
-128.314 -186.273 -787.368 0.418382 0.896888 -0.14335
-137.636 -185.998 -786.133 -0.6251 0.396537 -0.672316
-131.16 -184.57 -784.982 0.418943 0.896582 -0.143621
-139.029 -185.655 -784.567 -0.723203 0.252902 -0.642665
-139.153 -184.755 -784.075 -0.665175 0.3502 -0.659471
-139.599 -183.88 -782.903 -0.578623 0.423238 -0.697184
-133.312 -182.416 -781.29 0.388918 0.879432 -0.274484
-140.862 -182.671 -781.15 -0.574654 0.447583 -0.685158
-133.61 -181.525 -779.119 0.501619 0.821088 -0.272382
-134.695 -180.626 -778.549 0.466918 0.812059 -0.350068
-142.572 -181.424 -778.641 -0.675182 0.408113 -0.61447
-143.397 -179.511 -776.275 -0.609741 0.504842 -0.611024
-135.577 -179.253 -776.896 0.53932 0.756681 -0.369551
-144.452 -179.359 -775.018 -0.73767 0.425366 -0.524315
-136.122 -178.168 -775.11 0.507006 0.806498 -0.304148
-144.817 -178.149 -773.327 -0.620551 0.554586 -0.554392
-142.993 -177.367 -774.225 -0.476862 0.71264 -0.514536
-137.065 -177.279 -774.135 0.432636 0.82401 -0.365833
-136.413 -177.073 -772.843 0.542514 0.765705 -0.345506
-136.443 -175.247 -770.105 0.619339 0.625671 -0.474294
-144.412 -175.811 -771.666 -0.506337 0.544477 -0.668706
-145.779 -174.075 -768.858 -0.534461 0.564333 -0.62919
-136.373 -173.962 -768.102 0.659151 0.629031 -0.412115
-137.1 -173.025 -767.695 0.578216 0.64629 -0.497971
-136.793 -171.668 -765.63 0.641916 0.617953 -0.453957
-136.691 -171.062 -764.794 0.670425 0.618234 -0.410265
-148.328 -172.129 -764.346 -0.760977 0.430466 -0.4854
-148.499 -171.401 -763.491 -0.792952 0.367794 -0.485753
-148.594 -170.611 -762.64 -0.744755 0.50663 -0.434357
-137.033 -169.565 -762.815 0.656912 0.63246 -0.41044
-148.352 -169.888 -762.028 -0.685239 0.502635 -0.527072
-137.047 -168.911 -761.721 0.660199 0.607349 -0.441886
-149.468 -168.578 -759.782 -0.569192 0.448641 -0.689014
-149.411 -169.115 -760.601 -0.633142 0.489403 -0.59968
-136.523 -166.813 -758.598 0.691018 0.436684 -0.576022
-135.589 -166.102 -757.16 0.789247 0.378044 -0.483913
-135.771 -165.032 -756.062 0.751667 0.49905 -0.431215
-151.406 -160.96 -748.844 -0.973109 0.147162 -0.177207
-151.473 -160.048 -747.791 -0.984596 0.145026 -0.0976658
-132.63 -159.06 -747.01 0.866498 0.133684 -0.480946
-151.523 -158.792 -745.403 -0.988775 0.12815 -0.0768173
-131.926 -155.517 -743.157 0.841989 0.0962895 -0.530832
-151.472 -157.704 -742.864 -0.991143 0.132234 0.0122373
-131.149 -155.55 -741.931 0.875578 0.0122037 -0.482923
-130.858 -153.642 -741.11 0.900447 0.192141 -0.390227
-151.415 -156.633 -741.936 -0.995038 0.0962083 0.0253735
-151.095 -155.673 -739.587 -0.980071 0.0268923 0.196819
-130.469 -152.939 -738.977 0.933899 0.107013 -0.341146
-130.038 -152.66 -738.181 0.820775 -0.211737 -0.530561
-129.179 -151.466 -737.562 0.824701 -0.104504 -0.555829
-127.505 -150.25 -734.455 0.911615 -0.223613 -0.344899
-125.844 -148.571 -733.309 0.764891 -0.367787 -0.528843
-124.414 -147.038 -730.753 0.912058 -0.25214 -0.323382
-148.143 -147.592 -730.712 -0.963959 0.141872 0.225067
-122.632 -145.328 -728.966 0.801394 -0.40529 -0.439895
-146.867 -145.969 -726.727 -0.918659 0.153074 0.36419
-146.423 -145.99 -725.927 -0.86818 0.15446 0.471598
-119.06 -142.397 -724.468 0.678297 -0.711935 -0.181828
-142.856 -138.752 -718.206 -0.95183 -0.0141673 0.306298
-106.038 -133.725 -713.091 0.523567 -0.829269 -0.195424
-104.873 -132.799 -713.635 0.577648 -0.779944 -0.240855
-139.207 -134.193 -711.902 -0.80625 0.0565979 0.588861
-102.674 -131.388 -711.666 0.669236 -0.717707 -0.192406
-102.007 -131.119 -710.674 0.555924 -0.787968 -0.264681
-96.7532 -128.628 -706.565 0.539006 -0.806584 -0.242685
-135.556 -130.167 -706.381 -0.796283 -0.11219 0.59443
-93.1103 -126.909 -703.777 0.507798 -0.852695 -0.122685
-133.485 -129.652 -703.841 -0.704472 -0.156704 0.692216
-89.0645 -124.581 -702.378 0.535677 -0.801838 -0.264775
-133.595 -128.633 -703.823 -0.748074 -0.0567211 0.661187
-86.1514 -123.195 -699.801 0.544764 -0.817507 -0.186856
-131.754 -126.467 -701.433 -0.786473 -0.0582366 0.614873
-84.8988 -122.641 -698.835 0.554173 -0.802461 -0.221245
-130.362 -125.051 -699.429 -0.709447 -0.0700812 0.701266
-81.0212 -120.253 -697.082 0.506352 -0.810249 -0.295133
-78.0605 -119.3 -694.908 0.509759 -0.806449 -0.299643
-126.752 -121.396 -695.222 -0.734188 -0.168209 0.65778
-73.2055 -116.61 -693.961 0.494357 -0.798071 -0.34452
-124.29 -120.327 -691.856 -0.7161 -0.189756 0.671709
-67.3574 -114.866 -690.459 0.504556 -0.773916 -0.382724
-65.1078 -113.949 -689.176 0.48848 -0.774673 -0.401582
-57.8468 -111.371 -685.851 0.533453 -0.770223 -0.349548
-119.179 -115.826 -685.312 -0.742823 -0.149716 0.652533
-52.0075 -108.789 -681.991 0.528313 -0.807061 -0.263699
-51.4909 -108.294 -682.265 0.547385 -0.771584 -0.324081
-115.463 -112.002 -680.297 -0.702846 -0.331833 0.629201
-115.406 -110.356 -679.4 -0.748177 -0.213634 0.628165
-42.8318 -103.589 -676.687 0.532659 -0.800226 -0.275522
-111.094 -106.686 -673.08 -0.760861 -0.281612 0.584624
-30.0282 -94.8357 -665.732 0.695223 -0.71506 0.0731708
-29.3549 -94.1641 -663.846 0.651818 -0.758114 0.0199004
-108.631 -100.881 -667.236 -0.908395 -0.102186 0.405434
-25.1842 -89.8702 -659.416 0.656499 -0.737755 0.157247
-106.854 -98.0117 -662.256 -0.897449 -0.0827725 0.433282
-105.84 -96.5549 -660.174 -0.89669 -0.084313 0.434556
-23.9569 -88.404 -657.576 0.637591 -0.757694 0.139207
-22.9645 -86.9925 -653.854 0.685771 -0.714129 0.140491
-20.8704 -85.4388 -653.895 0.5804 -0.781864 0.227649
-103.351 -93.0661 -654.83 -0.821654 -0.0665337 0.56609
-102.192 -90.4158 -652.801 -0.808526 0.00370072 0.588448
-18.1632 -82.1862 -647.582 0.573511 -0.806721 0.142431
-100.678 -90.2856 -651.35 -0.732769 -0.00963936 0.680409
-99.9259 -90.635 -650.369 -0.804547 -0.134952 0.578353
-98.1836 -88.5597 -648.188 -0.714397 -0.0161042 0.699556
-97.2282 -86.3427 -646.836 -0.663265 0.0775845 0.744353
-95.5607 -87.1968 -645.529 -0.616272 -0.0207751 0.787259
-11.0051 -77.5159 -642.238 0.59292 -0.801594 -0.0767578
-10.4977 -77.0886 -642.286 0.622768 -0.777118 -0.0908109
57.0214 -70.9631 -640.177 0.0439807 0.675514 -0.736034
55.5161 -70.0989 -639.21 -0.233752 0.607858 -0.75886
56.3048 -69.1159 -638.524 0.0633998 0.656245 -0.751879
58.5378 -69.8058 -638.791 0.148975 0.677053 -0.720698
57.7012 -70.0163 -639.049 0.0888067 0.72324 -0.684863
-8.39633 -75.4687 -640.52 0.642188 -0.761679 -0.0862555
53.6798 -69.5606 -637.623 -0.626555 0.436703 -0.645538
59.5044 -67.4767 -636.203 0.485819 0.611863 -0.624182
60.2302 -68.678 -636.628 0.547536 0.608105 -0.574815
53.045 -69.547 -636.872 -0.7667 0.313479 -0.56027
-90.8296 -82.1784 -641.547 -0.709238 -0.0314978 0.704265
60.3598 -67.0453 -634.79 0.836597 0.433916 -0.334398
-88.7624 -80.4213 -639.663 -0.584688 0.108503 0.80397
60.3651 -66.1524 -633.52 0.906813 0.323714 -0.27
-5.72412 -72.1864 -635.099 0.772317 -0.623788 0.120064
49.9158 -66.0709 -632.503 -0.670283 -0.037246 -0.74117
-5.03 -71.2491 -634.229 0.73793 -0.658941 0.145795
-85.4442 -78.8914 -636.471 -0.678565 -0.00466086 0.734526
48.519 -65.5424 -631.112 -0.647071 -0.617717 -0.446907
-83.9213 -78.1363 -635.912 -0.463577 0.0868618 0.881789
-4.89326 -70.6228 -632.526 0.69299 -0.712065 0.112816
-4.04576 -69.9484 -631.589 0.516597 -0.85525 0.0409372
45.6837 -63.9462 -629.52 -0.590192 -0.803664 -0.0761378
46.6395 -64.7469 -629.814 -0.508593 -0.855758 0.0949315
45.8018 -63.7317 -628.621 -0.289999 -0.806219 0.515666
-79.6361 -74.8466 -632.775 -0.447182 0.113305 0.887237
1.63188 -67.6204 -629.304 0.224034 -0.967918 -0.113769
46.2461 -63.5014 -628.275 -0.172891 -0.741606 0.648174
-78.6143 -74.6986 -632.191 -0.4626 0.0659441 0.884111
4.12956 -67.0115 -628.662 0.265793 -0.960663 -0.0805068
12.2866 -65.2222 -627.284 0.146055 -0.983715 -0.104755
58.7186 -60.2476 -625.673 0.922304 0.0305855 0.385254
-74.641 -72.8204 -630.067 -0.323506 0.193587 0.926212
19.7445 -64.3036 -625.984 0.124565 -0.985931 -0.111459
22.3224 -64.0239 -625.546 0.129724 -0.984081 -0.121473
23.7585 -63.4971 -626.216 0.193896 -0.963727 -0.1834
25.6682 -63.3407 -625.454 0.274643 -0.934996 -0.224396
46.6636 -61.5084 -625.959 -0.301057 -0.76094 0.574747
58.3027 -59.6699 -624.792 0.922033 0.0900532 0.37649
-70.9385 -72.4258 -628.95 -0.360422 0.246655 0.899587
28.321 -62.6963 -624.86 0.293557 -0.916127 -0.273014
46.8266 -60.7339 -624.553 -0.459569 -0.826013 0.326342
58.2296 -60.0789 -624.514 0.913443 0.039983 0.404998
29.9303 -61.9995 -625.477 0.337393 -0.85983 -0.38322
32.9598 -61.4439 -624.492 0.217821 -0.874052 -0.434265
46.1385 -60.0951 -623.431 -0.377927 -0.910107 0.16993
35.0146 -61.4592 -623.404 0.077316 -0.864153 -0.497255
38.9629 -60.6961 -623.174 0.325751 -0.857628 -0.397944
40.3024 -60.2938 -622.695 0.282818 -0.902804 -0.323973
42.9717 -59.5923 -622.216 0.230709 -0.956531 -0.178389
44.7089 -59.5197 -622.541 -0.144276 -0.986577 0.076483
-61.9798 -69.6977 -626.193 -0.280524 0.184098 0.942027
-60.0343 -69.4792 -625.689 -0.407028 0.127515 0.904471
-58.0473 -67.8108 -624.77 -0.390536 0.0725299 0.917726
-56.9822 -67.6443 -624.234 -0.358042 0.0614362 0.931682
55.0739 -56.4426 -618.736 0.819195 -0.0523578 0.571121
-53.1948 -66.6908 -622.794 -0.372527 0.00522566 0.928007
-52.1043 -66.2653 -622.175 -0.380902 -0.00167728 0.924614
-49.61 -65.1231 -621.16 -0.362304 0.0645101 0.929825
-13.093 -60.1819 -617.76 0.30824 -0.110411 0.94488
-11.1638 -60.4688 -618.213 0.196621 -0.232217 0.952583
3.26224 -59.3663 -617.463 -0.0628271 -0.222894 0.972816
53.309 -54.8877 -616.045 0.748223 -0.216542 0.627114
6.01982 -58.7913 -617.103 -0.127821 -0.281269 0.951078
-14.1076 -60.1093 -617.292 0.448308 0.12078 0.885682
7.84703 -58.728 -616.668 -0.256084 -0.471843 0.843674
52.7071 -53.5216 -614.934 0.784622 -0.139623 0.604048
8.70709 -58.0056 -615.905 -0.240558 -0.333881 0.911403
-15.4812 -59.0825 -616.883 0.293668 0.142074 0.945291
10.3199 -57.2415 -615.465 -0.122211 -0.163126 0.979007
-33.6922 -60.4641 -616.403 -0.231958 0.0546378 0.97119
-23.5546 -59.7261 -615.597 0.0823329 0.306065 0.948444
-20.7953 -59.6744 -615.555 0.0460195 0.290279 0.955835
-25.641 -59.9814 -615.24 0.0403369 0.347397 0.93685
17.0401 -55.0628 -613.6 -0.270628 -0.0827845 0.959118
18.2316 -54.4714 -613.247 -0.300502 -0.0930586 0.949231
19.2153 -55.2306 -613.089 -0.299621 -0.23511 0.924635
50.9212 -51.7613 -612.309 0.636559 -0.324861 0.69947
22.7459 -52.1187 -609.558 -0.813673 -0.147011 0.562427
47.1091 -48.1642 -607.015 0.724372 -0.316814 0.612303
24.2678 -49.9775 -606.543 -0.759851 -0.143745 0.634006
26.474 -48.8781 -604.553 -0.376643 -0.419728 0.825814
27.8418 -47.0033 -603.025 -0.230259 -0.454605 0.860416
34.818 -46.2686 -602.917 0.105511 -0.402188 0.909457
36.5697 -47.3148 -603.471 0.0211745 -0.352612 0.93553
37.7353 -46.485 -603.163 -0.128333 -0.281583 0.950916
30.688 -46.5934 -602.661 0.0278759 -0.462722 0.886065
32.1075 -46.2399 -602.565 0.0846188 -0.439915 0.894044
38.6921 -46.9089 -602.961 -0.194355 -0.20751 0.958731
39.4752 -46.4961 -602.724 -0.320547 -0.306267 0.896354
44.6835 -45.6092 -602.752 0.757137 -0.106825 0.644462
43.4146 -45.5627 -601.464 0.601897 -0.167771 0.780752
40.6365 -45.733 -601.282 -0.565109 -0.359496 0.742573
42.9039 -45.1877 -601.076 0.451812 -0.16421 0.87687
41.8064 -45.7383 -600.89 0.0417163 -0.272436 0.961269
-109.154 -197.004 -804.786 -0.32688 -0.179673 -0.927829
-108.088 -197.574 -804.934 -0.206752 -0.320751 -0.924323
-106.203 -197.265 -804.964 0.0534674 -0.0884788 -0.994642
-105.73 -197.288 -804.903 0.121305 -0.130783 -0.983962
-111.249 -196.113 -804.294 -0.217032 -0.266579 -0.939059
-112.589 -197.107 -803.493 -0.346162 -0.310009 -0.885475
-104.996 -195.442 -802.446 0.493527 -0.23442 0.837543
-105.44 -195.296 -802.153 0.442089 -0.272672 0.854522
-116.599 -195.758 -801.961 -0.409799 -0.338161 -0.847179
-106.942 -194.735 -801.154 0.598871 -0.463004 0.653437
-114.923 -191.919 -796.449 0.0257216 0.985373 0.168462
-126.78 -193.678 -796.593 -0.662441 -0.161593 -0.731478
-115.434 -192.015 -796.08 -0.127076 0.991746 0.0170701
-114.358 -191.884 -796.477 -0.400583 0.808048 -0.431962
-116.583 -191.748 -796.259 0.288804 0.946157 0.146216
-115.167 -191.643 -795.761 -0.489981 0.650606 -0.580199
-114.594 -191.385 -796.032 -0.55016 0.461286 -0.696088
-115.936 -191.263 -794.968 -0.453854 0.460105 -0.763099
-115.21 -191.362 -795.35 -0.291689 0.775562 -0.559841
-117.583 -191.35 -794.967 0.410387 0.907684 0.0877054
-116.292 -190.861 -794.589 -0.473434 0.344374 -0.81072
-119.158 -190.955 -794.09 0.336372 0.941454 0.0227463
-120.246 -190.448 -793.16 0.378125 0.925567 -0.0186411
-121.138 -190.13 -792.471 0.35531 0.933912 -0.039541
-132.544 -190.758 -792.734 -0.598238 -0.0288895 -0.800798
-122.517 -189.434 -792.298 0.40108 0.915234 -0.0385042
-133.523 -189.983 -791.636 -0.698761 0.0765899 -0.711243
-122.745 -189.419 -790.911 0.426305 0.903321 0.0477052
-124.137 -188.568 -790.149 0.539386 0.840281 0.0546895
-135.6 -188.309 -789.278 -0.702499 0.204849 -0.681566
-136.539 -187.935 -788.03 -0.694719 0.222957 -0.683853
-126.678 -187.22 -787.367 0.516534 0.853806 0.064877
-127.8 -186.489 -786.599 0.571503 0.820022 0.0307969
-138.357 -186.929 -785.741 -0.783334 0.134072 -0.60697
-129.743 -185.371 -784.887 0.509718 0.858298 -0.0592686
-130.879 -184.415 -783.481 0.51918 0.830339 -0.202458
-140.179 -185.122 -782.943 -0.71035 0.213609 -0.670652
-140.817 -183.931 -782.051 -0.648131 0.324861 -0.688761
-132.372 -183.158 -782.487 0.466798 0.840873 -0.27392
-142.055 -182.877 -780.155 -0.696974 0.355678 -0.622672
-143.794 -181.695 -777.273 -0.779447 0.310691 -0.543997
-144.069 -180.962 -776.622 -0.791581 0.268539 -0.548896
-144.208 -180.113 -775.755 -0.740419 0.376804 -0.556595
-134.492 -179.675 -775.557 0.675083 0.686998 -0.268879
-134.896 -178.848 -774.534 0.64233 0.723288 -0.253508
-144.558 -178.662 -774.066 -0.670667 0.526517 -0.52248
-136.782 -176.332 -771.756 0.5414 0.715445 -0.441616
-145.498 -177.814 -772.096 -0.635864 0.456868 -0.622052
-146.12 -177.054 -771.19 -0.660583 0.428352 -0.616558
-146.891 -175.553 -769.186 -0.675289 0.401599 -0.61863
-147.502 -175.037 -767.827 -0.802795 0.368603 -0.46867
-135.763 -173.082 -766.016 0.747479 0.517191 -0.41688
-147.415 -173.027 -766.124 -0.720295 0.410733 -0.558993
-147.681 -171.992 -765.288 -0.725486 0.445744 -0.524387
-136.15 -169.672 -761.244 0.749262 0.527679 -0.400201
-149.083 -171.113 -762.258 -0.784232 0.411209 -0.464637
-149.188 -170.343 -761.401 -0.68826 0.438472 -0.577963
-135.156 -166.363 -756.435 0.897218 0.304236 -0.320063
-135.006 -165.875 -755.297 0.897603 0.318788 -0.304439
-134.673 -163.833 -752.779 0.849835 0.0677731 -0.522673
-134.316 -162.809 -752.299 0.772475 0.186483 -0.607048
-151.339 -163.272 -751.422 -0.978127 0.136686 -0.156793
-133.685 -161.54 -750.861 0.826551 0.291771 -0.481334
-133.466 -160.88 -749.814 0.879387 0.279575 -0.385379
-133.097 -159.956 -748.228 0.917325 0.163682 -0.362936
-151.711 -161.407 -746.314 -0.998397 -0.00589961 0.0562837
-132.137 -158.412 -746.001 0.900573 0.181915 -0.39481
-131.762 -158.101 -744.652 0.968312 0.12892 -0.213897
-131.945 -156.573 -743.501 0.922228 0.18482 -0.339612
-131.488 -156.708 -742.475 0.935047 -0.0680532 -0.347931
-151.378 -157.593 -741.366 -0.985229 -0.0359978 0.167418
-130.546 -155.068 -740.458 0.967497 -0.129198 -0.217389
-130.188 -153.197 -738.17 0.92663 -0.18643 -0.326498
-128.959 -152.183 -736.874 0.83505 -0.352194 -0.42267
-150.444 -154.461 -736.982 -0.962028 -0.0571195 0.266906
-128.012 -151.163 -735.477 0.916685 -0.218227 -0.334762
-150.14 -153.039 -735.934 -0.966058 0.062417 0.250673
-127.076 -149.552 -733.999 0.771167 -0.323783 -0.548147
-125.416 -148.617 -732.391 0.854726 -0.436342 -0.281158
-149.192 -150.765 -732.762 -0.950139 0.0824096 0.300738
-124.673 -147.696 -730.651 0.862198 -0.498959 -0.0874916
-148.732 -150.439 -731.705 -0.934835 0.0128538 0.35485
-148.445 -149.184 -730.981 -0.950113 0.0899948 0.29864
-124.043 -146.909 -729.375 0.771311 -0.617752 -0.153174
-122.623 -145.813 -728.034 0.761201 -0.625534 -0.171115
-122.04 -145.015 -727.889 0.849164 -0.472069 -0.236793
-147.214 -147.039 -727.99 -0.935817 0.101329 0.337607
-121.131 -143.92 -726.497 0.790986 -0.582274 -0.187877
-120.754 -143.605 -726.006 0.712626 -0.683814 -0.156721
-145.784 -145.51 -724.845 -0.903705 0.0196908 0.427703
-119.291 -142.864 -723.078 0.644492 -0.762754 -0.0532594
-143.952 -142.192 -720.884 -0.888499 -0.0590567 0.455063
-113.537 -138.163 -719.86 0.637889 -0.765763 -0.0818824
-142.5 -140.099 -717.7 -0.869977 -0.172947 0.461768
-112.116 -137.069 -718.291 0.583467 -0.799885 -0.140534
-110.901 -136.747 -716.56 0.558949 -0.81981 -0.124451
-142.306 -139.124 -716.681 -0.82494 -0.160105 0.542071
-141.98 -138.336 -716.251 -0.828488 -0.0323215 0.559074
-107.913 -134.627 -714.35 0.639184 -0.757394 -0.133414
-103.75 -132.38 -711.758 0.629105 -0.765333 -0.135988
-137.143 -133.286 -709.189 -0.753841 -0.111037 0.647607
-99.6899 -130.297 -708.716 0.587866 -0.784081 -0.199073
-95.4639 -128.166 -705.203 0.543985 -0.830481 -0.119924
-94.0101 -127.121 -704.869 0.534637 -0.830587 -0.15585
-133.943 -130.731 -704.661 -0.665898 -0.220684 0.712656
-91.7003 -125.849 -703.446 0.552739 -0.811785 -0.188372
-89.8188 -125.231 -701.593 0.493346 -0.858817 -0.137997
-131.071 -127.362 -700.818 -0.698422 -0.142285 0.7014
-129.127 -124.925 -698.432 -0.651944 -0.111671 0.749999
-82.0531 -120.809 -697.59 0.59654 -0.777793 -0.197932
-79.0963 -119.65 -695.838 0.501396 -0.805956 -0.314701
-127.113 -123.696 -696.111 -0.690721 -0.166494 0.703694
-73.1236 -116.998 -692.53 0.4586 -0.844892 -0.275398
-71.8717 -116.586 -692.238 0.422232 -0.84655 -0.324151
-69.7702 -116.277 -690.575 0.42374 -0.83094 -0.360532
-122.921 -118.54 -690.272 -0.711486 -0.177205 0.67999
-61.1159 -113.025 -686.814 0.459937 -0.792709 -0.400088
-121.433 -118.539 -688.512 -0.73014 -0.232048 0.642689
-53.5688 -109.287 -683.722 0.5575 -0.769271 -0.312115
-118.517 -114.62 -684.243 -0.69915 -0.169689 0.694547
-115.878 -113.032 -681.319 -0.657986 -0.337144 0.673342
-44.3126 -104.863 -678.017 0.728088 -0.63029 -0.269484
-42.2802 -103.716 -675.415 0.369736 -0.906273 -0.204852
-39.4007 -102.11 -674.23 0.541244 -0.82464 -0.164391
-38.4687 -101.955 -673.649 0.347406 -0.912944 -0.214111
-37.6857 -101.747 -672.954 0.540759 -0.82226 -0.177394
-37.1483 -101.181 -673.596 0.631969 -0.756677 -0.167498
-36.1717 -100.238 -671.256 0.745917 -0.664593 -0.0438661
-32.1498 -98.0046 -669.813 0.711873 -0.698694 -0.0711533
-110.866 -105.601 -672.325 -0.78445 -0.244102 0.570133
-31.1822 -96.7027 -669.26 0.792321 -0.607331 0.05811
-110.094 -105.142 -671.03 -0.798071 -0.229785 0.557029
-108.044 -101.259 -666.028 -0.902415 -0.158316 0.400727
-106.904 -99.2222 -662.772 -0.88013 -0.189075 0.435456
-26.6271 -91.5309 -660.922 0.661787 -0.739999 0.120161
-106.134 -98.7497 -661.093 -0.850865 -0.180537 0.493391
-24.0169 -88.2595 -655.979 0.661251 -0.744748 0.0899918
-21.9259 -85.7678 -651.534 0.63996 -0.752676 0.154697
-21.5637 -85.124 -650.549 0.643462 -0.742687 0.185399
-102.753 -91.8385 -653.96 -0.852098 -0.0227832 0.522886
-17.4676 -81.4631 -646.564 0.558058 -0.823787 0.0997303
-16.3956 -80.7677 -645.404 0.557487 -0.829302 0.0382841
56.0563 -72.9173 -641.721 -0.256951 0.615362 -0.745188
56.146 -71.3074 -640.413 -0.16842 0.64153 -0.748381
58.7133 -71.5534 -640.354 0.222356 0.647947 -0.728507
54.8478 -71.2494 -639.847 -0.416582 0.548116 -0.725278
54.4063 -70.9969 -639.371 -0.536785 0.501672 -0.67837
-94.9879 -85.8082 -644.708 -0.700716 -0.0242781 0.713027
-93.6473 -85.2389 -643.645 -0.544539 0.0912248 0.83376
53.4983 -71.2689 -638.514 -0.755004 0.37554 -0.53753
59.3238 -68.8911 -637.703 0.376968 0.644763 -0.664963
53.4178 -70.305 -637.848 -0.694526 0.392236 -0.603145
-90.4421 -83.7965 -641.277 -0.658358 -0.0405078 0.751614
-7.80746 -75.2219 -637.57 0.726294 -0.68515 0.0553796
-89.9268 -81.7181 -640.489 -0.683635 -0.000383919 0.729824
60.5965 -68.1723 -635.714 0.719738 0.525591 -0.453577
50.9159 -67.8178 -633.707 -0.728186 0.26444 -0.632311
50.6176 -67.2344 -633.204 -0.723522 0.263509 -0.638028
50.5901 -66.5642 -633.056 -0.678773 0.109658 -0.726115
49.8341 -67.0771 -631.935 -0.847362 -0.484481 -0.217386
49.5685 -66.3623 -631.664 -0.825602 -0.424409 -0.371831
-5.97769 -72.1133 -633.543 0.769991 -0.620283 0.149539
-84.6892 -79.0634 -635.918 -0.430174 0.099356 0.897262
-83.5359 -78.302 -635.611 -0.637217 -0.0544915 0.768756
48.7627 -65.9197 -631.007 -0.648864 -0.754328 -0.0998257
47.2649 -65.0553 -630.441 -0.522532 -0.822622 -0.224173
47.9947 -65.3296 -630.1 -0.309843 -0.88513 0.347192
-82.0018 -79.0774 -634.351 -0.541608 0.00274002 0.840627
-81.8215 -77.1598 -634.469 -0.6043 -0.0148904 0.796618
-81.0926 -77.4277 -633.798 -0.702804 -0.177481 0.688888
-2.14397 -68.9555 -630.565 0.458245 -0.886688 0.0616092
47.5251 -64.9137 -629.573 -0.184325 -0.827726 0.529994
47.5861 -63.0805 -627.303 -0.28137 -0.751412 0.596834
-77.7884 -75.6077 -631.719 -0.386187 0.0928241 0.917738
-0.393697 -68.1629 -628.918 0.321955 -0.946413 0.0254455
59.334 -61.861 -627.172 0.922493 0.0274782 0.385035
-76.6377 -75.6243 -631.372 -0.465443 0.0436483 0.884001
1.91571 -67.6315 -628.001 0.239166 -0.970968 -0.00460185
59.0948 -61.4308 -626.546 0.935081 0.00418871 0.354409
6.76273 -66.4973 -627.948 0.280547 -0.94831 -0.148328
48.2053 -62.962 -626.788 -0.414013 -0.744472 0.523788
6.31837 -66.7848 -626.217 0.243643 -0.969854 0.00455219
48.3428 -62.6321 -626.127 -0.570423 -0.719281 0.396551
9.46766 -65.6928 -627.234 0.261175 -0.958764 -0.112063
-73.1702 -72.4699 -630.067 -0.121956 0.305515 0.944345
13.6311 -64.9654 -626.737 0.151793 -0.98431 -0.0899559
14.8655 -64.8585 -626.463 0.160593 -0.982726 -0.0919742
16.7395 -64.4091 -627.493 0.128252 -0.978052 -0.164209
16.8488 -64.6912 -625.709 0.0970434 -0.992686 -0.0718103
18.575 -64.4278 -625.393 0.104994 -0.992392 -0.0643004
21.3476 -63.9001 -626.151 0.13106 -0.980492 -0.14649
47.1195 -60.7507 -623.735 -0.606139 -0.783655 0.135941
-66.9006 -72.5219 -627.374 -0.325891 0.211841 0.921368
-65.6464 -71.1521 -627.341 -0.346639 0.240501 0.906642
30.3822 -62.4007 -623.887 0.2494 -0.889578 -0.382689
36.5049 -61.7221 -623.075 0.132544 -0.859611 -0.493458
38.0976 -60.8456 -623.391 0.279395 -0.844761 -0.456418
-62.0529 -70.7179 -626.088 -0.35737 0.0487192 0.932691
41.7346 -60.0456 -622.466 0.311954 -0.903939 -0.292538
41.7783 -60.4403 -621.618 0.409263 -0.799521 -0.439625
56.7974 -57.8733 -621.683 0.904133 0.0646239 0.422336
42.787 -59.9002 -621.464 0.402531 -0.832422 -0.380843
43.8357 -59.6705 -621.227 0.218526 -0.948041 -0.231223
44.3881 -59.604 -620.976 0.103667 -0.980372 -0.167705
55.9756 -58.3667 -620.322 0.811585 -0.127749 0.570097
-52.4266 -68.757 -622.667 -0.281996 -0.118242 0.952102
-50.8003 -66.0104 -621.825 -0.367001 -0.00901305 0.930177
-48.9616 -66.3824 -620.897 -0.364335 -0.0550743 0.929638
-8.70567 -61.7426 -619.268 0.258057 -0.292674 0.920733
-7.38877 -62.5623 -619.902 0.0668386 -0.402068 0.913167
-48.9295 -65.6384 -620.911 -0.22142 0.0814052 0.971775
-8.23747 -61.3003 -619.191 0.0857859 -0.368863 0.925517
-6.77624 -61.5044 -619.164 -0.0844076 -0.376237 0.922671
-5.19316 -61.5425 -619.096 -0.0714751 -0.266796 0.961099
54.407 -55.9956 -617.786 0.793075 -0.123877 0.596395
-11.5795 -61.6069 -618.502 0.282357 -0.205258 0.937093
-10.195 -61.5782 -618.686 0.230859 -0.276235 0.932952
-1.03334 -60.4232 -618.407 -0.0970489 -0.157293 0.982772
1.04781 -60.2289 -617.762 -0.196694 -0.300165 0.933388
-45.0049 -65.0256 -619.553 -0.158255 -0.060126 0.985566
-12.5914 -61.3361 -618.039 0.474761 0.00882452 0.88007
4.14821 -60.166 -617.664 -0.00965742 -0.289451 0.957144
5.45508 -59.5037 -617.302 -0.0603552 -0.285382 0.956512
-41.5521 -62.9807 -618.256 -0.20183 -0.0286607 0.979001
-39.2167 -63.0714 -617.923 -0.390028 -0.143103 0.909615
9.82465 -58.5648 -615.939 -0.156779 -0.385385 0.90934
-36.8145 -62.3543 -617.199 -0.287919 0.0370846 0.956936
11.4478 -58.3176 -615.567 -0.103479 -0.286304 0.952535
13.5546 -57.0907 -615.152 -0.190197 -0.304703 0.933264
-35.7726 -61.4985 -616.778 -0.240519 0.0923535 0.966241
14.9995 -56.8512 -614.583 -0.219402 -0.390755 0.893965
51.7472 -53.5052 -613.823 0.613949 -0.340279 0.712234
-32.2908 -60.5333 -616.197 -0.32453 0.0561637 0.944207
16.519 -56.7385 -614.227 -0.255089 -0.409276 0.876027
-21.377 -60.6582 -615.312 0.063885 0.349019 0.934935
-19.5735 -60.273 -615.446 0.107922 0.322397 0.940432
-30.0018 -60.4877 -615.134 -0.221535 0.197097 0.955026
-27.5073 -60.819 -614.953 0.0157113 0.311334 0.950171
18.1065 -56.2898 -613.45 -0.241631 -0.274454 0.930747
21.3848 -56.1408 -612.498 -0.331291 -0.39372 0.857456
21.1551 -54.2063 -611.897 -0.441718 -0.336071 0.83183
22.0751 -55.5325 -611.984 -0.469283 -0.423218 0.775023
48.0299 -52.003 -610.272 0.586189 -0.470238 0.659742
22.8337 -53.5824 -609.808 -0.827683 -0.218271 0.51701
47.7436 -50.6367 -609.05 0.597716 -0.436709 0.672325
23.5361 -53.0695 -608.474 -0.809496 -0.168478 0.562434
28.1468 -49.193 -604.233 -0.17721 -0.45978 0.870172
33.8742 -48.2291 -603.726 0.0607225 -0.387496 0.919869
37.118 -47.7723 -603.614 -0.18526 -0.242624 0.952267
29.4655 -47.778 -603.285 -0.0575134 -0.477238 0.87689
31.6637 -47.873 -603.304 0.0485169 -0.42825 0.902357
44.2001 -47.4714 -602.685 0.697279 -0.238176 0.676072
39.9049 -46.1157 -602.302 -0.608508 -0.375266 0.699209
41.3396 -46.1647 -601.048 -0.257265 -0.352457 0.899772
42.2446 -45.285 -600.848 0.252815 -0.215961 0.943104
-107.518 -198.138 -804.809 -0.0274336 -0.893635 -0.447955
-109.52 -197.954 -804.376 -0.325761 -0.600729 -0.730072
-105.496 -197.615 -804.658 0.422927 -0.906162 -0.00188659
-105.114 -197.399 -804.055 0.447786 -0.870262 0.205258
-104.751 -197.132 -804.586 0.546119 -0.836404 -0.0467105
-110.25 -197.727 -804.053 -0.28061 -0.394982 -0.874784
-104.232 -196.922 -804.129 0.522928 -0.75034 0.404396
-111.91 -198.081 -803.472 -0.359818 -0.259784 -0.896127
-106.323 -195.564 -802.034 0.484897 -0.378783 0.788288
-114.882 -196.167 -802.627 -0.45292 -0.346487 -0.821468
-117.893 -195.637 -801.501 -0.37068 -0.355538 -0.858014
-107.734 -195.391 -801.048 0.423167 -0.486932 0.764086
-107.639 -194.751 -800.757 0.225559 -0.718566 0.657864
-108.745 -195.141 -800.331 0.353033 -0.531715 0.769836
-107.159 -194.678 -800.69 0.487471 -0.654451 0.577984
-108.557 -194.717 -799.99 0.274871 -0.607113 0.74556
-110.151 -194.564 -799.432 0.368149 -0.417861 0.830577
-109.738 -193.916 -799.157 0.274367 -0.55644 0.784281
-108.641 -194.141 -799.572 0.253513 -0.544671 0.799415
-121.483 -194.977 -799.68 -0.531073 -0.228257 -0.816002
-122.584 -195.135 -799.019 -0.445183 -0.245145 -0.861229
-111.127 -194.372 -798.928 0.412003 -0.442779 0.796367
-111.474 -193.86 -797.952 0.376574 -0.57585 0.725664
-110.873 -193.472 -798.325 0.536551 -0.447115 0.715683
