ply
format ascii 1.0
element vertex 893
property float x
property float y
property float z
property float nx
property float ny
property float nz
end_header
-0.962216 1.94426 2.17495 0.705738 0.705625 0.0634602
-0.955677 1.93568 2.19768 0.705738 0.705625 0.0634602
-0.971609 1.95066 2.2078 0.705738 0.705625 0.0634602
-0.980897 1.96026 2.20406 0.705738 0.705625 0.0634602
-0.950524 1.93181 2.18366 0.705738 0.705625 0.0634602
-0.995646 1.97064 2.25208 0.705738 0.705625 0.0634602
-1.01474 1.98618 2.29091 0.705738 0.705625 0.0634602
-0.970761 1.94912 2.21555 0.705738 0.705625 0.0634602
-0.993322 1.96636 2.27377 0.705738 0.705625 0.0634602
-0.981681 1.95652 2.25417 0.705738 0.705625 0.0634602
-1.07918 2.03911 2.41644 0.705738 0.705625 0.0634602
-1.11226 2.06677 2.4756 0.705738 0.705625 0.0634602
-1.02588 1.99615 2.30356 0.705738 0.705625 0.0634602
-0.951041 1.93176 2.1899 0.705738 0.705625 0.0634602
-1.00364 1.97893 2.2485 0.705738 0.705625 0.0634602
-1.03571 2.00415 2.32351 0.705738 0.705625 0.0634602
-0.997935 1.97324 2.24859 0.705738 0.705625 0.0634602
-1.00685 1.97966 2.276 0.705738 0.705625 0.0634602
-0.999939 1.97426 2.25939 0.705738 0.705625 0.0634602
-1.08957 2.04742 2.43932 0.705738 0.705625 0.0634602
-1.0507 2.01699 2.34686 0.705738 0.705625 0.0634602
-0.952062 1.93233 2.1949 0.705738 0.705625 0.0634602
-1.02869 1.99609 2.33525 0.705738 0.705625 0.0634602
-1.00204 1.97428 2.2824 0.705738 0.705625 0.0634602
-0.98803 1.96214 2.26205 0.705738 0.705625 0.0634602
-1.00049 1.97233 2.28693 0.705738 0.705625 0.0634602
-0.979471 1.95708 2.22359 0.705738 0.705625 0.0634602
-1.02965 1.99976 2.30519 0.705738 0.705625 0.0634602
-0.96226 1.94356 2.18313 0.705738 0.705625 0.0634602
-0.985295 1.96327 2.21932 0.705738 0.705625 0.0634602
-0.975651 1.95591 2.19434 0.705738 0.705625 0.0634602
-1.0529 2.01825 2.35723 0.705738 0.705625 0.0634602
-0.964083 1.94688 2.1666 0.705738 0.705625 0.0634602
-0.942857 1.92469 2.17783 0.705738 0.705625 0.0634602
-0.985639 1.96201 2.23713 0.705738 0.705625 0.0634602
-1.03278 2.00302 2.30369 0.705738 0.705625 0.0634602
-1.05556 2.02062 2.3604 0.705738 0.705625 0.0634602
-1.03433 2.00224 2.3294 0.705738 0.705625 0.0634602
-1.00944 1.98172 2.28175 0.705738 0.705625 0.0634602
-1.0529 2.01657 2.37591 0.705738 0.705625 0.0634602
-1.00396 1.97541 2.29113 0.705738 0.705625 0.0634602
-1.0194 1.98905 2.31052 0.705738 0.705625 0.0634602
-0.978468 1.95719 2.21127 0.705738 0.705625 0.0634602
-1.09056 2.04884 2.43451 0.705738 0.705625 0.0634602
-0.992948 1.96656 2.26748 0.705738 0.705625 0.0634602
-0.949469 1.92918 2.20118 0.705738 0.705625 0.0634602
-0.990777 1.96655 2.2436 0.705738 0.705625 0.0634602
-1.10716 2.06266 2.46479 0.705738 0.705625 0.0634602
-0.970576 1.952 2.1816 0.705738 0.705625 0.0634602
-0.983868 1.95818 2.25994 0.705738 0.705625 0.0634602
-0.994818 1.97117 2.23703 0.705738 0.705625 0.0634602
-0.980976 1.95646 2.2471 0.705738 0.705625 0.0634602
-1.02155 1.99052 2.31816 0.705738 0.705625 0.0634602
-1.0052 1.97727 2.28418 0.705738 0.705625 0.0634602
-0.938062 1.91992 2.17762 0.705738 0.705625 0.0634602
-0.964934 1.94812 2.16217 0.705738 0.705625 0.0634602
-1.00785 1.97949 2.28885 0.705738 0.705625 0.0634602
-1.05329 2.01767 2.368 0.705738 0.705625 0.0634602
-1.02327 1.99313 2.30811 0.705738 0.705625 0.0634602
-0.995507 1.96984 2.25942 0.705738 0.705625 0.0634602
-0.977858 1.95355 2.2448 0.705738 0.705625 0.0634602
-1.00918 1.98255 2.26966 0.705738 0.705625 0.0634602
-1.05088 2.0158 2.36215 0.705738 0.705625 0.0634602
-0.973978 1.95238 2.21492 0.705738 0.705625 0.0634602
-1.03789 2.00539 2.33383 0.705738 0.705625 0.0634602
-1.03065 1.99841 2.33126 0.705738 0.705625 0.0634602
-1.04017 2.00834 2.3264 0.705738 0.705625 0.0634602
-1.01942 1.98809 2.32141 0.705738 0.705625 0.0634602
-1.06201 2.02568 2.37562 0.705738 0.705625 0.0634602
-1.03941 2.00509 2.35398 0.705738 0.705625 0.0634602
-0.992884 1.96804 2.25032 0.705738 0.705625 0.0634602
-0.968153 1.94898 2.18827 0.705738 0.705625 0.0634602
-1.07872 2.0383 2.42041 0.705738 0.705625 0.0634602
-1.08338 2.04351 2.41421 0.705738 0.705625 0.0634602
-0.986866 1.96608 2.20557 0.705738 0.705625 0.0634602
-0.97784 1.95734 2.20268 0.705738 0.705625 0.0634602
-1.00298 1.97639 2.26939 0.705738 0.705625 0.0634602
-1.02827 1.99685 2.32214 0.705738 0.705625 0.0634602
-1.09711 2.05411 2.44855 0.705738 0.705625 0.0634602
-0.963054 1.94293 2.19896 0.705738 0.705625 0.0634602
-0.986391 1.96355 2.22832 0.705738 0.705625 0.0634602
-0.989495 1.96395 2.25817 0.705738 0.705625 0.0634602
-1.07696 2.03799 2.40438 0.705738 0.705625 0.0634602
-1.01833 1.9896 2.29263 0.705738 0.705625 0.0634602
-1.00452 1.97707 2.27885 0.705738 0.705625 0.0634602
-1.09725 2.05387 2.45261 0.705738 0.705625 0.0634602
-1.04518 2.00996 2.36382 0.705738 0.705625 0.0634602
-0.97993 1.95988 2.19759 0.705738 0.705625 0.0634602
-1.04463 2.01049 2.35182 0.705738 0.705625 0.0634602
-0.95653 1.93907 2.16956 0.705738 0.705625 0.0634602
-0.94784 1.93067 2.1666 0.705738 0.705625 0.0634602
-1.05571 2.0187 2.38336 0.705738 0.705625 0.0634602
-0.963656 1.94172 2.21901 0.705738 0.705625 0.0634602
-0.968911 1.94765 2.21139 0.705738 0.705625 0.0634602
-0.975132 1.95586 2.18911 0.705738 0.705625 0.0634602
-1.01754 1.98693 2.31353 0.705738 0.705625 0.0634602
-1.07326 2.03477 2.39914 0.705738 0.705625 0.0634602
-1.09251 2.04965 2.44708 0.705738 0.705625 0.0634602
-1.03076 1.99568 2.36263 0.705738 0.705625 0.0634602
-1.06016 2.0181 2.43913 0.705738 0.705625 0.0634602
-1.06808 2.02708 2.42717 0.705738 0.705625 0.0634602
-1.0929 2.04748 2.4755 0.705738 0.705625 0.0634602
-1.02298 1.98891 2.35168 0.705738 0.705625 0.0634602
-1.10691 2.05835 2.50977 0.705738 0.705625 0.0634602
-1.05258 2.01314 2.41029 0.705738 0.705625 0.0634602
-1.05826 2.01776 2.42187 0.705738 0.705625 0.0634602
-1.02618 1.99076 2.36657 0.705738 0.705625 0.0634602
-1.05303 2.01154 2.43301 0.705738 0.705625 0.0634602
-1.08858 2.04377 2.4688 0.705738 0.705625 0.0634602
-1.08464 2.04085 2.45756 0.705738 0.705625 0.0634602
-1.08953 2.04414 2.47518 0.705738 0.705625 0.0634602
-1.03859 2.00031 2.39786 0.705738 0.705625 0.0634602
-1.10375 2.05531 2.5085 0.705738 0.705625 0.0634602
-1.10354 2.05804 2.47593 0.705738 0.705625 0.0634602
-1.08476 2.03892 2.48033 0.705738 0.705625 0.0634602
-1.09821 2.05324 2.47025 0.705738 0.705625 0.0634602
-1.0059 1.97623 2.30347 0.705738 0.705625 0.0634602
-1.06239 2.02387 2.39987 0.705738 0.705625 0.0634602
-1.08613 2.04264 2.45423 0.705738 0.705625 0.0634602
-0.992802 1.96428 2.2911 0.705738 0.705625 0.0634602
-1.02501 1.98889 2.37433 0.705738 0.705625 0.0634602
-1.10498 2.0586 2.48561 0.705738 0.705625 0.0634602
-1.07507 2.03079 2.46329 0.705738 0.705625 0.0634602
-1.03277 1.99791 2.36013 0.705738 0.705625 0.0634602
-1.08127 2.03684 2.46469 0.705738 0.705625 0.0634602
-1.09798 2.0518 2.48371 0.705738 0.705625 0.0634602
-1.06014 2.0192 2.42672 0.705738 0.705625 0.0634602
-1.10862 2.06326 2.47433 0.705738 0.705625 0.0634602
-1.01179 1.97854 2.34286 0.705738 0.705625 0.0634602
-1.07623 2.03435 2.43658 0.705738 0.705625 0.0634602
-1.08989 2.04152 2.50814 0.705738 0.705625 0.0634602
-1.00584 1.97437 2.32336 0.705738 0.705625 0.0634602
-1.10222 2.0563 2.48065 0.705738 0.705625 0.0634602
-1.08625 2.03885 2.49745 0.705738 0.705625 0.0634602
-1.07255 2.02898 2.45551 0.705738 0.705625 0.0634602
-1.04137 2.00355 2.39272 0.705738 0.705625 0.0634602
-1.02462 1.98975 2.36053 0.705738 0.705625 0.0634602
-1.01469 1.98404 2.31409 0.705738 0.705625 0.0634602
-1.01579 1.98246 2.34368 0.705738 0.705625 0.0634602
-1.02888 1.99279 2.37388 0.705738 0.705625 0.0634602
-1.07143 2.03111 2.4195 0.705738 0.705625 0.0634602
-1.06441 2.02461 2.4139 0.705738 0.705625 0.0634602
-1.09505 2.0459 2.5167 0.705738 0.705625 0.0634602
-1.04825 2.01175 2.3779 0.705738 0.705625 0.0634602
-0.984108 1.95784 2.26643 0.705738 0.705625 0.0634602
-1.01604 1.98306 2.33975 0.705738 0.705625 0.0634602
-0.982183 1.95495 2.27706 0.705738 0.705625 0.0634602
-1.07069 2.02663 2.46095 0.705738 0.705625 0.0634602
-1.03255 1.99615 2.37725 0.705738 0.705625 0.0634602
-1.0175 1.98588 2.32476 0.705738 0.705625 0.0634602
-1.03779 2.00135 2.37747 0.705738 0.705625 0.0634602
-1.10943 2.06139 2.50394 0.705738 0.705625 0.0634602
-1.07664 2.03288 2.45756 0.705738 0.705625 0.0634602
-1.04521 2.00781 2.38787 0.705738 0.705625 0.0634602
-0.951115 1.92996 2.21063 0.705738 0.705625 0.0634602
-0.98625 1.95958 2.27081 0.705738 0.705625 0.0634602
-1.06789 2.0255 2.44254 0.705738 0.705625 0.0634602
-0.977778 1.95149 2.26675 0.705738 0.705625 0.0634602
-1.04053 2.00412 2.37707 0.705738 0.705625 0.0634602
-1.10118 2.05389 2.49591 0.705738 0.705625 0.0634602
-0.956781 1.93486 2.21895 0.705738 0.705625 0.0634602
-1.07132 2.02635 2.47103 0.705738 0.705625 0.0634602
-1.04321 2.00451 2.4023 0.705738 0.705625 0.0634602
-1.039 2.00145 2.38981 0.705738 0.705625 0.0634602
-1.03712 2.00023 2.38247 0.705738 0.705625 0.0634602
-0.967532 1.94284 2.24939 0.705738 0.705625 0.0634602
-1.0858 2.04381 2.43763 0.705738 0.705625 0.0634602
-1.00212 1.97086 2.32123 0.705738 0.705625 0.0634602
-1.06105 2.02137 2.41275 0.705738 0.705625 0.0634602
-0.935667 1.91724 2.18092 0.705738 0.705625 0.0634602
-1.06162 2.02017 2.43231 0.705738 0.705625 0.0634602
-0.960423 1.93724 2.23291 0.705738 0.705625 0.0634602
-0.995098 1.96608 2.29651 0.705738 0.705625 0.0634602
-1.07869 2.03394 2.46844 0.705738 0.705625 0.0634602
-0.993293 1.96385 2.30124 0.705738 0.705625 0.0634602
-1.06487 2.02382 2.42773 0.705738 0.705625 0.0634602
-1.0212 1.98903 2.33063 0.705738 0.705625 0.0634602
-1.02254 1.9889 2.34695 0.705738 0.705625 0.0634602
-0.999677 1.96982 2.30571 0.705738 0.705625 0.0634602
-1.04256 2.00529 2.38654 0.705738 0.705625 0.0634602
-1.01011 1.97849 2.32492 0.705738 0.705625 0.0634602
-1.06811 2.02393 2.46229 0.705738 0.705625 0.0634602
-1.04299 2.00471 2.39766 0.705738 0.705625 0.0634602
-1.03194 1.99478 2.38561 0.705738 0.705625 0.0634602
-1.07977 2.03649 2.45204 0.705738 0.705625 0.0634602
-1.00762 1.97563 2.32902 0.705738 0.705625 0.0634602
-0.977848 1.95222 2.25941 0.705738 0.705625 0.0634602
-1.10378 2.0569 2.49127 0.705738 0.705625 0.0634602
-1.06151 2.02127 2.41892 0.705738 0.705625 0.0634602
-1.06652 2.02699 2.41097 0.705738 0.705625 0.0634602
-1.04997 2.00947 2.42203 0.705738 0.705625 0.0634602
-1.04092 2.00202 2.40459 0.705738 0.705625 0.0634602
-0.974002 1.94883 2.25451 0.705738 0.705625 0.0634602
-1.0744 2.02876 2.47838 0.705738 0.705625 0.0634602
-1.11351 2.06613 2.49658 0.705738 0.705625 0.0634602
-1.01856 1.98569 2.33846 0.705738 0.705625 0.0634602
-1.02947 1.99578 2.34722 0.705738 0.705625 0.0634602
-0.985837 1.95808 2.28281 0.705738 0.705625 0.0634602
-1.03306 1.99622 2.38211 0.705738 0.705625 0.0634602
-1.08053 2.03532 2.47341 0.705738 0.705625 0.0634602
-1.00985 1.97956 2.31017 0.705738 0.705625 0.0634602
-1.04918 2.01047 2.4024 0.705738 0.705625 0.0634602
-1.07249 2.03062 2.43665 0.705738 0.705625 0.0634602
-1.07982 2.03762 2.44008 0.705738 0.705625 0.0634602
-1.06471 2.02403 2.42369 0.705738 0.705625 0.0634602
-1.06784 2.02753 2.4195 0.705738 0.705625 0.0634602
-1.0899 2.04673 2.45056 0.705738 0.705625 0.0634602
-1.00806 1.97808 2.30681 0.705738 0.705625 0.0634602
-1.01842 1.98357 2.36042 0.705738 0.705625 0.0634602
-1.10478 2.05978 2.4704 0.705738 0.705625 0.0634602
-1.04856 2.01064 2.39364 0.705738 0.705625 0.0634602
-0.960016 1.93719 2.22895 0.705738 0.705625 0.0634602
-1.05663 2.01895 2.39072 0.705738 0.705625 0.0634602
-0.994045 1.96616 2.284 0.705738 0.705625 0.0634602
-1.03623 2.00191 2.35405 0.705738 0.705625 0.0634602
-1.02751 1.99304 2.35599 0.705738 0.705625 0.0634602
-1.12057 2.07326 2.49559 0.705738 0.705625 0.0634602
-0.990514 1.96241 2.28652 0.705738 0.705625 0.0634602
-1.06348 2.02045 2.44982 0.705738 0.705625 0.0634602
-1.04866 2.01146 2.38556 0.705738 0.705625 0.0634602
-1.08162 2.0391 2.44363 0.705738 0.705625 0.0634602
-1.08939 2.0414 2.50403 0.705738 0.705625 0.0634602
-1.06032 2.02228 2.39465 0.705738 0.705625 0.0634602
-1.08369 2.04089 2.44666 0.705738 0.705625 0.0634602
-0.989828 1.96275 2.27512 0.705738 0.705625 0.0634602
-1.10281 2.05385 2.51437 0.705738 0.705625 0.0634602
-1.05734 2.01837 2.40505 0.705738 0.705625 0.0634602
-1.03353 1.99601 2.38951 0.705738 0.705625 0.0634602
-1.06947 2.02789 2.43357 0.705738 0.705625 0.0634602
-1.09089 2.04486 2.48228 0.705738 0.705625 0.0634602
-1.10566 2.05987 2.47914 0.705738 0.705625 0.0634602
-1.09627 2.04913 2.49438 0.705738 0.705625 0.0634602
-1.10221 2.05591 2.4849 0.705738 0.705625 0.0634602
-1.08643 2.04405 2.44202 0.705738 0.705625 0.0634602
-1.07266 2.02732 2.47511 0.705738 0.705625 0.0634602
-1.04105 2.00599 2.36218 0.705738 0.705625 0.0634602
-1.0888 2.04617 2.44465 0.705738 0.705625 0.0634602
-1.1035 2.05555 2.50316 0.705738 0.705625 0.0634602
-1.0697 2.02994 2.41338 0.705738 0.705625 0.0634602
-1.0867 2.04257 2.4613 0.705738 0.705625 0.0634602
-0.964731 1.94156 2.23266 0.705738 0.705625 0.0634602
-1.09475 2.04605 2.5117 0.705738 0.705625 0.0634602
-1.05767 2.01908 2.40073 0.705738 0.705625 0.0634602
-1.09657 2.04822 2.50784 0.705738 0.705625 0.0634602
-1.07701 2.03105 2.4818 0.705738 0.705625 0.0634602
-1.01305 1.9801 2.33954 0.705738 0.705625 0.0634602
-1.09044 2.04382 2.48875 0.705738 0.705625 0.0634602
-0.949649 1.92896 2.20559 0.705738 0.705625 0.0634602
-1.06286 2.02379 2.40585 0.705738 0.705625 0.0634602
-1.07625 2.03384 2.44248 0.705738 0.705625 0.0634602
-1.02714 1.99389 2.34248 0.705738 0.705625 0.0634602
-1.00908 1.97783 2.32083 0.705738 0.705625 0.0634602
-0.995504 1.96523 2.31043 0.705738 0.705625 0.0634602
-1.09926 2.05247 2.4904 0.705738 0.705625 0.0634602
-1.09509 2.04929 2.47955 0.705738 0.705625 0.0634602
-1.04114 2.00434 2.38143 0.705738 0.705625 0.0634602
-0.970264 1.94517 2.25372 0.705738 0.705625 0.0634602
-1.05502 2.0146 2.4211 0.705738 0.705625 0.0634602
-1.06341 2.01993 2.45475 0.705738 0.705625 0.0634602
-1.1145 2.06769 2.49014 0.705738 0.705625 0.0634602
-1.01121 1.97889 2.33272 0.705738 0.705625 0.0634602
-0.968201 1.94391 2.24494 0.705738 0.705625 0.0634602
-1.0443 2.00824 2.37302 0.705738 0.705625 0.0634602
-0.998931 1.96971 2.2986 0.705738 0.705625 0.0634602
-1.07499 2.03024 2.46843 0.705738 0.705625 0.0634602
-1.09311 2.04841 2.46739 0.705738 0.705625 0.0634602
-1.03663 2.00076 2.37124 0.705738 0.705625 0.0634602
-1.07462 2.03402 2.42256 0.705738 0.705625 0.0634602
-1.07102 2.02826 2.4466 0.705738 0.705625 0.0634602
-1.0833 2.03601 2.49647 0.705738 0.705625 0.0634602
-1.03795 2.00312 2.35962 0.705738 0.705625 0.0634602
-1.09377 2.05052 2.4513 0.705738 0.705625 0.0634602
-1.01994 1.98664 2.34327 0.705738 0.705625 0.0634602
-1.09994 2.0543 2.47769 0.705738 0.705625 0.0634602
-1.08138 2.03761 2.45744 0.705738 0.705625 0.0634602
-1.01912 1.98516 2.35059 0.705738 0.705625 0.0634602
-1.0062 1.97598 2.30956 0.705738 0.705625 0.0634602
-1.0752 2.03178 2.45381 0.705738 0.705625 0.0634602
-1.0791 2.03772 2.43112 0.705738 0.705625 0.0634602
-0.987721 1.95909 2.29239 0.705738 0.705625 0.0634602
-1.09368 2.04611 2.49921 0.705738 0.705625 0.0634602
-1.11206 2.06599 2.48209 0.705738 0.705625 0.0634602
-1.00209 1.97124 2.31655 0.705738 0.705625 0.0634602
-1.11725 2.06992 2.49588 0.705738 0.705625 0.0634602
-1.0518 2.0135 2.39773 0.705738 0.705625 0.0634602
-1.00053 1.9703 2.30982 0.705738 0.705625 0.0634602
-1.07007 2.02943 2.42314 0.705738 0.705625 0.0634602
-1.0959 2.05181 2.46065 0.705738 0.705625 0.0634602
-0.95804 1.9358 2.22249 0.705738 0.705625 0.0634602
-1.05273 2.01179 2.42695 0.705738 0.705625 0.0634602
-1.08293 2.03744 2.47639 0.705738 0.705625 0.0634602
-1.05485 2.01296 2.43736 0.705738 0.705625 0.0634602
-1.11252 2.06468 2.5016 0.705738 0.705625 0.0634602
-0.98757 1.95938 2.28758 0.705738 0.705625 0.0634602
-1.09365 2.04668 2.4926 0.705738 0.705625 0.0634602
-0.998518 1.96765 2.31694 0.705738 0.705625 0.0634602
-0.940598 1.92147 2.18849 0.705738 0.705625 0.0634602
-1.09184 2.0476 2.4624 0.705738 0.705625 0.0634602
-0.976044 1.9514 2.24857 0.705738 0.705625 0.0634602
-0.99647 1.96682 2.30353 0.705738 0.705625 0.0634602
-1.10833 2.06216 2.48326 0.705738 0.705625 0.0634602
-1.02938 1.99289 2.37824 0.705738 0.705625 0.0634602
-1.04711 2.00663 2.42198 0.705738 0.705625 0.0634602
-0.997323 1.9687 2.29204 0.705738 0.705625 0.0634602
-1.07421 2.03282 2.43129 0.705738 0.705625 0.0634602
-1.04873 2.0104 2.39815 0.705738 0.705625 0.0634602
-1.0543 2.01556 2.40249 0.705738 0.705625 0.0634602
-1.06526 2.02362 2.43431 0.705738 0.705625 0.0634602
-0.962037 1.93953 2.22534 0.705738 0.705625 0.0634602
-1.02429 1.99194 2.33265 0.705738 0.705625 0.0634602
-0.942576 1.9228 2.1956 0.705738 0.705625 0.0634602
-1.08034 2.03463 2.47907 0.705738 0.705625 0.0634602
-1.04331 2.00406 2.40847 0.705738 0.705625 0.0634602
-0.972365 1.94679 2.25903 0.705738 0.705625 0.0634602
-0.998088 1.96761 2.31262 0.705738 0.705625 0.0634602
-1.02627 1.99269 2.34611 0.705738 0.705625 0.0634602
-1.08774 2.04153 2.48428 0.705738 0.705625 0.0634602
-1.09444 2.04791 2.4876 0.705738 0.705625 0.0634602
-1.03022 1.99603 2.3529 0.705738 0.705625 0.0634602
-1.05899 2.01964 2.40921 0.705738 0.705625 0.0634602
-1.06034 2.0178 2.44439 0.705738 0.705625 0.0634602
-0.95358 1.93205 2.21478 0.705738 0.705625 0.0634602
-1.0658 2.02381 2.43816 0.705738 0.705625 0.0634602
-1.05412 2.0142 2.41562 0.705738 0.705625 0.0634602
-1.0995 2.0555 2.45941 0.705738 0.705625 0.0634602
-1.00434 1.97519 2.29781 0.705738 0.705625 0.0634602
-1.04708 2.0078 2.40874 0.705738 0.705625 0.0634602
-0.981722 1.95415 2.2809 0.705738 0.705625 0.0634602
-1.08185 2.04003 2.43591 0.705738 0.705625 0.0634602
-0.977555 1.95254 2.25264 0.705738 0.705625 0.0634602
-1.04344 2.00697 2.37763 0.705738 0.705625 0.0634602
-1.1091 2.0622 2.49134 0.705738 0.705625 0.0634602
-1.03873 2.00338 2.36542 0.705738 0.705625 0.0634602
-0.974172 1.94829 2.26235 0.705738 0.705625 0.0634602
-0.971278 1.9465 2.25019 0.705738 0.705625 0.0634602
-1.05045 2.01276 2.39098 0.705738 0.705625 0.0634602
-1.06898 2.02973 2.40777 0.705738 0.705625 0.0634602
-1.00316 1.97318 2.30694 0.705738 0.705625 0.0634602
-1.08698 2.04388 2.44992 0.705738 0.705625 0.0634602
-1.08449 2.03806 2.4868 0.705738 0.705625 0.0634602
-1.09518 2.03587 2.51541 0.58895 -0.631615 0.504182
-1.11291 2.0126 2.50692 0.58895 -0.631615 0.504182
-1.09314 2.03226 2.50851 0.58895 -0.631615 0.504182
-1.10889 2.01518 2.50548 0.58895 -0.631615 0.504182
-1.09797 2.01743 2.49558 0.58895 -0.631615 0.504182
-1.08965 2.03022 2.50191 0.58895 -0.631615 0.504182
-1.09563 2.02786 2.5059 0.58895 -0.631615 0.504182
-1.11561 2.01892 2.51797 0.58895 -0.631615 0.504182
-1.08849 2.02491 2.49391 0.58895 -0.631615 0.504182
-1.10907 2.0251 2.5181 0.58895 -0.631615 0.504182
-1.09737 2.02172 2.50025 0.58895 -0.631615 0.504182
-1.1057 2.01603 2.50282 0.58895 -0.631615 0.504182
-1.10685 2.01836 2.50708 0.58895 -0.631615 0.504182
-1.10175 2.02982 2.51548 0.58895 -0.631615 0.504182
-1.09161 2.03669 2.51228 0.58895 -0.631615 0.504182
-1.09835 2.0301 2.51187 0.58895 -0.631615 0.504182
-1.09907 2.02463 2.50587 0.58895 -0.631615 0.504182
-1.10297 2.01937 2.50383 0.58895 -0.631615 0.504182
-1.09499 2.03885 2.51892 0.58895 -0.631615 0.504182
-1.11993 2.0134 2.51611 0.58895 -0.631615 0.504182
-1.09087 2.01885 2.48909 0.58895 -0.631615 0.504182
-1.10271 2.02471 2.5102 0.58895 -0.631615 0.504182
-1.11099 2.02111 2.51534 0.58895 -0.631615 0.504182
-1.1229 2.01301 2.51907 0.58895 -0.631615 0.504182
-1.10998 2.01874 2.51119 0.58895 -0.631615 0.504182
-1.09348 2.02623 2.50135 0.58895 -0.631615 0.504182
-1.08539 2.01836 2.4821 0.58895 -0.631615 0.504182
-1.08846 2.01543 2.482 0.58895 -0.631615 0.504182
-1.1047 2.01014 2.49428 0.58895 -0.631615 0.504182
-1.11005 2.00772 2.49749 0.58895 -0.631615 0.504182
-1.10984 2.00524 2.49415 0.58895 -0.631615 0.504182
-1.10563 2.00551 2.48957 0.58895 -0.631615 0.504182
-1.10058 2.0132 2.49332 0.58895 -0.631615 0.504182
-1.10889 2.01222 2.50177 0.58895 -0.631615 0.504182
-1.11435 2.00715 2.50178 0.58895 -0.631615 0.504182
-1.09247 2.00995 2.47982 0.58895 -0.631615 0.504182
-1.12357 2.00947 2.51541 0.58895 -0.631615 0.504182
-1.11927 2.00691 2.5072 0.58895 -0.631615 0.504182
-1.09545 2.01314 2.48727 0.58895 -0.631615 0.504182
-1.1007 2.00553 2.48386 0.58895 -0.631615 0.504182
-1.10227 2.00797 2.48873 0.58895 -0.631615 0.504182
-1.10493 2.00172 2.48402 0.58895 -0.631615 0.504182
-1.09942 2.00361 2.47996 0.58895 -0.631615 0.504182
-1.08445 2.02689 2.49168 0.58895 -0.631615 0.504182
-1.08514 2.03011 2.49651 0.58895 -0.631615 0.504182
-1.08324 2.02284 2.4852 0.58895 -0.631615 0.504182
-1.07843 1.97675 2.42191 0.58895 -0.631615 0.504182
-1.07134 1.97245 2.40827 0.58895 -0.631615 0.504182
-1.09695 1.9887 2.45844 0.58895 -0.631615 0.504182
-1.10039 1.99466 2.46989 0.58895 -0.631615 0.504182
-1.09359 1.99138 2.45787 0.58895 -0.631615 0.504182
-1.10122 1.9974 2.4743 0.58895 -0.631615 0.504182
-1.08937 1.986 2.44623 0.58895 -0.631615 0.504182
-1.10425 1.99459 2.4743 0.58895 -0.631615 0.504182
-1.10887 1.99965 2.48601 0.58895 -0.631615 0.504182
-1.06368 1.96661 2.39205 0.58895 -0.631615 0.504182
-1.08237 1.98114 2.43199 0.58895 -0.631615 0.504182
-1.06679 1.96885 2.39849 0.58895 -0.631615 0.504182
-1.09812 1.9923 2.46429 0.58895 -0.631615 0.504182
-1.11095 2.00169 2.49098 0.58895 -0.631615 0.504182
-1.09311 1.98611 2.45072 0.58895 -0.631615 0.504182
-1.04578 1.95741 2.3597 0.58895 -0.631615 0.504182
-1.04103 1.96382 2.36219 0.58895 -0.631615 0.504182
-1.03303 1.95736 2.34479 0.58895 -0.631615 0.504182
-1.03305 1.97404 2.36568 0.58895 -0.631615 0.504182
-1.03819 1.96259 2.35735 0.58895 -0.631615 0.504182
-1.04177 1.95442 2.35128 0.58895 -0.631615 0.504182
-1.03842 1.95273 2.34528 0.58895 -0.631615 0.504182
-1.03631 1.96786 2.36175 0.58895 -0.631615 0.504182
-1.04941 1.95716 2.36362 0.58895 -0.631615 0.504182
-1.03582 1.97126 2.36543 0.58895 -0.631615 0.504182
-1.03317 1.9655 2.35514 0.58895 -0.631615 0.504182
-1.03591 1.96098 2.35267 0.58895 -0.631615 0.504182
-1.03541 1.94848 2.33644 0.58895 -0.631615 0.504182
-1.04306 1.96583 2.36707 0.58895 -0.631615 0.504182
-1.03301 1.96867 2.35892 0.58895 -0.631615 0.504182
-1.03539 1.95107 2.33966 0.58895 -0.631615 0.504182
-1.03309 1.97155 2.36262 0.58895 -0.631615 0.504182
-1.03649 1.95669 2.34799 0.58895 -0.631615 0.504182
-1.02182 1.96164 2.3371 0.58895 -0.631615 0.504182
-1.01877 1.96142 2.33327 0.58895 -0.631615 0.504182
-1.0243 1.9557 2.33255 0.58895 -0.631615 0.504182
-1.02174 1.96538 2.34169 0.58895 -0.631615 0.504182
-1.02885 1.9501 2.33084 0.58895 -0.631615 0.504182
-1.02637 1.97054 2.35354 0.58895 -0.631615 0.504182
-1.01548 1.96042 2.32818 0.58895 -0.631615 0.504182
-1.025 1.96793 2.34867 0.58895 -0.631615 0.504182
-1.02847 1.96385 2.34761 0.58895 -0.631615 0.504182
-1.03208 1.94471 2.32785 0.58895 -0.631615 0.504182
-1.02739 1.95745 2.33834 0.58895 -0.631615 0.504182
-1.03008 1.96567 2.35176 0.58895 -0.631615 0.504182
-1.02976 1.969 2.35555 0.58895 -0.631615 0.504182
-1.03216 1.96042 2.34761 0.58895 -0.631615 0.504182
-1.0275 1.95307 2.33298 0.58895 -0.631615 0.504182
-1.01749 1.957 2.32624 0.58895 -0.631615 0.504182
-1.032 1.94864 2.33268 0.58895 -0.631615 0.504182
-1.01819 1.97245 2.34641 0.58895 -0.631615 0.504182
-1.02169 1.9719 2.34979 0.58895 -0.631615 0.504182
-1.02465 1.9783 2.36124 0.58895 -0.631615 0.504182
-1.02665 1.97486 2.35927 0.58895 -0.631615 0.504182
-1.01161 1.96595 2.3306 0.58895 -0.631615 0.504182
-1.02121 1.96979 2.34658 0.58895 -0.631615 0.504182
-1.01794 1.96995 2.34298 0.58895 -0.631615 0.504182
-1.01473 1.96326 2.33087 0.58895 -0.631615 0.504182
-1.014 1.96644 2.334 0.58895 -0.631615 0.504182
-0.973008 1.89509 2.19698 0.58895 -0.631615 0.504182
-0.968715 1.89943 2.19742 0.58895 -0.631615 0.504182
-0.977354 1.89881 2.2067 0.58895 -0.631615 0.504182
-0.964705 1.91322 2.21 0.58895 -0.631615 0.504182
-0.966813 1.8831 2.17476 0.58895 -0.631615 0.504182
-0.969887 1.90983 2.21179 0.58895 -0.631615 0.504182
-0.966952 1.90972 2.20824 0.58895 -0.631615 0.504182
-0.979889 1.90005 2.21119 0.58895 -0.631615 0.504182
-0.974301 1.89173 2.19428 0.58895 -0.631615 0.504182
-0.972756 1.89966 2.20241 0.58895 -0.631615 0.504182
-0.968183 1.89487 2.19108 0.58895 -0.631615 0.504182
-0.964056 1.9054 2.19946 0.58895 -0.631615 0.504182
-0.969013 1.88894 2.18463 0.58895 -0.631615 0.504182
-0.970287 1.89052 2.18809 0.58895 -0.631615 0.504182
-0.972462 1.90356 2.20694 0.58895 -0.631615 0.504182
-1.00039 1.91386 2.25234 0.58895 -0.631615 0.504182
-0.984564 1.90255 2.21977 0.58895 -0.631615 0.504182
-1.00893 1.92097 2.27118 0.58895 -0.631615 0.504182
-0.997108 1.91069 2.24456 0.58895 -0.631615 0.504182
-0.99522 1.90961 2.24101 0.58895 -0.631615 0.504182
-0.986405 1.89955 2.21815 0.58895 -0.631615 0.504182
-0.989321 1.90657 2.23034 0.58895 -0.631615 0.504182
-1.00563 1.91753 2.26303 0.58895 -0.631615 0.504182
-1.01351 1.92566 2.2824 0.58895 -0.631615 0.504182
-0.977686 1.89444 2.20161 0.58895 -0.631615 0.504182
-0.990503 1.90868 2.23436 0.58895 -0.631615 0.504182
-0.981603 1.89672 2.20903 0.58895 -0.631615 0.504182
-1.02663 1.9375 2.31248 0.58895 -0.631615 0.504182
-0.970846 1.88409 2.18069 0.58895 -0.631615 0.504182
-1.02212 1.93264 2.30116 0.58895 -0.631615 0.504182
-1.04009 1.9481 2.34143 0.58895 -0.631615 0.504182
-1.03237 1.94113 2.32371 0.58895 -0.631615 0.504182
-1.0445 1.95157 2.3509 0.58895 -0.631615 0.504182
-1.01348 1.92278 2.27875 0.58895 -0.631615 0.504182
-1.05571 1.95358 2.36647 0.58895 -0.631615 0.504182
-1.00396 1.91248 2.25478 0.58895 -0.631615 0.504182
-1.0578 1.95434 2.36985 0.58895 -0.631615 0.504182
-1.02317 1.92623 2.29435 0.58895 -0.631615 0.504182
-1.04316 1.94981 2.34713 0.58895 -0.631615 0.504182
-1.02882 1.93362 2.31019 0.58895 -0.631615 0.504182
-1.06893 1.96241 2.39291 0.58895 -0.631615 0.504182
-1.02128 1.92416 2.28956 0.58895 -0.631615 0.504182
-1.03567 1.93809 2.32375 0.58895 -0.631615 0.504182
-1.03689 1.94275 2.33101 0.58895 -0.631615 0.504182
-1.025 1.9287 2.29957 0.58895 -0.631615 0.504182
-1.04976 1.95095 2.35624 0.58895 -0.631615 0.504182
-1.08407 1.97742 2.42932 0.58895 -0.631615 0.504182
-1.04884 1.94813 2.35165 0.58895 -0.631615 0.504182
-1.05081 1.953 2.36003 0.58895 -0.631615 0.504182
-1.01287 1.91779 2.27179 0.58895 -0.631615 0.504182
-1.06611 1.96037 2.38706 0.58895 -0.631615 0.504182
-1.05752 1.95922 2.37563 0.58895 -0.631615 0.504182
-1.08216 1.97494 2.424 0.58895 -0.631615 0.504182
-1.00649 1.91448 2.26023 0.58895 -0.631615 0.504182
-1.03995 1.94 2.33111 0.58895 -0.631615 0.504182
-1.06147 1.96163 2.38326 0.58895 -0.631615 0.504182
-1.01828 1.92265 2.28417 0.58895 -0.631615 0.504182
-1.1148 2.00027 2.49369 0.58895 -0.631615 0.504182
-1.10159 1.98958 2.46493 0.58895 -0.631615 0.504182
-1.0728 1.96855 2.40509 0.58895 -0.631615 0.504182
-1.02693 1.92952 2.30284 0.58895 -0.631615 0.504182
-1.03129 1.93914 2.31995 0.58895 -0.631615 0.504182
-1.05384 1.95231 2.3627 0.58895 -0.631615 0.504182
-1.05891 1.96127 2.37982 0.58895 -0.631615 0.504182
-1.04741 1.94633 2.34773 0.58895 -0.631615 0.504182
-1.07459 1.97049 2.40961 0.58895 -0.631615 0.504182
-1.07846 1.97079 2.41449 0.58895 -0.631615 0.504182
-1.05899 1.95614 2.37348 0.58895 -0.631615 0.504182
-1.03707 1.94003 2.3278 0.58895 -0.631615 0.504182
-0.997296 1.90645 2.23947 0.58895 -0.631615 0.504182
-1.05346 1.95895 2.37057 0.58895 -0.631615 0.504182
-0.989479 1.90025 2.22261 0.58895 -0.631615 0.504182
-0.943178 1.91696 2.18963 0.58895 -0.631615 0.504182
-0.950811 1.92146 2.20415 0.58895 -0.631615 0.504182
-0.958147 1.92198 2.21333 0.58895 -0.631615 0.504182
-0.945778 1.91752 2.19335 0.58895 -0.631615 0.504182
-0.94877 1.91877 2.1984 0.58895 -0.631615 0.504182
-0.954866 1.9203 2.20741 0.58895 -0.631615 0.504182
-0.95823 1.91607 2.20603 0.58895 -0.631615 0.504182
-0.958656 1.90992 2.19883 0.58895 -0.631615 0.504182
-0.956793 1.90843 2.1948 0.58895 -0.631615 0.504182
-0.954132 1.90865 2.19197 0.58895 -0.631615 0.504182
-0.955013 1.91215 2.19738 0.58895 -0.631615 0.504182
-0.954994 1.91547 2.20151 0.58895 -0.631615 0.504182
-0.961522 1.8969 2.18587 0.58895 -0.631615 0.504182
-0.961629 1.91904 2.2137 0.58895 -0.631615 0.504182
-0.934996 1.9141 2.17652 0.58895 -0.631615 0.504182
-0.945236 1.90918 2.18228 0.58895 -0.631615 0.504182
-0.947979 1.90542 2.18077 0.58895 -0.631615 0.504182
-0.950197 1.91488 2.19519 0.58895 -0.631615 0.504182
-0.955386 1.89437 2.17556 0.58895 -0.631615 0.504182
-0.956731 1.89741 2.18094 0.58895 -0.631615 0.504182
-0.962394 1.8995 2.19015 0.58895 -0.631615 0.504182
-0.963404 1.90335 2.19614 0.58895 -0.631615 0.504182
-0.953485 1.90598 2.18788 0.58895 -0.631615 0.504182
-0.961591 1.91346 2.20668 0.58895 -0.631615 0.504182
-0.938356 1.9124 2.1783 0.58895 -0.631615 0.504182
-0.952315 1.89883 2.17757 0.58895 -0.631615 0.504182
-0.958822 1.90018 2.18684 0.58895 -0.631615 0.504182
-0.946687 1.90324 2.17654 0.58895 -0.631615 0.504182
-0.960057 1.89304 2.17933 0.58895 -0.631615 0.504182
-0.947444 1.91144 2.18768 0.58895 -0.631615 0.504182
-0.963681 1.88696 2.17594 0.58895 -0.631615 0.504182
-0.955236 1.90108 2.18379 0.58895 -0.631615 0.504182
-0.950582 1.90621 2.18479 0.58895 -0.631615 0.504182
-0.940005 1.90673 2.17312 0.58895 -0.631615 0.504182
-0.996023 1.95917 2.30398 0.58895 -0.631615 0.504182
-1.00356 1.96814 2.32398 0.58895 -0.631615 0.504182
-0.970031 1.93862 2.24799 0.58895 -0.631615 0.504182
-0.973666 1.94228 2.2568 0.58895 -0.631615 0.504182
-1.06149 2.01615 2.4515 0.58895 -0.631615 0.504182
-0.995263 1.96245 2.30719 0.58895 -0.631615 0.504182
-0.960189 1.93234 2.22868 0.58895 -0.631615 0.504182
-0.998628 1.96199 2.31054 0.58895 -0.631615 0.504182
-0.947217 1.92304 2.20193 0.58895 -0.631615 0.504182
-1.05868 2.01449 2.44616 0.58895 -0.631615 0.504182
-0.988214 1.95336 2.2876 0.58895 -0.631615 0.504182
-0.971725 1.94034 2.25212 0.58895 -0.631615 0.504182
-0.965226 1.93374 2.23629 0.58895 -0.631615 0.504182
-0.95707 1.92892 2.22077 0.58895 -0.631615 0.504182
-1.01521 1.97701 2.34863 0.58895 -0.631615 0.504182
-1.02201 1.98173 2.36246 0.58895 -0.631615 0.504182
-0.977022 1.94345 2.26218 0.58895 -0.631615 0.504182
-1.0565 2.01353 2.44241 0.58895 -0.631615 0.504182
-0.978453 1.94778 2.26927 0.58895 -0.631615 0.504182
-1.04138 2.00063 2.40867 0.58895 -0.631615 0.504182
-0.992027 1.9557 2.29498 0.58895 -0.631615 0.504182
-1.02904 1.99146 2.38282 0.58895 -0.631615 0.504182
-0.981099 1.94946 2.27445 0.58895 -0.631615 0.504182
-0.984438 1.95051 2.27964 0.58895 -0.631615 0.504182
-1.06471 2.02017 2.46029 0.58895 -0.631615 0.504182
-1.00203 1.96483 2.31805 0.58895 -0.631615 0.504182
-1.0242 1.98379 2.36759 0.58895 -0.631615 0.504182
-0.963142 1.93922 2.24073 0.58895 -0.631615 0.504182
-0.976479 1.94692 2.26589 0.58895 -0.631615 0.504182
-1.06822 2.02246 2.46723 0.58895 -0.631615 0.504182
-0.950351 1.92594 2.20921 0.58895 -0.631615 0.504182
-0.965533 1.9407 2.24536 0.58895 -0.631615 0.504182
-1.04957 2.00644 2.42548 0.58895 -0.631615 0.504182
-1.03691 1.99575 2.39736 0.58895 -0.631615 0.504182
-0.979704 1.94421 2.26625 0.58895 -0.631615 0.504182
-1.05249 2.00749 2.4302 0.58895 -0.631615 0.504182
-0.969773 1.93535 2.2436 0.58895 -0.631615 0.504182
-1.01186 1.9707 2.33684 0.58895 -0.631615 0.504182
-1.0205 1.97937 2.35775 0.58895 -0.631615 0.504182
-1.04706 2.00326 2.41857 0.58895 -0.631615 0.504182
-1.00216 1.96153 2.31408 0.58895 -0.631615 0.504182
-1.03499 1.99186 2.39025 0.58895 -0.631615 0.504182
-1.04355 1.99722 2.40692 0.58895 -0.631615 0.504182
-1.05733 2.01044 2.43951 0.58895 -0.631615 0.504182
-1.03336 1.98785 2.38334 0.58895 -0.631615 0.504182
-1.08635 2.03473 2.5037 0.58895 -0.631615 0.504182
-1.04933 2.00028 2.41748 0.58895 -0.631615 0.504182
-1.0564 2.00683 2.43391 0.58895 -0.631615 0.504182
-1.06686 2.01687 2.45866 0.58895 -0.631615 0.504182
-1.0811 2.02799 2.48915 0.58895 -0.631615 0.504182
-1.08825 2.03766 2.50958 0.58895 -0.631615 0.504182
-1.04544 1.99812 2.41026 0.58895 -0.631615 0.504182
-1.05437 2.00313 2.42692 0.58895 -0.631615 0.504182
-1.07062 2.01708 2.46329 0.58895 -0.631615 0.504182
-1.06457 2.01213 2.45006 0.58895 -0.631615 0.504182
-1.07445 2.02051 2.47205 0.58895 -0.631615 0.504182
-1.04175 1.94205 2.31499 -0.703812 -0.707483 -0.0641558
-1.08593 1.97817 2.4031 -0.703812 -0.707483 -0.0641558
-1.07605 1.97009 2.38338 -0.703812 -0.707483 -0.0641558
-1.12599 2.00851 2.50965 -0.703812 -0.707483 -0.0641558
-0.987224 1.89684 2.2135 -0.703812 -0.707483 -0.0641558
-1.09536 1.98635 2.4166 -0.703812 -0.707483 -0.0641558
-1.08535 1.97809 2.39756 -0.703812 -0.707483 -0.0641558
-1.13 2.01214 2.51367 -0.703812 -0.707483 -0.0641558
-1.09544 1.98351 2.44898 -0.703812 -0.707483 -0.0641558
-1.10706 1.99343 2.46747 -0.703812 -0.707483 -0.0641558
-1.03813 1.9395 2.30327 -0.703812 -0.707483 -0.0641558
-1.09866 1.98666 2.44966 -0.703812 -0.707483 -0.0641558
-1.07873 1.97076 2.40568 -0.703812 -0.707483 -0.0641558
-1.0674 1.96257 2.37123 -0.703812 -0.707483 -0.0641558
-1.11045 1.99933 2.43957 -0.703812 -0.707483 -0.0641558
-1.11317 1.99936 2.46931 -0.703812 -0.707483 -0.0641558
-1.13044 2.01618 2.47391 -0.703812 -0.707483 -0.0641558
-1.09668 1.98648 2.42976 -0.703812 -0.707483 -0.0641558
-1.06337 1.95789 2.37844 -0.703812 -0.707483 -0.0641558
-1.08248 1.97579 2.39135 -0.703812 -0.707483 -0.0641558
-1.11253 2.00076 2.44672 -0.703812 -0.707483 -0.0641558
-1.02174 1.92486 2.28435 -0.703812 -0.707483 -0.0641558
-1.11936 2.00487 2.47669 -0.703812 -0.707483 -0.0641558
-1.03372 1.93395 2.31616 -0.703812 -0.707483 -0.0641558
-1.01955 1.92405 2.26916 -0.703812 -0.707483 -0.0641558
-1.0593 1.95588 2.35579 -0.703812 -0.707483 -0.0641558
-1.10285 1.99132 2.44433 -0.703812 -0.707483 -0.0641558
-1.06377 1.96014 2.35791 -0.703812 -0.707483 -0.0641558
-1.09995 1.98933 2.43429 -0.703812 -0.707483 -0.0641558
-1.12924 2.01435 2.48088 -0.703812 -0.707483 -0.0641558
-1.09231 1.98252 2.42538 -0.703812 -0.707483 -0.0641558
-1.08974 1.9822 2.40053 -0.703812 -0.707483 -0.0641558
-1.05907 1.95672 2.34392 -0.703812 -0.707483 -0.0641558
-1.11045 1.99615 2.47484 -0.703812 -0.707483 -0.0641558
-0.980948 1.89164 2.20166 -0.703812 -0.707483 -0.0641558
-1.12126 2.00586 2.48677 -0.703812 -0.707483 -0.0641558
-1.11932 2.00523 2.47224 -0.703812 -0.707483 -0.0641558
-1.04674 1.94618 2.32442 -0.703812 -0.707483 -0.0641558
-1.05353 1.95023 2.35455 -0.703812 -0.707483 -0.0641558
-1.06774 1.96219 2.3792 -0.703812 -0.707483 -0.0641558
-1.11423 2.00008 2.47315 -0.703812 -0.707483 -0.0641558
-1.12106 2.00734 2.46806 -0.703812 -0.707483 -0.0641558
-1.14108 2.02421 2.50244 -0.703812 -0.707483 -0.0641558
-1.0804 1.97447 2.38299 -0.703812 -0.707483 -0.0641558
-1.01848 1.92215 2.27835 -0.703812 -0.707483 -0.0641558
-1.12435 2.00751 2.50258 -0.703812 -0.707483 -0.0641558
-1.00355 1.91084 2.23871 -0.703812 -0.707483 -0.0641558
-1.0244 1.92791 2.27996 -0.703812 -0.707483 -0.0641558
-1.10933 1.9954 2.47078 -0.703812 -0.707483 -0.0641558
-1.10123 1.99112 2.42863 -0.703812 -0.707483 -0.0641558
-1.13509 2.01849 2.49957 -0.703812 -0.707483 -0.0641558
-1.06409 1.9612 2.34982 -0.703812 -0.707483 -0.0641558
-1.11914 2.00642 2.45711 -0.703812 -0.707483 -0.0641558
-1.06191 1.95863 2.35412 -0.703812 -0.707483 -0.0641558
-1.12449 2.00856 2.49256 -0.703812 -0.707483 -0.0641558
-1.00602 1.91249 2.2477 -0.703812 -0.707483 -0.0641558
-1.1334 2.01548 2.51436 -0.703812 -0.707483 -0.0641558
-1.13071 2.01485 2.49156 -0.703812 -0.707483 -0.0641558
-1.11759 2.0024 2.48446 -0.703812 -0.707483 -0.0641558
-1.11536 2.00069 2.47873 -0.703812 -0.707483 -0.0641558
-1.05976 1.95682 2.35046 -0.703812 -0.707483 -0.0641558
-1.11519 2.00163 2.46652 -0.703812 -0.707483 -0.0641558
-1.10801 1.99517 2.45875 -0.703812 -0.707483 -0.0641558
-1.03058 1.93162 2.30725 -0.703812 -0.707483 -0.0641558
-1.09978 1.99017 2.42316 -0.703812 -0.707483 -0.0641558
-1.05426 1.95295 2.33252 -0.703812 -0.707483 -0.0641558
-1.03157 1.93384 2.29347 -0.703812 -0.707483 -0.0641558
-1.11789 2.00148 2.49803 -0.703812 -0.707483 -0.0641558
-0.986597 1.89662 2.20892 -0.703812 -0.707483 -0.0641558
-1.1208 2.00383 2.50417 -0.703812 -0.707483 -0.0641558
-1.10708 1.99591 2.44028 -0.703812 -0.707483 -0.0641558
-1.0346 1.93574 2.30599 -0.703812 -0.707483 -0.0641558
-1.10869 1.99819 2.43283 -0.703812 -0.707483 -0.0641558
-1.05214 1.95063 2.33483 -0.703812 -0.707483 -0.0641558
-1.04067 1.94032 2.32223 -0.703812 -0.707483 -0.0641558
-1.11468 2.00248 2.45141 -0.703812 -0.707483 -0.0641558
-1.0127 1.91743 2.26685 -0.703812 -0.707483 -0.0641558
-1.04114 1.94043 2.32622 -0.703812 -0.707483 -0.0641558
-1.11606 2.00046 2.48909 -0.703812 -0.707483 -0.0641558
-1.0795 1.97284 2.39106 -0.703812 -0.707483 -0.0641558
-1.10331 1.99072 2.45611 -0.703812 -0.707483 -0.0641558
-1.10701 1.99549 2.44419 -0.703812 -0.707483 -0.0641558
-1.07251 1.96555 2.39471 -0.703812 -0.707483 -0.0641558
-1.05443 1.95198 2.34514 -0.703812 -0.707483 -0.0641558
-1.12225 2.0091 2.46174 -0.703812 -0.707483 -0.0641558
-1.07153 1.967 2.36777 -0.703812 -0.707483 -0.0641558
-1.0553 1.95245 2.34959 -0.703812 -0.707483 -0.0641558
-1.05551 1.95357 2.33952 -0.703812 -0.707483 -0.0641558
-1.09327 1.98181 2.4438 -0.703812 -0.707483 -0.0641558
-1.08811 1.97916 2.41624 -0.703812 -0.707483 -0.0641558
-1.02769 1.92966 2.29692 -0.703812 -0.707483 -0.0641558
-1.07016 1.96423 2.38331 -0.703812 -0.707483 -0.0641558
-0.996839 1.90476 2.23196 -0.703812 -0.707483 -0.0641558
-1.07018 1.96614 2.36239 -0.703812 -0.707483 -0.0641558
-1.11096 1.99831 2.45658 -0.703812 -0.707483 -0.0641558
-1.09497 1.98439 2.43406 -0.703812 -0.707483 -0.0641558
-1.1238 2.00919 2.4778 -0.703812 -0.707483 -0.0641558
-0.98285 1.89319 2.20555 -0.703812 -0.707483 -0.0641558
-1.10624 1.99311 2.46197 -0.703812 -0.707483 -0.0641558
-1.10444 1.99372 2.43535 -0.703812 -0.707483 -0.0641558
-1.02872 1.93117 2.29158 -0.703812 -0.707483 -0.0641558
-1.06464 1.95964 2.37321 -0.703812 -0.707483 -0.0641558
-1.13281 2.01821 2.47746 -0.703812 -0.707483 -0.0641558
-1.12873 2.01247 2.49594 -0.703812 -0.707483 -0.0641558
-1.09317 1.98509 2.40643 -0.703812 -0.707483 -0.0641558
-1.132 2.01457 2.5089 -0.703812 -0.707483 -0.0641558
-1.12216 2.00571 2.49832 -0.703812 -0.707483 -0.0641558
-1.12649 2.0129 2.46655 -0.703812 -0.707483 -0.0641558
-1.11913 2.00307 2.49411 -0.703812 -0.707483 -0.0641558
-1.04976 1.94801 2.33764 -0.703812 -0.707483 -0.0641558
-1.12551 2.00917 2.49709 -0.703812 -0.707483 -0.0641558
-1.11717 2.00535 2.44715 -0.703812 -0.707483 -0.0641558
-1.08288 1.9736 2.42004 -0.703812 -0.707483 -0.0641558
-1.12746 2.01167 2.49083 -0.703812 -0.707483 -0.0641558
-1.10384 1.99413 2.42423 -0.703812 -0.707483 -0.0641558
-1.11728 2.00407 2.46252 -0.703812 -0.707483 -0.0641558
-1.02707 1.93003 2.2861 -0.703812 -0.707483 -0.0641558
-1.10313 1.99118 2.44901 -0.703812 -0.707483 -0.0641558
-1.01723 1.92124 2.2747 -0.703812 -0.707483 -0.0641558
-1.1123 1.99752 2.48017 -0.703812 -0.707483 -0.0641558
-1.09093 1.98178 2.41836 -0.703812 -0.707483 -0.0641558
-1.09671 1.98825 2.41056 -0.703812 -0.707483 -0.0641558
-1.0999 1.98859 2.44194 -0.703812 -0.707483 -0.0641558
-1.01245 1.91808 2.25686 -0.703812 -0.707483 -0.0641558
-1.03674 1.93761 2.30897 -0.703812 -0.707483 -0.0641558
-1.14314 2.02676 2.49689 -0.703812 -0.707483 -0.0641558
-1.00085 1.90858 2.23392 -0.703812 -0.707483 -0.0641558
-1.04339 1.94244 2.32884 -0.703812 -0.707483 -0.0641558
-1.13477 2.01769 2.50497 -0.703812 -0.707483 -0.0641558
-1.04276 1.9412 2.33571 -0.703812 -0.707483 -0.0641558
-1.11606 2.00215 2.4703 -0.703812 -0.707483 -0.0641558
-1.04386 1.94343 2.32312 -0.703812 -0.707483 -0.0641558
-1.03495 1.93671 2.29913 -0.703812 -0.707483 -0.0641558
-1.13255 2.0164 2.49465 -0.703812 -0.707483 -0.0641558
-1.09841 1.98934 2.41726 -0.703812 -0.707483 -0.0641558
-1.00463 1.91154 2.24293 -0.703812 -0.707483 -0.0641558
-1.08177 1.9743 2.39995 -0.703812 -0.707483 -0.0641558
-0.993228 1.90224 2.21993 -0.703812 -0.707483 -0.0641558
-1.08312 1.97522 2.40472 -0.703812 -0.707483 -0.0641558
-1.01053 1.91558 2.26338 -0.703812 -0.707483 -0.0641558
-1.13356 2.01814 2.4866 -0.703812 -0.707483 -0.0641558
-0.995263 1.90352 2.22825 -0.703812 -0.707483 -0.0641558
-0.990598 1.89981 2.21781 -0.703812 -0.707483 -0.0641558
-1.08793 1.97961 2.40926 -0.703812 -0.707483 -0.0641558
-1.08993 1.97929 2.43491 -0.703812 -0.707483 -0.0641558
-1.13943 2.02347 2.49242 -0.703812 -0.707483 -0.0641558
-1.09001 1.97981 2.42996 -0.703812 -0.707483 -0.0641558
-1.08157 1.973 2.41226 -0.703812 -0.707483 -0.0641558
-1.06595 1.96267 2.35408 -0.703812 -0.707483 -0.0641558
-1.12449 2.01031 2.47313 -0.703812 -0.707483 -0.0641558
-1.09493 1.98523 2.42439 -0.703812 -0.707483 -0.0641558
-1.12993 2.01461 2.48559 -0.703812 -0.707483 -0.0641558
-1.05028 1.94783 2.34529 -0.703812 -0.707483 -0.0641558
-1.08793 1.98102 2.39358 -0.703812 -0.707483 -0.0641558
-1.13745 2.02004 2.50856 -0.703812 -0.707483 -0.0641558
-1.12391 2.0088 2.48343 -0.703812 -0.707483 -0.0641558
-1.09363 1.98343 2.42985 -0.703812 -0.707483 -0.0641558
-1.13449 2.01943 2.48249 -0.703812 -0.707483 -0.0641558
-1.03681 1.93685 2.3182 -0.703812 -0.707483 -0.0641558
-1.06092 1.95671 2.36443 -0.703812 -0.707483 -0.0641558
-1.06745 1.96353 2.36103 -0.703812 -0.707483 -0.0641558
-1.13968 2.02318 2.49841 -0.703812 -0.707483 -0.0641558
-1.09023 1.98156 2.413 -0.703812 -0.707483 -0.0641558
-1.05285 1.95329 2.31318 -0.703812 -0.707483 -0.0641558
-0.974223 1.8865 2.18438 -0.703812 -0.707483 -0.0641558
-1.11934 2.00792 2.44273 -0.703812 -0.707483 -0.0641558
-1.01151 1.92106 2.21348 -0.703812 -0.707483 -0.0641558
-1.02813 1.93404 2.25332 -0.703812 -0.707483 -0.0641558
-1.06958 1.96653 2.35145 -0.703812 -0.707483 -0.0641558
-1.01298 1.91982 2.24347 -0.703812 -0.707483 -0.0641558
-1.06636 1.9644 2.33945 -0.703812 -0.707483 -0.0641558
-1.00883 1.9194 2.20228 -0.703812 -0.707483 -0.0641558
-1.02257 1.92926 2.24483 -0.703812 -0.707483 -0.0641558
-1.02436 1.9316 2.23878 -0.703812 -0.707483 -0.0641558
-1.01382 1.92144 2.2348 -0.703812 -0.707483 -0.0641558
-1.0133 1.92192 2.22377 -0.703812 -0.707483 -0.0641558
-1.03131 1.93587 2.26829 -0.703812 -0.707483 -0.0641558
-1.0325 1.936 2.27992 -0.703812 -0.707483 -0.0641558
-0.997333 1.90996 2.1798 -0.703812 -0.707483 -0.0641558
-1.01521 1.92175 2.24676 -0.703812 -0.707483 -0.0641558
-1.00324 1.91133 2.22986 -0.703812 -0.707483 -0.0641558
-0.985693 1.89885 2.17431 -0.703812 -0.707483 -0.0641558
-0.999987 1.91015 2.207 -0.703812 -0.707483 -0.0641558
-1.00136 1.91197 2.20212 -0.703812 -0.707483 -0.0641558
-1.00878 1.91822 2.2148 -0.703812 -0.707483 -0.0641558
-1.02295 1.92864 2.25588 -0.703812 -0.707483 -0.0641558
-1.04238 1.94567 2.28194 -0.703812 -0.707483 -0.0641558
-1.04228 1.94492 2.28917 -0.703812 -0.707483 -0.0641558
-1.01854 1.92377 2.26109 -0.703812 -0.707483 -0.0641558
-1.03883 1.94132 2.29095 -0.703812 -0.707483 -0.0641558
-1.01366 1.92284 2.21759 -0.703812 -0.707483 -0.0641558
-1.0032 1.91329 2.20774 -0.703812 -0.707483 -0.0641558
-1.09995 1.99214 2.40326 -0.703812 -0.707483 -0.0641558
-1.07054 1.96827 2.34265 -0.703812 -0.707483 -0.0641558
-1.05846 1.95837 2.31895 -0.703812 -0.707483 -0.0641558
-1.02691 1.93197 2.26278 -0.703812 -0.707483 -0.0641558
-1.0855 1.97907 2.38841 -0.703812 -0.707483 -0.0641558
-0.97969 1.89136 2.19097 -0.703812 -0.707483 -0.0641558
-0.983919 1.89791 2.16507 -0.703812 -0.707483 -0.0641558
-1.09268 1.98599 2.39111 -0.703812 -0.707483 -0.0641558
-1.03783 1.94126 2.28053 -0.703812 -0.707483 -0.0641558
-1.01098 1.91821 2.23921 -0.703812 -0.707483 -0.0641558
-1.06517 1.96433 2.32702 -0.703812 -0.707483 -0.0641558
-1.01662 1.92465 2.23018 -0.703812 -0.707483 -0.0641558
-1.08821 1.98237 2.38173 -0.703812 -0.707483 -0.0641558
-0.995982 1.90721 2.19532 -0.703812 -0.707483 -0.0641558
-1.03699 1.94144 2.26928 -0.703812 -0.707483 -0.0641558
-0.986652 1.90161 2.15426 -0.703812 -0.707483 -0.0641558
-1.00786 1.91778 2.20956 -0.703812 -0.707483 -0.0641558
-1.03982 1.9417 2.29768 -0.703812 -0.707483 -0.0641558
-1.00507 1.91415 2.21885 -0.703812 -0.707483 -0.0641558
-1.04374 1.94438 2.31132 -0.703812 -0.707483 -0.0641558
-1.05789 1.95644 2.33403 -0.703812 -0.707483 -0.0641558
-1.13381 2.01961 2.4731 -0.703812 -0.707483 -0.0641558
-1.08831 1.98296 2.37636 -0.703812 -0.707483 -0.0641558
-0.98694 1.89752 2.20283 -0.703812 -0.707483 -0.0641558
-1.09296 1.98548 2.39979 -0.703812 -0.707483 -0.0641558
-1.05166 1.95288 2.3046 -0.703812 -0.707483 -0.0641558
-1.01512 1.92096 2.25441 -0.703812 -0.707483 -0.0641558
-0.990571 1.90109 2.20339 -0.703812 -0.707483 -0.0641558
-1.0619 1.96081 2.32987 -0.703812 -0.707483 -0.0641558
-1.02481 1.93021 2.25909 -0.703812 -0.707483 -0.0641558
-0.984654 1.89748 2.17802 -0.703812 -0.707483 -0.0641558
-1.02442 1.92917 2.26626 -0.703812 -0.707483 -0.0641558
-1.03345 1.93638 2.28626 -0.703812 -0.707483 -0.0641558
-1.06874 1.96734 2.33309 -0.703812 -0.707483 -0.0641558
-0.992384 1.90407 2.19034 -0.703812 -0.707483 -0.0641558
-1.04601 1.949 2.28517 -0.703812 -0.707483 -0.0641558
-1.12248 2.01021 2.45201 -0.703812 -0.707483 -0.0641558
-1.10215 1.99287 2.41946 -0.703812 -0.707483 -0.0641558
-0.997676 1.90985 2.18482 -0.703812 -0.707483 -0.0641558
-1.04315 1.94471 2.30109 -0.703812 -0.707483 -0.0641558
-1.06412 1.9637 2.32233 -0.703812 -0.707483 -0.0641558
-1.05493 1.95469 2.32073 -0.703812 -0.707483 -0.0641558
-1.04424 1.94631 2.29538 -0.703812 -0.707483 -0.0641558
-0.984564 1.89663 2.18642 -0.703812 -0.707483 -0.0641558
-1.0067 1.91705 2.20474 -0.703812 -0.707483 -0.0641558
-0.99299 1.9063 2.17236 -0.703812 -0.707483 -0.0641558
-1.11503 2.00359 2.44309 -0.703812 -0.707483 -0.0641558
-1.12514 2.01256 2.45531 -0.703812 -0.707483 -0.0641558
-1.07682 1.97331 2.35622 -0.703812 -0.707483 -0.0641558
-0.998498 1.90746 2.22037 -0.703812 -0.707483 -0.0641558
-0.998755 1.9073 2.22493 -0.703812 -0.707483 -0.0641558
-0.976741 1.8886 2.18885 -0.703812 -0.707483 -0.0641558
-1.05645 1.95558 2.32764 -0.703812 -0.707483 -0.0641558
-1.04308 1.94428 2.30505 -0.703812 -0.707483 -0.0641558
-1.07695 1.97402 2.34994 -0.703812 -0.707483 -0.0641558
-1.05857 1.95662 2.33948 -0.703812 -0.707483 -0.0641558
-0.992712 1.90291 2.2069 -0.703812 -0.707483 -0.0641558
-1.02162 1.92692 2.26018 -0.703812 -0.707483 -0.0641558
-1.10431 1.99544 2.41483 -0.703812 -0.707483 -0.0641558
-1.0791 1.97406 2.3732 -0.703812 -0.707483 -0.0641558
-0.989175 1.89931 2.20768 -0.703812 -0.707483 -0.0641558
-0.986264 1.89862 2.18311 -0.703812 -0.707483 -0.0641558
-0.988711 1.90289 2.1629 -0.703812 -0.707483 -0.0641558
-1.10695 1.99748 2.42139 -0.703812 -0.707483 -0.0641558
-1.01877 1.92611 2.23775 -0.703812 -0.707483 -0.0641558
-1.02093 1.92907 2.22887 -0.703812 -0.707483 -0.0641558
-1.11371 2.00334 2.43128 -0.703812 -0.707483 -0.0641558
-1.01872 1.92542 2.24477 -0.703812 -0.707483 -0.0641558
-1.04689 1.94939 2.2906 -0.703812 -0.707483 -0.0641558
-1.00664 1.91412 2.23656 -0.703812 -0.707483 -0.0641558
-1.0276 1.93217 2.26816 -0.703812 -0.707483 -0.0641558
-0.992967 1.90585 2.17707 -0.703812 -0.707483 -0.0641558
-1.01064 1.91855 2.2317 -0.703812 -0.707483 -0.0641558
-1.01016 1.91679 2.24587 -0.703812 -0.707483 -0.0641558
-1.05085 1.95251 2.29982 -0.703812 -0.707483 -0.0641558
-0.998221 1.90802 2.21106 -0.703812 -0.707483 -0.0641558
-0.994788 1.90542 2.202 -0.703812 -0.707483 -0.0641558
-1.05156 1.95129 2.32104 -0.703812 -0.707483 -0.0641558
-1.0637 1.96204 2.33612 -0.703812 -0.707483 -0.0641558
-0.988398 1.8998 2.19358 -0.703812 -0.707483 -0.0641558
-1.08245 1.97822 2.36415 -0.703812 -0.707483 -0.0641558
-1.0642 1.96187 2.34351 -0.703812 -0.707483 -0.0641558
-1.06174 1.96169 2.31836 -0.703812 -0.707483 -0.0641558
-0.994867 1.90694 2.18602 -0.703812 -0.707483 -0.0641558
-1.03242 1.93656 2.27283 -0.703812 -0.707483 -0.0641558
-1.04694 1.94748 2.31223 -0.703812 -0.707483 -0.0641558
-0.97217 1.88599 2.16731 -0.703812 -0.707483 -0.0641558
-1.06211 1.96138 2.32597 -0.703812 -0.707483 -0.0641558
-0.981984 1.89323 2.19554 -0.703812 -0.707483 -0.0641558
-1.08568 1.98086 2.37056 -0.703812 -0.707483 -0.0641558
-1.04904 1.94901 2.31849 -0.703812 -0.707483 -0.0641558
-0.978736 1.8921 2.17222 -0.703812 -0.707483 -0.0641558
-1.00172 1.91024 2.22518 -0.703812 -0.707483 -0.0641558
-1.00172 1.91092 2.21766 -0.703812 -0.707483 -0.0641558
