ply
format ascii 1.0
element vertex 864
property float x
property float y
property float z
property float nx
property float ny
property float nz
end_header
-158.77 -63.3537 -659.268 -0.892125 -0.435862 0.118903
-158.114 -63.9385 -657.668 -0.877337 -0.426537 0.219878
-157.672 -64.6921 -656.475 -0.798448 -0.595192 0.090706
-157.689 -64.6576 -656.382 -0.747527 -0.659156 0.0819496
-157.879 -64.4598 -656.865 -0.877442 -0.479644 0.00612153
-158.047 -64.069 -656.59 -0.922905 -0.384577 -0.0185993
-151.91 -66.9681 -652.829 0.853738 0.26318 0.449298
-159.538 -69.5152 -649.481 -0.904327 0.207103 -0.37323
-159.453 -69.8149 -649.839 -0.904043 0.109635 -0.413142
-161.778 -75.8547 -642.085 -0.613146 0.599081 -0.514931
-160.849 -76.7637 -641.374 0.146722 -0.88494 0.441989
-162.826 -77.5633 -640.011 0.109808 -0.254307 0.960869
-162.862 -77.5603 -640.011 -0.00391905 -0.253996 0.967197
-162.943 -77.0704 -639.863 0.0814738 -0.430802 0.898761
-162.363 -77.4096 -640.084 0.42995 -0.58643 0.686472
-162.861 -77.5698 -640.013 0.000545052 -0.205856 0.978582
-56.0059 -92.8176 -585.151 -0.216362 0.8925 -0.395766
-55.9438 -92.9599 -585.482 -0.332547 0.892964 -0.303361
-56.4704 -93.0028 -585.306 -0.384588 0.912112 -0.141929
-59.5102 -94.8403 -583.683 0.140907 -0.989053 -0.0438023
-58.9805 -94.7101 -583.963 0.361849 -0.912701 -0.18985
-58.8098 -94.5857 -584.085 0.552428 -0.805196 -0.2156
-58.5183 -94.3807 -583.924 -0.0212244 -0.76512 -0.643538
-58.2414 -94.5152 -584.009 -0.532167 -0.512901 -0.673595
-58.7472 -94.7399 -583.489 -0.15145 -0.849252 -0.505801
-61.6373 -97.7322 -580.312 -0.439142 -0.170462 -0.882098
-61.6228 -97.9782 -580.194 -0.386276 -0.528806 -0.755748
-61.794 -99.0093 -579.306 -0.816415 -0.576215 -0.0379835
-62.6472 -98.7602 -579.413 0.041763 -0.480123 0.876207
-61.3322 -99.0337 -578.648 -0.46816 0.0528098 0.882064
-161.768 -60.8754 -663.09 0.554751 0.703493 -0.44424
-161.431 -61.2453 -663.343 0.601699 0.772902 -0.201446
-160.34 -62.3028 -661.524 -0.543171 -0.683302 0.487919
-157.933 -64.176 -657.28 -0.9205 -0.390721 0.00407964
-157.577 -64.9785 -656.919 -0.877513 -0.479143 0.0197962
-157.505 -64.9944 -656 -0.969114 -0.118689 -0.216174
-157.446 -65.6892 -655.882 -0.957322 -0.156726 -0.24284
-157.393 -65.3922 -656.282 -0.960396 -0.14743 -0.236441
-159.196 -69.9727 -650.414 -0.888222 0.211313 -0.407931
-152.062 -71.412 -646.197 0.857926 0.413637 0.304741
-152.079 -71.7046 -645.792 0.836216 0.378169 0.397155
-152.148 -71.9111 -645.523 0.84164 0.22786 0.489615
-152.33 -72.8848 -644.887 0.899713 -0.030505 0.435416
-161.719 -75.9145 -642.474 -0.446421 0.871491 -0.203007
-161.672 -75.9618 -642.777 -0.446876 0.871189 -0.203303
-162.279 -77.1664 -640.935 0.178625 -0.983408 -0.031665
-162.233 -77.1407 -641.296 -0.394311 -0.917117 -0.0584427
-162.338 -77.2691 -640.394 0.0907321 -0.93463 -0.343853
-51.1782 -91.4161 -587.313 -0.0368952 0.935163 0.35229
-55.4188 -92.815 -585.74 -0.28157 0.910895 -0.301643
-55.3427 -92.9555 -586.178 -0.212159 0.917109 -0.337489
-55.8698 -93.0619 -585.939 -0.375117 0.88901 -0.262579
-57.9321 -94.3741 -584.51 -0.539109 -0.615518 -0.57489
-57.527 -94.5478 -584.618 -0.491167 -0.50437 -0.710187
-58.9592 -94.6734 -584.155 0.539227 -0.836317 -0.0990405
-62.6125 -98.1977 -580.191 -0.0568506 -0.169418 -0.983903
-62.5992 -98.3288 -580.169 0.13671 -0.366655 -0.920258
-62.0809 -98.3881 -580.189 0.197587 -0.739923 -0.643019
-62.5425 -98.89 -580.073 0.788624 -0.0302704 -0.614131
-59.1777 -96.7251 -578.522 0.0485603 0.314636 0.947969
-62.3057 -99.0424 -579.762 0.948979 -0.190204 -0.251519
-62.6285 -98.9455 -579.381 0.772221 0.18077 0.609095
-62.5772 -99.452 -579.296 0.721207 0.225491 0.654992
-161.15 -61.431 -663.871 0.575897 0.813905 0.076822
-149.973 -61.262 -660.989 0.493733 0.816103 0.30034
-160.254 -62.7283 -661.775 -0.599361 -0.537122 0.593521
-157.882 -64.4122 -658.683 -0.840122 -0.519109 0.157232
-157.766 -64.5433 -657.879 -0.893991 -0.443498 0.0639582
-157.475 -65.1515 -657.52 -0.911505 -0.408509 0.0477514
-157.501 -65.1367 -657.337 -0.899734 -0.434894 -0.0366809
-157.299 -66.0826 -656.16 -0.980925 -0.0695196 -0.181528
-157.246 -65.7856 -656.56 -0.999418 -0.0335167 0.00641903
-159.168 -70.381 -650.708 -0.886636 0.224431 -0.40436
-159.821 -70.0628 -649.101 -0.936235 -0.0102165 -0.351225
-151.877 -71.5103 -646.877 0.841559 0.491484 0.224101
-152.087 -72.3097 -645.612 0.899849 0.140807 0.412851
-152.093 -72.6593 -645.248 0.481448 0.56501 0.670054
-152.086 -72.7275 -645.234 0.842401 -0.231776 0.486456
-161.613 -76.0201 -643.163 -0.459376 0.881576 -0.108617
-161.562 -75.9988 -643.566 -0.426509 0.89743 -0.112734
-162.176 -77.2592 -641.615 0.278199 -0.895079 0.348481
-162.131 -77.3049 -641.909 -0.0218297 -0.993483 0.111875
-55.2766 -93.0874 -586.548 -0.260182 0.877859 -0.402081
-55.2434 -93.1744 -586.715 -0.35862 0.631943 -0.687051
-56.9237 -95.2007 -584.571 -0.623346 -0.424101 -0.656946
-57.3528 -94.3362 -585.074 -0.445778 -0.605245 -0.659515
-56.8126 -94.1203 -585.512 -0.385019 -0.583234 -0.715261
-56.4898 -94.25 -585.591 -0.739663 -0.305496 -0.599642
-62.5297 -99.0199 -580.048 0.78841 0.0272931 -0.614545
-62.4677 -99.5065 -580.06 0.739673 0.175062 -0.649798
-61.9359 -100.233 -579.685 0.21839 0.326341 -0.919678
-62.5587 -99.6382 -579.262 0.781223 0.585559 0.21636
-62.0898 -99.8474 -578.775 0.600394 0.79644 -0.0721836
-62.5838 -99.5589 -579.148 0.651299 0.680849 -0.335044
-62.1396 -99.7672 -578.719 0.659164 0.658833 -0.362549
-61.5549 -100.222 -578.609 -0.452222 0.440934 0.775288
-62.0459 -100.422 -578.571 0.00779576 0.171162 0.985212
-62.0396 -100.477 -578.568 -0.309167 0.0822589 0.947444
-161.039 -61.4341 -664.696 0.597332 0.800643 0.0465268
-161.037 -61.4352 -664.705 0.577613 0.814944 -0.0472157
-160.517 -61.8163 -664.913 0.877248 0.390492 -0.279198
-161.124 -61.4199 -664.073 0.578221 0.811897 0.080525
-160.166 -63.1238 -662.068 -0.45577 -0.676696 0.578235
-157.827 -64.7772 -659.029 -0.782849 -0.445385 0.434489
-157.644 -65.0848 -658.541 -0.974837 -0.222816 0.0067386
-157.387 -65.5475 -657.813 -0.944056 -0.258607 0.20465
-157.341 -65.507 -656.98 -0.998241 0.0327332 0.0494249
-157.279 -65.911 -657.27 -0.997473 0.0319598 -0.0634514
-157.283 -66.4924 -656.455 -0.997454 0.0642118 0.0310258
-157.358 -66.9613 -654.946 -0.990139 0.11865 -0.0744788
-157.451 -67.675 -654.848 -0.982056 0.181314 -0.0518765
-157.385 -67.3764 -655.247 -0.988704 0.141342 -0.0498654
-157.6 -68.0629 -653.901 -0.964313 0.259481 -0.052635
-157.645 -68.28 -654.06 -0.956467 0.28402 -0.0671125
-157.534 -67.9759 -654.452 -0.931917 0.359562 -0.0473848
-159.137 -70.7887 -651.001 -0.963172 0.125288 -0.237913
-151.66 -71.3703 -648.009 0.809823 0.55657 0.185517
-151.418 -71.6349 -647.435 0.547803 0.820012 0.165808
-151.461 -71.7337 -647.02 0.524151 0.81433 0.249262
-152.073 -72.7491 -645.312 0.802148 -0.500377 0.325856
-151.986 -72.9342 -645.788 0.867082 -0.338438 0.365553
-153.393 -74.3671 -642.247 0.825069 -0.145164 0.546067
-161.529 -76.028 -643.782 -0.356183 0.903997 -0.236481
-161.457 -76.1305 -644.224 -0.137524 0.916019 -0.376823
-162.59 -77.2999 -642.28 -0.040297 -0.994387 0.0978276
-162.512 -77.4005 -642.768 -0.0630351 -0.944374 0.322775
-161.447 -77.3985 -642.554 0.220245 -0.944428 0.244023
-156.888 -77.2513 -640.696 0.247792 -0.781194 0.573005
-162.618 -77.2977 -642.07 -0.017561 -0.999811 0.0083112
-52.0579 -89.7608 -592.889 -0.679733 0.716365 0.157428
-54.9355 -93.3071 -587.309 0.268076 0.607183 0.747973
-55.154 -93.5536 -587.031 0.268076 0.607184 0.747973
-55.1588 -93.2483 -587.277 0.268075 0.607184 0.747973
-55.1843 -93.5073 -586.848 -0.314703 0.137468 -0.939183
-55.1616 -93.6768 -586.86 -0.423424 0.25823 -0.868349
-56.232 -94.0881 -586.08 -0.509867 -0.564037 -0.649536
-55.777 -94.2828 -586.2 -0.637328 -0.510162 -0.577537
-60.5517 -98.291 -580.895 -0.40448 -0.255372 -0.878169
-51.9881 -96.0547 -580.862 0.450259 0.345048 0.823534
-57.6416 -99.6962 -577.947 0.194119 -0.00177974 0.980976
-62.3927 -100.019 -580.147 0.733501 0.125924 -0.667922
-62.3888 -100.055 -580.141 0.709219 -6.02188e-05 -0.704988
-62.2411 -100.603 -579.328 -0.491073 -0.646226 -0.584157
-62.4203 -100.564 -579.437 0.203979 -0.976447 0.0703123
-62.4551 -100.485 -579.251 -0.375075 -0.875491 0.304687
-61.9568 -100.964 -578.734 -0.635217 -0.221939 0.739758
-160.938 -61.6468 -665.253 0.576545 0.740598 -0.345124
-160.075 -63.4784 -662.418 -0.382134 -0.702427 0.600475
-149.857 -63.5924 -657.855 0.79768 0.367017 0.478545
-157.741 -65.2009 -659.283 -0.894571 -0.294832 0.335882
-157.57 -65.4873 -658.828 -0.976241 -0.171843 0.131998
-157.352 -65.6295 -657.687 -0.985605 -0.0972277 0.138309
-157.362 -67.2043 -656.356 -0.995647 0.0894379 -0.0262392
-157.38 -67.4969 -655.951 -0.992696 0.118656 -0.0218135
-157.333 -67.0795 -655.647 -0.990903 0.131249 -0.0297466
-157.419 -67.9994 -656.902 -0.975409 0.214143 0.0521608
-157.814 -68.5915 -653.675 -0.936922 0.309316 -0.162788
-157.9 -69.0138 -653.984 -0.950228 0.299492 -0.085855
-158.019 -69.2038 -653.509 -0.942763 0.293299 -0.158662
-158.096 -69.1244 -653.014 -0.934801 0.298343 -0.192712
-158.147 -69.2137 -652.905 -0.928286 0.305272 -0.212354
-158.356 -69.53 -652.526 -0.917231 0.315978 -0.24258
-158.777 -71.9501 -654.084 -0.968853 0.211992 -0.127999
-158.566 -69.8465 -652.146 -0.918971 0.313118 -0.239687
-158.635 -69.9542 -652.017 -0.925905 0.301547 -0.227531
-158.76 -70.1611 -651.765 -0.932009 0.29023 -0.217084
-158.945 -70.4744 -651.382 -0.93024 0.294712 -0.218627
-152.212 -69.2622 -648.798 0.807472 0.491985 0.325483
-151.423 -70.8514 -649.938 0.894449 0.391327 0.216391
-151.306 -71.6545 -648.248 0.651705 0.755304 0.0692562
-151.316 -71.6436 -648.183 0.626343 0.779417 0.0142549
-151.396 -71.6574 -647.579 0.710069 0.703422 0.0315999
-151.891 -73.2196 -646.234 0.883085 -0.358107 0.303184
-161.402 -76.2314 -644.541 0.229328 0.944776 -0.234109
-161.353 -76.2711 -644.869 0.501568 0.865056 0.0104214
-162.45 -77.5595 -643.078 -0.078756 -0.900553 0.427553
-162.414 -77.6487 -643.264 0.0661504 -0.965975 0.250032
-53.6089 -92.4844 -588.8 -0.762594 0.646489 0.0224208
-54.4191 -93.0575 -587.038 -0.592852 0.696283 -0.404619
-55.0749 -94.0998 -587.115 0.333243 -0.141009 -0.932237
-55.5851 -94.4573 -586.771 -0.543934 -0.838327 0.0366496
-50.093 -93.9828 -583.391 0.600921 0.543962 0.585662
-59.2123 -95.9998 -581.725 -0.47489 -0.487477 -0.732698
-62.3147 -100.682 -580.115 0.751325 -0.00365618 -0.659922
-62.3223 -100.804 -579.945 0.75702 -0.614402 0.222331
-61.8332 -100.788 -579.818 -0.439021 -0.0231673 -0.898178
-62.1252 -101 -579.609 -0.732628 0.114463 -0.670935
-61.3454 -100.792 -579.661 -0.0986044 -0.979069 -0.178049
-61.8902 -101.506 -578.73 -0.661247 0.0628296 0.747533
-61.8831 -101.596 -578.7 -0.340653 -0.299502 0.891209
-60.6995 -101.14 -577.707 -0.247219 -0.189026 0.950343
-59.7207 -102.147 -578.286 -0.207441 -0.425581 0.880823
-160.845 -61.9776 -665.635 0.709459 0.627527 -0.320747
-159.972 -62.3317 -663.154 0.283169 0.882623 -0.375222
-158.237 -62.8957 -664.725 -0.175914 0.884261 -0.432594
-160.068 -63.5044 -662.445 -0.418239 -0.732274 0.537448
-159.981 -63.782 -662.838 -0.46684 -0.772085 0.431213
-157.72 -65.2154 -659.256 -0.779458 0.141194 0.610335
-157.454 -66.0623 -658.719 -0.986471 -0.0504524 0.155978
-109.134 -60.0873 -653.022 0.0611436 0.93446 0.350779
-151.129 -70.0384 -651.336 0.871354 0.436589 0.223903
-151.214 -70.3393 -650.94 0.925767 0.199053 0.321456
-151.165 -71.1953 -649.724 0.765421 0.643505 0.00568687
-151.168 -71.1943 -649.703 0.695692 0.696971 0.173911
-151.155 -71.2034 -649.71 0.592081 0.803938 0.0558875
-151.208 -71.3868 -649.227 0.800495 0.524402 0.290191
-151.235 -71.637 -648.792 0.820751 0.500743 0.274998
-151.372 -72.8914 -646.618 0.42706 -0.903067 0.045713
-151.28 -73.0547 -647.151 -0.513107 -0.847229 0.137567
-151.886 -73.2259 -646.265 0.833249 -0.542539 0.10653
-152.91 -75.0354 -645.411 0.856191 -0.507405 0.0973507
-161.759 -76.1551 -645.737 0.420819 0.895033 -0.147744
-161.723 -76.1916 -645.97 0.434717 0.847052 -0.305818
-160.482 -76.7646 -645.793 -0.494525 0.782899 -0.377511
-161.827 -76.0361 -645.345 0.419857 0.88849 -0.185219
-161.506 -76.1417 -645.098 0.486544 0.871292 -0.0642266
-162.332 -77.7237 -643.809 0.294637 -0.954778 0.0398594
-162.306 -77.7151 -644.013 0.463277 -0.882475 -0.0813199
-53.9953 -93.1425 -589 -0.866252 0.498388 0.0348747
-53.9555 -93.428 -588.588 -0.814137 0.215076 -0.539373
-54.4806 -93.6608 -588.162 -0.78536 0.577537 -0.222847
-54.4517 -93.7376 -588.306 -0.642634 0.615957 -0.455653
-54.5391 -93.7692 -587.626 -0.809611 0.492071 -0.319994
-55.0274 -94.2215 -587.357 -0.349218 -0.0734259 0.93416
-54.9865 -94.4936 -587.411 -0.485566 -0.175655 0.856371
-55.0483 -94.5014 -586.943 -0.0503954 0.159295 -0.985944
-55.562 -94.4629 -586.938 -0.575694 -0.749036 -0.327905
-54.4284 -95.2257 -587.187 -0.74679 -0.496306 -0.442701
-62.3025 -100.804 -580.093 0.886361 -0.375378 -0.271028
-60.7666 -101.151 -579.855 -0.524457 0.0105558 -0.851371
-61.8036 -102.134 -578.795 0.417427 -0.394002 0.818851
-160.363 -62.2123 -665.229 0.479889 0.869472 -0.117155
-160.276 -62.4805 -665.629 0.407209 0.860523 -0.306074
-159.886 -64.0735 -663.275 -0.395242 -0.898453 0.19122
-113.58 -62.2205 -650.313 -0.27975 0.725352 0.628971
-151.056 -70.2014 -651.45 0.9472 0.207215 0.244693
-151.019 -70.6646 -651.298 0.940406 0.21682 0.261963
-151.108 -71.0284 -650.816 0.844671 0.453585 0.28424
-159.819 -73.0332 -648.269 -0.992023 0.0496589 -0.115861
-151.068 -71.4473 -650.215 0.863206 0.50424 0.0248413
-151.253 -73.0556 -647.349 0.107269 -0.993868 0.026827
-151.169 -73.0957 -647.935 -0.0198456 -0.998487 0.0512752
-161.632 -76.5449 -646.321 0.135554 0.984036 0.115316
-162.266 -77.6482 -644.369 -0.170271 -0.970972 0.167993
-162.193 -77.7139 -644.854 -0.665011 -0.746718 0.0131319
-48.8438 -88.3065 -593.387 0.054281 0.901968 0.428377
-53.4124 -91.9967 -591.768 -0.973284 0.109867 -0.201612
-53.7895 -92.2564 -590.82 -0.427602 0.893203 0.139086
-53.756 -92.2029 -591.119 -0.815428 0.493933 -0.30184
-53.8118 -92.5299 -590.401 -0.965276 0.234279 0.11557
-53.8222 -92.8579 -590.022 -0.980727 0.149908 0.125306
-53.8199 -93.238 -589.687 -0.26761 -0.867985 0.418315
-53.8203 -93.2436 -589.679 0.229614 0.387037 -0.893017
-54.9012 -94.9396 -587.634 -0.527133 -0.84968 0.0131987
-60.1527 -100.809 -580.229 -0.377599 -0.237351 -0.895033
-60.6801 -101.576 -580.106 -0.182123 -0.0317178 -0.982764
-61.7337 -101.843 -579.584 -0.272453 -0.785374 -0.555839
-61.718 -102.29 -579.289 -0.00971954 -0.944152 -0.329366
-61.4341 -102.029 -579.704 -0.561329 -0.825637 -0.056861
-160.205 -62.556 -666.087 0.373472 0.926971 0.0352551
-160.166 -62.53 -666.401 0.569363 0.783093 -0.25018
-147.246 -63.3965 -660.966 0.526209 0.537067 0.65929
-159.835 -63.8127 -663.893 -0.444881 -0.843814 -0.300098
-159.76 -63.8687 -664.398 -0.355853 -0.909656 0.214228
-158.786 -64.4394 -662.722 -0.742188 -0.655608 0.139049
-159.859 -64.0814 -663.471 -0.33291 -0.919412 -0.20941
-101.483 -64.0914 -644.511 -0.213287 0.804227 0.554732
-107.35 -63.1676 -648.156 -0.104469 0.78072 0.616086
-97.3507 -62.643 -646.73 -0.0866811 0.883866 0.459639
-150.707 -70.1855 -652.817 0.944882 0.164405 0.283141
-151.019 -70.7474 -651.226 0.730697 0.541552 0.415696
-151.018 -71.1258 -650.882 0.747411 0.483758 0.455363
-150.571 -71.3734 -651.041 0.945404 0.13895 0.294797
-151.022 -71.4843 -650.524 0.903806 0.360036 0.231317
-160.192 -73.7016 -649.682 -0.966535 0.254717 -0.0304977
-94.7487 -65.767 -642.081 -0.0469256 0.690648 0.721667
-151.062 -72.4257 -649.354 0.771638 -0.635597 -0.0243344
-151.015 -72.426 -649.702 0.814038 -0.551632 0.181785
-151.092 -72.6663 -648.912 0.666408 -0.664137 -0.338853
-151.116 -72.9278 -648.485 0.602114 -0.751947 -0.268393
-151.162 -73.0947 -647.99 0.196451 -0.979555 -0.0433417
-105.797 -67.2712 -643.248 -0.417476 0.470857 0.777179
-161.869 -76.429 -646.557 0.40543 0.836456 -0.368738
-161.588 -76.8058 -646.817 0.428427 0.756988 -0.493376
-162.154 -77.7818 -645.078 -0.445572 -0.87806 0.174571
-161.345 -78.4997 -646.622 0.064542 -0.794037 0.604433
-162.087 -77.829 -645.535 -0.63091 -0.774411 0.0473273
-53.7499 -92.4367 -590.949 -0.697167 -0.49106 -0.52232
-53.768 -92.7294 -590.544 -0.711361 -0.569371 -0.412047
-53.7926 -92.9925 -590.118 -0.699138 -0.598255 -0.391533
-52.9874 -93.183 -591.265 -0.832601 -0.447188 -0.326801
-53.8185 -93.6244 -589.341 -0.53313 -0.456782 -0.712125
-53.3658 -93.8877 -589.511 -0.757465 -0.120608 -0.641639
-53.7683 -94.228 -589.158 -0.68744 0.0622691 -0.723567
-54.073 -94.5564 -588.791 -0.482739 -0.197136 -0.853288
-54.3016 -94.4752 -588.743 -0.30756 -0.341812 -0.888015
-54.2851 -94.6928 -588.665 -0.46949 -0.31081 -0.826424
-54.8557 -95.3782 -587.568 -0.273099 0.819327 0.504103
-54.8307 -95.5328 -587.692 -0.372096 -0.355398 -0.85746
-54.886 -94.8651 -587.816 -0.416541 -0.88583 -0.204448
-54.3633 -95.1733 -588.015 0.706643 -0.707496 0.0102842
-54.7589 -95.5128 -587.661 0.977497 -0.0623629 -0.201521
-54.8259 -95.546 -587.635 -0.271285 -0.839861 0.470147
-48.203 -97.2131 -584.712 0.867261 0.252096 0.429309
-60.6638 -101.739 -580.078 0.305303 -0.411542 -0.858733
-61.1418 -102.238 -579.843 -0.28376 -0.877279 -0.387121
-61.0678 -102.308 -579.253 -0.299597 -0.923777 0.238489
-58.1422 -104.196 -577.628 -0.0706502 -0.239805 0.968247
-153.847 -61.189 -667.041 -0.364953 0.815637 -0.448938
-147.449 -60.2458 -666.055 0.087453 0.976241 0.198254
-160.075 -62.8889 -666.744 0.655754 0.577606 -0.486168
-159.711 -64.0009 -664.64 -0.343591 -0.876855 0.336259
-159.662 -64.1065 -664.909 -0.404604 -0.82979 0.384374
-105.456 -60.6471 -655.277 0.38106 0.923949 0.0333541
-94.4852 -61.9 -647.401 -0.104091 0.896402 0.430847
-109.579 -67.8962 -645.374 -0.41853 0.358286 0.834544
-150.884 -71.735 -651.316 0.819251 -0.560589 0.120698
-150.918 -71.9547 -650.859 0.423993 -0.824575 -0.374573
-159.795 -73.5096 -651.762 -0.839505 0.526437 -0.134516
-150.944 -72.213 -650.43 0.148004 -0.850966 -0.503936
-151.644 -73.1441 -649.063 0.74542 -0.662669 -0.072236
-159.892 -73.8121 -651.368 -0.984146 0.020455 -0.176177
-150.969 -72.4745 -650.003 0.324327 -0.865053 -0.382748
-161.442 -77.112 -647.217 0.11136 0.857097 -0.502975
-162.25 -77.7593 -645.683 -0.46359 -0.856037 0.228659
-162.565 -77.6735 -645.901 -0.220139 -0.805364 0.550389
-162.478 -78.0911 -646.163 0.118987 -0.576724 0.808228
-154.38 -77.3583 -643.674 0.644638 -0.740642 0.189448
-50.0833 -86.689 -598.669 -0.378318 0.898599 0.22225
-53.1648 -94.186 -589.906 -0.937275 -0.210666 -0.277734
-53.7648 -94.2441 -589.169 -0.804323 0.0103677 -0.594102
-53.6671 -94.6273 -589.442 -0.811218 -0.504458 -0.295716
-54.2702 -94.9931 -588.498 -0.356881 -0.82783 -0.43282
-53.2455 -95.1305 -589.206 -0.724787 -0.477755 -0.496421
-56.1109 -101.048 -582.245 -0.60657 -0.347961 -0.71484
-160.268 -62.821 -666.899 0.634485 0.613917 -0.469613
-160.46 -63.0393 -667.527 0.597599 0.675299 -0.432258
-160.553 -62.7297 -667.115 0.549168 0.723103 -0.418971
-159.568 -64.3994 -665.344 -0.62307 -0.60538 0.495277
-158.938 -64.1566 -664.255 -0.701527 -0.704287 0.10881
-114.452 -59.5909 -656.174 -0.14725 0.953295 0.263718
-119.635 -65.6197 -652.331 -0.564142 0.363037 0.741585
-89.6603 -61.8314 -646.327 -0.0960288 0.859355 0.502282
-159.459 -73.2987 -652.829 -0.911628 0.39386 -0.117513
-159.303 -73.0069 -652.541 -0.900385 0.426647 -0.0853155
-159.66 -73.614 -652.449 -0.932503 0.294419 -0.209178
-159.647 -73.5816 -652.49 -0.930167 0.365371 -0.0359538
-159.856 -74.5097 -651.253 -0.982302 -0.0747126 -0.17176
-159.906 -74.8064 -650.852 -0.982796 -0.0760605 -0.168307
-159.946 -75.1019 -650.451 -0.981985 -0.125567 -0.141203
-161.351 -77.4752 -647.555 -0.127293 0.639429 -0.758239
-162.386 -78.4282 -646.537 0.00488998 -0.732533 0.680714
-44.118 -86.8339 -599.85 0.529037 0.73685 0.420918
-53.1574 -94.3337 -589.824 -0.961198 -0.102853 -0.255967
-47.9311 -91.7613 -588.756 0.621325 0.562935 0.545032
-60.0233 -102.708 -579.271 -0.66625 -0.709301 -0.230223
-59.0295 -104.242 -579.497 -0.169021 -0.2097 -0.963046
-148.28 -60.2925 -668.905 -0.173372 0.949843 -0.260268
-160.392 -63.2515 -667.833 0.63483 0.553411 -0.539191
-160.855 -63.3572 -668.078 0.551783 0.565919 -0.612594
-160.9 -63.0206 -667.689 0.226461 0.823436 -0.520258
-159.479 -64.7944 -665.638 -0.55072 -0.736461 0.392853
-118.882 -60.3952 -657.778 -0.257885 0.925918 0.27599
-157.955 -65.87 -660.927 -0.957837 -0.201128 0.205173
-122.969 -64.3286 -655.041 -0.52492 0.483788 0.700291
-100.402 -61.4439 -650.721 -0.226845 0.952675 0.202365
-117.592 -60.8303 -655.188 -0.371069 0.82356 0.429018
-146.487 -69.7793 -659.749 0.601379 -0.0703558 0.79586
-92.7362 -60.5824 -651.476 -0.0956442 0.935983 0.338803
-82.3939 -62.5436 -644.637 0.00724787 0.753907 0.656941
-115.555 -64.4595 -649.766 -0.484931 0.453562 0.747746
-112.885 -69.6553 -646.443 -0.509662 0.0607289 0.858229
-159.464 -73.7109 -653.128 -0.915056 0.154271 -0.372656
-89.4844 -65.5543 -641.879 -0.0227875 0.633372 0.773511
-159.601 -73.8306 -652.603 -0.946918 -0.0301913 -0.320054
-159.808 -75.7869 -650.322 -0.968418 -0.18346 -0.168846
-154.021 -76.5277 -650.081 0.891802 -0.286944 0.349789
-100.258 -67.7964 -640.589 -0.214546 0.454433 0.864558
-161.262 -77.8552 -647.869 -0.0935586 0.537486 -0.838067
-162.295 -78.7757 -646.897 -0.0161931 -0.677213 0.735609
-51.4726 -87.7075 -601.793 -0.850598 0.525674 -0.0122664
-48.1572 -98.2531 -584.408 0.958173 0.118284 0.260601
-49.395 -99.6899 -582.162 0.741494 0.0248414 0.670499
-48.2149 -98.5507 -584.009 0.794031 0.198144 0.574678
-60.0081 -104.37 -579.481 -0.911862 0.163473 0.376542
-59.9031 -104.204 -579.681 -0.275026 0.273212 -0.9218
-59.9294 -104.629 -579.094 -0.648793 0.0972898 0.75472
-159.891 -64.1277 -667.922 0.520873 0.659419 -0.542087
-160.76 -63.6528 -668.509 0.647036 0.596932 -0.474359
-159.19 -62.9832 -665.599 0.420233 0.838029 -0.34801
-138.252 -59.7729 -666.871 -0.12205 0.910446 0.39521
-159.619 -64.7258 -665.778 -0.549751 -0.761828 0.342625
-159.957 -64.6223 -666.027 -0.449663 -0.684859 0.573386
-159.869 -65.0231 -666.312 -0.39121 -0.654995 0.646479
-158.336 -65.854 -666.227 -0.886086 -0.408545 0.218958
-122.117 -60.8024 -659.757 -0.302985 0.898928 0.316432
-85.8672 -58.5516 -652.546 -0.181995 0.939003 0.291806
-83.191 -59.3778 -649.817 -0.165859 0.846197 0.5064
-102.999 -62.2241 -649.125 -0.106557 0.937474 0.331342
-79.4172 -61.7831 -645.872 0.0526104 0.781715 0.621413
-159.381 -74.1123 -653.414 -0.912543 0.135221 -0.385979
-150.839 -72.0818 -652.87 0.934098 -0.284879 0.215185
-159.96 -77.3874 -647.715 -0.779479 0.339992 -0.526135
-159.721 -76.1878 -650.608 -0.980533 -0.139175 -0.13851
-160.683 -78.2154 -648.061 -0.0990669 0.463568 -0.880506
-161.715 -79.11 -647.124 -0.000709441 -0.635067 0.772457
-47.4611 -84.3202 -605.046 -0.28258 0.946074 0.158404
-47.497 -97.421 -586.247 0.894084 0.2907 0.340745
-47.6754 -97.7156 -585.889 0.89154 -0.112408 0.438772
-47.8102 -98.0408 -585.474 0.94247 0.202144 0.266249
-47.9064 -98.3432 -585.079 0.933421 0.137241 0.331498
-48.2525 -99.1568 -584.045 0.867451 -0.211654 0.450256
-49.0855 -100.232 -582.793 0.881901 -0.0609111 0.467483
-49.3106 -100.483 -582.512 0.797363 -0.221218 0.561494
-52.4974 -100.611 -580.022 0.444081 0.0412414 0.895037
-59.8197 -104.68 -579.863 0.243666 0.324944 -0.913804
-59.8523 -105.053 -579.35 -0.387609 -0.666816 0.636487
-59.2768 -104.945 -578.887 -0.28535 -0.904506 0.31693
-142.904 -60.1064 -668.605 -0.102137 0.992384 0.0688592
-133.017 -60.1556 -665.294 -0.00615182 0.806483 0.591225
-160.674 -64.0908 -668.743 0.632404 0.513793 -0.579725
-159.289 -65.3628 -666.532 -0.509441 -0.813096 0.281682
-142.594 -65.1276 -662.535 0.225924 0.332361 0.915694
-158.769 -71.4605 -657.491 -0.993187 0.11613 -0.00962082
-159.136 -74.2032 -654.086 -0.938644 0.0968277 -0.331018
-159.617 -76.5866 -650.892 -0.97998 -0.140457 -0.141109
-160.596 -78.6302 -648.327 -0.107816 0.515448 -0.850111
-94.4005 -70.1352 -639.189 -0.0141712 0.245263 0.969353
-98.3437 -71.9543 -639.228 -0.15893 -0.00461461 0.987279
-159.683 -77.4678 -645.714 0.0267374 -0.905054 0.424456
-161.132 -79.4057 -647.405 0.437781 -0.506278 0.742987
-52.5885 -91.5362 -595.436 -0.989491 -0.0178712 -0.143485
-47.3856 -97.5284 -586.937 0.956498 -0.242034 0.162884
-47.5836 -98.0554 -586.259 0.919781 -0.386619 0.0672982
-47.6219 -98.1386 -586.154 0.96646 -0.232777 0.108489
-48.1568 -99.4336 -584.502 0.875369 -0.388653 0.287537
-48.8068 -100.319 -583.461 0.911594 -0.233124 0.3386
-49.2188 -100.823 -582.881 0.813611 -0.382861 0.437555
-52.5881 -104.693 -579.861 0.604815 -0.382365 0.698567
-59.3276 -104.721 -579.705 0.647243 -0.305834 -0.698242
-59.8409 -105.059 -579.355 -0.0143905 -0.966834 0.255001
-56.9187 -105.568 -579.01 -0.0600756 -0.756889 0.650776
-132.9 -58.6413 -669.051 0.0841348 0.990757 0.1064
-160.586 -64.4842 -669.039 0.524198 0.661146 -0.536752
-125.831 -61.0711 -662.154 -0.249466 0.901905 0.352611
-159.201 -65.7636 -666.818 -0.463825 -0.673459 0.575603
-142.509 -61.8868 -664.681 0.0677387 0.769493 0.635052
-158.425 -68.3739 -663.616 -0.996469 -0.0249142 0.0801822
-93.6819 -58.5967 -655.559 -0.151671 0.943853 0.293491
-126.946 -64.5147 -658.349 -0.490802 0.537029 0.686086
-89.2803 -59.115 -654.464 -0.128074 0.944152 0.303603
-79.5977 -57.7387 -652.125 -0.0473543 0.920908 0.386894
-158.994 -74.5972 -654.365 -0.951734 -0.179854 -0.248707
-159.522 -76.9865 -651.176 -0.96023 -0.218637 -0.173655
-160.51 -79.0551 -648.579 -0.155355 0.461811 -0.873267
-161.046 -79.8283 -647.66 0.63739 -0.112879 0.762228
-47.4765 -97.8945 -587.205 0.862162 -0.506433 -0.0142139
-47.5347 -98.0045 -586.67 0.765287 -0.643688 -0.00114497
-48.1786 -98.7669 -588.384 0.622439 -0.734579 -0.270117
-47.874 -98.872 -586.078 0.92147 -0.37211 -0.111482
-48.0811 -99.3172 -585.174 0.910835 -0.410608 0.0421974
-48.006 -99.1789 -585.688 0.926618 -0.375248 0.0238192
-54.0849 -100.115 -585.58 -0.642582 -0.425564 -0.637168
-48.1289 -99.4745 -584.672 0.761891 -0.647691 -0.00417917
-48.0808 -99.3574 -584.586 0.810729 -0.524125 0.26079
-49.0959 -101.057 -583.39 0.88448 -0.452281 0.11462
-49.1224 -101.088 -583.354 0.833749 -0.453335 0.315199
-129.8 -60.9679 -664.601 -0.0508754 0.873618 0.483946
-160.494 -64.825 -669.408 0.570586 0.66422 -0.482953
-119.931 -59.887 -665.86 0.0651459 0.962881 -0.261946
-158.623 -66.1376 -666.99 -0.475209 -0.751435 0.457735
-158.397 -66.2209 -666.804 -0.876556 -0.358288 0.321372
-87.3493 -56.6682 -659.752 -0.11907 0.962265 0.244682
-134.784 -62.6049 -663.483 -0.135305 0.554721 0.820961
-75.3743 -61.158 -647.046 0.0907992 0.789385 0.607147
-158.837 -74.9895 -654.641 -0.943375 -0.211726 -0.255375
-159.329 -77.3742 -651.448 -0.908752 -0.248489 -0.335296
-160.425 -79.5021 -648.801 -0.178674 0.365576 -0.913471
-88.7266 -69.5381 -639.724 0.0808107 0.254584 0.963668
-160.979 -80.4554 -647.575 0.667698 0.110065 0.736251
-160.974 -80.4964 -647.576 0.688257 0.0662187 0.722438
-51.6584 -88.4247 -602.771 -0.969297 0.236636 -0.066831
-51.8379 -89.7726 -601.047 -0.981298 -0.0927969 -0.16865
-44.4293 -92.239 -593.414 0.89614 0.136616 0.42222
-46.972 -96.8552 -588.366 0.944902 -0.164151 0.28322
-48.3648 -99.7767 -584.278 0.89943 -0.35706 0.25206
-49.6453 -102.092 -583.416 0.781586 -0.617671 0.0872112
-54.1124 -104.539 -582.018 -0.361753 -0.501771 -0.785723
-140.831 -59.8119 -672.661 -0.348553 0.913748 -0.208749
-147.119 -62.0305 -672.915 -0.335942 0.762285 -0.553231
-160.401 -65.1357 -669.813 0.615802 0.686781 -0.38616
-160.401 -65.1377 -669.815 0.629057 0.656929 -0.41561
-159.912 -65.3381 -669.392 0.524999 0.634553 -0.567202
-115.899 -59.3455 -662.355 0.0146806 0.984871 -0.172667
-157.515 -65.7415 -668.597 -0.0981183 0.649205 -0.754258
-110.718 -59.0292 -657.925 0.113645 0.993521 0.00125248
-83.756 -57.1528 -658.078 -0.10412 0.962582 0.250191
-158.371 -66.9198 -666.69 -0.997126 0.0567594 -0.0501771
-158.712 -67.8335 -665.514 -0.981896 0.154836 0.109119
-158.553 -74.733 -655.788 -0.809317 -0.573144 -0.1285
-158.571 -74.7172 -655.667 -0.769286 -0.629417 -0.109696
-158.765 -74.5485 -655.272 -0.960547 -0.159263 -0.228
-158.568 -74.9745 -655.454 -0.90465 -0.277448 -0.323467
-158.668 -75.3802 -654.916 -0.905599 -0.250567 -0.342207
-77.6174 -65.0337 -642.921 0.12525 0.57515 0.808403
-159.313 -77.3176 -651.523 -0.892145 -0.247673 -0.377804
-159.107 -77.7583 -651.716 -0.90284 -0.242651 -0.354965
-160.38 -79.7592 -648.897 -0.115843 0.224807 -0.967493
-160.343 -80.0076 -648.942 0.232654 -0.145504 -0.961613
-91.2707 -74.6298 -639.188 0.0635903 -0.252118 0.965605
-158.379 -80.4055 -647.352 -0.265287 -0.254005 0.93011
-160.898 -81.0857 -647.601 0.624808 0.128038 0.770208
-44.1268 -83.0978 -610.954 -0.162416 0.985838 -0.0417546
-41.9085 -84.5932 -606.572 0.334943 0.811827 0.478279
-51.5762 -88.3562 -603.336 -0.846683 0.503852 -0.171058
-51.53 -88.4049 -603.635 -0.83164 0.518101 -0.199865
-51.6068 -89.1204 -602.655 -0.929903 -0.293119 -0.222173
-138.231 -58.8086 -673.236 -0.224492 0.955232 -0.192704
-126.337 -60.1612 -668.922 0.209641 0.967672 -0.140218
-122.84 -60.3957 -667.641 0.0706784 0.962902 -0.260432
-160.309 -65.4827 -670.178 0.669939 0.592333 -0.447576
-160.218 -65.5271 -670.088 0.713946 0.535161 -0.451534
-158.808 -67.7384 -670.496 0.50787 0.290672 -0.810912
-109.14 -60.5209 -662.535 0.271794 0.888506 -0.369709
-92.1395 -57.3489 -662.976 -0.419638 0.905541 -0.0624441
-76.7732 -56.0126 -657.667 -0.00510658 0.982962 0.18374
-158.429 -67.6291 -666.588 -0.993354 0.0717083 -0.0900324
-158.381 -67.3327 -666.989 -0.995283 0.071382 -0.0656993
-158.574 -67.6288 -665.977 -0.928927 0.0736589 -0.362862
-97.1068 -59.3549 -655.374 -0.319244 0.940941 0.112756
-158.51 -67.9659 -666.141 -0.961479 0.0685939 -0.266184
-158.689 -68.5328 -665.401 -0.950876 -0.0762081 0.300045
-136.314 -68.6848 -662.085 -0.149582 -0.11441 0.982108
-131.604 -65.0174 -660.806 -0.403482 0.430346 0.807468
-158.429 -73.9054 -658.02 -0.97019 -0.213722 -0.114258
-158.435 -74.643 -656.753 -0.935796 -0.306421 -0.174333
-158.493 -74.6986 -656.268 -0.851875 -0.499341 -0.158012
-148.873 -71.4868 -657.566 0.851461 -0.10887 0.512993
-158.566 -75.1165 -655.338 -0.897726 -0.269573 -0.348452
-158.378 -75.4654 -655.582 -0.930763 -0.233741 -0.28115
-158.544 -75.5895 -655.062 -0.887748 -0.261724 -0.378688
-158.936 -78.1488 -651.99 -0.941127 -0.222048 -0.254901
-83.1232 -67.5744 -640.755 0.0842058 0.359549 0.929319
-159.855 -80.2209 -648.59 0.109358 -0.98482 0.134798
-159.714 -79.3677 -648.886 -0.627123 0.078372 -0.774968
-159.835 -80.69 -648.311 -0.0350346 0.337255 0.940761
-159.882 -80.5899 -648.858 0.957722 -0.174084 -0.229049
-159.833 -81.0074 -648.214 0.515749 0.124691 0.847617
-160.872 -81.3164 -647.576 0.754345 -0.543357 -0.368411
-161.303 -81.9279 -647.419 -0.0774549 0.430948 0.899046
-50.5473 -87.1155 -604.381 -0.774295 0.609618 -0.169806
-51.4741 -88.4458 -604.013 -0.830022 0.543414 -0.125561
-51.4168 -88.3987 -604.483 -0.813842 0.562942 -0.144072
-51.4703 -89.2649 -603.285 -0.64676 -0.762409 -0.0208438
-51.1758 -99.0642 -589.093 -0.367969 -0.68832 -0.625151
-48.831 -101.209 -585.579 0.741569 -0.650662 -0.163447
-52.1165 -104.615 -582.483 0.394022 -0.859225 -0.326312
-159.745 -66.078 -670.044 -0.605387 -0.50835 0.612443
-71.9191 -57.6668 -653.426 0.166225 0.911089 0.377208
-158.49 -68.0087 -666.248 -0.983298 0.0722715 -0.16704
-158.95 -69.0061 -665.693 -0.768116 0.0290549 0.639652
-158.955 -68.9444 -665.711 -0.818527 0.102637 0.565225
-158.536 -69.2159 -665.271 -0.937241 -0.208401 0.279551
-102.679 -62.5163 -657.03 0.0440657 0.960274 -0.275558
-157.504 -76.7922 -658.694 -0.995957 -0.0867628 0.0232916
-158.421 -74.6512 -656.847 -0.921133 -0.33135 -0.204256
-158.121 -74.9738 -657.067 -0.93362 -0.320838 -0.159425
-71.4768 -62.272 -646.431 0.227854 0.694645 0.682313
-158.336 -75.1698 -655.984 -0.934328 -0.243079 -0.26066
-158.168 -75.5606 -656.259 -0.896656 -0.439024 0.0571477
-158.255 -76.1523 -655.456 -0.933691 -0.219023 -0.283284
-158.898 -77.8536 -652.393 -0.931354 -0.237131 -0.276311
-158.713 -78.2423 -652.665 -0.928306 -0.240932 -0.283196
-76.6038 -68.4972 -641.35 0.146907 0.263052 0.953531
-156.841 -78.6734 -647.1 0.426112 -0.552997 0.715977
-159.836 -81.2863 -648.742 0.974598 0.123364 -0.186924
-159.014 -81.1881 -648.978 -0.892848 -0.228575 -0.388042
-154.291 -80.4758 -648.067 0.393606 0.908287 -0.141733
-154.773 -80.6586 -648.063 -0.997956 0.0567902 -0.0292945
-159.405 -81.2704 -648.152 -0.177472 0.975549 0.129648
-154.303 -80.6921 -647.871 0.346516 -0.113961 0.931096
-158.387 -82.2843 -647.4 -0.410859 -0.101102 0.906076
-160.827 -81.8984 -647.377 -0.0134822 0.43906 0.898356
-161.325 -81.9325 -647.42 -0.106662 0.437143 0.893045
-160.795 -82.4196 -647.135 0.469733 0.29223 0.833038
-160.771 -82.6938 -647.056 0.678303 0.192219 0.709195
-50.8667 -88.1608 -605.015 -0.818348 0.459279 -0.3455
-50.8041 -88.2073 -605.438 0.14205 0.671062 -0.727665
-51.3963 -88.4248 -604.612 -0.752132 0.551418 -0.360882
-51.4632 -89.2452 -603.356 -0.738877 -0.65478 -0.159134
-51.3665 -89.4105 -603.924 -0.555091 -0.822682 0.122752
-50.4437 -97.3776 -592.458 -0.491106 -0.793615 -0.359151
-50.7649 -102.054 -586.41 0.0697094 -0.799679 -0.596367
-55.0809 -107.427 -580.029 0.000456073 -0.994315 0.106482
-57.1435 -105.418 -580.361 -0.527786 -0.604756 -0.596416
-112.278 -61.8873 -666.522 0.281623 0.695693 -0.660832
-159.653 -66.4178 -670.414 0.785979 0.523479 -0.328948
-95.1613 -58.8125 -659.308 -0.446975 0.891033 -0.0792078
-67.9639 -58.4438 -654.092 0.294976 0.880977 0.369958
-158.437 -69.6153 -665.555 -0.969606 -0.239743 0.0488651
-158.136 -75.2661 -656.662 -0.956307 -0.231057 -0.179134
-157.81 -76.3585 -656.763 -0.948452 -0.250205 -0.194518
-158.081 -76.5424 -655.73 -0.935612 -0.211246 -0.28285
-158.53 -78.6313 -652.938 -0.899727 -0.297296 -0.319543
-153.761 -80.3529 -649.091 0.703902 0.206037 0.679758
-154.223 -80.9361 -648.239 0.449247 -0.713019 -0.538313
-159.696 -81.5679 -648.434 0.592305 -0.10635 -0.798664
-159.832 -81.9879 -648.632 0.991736 -0.0331833 -0.123932
-159.184 -81.9413 -648.429 -0.687291 -0.547268 -0.477627
-159.654 -82.2281 -648.24 -0.0559693 0.574394 -0.816663
-97.8612 -76.363 -639.997 -0.195515 -0.415156 0.888493
-160.206 -79.8557 -648.366 0.0347183 -0.297895 0.953967
-160.314 -82.9191 -647.474 0.728027 0.167894 0.664672
-50.2243 -87.8603 -606.621 -0.846577 0.435931 -0.305404
-50.5706 -88.1937 -606.26 -0.955103 0.26194 -0.138438
-50.716 -88.6081 -605.724 -0.574925 0.543422 -0.611681
-51.2623 -89.5505 -604.57 -0.44065 -0.897259 0.0274703
-51.3349 -89.4542 -604.119 -0.553304 -0.827983 0.0911019
-159.565 -66.8196 -670.699 0.69701 0.451769 -0.55685
-158.513 -69.746 -666.27 -0.954682 -0.273641 -0.117057
-66.0668 -62.0984 -648.991 0.406268 0.684636 0.605162
-157.915 -76.9335 -656.005 -0.934813 -0.207991 -0.28786
-158.414 -78.4326 -653.407 -0.873879 -0.33056 -0.356462
-158.48 -78.3347 -653.339 -0.869118 -0.33995 -0.35926
-158.41 -78.8239 -653.072 -0.891715 -0.309473 -0.33026
-158.407 -79.2128 -652.736 -0.913125 -0.270504 -0.305008
-152.243 -76.3784 -653.599 0.882012 -0.0267939 0.470465
-158.404 -79.6049 -652.402 -0.914277 -0.266338 -0.305223
-158.403 -79.6165 -652.392 -0.913651 -0.262232 -0.310607
-160.115 -82.4657 -648.372 0.433345 -0.29848 -0.850366
-159.754 -82.6861 -648.111 0.903837 -0.32426 -0.279167
-158.9 -82.5199 -648.262 -0.596024 -0.79882 -0.0814958
-160.075 -82.9784 -648.193 0.383601 -0.170904 -0.907547
-160.131 -83.1401 -647.626 0.42527 0.188695 0.885178
-160.103 -83.4215 -647.58 0.152171 0.231888 0.960766
-50.081 -88.0553 -607.178 -0.847792 0.303202 -0.435106
-50.5635 -88.8949 -606.149 -0.915971 -0.111007 -0.385585
-50.6314 -89.0647 -605.932 -0.879924 -0.243784 -0.407803
-51.2054 -89.2936 -605.231 0.0331975 -0.960051 -0.27785
-50.9689 -89.6734 -603.889 -0.787373 -0.588814 -0.182598
-50.642 -89.2362 -605.695 -0.704249 -0.659345 -0.263246
-51.2274 -89.5687 -604.814 0.722645 -0.63475 -0.273636
-84.0618 -55.3508 -664.02 -0.122394 0.984877 0.122627
-159.484 -67.3383 -670.821 0.545911 0.282261 -0.788866
-152.831 -63.0912 -670.027 -0.461074 0.609516 -0.644904
-157.297 -68.1561 -670.064 -0.149055 0.1526 -0.976983
-106.298 -62.1269 -662.599 0.548928 0.666269 -0.504741
-158.182 -69.9512 -666.755 -0.671889 -0.249495 -0.697364
-158.192 -69.7433 -666.871 -0.635264 -0.350001 -0.688432
-158.316 -70.1332 -666.541 -0.935497 -0.256877 -0.242612
-158.053 -69.8101 -666.913 -0.787535 -0.190626 -0.586046
-158.172 -70.6998 -665.613 -0.99209 -0.12054 0.0350222
-158.12 -73.3334 -662.508 -0.998783 -0.0450429 0.0201065
-126.905 -68.2895 -657.079 -0.578358 0.0322791 0.815144
-157.738 -77.3232 -656.279 -0.953158 -0.189458 -0.235785
-117.28 -69.2908 -649.256 -0.593911 0.00608582 0.804508
-158.395 -80.0187 -652.083 -0.911756 -0.242344 -0.331619
-158.241 -80.2903 -652.273 -0.92749 -0.221848 -0.30091
-158.352 -80.5879 -651.875 -0.909234 -0.17858 -0.376035
-158.811 -79.4736 -651.294 -0.932361 -0.227063 -0.281327
-158.351 -80.5994 -651.873 -0.911473 -0.183442 -0.368193
-105.485 -72.964 -641.758 -0.462975 -0.154823 0.872745
-160.068 -83.055 -648.179 0.36484 -0.141415 -0.920268
-160.006 -83.6868 -648.053 0.309197 -0.133471 -0.941585
-160.067 -83.8087 -647.489 0.9899 -0.112838 0.0858281
-159.849 -82.2199 -647.909 0.520425 0.0736896 0.850722
-160.095 -84.0057 -647.633 0.772583 -0.00806103 0.634862
-36.0863 -83.4939 -610.749 0.0546805 0.959711 0.275616
-49.0417 -85.7166 -607.098 -0.762034 0.629054 -0.153608
-49.4498 -87.5645 -608.547 -0.945419 0.302922 -0.12009
-49.9734 -88.3866 -607.555 -0.969741 0.13302 -0.204715
-50.0713 -88.6646 -607.195 -0.910876 -0.219679 -0.349351
-50.1209 -88.9613 -606.795 -0.873486 -0.247423 -0.41929
-50.1177 -89.6601 -606.436 -0.870525 -0.306911 -0.384698
-50.6328 -89.2253 -605.774 -0.796605 -0.54524 -0.261025
-159.457 -67.5066 -670.867 0.551041 0.292985 -0.781354
-159.403 -67.851 -670.952 0.557499 0.25343 -0.790549
-99.2297 -61.2 -659.08 -0.554907 0.778435 -0.293456
-157.938 -70.2075 -667.195 -0.965353 -0.257344 -0.0432211
-158.081 -70.1414 -667.332 -0.699512 -0.537251 0.471216
-158.096 -70.3914 -666.986 -0.838606 0.116273 -0.532185
-158.218 -70.8232 -666.418 -0.993126 -0.092721 0.0714399
-158.187 -71.1098 -666.007 -0.997801 -0.0225094 0.0623405
-133.073 -69.3755 -661.111 -0.421711 -0.224287 0.878553
-157.59 -76.882 -657.188 -0.952582 -0.27913 -0.121135
-157.516 -77.1264 -657.361 -0.991974 -0.120371 -0.0387138
-157.601 -77.21 -656.808 -0.91074 -0.197627 -0.362625
-157.607 -77.7186 -656.559 -0.984763 -0.0543645 -0.165186
-157.563 -77.5617 -656.765 -0.974606 0.000971909 -0.223923
-71.1743 -67.3527 -643.001 0.291337 0.423526 0.857758
-158.103 -79.4017 -653.476 -0.941642 -0.221778 -0.25323
-158.067 -79.1068 -653.879 -0.940075 -0.22319 -0.257769
-157.895 -79.4971 -654.153 -0.941085 -0.230954 -0.247022
-158.147 -79.6976 -653.075 -0.937979 -0.220777 -0.267306
-158.193 -79.9939 -652.673 -0.936916 -0.219261 -0.272239
-108.901 -73.0644 -644.148 -0.543673 -0.179435 0.819892
-158.149 -80.981 -652.15 -0.93192 -0.177106 -0.316477
-158.302 -81.1908 -651.691 -0.923653 -0.198035 -0.328095
-158.288 -81.4058 -651.597 -0.960905 -0.269893 0.0617926
-79.1701 -75.1429 -640.59 -0.159758 0.25878 0.952633
-160.002 -83.7284 -648.045 0.902651 -0.237768 -0.35873
-160.003 -84.1005 -647.697 0.847885 -0.055197 0.5273
-49.3809 -87.6988 -608.936 -0.886161 0.38737 -0.254291
-49.3484 -87.7487 -609.132 -0.938281 0.304916 -0.163263
-49.5588 -88.1414 -608.646 -0.936894 0.0399457 -0.347324
-49.8401 -88.4667 -608.277 -0.834476 0.0857191 -0.544336
-49.9822 -88.387 -607.608 -0.296265 0.954754 0.025927
-49.8825 -88.4947 -608.251 -0.58265 0.148322 -0.799074
-49.9127 -88.9832 -607.575 0.650934 -0.279749 0.705709
-47.8656 -97.0595 -597.286 -0.103918 -0.978124 -0.180205
-69.6903 -56.3027 -662.194 0.187264 0.976425 0.10736
-153.688 -68.9927 -672.691 -0.518912 -0.0238412 -0.854495
-158.906 -68.0927 -670.649 0.788797 0.0459362 -0.612935
-158.854 -68.6886 -670.483 0.502394 -0.0363993 -0.863872
-158.808 -68.6937 -670.461 0.354199 -0.0918179 -0.930652
-158.37 -68.7528 -670.244 0.359783 -0.393006 -0.846228
-101.994 -65.4623 -660.88 -0.0745404 0.62162 -0.779764
-158.154 -71.4143 -665.608 -0.999644 -0.0248787 -0.00960206
-158.159 -71.7663 -665.245 -0.999435 0.0235851 0.0239497
-158.203 -72.1044 -665.492 -0.999144 0.0201274 0.0361355
-158.148 -72.388 -665.077 -0.949373 -0.298009 -0.0994027
-158.198 -72.6847 -664.676 -0.936314 0.325678 0.131338
-158.219 -72.9778 -664.272 -0.970859 0.218266 0.0989556
-157.512 -77.6131 -657.096 -0.991668 0.103143 -0.0771763
-157.545 -78.1227 -656.848 -0.682397 -0.453688 0.573151
-157.878 -79.2046 -654.558 -0.94261 -0.239578 -0.232571
-157.7 -79.5942 -654.832 -0.934618 -0.222617 -0.277363
-158.062 -81.6724 -652.029 -0.940959 -0.157949 -0.299412
-106.332 -78.3753 -645.626 -0.392063 -0.722899 0.56895
-158.127 -81.9709 -651.63 -0.946209 -0.200759 -0.25374
-61.588 -68.1811 -640.733 -0.15611 0.908999 0.386458
-49.471 -88.2517 -609.34 -0.989245 -0.07549 -0.125282
-49.8603 -88.9416 -608.004 -0.342409 -0.673924 -0.654662
-49.6104 -89.131 -607.939 -0.825979 -0.462168 -0.322737
-39.2677 -87.0702 -606.852 0.481959 0.283247 0.829148
-135.083 -58.7693 -674.328 0.0736264 0.925811 -0.370747
-143.382 -61.7162 -674.754 -0.341217 0.778474 -0.52683
-130.024 -60.5554 -673.864 0.362607 0.801149 -0.476107
-157.877 -68.9264 -669.971 0.167533 -0.242618 -0.955546
-157.816 -69.5096 -669.886 0.188143 -0.198711 -0.96183
-157.925 -70.5823 -668.083 -0.825127 -0.544746 -0.14972
-157.813 -70.7249 -668.181 -0.749678 -0.547951 -0.371125
-157.88 -70.5505 -668.446 -0.710367 -0.656979 -0.252503
-158.397 -73.7019 -664.186 -0.987217 0.0280619 0.156891
-118.407 -73.4798 -651.765 -0.585447 -0.509114 0.630916
-157.593 -78.8307 -656.745 -0.994946 0.100374 0.00280484
-150.817 -78.0792 -654.855 0.922016 0.286716 0.260154
-157.55 -79.9873 -655.109 -0.968684 -0.239166 -0.0667183
-151.179 -79.1651 -653.613 0.770267 0.261687 0.581557
-150.991 -79.4646 -653.821 0.962872 0.0728215 0.25995
-157.314 -80.9657 -655.031 -0.995979 -0.0334835 0.0830996
-151.129 -79.7712 -653.432 0.813078 0.291445 0.503948
-151.129 -79.773 -653.431 0.826983 0.29307 0.479801
-151.247 -80.0772 -653.041 0.83899 0.245966 0.485383
-157.599 -81.6023 -653.423 -0.935137 -0.168222 -0.311802
-61.2614 -70.3368 -637.831 -0.0730948 0.791344 0.606986
-70.6045 -73.6191 -637.065 -0.371079 0.733143 0.569914
-152.178 -83.3521 -649.874 0.855301 -0.175059 0.487662
-58.7397 -72.103 -635.527 -0.0528092 0.780192 0.623307
-34.153 -86.2541 -607.355 -0.0111947 0.451018 0.892445
-85.6874 -56.1218 -672.053 -0.317912 0.910435 -0.26465
-78.9674 -55.8253 -662.3 -0.0162872 0.986769 0.161311
-150.875 -67.0632 -674.187 -0.477223 0.172428 -0.8617
-90.9623 -58.3712 -670.399 -0.563276 0.755848 -0.333788
-74.0865 -55.7382 -661.896 0.0713379 0.992926 0.0949142
-66.682 -57.5874 -658.529 0.263773 0.940973 0.212116
-157.324 -69.518 -669.756 -0.330341 -0.26386 -0.90623
-157.296 -70.0191 -669.5 -0.622117 -0.439873 -0.647674
-157.29 -70.4216 -669.173 -0.649397 -0.318872 -0.690365
-157.862 -70.4932 -668.633 -0.497933 -0.769702 -0.399526
-157.569 -71.1063 -668.446 -0.734127 0.0221571 -0.67865
-136.715 -72.5139 -664.219 -0.154502 -0.725758 0.670376
-142.207 -70.2165 -661.926 0.284774 -0.315166 0.905303
-158.245 -74.3853 -664.055 -0.98834 -0.0759873 0.131946
-158.225 -74.6733 -663.645 -0.972557 0.190277 -0.133897
-148.526 -75.6872 -660.395 0.794303 -0.393481 0.462878
-157.642 -79.1272 -656.344 -0.992222 0.123276 -0.017256
-157.677 -79.422 -655.941 -0.994912 0.0806766 0.0603378
-157.637 -79.7075 -655.528 -0.981943 -0.0858049 0.168601
-62.4013 -66.8844 -645.5 -0.122948 0.903559 0.410445
-150.975 -79.8742 -654.117 0.987709 -0.156243 0.00445848
-157.476 -80.7764 -654.442 0.971907 -0.0146216 0.234912
-157.38 -80.9588 -654.569 -0.957207 -0.25662 -0.133794
-151.128 -79.7752 -653.435 0.972621 -0.0547659 0.225853
-151.032 -80.0338 -653.91 0.976236 -0.0984472 0.193058
-157.483 -81.122 -654.074 -0.709541 -0.500985 -0.495546
-157.467 -81.4976 -653.84 -0.928578 -0.187185 -0.320475
-151.293 -80.7851 -652.937 0.96695 -0.0315004 0.253013
-70.9817 -70.9322 -641.89 -0.0502346 0.616725 0.785574
-86.8554 -74.0206 -639.809 0.101036 -0.160149 0.981908
-154.899 -84.8065 -647.491 0.548592 -0.221118 0.806321
-159.721 -86.1302 -647.917 -0.324371 0.780443 0.534502
-158.907 -85.8819 -646.497 -0.539564 0.00411666 0.841935
-159.706 -86.1271 -648.037 0.00613871 0.99516 0.0980766
-159.908 -86.5006 -647.576 0.506436 0.118948 0.854034
-68.4431 -73.9338 -635.599 -0.227764 0.697109 0.679826
-63.5307 -77.8038 -630.376 -0.145729 0.601303 0.785619
-37.9819 -83.9362 -615.121 -0.0525078 0.948564 -0.3122
-46.5291 -84.6867 -613.513 -0.589488 0.671723 -0.448657
-49.1169 -87.9084 -610.909 -0.854075 0.499072 -0.146571
-49.5521 -88.4695 -610.735 -0.688712 0.63967 0.341318
-49.5388 -88.4086 -610.89 -0.83478 0.549793 -0.0294862
-49.5723 -88.7526 -610.323 -0.434876 0.281 0.855525
-49.2059 -89.0039 -610.11 -0.925126 -0.376722 0.0471398
-49.5906 -88.7994 -610.358 -0.621932 -0.660897 0.420019
-40.4573 -92.1426 -605.786 0.825503 -0.525033 0.207087
-42.7395 -94.5971 -600.892 0.822644 -0.551447 0.138433
-45.8504 -96.7602 -593.65 0.651686 -0.755325 0.0692135
-89.2849 -56.5391 -666.898 -0.35141 0.931146 -0.0973609
-79.6846 -54.7653 -666.594 0.00650315 0.997617 0.0686877
-127.578 -62.3063 -674.439 0.431374 0.595455 -0.677754
-157.358 -71.4919 -668.715 -0.734454 0.0619721 -0.675823
-155.6 -70.8466 -670.567 -0.568993 -0.268845 -0.777155
-63.4293 -59.1518 -657.417 0.450433 0.845549 0.286632
-144.027 -74.2208 -663.791 0.574818 -0.622341 0.531296
-158.484 -75.2124 -663.429 -0.974711 0.0883344 0.20527
-158.452 -75.5612 -663.345 -0.839432 -0.0766855 0.538027
-158.278 -75.6724 -663.135 -0.921479 -0.110876 0.372268
-126.547 -72.2774 -657.815 -0.524233 -0.530231 0.666359
-65.9008 -70.0526 -640.622 -0.291371 0.865372 0.407718
-65.3626 -67.9979 -645.359 0.0379413 0.796289 0.603725
-150.932 -79.9144 -654.761 0.991138 -0.0561723 0.120371
-150.911 -79.9095 -654.923 0.996632 -0.0537226 0.061957
-151.002 -79.973 -654.189 0.985442 -0.169801 0.00850168
-157.343 -81.6564 -654.455 -0.976494 0.165765 0.137776
-112.729 -74.5546 -647.724 -0.5664 -0.444229 0.694156
-157.381 -81.9516 -654.052 -0.989811 -0.0232096 -0.14048
-151.237 -81.1898 -653.227 0.984274 -0.136196 0.112499
-54.521 -68.3764 -641.296 0.246082 0.785063 0.568436
-74.8002 -75.8374 -637.779 -0.434839 0.620543 0.652566
-159.174 -85.9472 -648.378 -0.0226162 -0.999634 0.0148228
-159.102 -86.0748 -648.799 -0.580602 0.76119 -0.288947
-159.83 -85.91 -648.38 0.562898 0.775227 0.286652
-159.666 -86.0058 -648.442 0.461067 0.798158 0.387764
-55.7682 -72.1832 -634.94 0.0474456 0.786115 0.616256
-159.084 -87.2762 -647.956 -0.154399 -0.810335 0.56526
-160.143 -87.137 -647.631 0.187012 -0.521548 0.832475
-157.337 -87.8035 -647.346 0.178971 -0.820607 0.542746
-145.015 -87.0753 -643.005 -0.196975 0.969156 -0.148115
-145.132 -87.1137 -643.038 -0.285569 0.957115 -0.0487984
-145.797 -87.3481 -643.747 -0.298156 0.953583 -0.0422163
-144.533 -86.9702 -642.907 -0.0905881 0.957437 -0.27406
-144.024 -86.9357 -642.946 -0.101539 0.981573 -0.161878
-144.039 -86.9205 -642.849 -0.0713197 0.972906 -0.219926
-146.531 -87.4532 -642.728 -0.366504 0.909134 -0.197864
-146.805 -87.6116 -642.855 -0.415589 0.885334 -0.208491
-146.001 -87.3366 -642.993 -0.270411 0.95528 -0.11966
-146.071 -87.2455 -642.558 -0.322839 0.914714 -0.243049
-144.127 -86.7746 -642.329 -0.062821 0.95795 -0.279975
-65.1042 -75.1655 -633.137 -0.232465 0.70382 0.671266
-29.3108 -84.5486 -609.115 0.0886176 0.815082 0.572527
-22.999 -83.9447 -611.601 0.0882108 0.902306 0.421975
-49.2519 -88.8503 -613.267 -0.951503 0.292472 -0.0954074
-49.609 -88.9229 -611.065 -0.896557 -0.441214 0.0389294
-41.6338 -90.3396 -601.73 0.91595 0.101047 0.388361
-72.6789 -55.5001 -668.416 0.142562 0.989752 -0.00821782
-116.712 -63.4432 -669.463 0.360138 0.582479 -0.72871
-157.136 -71.8743 -668.982 -0.708986 -0.00546828 -0.705201
-157.136 -71.8764 -668.982 -0.655584 -0.023679 -0.754751
-158.093 -76.7317 -662.901 -0.995031 -0.0883999 0.0458094
-158.057 -76.0567 -663.403 -0.934848 -0.178917 -0.306673
-150.327 -78.3249 -656.876 0.95671 -0.191503 0.219165
-150.917 -80.1094 -655.519 0.95687 -0.0405366 0.287673
-157.934 -84.7893 -653.908 -0.782529 0.621357 0.0395367
