ply
format ascii 1.0
element vertex 1683
property float x
property float y
property float z
end_header
0.0838473 0.0215436 0.799354
0.0853641 0.0218457 0.799511
0.0868951 0.0221511 0.799861
0.0884312 0.022458 0.800269
0.0899562 0.0227618 0.800503
0.0914503 0.0230564 0.800309
0.0929461 0.023352 0.800147
0.0944242 0.0236434 0.799762
0.0959254 0.0239402 0.799683
0.0976515 0.0227329 0.798997
0.0974181 0.0242351 0.799504
0.0992187 0.0230466 0.799742
0.0991284 0.0245891 0.80198
0.103084 0.0251348 0.762124
0.104391 0.0253849 0.760617
0.105744 0.0256467 0.759649
0.106875 0.025852 0.756389
0.108335 0.026143 0.756629
0.10978 0.02643 0.75671
0.111234 0.0267191 0.756875
0.112697 0.0270102 0.757118
0.114154 0.0272998 0.757304
0.115623 0.0275933 0.757597
0.117121 0.027893 0.758149
0.11863 0.0281967 0.758793
0.120172 0.0285072 0.759706
0.121688 0.0288119 0.76037
0.123274 0.0291343 0.761623
0.124897 0.0294648 0.763169
0.126513 0.0297941 0.764602
0.128133 0.030124 0.766044
0.129799 0.0304642 0.767826
0.13148 0.0293031 0.767579
0.131453 0.030802 0.769456
0.133179 0.0296485 0.769556
0.133131 0.0311451 0.77124
0.134898 0.0299987 0.771646
0.134821 0.0314914 0.773074
0.136469 0.0318266 0.774526
0.138111 0.0321602 0.775888
0.139719 0.0324858 0.776959
0.0402888 0.0146264 0.821724
0.041729 0.0148723 0.816545
0.0431751 0.0151268 0.812418
0.0446578 0.0154061 0.81048
0.0461319 0.015683 0.808446
0.0476388 0.0159775 0.807911
0.0491412 0.0162703 0.807278
0.0506448 0.0165654 0.80676
0.0521412 0.0168564 0.806058
0.0536349 0.0171469 0.80534
0.0551251 0.0174366 0.804594
0.0566139 0.0177262 0.80387
0.0581084 0.0180181 0.803361
0.0596133 0.0183155 0.803161
0.0611256 0.0186151 0.803156
0.0626383 0.0189149 0.803156
0.0641547 0.0192159 0.803242
0.065667 0.0195156 0.803232
0.0671793 0.0198154 0.803222
0.0686872 0.020114 0.803123
0.0701754 0.020405 0.802638
0.0716595 0.0206952 0.802109
0.0731405 0.0209852 0.801555
0.0746171 0.0212724 0.800947
0.0760876 0.0215586 0.800269
0.0775764 0.0218522 0.799944
0.0790692 0.0221455 0.799697
0.0805575 0.0224386 0.799392
0.0820641 0.0227373 0.799388
0.0835841 0.0230402 0.799589
0.0851056 0.023343 0.799799
0.0866455 0.0236523 0.80027
0.0881881 0.0239614 0.800754
0.0897192 0.0242674 0.801059
0.0912295 0.0245668 0.801065
0.0927216 0.0248613 0.80083
0.0941889 0.0251476 0.800282
0.0956784 0.0254411 0.800038
0.0972823 0.0257681 0.801232
0.0990943 0.0261558 0.804918
0.106955 0.02737 0.759944
0.108186 0.0275969 0.757748
0.109654 0.0278899 0.758034
0.111129 0.0281848 0.758388
0.112603 0.0284799 0.758722
0.114072 0.0287734 0.758989
0.115553 0.0290699 0.759367
0.117066 0.0293747 0.760029
0.118598 0.029685 0.760853
0.120152 0.0300006 0.761852
0.121683 0.0303099 0.762607
0.123283 0.0306369 0.763957
0.124911 0.0309719 0.765517
0.126512 0.0312989 0.766795
0.128124 0.0316286 0.76813
0.12977 0.0319675 0.769719
0.131395 0.0323 0.771078
0.133064 0.0326435 0.772766
0.134756 0.0329929 0.774597
0.136409 0.0333323 0.776066
0.138055 0.0336689 0.777446
0.139678 0.0339992 0.778614
0.0429606 0.016689 0.816227
0.0444116 0.0169424 0.812564
0.0458523 0.0171954 0.808982
0.0473633 0.01749 0.808541
0.0488675 0.0177833 0.80792
0.0503701 0.0180747 0.807301
0.0518645 0.0183631 0.806483
0.0533556 0.0186516 0.805647
0.0548405 0.018937 0.804708
0.0563263 0.0192236 0.803879
0.0578175 0.0195142 0.803268
0.0593186 0.0198084 0.802962
0.0608279 0.0201069 0.802877
0.0623406 0.020407 0.80288
0.0638571 0.0207086 0.802968
0.0653694 0.0210083 0.802958
0.0668817 0.021308 0.802948
0.0683941 0.0216078 0.802938
0.0698872 0.0219003 0.802549
0.0713772 0.0221909 0.802119
0.0728592 0.0224802 0.801571
0.0743409 0.0227685 0.801046
0.0758124 0.0230541 0.800374
0.0773032 0.0233473 0.800067
0.0787982 0.0236413 0.799848
0.0802992 0.0239376 0.799733
0.0818127 0.0242385 0.799821
0.0833394 0.0245443 0.800108
0.0848737 0.0248517 0.800492
0.0864228 0.025164 0.801075
0.0879681 0.0254755 0.801579
0.0895028 0.0257823 0.801906
0.0910285 0.0260872 0.802101
0.0925306 0.0263836 0.801969
0.0940091 0.026673 0.801535
0.095587 0.0269937 0.802388
0.0973174 0.0273626 0.805115
0.0992482 0.0277925 0.810188
0.108557 0.0292093 0.764279
0.109789 0.0294321 0.762049
0.111047 0.0296635 0.760145
0.112542 0.0299653 0.760657
0.114022 0.0302618 0.760998
0.115522 0.0305642 0.761524
0.117036 0.0308703 0.762164
0.118573 0.0311823 0.762993
0.120123 0.0314985 0.763923
0.121666 0.0318129 0.764763
0.12326 0.0321407 0.766026
0.124883 0.0324758 0.767499
0.126475 0.0328029 0.768683
0.128088 0.0331346 0.769991
0.129708 0.0334683 0.771333
0.131324 0.0338007 0.772603
0.132997 0.0341479 0.774301
0.134692 0.0345011 0.776143
0.136361 0.0348468 0.777718
0.138021 0.03519 0.779189
0.139649 0.0355231 0.780367
0.0357636 0.0156054 0.852968
0.033878 0.0168886 0.854695
0.0354756 0.0172062 0.854733
0.0372476 0.0158292 0.845396
0.0370091 0.0174599 0.850222
0.0427697 0.0182839 0.821305
0.0441941 0.0185076 0.816011
0.045607 0.0187321 0.810958
0.0470903 0.0190074 0.809289
0.0485941 0.0192981 0.808582
0.0500954 0.0195883 0.807865
0.0515858 0.0198721 0.806863
0.0530744 0.0201568 0.805905
0.0545538 0.0204382 0.804776
0.0560366 0.0207215 0.803833
0.0575244 0.021009 0.803116
0.0590255 0.0213023 0.802799
0.0605342 0.0216006 0.802697
0.0620473 0.0219007 0.802705
0.0635639 0.0222023 0.802793
0.0650762 0.0225026 0.802781
0.0665884 0.0228021 0.802764
0.0680966 0.0230995 0.802664
0.0695947 0.0233937 0.802371
0.0710903 0.0236866 0.802047
0.0725738 0.0239743 0.801516
0.0740559 0.0242627 0.80099
0.0755325 0.0245488 0.800398
0.0770239 0.024841 0.800091
0.0785204 0.0251362 0.799887
0.0800343 0.0254368 0.799973
0.0815552 0.0257408 0.800169
0.0830892 0.0260485 0.80055
0.0846429 0.0263648 0.801215
0.0862077 0.0266834 0.802005
0.087764 0.0269985 0.802638
0.089321 0.0273138 0.803249
0.0908695 0.0276267 0.80372
0.0923839 0.027927 0.803711
0.0938826 0.0282215 0.803495
0.0955512 0.0285743 0.805469
0.0973766 0.0289782 0.809328
0.0993718 0.0294378 0.815122
0.101246 0.0282414 0.815865
0.101407 0.0299086 0.821173
0.103093 0.0286422 0.819547
0.103246 0.0303113 0.824661
0.105148 0.0307332 0.828748
0.10897 0.0308582 0.771291
0.109954 0.0309991 0.766391
0.110976 0.0311535 0.762032
0.112485 0.0314591 0.762643
0.113967 0.0317568 0.762976
0.115471 0.0320611 0.763499
0.116988 0.0323687 0.764134
0.118529 0.032684 0.764975
0.120081 0.0330011 0.765891
0.121619 0.0333147 0.766646
0.123204 0.0336415 0.767808
0.124799 0.0339712 0.769015
0.126382 0.0342971 0.770087
0.127996 0.0346311 0.771395
0.129609 0.0349655 0.772661
0.13123 0.0353002 0.773949
0.132928 0.0356579 0.775836
0.134639 0.0360184 0.777783
0.136325 0.0363718 0.779473
0.138014 0.0367244 0.781141
0.139645 0.0370613 0.782325
0.0258945 0.0153122 0.855321
0.0255798 0.0168883 0.854946
0.0271744 0.0171935 0.854111
0.0290845 0.0159338 0.854312
0.0287687 0.017505 0.853737
0.0303635 0.0178197 0.853582
0.0322797 0.01657 0.854553
0.0319623 0.0181403 0.853914
0.0335583 0.0184567 0.853888
0.0351537 0.0187724 0.853815
0.0367199 0.0190554 0.851648
0.0385335 0.0177163 0.846081
0.038279 0.0193363 0.849473
0.0439739 0.0200847 0.819438
0.0453624 0.0202786 0.813031
0.0468195 0.0205307 0.810158
0.0483255 0.0208205 0.80945
0.049826 0.0211074 0.808628
0.0513146 0.0213879 0.8075
0.052799 0.0216682 0.80636
0.0542734 0.0219433 0.805027
0.0557506 0.0222217 0.803899
0.0572381 0.0225073 0.80315
0.0587394 0.0228007 0.802822
0.0602488 0.023099 0.802726
0.0617625 0.0233995 0.80274
0.0632792 0.0237011 0.802818
0.0647874 0.0239988 0.802703
0.0662953 0.0242963 0.802587
0.0677989 0.0245921 0.80239
0.0693021 0.0248873 0.802196
0.0708038 0.0251821 0.801984
0.072294 0.0254723 0.801569
0.073782 0.0257625 0.80114
0.0752635 0.0260494 0.800618
0.0767599 0.0263431 0.800384
0.0782631 0.0266393 0.800272
0.0797847 0.026944 0.80047
0.0813141 0.0272514 0.800779
0.082863 0.027566 0.801373
0.0844329 0.0278883 0.802254
0.086014 0.0282145 0.80326
0.0875872 0.028537 0.804101
0.0891665 0.0288618 0.804991
0.0907466 0.0291859 0.80585
0.0922818 0.0294931 0.806068
0.0938599 0.0298161 0.806841
0.0956223 0.0302044 0.80995
0.0975124 0.0306372 0.814542
0.0995214 0.0311106 0.820417
0.101515 0.0315754 0.825869
0.103461 0.0320203 0.830553
0.105215 0.0323969 0.83281
0.111071 0.0327043 0.765602
0.112375 0.032944 0.764118
0.113863 0.0332434 0.764477
0.115379 0.0335525 0.765095
0.116908 0.0338648 0.765823
0.118462 0.0341852 0.766755
0.12001 0.0345023 0.7676
0.121557 0.0348194 0.768417
0.123135 0.0351452 0.769474
0.124702 0.0354681 0.770416
0.126266 0.0357896 0.771304
0.12788 0.0361264 0.772599
0.129508 0.0364665 0.773969
0.131158 0.0368122 0.775477
0.132881 0.0371807 0.777558
0.13462 0.0375533 0.779706
0.136321 0.0379126 0.781494
0.138005 0.0382669 0.783104
0.139631 0.0386041 0.784214
0.0252652 0.0184642 0.854592
0.0268598 0.0187666 0.853693
0.0284538 0.0190776 0.853284
0.0300488 0.0193913 0.853161
0.0316448 0.0197098 0.853245
0.0332373 0.0200199 0.852914
0.0348281 0.0203311 0.852553
0.0364105 0.0206317 0.851652
0.0379898 0.0209315 0.850732
0.0397673 0.0195573 0.843592
0.0395116 0.0211733 0.846569
0.0451389 0.0218505 0.816067
0.046572 0.0220758 0.81198
0.0480609 0.0223497 0.810499
0.0495607 0.0226335 0.809563
0.0510452 0.0229088 0.808225
0.0525252 0.0231833 0.806882
0.0539948 0.0234518 0.805349
0.0554724 0.0237292 0.804199
0.0569579 0.0240111 0.803361
0.0584605 0.0243049 0.803045
0.0599714 0.024603 0.802962
0.0614897 0.0249056 0.803065
0.0630037 0.0252056 0.80306
0.0645117 0.0255031 0.802922
0.0660198 0.0258001 0.802793
0.0675239 0.0260955 0.802587
0.0690282 0.0263909 0.802399
0.0705313 0.0266857 0.802196
0.0720231 0.0269757 0.801795
0.0735126 0.0272651 0.801376
0.0749949 0.0275521 0.800853
0.0764922 0.027845 0.800615
0.0779962 0.0281416 0.800504
0.0795189 0.0284464 0.800707
0.0810559 0.0287575 0.801125
0.0826304 0.0290833 0.802103
0.0842351 0.0294218 0.803494
0.0858478 0.0297625 0.804933
0.0874519 0.0300986 0.806181
0.0890618 0.030436 0.807451
0.0906613 0.0307683 0.808519
0.0922537 0.0310972 0.809444
0.0938971 0.031446 0.811003
0.0957358 0.0318684 0.815019
0.0976893 0.0323316 0.82032
0.0996508 0.032795 0.825504
0.101558 0.0332357 0.829819
0.10339 0.0336452 0.833072
0.105014 0.0339776 0.83377
0.106572 0.0326362 0.830453
0.106512 0.0342633 0.833003
0.107527 0.0327392 0.823672
0.107775 0.0344649 0.829613
0.111356 0.0343344 0.771125
0.112418 0.0344871 0.767128
0.113716 0.034722 0.765571
0.115262 0.0350411 0.766461
0.116816 0.035363 0.767401
0.118376 0.0356859 0.768357
0.119936 0.036009 0.769297
0.121485 0.0363282 0.770103
0.123046 0.0366505 0.770988
0.124594 0.0369678 0.77174
0.126169 0.0372945 0.772695
0.127786 0.0376335 0.773999
0.129431 0.0379808 0.775492
0.131108 0.0383387 0.777211
0.132849 0.038715 0.77941
0.134604 0.0390958 0.781661
0.13633 0.0394661 0.783625
0.138022 0.0398252 0.785263
0.139639 0.0401604 0.786289
0.023354 0.0198409 0.861558
0.0249507 0.0200389 0.854199
0.0265449 0.0203383 0.853185
0.0281382 0.0206452 0.852645
0.0297325 0.02096 0.852535
0.0313274 0.0212761 0.852524
0.0329182 0.0215844 0.852093
0.0345045 0.0218884 0.851413
0.0360826 0.0221829 0.850264
0.0376566 0.0224758 0.849094
0.0392004 0.022738 0.846325
0.0409676 0.0213613 0.839586
0.0406839 0.0229416 0.840721
0.042379 0.0215248 0.831507
0.0421147 0.0231072 0.833381
0.044912 0.0234318 0.819042
0.046322 0.0236266 0.81376
0.0477913 0.0238799 0.811383
0.049292 0.0241617 0.810408
0.0507702 0.0244292 0.808777
0.0522452 0.0246959 0.807212
0.0537124 0.0249601 0.805564
0.0551908 0.0252354 0.804403
0.0566745 0.0255147 0.803487
0.0581818 0.0258104 0.80328
0.0596981 0.0261111 0.803309
0.0612179 0.0264145 0.803426
0.0627326 0.026715 0.803412
0.0642415 0.0270111 0.803265
0.0657501 0.0273084 0.803126
0.0672508 0.0276018 0.802831
0.06876 0.0278993 0.802725
0.070264 0.0281935 0.802519
0.0717568 0.0284834 0.802115
0.0732475 0.0287723 0.801698
0.0747366 0.0290611 0.801276
0.0762363 0.0293543 0.801059
0.0777471 0.0296538 0.801044
0.0792769 0.029962 0.80134
0.0808539 0.0302919 0.802381
0.0824695 0.0306375 0.803968
0.0841144 0.0309949 0.805922
0.0857615 0.0313524 0.807813
0.0874037 0.0317051 0.809542
0.0890206 0.0320471 0.810835
0.0906278 0.0323829 0.81193
0.0922652 0.0327311 0.813388
0.0939662 0.0331047 0.815626
0.0958583 0.033554 0.820245
0.0977572 0.0340032 0.824758
0.0996423 0.0344438 0.828916
0.101442 0.034848 0.831869
0.103171 0.0352225 0.833847
0.104688 0.0355144 0.833275
0.106177 0.035796 0.832409
0.107654 0.0360726 0.831425
0.109017 0.0346612 0.826108
0.109136 0.0363528 0.830538
0.111589 0.0359645 0.776152
0.112404 0.0360211 0.769593
0.113497 0.0361801 0.765974
0.115073 0.0365111 0.767143
0.116658 0.0368448 0.768355
0.118232 0.0371746 0.769436
0.119816 0.0375071 0.770572
0.121396 0.0378376 0.771639
0.122979 0.0381687 0.772707
0.124532 0.0384889 0.77347
0.126129 0.0388239 0.774599
0.127771 0.0391726 0.776077
0.129432 0.0395283 0.777686
0.131119 0.0398907 0.779453
0.132866 0.0402735 0.781679
0.134612 0.0406537 0.783828
0.13633 0.0410245 0.785693
0.138013 0.0413837 0.787243
0.139626 0.041718 0.788198
0.0214258 0.0211292 0.862435
0.0230388 0.0213148 0.854881
0.0246364 0.0216148 0.853899
0.0262302 0.0219094 0.85269
0.0278234 0.0222153 0.85215
0.0294174 0.0225297 0.852038
0.0310111 0.0228437 0.851924
0.0326005 0.0231491 0.851391
0.0341852 0.0234494 0.850595
0.0357586 0.0237358 0.849128
0.037328 0.0240221 0.847714
0.038887 0.0242996 0.845941
0.0403937 0.0245197 0.84155
0.0418458 0.0246939 0.835098
0.0435222 0.0232699 0.826084
0.0432793 0.024866 0.828764
0.0446885 0.02503 0.82227
0.0460883 0.0252001 0.816257
0.0475409 0.0254309 0.813033
0.0490365 0.0257056 0.811751
0.0505221 0.0259731 0.81026
0.0519895 0.0262299 0.808343
0.0534528 0.0264874 0.806494
0.0549295 0.0267576 0.805213
0.0564108 0.0270328 0.804173
0.0579004 0.0273153 0.803443
0.0594239 0.0276217 0.803649
0.0609451 0.0279256 0.803772
0.0624648 0.0282283 0.803852
0.0639797 0.0285277 0.803816
0.0654943 0.0288272 0.803774
0.0669928 0.0291184 0.803399
0.068503 0.0294153 0.803283
0.0700072 0.0297094 0.803055
0.0715005 0.029998 0.802633
0.0729925 0.0302873 0.802216
0.0744891 0.0305777 0.801899
0.0760065 0.0308797 0.801966
0.0775319 0.0311865 0.802167
0.07907 0.031498 0.802565
0.0806858 0.0318475 0.804195
0.0823441 0.0322158 0.806407
0.0840182 0.0325896 0.808752
0.0856953 0.0329623 0.811022
0.0873693 0.0333317 0.81314
0.0889913 0.033676 0.814418
0.0906118 0.0340182 0.815616
0.0922735 0.0343787 0.817323
0.0939996 0.0347651 0.81981
0.0958432 0.0352001 0.823721
0.097663 0.0356219 0.827164
0.099458 0.0360315 0.830157
0.101169 0.0364027 0.832
0.102816 0.0367471 0.833005
0.104335 0.0370393 0.83246
0.105825 0.0373197 0.831604
0.107293 0.037592 0.83053
0.108772 0.0378683 0.829614
0.11013 0.0364503 0.824363
0.109997 0.0380469 0.825959
0.113988 0.0379049 0.773375
0.115378 0.0381671 0.772621
0.116794 0.0384397 0.772141
0.118216 0.0387141 0.77172
0.119815 0.0390526 0.772964
0.121403 0.0393872 0.774073
0.122997 0.0397234 0.775185
0.124556 0.0400468 0.775969
0.126158 0.0403848 0.777109
0.127786 0.0407306 0.778433
0.129454 0.041091 0.780065
0.131134 0.041454 0.781744
0.132884 0.0418403 0.78396
0.13462 0.0422208 0.786
0.136328 0.0425902 0.787765
0.0195184 0.0222955 0.856566
0.021123 0.0225926 0.855457
0.0227243 0.0228866 0.854285
0.0243217 0.0231847 0.853305
0.0259155 0.0234773 0.85209
0.0275081 0.0237824 0.851535
0.029101 0.0240941 0.851306
0.0306932 0.0244053 0.851086
0.0322818 0.0247102 0.850551
0.0338658 0.0250086 0.849756
0.0354387 0.0252924 0.848286
0.0370064 0.0255733 0.846774
0.0385599 0.0258414 0.844687
0.0400816 0.0260745 0.841171
0.0415525 0.0262573 0.835593
0.0430069 0.0264392 0.830105
0.0444378 0.0266122 0.824374
0.0458659 0.0267963 0.819298
0.0473179 0.0270169 0.815806
0.0488157 0.0272863 0.8144
0.0503095 0.0275552 0.813011
0.0517822 0.0278108 0.811092
0.0532507 0.0280659 0.80923
0.0547226 0.028326 0.807643
0.0561968 0.0285927 0.806275
0.0576737 0.0288622 0.805094
0.0591891 0.0291612 0.805006
0.0606978 0.0294558 0.804758
0.0622163 0.0297571 0.804761
0.0637294 0.0300544 0.804638
0.0652425 0.0303523 0.804524
0.0667387 0.0306396 0.804059
0.0682455 0.0309351 0.803846
0.0697506 0.0312279 0.803604
0.0712547 0.0315218 0.803364
0.0727587 0.0318161 0.803136
0.0742738 0.0321161 0.803119
0.0758156 0.0324312 0.803576
0.0773624 0.0327473 0.804088
0.0789119 0.0330652 0.804618
0.0805582 0.0334321 0.806688
0.0822494 0.0338188 0.809357
0.0839426 0.0342052 0.811925
0.0856313 0.034586 0.814297
0.0873213 0.0349653 0.816573
0.0889471 0.0353122 0.817823
0.0905746 0.0356587 0.819042
0.0922577 0.0360299 0.820963
0.0940002 0.0364265 0.823593
0.0957783 0.0368368 0.826576
0.0975168 0.0372277 0.828928
0.0992257 0.0376027 0.830809
0.100859 0.0379437 0.831691
0.102438 0.0382601 0.831869
0.103964 0.038555 0.831435
0.105463 0.0388369 0.830686
0.106938 0.0391111 0.829703
0.108408 0.039383 0.828701
0.10985 0.0396437 0.827413
0.110989 0.0381367 0.81994
0.111075 0.0398173 0.82385
0.114559 0.0396874 0.781606
0.115774 0.0398778 0.779015
0.117012 0.0400796 0.776724
0.118272 0.0402895 0.774701
0.119901 0.040641 0.776174
0.121487 0.0409766 0.77722
0.123079 0.0413126 0.778272
0.124647 0.0416395 0.779083
0.126246 0.0419765 0.78015
0.127858 0.0423188 0.781291
0.129518 0.0426781 0.782817
0.131168 0.0430323 0.784212
0.132899 0.0434144 0.786234
0.134614 0.04379 0.788069
0.136312 0.0441598 0.789731
0.0178375 0.0222434 0.871079
0.0158869 0.0235382 0.871403
0.0175583 0.0237063 0.863667
0.0192041 0.0238719 0.85605
0.0208089 0.0241659 0.854924
0.02241 0.0244587 0.853752
0.0240072 0.0247539 0.852684
0.0256008 0.025044 0.851467
0.0271931 0.0253474 0.850893
0.0287845 0.025656 0.850533
0.0303754 0.0259641 0.85021
0.0319631 0.0262672 0.849666
0.0335464 0.0265655 0.848882
0.0351194 0.0268461 0.847439
0.0366853 0.0271236 0.845844
0.0382351 0.0273821 0.84354
0.0397702 0.0276295 0.840825
0.04126 0.0278258 0.836164
0.0427374 0.0280235 0.831644
0.0441941 0.0282124 0.826869
0.0456524 0.0284149 0.822802
0.0471096 0.0286289 0.819224
0.0486133 0.0288973 0.8178
0.0501141 0.0291657 0.816435
0.0515917 0.0294167 0.814447
0.0530646 0.0296685 0.812523
0.0545324 0.0299192 0.810627
0.0559936 0.0301691 0.808722
0.0574583 0.0304246 0.807079
0.0589679 0.0307176 0.806746
0.0604708 0.0310048 0.806267
0.0619884 0.031304 0.806178
0.063508 0.0316052 0.806146
0.0650245 0.0319036 0.806042
0.0665229 0.0321908 0.805557
0.0680277 0.0324823 0.805238
0.0695303 0.032773 0.804893
0.0710337 0.0330643 0.804585
0.0725427 0.0333605 0.804406
0.0740666 0.0336639 0.804502
0.075618 0.0339841 0.80508
0.0771795 0.0343094 0.805801
0.0787467 0.0346367 0.806576
0.0804279 0.035024 0.809162
0.0821439 0.0354285 0.812169
0.0838545 0.0358259 0.814937
0.0855527 0.0362149 0.817382
0.0872511 0.0366007 0.819711
0.0888747 0.0369467 0.820855
0.0905026 0.0372941 0.822007
0.0921963 0.0376723 0.82401
0.0938934 0.03805 0.825968
0.0956064 0.0384336 0.828051
0.09727 0.038792 0.82941
0.0989107 0.0391395 0.830428
0.100483 0.0394536 0.830552
0.102059 0.0397703 0.830724
0.103592 0.0400667 0.830383
0.105099 0.0403518 0.829741
0.106575 0.040625 0.828784
0.108046 0.0408955 0.827796
0.109487 0.0411543 0.826509
0.110915 0.0414084 0.825138
0.111865 0.0398181 0.815805
0.111955 0.0414999 0.819689
0.117451 0.0418242 0.783459
0.118532 0.0419577 0.779632
0.120012 0.042252 0.779639
0.121584 0.0425818 0.780499
0.123161 0.0429127 0.78137
0.124731 0.0432408 0.782157
0.126332 0.0435803 0.783192
0.127927 0.0439165 0.784143
0.129558 0.0442662 0.785381
0.131196 0.0446173 0.78663
0.132906 0.0449948 0.788452
0.134593 0.0453631 0.790037
0.136286 0.0457326 0.791628
0.0156714 0.0248546 0.857541
0.0172818 0.0251531 0.856614
0.0188906 0.0254443 0.855386
0.020495 0.0257364 0.85425
0.0220958 0.0260278 0.853087
0.0236929 0.0263183 0.851945
0.0252861 0.0266067 0.85073
0.0268777 0.0269086 0.850131
0.0284682 0.0272132 0.849669
0.0300579 0.0275213 0.849331
0.0316448 0.0278243 0.848798
0.0332277 0.0281201 0.848023
0.0348013 0.0284017 0.846683
0.036366 0.0286738 0.845016
0.0379125 0.0289234 0.842503
0.0394466 0.0291649 0.839746
0.0409512 0.0293753 0.835884
0.0424445 0.0295842 0.832081
0.0439235 0.0297896 0.828203
0.0454106 0.0300163 0.825203
0.0468933 0.0302466 0.822419
0.0484043 0.0305145 0.821034
0.0499173 0.030789 0.819885
0.0514073 0.0310426 0.818084
0.0528884 0.0312938 0.816197
0.0543572 0.0315377 0.814121
0.0558164 0.0317785 0.811966
0.0572739 0.0320209 0.809953
0.0587756 0.0323035 0.809271
0.0602667 0.0325795 0.808384
0.0617829 0.0328749 0.808165
0.0633019 0.0331725 0.808027
0.0648128 0.0334652 0.807718
0.066318 0.0337546 0.807309
0.0678342 0.0340522 0.807158
0.0693413 0.0343433 0.806828
0.0708491 0.0346357 0.806536
0.0723674 0.0349352 0.806459
0.0738909 0.0352379 0.80648
0.0754464 0.0355603 0.807071
0.0770287 0.035897 0.808089
0.0786235 0.0362405 0.809261
0.0803337 0.0366477 0.812257
0.0820613 0.0370613 0.815373
0.0837618 0.0374566 0.81791
0.0854434 0.0378379 0.820031
0.0871177 0.0382141 0.821945
0.088727 0.0385538 0.82283
0.0903542 0.0389016 0.823925
0.0920176 0.0392668 0.825469
0.0936832 0.0396313 0.826974
0.0953545 0.0399976 0.828488
0.0969685 0.0403332 0.829197
0.0985678 0.0406617 0.829692
0.100137 0.0409754 0.829795
0.101696 0.0412844 0.829774
0.103222 0.0415775 0.829347
0.104727 0.0418614 0.828706
0.106203 0.0421325 0.827753
0.107674 0.0424012 0.826767
0.109124 0.0426621 0.825596
0.11056 0.0429178 0.824318
0.111815 0.0430943 0.821149
0.112975 0.0415866 0.814215
0.113062 0.0432706 0.818005
0.11398 0.0416707 0.808779
0.114313 0.0434508 0.815019
0.1164 0.0417057 0.78769
0.117914 0.0436041 0.790458
0.118847 0.0436675 0.785114
0.120163 0.0438921 0.783508
0.12169 0.0442027 0.783875
0.123247 0.0445266 0.784522
0.124809 0.0448512 0.785184
0.126383 0.0451816 0.785941
0.12796 0.0455114 0.786692
0.129571 0.0458536 0.787719
0.1312 0.0462033 0.788867
0.132893 0.0465763 0.790514
0.134574 0.0469441 0.79202
0.13626 0.0473134 0.793529
0.0107447 0.0240815 0.866446
0.00889524 0.0252268 0.860099
0.0105158 0.0255271 0.859236
0.012444 0.0242515 0.859183
0.0121314 0.0258314 0.858559
0.0140577 0.0245568 0.858486
0.0137464 0.0261303 0.857727
0.0153601 0.0264257 0.856687
0.0169706 0.0267199 0.855654
0.0185788 0.0270078 0.85442
0.0201822 0.0273004 0.853381
0.0217823 0.0275907 0.852234
0.023379 0.0278789 0.851107
0.0249718 0.0281679 0.849994
0.0265629 0.0284684 0.849389
0.0281521 0.0287702 0.848831
0.0297411 0.029078 0.848503
0.0313274 0.0293794 0.847973
0.0329095 0.0296741 0.847193
0.0344827 0.029953 0.845855
0.0360456 0.0302198 0.844079
0.0375888 0.0304596 0.841369
0.0391221 0.030696 0.838596
0.0406409 0.0309216 0.835522
0.0421505 0.0311473 0.832493
0.0436521 0.0313719 0.829537
0.0451666 0.0316247 0.82758
0.0466747 0.0318752 0.825605
0.0481925 0.032143 0.82425
0.0497169 0.0324219 0.823288
0.0512159 0.0326779 0.821578
0.0527028 0.0329261 0.819658
0.0541753 0.033164 0.817484
0.0556376 0.0333994 0.815226
0.0570958 0.0336354 0.813057
0.0585911 0.033907 0.812054
0.0600788 0.0341754 0.810943
0.0615944 0.0344678 0.810599
0.0631098 0.0347595 0.810269
0.0646157 0.0350459 0.809756
0.0661331 0.0353413 0.809525
0.0676584 0.0356422 0.809475
0.0691803 0.035942 0.809362
0.0707075 0.036245 0.809358
0.0722347 0.0365474 0.809352
0.0737559 0.0368463 0.809235
0.0753141 0.037169 0.809787
0.0769013 0.0375091 0.810812
0.0785087 0.0378594 0.812117
0.080214 0.0382674 0.814965
0.0819326 0.0386794 0.817874
0.0836096 0.039064 0.819985
0.0852591 0.0394303 0.821572
0.0868972 0.0397881 0.822912
0.0885083 0.0401289 0.823795
0.0901367 0.0404786 0.824882
0.0917879 0.0408397 0.826237
0.0934386 0.0411981 0.827522
0.0950854 0.0415544 0.828702
0.0966668 0.0418747 0.828981
0.0982345 0.0421878 0.829076
0.0997947 0.0424972 0.829073
0.101338 0.0427979 0.82886
0.102861 0.0430895 0.828426
0.104373 0.0433756 0.827872
0.105848 0.0436454 0.826913
0.107319 0.0439133 0.825939
0.108776 0.0441753 0.824853
0.110222 0.0444333 0.823677
0.111665 0.0446909 0.822517
0.113114 0.0449523 0.821459
0.114571 0.0452192 0.820521
0.116136 0.0435277 0.802565
0.116759 0.0454317 0.811482
0.117567 0.0454171 0.804374
0.11916 0.0453959 0.790601
0.12036 0.0455661 0.787814
0.121812 0.0458441 0.787428
0.123314 0.0461449 0.787522
0.124858 0.0464618 0.787976
0.126405 0.0467809 0.78845
0.127957 0.0471009 0.78895
0.129552 0.0474372 0.789799
0.131174 0.047786 0.79086
0.132848 0.0481532 0.792327
0.134524 0.0485214 0.79377
0.136201 0.0488888 0.79518
0.00716773 0.0250623 0.867389
0.00521001 0.0263625 0.868057
0.00695791 0.0265111 0.860504
0.00857886 0.0268141 0.859798
0.0102011 0.0271102 0.858817
0.0118171 0.0274121 0.858121
0.013433 0.0277085 0.857177
0.0150477 0.0279987 0.85603
0.0166593 0.028286 0.854789
0.0182667 0.0285732 0.853563
0.0198695 0.0288641 0.852532
0.0214693 0.0291512 0.851401
0.0230652 0.029439 0.850284
0.0246578 0.0297308 0.849361
0.0262485 0.0300308 0.84877
0.0278369 0.0303293 0.848124
0.0294256 0.0306356 0.847804
0.0310112 0.0309366 0.847267
0.032592 0.0312262 0.846378
0.0341645 0.0315029 0.845029
0.0357243 0.0317601 0.843035
0.0372669 0.0319954 0.840317
0.0387998 0.0322267 0.837539
0.0403277 0.0324621 0.83498
0.0418467 0.032696 0.832406
0.043365 0.0329397 0.830197
0.0448961 0.0332086 0.828862
0.0464239 0.0334778 0.827574
0.0479517 0.0337509 0.82644
0.0494779 0.034027 0.82539
0.0509885 0.0342879 0.823917
0.052486 0.0345395 0.82218
0.0539653 0.0347767 0.820055
0.0554347 0.0350104 0.817845
0.0569118 0.0352568 0.816052
0.0584063 0.0355225 0.81488
0.0598959 0.0357863 0.813677
0.0614084 0.0360726 0.813134
0.0629237 0.0363611 0.812693
0.0644296 0.036644 0.812074
0.065956 0.0369436 0.811949
0.067488 0.0372475 0.811945
0.0690221 0.0375525 0.811984
0.0705592 0.0378606 0.812086
0.0720938 0.0381657 0.812124
0.0736225 0.0384666 0.812054
0.0751796 0.0387868 0.812495
0.0767761 0.039133 0.813604
0.0783893 0.0394876 0.814931
0.0800717 0.0398838 0.817329
0.0817572 0.0402797 0.819651
0.0834061 0.0406495 0.821279
0.0850228 0.0409972 0.82233
0.0866285 0.0413382 0.823171
0.0882454 0.0416842 0.82413
0.0898608 0.0420278 0.825024
0.0915041 0.0423862 0.826263
0.0931462 0.0427424 0.827431
0.0947781 0.0430921 0.828411
0.0963377 0.0434005 0.828408
0.0979039 0.0437143 0.828492
0.0994629 0.0440233 0.828482
0.100997 0.0443194 0.828171
0.10252 0.0446099 0.827728
0.104022 0.0448904 0.827061
0.105496 0.045157 0.826092
0.106949 0.0454149 0.824934
0.108406 0.0456755 0.823847
0.109851 0.0459319 0.822679
0.111292 0.0461874 0.821509
0.112741 0.0464467 0.820452
0.114195 0.0467096 0.819489
0.11585 0.0454055 0.817801
0.115591 0.0469467 0.817969
0.116629 0.0470205 0.812917
0.117571 0.0470548 0.807083
0.119371 0.0470994 0.795155
0.120479 0.0472219 0.79142
0.121883 0.0474762 0.790532
0.123349 0.0477601 0.79024
0.124866 0.0480655 0.790419
0.126398 0.048377 0.790709
0.127952 0.048698 0.791197
0.129531 0.049029 0.79188
0.131159 0.0493804 0.792961
0.132816 0.0497427 0.79426
0.134472 0.0501044 0.795499
0.136125 0.0504634 0.796697
0.0033732 0.0262804 0.878852
0.00152586 0.0274485 0.873239
0.00323336 0.0276828 0.869477
0.00501581 0.0278 0.861016
0.00664087 0.0281009 0.860212
0.00826355 0.0284004 0.859408
0.00988782 0.0286905 0.858311
0.0115036 0.0289918 0.857595
0.0131207 0.0292835 0.856547
0.0147352 0.0295722 0.855393
0.0163467 0.0298566 0.854158
0.0179534 0.030144 0.853027
0.0195561 0.0304338 0.851995
0.0211557 0.0307201 0.850882
0.0227516 0.0310055 0.849768
0.0243444 0.0312982 0.848949
0.0259351 0.0315975 0.848364
0.0275232 0.031892 0.847625
0.0291108 0.0321951 0.847197
0.0306952 0.0324914 0.846537
0.0322734 0.0327738 0.845437
0.0338431 0.0330415 0.843883
0.0354007 0.0332922 0.84178
0.0369438 0.0335245 0.839138
0.0384778 0.0337546 0.836472
0.0400092 0.0339929 0.834144
0.0415344 0.0342329 0.831896
0.0430639 0.0344892 0.830204
0.0446032 0.0347671 0.829198
0.0461379 0.0350417 0.828135
0.0476721 0.035319 0.827181
0.0492028 0.0355966 0.826221
0.0507131 0.0358524 0.824661
0.0522135 0.0361018 0.822941
0.0537044 0.0363472 0.821111
0.0551876 0.0365884 0.819222
0.0566797 0.0368435 0.817756
0.0581895 0.0371198 0.816898
0.0596945 0.0373916 0.815979
0.0612112 0.0376782 0.815433
0.0627304 0.0379667 0.814983
0.0642406 0.0382494 0.814363
0.0657756 0.0385524 0.814329
0.0673176 0.0388618 0.814449
0.0688626 0.0391726 0.814617
0.0704062 0.0394825 0.814749
0.0719463 0.0397905 0.814808
0.0734754 0.0400885 0.81465
0.0750256 0.0404034 0.814889
0.0766106 0.0407403 0.815719
0.0782199 0.0410936 0.816923
0.0798752 0.0414745 0.818819
0.0815297 0.0418531 0.820604
0.083157 0.0422109 0.821868
0.084758 0.042551 0.822665
0.0863378 0.042876 0.823102
0.0879479 0.0432192 0.823961
0.0895547 0.0435598 0.824733
0.0911824 0.0439118 0.825763
0.0928163 0.0442655 0.826828
0.0944482 0.0446163 0.827819
0.0960153 0.0449308 0.827923
0.0975898 0.045248 0.828115
0.0991561 0.0455617 0.8282
0.100683 0.0458528 0.827788
0.102196 0.0461373 0.82724
0.103688 0.0464119 0.826458
0.105153 0.0466723 0.825389
0.106606 0.0469279 0.824224
0.108063 0.0471869 0.823145
0.109516 0.0474455 0.822072
0.110958 0.0476992 0.820904
0.112405 0.047956 0.819834
0.113847 0.0482124 0.818752
0.115238 0.0484443 0.817181
0.116378 0.0485581 0.813144
0.117429 0.0486335 0.808366
0.118461 0.0470702 0.800923
0.118444 0.0486955 0.80338
0.119457 0.0487616 0.798538
0.120544 0.0488655 0.794538
0.12191 0.0491008 0.793244
0.123358 0.049374 0.792738
0.124858 0.0496715 0.792723
0.126383 0.0499788 0.79292
0.127942 0.0503024 0.793416
0.129514 0.0506305 0.79401
0.131144 0.050983 0.795068
0.132782 0.0513392 0.796175
0.134413 0.0516913 0.797196
0.00142162 0.0288119 0.863154
0.0030615 0.029102 0.861968
0.00469629 0.0293938 0.860842
0.00632402 0.0296899 0.85992
0.00794861 0.0299851 0.859009
0.00957279 0.0302751 0.857912
0.01119 0.0305718 0.857099
0.0128083 0.0308582 0.855944
0.0144227 0.0311444 0.854798
0.016034 0.0314275 0.853551
0.0176407 0.0317122 0.852415
0.0192428 0.0320028 0.851482
0.0208424 0.0322876 0.850377
0.0224383 0.0325718 0.849267
0.0240309 0.0328665 0.848552
0.0256218 0.0331644 0.847971
0.0272094 0.0334551 0.84713
0.028796 0.0337535 0.846572
0.030379 0.0340438 0.845767
0.0319541 0.0343138 0.844351
0.0335196 0.03457 0.842498
0.0350749 0.0348133 0.840292
0.0366182 0.0350441 0.837745
0.0381531 0.0352733 0.835194
0.0396874 0.0355153 0.833095
0.0412183 0.0357628 0.831178
0.0427522 0.0360229 0.829704
0.044294 0.0363024 0.828814
0.0458292 0.0365766 0.827765
0.047366 0.0368557 0.82691
0.0488997 0.0371352 0.82605
0.0504163 0.0373953 0.824683
0.0519241 0.0376495 0.823177
0.0534261 0.0379022 0.821642
0.0549244 0.0381558 0.820149
0.0564298 0.0384202 0.818992
0.0579511 0.0387029 0.818366
0.0594672 0.0389832 0.81766
0.0609881 0.039269 0.817128
0.0625066 0.0395538 0.816581
0.0640196 0.0398363 0.815952
0.0655621 0.0401438 0.816017
0.0671119 0.0404574 0.816233
0.0686688 0.0407767 0.816581
0.0702259 0.0410951 0.816909
0.0717764 0.0414079 0.817088
0.0733118 0.0417093 0.816974
0.0748632 0.0420232 0.817157
0.07644 0.0423539 0.817776
0.0780384 0.0426994 0.818731
0.0796586 0.0430578 0.819995
0.081275 0.0434119 0.821131
0.082869 0.0437494 0.82185
0.0844438 0.0440736 0.822239
0.0859991 0.0443847 0.822316
0.087602 0.0447254 0.823086
0.0891998 0.0450614 0.823744
0.0908174 0.0454092 0.824653
0.0924478 0.045764 0.825695
0.0940864 0.0461218 0.826799
0.0956694 0.0464453 0.827126
0.09726 0.0467728 0.827537
0.098842 0.0470954 0.827822
0.100368 0.0473856 0.827412
0.101881 0.0476696 0.826856
0.103373 0.0479417 0.826062
0.104837 0.0482004 0.824989
0.106289 0.0484544 0.823817
0.107747 0.0487118 0.822749
0.1092 0.0489682 0.821666
0.110634 0.0492155 0.820416
0.112072 0.0494662 0.819251
0.113505 0.0497161 0.818077
0.114896 0.049946 0.816512
0.116119 0.0500937 0.813303
0.117259 0.0502035 0.809381
0.118366 0.0503019 0.805259
0.119469 0.0504014 0.801224
0.12063 0.0505321 0.797864
0.12197 0.0507506 0.796275
0.123409 0.0510182 0.795644
0.124894 0.051306 0.79544
0.126402 0.0516058 0.795446
0.127954 0.0519247 0.795837
0.129519 0.0522501 0.796331
0.131129 0.0525952 0.797194
0.132735 0.0529377 0.797999
0.134333 0.0532763 0.798719
-0.00020934 0.0285081 0.863801
-0.000539578 0.0301175 0.864007
0.00109628 0.0304149 0.863194
0.0027394 0.0307012 0.861891
0.00437669 0.0309873 0.860687
0.0060089 0.0312762 0.859531
0.00763568 0.0315654 0.858503
0.00925994 0.0318538 0.857396
0.010877 0.0321493 0.856571
0.012495 0.0324348 0.855439
0.0141084 0.0327221 0.854404
0.0157192 0.0330062 0.853261
0.0173261 0.0332899 0.852126
0.0189286 0.0335787 0.851193
0.0205283 0.0338644 0.850186
0.0221246 0.0341472 0.849084
0.0237178 0.0344406 0.848372
0.0253088 0.034738 0.847788
0.0268966 0.0350232 0.846835
0.0284817 0.0353102 0.845955
0.0300634 0.0355945 0.845009
0.0316368 0.0358577 0.843449
0.0331999 0.0361031 0.841386
0.0347543 0.0363433 0.83918
0.0362985 0.0365737 0.836745
0.0378352 0.0368022 0.834325
0.0393698 0.0370427 0.832262
0.0409045 0.0372933 0.83056
0.0424399 0.0375554 0.829177
0.043982 0.0378336 0.8283
0.0455128 0.0380988 0.827065
0.0470467 0.0383732 0.826112
0.0485747 0.0386436 0.825056
0.0500906 0.0389014 0.823692
0.0516013 0.0391574 0.822303
0.0531154 0.039423 0.82117
0.0546279 0.0396889 0.820095
0.0561485 0.039968 0.819356
0.0576825 0.0402627 0.819044
0.0592119 0.0405538 0.81864
0.0607355 0.0408395 0.81812
0.0622561 0.0411234 0.817566
0.0637752 0.0414082 0.817025
0.065315 0.0417125 0.816982
0.066862 0.0420233 0.817099
0.0684292 0.0423505 0.817622
0.0699977 0.0426772 0.818135
0.0715575 0.0429966 0.818449
0.073107 0.043307 0.818549
0.0746618 0.0436216 0.818738
0.0762235 0.0439413 0.81904
0.0777991 0.0442703 0.819564
0.0793876 0.0446074 0.820271
0.0809726 0.0449411 0.820886
0.082546 0.0452649 0.82128
0.0841081 0.0455814 0.821482
0.085657 0.0458889 0.821475
0.0872464 0.0462221 0.822061
0.0888282 0.0465498 0.822511
0.0904272 0.0468887 0.823183
0.0920477 0.0472392 0.824119
0.0936846 0.0475984 0.825233
0.0952908 0.0479379 0.825895
0.0969055 0.0482821 0.82664
0.0985119 0.0486192 0.827245
0.100054 0.0489193 0.827035
0.101575 0.0492062 0.826574
0.103066 0.0494773 0.82578
0.104531 0.0497342 0.824708
0.105984 0.049986 0.823539
0.107442 0.050242 0.822474
0.108897 0.0504975 0.821401
0.110322 0.0507373 0.820049
0.111759 0.0509866 0.818883
0.113194 0.0512341 0.817716
0.114581 0.0514589 0.816105
0.115873 0.051637 0.813588
0.117115 0.0517921 0.810661
0.11831 0.0519264 0.807365
0.119501 0.052062 0.804136
0.120746 0.0522259 0.801506
0.122089 0.0524421 0.799885
0.123505 0.0526939 0.79897
0.124971 0.0529722 0.798548
0.126464 0.0532627 0.798368
0.127999 0.0535728 0.798564
0.129524 0.0538796 0.798671
0.131093 0.0542048 0.799143
0.132654 0.0545271 0.799543
0.134208 0.0548459 0.79987
-0.00251354 0.0314325 0.865183
-0.000868899 0.031726 0.864164
0.000770767 0.03202 0.863224
0.00241795 0.0322991 0.861785
0.00405727 0.0325823 0.860502
0.00569405 0.0328619 0.859132
0.00732074 0.0331513 0.858094
0.00894582 0.0334353 0.856968
0.010563 0.0337289 0.856144
0.0121797 0.0340164 0.855122
0.0137924 0.0343057 0.854197
0.0154026 0.034592 0.853182
0.0170102 0.034874 0.852059
0.0186133 0.0351613 0.851128
0.0202137 0.0354453 0.850121
0.0218108 0.0357262 0.84902
0.0234046 0.0360155 0.848208
0.0249957 0.0363088 0.84752
0.0265834 0.0365888 0.846451
0.0281675 0.0368668 0.845347
0.0297484 0.0371449 0.844286
0.0313204 0.0374021 0.842613
0.0328831 0.0376434 0.840535
0.0344363 0.0378752 0.838224
0.0359803 0.0381019 0.835796
0.0375183 0.0383312 0.833499
0.039053 0.0385689 0.831459
0.0405895 0.0388207 0.829871
0.0421265 0.0390833 0.828576
0.0436639 0.0393532 0.827496
0.0451888 0.0396075 0.826027
0.0467187 0.039875 0.824948
0.0482401 0.0401351 0.823684
0.0497549 0.0403909 0.822333
0.0512729 0.0406561 0.821237
0.052797 0.0409326 0.820448
0.0543202 0.0412112 0.819715
0.0558495 0.0414982 0.819218
0.0573908 0.0418002 0.819101
0.0589248 0.0420943 0.818796
0.0604493 0.0423801 0.818281
0.0619749 0.0426676 0.817829
0.0635025 0.0429583 0.817458
0.0650395 0.0432587 0.817326
0.0665832 0.0435663 0.817347
0.0681465 0.0438906 0.817776
0.0697063 0.0442105 0.818103
0.0712661 0.04453 0.818412
0.0728257 0.0448492 0.818697
0.0743866 0.0451681 0.818985
0.0759484 0.0454873 0.819273
0.077517 0.0458114 0.819663
0.0790808 0.0461319 0.819951
0.0806401 0.0464477 0.820147
0.0821995 0.0467631 0.820335
0.0837538 0.0470745 0.82043
0.0853021 0.0473813 0.820431
0.0868827 0.0477116 0.820912
0.0884544 0.0480337 0.821238
0.0900353 0.0483616 0.821679
0.0916381 0.0487033 0.822401
0.0932654 0.0490601 0.823424
0.0948862 0.049411 0.824313
0.0965177 0.0497678 0.825305
0.0981412 0.0501176 0.826152
0.099707 0.0504319 0.826251
0.101244 0.0507281 0.825993
0.102745 0.0510031 0.825314
0.104227 0.0512693 0.824443
0.105691 0.0515243 0.823394
0.107149 0.0517793 0.822324
0.108603 0.0520317 0.821245
0.110027 0.0522687 0.819874
0.111465 0.052516 0.818702
0.112909 0.0527677 0.817635
0.114335 0.0530097 0.816414
0.115689 0.053216 0.814508
0.116998 0.0534006 0.812221
0.118272 0.0535687 0.809659
0.119532 0.0537323 0.807038
0.120814 0.0539095 0.804713
0.122165 0.0541248 0.803101
0.123583 0.0543751 0.802158
0.125023 0.054637 0.801441
0.126496 0.0549159 0.801037
0.128002 0.0552109 0.800932
0.129496 0.0555012 0.800738
0.131032 0.0558112 0.8009
-0.00445921 0.032717 0.865145
-0.00282449 0.0330226 0.864596
-0.0011841 0.0333188 0.863744
0.000457211 0.0336086 0.862736
0.00210485 0.0338853 0.861278
0.00374224 0.0341688 0.860103
0.0053794 0.0344458 0.858723
0.00700835 0.0347292 0.857568
0.00863333 0.0350127 0.856423
0.0102502 0.0353057 0.855612
0.0118656 0.0355948 0.854716
0.0134768 0.0358878 0.853927
0.0150857 0.036179 0.853121
0.0166941 0.0364591 0.852008
0.0182979 0.0367452 0.851086
0.0198989 0.0370278 0.850066
0.0214967 0.0373099 0.849063
0.0230911 0.0375955 0.848165
0.0246829 0.0378833 0.847359
0.0262711 0.0381601 0.846261
0.0278545 0.0384294 0.844947
0.0294343 0.0386989 0.843692
0.0310058 0.0389496 0.841929
0.0325676 0.0391842 0.839761
0.0341206 0.039412 0.837444
0.0356644 0.039635 0.835014
0.0372022 0.0398602 0.83271
0.038737 0.0400937 0.830675
0.0402746 0.0403475 0.829178
0.0418078 0.0406 0.827696
0.04334 0.040859 0.826398
0.0448606 0.0411052 0.824786
0.0463836 0.0413615 0.823473
0.0478971 0.0416099 0.821967
0.0494124 0.0418666 0.820703
0.0509351 0.0421387 0.819831
0.0524687 0.0424277 0.8194
0.0540055 0.0427226 0.819107
0.0555452 0.0430228 0.818934
0.0570902 0.0433281 0.818913
0.0586272 0.0436256 0.818684
0.0601519 0.0439102 0.818162
0.0616746 0.0441936 0.817631
0.0631991 0.0444804 0.817181
0.0647321 0.0447767 0.816955
0.0662705 0.0450793 0.816867
0.0678284 0.0453991 0.81719
0.0693872 0.0457201 0.817513
0.0709462 0.0460397 0.817818
0.0725051 0.0463589 0.818099
0.0740651 0.0466775 0.81838
0.0756161 0.0469897 0.818489
0.0771782 0.0473098 0.818781
0.078741 0.0476301 0.819069
0.0802989 0.0479452 0.819258
0.0818572 0.048261 0.819444
0.0834156 0.0485764 0.819622
0.0849626 0.0488833 0.819619
0.0865287 0.0492031 0.819895
0.0880904 0.0495205 0.820097
0.0896535 0.0498377 0.820307
0.091238 0.05017 0.820806
0.0928547 0.050522 0.821717
0.0944874 0.0508838 0.8228
0.0961266 0.0512478 0.823921
0.0977667 0.0516101 0.825004
0.0993567 0.0519408 0.825423
0.100918 0.0522523 0.825473
0.102438 0.0525375 0.82502
0.103939 0.0528132 0.824377
0.105422 0.053079 0.823536
0.10689 0.0533359 0.82256
0.108336 0.0535823 0.821379
0.109759 0.0538168 0.81999
0.111188 0.0540556 0.818715
0.112633 0.0543053 0.817643
0.114077 0.0545561 0.816608
0.115473 0.0547811 0.81511
0.116838 0.054991 0.813359
0.118182 0.0551919 0.811457
0.119493 0.0553763 0.809282
0.120812 0.0555683 0.807261
0.122177 0.0557867 0.805737
0.123597 0.0560348 0.804774
0.12504 0.0562959 0.804039
0.126505 0.0565681 0.803514
0.127991 0.056852 0.803196
-0.00477525 0.0343129 0.864754
-0.00313979 0.0346173 0.864176
-0.00150171 0.034914 0.863422
0.000143755 0.0351982 0.862248
0.00179203 0.0354717 0.86076
0.00342914 0.0357541 0.859596
0.00506647 0.0360281 0.858217
0.00669552 0.0363096 0.857062
0.00831922 0.036593 0.856005
0.00993606 0.0368853 0.855206
0.0115499 0.0371776 0.854433
0.0131594 0.0374755 0.853859
0.0147676 0.037771 0.853191
0.0163763 0.0380528 0.852175
0.0179805 0.0383416 0.851344
0.0195826 0.0386249 0.850415
0.0211815 0.0389069 0.849426
0.0227775 0.0391873 0.848432
0.0243703 0.0394695 0.847507
0.0259591 0.0397403 0.846277
0.027543 0.0400021 0.844834
0.0291229 0.0402668 0.843499
0.0306953 0.0405157 0.841763
0.032257 0.0407441 0.839501
0.0338095 0.0409634 0.837073
0.0353514 0.0411733 0.834425
0.0368862 0.0413865 0.831902
0.0384192 0.0416125 0.829761
0.0399545 0.0418595 0.828165
0.0414849 0.0421057 0.826586
0.0430119 0.0423543 0.825084
0.0445309 0.0425954 0.82344
0.0460489 0.0428437 0.821984
0.0475587 0.043086 0.820395
0.0490749 0.0433445 0.819227
0.0506021 0.0436227 0.818564
0.052138 0.0439167 0.818256
0.0536781 0.044217 0.81811
0.0552236 0.0445251 0.818137
0.0567675 0.0448306 0.818113
0.0583065 0.0451295 0.817954
0.0598342 0.0454177 0.817526
0.0613572 0.0457012 0.817011
0.0628822 0.0459882 0.816585
0.064414 0.0462838 0.816345
0.0659425 0.0465759 0.816046
0.0674845 0.0468818 0.816054
0.0690313 0.0471932 0.816163
0.0705828 0.0475075 0.816354
0.0721401 0.0478273 0.816644
0.0737042 0.0481523 0.817044
0.0752659 0.0484737 0.817372
0.076833 0.0487995 0.817778
0.0784006 0.0491252 0.818172
0.0799524 0.0494369 0.818277
0.0815099 0.0497528 0.81847
0.0830678 0.0500691 0.818659
0.08462 0.0503803 0.818751
0.0861785 0.0506965 0.818933
0.0877379 0.0510118 0.819115
0.0892915 0.0513237 0.819208
0.0908591 0.051645 0.819491
0.0924645 0.0519928 0.820276
0.0941 0.0523584 0.821426
0.0957444 0.052729 0.822643
0.0973986 0.053104 0.823933
0.0990202 0.0534559 0.824761
0.100608 0.0537851 0.825142
0.102155 0.0540875 0.825021
0.103677 0.0543748 0.82461
0.10517 0.0546451 0.823881
0.10664 0.0549017 0.822916
0.108078 0.0551398 0.821619
0.109493 0.0553657 0.82013
0.110922 0.0556029 0.818842
0.112359 0.0558456 0.817679
0.113804 0.0560948 0.816641
0.115237 0.0563381 0.815518
0.116646 0.0565696 0.814183
0.118037 0.0567923 0.812725
0.119403 0.0570033 0.811061
0.120776 0.0572191 0.809515
0.122155 0.0574404 0.808075
0.123571 0.0576838 0.807026
-0.00671342 0.0355889 0.864442
-0.00508054 0.035896 0.863991
-0.00344602 0.0362 0.863423
-0.00181074 0.0364983 0.862758
-0.000165286 0.0367797 0.861574
0.00148004 0.0370548 0.860224
0.00311467 0.0373401 0.859177
0.00474999 0.0376163 0.857915
0.0063794 0.037895 0.856761
0.00800148 0.0381826 0.855822
0.00961749 0.0384755 0.855126
0.0112305 0.0387708 0.854474
0.0128392 0.0390733 0.85403
0.0144467 0.0393743 0.853557
0.0160565 0.0396562 0.852551
0.0176622 0.0399431 0.851724
0.0192652 0.0402296 0.850893
0.0208658 0.04051 0.84991
0.0224635 0.0407817 0.848725
0.0240573 0.0410587 0.847688
0.025647 0.0413218 0.846317
0.027231 0.0415734 0.84466
0.0288102 0.0418285 0.84312
0.0303829 0.042074 0.841371
0.0319453 0.0422974 0.839103
0.0334974 0.0425088 0.836572
0.035038 0.04271 0.833802
0.0365718 0.0429137 0.831172
0.0381009 0.0431274 0.8288
0.0396321 0.0433623 0.826994
0.0411599 0.0436017 0.825321
0.0426834 0.0438433 0.823714
0.0442015 0.0440827 0.822089
0.0457187 0.0443292 0.820657
0.0472281 0.0445698 0.819098
0.0487456 0.0448298 0.818024
0.0502747 0.045112 0.817473
0.0518121 0.0454088 0.817256
0.0533538 0.0457128 0.817193
0.0549017 0.0460238 0.817315
0.0564447 0.0463296 0.817294
0.0579795 0.0466245 0.817048
0.0595064 0.0469116 0.816619
0.0610284 0.0471943 0.816107
0.0625489 0.0474762 0.815591
0.064071 0.0477615 0.815153
0.0655915 0.0480467 0.81471
0.0671205 0.0483418 0.814482
0.0686551 0.0486418 0.814378
0.0701994 0.0489523 0.814479
0.0717592 0.0492771 0.814871
0.0733316 0.0496117 0.815473
0.074903 0.0499439 0.816019
0.0764807 0.0502809 0.816643
0.0780588 0.0506167 0.81724
0.0796157 0.0509342 0.817453
0.0811731 0.0512504 0.817659
0.0827368 0.0515722 0.817953
0.0842956 0.0518896 0.818159
0.085855 0.0522067 0.818362
0.0874141 0.052523 0.81855
0.0889665 0.0528347 0.818632
0.0905191 0.0531454 0.818715
0.0921084 0.0534832 0.819294
0.0937335 0.053845 0.820325
0.0953747 0.0542163 0.821522
0.0970277 0.0545931 0.822818
0.0986721 0.054963 0.823954
0.100286 0.05531 0.824666
0.10186 0.0556303 0.824875
0.10341 0.0559351 0.824787
0.104921 0.0562142 0.82425
0.106392 0.0564695 0.823287
0.10783 0.0567056 0.821979
0.109247 0.0569298 0.820491
0.110668 0.0571584 0.819098
0.112097 0.0573948 0.817844
0.113542 0.0576407 0.816788
0.114994 0.0578933 0.815848
0.116434 0.0581398 0.814812
0.117859 0.0583787 0.813663
0.119259 0.0586056 0.812312
0.120653 0.0588297 0.810942
0.122033 0.0590489 0.809488
0.123443 0.0592853 0.808348
0.125959 0.0584426 0.814865
-0.00699904 0.0371522 0.863064
-0.0053762 0.037467 0.862906
-0.0037443 0.0377712 0.862397
-0.00211394 0.0380744 0.861878
-0.000472019 0.0383575 0.860822
0.00116786 0.0386386 0.859697
0.00280029 0.0389253 0.858758
0.00443149 0.0392069 0.857722
0.00605919 0.0394897 0.856685
0.00768184 0.039775 0.855765
0.00929657 0.0400728 0.855185
0.010908 0.0403741 0.854732
0.0125176 0.0406763 0.854301
0.0141259 0.0409779 0.853847
0.015737 0.0412584 0.852854
0.017344 0.0415436 0.852011
0.0189486 0.0418254 0.851098
0.0205504 0.0421043 0.850117
0.0221493 0.0423705 0.848829
0.0237441 0.0426452 0.847767
0.0253348 0.0429049 0.846371
0.0269195 0.0431495 0.84461
0.0284984 0.0433932 0.84285
0.0300709 0.0436313 0.840984
0.0316325 0.0438451 0.838571
0.0331827 0.0440444 0.835834
0.0347226 0.0442359 0.832968
0.0362534 0.0444272 0.830138
0.0377802 0.0446316 0.827652
0.0393084 0.0448571 0.825711
0.0408328 0.0450891 0.823924
0.0423538 0.0453238 0.822244
0.0438752 0.0455706 0.820847
0.0453947 0.0458208 0.819553
0.0469088 0.0460688 0.81822
0.0484293 0.0463327 0.817279
0.0499599 0.0466179 0.816809
0.0514963 0.0469129 0.816572
0.0530364 0.0472153 0.81648
0.0545767 0.047518 0.816402
0.0561155 0.0478185 0.816285
0.057646 0.0481094 0.815955
0.0591682 0.0483907 0.815435
0.0606851 0.0486676 0.814825
0.0622032 0.0489476 0.814291
0.0637148 0.0492215 0.813644
0.0652241 0.049496 0.812996
0.066745 0.0497831 0.81264
0.068271 0.0500767 0.812413
0.0698076 0.0503826 0.812415
0.0713744 0.0507158 0.812999
0.0729557 0.0510633 0.813824
0.0745365 0.0514069 0.814586
0.0761241 0.0517548 0.815423
0.0777119 0.0521018 0.816218
0.079273 0.0524238 0.816522
0.0808347 0.0527451 0.816817
0.082398 0.0530675 0.817121
0.0839574 0.0533869 0.817353
0.0855173 0.0537045 0.817574
0.0870764 0.0540224 0.817777
0.0886284 0.0543343 0.817866
0.0901736 0.0546405 0.817856
0.0917544 0.0549732 0.818334
0.0933628 0.0553251 0.81916
0.0949865 0.0556862 0.82015
0.0966361 0.0560651 0.821434
0.0983026 0.0564525 0.822872
0.0999423 0.0568204 0.823926
0.101552 0.0571649 0.824568
0.103142 0.0574963 0.824963
0.104672 0.0577872 0.824634
0.106152 0.0580458 0.823757
0.107593 0.0582796 0.822459
0.10901 0.0585014 0.820953
0.110423 0.0587225 0.819463
0.111852 0.0589561 0.818193
0.11329 0.0591956 0.81705
0.114742 0.0594462 0.816099
0.116183 0.0596912 0.815065
0.11762 0.0599343 0.814019
0.119032 0.0601649 0.812767
0.121302 0.0608948 0.819801
-0.00729708 0.0387258 0.862116
-0.00567796 0.039044 0.862047
-0.00404656 0.0393464 0.861528
-0.00241918 0.0396511 0.861097
-0.000781416 0.0399392 0.860188
0.00085312 0.0402255 0.859288
0.00248041 0.0405208 0.858593
0.00410806 0.0408091 0.857772
0.00573461 0.0410942 0.856853
0.0073563 0.0413828 0.856051
0.00897236 0.0416786 0.855464
0.0105845 0.0419805 0.855023
0.0121942 0.0422863 0.854684
0.0138028 0.0425911 0.85434
0.0154148 0.042874 0.853457
0.0170227 0.0431629 0.852726
0.0186293 0.0434433 0.851798
0.0202333 0.0437166 0.850702
0.0218344 0.0439717 0.849193
0.0234306 0.0442359 0.847919
0.025022 0.0444807 0.846217
0.0266066 0.044714 0.844241
0.0281849 0.0449446 0.842263
0.0297564 0.0451744 0.840259
0.0313172 0.0453789 0.837731
0.0328683 0.0455771 0.835081
0.0344075 0.0457608 0.832151
0.0359358 0.0459391 0.829132
0.0374592 0.0461294 0.82643
0.0389824 0.0463422 0.824262
0.0405018 0.0465609 0.822266
0.0420232 0.0467982 0.820703
0.0435478 0.047052 0.819521
0.0450714 0.0473102 0.818463
0.0465922 0.0475691 0.817429
0.0481174 0.0478419 0.816695
0.0496482 0.0481265 0.816238
0.0511813 0.0484171 0.81591
0.0527199 0.048718 0.81579
0.0542557 0.0490148 0.815596
0.055787 0.0493058 0.815288
0.0573129 0.0495904 0.814858
0.0588296 0.0498651 0.814226
0.0603366 0.05013 0.813397
0.0618445 0.050399 0.812661
0.0633498 0.0506667 0.811916
0.0648525 0.0509344 0.811168
0.0663709 0.0512211 0.810812
0.0678949 0.0515139 0.810593
