ply
format ascii 1.0
element vertex 1794
property float x
property float y
property float z
end_header
0.244551 0.15759 0.941547
0.246283 0.157963 0.941561
0.247993 0.15832 0.941481
0.249646 0.158646 0.941183
0.251293 0.158966 0.940857
0.253045 0.159348 0.940926
0.254736 0.159694 0.94076
0.256405 0.160027 0.940509
0.25814 0.160398 0.940502
0.259836 0.160745 0.940344
0.288341 0.167584 0.94785
0.289915 0.167854 0.947171
0.291054 0.167892 0.945059
0.292084 0.167872 0.942603
0.29305 0.16782 0.939963
0.294036 0.167782 0.937418
0.294958 0.167713 0.93469
0.296298 0.167866 0.933329
0.297669 0.168037 0.93208
0.299151 0.168268 0.931195
0.300708 0.168539 0.930551
0.302303 0.168829 0.930028
0.303993 0.169169 0.929801
0.305752 0.169544 0.929788
0.307563 0.169946 0.929932
0.309428 0.170375 0.930232
0.311389 0.170852 0.930819
0.313311 0.171308 0.931275
0.31531 0.171803 0.931953
0.317503 0.172395 0.933203
0.319703 0.172988 0.93445
0.321945 0.173601 0.935808
0.324206 0.174221 0.9372
0.326205 0.174709 0.937807
0.327975 0.17508 0.937731
0.219848 0.15539 0.955079
0.221272 0.155562 0.953746
0.222606 0.155678 0.952035
0.223893 0.155765 0.950135
0.225276 0.155916 0.948673
0.226755 0.15613 0.947637
0.22824 0.156349 0.946631
0.229781 0.156604 0.94587
0.231296 0.156843 0.945006
0.232802 0.157077 0.944114
0.234298 0.157306 0.943185
0.235929 0.157619 0.942813
0.237556 0.157929 0.942423
0.239298 0.15831 0.942494
0.241008 0.15867 0.942433
0.242734 0.15904 0.942428
0.244353 0.159345 0.941999
0.246055 0.159699 0.94189
0.24777 0.160061 0.941828
0.249461 0.160409 0.941671
0.251195 0.160781 0.941675
0.252985 0.161186 0.941884
0.254733 0.161565 0.941924
0.256492 0.16195 0.942001
0.258392 0.162417 0.942593
0.260343 0.162912 0.943364
0.288024 0.169296 0.947825
0.289587 0.16956 0.947109
0.290784 0.169626 0.945183
0.291854 0.169624 0.942858
0.292899 0.16961 0.94047
0.293956 0.169605 0.938148
0.294972 0.169581 0.935717
0.296347 0.169751 0.934458
0.297758 0.169941 0.93333
0.299278 0.17019 0.932555
0.300979 0.170535 0.932356
0.302657 0.170868 0.932082
0.304394 0.171232 0.931994
0.306223 0.171644 0.932183
0.308105 0.172082 0.932529
0.309872 0.172459 0.932513
0.311776 0.172908 0.932914
0.313595 0.173311 0.933045
0.315486 0.173751 0.933389
0.31754 0.174274 0.934212
0.319666 0.174833 0.935238
0.321832 0.175409 0.936363
0.324046 0.176009 0.937617
0.325997 0.176474 0.938075
0.327758 0.176841 0.937971
0.217987 0.15684 0.955918
0.219333 0.156958 0.954225
0.22075 0.157125 0.952864
0.222104 0.157251 0.951239
0.223385 0.157332 0.949321
0.22479 0.157496 0.947954
0.226297 0.157728 0.947041
0.227813 0.157965 0.946167
0.22938 0.158236 0.945521
0.230948 0.158508 0.944874
0.232484 0.158761 0.944105
0.234015 0.15901 0.943318
0.235677 0.159342 0.943068
0.237355 0.159684 0.942885
0.239126 0.160084 0.943069
0.240866 0.160463 0.943121
0.242591 0.160833 0.943106
0.244207 0.161135 0.942658
0.245908 0.161488 0.942539
0.247624 0.161851 0.942476
0.249351 0.16222 0.942451
0.251124 0.162615 0.942595
0.253002 0.163074 0.943132
0.254814 0.163491 0.943406
0.256668 0.163933 0.94383
0.258677 0.164465 0.944815
0.260779 0.16505 0.946128
0.288107 0.171231 0.949141
0.289449 0.171372 0.94768
0.290567 0.17139 0.945484
0.291687 0.171411 0.943317
0.292776 0.171417 0.941069
0.293875 0.171432 0.938877
0.29496 0.171441 0.93666
0.296368 0.171626 0.935503
0.297819 0.171836 0.934495
0.299348 0.172088 0.933738
0.301188 0.172508 0.933974
0.302979 0.1729 0.934043
0.304806 0.173311 0.934222
0.306686 0.173749 0.934558
0.308635 0.174223 0.935097
0.310232 0.17451 0.934543
0.312055 0.174916 0.934684
0.313731 0.175245 0.93437
0.315511 0.175628 0.934371
0.317417 0.176075 0.934741
0.319451 0.176588 0.935489
0.321498 0.177107 0.936263
0.323666 0.177686 0.937378
0.325585 0.178136 0.937744
0.327348 0.178505 0.937649
0.218781 0.158498 0.9532
0.220175 0.158649 0.951745
0.221547 0.158786 0.950206
0.222799 0.158845 0.948166
0.224205 0.159008 0.946808
0.225714 0.15924 0.945906
0.227283 0.159513 0.945269
0.228906 0.159821 0.944859
0.230527 0.160127 0.94444
0.232091 0.160396 0.943784
0.233674 0.160679 0.943214
0.235343 0.161016 0.942993
0.237054 0.161379 0.942941
0.238856 0.161799 0.943248
0.240623 0.162195 0.943403
0.242351 0.162567 0.943397
0.244015 0.162899 0.943137
0.245743 0.16327 0.943122
0.24749 0.163651 0.943171
0.249247 0.164039 0.943258
0.251078 0.16447 0.943618
0.252993 0.164952 0.944286
0.254847 0.165395 0.944709
0.256768 0.165878 0.945376
0.258855 0.166458 0.946642
0.260972 0.167054 0.948001
0.262882 0.167524 0.94857
0.288308 0.173239 0.950858
0.289464 0.173272 0.948763
0.29052 0.173251 0.946352
0.291643 0.17327 0.944186
0.292748 0.173281 0.941983
0.293825 0.173279 0.939708
0.295004 0.173335 0.937788
0.296457 0.173544 0.93677
0.29792 0.173758 0.935789
0.299422 0.173994 0.934939
0.301356 0.174464 0.935462
0.30316 0.174864 0.935566
0.304985 0.175274 0.935726
0.306879 0.17572 0.936099
0.308789 0.176174 0.936507
0.310229 0.176377 0.935462
0.311894 0.176699 0.935112
0.313449 0.176964 0.934428
0.315074 0.177266 0.933957
0.316887 0.177666 0.93405
0.318833 0.178136 0.934539
0.320796 0.178613 0.935064
0.322896 0.17916 0.935985
0.324821 0.179615 0.93638
0.326555 0.17997 0.936202
0.218116 0.159958 0.951673
0.219517 0.160113 0.950257
0.220887 0.160248 0.948719
0.222166 0.160323 0.946803
0.223597 0.160502 0.94556
0.22513 0.16075 0.944771
0.22673 0.161043 0.944267
0.228405 0.161386 0.944085
0.230079 0.161727 0.943892
0.23167 0.162014 0.94335
0.233308 0.162332 0.943006
0.235002 0.162685 0.942889
0.236742 0.163067 0.942951
0.238567 0.163503 0.943351
0.240343 0.163907 0.943544
0.242102 0.164299 0.94366
0.243804 0.164654 0.943541
0.245537 0.165029 0.943544
0.247287 0.165412 0.943603
0.249123 0.16585 0.94399
0.250985 0.166301 0.944462
0.252963 0.166822 0.945364
0.25488 0.167305 0.946021
0.256866 0.167829 0.946922
0.258948 0.168407 0.948159
0.261042 0.168992 0.949422
0.262906 0.169435 0.949812
0.264908 0.168062 0.949551
0.264836 0.169918 0.950436
0.287307 0.175202 0.954559
0.288523 0.175262 0.952629
0.289559 0.175222 0.950115
0.290509 0.175137 0.947341
0.291556 0.175109 0.944914
0.292626 0.175097 0.942591
0.293702 0.17509 0.940306
0.294918 0.175163 0.938497
0.296347 0.175356 0.937395
0.297783 0.175554 0.936322
0.299184 0.175734 0.935147
0.301168 0.176233 0.935827
0.303006 0.176652 0.936033
0.304846 0.17707 0.936239
0.306815 0.177559 0.936842
0.308682 0.17799 0.937111
0.309925 0.178085 0.935456
0.311427 0.178321 0.934605
0.312889 0.178534 0.933635
0.314348 0.178748 0.932666
0.316079 0.179106 0.932519
0.31794 0.179533 0.932759
0.319818 0.179969 0.933045
0.321849 0.180484 0.933773
0.323777 0.180943 0.934186
0.325516 0.181303 0.934037
0.217076 0.161156 0.948479
0.218549 0.161359 0.947396
0.22006 0.16159 0.946494
0.221434 0.161729 0.945005
0.222912 0.16194 0.94398
0.224473 0.162207 0.943316
0.226119 0.162532 0.94302
0.227822 0.162894 0.942961
0.229526 0.163256 0.942901
0.231145 0.163562 0.942482
0.232853 0.163926 0.942431
0.234574 0.164298 0.942427
0.236369 0.164717 0.942715
0.238249 0.165191 0.943341
0.240077 0.165629 0.943741
0.241868 0.166041 0.943979
0.243606 0.16642 0.944001
0.245348 0.1668 0.944032
0.247127 0.167203 0.944203
0.248992 0.167659 0.944693
0.250888 0.168134 0.945296
0.252929 0.168696 0.946432
0.254908 0.169218 0.947314
0.256921 0.169759 0.948307
0.258985 0.170329 0.949468
0.261025 0.170883 0.950524
0.262835 0.171294 0.950707
0.26468 0.171726 0.951012
0.286166 0.175185 0.95676
0.286033 0.177024 0.957376
0.287199 0.17705 0.95525
0.288437 0.177119 0.953385
0.28943 0.177051 0.950721
0.290388 0.176965 0.947967
0.291476 0.176956 0.94567
0.292507 0.176917 0.943207
0.293545 0.176885 0.940793
0.29476 0.176954 0.938974
0.296115 0.177104 0.937631
0.297489 0.177265 0.936353
0.298813 0.1774 0.934928
0.300685 0.17784 0.935255
0.302475 0.178234 0.935313
0.304273 0.178631 0.935389
0.306179 0.179087 0.935798
0.307968 0.179478 0.935836
0.309159 0.179543 0.934024
0.310536 0.17971 0.932796
0.311928 0.179887 0.931623
0.313345 0.180078 0.930535
0.315053 0.180426 0.930333
0.316871 0.180832 0.930454
0.31874 0.181265 0.930723
0.320723 0.181758 0.931322
0.322609 0.182198 0.931626
0.324338 0.182555 0.931459
0.216133 0.162408 0.945703
0.217651 0.162644 0.944839
0.219192 0.162897 0.944089
0.220648 0.163092 0.942971
0.222152 0.163321 0.94207
0.223759 0.16362 0.941614
0.225454 0.163979 0.941537
0.227206 0.164376 0.941695
0.22896 0.164773 0.941853
0.230659 0.165133 0.941774
0.232398 0.165519 0.941855
0.234121 0.165893 0.941861
0.23594 0.16633 0.942253
0.237822 0.166807 0.942888
0.23968 0.167266 0.94341
0.241529 0.167719 0.943884
0.243317 0.16813 0.944103
0.245093 0.168533 0.944265
0.246924 0.168969 0.944634
0.248823 0.169448 0.945255
0.250781 0.169963 0.946091
0.252892 0.170572 0.94749
0.254905 0.171117 0.948493
0.25689 0.171643 0.949373
0.258887 0.172174 0.950279
0.260833 0.172671 0.950979
0.262578 0.173043 0.950918
0.264367 0.173442 0.951016
0.2859 0.178865 0.957992
0.287074 0.178892 0.955884
0.288319 0.178962 0.954038
0.289306 0.178885 0.951346
0.290253 0.178788 0.948545
0.291317 0.178761 0.946165
0.29228 0.178678 0.94347
0.293251 0.178604 0.940833
0.294393 0.178629 0.938773
0.295671 0.178734 0.93718
0.296961 0.178846 0.935633
0.298206 0.178935 0.933958
0.299908 0.179281 0.933748
0.301578 0.17961 0.933436
0.303295 0.179965 0.933272
0.305121 0.180379 0.933441
0.306841 0.180734 0.933276
0.308104 0.180837 0.931697
0.309507 0.181018 0.930562
0.310939 0.181216 0.92952
0.312402 0.181432 0.92858
0.314117 0.181785 0.928407
0.315896 0.182173 0.928427
0.317681 0.182563 0.928456
0.319542 0.182994 0.928706
0.321343 0.183391 0.928771
0.323024 0.183724 0.928476
0.21481 0.163382 0.941223
0.216485 0.163731 0.94109
0.218127 0.164057 0.940806
0.219706 0.164339 0.940247
0.221289 0.164623 0.939707
0.222973 0.164978 0.939602
0.224736 0.165386 0.939827
0.226559 0.165833 0.940298
0.228345 0.166254 0.940598
0.230096 0.166651 0.940746
0.231868 0.167061 0.940969
0.233642 0.167471 0.941191
0.235465 0.167912 0.941602
0.237372 0.168407 0.942341
0.239257 0.168887 0.942976
0.241134 0.169359 0.943563
0.24295 0.16979 0.943895
0.244749 0.170209 0.944151
0.246609 0.170666 0.944632
0.248566 0.171184 0.945478
0.250617 0.171761 0.946671
0.252739 0.172379 0.948106
0.254787 0.172949 0.94924
0.256768 0.173474 0.9501
0.258706 0.17397 0.950781
0.26059 0.17443 0.951245
0.262353 0.174814 0.95125
0.264207 0.175253 0.951582
0.28898 0.180604 0.951292
0.289975 0.18053 0.948649
0.291038 0.180499 0.94626
0.292004 0.180414 0.943574
0.292943 0.180316 0.940826
0.294011 0.180295 0.938526
0.29521 0.180352 0.936673
0.296419 0.180417 0.934867
0.297629 0.180484 0.933081
0.29916 0.180734 0.932334
0.300714 0.180998 0.931661
0.302267 0.181262 0.930988
0.30398 0.181615 0.930816
0.305574 0.181901 0.930273
0.306913 0.182047 0.928945
0.308309 0.182224 0.927802
0.309815 0.182464 0.927001
0.311347 0.182718 0.926284
0.313095 0.183091 0.926223
0.314837 0.183461 0.926142
0.316606 0.183844 0.926135
0.318345 0.184211 0.926036
0.320086 0.184579 0.925936
0.321759 0.184909 0.925633
0.326471 0.184997 0.933336
0.323495 0.185273 0.925515
0.213589 0.164412 0.93719
0.215354 0.164829 0.937485
0.217057 0.165202 0.937495
0.218735 0.165555 0.937392
0.220418 0.165912 0.937307
0.22218 0.166323 0.937552
0.223973 0.166755 0.93792
0.225848 0.167242 0.938627
0.227683 0.167699 0.939145
0.229514 0.168152 0.939633
0.231316 0.168584 0.939988
0.233167 0.169048 0.940532
0.235009 0.169504 0.941027
0.236917 0.170003 0.941776
0.238803 0.170486 0.94242
0.240705 0.170977 0.94311
0.242525 0.171412 0.94346
0.244377 0.171867 0.943923
0.246322 0.172382 0.944742
0.248338 0.17294 0.945814
0.250455 0.173563 0.947259
0.252609 0.174205 0.948816
0.254661 0.174779 0.949958
0.256584 0.175269 0.950593
0.258462 0.175729 0.951048
0.260312 0.176169 0.951381
0.26208 0.176556 0.951404
0.265024 0.177681 0.955742
0.288351 0.182145 0.950223
0.289445 0.182126 0.947916
0.290587 0.182137 0.945788
0.291593 0.182071 0.943233
0.292496 0.181948 0.940365
0.293462 0.181864 0.937731
0.294532 0.181844 0.935461
0.295667 0.181864 0.933424
0.296873 0.181927 0.931629
0.298271 0.182101 0.930466
0.299753 0.182324 0.929572
0.301279 0.182573 0.928826
0.302904 0.182879 0.928396
0.304459 0.183145 0.927743
0.305909 0.183352 0.926767
0.307419 0.183593 0.925985
0.309001 0.183875 0.925426
0.310603 0.184169 0.924931
0.312306 0.184519 0.924741
0.314007 0.184867 0.924541
0.315699 0.18521 0.924313
0.317355 0.185533 0.923975
0.319052 0.185878 0.923756
0.320755 0.186226 0.923556
0.322535 0.186616 0.923576
0.327004 0.186588 0.930547
0.324314 0.187005 0.923586
0.199396 0.161871 0.942114
0.197843 0.161608 0.942787
0.197407 0.163192 0.942229
0.198908 0.163415 0.94131
0.200362 0.163604 0.940172
0.206346 0.162596 0.935045
0.204397 0.163932 0.935301
0.205757 0.164058 0.933787
0.207262 0.164292 0.932957
0.210704 0.165077 0.933259
0.212534 0.165548 0.933887
0.2143 0.16597 0.934212
0.216017 0.166356 0.934309
0.217789 0.16678 0.934642
0.219554 0.167197 0.934926
0.221373 0.167652 0.935438
0.223237 0.168137 0.936127
0.225161 0.168661 0.937052
0.22702 0.169138 0.937683
0.228907 0.169633 0.938417
0.230757 0.170101 0.93898
0.232661 0.170603 0.939749
0.23453 0.17108 0.940358
0.236437 0.171581 0.941106
0.238341 0.172078 0.941826
0.240244 0.172572 0.942525
0.24207 0.173014 0.942904
0.243952 0.17349 0.943489
0.245959 0.174049 0.944552
0.248008 0.174632 0.945755
0.250186 0.175297 0.947435
0.252369 0.175962 0.949103
0.254442 0.176554 0.950329
0.256361 0.177042 0.950944
0.258208 0.177483 0.951278
0.260025 0.177903 0.951488
0.262651 0.178838 0.954685
0.266647 0.180637 0.962875
0.288786 0.183642 0.946747
0.290064 0.183731 0.945074
0.291121 0.183692 0.942688
0.292015 0.183559 0.939792
0.292913 0.183431 0.936936
0.293948 0.183388 0.934555
0.295054 0.183388 0.932427
0.296294 0.183468 0.930744
0.297566 0.183569 0.929183
0.298973 0.183748 0.928058
0.300383 0.183931 0.926952
0.301864 0.184155 0.926078
0.303376 0.184397 0.925306
0.304923 0.18466 0.924646
0.306473 0.184925 0.923994
0.308091 0.185228 0.923556
0.309782 0.185572 0.923338
0.311482 0.185922 0.923149
0.313181 0.18627 0.922949
0.314865 0.186609 0.922704
0.316517 0.186932 0.922366
0.318209 0.187275 0.922139
0.319951 0.187646 0.922058
0.321807 0.18808 0.922309
0.323667 0.188515 0.922568
0.196752 0.165556 0.94889
0.196905 0.164723 0.941348
0.198366 0.164915 0.940239
0.199791 0.16508 0.938969
0.20176 0.163751 0.938778
0.201171 0.165213 0.9375
0.203098 0.163855 0.93712
0.202518 0.165323 0.93589
0.203826 0.165405 0.934119
0.205205 0.165543 0.932701
0.206701 0.165771 0.931833
0.208954 0.164664 0.93298
0.208289 0.166067 0.931392
0.209925 0.1664 0.931169
0.211666 0.166808 0.93141
0.21337 0.167189 0.93148
0.215069 0.167565 0.931521
0.216844 0.167994 0.931883
0.218654 0.168448 0.932387
0.220519 0.16894 0.933116
0.222455 0.169479 0.934127
0.224451 0.170059 0.935373
0.226383 0.170591 0.936325
0.228319 0.171124 0.937277
0.230222 0.17163 0.938066
0.232156 0.172157 0.938967
0.234024 0.172635 0.939576
0.235929 0.173138 0.940324
0.23783 0.173635 0.941034
0.239729 0.174129 0.941725
0.24158 0.174589 0.942207
0.243496 0.175092 0.942933
0.245562 0.175693 0.94423
0.247675 0.176322 0.945686
0.249935 0.177046 0.947685
0.252147 0.177734 0.949465
0.254246 0.178345 0.950784
0.256163 0.178834 0.95139
0.258006 0.179273 0.951704
0.260556 0.180169 0.954648
0.264087 0.181692 0.961184
0.286839 0.185062 0.947223
0.288164 0.185176 0.945699
0.289415 0.185248 0.943943
0.290483 0.185211 0.941594
0.291402 0.185089 0.938784
0.292297 0.184956 0.935919
0.293328 0.184907 0.93353
0.294468 0.184924 0.931513
0.295739 0.18502 0.929933
0.297014 0.185121 0.928382
0.298387 0.18528 0.927155
0.299726 0.18542 0.925828
0.301132 0.185601 0.924723
0.302601 0.185818 0.923823
0.304113 0.186061 0.923061
0.305663 0.186327 0.92242
0.307282 0.186631 0.921991
0.30897 0.186976 0.921774
0.310632 0.187304 0.921474
0.312294 0.187633 0.921174
0.313984 0.187978 0.920957
0.315672 0.188321 0.92073
0.317401 0.188687 0.920623
0.319216 0.1891 0.920764
0.321111 0.189557 0.921135
0.323011 0.190016 0.921514
0.327368 0.189953 0.928138
0.324908 0.190472 0.921873
0.194815 0.165961 0.940959
0.196294 0.166165 0.939935
0.19773 0.166337 0.938713
0.199163 0.166509 0.937491
0.20055 0.166646 0.936061
0.201931 0.16678 0.934622
0.20326 0.166877 0.932957
0.20465 0.167023 0.931596
0.206136 0.167243 0.930691
0.207665 0.167496 0.929985
0.209265 0.167803 0.929611
0.210925 0.168154 0.929502
0.212563 0.168488 0.929289
0.214207 0.168827 0.929104
0.216 0.169273 0.929561
0.217831 0.169746 0.930178
0.219693 0.170239 0.930908
0.221671 0.170814 0.932119
0.223732 0.171445 0.933658
0.225722 0.172022 0.934865
0.227712 0.172596 0.936052
0.229692 0.17316 0.937171
0.231645 0.173703 0.938158
0.233493 0.17417 0.938691
0.235371 0.174657 0.939336
0.237267 0.175154 0.940036
0.23916 0.175647 0.940708
0.241036 0.176127 0.941294
0.243033 0.176687 0.942348
0.245206 0.177364 0.944068
0.247407 0.178057 0.945871
0.249733 0.178829 0.948122
0.251979 0.179544 0.950033
0.254081 0.18016 0.951361
0.255972 0.180632 0.951863
0.257791 0.181056 0.952082
0.261092 0.182451 0.957834
0.287448 0.18665 0.944335
0.288725 0.186737 0.942673
0.289862 0.186739 0.940557
0.290784 0.186614 0.937757
0.291675 0.186474 0.934884
0.292738 0.18644 0.932597
0.293911 0.186475 0.930692
0.29519 0.186574 0.92914
0.296499 0.186693 0.927701
0.297834 0.186829 0.926355
0.299137 0.186946 0.924917
0.300469 0.187082 0.923581
0.301901 0.187278 0.92257
0.303378 0.187501 0.921708
0.304894 0.187747 0.920965
0.306477 0.188032 0.920436
0.308158 0.188373 0.920201
0.309819 0.188703 0.919911
0.311488 0.189037 0.919639
0.313216 0.189404 0.919542
0.314939 0.189768 0.919427
0.316706 0.190157 0.91944
0.31859 0.190611 0.919793
0.320525 0.191092 0.920283
0.3225 0.191594 0.920882
0.32451 0.192115 0.921573
0.326805 0.190927 0.922223
0.326517 0.192633 0.922244
0.330777 0.192518 0.928511
0.32866 0.193225 0.92329
0.194205 0.16839 0.947904
0.194234 0.167422 0.939679
0.195669 0.167592 0.938447
0.197034 0.167707 0.936892
0.198441 0.167858 0.935557
0.199805 0.167977 0.934033
0.20121 0.16813 0.932719
0.202587 0.168264 0.931292
0.204024 0.168445 0.930159
0.205513 0.168667 0.929274
0.207058 0.168933 0.928654
0.208653 0.169237 0.928261
0.210287 0.16957 0.928049
0.211921 0.169903 0.927827
0.213584 0.170257 0.927736
0.215325 0.170668 0.927977
0.217124 0.17112 0.928463
0.21893 0.171576 0.928966
0.220907 0.172155 0.930186
0.222971 0.172794 0.931754
0.225017 0.173416 0.933216
0.227061 0.174033 0.934639
0.229115 0.174654 0.936079
0.231068 0.175201 0.937075
0.232935 0.175684 0.937693
0.234804 0.176168 0.93831
0.236699 0.176667 0.939011
0.238618 0.177181 0.939795
0.240546 0.177699 0.940597
0.242599 0.178301 0.941877
0.244885 0.17906 0.944047
0.247151 0.179801 0.946103
0.249489 0.180586 0.9484
0.251737 0.181307 0.95032
0.25384 0.181926 0.951647
0.255706 0.182384 0.952054
0.258244 0.183287 0.95498
0.286677 0.188086 0.942786
0.287998 0.188197 0.941273
0.289163 0.188215 0.939261
0.290127 0.188112 0.9366
0.291054 0.18799 0.933849
0.292156 0.187976 0.931693
0.293364 0.188029 0.9299
0.29465 0.188131 0.928376
0.295994 0.188269 0.927048
0.297325 0.188401 0.925693
0.298622 0.188513 0.924237
0.299915 0.188625 0.922782
0.301349 0.188821 0.921781
0.302823 0.189042 0.920909
0.304307 0.189269 0.920075
0.305851 0.189531 0.919425
0.307459 0.189831 0.918979
0.309078 0.190137 0.91856
0.310739 0.190467 0.918271
0.312504 0.190858 0.918294
0.314268 0.191247 0.918307
0.316074 0.191659 0.91844
0.31799 0.192133 0.918895
0.319958 0.192635 0.919486
0.321972 0.193163 0.920205
0.324022 0.193709 0.921015
0.326109 0.194273 0.921915
0.328315 0.194903 0.923145
0.192226 0.169734 0.948125
0.192286 0.168769 0.939974
0.193634 0.168865 0.938304
0.195044 0.169013 0.936959
0.196386 0.169109 0.935301
0.197771 0.169243 0.933872
0.199155 0.169377 0.932453
0.200582 0.169547 0.931253
0.201964 0.169683 0.929855
0.203453 0.169904 0.92897
0.204969 0.170147 0.928217
0.206533 0.170428 0.927693
0.208124 0.17073 0.927291
0.209755 0.171062 0.927069
0.211364 0.171377 0.926743
0.213022 0.171729 0.926635
0.214711 0.172103 0.926658
0.216456 0.172518 0.926917
0.218207 0.172937 0.927194
0.220194 0.173527 0.928472
0.222284 0.17419 0.930162
0.224385 0.174857 0.93187
0.226486 0.175521 0.933547
0.228611 0.176198 0.935289
0.230535 0.176727 0.936171
0.23237 0.17719 0.936667
0.234234 0.177672 0.937265
0.236124 0.178171 0.937957
0.238074 0.17871 0.938873
0.240064 0.179275 0.939929
0.242175 0.179921 0.941443
0.2445 0.180712 0.943773
0.246775 0.181464 0.945865
0.249111 0.182254 0.948162
0.251352 0.182974 0.950052
0.253448 0.183592 0.951361
0.255312 0.18405 0.951759
0.258642 0.185494 0.957679
0.285727 0.189406 0.940634
0.287095 0.189545 0.93929
0.288371 0.189629 0.937649
0.28944 0.189587 0.935342
0.290442 0.189507 0.932842
0.291609 0.189531 0.9309
0.29289 0.189626 0.929348
0.294182 0.18973 0.927844
0.29556 0.189887 0.926627
0.29689 0.190016 0.925263
0.298154 0.190107 0.923706
0.299414 0.190197 0.922149
0.300845 0.190391 0.921139
0.302256 0.190573 0.920074
0.303701 0.190777 0.91912
0.305201 0.191013 0.918342
0.306763 0.191287 0.917758
0.30834 0.191569 0.91722
0.310032 0.191919 0.917032
0.311832 0.192331 0.917166
0.313632 0.192742 0.91729
0.315467 0.193173 0.917515
0.317448 0.193686 0.918163
0.319454 0.194213 0.918873
0.321475 0.194746 0.919611
0.323523 0.195294 0.92042
0.32564 0.195879 0.921412
0.327777 0.196473 0.922449
0.18896 0.17 0.941816
0.190371 0.170142 0.94043
0.191722 0.170236 0.93876
0.193026 0.170295 0.936882
0.194389 0.170405 0.935319
0.195732 0.170501 0.933672
0.197135 0.170648 0.932338
0.198539 0.170797 0.931025
0.199988 0.170984 0.92994
0.201417 0.171157 0.92877
0.202931 0.171398 0.928008
0.204447 0.171642 0.927266
0.205992 0.171908 0.926656
0.20758 0.172208 0.926246
0.209188 0.172524 0.925929
0.210795 0.172839 0.925604
0.21243 0.173175 0.925401
0.21409 0.173529 0.925302
0.215802 0.173922 0.925429
0.217516 0.174315 0.925556
0.219452 0.174872 0.926626
0.22156 0.175554 0.928411
0.223704 0.176259 0.930317
0.225854 0.176964 0.932211
0.228033 0.177685 0.934188
0.229982 0.178236 0.935183
0.231809 0.178695 0.935651
0.233664 0.179174 0.936221
0.23558 0.179694 0.937026
0.237563 0.18026 0.938083
0.239641 0.18089 0.939495
0.241841 0.181603 0.941366
0.244225 0.182441 0.94393
0.246495 0.183194 0.946003
0.248821 0.183982 0.948261
0.251024 0.184681 0.950011
0.253082 0.185275 0.951168
0.254918 0.185716 0.951463
0.258939 0.187643 0.960003
0.285956 0.191459 0.942438
0.286242 0.190917 0.937464
0.287615 0.191061 0.936159
0.288761 0.191064 0.934112
0.289868 0.191045 0.931956
0.291136 0.191129 0.930348
0.292452 0.191244 0.928908
0.293747 0.191347 0.927413
0.295157 0.191522 0.926298
0.296459 0.191633 0.924852
0.297721 0.19172 0.923285
0.299017 0.19183 0.92184
0.300445 0.192021 0.920821
0.301824 0.192183 0.919654
0.303262 0.192381 0.918682
0.304723 0.192594 0.917784
0.306212 0.192824 0.916979
0.307748 0.193083 0.916322
0.309436 0.193431 0.916125
0.311236 0.193844 0.916259
0.313043 0.194261 0.916411
0.314911 0.194713 0.916737
0.316928 0.19525 0.917495
0.318932 0.195778 0.918206
0.320951 0.196313 0.918943
0.322999 0.196863 0.919753
0.325105 0.197445 0.920717
0.327164 0.197998 0.921534
0.187484 0.169805 0.942888
0.185467 0.171099 0.94285
0.187004 0.171343 0.942083
0.188488 0.171545 0.941059
0.189874 0.171665 0.93955
0.191198 0.171734 0.937747
0.192482 0.171775 0.935775
0.193819 0.171862 0.934089
0.195162 0.171956 0.932452
0.196587 0.17212 0.931233
0.197996 0.172273 0.929948
0.199466 0.172477 0.928968
0.200914 0.172664 0.927893
0.202425 0.172902 0.927123
0.203941 0.173146 0.926381
0.205505 0.173428 0.925866
0.207094 0.173729 0.925465
0.208702 0.174045 0.925149
0.21031 0.174362 0.924833
0.211923 0.174681 0.924536
0.213557 0.175017 0.924333
0.21524 0.17539 0.924338
0.216926 0.175764 0.924352
0.218809 0.176285 0.925205
0.220908 0.176966 0.926962
0.223049 0.177674 0.928868
0.225221 0.178401 0.930865
0.227426 0.179147 0.932965
0.229428 0.17974 0.934186
0.231257 0.180205 0.934673
0.233133 0.180701 0.935337
0.235069 0.181238 0.936226
0.237083 0.18183 0.937415
0.239223 0.182509 0.939081
0.241507 0.183286 0.941289
0.243942 0.184166 0.944058
0.246207 0.18492 0.946112
0.248491 0.185684 0.94821
0.250627 0.186339 0.949697
0.253296 0.187362 0.953205
0.25577 0.188243 0.955914
0.28639 0.193652 0.944937
0.285592 0.192411 0.936317
0.286992 0.192571 0.935105
0.288146 0.192576 0.933087
0.289328 0.192602 0.931182
0.290664 0.192726 0.929797
0.291985 0.192842 0.928375
0.293308 0.192962 0.926973
0.294747 0.193153 0.925951
0.296082 0.193282 0.924606
0.297414 0.19341 0.923262
0.298748 0.193541 0.921937
0.30018 0.193733 0.920927
0.301553 0.19389 0.919742
0.302921 0.194045 0.918549
0.304311 0.194213 0.91743
0.3058 0.194443 0.916624
0.307339 0.194703 0.915976
0.30903 0.195053 0.915789
0.310832 0.195469 0.915932
0.312638 0.195887 0.916084
0.314509 0.196342 0.91642
0.316525 0.196881 0.917177
0.318536 0.197415 0.917906
0.320591 0.197974 0.918753
0.322629 0.19852 0.919535
0.324697 0.199083 0.920389
0.326704 0.199609 0.921059
0.329312 0.1986 0.922587
0.328774 0.200169 0.921892
0.185023 0.172666 0.942226
0.186537 0.172891 0.941344
0.188002 0.173075 0.940225
0.189374 0.173182 0.938651
0.190676 0.173231 0.936744
0.191956 0.173265 0.934753
0.193296 0.173353 0.933087
0.194658 0.173461 0.931545
0.196086 0.173627 0.930346
0.19752 0.1738 0.929185
0.198989 0.174002 0.928205
0.200437 0.174188 0.927131
0.20194 0.174421 0.926332
0.203453 0.174662 0.925581
0.204994 0.174925 0.924963
0.206559 0.175209 0.924458
0.208163 0.175523 0.924133
0.20977 0.175839 0.923817
0.211381 0.176159 0.923521
0.213019 0.176498 0.923337
0.214717 0.176884 0.923417
0.216428 0.177279 0.923545
0.218288 0.177786 0.924303
0.22036 0.178451 0.925956
0.222489 0.179155 0.927815
0.224658 0.179886 0.929812
0.226844 0.180624 0.931846
0.228874 0.181242 0.93319
0.230754 0.181746 0.933893
0.232682 0.182283 0.934773
0.234649 0.182846 0.935794
0.236739 0.183497 0.937292
0.238958 0.184236 0.939277
0.241276 0.185044 0.941625
0.243712 0.18593 0.944393
0.245942 0.186664 0.946315
0.248142 0.187373 0.948084
0.250195 0.187973 0.949252
0.252853 0.188996 0.952722
0.255948 0.190318 0.957807
0.285643 0.195095 0.943463
0.284971 0.19392 0.935263
0.286378 0.194083 0.93408
0.287598 0.194128 0.932285
0.288847 0.194194 0.930602
0.290192 0.194322 0.929245
0.291515 0.194438 0.927834
0.292865 0.194572 0.926515
0.294302 0.194762 0.925493
0.295704 0.194931 0.924361
0.297144 0.195124 0.923359
0.298556 0.195301 0.922274
0.299994 0.195495 0.921283
0.30136 0.195645 0.92007
0.302688 0.195774 0.918747
0.304045 0.195921 0.917527
0.305508 0.196134 0.916639
0.307054 0.196397 0.916009
0.308778 0.196768 0.915922
0.310581 0.197185 0.916065
0.312385 0.197602 0.916208
0.314292 0.19808 0.916654
0.316312 0.198623 0.91742
0.318289 0.19914 0.918047
0.320339 0.199697 0.918875
0.322345 0.200227 0.919565
0.324342 0.200751 0.920217
0.326308 0.201255 0.920767
0.328332 0.201792 0.921472
0.183053 0.173997 0.942416
0.184576 0.174229 0.941582
0.186039 0.174409 0.940444
0.187483 0.174574 0.939221
0.18883 0.174657 0.937523
0.190115 0.174691 0.935542
0.191413 0.174738 0.933647
0.192774 0.174842 0.932086
0.194179 0.174986 0.930763
0.195613 0.175155 0.929592
0.197068 0.175344 0.928536
0.198517 0.175529 0.927462
0.199935 0.175691 0.926255
0.201398 0.17589 0.925268
0.202885 0.17611 0.924403
0.204401 0.176354 0.923681
0.20596 0.176634 0.923158
0.207581 0.176963 0.922919
0.20921 0.177297 0.922707
0.210822 0.177619 0.92242
0.212479 0.177975 0.922332
0.214204 0.178383 0.922535
0.215916 0.178781 0.922672
0.217756 0.179275 0.923355
0.219848 0.179961 0.925102
0.22197 0.180666 0.926941
0.224133 0.181397 0.92892
0.226336 0.182153 0.931028
0.228418 0.182814 0.932598
0.230331 0.183345 0.933442
0.232315 0.183927 0.934557
0.234334 0.184532 0.935794
0.236455 0.185208 0.937413
0.238703 0.185974 0.939519
0.241048 0.186805 0.94197
0.243462 0.187681 0.944653
0.245644 0.188385 0.946386
0.247813 0.189076 0.948033
0.249831 0.189655 0.949069
0.252468 0.190671 0.952463
0.256245 0.192485 0.960158
0.284952 0.19657 0.942175
0.28446 0.195497 0.934581
0.285839 0.195641 0.933304
0.287087 0.195702 0.931603
0.288369 0.195787 0.930032
0.289751 0.195936 0.928796
0.291074 0.196051 0.927384
0.292455 0.196203 0.926168
0.29389 0.19639 0.925137
0.295303 0.196565 0.924042
0.296822 0.196806 0.92329
0.298313 0.197031 0.922454
0.299794 0.19725 0.921592
0.301187 0.197416 0.920462
0.30254 0.197557 0.919213
0.303864 0.197682 0.917882
0.30533 0.197895 0.917003
0.306914 0.198181 0.916483
0.308642 0.198554 0.916405
0.310442 0.19897 0.916539
0.312244 0.199387 0.916672
0.314184 0.199885 0.917209
0.316173 0.200412 0.917882
0.318146 0.200928 0.9185
0.320195 0.201487 0.919318
0.322201 0.202019 0.920008
0.324168 0.202527 0.920567
0.326106 0.203016 0.921034
0.328157 0.203569 0.921812
0.183242 0.176129 0.945106
0.184153 0.175812 0.941063
0.185558 0.17594 0.93963
0.186983 0.176087 0.938312
0.188308 0.17615 0.936511
0.189591 0.176179 0.93452
0.190875 0.176212 0.932559
0.192256 0.176332 0.931103
0.193685 0.176495 0.929904
0.195142 0.176683 0.928848
0.196598 0.176872 0.927802
0.198042 0.177052 0.926709
0.199456 0.177209 0.925484
0.200871 0.177369 0.924279
0.202339 0.177573 0.92333
0.203832 0.177798 0.922504
0.205385 0.178074 0.921963
0.207002 0.178401 0.921714
0.208652 0.178754 0.921607
0.210294 0.179101 0.921462
0.211973 0.179476 0.921477
0.213742 0.179921 0.921879
0.215501 0.180356 0.922223
0.217325 0.180841 0.92284
0.219418 0.181532 0.924597
0.221532 0.182235 0.926407
0.223665 0.182948 0.928263
0.225819 0.183672 0.930174
0.227948 0.184374 0.93195
0.229885 0.184927 0.932897
0.231903 0.185537 0.934153
0.233953 0.186169 0.935521
0.236126 0.186888 0.937356
0.238405 0.187681 0.939583
0.240781 0.188541 0.942165
0.243223 0.189443 0.944959
0.245427 0.190167 0.946776
0.247536 0.190817 0.948188
0.249491 0.191354 0.94898
0.252091 0.19235 0.952233
0.285113 0.199377 0.949796
0.284434 0.198155 0.941473
0.284166 0.197214 0.934621
0.285462 0.197302 0.933067
0.286649 0.197321 0.931162
0.287929 0.197402 0.929583
0.289344 0.197572 0.928458
0.290639 0.197666 0.926954
0.292048 0.197835 0.92583
0.293484 0.198022 0.9248
0.294932 0.198217 0.923816
0.296529 0.198507 0.923313
0.298099 0.198781 0.922726
0.299619 0.199023 0.921984
0.30108 0.199228 0.921056
0.302463 0.199387 0.919899
0.303791 0.199512 0.918577
0.305296 0.199748 0.917809
0.306908 0.20005 0.917371
0.308635 0.200423 0.917284
0.310438 0.20084 0.917417
0.312247 0.201262 0.917567
0.314157 0.201744 0.918012
0.316108 0.202248 0.918565
0.318043 0.202743 0.919063
0.320052 0.20328 0.919771
0.322058 0.203814 0.92045
0.324032 0.204326 0.921027
0.326008 0.20484 0.921604
0.328172 0.205462 0.922701
0.182858 0.177753 0.944795
0.183743 0.177405 0.94061
0.185093 0.177482 0.938893
0.186465 0.177581 0.937309
0.187788 0.177639 0.935498
0.189051 0.177649 0.933414
0.190355 0.177698 0.931558
0.191761 0.177838 0.930235
0.193214 0.17802 0.929151
0.194671 0.178209 0.928104
0.196145 0.178412 0.927144
0.197545 0.178554 0.925843
0.198936 0.178691 0.924514
0.200324 0.178827 0.923186
0.201765 0.179008 0.922119
0.203255 0.179232 0.921288
0.20483 0.179527 0.920857
0.206496 0.179895 0.920836
0.208175 0.180273 0.920866
0.20986 0.180655 0.92092
0.211545 0.181036 0.920963
0.213335 0.181499 0.921459
0.215118 0.181956 0.921917
0.216966 0.182462 0.922637
0.219059 0.183157 0.924393
0.221172 0.183863 0.926203
0.223299 0.184577 0.92804
0.225405 0.185269 0.929752
0.227529 0.185971 0.931509
0.229495 0.186548 0.932578
0.231536 0.18718 0.933937
0.233616 0.187838 0.935427
0.235869 0.188622 0.93759
0.238204 0.189461 0.940041
0.240613 0.190352 0.942753
0.243083 0.191281 0.945659
0.245283 0.192005 0.947456
0.247333 0.192615 0.948633
0.249214 0.193099 0.949135
0.251759 0.194063 0.952181
0.283421 0.200193 0.945102
0.283501 0.199462 0.93936
0.284043 0.199045 0.935236
0.285219 0.199051 0.933275
0.28634 0.199023 0.931148
0.287559 0.199062 0.929365
0.288974 0.199231 0.92824
0.290301 0.199344 0.926838
0.291748 0.199535 0.925835
0.293215 0.199741 0.924906
0.294696 0.199956 0.924023
0.296322 0.200264 0.923612
0.297894 0.200538 0.923026
0.299421 0.200784 0.922301
0.300921 0.201013 0.921494
0.302351 0.201198 0.920475
0.303721 0.201348 0.919282
0.305258 0.201602 0.918605
0.306902 0.201923 0.918259
0.308632 0.202297 0.918171
0.310444 0.202721 0.918331
0.312255 0.203144 0.918481
0.314164 0.203626 0.918915
0.316079 0.20411 0.919358
0.317978 0.204584 0.919745
0.319949 0.205099 0.920332
0.321954 0.205634 0.921011
0.323894 0.206129 0.921487
0.325943 0.206686 0.922265
0.328268 0.207408 0.923828
0.18251 0.17941 0.944675
0.183356 0.179019 0.940282
0.184644 0.179037 0.938241
0.185971 0.179094 0.93643
0.187269 0.179128 0.934496
0.18853 0.179133 0.932402
0.189856 0.179199 0.930661
0.191285 0.179358 0.929453
0.192758 0.179557 0.928473
0.194215 0.179744 0.927427
0.195709 0.179965 0.926571
0.197069 0.180072 0.925081
0.198436 0.180186 0.923639
0.199837 0.180332 0.922378
0.201254 0.180493 0.921203
0.202724 0.1807 0.920283
0.204324 0.181016 0.919973
0.206036 0.181424 0.920169
0.207721 0.181809 0.920231
0.209456 0.182232 0.920509
0.211185 0.18265 0.920751
0.212998 0.183134 0.921351
0.214805 0.183612 0.921911
0.216653 0.184119 0.922632
0.218747 0.18482 0.924396
0.220835 0.185511 0.926102
0.22296 0.186226 0.927929
0.225016 0.186884 0.929434
0.227137 0.187588 0.931181
0.22912 0.188182 0.932325
0.231215 0.188859 0.933909
0.23335 0.189562 0.935623
0.235709 0.190431 0.938217
0.23813 0.191341 0.941015
0.240602 0.192283 0.943969
0.243051 0.193202 0.946789
0.245253 0.193931 0.948585
0.247244 0.1945 0.949527
0.249188 0.19503 0.950262
0.251071 0.195516 0.950753
0.283045 0.202681 0.950969
0.282072 0.201222 0.941569
0.282803 0.20092 0.938046
0.284018 0.200945 0.936185
0.285122 0.200899 0.933973
0.2862 0.200839 0.931698
0.287351 0.20083 0.929683
0.288677 0.200938 0.928262
0.290034 0.201068 0.926953
0.291484 0.20126 0.925959
0.292958 0.201469 0.925048
0.294471 0.201704 0.924268
0.29609 0.202007 0.923829
0.297685 0.202295 0.923316
0.299243 0.202559 0.922683
0.300787 0.202816 0.922014
0.302296 0.203049 0.921235
0.303741 0.203243 0.920262
0.305255 0.203482 0.919511
0.306904 0.203806 0.919174
0.308632 0.204178 0.919076
0.310444 0.204603 0.919226
0.312265 0.205032 0.919403
0.31421 0.205537 0.919937
0.316092 0.206002 0.920279
0.317949 0.206451 0.920536
0.319813 0.206902 0.920802
0.321778 0.207414 0.921361
0.32375 0.20793 0.921928
0.325922 0.208564 0.923063
0.182496 0.181378 0.946315
0.182932 0.180597 0.939753
0.184196 0.180591 0.937589
0.185499 0.180623 0.935655
0.186774 0.180634 0.933608
0.188053 0.180653 0.93161
0.189403 0.180739 0.929993
0.190855 0.180917 0.928899
0.192329 0.181117 0.927929
0.193782 0.181299 0.926864
0.195274 0.181517 0.925999
0.196636 0.181624 0.924519
0.198026 0.181757 0.923191
0.199448 0.181919 0.922027
0.200843 0.18206 0.920746
0.20231 0.182263 0.919817
0.203911 0.182581 0.919512
0.205629 0.182995 0.919736
0.207317 0.183383 0.919817
0.209097 0.183846 0.920298
0.210849 0.184284 0.920643
0.212665 0.184773 0.921261
0.214473 0.185252 0.921821
0.216322 0.185763 0.922551
0.218413 0.186466 0.924305
0.220475 0.18714 0.925898
0.222598 0.187859 0.927724
0.224649 0.188516 0.92921
0.226769 0.189224 0.930956
0.228752 0.189821 0.9321
0.230897 0.19054 0.933891
0.233118 0.191314 0.935961
0.235542 0.192238 0.938816
0.238028 0.193204 0.941876
0.240558 0.194196 0.945063
0.242983 0.195102 0.947779
0.24516 0.195815 0.949471
0.247174 0.196403 0.950496
0.249229 0.197018 0.951661
0.251293 0.197637 0.952833
0.282612 0.203521 0.944465
0.283117 0.203057 0.940153
0.284204 0.202992 0.937846
0.285265 0.202912 0.935476
0.286275 0.202801 0.93296
0.287356 0.202741 0.930705
0.288606 0.202795 0.929024
0.289899 0.202881 0.927502
0.291285 0.20303 0.926296
0.292772 0.203245 0.925422
0.294257 0.203461 0.924549
0.295842 0.203741 0.923999
0.297427 0.204022 0.923449
0.299011 0.204303 0.922899
0.300595 0.204584 0.92235
0.302179 0.204864 0.9218
0.303699 0.205105 0.921057
0.305251 0.205366 0.920416
0.306935 0.205711 0.92018
0.308668 0.206087 0.920091
0.310484 0.206514 0.920249
0.312303 0.206942 0.920407
0.314217 0.207429 0.920849
0.316031 0.207852 0.920978
0.317886 0.2083 0.921226
0.319707 0.208726 0.921364
0.32167 0.209239 0.921913
0.323751 0.209821 0.922791
0.326082 0.210556 0.924382
0.182378 0.183255 0.947412
0.182522 0.182188 0.939301
0.183785 0.182177 0.937128
0.185067 0.182188 0.935089
0.18632 0.182176 0.932929
0.187622 0.182212 0.931046
0.188977 0.182301 0.929457
0.190436 0.182485 0.928401
0.191908 0.182682 0.927422
0.193375 0.182875 0.926424
0.194867 0.183092 0.925559
0.196252 0.183217 0.924193
0.197668 0.183372 0.922988
0.19912 0.183558 0.921964
0.200494 0.183679 0.920584
0.201961 0.183881 0.919653
0.203553 0.184191 0.919307
0.20527 0.184606 0.919528
0.206959 0.184995 0.919609
0.20876 0.185478 0.920189
0.210533 0.185935 0.920629
0.212333 0.186412 0.921171
0.214165 0.186914 0.921844
0.216013 0.187425 0.922564
0.218102 0.18813 0.924309
0.220136 0.188786 0.925788
0.222257 0.189508 0.927604
0.22426 0.190131 0.928891
0.226402 0.19086 0.930732
0.228413 0.191483 0.931997
0.230614 0.19225 0.934022
0.232927 0.1931 0.936467
0.23547 0.194123 0.939809
0.238017 0.195141 0.943111
0.240579 0.196164 0.946419
0.242978 0.197054 0.94902
0.245147 0.197764 0.950674
0.247167 0.198358 0.951717
0.249344 0.199067 0.953348
0.251606 0.199836 0.955277
0.283824 0.205992 0.960904
0.284563 0.207339 0.969734
0.283137 0.20834 0.965886
0.282991 0.20739 0.959121
0.283119 0.204683 0.952296
0.282949 0.206522 0.952787
0.283022 0.205744 0.946923
0.283465 0.205227 0.942379
0.284452 0.205088 0.93972
0.285493 0.204989 0.937266
0.286468 0.204848 0.93462
0.287483 0.204739 0.932133
0.288657 0.204739 0.930193
0.289899 0.204787 0.928495
0.291186 0.204867 0.926955
0.292611 0.20504 0.925878
0.294101 0.205257 0.925014
0.295655 0.205517 0.924362
0.297209 0.205777 0.923711
0.298794 0.206058 0.923161
0.300384 0.206342 0.92263
0.302004 0.206646 0.92219
0.303594 0.20693 0.921659
0.305181 0.207212 0.921119
0.306933 0.2076 0.921084
0.3087 0.207998 0.921096
0.310554 0.20845 0.921364
0.312378 0.208881 0.92153
0.314261 0.209349 0.92187
0.316036 0.209748 0.92188
0.317885 0.210192 0.922099
0.319672 0.210597 0.922135
0.321706 0.211155 0.922885
0.323907 0.211814 0.92411
0.18209 0.184976 0.947614
0.18235 0.184003 0.940094
0.183355 0.183745 0.936571
0.18464 0.183755 0.934543
0.185913 0.183759 0.932488
0.187238 0.183813 0.930718
0.188616 0.18392 0.929245
0.190058 0.184088 0.928104
0.19153 0.184284 0.927124
0.192995 0.184474 0.926117
0.194481 0.184685 0.925224
0.195855 0.184799 0.923801
0.197321 0.184995 0.922833
0.198823 0.185224 0.922045
0.2002 0.185345 0.920676
0.20166 0.185541 0.919711
0.203266 0.185862 0.919425
0.204959 0.186258 0.919536
0.206626 0.18663 0.919519
0.208448 0.187132 0.920194
0.210245 0.18761 0.920737
0.212021 0.188069 0.921175
0.213835 0.188557 0.921764
0.215675 0.189065 0.922455
0.217737 0.189752 0.924086
0.219749 0.190394 0.92547
0.221893 0.191139 0.92739
0.223945 0.191804 0.928883
0.226139 0.192581 0.930949
0.228252 0.193287 0.932636
0.230593 0.194169 0.935233
0.232998 0.195096 0.938051
0.235608 0.196176 0.941655
0.238189 0.197227 0.945086
0.240695 0.198211 0.948157
0.242983 0.19902 0.950308
0.245122 0.199711 0.951839
0.247174 0.20033 0.952993
0.249468 0.201131 0.955072
0.251814 0.201966 0.957317
0.255024 0.201461 0.961615
0.254752 0.203241 0.961803
0.258786 0.203328 0.969171
0.257885 0.204653 0.966965
0.282565 0.208216 0.952546
0.283123 0.207763 0.948332
0.283604 0.207263 0.9439
0.284564 0.207099 0.941139
0.285617 0.207003 0.938712
0.286673 0.206912 0.936325
0.287659 0.206777 0.933727
0.288755 0.20672 0.931518
0.289949 0.206732 0.929654
0.291159 0.206757 0.927855
0.292544 0.206901 0.926639
0.294004 0.207096 0.925673
0.295525 0.207333 0.92491
0.297046 0.20757 0.924148
0.298603 0.207831 0.923505
0.300194 0.208116 0.922974
0.301853 0.208444 0.922654
0.30348 0.208752 0.922233
0.305101 0.209056 0.921794
0.306926 0.209491 0.921979
0.308702 0.209894 0.922008
0.310567 0.210353 0.922303
0.312391 0.210785 0.922469
0.314231 0.211226 0.922671
0.31593 0.211578 0.92245
0.317811 0.212043 0.922761
0.31961 0.212455 0.922824
0.321734 0.213072 0.923839
0.1822 0.185841 0.941001
0.182928 0.185313 0.936025
0.184218 0.185326 0.934025
0.185514 0.185348 0.932085
0.186878 0.185436 0.930515
0.188278 0.185561 0.929146
0.189739 0.185745 0.928099
0.191212 0.18594 0.92712
0.192696 0.186147 0.926207
0.194163 0.18634 0.92522
0.195577 0.186487 0.923986
0.19707 0.186705 0.923141
0.198619 0.186974 0.922571
0.200021 0.187115 0.921311
0.201502 0.187326 0.920436
0.20309 0.187631 0.920058
0.204739 0.187989 0.919961
0.206385 0.188343 0.919845
0.208183 0.188825 0.920407
0.20998 0.189305 0.920949
0.211735 0.189748 0.921293
0.213544 0.190234 0.921862
0.215359 0.190723 0.922439
0.217395 0.191392 0.923957
0.219384 0.192019 0.925247
0.221554 0.192789 0.927279
0.223634 0.193482 0.928894
0.225931 0.194346 0.931391
0.228134 0.195128 0.933453
0.230618 0.19613 0.93664
0.233113 0.197134 0.939823
0.235755 0.198246 0.943546
0.238281 0.199258 0.946741
0.240723 0.200198 0.949549
0.242897 0.200922 0.95124
0.244975 0.201567 0.952516
0.247058 0.202213 0.953792
0.249338 0.203007 0.955814
0.251668 0.203834 0.957992
0.254161 0.204781 0.960767
0.281912 0.20972 0.951377
0.2827 0.209422 0.947953
0.283468 0.209114 0.944494
0.284494 0.208991 0.941946
0.28562 0.20894 0.93976
0.286783 0.208918 0.937715
0.287816 0.208809 0.935264
0.288857 0.20871 0.932861
0.289973 0.208664 0.930728
0.291109 0.208635 0.92868
0.292394 0.208709 0.927131
0.293815 0.208877 0.926036
0.295331 0.209109 0.925255
0.296847 0.209342 0.924474
0.298432 0.209621 0.923914
0.300059 0.209928 0.923493
0.301758 0.210283 0.923292
0.303392 0.210594 0.922889
0.30505 0.210922 0.92256
0.306879 0.21136 0.922754
0.308635 0.21175 0.922718
0.310508 0.212215 0.923031
0.312328 0.212645 0.923178
0.314096 0.21304 0.923159
0.31575 0.213363 0.9228
0.317665 0.213851 0.923211
0.319483 0.214276 0.923329
0.3217 0.214953 0.924609
0.182075 0.18771 0.94205
0.182558 0.186935 0.935773
0.183872 0.186968 0.933897
0.185176 0.186994 0.931995
0.186543 0.187083 0.930435
0.187958 0.18722 0.929141
0.18942 0.187402 0.928095
0.190876 0.187581 0.927031
0.192361 0.187787 0.926118
0.19383 0.187981 0.92514
0.195282 0.18816 0.924086
0.196797 0.188397 0.923346
0.198347 0.188666 0.922775
0.199778 0.18883 0.921647
0.201283 0.189062 0.920879
0.202855 0.189352 0.920423
0.204483 0.18969 0.920221
0.206148 0.190061 0.920189
0.207944 0.190544 0.920741
0.20972 0.191008 0.921189
0.211476 0.191452 0.921533
0.213258 0.191916 0.921979
0.215047 0.192385 0.922443
0.217052 0.193032 0.923828
0.219065 0.193682 0.925222
0.221262 0.194481 0.927374
0.2234 0.195224 0.929234
0.225835 0.196206 0.932312
0.228131 0.197068 0.934758
0.230682 0.19813 0.938215
0.233186 0.199146 0.941424
0.235797 0.20024 0.945015
0.238181 0.201145 0.947627
0.240529 0.202015 0.95005
0.242612 0.202671 0.951375
0.244661 0.203297 0.952539
0.24677 0.203967 0.953917
0.248995 0.204722 0.955723
0.251256 0.205502 0.957639
0.25364 0.206371 0.959992
0.283174 0.210857 0.94455
0.28427 0.210778 0.942234
0.285467 0.210773 0.94028
0.286711 0.210803 0.938503
0.287789 0.210721 0.936191
0.288864 0.21064 0.933889
0.28992 0.210549 0.931553
0.290988 0.210469 0.929274
0.292237 0.210516 0.927605
0.293599 0.210642 0.926316
0.295079 0.210848 0.925415
0.296552 0.211051 0.924495
0.298099 0.211305 0.923816
0.29973 0.211614 0.923404
0.301468 0.211995 0.923323
0.303111 0.212312 0.922947
0.304838 0.212685 0.922829
0.306697 0.213145 0.923115
0.308455 0.213536 0.923079
0.310328 0.214002 0.923391
0.312148 0.214433 0.923537
0.31384 0.21478 0.923289
0.315456 0.215077 0.922811
0.317405 0.215588 0.923322
0.31923 0.216019 0.923458
0.321567 0.216776 0.925094
0.182003 0.189635 0.943383
0.182235 0.188603 0.935768
0.183566 0.188649 0.933978
0.184897 0.188697 0.932208
0.186246 0.188766 0.930554
0.187662 0.188902 0.92926
0.189121 0.18908 0.928195
0.190578 0.189258 0.927131
0.192071 0.18947 0.926256
0.19354 0.189661 0.925268
0.194993 0.18984 0.924215
0.196483 0.190053 0.923351
0.198017 0.190308 0.922705
0.199469 0.190489 0.921672
0.201001 0.190743 0.921026
0.20262 0.191075 0.920787
0.204271 0.191434 0.920689
0.205956 0.191822 0.920741
0.20773 0.192286 0.921189
0.209484 0.192732 0.921533
0.211196 0.193139 0.921678
0.21295 0.193582 0.922001
0.214714 0.19403 0.922352
0.21672 0.194682 0.923747
0.218779 0.195373 0.925337
0.221052 0.196241 0.927818
0.223296 0.197076 0.930127
0.225893 0.198198 0.93388
0.228281 0.199139 0.9367
0.230847 0.200219 0.940211
0.233317 0.201213 0.943269
0.235841 0.202242 0.946492
0.238058 0.203017 0.94842
0.240292 0.203802 0.950382
0.242315 0.204412 0.951463
0.244307 0.204996 0.952402
0.246391 0.20565 0.953686
0.248528 0.206341 0.955146
0.287449 0.212419 0.936081
0.288566 0.212363 0.933919
0.289684 0.212311 0.931777
0.290786 0.212251 0.929609
0.292039 0.212298 0.92795
0.293369 0.212399 0.92655
0.294816 0.212581 0.925538
0.296252 0.212758 0.924498
0.297764 0.212987 0.923708
0.299395 0.213297 0.923296
0.301144 0.213686 0.923252
0.302788 0.214003 0.922876
0.304512 0.214375 0.922749
0.306366 0.214832 0.923016
0.308087 0.2152 0.922869
0.309954 0.215663 0.923163
0.182193 0.191101 0.953372
0.181909 0.194165 0.962778
0.181865 0.192799 0.953373
0.181882 0.191518 0.94446
0.182016 0.190374 0.936313
0.18335 0.190418 0.934524
0.184683 0.190465 0.932754
0.186017 0.190516 0.931014
0.18741 0.190627 0.929597
0.188847 0.190782 0.928418
0.190284 0.190939 0.927249
0.19178 0.191153 0.926384
0.19327 0.191363 0.9255
0.194722 0.191538 0.924437
0.196213 0.191751 0.923573
0.197745 0.192002 0.922908
0.199219 0.192202 0.921979
0.200756 0.19246 0.921352
0.202397 0.19281 0.921207
0.204052 0.193174 0.921127
0.20574 0.193565 0.921189
0.207497 0.194014 0.921552
0.209247 0.194458 0.921876
0.210956 0.194862 0.922002
0.212711 0.195306 0.922325
0.214475 0.195756 0.922676
0.216483 0.196413 0.924079
0.21859 0.197149 0.925875
0.220947 0.198092 0.928712
0.223302 0.199025 0.93149
0.225993 0.200232 0.935635
0.228415 0.201206 0.938585
0.230924 0.202245 0.94185
0.233276 0.203146 0.94441
0.235656 0.204064 0.947041
0.288048 0.213933 0.933219
0.28921 0.213908 0.931226
0.290409 0.213913 0.929371
0.291731 0.214005 0.927934
0.293067 0.214108 0.926553
0.294514 0.214289 0.925541
0.295948 0.214463 0.924492
0.297426 0.214668 0.923592
0.299023 0.214954 0.923069
0.300766 0.215339 0.923006
0.302412 0.215659 0.92264
0.304136 0.216031 0.922512
0.180987 0.195283 0.959602
0.18121 0.194171 0.951635
0.181503 0.193149 0.944177
0.181852 0.192202 0.937144
0.183166 0.192222 0.935239
0.184479 0.192245 0.933356
0.185794 0.192275 0.931511
0.187165 0.192361 0.929971
0.188594 0.192506 0.928745
0.190009 0.19264 0.927463
0.191506 0.192853 0.926597
0.192983 0.19305 0.925647
0.194455 0.193243 0.924679
0.195922 0.193431 0.923692
0.197432 0.193661 0.922923
0.198903 0.193857 0.921975
0.200481 0.194151 0.921537
0.20213 0.194509 0.921429
0.203813 0.194897 0.921471
0.205545 0.195328 0.921731
0.2073 0.195778 0.922083
0.209031 0.196204 0.922313
0.210759 0.196626 0.922523
0.212538 0.197092 0.922949
0.214308 0.197548 0.923318
0.216345 0.198232 0.924843
0.218507 0.199019 0.926873
0.2209 0.199997 0.929859
0.223296 0.200971 0.932805
0.225997 0.202193 0.936986
0.228368 0.20313 0.939718
0.230737 0.204057 0.942392
0.232941 0.204841 0.944341
0.180552 0.195532 0.949869
0.181102 0.194758 0.943781
0.181687 0.194034 0.937973
0.183005 0.194053 0.936078
0.184318 0.194072 0.934185
0.185632 0.194096 0.932322
0.186958 0.194135 0.930545
0.18836 0.194252 0.929176
0.189754 0.194362 0.92778
0.191214 0.194538 0.926725
0.192692 0.194734 0.925775
0.194165 0.194926 0.924807
0.195612 0.195095 0.923725
0.197115 0.195318 0.922918
0.198609 0.195533 0.922074
0.200211 0.195849 0.921749
0.20191 0.196253 0.921867
0.203639 0.196682 0.922117
0.205376 0.197118 0.922394
0.207151 0.197586 0.922831
0.208883 0.198014 0.923061
0.210615 0.19844 0.92328
0.212404 0.198915 0.923743
0.2142 0.199394 0.924224
0.21622 0.200066 0.925663
0.218384 0.200859 0.927701
0.22078 0.201845 0.930696
0.223183 0.20283 0.933668
0.225808 0.203997 0.937529
