ply
format ascii 1.0
element vertex 1577
property float x
property float y
property float z
end_header
0.0564092 -0.0321452 0.814077
0.0580043 -0.031567 0.814609
0.0595994 -0.0309578 0.815287
0.0611923 -0.0302777 0.816294
0.0627881 -0.0296047 0.817263
0.0643921 -0.0290305 0.817766
0.065994 -0.0283767 0.818638
0.0675974 -0.0276577 0.819811
0.0692044 -0.0269584 0.820886
0.0708159 -0.0262625 0.821943
0.0724301 -0.0255655 0.823
0.0740471 -0.0247244 0.824717
0.0756714 -0.0238168 0.826735
0.0773009 -0.0228898 0.828831
0.0789377 -0.0219972 0.830762
0.0805741 -0.0212849 0.831859
-0.0607814 -0.0681568 0.796696
-0.0591091 -0.0678047 0.796087
-0.0574271 -0.0674687 0.795391
-0.0557072 -0.0671862 0.794398
-0.0539802 -0.0669188 0.793327
-0.0522343 -0.0666831 0.792086
-0.0505361 -0.066389 0.791176
-0.0488797 -0.0660419 0.790565
-0.0472524 -0.0656573 0.790164
-0.0456429 -0.0652495 0.789892
-0.0440607 -0.0648035 0.789832
-0.0424677 -0.0643745 0.789681
-0.0408607 -0.0639675 0.789409
-0.0392174 -0.0636186 0.788823
-0.0375842 -0.0632574 0.788307
-0.0359431 -0.0629126 0.787705
-0.0343066 -0.0625642 0.787126
-0.0326732 -0.0622149 0.786555
-0.0310602 -0.0618355 0.786149
-0.0294574 -0.0614415 0.785823
-0.0278518 -0.0610551 0.785459
-0.0191516 -0.0534117 0.808919
-0.0174521 -0.0531404 0.807902
-0.0157459 -0.052891 0.806777
-0.0140465 -0.0526365 0.805684
-0.0124177 -0.0522396 0.805337
-0.0108364 -0.0517421 0.805514
-0.00930345 -0.051135 0.806258
-0.00786853 -0.0502975 0.808188
-0.00644164 -0.0494247 0.810291
-0.004977 -0.0486239 0.812013
-0.00351444 -0.0478031 0.813832
-0.00204247 -0.0469893 0.815602
-0.00049666 -0.0463489 0.816481
0.00106783 -0.0457496 0.817148
0.00262365 -0.045121 0.81796
0.00417041 -0.0444592 0.818937
0.00576268 -0.0439172 0.819303
0.00734336 -0.0433382 0.819854
0.00890866 -0.0427072 0.820666
0.0105125 -0.0421871 0.820916
0.0121496 -0.0417695 0.820653
0.0137821 -0.0413406 0.820448
0.0154131 -0.0409101 0.820253
0.0170471 -0.0404932 0.81999
0.0186739 -0.0400535 0.819843
0.0203238 -0.0397021 0.81926
0.0219649 -0.0393258 0.818803
0.0236107 -0.0389753 0.81822
0.0252753 -0.0387108 0.81722
0.026912 -0.0383439 0.816724
0.0285267 -0.0378885 0.816665
0.0413425 -0.0336867 0.818881
0.042973 -0.0333281 0.818356
0.0445831 -0.03284 0.818451
0.0462072 -0.0324519 0.818071
0.0478334 -0.0320926 0.817555
0.0494516 -0.0316867 0.817263
0.0510599 -0.0311933 0.817387
0.0526751 -0.0307734 0.817162
0.054291 -0.0303625 0.816899
0.0559002 -0.0298917 0.816916
0.057506 -0.0293794 0.817128
0.0591094 -0.0288175 0.817573
0.0607111 -0.0282195 0.818182
0.0623161 -0.0276319 0.818743
0.0639238 -0.0270809 0.819129
0.06553 -0.0264564 0.819855
0.0671366 -0.0257788 0.820824
0.0687467 -0.0250984 0.821803
0.0703589 -0.0243978 0.822869
0.0719749 -0.0236964 0.823935
0.0735937 -0.0228944 0.825457
0.0752185 -0.0220105 0.827348
0.0768501 -0.0210651 0.829511
0.0784872 -0.0201881 0.831354
0.0801257 -0.0194458 0.832576
-0.0596379 -0.0661604 0.796275
-0.0579608 -0.065817 0.795624
-0.0562454 -0.0655277 0.794678
-0.0545358 -0.0652363 0.793749
-0.0527882 -0.0650018 0.79251
-0.0511012 -0.0646907 0.791701
-0.0494447 -0.0643419 0.791102
-0.0478297 -0.0639372 0.790812
-0.0462069 -0.063546 0.790451
-0.0446106 -0.063118 0.790292
-0.0430142 -0.0626914 0.790125
-0.0414057 -0.0622846 0.789854
-0.0397605 -0.0619363 0.789268
-0.0381267 -0.061574 0.788761
-0.036495 -0.0612119 0.788255
-0.0348569 -0.0608635 0.787679
-0.033221 -0.0605158 0.787103
-0.0315977 -0.0601509 0.786621
-0.0299989 -0.0597473 0.786348
-0.0283848 -0.0593725 0.785923
-0.0195632 -0.0519312 0.808111
-0.0178894 -0.0516098 0.807365
-0.0162059 -0.0513146 0.806487
-0.0145348 -0.0510005 0.805711
-0.012966 -0.0504729 0.806041
-0.0114196 -0.0498937 0.806635
-0.00992055 -0.0492035 0.807795
-0.00851239 -0.048295 0.810067
-0.00709436 -0.0473903 0.812311
-0.00562097 -0.0465988 0.813964
-0.00415683 -0.04577 0.815801
-0.0026741 -0.0449714 0.817474
-0.00111735 -0.0443479 0.818256
0.000448222 -0.0437404 0.818952
0.00200678 -0.0431078 0.819773
0.00357836 -0.0425031 0.820449
0.00517228 -0.0419557 0.820835
0.00677466 -0.0414295 0.821115
0.00835789 -0.0408428 0.821694
0.00997892 -0.0403667 0.821722
0.0116052 -0.0399081 0.821663
0.0132386 -0.0394746 0.821477
0.0148525 -0.0389771 0.821611
0.0164707 -0.0384933 0.821678
0.0180817 -0.0379837 0.82187
0.0197186 -0.0375688 0.821598
0.0213535 -0.0371501 0.821344
0.022999 -0.0367774 0.820868
0.0246702 -0.0365169 0.81985
0.0263185 -0.0361756 0.819228
0.0279451 -0.035749 0.819023
0.0295907 -0.0354128 0.818382
0.0406288 -0.0304877 0.826211
0.0422933 -0.0302612 0.825047
0.0439542 -0.0300378 0.823873
0.0456074 -0.029791 0.822815
0.0472614 -0.0295783 0.821602
0.0489056 -0.0293233 0.820593
0.0505382 -0.028991 0.819951
0.052169 -0.0286677 0.819271
0.0537989 -0.0283635 0.818503
0.0554156 -0.0279396 0.818298
0.0570246 -0.0274284 0.8185
0.0586293 -0.0268461 0.819032
0.060234 -0.0262444 0.819651
0.0618424 -0.0256735 0.820124
0.0634537 -0.0251276 0.820482
0.0650644 -0.0245496 0.820984
0.0666748 -0.0238954 0.821836
0.0682863 -0.0232314 0.822727
0.0699011 -0.0225247 0.823812
0.0715185 -0.0217975 0.824984
0.0731393 -0.021018 0.82639
0.074765 -0.0201517 0.828183
0.0763982 -0.0192025 0.830345
0.0780367 -0.0182961 0.832304
0.0796778 -0.0175233 0.833652
-0.0601222 -0.0645721 0.796142
-0.0584399 -0.0642355 0.795461
-0.0567427 -0.0639224 0.794653
-0.0550597 -0.063595 0.793929
-0.0533467 -0.0633126 0.792962
-0.0516719 -0.0629828 0.79226
-0.0500256 -0.0626174 0.791755
-0.0484095 -0.0622117 0.791471
-0.0467846 -0.0618204 0.79111
-0.045186 -0.061393 0.790947
-0.0435864 -0.0609683 0.79077
-0.0419751 -0.0605627 0.790492
-0.0403284 -0.0602141 0.789911
-0.0386924 -0.0598524 0.789403
-0.0370458 -0.0595112 0.788788
-0.0354045 -0.0591657 0.7882
-0.0337661 -0.0588192 0.78762
-0.0321422 -0.0584529 0.787149
-0.0305365 -0.0580582 0.786829
-0.0289298 -0.0576679 0.786488
-0.0151728 -0.0490472 0.807357
-0.0136574 -0.0483955 0.808314
-0.0121324 -0.0477576 0.809197
-0.0106525 -0.0470109 0.810626
-0.00922093 -0.0461412 0.812675
-0.00776398 -0.0453135 0.814502
-0.00627495 -0.0445471 0.816009
-0.00479664 -0.043741 0.81771
-0.00329473 -0.042979 0.819179
-0.00171837 -0.0423956 0.819749
-0.000156465 -0.041769 0.820531
0.00141296 -0.0411553 0.821246
0.00300974 -0.0406107 0.821612
0.00462343 -0.0401112 0.821756
0.00624404 -0.0396307 0.821803
0.0078444 -0.0390894 0.82215
0.00947185 -0.0386285 0.822101
0.0110857 -0.038126 0.822254
0.0127074 -0.0376474 0.822291
0.0143041 -0.0370841 0.822745
0.015911 -0.0365518 0.823044
0.0175118 -0.0359951 0.823459
0.0191393 -0.0355318 0.823419
0.0207595 -0.0350409 0.823515
0.022386 -0.034574 0.823494
0.0240475 -0.0342532 0.822766
0.0256976 -0.0338933 0.822233
0.0384943 -0.0290728 0.82723
0.0401433 -0.0287196 0.826667
0.0417943 -0.0283937 0.825978
0.0434484 -0.0281038 0.825124
0.045097 -0.0278 0.824338
0.046747 -0.0275301 0.823397
0.0483877 -0.0272113 0.822688
0.0500254 -0.0268833 0.822028
0.051663 -0.0265847 0.821232
0.053298 -0.026287 0.820436
0.0549212 -0.0258876 0.820114
0.0565363 -0.0254044 0.820181
0.0581477 -0.0248646 0.820509
0.0597564 -0.024282 0.821031
0.0613704 -0.0237541 0.821301
0.0629855 -0.0232302 0.821551
0.0645992 -0.0226573 0.822025
0.0662119 -0.0220242 0.82277
0.0678264 -0.0213798 0.823563
0.069442 -0.0206704 0.824648
0.0710614 -0.0199431 0.82581
0.0726842 -0.0191823 0.827118
0.0743101 -0.0183124 0.82891
0.0759439 -0.0173333 0.831188
0.0775847 -0.0163952 0.833272
0.0792289 -0.0155873 0.834765
-0.0589018 -0.0626759 0.795171
-0.0572433 -0.0623117 0.79465
-0.0555887 -0.0619452 0.794143
-0.0538966 -0.0616334 0.793343
-0.0522439 -0.0612712 0.792821
-0.0506224 -0.0608683 0.79252
-0.0490168 -0.0604443 0.792334
-0.0473896 -0.0600531 0.791974
-0.0457879 -0.0596265 0.791804
-0.0441837 -0.0592051 0.791609
-0.0425572 -0.0588193 0.791225
-0.0408965 -0.0584895 0.790547
-0.039258 -0.0581289 0.790035
-0.0376079 -0.0577907 0.789409
-0.0359631 -0.057448 0.788808
-0.0343227 -0.0571023 0.788227
-0.0327069 -0.0567188 0.787847
-0.0311026 -0.0563185 0.787557
-0.0144652 -0.046063 0.811834
-0.0129215 -0.0454493 0.812577
-0.0114181 -0.0447389 0.813803
-0.00993143 -0.0439795 0.815271
-0.00841086 -0.0432877 0.816391
-0.00687855 -0.0426147 0.817414
-0.00537777 -0.0418548 0.818863
-0.00385447 -0.0411388 0.82009
-0.00226705 -0.0405772 0.820543
-0.000708618 -0.0399351 0.821393
0.000872043 -0.0393451 0.821982
0.00248621 -0.0388429 0.822135
0.00410903 -0.0383641 0.822173
0.00573745 -0.0379026 0.822123
0.0073531 -0.0374023 0.822267
0.00897367 -0.0369174 0.822333
0.0105814 -0.0363908 0.822603
0.0121957 -0.0358839 0.822776
0.0137785 -0.0352692 0.823471
0.0153743 -0.0346903 0.823993
0.0169689 -0.0341023 0.824553
0.0185801 -0.0335684 0.824851
0.0201715 -0.0329556 0.825528
0.021768 -0.0323543 0.826146
0.0234041 -0.0319061 0.826029
0.0250424 -0.0314683 0.825863
0.0380143 -0.0273451 0.827481
0.0396593 -0.0269613 0.827063
0.0413023 -0.0265738 0.826665
0.0429464 -0.0262035 0.826189
0.0445909 -0.0258484 0.825646
0.046235 -0.0255062 0.825044
0.0478706 -0.0251185 0.824656
0.0495122 -0.0247882 0.824005
0.0511544 -0.0244879 0.82322
0.0527945 -0.0241927 0.822414
0.0544237 -0.0238178 0.821977
0.0560472 -0.0233843 0.821811
0.0576633 -0.0228703 0.822013
0.0592767 -0.0223095 0.822428
0.0608964 -0.0218251 0.822495
0.0625147 -0.0213044 0.822726
0.0641315 -0.0207555 0.823083
0.065747 -0.0201442 0.823721
0.067365 -0.019526 0.824388
0.0689825 -0.018838 0.825366
0.0706033 -0.0181319 0.826421
0.0722272 -0.017373 0.827709
0.0738547 -0.0164978 0.82951
0.0754896 -0.0155124 0.831797
0.0771313 -0.0145401 0.834016
0.0787772 -0.0136987 0.835644
-0.0577501 -0.0606919 0.794688
-0.0561191 -0.0602925 0.794362
-0.0544462 -0.0599533 0.793716
-0.0527904 -0.0595937 0.793182
-0.0511786 -0.0591749 0.792967
-0.0495592 -0.0587686 0.792687
-0.0479192 -0.0583943 0.792238
-0.0463156 -0.0579687 0.792064
-0.0447221 -0.057529 0.791965
-0.043094 -0.0571438 0.79158
-0.0414434 -0.0567963 0.790999
-0.0398029 -0.0564367 0.790485
-0.0381509 -0.0560992 0.789858
-0.0365027 -0.0557601 0.789243
-0.0348598 -0.0554161 0.788656
-0.0332476 -0.0550238 0.788323
-0.0316533 -0.0546034 0.788138
-0.0155212 -0.0431859 0.818022
-0.0138298 -0.0428718 0.817238
-0.0122219 -0.0423759 0.817372
-0.0106666 -0.0417576 0.818115
-0.00907213 -0.0412254 0.818423
-0.00748712 -0.0406683 0.818856
-0.00593794 -0.040019 0.819744
-0.00437903 -0.0393863 0.820545
-0.00276395 -0.038892 0.82066
-0.00118624 -0.0382979 0.821268
0.000410529 -0.0377501 0.821643
0.00202463 -0.0372473 0.821797
0.00364009 -0.0367467 0.821941
0.00526171 -0.0362637 0.821997
0.00686877 -0.0357367 0.822267
0.00847698 -0.0352101 0.822537
0.0100768 -0.0346549 0.822942
0.0116784 -0.0341014 0.823337
0.013253 -0.0334529 0.824187
0.014842 -0.0328443 0.824843
0.0164264 -0.0322108 0.825616
0.0180199 -0.0316026 0.826263
0.0195818 -0.0308644 0.827529
0.0211639 -0.0301897 0.828486
0.0227617 -0.0295652 0.829201
0.0243545 -0.0289096 0.830061
0.037516 -0.0255188 0.828176
0.039163 -0.0251332 0.827768
0.0408043 -0.024719 0.827496
0.0424404 -0.0242797 0.82734
0.0440871 -0.0239204 0.826817
0.0457275 -0.0235302 0.826438
0.0473613 -0.023096 0.826263
0.0490032 -0.0227362 0.825749
0.0506459 -0.0224064 0.825099
0.0522898 -0.0221051 0.824323
0.0539253 -0.0217553 0.82377
0.0555551 -0.021351 0.823468
0.0571774 -0.0208679 0.823525
0.0587974 -0.0203569 0.823708
0.0604204 -0.0198759 0.823755
0.0620418 -0.0193755 0.823889
0.0636622 -0.018849 0.82414
0.0652824 -0.0182879 0.824545
0.0669027 -0.017694 0.825096
0.0685231 -0.0170345 0.825938
0.0701452 -0.0163285 0.826983
0.0717701 -0.0155649 0.82828
0.0733983 -0.0146842 0.83009
0.075034 -0.0136926 0.832386
0.0766763 -0.0127161 0.834603
0.0783236 -0.0118475 0.836337
-0.0578375 -0.0570108 0.803248
-0.0548547 -0.0584674 0.79304
-0.0532221 -0.0580766 0.792678
-0.0516396 -0.0576162 0.792685
-0.050045 -0.0571735 0.7926
-0.0484305 -0.0567611 0.792355
-0.0468266 -0.0563347 0.792186
-0.0452437 -0.0558773 0.792179
-0.0436153 -0.0554908 0.791804
-0.0419772 -0.0551222 0.791336
-0.0403486 -0.0547416 0.790934
-0.0387061 -0.0543866 0.790402
-0.0370453 -0.0540654 0.789697
-0.0354099 -0.0537064 0.789191
-0.0338086 -0.0532929 0.788968
-0.0322114 -0.052874 0.788775
-0.0164874 -0.0404967 0.823161
-0.014719 -0.0403313 0.821634
-0.0129953 -0.0400778 0.820551
-0.0113619 -0.0396245 0.820463
-0.00970349 -0.0392317 0.820076
-0.00807806 -0.038763 0.820065
-0.00649156 -0.0381981 0.820527
-0.00490296 -0.0376347 0.82098
-0.00326814 -0.0371873 0.820863
-0.00167265 -0.0366372 0.821248
-5.9159e-05 -0.0361326 0.821411
0.0015633 -0.0356518 0.821459
0.00317018 -0.0351267 0.821718
0.00478473 -0.0346215 0.821881
0.00639179 -0.0340924 0.82216
0.00799177 -0.0335389 0.822556
0.00958517 -0.0329606 0.823067
0.011179 -0.032378 0.823597
0.012748 -0.031706 0.824553
0.0143302 -0.0310691 0.825335
0.0159033 -0.0303894 0.82632
0.0174682 -0.0296677 0.827499
0.0189993 -0.0288019 0.829354
0.0205647 -0.028045 0.830687
0.0221416 -0.0273175 0.831876
0.0237135 -0.0265501 0.833248
0.0386596 -0.0232618 0.828656
0.0403004 -0.0228325 0.828452
0.0419362 -0.0223699 0.828403
0.0435792 -0.0219664 0.828083
0.0452262 -0.0215993 0.827598
0.0468618 -0.0211625 0.827432
0.0485036 -0.0207772 0.827035
0.0501469 -0.0204201 0.826511
0.0517911 -0.0200913 0.825862
0.0534305 -0.0197395 0.825319
0.0550659 -0.0193626 0.824892
0.056695 -0.0189322 0.824706
0.0583216 -0.0184741 0.824647
0.0599501 -0.01804 0.824482
0.0615737 -0.0175411 0.824606
0.0631967 -0.0170375 0.82475
0.0648191 -0.0164799 0.825136
0.0664407 -0.0158889 0.825668
0.0680626 -0.0152516 0.826402
0.0696859 -0.0145436 0.827447
0.0713112 -0.0137512 0.828859
0.0729414 -0.0128673 0.830669
0.0745763 -0.0118912 0.832876
0.0762196 -0.0109175 0.835064
0.0778671 -0.01005 0.836778
-0.0547512 -0.0550028 0.800354
-0.0520475 -0.0561337 0.792002
-0.0504705 -0.0556662 0.792048
-0.0499585 -0.0536176 0.800337
-0.0359467 -0.0520178 0.789602
-0.0343294 -0.0516291 0.789253
-0.0327077 -0.0512508 0.788853
-0.0190495 -0.0383699 0.827775
-0.0172872 -0.0381647 0.826442
-0.015496 -0.0380355 0.824742
-0.0137297 -0.0378644 0.823254
-0.0120319 -0.0375474 0.82249
-0.0103127 -0.0372886 0.821447
-0.00865569 -0.0368883 0.821098
-0.00704063 -0.0363874 0.821242
-0.00542379 -0.0358902 0.821366
-0.00377438 -0.0354768 0.821085
-0.00216826 -0.0349516 0.821344
-0.000545807 -0.0344686 0.821401
0.00107566 -0.0339832 0.821468
0.00267567 -0.0334356 0.821834
0.0042836 -0.0329081 0.822103
0.00588293 -0.0323519 0.822508
0.00747613 -0.031773 0.823018
0.00906312 -0.0311692 0.823645
0.010653 -0.0305671 0.824263
0.0122232 -0.0298929 0.825218
0.0138072 -0.0292546 0.826
0.0153814 -0.0285724 0.826985
0.0169467 -0.0278446 0.828182
0.0184829 -0.0269898 0.829969
0.0200461 -0.0262179 0.83136
0.0216174 -0.0254591 0.832683
0.0381424 -0.02131 0.829891
0.0397859 -0.0208781 0.829697
0.0414215 -0.0203977 0.829726
0.0430622 -0.0199535 0.829589
0.0447152 -0.0196097 0.828998
0.0463557 -0.0191789 0.828804
0.0480009 -0.0187977 0.828387
0.0496501 -0.0184643 0.827758
0.0512965 -0.0181313 0.827128
0.0529385 -0.0177774 0.826595
0.0545815 -0.0174503 0.825945
0.0562184 -0.0170739 0.825519
0.0578512 -0.0166696 0.825218
0.0594825 -0.0162614 0.824936
0.0611102 -0.0158056 0.824867
0.0627348 -0.0153016 0.825011
0.0643576 -0.0147451 0.825387
0.0659801 -0.0141552 0.825909
0.0676037 -0.0135385 0.826546
0.0692278 -0.0128242 0.82761
0.0708524 -0.0120005 0.829148
0.0724831 -0.0111112 0.830967
0.0741185 -0.0101579 0.833057
0.0757617 -0.00921392 0.835098
0.077409 -0.00835025 0.836782
0.0795594 -0.00761927 0.84531
0.0790951 -0.00604865 0.844691
-0.020759 -0.0386969 0.828509
-0.0213988 -0.0367258 0.829952
-0.0196904 -0.036389 0.829266
-0.0179332 -0.0361655 0.828031
-0.0161503 -0.0360103 0.826467
-0.0143658 -0.0358724 0.824825
-0.0126412 -0.0356096 0.823801
-0.010907 -0.0353791 0.822623
-0.00922906 -0.0350226 0.822062
-0.00759491 -0.0345627 0.822003
-0.005965 -0.0340932 0.821992
-0.00430234 -0.0337095 0.821567
-0.00268401 -0.0332119 0.821691
-0.00105301 -0.0327486 0.821651
0.000569217 -0.0322611 0.821728
0.00216312 -0.0316923 0.82219
0.00376388 -0.0311394 0.822575
0.00536988 -0.0305985 0.822902
0.0069556 -0.0299917 0.823538
0.00853816 -0.0293682 0.824252
0.0101303 -0.0287669 0.82486
0.0117017 -0.0280905 0.825815
0.013281 -0.02743 0.826693
0.0148634 -0.0267687 0.827571
0.0164241 -0.0260176 0.828864
0.0179529 -0.0251283 0.830795
0.0195301 -0.0244015 0.831964
0.0211024 -0.0236401 0.833286
0.0392445 -0.0187582 0.831666
0.0408862 -0.0182915 0.831626
0.0425265 -0.0178205 0.831606
0.0441921 -0.0175305 0.830774
0.0458424 -0.0171527 0.830338
0.0475046 -0.0168794 0.829438
0.0491623 -0.0166024 0.828558
0.0508165 -0.0163198 0.827706
0.0524608 -0.0159665 0.827173
0.0541056 -0.0156377 0.826534
0.0557421 -0.0152419 0.826194
0.0573774 -0.014842 0.825874
0.059013 -0.0144602 0.825477
0.0606431 -0.014028 0.825301
0.0622711 -0.0135501 0.825329
0.0638956 -0.0130146 0.825609
0.0655202 -0.0124458 0.826033
0.0671433 -0.011799 0.826796
0.0687672 -0.0110561 0.827976
0.0703926 -0.010203 0.829629
0.072024 -0.00930826 0.831457
0.07366 -0.00835336 0.833536
0.0753031 -0.00743028 0.835471
0.0769517 -0.00659518 0.837018
0.0786022 -0.00586198 0.838121
-0.023673 -0.0352549 0.831249
-0.0219759 -0.0348845 0.830728
-0.0202761 -0.0345247 0.830158
-0.0185287 -0.034275 0.829058
-0.0167577 -0.0340877 0.827659
-0.0149705 -0.03395 0.826028
-0.0132428 -0.0336876 0.825004
-0.0115018 -0.0334668 0.823788
-0.00982009 -0.0331125 0.823218
-0.00817443 -0.032674 0.823053
-0.00653343 -0.0322257 0.822936
-0.00485796 -0.0318687 0.822385
-0.00322774 -0.0313968 0.822384
-0.00158816 -0.0309511 0.822258
3.49094e-05 -0.0304608 0.822344
0.00162258 -0.0298686 0.822912
0.00321748 -0.0292921 0.823403
0.00481885 -0.0287297 0.823827
0.00641185 -0.0281377 0.824386
0.00799628 -0.0275126 0.825099
0.00959087 -0.0269117 0.825697
0.0111707 -0.0262561 0.826545
0.0127644 -0.0256373 0.82722
0.0143413 -0.0249511 0.828204
0.01591 -0.0242224 0.829381
0.0174619 -0.0234134 0.830926
0.0190659 -0.0227892 0.83161
0.0387078 -0.0166776 0.833419
0.0403509 -0.0161949 0.833447
0.0419933 -0.0157079 0.833495
0.0436602 -0.0154007 0.832741
0.0453263 -0.0151073 0.831928
0.0470052 -0.0149452 0.830536
0.0486766 -0.0147585 0.82926
0.0503416 -0.0145598 0.828041
0.0519923 -0.0142552 0.827296
0.053638 -0.013925 0.826667
0.0552755 -0.0135251 0.826347
0.0569116 -0.0131255 0.826027
0.0585464 -0.0127219 0.825726
0.0601791 -0.0122945 0.825532
0.0618079 -0.0118161 0.82556
0.063433 -0.0112798 0.825839
0.0650577 -0.0106879 0.82636
0.0666823 -0.0100374 0.827133
0.0683057 -0.00926312 0.828437
0.0699325 -0.00838247 0.830196
0.0715631 -0.00745486 0.832149
0.0732005 -0.00651884 0.834131
0.0748451 -0.00561944 0.835949
0.0764938 -0.0047813 0.837496
0.0781454 -0.00407322 0.838482
0.0802976 -0.00362422 0.845678
0.0797992 -0.00335963 0.839487
-0.0260422 -0.0336017 0.833411
-0.0243127 -0.0332864 0.832621
-0.0225767 -0.0329919 0.831733
-0.020864 -0.0326543 0.831058
-0.0191157 -0.0324014 0.829978
-0.0173595 -0.032176 0.828772
-0.0155707 -0.0320363 0.827161
-0.0138415 -0.0317708 0.826158
-0.0120965 -0.0315532 0.824932
-0.0103938 -0.0312434 0.824151
-0.00871883 -0.0308717 0.823668
-0.00706636 -0.0304476 0.823435
-0.00538933 -0.0300909 0.822885
-0.00375902 -0.0296145 0.822903
-0.00212586 -0.0291462 0.822883
-0.000517251 -0.0286102 0.823181
0.00107248 -0.0280165 0.823749
0.00265384 -0.0273932 0.824452
0.00424868 -0.0268027 0.825001
0.00584491 -0.0262113 0.82555
0.00743177 -0.0255842 0.826263
0.00902823 -0.0249813 0.826861
0.0106238 -0.0243677 0.827507
0.0122321 -0.023791 0.827979
0.0138249 -0.0231533 0.828731
0.0154215 -0.022521 0.829454
0.0170032 -0.0218229 0.830476
0.0186254 -0.0212692 0.830832
0.0202177 -0.0205906 0.831758
0.0381639 -0.0145553 0.835325
0.0398102 -0.0140672 0.835373
0.0414594 -0.0136007 0.835324
0.0431346 -0.013322 0.834445
0.0448081 -0.0130552 0.833517
0.0465042 -0.0130061 0.831633
0.048189 -0.0129086 0.829971
0.0498627 -0.0127707 0.828492
0.0515183 -0.0124956 0.827622
0.0531677 -0.0121882 0.826896
0.0548061 -0.0117841 0.826596
0.0564432 -0.0113805 0.826295
0.0580814 -0.0109994 0.825898
0.0597149 -0.0105719 0.825704
0.0613428 -0.0100708 0.825829
0.0629692 -0.00951395 0.826195
0.0645945 -0.00891626 0.826735
0.06622 -0.00826646 0.827498
0.0678442 -0.0074673 0.828898
0.0694708 -0.00657657 0.830686
0.0711027 -0.00564107 0.832657
0.0727408 -0.00467423 0.834754
0.0743854 -0.00374631 0.836677
0.0760356 -0.00287795 0.838339
0.0776889 -0.00216769 0.839325
0.0793458 -0.00143139 0.840417
-0.026566 -0.0318746 0.833586
-0.0248563 -0.0315162 0.833008
-0.023123 -0.031213 0.832169
-0.0213993 -0.0308963 0.831398
-0.0196583 -0.0306247 0.830415
-0.0179198 -0.0303562 0.829421
-0.0161425 -0.0301857 0.827966
-0.0144228 -0.0298934 0.827098
-0.0126851 -0.0296525 0.825989
-0.0109769 -0.0293496 0.825178
-0.00927905 -0.029029 0.824455
-0.00761462 -0.0286297 0.824107
-0.0059361 -0.0282713 0.823566
-0.00430485 -0.0277922 0.823594
-0.00267134 -0.0273192 0.823593
-0.00107615 -0.026739 0.824094
0.00050447 -0.0261124 0.824806
0.0020792 -0.0254606 0.825635
0.00367486 -0.0248639 0.826203
0.00527425 -0.0242732 0.826742
0.00687221 -0.0236716 0.82733
0.00848572 -0.0231152 0.827705
0.0100906 -0.0225253 0.828235
0.0117092 -0.0219769 0.828572
0.0133175 -0.021388 0.829092
0.0149619 -0.0209257 0.829034
0.0165711 -0.0203319 0.829573
0.018224 -0.0199015 0.82937
0.0392544 -0.0118508 0.837653
0.0409163 -0.0114337 0.837383
0.042599 -0.0111773 0.836407
0.0442858 -0.0109833 0.835161
0.0459966 -0.0110158 0.832931
0.0476917 -0.0109777 0.831019
0.0493748 -0.0108969 0.829299
0.0510359 -0.0106538 0.828294
0.0526894 -0.0103715 0.827463
0.0543294 -0.00996745 0.827163
0.0559693 -0.00956389 0.826862
0.0576068 -0.00915604 0.826581
0.0592417 -0.00872394 0.826407
0.0608724 -0.00822005 0.826541
0.0625006 -0.00768226 0.82682
0.064128 -0.00708782 0.827341
0.0657553 -0.00643863 0.828094
0.0673801 -0.00563229 0.829513
0.0690072 -0.00473579 0.831309
0.0706395 -0.00376938 0.833395
0.0722786 -0.00277134 0.835608
0.0739245 -0.00180769 0.837665
0.0755767 -0.000908617 0.839443
0.0772332 -0.000168554 0.840544
0.078893 0.000600322 0.841762
-0.0288235 -0.0304636 0.834531
-0.0270934 -0.0301394 0.833789
-0.0253842 -0.0297778 0.833231
-0.0236343 -0.0295077 0.832238
-0.0218962 -0.0292207 0.831333
-0.0201623 -0.0289323 0.830436
-0.0184334 -0.0286406 0.829559
-0.0166676 -0.0284421 0.828249
-0.0149516 -0.0281384 0.827439
-0.0132308 -0.0278537 0.826543
-0.0115164 -0.0275619 0.825684
-0.00981319 -0.0272504 0.824923
-0.00815446 -0.0268325 0.824662
-0.00648344 -0.0264498 0.824237
-0.00485249 -0.0259642 0.824294
-0.00322472 -0.0254699 0.82439
-0.00163647 -0.0248633 0.825006
-4.80866e-05 -0.0242518 0.825641
0.00152459 -0.0235873 0.826517
0.00313014 -0.0230126 0.826979
0.00474025 -0.0224478 0.827393
0.00635541 -0.0218951 0.827749
0.00797213 -0.0213443 0.828095
0.00958563 -0.0207784 0.828509
0.0112132 -0.0202568 0.828721
0.0128289 -0.0196903 0.829135
0.0144827 -0.0192598 0.828932
0.0161061 -0.0187165 0.82924
0.0177717 -0.0183354 0.828815
0.0403583 -0.00917477 0.839806
0.0420536 -0.00897168 0.838599
0.0437564 -0.00885837 0.837007
0.0454777 -0.00894429 0.834555
0.0471797 -0.00893054 0.832547
0.0488754 -0.0089254 0.83051
0.0505421 -0.00870984 0.82939
0.0521995 -0.00843717 0.828521
0.0538436 -0.00804207 0.828182
0.0554846 -0.00763587 0.827892
0.0571235 -0.00720323 0.827717
0.0587592 -0.00674344 0.827659
0.0603927 -0.00623643 0.827803
0.0620249 -0.00572001 0.827985
0.0636545 -0.00512178 0.828516
0.0652843 -0.00447288 0.829258
0.0669104 -0.00366348 0.830677
0.0685411 -0.00278877 0.832366
0.0701746 -0.00179078 0.834568
0.0718145 -0.000783802 0.836798
0.0734629 0.000211378 0.838971
0.0751172 0.00115341 0.840912
0.076776 0.0019331 0.842167
0.0784379 0.00268383 0.843297
-0.027644 -0.0283555 0.834213
-0.0259263 -0.0280088 0.833588
-0.0241613 -0.0277684 0.832461
-0.022402 -0.0275253 0.831354
-0.0206669 -0.0272382 0.830458
-0.0189465 -0.0269255 0.829687
-0.0172006 -0.0266793 0.828608
-0.015495 -0.0263478 0.827934
-0.0137824 -0.0260395 0.827153
-0.0120642 -0.0257528 0.826276
-0.0103581 -0.025444 0.825505
-0.00869029 -0.0250447 0.825158
-0.00701827 -0.0246603 0.824743
-0.00538574 -0.0241741 0.8248
-0.00376308 -0.0236606 0.824983
-0.00218246 -0.0230275 0.825714
-0.00059223 -0.0224146 0.826349
0.000979824 -0.0217417 0.827254
0.00258072 -0.0211465 0.827803
0.00420227 -0.0206102 0.828081
0.00583644 -0.0201117 0.828187
0.00746253 -0.0195857 0.828418
0.00909179 -0.0190679 0.82861
0.0107402 -0.018616 0.828503
0.0123603 -0.0180639 0.828849
0.014035 -0.0177088 0.828309
0.0156936 -0.0173006 0.82801
0.017391 -0.0170481 0.827016
0.0381254 -0.00732314 0.842506
0.0398049 -0.0069576 0.842004
0.0415141 -0.00681976 0.840519
0.0432319 -0.00678387 0.838599
0.0449581 -0.00687511 0.836139
0.0466678 -0.00689058 0.834017
0.04837 -0.00691252 0.831875
0.0500428 -0.00672268 0.830649
0.0517071 -0.00648463 0.829635
0.0533562 -0.00611645 0.829181
0.055002 -0.00573725 0.828775
0.0566434 -0.0053043 0.828601
0.0582801 -0.00481909 0.828648
0.0599128 -0.00428135 0.828918
0.0615471 -0.00374126 0.829197
0.0631773 -0.00309563 0.82992
0.0648091 -0.00244006 0.830682
0.0664395 -0.0016506 0.832004
0.0680717 -0.000797611 0.833586
0.0697072 0.000197635 0.835758
0.0713497 0.00118353 0.837881
0.0729992 0.00219454 0.840101
0.0746561 0.00319833 0.842283
0.0763177 0.00401585 0.843683
0.0779822 0.00474602 0.844716
-0.0299102 -0.0269299 0.835195
-0.0281579 -0.0266464 0.834271
-0.026441 -0.0262962 0.833665
-0.0246668 -0.0260741 0.832462
-0.0229062 -0.0258327 0.831355
-0.0211717 -0.0255429 0.830479
-0.0194685 -0.0251898 0.829901
-0.0177405 -0.0248996 0.829035
-0.0160349 -0.0245645 0.82838
-0.0143222 -0.024253 0.827619
-0.012602 -0.0239674 0.826742
-0.0108848 -0.0236827 0.825866
-0.00921636 -0.0232812 0.825528
-0.00755474 -0.0228658 0.825258
-0.0059299 -0.0223539 0.825431
-0.00431416 -0.0218163 0.825719
-0.00273784 -0.0211643 0.826527
-0.00113764 -0.0205732 0.827056
0.000445158 -0.0199261 0.827836
0.00205726 -0.0193593 0.828249
0.00368164 -0.0188265 0.828509
0.00532529 -0.0183531 0.828498
0.00695253 -0.0178264 0.828729
0.00858281 -0.0173079 0.828921
0.0102254 -0.0168303 0.82893
0.0118579 -0.0163162 0.829103
0.0135429 -0.0159942 0.828419
0.0375826 -0.00520741 0.844229
0.0392679 -0.00485727 0.84366
0.0409896 -0.00478126 0.841915
0.0427175 -0.00479275 0.839804
0.0444465 -0.00487598 0.837394
0.0461569 -0.00487141 0.835369
0.0478635 -0.00489607 0.833228
0.049535 -0.00465982 0.832205
0.051203 -0.00442461 0.831182
0.0528575 -0.0040813 0.830622
0.0545097 -0.00372942 0.830101
0.0561532 -0.00329355 0.829936
0.0577928 -0.00280748 0.829984
0.0594277 -0.00224567 0.83035
0.0610632 -0.0016766 0.830745
0.0626965 -0.00102436 0.831487
0.0643306 -0.000361985 0.832268
0.0659649 0.000402804 0.833474
0.0676009 0.00122665 0.83492
0.0692389 0.00219838 0.836975
0.0708835 0.00318365 0.839078
0.0725339 0.00423174 0.841433
0.0741926 0.00527029 0.843739
0.0758568 0.00612132 0.845264
0.0775245 0.00684946 0.846277
-0.0303834 -0.0253042 0.834848
-0.0286255 -0.0250325 0.833876
-0.0269052 -0.0246895 0.833241
-0.0251517 -0.0244238 0.83225
-0.0233807 -0.0242048 0.831048
-0.0216455 -0.0239164 0.830172
-0.0199418 -0.0235642 0.829595
-0.0182221 -0.0232546 0.828825
-0.0165176 -0.0229162 0.82819
-0.0148143 -0.022581 0.827545
-0.0131127 -0.0222482 0.82689
-0.0114115 -0.0219204 0.826216
-0.00975226 -0.0214919 0.826004
-0.00809848 -0.0210511 0.825849
-0.00648142 -0.0205131 0.826137
-0.00486449 -0.0199724 0.826435
-0.00327853 -0.0193419 0.827137
-0.00166724 -0.0187774 0.827541
-7.20842e-05 -0.0181608 0.828176
0.00154892 -0.0176168 0.828483
0.00318164 -0.0171066 0.828637
0.00482497 -0.0166288 0.828646
0.0064533 -0.0161016 0.828876
0.00808311 -0.0155783 0.829088
0.00971972 -0.0150764 0.829203
0.0113458 -0.0145355 0.829491
0.0130166 -0.0141555 0.829067
0.0370548 -0.00319911 0.845459
0.0387419 -0.00283578 0.844949
0.0404646 -0.00274376 0.843282
0.0421941 -0.00274185 0.841239
0.0439285 -0.00283498 0.838801
0.0456461 -0.00286011 0.836661
0.0473592 -0.00291239 0.834415
0.0490342 -0.00267711 0.833393
0.0507027 -0.00241542 0.832486
0.0523588 -0.00204939 0.832023
0.0540113 -0.00166761 0.831628
0.0556564 -0.00120571 0.831569
0.0572977 -0.000695588 0.831713
0.0589377 -0.00015529 0.831983
0.0605761 0.000419918 0.832397
0.0622124 0.00108128 0.833168
0.0638487 0.00177373 0.834064
0.0654871 0.00249266 0.835067
0.067127 0.00331044 0.836475
0.0687672 0.00427936 0.8385
0.0704141 0.00524778 0.840515
0.0720677 0.00627458 0.842763
0.0737279 0.00732002 0.845078
0.075394 0.00813888 0.846457
0.0770634 0.00878429 0.847123
-0.0309237 -0.0235416 0.835135
-0.0291491 -0.0233022 0.834019
-0.0274177 -0.0229807 0.833289
-0.0256357 -0.022775 0.832029
-0.0238524 -0.0225829 0.830712
-0.0221064 -0.0223188 0.829731
-0.0204023 -0.021968 0.829154
-0.0186922 -0.0216364 0.82849
-0.0169977 -0.0212739 0.827971
-0.0153051 -0.020912 0.827451
-0.0136127 -0.0205547 0.826912
-0.0119198 -0.0202045 0.826344
-0.0102675 -0.019755 0.826228
-0.00862211 -0.0192886 0.826189
-0.00700796 -0.0187389 0.826525
-0.00539916 -0.0181717 0.826938
-0.00380254 -0.0175658 0.827525
-0.00217311 -0.0170494 0.827707
-0.000567228 -0.0164618 0.828207
0.00104761 -0.0158956 0.828611
0.00267909 -0.0153785 0.828793
0.00431333 -0.0148679 0.828946
0.00592023 -0.014266 0.829504
0.00754467 -0.0137179 0.829821
0.00917602 -0.0131894 0.830052
0.0107917 -0.0126036 0.830533
0.0124187 -0.0120526 0.83086
0.0365519 -0.00134868 0.845994
0.0382298 -0.000913109 0.845792
0.039956 -0.000827712 0.844107
0.0416889 -0.000828545 0.842065
0.0434204 -0.000877148 0.83983
0.0451413 -0.000905084 0.837691
0.0468603 -0.000980903 0.83536
0.0485358 -0.000721463 0.834445
0.0502047 -0.000435227 0.833645
0.0518621 -5.9779e-05 0.83322
0.0535133 0.00037509 0.833046
0.0551618 0.000839995 0.832998
0.056804 0.00137913 0.833258
0.058444 0.00197197 0.833739
0.0600828 0.00260479 0.834385
0.0617214 0.00327801 0.835194
0.0633598 0.00402441 0.836302
0.0650026 0.00473911 0.837275
0.0666469 0.00551112 0.83848
0.0682917 0.00643027 0.840283
0.0699431 0.00735105 0.842086
0.0715995 0.00830205 0.844004
0.0732619 0.00926424 0.845961
0.0749291 0.0100266 0.847099
0.0765989 0.0106143 0.847524
-0.029601 -0.0217203 0.833471
-0.0278556 -0.0214298 0.832606
-0.0260744 -0.021224 0.831357
-0.0242784 -0.0210617 0.829915
-0.0225306 -0.0208038 0.828915
-0.0208277 -0.0204517 0.828348
-0.0191297 -0.020094 0.827809
-0.0174567 -0.0196813 0.827521
-0.0157753 -0.0192927 0.827126
-0.0140927 -0.0189109 0.826703
-0.0124082 -0.0185382 0.826241
-0.0107743 -0.0180394 0.826346
-0.00913859 -0.017545 0.826432
-0.00754166 -0.0169449 0.82699
-0.00593219 -0.0163747 0.827412
-0.00432601 -0.015791 0.827892
-0.00268488 -0.0153043 0.82794
-0.00106828 -0.0147441 0.828315
0.000545514 -0.0141724 0.828738
0.00216765 -0.0136223 0.829064
0.00377921 -0.0130347 0.829554
0.00537726 -0.0123984 0.830256
0.00698968 -0.0118012 0.830785
0.00860062 -0.0111945 0.831352
0.0101798 -0.0104662 0.832448
0.0117508 -0.00969482 0.833728
0.0360776 0.00031811 0.845739
0.0377572 0.000744266 0.845498
0.0394783 0.000872642 0.844006
0.0412081 0.000900723 0.8421
0.0429337 0.000910766 0.840127
0.0446502 0.000935036 0.83822
0.046363 0.00092966 0.836198
0.0480384 0.00121363 0.835389
0.0497068 0.00152936 0.834715
0.0513651 0.00193259 0.834406
0.0530093 0.00247971 0.834695
0.0546556 0.00300854 0.834906
0.056299 0.00358415 0.835311
0.0579394 0.0042305 0.836004
0.0595802 0.00491724 0.836861
0.0612277 0.00551309 0.837343
0.0628714 0.00621544 0.838258
0.064521 0.00685016 0.838894
0.0661708 0.00753987 0.839751
0.0678205 0.00835365 0.84111
0.0694737 0.00922097 0.842681
0.0711317 0.010116 0.844357
0.0727942 0.0110459 0.846169
0.0744626 0.0117721 0.847153
0.0761332 0.0123532 0.847548
-0.0317822 -0.020469 0.833604
-0.0299955 -0.0202589 0.832374
-0.0282478 -0.0199765 0.831481
-0.0264758 -0.0197542 0.830319
-0.0246782 -0.0195988 0.828859
-0.0229404 -0.0193215 0.827955
-0.0212502 -0.0189429 0.827513
-0.0195652 -0.0185564 0.827109
-0.0179032 -0.0181191 0.826936
-0.0162419 -0.0176819 0.826763
-0.0145703 -0.0172728 0.826465
-0.012898 -0.0168684 0.826147
-0.0112742 -0.0163414 0.826377
-0.00965564 -0.015799 0.826675
-0.0080674 -0.0151719 0.827347
-0.00646624 -0.0145745 0.827885
-0.00485779 -0.0139919 0.828356
-0.00321373 -0.0135091 0.828384
-0.00159527 -0.01295 0.828749
2.01023e-05 -0.0123774 0.829172
0.00163369 -0.0117956 0.829633
0.0032364 -0.0111739 0.830267
0.00481286 -0.0104587 0.831305
0.0064108 -0.0098046 0.832074
0.00800088 -0.00911435 0.832997
0.00955695 -0.00829013 0.834496
0.0110962 -0.00738645 0.836333
0.0355508 0.00231598 0.846869
0.0372605 0.00255862 0.845859
0.0389936 0.00261792 0.844089
0.0407196 0.00268245 0.842347
0.0424429 0.00272431 0.840519
0.0441578 0.00277822 0.838748
0.0458674 0.00282349 0.836948
0.0475418 0.0031324 0.836245
0.0492098 0.00347787 0.835697
0.0508703 0.00388585 0.835408
0.0525064 0.00454429 0.836149
0.0541495 0.00516107 0.836717
0.0557917 0.00580668 0.8374
0.057433 0.00649299 0.838247
0.0590746 0.00723196 0.839307
0.0607344 0.00769268 0.839229
0.0623848 0.00833123 0.839875
0.0640426 0.00885387 0.840048
0.0656973 0.00945754 0.840549
0.0673517 0.0101571 0.841435
0.0690063 0.0109556 0.842716
0.0706651 0.0117624 0.844026
0.0723284 0.0126593 0.845693
0.0739963 0.0133631 0.846579
0.0756657 0.0139469 0.846984
-0.0303712 -0.0188378 0.831106
-0.0286144 -0.0185786 0.830117
-0.0268523 -0.0183394 0.829042
-0.0250428 -0.0182147 0.827457
-0.023307 -0.0179373 0.826564
-0.021619 -0.017558 0.826132
-0.0199583 -0.0171189 0.825968
-0.0183198 -0.0166283 0.826035
-0.0166805 -0.0161396 0.826092
-0.0150193 -0.0157055 0.82591
-0.0133667 -0.0152517 0.825813
-0.0117455 -0.0147177 0.826072
-0.0101382 -0.0141445 0.826504
-0.0085603 -0.0134877 0.827301
-0.00696714 -0.0128653 0.827944
-0.00535896 -0.0122796 0.828424
-0.00372902 -0.0117528 0.828645
-0.00211754 -0.0111686 0.829115
-0.000509863 -0.0105685 0.829653
0.00109674 -0.0099591 0.830229
0.00268495 -0.00928475 0.831084
0.00425367 -0.00853647 0.832256
0.00584305 -0.00784484 0.833179
0.00741852 -0.0070943 0.834351
0.00895804 -0.00619972 0.836138
0.010497 -0.00528101 0.838022
0.0120921 -0.00454904 0.839099
0.0350058 0.00441845 0.848411
0.0367439 0.00450282 0.846748
0.0384879 0.00450656 0.844757
0.0402166 0.00456869 0.843016
0.0419407 0.00461981 0.841237
0.0436611 0.00465035 0.839381
0.0453647 0.00476804 0.837889
0.0470376 0.00511155 0.837331
0.0487082 0.00546388 0.836812
0.0503731 0.00584858 0.836427
0.0520054 0.00658196 0.837466
0.0536498 0.00721001 0.838072
0.0552952 0.00785269 0.838736
0.0569392 0.00855058 0.839622
0.0585847 0.00925895 0.840546
0.0602538 0.00959402 0.839959
0.0619129 0.0101075 0.840094
0.0635749 0.010535 0.839882
0.0652348 0.0110174 0.839892
0.0668903 0.0116461 0.840489
0.0685453 0.012379 0.8415
0.0702034 0.0131224 0.842549
0.0718646 0.0139706 0.844013
0.0735295 0.0146823 0.844928
0.0751976 0.0152444 0.845246
-0.0306922 -0.0175326 0.82933
-0.0289412 -0.0172671 0.82838
-0.0271807 -0.0170304 0.827305
-0.0253851 -0.0168809 0.825846
-0.0236623 -0.0165797 0.825068
-0.0219871 -0.0161758 0.824751
-0.0203407 -0.0157072 0.824722
-0.0187253 -0.0151649 0.825019
-0.0171082 -0.0146244 0.825307
-0.015458 -0.0141645 0.825239
-0.0138262 -0.0136587 0.825373
-0.0122142 -0.0131003 0.825737
-0.0106169 -0.0124999 0.826284
-0.00904677 -0.0118201 0.827177
-0.00745665 -0.0111877 0.827858
-0.00585822 -0.0105723 0.828463
-0.00423894 -0.0100118 0.828828
-0.00262819 -0.00942214 0.829317
-0.00102022 -0.00881871 0.829864
0.000564288 -0.00813675 0.830748
0.00214557 -0.00743399 0.831718
0.0036985 -0.00662739 0.833129
0.00527295 -0.00587763 0.834292
0.0068346 -0.00506852 0.835704
0.00837806 -0.004177 0.837462
0.00992524 -0.0032769 0.839249
0.0115343 -0.00258547 0.840142
0.0136651 -0.0037171 0.840599
0.0131311 -0.0018364 0.841276
0.0327157 0.00641541 0.851499
0.0344569 0.00654143 0.850009
0.0362154 0.00651908 0.847914
0.0379764 0.00642917 0.84555
0.0397175 0.00642353 0.84354
0.0414477 0.00644165 0.841637
0.0431707 0.00646728 0.839772
0.0448733 0.0066111 0.838397
0.0465504 0.00693285 0.837753
0.0482253 0.00726105 0.837137
0.0498998 0.00756249 0.836416
0.0515291 0.00833804 0.837618
0.0531716 0.00899345 0.83833
0.0548174 0.00964942 0.839042
0.0564572 0.0104088 0.840167
0.0581069 0.0110831 0.840947
0.059787 0.0112593 0.839725
0.0614521 0.0116434 0.83934
0.0631177 0.0119956 0.838831
0.0647808 0.0123474 0.838321
0.0664364 0.0129136 0.838667
0.0680902 0.0135819 0.839418
0.0697457 0.0142631 0.840217
0.0714033 0.0150616 0.841477
0.0730652 0.0157787 0.842411
0.0747294 0.0163477 0.842758
-0.0308324 -0.0166105 0.825867
-0.0291211 -0.0162727 0.825253
-0.0274308 -0.0158941 0.824821
-0.0256817 -0.0156506 0.823794
-0.0239831 -0.0153016 0.823237
-0.0223222 -0.0148708 0.823045
-0.0206983 -0.0143548 0.823227
-0.0190966 -0.0137841 0.823649
-0.0174935 -0.0132132 0.82407
-0.015856 -0.0127252 0.824128
-0.014252 -0.0121516 0.824559
-0.012651 -0.0115663 0.825038
-0.0110742 -0.0109123 0.825815
-0.00952415 -0.0101778 0.826938
-0.0079514 -0.00949562 0.82783
-0.00636248 -0.00885029 0.828559
-0.00475394 -0.00825542 0.829068
-0.00314462 -0.00765788 0.829586
-0.00154432 -0.00702662 0.830248
3.33215e-05 -0.00631827 0.831237
0.00160559 -0.00558187 0.832341
0.00314263 -0.00471631 0.833992
0.00470301 -0.00390999 0.835384
0.00626019 -0.00307532 0.836892
0.0078106 -0.00219828 0.838572
0.00937307 -0.00134459 0.840147
0.0109971 -0.00070118 0.840829
0.0126154 -2.7325e-05 0.841636
0.030958 0.00635494 0.853266
0.0304498 0.00819863 0.85367
0.0322071 0.00827524 0.851979
0.0339476 0.00841568 0.850558
0.0357149 0.00835278 0.84831
0.0374774 0.00826417 0.845966
0.0392161 0.00828862 0.844092
0.0409539 0.0082686 0.842046
0.0426833 0.00825847 0.840047
0.0443881 0.00839794 0.838663
0.0460739 0.00865721 0.837769
0.0477552 0.00893216 0.836943
0.0494374 0.00916812 0.835962
0.0510742 0.00985479 0.836799
0.0527192 0.0104727 0.837356
0.0543664 0.011096 0.837933
0.0560087 0.0118063 0.838856
0.0576598 0.0124211 0.839395
0.059341 0.0125537 0.83801
0.0610094 0.0128373 0.837231
0.0626747 0.0131345 0.83651
0.0643367 0.0134529 0.835875
0.0659885 0.0140041 0.836164
0.0676398 0.0146408 0.836789
0.0692917 0.0153172 0.837568
0.0709454 0.0160824 0.838694
0.072603 0.0167702 0.839512
0.0742622 0.0173334 0.839839
-0.031015 -0.0156028 0.822828
-0.0293308 -0.0152173 0.822435
-0.0276601 -0.0148058 0.822156
-0.0259523 -0.01448 0.821504
-0.024269 -0.0141046 0.821072
-0.0226317 -0.0136266 0.821091
-0.0210317 -0.0130607 0.821493
-0.0194533 -0.0124395 0.822135
-0.0178728 -0.0118178 0.822777
-0.0162685 -0.0112506 0.82318
-0.0146775 -0.0106455 0.823745
-0.0130781 -0.0100576 0.824234
-0.0115114 -0.00937804 0.825116
-0.00996304 -0.00863985 0.826248
-0.0084015 -0.0079272 0.827264
-0.00683308 -0.00722471 0.828233
-0.00524042 -0.00658209 0.828943
-0.0036413 -0.00595216 0.829595
-0.00205623 -0.00527223 0.830458
-0.000487979 -0.00453036 0.831581
0.00106772 -0.00373547 0.832924
0.00258628 -0.00280324 0.834843
0.00413967 -0.00196466 0.83636
0.00570602 -0.00115409 0.837752
0.00727552 -0.000335463 0.839172
0.00886287 0.000434289 0.840382
0.0105035 0.00101955 0.840814
0.0121355 0.00164423 0.84141
0.0299411 0.0100452 0.854072
0.0316998 0.010124 0.852402
0.0334419 0.0102672 0.851
0.0352124 0.010194 0.848725
0.0369793 0.0100901 0.846334
0.0387232 0.0100905 0.844375
0.0404717 0.0100081 0.842089
0.04221 0.00993767 0.83986
0.0439236 0.010013 0.838227
0.0456169 0.0102062 0.837074
0.0473053 0.0104102 0.83597
0.0489933 0.0105794 0.83473
0.0506418 0.0111273 0.835009
0.0522935 0.011649 0.835182
0.0539417 0.0122095 0.835508
0.0555852 0.0128573 0.836181
0.0572359 0.0134186 0.836508
0.0589103 0.0136084 0.835364
0.0605743 0.0139139 0.834682
0.0622353 0.014243 0.834096
0.0638925 0.0145984 0.833615
0.0655414 0.0151565 0.833932
0.0671893 0.0157662 0.834451
0.0688393 0.0163789 0.83498
0.0704896 0.0170512 0.835739
0.0721432 0.0176749 0.836307
0.0737985 0.0182027 0.836499
-0.0310097 -0.0149965 0.818067
-0.0294107 -0.0144452 0.818412
-0.0277946 -0.0139288 0.818603
-0.0261496 -0.0134759 0.818516
-0.024507 -0.0130188 0.818449
-0.0229085 -0.0124601 0.818822
-0.0213415 -0.0118239 0.81953
-0.0197961 -0.0111294 0.820489
-0.0182315 -0.0104739 0.821274
-0.0166502 -0.00985339 0.821906
-0.0150741 -0.00921417 0.822615
-0.0134956 -0.00857456 0.823324
-0.0119317 -0.00788933 0.824225
-0.0103937 -0.00712489 0.825462
-0.00884285 -0.00638389 0.826593
-0.00728454 -0.00565297 0.827676
-0.00570168 -0.00498225 0.828501
-0.00411038 -0.00432872 0.829249
-0.00253446 -0.00362011 0.830227
-0.000983807 -0.00282192 0.831579
0.000545146 -0.00193806 0.833286
0.0020617 -0.000993349 0.835243
0.00360599 -0.000119773 0.836893
0.00517498 0.00068866 0.838265
0.00676061 0.00145501 0.839455
0.00836444 0.0021694 0.840424
0.0100013 0.0027717 0.840924
0.0116192 0.0034553 0.841759
0.0347368 0.0118644 0.848438
0.0364993 0.0117971 0.846211
0.0382447 0.0117921 0.844243
0.0399944 0.0117084 0.841968
0.0417383 0.0116058 0.839625
0.0434598 0.011616 0.837743
0.0451621 0.0117399 0.836322
0.0468579 0.0118744 0.834949
0.0485484 0.0120123 0.833595
0.0502087 0.0124198 0.833316
0.0518666 0.0128465 0.833114
0.0535232 0.0132729 0.832913
0.0551693 0.0138307 0.83323
0.0568231 0.0142911 0.833162
0.0584888 0.0145435 0.832278
0.0601484 0.0148441 0.831586
0.0618022 0.0152347 0.83125
0.0634532 0.015647 0.831
0.0650974 0.0162341 0.831432
0.0667423 0.0168164 0.831845
0.068389 0.017419 0.832335
0.070037 0.0179972 0.832729
0.071687 0.0185758 0.833123
0.0733376 0.0191001 0.833306
0.0754632 0.0201175 0.842076
0.0749882 0.0196741 0.833681
-0.0310492 -0.0143007 0.813761
-0.0295024 -0.0136518 0.814536
-0.0279232 -0.0130682 0.815024
-0.0263307 -0.0125111 0.815397
-0.0247391 -0.011949 0.815789
-0.0231797 -0.0113087 0.816516
-0.0216302 -0.0106388 0.817368
-0.0201111 -0.00988787 0.818565
-0.0185702 -0.00918032 0.819571
-0.0170233 -0.00847883 0.820548
-0.0154612 -0.00780767 0.82139
-0.0139135 -0.00709083 0.822425
-0.0123583 -0.00638417 0.823412
-0.0108223 -0.00561563 0.824657
-0.00927339 -0.0048707 0.825797
-0.0077248 -0.00411347 0.826986
-0.0061443 -0.00343703 0.827829
-0.00457046 -0.00273235 0.828787
-0.00302189 -0.00193988 0.83011
-0.00148856 -0.00108458 0.831692
2.11842e-05 -0.0001358 0.833657
0.00152907 0.00084236 0.835738
0.00307359 0.0017212 0.837397
0.00465953 0.002477 0.838538
0.00626118 0.00319002 0.839497
0.00787441 0.00387377 0.840332
0.00951068 0.00448155 0.84085
0.010871 0.00616265 0.84579
0.0343015 0.0132745 0.847104
0.0360505 0.0132895 0.845224
0.0377872 0.0133482 0.843526
0.0395325 0.0132944 0.841386
0.041281 0.0131564 0.83892
0.0430143 0.0130764 0.836693
0.044729 0.0130886 0.834841
0.0464302 0.0131595 0.833228
0.04812 0.0132921 0.831865
0.0497883 0.013589 0.831154
0.0514488 0.0139558 0.830722
0.0531035 0.0143614 0.830444
0.0547512 0.0148498 0.830492
0.0564035 0.0152795 0.830309
0.0580602 0.0156227 0.82979
0.0597117 0.0160172 0.829473
0.0613595 0.0164706 0.829387
0.0630051 0.0169411 0.829367
0.0646487 0.0174935 0.829665
0.0662924 0.0180434 0.829953
0.0679374 0.0185863 0.830212
0.069584 0.0190994 0.830356
0.0712302 0.0196451 0.830624
0.0728772 0.0201959 0.830913
0.0745248 0.0208073 0.831431
0.0766553 0.0216467 0.839438
0.0761754 0.0214169 0.83194
-0.0458025 -0.0183841 0.814447
-0.0474594 -0.01881 0.814648
-0.0478711 -0.0173103 0.813858
-0.0461839 -0.0169412 0.813408
-0.0444714 -0.0166227 0.812737
-0.0371008 -0.0171095 0.809694
-0.0391764 -0.0160089 0.809251
-0.0374319 -0.0157817 0.808198
-0.0357694 -0.0153972 0.807833
-0.0326667 -0.0141721 0.809085
-0.0311648 -0.0134471 0.810195
-0.0296268 -0.0127916 0.810998
-0.028062 -0.012189 0.811572
-0.0265202 -0.0115303 0.812385
-0.024971 -0.0108817 0.81315
-0.0234424 -0.0101788 0.814145
-0.0219286 -0.00943234 0.815322
-0.020434 -0.0086286 0.816739
-0.0189068 -0.00789328 0.817859
-0.0173857 -0.00713202 0.819084
-0.0158449 -0.00641043 0.820137
-0.0143197 -0.00563803 0.821401
-0.0127762 -0.0049027 0.822502
-0.0112415 -0.00413251 0.823747
-0.00970028 -0.00336792 0.824964
-0.00815365 -0.00260668 0.826161
-0.00657668 -0.0019221 0.827033
-0.00501357 -0.00118647 0.828115
-0.00348548 -0.000332245 0.829687
-0.00196315 0.000557898 0.831402
-0.000472109 0.00156755 0.833606
0.00102699 0.00257702 0.8358
0.00256538 0.00347964 0.837545
0.00415317 0.00423287 0.838667
0.00576405 0.00491728 0.839501
0.00738604 0.00557221 0.840211
0.00881152 0.00697351 0.843978
0.00992606 0.00962945 0.852865
0.0356202 0.0146666 0.843787
0.0373382 0.0148406 0.84256
0.039078 0.0148266 0.840594
0.040828 0.014677 0.8381
0.0425692 0.0145349 0.835644
0.0442869 0.0145144 0.833677
0.0459903 0.0145579 0.831969
0.0476764 0.0147171 0.830722
0.0493543 0.014907 0.829599
0.0510182 0.0152111 0.828927
0.0526798 0.0155195 0.828274
0.054334 0.0158887 0.827861
0.0559841 0.0162847 0.827554
0.0576316 0.0167101 0.827362
0.0592782 0.0171378 0.827179
0.0609213 0.0176223 0.827217
0.062562 0.0181667 0.827486
0.0642019 0.0187186 0.827783
0.0658438 0.0192683 0.828071
0.0674871 0.0198058 0.828311
0.06913 0.0203183 0.828454
0.0707742 0.0208612 0.828713
0.0724187 0.0214446 0.829126
0.0740644 0.0221192 0.829885
0.075711 0.0227966 0.830653
-0.050778 -0.0147384 0.819849
-0.0482415 -0.0158856 0.812743
-0.0465316 -0.0155616 0.812101
-0.0448037 -0.0152753 0.811297
-0.0427303 -0.0163637 0.811808
-0.0430546 -0.0150359 0.810292
-0.0409607 -0.016167 0.810611
-0.0412919 -0.0148308 0.809143
-0.0395142 -0.0146644 0.807832
-0.037782 -0.0144175 0.806874
-0.0361164 -0.0140431 0.806472
-0.0342045 -0.0148148 0.80833
-0.0345006 -0.0135692 0.8065
-0.0329093 -0.0130439 0.806747
-0.0313683 -0.0124093 0.807464
-0.0298067 -0.0118142 0.808008
-0.0282404 -0.0112255 0.808524
-0.0267063 -0.01056 0.809366
-0.0251843 -0.0098599 0.81035
-0.0236822 -0.00910482 0.811565
-0.0222046 -0.00828081 0.813067
-0.0207454 -0.00739871 0.814809
-0.0192523 -0.00658519 0.816253
-0.0177544 -0.00577034 0.817698
-0.0162368 -0.00499299 0.818981
-0.0147256 -0.00418682 0.820378
-0.0131833 -0.00345036 0.821479
-0.0116502 -0.00267844 0.822723
-0.0101097 -0.00191452 0.823929
-0.0085639 -0.00115392 0.825117
-0.00699673 -0.000443127 0.826093
-0.00544668 0.000328831 0.827319
-0.0039387 0.00124313 0.829129
-0.00243747 0.00219864 0.831102
-0.000971457 0.00329081 0.833631
0.000518846 0.00433199 0.835939
0.00205057 0.005261 0.837779
0.00363976 0.00601396 0.83889
0.00525285 0.00669524 0.839705
0.00668778 0.00803736 0.843212
0.00789362 0.0102867 0.850398
0.0334702 0.0158608 0.843549
0.0351859 0.0160722 0.842475
0.036906 0.0162217 0.841162
0.0386442 0.0162138 0.839235
0.0403912 0.0160818 0.836829
0.0421319 0.0159326 0.834365
0.0438493 0.015906 0.832389
0.0455494 0.0159757 0.830797
0.0472319 0.0161597 0.829656
0.0489095 0.0163497 0.828543
0.0505751 0.0166252 0.827766
0.0522404 0.0168727 0.826883
0.0538976 0.0171786 0.82623
0.0555494 0.0175387 0.825789
0.0571963 0.0179356 0.825491
0.0588403 0.0183647 0.825318
0.0604807 0.018851 0.825366
0.0621186 0.019395 0.825634
0.0637581 0.0199166 0.825816
0.0653981 0.0204384 0.825998
0.0670376 0.0209828 0.826267
0.0686779 0.021525 0.826526
0.070319 0.0221003 0.826909
0.0719605 0.0227445 0.827552
0.073604 0.0234527 0.828435
0.0752493 0.0241639 0.829327
0.0773825 0.0249391 0.836972
0.0768984 0.0248712 0.830201
-0.0502434 -0.0149292 0.811648
-0.0485438 -0.0145864 0.811093
-0.046821 -0.0142903 0.810337
-0.045101 -0.0139951 0.809581
-0.0433583 -0.0137494 0.808615
-0.0416177 -0.013507 0.807639
-0.0398535 -0.0133186 0.806433
-0.038129 -0.0130606 0.805533
-0.0364603 -0.0126961 0.805092
-0.0348158 -0.0122852 0.804852
-0.0332096 -0.0117962 0.804947
-0.0316326 -0.0112444 0.805309
-0.0300431 -0.010717 0.805566
-0.028456 -0.0101825 0.805853
-0.026936 -0.00949409 0.806789
-0.0254298 -0.00876637 0.807888
-0.0239316 -0.00801039 0.809102
-0.0224781 -0.00713728 0.810804
-0.0210517 -0.00618277 0.812841
-0.0195865 -0.00530611 0.814544
-0.018114 -0.00443245 0.816227
-0.0166298 -0.00357326 0.817844
-0.0151281 -0.00274469 0.819327
-0.0135806 -0.00202513 0.82035
-0.0120399 -0.00127698 0.821489
-0.0105005 -0.000513806 0.822685
-0.00895476 0.000243476 0.823853
-0.00739815 0.000981021 0.824934
-0.00587703 0.00183585 0.826494
