ply
format ascii 1.0
element vertex 1608
property float x
property float y
property float z
end_header
-0.0905649 -0.014275 1.06335
-0.0888889 -0.0142009 1.06241
-0.0872073 -0.0141199 1.06139
-0.0855593 -0.014061 1.06064
-0.0839373 -0.0140194 1.06011
-0.0823205 -0.0139802 1.05961
-0.0807467 -0.0139726 1.0595
-0.0791442 -0.0139419 1.05911
-0.0775406 -0.013909 1.05869
-0.0759358 -0.0138737 1.05823
-0.0743353 -0.0138402 1.05781
-0.0727401 -0.0138099 1.05741
-0.0711828 -0.0138107 1.05742
-0.0696266 -0.0138122 1.05742
-0.0680787 -0.0138209 1.05752
-0.066531 -0.0138296 1.05762
-0.064991 -0.0138455 1.05781
-0.0635238 -0.0139309 1.05887
-0.0621252 -0.0140855 1.06079
-0.0608025 -0.0143214 1.06373
-0.0595167 -0.0146041 1.06726
-0.0582407 -0.014909 1.07106
-0.0569049 -0.015164 1.07424
-0.0555255 -0.0153835 1.07697
-0.0541083 -0.0155712 1.07931
-0.0526632 -0.0157357 1.08136
-0.0512054 -0.0158935 1.08332
-0.0497327 -0.0160409 1.08515
-0.0482263 -0.0161547 1.08656
-0.0466751 -0.0162176 1.08734
-0.0451187 -0.0162773 1.08807
-0.0434682 -0.016215 1.08729
-0.0417845 -0.0161041 1.08589
-0.0400809 -0.0159581 1.08405
-0.0383732 -0.0157968 1.08202
-0.0366618 -0.0156191 1.07979
-0.035002 -0.0155086 1.0784
-0.033338 -0.0153833 1.07682
-0.031673 -0.0152469 1.07511
-0.0299989 -0.0150848 1.07307
-0.0283226 -0.0149059 1.07082
-0.0266508 -0.0147207 1.0685
-0.0250044 -0.0145683 1.06658
-0.0233626 -0.0144116 1.06461
-0.0217583 -0.0143179 1.06343
-0.0201667 -0.0142423 1.06247
-0.0186005 -0.0142167 1.06214
-0.0170305 -0.0141783 1.06165
-0.0154868 -0.0142009 1.06192
-0.0139313 -0.0141941 1.06183
-0.0123823 -0.0142034 1.06194
-0.0108234 -0.0141831 1.06167
-0.0092693 -0.0141746 1.06155
-0.00769995 -0.0141111 1.06075
-0.00613255 -0.0140439 1.0599
-0.00456474 -0.013962 1.05887
-0.00299742 -0.013865 1.05764
-0.00144229 -0.0138059 1.05689
0.000106724 -0.0137639 1.05636
0.00164307 -0.0137863 1.05663
0.0031812 -0.0138001 1.05679
0.00471016 -0.0138896 1.0579
0.00624399 -0.0139647 1.05883
0.00777871 -0.0140641 1.06006
0.00931843 -0.0141423 1.06103
0.0108609 -0.0142255 1.06206
0.0124075 -0.0142602 1.06248
0.013955 -0.0142689 1.06258
0.0155025 -0.0142749 1.06264
0.0170493 -0.0142676 1.06254
0.018597 -0.014285 1.06275
0.0201466 -0.0143192 1.06317
0.0217014 -0.0143919 1.06407
0.0232603 -0.0144759 1.06511
0.0248274 -0.0145928 1.06656
0.0264008 -0.0147201 1.06814
0.0279791 -0.0148465 1.06971
0.0295652 -0.0149868 1.07145
0.0311625 -0.0151508 1.07349
0.0327575 -0.015281 1.07511
0.0343687 -0.0154511 1.07722
0.0360035 -0.0156776 1.08004
0.0376555 -0.0159296 1.08318
-0.107698 -0.0135438 1.07417
-0.106048 -0.0135108 1.07373
-0.104429 -0.0134947 1.07352
-0.102732 -0.01343 1.07268
-0.101031 -0.0133602 1.07177
-0.0992859 -0.0132602 1.07048
-0.0975188 -0.0131426 1.06896
-0.0957582 -0.0130258 1.06746
-0.0940088 -0.0129127 1.066
-0.092289 -0.0128162 1.06475
-0.0905957 -0.0127347 1.0637
-0.0889052 -0.0126526 1.06264
-0.087221 -0.012572 1.06159
-0.0855809 -0.0125204 1.06092
-0.0839588 -0.0124801 1.06039
-0.0823429 -0.0124429 1.05991
-0.0807687 -0.0124358 1.0598
-0.0791656 -0.0124059 1.05941
-0.0775618 -0.0123742 1.05899
-0.0759492 -0.012334 1.05846
-0.0743482 -0.0123014 1.05803
-0.0727511 -0.0122705 1.05763
-0.0711835 -0.0122632 1.05752
-0.0696182 -0.0122571 1.05743
-0.0680703 -0.0122657 1.05753
-0.0665225 -0.0122744 1.05763
-0.064991 -0.012298 1.05791
-0.063541 -0.0123977 1.05917
-0.0621762 -0.0125818 1.06152
-0.0608884 -0.0128477 1.0649
-0.0596194 -0.0131431 1.06866
-0.0583413 -0.0134421 1.07247
-0.0569927 -0.0136813 1.07551
-0.0555861 -0.0138698 1.07791
-0.0541306 -0.014014 1.07974
-0.0526631 -0.0141514 1.08148
-0.0511824 -0.0142802 1.08311
-0.0496946 -0.0144068 1.08472
-0.0481816 -0.0145095 1.08602
-0.0466452 -0.0145884 1.08701
-0.0451159 -0.0146804 1.08817
-0.0434852 -0.0146457 1.08772
-0.0418195 -0.0145619 1.08663
-0.0401321 -0.0144431 1.0851
-0.0384407 -0.0143108 1.0834
-0.0367289 -0.0141399 1.08121
-0.0350841 -0.0140579 1.08014
-0.0334225 -0.0139438 1.07867
-0.0317536 -0.0138094 1.07694
-0.030071 -0.0136417 1.07479
-0.0283908 -0.013465 1.07252
-0.0267072 -0.013268 1.06999
-0.0250574 -0.0131173 1.06805
-0.0234088 -0.0129556 1.06597
-0.0218016 -0.0128629 1.06478
-0.020201 -0.0127747 1.06364
-0.0186301 -0.0127437 1.06323
-0.0170614 -0.0127136 1.06283
-0.0155215 -0.0127504 1.06329
-0.0139636 -0.0127431 1.06318
-0.0124155 -0.0127617 1.06341
-0.0108607 -0.0127613 1.06339
-0.00930169 -0.0127467 1.06319
-0.00772731 -0.0126775 1.06229
-0.00615789 -0.0126134 1.06146
-0.00458895 -0.0125392 1.0605
-0.00301703 -0.0124369 1.05918
-0.00145923 -0.0123785 1.05842
9.25907e-05 -0.0123368 1.05788
0.00163241 -0.012353 1.05808
0.00317406 -0.0123592 1.05814
0.00470733 -0.0124308 1.05904
0.00624492 -0.0124878 1.05976
0.00778192 -0.0125759 1.06087
0.00932359 -0.0126451 1.06174
0.0108672 -0.012727 1.06278
0.012415 -0.012762 1.06321
0.0139638 -0.0127841 1.06348
0.0155128 -0.0127915 1.06356
0.0170621 -0.0128076 1.06375
0.018612 -0.0128268 1.06399
0.0201649 -0.0128746 1.06458
0.0217222 -0.0129467 1.06549
0.0232854 -0.0130434 1.06672
0.0248558 -0.0131615 1.06821
0.026435 -0.0133034 1.07001
0.0280186 -0.0134385 1.07172
0.0296136 -0.0136012 1.07379
0.0312137 -0.0137578 1.07577
0.0328111 -0.0138795 1.07731
0.0344322 -0.0140681 1.07971
0.0360816 -0.0143241 1.08296
0.0377459 -0.0145938 1.0864
-0.10604 -0.0119242 1.07374
-0.104436 -0.0119179 1.07364
-0.102762 -0.0118689 1.07299
-0.101075 -0.0118098 1.0722
-0.0993409 -0.0117196 1.071
-0.0975841 -0.011612 1.06958
-0.0958249 -0.0114996 1.0681
-0.0940641 -0.0113822 1.06655
-0.0923428 -0.0112877 1.0653
-0.0906358 -0.0111995 1.06413
-0.0889136 -0.0110981 1.06279
-0.0872054 -0.0110029 1.06153
-0.0855747 -0.0109592 1.06095
-0.0839443 -0.0109141 1.06034
-0.0823311 -0.0108799 1.05988
-0.0807647 -0.0108788 1.05985
-0.0791788 -0.0108627 1.05962
-0.0775755 -0.0108325 1.05921
-0.0759647 -0.0107951 1.05871
-0.0743633 -0.0107633 1.05828
-0.072763 -0.0107312 1.05785
-0.0711844 -0.0107153 1.05762
-0.0696097 -0.0107019 1.05743
-0.0680618 -0.0107106 1.05753
-0.0665141 -0.0107193 1.05763
-0.0649912 -0.0107501 1.05802
-0.0635365 -0.0108438 1.05923
-0.0622227 -0.0110715 1.06218
-0.0609712 -0.0113671 1.06603
-0.0597206 -0.0116761 1.07005
-0.058441 -0.0119696 1.07387
-0.0570901 -0.0122038 1.07691
-0.0556275 -0.0123332 1.07859
-0.0541315 -0.0124329 1.07987
-0.0526404 -0.0125422 1.08129
-0.0511368 -0.0126426 1.08258
-0.0496355 -0.0127504 1.08398
-0.0481287 -0.0128567 1.08535
-0.0466004 -0.0129427 1.08645
-0.0450866 -0.0130506 1.08785
-0.0434707 -0.0130348 1.08763
-0.0418233 -0.0129765 1.08685
-0.0401473 -0.0128763 1.08553
-0.0384731 -0.0127718 1.08415
-0.036773 -0.0126233 1.08219
-0.0351434 -0.0125678 1.08145
-0.0334939 -0.0124783 1.08027
-0.0318279 -0.0123556 1.07865
-0.0301462 -0.0121979 1.07657
-0.0284631 -0.0120256 1.07431
-0.0267761 -0.0118322 1.07177
-0.0251194 -0.0116777 1.06974
-0.0234709 -0.0115252 1.06773
-0.0218612 -0.0114357 1.06655
-0.0202618 -0.0113585 1.06552
-0.0186946 -0.0113432 1.06531
-0.0171295 -0.0113302 1.06512
-0.0155897 -0.011376 1.06571
-0.0140292 -0.011373 1.06565
-0.0124762 -0.0113891 1.06585
-0.0109167 -0.0113874 1.06581
-0.00934811 -0.0113565 1.06539
-0.00776548 -0.0112739 1.0643
-0.00619023 -0.0112028 1.06335
-0.0046158 -0.0111214 1.06228
-0.00303898 -0.0110134 1.06085
-0.00147835 -0.0109567 1.0601
7.44015e-05 -0.0109253 1.05967
0.0016182 -0.0109353 1.05979
0.0031641 -0.0109325 1.05974
0.00470321 -0.0109791 1.06033
0.00624401 -0.0110241 1.0609
0.00778495 -0.0110875 1.06171
0.00932853 -0.0111465 1.06247
0.0108734 -0.0112263 1.0635
0.0124223 -0.0112675 1.06402
0.0139725 -0.011305 1.06449
0.0155238 -0.0113338 1.06485
0.0170761 -0.0113658 1.06526
0.0186291 -0.0113933 1.0656
0.0201855 -0.0114492 1.06631
0.0217448 -0.0115125 1.06713
0.02331 -0.0116009 1.06826
0.0248841 -0.011724 1.06985
0.0264665 -0.0118656 1.07169
0.0280576 -0.0120211 1.0737
0.0296618 -0.0122064 1.07611
0.0312703 -0.0123784 1.07833
0.0328788 -0.0125229 1.0802
0.0345139 -0.0127394 1.08302
0.0361744 -0.0130079 1.0865
0.037841 -0.0132609 1.08979
-0.104443 -0.0103412 1.07377
-0.102791 -0.0103065 1.07329
-0.101116 -0.0102568 1.07261
-0.0993945 -0.0101765 1.07152
-0.0976495 -0.0100794 1.0702
-0.0958905 -0.00997027 1.06873
-0.0941281 -0.00985558 1.06718
-0.0924046 -0.0097625 1.06591
-0.0906835 -0.00966792 1.06463
-0.0889487 -0.00956104 1.06319
-0.0872393 -0.00946778 1.06192
-0.0856103 -0.00942692 1.06136
-0.0839802 -0.00938371 1.06076
-0.0823664 -0.00935043 1.0603
-0.0807987 -0.00934921 1.06027
-0.0792108 -0.00933269 1.06003
-0.0776072 -0.00930358 1.05962
-0.0759966 -0.00926792 1.05913
-0.0743945 -0.00923713 1.0587
-0.0727836 -0.00919804 1.05816
-0.0711941 -0.00917436 1.05782
-0.0696095 -0.00915349 1.05753
-0.0680534 -0.00915545 1.05754
-0.0665056 -0.00916415 1.05763
-0.0649834 -0.00919501 1.05803
-0.063521 -0.00927996 1.05915
-0.0622648 -0.00955486 1.0628
-0.0610587 -0.00988724 1.06722
-0.0598373 -0.0102189 1.07164
-0.0585634 -0.0105143 1.07556
-0.0572183 -0.0107521 1.07872
-0.0557028 -0.0108284 1.07972
-0.0541661 -0.0108861 1.08048
-0.0526443 -0.0109619 1.08147
-0.0511112 -0.0110285 1.08234
-0.0495867 -0.0111078 1.08338
-0.0480669 -0.0111961 1.08454
-0.0465287 -0.0112671 1.08547
-0.0450133 -0.0113688 1.08681
-0.0434175 -0.0113763 1.0869
-0.0417896 -0.0113429 1.08643
-0.0401275 -0.0112622 1.08534
-0.0384769 -0.0111915 1.08437
-0.0367987 -0.0110773 1.08283
-0.0351837 -0.0110463 1.0824
-0.0335439 -0.0109753 1.08143
-0.0318909 -0.0108787 1.08012
-0.0302218 -0.0107489 1.07837
-0.0285454 -0.0105966 1.07632
-0.0268636 -0.0104223 1.07397
-0.0252065 -0.0102775 1.07202
-0.0235583 -0.0101363 1.07012
-0.0219416 -0.010043 1.06886
-0.0203418 -0.00997483 1.06793
-0.0187674 -0.00995342 1.06763
-0.0172049 -0.00995542 1.06764
-0.015665 -0.0100103 1.06835
-0.014105 -0.01002 1.06846
-0.0125477 -0.0100371 1.06867
-0.0109855 -0.0100412 1.06871
-0.00940811 -0.00999953 1.06814
-0.00781408 -0.00989677 1.06675
-0.00623138 -0.00981605 1.06565
-0.00464855 -0.00972001 1.06435
-0.00306609 -0.0096056 1.0628
-0.00150268 -0.00955199 1.06207
5.16538e-05 -0.00953066 1.06177
0.00160165 -0.00952591 1.06169
0.00315095 -0.00952164 1.06161
0.00469558 -0.00954919 1.06196
0.00624236 -0.00956447 1.06215
0.00778736 -0.0096037 1.06266
0.00933265 -0.00965964 1.06338
0.0108794 -0.00973131 1.06432
0.0124295 -0.00977942 1.06495
0.0139814 -0.00983943 1.06573
0.0155352 -0.0098912 1.06641
0.0170911 -0.00994091 1.06705
0.0186482 -0.00998306 1.0676
0.0202081 -0.0100391 1.06833
0.0217705 -0.0100992 1.06911
0.0233382 -0.0101791 1.07016
0.0249153 -0.0102988 1.07174
0.0265009 -0.0104375 1.07357
0.0280997 -0.0106121 1.07589
0.0297114 -0.0108106 1.07852
0.0313325 -0.0110124 1.08119
0.032953 -0.0111807 1.08342
0.034597 -0.0114041 1.08638
0.0362588 -0.0116532 1.08969
0.0379249 -0.0118841 1.09275
0.0397184 -0.014078 1.10044
0.0395928 -0.0120911 1.09549
-0.104418 -0.0087451 1.07365
-0.102793 -0.00872699 1.07338
-0.10113 -0.00868558 1.07279
-0.0994372 -0.00862517 1.07195
-0.0977069 -0.0085397 1.07076
-0.0959461 -0.00843277 1.06927
-0.0941814 -0.00832004 1.06771
-0.092453 -0.00822669 1.06641
-0.0907095 -0.00812055 1.06494
-0.0889734 -0.00801573 1.06349
-0.0872737 -0.00793166 1.06232
-0.0856436 -0.00789164 1.06175
-0.084014 -0.00785045 1.06116
-0.0824098 -0.00782524 1.0608
-0.0808407 -0.00782393 1.06076
-0.0792526 -0.00780846 1.06053
-0.0776483 -0.0077803 1.06012
-0.0760369 -0.00774559 1.05963
-0.0744338 -0.00771566 1.0592
-0.0728131 -0.00767067 1.05856
-0.0712136 -0.00764042 1.05813
-0.0696189 -0.0076126 1.05773
-0.0680531 -0.00760694 1.05763
-0.0664971 -0.007609 1.05764
-0.0649743 -0.0076389 1.05803
-0.063497 -0.00770916 1.05897
-0.0623106 -0.00803947 1.06346
-0.0611633 -0.00841873 1.06863
-0.0599894 -0.0087892 1.07367
-0.0587387 -0.00910315 1.07794
-0.0573546 -0.00930202 1.08064
-0.0557725 -0.00931444 1.08079
-0.0541879 -0.00932443 1.0809
-0.0526272 -0.00935907 1.08136
-0.0510655 -0.009394 1.08181
-0.0495197 -0.00944753 1.08252
-0.0479996 -0.00953209 1.08366
-0.0464557 -0.00959328 1.08447
-0.0449363 -0.0096863 1.08572
-0.0433542 -0.00970816 1.086
-0.0417407 -0.00969166 1.08575
-0.0400933 -0.00963031 1.08489
-0.0384623 -0.00958637 1.08427
-0.0368068 -0.00950579 1.08315
-0.0352025 -0.0094911 1.08293
-0.0335781 -0.00944584 1.08229
-0.031935 -0.00936843 1.08121
-0.0302805 -0.00926739 1.07981
-0.0286162 -0.00914201 1.07808
-0.0269451 -0.00899484 1.07604
-0.0252889 -0.00886134 1.0742
-0.0236448 -0.00873763 1.07249
-0.0220237 -0.00864593 1.07122
-0.02042 -0.00857971 1.07029
-0.0188475 -0.00857104 1.07015
-0.0173006 -0.00861671 1.07075
-0.0157637 -0.00868937 1.07173
-0.01421 -0.00872829 1.07224
-0.0126545 -0.00876653 1.07274
-0.0110876 -0.00877681 1.07286
-0.00949405 -0.00870945 1.07192
-0.00788809 -0.00859161 1.07029
-0.00628981 -0.00848071 1.06875
-0.0046931 -0.00835476 1.06701
-0.00310035 -0.00822013 1.06515
-0.00153125 -0.00816059 1.06432
2.65166e-05 -0.00814122 1.06403
0.00158162 -0.00813009 1.06386
0.00313385 -0.00813075 1.06385
0.00468436 -0.00814133 1.06398
0.00623693 -0.00813482 1.06387
0.0077867 -0.00815188 1.06408
0.0093348 -0.00819933 1.06471
0.0108845 -0.00825484 1.06544
0.0124362 -0.00831057 1.06618
0.0139902 -0.00838077 1.06712
0.015547 -0.00845068 1.06806
0.0171069 -0.00852288 1.06902
0.0186683 -0.00857965 1.06978
0.0202338 -0.00865433 1.07078
0.021803 -0.00873573 1.07187
0.0233772 -0.00882747 1.0731
0.0249594 -0.00894563 1.07469
0.0265522 -0.00909294 1.07668
0.0281581 -0.0092722 1.07911
0.0297759 -0.00946952 1.08178
0.0314041 -0.00967299 1.08454
0.0330327 -0.00984668 1.08689
0.0346808 -0.0100596 1.08978
0.0363343 -0.0102603 1.0925
0.0379904 -0.0104425 1.09496
0.0396477 -0.0106081 1.0972
-0.10441 -0.00715877 1.07365
-0.102797 -0.00714872 1.07349
-0.101145 -0.0071148 1.07299
-0.0994708 -0.00706691 1.0723
-0.0977632 -0.00699756 1.0713
-0.096013 -0.00690029 1.06992
-0.0942466 -0.00679002 1.06835
-0.0925049 -0.00669143 1.06694
-0.0907586 -0.00658676 1.06545
-0.0890205 -0.00648391 1.06399
-0.0873215 -0.00640299 1.06283
-0.0856819 -0.00635837 1.06219
-0.0840601 -0.00632407 1.06168
-0.082453 -0.00629825 1.0613
-0.0808757 -0.00629205 1.06119
-0.0792872 -0.00627735 1.06096
-0.0776829 -0.00625063 1.06056
-0.0760692 -0.00621579 1.06005
-0.074465 -0.00618651 1.05962
-0.0728445 -0.00614335 1.05899
-0.0712354 -0.00610721 1.05846
-0.0696387 -0.00607907 1.05804
-0.0680622 -0.00606568 1.05783
-0.0664969 -0.00606059 1.05774
-0.0649577 -0.00607653 1.05794
-0.063457 -0.00612532 1.0586
-0.0623556 -0.00652123 1.06411
-0.0612772 -0.00695352 1.07014
-0.0601157 -0.0073292 1.07538
-0.0588991 -0.00767023 1.08012
-0.0574698 -0.00782572 1.08228
-0.0558301 -0.00778512 1.08168
-0.054219 -0.00777045 1.08145
-0.0526196 -0.00776645 1.08138
-0.0510278 -0.00776958 1.0814
-0.0494607 -0.00779867 1.08178
-0.0479331 -0.00787192 1.08278
-0.0463775 -0.00791718 1.08339
-0.0448515 -0.0079985 1.0845
-0.0432817 -0.00803204 1.08495
-0.0416995 -0.00805215 1.08521
-0.0400863 -0.00803404 1.08493
-0.0384764 -0.00801858 1.08469
-0.0368433 -0.00797056 1.08399
-0.0352421 -0.00796282 1.08386
-0.0336165 -0.00791919 1.08323
-0.0319784 -0.00785368 1.08229
-0.0303424 -0.00778599 1.08132
-0.0286914 -0.00768876 1.07993
-0.0270398 -0.00758238 1.07842
-0.0253883 -0.00746674 1.07678
-0.0237442 -0.00735382 1.07518
-0.0221248 -0.00727609 1.07407
-0.0205265 -0.00723152 1.07342
-0.0189528 -0.0072317 1.0734
-0.0174113 -0.00729962 1.07432
-0.0158752 -0.00738641 1.07552
-0.0143191 -0.00743423 1.07616
-0.0127603 -0.00747991 1.07678
-0.0111891 -0.00749701 1.07699
-0.00958667 -0.00742549 1.07597
-0.00797536 -0.00731562 1.07441
-0.00636355 -0.0071852 1.07256
-0.00474945 -0.00702328 1.07027
-0.00314282 -0.00685896 1.06795
-0.0015632 -0.00677599 1.06677
3.05173e-06 -0.00673626 1.06619
0.00156506 -0.00670733 1.06576
0.0031196 -0.00671371 1.06583
0.00467442 -0.00671772 1.06586
0.00623027 -0.00671022 1.06573
0.00778435 -0.00671354 1.06576
0.00933459 -0.00677216 1.06655
0.0108874 -0.00682626 1.06729
0.0124419 -0.00689612 1.06824
0.0139995 -0.00698018 1.06939
0.0155608 -0.00707332 1.07067
0.0171254 -0.00715298 1.07176
0.0186922 -0.00721682 1.07263
0.0202644 -0.0073108 1.07392
0.0218403 -0.00740096 1.07516
0.0234215 -0.00750139 1.07654
0.0250111 -0.00762649 1.07826
0.0266125 -0.00778461 1.08045
0.0282236 -0.00795501 1.08281
0.0298465 -0.00814289 1.08541
0.0314792 -0.00833585 1.08808
0.0331137 -0.00850519 1.09042
0.0347609 -0.00869105 1.093
0.0364061 -0.00884648 1.09515
0.0380542 -0.00899 1.09712
0.0397054 -0.00912627 1.09901
-0.102803 -0.00557067 1.07361
-0.101152 -0.00553896 1.07312
-0.0994886 -0.00549854 1.07252
-0.0977964 -0.00544016 1.07165
-0.096069 -0.00535931 1.07047
-0.0943011 -0.00525149 1.06889
-0.0925584 -0.00515535 1.06749
-0.0908117 -0.00505372 1.066
-0.0890723 -0.00495333 1.06454
-0.0873636 -0.00486892 1.0633
-0.085721 -0.00482415 1.06263
-0.0840881 -0.00478406 1.06203
-0.0824792 -0.00475831 1.06163
-0.0809016 -0.0047526 1.06152
-0.0793234 -0.004746 1.0614
-0.0777089 -0.00471348 1.06091
-0.0761021 -0.00468497 1.06048
-0.0744967 -0.00465625 1.06004
-0.0728762 -0.0046149 1.05942
-0.0712592 -0.00457442 1.05881
-0.06966 -0.00454568 1.05837
-0.0680725 -0.00452464 1.05805
-0.0664981 -0.00451288 1.05785
-0.0649412 -0.00451454 1.05785
-0.0634054 -0.00453332 1.05809
-0.0623293 -0.00494061 1.0639
-0.060256 -0.00587596 1.07726
-0.0590313 -0.00620466 1.08195
-0.0575588 -0.00631966 1.08357
-0.0558957 -0.00626032 1.08269
-0.0542576 -0.00622183 1.08211
-0.0526252 -0.00618666 1.08158
-0.0510104 -0.00616716 1.08127
-0.0494221 -0.00617352 1.08134
-0.0478816 -0.00623076 1.08213
-0.0463133 -0.00626006 1.08253
-0.0447747 -0.00632389 1.08341
-0.0432173 -0.0063691 1.08404
-0.0416672 -0.00642501 1.08481
-0.0400893 -0.00644984 1.08514
-0.0385172 -0.00648291 1.08559
-0.0369164 -0.00648018 1.08552
-0.0353172 -0.00647901 1.08548
-0.033687 -0.00643408 1.0848
-0.0320643 -0.0063961 1.08423
-0.0304368 -0.0063477 1.08351
-0.0287978 -0.00627718 1.08248
-0.0271604 -0.00620332 1.08139
-0.0255127 -0.00610527 1.07996
-0.0238549 -0.00598077 1.07815
-0.0222338 -0.00591115 1.07713
-0.0206412 -0.00588807 1.07677
-0.0190741 -0.00591294 1.0771
-0.0175319 -0.00599147 1.0782
-0.015991 -0.00607985 1.07944
-0.0144239 -0.00611664 1.07994
-0.0128528 -0.00614694 1.08034
-0.0112689 -0.00614638 1.08031
-0.00966124 -0.00607796 1.0793
-0.00804515 -0.00597323 1.07778
-0.00642394 -0.00583424 1.07576
-0.0047952 -0.00564365 1.073
-0.0031735 -0.00544298 1.0701
-0.00158486 -0.00533938 1.06859
-1.9308e-05 -0.00531881 1.06827
0.00154563 -0.00529361 1.06788
0.00310455 -0.00529567 1.06789
0.00466037 -0.00531693 1.06817
0.00622006 -0.00531002 1.06804
0.00777864 -0.00530784 1.06798
0.00933204 -0.00537273 1.06889
0.0108882 -0.00543824 1.0698
0.0124467 -0.0055207 1.07095
0.0140088 -0.00561087 1.07222
0.0155751 -0.00571062 1.07362
0.0171443 -0.00578063 1.07459
0.0187179 -0.0058688 1.07583
0.0202966 -0.00597197 1.07728
0.0218798 -0.00607359 1.07871
0.0234702 -0.00619318 1.08039
0.0250698 -0.00633588 1.08241
0.0266747 -0.00647241 1.08434
0.0282892 -0.00662486 1.08649
0.0299153 -0.00679579 1.08891
0.0315495 -0.00696855 1.09136
0.0331864 -0.00712268 1.09353
0.0348262 -0.00726463 1.09554
0.0364672 -0.00739201 1.09734
0.0381155 -0.00752356 1.0992
0.0397653 -0.00764329 1.10088
-0.102813 -0.00399497 1.07376
-0.10114 -0.0039519 1.0731
-0.0994707 -0.00390949 1.07245
-0.0977786 -0.00385271 1.07158
-0.0960711 -0.00378527 1.07056
-0.0943209 -0.00369083 1.06914
-0.0925907 -0.00360497 1.06785
-0.0908535 -0.00351214 1.06645
-0.0891344 -0.00342701 1.06517
-0.0874345 -0.00335104 1.06403
-0.0857923 -0.00330867 1.06337
-0.0841658 -0.0032746 1.06284
-0.0825644 -0.00325549 1.06253
-0.0809846 -0.00324967 1.06242
-0.0793972 -0.00323837 1.06222
-0.0777803 -0.00320612 1.06172
-0.076163 -0.0031722 1.06119
-0.0745544 -0.00314297 1.06073
-0.0729253 -0.00309747 1.06003
-0.0713074 -0.00305833 1.05943
-0.0697078 -0.00303092 1.059
-0.0681171 -0.00300898 1.05864
-0.0665297 -0.0029885 1.05831
-0.0649551 -0.00297684 1.05811
-0.0623194 -0.00337417 1.06389
-0.0604521 -0.00446412 1.07985
-0.0591901 -0.00475609 1.08411
-0.0576433 -0.00480532 1.0848
-0.0559747 -0.00474446 1.08388
-0.0543106 -0.00468457 1.08297
-0.0526528 -0.00462739 1.0821
-0.0510147 -0.0045864 1.08147
-0.049405 -0.00457166 1.08122
-0.0478445 -0.00460667 1.0817
-0.0462633 -0.00462098 1.08188
-0.0447125 -0.00466886 1.08256
-0.043169 -0.00472715 1.08338
-0.0416352 -0.00479959 1.08442
-0.0400857 -0.00485702 1.08523
-0.0385469 -0.00493067 1.08628
-0.0369686 -0.00495819 1.08666
-0.0353764 -0.00496901 1.08679
-0.0337515 -0.00493542 1.08626
-0.0321497 -0.0049314 1.08617
-0.0305299 -0.00490026 1.08569
-0.0289165 -0.00487589 1.0853
-0.0273017 -0.00484659 1.08484
-0.0256732 -0.00479192 1.084
-0.0240124 -0.00467696 1.08229
-0.0223924 -0.00462362 1.08147
-0.0207895 -0.00459593 1.08104
-0.0192074 -0.00460531 1.08115
-0.0176492 -0.00466329 1.08197
-0.0160912 -0.00472709 1.08287
-0.0145168 -0.00475961 1.08332
-0.0129388 -0.00478663 1.08369
-0.0113492 -0.00478609 1.08365
-0.00973618 -0.00472029 1.08265
-0.00811986 -0.00463427 1.08136
-0.00648903 -0.00448748 1.07918
-0.00484017 -0.00425241 1.0757
-0.00319599 -0.0039895 1.07181
-0.00159821 -0.00386304 1.06992
-3.0042e-05 -0.00384107 1.06957
0.00153539 -0.0038255 1.06931
0.00309274 -0.00385092 1.06966
0.00464905 -0.00389005 1.0702
0.00620963 -0.00390484 1.07039
0.00776956 -0.00393027 1.07073
0.00932603 -0.00401615 1.07196
0.0108861 -0.00410896 1.0733
0.0124499 -0.00421915 1.07488
0.0140188 -0.00432957 1.07647
0.0155923 -0.00442571 1.07785
0.0171688 -0.00449879 1.0789
0.0187495 -0.00458392 1.08012
0.0203352 -0.00468121 1.08151
0.0219251 -0.00477784 1.0829
0.0235228 -0.0048971 1.08462
0.0251285 -0.00503021 1.08654
0.0267389 -0.00515674 1.08837
0.0283555 -0.00528499 1.09022
0.0299823 -0.00543116 1.09234
0.0316154 -0.00557409 1.0944
0.0332482 -0.00569483 1.09615
0.0348784 -0.00579099 1.09753
0.0365183 -0.0059013 1.09911
0.0381701 -0.00603062 1.10097
0.0398244 -0.00615208 1.10273
0.0416325 -0.00827654 1.10992
0.0414933 -0.00629442 1.10478
-0.0994426 -0.00231515 1.07229
-0.0977667 -0.00226887 1.07156
-0.0960812 -0.00221563 1.07072
-0.0943568 -0.00213842 1.06953
-0.0926396 -0.00206285 1.06835
-0.0909134 -0.00197952 1.06706
-0.089196 -0.00189842 1.06581
-0.0874943 -0.00182414 1.06465
-0.0858518 -0.0017834 1.06401
-0.0842236 -0.00175018 1.06347
-0.0826229 -0.00173281 1.06318
-0.0810418 -0.00172718 1.06306
-0.0794626 -0.00172242 1.06295
-0.0778444 -0.00169122 1.06245
-0.0762248 -0.00165756 1.06191
-0.0746143 -0.00162879 1.06144
-0.0729923 -0.0015905 1.06083
-0.0713656 -0.0015473 1.06015
-0.0697651 -0.00152104 1.05972
-0.0681728 -0.00149957 1.05937
-0.0665778 -0.00147496 1.05896
-0.0649885 -0.00145337 1.0586
-0.0593369 -0.00329023 1.08612
-0.0576859 -0.00325004 1.08548
-0.0560083 -0.00318401 1.08445
-0.0543422 -0.00312485 1.08353
-0.0526622 -0.00304936 1.08236
-0.0510081 -0.00299456 1.0815
-0.0493902 -0.00297244 1.08113
-0.047822 -0.00299874 1.0815
-0.0462398 -0.00301157 1.08166
-0.0446957 -0.00306528 1.08243
-0.0431656 -0.00313688 1.08348
-0.0416462 -0.00322403 1.08476
-0.0401158 -0.00330323 1.08592
-0.0385943 -0.00339712 1.0873
-0.0370314 -0.00344597 1.088
-0.0354407 -0.00346076 1.08819
-0.0338229 -0.003441 1.08786
-0.0322388 -0.00346492 1.08819
-0.0306311 -0.00345725 1.08803
-0.0290407 -0.00347319 1.08824
-0.0274483 -0.00348649 1.08841
-0.0258325 -0.0034626 1.08802
-0.0241727 -0.00336389 1.0865
-0.0225572 -0.00333208 1.08598
-0.0209499 -0.00331148 1.08564
-0.0193625 -0.00332553 1.08582
-0.017792 -0.00337337 1.0865
-0.0162179 -0.00341806 1.08714
-0.0146281 -0.00343184 1.08732
-0.0130366 -0.00344255 1.08745
-0.0114328 -0.00342283 1.08712
-0.00981288 -0.00335609 1.08608
-0.00819886 -0.00329524 1.08513
-0.00656298 -0.0031565 1.08301
-0.0016174 -0.00240532 1.0716
0.00152652 -0.00234626 1.07065
0.00306856 -0.00247264 1.07252
0.00461815 -0.00258928 1.07424
0.00617941 -0.00265444 1.07519
0.00774278 -0.00272692 1.07624
0.00930616 -0.00284641 1.07801
0.0108774 -0.0029138 1.07899
0.0124515 -0.00299157 1.08013
0.0140291 -0.00308447 1.08149
0.0156104 -0.00315785 1.08256
0.0171936 -0.00320723 1.08327
0.0187804 -0.0032752 1.08426
0.0203723 -0.00336354 1.08556
0.0219694 -0.00346022 1.08698
0.0235733 -0.00357242 1.08863
0.025184 -0.00369286 1.09041
0.0267974 -0.0038004 1.092
0.0284138 -0.00389875 1.09345
0.0300406 -0.00401888 1.09522
0.0316681 -0.00412343 1.09676
0.0332963 -0.00421266 1.09806
0.0349227 -0.00428589 1.09913
0.0365634 -0.00438902 1.10065
0.0382193 -0.0045192 1.10257
0.0398833 -0.00465445 1.10457
0.0415552 -0.00479381 1.10664
-0.0977555 -0.000685418 1.07154
-0.0960919 -0.000645632 1.07089
-0.0943932 -0.000585077 1.06992
-0.092677 -0.000512657 1.06876
-0.0909623 -0.000438456 1.06757
-0.0892548 -0.000366081 1.06641
-0.0875538 -0.000294867 1.06528
-0.0859112 -0.000256044 1.06464
-0.0842834 -0.000224654 1.06412
-0.0826807 -0.00020746 1.06381
-0.0810909 -0.000197509 1.06362
-0.0795201 -0.000199017 1.06361
-0.0779107 -0.000175234 1.06321
-0.0762894 -0.000142522 1.06266
-0.0746783 -0.000115093 1.0622
-0.0730616 -8.2553e-05 1.06166
-0.0714344 -4.11739e-05 1.06099
-0.0698326 -1.59672e-05 1.06056
-0.0682407 3.46081e-06 1.06022
-0.0666548 1.93708e-05 1.05994
-0.06506 4.31326e-05 1.05954
-0.0593406 -0.00169796 1.08629
-0.0576884 -0.0016584 1.08564
-0.0560177 -0.00160036 1.0847
-0.0543568 -0.001548 1.08386
-0.0526775 -0.00147577 1.0827
-0.051015 -0.00141541 1.08173
-0.0493896 -0.00138707 1.08126
-0.0478074 -0.00139942 1.08141
-0.0462308 -0.00141777 1.08166
-0.0447055 -0.00148972 1.08273
-0.0431955 -0.00158174 1.08412
-0.0416945 -0.00168836 1.08573
-0.0401835 -0.00178987 1.08726
-0.0386745 -0.00189833 1.08891
-0.0371155 -0.00195423 1.08973
-0.0355237 -0.00197177 1.08996
-0.0339168 -0.00196995 1.0899
-0.0323466 -0.00201702 1.09059
-0.0307469 -0.00202629 1.09069
-0.0291687 -0.00206544 1.09126
-0.0275906 -0.00210752 1.09188
-0.025984 -0.00210882 1.09185
-0.0243322 -0.00203575 1.09069
-0.0227222 -0.00202544 1.0905
-0.0211137 -0.00201677 1.09033
-0.019512 -0.00201905 1.09033
-0.0179245 -0.00204852 1.09074
-0.0163291 -0.00206264 1.09093
-0.0147201 -0.00204904 1.09068
-0.0131113 -0.00203394 1.0904
-0.0114975 -0.0020016 1.08987
-0.00987315 -0.00193873 1.08886
-0.00826554 -0.00190981 1.08838
0.00301429 -0.00125579 1.07802
0.00456555 -0.00141934 1.08051
0.00613391 -0.001511 1.08189
0.00770602 -0.00160833 1.08335
0.0092845 -0.00168166 1.08445
0.0108676 -0.00172595 1.08509
0.0124526 -0.00176946 1.08573
0.0140395 -0.00184106 1.0868
0.015629 -0.00188538 1.08745
0.0172191 -0.00191202 1.08782
0.0188118 -0.00195844 1.0885
0.0204087 -0.00202446 1.08948
0.0220092 -0.00209524 1.09054
0.023616 -0.00218713 1.09192
0.0252282 -0.0022822 1.09335
0.0268395 -0.00235275 1.0944
0.0284548 -0.00242837 1.09554
0.0300796 -0.0025238 1.09696
0.0317038 -0.00260491 1.09819
0.0333314 -0.00268386 1.09937
0.0349585 -0.00275006 1.10035
0.0366041 -0.00285876 1.10199
0.038265 -0.00299266 1.10402
0.0399339 -0.00313177 1.10613
0.0416089 -0.00326772 1.10819
0.0434193 -0.00533607 1.11476
0.0432675 -0.00335614 1.10951
-0.0977149 0.000913311 1.07128
-0.0960679 0.000943256 1.07076
-0.0943945 0.000988498 1.07
-0.0926941 0.00105012 1.06898
-0.090991 0.00111539 1.06791
-0.0892941 0.0011794 1.06685
-0.0876149 0.0012356 1.06591
-0.0859804 0.0012678 1.06536
-0.0843623 0.00129167 1.06494
-0.082768 0.00130231 1.06473
-0.0811864 0.0013058 1.06464
-0.0796051 0.00130958 1.06454
-0.0779951 0.00133192 1.06414
-0.0763735 0.0013628 1.06361
-0.0747605 0.00138937 1.06315
-0.0731434 0.00141998 1.06262
-0.0715224 0.00145473 1.06203
-0.0699197 0.00147849 1.06161
-0.0683253 0.00149755 1.06127
-0.0667378 0.00151278 1.06099
-0.0651495 0.00152959 1.06068
-0.0577023 -7.56373e-05 1.08594
-0.0560345 -2.2247e-05 1.08505
-0.0543698 3.13556e-05 1.08416
-0.052691 0.000100522 1.08302
-0.0510202 0.000166268 1.08194
-0.0493869 0.000200552 1.08135
-0.0477994 0.000193117 1.08143
-0.0462367 0.000161564 1.08189
-0.0447369 6.49365e-05 1.08338
-0.0432529 -5.31824e-05 1.08522
-0.0417586 -0.000166222 1.08697
-0.0402567 -0.000277509 1.0887
-0.0387582 -0.000399064 1.09058
-0.0372072 -0.000465217 1.0916
-0.035625 -0.000498249 1.09208
-0.0340429 -0.000532782 1.09259
-0.0324833 -0.000598548 1.09358
-0.0308854 -0.000616062 1.09383
-0.0293013 -0.000654545 1.09439
-0.0277254 -0.000705987 1.09517
-0.0261186 -0.000715016 1.09528
-0.0244744 -0.000666127 1.09445
-0.0228545 -0.000651464 1.09418
-0.0212403 -0.000643617 1.09402
-0.0196285 -0.00063882 1.0939
-0.0180247 -0.000648022 1.094
-0.0164103 -0.000636205 1.09377
-0.0147929 -0.000615493 1.0934
-0.013174 -0.000587188 1.09292
-0.0115497 -0.000542064 1.09216
-0.0099311 -0.000504723 1.09153
-0.00832943 -0.000505215 1.0915
0.00608481 -0.000373568 1.08904
0.00767069 -0.000454536 1.09028
0.0092643 -0.000475181 1.09057
0.0108595 -0.000479204 1.0906
0.0124546 -0.00049192 1.09075
0.0140501 -0.000536908 1.09142
0.0156459 -0.000552625 1.09164
0.0172426 -0.000563165 1.09176
0.0188413 -0.000600855 1.09232
0.0204415 -0.00063936 1.09289
0.0220449 -0.000687458 1.09361
0.0236537 -0.000755786 1.09465
0.0252647 -0.000821277 1.09565
0.0268729 -0.000858427 1.0962
0.0284877 -0.000917998 1.0971
0.0301108 -0.000996505 1.09831
0.0317355 -0.0010688 1.09941
0.0333638 -0.0011404 1.1005
0.0349951 -0.00121173 1.10159
0.0366445 -0.00132337 1.10332
0.038308 -0.00145435 1.10535
0.0399786 -0.00158919 1.10745
0.0416525 -0.00171471 1.1094
0.0433068 -0.00178826 1.11052
-0.0977542 0.00247051 1.07168
-0.0961041 0.00250059 1.07115
-0.0944462 0.00253588 1.07053
-0.0927577 0.00258884 1.06962
-0.091064 0.00264643 1.06863
-0.0893555 0.00271424 1.06748
-0.0876866 0.00276235 1.06665
-0.0860523 0.00279253 1.06611
-0.0844419 0.00281034 1.06578
-0.0828462 0.0028205 1.06557
-0.0812728 0.002818 1.06556
-0.0796907 0.00282091 1.06547
-0.0780975 0.00283099 1.06526
-0.0764756 0.00285984 1.06475
-0.0748621 0.00288457 1.0643
-0.0732428 0.00291433 1.06377
-0.0716276 0.00294282 1.06326
-0.0700152 0.00297074 1.06276
-0.0684192 0.00298883 1.06242
-0.0668315 0.00300231 1.06216
-0.0652419 0.00301796 1.06186
-0.0560276 0.00157659 1.08508
-0.0543599 0.00163105 1.08415
-0.0526882 0.00169204 1.08311
-0.0510225 0.00175107 1.0821
-0.0494094 0.0017656 1.08182
-0.0478311 0.0017489 1.08205
-0.0462877 0.0016983 1.08283
-0.0448138 0.00157692 1.08476
-0.0433438 0.00144516 1.08687
-0.0418452 0.00133632 1.0886
-0.0403465 0.00122126 1.09043
-0.0388394 0.00110968 1.09221
-0.03728 0.00105096 1.09312
-0.0357069 0.00100486 1.09383
-0.0341391 0.000950153 1.09468
-0.0325764 0.000885473 1.09568
-0.0309828 0.000857388 1.0961
-0.0293964 0.000818525 1.09669
-0.0278192 0.00076339 1.09754
-0.0262168 0.000742288 1.09784
-0.0245935 0.000751801 1.09764
-0.0229734 0.000757766 1.0975
-0.0213545 0.000763144 1.09736
-0.0197341 0.00077286 1.09716
-0.0181184 0.000775191 1.09708
-0.0164899 0.000803714 1.09657
-0.0148672 0.000824731 1.09618
-0.0132427 0.000853558 1.09566
-0.0116094 0.00090694 1.09475
-0.00999194 0.000930648 1.09432
-0.00838605 0.00092797 1.09432
0.00442302 0.000745479 1.09693
0.00603363 0.000770916 1.09647
0.00763854 0.000759115 1.09662
0.00924614 0.000775466 1.09631
0.0108527 0.000800142 1.09586
0.0124566 0.000811732 1.09563
0.0140603 0.00079778 1.09581
0.0156629 0.000805316 1.09565
0.017265 0.000814568 1.09545
0.0188672 0.000807348 1.09552
0.0204707 0.000788618 1.09578
0.0220771 0.000755518 1.09627
0.0236859 0.000713061 1.09693
0.0252966 0.000672805 1.09753
0.0269061 0.000643631 1.09796
0.0285221 0.000593908 1.09873
0.0301442 0.000529677 1.09973
0.0317698 0.000464547 1.10074
0.0333999 0.000394614 1.10184
0.0350336 0.000324284 1.10294
0.036681 0.000226898 1.10448
0.0383429 0.000106946 1.10639
0.040018 -2.92398e-05 1.10856
0.0416911 -0.000146281 1.11042
0.043351 -0.000225697 1.11167
-0.096167 0.0040458 1.07176
-0.0945133 0.0040773 1.07118
-0.0928287 0.0041259 1.07031
-0.0911494 0.00417344 1.06947
-0.0894397 0.00423897 1.06832
-0.0877801 0.00427958 1.06758
-0.0861456 0.00430811 1.06706
-0.084545 0.00431877 1.06683
-0.0829385 0.00433347 1.06653
-0.0813534 0.00433657 1.06643
-0.0797684 0.00434007 1.06633
-0.0781739 0.00434958 1.06612
-0.0765504 0.00437738 1.0656
-0.0749364 0.00440066 1.06516
-0.0733244 0.00442387 1.06473
-0.0717078 0.00445111 1.06422
-0.0700933 0.00447827 1.06371
-0.0684891 0.00450013 1.0633
-0.0669043 0.00450988 1.06309
-0.0653079 0.00452841 1.06273
-0.0559923 0.00319849 1.08473
-0.0543442 0.00323548 1.08406
-0.0526897 0.00328009 1.08326
-0.051045 0.00331898 1.08256
-0.0494755 0.00329359 1.08293
-0.047922 0.0032528 1.08357
-0.0464019 0.00317924 1.08475
-0.0449454 0.00304113 1.08702
-0.04348 0.00290436 1.08927
-0.0419735 0.00280238 1.09093
-0.0404719 0.00268923 1.09278
-0.0389556 0.0025861 1.09447
-0.0373872 0.00253412 1.09529
-0.0358121 0.00248764 1.09602
-0.034241 0.00243346 1.09688
-0.0326603 0.00238785 1.0976
-0.0310645 0.00235922 1.09803
-0.0294628 0.00233653 1.09836
-0.0278729 0.00229643 1.09898
-0.0262588 0.00228827 1.09906
-0.0246415 0.00228534 1.09906
-0.0230199 0.0022903 1.09894
-0.0214103 0.002276 1.09913
-0.019798 0.00226556 1.09925
-0.0181899 0.00224809 1.09949
-0.0165671 0.00225763 1.09928
-0.0149458 0.00226618 1.09909
-0.0133194 0.0022877 1.09868
-0.0116805 0.00234054 1.09775
-0.0100548 0.00237032 1.0972
-0.00844068 0.00237575 1.09705
-0.00681821 0.00240674 1.09648
0.00435769 0.00190688 1.10452
0.00598641 0.00196821 1.10344
0.00761129 0.00203025 1.10235
0.0092314 0.00208557 1.10138
0.0108484 0.00214984 1.10025
0.0124608 0.00220261 1.09932
0.0140703 0.00223348 1.09875
0.0156772 0.00226683 1.09814
0.0172811 0.00230555 1.09745
0.0188854 0.00231133 1.09731
0.0204919 0.00229326 1.09756
0.0221019 0.00225584 1.09814
0.0237142 0.00221342 1.0988
0.0253265 0.00217964 1.09932
0.026939 0.00215233 1.09972
0.0285543 0.00211684 1.10027
0.0301777 0.00206039 1.10116
0.0318034 0.0020026 1.10209
0.0334367 0.00193259 1.1032
0.035075 0.00185787 1.1044
0.0367222 0.0017696 1.10583
0.0383836 0.00165862 1.10764
0.0400613 0.00152563 1.10982
0.0417394 0.00140493 1.11179
0.0434055 0.00132002 1.11316
-0.096193 0.00561116 1.07205
-0.0945353 0.0056431 1.07145
-0.0928658 0.00568233 1.07071
-0.0912084 0.00571676 1.07007
-0.0895271 0.00576487 1.06918
-0.0878774 0.00579814 1.06855
-0.0862511 0.00582032 1.06812
-0.0846495 0.00583001 1.06789
-0.083041 0.00584413 1.0676
-0.0814537 0.00584704 1.06749
-0.0798659 0.00585074 1.06738
-0.078269 0.00586016 1.06716
-0.0766442 0.00588662 1.06665
-0.0750283 0.00590905 1.06621
-0.0734044 0.00593741 1.06567
-0.0717851 0.00596439 1.06515
-0.0701686 0.00599079 1.06464
-0.0685638 0.0060111 1.06424
-0.0669734 0.00602294 1.06398
-0.0653826 0.00603597 1.0637
-0.0511763 0.00479707 1.08459
-0.0496445 0.00473677 1.08558
-0.0481049 0.00468032 1.0865
-0.0465967 0.0045936 1.08795
-0.0451214 0.00447159 1.09
-0.0436263 0.004362 1.09184
-0.0421071 0.00427056 1.09336
-0.0405939 0.00416812 1.09508
-0.0390627 0.00407918 1.09657
-0.0374797 0.00404057 1.09718
-0.0359058 0.00398997 1.098
-0.0343261 0.00394322 1.09875
-0.0327277 0.00391624 1.09917
-0.031118 0.00390135 1.09936
-0.0295038 0.00389228 1.09947
-0.0279023 0.00386637 1.09986
-0.0262836 0.00386275 1.09987
-0.0246733 0.00384801 1.10008
-0.0230583 0.00383944 1.10017
-0.0214579 0.00380691 1.10067
-0.0198512 0.00378367 1.10102
-0.0182475 0.00375406 1.10148
-0.0166284 0.00375012 1.1015
-0.0150135 0.00373808 1.10165
-0.0133951 0.00373258 1.10168
-0.0117591 0.00376761 1.10103
-0.0101298 0.00379126 1.10057
0.00273045 0.00345735 1.1059
0.00435798 0.00348271 1.10541
0.0059843 0.00351522 1.10479
0.00760965 0.0035568 1.10401
0.00923134 0.00359501 1.1033
0.0108506 0.00364206 1.10244
0.0124663 0.00367602 1.10181
0.0140801 0.00370663 1.10122
0.0156906 0.00374559 1.1005
0.0172985 0.00378446 1.09977
0.0189062 0.0037963 1.09952
0.0205155 0.00378616 1.09964
0.0221274 0.00376092 1.10002
0.0237415 0.00372519 1.10058
0.0253546 0.00370341 1.1009
0.0269684 0.00368272 1.1012
0.0285862 0.00364928 1.10172
0.0302097 0.0036006 1.10251
0.0318363 0.0035493 1.10334
0.0334711 0.00348156 1.10446
0.0351116 0.00340893 1.10565
0.0367589 0.0033283 1.10699
0.0384215 0.00322062 1.1088
0.0401037 0.00308482 1.11108
0.0417881 0.00295986 1.11318
0.0434613 0.00286846 1.11469
-0.0945429 0.00721674 1.07159
-0.0929052 0.0072389 1.07114
-0.091271 0.00726019 1.0707
-0.0896068 0.00729762 1.06998
-0.0879749 0.00731982 1.06952
-0.0863684 0.00732991 1.06928
-0.084775 0.0073338 1.06916
-0.0831645 0.00734706 1.06886
-0.0815744 0.00735007 1.06875
-0.0799826 0.00735446 1.06862
-0.0783732 0.00736902 1.0683
-0.0767372 0.00739985 1.06769
-0.0751192 0.00742152 1.06725
-0.0734925 0.00744942 1.0667
-0.0718704 0.00747604 1.06617
-0.0702521 0.0075014 1.06566
-0.0686534 0.00751601 1.06534
-0.0670638 0.0075255 1.06511
-0.0498954 0.0061203 1.08944
-0.0483404 0.00607314 1.09023
-0.0468132 0.00599963 1.09148
-0.0452967 0.00591266 1.09297
-0.043755 0.00584505 1.09411
-0.0422043 0.00578228 1.09517
-0.040674 0.0056968 1.09664
-0.0391271 0.005623 1.09789
-0.0375357 0.00559156 1.09839
-0.0359632 0.00553862 1.09928
-0.0343752 0.00549973 1.09991
-0.0327647 0.00548462 1.10012
-0.0311485 0.00547594 1.10021
-0.0295288 0.00547259 1.10022
-0.0279172 0.00545779 1.10041
-0.0263025 0.00544781 1.10054
-0.0246955 0.00542653 1.10086
-0.0230842 0.0054107 1.10108
-0.0214913 0.0053662 1.10182
-0.01989 0.00533064 1.10238
-0.0182888 0.00529365 1.10299
-0.0166775 0.00527067 1.10334
-0.0150766 0.00522702 1.10405
-0.013472 0.00518654 1.10471
-0.0118465 0.00518656 1.10466
-0.01022 0.00518889 1.10455
0.00273201 0.00504781 1.10659
0.00435898 0.00506436 1.10624
0.00598438 0.00507991 1.1059
0.00760893 0.00509955 1.1055
0.00923214 0.0051228 1.10502
0.0108535 0.00514943 1.10449
0.0124719 0.00516471 1.10417
0.0140895 0.00519376 1.10359
0.0157044 0.00523049 1.10288
0.0173166 0.00526813 1.10215
0.0189273 0.00528605 1.10178
0.020539 0.00528855 1.10167
0.0221528 0.00527111 1.10192
0.0237691 0.00524191 1.10239
0.0253829 0.00523165 1.10251
0.0269994 0.00521214 1.10279
0.0286176 0.00518611 1.1032
0.0302417 0.00514462 1.10388
0.0318688 0.00510104 1.10459
0.0335033 0.00504097 1.1056
0.035143 0.00497639 1.10669
0.0367916 0.00489884 1.10801
0.0384568 0.00479319 1.10983
0.0401413 0.00466038 1.11212
0.041831 0.00453132 1.11435
0.04351 0.00443497 1.116
-0.0929493 0.00879472 1.0716
-0.0913343 0.0088056 1.07134
-0.0896857 0.00883333 1.07076
-0.0880513 0.00885526 1.0703
-0.0864525 0.00886024 1.07015
-0.0848478 0.00886868 1.06993
-0.0832269 0.0088861 1.06955
-0.0816352 0.00888892 1.06943
-0.0800517 0.0088878 1.06939
-0.078441 0.00890179 1.06907
-0.0768129 0.00892615 1.06856
-0.0751932 0.00894706 1.06811
-0.0735649 0.00897402 1.06756
-0.0719401 0.00900019 1.06701
-0.0703198 0.00902499 1.0665
-0.0687237 0.00903627 1.06623
-0.0671416 0.00903975 1.0661
-0.0503215 0.00737514 1.09592
-0.0486579 0.00741074 1.09521
-0.0470542 0.00739667 1.09539
-0.0454872 0.00735056 1.09618
-0.0438922 0.00732802 1.09653
-0.0423035 0.00729826 1.09701
-0.0407389 0.0072444 1.09794
-0.0391668 0.00719527 1.09877
-0.0375563 0.00718272 1.09894
-0.0359705 0.00714351 1.09959
-0.0343716 0.00711707 1.10002
-0.032761 0.00710252 1.10022
-0.0311495 0.0070881 1.10042
-0.0295339 0.00707861 1.10053
-0.0279274 0.0070579 1.10085
-0.02632 0.00703653 1.10117
-0.0247173 0.00700847 1.10163
-0.023113 0.00698081 1.10207
-0.021524 0.00692928 1.10296
-0.0199256 0.0068876 1.10365
-0.018329 0.00683974 1.10447
-0.0167262 0.00679891 1.10515
-0.0151394 0.00672468 1.10645
-0.0135402 0.00666731 1.10744
-0.0119316 0.00662257 1.1082
-0.0103242 0.00656997 1.10909
0.00272774 0.00661779 1.10771
0.00435666 0.00663288 1.10737
0.00598326 0.0066406 1.10716
0.00760782 0.00664244 1.10706
0.0092334 0.00666382 1.10661
0.0108565 0.00667753 1.10629
0.0124782 0.00668038 1.10618
0.0140993 0.00670101 1.10573
0.0157178 0.0067293 1.10515
0.0173341 0.00676382 1.10445
0.018948 0.00678724 1.10397
0.0205624 0.00679653 1.10373
0.0221785 0.00678695 1.10384
0.0237958 0.00677077 1.10408
0.0254123 0.0067615 1.10418
0.0270296 0.00674783 1.10437
0.0286489 0.00672804 1.10467
0.0302719 0.00669968 1.10512
0.0318986 0.00666352 1.10572
0.033533 0.00661186 1.1066
0.0351742 0.00654938 1.10768
0.0368246 0.0064734 1.10901
0.0384915 0.00637017 1.11084
0.0401781 0.00624044 1.11314
0.0418694 0.00611524 1.11537
0.0435533 0.00601573 1.11712
-0.0923539 0.00990828 1.08042
-0.0896506 0.0104257 1.07053
-0.0880351 0.0104378 1.07023
-0.0864597 0.0104309 1.0703
-0.0848749 0.0104288 1.07027
-0.0832743 0.0104349 1.07009
-0.0816822 0.0104372 1.06998
-0.080107 0.010431 1.07003
-0.078496 0.0104438 1.06971
-0.0768777 0.0104614 1.06931
-0.0752671 0.0104756 1.06898
-0.0736462 0.0104965 1.06851
-0.0720115 0.0105262 1.06788
-0.0703969 0.0105459 1.06744
-0.0688089 0.0105508 1.06728
-0.0672242 0.0105543 1.06715
-0.050679 0.00870575 1.10137
-0.0489586 0.0087778 1.09994
-0.0472711 0.00882715 1.09894
-0.0456477 0.00882484 1.09891
-0.0440071 0.00883838 1.09858
-0.0423895 0.00883238 1.09863
-0.0407985 0.00880177 1.09914
-0.0392055 0.00877165 1.09964
-0.0375814 0.00877121 1.09958
-0.0359833 0.00874474 1.10001
-0.0343732 0.00872951 1.10023
-0.0327571 0.00872024 1.10033
-0.0311509 0.00870041 1.10064
-0.0295397 0.00868546 1.10086
-0.0279329 0.00866425 1.10119
-0.0263302 0.00863707 1.10163
-0.0247309 0.0086042 1.10219
-0.0231307 0.00857013 1.10276
-0.0215442 0.00851397 1.10375
-0.019949 0.00846732 1.10457
-0.0183576 0.00840954 1.10559
-0.0167694 0.00834207 1.1068
-0.0151972 0.00823962 1.10867
-0.0136044 0.00816394 1.11003
-0.0120039 0.00809599 1.11125
-0.0104037 0.00801808 1.11265
0.00435299 0.00819531 1.10868
0.00598084 0.00819934 1.10853
0.00760762 0.00819482 1.10854
0.00923459 0.00820485 1.10829
0.0108613 0.00822319 1.10787
0.012485 0.00822543 1.10776
0.0141088 0.0082392 1.10743
0.0157307 0.00825947 1.10698
0.0173502 0.00828634 1.1064
0.0189679 0.00830791 1.10592
0.0205845 0.00832331 1.10556
0.0222012 0.0083265 1.10544
0.0238187 0.008323 1.10544
0.0254352 0.00832472 1.10533
0.0270545 0.00831153 1.10551
0.0286737 0.00829781 1.10571
0.0302985 0.00827073 1.10614
0.0319263 0.00823669 1.10672
0.0335598 0.00819204 1.1075
0.0352027 0.00813107 1.10858
0.0368571 0.00805123 1.11002
0.0385267 0.00795045 1.11185
0.0402115 0.00782957 1.11406
0.041904 0.00770918 1.11626
0.0435884 0.00761378 1.118
-0.0888944 0.0116135 1.07815
-0.0864247 0.0120221 1.07006
-0.0848539 0.0120131 1.07016
-0.0841247 0.0115945 1.0783
-0.0704631 0.012076 1.06827
-0.0688627 0.0120869 1.06798
-0.0672591 0.0121003 1.06765
-0.0526335 0.0100877 1.10626
-0.0509148 0.0101475 1.10501
-0.0491771 0.0102253 1.10341
-0.0474585 0.010293 1.10201
-0.0457889 0.0103244 1.10132
-0.0441054 0.0103697 1.10036
-0.0424654 0.0103803 1.10008
-0.0408542 0.0103663 1.10028
-0.0392416 0.0103534 1.10045
-0.0376074 0.0103606 1.10024
-0.0360019 0.0103411 1.10055
-0.0343856 0.0103314 1.10066
-0.0327699 0.0103216 1.10078
-0.0311677 0.0102966 1.10119
-0.0295603 0.0102761 1.10151
-0.0279577 0.0102491 1.10197
-0.0263585 0.0102169 1.10252
-0.0247623 0.010179 1.10319
-0.0231636 0.0101412 1.10385
-0.0215753 0.0100868 1.10484
-0.0199781 0.010041 1.10567
-0.018385 0.0099852 1.10668
-0.0167954 0.00991833 1.10791
-0.0152191 0.009822 1.10972
-0.0136264 0.00974569 1.11113
-0.0120274 0.00967274 1.11249
0.00434603 0.00974469 1.11033
0.00597677 0.00974773 1.11019
0.00760542 0.00973949 1.11028
0.00923471 0.00973945 1.1102
0.0108644 0.00976251 1.10968
0.012492 0.00976538 1.10955
0.0141184 0.00977956 1.1092
0.0157432 0.00980418 1.10864
0.0173652 0.00982918 1.10808
0.0189854 0.00984939 1.10761
0.0206035 0.00987505 1.10704
0.0222213 0.00988958 1.10667
0.0238385 0.00989801 1.10644
0.0254547 0.00990545 1.10622
0.0270729 0.00990206 1.10621
0.0286937 0.00988824 1.1064
0.0303189 0.0098626 1.10683
0.0319477 0.00982982 1.1074
0.0335805 0.00979101 1.10808
0.0352251 0.00973064 1.10918
0.0368829 0.00964703 1.11074
0.0385541 0.00954858 1.11258
0.0402373 0.00943701 1.11468
0.0419268 0.00932734 1.11674
0.0436111 0.00923618 1.11845
0.0454948 0.0071641 1.12641
0.0454989 0.00883161 1.12626
-0.0543155 0.0100579 1.10692
-0.0544371 0.0116037 1.10877
-0.0527552 0.0116302 1.10816
-0.0510396 0.0116828 1.10701
-0.0493073 0.0117514 1.10554
-0.0475754 0.0118238 1.10399
-0.0458867 0.0118661 1.10305
-0.0441923 0.0119164 1.10195
-0.0425375 0.0119366 1.10146
-0.0409126 0.0119326 1.10146
-0.0392907 0.0119261 1.10151
-0.0376473 0.0119401 1.10115
-0.0360332 0.0119273 1.10132
-0.034411 0.0119223 1.10134
-0.0327944 0.0119116 1.10147
-0.0311955 0.0118825 1.10198
-0.0295919 0.0118572 1.10242
-0.0279846 0.0118345 1.10279
-0.0263891 0.0117972 1.10347
-0.0247948 0.0117559 1.10423
-0.0231938 0.0117193 1.10488
-0.021604 0.0116667 1.10587
-0.0200083 0.0116174 1.10678
-0.0184098 0.011568 1.1077
-0.0168215 0.0114985 1.10902
-0.0152478 0.0113983 1.11097
-0.0136466 0.0113347 1.11217
-0.0120459 0.0112639 1.11352
0.00596695 0.0112665 1.11257
0.00759992 0.0112617 1.11258
0.00923207 0.0112561 1.11262
0.0108673 0.0112892 1.11186
0.0124981 0.0113038 1.11149
0.0141281 0.0113403 1.11067
0.0157543 0.0113764 1.10986
0.0173777 0.011411 1.10909
0.0189999 0.01143 1.10862
0.0206197 0.0114541 1.10805
0.0222394 0.0114638 1.10778
0.0238584 0.0114726 1.10752
0.0254754 0.0114849 1.10719
0.0270933 0.0114868 1.10707
0.0287143 0.0114784 1.10716
0.0303387 0.0114582 1.10749
0.0319672 0.0114307 1.10796
0.0336032 0.0113869 1.10877
0.0352513 0.0113227 1.10998
0.0369137 0.0112356 1.11166
0.0385866 0.0111396 1.1135
0.0402711 0.0110319 1.1156
0.0419587 0.010931 1.11755
0.0436412 0.0108486 1.11913
0.0453138 0.0107883 1.12027
-0.0561874 0.0131698 1.11042
-0.0545126 0.0131872 1.10997
-0.0528365 0.0132068 1.10947
-0.0511276 0.0132508 1.10845
-0.0494034 0.0133092 1.10714
-0.0476694 0.0133781 1.10561
-0.045978 0.0134192 1.10466
-0.0442786 0.0134687 1.10353
-0.0426205 0.0134884 1.10303
-0.0409871 0.0134892 1.10293
-0.0393571 0.0134879 1.10287
-0.0377047 0.0135067 1.10239
-0.0360822 0.0134997 1.10244
-0.0344538 0.0134988 1.10238
-0.032836 0.0134879 1.10252
-0.0312402 0.0134545 1.10313
-0.0296394 0.0134247 1.10367
-0.028034 0.0133978 1.10414
-0.0264331 0.013365 1.10474
-0.0248365 0.0133248 1.1055
-0.0232331 0.0132897 1.10614
-0.0216374 0.0132434 1.10703
-0.0200327 0.0132047 1.10774
-0.0184362 0.013152 1.10876
-0.0168426 0.0130901 1.10997
-0.0152556 0.0130107 1.11154
-0.0136404 0.0129718 1.11227
0.00595846 0.0128037 1.11473
0.00759457 0.0127955 1.11481
0.00923061 0.0127863 1.11492
0.0108689 0.0128147 1.11423
0.0125048 0.0128458 1.1135
0.0141376 0.0129041 1.11219
0.0157659 0.0129568 1.111
0.0173897 0.0130072 1.10986
0.0190121 0.0130352 1.10919
0.0206327 0.0130579 1.10863
0.0222537 0.0130659 1.10837
0.0238733 0.0130742 1.10811
0.0254922 0.0130814 1.10788
0.0271117 0.0130834 1.10774
0.0287336 0.0130752 1.10783
0.0303589 0.0130556 1.10816
0.0319902 0.0130241 1.10872
0.0336283 0.0129808 1.10954
0.0352799 0.0129127 1.11087
0.0369472 0.0128229 1.11266
0.0386238 0.0127246 1.11463
0.040308 0.0126245 1.11663
0.0419946 0.0125318 1.11847
0.0436781 0.0124522 1.12004
0.045349 0.0123988 1.12107
0.0472051 0.0104138 1.12773
0.0470226 0.0123449 1.12211
-0.0580064 0.0147026 1.11292
-0.0563072 0.0147312 1.11221
-0.0546042 0.0147639 1.1114
-0.0529185 0.0147873 1.1108
-0.0512086 0.014829 1.1098
-0.0494945 0.014876 1.10868
-0.0477592 0.0149411 1.10716
-0.0460663 0.0149794 1.10623
-0.0443637 0.0150274 1.10509
-0.0426909 0.0150558 1.10438
-0.0410374 0.0150705 1.10397
-0.0393993 0.0150738 1.1038
-0.0377455 0.0150919 1.10332
-0.0361225 0.0150839 1.10339
-0.0344976 0.0150779 1.10343
-0.0328882 0.0150576 1.10378
-0.0312902 0.0150248 1.10439
-0.0296966 0.0149864 1.10513
-0.0280941 0.0149543 1.10573
-0.02649 0.0149227 1.10632
-0.0248907 0.0148836 1.10708
-0.0232851 0.0148499 1.10772
-0.021679 0.0148136 1.10841
-0.0200651 0.0147854 1.10893
-0.0184589 0.0147442 1.10972
-0.0168497 0.0147047 1.11049
-0.0152469 0.0146515 1.11155
-0.0136224 0.0146285 1.11195
-0.0120117 0.0145797 1.11292
0.00594914 0.014341 1.11704
0.00758896 0.0143319 1.11715
0.00922904 0.0143273 1.11715
0.0108717 0.0143598 1.11635
0.0125113 0.0143947 1.1155
0.0141469 0.014473 1.11371
0.0157771 0.014541 1.11214
0.0174017 0.0146011 1.11074
0.0190251 0.0146334 1.10995
0.0206464 0.0146592 1.10929
0.0222686 0.0146659 1.10906
0.0238896 0.0146725 1.10882
