ply
format ascii 1.0
element vertex 1730
property float x
property float y
property float z
end_header
-0.381432 -0.193672 1.12424
-0.381022 -0.193485 1.12725
-0.380381 -0.193227 1.1298
-0.379492 -0.192894 1.13183
-0.378225 -0.192447 1.13308
-0.376809 -0.191953 1.13401
-0.375206 -0.191404 1.13455
-0.373587 -0.190849 1.13505
-0.371859 -0.190262 1.13532
-0.370071 -0.189657 1.13545
-0.368297 -0.189056 1.13561
-0.366778 -0.188532 1.13632
-0.365428 -0.188059 1.1374
-0.364192 -0.187621 1.13873
-0.36304 -0.187207 1.14025
-0.362017 -0.186833 1.14207
-0.361051 -0.186475 1.14402
-0.36021 -0.186155 1.14627
-0.359471 -0.185865 1.14875
-0.358721 -0.185572 1.15123
-0.357853 -0.185243 1.15345
-0.356921 -0.184894 1.15554
-0.356136 -0.18459 1.15798
-0.355508 -0.184332 1.1608
-0.356515 -0.184563 1.1674
-0.358188 -0.184994 1.17561
-0.359955 -0.185452 1.1841
-0.361334 -0.185792 1.19175
-0.362274 -0.186001 1.19843
-0.361519 -0.185701 1.20117
-0.360235 -0.185244 1.20266
-0.359746 -0.185023 1.20606
-0.360274 -0.185106 1.21192
-0.36124 -0.185318 1.21888
-0.362221 -0.185534 1.22592
-0.363084 -0.185714 1.23274
-0.362971 -0.185603 1.23724
-0.363298 -0.187624 1.24438
-0.36171 -0.185149 1.23896
-0.427302 -0.207328 1.12061
-0.425774 -0.2068 1.12134
-0.424245 -0.206273 1.12208
-0.422828 -0.205778 1.12302
-0.42158 -0.205336 1.12429
-0.420524 -0.204951 1.12594
-0.419488 -0.204572 1.12763
-0.41817 -0.204108 1.12878
-0.416733 -0.203608 1.1297
-0.414536 -0.202878 1.12915
-0.41103 -0.201754 1.12602
-0.40715 -0.200518 1.12213
-0.403378 -0.199316 1.11841
-0.399653 -0.198128 1.11476
-0.396635 -0.197153 1.11247
-0.394709 -0.196507 1.11233
-0.393057 -0.195944 1.11274
-0.391556 -0.195426 1.11345
-0.390011 -0.194895 1.11407
-0.388515 -0.194379 1.11479
-0.387115 -0.193891 1.11571
-0.385719 -0.193405 1.11663
-0.384479 -0.192965 1.11788
-0.38345 -0.192589 1.11956
-0.382746 -0.19231 1.12193
-0.382222 -0.192084 1.12468
-0.381756 -0.191875 1.12758
-0.381065 -0.191599 1.13002
-0.380116 -0.191245 1.13193
-0.378849 -0.190796 1.13317
-0.377373 -0.190285 1.13398
-0.37582 -0.189751 1.13463
-0.374167 -0.189187 1.13506
-0.372444 -0.188602 1.13534
-0.370659 -0.187999 1.13548
-0.368876 -0.187396 1.13562
-0.367353 -0.186871 1.13631
-0.366003 -0.186398 1.13739
-0.364767 -0.185958 1.13873
-0.363665 -0.185558 1.14036
-0.36269 -0.185195 1.14228
-0.361692 -0.184826 1.14416
-0.360893 -0.184515 1.1465
-0.360153 -0.184222 1.14898
-0.359404 -0.183925 1.15146
-0.358545 -0.183596 1.1537
-0.357621 -0.183247 1.15581
-0.356884 -0.182953 1.15836
-0.356796 -0.182851 1.16242
-0.358227 -0.183197 1.17
-0.359955 -0.183629 1.17833
-0.361683 -0.184059 1.18673
-0.362956 -0.184355 1.19414
-0.363388 -0.184402 1.19963
-0.362278 -0.183994 1.20153
-0.360997 -0.183537 1.20304
-0.360247 -0.183234 1.20582
-0.360689 -0.183282 1.21146
-0.36164 -0.183478 1.21837
-0.362637 -0.183687 1.22545
-0.363599 -0.183884 1.23249
-0.36392 -0.183892 1.23804
-0.362781 -0.183473 1.24006
-0.427997 -0.205681 1.1208
-0.426426 -0.205141 1.12146
-0.424827 -0.204592 1.12206
-0.423406 -0.204097 1.123
-0.422167 -0.203656 1.12429
-0.421052 -0.203252 1.12582
-0.419948 -0.20285 1.12737
-0.418658 -0.202393 1.12858
-0.417279 -0.20191 1.12961
-0.415145 -0.201202 1.12918
-0.411651 -0.20009 1.12608
-0.407804 -0.198873 1.12226
-0.403953 -0.197656 1.1184
-0.400131 -0.196447 1.11456
-0.397084 -0.19547 1.11221
-0.39527 -0.194859 1.1123
-0.393671 -0.194312 1.11282
-0.392174 -0.193796 1.11354
-0.390677 -0.193279 1.11426
-0.38918 -0.192763 1.11497
-0.387785 -0.192275 1.1159
-0.386393 -0.19179 1.11683
-0.385257 -0.19138 1.11829
-0.384292 -0.191021 1.12011
-0.383597 -0.190741 1.1225
-0.383073 -0.190511 1.12525
-0.382538 -0.190277 1.128
-0.381736 -0.189965 1.13021
-0.380693 -0.189581 1.13192
-0.379418 -0.18913 1.13315
-0.377903 -0.188606 1.13388
-0.376389 -0.188084 1.13461
-0.374739 -0.187522 1.13505
-0.37302 -0.186938 1.13533
-0.37123 -0.186335 1.13546
-0.369443 -0.185732 1.13559
-0.367919 -0.185207 1.13629
-0.366573 -0.184734 1.13738
-0.365342 -0.184294 1.13872
-0.364285 -0.183906 1.14045
-0.363364 -0.183557 1.1425
-0.362419 -0.1832 1.14449
-0.361673 -0.182902 1.14695
-0.360929 -0.182604 1.14942
-0.360176 -0.182303 1.15189
-0.359309 -0.181968 1.15412
-0.358345 -0.181605 1.15613
-0.357712 -0.181338 1.15892
-0.358015 -0.181343 1.16387
-0.359451 -0.181677 1.17146
-0.361157 -0.182088 1.17974
-0.362776 -0.182472 1.18789
-0.363906 -0.182713 1.19495
-0.364023 -0.18266 1.19971
-0.362924 -0.182253 1.20163
-0.361698 -0.18181 1.20327
-0.360771 -0.181452 1.20562
-0.361104 -0.181459 1.211
-0.362005 -0.181629 1.21778
-0.362991 -0.181822 1.22482
-0.364018 -0.182027 1.23201
-0.364691 -0.182127 1.23841
-0.363726 -0.181756 1.24085
-0.430354 -0.204601 1.12051
-0.428693 -0.204034 1.121
-0.427075 -0.20348 1.12156
-0.425461 -0.202927 1.12214
-0.423993 -0.202418 1.12299
-0.42276 -0.201977 1.12429
-0.421598 -0.201557 1.12573
-0.42037 -0.201118 1.12705
-0.419017 -0.200642 1.12813
-0.417639 -0.200158 1.12916
-0.415255 -0.199379 1.12825
-0.411737 -0.198267 1.1251
-0.407924 -0.197069 1.12135
-0.404054 -0.195855 1.11746
-0.400254 -0.194663 1.11366
-0.39748 -0.193772 1.11185
-0.395732 -0.193182 1.11208
-0.394186 -0.192651 1.1127
-0.39269 -0.192134 1.11342
-0.391193 -0.191618 1.11414
-0.389696 -0.191101 1.11485
-0.388353 -0.190629 1.11589
-0.387022 -0.190161 1.11694
-0.385952 -0.189769 1.11854
-0.385049 -0.189425 1.12048
-0.384349 -0.189141 1.12286
-0.383761 -0.188888 1.12548
-0.383166 -0.188633 1.12811
-0.382312 -0.188303 1.1302
-0.381219 -0.187902 1.13181
-0.379948 -0.187451 1.13305
-0.37843 -0.186927 1.13377
-0.376873 -0.186392 1.13441
-0.375211 -0.185826 1.13482
-0.373478 -0.185241 1.13508
-0.371689 -0.184638 1.13521
-0.369955 -0.184052 1.13546
-0.368486 -0.183543 1.13627
-0.367144 -0.18307 1.13737
-0.365958 -0.182642 1.13881
-0.364947 -0.182265 1.14064
-0.364035 -0.181916 1.1427
-0.363147 -0.181573 1.14483
-0.362409 -0.181274 1.1473
-0.361617 -0.180958 1.14966
-0.360852 -0.180651 1.1521
-0.359981 -0.180312 1.15432
-0.359065 -0.179961 1.15645
-0.358632 -0.179747 1.15969
-0.359399 -0.179876 1.1657
-0.360796 -0.180186 1.1732
-0.362495 -0.18058 1.18146
-0.363903 -0.18089 1.18911
-0.364794 -0.18105 1.19562
-0.36447 -0.180863 1.19934
-0.363423 -0.180469 1.20139
-0.362209 -0.180027 1.20305
-0.36148 -0.179723 1.20587
-0.361738 -0.1797 1.21107
-0.362639 -0.179858 1.21784
-0.363609 -0.180035 1.22483
-0.364619 -0.180223 1.23197
-0.365158 -0.180275 1.23803
-0.364301 -0.17993 1.24074
-0.431093 -0.202964 1.12078
-0.429384 -0.202384 1.12118
-0.427723 -0.201818 1.12167
-0.426049 -0.201248 1.12213
-0.424585 -0.200739 1.12299
-0.423356 -0.200299 1.1243
-0.422144 -0.199863 1.12564
-0.420908 -0.19942 1.12694
-0.419494 -0.198926 1.12791
-0.418012 -0.198411 1.12874
-0.415459 -0.197587 1.1275
-0.411872 -0.196462 1.12422
-0.407958 -0.195244 1.12028
-0.404169 -0.194063 1.11654
-0.400447 -0.192902 1.1129
-0.397844 -0.192066 1.11143
-0.396199 -0.191506 1.11186
-0.394702 -0.19099 1.11258
-0.393206 -0.190473 1.1133
-0.391709 -0.189957 1.11402
-0.390261 -0.189454 1.11483
-0.38897 -0.188997 1.11597
-0.387696 -0.188545 1.11715
-0.386639 -0.188154 1.11877
-0.385779 -0.18782 1.1208
-0.385032 -0.187518 1.12308
-0.384341 -0.187233 1.12549
-0.383687 -0.186957 1.12799
-0.382825 -0.186622 1.13006
-0.381736 -0.186221 1.13168
-0.380474 -0.185771 1.13294
-0.379007 -0.185261 1.13376
-0.377394 -0.184711 1.13428
-0.375673 -0.184129 1.13457
-0.373886 -0.183529 1.13471
-0.372097 -0.182928 1.13484
-0.370422 -0.182359 1.13522
-0.369011 -0.181866 1.13616
-0.367723 -0.181408 1.13737
-0.366583 -0.180992 1.13891
-0.365617 -0.180626 1.14085
-0.364713 -0.180276 1.14292
-0.363879 -0.179946 1.14517
-0.363146 -0.179645 1.14765
-0.362305 -0.179312 1.1499
-0.361484 -0.178985 1.15222
-0.360561 -0.178629 1.15432
-0.359649 -0.178276 1.15645
-0.359326 -0.178088 1.15994
-0.360354 -0.178281 1.16654
-0.361773 -0.178584 1.17409
-0.363443 -0.178955 1.18228
-0.364802 -0.179238 1.18981
-0.365577 -0.179354 1.19604
-0.365018 -0.179096 1.19921
-0.363973 -0.178699 1.20126
-0.362759 -0.178256 1.20292
-0.362132 -0.177977 1.20598
-0.362346 -0.177933 1.21107
-0.363253 -0.178081 1.21784
-0.364215 -0.178244 1.22481
-0.365225 -0.178419 1.23194
-0.365668 -0.178435 1.23777
-0.364914 -0.178115 1.24072
-0.431879 -0.20134 1.12114
-0.430118 -0.200745 1.12145
-0.428414 -0.200167 1.12186
-0.426693 -0.199584 1.12223
-0.425219 -0.199072 1.12307
-0.423949 -0.198619 1.1243
-0.422681 -0.198166 1.12554
-0.421385 -0.197705 1.12672
-0.419903 -0.197191 1.12755
-0.418257 -0.196629 1.12807
-0.415475 -0.195743 1.12638
-0.411869 -0.194621 1.12307
-0.408014 -0.193429 1.11924
-0.404304 -0.192279 1.11566
-0.400703 -0.191162 1.11226
-0.398319 -0.190392 1.11123
-0.396715 -0.189845 1.11174
-0.395218 -0.189328 1.11246
-0.393721 -0.188812 1.11318
-0.392273 -0.188309 1.11399
-0.39083 -0.187808 1.11482
-0.389592 -0.187365 1.11607
-0.388371 -0.186926 1.11735
-0.387309 -0.186533 1.11896
-0.386349 -0.186168 1.12079
-0.385585 -0.185859 1.12303
-0.384838 -0.185554 1.12532
-0.384147 -0.185264 1.12774
-0.38329 -0.184927 1.12983
-0.38225 -0.184539 1.13154
-0.380992 -0.184088 1.13281
-0.379529 -0.18358 1.13364
-0.377861 -0.183015 1.13405
-0.376089 -0.182419 1.13422
-0.374294 -0.181818 1.13435
-0.372509 -0.181219 1.13449
-0.370893 -0.180668 1.13499
-0.369544 -0.180192 1.13607
-0.368311 -0.179748 1.1374
-0.367212 -0.179342 1.13903
-0.366296 -0.178987 1.14107
-0.365401 -0.178638 1.14316
-0.364616 -0.178319 1.14552
-0.363883 -0.178013 1.148
-0.362985 -0.177662 1.15013
-0.362112 -0.177317 1.15232
-0.361141 -0.176945 1.15431
-0.360185 -0.176577 1.15635
-0.359924 -0.176401 1.15997
-0.360947 -0.176582 1.16655
-0.362318 -0.176857 1.17398
-0.363976 -0.177211 1.18213
-0.365323 -0.177478 1.18963
-0.366057 -0.177573 1.19576
-0.36552 -0.177316 1.19898
-0.364522 -0.17693 1.20113
-0.363301 -0.176483 1.20278
-0.362629 -0.176186 1.20573
-0.362834 -0.176131 1.21078
-0.363745 -0.17627 1.21756
-0.364759 -0.176435 1.22464
-0.365792 -0.176605 1.23182
-0.366234 -0.17661 1.23763
-0.36547 -0.176284 1.24056
-0.432694 -0.199721 1.12155
-0.430866 -0.199109 1.12174
-0.429119 -0.198519 1.12207
-0.427336 -0.197919 1.12233
-0.425802 -0.19739 1.12305
-0.424467 -0.196917 1.12416
-0.423149 -0.196449 1.1253
-0.421793 -0.195971 1.12637
-0.420192 -0.195422 1.12697
-0.418262 -0.194781 1.12694
-0.415093 -0.19379 1.1245
-0.41151 -0.192684 1.12123
-0.407732 -0.191522 1.11755
-0.404172 -0.190424 1.11427
-0.400864 -0.189397 1.11144
-0.398835 -0.18873 1.11111
-0.397231 -0.188184 1.11162
-0.395734 -0.187667 1.11234
-0.394237 -0.18715 1.11306
-0.392794 -0.186649 1.11388
-0.391403 -0.186162 1.11482
-0.39017 -0.185719 1.11607
-0.388953 -0.185281 1.11736
-0.387879 -0.184882 1.11895
-0.386902 -0.184511 1.12074
-0.386082 -0.184183 1.12287
-0.38534 -0.183876 1.12516
-0.384654 -0.183584 1.12759
-0.383799 -0.183246 1.12968
-0.382771 -0.182859 1.13142
-0.38151 -0.182407 1.13268
-0.380004 -0.181886 1.13342
-0.378285 -0.181307 1.13372
-0.376501 -0.180709 1.13387
-0.374705 -0.180109 1.13399
-0.372929 -0.179513 1.13415
-0.371367 -0.178978 1.13477
-0.370069 -0.178516 1.13595
-0.368836 -0.178071 1.13729
-0.367788 -0.177677 1.13902
-0.36693 -0.177335 1.14119
-0.366089 -0.176997 1.1434
-0.365357 -0.17669 1.14587
-0.364612 -0.176378 1.14833
-0.363707 -0.176022 1.15044
-0.36278 -0.17566 1.15252
-0.361761 -0.175272 1.1544
-0.360806 -0.174901 1.15644
-0.360582 -0.174731 1.16014
-0.36122 -0.174794 1.16584
-0.362512 -0.175036 1.17307
-0.364147 -0.17537 1.18116
-0.365475 -0.175618 1.1886
-0.366159 -0.175689 1.1946
-0.365967 -0.175521 1.19861
-0.365017 -0.175146 1.20088
-0.36375 -0.174684 1.20241
-0.362924 -0.174342 1.20499
-0.363163 -0.174288 1.21012
-0.364074 -0.174415 1.21689
-0.365116 -0.174576 1.22402
-0.366214 -0.174751 1.23135
-0.366755 -0.174774 1.23739
-0.368596 -0.175146 1.24664
-0.433416 -0.198075 1.12179
-0.43161 -0.19747 1.12202
-0.429886 -0.196887 1.12239
-0.428093 -0.196285 1.12264
-0.426553 -0.195754 1.12335
-0.425157 -0.195264 1.12434
-0.423719 -0.194762 1.12525
-0.422247 -0.19425 1.12611
-0.420467 -0.193652 1.12636
-0.418093 -0.192888 1.12547
-0.414827 -0.191877 1.12285
-0.411277 -0.190788 1.11964
-0.407576 -0.189657 1.11611
-0.404179 -0.188612 1.11314
-0.401313 -0.187715 1.11119
-0.399346 -0.187067 1.11099
-0.397747 -0.186522 1.1115
-0.39625 -0.186006 1.11222
-0.394753 -0.185489 1.11294
-0.39331 -0.184987 1.11376
-0.391972 -0.184515 1.1148
-0.390748 -0.184073 1.11608
-0.389527 -0.183633 1.11736
-0.388453 -0.183232 1.11894
-0.387424 -0.182844 1.12063
-0.386553 -0.182499 1.12265
-0.385808 -0.182189 1.12494
-0.385123 -0.181895 1.12736
-0.384233 -0.181544 1.12938
-0.383246 -0.181165 1.1312
-0.381933 -0.180699 1.13235
-0.380372 -0.180163 1.13298
-0.378603 -0.179571 1.13316
-0.376865 -0.178987 1.13341
-0.375074 -0.178389 1.13355
-0.373348 -0.177809 1.13381
-0.371838 -0.177287 1.13454
-0.370586 -0.176836 1.13582
-0.369354 -0.176391 1.13716
-0.368351 -0.176007 1.13899
-0.367548 -0.175678 1.14128
-0.36672 -0.175341 1.14352
-0.365993 -0.175031 1.146
-0.365244 -0.174715 1.14844
-0.364339 -0.174356 1.15056
-0.363364 -0.173979 1.15252
-0.36239 -0.1736 1.1545
-0.361427 -0.173225 1.15652
-0.361196 -0.173047 1.16021
-0.361672 -0.173057 1.16553
-0.362892 -0.173267 1.17259
-0.364421 -0.173558 1.18042
-0.36577 -0.173799 1.18789
-0.36643 -0.173854 1.19383
-0.366307 -0.173698 1.198
-0.365405 -0.173334 1.20037
-0.36414 -0.172871 1.20191
-0.363552 -0.172589 1.20505
-0.363859 -0.172545 1.21033
-0.36482 -0.172674 1.21721
-0.365876 -0.172826 1.22437
-0.367015 -0.173 1.23179
-0.367283 -0.17294 1.23717
-0.434242 -0.196456 1.12222
-0.432439 -0.195852 1.12246
-0.430714 -0.19527 1.12283
-0.428868 -0.194655 1.12298
-0.427271 -0.194108 1.12359
-0.42581 -0.193599 1.12446
-0.424255 -0.193064 1.12515
-0.42266 -0.192518 1.12576
-0.42076 -0.191888 1.12579
-0.41799 -0.191019 1.12414
-0.414579 -0.189975 1.12123
-0.410992 -0.188884 1.11796
-0.407382 -0.187786 1.1146
-0.404139 -0.18679 1.11193
-0.401667 -0.186006 1.11075
-0.399809 -0.185391 1.11076
-0.398262 -0.184861 1.11138
-0.396766 -0.184345 1.1121
-0.395269 -0.183828 1.11282
-0.393825 -0.183326 1.11364
-0.392532 -0.182865 1.11477
-0.391313 -0.182423 1.11605
-0.390101 -0.181984 1.11735
-0.389027 -0.181582 1.11894
-0.388046 -0.181205 1.12072
-0.387137 -0.180847 1.12266
-0.386392 -0.180534 1.12495
-0.385708 -0.180236 1.12738
-0.384806 -0.17988 1.12937
-0.383767 -0.179485 1.13108
-0.382404 -0.179004 1.13212
-0.380779 -0.178451 1.13261
-0.379005 -0.177859 1.13279
-0.377264 -0.177275 1.13303
-0.375485 -0.176682 1.13319
-0.373818 -0.176118 1.13358
-0.372308 -0.175597 1.13431
-0.371049 -0.175143 1.13558
-0.369808 -0.174694 1.13689
-0.368815 -0.174311 1.13875
-0.368067 -0.173993 1.14115
-0.367293 -0.173668 1.14351
-0.366571 -0.173356 1.14599
-0.365827 -0.173038 1.14845
-0.364963 -0.172687 1.15065
-0.363952 -0.172297 1.15254
-0.362986 -0.171919 1.15454
-0.361972 -0.171528 1.15644
-0.361686 -0.171329 1.15999
-0.362053 -0.171302 1.16506
-0.363264 -0.171498 1.17209
-0.36479 -0.171774 1.1799
-0.36619 -0.172016 1.18749
-0.366854 -0.172062 1.19342
-0.366733 -0.1719 1.19759
-0.365829 -0.171532 1.19995
-0.364572 -0.17107 1.20151
-0.364208 -0.170842 1.20517
-0.364649 -0.170825 1.21076
-0.365674 -0.170959 1.21779
-0.366775 -0.171111 1.22505
-0.367893 -0.171266 1.23241
-0.367945 -0.171141 1.23727
-0.435607 -0.194982 1.12365
-0.433528 -0.194304 1.12338
-0.431665 -0.193684 1.1235
-0.42977 -0.193057 1.12356
-0.428112 -0.192494 1.12406
-0.426487 -0.19194 1.12462
-0.424797 -0.191368 1.12505
-0.42303 -0.190775 1.12534
-0.42096 -0.190101 1.12504
-0.417905 -0.18916 1.12285
-0.414415 -0.188102 1.11979
-0.41086 -0.187027 1.11657
-0.407382 -0.185973 1.11347
-0.404275 -0.185021 1.11107
-0.402084 -0.184317 1.11043
-0.400324 -0.18373 1.11064
-0.398778 -0.1832 1.11126
-0.397281 -0.182683 1.11198
-0.395785 -0.182167 1.1127
-0.394337 -0.181663 1.11351
-0.393048 -0.181202 1.11465
-0.391825 -0.180759 1.11592
-0.390666 -0.180333 1.11733
-0.389698 -0.179957 1.11913
-0.388779 -0.179595 1.12104
-0.387926 -0.17925 1.1231
-0.387225 -0.178945 1.12547
-0.386488 -0.17863 1.12779
-0.385479 -0.178242 1.12956
-0.384384 -0.177831 1.13115
-0.38296 -0.177332 1.13207
-0.38124 -0.176755 1.13237
-0.379454 -0.176161 1.13252
-0.377717 -0.175579 1.13277
-0.375947 -0.174989 1.13294
-0.374288 -0.174428 1.13335
-0.372778 -0.173907 1.13408
-0.371515 -0.173451 1.13534
-0.370271 -0.173 1.13664
-0.369283 -0.172616 1.13851
-0.36854 -0.172296 1.14092
-0.367816 -0.171981 1.14338
-0.367095 -0.171666 1.14587
-0.366344 -0.171343 1.14831
-0.365538 -0.171005 1.15064
-0.364532 -0.170614 1.15253
-0.363619 -0.170247 1.15465
-0.362613 -0.169856 1.15657
-0.362333 -0.169653 1.16014
-0.362605 -0.169593 1.16498
-0.363772 -0.169765 1.17191
-0.365202 -0.170003 1.17949
-0.366599 -0.170231 1.18705
-0.367206 -0.170253 1.19285
-0.367072 -0.170081 1.19698
-0.366158 -0.169707 1.19931
-0.364942 -0.169254 1.20096
-0.364876 -0.169098 1.20532
-0.365475 -0.169112 1.21128
-0.366668 -0.169277 1.21869
-0.367817 -0.169429 1.22607
-0.368949 -0.169575 1.23346
-0.368726 -0.169371 1.23765
-0.436624 -0.193408 1.12443
-0.434534 -0.192729 1.12414
-0.432561 -0.192081 1.12406
-0.430608 -0.191439 1.12402
-0.428836 -0.190846 1.1243
-0.427085 -0.190258 1.12463
-0.425269 -0.189654 1.12483
-0.423377 -0.189028 1.12487
-0.421145 -0.188313 1.12427
-0.417929 -0.187334 1.12176
-0.41448 -0.186294 1.11878
-0.41103 -0.185256 1.11577
-0.407632 -0.184231 1.11283
-0.404647 -0.183318 1.11067
-0.402659 -0.18267 1.11043
-0.400894 -0.182082 1.11063
-0.399294 -0.181539 1.11114
-0.397797 -0.181022 1.11186
-0.3963 -0.180505 1.11258
-0.394804 -0.179989 1.1133
-0.39356 -0.179539 1.11452
-0.39239 -0.179109 1.1159
-0.391289 -0.178696 1.11743
-0.390427 -0.178347 1.11944
-0.389665 -0.178024 1.12167
-0.388825 -0.177679 1.12375
-0.388084 -0.17736 1.12605
-0.387278 -0.177024 1.12823
-0.38616 -0.176605 1.12977
-0.384957 -0.176164 1.13114
-0.38349 -0.175654 1.13197
-0.381715 -0.175063 1.13215
-0.379925 -0.174469 1.13229
-0.378187 -0.173888 1.13254
-0.376417 -0.173299 1.13272
-0.374763 -0.17274 1.13313
-0.373252 -0.172219 1.13386
-0.371985 -0.171761 1.13511
-0.370742 -0.171309 1.13641
-0.369755 -0.170923 1.13828
-0.369017 -0.170601 1.1407
-0.368336 -0.170294 1.14325
-0.367612 -0.169975 1.14573
-0.366866 -0.169649 1.14818
-0.366106 -0.16932 1.15061
-0.365104 -0.168928 1.15251
-0.364204 -0.168562 1.15465
-0.363199 -0.168168 1.15657
-0.362915 -0.167959 1.16013
-0.363149 -0.167882 1.16489
-0.364328 -0.168045 1.17183
-0.365726 -0.168262 1.17932
-0.36711 -0.168473 1.18685
-0.367661 -0.168471 1.19251
-0.367462 -0.168277 1.19648
-0.366495 -0.167886 1.19869
-0.365275 -0.167431 1.20033
-0.365689 -0.167389 1.2058
-0.366542 -0.167457 1.21236
-0.367938 -0.167661 1.22025
-0.369193 -0.167827 1.22787
-0.370387 -0.167975 1.23541
-0.369736 -0.167658 1.23859
-0.439561 -0.192463 1.12517
-0.437623 -0.191826 1.12517
-0.435427 -0.19112 1.12469
-0.4334 -0.19046 1.12452
-0.431428 -0.189814 1.12444
-0.429542 -0.189191 1.12452
-0.427659 -0.18857 1.12459
-0.425718 -0.187933 1.12455
-0.423649 -0.187263 1.12427
-0.421251 -0.186506 1.12334
-0.418034 -0.185534 1.12084
-0.414644 -0.184517 1.11797
-0.411335 -0.183522 1.11523
-0.408055 -0.182537 1.11253
-0.405191 -0.181661 1.1106
-0.403234 -0.181023 1.11042
-0.401464 -0.180435 1.11061
-0.39981 -0.179877 1.11102
-0.398313 -0.179361 1.11174
-0.396816 -0.178844 1.11246
-0.39532 -0.178327 1.11318
-0.394076 -0.177877 1.1144
-0.39296 -0.177459 1.11589
-0.391916 -0.17706 1.11753
-0.39112 -0.176725 1.11968
-0.390473 -0.176429 1.12214
-0.389689 -0.176096 1.12434
-0.388949 -0.175774 1.12664
-0.388133 -0.175432 1.1288
-0.387002 -0.175008 1.13031
-0.385695 -0.174539 1.13147
-0.384176 -0.174015 1.13219
-0.382399 -0.173425 1.13237
-0.380561 -0.17282 1.13241
-0.378767 -0.172225 1.13254
-0.376946 -0.171624 1.13261
-0.375279 -0.171063 1.133
-0.373722 -0.170529 1.13363
-0.37241 -0.170059 1.13478
-0.371167 -0.169606 1.13608
-0.370226 -0.16923 1.13805
-0.36949 -0.168905 1.14047
-0.368768 -0.168584 1.14293
-0.368087 -0.168272 1.1455
-0.367338 -0.167943 1.14794
-0.366583 -0.167611 1.15037
-0.365586 -0.167219 1.15229
-0.364728 -0.16686 1.15452
-0.363719 -0.166464 1.15643
-0.363393 -0.166238 1.15989
-0.363625 -0.166153 1.16463
-0.364852 -0.166316 1.17167
-0.366197 -0.166507 1.17904
-0.36759 -0.166708 1.18658
-0.368191 -0.166709 1.19235
-0.367955 -0.166499 1.19623
-0.36689 -0.166081 1.19821
-0.36566 -0.165622 1.19981
-0.366564 -0.165694 1.20643
-0.367642 -0.165806 1.21351
-0.369249 -0.166049 1.2219
-0.370674 -0.166244 1.22993
-0.371942 -0.166397 1.23765
-0.370833 -0.165962 1.23972
-0.441678 -0.193148 1.12549
-0.440339 -0.190818 1.1255
-0.438442 -0.190193 1.12558
-0.43615 -0.189465 1.12493
-0.434056 -0.188788 1.12463
-0.432074 -0.188142 1.12454
-0.430066 -0.187489 1.12438
-0.428066 -0.186838 1.12424
-0.42605 -0.186183 1.12406
-0.423865 -0.185485 1.12355
-0.421347 -0.1847 1.1224
-0.418236 -0.183762 1.1201
-0.414909 -0.182768 1.11736
-0.411736 -0.181816 1.11488
-0.408582 -0.180869 1.11242
-0.405822 -0.180026 1.1107
-0.403809 -0.179376 1.11042
-0.40203 -0.178786 1.11059
-0.400326 -0.178216 1.1109
-0.398829 -0.177699 1.11162
-0.397332 -0.177183 1.11234
-0.395835 -0.176666 1.11306
-0.394592 -0.176215 1.11428
-0.393481 -0.175797 1.11578
-0.392495 -0.175411 1.11753
-0.391762 -0.175089 1.11981
-0.391221 -0.174816 1.12248
-0.390498 -0.174496 1.12481
-0.389805 -0.174183 1.12721
-0.388989 -0.173838 1.12936
-0.387896 -0.173423 1.13096
-0.386541 -0.17294 1.13202
-0.385068 -0.172428 1.13284
-0.38329 -0.171839 1.13302
-0.381403 -0.171222 1.13296
-0.379501 -0.170601 1.13287
-0.377615 -0.169985 1.13281
-0.375846 -0.169398 1.13298
-0.374234 -0.168851 1.13349
-0.372876 -0.168368 1.13454
-0.371629 -0.167913 1.13584
-0.370644 -0.167523 1.1377
-0.369908 -0.167196 1.14012
-0.369192 -0.166873 1.14259
-0.368562 -0.16657 1.14527
-0.367818 -0.166239 1.14771
-0.36711 -0.165916 1.15025
-0.366113 -0.165521 1.15217
-0.365252 -0.165159 1.15439
-0.364288 -0.164771 1.1564
-0.363951 -0.164538 1.15983
-0.36423 -0.164457 1.16468
-0.365504 -0.164619 1.17181
-0.366849 -0.164798 1.17917
-0.368209 -0.164977 1.18662
-0.368864 -0.164982 1.19252
-0.368645 -0.16477 1.19643
-0.367536 -0.164339 1.19831
-0.366302 -0.163878 1.19991
-0.367371 -0.163978 1.2069
-0.368575 -0.16411 1.21427
-0.370302 -0.164367 1.22294
-0.371857 -0.164579 1.23127
-0.373165 -0.164729 1.23908
-0.371931 -0.164261 1.24086
-0.443162 -0.189833 1.12601
-0.441132 -0.189175 1.12586
-0.439192 -0.18854 1.12586
-0.436841 -0.187799 1.1251
-0.434694 -0.187111 1.12471
-0.43266 -0.186453 1.12452
-0.43059 -0.185786 1.12425
-0.428477 -0.185107 1.1239
-0.4264 -0.184439 1.1236
-0.4241 -0.183713 1.12288
-0.421465 -0.182903 1.1215
-0.418501 -0.182008 1.11948
-0.415293 -0.181052 1.11697
-0.412247 -0.180138 1.11474
-0.40921 -0.179228 1.11251
-0.406548 -0.178414 1.11099
-0.40443 -0.177739 1.1105
-0.402596 -0.177137 1.11057
-0.400841 -0.176555 1.11078
-0.399345 -0.176038 1.1115
-0.397848 -0.175521 1.11222
-0.396351 -0.175005 1.11294
-0.395109 -0.174553 1.11416
-0.393997 -0.174133 1.11566
-0.393061 -0.173757 1.11751
-0.392381 -0.173446 1.11989
-0.391898 -0.173184 1.12269
-0.391277 -0.172886 1.12521
-0.390645 -0.172585 1.12774
-0.389834 -0.172239 1.1299
-0.388805 -0.171838 1.13164
-0.387452 -0.171355 1.1327
-0.385983 -0.170843 1.13353
-0.384199 -0.170253 1.1337
-0.382297 -0.169634 1.13362
-0.3803 -0.168991 1.13334
-0.378344 -0.168359 1.13313
-0.376464 -0.167746 1.13307
-0.374793 -0.167185 1.13345
-0.373388 -0.16669 1.1344
-0.372142 -0.166233 1.1357
-0.371144 -0.165839 1.13753
-0.370418 -0.16551 1.13997
-0.369749 -0.165195 1.14254
-0.369132 -0.164892 1.14525
-0.368393 -0.164559 1.1477
-0.367685 -0.164233 1.15024
-0.366685 -0.163835 1.15214
-0.36578 -0.163459 1.15427
-0.364866 -0.163081 1.15639
-0.364583 -0.162856 1.15993
-0.364819 -0.162756 1.16468
-0.366092 -0.162906 1.17181
-0.367392 -0.163061 1.17906
-0.368708 -0.163217 1.1864
-0.36937 -0.163214 1.1923
-0.369256 -0.163021 1.19645
-0.368156 -0.162591 1.19835
-0.366973 -0.16214 1.20006
-0.368252 -0.162279 1.20754
-0.369584 -0.162428 1.21521
-0.371391 -0.162689 1.22406
-0.373006 -0.162902 1.23252
-0.37435 -0.163047 1.24041
-0.372941 -0.162535 1.24179
-0.443871 -0.188165 1.12621
-0.441812 -0.187501 1.12601
-0.439727 -0.186831 1.12575
-0.437371 -0.186091 1.12498
-0.435224 -0.185406 1.12459
-0.433137 -0.184736 1.1243
-0.43101 -0.184056 1.12393
-0.428836 -0.183365 1.12346
-0.426704 -0.182684 1.12306
-0.424347 -0.181947 1.12223
-0.421712 -0.181141 1.12085
-0.418798 -0.180265 1.11893
-0.415704 -0.179344 1.11664
-0.412725 -0.178453 1.11454
-0.409747 -0.177563 1.11243
-0.407129 -0.176764 1.11099
-0.405001 -0.176089 1.11049
-0.403112 -0.175475 1.11045
-0.401357 -0.174893 1.11066
-0.399861 -0.174377 1.11138
-0.398364 -0.17386 1.1121
-0.396867 -0.173344 1.11282
-0.395625 -0.17289 1.11404
-0.394509 -0.172468 1.11553
-0.393569 -0.172089 1.11737
-0.392886 -0.171774 1.11974
-0.392457 -0.171521 1.12265
-0.391898 -0.171235 1.1253
-0.391381 -0.170959 1.12805
-0.390682 -0.170638 1.13046
-0.389762 -0.170261 1.13241
-0.388469 -0.169792 1.13361
-0.387045 -0.169292 1.13453
-0.385264 -0.168703 1.13471
-0.383317 -0.168074 1.13455
-0.381245 -0.167415 1.1341
-0.379181 -0.166758 1.13367
-0.377192 -0.16612 1.13339
-0.375423 -0.165535 1.13357
-0.373959 -0.165025 1.13439
-0.372662 -0.164556 1.13558
-0.371666 -0.164159 1.13741
-0.370937 -0.163827 1.13984
-0.370268 -0.163508 1.14241
-0.369661 -0.163204 1.14514
-0.368923 -0.162867 1.14759
-0.368216 -0.162538 1.15013
-0.367217 -0.162138 1.15203
-0.366312 -0.161759 1.15415
-0.3655 -0.161403 1.1565
-0.365291 -0.16119 1.16021
-0.365594 -0.161099 1.1651
-0.366926 -0.161251 1.17236
-0.368221 -0.161392 1.17959
-0.369431 -0.161511 1.18668
-0.370083 -0.161495 1.19255
-0.369923 -0.161285 1.1966
-0.368839 -0.160856 1.19853
-0.367664 -0.160405 1.20026
-0.369103 -0.160569 1.20811
-0.370546 -0.160732 1.21603
-0.372415 -0.160992 1.22502
-0.374021 -0.161187 1.23346
-0.375348 -0.161315 1.2413
-0.373823 -0.160774 1.2424
-0.446528 -0.18713 1.1264
-0.444412 -0.186454 1.1261
-0.442367 -0.185795 1.12593
-0.440291 -0.185129 1.12569
-0.43785 -0.184371 1.12476
-0.435702 -0.183688 1.12437
-0.433609 -0.183018 1.12407
-0.431473 -0.182338 1.12368
-0.429242 -0.181635 1.12311
-0.427053 -0.180943 1.1226
-0.424593 -0.180183 1.12157
-0.421954 -0.17938 1.12019
-0.419044 -0.17851 1.11828
-0.416069 -0.177625 1.11621
-0.413158 -0.176756 1.11426
-0.410339 -0.175911 1.11245
-0.407761 -0.175127 1.11109
-0.405627 -0.174453 1.11058
-0.403683 -0.173826 1.11043
-0.401923 -0.173244 1.11064
-0.400376 -0.172715 1.11126
-0.39888 -0.172199 1.11198
-0.397383 -0.171682 1.1127
-0.396141 -0.171228 1.11392
-0.394973 -0.170792 1.1153
-0.394029 -0.17041 1.11714
-0.393342 -0.17009 1.1195
-0.392919 -0.169835 1.12241
-0.392418 -0.169559 1.12518
-0.392064 -0.169319 1.12826
-0.391484 -0.169023 1.13091
-0.390672 -0.16867 1.13309
-0.389482 -0.168225 1.1345
-0.388122 -0.167739 1.13556
-0.386334 -0.16715 1.13573
-0.38438 -0.166521 1.13556
-0.382259 -0.165852 1.13502
-0.380094 -0.165173 1.13438
-0.377985 -0.164508 1.13384
-0.376151 -0.163909 1.13389
-0.374589 -0.163375 1.1345
-0.373246 -0.162894 1.13559
-0.372254 -0.162496 1.13744
-0.371517 -0.162158 1.13985
-0.370809 -0.161826 1.14233
-0.370189 -0.161515 1.14502
-0.369456 -0.161177 1.14748
-0.368747 -0.160843 1.15001
-0.367748 -0.160441 1.15192
-0.366889 -0.160071 1.15414
-0.366184 -0.159737 1.15672
-0.366045 -0.159534 1.16059
-0.366563 -0.159485 1.16596
-0.367962 -0.159641 1.17336
-0.369258 -0.159769 1.18059
-0.370354 -0.159849 1.18742
-0.370989 -0.159819 1.19325
-0.370677 -0.159568 1.19694
-0.369597 -0.159138 1.19889
-0.368481 -0.158698 1.20076
-0.369935 -0.158852 1.20863
-0.371385 -0.159003 1.21656
-0.373203 -0.159236 1.22542
-0.374758 -0.159405 1.23373
-0.375983 -0.159496 1.24133
-0.374446 -0.158952 1.2424
-0.44708 -0.185419 1.12631
-0.445026 -0.18476 1.12613
-0.442966 -0.184099 1.12593
-0.44088 -0.183433 1.12567
-0.438441 -0.182679 1.12475
-0.436288 -0.181996 1.12435
-0.434077 -0.1813 1.12383
-0.431935 -0.180621 1.12344
-0.429582 -0.17989 1.12263
-0.427281 -0.179173 1.12192
-0.424756 -0.178401 1.12077
-0.422121 -0.177603 1.11939
-0.419215 -0.176739 1.11748
-0.41636 -0.175889 1.11565
-0.413559 -0.175053 1.1139
-0.410812 -0.17423 1.11224
-0.408292 -0.173464 1.111
-0.406153 -0.172791 1.11048
-0.404204 -0.172164 1.11032
-0.402443 -0.171584 1.11053
-0.400892 -0.171054 1.11114
-0.399395 -0.170538 1.11186
-0.397899 -0.170021 1.11258
-0.396657 -0.169566 1.1138
-0.39544 -0.169116 1.11508
-0.394493 -0.168732 1.11691
-0.393807 -0.168409 1.11927
-0.393389 -0.16815 1.12219
-0.392895 -0.167873 1.12497
-0.392643 -0.167652 1.12826
-0.392129 -0.167368 1.13104
-0.391431 -0.16704 1.13345
-0.390353 -0.16662 1.13509
-0.389087 -0.166155 1.13635
-0.387306 -0.165569 1.13654
-0.385398 -0.164952 1.13647
-0.383226 -0.164273 1.13583
-0.381047 -0.163593 1.13517
-0.378838 -0.162907 1.13443
-0.376985 -0.162305 1.13443
-0.375368 -0.161758 1.13493
-0.373974 -0.161264 1.13591
-0.372893 -0.160843 1.13757
-0.372103 -0.16049 1.13986
-0.371336 -0.160141 1.14222
-0.370664 -0.159814 1.14479
-0.369928 -0.159472 1.14724
-0.369224 -0.159136 1.14978
-0.368271 -0.158742 1.15179
-0.367466 -0.158381 1.15413
-0.366815 -0.158056 1.15683
-0.366783 -0.157873 1.16093
-0.36757 -0.157877 1.1669
-0.369039 -0.158035 1.17446
-0.37035 -0.158155 1.18172
-0.371427 -0.158219 1.1885
-0.371998 -0.158165 1.19418
-0.371484 -0.157861 1.19741
-0.370403 -0.157428 1.19935
-0.369331 -0.156997 1.20133
-0.370795 -0.157139 1.20922
-0.37226 -0.15728 1.21717
-0.374034 -0.157487 1.22592
-0.375545 -0.157632 1.23412
-0.376661 -0.157686 1.24145
-0.375074 -0.15713 1.2424
-0.375712 -0.159048 1.25018
-0.373686 -0.156619 1.24383
-0.445707 -0.183082 1.12628
-0.443621 -0.182417 1.12603
-0.441521 -0.181749 1.12575
-0.439081 -0.180998 1.12483
-0.436869 -0.180303 1.12432
-0.434549 -0.179583 1.1236
-0.43235 -0.178892 1.1231
-0.429874 -0.178135 1.12207
-0.427447 -0.17739 1.12112
-0.424852 -0.176605 1.11983
-0.422208 -0.175809 1.11844
-0.419358 -0.174964 1.11664
-0.416618 -0.174147 1.11503
-0.413945 -0.173346 1.11353
-0.411261 -0.172544 1.11199
-0.4088 -0.171796 1.11086
-0.406674 -0.171128 1.11037
-0.404724 -0.170503 1.11021
-0.402959 -0.169922 1.11041
-0.401408 -0.169393 1.11102
-0.399911 -0.168876 1.11174
-0.398415 -0.16836 1.11246
-0.397124 -0.167892 1.11359
-0.395903 -0.167441 1.11486
-0.394907 -0.167042 1.11658
-0.39417 -0.166705 1.11884
-0.393706 -0.166431 1.12166
-0.393353 -0.166182 1.12472
-0.393165 -0.165972 1.12814
-0.392814 -0.165722 1.13125
-0.392282 -0.165429 1.134
-0.391308 -0.165032 1.13586
-0.389997 -0.164556 1.13703
-0.38821 -0.163969 1.13721
-0.386296 -0.163352 1.13713
-0.38408 -0.162665 1.1364
-0.381903 -0.161988 1.13575
-0.379683 -0.161302 1.13499
-0.377821 -0.160699 1.13498
-0.376151 -0.160141 1.13537
-0.37471 -0.159635 1.13625
-0.373617 -0.159209 1.13788
-0.372726 -0.15883 1.13996
-0.371897 -0.158464 1.14218
-0.371176 -0.158122 1.14464
-0.370437 -0.157776 1.14709
-0.369696 -0.157428 1.14954
-0.368794 -0.157043 1.15165
-0.367994 -0.156681 1.154
-0.367344 -0.156352 1.1567
-0.367314 -0.156163 1.16081
-0.368315 -0.156205 1.16725
-0.369864 -0.156368 1.17498
-0.371253 -0.156493 1.18241
-0.372376 -0.156556 1.1893
-0.372937 -0.15649 1.19495
-0.372208 -0.156134 1.19768
-0.371068 -0.155685 1.19949
-0.369995 -0.155251 1.20147
-0.371412 -0.15537 1.20924
-0.372939 -0.155511 1.21733
-0.374709 -0.155702 1.22606
-0.376224 -0.155834 1.23426
-0.377293 -0.155865 1.24146
-0.375698 -0.155307 1.2424
-0.374202 -0.154771 1.24357
-0.446235 -0.181366 1.12614
-0.444178 -0.18071 1.12595
-0.442124 -0.180055 1.12575
-0.439787 -0.179332 1.12503
-0.437517 -0.178626 1.12442
-0.435139 -0.177894 1.1236
-0.432874 -0.17719 1.12297
-0.430331 -0.176421 1.12182
-0.427729 -0.175638 1.12054
-0.425008 -0.174827 1.11902
-0.42235 -0.174032 1.1176
-0.419462 -0.173183 1.11572
-0.416736 -0.172374 1.11414
-0.414179 -0.171605 1.11286
-0.411646 -0.170843 1.11161
-0.409254 -0.170114 1.11062
-0.407182 -0.169462 1.11023
-0.405291 -0.168852 1.11019
-0.403525 -0.168272 1.11039
-0.401924 -0.167732 1.1109
-0.400427 -0.167215 1.11162
-0.39893 -0.166698 1.11234
-0.397636 -0.166229 1.11346
-0.396415 -0.165777 1.11473
-0.395415 -0.165375 1.11645
-0.394625 -0.165022 1.11859
-0.394101 -0.164731 1.12129
-0.393799 -0.164489 1.12445
-0.393717 -0.164298 1.12808
-0.393486 -0.164072 1.13143
-0.393081 -0.163804 1.13444
-0.392211 -0.163428 1.13651
-0.3909 -0.162951 1.13769
-0.38905 -0.16235 1.13775
-0.387035 -0.161712 1.13745
-0.384805 -0.161025 1.1367
-0.382635 -0.160352 1.13607
-0.380418 -0.15967 1.13532
-0.378572 -0.159071 1.13534
-0.376892 -0.158511 1.13572
-0.3754 -0.157994 1.13649
-0.374244 -0.157552 1.13799
-0.373244 -0.157146 1.13982
-0.372316 -0.156754 1.14183
-0.371584 -0.156407 1.14427
-0.370855 -0.156059 1.14673
-0.37012 -0.15571 1.14919
-0.369276 -0.155335 1.15143
-0.368522 -0.15498 1.15388
-0.367869 -0.154647 1.15657
-0.367784 -0.154439 1.16055
-0.368983 -0.154515 1.16743
-0.370616 -0.154683 1.17534
-0.372093 -0.154815 1.18296
-0.373283 -0.15488 1.18999
-0.373873 -0.154811 1.19571
-0.37294 -0.154407 1.19798
-0.371784 -0.153952 1.19975
-0.370712 -0.153516 1.20172
-0.372084 -0.153612 1.20938
-0.37367 -0.153752 1.2176
-0.375495 -0.15394 1.22645
-0.376958 -0.154047 1.23452
-0.377976 -0.154054 1.2416
-0.376372 -0.153494 1.24251
-0.374769 -0.152934 1.24343
-0.446714 -0.179639 1.12592
-0.444704 -0.178996 1.12582
-0.442727 -0.178361 1.12576
-0.440427 -0.17765 1.12511
-0.438176 -0.17695 1.12453
-0.435734 -0.176207 1.1236
-0.433406 -0.175491 1.12286
-0.430806 -0.174711 1.1216
-0.428082 -0.173904 1.12009
-0.425247 -0.17307 1.11836
-0.422524 -0.172265 1.11681
-0.419636 -0.171421 1.11494
-0.416923 -0.17062 1.11338
-0.414477 -0.169881 1.11231
-0.4121 -0.169159 1.11137
-0.409817 -0.168459 1.11059
-0.407753 -0.167811 1.11022
-0.405962 -0.167226 1.11037
-0.404195 -0.166647 1.11057
-0.402544 -0.166094 1.11099
-0.400997 -0.165566 1.11161
-0.399545 -0.16506 1.11241
-0.398205 -0.164579 1.11345
-0.396981 -0.164125 1.11471
-0.395972 -0.16372 1.11641
-0.39513 -0.163352 1.11845
-0.394496 -0.163031 1.12092
-0.394244 -0.162797 1.12418
-0.394178 -0.162604 1.12783
-0.394036 -0.162392 1.13136
-0.393741 -0.162145 1.1346
-0.392928 -0.16178 1.13679
-0.391551 -0.161287 1.13782
-0.389688 -0.160684 1.13786
-0.387608 -0.160033 1.13743
-0.385325 -0.159337 1.13657
-0.383201 -0.158677 1.13603
-0.381043 -0.158011 1.13541
-0.379255 -0.157427 1.13556
-0.377588 -0.15687 1.13597
-0.376129 -0.15636 1.13681
-0.374917 -0.155904 1.13819
-0.373863 -0.155483 1.13991
-0.372882 -0.155078 1.1418
-0.372146 -0.154726 1.14423
-0.371376 -0.154366 1.1466
-0.370642 -0.154014 1.14906
-0.369803 -0.153638 1.15131
-0.36905 -0.15328 1.15376
-0.368349 -0.152932 1.15634
-0.368209 -0.152706 1.16019
-0.369554 -0.152802 1.16739
-0.371256 -0.152971 1.17544
-0.372808 -0.153107 1.18323
-0.37411 -0.153184 1.1905
-0.374741 -0.153115 1.19631
-0.373704 -0.152685 1.19834
-0.372544 -0.152228 1.2001
-0.371927 -0.151886 1.20313
-0.373293 -0.151968 1.21077
-0.374893 -0.152096 1.21902
-0.376653 -0.152255 1.22771
-0.378028 -0.152329 1.23557
-0.378557 -0.152221 1.24149
-0.37695 -0.15166 1.2424
-0.375288 -0.151088 1.24317
-0.445462 -0.177336 1.12611
-0.443411 -0.176685 1.12592
-0.441196 -0.175996 1.12542
-0.438948 -0.1753 1.12486
-0.436391 -0.174533 1.12371
-0.433996 -0.173804 1.12285
-0.431338 -0.173016 1.12148
-0.428513 -0.172189 1.11979
-0.425612 -0.171346 1.11794
-0.422874 -0.170541 1.11637
-0.41998 -0.169701 1.11449
-0.417276 -0.168906 1.11294
-0.414885 -0.168183 1.11198
-0.412568 -0.167478 1.11115
-0.410343 -0.166795 1.11048
-0.408343 -0.166163 1.11024
-0.406606 -0.165592 1.1105
-0.404834 -0.165012 1.11069
-0.403173 -0.164458 1.11109
-0.401567 -0.163917 1.11159
-0.400115 -0.163411 1.1124
-0.39878 -0.16293 1.11344
-0.397564 -0.162477 1.11472
-0.396556 -0.16207 1.11642
-0.395705 -0.161697 1.11844
-0.394965 -0.16135 1.1207
-0.39476 -0.161121 1.12405
-0.394699 -0.160923 1.12771
-0.394621 -0.16072 1.13136
-0.394393 -0.160483 1.13473
-0.393624 -0.160125 1.13701
-0.39219 -0.159619 1.13794
-0.390317 -0.159015 1.13795
-0.388128 -0.158342 1.1373
-0.385788 -0.157637 1.13632
-0.383703 -0.156988 1.13587
-0.381608 -0.156338 1.13538
-0.379832 -0.155758 1.13556
-0.378216 -0.155213 1.13607
-0.376803 -0.154712 1.13702
-0.375545 -0.154245 1.13829
-0.374449 -0.153813 1.13993
-0.373468 -0.153406 1.14181
-0.372729 -0.15305 1.14423
-0.371905 -0.152676 1.14649
-0.371172 -0.15232 1.14895
-0.37033 -0.15194 1.15119
-0.369578 -0.151579 1.15364
-0.368829 -0.151218 1.15611
-0.368588 -0.150964 1.15973
-0.369983 -0.151058 1.16702
-0.371737 -0.151226 1.17519
-0.373314 -0.151352 1.18302
-0.37472 -0.15144 1.19052
-0.375446 -0.151381 1.19654
-0.374358 -0.150937 1.19845
-0.373201 -0.150479 1.20022
-0.373129 -0.150248 1.2045
-0.374563 -0.15033 1.2123
-0.376192 -0.15045 1.22061
-0.377922 -0.150588 1.22923
-0.37919 -0.150626 1.23683
-0.379186 -0.150398 1.2415
-0.377524 -0.149825 1.24228
-0.375862 -0.149253 1.24305
-0.376127 -0.15104 1.24993
-0.374097 -0.148659 1.24358
-0.444282 -0.175051 1.12642
-0.442109 -0.174374 1.126
-0.439896 -0.173688 1.12551
-0.437262 -0.172907 1.12422
-0.434761 -0.172157 1.12317
-0.432044 -0.171359 1.1217
-0.429152 -0.170522 1.11988
-0.426127 -0.169656 1.1178
-0.423285 -0.168832 1.11603
-0.420381 -0.167995 1.11414
-0.41768 -0.167205 1.1126
-0.415297 -0.166488 1.11166
-0.413091 -0.16581 1.11104
-0.410975 -0.165154 1.11058
-0.408992 -0.164528 1.11038
-0.40726 -0.163959 1.11064
-0.405478 -0.163378 1.11082
-0.403757 -0.162811 1.1111
-0.402088 -0.162256 1.11148
-0.40069 -0.161762 1.1124
-0.399363 -0.161283 1.11345
-0.398152 -0.160829 1.11474
-0.397194 -0.160431 1.11654
-0.396343 -0.160057 1.11856
-0.395555 -0.159695 1.12072
-0.395443 -0.159482 1.12426
-0.395384 -0.159278 1.12792
-0.395302 -0.159069 1.13156
-0.395066 -0.158825 1.13492
-0.394298 -0.158464 1.1372
-0.392768 -0.157936 1.13792
-0.390891 -0.157333 1.13793
-0.388648 -0.156652 1.13717
-0.386308 -0.155949 1.13619
-0.384221 -0.155302 1.13574
-0.382173 -0.154664 1.13535
-0.380401 -0.154086 1.13554
-0.378793 -0.153543 1.13607
-0.377426 -0.153052 1.13711
-0.376173 -0.152585 1.1384
-0.37509 -0.152154 1.14006
-0.374109 -0.151744 1.14194
-0.37337 -0.151386 1.14436
-0.372489 -0.150996 1.14649
-0.371748 -0.150636 1.14893
-0.370907 -0.150253 1.15117
-0.370156 -0.149889 1.15362
-0.369411 -0.149525 1.1561
-0.36907 -0.149245 1.15949
-0.370452 -0.149324 1.16675
-0.372158 -0.149468 1.1748
-0.373743 -0.149583 1.18264
-0.375165 -0.149661 1.19017
-0.375995 -0.149613 1.19641
-0.374907 -0.149168 1.19833
-0.373803 -0.148719 1.20021
-0.374297 -0.148597 1.20579
-0.375812 -0.148682 1.21377
-0.377517 -0.148803 1.22226
-0.379213 -0.148919 1.2308
-0.380411 -0.14893 1.23823
-0.379861 -0.148583 1.24161
-0.378203 -0.148011 1.2424
-0.376537 -0.147438 1.24317
-0.374667 -0.146824 1.24345
-0.444905 -0.173358 1.12646
-0.442788 -0.172696 1.12615
-0.44066 -0.172032 1.12581
-0.438104 -0.171273 1.12468
-0.435592 -0.170524 1.12361
-0.432812 -0.169715 1.12202
-0.429851 -0.168868 1.12008
-0.426707 -0.16798 1.11778
-0.423742 -0.167134 1.11579
-0.42078 -0.16629 1.11379
-0.418079 -0.165504 1.11225
-0.415705 -0.164792 1.11133
-0.413604 -0.164141 1.11091
-0.411599 -0.163511 1.11067
-0.409624 -0.162889 1.11048
-0.407895 -0.162321 1.11076
-0.406108 -0.16174 1.11092
-0.404323 -0.16116 1.11108
-0.402604 -0.160595 1.11136
-0.401256 -0.16011 1.11237
-0.399983 -0.159643 1.11354
-0.398835 -0.159201 1.11495
-0.397979 -0.158824 1.11696
-0.397182 -0.158458 1.11908
-0.396403 -0.158096 1.12126
-0.396198 -0.157857 1.12461
-0.39607 -0.157633 1.12813
-0.395879 -0.157394 1.13155
-0.395583 -0.157132 1.13478
-0.39482 -0.156769 1.13707
-0.393342 -0.156253 1.1379
-0.39152 -0.155663 1.13802
-0.389281 -0.154985 1.13727
-0.386939 -0.154285 1.1363
-0.3848 -0.15363 1.13573
-0.382747 -0.152993 1.13534
-0.380928 -0.152406 1.13543
-0.379315 -0.151862 1.13595
-0.378 -0.151381 1.1371
-0.37675 -0.150914 1.13839
-0.375722 -0.150493 1.14017
-0.374792 -0.150091 1.14216
-0.374054 -0.149729 1.14459
-0.373123 -0.149326 1.1466
-0.372378 -0.148962 1.14904
-0.371529 -0.148575 1.15126
-0.370737 -0.148199 1.15362
-0.369998 -0.147833 1.15611
-0.369604 -0.147537 1.15938
-0.370974 -0.147601 1.1666
-0.372627 -0.14772 1.17452
-0.374217 -0.147823 1.18236
-0.375655 -0.147891 1.18991
-0.37654 -0.147845 1.19627
-0.375457 -0.147398 1.1982
-0.374401 -0.146957 1.2002
-0.37545 -0.146938 1.20704
-0.377026 -0.147022 1.21516
-0.378769 -0.147135 1.22373
-0.380427 -0.147228 1.23218
-0.381525 -0.147206 1.23938
-0.380435 -0.146748 1.24149
-0.378781 -0.146177 1.24229
-0.377111 -0.145603 1.24304
-0.377638 -0.145461 1.24904
-0.445624 -0.171686 1.12668
-0.443416 -0.171006 1.1262
-0.441378 -0.170364 1.12603
-0.438895 -0.169624 1.12503
-0.436334 -0.168868 1.12388
-0.433434 -0.168038 1.12208
-0.430448 -0.16719 1.12009
-0.427232 -0.166293 1.11766
-0.424152 -0.165427 1.11546
-0.421185 -0.164586 1.11344
-0.418529 -0.163815 1.112
-0.416159 -0.163107 1.11108
-0.414067 -0.16246 1.11068
-0.412116 -0.161844 1.11055
-0.410141 -0.161223 1.11036
-0.408403 -0.160654 1.11062
-0.406611 -0.160073 1.11077
-0.404826 -0.159495 1.11093
-0.403111 -0.158931 1.11122
-0.401817 -0.158458 1.11234
-0.400554 -0.157991 1.11353
-0.399455 -0.157559 1.11504
-0.398662 -0.157192 1.11716
-0.397973 -0.156847 1.11951
-0.397264 -0.156496 1.12183
-0.397007 -0.156241 1.12507
-0.396773 -0.155989 1.12838
-0.396451 -0.155718 1.13153
-0.396046 -0.155428 1.13453
-0.395241 -0.155053 1.13673
-0.393824 -0.15455 1.13769
-0.392111 -0.153984 1.13803
-0.389927 -0.15332 1.1374
-0.387584 -0.152623 1.13643
-0.385397 -0.15196 1.13576
-0.38333 -0.151322 1.13534
-0.381454 -0.150725 1.13531
-0.379837 -0.150181 1.13582
-0.378568 -0.149709 1.13708
-0.377324 -0.149241 1.13838
-0.376343 -0.148828 1.14026
-0.375467 -0.148435 1.14237
-0.374733 -0.148071 1.1448
-0.373756 -0.147656 1.14672
-0.373004 -0.147287 1.14913
-0.37216 -0.146898 1.15136
-0.371327 -0.14651 1.15363
-0.370593 -0.146142 1.15613
-0.370192 -0.14584 1.15938
-0.371214 -0.145822 1.16582
-0.372742 -0.145902 1.17345
-0.374325 -0.145991 1.18126
-0.375727 -0.14604 1.18872
-0.376646 -0.14599 1.19514
-0.375902 -0.145608 1.19783
-0.374851 -0.145165 1.19984
-0.375856 -0.145126 1.20658
-0.377485 -0.145207 1.2148
-0.379232 -0.145307 1.22337
-0.380848 -0.145377 1.23171
-0.382 -0.145354 1.23902
-0.380962 -0.144903 1.24126
-0.379308 -0.144332 1.24205
-0.379982 -0.14421 1.24836
-0.444842 -0.169489 1.12772
-0.44241 -0.168763 1.12683
-0.439792 -0.167997 1.12559
-0.437167 -0.16723 1.12432
-0.434254 -0.166402 1.1225
-0.431153 -0.165535 1.12031
-0.427873 -0.16463 1.11776
-0.424675 -0.163744 1.11534
-0.421696 -0.162907 1.1133
-0.419035 -0.162138 1.11185
-0.416669 -0.161435 1.11094
-0.414585 -0.160791 1.11056
-0.412685 -0.160188 1.11052
-0.410746 -0.159577 1.11041
-0.408911 -0.158988 1.11048
-0.407114 -0.158407 1.11062
-0.405333 -0.15783 1.11079
-0.403622 -0.157268 1.1111
-0.402283 -0.156785 1.11213
-0.40107 -0.156328 1.11341
-0.400026 -0.155906 1.11502
-0.399292 -0.155549 1.11727
-0.398674 -0.155215 1.11975
-0.39802 -0.154873 1.12218
-0.39771 -0.154601 1.12531
-0.39741 -0.154331 1.12849
-0.397018 -0.15404 1.13149
-0.396558 -0.153735 1.13438
-0.395758 -0.153358 1.13659
-0.394455 -0.152877 1.13778
-0.392807 -0.152326 1.13826
-0.390678 -0.151675 1.13775
-0.388333 -0.150982 1.13677
-0.386083 -0.150308 1.13598
-0.383959 -0.149661 1.13544
-0.382023 -0.149053 1.13529
-0.380359 -0.1485 1.1357
-0.379091 -0.148026 1.13695
-0.377846 -0.147558 1.13826
-0.376866 -0.147142 1.14013
-0.376041 -0.146757 1.14235
-0.375317 -0.146392 1.1448
-0.374395 -0.145986 1.14684
-0.373639 -0.145612 1.14925
-0.372841 -0.145229 1.15158
-0.371959 -0.14483 1.15374
-0.371229 -0.144459 1.15624
-0.370781 -0.144143 1.15939
-0.371535 -0.144061 1.16523
-0.372937 -0.144104 1.17256
-0.374501 -0.144176 1.18031
-0.375868 -0.144206 1.18768
-0.376815 -0.144151 1.19416
-0.376339 -0.143817 1.19745
-0.375289 -0.143373 1.19946
-0.375751 -0.143218 1.20494
-0.376818 -0.143177 1.21186
-0.38143 -0.143304 1.23623
-0.380972 -0.142961 1.23981
-0.382222 -0.142939 1.24744
-0.445826 -0.167871 1.12842
-0.443333 -0.167135 1.12742
-0.440556 -0.166339 1.12589
-0.437876 -0.165564 1.12453
-0.434853 -0.164718 1.12251
-0.431684 -0.163841 1.12019
-0.428341 -0.16293 1.11753
-0.425042 -0.162028 1.11492
-0.422058 -0.161196 1.11288
-0.419499 -0.160453 1.11163
-0.417196 -0.159766 1.11084
-0.415117 -0.159126 1.11047
-0.413262 -0.158533 1.11052
-0.411318 -0.157923 1.11039
-0.409427 -0.157323 1.11036
-0.407635 -0.156745 1.11051
-0.405854 -0.156169 1.11068
-0.404142 -0.155608 1.11099
-0.4028 -0.155123 1.11201
-0.401586 -0.154665 1.11329
-0.400646 -0.154262 1.11511
-0.399971 -0.153914 1.11747
-0.399363 -0.153579 1.11997
-0.398758 -0.153244 1.1225
-0.398396 -0.152957 1.12552
-0.39799 -0.15266 1.12848
-0.397533 -0.152352 1.13135
-0.397123 -0.152052 1.13434
-0.396331 -0.151674 1.13656
-0.395147 -0.151217 1.138
-0.393607 -0.150687 1.1387
-0.391528 -0.150049 1.1383
-0.389134 -0.149349 1.13722
-0.386814 -0.148664 1.13629
-0.384628 -0.148007 1.13563
-0.382593 -0.14738 1.13527
-0.380881 -0.146818 1.13558
-0.379613 -0.146344 1.13683
-0.378369 -0.145875 1.13814
-0.377389 -0.145457 1.14001
-0.376616 -0.145079 1.14234
-0.375901 -0.144712 1.14481
-0.374983 -0.144305 1.14685
-0.374228 -0.143928 1.14926
-0.373472 -0.14355 1.15168
-0.372545 -0.143139 1.15374
-0.371812 -0.142764 1.15624
-0.371463 -0.142463 1.1596
-0.372003 -0.14233 1.16496
-0.373233 -0.142328 1.1719
-0.374688 -0.142366 1.17939
-0.376024 -0.142378 1.18668
-0.376863 -0.142292 1.1929
-0.376606 -0.141996 1.19668
-0.375619 -0.14156 1.19883
-0.375517 -0.141291 1.20301
-0.375958 -0.141121 1.20847
-0.38317 -0.141693 1.23883
-0.449204 -0.166962 1.12991
-0.446579 -0.166201 1.12869
-0.444022 -0.165455 1.12759
-0.441101 -0.164633 1.1258
-0.438406 -0.163859 1.1244
-0.435329 -0.163007 1.12229
-0.432149 -0.162134 1.11996
-0.428804 -0.161229 1.11729
-0.425546 -0.160343 1.11477
-0.422626 -0.159528 1.11285
-0.420186 -0.158814 1.11182
-0.417938 -0.158141 1.11114
-0.415867 -0.157505 1.11079
-0.413951 -0.156901 1.11073
-0.412006 -0.156292 1.1106
-0.410064 -0.155683 1.11047
-0.408225 -0.155096 1.11053
-0.406434 -0.154519 1.11069
-0.404713 -0.153957 1.11097
-0.403316 -0.153461 1.11189
-0.402153 -0.153011 1.11326
-0.401271 -0.152619 1.1152
-0.400602 -0.152269 1.11757
-0.399994 -0.15193 1.12007
-0.399381 -0.151589 1.12258
-0.398908 -0.151276 1.12538
-0.398495 -0.150974 1.12832
-0.398053 -0.150664 1.13122
-0.397705 -0.150373 1.13433
-0.396976 -0.150004 1.13668
-0.395892 -0.149565 1.13832
-0.394412 -0.149047 1.13915
-0.392341 -0.148413 1.13877
-0.389931 -0.147713 1.13767
-0.387558 -0.147021 1.13663
-0.385306 -0.146353 1.13583
-0.383167 -0.145708 1.13526
-0.38145 -0.145146 1.13556
-0.380135 -0.144662 1.13671
-0.378892 -0.144192 1.13802
-0.377912 -0.143772 1.13989
-0.377187 -0.1434 1.14232
-0.376476 -0.14303 1.14479
-0.375564 -0.142621 1.14685
-0.37481 -0.142242 1.14926
-0.374054 -0.141861 1.15168
-0.373078 -0.141438 1.15363
-0.372391 -0.141069 1.15622
-0.372196 -0.140791 1.15992
-0.372594 -0.140623 1.16496
-0.373705 -0.140587 1.17163
-0.375086 -0.140598 1.17895
-0.376304 -0.140576 1.18596
-0.376957 -0.140445 1.19175
-0.376825 -0.140167 1.19581
-0.375891 -0.139739 1.19807
-0.375245 -0.139363 1.201
-0.377553 -0.141165 1.21664
-0.377962 -0.139603 1.21167
-0.452134 -0.16779 1.13167
-0.450143 -0.165326 1.13052
-0.447448 -0.164553 1.12918
-0.444785 -0.163789 1.12789
-0.441765 -0.162951 1.12592
-0.438864 -0.162139 1.12415
-0.435738 -0.161283 1.12195
-0.432438 -0.160391 1.11939
-0.429021 -0.159478 1.1166
-0.425828 -0.158611 1.1142
-0.423034 -0.157828 1.11252
-0.420776 -0.157155 1.11183
-0.418648 -0.156509 1.11139
-0.416626 -0.155884 1.11113
-0.41465 -0.15527 1.11095
-0.412694 -0.15466 1.11081
-0.410751 -0.154053 1.11068
-0.408915 -0.153467 1.11075
-0.407119 -0.152891 1.1109
-0.405439 -0.152337 1.11126
-0.404036 -0.151839 1.11217
-0.402877 -0.15139 1.11355
-0.402005 -0.150996 1.11551
-0.40134 -0.150644 1.11789
-0.400679 -0.150291 1.12028
-0.399999 -0.149934 1.12265
-0.399469 -0.149605 1.12534
-0.399062 -0.149299 1.12829
