ply
format ascii 1.0
element vertex 1668
property float x
property float y
property float z
end_header
-0.264157 -0.00423584 1.25557
-0.26492 -0.00256555 1.25615
-0.243403 -0.0971128 1.29732
-0.243786 -0.0954442 1.29649
-0.244178 -0.0937784 1.29569
-0.244334 -0.0921024 1.29401
-0.244379 -0.0904271 1.29191
-0.244303 -0.0887531 1.28936
-0.244273 -0.0870878 1.287
-0.244217 -0.0854289 1.28454
-0.244238 -0.0837788 1.28238
-0.244232 -0.0821342 1.28014
-0.244341 -0.0804972 1.27833
-0.244449 -0.0788648 1.27652
-0.244264 -0.0772394 1.27364
-0.243137 -0.0756324 1.26728
-0.241718 -0.0740503 1.25986
-0.240217 -0.0724929 1.25216
-0.238782 -0.0709574 1.24474
-0.238263 -0.0694126 1.24073
-0.238288 -0.0678582 1.23871
-0.238707 -0.0662912 1.23815
-0.239021 -0.0647308 1.23721
-0.239298 -0.0631748 1.23614
-0.239415 -0.0616319 1.23448
-0.239544 -0.0600924 1.23287
-0.239507 -0.0585692 1.23068
-0.239563 -0.0570455 1.22882
-0.239699 -0.0555196 1.22727
-0.23981 -0.0540004 1.22562
-0.240008 -0.052477 1.2243
-0.240238 -0.0509542 1.22309
-0.240531 -0.0494275 1.22211
-0.240828 -0.0479024 1.22116
-0.241182 -0.0463733 1.2204
-0.241505 -0.0448493 1.21954
-0.242003 -0.0433053 1.2193
-0.242518 -0.0417586 1.21912
-0.243102 -0.0402019 1.21919
-0.243738 -0.0386375 1.21944
-0.244421 -0.037064 1.21985
-0.24508 -0.0354927 1.22017
-0.245778 -0.0339134 1.22063
-0.24654 -0.0323215 1.22131
-0.24736 -0.0307171 1.22219
-0.2483 -0.0290879 1.22348
-0.24932 -0.0274393 1.22504
-0.250507 -0.0257543 1.22718
-0.251889 -0.0240244 1.22998
-0.253321 -0.0222761 1.23293
-0.254763 -0.0205156 1.23592
-0.256202 -0.0187467 1.23887
-0.257577 -0.0169817 1.2416
-0.258837 -0.0152332 1.24392
-0.260127 -0.0134711 1.24633
-0.261328 -0.0117216 1.24842
-0.26246 -0.00998091 1.25028
-0.263461 -0.00826404 1.25169
-0.264359 -0.00657037 1.25273
-0.265121 -0.0049047 1.25331
-0.265853 -0.00324586 1.25378
-0.24433 -0.0993563 1.29686
-0.244898 -0.097699 1.29673
-0.24531 -0.0960315 1.29601
-0.245735 -0.0943667 1.29533
-0.245934 -0.0926914 1.29382
-0.246017 -0.0910155 1.29187
-0.245969 -0.0893401 1.28944
-0.245971 -0.0876733 1.28721
-0.245946 -0.0860123 1.28488
-0.245993 -0.0843596 1.28284
-0.246051 -0.0827131 1.28083
-0.246226 -0.0810733 1.27927
-0.246392 -0.0794373 1.27769
-0.245843 -0.077808 1.27347
-0.244217 -0.0762018 1.26529
-0.240817 -0.0730671 1.24852
-0.239614 -0.0715252 1.242
-0.239418 -0.0699708 1.23919
-0.239723 -0.0684057 1.23821
-0.240151 -0.0668375 1.23768
-0.240527 -0.0652732 1.23696
-0.240834 -0.063714 1.236
-0.241006 -0.0621658 1.23455
-0.241221 -0.0606183 1.23326
-0.24125 -0.0590877 1.23131
-0.241342 -0.0575571 1.22959
-0.24154 -0.0560232 1.22826
-0.241681 -0.0544973 1.22673
-0.241847 -0.0529731 1.22529
-0.242072 -0.0514472 1.22407
-0.242388 -0.0499147 1.22318
-0.242656 -0.0483898 1.22212
-0.242982 -0.0468608 1.22126
-0.243272 -0.0453379 1.22029
-0.243701 -0.0437997 1.2198
-0.244118 -0.0422643 1.21928
-0.244638 -0.0407152 1.21912
-0.245186 -0.0391626 1.21905
-0.245779 -0.0376025 1.21914
-0.246404 -0.0360364 1.21935
-0.247045 -0.034467 1.2196
-0.247724 -0.0328895 1.21999
-0.248483 -0.0312969 1.22065
-0.249327 -0.0296868 1.2216
-0.250189 -0.02807 1.22261
-0.251211 -0.0264198 1.22417
-0.25249 -0.0247158 1.2266
-0.253881 -0.0229813 1.22941
-0.255326 -0.0212275 1.23238
-0.256799 -0.019458 1.23545
-0.258237 -0.0176862 1.23838
-0.259558 -0.0159301 1.2409
-0.260916 -0.0141581 1.24353
-0.262187 -0.012397 1.24586
-0.263399 -0.0106431 1.24797
-0.264496 -0.00890758 1.24969
-0.265429 -0.00720712 1.25085
-0.266196 -0.00554398 1.25144
-0.266924 -0.00388709 1.25191
-0.245876 -0.0999469 1.29646
-0.246412 -0.0982868 1.2962
-0.246805 -0.0966172 1.29541
-0.247217 -0.0949509 1.29469
-0.247391 -0.0932736 1.29309
-0.24751 -0.0915983 1.29128
-0.247497 -0.0899229 1.28899
-0.247564 -0.0882566 1.28702
-0.247569 -0.0865943 1.28481
-0.247641 -0.0849399 1.28286
-0.247758 -0.0832921 1.28109
-0.248028 -0.0816505 1.27988
-0.248282 -0.080012 1.27863
-0.247345 -0.0783781 1.27301
-0.24543 -0.0767684 1.26383
-0.243456 -0.075188 1.25446
-0.241533 -0.0736353 1.24533
-0.240604 -0.072087 1.23985
-0.240697 -0.0705243 1.23811
-0.241058 -0.0689571 1.23733
-0.24149 -0.067389 1.23682
-0.24192 -0.0658216 1.23631
-0.242262 -0.0642602 1.23547
-0.242435 -0.06271 1.23403
-0.242707 -0.0611577 1.23296
-0.242797 -0.0596209 1.23123
-0.242952 -0.0580838 1.22975
-0.243216 -0.0565422 1.22865
-0.243419 -0.0550082 1.22735
-0.243564 -0.0534831 1.22584
-0.243818 -0.0519516 1.22472
-0.244164 -0.050413 1.22394
-0.244444 -0.048884 1.22292
-0.244773 -0.0473514 1.22208
-0.245054 -0.0458265 1.22107
-0.245414 -0.0442945 1.22034
-0.245738 -0.0427686 1.21949
-0.246191 -0.0412274 1.21909
-0.246676 -0.0396823 1.2188
-0.247179 -0.0381349 1.21858
-0.247768 -0.0365741 1.21866
-0.248376 -0.0350103 1.21879
-0.248998 -0.0334425 1.21898
-0.249727 -0.0318559 1.21954
-0.250507 -0.030258 1.22026
-0.251267 -0.028661 1.22092
-0.252132 -0.0270423 1.22193
-0.253305 -0.0253622 1.22398
-0.254571 -0.0236574 1.22635
-0.255949 -0.0219227 1.22909
-0.257389 -0.0201664 1.23202
-0.258886 -0.0183891 1.23514
-0.260241 -0.0166318 1.23777
-0.261698 -0.0148436 1.24072
-0.263104 -0.0130582 1.24349
-0.264393 -0.0112903 1.24586
-0.265537 -0.0095481 1.24773
-0.266539 -0.00783382 1.24911
-0.267339 -0.00616447 1.24981
-0.268071 -0.00450903 1.25029
-0.247957 -0.0988769 1.29579
-0.248356 -0.097207 1.29502
-0.248775 -0.09554 1.29433
-0.248948 -0.0938613 1.29273
-0.249093 -0.0921853 1.29104
-0.249115 -0.0905092 1.28889
-0.249181 -0.088841 1.28691
-0.249187 -0.0871768 1.28471
-0.249254 -0.08552 1.28276
-0.24937 -0.08387 1.28098
-0.249673 -0.0822271 1.27991
-0.249974 -0.0805872 1.27883
-0.248533 -0.0789483 1.27139
-0.244134 -0.0757552 1.25111
-0.242081 -0.0742038 1.24156
-0.241566 -0.0726476 1.23762
-0.241977 -0.0710776 1.23703
-0.242338 -0.0695105 1.23626
-0.242764 -0.0679424 1.23574
-0.243199 -0.0663754 1.23523
-0.243564 -0.0648126 1.23449
-0.24377 -0.0632605 1.23317
-0.244074 -0.0617056 1.23222
-0.244219 -0.060164 1.2307
-0.244434 -0.0586213 1.22943
-0.244757 -0.0570734 1.22855
-0.244996 -0.0555347 1.22738
-0.245199 -0.054002 1.22608
-0.245487 -0.0524651 1.22509
-0.24587 -0.0509208 1.22443
-0.246157 -0.0493882 1.22344
-0.24649 -0.0478526 1.22261
-0.246745 -0.0463285 1.22151
-0.247072 -0.0447981 1.22067
-0.247333 -0.0432779 1.2196
-0.247753 -0.0417396 1.21909
-0.248175 -0.0402016 1.21859
-0.248615 -0.0386625 1.21814
-0.249164 -0.0371072 1.21808
-0.249737 -0.0355484 1.21809
-0.250329 -0.0339856 1.21818
-0.251029 -0.0324042 1.21863
-0.251748 -0.0308182 1.21913
-0.252441 -0.0292339 1.21956
-0.253207 -0.0276345 1.22023
-0.254286 -0.0259751 1.22195
-0.255454 -0.0242929 1.22397
-0.256762 -0.0225767 1.22646
-0.258166 -0.0208332 1.22926
-0.259662 -0.0190613 1.23236
-0.261023 -0.0173084 1.23499
-0.262579 -0.0155049 1.23827
-0.264088 -0.0137012 1.24137
-0.26545 -0.0119204 1.24398
-0.266672 -0.0101645 1.24609
-0.267771 -0.00843051 1.24779
-0.268577 -0.00676025 1.24852
-0.269309 -0.00510537 1.24899
-0.249642 -0.0994782 1.29588
-0.250001 -0.0978037 1.29497
-0.250374 -0.0961324 1.29411
-0.250512 -0.0944496 1.29239
-0.250682 -0.0927734 1.29079
-0.250796 -0.0910998 1.28899
-0.250891 -0.08943 1.28713
-0.250924 -0.0877637 1.28505
-0.251017 -0.0861049 1.28319
-0.251156 -0.0844525 1.28151
-0.251462 -0.082807 1.28045
-0.251817 -0.0811645 1.27956
-0.249889 -0.0795176 1.27041
-0.245284 -0.0763158 1.24949
-0.243149 -0.074761 1.23971
-0.243072 -0.0731958 1.23736
-0.243418 -0.0716265 1.23653
-0.243747 -0.0700595 1.23565
-0.244142 -0.0684922 1.23502
-0.2446 -0.0669235 1.2346
-0.244938 -0.0653615 1.23376
-0.245144 -0.0638083 1.23246
-0.245448 -0.062253 1.2315
-0.245591 -0.0607103 1.22998
-0.245776 -0.0591689 1.22862
-0.246127 -0.0576187 1.22784
-0.246394 -0.0560769 1.22677
-0.246657 -0.0545382 1.22568
-0.247031 -0.0529916 1.225
-0.247506 -0.0514373 1.22466
-0.247824 -0.0498991 1.22378
-0.248188 -0.048358 1.22306
-0.248449 -0.0468306 1.22199
-0.248713 -0.0453051 1.22093
-0.248877 -0.0437949 1.21953
-0.249249 -0.0422612 1.21885
-0.249632 -0.0407275 1.21821
-0.250012 -0.039196 1.21756
-0.250544 -0.037643 1.21744
-0.251098 -0.0360868 1.21739
-0.251661 -0.034529 1.21737
-0.252333 -0.0329526 1.21772
-0.25302 -0.0313722 1.21812
-0.253653 -0.0297992 1.21834
-0.254356 -0.0282128 1.21878
-0.255344 -0.0265719 1.2202
-0.256445 -0.0249058 1.22198
-0.257685 -0.023206 1.22423
-0.259081 -0.0214691 1.22699
-0.260581 -0.0197016 1.23009
-0.261952 -0.0179512 1.23274
-0.263544 -0.0161452 1.23612
-0.26512 -0.0143317 1.23943
-0.266522 -0.0125471 1.24215
-0.267778 -0.0107859 1.24437
-0.268942 -0.00903963 1.24628
-0.269813 -0.00735716 1.24721
-0.27055 -0.00570125 1.2477
-0.272644 -0.00279913 1.25807
-0.271256 -0.00405383 1.24807
-0.251383 -0.100084 1.29618
-0.25169 -0.098404 1.29507
-0.251998 -0.0967264 1.29399
-0.252135 -0.0950422 1.29226
-0.252306 -0.0933642 1.29067
-0.252448 -0.0916895 1.28899
-0.252582 -0.0900191 1.28727
-0.252639 -0.0883509 1.28529
-0.252734 -0.0866898 1.28345
-0.252896 -0.0850352 1.28185
-0.253181 -0.0833874 1.28071
-0.253549 -0.0817427 1.27988
-0.246172 -0.076877 1.24694
-0.24432 -0.0753162 1.23822
-0.244677 -0.0737427 1.23744
-0.244995 -0.0721724 1.23652
-0.245321 -0.0706037 1.23564
-0.245719 -0.0690347 1.23501
-0.246173 -0.067465 1.23458
-0.246478 -0.0659027 1.23362
-0.246652 -0.0643496 1.23221
-0.246894 -0.0627963 1.23104
-0.247004 -0.0612544 1.22941
-0.247152 -0.0597145 1.22792
-0.247471 -0.0581658 1.22703
-0.247734 -0.0566235 1.22595
-0.248026 -0.0550818 1.22498
-0.248435 -0.0535321 1.22441
-0.248945 -0.0519737 1.2242
-0.249289 -0.0504318 1.22342
-0.249722 -0.0488825 1.22294
-0.250008 -0.0473505 1.22196
-0.250289 -0.0458214 1.22096
-0.250415 -0.0443134 1.21943
-0.250754 -0.0427826 1.21864
-0.251091 -0.041254 1.21784
-0.251431 -0.0397269 1.21706
-0.251945 -0.038176 1.21688
-0.252484 -0.0366219 1.21677
-0.253031 -0.0350664 1.21669
-0.253689 -0.0334923 1.217
-0.254324 -0.0319207 1.21722
-0.254925 -0.0303538 1.21732
-0.255595 -0.0287737 1.21766
-0.256552 -0.0271405 1.21895
-0.257622 -0.0254819 1.22063
-0.258834 -0.023791 1.22276
-0.26023 -0.0220571 1.22551
-0.261734 -0.0202928 1.2286
-0.263081 -0.0185508 1.23116
-0.264615 -0.0167609 1.23433
-0.266186 -0.0149531 1.23761
-0.267554 -0.0131797 1.2402
-0.268812 -0.0114216 1.24243
-0.270016 -0.00967082 1.24445
-0.270983 -0.00796743 1.24569
-0.27179 -0.00629671 1.24641
-0.272532 -0.0046414 1.2469
-0.25293 -0.100677 1.29574
-0.253228 -0.0989943 1.29462
-0.253543 -0.0973164 1.29355
-0.253696 -0.0956315 1.2919
-0.253908 -0.0939546 1.29046
-0.25411 -0.0922805 1.28901
-0.254282 -0.0906098 1.28743
-0.254413 -0.0889419 1.28572
-0.254565 -0.0872793 1.2841
-0.254729 -0.0856218 1.28251
-0.254982 -0.0839702 1.28126
-0.255332 -0.0823233 1.28036
-0.247277 -0.0774353 1.24518
-0.245924 -0.075866 1.2383
-0.246299 -0.0742906 1.23758
-0.246643 -0.0727178 1.23675
-0.246973 -0.0711468 1.23589
-0.247401 -0.0695752 1.23536
-0.247827 -0.0680044 1.23483
-0.248098 -0.0664415 1.23376
-0.248234 -0.064888 1.23221
-0.248406 -0.0633366 1.23081
-0.24845 -0.0617972 1.22895
-0.248558 -0.0602579 1.22733
-0.248843 -0.0587112 1.22633
-0.249074 -0.0571706 1.22514
-0.249396 -0.0556259 1.22428
-0.249839 -0.0540728 1.22383
-0.250355 -0.0525133 1.22364
-0.250731 -0.0509678 1.22296
-0.251231 -0.0494106 1.22272
-0.251549 -0.0478733 1.22185
-0.252748 -0.0402721 1.2162
-0.253277 -0.0387193 1.21607
-0.253827 -0.0371636 1.216
-0.25439 -0.0356055 1.21598
-0.255041 -0.0340331 1.21625
-0.255658 -0.0324648 1.21641
-0.256229 -0.0309028 1.21641
-0.256894 -0.0293243 1.21673
-0.257847 -0.0276932 1.218
-0.258897 -0.0260403 1.2196
-0.260081 -0.0243562 1.22164
-0.261514 -0.0226182 1.22449
-0.263023 -0.0208563 1.22758
-0.264342 -0.019122 1.23003
-0.26584 -0.0173434 1.23306
-0.267366 -0.0155489 1.23617
-0.268693 -0.0137871 1.23862
-0.269896 -0.0120457 1.24065
-0.271107 -0.0102957 1.24269
-0.272114 -0.00858537 1.24406
-0.272961 -0.0069087 1.24489
-0.273742 -0.00524519 1.24551
-0.275894 -0.00233152 1.25596
-0.274475 -0.00359018 1.24597
-0.25435 -0.101259 1.29485
-0.254633 -0.0995756 1.29366
-0.25498 -0.0978994 1.29272
-0.255197 -0.0962176 1.29131
-0.255502 -0.0945447 1.29022
-0.255779 -0.0928732 1.28903
-0.256013 -0.0912027 1.2877
-0.256212 -0.0895348 1.28624
-0.256436 -0.0878718 1.28487
-0.256642 -0.0862116 1.28345
-0.256878 -0.0845563 1.28214
-0.248397 -0.0779924 1.24349
-0.247593 -0.0764165 1.23859
-0.247969 -0.074839 1.23787
-0.248348 -0.0732632 1.23717
-0.248713 -0.0716892 1.23643
-0.249146 -0.0701148 1.23592
-0.249545 -0.0685427 1.2353
-0.249779 -0.0669789 1.23409
-0.249842 -0.0654261 1.2323
-0.249892 -0.0638791 1.23047
-0.249862 -0.0623419 1.22837
-0.249904 -0.0608058 1.22653
-0.250125 -0.0592628 1.22531
-0.250325 -0.0577242 1.22402
-0.250674 -0.0561773 1.22325
-0.251121 -0.054624 1.22282
-0.251641 -0.0530644 1.22264
-0.252018 -0.0515186 1.22198
-0.252519 -0.0499621 1.22173
-0.252879 -0.0484203 1.22101
-0.255751 -0.0361447 1.21527
-0.256395 -0.0345737 1.21552
-0.25699 -0.0330085 1.2156
-0.257565 -0.0314461 1.21562
-0.258262 -0.0298625 1.21604
-0.259211 -0.0282336 1.21729
-0.260266 -0.0265805 1.21889
-0.261459 -0.024897 1.22094
-0.262896 -0.0231604 1.22379
-0.264345 -0.0214123 1.22667
-0.265632 -0.0196874 1.229
-0.267032 -0.0179318 1.23169
-0.268452 -0.0161628 1.23444
-0.269703 -0.0144213 1.23663
-0.270901 -0.0126841 1.23863
-0.272093 -0.0109424 1.24059
-0.273175 -0.00921863 1.2422
-0.274089 -0.00752839 1.24325
-0.274907 -0.0058581 1.24399
-0.275647 -0.0042034 1.24447
-0.256056 -0.100158 1.29278
-0.25642 -0.0984826 1.2919
-0.256713 -0.096805 1.29077
-0.257065 -0.0951338 1.28985
-0.257434 -0.0934654 1.28901
-0.257744 -0.0917969 1.28794
-0.25801 -0.0901293 1.28673
-0.258306 -0.0884657 1.28563
-0.258632 -0.0868059 1.28463
-0.258921 -0.0851479 1.28351
-0.249416 -0.0785489 1.24145
-0.249125 -0.076969 1.23838
-0.249527 -0.0753901 1.23776
-0.249959 -0.0738116 1.23725
-0.250357 -0.0722353 1.23662
-0.250793 -0.0706589 1.23612
-0.25119 -0.0690853 1.23549
-0.251361 -0.0675216 1.23407
-0.251325 -0.0659709 1.23195
-0.251273 -0.0644271 1.22977
-0.251173 -0.0628925 1.22744
-0.251153 -0.0613595 1.22539
-0.25134 -0.0598184 1.22406
-0.251538 -0.0582803 1.22277
-0.251856 -0.0567361 1.2219
-0.252299 -0.0551836 1.22146
-0.252818 -0.053625 1.22128
-0.253225 -0.0520772 1.22072
-0.253787 -0.0505148 1.22068
-0.254266 -0.0489609 1.22037
-0.254676 -0.0474146 1.21982
-0.258324 -0.0335525 1.2148
-0.258878 -0.0319936 1.21474
-0.259684 -0.0303921 1.21552
-0.260681 -0.0287557 1.21692
-0.261783 -0.0270955 1.21867
-0.262948 -0.0254177 1.22062
-0.264305 -0.023698 1.22318
-0.265663 -0.0219695 1.22575
-0.266884 -0.0202595 1.22785
-0.268156 -0.0185323 1.23011
-0.269476 -0.0167883 1.23251
-0.270654 -0.0150659 1.23445
-0.271816 -0.0133403 1.23632
-0.272974 -0.0116092 1.23818
-0.274122 -0.00987473 1.23999
-0.275076 -0.00817844 1.24117
-0.275961 -0.00649603 1.24211
-0.276733 -0.00483455 1.2427
-0.257877 -0.099067 1.29115
-0.258242 -0.0973936 1.29027
-0.258633 -0.0957235 1.28951
-0.259032 -0.0940561 1.28876
-0.259372 -0.0923871 1.28782
-0.259681 -0.0907197 1.28675
-0.26001 -0.0890555 1.28577
-0.260422 -0.0873963 1.28509
-0.260825 -0.0857383 1.28437
-0.250228 -0.0791036 1.2387
-0.250629 -0.0775222 1.23807
-0.251036 -0.0759424 1.23747
-0.251535 -0.074362 1.23719
-0.251963 -0.0727834 1.23667
-0.252402 -0.0712057 1.23618
-0.25274 -0.0696317 1.23535
-0.252867 -0.0680678 1.23379
-0.252731 -0.0665197 1.23132
-0.252581 -0.0649794 1.22882
-0.252416 -0.0634468 1.22627
-0.252357 -0.0619156 1.2241
-0.252517 -0.0603763 1.22268
-0.252709 -0.0588386 1.22138
-0.252995 -0.0572975 1.22041
-0.253405 -0.0557484 1.21986
-0.253889 -0.0541944 1.21956
-0.254264 -0.0526504 1.21889
-0.254791 -0.051093 1.21874
-0.255271 -0.0495405 1.21843
-0.255692 -0.0479944 1.21793
-0.260232 -0.032534 1.214
-0.261212 -0.0309054 1.21535
-0.262293 -0.0292546 1.21702
-0.263391 -0.0275954 1.21874
-0.264491 -0.0259295 1.22046
-0.265715 -0.0242355 1.22258
-0.266944 -0.0225337 1.2247
-0.268096 -0.0208391 1.22657
-0.269299 -0.0191285 1.22859
-0.270526 -0.0174061 1.23068
-0.271634 -0.0157019 1.23238
-0.272757 -0.0139885 1.23412
-0.273879 -0.0122693 1.23585
-0.275033 -0.0105375 1.23767
-0.276018 -0.00883718 1.23895
-0.276939 -0.00714835 1.24001
-0.277751 -0.00548201 1.24071
-0.259687 -0.0979768 1.28948
-0.260128 -0.0963098 1.28888
-0.260565 -0.0946431 1.28829
-0.260969 -0.0929768 1.28756
-0.261277 -0.0913075 1.28651
-0.261643 -0.0896434 1.28566
-0.262054 -0.0879827 1.28497
-0.262462 -0.0863233 1.28428
-0.252023 -0.0780762 1.23738
-0.252441 -0.0764958 1.23681
-0.252986 -0.0749146 1.23669
-0.25339 -0.0733357 1.23609
-0.253778 -0.0717586 1.23543
-0.254068 -0.0701859 1.23443
-0.254129 -0.0686236 1.23265
-0.253924 -0.0670772 1.22996
-0.253762 -0.0655369 1.22743
-0.253591 -0.0640043 1.22488
-0.253503 -0.0624742 1.22262
-0.253632 -0.0609372 1.22111
-0.253792 -0.0594022 1.2197
-0.254013 -0.0578664 1.21851
-0.254356 -0.056324 1.21774
-0.254832 -0.0547726 1.21742
-0.255204 -0.0532309 1.21675
-0.255749 -0.0516738 1.21666
-0.256295 -0.0501169 1.21657
-0.265068 -0.028085 1.21903
-0.266056 -0.026439 1.22037
-0.267128 -0.0247734 1.22198
-0.268189 -0.0231035 1.22355
-0.26924 -0.0214311 1.22507
-0.270405 -0.0197305 1.22696
-0.271564 -0.0180248 1.22883
-0.272643 -0.0163298 1.23042
-0.273732 -0.0146271 1.23204
-0.274814 -0.0129202 1.23363
-0.275932 -0.0112002 1.23533
-0.27689 -0.00951029 1.23652
-0.277819 -0.00782363 1.23759
-0.278661 -0.00615272 1.2384
-0.27852 -0.00382251 1.24128
-0.279463 -0.00448699 1.23907
-0.261218 -0.0985662 1.28898
-0.261684 -0.0968995 1.28849
-0.262122 -0.0952326 1.28788
-0.262533 -0.0935651 1.2872
-0.262841 -0.0918952 1.28613
-0.263186 -0.0902286 1.28522
-0.263583 -0.0885668 1.28448
-0.263955 -0.0869053 1.28367
-0.253503 -0.0786308 1.23697
-0.253893 -0.0770495 1.23631
-0.254374 -0.0754684 1.23598
-0.254728 -0.0738902 1.2352
-0.255048 -0.0723142 1.23431
-0.255288 -0.0707428 1.23314
-0.255316 -0.0691814 1.23126
-0.255106 -0.0676346 1.22857
-0.254916 -0.0660949 1.22596
-0.254712 -0.0645636 1.2233
-0.25459 -0.0630353 1.22094
-0.254682 -0.0615008 1.21932
-0.254812 -0.0599687 1.21782
-0.255027 -0.0584344 1.21662
-0.255364 -0.0568938 1.21583
-0.255836 -0.0553443 1.2155
-0.256232 -0.0538016 1.21491
-0.256833 -0.0522416 1.21501
-0.257485 -0.0506755 1.21528
-0.258254 -0.0490957 1.21594
-0.267041 -0.0285264 1.22026
-0.267823 -0.0269143 1.22092
-0.268628 -0.0252953 1.22166
-0.269531 -0.0236555 1.22271
-0.270445 -0.0220101 1.22378
-0.271508 -0.0203318 1.22533
-0.272605 -0.0186417 1.22698
-0.273623 -0.0169617 1.22838
-0.274706 -0.0152638 1.22997
-0.275757 -0.0135669 1.23146
-0.276866 -0.0118524 1.23312
-0.277825 -0.0101656 1.2343
-0.27875 -0.00848241 1.23537
-0.279565 -0.00682031 1.23608
-0.280397 -0.00515194 1.23685
-0.26316 -0.0974851 1.28779
-0.263589 -0.0958166 1.28717
-0.264013 -0.0941499 1.28652
-0.264329 -0.0924789 1.2855
-0.264702 -0.0908135 1.28468
-0.265097 -0.0891501 1.28395
-0.265484 -0.087489 1.28317
-0.256264 -0.0744414 1.23499
-0.256478 -0.0728664 1.23373
-0.256611 -0.0712967 1.23221
-0.256483 -0.0697394 1.22981
-0.256192 -0.0681949 1.22686
-0.256099 -0.0666512 1.22459
-0.255925 -0.0651174 1.22206
-0.255828 -0.0635873 1.21979
-0.255909 -0.0620531 1.21813
-0.255971 -0.0605248 1.21642
-0.256127 -0.058995 1.21502
-0.256434 -0.0574576 1.21414
-0.256877 -0.0559118 1.21371
-0.257306 -0.0543676 1.21324
-0.258003 -0.0528002 1.21366
-0.258753 -0.0512263 1.21425
-0.259642 -0.0496355 1.21531
-0.259154 -0.0474997 1.21703
-0.260669 -0.0480266 1.21681
-0.26172 -0.0464096 1.21839
-0.269182 -0.0289431 1.22202
-0.269694 -0.0273738 1.2218
-0.270257 -0.0257958 1.22175
-0.270978 -0.0241885 1.2222
-0.271721 -0.0225753 1.22272
-0.272651 -0.0209243 1.22384
-0.273648 -0.019256 1.22516
-0.274663 -0.0175799 1.22654
-0.275688 -0.0158966 1.22794
-0.276738 -0.0142031 1.22942
-0.277843 -0.012493 1.23106
-0.278797 -0.0108105 1.23222
-0.279719 -0.00913042 1.23328
-0.280565 -0.00746444 1.23409
-0.28137 -0.0058053 1.23476
-0.281034 -0.00352827 1.23699
-0.281999 -0.00418413 1.23488
-0.265062 -0.0964017 1.28646
-0.265495 -0.0947348 1.28585
-0.26579 -0.0930623 1.28476
-0.266162 -0.0913957 1.28395
-0.266553 -0.0897323 1.28319
-0.258027 -0.0734163 1.23357
-0.257887 -0.0718515 1.23112
-0.257591 -0.0702981 1.22816
-0.257214 -0.0687561 1.22494
-0.257225 -0.0672087 1.22303
-0.257087 -0.065673 1.22064
-0.25701 -0.0641415 1.21845
-0.257054 -0.0626096 1.21668
-0.257081 -0.0610833 1.21486
-0.257235 -0.059554 1.21347
-0.257544 -0.0580175 1.21259
-0.257961 -0.0564746 1.21208
-0.25845 -0.0549266 1.21181
-0.259216 -0.0533546 1.21246
-0.260029 -0.0517756 1.21326
-0.261032 -0.0501753 1.21468
-0.262117 -0.0485613 1.21636
-0.263113 -0.0469508 1.21775
-0.262544 -0.0448131 1.21921
-0.263895 -0.0453594 1.21843
-0.26469 -0.0437643 1.21914
-0.271395 -0.027865 1.22212
-0.271777 -0.0263163 1.22148
-0.272345 -0.0247361 1.22144
-0.272943 -0.02315 1.22149
-0.273733 -0.0215265 1.22216
-0.274628 -0.0198809 1.22315
-0.275606 -0.0182153 1.2244
-0.276629 -0.0165356 1.2258
-0.277712 -0.0148388 1.22737
-0.278827 -0.0131298 1.22904
-0.279812 -0.0114437 1.23029
-0.280733 -0.00976707 1.23134
-0.281576 -0.00810437 1.23213
-0.282345 -0.00645509 1.2327
-0.28301 -0.00482825 1.23293
-0.28271 -0.00254405 1.23525
-0.283688 -0.00319755 1.2332
-0.266925 -0.0953167 1.285
-0.26726 -0.0936459 1.28405
-0.26765 -0.0919799 1.2833
-0.259754 -0.0755415 1.23596
-0.259493 -0.0739684 1.23311
-0.259078 -0.0724077 1.22975
-0.258572 -0.0708592 1.2261
-0.258074 -0.0693216 1.22249
-0.258191 -0.0677714 1.22095
-0.258123 -0.0662338 1.2188
-0.258074 -0.0647008 1.21673
-0.258114 -0.0631695 1.21495
-0.258106 -0.061646 1.21302
-0.258287 -0.0601158 1.21173
-0.258625 -0.0585778 1.21096
-0.259068 -0.0570342 1.21053
-0.259676 -0.055478 1.21066
-0.260538 -0.0538989 1.21162
-0.261422 -0.0523146 1.21264
-0.262526 -0.0507052 1.21439
-0.263665 -0.049086 1.21624
-0.264602 -0.0474822 1.21742
-0.265347 -0.045895 1.21797
-0.266073 -0.0443075 1.21846
-0.265202 -0.0422008 1.21893
-0.266596 -0.042743 1.21828
-0.265608 -0.0406511 1.21837
-0.267044 -0.0411873 1.21786
-0.267639 -0.0396131 1.21792
-0.272766 -0.0299012 1.22322
-0.273056 -0.0283642 1.22229
-0.27332 -0.026834 1.22128
-0.273768 -0.0252739 1.22086
-0.274217 -0.0237143 1.22044
-0.27484 -0.0221234 1.22057
-0.27569 -0.0204881 1.22141
-0.276629 -0.0188327 1.22254
-0.277653 -0.017156 1.22392
-0.278747 -0.0154599 1.22553
-0.279898 -0.0137466 1.2273
-0.28086 -0.0120683 1.22847
-0.281781 -0.010394 1.22951
-0.282592 -0.00874068 1.23021
-0.283359 -0.00709468 1.23076
-0.28403 -0.0054687 1.23101
-0.284712 -0.00383904 1.23129
-0.260909 -0.0776815 1.2364
-0.2604 -0.0761032 1.23273
-0.260332 -0.07453 1.23054
-0.259907 -0.0729703 1.22717
-0.259431 -0.0714219 1.22364
-0.25904 -0.0698816 1.22041
-0.259193 -0.0683313 1.21901
-0.259159 -0.0667927 1.21698
-0.259141 -0.0652592 1.21502
-0.25921 -0.0637268 1.21335
-0.259206 -0.0622028 1.21145
-0.259446 -0.0606695 1.21035
-0.259875 -0.0591261 1.20989
-0.260352 -0.0575801 1.20958
-0.261055 -0.0560169 1.21001
-0.262011 -0.054431 1.21127
-0.262934 -0.0528432 1.21242
-0.264017 -0.051236 1.21408
-0.265158 -0.0496175 1.21593
-0.266061 -0.0480173 1.21699
-0.266786 -0.0464321 1.21747
-0.267513 -0.0448447 1.21796
-0.268048 -0.0432781 1.21782
-0.26853 -0.0417175 1.21751
-0.26916 -0.0401382 1.21768
-0.269844 -0.0385512 1.21802
-0.27389 -0.0319833 1.22353
-0.274307 -0.0304232 1.223
-0.27462 -0.0288811 1.22215
-0.274808 -0.0273621 1.2209
-0.275145 -0.02582 1.22012
-0.275487 -0.0242796 1.21936
-0.275935 -0.0227211 1.21894
-0.276714 -0.0211013 1.21956
-0.277621 -0.0194542 1.22058
-0.278681 -0.0177735 1.22208
-0.279847 -0.0160663 1.2239
-0.281071 -0.0143407 1.22589
-0.282038 -0.0126634 1.22707
-0.282955 -0.0109919 1.22809
-0.283762 -0.00934127 1.22877
-0.284486 -0.00770679 1.22919
-0.285123 -0.00609028 1.22933
-0.285754 -0.00447416 1.22946
-0.261047 -0.0782395 1.23147
-0.261015 -0.0766628 1.22941
-0.261135 -0.0750901 1.22787
-0.260797 -0.0735297 1.22482
-0.260356 -0.0719811 1.22142
-0.260038 -0.0704391 1.21845
-0.260252 -0.068888 1.21726
-0.260276 -0.0673474 1.21544
-0.260284 -0.0658128 1.21357
-0.260356 -0.0642802 1.21192
-0.260385 -0.0627547 1.21014
-0.260663 -0.061219 1.20918
-0.261161 -0.0596716 1.20894
-0.261683 -0.0581226 1.20878
-0.262425 -0.0565569 1.20934
-0.263391 -0.0549709 1.21062
-0.264319 -0.0533833 1.21178
-0.265373 -0.0517798 1.21334
-0.26655 -0.0501594 1.21528
-0.267483 -0.0485565 1.21644
-0.268275 -0.0469644 1.21713
-0.269041 -0.0453726 1.21774
-0.269614 -0.0438004 1.21772
-0.270104 -0.0422379 1.21743
-0.270738 -0.0406576 1.21761
-0.271378 -0.039075 1.21781
-0.272242 -0.0374607 1.21871
-0.274386 -0.0341613 1.22184
-0.275081 -0.0325604 1.22219
-0.275621 -0.0309817 1.22206
-0.275994 -0.0294293 1.2214
-0.276197 -0.0279068 1.2202
-0.276462 -0.0263772 1.2192
-0.276726 -0.0248494 1.2182
-0.277031 -0.0233168 1.21734
-0.27768 -0.021723 1.21755
-0.278586 -0.0200793 1.21856
-0.279691 -0.0183929 1.22019
-0.280931 -0.0166746 1.22222
-0.282229 -0.0149373 1.22444
-0.283253 -0.0132496 1.22579
-0.284171 -0.0115801 1.22681
-0.284974 -0.00993199 1.22747
-0.285633 -0.00831258 1.22769
-0.286211 -0.00671085 1.22765
-0.286816 -0.00510213 1.2277
-0.260203 -0.080364 1.22523
-0.261125 -0.0787929 1.22638
-0.261366 -0.0772208 1.22525
-0.261641 -0.075651 1.22424
-0.261423 -0.0740917 1.2216
-0.261239 -0.0725396 1.21908
-0.261124 -0.070993 1.2168
-0.261336 -0.0694427 1.2156
-0.261354 -0.0679027 1.21377
-0.261357 -0.0663685 1.2119
-0.261429 -0.0648366 1.21026
-0.261521 -0.0633078 1.20869
-0.261867 -0.061769 1.20796
-0.262466 -0.0602159 1.20805
-0.263061 -0.0586622 1.20813
-0.263875 -0.0570912 1.20892
-0.264876 -0.0555029 1.21031
-0.265833 -0.0539131 1.21154
-0.266887 -0.0523101 1.21309
-0.268033 -0.0506929 1.21493
-0.268996 -0.0490875 1.21617
-0.269828 -0.0474911 1.21699
-0.270631 -0.0458945 1.21771
-0.271215 -0.04432 1.21772
-0.271728 -0.0427534 1.21751
-0.272318 -0.0411771 1.21755
-0.272946 -0.0395954 1.2177
-0.273741 -0.0379902 1.21838
-0.274792 -0.0363466 1.21987
-0.275665 -0.0347239 1.22079
-0.276383 -0.03312 1.22121
-0.276974 -0.0315336 1.22124
-0.277404 -0.0299726 1.22075
-0.277623 -0.0284462 1.21961
-0.27792 -0.0269097 1.21872
-0.27814 -0.0253886 1.21759
-0.278364 -0.0238695 1.21647
-0.278906 -0.0222959 1.21635
-0.279704 -0.0206739 1.21702
-0.280795 -0.0189925 1.2186
-0.282095 -0.0172656 1.22081
-0.283534 -0.0155026 1.22345
-0.284561 -0.0138165 1.2248
-0.285451 -0.0121536 1.22573
-0.286201 -0.0105181 1.22622
-0.286819 -0.0089093 1.22631
-0.287405 -0.00730657 1.2263
-0.25956 -0.082467 1.2197
-0.260513 -0.0809069 1.22096
-0.261258 -0.0793415 1.22152
-0.261658 -0.0777748 1.22093
-0.262025 -0.0762097 1.22023
-0.2621 -0.0746502 1.21858
-0.26214 -0.0730957 1.21682
-0.262194 -0.0715462 1.2151
-0.262375 -0.0699976 1.21381
-0.262414 -0.0684577 1.21206
-0.262387 -0.066925 1.2101
-0.262515 -0.0653911 1.20865
-0.262699 -0.0638581 1.20739
-0.263111 -0.0623162 1.20688
-0.263781 -0.0607593 1.2072
-0.26447 -0.0591996 1.20758
-0.265289 -0.0576288 1.20837
-0.266287 -0.0560411 1.20975
-0.26727 -0.0544499 1.21106
-0.268294 -0.0528502 1.2125
-0.269411 -0.0512366 1.21424
-0.270377 -0.0496318 1.21548
-0.27127 -0.0480296 1.21649
-0.272088 -0.0464317 1.21725
-0.272709 -0.0448527 1.21738
-0.273257 -0.0432811 1.21728
-0.273892 -0.0416989 1.21745
-0.274505 -0.0401183 1.21755
-0.27527 -0.0385166 1.21813
-0.276184 -0.0368921 1.21918
-0.277006 -0.0352769 1.21993
-0.277743 -0.0336708 1.22042
-0.278385 -0.0320771 1.2206
-0.278902 -0.030502 1.22039
-0.279191 -0.028963 1.21947
-0.279491 -0.0274242 1.21859
-0.279644 -0.0259129 1.21725
-0.279855 -0.0243947 1.2161
-0.280288 -0.0228394 1.21564
-0.280988 -0.0212364 1.216
-0.281987 -0.0195746 1.21728
-0.283351 -0.0178374 1.21968
-0.28491 -0.0160541 1.22267
-0.285934 -0.0143693 1.22401
-0.286782 -0.0127168 1.22481
-0.287495 -0.0110895 1.22518
-0.288072 -0.00949002 1.22514
-0.288619 -0.00789698 1.22501
-0.257476 -0.0871413 1.2185
-0.258239 -0.0892466 1.21767
-0.258692 -0.0876845 1.21727
-0.257979 -0.0855809 1.21826
-0.259219 -0.0861249 1.21712
-0.258493 -0.0840202 1.21806
-0.259749 -0.0845657 1.21697
-0.26045 -0.0830084 1.21739
-0.261141 -0.081449 1.21777
-0.261661 -0.0798871 1.21758
-0.262092 -0.0783251 1.21711
-0.26249 -0.076764 1.21653
-0.262776 -0.0752058 1.21558
-0.263044 -0.0736505 1.21457
-0.263303 -0.0720976 1.21354
-0.263479 -0.0705495 1.21224
-0.263547 -0.0690091 1.21059
-0.263579 -0.0674742 1.20884
-0.263744 -0.0659385 1.20752
-0.264025 -0.0644009 1.20658
-0.26447 -0.0628567 1.20617
-0.265172 -0.0612982 1.20659
-0.26589 -0.0597368 1.20706
-0.266678 -0.0581683 1.20775
-0.267646 -0.0565836 1.20902
-0.268626 -0.0549935 1.21031
-0.269622 -0.0533971 1.21166
-0.270713 -0.0517873 1.2133
-0.271712 -0.0501805 1.21464
-0.272636 -0.0485762 1.21574
-0.273493 -0.046975 1.21662
-0.274153 -0.0453918 1.21687
-0.274741 -0.0438151 1.21689
-0.275412 -0.042228 1.21718
-0.276033 -0.0406459 1.2173
-0.276729 -0.0390527 1.21766
-0.277564 -0.0374395 1.21845
-0.278333 -0.0358319 1.21904
-0.279068 -0.0342272 1.21951
-0.279754 -0.032627 1.21983
-0.280379 -0.0310351 1.21996
-0.280739 -0.029484 1.21926
-0.281075 -0.0279378 1.21849
-0.281225 -0.0264249 1.21715
-0.281418 -0.0249082 1.21594
-0.281712 -0.0233762 1.21505
-0.282295 -0.0217945 1.21505
-0.288205 -0.0132603 1.22416
-0.288917 -0.0116338 1.22453
-0.289455 -0.0100425 1.22437
-0.25988 -0.0882264 1.21595
-0.260444 -0.0866687 1.21592
-0.260969 -0.0851095 1.21576
-0.26162 -0.0835524 1.21601
-0.262264 -0.0819937 1.21624
-0.262754 -0.080433 1.21596
-0.263165 -0.0788722 1.21542
-0.263536 -0.0773127 1.21475
-0.263845 -0.0757551 1.21388
-0.264104 -0.0742007 1.21286
-0.264326 -0.0726498 1.21171
-0.264493 -0.0711032 1.21039
-0.264622 -0.0695611 1.20895
-0.264728 -0.0680242 1.20744
-0.26497 -0.0664856 1.20638
-0.265346 -0.0649435 1.20574
-0.265827 -0.0633975 1.20546
-0.266528 -0.0618395 1.20587
-0.267244 -0.0602782 1.20633
-0.267998 -0.0587125 1.20691
-0.268933 -0.0571313 1.20806
-0.269911 -0.0555424 1.20935
-0.270914 -0.0539472 1.2107
-0.271983 -0.0523408 1.21226
-0.273043 -0.0507298 1.21379
-0.274001 -0.0491231 1.21499
-0.274891 -0.0475189 1.21597
-0.275624 -0.0459282 1.21644
-0.276312 -0.0443401 1.21678
-0.277026 -0.0427472 1.21719
-0.277686 -0.0411592 1.21744
-0.278358 -0.0395681 1.21772
-0.279092 -0.0379671 1.21819
-0.279789 -0.0363694 1.21854
-0.280455 -0.034774 1.2188
-0.281116 -0.0331779 1.21904
-0.281748 -0.0315853 1.21918
-0.282174 -0.0300235 1.21869
-0.282578 -0.0284657 1.21813
-0.282795 -0.0269402 1.217
-0.283013 -0.0254168 1.21588
-0.283249 -0.0238936 1.21481
-0.283721 -0.0223306 1.21447
-0.261723 -0.0872136 1.21491
-0.262262 -0.0856549 1.21479
-0.262895 -0.0840981 1.21499
-0.26354 -0.08254 1.21521
-0.263993 -0.0809793 1.21481
-0.264368 -0.0794186 1.21416
-0.2647 -0.0778598 1.21337
-0.264976 -0.0763032 1.2124
-0.265191 -0.0747497 1.21124
-0.265369 -0.0732002 1.20995
-0.265538 -0.0716547 1.20864
-0.265706 -0.0701124 1.20734
-0.265886 -0.068573 1.20608
-0.266203 -0.067032 1.20526
-0.266677 -0.0654858 1.20495
-0.26719 -0.0639382 1.20476
-0.267861 -0.0623817 1.20508
-0.268575 -0.0608212 1.20552
-0.269355 -0.0592545 1.20618
-0.270264 -0.0576758 1.20724
-0.271247 -0.0560876 1.20853
-0.27228 -0.0544907 1.20998
-0.273321 -0.052888 1.21144
-0.274353 -0.0512807 1.21287
-0.275345 -0.0496719 1.21417
-0.276275 -0.0480649 1.21527
-0.27705 -0.0464698 1.21587
-0.277808 -0.044874 1.21642
-0.27859 -0.0432732 1.21705
-0.279254 -0.0416836 1.2173
-0.279896 -0.0400958 1.21748
-0.280589 -0.0384999 1.21782
-0.28124 -0.0369078 1.21803
-0.281828 -0.0353234 1.21804
-0.282488 -0.033728 1.21827
-0.283156 -0.0321299 1.21853
-0.283621 -0.0305616 1.21816
-0.284123 -0.0289875 1.2179
-0.284436 -0.0274449 1.21707
-0.284718 -0.0259089 1.21614
-0.285011 -0.0243732 1.21525
-0.262159 -0.0893048 1.21302
-0.262845 -0.0877531 1.21339
-0.263477 -0.0861984 1.21358
-0.264147 -0.0846432 1.21389
-0.26482 -0.0830861 1.2142
-0.265268 -0.0815255 1.21379
-0.265611 -0.0799649 1.21304
-0.265939 -0.0784061 1.21223
-0.266238 -0.0768494 1.21135
-0.266421 -0.0752961 1.21008
-0.2666 -0.0737465 1.20881
-0.266793 -0.0722001 1.20759
-0.266966 -0.0706577 1.2063
-0.267156 -0.0691179 1.20508
-0.267506 -0.0675753 1.20437
-0.268043 -0.0660265 1.20426
-0.268621 -0.0644759 1.20428
-0.269299 -0.0629187 1.20461
-0.270043 -0.0613563 1.20515
-0.270855 -0.0597875 1.2059
-0.271737 -0.0582107 1.20687
-0.272663 -0.0566268 1.20798
-0.273668 -0.0550328 1.20933
-0.274669 -0.0534343 1.21065
-0.275638 -0.0518339 1.21188
-0.276634 -0.0502262 1.21318
-0.277575 -0.0486188 1.21431
-0.27842 -0.0470173 1.21513
-0.279188 -0.0454212 1.2157
-0.280003 -0.0438172 1.21642
-0.280633 -0.0422316 1.21657
-0.281234 -0.0406487 1.21662
-0.281852 -0.0390629 1.21673
-0.28249 -0.0374734 1.21689
-0.283069 -0.0358907 1.21688
-0.283793 -0.0342869 1.2173
-0.284527 -0.0326798 1.21776
-0.285066 -0.0311001 1.21762
-0.285575 -0.0295246 1.21738
-0.285959 -0.0279695 1.21677
-0.286273 -0.0264274 1.21594
-0.263395 -0.0898464 1.21188
-0.264111 -0.0882968 1.21235
-0.264766 -0.0867432 1.2126
-0.265456 -0.0851889 1.21298
-0.26616 -0.0836331 1.21339
-0.266608 -0.0820721 1.21298
-0.26698 -0.0805114 1.21232
-0.267342 -0.0789521 1.21163
-0.267651 -0.0773946 1.21078
-0.267872 -0.0758402 1.20964
-0.26811 -0.0742885 1.20856
-0.268308 -0.0727403 1.20736
-0.268475 -0.0711963 1.20606
-0.268716 -0.0696537 1.20501
-0.26906 -0.0681097 1.20428
-0.269599 -0.06656 1.20417
-0.270213 -0.0650062 1.2043
-0.270903 -0.063448 1.20467
-0.271651 -0.0618845 1.20522
-0.272495 -0.0603126 1.20606
-0.273351 -0.0587369 1.20694
-0.274192 -0.0571587 1.20777
-0.275119 -0.0555706 1.20887
-0.276012 -0.0539811 1.20985
-0.276908 -0.0523878 1.21084
-0.277876 -0.0507839 1.21205
-0.278856 -0.0491747 1.21328
-0.27974 -0.0475705 1.21422
-0.28054 -0.0459714 1.2149
-0.281324 -0.0443711 1.21552
-0.281916 -0.0427909 1.21554
-0.282475 -0.0412135 1.21546
-0.28302 -0.0396371 1.21535
-0.28366 -0.0380488 1.21552
-0.284278 -0.0364619 1.21562
-0.285078 -0.0348486 1.21628
-0.285892 -0.0332311 1.21697
-0.286568 -0.0316307 1.21725
-0.287152 -0.0300431 1.21724
-0.287712 -0.028459 1.21715
-0.288213 -0.026884 1.21689
-0.264653 -0.0903888 1.21082
-0.265397 -0.0888408 1.21137
-0.266063 -0.0872882 1.21166
-0.266762 -0.0857347 1.21206
-0.267529 -0.0841803 1.21268
-0.268012 -0.0826197 1.21237
-0.268421 -0.0810587 1.21184
-0.268822 -0.0794988 1.21128
-0.269199 -0.0779399 1.21064
-0.269465 -0.0763837 1.20965
-0.269714 -0.07483 1.20861
-0.269908 -0.0732798 1.2074
-0.270064 -0.071734 1.20607
-0.270264 -0.0701905 1.20489
-0.270599 -0.0686456 1.20413
-0.2712 -0.0670925 1.20422
-0.271855 -0.0655359 1.20447
-0.272583 -0.0639747 1.20495
-0.2734 -0.0624061 1.20571
-0.274245 -0.0608327 1.20656
-0.275012 -0.0592613 1.20715
-0.275714 -0.0576916 1.20754
-0.276494 -0.0561143 1.20817
-0.277241 -0.0545368 1.20869
-0.278031 -0.0529537 1.20935
-0.278971 -0.0513543 1.21046
-0.27995 -0.0497474 1.21169
-0.280865 -0.0481425 1.21272
-0.281664 -0.046545 1.21339
-0.282449 -0.0449466 1.21401
-0.283035 -0.0433681 1.21401
-0.28365 -0.0417852 1.21411
-0.284232 -0.0402054 1.2141
-0.28495 -0.038608 1.21451
-0.285623 -0.0370142 1.21478
-0.286474 -0.0353951 1.21559
-0.287337 -0.033771 1.21642
-0.288089 -0.0321596 1.21693
-0.288716 -0.0305649 1.21705
-0.28938 -0.0289635 1.21728
-0.290017 -0.0273655 1.21742
-0.266792 -0.0893886 1.21074
-0.267463 -0.0878363 1.21105
-0.268148 -0.0862821 1.2114
-0.268933 -0.0847285 1.21207
-0.269486 -0.0831686 1.21199
-0.269965 -0.0816073 1.21168
-0.270468 -0.0800467 1.21144
-0.270945 -0.0784859 1.21112
-0.271335 -0.0769263 1.21053
-0.271652 -0.0753687 1.2097
-0.271849 -0.0738149 1.2085
-0.27194 -0.0722667 1.20697
-0.272062 -0.0707217 1.20555
-0.272334 -0.0691762 1.20459
-0.272912 -0.067622 1.2046
-0.273607 -0.0660622 1.20498
-0.27437 -0.0644973 1.20556
-0.275189 -0.0629272 1.20632
-0.276034 -0.0613525 1.20715
-0.276702 -0.059785 1.20743
-0.27726 -0.0582235 1.20737
-0.27792 -0.0566545 1.20763
-0.278547 -0.0550864 1.20777
-0.279209 -0.0535144 1.20803
-0.280084 -0.0519224 1.20894
-0.281031 -0.0503205 1.21006
-0.281908 -0.0487208 1.21097
-0.282703 -0.0471263 1.21162
-0.283456 -0.0455331 1.21214
-0.284049 -0.0439556 1.21217
-0.284736 -0.0423664 1.21249
-0.285393 -0.0407791 1.21271
-0.28616 -0.0391767 1.21327
-0.286912 -0.0375742 1.21377
-0.28784 -0.0359456 1.2148
-0.288736 -0.0343177 1.21574
-0.289529 -0.0327007 1.21636
-0.29023 -0.031095 1.2167
-0.290947 -0.0294852 1.21708
-0.291632 -0.0278786 1.21737
-0.292374 -0.0262608 1.21783
-0.268124 -0.0899345 1.20991
-0.268809 -0.0883825 1.21026
-0.269517 -0.0868296 1.21068
-0.270313 -0.0852765 1.21138
-0.270934 -0.0837172 1.21152
-0.27149 -0.0821565 1.21145
-0.27206 -0.0805953 1.21142
-0.272663 -0.0790334 1.2115
-0.273184 -0.0774711 1.21132
-0.273574 -0.0759095 1.21073
-0.273809 -0.0743516 1.20965
-0.273888 -0.0727999 1.20808
-0.274029 -0.0712508 1.20672
-0.274301 -0.0697014 1.20577
-0.274862 -0.0681448 1.20572
-0.275568 -0.0665818 1.20612
-0.27636 -0.0650131 1.20679
-0.277138 -0.0634423 1.20741
-0.277862 -0.0618717 1.20786
-0.278459 -0.0603066 1.20792
-0.278904 -0.0587502 1.2075
-0.279416 -0.0571902 1.2073
-0.279873 -0.0556341 1.20692
-0.280465 -0.0540682 1.20696
-0.281246 -0.0524854 1.20757
-0.282123 -0.0508912 1.20848
-0.282958 -0.0492975 1.20926
-0.283746 -0.0477055 1.20989
-0.284507 -0.0461137 1.21043
-0.285176 -0.0445297 1.21069
-0.285946 -0.0429322 1.21125
-0.286681 -0.0413369 1.21171
-0.287491 -0.0397304 1.21239
-0.288304 -0.0381205 1.21307
-0.289226 -0.0364936 1.21408
-0.290115 -0.0348673 1.21499
-0.290935 -0.0332468 1.21569
-0.291679 -0.0316354 1.21615
-0.292398 -0.0300251 1.21654
-0.293102 -0.0284155 1.21688
-0.293834 -0.0267997 1.2173
-0.293197 -0.0246279 1.21852
-0.294567 -0.0251818 1.21773
-0.294113 -0.0229766 1.21949
-0.295348 -0.0235538 1.21829
-0.274873 -0.104927 1.24875
-0.273926 -0.106506 1.24761
-0.275141 -0.107056 1.24621
-0.27609 -0.105479 1.24735
-0.275645 -0.103329 1.24933
-0.276873 -0.103883 1.24795
-0.27647 -0.101732 1.25007
-0.277622 -0.102281 1.24845
-0.277177 -0.100124 1.25041
-0.278257 -0.100669 1.24857
-0.279037 -0.099066 1.24915
-0.270496 -0.0889406 1.21056
-0.271107 -0.0873833 1.21066
-0.271849 -0.0858281 1.21118
-0.272478 -0.0842684 1.21135
-0.273069 -0.0827068 1.21139
-0.273682 -0.0811448 1.2115
-0.274356 -0.0795819 1.21179
-0.274984 -0.0780175 1.21194
-0.275455 -0.076453 1.2116
-0.275764 -0.074891 1.21076
-0.275935 -0.0733337 1.20948
-0.27616 -0.0717782 1.20838
-0.276495 -0.070223 1.20762
-0.277068 -0.0686614 1.20761
-0.277746 -0.0670959 1.20791
-0.278495 -0.0655252 1.20844
-0.27917 -0.0639558 1.20874
-0.279759 -0.0623891 1.20877
-0.280255 -0.0608272 1.2085
-0.280602 -0.0592749 1.20779
-0.280979 -0.0577222 1.20716
-0.281299 -0.0561746 1.20637
-0.281787 -0.0546162 1.20609
-0.28246 -0.0530428 1.20638
-0.283299 -0.0514536 1.20716
-0.284094 -0.0498652 1.20781
-0.28495 -0.0482684 1.20864
-0.285783 -0.0466705 1.2094
-0.286598 -0.0450716 1.21009
-0.287446 -0.043466 1.21089
-0.28822 -0.0418658 1.21146
-0.28899 -0.0402634 1.21202
-0.289728 -0.0386632 1.21247
-0.290504 -0.0370557 1.21304
-0.291282 -0.0354452 1.21361
-0.292061 -0.0338324 1.21418
-0.292838 -0.0322178 1.21474
-0.293614 -0.0306007 1.21529
-0.294397 -0.0289798 1.21587
-0.295182 -0.0273564 1.21645
-0.29591 -0.0257399 1.21685
-0.296628 -0.024123 1.21723
-0.297367 -0.0225006 1.21766
-0.276346 -0.107605 1.24478
-0.277297 -0.106029 1.24592
-0.278076 -0.104434 1.24652
-0.278776 -0.10283 1.24684
-0.279369 -0.101217 1.24683
-0.280062 -0.0996094 1.24713
-0.280297 -0.097972 1.24597
-0.272452 -0.0895093 1.21169
-0.272675 -0.0879371 1.21057
-0.273332 -0.086379 1.21082
-0.273958 -0.0848187 1.21097
-0.274583 -0.0832571 1.21111
-0.275231 -0.0816947 1.21133
-0.275948 -0.0801312 1.21176
-0.276684 -0.0785659 1.21224
-0.277267 -0.076999 1.21225
-0.277752 -0.0754324 1.21195
-0.27806 -0.0738687 1.2111
-0.27843 -0.0723061 1.21045
-0.278808 -0.0707445 1.20982
-0.279386 -0.0691781 1.20981
-0.279956 -0.0676119 1.20978
-0.280591 -0.0660419 1.20995
-0.281125 -0.0644756 1.2098
-0.281609 -0.0629115 1.2095
-0.282007 -0.0613525 1.20894
-0.282279 -0.0598022 1.208
-0.282557 -0.0582538 1.20708
-0.282805 -0.0567103 1.20606
-0.283149 -0.0551614 1.20535
-0.283709 -0.0535976 1.20528
-0.284472 -0.0520156 1.20584
-0.285266 -0.0504287 1.20648
-0.28617 -0.0488291 1.20745
-0.287147 -0.0472178 1.20863
-0.28811 -0.045604 1.20977
-0.289032 -0.0439905 1.21079
-0.289837 -0.0423864 1.21144
-0.290525 -0.040793 1.21175
-0.291148 -0.0392062 1.21186
-0.291778 -0.0376176 1.21198
-0.292449 -0.0360226 1.21223
-0.293117 -0.0344262 1.21247
-0.293888 -0.0328141 1.21301
-0.294669 -0.0311985 1.21358
-0.295493 -0.0295738 1.21427
-0.296318 -0.0279461 1.21496
-0.2971 -0.0263223 1.21553
-0.29786 -0.0246998 1.21602
-0.298629 -0.0230734 1.21654
-0.298085 -0.0208804 1.21803
-0.299374 -0.0214491 1.21699
-0.300115 -0.0198234 1.21742
-0.2766 -0.109723 1.24222
-0.27739 -0.108138 1.24285
-0.278226 -0.106554 1.24361
-0.278998 -0.104961 1.24418
-0.27967 -0.103358 1.24441
-0.280218 -0.101744 1.24426
-0.280801 -0.100132 1.24422
-0.281084 -0.0985008 1.24321
-0.27594 -0.091734 1.21946
-0.274783 -0.0900945 1.21399
-0.274582 -0.0885027 1.21154
-0.274853 -0.0869316 1.21056
-0.275441 -0.0853698 1.21059
-0.27606 -0.0838077 1.21071
-0.276739 -0.0822449 1.21103
-0.277496 -0.0806815 1.21157
-0.278337 -0.0791153 1.21238
-0.279055 -0.0775465 1.2128
-0.279717 -0.0759761 1.21305
-0.280187 -0.0744068 1.2127
-0.280685 -0.0728373 1.21244
-0.281109 -0.07127 1.21195
-0.281582 -0.0697023 1.21162
-0.282033 -0.0681354 1.21121
-0.282522 -0.0665681 1.21093
-0.282916 -0.0650047 1.21035
-0.283296 -0.0634436 1.20973
-0.283678 -0.0618833 1.20912
-0.283914 -0.0603333 1.20807
-0.284153 -0.0587855 1.20703
-0.28436 -0.0572426 1.2059
-0.284656 -0.0556963 1.20503
-0.285104 -0.0541403 1.20464
-0.285822 -0.0525622 1.20505
-0.286625 -0.0509755 1.20571
-0.287611 -0.0493685 1.20693
-0.288683 -0.0477489 1.20839
-0.289762 -0.0461237 1.20986
-0.290688 -0.044509 1.21088
-0.291489 -0.0429042 1.21152
-0.292099 -0.0413191 1.21159
-0.292611 -0.0397451 1.21136
-0.293125 -0.0381703 1.21115
-0.29365 -0.0365945 1.21096
-0.294173 -0.035019 1.21077
-0.294866 -0.0334197 1.21108
-0.295643 -0.0318067 1.21163
-0.296445 -0.0301874 1.21226
-0.297346 -0.0285506 1.21317
-0.298232 -0.0269129 1.21404
-0.299079 -0.0252779 1.21478
-0.299885 -0.023647 1.21541
-0.300684 -0.0220146 1.21601
-0.301421 -0.0203902 1.21643
-0.300857 -0.0181962 1.21785
-0.302142 -0.0187667 1.2168
-0.302714 -0.0171697 1.21673
-0.273568 -0.116052 1.24009
-0.274507 -0.118232 1.23975
-0.274885 -0.116607 1.23906
-0.273941 -0.114429 1.23938
-0.275211 -0.114978 1.2382
-0.274564 -0.112835 1.23948
-0.275809 -0.113382 1.23822
-0.275608 -0.111284 1.24094
-0.27663 -0.111809 1.23895
-0.277505 -0.110239 1.23985
-0.278258 -0.108653 1.24036
-0.279036 -0.107067 1.24094
-0.279805 -0.105477 1.24149
-0.280432 -0.103873 1.24159
-0.281015 -0.102265 1.24154
-0.281553 -0.100653 1.24136
-0.281876 -0.0990277 1.2405
-0.281938 -0.0973886 1.23881
-0.279858 -0.0951506 1.23556
-0.281217 -0.0957115 1.23466
-0.279728 -0.0940093 1.22812
-0.278403 -0.0923355 1.22212
-0.277185 -0.0906852 1.21647
-0.276639 -0.0890754 1.21294
-0.276594 -0.0874909 1.21099
-0.276922 -0.0859212 1.21021
-0.277472 -0.0843572 1.21011
-0.278152 -0.0827946 1.21042
-0.278912 -0.0812311 1.21097
-0.279755 -0.079665 1.21179
-0.280475 -0.0780964 1.21221
-0.281275 -0.0765251 1.21288
-0.281904 -0.0749525 1.21302
-0.282534 -0.0733792 1.21316
-0.283063 -0.0718069 1.21299
-0.283578 -0.0702347 1.21278
-0.283908 -0.0686685 1.212
-0.284224 -0.0671046 1.21119
-0.284543 -0.0655425 1.21039
-0.284821 -0.0639846 1.20946
-0.285131 -0.062427 1.20863
-0.285358 -0.0608761 1.20756
-0.285561 -0.0593294 1.20641
-0.285737 -0.057788 1.20519
-0.285995 -0.0562434 1.20422
-0.286402 -0.0546905 1.2037
-0.287081 -0.0531166 1.20399
-0.287922 -0.0515273 1.20476
-0.288956 -0.0499174 1.20611
-0.290144 -0.0482878 1.20791
-0.291367 -0.0466488 1.2098
-0.292339 -0.0450289 1.21095
-0.293141 -0.0434237 1.21158
-0.293747 -0.0418378 1.21164
-0.294182 -0.0402713 1.21119
-0.294555 -0.0387131 1.21055
-0.294996 -0.0371475 1.21012
-0.295435 -0.0355831 1.20968
-0.296016 -0.0339997 1.20967
-0.296756 -0.0323936 1.21011
-0.297557 -0.0307762 1.21073
-0.298464 -0.0291404 1.21166
-0.299365 -0.0275024 1.21256
-0.300289 -0.0258571 1.21352
-0.301152 -0.0242178 1.21431
-0.301988 -0.0225804 1.21501
-0.302743 -0.0209537 1.21548
-0.303465 -0.0193314 1.21585
-0.304049 -0.0177318 1.21582
-0.304552 -0.0161468 1.21556
-0.274363 -0.11989 1.2412
-0.275404 -0.120407 1.23927
-0.275719 -0.118773 1.23838
-0.276155 -0.117156 1.23787
-0.276517 -0.115532 1.23713
-0.277086 -0.113933 1.23706
-0.277746 -0.112343 1.23727
-0.278501 -0.110762 1.23778
-0.279173 -0.109171 1.23803
-0.279858 -0.107579 1.23832
-0.280589 -0.105989 1.23875
-0.281213 -0.104388 1.23885
-0.281806 -0.102785 1.23883
-0.28238 -0.101179 1.23877
-0.282777 -0.0995605 1.23814
-0.282904 -0.097927 1.23667
-0.282437 -0.0962643 1.23334
-0.281718 -0.0945992 1.22924
-0.280648 -0.0929307 1.22406
-0.279506 -0.0912762 1.21867
-0.278786 -0.0896535 1.21461
-0.27852 -0.0880572 1.21198
-0.2786 -0.0864777 1.21043
-0.279077 -0.0849106 1.21011
-0.279726 -0.0833468 1.21031
-0.280426 -0.0817818 1.21068
-0.281205 -0.0802154 1.21128
-0.281882 -0.0786464 1.21157
-0.282708 -0.0770752 1.21231
-0.283379 -0.075502 1.21258
-0.284025 -0.0739278 1.21277
-0.284623 -0.0723536 1.21281
-0.285158 -0.0707798 1.21266
-0.285448 -0.0692137 1.21176
-0.285694 -0.0676508 1.21074
-0.286014 -0.0660876 1.20994
-0.286253 -0.0645304 1.2089
-0.286492 -0.0629754 1.20786
-0.28668 -0.061426 1.20668
-0.286857 -0.0598807 1.20546
-0.287038 -0.0583383 1.20425
-0.287271 -0.0567952 1.20321
-0.287711 -0.0552399 1.20279
-0.288424 -0.0536636 1.20318
-0.289332 -0.0520694 1.20415
-0.290441 -0.0504538 1.20571
-0.291737 -0.0488153 1.20782
-0.293035 -0.0471691 1.20993
-0.294017 -0.0455478 1.21109
-0.294825 -0.0439408 1.21174
-0.295405 -0.0423566 1.21171
-0.29577 -0.0407962 1.21106
-0.296036 -0.0392496 1.21011
-0.296391 -0.0376944 1.20942
-0.296715 -0.036144 1.20866
-0.297183 -0.0345767 1.2083
-0.297882 -0.0329775 1.20863
-0.298678 -0.0313626 1.20923
-0.299625 -0.0297233 1.21026
-0.300598 -0.0280756 1.21137
-0.301606 -0.0264184 1.21258
-0.302513 -0.024773 1.21349
-0.303387 -0.0231302 1.21429
-0.30414 -0.0215043 1.21475
-0.304849 -0.0198842 1.21508
-0.305464 -0.0182792 1.21514
-0.305974 -0.0166932 1.21489
-0.306553 -0.0150939 1.21485
-0.276124 -0.122557 1.23823
-0.276608 -0.120946 1.23787
-0.276969 -0.119318 1.23713
-0.277462 -0.11771 1.23681
-0.277804 -0.116083 1.236
-0.278287 -0.114474 1.23566
-0.278854 -0.112876 1.23558
-0.279491 -0.111284 1.23572
-0.280089 -0.109687 1.23573
-0.280716 -0.108093 1.23583
-0.281447 -0.106506 1.23627
-0.282075 -0.104909 1.23637
-0.282666 -0.103308 1.23635
-0.283248 -0.101705 1.23632
-0.283687 -0.100092 1.23583
-0.283859 -0.0984632 1.2345
-0.283807 -0.0968253 1.23249
-0.283461 -0.0951778 1.22957
-0.282597 -0.0935148 1.22505
-0.281743 -0.0918665 1.22058
-0.280919 -0.0902334 1.21622
-0.280452 -0.0886257 1.21297
-0.280401 -0.0870389 1.21102
-0.280806 -0.0854681 1.21047
-0.281389 -0.0839011 1.21047
-0.281992 -0.0823339 1.21054
-0.282666 -0.0807662 1.21081
-0.283222 -0.0791966 1.21073
-0.28393 -0.0776263 1.21111
-0.284524 -0.076055 1.21114
-0.285166 -0.074482 1.21132
-0.285772 -0.0729087 1.21138
-0.286344 -0.0713353 1.21134
-0.286678 -0.069768 1.21058
-0.286963 -0.068204 1.20968
-0.287318 -0.0666396 1.20899
-0.287553 -0.0650819 1.20794
-0.287789 -0.0635272 1.2069
-0.287977 -0.0619775 1.20571
-0.288184 -0.0604298 1.20459
-0.288406 -0.0588841 1.20352
-0.288713 -0.0573357 1.2027
-0.289194 -0.0557765 1.2024
-0.289947 -0.0541972 1.20291
-0.29086 -0.0526024 1.20388
-0.291975 -0.0509866 1.20545
-0.293308 -0.0493452 1.20766
-0.294614 -0.0476989 1.20978
-0.295634 -0.0460738 1.21104
-0.296484 -0.0444619 1.21181
-0.297098 -0.0428727 1.21188
-0.297433 -0.0413142 1.21113
-0.297657 -0.0397704 1.21007
-0.297934 -0.0382228 1.20916
-0.29818 -0.0366816 1.20816
-0.298543 -0.0351273 1.20751
-0.299169 -0.0335385 1.20762
-0.299921 -0.0319308 1.20809
-0.300898 -0.0302884 1.2092
-0.301914 -0.0286359 1.21043
