ply
format ascii 1.0
element vertex 1667
property float x
property float y
property float z
end_header
0.114286 -0.0879977 0.224407
0.114473 -0.0877989 0.223707
0.114646 -0.0875918 0.222986
0.114805 -0.0873773 0.222245
0.114963 -0.0871629 0.221505
0.115144 -0.0869655 0.220811
0.115343 -0.0867813 0.220154
0.115571 -0.0866176 0.219553
0.115855 -0.0864911 0.219054
0.11619 -0.0863989 0.218649
0.116568 -0.0863357 0.218322
0.116938 -0.086267 0.217981
0.117319 -0.0862065 0.217662
0.117656 -0.0861175 0.217266
0.117906 -0.0859731 0.21672
0.118149 -0.0858248 0.216165
0.118417 -0.0856932 0.215655
0.11871 -0.0855786 0.215191
0.119062 -0.0855025 0.214832
0.119482 -0.0854696 0.214589
0.119847 -0.0854024 0.214253
0.120207 -0.0853316 0.213908
0.120575 -0.0852666 0.213579
0.120947 -0.0852048 0.213259
0.121325 -0.0851468 0.212949
0.121743 -0.0851138 0.212706
0.122159 -0.0850794 0.212461
0.122574 -0.0850446 0.212214
0.12299 -0.0850113 0.211971
0.123421 -0.0849868 0.211751
0.123784 -0.0849204 0.211419
0.124137 -0.0848486 0.211073
0.124495 -0.0847806 0.210737
0.124876 -0.0847259 0.210438
0.125296 -0.0846952 0.210202
0.125789 -0.0847096 0.210086
0.126266 -0.0847132 0.209943
0.126725 -0.0847061 0.20977
0.127195 -0.0847054 0.209614
0.127641 -0.0846905 0.209421
0.128119 -0.0846945 0.209278
0.128596 -0.0846984 0.209134
0.129113 -0.0847245 0.20905
0.0677928 -0.114661 0.325251
0.0672558 -0.11409 0.325684
0.0671054 -0.113119 0.322597
0.0673448 -0.113301 0.321031
0.0670238 -0.112251 0.319819
0.0673381 -0.111904 0.318598
0.0679655 -0.111965 0.318589
0.0685722 -0.111998 0.318498
0.0692111 -0.112071 0.318527
0.0704723 -0.113563 0.320851
0.0701907 -0.112574 0.31983
0.111465 -0.0887125 0.227625
0.111521 -0.0882442 0.227777
0.111952 -0.0882066 0.227516
0.112366 -0.0881586 0.227225
0.112744 -0.0880858 0.226867
0.113122 -0.0880131 0.22651
0.11344 -0.0879006 0.226042
0.113703 -0.0877509 0.225473
0.113947 -0.0875896 0.224873
0.114163 -0.0874103 0.224223
0.114366 -0.0872238 0.223555
0.114543 -0.0870213 0.222843
0.114717 -0.0868173 0.222127
0.114873 -0.0866032 0.221385
0.115066 -0.0864153 0.220715
0.115267 -0.0862332 0.220061
0.115512 -0.086081 0.21949
0.115821 -0.0859725 0.219038
0.11617 -0.0858901 0.218658
0.11655 -0.085828 0.218335
0.11692 -0.0857604 0.217995
0.1173 -0.0856988 0.217673
0.117633 -0.0856081 0.217271
0.117898 -0.0854739 0.216751
0.118157 -0.0853366 0.216223
0.118456 -0.0852259 0.215768
0.118764 -0.0851211 0.215329
0.119116 -0.0850447 0.214968
0.119533 -0.0850097 0.214719
0.119884 -0.0849338 0.214359
0.12023 -0.084855 0.213992
0.120597 -0.0847899 0.213662
0.120969 -0.0847278 0.21334
0.121347 -0.0846701 0.21303
0.12178 -0.0846462 0.212812
0.122211 -0.0846217 0.212592
0.122642 -0.0845968 0.212372
0.123073 -0.0845723 0.212152
0.123506 -0.0845485 0.211934
0.123895 -0.0844987 0.211647
0.124279 -0.0844457 0.21135
0.124658 -0.0843898 0.211046
0.125055 -0.0843452 0.210773
0.125486 -0.0843215 0.210556
0.125964 -0.084325 0.210412
0.126427 -0.0843206 0.210246
0.126912 -0.0843284 0.210114
0.127398 -0.0843367 0.209982
0.127862 -0.0843322 0.209816
0.128354 -0.0843441 0.209694
0.128843 -0.084354 0.209567
0.066212 -0.11208 0.321609
0.0664378 -0.111613 0.320021
0.0666951 -0.111194 0.318574
0.0673242 -0.111257 0.318575
0.0679495 -0.111315 0.318561
0.0685779 -0.111375 0.318552
0.069209 -0.111439 0.318552
0.0699164 -0.111596 0.318834
0.111633 -0.0878135 0.228035
0.112019 -0.0877454 0.227688
0.112389 -0.087667 0.227313
0.112725 -0.0875659 0.226876
0.113056 -0.0874614 0.226429
0.113343 -0.0873289 0.225905
0.113567 -0.0871538 0.225264
0.11381 -0.0869931 0.224663
0.11404 -0.0868246 0.224041
0.114259 -0.0866502 0.223403
0.114441 -0.0864518 0.222699
0.114629 -0.0862585 0.222011
0.114784 -0.0860449 0.221267
0.114991 -0.085867 0.220622
0.115205 -0.085695 0.219994
0.115478 -0.0855623 0.219474
0.115813 -0.0854707 0.219067
0.116177 -0.0853983 0.218715
0.116558 -0.0853375 0.218393
0.116916 -0.0852623 0.218032
0.117294 -0.0852 0.217707
0.117627 -0.0851091 0.217304
0.117906 -0.0849847 0.216809
0.118182 -0.0848592 0.216311
0.118513 -0.0847689 0.215911
0.118836 -0.0846738 0.215497
0.119186 -0.0845972 0.215134
0.119586 -0.0845514 0.214855
0.119933 -0.0844733 0.214488
0.120265 -0.0843858 0.214097
0.12062 -0.0843135 0.213746
0.120992 -0.0842514 0.213423
0.121369 -0.0841931 0.213112
0.121801 -0.0841692 0.212893
0.122247 -0.0841532 0.212697
0.122692 -0.0841372 0.2125
0.123137 -0.0841212 0.212303
0.123583 -0.0841052 0.212106
0.123988 -0.0840652 0.211844
0.12439 -0.0840228 0.211576
0.12479 -0.0839794 0.211305
0.125204 -0.0839453 0.211059
0.125636 -0.083922 0.210843
0.126097 -0.0839155 0.210672
0.12657 -0.0839164 0.210521
0.127071 -0.0839332 0.210412
0.127561 -0.0839437 0.210287
0.12804 -0.0839477 0.210144
0.128544 -0.0839661 0.21004
0.129047 -0.0839835 0.209933
0.0655386 -0.111328 0.321472
0.0655057 -0.110526 0.318862
0.0660767 -0.110515 0.318642
0.0666405 -0.110494 0.318392
0.0672793 -0.110571 0.318435
0.0679253 -0.110655 0.3185
0.0685848 -0.110755 0.318612
0.0692194 -0.110822 0.318625
0.0699271 -0.110979 0.318906
0.0708684 -0.112056 0.320018
0.0706009 -0.111092 0.319058
0.111366 -0.0874545 0.228653
0.111737 -0.0873764 0.228277
0.112073 -0.0872743 0.227834
0.1124 -0.0871668 0.227377
0.112693 -0.0870372 0.226859
0.113007 -0.0869223 0.226382
0.113267 -0.0867722 0.225807
0.113477 -0.0865891 0.225141
0.113708 -0.0864212 0.224519
0.11395 -0.0862617 0.22392
0.114184 -0.0860975 0.223308
0.114379 -0.0859097 0.22263
0.114568 -0.0857183 0.221944
0.114734 -0.0855132 0.221221
0.114953 -0.0853444 0.220598
0.115171 -0.0851756 0.219976
0.11546 -0.0850538 0.219485
0.11581 -0.0849722 0.219106
0.116186 -0.0849085 0.218775
0.116567 -0.0848476 0.218453
0.116913 -0.0847648 0.21807
0.11729 -0.0847022 0.217743
0.11761 -0.0846037 0.217318
0.117902 -0.0844884 0.216847
0.118195 -0.0843739 0.216378
0.118554 -0.0843018 0.216025
0.118892 -0.0842166 0.215638
0.119255 -0.0841483 0.215296
0.119639 -0.0840929 0.214991
0.119985 -0.0840136 0.214621
0.120316 -0.0839262 0.214227
0.120659 -0.0838465 0.213856
0.12103 -0.0837846 0.213533
0.121405 -0.0837252 0.213218
0.121823 -0.0836925 0.212975
0.122256 -0.0836686 0.212756
0.122701 -0.0836526 0.212559
0.123146 -0.0836366 0.212363
0.123592 -0.0836206 0.212166
0.124024 -0.0835967 0.211948
0.124455 -0.0835722 0.211728
0.124886 -0.0835477 0.211507
0.125317 -0.0835232 0.211288
0.125775 -0.0835152 0.211113
0.126236 -0.0835082 0.21094
0.126711 -0.0835097 0.210791
0.127228 -0.0835356 0.210708
0.127748 -0.0835635 0.21063
0.128245 -0.0835774 0.210514
0.128752 -0.0835968 0.210413
0.12931 -0.0836459 0.210392
0.0647565 -0.110434 0.320898
0.0651107 -0.110137 0.319807
0.0654147 -0.109779 0.318534
0.0660191 -0.109812 0.318447
0.0665944 -0.109808 0.318246
0.0672461 -0.109901 0.31834
0.0679043 -0.11 0.318452
0.0685865 -0.110127 0.31865
0.0692355 -0.110212 0.318717
0.0699446 -0.110369 0.319005
0.0706172 -0.11048 0.319149
0.0715723 -0.11157 0.320301
0.071296 -0.110597 0.319313
0.0725664 -0.112069 0.321609
0.0719743 -0.110712 0.319469
0.111108 -0.0871021 0.229293
0.111443 -0.0869986 0.228844
0.111778 -0.0868957 0.228399
0.112084 -0.0867739 0.2279
0.112386 -0.0866501 0.227395
0.112665 -0.0865119 0.226851
0.112952 -0.0863791 0.226322
0.113198 -0.0862206 0.225722
0.113407 -0.086038 0.225055
0.113638 -0.085871 0.224432
0.11388 -0.0857127 0.223834
0.114138 -0.0855656 0.223268
0.114346 -0.085387 0.222614
0.114535 -0.0851972 0.221929
0.114714 -0.0850012 0.221229
0.114945 -0.0848414 0.220628
0.115153 -0.0846668 0.219989
0.115444 -0.0845473 0.219502
0.115809 -0.0844755 0.219148
0.116184 -0.0844112 0.218816
0.116565 -0.0843507 0.218494
0.116922 -0.0842752 0.21813
0.117299 -0.084213 0.217804
0.117631 -0.0841226 0.2174
0.117949 -0.0840242 0.216973
0.118256 -0.0839188 0.216528
0.11863 -0.0838563 0.216201
0.118982 -0.0837804 0.215838
0.119346 -0.0837121 0.215497
0.119719 -0.0836501 0.215172
0.120064 -0.0835711 0.214801
0.120397 -0.0834846 0.214409
0.120728 -0.0833981 0.214017
0.121084 -0.083327 0.213669
0.121444 -0.0832583 0.213327
0.121846 -0.0832161 0.213058
0.122265 -0.0831837 0.212816
0.12271 -0.0831677 0.212619
0.123155 -0.0831517 0.212422
0.123601 -0.0831357 0.212226
0.124059 -0.0831276 0.21205
0.124506 -0.0831122 0.211855
0.124951 -0.0830966 0.211659
0.12541 -0.0830881 0.211483
0.125883 -0.0830881 0.21133
0.126345 -0.0830823 0.211161
0.12685 -0.0831012 0.211059
0.127398 -0.083145 0.211026
0.127939 -0.0831847 0.21098
0.12848 -0.083223 0.210931
0.129016 -0.0832591 0.210876
0.0640325 -0.109616 0.320542
0.0640153 -0.108834 0.31797
0.0647074 -0.108984 0.31824
0.0653256 -0.109037 0.318215
0.0659622 -0.109111 0.318256
0.0665695 -0.109149 0.318182
0.0672344 -0.109258 0.318327
0.0679161 -0.109385 0.318528
0.0686214 -0.109541 0.318814
0.0692835 -0.109642 0.318932
0.0699962 -0.109803 0.319233
0.0706681 -0.109912 0.319374
0.0713348 -0.110012 0.31949
0.0719879 -0.110095 0.319552
0.072964 -0.111201 0.320755
0.072673 -0.110215 0.319727
0.111175 -0.0866383 0.229466
0.111508 -0.0865339 0.229013
0.111805 -0.0864054 0.228494
0.112072 -0.0862581 0.227921
0.112354 -0.0861215 0.227379
0.112622 -0.0859763 0.226813
0.112895 -0.0858355 0.22626
0.113141 -0.0856776 0.225659
0.113362 -0.0855038 0.225015
0.113593 -0.0853383 0.224393
0.113848 -0.0851893 0.22382
0.114119 -0.0850514 0.223277
0.114342 -0.0848836 0.222651
0.114546 -0.0847039 0.221992
0.114738 -0.0845184 0.221317
0.11497 -0.0843592 0.220717
0.115189 -0.0841928 0.220097
0.115479 -0.0840734 0.219609
0.115832 -0.083994 0.219234
0.116207 -0.0839299 0.2189
0.116587 -0.0838689 0.218576
0.116943 -0.0837937 0.218213
0.117321 -0.0837324 0.217888
0.117666 -0.0836504 0.217506
0.117999 -0.0835612 0.217104
0.118319 -0.0834647 0.216682
0.118695 -0.0834035 0.216358
0.11906 -0.083336 0.216017
0.119425 -0.0832686 0.215677
0.1198 -0.0832075 0.215354
0.120159 -0.0831374 0.215007
0.120494 -0.0830527 0.214618
0.120825 -0.0829661 0.214226
0.121181 -0.0828949 0.213876
0.121537 -0.0828243 0.213527
0.121924 -0.0827729 0.213233
0.122342 -0.0827398 0.212989
0.122774 -0.0827163 0.212771
0.123206 -0.0826918 0.212551
0.12365 -0.0826751 0.212351
0.124109 -0.0826673 0.212178
0.124558 -0.0826529 0.211986
0.125018 -0.0826459 0.211813
0.125491 -0.0826455 0.211659
0.125978 -0.0826544 0.21153
0.126471 -0.0826657 0.211408
0.12701 -0.0827037 0.21136
0.127604 -0.0827742 0.2114
0.128203 -0.0828466 0.211445
0.128792 -0.0829122 0.211471
0.129362 -0.0829671 0.211468
0.0641021 -0.110476 0.323359
0.0633293 -0.108824 0.320261
0.0636493 -0.108483 0.319029
0.063972 -0.108152 0.317825
0.0646425 -0.108274 0.318013
0.0652708 -0.10834 0.318029
0.0659179 -0.108429 0.318115
0.0665483 -0.108495 0.31813
0.0672244 -0.108618 0.31832
0.0679272 -0.108772 0.318604
0.0686553 -0.108954 0.318976
0.0693305 -0.10907 0.319141
0.0700556 -0.109246 0.319489
0.0707189 -0.109342 0.319596
0.0713729 -0.109426 0.319664
0.0720129 -0.109493 0.319679
0.0726735 -0.109582 0.319762
0.0736103 -0.110635 0.320809
0.0733023 -0.109633 0.319728
0.0745769 -0.111085 0.321981
0.0739574 -0.109714 0.319786
0.110923 -0.086289 0.230123
0.111217 -0.0861575 0.229592
0.111517 -0.0860312 0.229076
0.11178 -0.0858807 0.228492
0.112021 -0.085716 0.227868
0.112304 -0.0855808 0.227328
0.112571 -0.0854362 0.226761
0.112832 -0.0852885 0.226187
0.113077 -0.0851302 0.225583
0.113297 -0.0849572 0.224938
0.113532 -0.0847948 0.224323
0.113802 -0.0846574 0.223779
0.114089 -0.0845301 0.223265
0.11435 -0.084388 0.222709
0.114583 -0.0842288 0.222105
0.114795 -0.0840562 0.221464
0.115027 -0.0838977 0.220864
0.115266 -0.0837453 0.220281
0.11554 -0.0836158 0.219762
0.115866 -0.0835199 0.219339
0.116242 -0.0834565 0.219008
0.116621 -0.0833955 0.218682
0.116978 -0.0833207 0.218319
0.117345 -0.0832524 0.217975
0.117693 -0.0831726 0.217597
0.118039 -0.0830921 0.217219
0.118375 -0.083006 0.216824
0.118753 -0.0829458 0.216503
0.119143 -0.0828941 0.216205
0.119533 -0.0828426 0.215908
0.119922 -0.0827904 0.215609
0.120298 -0.0827299 0.215288
0.120646 -0.0826536 0.214922
0.120964 -0.0825592 0.214506
0.121306 -0.0824796 0.214131
0.121647 -0.0823998 0.213757
0.122021 -0.0823406 0.213439
0.122426 -0.0822999 0.213173
0.122857 -0.0822754 0.212953
0.123288 -0.0822503 0.212731
0.123731 -0.0822327 0.21253
0.124191 -0.0822253 0.212357
0.124641 -0.0822119 0.212167
0.125105 -0.0822066 0.211999
0.125577 -0.0822061 0.211845
0.12608 -0.0822229 0.211739
0.126604 -0.0822524 0.211668
0.127174 -0.0823081 0.211668
0.127802 -0.0823971 0.211761
0.128435 -0.0824881 0.211859
0.129056 -0.0825717 0.211935
0.0627294 -0.108167 0.320391
0.0626483 -0.107302 0.317531
0.0633156 -0.107423 0.317717
0.0639727 -0.107529 0.317859
0.0646216 -0.107622 0.317961
0.0652496 -0.107688 0.317978
0.0659074 -0.107789 0.318105
0.066549 -0.107869 0.318164
0.0672261 -0.107992 0.318357
0.0679496 -0.108171 0.318721
0.0686881 -0.108366 0.319134
0.0693761 -0.108496 0.319347
0.0701019 -0.108671 0.319695
0.0707532 -0.108752 0.319758
0.0713947 -0.10882 0.319779
0.072024 -0.108873 0.319752
0.0726614 -0.108935 0.319753
0.0732665 -0.108958 0.319634
0.0739068 -0.109021 0.319638
0.0746392 -0.109825 0.319934
0.0745618 -0.1091 0.319692
0.0754533 -0.110089 0.320547
0.0753513 -0.109335 0.320221
0.0765553 -0.110684 0.322166
0.076182 -0.109614 0.320884
0.11094 -0.0857898 0.230199
0.111189 -0.0856289 0.229581
0.11145 -0.0854768 0.22899
0.111665 -0.0852955 0.228316
0.111892 -0.0851227 0.227666
0.112174 -0.0849881 0.227126
0.112442 -0.0848444 0.226562
0.112701 -0.0846963 0.225984
0.112957 -0.0845471 0.225403
0.113204 -0.0843932 0.22481
0.113455 -0.084242 0.224225
0.113755 -0.0841244 0.223736
0.114067 -0.084015 0.22327
0.11437 -0.0839006 0.22279
0.114647 -0.0837701 0.222266
0.114903 -0.0836268 0.221705
0.115141 -0.0834726 0.221114
0.115375 -0.0833174 0.220521
0.115631 -0.0831764 0.219969
0.115917 -0.0830559 0.219475
0.116268 -0.0829769 0.219097
0.116646 -0.0829153 0.21877
0.117015 -0.0828484 0.218428
0.117383 -0.082781 0.218085
0.117747 -0.0827114 0.217736
0.118106 -0.0826397 0.217381
0.118457 -0.0825625 0.21701
0.118835 -0.0825033 0.216691
0.119228 -0.0824531 0.216397
0.119633 -0.0824101 0.216123
0.120035 -0.0823664 0.215847
0.120426 -0.0823153 0.215551
0.120801 -0.082255 0.215229
0.121134 -0.08217 0.214838
0.121487 -0.0820972 0.214481
0.121817 -0.0820111 0.214087
0.122177 -0.0819433 0.213746
0.122555 -0.0818864 0.213434
0.122972 -0.081853 0.213188
0.123375 -0.0818118 0.21292
0.123817 -0.0817932 0.212717
0.124277 -0.0817856 0.212543
0.124729 -0.0817729 0.212355
0.125205 -0.0817747 0.212207
0.125694 -0.0817833 0.212079
0.126225 -0.0818163 0.212018
0.126778 -0.0818626 0.211994
0.127381 -0.0819363 0.212046
0.128029 -0.0820354 0.212168
0.128677 -0.0821342 0.212289
0.129301 -0.0822185 0.212369
0.0628702 -0.109122 0.323532
0.0621689 -0.107563 0.32068
0.0624463 -0.107168 0.319265
0.0627268 -0.106781 0.317877
0.06336 -0.106857 0.317926
0.0639865 -0.106921 0.317944
0.0646215 -0.106997 0.317992
0.0652399 -0.10705 0.31797
0.0658984 -0.107151 0.3181
0.0665504 -0.107244 0.318202
0.0672375 -0.107379 0.318433
0.0679618 -0.107557 0.3188
0.0687016 -0.107752 0.319216
0.0693893 -0.107882 0.319429
0.0701031 -0.108041 0.319733
0.0707522 -0.108119 0.319786
0.0713803 -0.108171 0.31976
0.0719962 -0.108209 0.319686
0.0726255 -0.108259 0.319656
0.0732303 -0.108282 0.319537
0.0738589 -0.108331 0.3195
0.0745108 -0.108407 0.319545
0.0752857 -0.108625 0.320024
0.0761034 -0.108887 0.320643
0.0770728 -0.109959 0.321747
0.0769932 -0.109229 0.321503
0.0782498 -0.110625 0.323592
0.0778954 -0.10958 0.322393
0.110681 -0.085434 0.230844
0.110921 -0.0852666 0.230206
0.111133 -0.0850814 0.229517
0.111369 -0.0849139 0.228879
0.111537 -0.0847021 0.228114
0.111774 -0.0845378 0.227487
0.112057 -0.0844043 0.226948
0.112323 -0.0842606 0.226381
0.112569 -0.084105 0.22578
0.112837 -0.0839651 0.225223
0.113099 -0.0838214 0.224657
0.113378 -0.0836901 0.224127
0.113708 -0.0835922 0.223693
0.114047 -0.0835013 0.223278
0.114391 -0.0834129 0.222872
0.114722 -0.0833182 0.222447
0.115014 -0.0831983 0.221951
0.115267 -0.0830546 0.221388
0.115514 -0.0829075 0.220815
0.115753 -0.0827566 0.220232
0.11601 -0.0826184 0.219686
0.116336 -0.0825235 0.219262
0.116698 -0.0824522 0.218907
0.117065 -0.082384 0.218561
0.117433 -0.0823172 0.218217
0.117812 -0.0822572 0.217894
0.118199 -0.0822022 0.217586
0.118563 -0.082134 0.21724
0.118942 -0.082075 0.21692
0.119335 -0.0820249 0.216626
0.119754 -0.0819908 0.216376
0.120175 -0.0819578 0.21613
0.120582 -0.081917 0.215863
0.120973 -0.0818662 0.215567
0.121331 -0.0817961 0.215216
0.121688 -0.0817253 0.214864
0.122005 -0.0816318 0.214448
0.122351 -0.0815554 0.214081
0.122711 -0.0814879 0.213739
0.123098 -0.0814368 0.213443
0.123474 -0.081379 0.213128
0.123918 -0.0813615 0.212927
0.124378 -0.0813539 0.212753
0.124841 -0.0813477 0.212584
0.125332 -0.0813572 0.212458
0.125848 -0.0813816 0.212374
0.126383 -0.0814168 0.21232
0.126967 -0.0814796 0.212343
0.127586 -0.0815617 0.21242
0.128234 -0.0816605 0.212543
0.128869 -0.0817506 0.212641
0.129489 -0.0818315 0.212713
0.0615254 -0.106089 0.318063
0.06217 -0.10618 0.318164
0.0627914 -0.106242 0.318169
0.0633936 -0.106275 0.318091
0.0640057 -0.106322 0.318051
0.0646228 -0.106373 0.318026
0.0652497 -0.106437 0.318039
0.0659098 -0.10654 0.318176
0.0665715 -0.106644 0.318316
0.0672596 -0.106779 0.31855
0.0679831 -0.106956 0.318913
0.0687131 -0.107137 0.319292
0.0694008 -0.107266 0.319505
0.0701042 -0.10741 0.319768
0.0707388 -0.107472 0.319771
0.0713524 -0.107506 0.319691
0.0719673 -0.107542 0.319614
0.0725867 -0.107581 0.319549
0.073193 -0.107606 0.319437
0.073821 -0.107655 0.3194
0.0744727 -0.10773 0.319445
0.0752143 -0.107907 0.319804
0.0759934 -0.108125 0.320289
0.0768514 -0.10843 0.321043
0.0777503 -0.108776 0.321924
0.0790725 -0.110238 0.324221
0.0786489 -0.109119 0.322791
0.110478 -0.0851149 0.231602
0.110701 -0.0849359 0.230927
0.11092 -0.0847559 0.230248
0.111096 -0.0845475 0.22949
0.111301 -0.0843607 0.228794
0.111445 -0.0841339 0.227983
0.111697 -0.0839807 0.227384
0.111953 -0.0838302 0.226795
0.112204 -0.0836783 0.226202
0.11245 -0.0835232 0.225599
0.11272 -0.0833856 0.225048
0.112985 -0.0832451 0.22449
0.113292 -0.0831326 0.224011
0.113648 -0.0830525 0.223627
0.114003 -0.0829719 0.223241
0.114387 -0.0829102 0.22291
0.114762 -0.0828432 0.222563
0.115096 -0.0827507 0.222144
0.115368 -0.0826194 0.221614
0.115641 -0.0824899 0.22109
0.115877 -0.0823371 0.220499
0.11612 -0.0821906 0.219926
0.116417 -0.0820782 0.219452
0.116764 -0.0819973 0.219068
0.117115 -0.0819196 0.218693
0.117483 -0.0818528 0.21835
0.117864 -0.0817943 0.218031
0.118268 -0.0817503 0.217752
0.118644 -0.0816895 0.217426
0.119035 -0.0816376 0.217126
0.119441 -0.0815954 0.216853
0.119875 -0.0815701 0.216629
0.120312 -0.0815473 0.216411
0.120736 -0.081516 0.216169
0.12113 -0.0814668 0.215878
0.121504 -0.0814062 0.215553
0.121876 -0.0813445 0.215226
0.122195 -0.0812523 0.214812
0.122528 -0.0811679 0.214421
0.122866 -0.0810874 0.214041
0.123221 -0.0810176 0.213691
0.123581 -0.0809506 0.21335
0.124027 -0.0809345 0.213152
0.12449 -0.0809277 0.212981
0.124967 -0.0809295 0.212834
0.125484 -0.0809541 0.212751
0.126004 -0.0809803 0.212673
0.126545 -0.0810179 0.212627
0.127158 -0.0810966 0.212695
0.127777 -0.081178 0.212772
0.128396 -0.0812593 0.212847
0.129013 -0.0813385 0.212916
0.0616611 -0.105644 0.31865
0.0622839 -0.105705 0.318658
0.0628843 -0.105736 0.318573
0.0634653 -0.105743 0.318409
0.0640669 -0.105774 0.318324
0.0646614 -0.105797 0.31821
0.0652897 -0.105861 0.318226
0.0659412 -0.105954 0.318331
0.0665953 -0.106047 0.318439
0.0672835 -0.106181 0.318673
0.0679945 -0.106341 0.318989
0.0687117 -0.106506 0.31932
0.0693987 -0.106633 0.31953
0.0700918 -0.106765 0.319755
0.0707166 -0.106813 0.31972
0.071327 -0.106845 0.319631
0.0719296 -0.106866 0.31951
0.0725356 -0.10689 0.319398
0.0731542 -0.106928 0.31933
0.0737834 -0.106979 0.3193
0.0744482 -0.107069 0.319392
0.0751652 -0.107218 0.319667
0.0759155 -0.107402 0.320051
0.076708 -0.107631 0.320575
0.0775607 -0.107925 0.3213
0.0784466 -0.108253 0.322127
0.0797574 -0.109692 0.324366
0.0793166 -0.108559 0.322887
0.110124 -0.0846939 0.232068
0.110455 -0.0845877 0.231602
0.110658 -0.0843962 0.230888
0.110854 -0.0842016 0.230164
0.111 -0.0839747 0.229348
0.111174 -0.0837685 0.228593
0.111306 -0.083536 0.227762
0.111573 -0.0833934 0.227192
0.111827 -0.0832428 0.2266
0.11209 -0.0830992 0.226029
0.112347 -0.0829531 0.225451
0.112632 -0.0828259 0.224928
0.112911 -0.0826952 0.224395
0.113244 -0.0826 0.223965
0.113613 -0.0825284 0.223605
0.113972 -0.0824513 0.223228
0.114383 -0.0824071 0.222947
0.114773 -0.0823498 0.222627
0.115134 -0.0822745 0.222257
0.115422 -0.0821544 0.221757
0.115711 -0.0820352 0.22126
0.115948 -0.081884 0.220672
0.116203 -0.0817453 0.220119
0.116472 -0.081616 0.219594
0.116806 -0.0815272 0.219186
0.117153 -0.0814472 0.218804
0.11752 -0.0813802 0.218459
0.117902 -0.0813226 0.218142
0.118323 -0.0812889 0.217892
0.118715 -0.0812379 0.217594
0.119119 -0.0811944 0.217317
0.119536 -0.0811586 0.217062
0.119984 -0.0811416 0.216861
0.120437 -0.0811276 0.216668
0.120864 -0.0810984 0.216433
0.12127 -0.0810566 0.216161
0.121644 -0.0809957 0.215835
0.122017 -0.0809354 0.21551
0.122327 -0.0808372 0.215079
0.122657 -0.0807519 0.214683
0.12298 -0.0806623 0.214276
0.123329 -0.080589 0.213916
0.123688 -0.0805218 0.213573
0.124137 -0.0805068 0.213378
0.124602 -0.0805012 0.21321
0.125081 -0.0805041 0.213066
0.125598 -0.0805283 0.212983
0.126123 -0.0805568 0.212911
0.126666 -0.0805947 0.212867
0.12728 -0.0806736 0.212938
0.127896 -0.0807526 0.213008
0.0617877 -0.106566 0.321739
0.0616522 -0.106522 0.323808
0.0614865 -0.105544 0.320522
0.061747 -0.105131 0.319032
0.0623576 -0.105176 0.318989
0.0629306 -0.105172 0.318793
0.0635118 -0.105177 0.318624
0.0641127 -0.105207 0.318536
0.064696 -0.105215 0.318377
0.0653244 -0.105279 0.318394
0.0659768 -0.105371 0.318499
0.0666214 -0.105452 0.318572
0.0672973 -0.10557 0.318758
0.0679953 -0.105714 0.319024
0.0686893 -0.10585 0.319266
0.0693632 -0.105961 0.319429
0.0700355 -0.106067 0.319578
0.0706596 -0.106116 0.319543
0.0712611 -0.106135 0.319419
0.0718716 -0.106167 0.31933
0.0724759 -0.10619 0.319215
0.0731169 -0.106254 0.319229
0.0737578 -0.106317 0.31924
0.0744353 -0.106421 0.31938
0.0751291 -0.106543 0.319573
0.0758502 -0.106693 0.319857
0.0765859 -0.106858 0.320183
0.0773722 -0.107077 0.320679
0.0782741 -0.107422 0.321566
0.0792 -0.107788 0.322521
0.109171 -0.0857179 0.235846
0.108916 -0.0853636 0.236531
0.109074 -0.0851334 0.235695
0.109342 -0.0854969 0.235042
0.109258 -0.0849231 0.234919
0.109536 -0.0852929 0.234289
0.109467 -0.0847309 0.234196
0.109659 -0.084528 0.233443
0.109922 -0.0848883 0.232792
0.109865 -0.0843365 0.232723
0.11008 -0.0841525 0.232027
0.110385 -0.0840294 0.231509
0.110563 -0.0838223 0.230746
0.110751 -0.0836241 0.23001
0.110872 -0.0833825 0.229147
0.11106 -0.0831864 0.228418
0.111194 -0.0829566 0.227591
0.111461 -0.0828147 0.227022
0.1117 -0.0826558 0.226403
0.111974 -0.0825206 0.225854
0.112233 -0.0823763 0.22528
0.112534 -0.0822604 0.224788
0.112839 -0.0821471 0.224304
0.113195 -0.0820673 0.223919
0.113566 -0.0819976 0.223563
0.113939 -0.0819295 0.22321
0.114364 -0.0818942 0.222955
0.114765 -0.0818448 0.222658
0.115139 -0.0817781 0.222311
0.115453 -0.0816745 0.221857
0.115747 -0.0815588 0.221368
0.115985 -0.0814093 0.220782
0.116253 -0.081279 0.220253
0.116522 -0.0811503 0.219727
0.116844 -0.0810547 0.219299
0.117191 -0.0809749 0.218916
0.117568 -0.0809144 0.218589
0.117951 -0.0808572 0.218272
0.118375 -0.0808251 0.218027
0.118783 -0.0807838 0.217755
0.119202 -0.0807494 0.217504
0.11962 -0.0807147 0.217252
0.12007 -0.0806987 0.217054
0.120523 -0.0806847 0.216861
0.120961 -0.0806618 0.216643
0.121366 -0.0806191 0.216368
0.121751 -0.0805655 0.216062
0.122138 -0.0805124 0.215758
0.122449 -0.0804153 0.215327
0.122767 -0.0803232 0.214911
0.12309 -0.080234 0.214504
0.123426 -0.0801533 0.214121
0.123786 -0.080087 0.21378
0.124249 -0.0800802 0.213609
0.124732 -0.0800843 0.213468
0.125225 -0.0800945 0.213346
0.12577 -0.0801347 0.213309
0.126309 -0.0801704 0.213258
0.126853 -0.0802089 0.213216
0.127453 -0.0802784 0.213261
0.128065 -0.0803544 0.213325
0.0609905 -0.105023 0.321073
0.0612022 -0.104546 0.319371
0.0618114 -0.10459 0.319325
0.0624111 -0.10462 0.319237
0.0629782 -0.104606 0.319011
0.0635609 -0.104615 0.318853
0.0641621 -0.104645 0.318765
0.0647349 -0.104638 0.318561
0.0653611 -0.104698 0.318568
0.0660018 -0.104776 0.318628
0.0666459 -0.104856 0.318698
0.0673095 -0.104958 0.318837
0.0679845 -0.105072 0.319014
0.0686527 -0.105177 0.319161
0.0693152 -0.105273 0.319279
0.0699761 -0.105366 0.319388
0.0706007 -0.105415 0.319356
0.0712006 -0.105434 0.319229
0.0718015 -0.105454 0.319105
0.0724148 -0.105488 0.319026
0.0730675 -0.105565 0.319084
0.0737216 -0.105644 0.319146
0.0744122 -0.105763 0.319334
0.0751036 -0.10588 0.319517
0.0757878 -0.105989 0.319672
0.076471 -0.106095 0.319816
0.0771917 -0.10624 0.320086
0.0780411 -0.106526 0.320795
0.0789989 -0.106928 0.321867
0.108443 -0.0857194 0.237896
0.107869 -0.085146 0.237941
0.108223 -0.0850482 0.237493
0.108725 -0.0855723 0.237303
0.108525 -0.0849161 0.236943
0.108766 -0.0847426 0.236272
0.10893 -0.0845188 0.235451
0.109125 -0.0843166 0.234696
0.109345 -0.0841333 0.233997
0.109566 -0.0839518 0.233303
0.109789 -0.0837724 0.232617
0.110012 -0.0835953 0.231937
0.110284 -0.0834505 0.231355
0.11046 -0.0832438 0.23059
0.11063 -0.083035 0.229819
0.110769 -0.0828067 0.228991
0.110958 -0.0826129 0.228266
0.111104 -0.0823922 0.227463
0.111355 -0.082241 0.226864
0.111581 -0.0820748 0.226221
0.111856 -0.081941 0.225675
0.112131 -0.0818082 0.225132
0.112447 -0.0817029 0.224669
0.112767 -0.0815995 0.224214
0.113149 -0.0815368 0.223877
0.11352 -0.0814681 0.223522
0.113893 -0.0814 0.22317
0.114317 -0.0813648 0.222913
0.114715 -0.0813133 0.222611
0.115077 -0.0812397 0.222243
0.115417 -0.0811528 0.221836
0.115725 -0.0810463 0.221373
0.115977 -0.0809066 0.220813
0.116271 -0.0807925 0.220328
0.116568 -0.0806821 0.219854
0.116881 -0.0805811 0.219408
0.117229 -0.0805028 0.219028
0.117605 -0.0804415 0.218698
0.117986 -0.0803836 0.218378
0.11841 -0.0803515 0.218133
0.118833 -0.0803194 0.217888
0.119268 -0.0802944 0.217663
0.119703 -0.0802694 0.217439
0.120152 -0.0802529 0.21724
0.120605 -0.0802383 0.217045
0.121029 -0.0802068 0.216803
0.121419 -0.080156 0.216503
0.121802 -0.0801009 0.216193
0.122175 -0.0800403 0.215866
0.122499 -0.0799512 0.215457
0.122832 -0.0798681 0.215065
0.123184 -0.0797965 0.214707
0.123526 -0.0797191 0.214333
0.123916 -0.0796696 0.214039
0.124381 -0.0796639 0.213871
0.124876 -0.0796752 0.213751
0.125383 -0.0796927 0.213651
0.125945 -0.0797411 0.213637
0.126483 -0.0797761 0.213586
0.127014 -0.0798065 0.213522
0.12761 -0.0798731 0.21356
0.128194 -0.079933 0.213579
0.0606939 -0.10401 0.319864
0.0612533 -0.103989 0.319613
0.0618617 -0.104029 0.31956
0.0624637 -0.104061 0.319479
0.0630302 -0.104048 0.319253
0.0636171 -0.10406 0.319107
0.0642277 -0.104102 0.319057
0.0647901 -0.104082 0.318812
0.0654044 -0.104127 0.318771
0.0660343 -0.10419 0.318787
0.066667 -0.104256 0.318812
0.0673105 -0.104332 0.318871
0.0679617 -0.104417 0.318959
0.0686149 -0.104504 0.31905
0.0692644 -0.104584 0.31912
0.069913 -0.104663 0.319185
0.0705372 -0.104711 0.319153
0.0711468 -0.104742 0.319065
0.0717474 -0.104761 0.318941
0.0723529 -0.104785 0.318833
0.0730179 -0.104878 0.31894
0.0736861 -0.104972 0.319052
0.0743771 -0.105091 0.319243
0.075057 -0.105196 0.319389
0.075738 -0.1053 0.319531
0.0763741 -0.105353 0.319512
0.0770298 -0.105427 0.319559
0.077801 -0.105626 0.320001
0.0786814 -0.105942 0.32081
0.107023 -0.0866446 0.243352
0.105529 -0.0854211 0.241473
0.105854 -0.0852992 0.240948
0.105882 -0.0854922 0.239762
0.106146 -0.0851547 0.240357
0.106232 -0.0853889 0.239296
0.106448 -0.0850175 0.239788
0.106636 -0.0853243 0.238946
0.106745 -0.0848788 0.239215
0.107028 -0.0852513 0.23857
0.107026 -0.084729 0.238609
0.10745 -0.0851995 0.238259
0.107336 -0.0846008 0.238069
0.107669 -0.0844892 0.237577
0.107955 -0.0843463 0.236993
0.108269 -0.0842231 0.236468
0.108512 -0.084053 0.235804
0.108703 -0.083849 0.23504
0.108921 -0.0836645 0.234334
0.109166 -0.0834989 0.233685
0.109401 -0.0833283 0.233021
0.109644 -0.0831639 0.232376
0.109872 -0.0829902 0.231705
0.110095 -0.0828154 0.231031
0.110284 -0.082619 0.230293
0.11047 -0.0824217 0.229553
0.110628 -0.0822072 0.228763
0.110831 -0.0820242 0.228066
0.110989 -0.0818127 0.227287
0.111225 -0.0816526 0.22666
0.111449 -0.0814867 0.226016
0.111736 -0.0813612 0.225492
0.112027 -0.0812396 0.22498
0.112359 -0.0811446 0.224547
0.112705 -0.0810595 0.224143
0.113115 -0.081015 0.223859
0.113489 -0.0809477 0.223508
0.113861 -0.0808798 0.223155
0.11428 -0.0808416 0.22289
0.114653 -0.0807749 0.222542
0.115001 -0.0806933 0.222149
0.115342 -0.0806073 0.221744
0.115649 -0.080501 0.22128
0.115917 -0.0803715 0.220748
0.116237 -0.0802745 0.220312
0.116564 -0.0801826 0.219891
0.116892 -0.0800918 0.219473
0.117256 -0.0800232 0.21912
0.11763 -0.0799611 0.218786
0.118009 -0.0799024 0.218463
0.118419 -0.0798619 0.218193
0.118856 -0.0798381 0.217973
0.119305 -0.0798214 0.217772
0.119755 -0.0798048 0.217573
0.120205 -0.0797891 0.217374
0.120655 -0.0797735 0.217177
0.121078 -0.0797409 0.216931
0.121455 -0.0796828 0.21661
0.121828 -0.0796219 0.216281
0.122199 -0.0795602 0.215951
0.122535 -0.0794789 0.215563
0.122884 -0.0794049 0.215197
0.123267 -0.0793514 0.21489
0.12364 -0.0792919 0.214567
0.124059 -0.0792593 0.214321
0.124538 -0.0792613 0.214175
0.125049 -0.0792806 0.21408
0.125558 -0.0792995 0.213982
0.126135 -0.0793556 0.213993
0.126676 -0.0793912 0.213944
0.127206 -0.0794211 0.213878
0.127788 -0.0794788 0.213893
0.0607085 -0.103403 0.319952
0.0612646 -0.103379 0.319688
0.0618636 -0.103407 0.319597
0.0624744 -0.103449 0.319551
0.0630513 -0.103449 0.319367
0.0636479 -0.103474 0.319262
0.0642616 -0.103518 0.319222
0.0648333 -0.103509 0.319012
0.0654254 -0.103527 0.318884
0.0660332 -0.103563 0.318814
0.0666558 -0.103615 0.318798
0.0672866 -0.103677 0.318813
0.0679272 -0.103749 0.31886
0.0685697 -0.103822 0.318909
0.0692043 -0.103885 0.318927
0.0698405 -0.103949 0.318947
0.0704655 -0.103998 0.318919
0.0710752 -0.104029 0.318834
0.0716753 -0.104048 0.31871
0.0722897 -0.104084 0.318637
0.0729639 -0.104186 0.318779
0.0736471 -0.104298 0.318948
0.0743406 -0.104419 0.319149
0.0750325 -0.104536 0.319336
0.0757104 -0.104636 0.319469
0.0763103 -0.104649 0.319324
0.0769052 -0.104657 0.31916
0.0775838 -0.104755 0.319286
0.0783387 -0.104934 0.319668
0.0795558 -0.106248 0.321586
0.0790813 -0.105097 0.319999
0.105307 -0.0856168 0.242219
0.105167 -0.0853453 0.243187
0.105429 -0.0851772 0.24252
0.105705 -0.0850199 0.241887
0.105966 -0.0848526 0.241225
0.106197 -0.0846668 0.240506
0.106463 -0.0845062 0.239864
0.106723 -0.0843424 0.239213
0.106956 -0.0841612 0.23851
0.107216 -0.0839991 0.237866
0.107509 -0.0838612 0.237295
0.107766 -0.0836998 0.236653
0.108041 -0.0835517 0.236051
0.108283 -0.0833821 0.235386
0.108475 -0.0831806 0.234626
0.108721 -0.0830161 0.233977
0.108981 -0.0828623 0.233362
0.109231 -0.0827023 0.232727
0.109462 -0.0825313 0.23206
0.109686 -0.0823575 0.231386
0.109884 -0.0821666 0.230661
0.110085 -0.0819795 0.229948
0.110286 -0.0817938 0.229241
0.110473 -0.0816002 0.228509
0.110692 -0.0814284 0.227843
0.110875 -0.0812343 0.227112
0.111096 -0.0810661 0.226458
0.111332 -0.0809089 0.225838
0.111633 -0.0807935 0.225341
0.111936 -0.0806804 0.224854
0.112295 -0.080603 0.224471
0.11267 -0.0805364 0.224121
0.113096 -0.0805023 0.223867
0.113472 -0.0804366 0.22352
0.113843 -0.0803686 0.223166
0.114247 -0.0803211 0.222873
0.114605 -0.0802455 0.222497
0.114938 -0.0801549 0.222077
0.115279 -0.0800698 0.221674
0.115586 -0.0799647 0.221211
0.115868 -0.0798446 0.220705
0.116203 -0.0797574 0.220296
0.116559 -0.0796835 0.219927
0.116916 -0.0796102 0.21956
0.117294 -0.0795507 0.219232
0.117681 -0.0794958 0.21892
0.118072 -0.0794442 0.218617
0.118469 -0.0793963 0.218325
0.118906 -0.0793725 0.218104
0.119354 -0.0793556 0.217902
0.119791 -0.0793313 0.21768
0.120228 -0.0793074 0.217459
0.120677 -0.0792913 0.21726
0.1211 -0.0792595 0.217015
0.121492 -0.0792096 0.216717
0.121865 -0.0791491 0.216389
0.122237 -0.0790883 0.21606
0.122586 -0.0790146 0.215694
0.122949 -0.0789492 0.215351
0.123352 -0.0789067 0.215077
0.123754 -0.0788641 0.214801
0.124203 -0.0788484 0.214604
0.124695 -0.0788572 0.214478
0.125207 -0.078877 0.214385
0.125732 -0.0789044 0.214313
0.126327 -0.0789696 0.214351
0.126885 -0.0790147 0.214329
0.127444 -0.0790592 0.214307
0.128055 -0.0791326 0.214368
0.0605979 -0.103382 0.32212
0.0606964 -0.102764 0.319931
0.0612554 -0.102741 0.319677
0.0618447 -0.102758 0.319548
0.0624447 -0.102787 0.31946
0.0630216 -0.102787 0.319276
0.0636172 -0.10281 0.319168
0.064221 -0.102842 0.31909
0.0648024 -0.102847 0.318921
0.0653949 -0.102864 0.318794
0.0660016 -0.102898 0.318721
0.0666308 -0.102959 0.318734
0.067264 -0.103022 0.318755
0.067894 -0.103082 0.318764
0.0685249 -0.103142 0.318772
0.069147 -0.10319 0.318742
0.0697709 -0.103239 0.318718
0.070395 -0.103288 0.31869
0.0710082 -0.103323 0.318618
0.0716076 -0.103342 0.318495
0.0722293 -0.103386 0.318451
0.0729014 -0.103486 0.318586
0.0735825 -0.103594 0.31875
0.0742697 -0.103707 0.318928
0.0749604 -0.103824 0.319116
0.0756034 -0.103885 0.319126
0.0761513 -0.103842 0.318802
0.0766841 -0.103782 0.318425
0.0772578 -0.103768 0.318192
0.0778879 -0.103813 0.318152
0.0784906 -0.10383 0.318016
0.102254 -0.0857762 0.245607
0.101658 -0.0857093 0.245563
0.101738 -0.0848768 0.244519
0.104461 -0.0846752 0.242954
0.104778 -0.0845463 0.242403
0.10503 -0.0843737 0.241721
0.105323 -0.0842299 0.241127
0.105603 -0.0840782 0.240508
0.105868 -0.0839171 0.239863
0.10619 -0.0837964 0.239339
0.106492 -0.0836633 0.238779
0.106756 -0.0835045 0.238141
0.107021 -0.0833481 0.237511
0.107315 -0.0832114 0.236942
0.107568 -0.0830488 0.236294
0.107829 -0.0828921 0.235665
0.108071 -0.0827245 0.235003
0.108289 -0.082542 0.234297
0.10856 -0.0823953 0.233699
0.108836 -0.0822533 0.233117
0.109087 -0.0820951 0.232486
0.109304 -0.0819166 0.231794
0.109513 -0.0817334 0.231088
0.109698 -0.0815361 0.230341
0.109911 -0.0813585 0.229654
0.110142 -0.0811932 0.229004
0.110356 -0.0810185 0.228326
0.110602 -0.0808651 0.227713
0.11081 -0.0806884 0.227032
0.111034 -0.0805234 0.226384
0.111272 -0.0803679 0.225767
0.111573 -0.0802537 0.225272
0.111877 -0.0801419 0.224786
0.112249 -0.0800731 0.224429
0.112637 -0.0800155 0.224104
0.113079 -0.0799908 0.223879
0.113456 -0.0799266 0.223535
0.113839 -0.0798661 0.223202
0.114229 -0.0798103 0.222885
0.114572 -0.079726 0.222482
0.114891 -0.0796272 0.222036
0.115228 -0.0795406 0.221627
0.115537 -0.0794365 0.221166
0.115832 -0.0793254 0.220685
0.116184 -0.079249 0.220306
0.116567 -0.0791916 0.219985
0.116952 -0.0791358 0.219668
0.117345 -0.0790851 0.219366
0.117747 -0.0790395 0.21908
0.118152 -0.0789961 0.218801
0.118549 -0.0789486 0.218509
0.118985 -0.0789242 0.218286
0.11942 -0.0788992 0.218061
0.119841 -0.0788662 0.217812
0.120263 -0.0788335 0.217565
0.120699 -0.0788094 0.217342
0.121123 -0.0787777 0.217098
0.12153 -0.0787367 0.216826
0.121906 -0.0786783 0.216503
0.122278 -0.0786176 0.216173
0.122652 -0.0785583 0.215848
0.123029 -0.0785016 0.215531
0.12345 -0.0784689 0.215284
0.123883 -0.0784444 0.215061
0.124359 -0.0784433 0.214907
0.124866 -0.0784604 0.214806
0.125392 -0.0784876 0.214735
0.125949 -0.0785319 0.214712
0.126588 -0.0786215 0.214822
0.127206 -0.0786985 0.214896
0.127814 -0.0787698 0.214952
0.128461 -0.0788618 0.215068
0.0601132 -0.102129 0.320109
0.0606838 -0.102123 0.319907
0.0612529 -0.102114 0.319694
0.0618329 -0.102118 0.319527
0.0624232 -0.102135 0.319401
0.0629973 -0.102132 0.319207
0.0635919 -0.102154 0.319097
0.0641964 -0.102187 0.319021
0.06479 -0.102205 0.318901
0.0653829 -0.102224 0.318777
0.0659889 -0.102257 0.318701
0.0666171 -0.102316 0.31871
0.0672487 -0.102378 0.318729
0.0678722 -0.102429 0.318712
0.0685031 -0.102489 0.318721
0.0691218 -0.102534 0.318681
0.0697335 -0.102568 0.31861
0.0703573 -0.102616 0.318582
0.0709824 -0.102666 0.318558
0.0715627 -0.102663 0.318365
0.0721713 -0.102692 0.318273
0.072817 -0.102761 0.318314
0.0734837 -0.102854 0.318428
0.0741372 -0.10293 0.31849
0.0748159 -0.103033 0.318637
0.075421 -0.103054 0.318518
0.0759258 -0.102965 0.318047
0.076393 -0.102836 0.317447
0.0768645 -0.102713 0.316866
0.0773626 -0.102619 0.31638
0.0778275 -0.102491 0.315784
0.10066 -0.0839366 0.24345
0.101264 -0.0840116 0.243522
0.102336 -0.0849463 0.244573
0.101887 -0.0840995 0.243634
0.102814 -0.0849291 0.244361
0.102408 -0.0841146 0.243523
0.103253 -0.0848849 0.244068
0.102872 -0.084089 0.243286
0.103654 -0.0848132 0.243691
0.103283 -0.0840261 0.242935
0.104089 -0.0847664 0.243389
0.103714 -0.0839775 0.242629
0.104055 -0.0838664 0.242131
0.104351 -0.0837248 0.241541
0.104599 -0.083551 0.240852
0.104908 -0.0834201 0.240295
0.10522 -0.0832924 0.239749
0.105529 -0.0831638 0.2392
0.105908 -0.0830833 0.238798
0.106241 -0.0829723 0.238302
0.106534 -0.0828349 0.237727
0.106803 -0.0826825 0.237108
0.107095 -0.0825463 0.236537
0.107347 -0.0823844 0.23589
0.107594 -0.0822201 0.235235
0.107838 -0.0820545 0.234577
0.108082 -0.0818909 0.233925
0.108368 -0.0817556 0.23336
0.108645 -0.0816153 0.23278
0.108907 -0.081466 0.232173
0.109135 -0.0812956 0.231504
0.109343 -0.0811137 0.230799
0.10954 -0.0809254 0.230077
0.10978 -0.0807663 0.229443
0.110025 -0.0806115 0.228821
0.110255 -0.0804479 0.228175
0.110515 -0.0803048 0.22759
0.110738 -0.0801386 0.226937
0.110977 -0.0799841 0.226319
0.111229 -0.0798388 0.225729
0.111531 -0.079726 0.225238
0.111847 -0.0796221 0.224773
0.112231 -0.0795615 0.224439
0.112621 -0.0795049 0.224118
0.113063 -0.0794808 0.223894
0.113452 -0.0794241 0.223571
0.113822 -0.0793558 0.223215
0.114187 -0.079285 0.222851
0.114515 -0.0791921 0.222422
0.114844 -0.0791003 0.221995
0.115169 -0.0790064 0.221564
0.115491 -0.0789112 0.221128
0.115812 -0.0788165 0.220693
0.116178 -0.0787488 0.22034
0.116563 -0.0786925 0.220021
0.116975 -0.0786533 0.219753
0.117384 -0.0786119 0.219479
0.117803 -0.0785768 0.219224
0.118223 -0.0785426 0.21897
0.118635 -0.0785037 0.218704
0.119071 -0.0784791 0.21848
0.119491 -0.0784451 0.218229
0.119896 -0.0784027 0.217951
0.120302 -0.0783607 0.217675
0.120722 -0.0783274 0.217426
0.121133 -0.0782884 0.21716
0.121555 -0.0782564 0.216914
0.121946 -0.0782069 0.216616
0.122334 -0.0781552 0.216313
0.122734 -0.078111 0.216031
0.123139 -0.0780703 0.21576
0.123588 -0.0780542 0.215561
0.124054 -0.0780471 0.21539
0.124546 -0.0780553 0.215262
0.125055 -0.0780727 0.215163
0.125609 -0.0781149 0.215136
0.126195 -0.0781746 0.215161
0.12687 -0.078283 0.215328
0.12754 -0.0783881 0.215484
0.128199 -0.078486 0.21562
0.128867 -0.0785882 0.215768
0.0594443 -0.101385 0.319925
0.0600419 -0.101414 0.319838
0.0606185 -0.101415 0.319661
0.0612022 -0.101426 0.319513
0.0617714 -0.101417 0.319304
0.0623607 -0.101433 0.319175
0.0629431 -0.10144 0.319017
0.0635367 -0.101462 0.318904
0.0641406 -0.101494 0.318828
0.0647451 -0.101526 0.318753
0.0653388 -0.101546 0.318636
0.0659463 -0.101581 0.318566
0.0665741 -0.10164 0.318576
0.0672154 -0.101713 0.318633
0.0678493 -0.101777 0.318658
0.068482 -0.101837 0.318672
0.0690997 -0.101881 0.31863
0.0697186 -0.101924 0.318587
0.0703424 -0.101971 0.31856
0.0709693 -0.102022 0.318542
0.0715617 -0.102033 0.318393
0.0721473 -0.102037 0.31822
0.0727544 -0.102063 0.318122
0.073383 -0.102112 0.318099
0.0739963 -0.102145 0.31802
0.074617 -0.102185 0.317965
0.0751924 -0.102174 0.317746
0.0756575 -0.102044 0.31714
0.0761017 -0.101892 0.316465
0.0765362 -0.101732 0.315762
0.0769387 -0.10154 0.314956
0.0773059 -0.101311 0.314035
0.0786172 -0.102709 0.316297
0.0777223 -0.101138 0.31329
0.0987821 -0.0836581 0.243066
0.0982936 -0.0831419 0.243283
0.0987366 -0.0831033 0.243006
0.0993332 -0.0836975 0.24303
0.0992055 -0.0830835 0.242788
0.10001 -0.0838268 0.24327
0.0997966 -0.083151 0.242841
0.100395 -0.0832234 0.242907
0.100939 -0.0832562 0.242851
0.101521 -0.0833158 0.242879
0.102049 -0.0833361 0.242784
0.102484 -0.0832918 0.24249
0.102869 -0.0832119 0.242087
0.103285 -0.0831541 0.241752
0.103611 -0.0830341 0.241226
0.103872 -0.0828701 0.240565
0.104147 -0.0827178 0.23994
0.104499 -0.0826183 0.239478
0.104842 -0.0825137 0.239001
0.105195 -0.0824164 0.238545
0.105623 -0.0823707 0.238249
0.105981 -0.0822776 0.237808
0.106276 -0.0821432 0.237241
0.106557 -0.0819998 0.236646
0.106859 -0.0818722 0.2361
0.107122 -0.0817187 0.235476
0.107382 -0.0815646 0.234849
0.107654 -0.0814193 0.234251
0.107927 -0.0812755 0.233658
0.108228 -0.0811514 0.233124
0.108504 -0.0810118 0.232544
0.108753 -0.0808547 0.231912
0.108966 -0.0806767 0.231215
0.109175 -0.0804961 0.230513
0.109374 -0.0803109 0.229796
0.109629 -0.0801624 0.229191
0.109888 -0.0800179 0.2286
0.110144 -0.0798719 0.228004
0.110419 -0.0797393 0.227449
0.110668 -0.0795912 0.226848
0.110922 -0.0794468 0.226258
0.1112 -0.0793185 0.225718
0.111515 -0.0792142 0.22525
0.111843 -0.0791186 0.22481
0.112228 -0.0790589 0.224477
0.112618 -0.0790026 0.224156
0.113046 -0.07897 0.223906
0.113433 -0.0789121 0.22358
0.113801 -0.0788435 0.223222
0.114154 -0.0787658 0.222835
0.114482 -0.0786731 0.222405
0.114823 -0.0785889 0.222001
0.115149 -0.0784962 0.22157
0.115473 -0.0784031 0.22114
0.115809 -0.0783172 0.220731
0.116188 -0.0782577 0.220401
0.116584 -0.0782089 0.220104
0.117011 -0.0781786 0.219862
0.117436 -0.0781467 0.219615
0.117883 -0.0781284 0.21941
0.11832 -0.0781038 0.219186
0.118733 -0.0780656 0.21892
0.119169 -0.078041 0.218696
0.119576 -0.0779992 0.218421
0.119953 -0.0779408 0.218095
0.120354 -0.0778956 0.21781
0.120773 -0.0778614 0.217557
0.121183 -0.0778224 0.21729
0.121633 -0.0778062 0.217092
0.12204 -0.0777659 0.21682
0.12243 -0.0777156 0.21652
0.122832 -0.0776725 0.216241
0.123265 -0.0776469 0.216015
0.123719 -0.0776336 0.215825
0.124216 -0.0776438 0.215704
0.124738 -0.0776685 0.215626
0.125276 -0.0777009 0.215572
0.125845 -0.0777512 0.215569
0.126464 -0.0778279 0.215645
0.127173 -0.0779542 0.215868
0.127894 -0.0780859 0.216105
0.128604 -0.0782106 0.216322
0.129306 -0.07833 0.216522
0.0593799 -0.100679 0.319679
0.0599689 -0.100698 0.31956
0.0605462 -0.1007 0.319387
0.0611391 -0.100723 0.319281
0.0616986 -0.100703 0.319033
0.0622777 -0.100707 0.318866
0.0628692 -0.100726 0.318747
0.0634715 -0.100758 0.318672
0.0640765 -0.100792 0.318603
0.0646916 -0.100838 0.318573
0.0653068 -0.100883 0.318539
0.0659133 -0.100917 0.318469
0.0665519 -0.100988 0.318521
0.0672036 -0.101074 0.318619
0.0678493 -0.10115 0.318689
0.0684717 -0.101199 0.318665
0.0690994 -0.101253 0.318661
0.069718 -0.101296 0.318618
0.0703418 -0.101343 0.318591
0.0709676 -0.101393 0.31857
0.0715724 -0.101417 0.318466
0.072158 -0.10142 0.318292
0.0727283 -0.101406 0.318061
0.0733163 -0.10141 0.317894
0.0738764 -0.101384 0.317625
0.074447 -0.10137 0.317394
0.0749595 -0.101293 0.316958
0.0753871 -0.101124 0.316226
0.0757952 -0.100937 0.315432
0.0762167 -0.100766 0.314692
0.0766103 -0.100567 0.313862
0.0770041 -0.10037 0.313039
0.0774548 -0.100235 0.312417
0.078502 -0.101346 0.313779
0.0778737 -0.100068 0.311693
0.0793478 -0.10162 0.31448
0.0808014 -0.100722 0.310851
0.0797319 -0.0996021 0.309456
0.0802394 -0.0995319 0.309047
0.0809119 -0.100246 0.309138
0.0807955 -0.0995108 0.308798
0.0814229 -0.100179 0.308742
0.0813426 -0.0994814 0.308521
0.0823582 -0.100538 0.309712
0.0818391 -0.0994018 0.308081
0.0833243 -0.100922 0.310765
0.0957545 -0.0842117 0.247858
0.0950959 -0.0835663 0.247688
0.0955639 -0.0835419 0.247455
0.0962121 -0.0841792 0.2476
0.0960052 -0.0834984 0.247161
0.0965681 -0.0840712 0.247107
0.0963386 -0.0833748 0.246618
0.0968827 -0.0839336 0.246521
0.0966173 -0.0832122 0.245953
0.0970741 -0.0837059 0.245658
0.0968424 -0.0830115 0.245169
0.09725 -0.0834687 0.244765
0.0970711 -0.0828145 0.244399
0.097403 -0.0832166 0.243826
0.0973126 -0.0826288 0.243663
0.097813 -0.0831536 0.243474
0.0977255 -0.0825684 0.243319
0.0982081 -0.0825588 0.243133
0.0986564 -0.0825242 0.242869
0.09913 -0.0825079 0.242663
0.0996623 -0.0825335 0.242586
0.1002 -0.0825628 0.242521
0.100695 -0.082561 0.242359
0.101205 -0.0825703 0.242232
0.101683 -0.0825567 0.242033
0.102102 -0.0825011 0.241704
0.10246 -0.0824044 0.241248
0.102851 -0.0823306 0.240864
0.103189 -0.0822215 0.240369
0.10349 -0.0820869 0.239796
0.103799 -0.0819587 0.239245
0.104195 -0.0818913 0.238881
0.104578 -0.0818147 0.238489
0.104951 -0.081733 0.23808
0.105365 -0.0816782 0.237756
0.10572 -0.0815847 0.237313
0.106013 -0.0814503 0.236743
0.106304 -0.0813149 0.236171
0.106607 -0.0811886 0.235627
0.106882 -0.0810449 0.235031
0.107157 -0.0809021 0.234437
0.107444 -0.0807682 0.233871
0.107721 -0.0806284 0.233288
0.108036 -0.0805142 0.232783
0.108312 -0.0803759 0.232206
0.108582 -0.0802344 0.231618
0.108809 -0.0800656 0.230948
0.109045 -0.079904 0.2303
0.10926 -0.0797307 0.229617
0.109541 -0.0796002 0.229064
0.109801 -0.079457 0.228475
0.11007 -0.0793205 0.227905
0.110345 -0.0791887 0.227351
0.110621 -0.0790585 0.226801
0.110888 -0.0789234 0.226238
0.111181 -0.0788048 0.225725
0.111509 -0.0787092 0.225283
0.111851 -0.0786228 0.224868
0.112236 -0.0785635 0.224537
0.112626 -0.0785076 0.224215
0.113053 -0.0784738 0.223962
0.113438 -0.0784156 0.223633
0.113805 -0.0783463 0.223272
0.114158 -0.078269 0.222886
0.114485 -0.0781766 0.222455
0.114827 -0.0780932 0.222053
0.115169 -0.0780103 0.22165
0.115496 -0.0779196 0.221225
0.115834 -0.0778352 0.22082
0.116224 -0.0777828 0.220511
0.116634 -0.0777419 0.220237
0.117075 -0.0777194 0.220019
0.117515 -0.0776969 0.2198
0.11799 -0.0776944 0.219642
0.118427 -0.0776703 0.219419
0.11884 -0.0776319 0.219152
0.119264 -0.0776001 0.218906
0.11967 -0.0775575 0.218628
0.120033 -0.0774912 0.218278
0.120434 -0.0774467 0.217993
0.120853 -0.0774122 0.21774
0.12125 -0.0773661 0.217451
0.121714 -0.0773573 0.217274
0.122123 -0.0773179 0.217005
0.122528 -0.0772765 0.216731
0.122947 -0.0772428 0.216479
0.123409 -0.0772335 0.216301
0.123865 -0.0772208 0.216113
0.12439 -0.0772467 0.216039
0.124944 -0.0772883 0.216013
0.1255 -0.07733 0.215987
0.1261 -0.0773964 0.216033
0.126762 -0.0774959 0.216179
0.127493 -0.0776328 0.216435
0.128233 -0.0777736 0.216702
0.128973 -0.0779127 0.216964
0.0592878 -0.0999393 0.319317
0.059886 -0.0999695 0.319237
0.0604747 -0.0999884 0.319118
0.0610751 -0.100019 0.319041
0.0616442 -0.100011 0.318836
0.0622226 -0.100016 0.318669
0.0628135 -0.100034 0.31855
0.0634274 -0.100081 0.318523
0.064044 -0.100129 0.318503
0.0646692 -0.100187 0.318514
0.0653042 -0.100256 0.31856
0.0659207 -0.100301 0.318529
0.0665511 -0.100362 0.318548
0.0671928 -0.100435 0.318609
0.0678364 -0.100509 0.318672
0.0684593 -0.100559 0.318652
0.0690908 -0.100616 0.318661
0.0697212 -0.100672 0.318662
0.0703547 -0.100731 0.318673
0.0709826 -0.100782 0.318658
0.0715863 -0.100805 0.318551
0.0721606 -0.100796 0.318336
0.072698 -0.100744 0.317985
0.0732453 -0.100705 0.317672
0.0737528 -0.100622 0.317218
0.0742695 -0.10055 0.316798
0.0747363 -0.100424 0.316204
0.0751384 -0.100231 0.315388
0.0755151 -0.100013 0.31449
0.0759249 -0.0998329 0.313717
0.0763088 -0.0996259 0.312858
0.0767117 -0.0994415 0.312074
0.0771763 -0.0993234 0.311506
0.0776312 -0.0991973 0.310911
0.0782995 -0.0999094 0.310997
0.0780688 -0.0990532 0.31026
0.0787574 -0.0997863 0.310415
0.0785293 -0.0989341 0.309691
0.0792503 -0.0996994 0.309953
0.0790179 -0.0988453 0.30922
0.0795087 -0.0987589 0.308758
0.0800171 -0.0986905 0.308356
0.0805964 -0.0986951 0.308188
0.0811917 -0.0987142 0.308071
0.0817368 -0.098684 0.307791
0.0823274 -0.0993143 0.307617
0.0822648 -0.0986359 0.307454
0.0828102 -0.0992218 0.307137
0.0827852 -0.0985813 0.307097
0.0832625 -0.0991004 0.306565
0.0832265 -0.0984501 0.30649
0.0841831 -0.0994362 0.307467
0.08363 -0.0982836 0.305769
0.0914911 -0.0846504 0.252672
0.0907976 -0.0839704 0.252403
0.0911441 -0.0838485 0.251858
0.0917207 -0.0844368 0.25184
0.0914425 -0.0836901 0.2512
0.0920713 -0.0843184 0.25131
0.091837 -0.0836073 0.250779
0.0924341 -0.0842099 0.250811
0.092215 -0.083512 0.250321
0.0928329 -0.0841303 0.250403
0.0926381 -0.0834519 0.249974
0.0932439 -0.0840605 0.250026
0.0930845 -0.08341 0.249684
