ply
format ascii 1.0
element vertex 1600
property float x
property float y
property float z
end_header
-0.0558391 -0.161596 0.310611
-0.0558178 -0.162557 0.311138
-0.0557975 -0.163527 0.311674
-0.0559343 -0.165033 0.313244
-0.0583465 -0.179876 0.333352
-0.0581817 -0.180427 0.332988
-0.0580031 -0.180927 0.33253
-0.0731826 -0.077757 0.335198
-0.0730198 -0.0783171 0.334846
-0.0728057 -0.0788091 0.334226
-0.072609 -0.0793218 0.333694
-0.0724105 -0.0798306 0.333151
-0.072174 -0.0802865 0.332407
-0.0719299 -0.0807301 0.331624
-0.0717168 -0.0812131 0.331
-0.0715078 -0.0816997 0.330397
-0.0713279 -0.0822256 0.329949
-0.071187 -0.0828049 0.329705
-0.0710593 -0.0834031 0.329534
-0.0709268 -0.0839941 0.329336
-0.0708123 -0.0846108 0.329233
-0.0706979 -0.0852286 0.329134
-0.0705855 -0.0858492 0.329044
-0.0704796 -0.0864797 0.328988
-0.0704036 -0.0871553 0.329094
-0.0703302 -0.0878363 0.329215
-0.0702711 -0.0885402 0.329414
-0.0702057 -0.0892357 0.329579
-0.0701282 -0.089914 0.329679
-0.0700315 -0.0905644 0.329679
-0.0699226 -0.091196 0.329611
-0.0704426 -0.0919449 0.329485
-0.0698013 -0.0918088 0.329477
-0.0703146 -0.0925473 0.329315
-0.0696806 -0.0924224 0.329345
-0.0712957 -0.115751 0.351659
-0.0710933 -0.116275 0.35111
-0.0708232 -0.116666 0.350176
-0.0705094 -0.116969 0.348992
-0.0700816 -0.117046 0.347159
-0.0696086 -0.117026 0.345066
-0.0691529 -0.117031 0.343062
-0.0687467 -0.117125 0.341337
-0.0683834 -0.117298 0.33985
-0.0681256 -0.117677 0.338962
-0.0678922 -0.118103 0.338213
-0.0676329 -0.118472 0.337312
-0.0673614 -0.118813 0.33634
-0.0670947 -0.119161 0.335394
-0.0668261 -0.1195 0.334433
-0.0665651 -0.119851 0.333512
-0.0663116 -0.120215 0.332633
-0.0660586 -0.120576 0.331756
-0.0657957 -0.120912 0.330818
-0.0655732 -0.121332 0.330113
-0.0653558 -0.12176 0.329434
-0.0651472 -0.122205 0.328806
-0.0649371 -0.122645 0.328168
-0.0647233 -0.123074 0.327509
-0.0644751 -0.123423 0.326643
-0.0642502 -0.123822 0.325913
-0.0640297 -0.124228 0.325207
-0.0638344 -0.124687 0.324647
-0.0636455 -0.125161 0.324125
-0.0634673 -0.125657 0.323664
-0.0632787 -0.126126 0.323139
-0.0630893 -0.126593 0.32261
-0.0628732 -0.126995 0.321922
-0.0626545 -0.127388 0.321215
-0.0624299 -0.127764 0.320471
-0.0621957 -0.128115 0.319669
-0.0619639 -0.128468 0.31888
-0.0617328 -0.128818 0.31809
-0.0615163 -0.129203 0.31739
-0.0613071 -0.129601 0.316728
-0.0611228 -0.130059 0.316215
-0.0609577 -0.130563 0.315816
-0.0608198 -0.131134 0.315582
-0.0606877 -0.131719 0.315382
-0.0605607 -0.132317 0.315213
-0.0604496 -0.132956 0.31514
-0.0603401 -0.133599 0.315078
-0.0602318 -0.134246 0.315023
-0.0601221 -0.13489 0.31496
-0.0600107 -0.13553 0.314886
-0.0598835 -0.136128 0.314717
-0.0597615 -0.136742 0.314581
-0.0596403 -0.137356 0.314447
-0.0595137 -0.137958 0.314283
-0.0593865 -0.138556 0.314113
-0.059258 -0.139151 0.313934
-0.0591147 -0.139706 0.313665
-0.0589538 -0.140213 0.313289
-0.0588174 -0.140786 0.313062
-0.058704 -0.141421 0.312976
-0.0586017 -0.14209 0.312963
-0.0585057 -0.142777 0.312988
-0.0584216 -0.143498 0.313087
-0.0583091 -0.14414 0.31301
-0.0581806 -0.144737 0.312834
-0.0580434 -0.145308 0.312601
-0.0579057 -0.145878 0.312368
-0.0577529 -0.146402 0.312036
-0.0576025 -0.146934 0.311722
-0.0574468 -0.147449 0.311373
-0.0572981 -0.147983 0.311066
-0.057156 -0.148536 0.310802
-0.0570241 -0.14912 0.310603
-0.056897 -0.149717 0.310431
-0.0567695 -0.150315 0.310261
-0.0566429 -0.150914 0.310092
-0.0565116 -0.151498 0.309895
-0.0564084 -0.152171 0.30988
-0.0563076 -0.152852 0.30988
-0.056224 -0.153588 0.309992
-0.056145 -0.154341 0.310136
-0.0560746 -0.155122 0.310335
-0.0559836 -0.155839 0.310401
-0.0558962 -0.156571 0.310495
-0.0557996 -0.157273 0.310528
-0.0557086 -0.157995 0.310598
-0.0556178 -0.158718 0.310668
-0.0555214 -0.159425 0.310704
-0.0554195 -0.160115 0.310706
-0.0553171 -0.160804 0.310705
-0.0552288 -0.161542 0.310797
-0.0551857 -0.162434 0.311188
-0.0551332 -0.163298 0.311521
-0.0553794 -0.165189 0.313838
-0.058109 -0.176806 0.330336
-0.0578341 -0.178061 0.33303
-0.057864 -0.179296 0.333967
-0.057725 -0.179938 0.333773
-0.0575624 -0.180496 0.333422
-0.0573813 -0.180987 0.332945
-0.0727338 -0.0771056 0.335715
-0.0725592 -0.077651 0.3353
-0.0723888 -0.0782007 0.334906
-0.0721699 -0.0786852 0.334255
-0.0719613 -0.0791813 0.333657
-0.0717504 -0.0796725 0.333046
-0.0715019 -0.0801106 0.332232
-0.0712582 -0.0805525 0.331443
-0.0710398 -0.0810268 0.330787
-0.0708322 -0.0815142 0.330188
-0.0706529 -0.0820393 0.329738
-0.0705116 -0.0826176 0.329493
-0.0703721 -0.083198 0.329257
-0.0702389 -0.0837874 0.329055
-0.070118 -0.0843943 0.328918
-0.0700037 -0.0850112 0.328818
-0.0698904 -0.0856298 0.328723
-0.0697891 -0.0862667 0.328694
-0.069706 -0.0869314 0.328763
-0.0696317 -0.0876108 0.328881
-0.0695715 -0.0883129 0.329077
-0.0695066 -0.0890092 0.329248
-0.0694388 -0.0897026 0.329404
-0.069356 -0.0903741 0.32948
-0.0692598 -0.0910254 0.329482
-0.0691516 -0.0916586 0.329419
-0.0690427 -0.092291 0.329353
-0.0695743 -0.0930598 0.329294
-0.0689455 -0.0929429 0.329352
-0.0694613 -0.0936863 0.329205
-0.0688435 -0.0935877 0.329325
-0.0708016 -0.115061 0.352153
-0.0706069 -0.1156 0.351645
-0.0704049 -0.116123 0.351095
-0.0701587 -0.116557 0.350289
-0.0698561 -0.11688 0.34916
-0.069458 -0.11701 0.347479
-0.0690144 -0.117042 0.345533
-0.068581 -0.117087 0.343643
-0.0681788 -0.117185 0.341923
-0.0678276 -0.11738 0.340496
-0.067551 -0.11772 0.339492
-0.0673047 -0.118118 0.338662
-0.0670466 -0.118489 0.337763
-0.0667823 -0.118843 0.336824
-0.0665251 -0.119208 0.335924
-0.0662686 -0.119572 0.335026
-0.0660089 -0.119925 0.334107
-0.0657498 -0.120275 0.33319
-0.0654961 -0.120633 0.3323
-0.0652259 -0.120953 0.331314
-0.0649914 -0.121346 0.330532
-0.0647723 -0.121769 0.32984
-0.0645626 -0.122211 0.329201
-0.0643491 -0.122642 0.328539
-0.0641438 -0.123089 0.327922
-0.0639046 -0.123456 0.327103
-0.0636756 -0.123845 0.326346
-0.0634438 -0.124223 0.325565
-0.0632358 -0.124654 0.324927
-0.0630294 -0.125086 0.324297
-0.0628402 -0.125555 0.323766
-0.0626397 -0.125996 0.323169
-0.0624458 -0.12645 0.322607
-0.0622295 -0.12685 0.321912
-0.0620076 -0.127233 0.32118
-0.061779 -0.127597 0.320407
-0.0615513 -0.12796 0.319637
-0.0613204 -0.128312 0.318844
-0.0610849 -0.12865 0.318023
-0.0608695 -0.129034 0.317321
-0.0606662 -0.129445 0.31669
-0.0604832 -0.129904 0.316181
-0.0603295 -0.130435 0.31585
-0.0602028 -0.131034 0.315683
-0.0600813 -0.131646 0.315547
-0.0599699 -0.132285 0.315474
-0.0598697 -0.132952 0.31547
-0.0597663 -0.133613 0.315446
-0.0596634 -0.134275 0.315426
-0.0595583 -0.134932 0.315393
-0.0594417 -0.13556 0.31529
-0.0593144 -0.13616 0.31512
-0.0591977 -0.136788 0.315017
-0.0590823 -0.137419 0.314921
-0.0589628 -0.13804 0.3148
-0.0588419 -0.138658 0.314671
-0.0587192 -0.139271 0.314531
-0.0585762 -0.139828 0.314264
-0.0584168 -0.140338 0.313893
-0.0582808 -0.140913 0.313669
-0.0581548 -0.141516 0.313508
-0.0580407 -0.142153 0.313421
-0.057932 -0.142806 0.313369
-0.0578363 -0.143496 0.3134
-0.0577175 -0.144121 0.313285
-0.0575893 -0.144719 0.313111
-0.0574566 -0.145304 0.312907
-0.0573245 -0.14589 0.312708
-0.057172 -0.146416 0.312378
-0.057022 -0.146948 0.312064
-0.0568665 -0.147463 0.311713
-0.0567127 -0.147982 0.311373
-0.0565655 -0.14852 0.311076
-0.056438 -0.149118 0.310904
-0.0563062 -0.149702 0.310704
-0.0561791 -0.1503 0.310535
-0.0560519 -0.150899 0.310365
-0.0559199 -0.151482 0.310164
-0.0558068 -0.152125 0.310086
-0.0557049 -0.152804 0.310082
-0.0556202 -0.153538 0.31019
-0.0555409 -0.154291 0.310335
-0.0554702 -0.155074 0.310537
-0.0553837 -0.155808 0.310637
-0.0552962 -0.15654 0.310731
-0.0551996 -0.157245 0.310767
-0.0551079 -0.157966 0.310836
-0.0550163 -0.158689 0.310906
-0.05492 -0.159398 0.310946
-0.0548177 -0.160088 0.310947
-0.054719 -0.160791 0.310973
-0.0546393 -0.161561 0.311126
-0.0545766 -0.16239 0.311395
-0.0545054 -0.163193 0.311608
-0.0548633 -0.165486 0.314705
-0.05692 -0.175955 0.330722
-0.0573139 -0.178476 0.334129
-0.0571975 -0.1792 0.33409
-0.057069 -0.17988 0.333969
-0.056908 -0.180443 0.333625
-0.056727 -0.180932 0.333145
-0.0577666 -0.183521 0.336291
-0.056518 -0.181317 0.332472
-0.0721038 -0.0769915 0.335784
-0.071929 -0.077536 0.335366
-0.0717516 -0.078076 0.334933
-0.0715271 -0.078552 0.334247
-0.0713118 -0.079038 0.333609
-0.0710946 -0.0795194 0.332959
-0.0708404 -0.0799479 0.332108
-0.0705979 -0.0803899 0.33132
-0.0703813 -0.0808653 0.330669
-0.0701758 -0.0813543 0.330076
-0.0699924 -0.0818727 0.329602
-0.0698457 -0.0824427 0.329326
-0.0696995 -0.0830128 0.329053
-0.0695599 -0.0835919 0.328815
-0.0694326 -0.0841889 0.328644
-0.0693238 -0.0848134 0.328573
-0.0692104 -0.0854313 0.328478
-0.0691089 -0.0860675 0.328449
-0.0690188 -0.0867216 0.328482
-0.0689361 -0.0873879 0.328556
-0.0688684 -0.0880783 0.328713
-0.0688014 -0.0887714 0.328876
-0.0687393 -0.0894736 0.329066
-0.0686692 -0.0901646 0.329213
-0.0685922 -0.0908461 0.329322
-0.0684984 -0.0915022 0.32934
-0.0684029 -0.0921563 0.32935
-0.0683186 -0.0928293 0.329421
-0.0682293 -0.0934953 0.329466
-0.0687556 -0.0942562 0.329375
-0.0681418 -0.0941652 0.329521
-0.0699199 -0.115451 0.35164
-0.0697284 -0.115993 0.351145
-0.0695086 -0.116477 0.350484
-0.0692216 -0.116828 0.349437
-0.0688405 -0.116987 0.347841
-0.0684197 -0.11706 0.346008
-0.0679972 -0.117122 0.344162
-0.0676032 -0.117233 0.342476
-0.0672532 -0.117428 0.341043
-0.0669764 -0.117765 0.34003
-0.0667228 -0.118148 0.339153
-0.0664645 -0.118517 0.338244
-0.0662018 -0.118872 0.337307
-0.0659534 -0.119255 0.336453
-0.0657004 -0.119624 0.335568
-0.0654424 -0.119979 0.334651
-0.0651869 -0.120336 0.333748
-0.0649275 -0.120681 0.332818
-0.0646523 -0.120987 0.331792
-0.0644117 -0.121366 0.330971
-0.0641861 -0.121774 0.330234
-0.0639651 -0.122189 0.329524
-0.0637457 -0.122606 0.328821
-0.0635425 -0.123057 0.328214
-0.06331 -0.123438 0.327429
-0.0630826 -0.123828 0.326673
-0.0628451 -0.124193 0.325855
-0.0626306 -0.124607 0.325172
-0.0624121 -0.125009 0.324464
-0.0622119 -0.125451 0.323863
-0.0620014 -0.125867 0.3232
-0.061802 -0.126306 0.322602
-0.0615862 -0.126704 0.321903
-0.0613656 -0.127088 0.321173
-0.0611335 -0.127441 0.320371
-0.0609123 -0.127817 0.319634
-0.0606821 -0.128169 0.318839
-0.0604482 -0.128507 0.31802
-0.0602344 -0.128893 0.317322
-0.0600376 -0.129318 0.316726
-0.0598606 -0.129791 0.31625
-0.0597178 -0.13035 0.315984
-0.0596021 -0.130977 0.315885
-0.0594917 -0.131618 0.315818
-0.0593964 -0.132299 0.315846
-0.0593071 -0.132997 0.315912
-0.0592094 -0.133673 0.315926
-0.0591054 -0.134335 0.315902
-0.0589991 -0.134991 0.315864
-0.0588764 -0.135603 0.315724
-0.0587441 -0.13619 0.315523
-0.058632 -0.136832 0.31545
-0.0585215 -0.137479 0.315387
-0.0584075 -0.138116 0.315302
-0.0582965 -0.138763 0.315237
-0.0581793 -0.139392 0.315132
-0.0580372 -0.139952 0.314871
-0.0578791 -0.140467 0.314508
-0.0577434 -0.141044 0.314285
-0.0576046 -0.141612 0.314044
-0.0574782 -0.142215 0.31388
-0.0573573 -0.142835 0.313753
-0.0572496 -0.143492 0.313709
-0.0571217 -0.144092 0.313537
-0.0569936 -0.14469 0.313364
-0.0568611 -0.145276 0.313162
-0.0567336 -0.145876 0.312992
-0.0565862 -0.146417 0.312694
-0.056442 -0.146966 0.312415
-0.0562918 -0.147497 0.312098
-0.0561429 -0.148032 0.311788
-0.0559911 -0.148556 0.311459
-0.0558583 -0.149138 0.311254
-0.055721 -0.149706 0.311019
-0.0555889 -0.15029 0.310817
-0.0554616 -0.150889 0.310648
-0.0553298 -0.151472 0.310447
-0.0552114 -0.1521 0.310336
-0.055108 -0.152775 0.310324
-0.0550171 -0.153491 0.310395
-0.0549327 -0.154231 0.31051
-0.0548613 -0.155013 0.310712
-0.0547793 -0.155764 0.310846
-0.0546874 -0.156484 0.310914
-0.0545943 -0.157201 0.310976
-0.0545016 -0.157921 0.311042
-0.0544138 -0.158659 0.311141
-0.054322 -0.159385 0.311214
-0.0542284 -0.160106 0.311277
-0.0541381 -0.16084 0.311362
-0.0540679 -0.161645 0.311584
-0.0540013 -0.162464 0.311832
-0.0539355 -0.16329 0.312088
-0.0543742 -0.165886 0.315777
-0.056216 -0.175701 0.330541
-0.0566434 -0.178366 0.334225
-0.0565311 -0.179105 0.334216
-0.0564116 -0.179818 0.334158
-0.0562509 -0.180381 0.333813
-0.0560754 -0.180889 0.333367
-0.0558722 -0.181294 0.33273
-0.0712873 -0.0774057 0.335369
-0.071106 -0.0779399 0.334913
-0.0708842 -0.0784183 0.334237
-0.0706622 -0.0788941 0.333558
-0.0704395 -0.0793667 0.332873
-0.0701867 -0.0797956 0.332024
-0.0699513 -0.0802456 0.331267
-0.0697366 -0.0807224 0.330622
-0.0695391 -0.0812216 0.330069
-0.0693626 -0.0817492 0.329629
-0.069216 -0.0823189 0.329353
-0.0690627 -0.0828782 0.329039
-0.0689164 -0.0834474 0.328764
-0.0687763 -0.0840252 0.328522
-0.0686562 -0.0846325 0.328391
-0.0685436 -0.0852512 0.3283
-0.0684427 -0.0858881 0.328275
-0.0683472 -0.0865339 0.32828
-0.0682573 -0.0871891 0.328316
-0.0681802 -0.087865 0.328424
-0.068105 -0.0885452 0.328543
-0.0680359 -0.0892363 0.328697
-0.0679718 -0.0899367 0.32888
-0.0679083 -0.0906399 0.329068
-0.0678329 -0.0913252 0.32919
-0.0677514 -0.092002 0.329279
-0.067685 -0.0927048 0.329453
-0.0676081 -0.0933917 0.329569
-0.067526 -0.0940712 0.329657
-0.0680773 -0.0948743 0.329705
-0.0674549 -0.0947705 0.329808
-0.068043 -0.0956359 0.330059
-0.0674061 -0.0955089 0.330085
-0.0680369 -0.0964474 0.330572
-0.0673728 -0.0962757 0.330451
-0.0680769 -0.0973406 0.331346
-0.0673846 -0.0971225 0.331074
-0.0681323 -0.0982645 0.332208
-0.0674187 -0.0980115 0.331826
-0.0681689 -0.0991606 0.332968
-0.06744 -0.0988825 0.332508
-0.068182 -0.10002 0.333599
-0.0674514 -0.0997401 0.333137
-0.0681416 -0.100789 0.333931
-0.0674232 -0.100531 0.333543
-0.0680624 -0.101493 0.334046
-0.0673575 -0.101258 0.333737
-0.0679531 -0.102144 0.333991
-0.0672631 -0.101935 0.333767
-0.0678419 -0.102792 0.333925
-0.0671644 -0.102605 0.333774
-0.0677099 -0.103402 0.333742
-0.0670397 -0.103229 0.333633
-0.066888 -0.103804 0.333336
-0.0691157 -0.115988 0.351566
-0.0688829 -0.116446 0.350827
-0.0685842 -0.116771 0.349701
-0.0682196 -0.116959 0.348186
-0.0678164 -0.117064 0.346443
-0.0674168 -0.117167 0.344713
-0.0670194 -0.117268 0.34299
-0.0666763 -0.117473 0.341585
-0.0663928 -0.117796 0.340527
-0.0661283 -0.118154 0.339576
-0.0658699 -0.11852 0.33866
-0.065608 -0.118877 0.337722
-0.0653673 -0.119273 0.336904
-0.0651224 -0.119659 0.336063
-0.0648768 -0.120039 0.335212
-0.0646233 -0.120399 0.334314
-0.0643642 -0.120743 0.333379
-0.0640846 -0.121038 0.332318
-0.0638349 -0.121395 0.331435
-0.0635981 -0.121777 0.330626
-0.0633711 -0.122178 0.329874
-0.0631455 -0.122579 0.329129
-0.0629407 -0.123025 0.328507
-0.0627087 -0.123406 0.327719
-0.0624772 -0.123785 0.326933
-0.0622398 -0.124148 0.326108
-0.0620193 -0.124546 0.325383
-0.0617901 -0.124921 0.324604
-0.0615846 -0.125349 0.323967
-0.0613695 -0.125752 0.32327
-0.0611597 -0.126165 0.322604
-0.0609439 -0.126561 0.321899
-0.0607237 -0.126943 0.321165
-0.0604936 -0.127298 0.320368
-0.060279 -0.127689 0.319665
-0.0600554 -0.128053 0.318904
-0.0598281 -0.128406 0.318118
-0.0596209 -0.128806 0.317455
-0.0594308 -0.129247 0.316896
-0.0592646 -0.129746 0.316484
-0.0591327 -0.130332 0.316285
-0.059028 -0.130989 0.316255
-0.0589298 -0.131664 0.316267
-0.058846 -0.132376 0.31637
-0.0587575 -0.133079 0.316444
-0.0586591 -0.133756 0.316457
-0.0585487 -0.134402 0.316395
-0.0584359 -0.135042 0.316318
-0.0583073 -0.13564 0.316142
-0.0581697 -0.136213 0.315909
-0.0580569 -0.136854 0.315832
-0.0579457 -0.1375 0.315766
-0.0578354 -0.138149 0.315707
-0.0577246 -0.138797 0.315644
-0.0576166 -0.139454 0.3156
-0.0574837 -0.140041 0.315397
-0.0573362 -0.140587 0.315101
-0.0571968 -0.141154 0.314855
-0.0570533 -0.14171 0.314583
-0.0569202 -0.142295 0.314378
-0.0567888 -0.142885 0.314183
-0.056666 -0.1435 0.314045
-0.0565336 -0.144086 0.313844
-0.0564051 -0.144685 0.313668
-0.0562678 -0.145257 0.313435
-0.0561356 -0.145843 0.313235
-0.0559934 -0.1464 0.312969
-0.0558548 -0.146967 0.312727
-0.0557107 -0.147516 0.312448
-0.0555679 -0.148069 0.312177
-0.0554203 -0.148606 0.311875
-0.0552868 -0.149187 0.311665
-0.0551487 -0.149753 0.311424
-0.0550159 -0.150335 0.311219
-0.0548886 -0.150935 0.311049
-0.054757 -0.151521 0.310851
-0.0546294 -0.152119 0.31068
-0.0545205 -0.152779 0.310633
-0.0544185 -0.153461 0.310633
-0.0543282 -0.154183 0.310713
-0.0542519 -0.154952 0.310887
-0.0541744 -0.15572 0.311056
-0.0540771 -0.156424 0.311091
-0.0539878 -0.157155 0.311181
-0.0538942 -0.157874 0.311244
-0.0538067 -0.158614 0.311348
-0.053719 -0.159356 0.311453
-0.053635 -0.160112 0.311584
-0.05355 -0.160867 0.31171
-0.0534942 -0.161725 0.312036
-0.0534332 -0.162569 0.312329
-0.0534723 -0.163767 0.313312
-0.0555986 -0.175758 0.330955
-0.0559659 -0.178229 0.334272
-0.0558581 -0.178985 0.334294
-0.0557432 -0.179717 0.334271
-0.0555874 -0.180297 0.333959
-0.0554174 -0.180823 0.333548
-0.055221 -0.181251 0.332954
-0.0706321 -0.0772573 0.335299
-0.0704496 -0.0777889 0.334832
-0.0702433 -0.0782869 0.334236
-0.0700097 -0.0787456 0.333488
-0.0697757 -0.0792012 0.332737
-0.0695181 -0.0796213 0.331854
-0.0692843 -0.080072 0.3311
-0.0690768 -0.0805576 0.33049
-0.0688924 -0.0810743 0.330005
-0.0687286 -0.0816194 0.329633
-0.0685877 -0.082197 0.329387
-0.0684338 -0.0827551 0.329068
-0.0682802 -0.0833131 0.328751
-0.0681338 -0.0838811 0.328474
-0.0680128 -0.0844869 0.328337
-0.0679005 -0.085106 0.328249
-0.0678013 -0.0857455 0.328234
-0.0677061 -0.0863919 0.328242
-0.0676096 -0.0870371 0.328244
-0.0675133 -0.0876833 0.328247
-0.0674239 -0.0883412 0.328289
-0.067348 -0.0890217 0.328408
-0.0672839 -0.0897221 0.328593
-0.0672268 -0.0904356 0.32882
-0.0671635 -0.0911408 0.329013
-0.0670939 -0.0918372 0.329171
-0.0670337 -0.0925507 0.329384
-0.0669571 -0.0932386 0.329504
-0.0668748 -0.0939181 0.329593
-0.0668024 -0.0946157 0.329739
-0.0667353 -0.0953237 0.329917
-0.0666823 -0.0960576 0.330176
-0.0666783 -0.0968785 0.330717
-0.0666909 -0.0977314 0.331354
-0.0666987 -0.0985798 0.331966
-0.0667075 -0.0994337 0.332588
-0.0666898 -0.100244 0.333059
-0.0666365 -0.100993 0.333327
-0.0665651 -0.101711 0.333491
-0.0664795 -0.102405 0.333575
-0.0663701 -0.103056 0.333522
-0.0662331 -0.103657 0.33331
-0.0660834 -0.104234 0.333023
-0.0681573 -0.114389 0.349342
-0.0682001 -0.115386 0.350213
-0.0681453 -0.116194 0.350516
-0.0679657 -0.116754 0.350081
-0.0676036 -0.116944 0.348568
-0.0672035 -0.11705 0.346826
-0.0668125 -0.117167 0.345132
-0.0664182 -0.117269 0.343413
-0.0660831 -0.117488 0.342041
-0.0658016 -0.117813 0.340986
-0.0655383 -0.118171 0.340035
-0.0652803 -0.118538 0.339114
-0.0650301 -0.118917 0.338237
-0.0647952 -0.119326 0.33745
-0.064558 -0.119726 0.336647
-0.0643194 -0.120121 0.335833
-0.0640678 -0.120484 0.334939
-0.0637989 -0.120805 0.333937
-0.0635155 -0.121089 0.332845
-0.0632552 -0.121421 0.33189
-0.0630085 -0.121779 0.331015
-0.0627753 -0.122165 0.33022
-0.0625428 -0.122549 0.329426
-0.0623319 -0.122979 0.328763
-0.0621052 -0.123371 0.328001
-0.0618747 -0.12375 0.327214
-0.0616388 -0.124114 0.326391
-0.0614137 -0.1245 0.325633
-0.0611846 -0.124873 0.324847
-0.060969 -0.125276 0.324144
-0.0607544 -0.125679 0.323444
-0.0605397 -0.126078 0.322742
-0.0603242 -0.126472 0.322033
-0.0600992 -0.126841 0.321263
-0.0598704 -0.127196 0.320467
-0.0596522 -0.127575 0.319736
-0.0594301 -0.127942 0.318977
-0.0592092 -0.128308 0.318224
-0.0590086 -0.128723 0.317597
-0.0588254 -0.129179 0.317076
-0.0586702 -0.129707 0.316732
-0.058554 -0.130334 0.316632
-0.0584612 -0.131023 0.316679
-0.0583789 -0.131741 0.316794
-0.058311 -0.132499 0.317002
-0.0582274 -0.133216 0.317111
-0.0581282 -0.133894 0.317122
-0.058016 -0.134537 0.317051
-0.0578918 -0.135148 0.316904
-0.0577529 -0.135719 0.316662
-0.0576094 -0.136278 0.316392
-0.057486 -0.136891 0.316249
-0.0573642 -0.137509 0.316117
-0.0572487 -0.138145 0.316026
-0.0571325 -0.138779 0.31593
-0.0570196 -0.139423 0.315856
-0.0568866 -0.14001 0.315652
-0.0567529 -0.140595 0.315444
-0.0566184 -0.141177 0.31523
-0.0564798 -0.141747 0.314989
-0.0563463 -0.142332 0.314782
-0.0562183 -0.142932 0.31461
-0.0560858 -0.14352 0.314409
-0.0559532 -0.144106 0.314206
-0.0558246 -0.144705 0.31403
-0.0556913 -0.14529 0.313824
-0.0555542 -0.145862 0.313591
-0.0554167 -0.146434 0.313356
-0.0552789 -0.147004 0.313119
-0.0551364 -0.147558 0.31285
-0.0549941 -0.148113 0.312583
-0.0548516 -0.148667 0.312313
-0.0547133 -0.149234 0.312071
-0.0545747 -0.149798 0.311827
-0.0544416 -0.150381 0.311619
-0.0543141 -0.150981 0.311449
-0.0541829 -0.151568 0.311254
-0.0540511 -0.152154 0.311055
-0.0539408 -0.15281 0.311001
-0.0538327 -0.153475 0.310964
-0.053737 -0.154181 0.311009
-0.0536549 -0.154934 0.31115
-0.0535723 -0.155687 0.311287
-0.0534697 -0.156374 0.311289
-0.0533799 -0.157105 0.31138
-0.0532858 -0.157825 0.311442
-0.0532031 -0.158584 0.311584
-0.0531251 -0.159361 0.311759
-0.0530515 -0.160156 0.311966
-0.0529816 -0.160967 0.312201
-0.0529317 -0.16185 0.312575
-0.052866 -0.162681 0.312843
-0.0530114 -0.164268 0.314583
-0.055049 -0.176067 0.331855
-0.0552913 -0.178103 0.334337
-0.0551826 -0.178858 0.33436
-0.0550682 -0.179591 0.334339
-0.054913 -0.180173 0.334031
-0.0547489 -0.180721 0.33366
-0.0699568 -0.0770809 0.335114
-0.069778 -0.0776165 0.334665
-0.0695912 -0.07814 0.334172
-0.0693581 -0.0785978 0.333421
-0.069125 -0.0790531 0.332669
-0.0688739 -0.0794808 0.331815
-0.0686473 -0.0799401 0.331095
-0.0684471 -0.080435 0.330521
-0.0682696 -0.080961 0.330071
-0.0681072 -0.0815075 0.329705
-0.0679668 -0.0820857 0.329461
-0.0678139 -0.0826452 0.329147
-0.0676599 -0.083202 0.328826
-0.0675128 -0.0837688 0.328543
-0.0673907 -0.084373 0.328401
-0.067278 -0.0849917 0.328311
-0.067178 -0.0856304 0.328294
-0.0670778 -0.0862694 0.328275
-0.0669752 -0.0869053 0.328244
-0.0668662 -0.0875318 0.328177
-0.0667696 -0.0881784 0.32818
-0.0666863 -0.0888472 0.328259
-0.0666168 -0.0895394 0.328418
-0.0665585 -0.0902514 0.328641
-0.0665005 -0.0909656 0.328867
-0.0664354 -0.0916699 0.329055
-0.0663763 -0.0923857 0.329276
-0.0663047 -0.0930824 0.329429
-0.0662223 -0.0937622 0.329519
-0.0661486 -0.0944581 0.329662
-0.0660695 -0.0951461 0.329773
-0.0660086 -0.0958668 0.32999
-0.0659915 -0.0966662 0.330462
-0.0659895 -0.0974949 0.331023
-0.0659835 -0.0983201 0.331564
-0.0659849 -0.0991616 0.332149
-0.0659602 -0.0999598 0.332585
-0.0659119 -0.100718 0.332886
-0.0658463 -0.101447 0.333087
-0.0657788 -0.102174 0.333279
-0.0656857 -0.102854 0.333321
-0.0655672 -0.103489 0.333217
-0.0654337 -0.104096 0.333023
-0.0659343 -0.104811 0.33274
-0.0653039 -0.104709 0.332853
-0.0651901 -0.105354 0.332776
-0.0670706 -0.113439 0.346933
-0.0673204 -0.114847 0.349044
-0.067419 -0.115962 0.350262
-0.0673634 -0.116771 0.350563
-0.0670012 -0.116957 0.349037
-0.0665947 -0.117046 0.34724
-0.0662005 -0.117152 0.345511
-0.0658083 -0.117255 0.343788
-0.0654808 -0.117486 0.342451
-0.0652013 -0.117813 0.341398
-0.0649403 -0.118175 0.340454
-0.0646785 -0.118531 0.339502
-0.0644344 -0.118922 0.338655
-0.0641943 -0.119318 0.33783
-0.0639632 -0.119731 0.337058
-0.0637326 -0.120141 0.336287
-0.0634942 -0.120532 0.335465
-0.0632319 -0.120866 0.334496
-0.0629536 -0.121159 0.333426
-0.0626867 -0.121475 0.332423
-0.0624339 -0.121818 0.331503
-0.0621847 -0.122165 0.330603
-0.0619367 -0.122512 0.329708
-0.06172 -0.122928 0.329003
-0.0614891 -0.123307 0.328209
-0.0612553 -0.123677 0.327395
-0.0610268 -0.124056 0.326611
-0.0608025 -0.124442 0.325852
-0.0605749 -0.124817 0.325069
-0.060354 -0.125205 0.324327
-0.0601404 -0.125608 0.323628
-0.0599212 -0.125994 0.322891
-0.0597113 -0.126401 0.322211
-0.059482 -0.126757 0.321408
-0.0592591 -0.127125 0.320642
-0.0590369 -0.127492 0.319879
-0.0588159 -0.127858 0.319121
-0.0585955 -0.128223 0.318365
-0.0584008 -0.128652 0.317769
-0.058224 -0.129124 0.317286
-0.0580811 -0.129683 0.317017
-0.0579856 -0.130365 0.31705
-0.0579086 -0.131098 0.317202
-0.0578467 -0.131873 0.317453
-0.0577891 -0.132661 0.317732
-0.0577144 -0.133406 0.317903
-0.0576138 -0.134082 0.317908
-0.0575008 -0.134726 0.317834
-0.0573667 -0.135312 0.317624
-0.0572223 -0.135869 0.317348
-0.0570681 -0.136399 0.317007
-0.0569287 -0.136969 0.316762
-0.0567906 -0.137542 0.316525
-0.0566644 -0.138149 0.316366
-0.0565381 -0.138755 0.316205
-0.0564203 -0.139387 0.316102
-0.0562874 -0.139974 0.315898
-0.056154 -0.14056 0.315692
-0.0560204 -0.141146 0.315484
-0.0558819 -0.141716 0.315243
-0.0557485 -0.142301 0.315036
-0.0556198 -0.142901 0.31486
-0.0554878 -0.14349 0.314662
-0.0553549 -0.144076 0.314458
-0.0552211 -0.14466 0.314247
-0.0550873 -0.145243 0.314037
-0.054945 -0.145799 0.31377
-0.054812 -0.146385 0.313564
-0.0546745 -0.146956 0.313328
-0.0545414 -0.14754 0.313122
-0.0543997 -0.148097 0.312857
-0.054262 -0.148665 0.312619
-0.0541193 -0.149218 0.312347
-0.0539815 -0.149785 0.312107
-0.0538442 -0.150355 0.311872
-0.0537167 -0.150955 0.311702
-0.0535896 -0.151557 0.311535
-0.0534575 -0.152143 0.311334
-0.0533429 -0.152786 0.311252
-0.0532336 -0.153447 0.311208
-0.0531364 -0.15415 0.311247
-0.0530445 -0.154872 0.311324
-0.0529564 -0.155608 0.311427
-0.0528528 -0.156293 0.311425
-0.052762 -0.157023 0.311512
-0.0526684 -0.157745 0.311581
-0.0525949 -0.158539 0.311791
-0.0525267 -0.159354 0.31204
-0.052467 -0.160201 0.31235
-0.0524074 -0.161051 0.312663
-0.0523567 -0.161936 0.31304
-0.0523902 -0.163128 0.314013
-0.0526499 -0.165144 0.316586
-0.0541412 -0.173919 0.32944
-0.0544994 -0.176387 0.332775
-0.0546101 -0.177952 0.334357
-0.0544959 -0.178687 0.334341
-0.0543781 -0.179409 0.334299
-0.0542289 -0.180013 0.334032
-0.0540804 -0.18062 0.333773
-0.0551162 -0.183285 0.337071
-0.0693342 -0.0769754 0.335218
-0.069155 -0.0775099 0.334764
-0.0689557 -0.0780153 0.334197
-0.0687178 -0.0784652 0.333414
-0.0684848 -0.0789195 0.332657
-0.0682405 -0.0793551 0.331835
-0.0680155 -0.0798154 0.331118
-0.0678176 -0.0803126 0.330552
-0.067647 -0.0808478 0.330139
-0.0674912 -0.0814037 0.329807
-0.0673522 -0.0819838 0.329571
-0.0672062 -0.0825534 0.329295
-0.0670594 -0.0831209 0.329013
-0.0669125 -0.0836881 0.328731
-0.0667844 -0.0842833 0.328554
-0.0666702 -0.0849001 0.328457
-0.0665638 -0.0855294 0.328405
-0.0664566 -0.0861578 0.328348
-0.0663477 -0.0867842 0.328282
-0.066232 -0.0874002 0.328178
-0.0661343 -0.0880453 0.328176
-0.0660446 -0.0887041 0.328221
-0.0659688 -0.0893865 0.328346
-0.065909 -0.0900967 0.328565
-0.0658494 -0.0908091 0.328786
-0.0657782 -0.0915037 0.328941
-0.0657178 -0.092218 0.32916
-0.0656461 -0.092915 0.329314
-0.0655625 -0.0935928 0.3294
-0.0654883 -0.0942882 0.329542
-0.0654088 -0.0949759 0.329654
-0.0653417 -0.0956865 0.329839
-0.0653111 -0.0964632 0.330238
-0.0652953 -0.0972688 0.330726
-0.0652815 -0.0980812 0.331228
-0.0652755 -0.0989107 0.331777
-0.0652506 -0.0997092 0.332217
-0.0652016 -0.100466 0.332518
-0.0651465 -0.101214 0.332785
-0.0650847 -0.101952 0.333014
-0.0650003 -0.102649 0.333109
-0.0648905 -0.1033 0.333056
-0.0647752 -0.103941 0.33297
-0.0646529 -0.104568 0.332843
-0.0645494 -0.105232 0.332829
-0.0644538 -0.105913 0.332861
-0.0653089 -0.107315 0.334668
-0.0645822 -0.107033 0.334232
-0.0648575 -0.10845 0.336486
-0.0662948 -0.114919 0.347606
-0.0663629 -0.115977 0.348656
-0.0661196 -0.116399 0.347828
-0.0658237 -0.116708 0.346681
-0.0655335 -0.117025 0.345564
-0.0651615 -0.117165 0.343948
-0.0648488 -0.117424 0.342687
-0.0645822 -0.117775 0.341704
-0.0643344 -0.118164 0.340832
-0.0640751 -0.118524 0.339888
-0.0638323 -0.118916 0.339042
-0.063587 -0.119299 0.338178
-0.0633565 -0.119711 0.337404
-0.0631272 -0.120123 0.336634
-0.0628964 -0.120529 0.335853
-0.0626355 -0.120864 0.334884
-0.0623565 -0.121154 0.3338
-0.0620833 -0.121452 0.332749
-0.061819 -0.121766 0.33175
-0.0615589 -0.122086 0.330775
-0.0613118 -0.122433 0.329877
-0.0610911 -0.122837 0.329142
-0.0608623 -0.12322 0.328354
-0.0606351 -0.123603 0.327574
-0.0604139 -0.123997 0.326829
-0.0601861 -0.124373 0.326041
-0.0599638 -0.124759 0.325286
-0.0597432 -0.125146 0.324538
-0.0595305 -0.125549 0.323839
-0.0593129 -0.125937 0.323106
-0.05911 -0.12636 0.322466
-0.0588815 -0.126715 0.32166
-0.058659 -0.127082 0.32089
-0.0584321 -0.127435 0.32009
-0.058211 -0.127799 0.319326
-0.0579956 -0.128175 0.318595
-0.0578023 -0.128605 0.318003
-0.0576317 -0.129093 0.317557
-0.0575041 -0.129693 0.317386
-0.0574246 -0.130419 0.317525
-0.0573588 -0.131184 0.317754
-0.0573129 -0.132005 0.318113
-0.0572643 -0.132822 0.318458
-0.0571946 -0.133583 0.318666
-0.0570935 -0.134261 0.318672
-0.0569759 -0.134894 0.318571
-0.0568365 -0.135467 0.318327
-0.0566818 -0.135997 0.317983
-0.0565163 -0.136496 0.317567
-0.0563654 -0.137034 0.317246
-0.0562163 -0.137577 0.316938
-0.0560786 -0.138152 0.316703
-0.055946 -0.138741 0.316501
-0.0558226 -0.139357 0.316361
-0.0556854 -0.139932 0.31613
-0.0555525 -0.14052 0.315927
-0.0554196 -0.141108 0.315723
-0.0552819 -0.141681 0.315487
-0.0551489 -0.142268 0.315283
-0.0550207 -0.142869 0.31511
-0.0548882 -0.143457 0.314909
-0.0547555 -0.144044 0.314706
-0.054622 -0.144629 0.314498
-0.0544884 -0.145213 0.314288
-0.0543456 -0.145768 0.314017
-0.0542169 -0.146367 0.31384
-0.0540789 -0.146937 0.313601
-0.0539508 -0.147537 0.313429
-0.0538085 -0.148092 0.313159
-0.0536707 -0.148661 0.31292
-0.0535235 -0.149199 0.312616
-0.0533858 -0.149767 0.312377
-0.0532445 -0.150323 0.312112
-0.0531169 -0.150924 0.311942
-0.0529896 -0.151526 0.311774
-0.0528575 -0.152111 0.311573
-0.0527383 -0.152741 0.311462
-0.0526291 -0.153403 0.31142
-0.0525271 -0.154092 0.311428
-0.0524298 -0.154797 0.311471
-0.0523355 -0.155514 0.311535
-0.0522353 -0.156212 0.311559
-0.052144 -0.156942 0.311646
-0.0520599 -0.157699 0.311785
-0.0519953 -0.158526 0.312063
-0.0519363 -0.159377 0.312383
-0.0518851 -0.160258 0.31276
-0.0518288 -0.161125 0.313104
-0.0517682 -0.161978 0.313418
-0.0519059 -0.163557 0.31515
-0.0522779 -0.166006 0.318567
-0.0537273 -0.17473 0.331312
-0.0539502 -0.176719 0.333721
-0.0539454 -0.177863 0.334495
-0.0538303 -0.178596 0.334475
-0.0537127 -0.17932 0.334436
-0.0535745 -0.179965 0.334248
-0.0686959 -0.0768485 0.335234
-0.0685189 -0.0773853 0.334789
-0.0683193 -0.0778893 0.334217
-0.0680774 -0.0783322 0.333405
-0.0678456 -0.0787866 0.332649
-0.0676088 -0.0792313 0.331862
-0.0673858 -0.0796934 0.331152
-0.0671891 -0.0801914 0.330589
-0.0670248 -0.0807354 0.330209
-0.0668745 -0.0812991 0.329907
-0.066742 -0.0818889 0.329707
-0.0666032 -0.0824689 0.32947
-0.0664636 -0.0830474 0.329228
-0.0663238 -0.0836256 0.328986
-0.0661908 -0.0842137 0.328782
-0.06607 -0.0848207 0.328648
-0.0659558 -0.0854382 0.328552
-0.0658413 -0.0860557 0.328455
-0.065726 -0.0866721 0.328353
-0.0656044 -0.0872787 0.328215
-0.065506 -0.087923 0.328211
-0.0654102 -0.0885725 0.328223
-0.0653276 -0.0892443 0.328312
-0.0652612 -0.0899443 0.328496
-0.0651995 -0.0906537 0.328708
-0.0651278 -0.0913481 0.328864
-0.0650667 -0.0920619 0.329082
-0.0649946 -0.0927587 0.329237
-0.0649098 -0.0934349 0.329319
-0.0648348 -0.0941295 0.329459
-0.0647492 -0.0948068 0.329538
-0.0646767 -0.0955085 0.329695
-0.0646332 -0.0962633 0.330024
-0.064609 -0.097055 0.330468
-0.0645864 -0.0978527 0.330924
-0.0645743 -0.0986722 0.331444
-0.0645485 -0.0994697 0.331885
-0.0645048 -0.100237 0.332222
-0.064454 -0.100994 0.332518
-0.0644037 -0.101753 0.332819
-0.0643307 -0.102472 0.332985
-0.0642341 -0.103148 0.333012
-0.0641329 -0.103816 0.333012
-0.0640181 -0.104458 0.33293
-0.063913 -0.10512 0.332908
-0.0638181 -0.105802 0.332947
-0.0638843 -0.106804 0.333958
-0.0639586 -0.107828 0.335023
-0.065154 -0.114739 0.345433
-0.0650281 -0.115395 0.34531
-0.0648546 -0.115951 0.344896
-0.064679 -0.116502 0.344468
-0.0644131 -0.11686 0.343485
-0.0641858 -0.117296 0.342736
-0.0639322 -0.117673 0.341824
-0.0636925 -0.118077 0.340995
-0.0634402 -0.118449 0.340086
-0.0632046 -0.118855 0.339277
-0.0629653 -0.119249 0.338443
-0.0627408 -0.119674 0.3377
-0.0625179 -0.120099 0.336964
-0.0622889 -0.120507 0.336187
-0.0620298 -0.120843 0.335221
-0.0617523 -0.121134 0.334137
-0.061469 -0.121406 0.333014
-0.0611939 -0.121693 0.331938
-0.060929 -0.121999 0.330923
-0.0606817 -0.122342 0.330016
-0.0604571 -0.122735 0.32925
-0.0602343 -0.12313 0.328493
-0.0600142 -0.123528 0.327751
-0.0597989 -0.123935 0.327037
-0.0595678 -0.1243 0.326221
-0.0593509 -0.124697 0.325493
-0.059131 -0.125084 0.324744
-0.0589244 -0.1255 0.324078
-0.0587139 -0.125905 0.323385
-0.0585178 -0.126343 0.322783
-0.0582908 -0.1267 0.32198
-0.0580688 -0.127066 0.321207
-0.0578318 -0.127391 0.320335
-0.057606 -0.127741 0.319533
-0.0573911 -0.128116 0.318799
-0.0572033 -0.12856 0.318239
-0.0570437 -0.129076 0.317861
-0.0569315 -0.129716 0.31779
-0.0568678 -0.130488 0.318037
-0.0568168 -0.131296 0.318368
-0.0567816 -0.13215 0.318805
-0.0567334 -0.132971 0.319159
-0.0566635 -0.133736 0.319372
-0.0565617 -0.134415 0.319377
-0.056444 -0.135049 0.319277
-0.0563048 -0.135624 0.319035
-0.0561494 -0.136153 0.318685
-0.0559827 -0.136649 0.31826
-0.055821 -0.137158 0.317867
-0.0556559 -0.137655 0.317451
-0.0554976 -0.138171 0.317078
-0.055349 -0.138715 0.31677
-0.0552101 -0.139285 0.316527
-0.0550677 -0.139846 0.31626
-0.0549352 -0.140435 0.316059
-0.0548073 -0.141037 0.315889
-0.0546748 -0.141626 0.315688
-0.0545465 -0.142227 0.315515
-0.0544185 -0.142829 0.315344
-0.0542862 -0.143418 0.315144
-0.0541538 -0.144007 0.314943
-0.0540205 -0.144592 0.314736
-0.0538871 -0.145178 0.314528
-0.0537401 -0.145719 0.314226
-0.0536114 -0.146318 0.31405
-0.0534691 -0.146874 0.31378
-0.0533411 -0.147475 0.313608
-0.0531945 -0.148016 0.313308
-0.0530609 -0.148599 0.313098
-0.052913 -0.149134 0.312788
-0.0527792 -0.149715 0.312575
-0.0526377 -0.15027 0.312309
-0.0525101 -0.150872 0.312139
-0.0523824 -0.151472 0.311969
-0.0522505 -0.152059 0.311769
-0.0521315 -0.152689 0.311659
-0.0520227 -0.153354 0.311622
-0.0519198 -0.154041 0.311627
-0.051818 -0.154732 0.311641
-0.0517225 -0.155447 0.311699
-0.051622 -0.156146 0.311724
-0.0515265 -0.156862 0.311785
-0.0514508 -0.157652 0.311989
-0.0513909 -0.1585 0.312306
-0.0513315 -0.159352 0.31263
-0.0512794 -0.160234 0.313008
-0.051221 -0.161097 0.313344
-0.0512579 -0.162311 0.314369
-0.0515139 -0.16434 0.316984
-0.0529814 -0.173162 0.330001
-0.0533121 -0.17556 0.333223
-0.0534037 -0.177073 0.334712
-0.0532979 -0.177841 0.334761
-0.0531869 -0.178591 0.334773
-0.0530699 -0.179319 0.334742
-0.0529422 -0.180006 0.334631
-0.0682574 -0.0762151 0.335824
-0.0680603 -0.0767249 0.335264
-0.0678836 -0.0772615 0.334819
-0.0676792 -0.0777579 0.334215
-0.0674326 -0.0781926 0.33337
-0.0672023 -0.0786477 0.332616
-0.0669784 -0.0791094 0.331896
-0.0667576 -0.0795735 0.331193
-0.0665676 -0.0800804 0.330665
-0.0664088 -0.0806319 0.330313
-0.0662578 -0.0811946 0.330007
-0.0661254 -0.0817843 0.329807
-0.0659929 -0.082374 0.329606
-0.06586 -0.0829629 0.329403
-0.065727 -0.0835515 0.329199
-0.0655997 -0.0841487 0.329028
-0.0654731 -0.0847471 0.328861
-0.0653521 -0.0853543 0.328726
-0.0652309 -0.0859615 0.328591
-0.0651093 -0.086568 0.328453
-0.0649876 -0.0871747 0.328315
-0.0648893 -0.0878197 0.328313
-0.0647934 -0.0884695 0.328327
-0.0647098 -0.0891404 0.328413
-0.0646421 -0.0898392 0.328593
-0.0645688 -0.0905301 0.328741
-0.0644961 -0.0912236 0.328894
-0.0644289 -0.0919278 0.32908
-0.0643505 -0.0926144 0.329201
-0.0642599 -0.0932809 0.329251
-0.064184 -0.0939744 0.329389
-0.0640926 -0.0946419 0.329436
-0.064014 -0.0953331 0.329559
-0.0639628 -0.096075 0.329847
-0.0639305 -0.0968535 0.33025
-0.063905 -0.0976466 0.330694
-0.0638864 -0.0984557 0.331183
-0.0638659 -0.0992642 0.331661
-0.063822 -0.100032 0.332002
-0.0637702 -0.100787 0.332297
-0.0637188 -0.101546 0.332595
-0.0636516 -0.102276 0.3328
-0.0635609 -0.102963 0.332864
-0.0634762 -0.103663 0.332965
-0.0633743 -0.10433 0.332963
-0.0632691 -0.104992 0.332941
-0.0631819 -0.10569 0.33303
-0.0631009 -0.106402 0.333157
-0.063013 -0.107101 0.333242
-0.0638797 -0.113342 0.341735
-0.0638235 -0.114135 0.342036
-0.0637264 -0.114845 0.342086
-0.0636667 -0.115635 0.342368
-0.0635198 -0.11624 0.342111
-0.0633902 -0.116882 0.341961
-0.0632142 -0.117423 0.341523
-0.0630353 -0.117957 0.341064
-0.0627901 -0.118342 0.340192
-0.0625561 -0.118749 0.339386
-0.062318 -0.119144 0.338553
-0.0620997 -0.11958 0.337841
-0.0618831 -0.120018 0.337138
-0.061656 -0.120428 0.336367
-0.0614044 -0.12078 0.33544
-0.0611344 -0.121084 0.334393
-0.0608533 -0.121359 0.333273
-0.0605745 -0.121634 0.332163
-0.0603098 -0.121937 0.331141
-0.060063 -0.122279 0.330229
-0.059834 -0.12266 0.329428
-0.0596124 -0.123055 0.328672
-0.0593977 -0.123464 0.327958
-0.0591788 -0.123861 0.327216
-0.0589481 -0.124225 0.326395
-0.0587317 -0.124621 0.325664
-0.0585129 -0.125008 0.324916
-0.0583129 -0.125439 0.324286
-0.0581146 -0.125873 0.323667
-0.057925 -0.126326 0.323101
-0.0577045 -0.126698 0.322334
-0.0574826 -0.127063 0.321555
-0.0572412 -0.127374 0.320647
-0.0570107 -0.12771 0.319807
-0.056792 -0.128073 0.319042
-0.0566102 -0.128531 0.318517
-0.0564615 -0.129076 0.318208
-0.0563549 -0.129733 0.318177
-0.056301 -0.130534 0.318493
-0.0562601 -0.131373 0.318899
-0.0562292 -0.132243 0.319373
-0.0561806 -0.133067 0.319731
-0.0561139 -0.133843 0.319971
-0.056012 -0.134524 0.319978
-0.0558936 -0.135158 0.319875
-0.0557547 -0.135735 0.319636
-0.055599 -0.136264 0.319283
-0.0554376 -0.136775 0.318891
-0.0552713 -0.137271 0.318466
-0.0551016 -0.137756 0.318016
-0.0549324 -0.13824 0.317568
-0.0547719 -0.138749 0.317179
-0.0546175 -0.139274 0.31683
-0.0544649 -0.139804 0.316492
-0.0543227 -0.140364 0.316225
-0.0541897 -0.140951 0.316021
-0.054057 -0.141539 0.315818
-0.0539246 -0.142128 0.315617
-0.0537966 -0.142731 0.315446
-0.0536686 -0.143333 0.315276
-0.0535407 -0.143936 0.315105
-0.053408 -0.144523 0.314902
-0.0532795 -0.145124 0.314728
-0.0531376 -0.145681 0.31446
-0.0530086 -0.14628 0.314282
-0.0528625 -0.146824 0.313985
-0.0527297 -0.147409 0.31378
-0.052579 -0.147936 0.31345
-0.0524404 -0.148503 0.313203
-0.0522881 -0.149023 0.312861
-0.052154 -0.149603 0.312646
-0.0520125 -0.150157 0.312378
-0.0518848 -0.150758 0.312207
-0.0517614 -0.151374 0.312068
-0.0516384 -0.15199 0.31193
-0.0515242 -0.152637 0.311856
-0.0514197 -0.15332 0.311852
-0.0513164 -0.154006 0.311857
-0.0512092 -0.15468 0.311835
-0.0511048 -0.155365 0.311833
-0.051004 -0.156064 0.311858
-0.0509046 -0.156769 0.311894
-0.0508376 -0.157592 0.312166
-0.0507817 -0.158457 0.312519
-0.0507255 -0.159324 0.312873
-0.0506716 -0.160204 0.313246
-0.050718 -0.161457 0.314354
-0.0508716 -0.163115 0.316251
-0.0512534 -0.165638 0.319832
-0.0522536 -0.17165 0.328786
-0.0526113 -0.174159 0.332244
-0.0528141 -0.176098 0.334572
-0.0527933 -0.177193 0.335254
-0.0526865 -0.177961 0.335299
-0.0525758 -0.178715 0.335318
-0.0524594 -0.179448 0.335294
-0.0674481 -0.0766339 0.335427
-0.0672693 -0.0771672 0.334967
-0.0670578 -0.0776528 0.334319
-0.0668178 -0.0780957 0.333505
-0.0666002 -0.0785679 0.332818
-0.0663838 -0.0790398 0.332137
-0.0661698 -0.0795128 0.331467
-0.0659748 -0.080012 0.330907
-0.0658097 -0.0805543 0.330518
-0.0656473 -0.0810995 0.330144
-0.0655086 -0.0816799 0.329907
-0.0653761 -0.0822696 0.329706
-0.0652491 -0.0828675 0.329537
-0.0651221 -0.0834655 0.329368
-0.0649951 -0.0840635 0.329198
-0.0648681 -0.0846614 0.329029
-0.0647465 -0.0852679 0.328891
-0.0646252 -0.0858752 0.328756
-0.0645041 -0.0864828 0.328621
-0.0643939 -0.0871086 0.328551
-0.0643011 -0.0877636 0.328585
-0.0642052 -0.0884143 0.3286
-0.0641159 -0.0890767 0.328655
-0.0640468 -0.0897744 0.328831
-0.0639672 -0.090456 0.328946
-0.0638888 -0.0911408 0.329068
-0.0638156 -0.0918357 0.329222
-0.0637363 -0.0925217 0.329341
-0.0636337 -0.093168 0.329322
-0.0635457 -0.0938409 0.329391
-0.063453 -0.0945064 0.329432
-0.0633678 -0.0951866 0.329519
-0.0633048 -0.0959082 0.329741
-0.0632699 -0.0966827 0.330133
-0.0632433 -0.0974756 0.330578
-0.0632183 -0.0982741 0.331034
-0.0631923 -0.0990736 0.331485
-0.0631519 -0.099849 0.331852
-0.0630943 -0.100594 0.332117
-0.0630361 -0.101341 0.332379
-0.0629682 -0.10207 0.332583
-0.0628769 -0.102756 0.332645
-0.0627929 -0.103457 0.332753
-0.0626964 -0.104135 0.332785
-0.0625965 -0.104807 0.332797
-0.0625094 -0.105506 0.332888
-0.0624328 -0.106227 0.333046
-0.0623447 -0.106927 0.333133
-0.0631757 -0.10831 0.334863
-0.0623835 -0.107887 0.334007
-0.0633435 -0.109538 0.336521
-0.0624149 -0.108837 0.334837
-0.0635044 -0.11076 0.338143
-0.0624443 -0.109788 0.33566
-0.062589 -0.11279 0.3385
-0.0625583 -0.113633 0.338962
-0.0625725 -0.114576 0.339707
-0.0625014 -0.115338 0.339919
-0.0624622 -0.116172 0.340334
-0.0623582 -0.116867 0.340343
-0.0622363 -0.117522 0.340239
-0.0620443 -0.118022 0.339693
-0.0618542 -0.118524 0.339157
-0.0616295 -0.118946 0.3384
-0.0614188 -0.119397 0.337731
-0.0612145 -0.11986 0.3371
-0.0609994 -0.120296 0.336399
-0.0607605 -0.120674 0.335544
-0.0604987 -0.120995 0.33454
-0.0602357 -0.121308 0.333525
-0.0599649 -0.121599 0.332456
-0.0597016 -0.121903 0.331433
-0.0594508 -0.122233 0.330487
-0.0592166 -0.122599 0.329645
-0.0589853 -0.122969 0.328821
-0.058766 -0.123365 0.328071
-0.0585428 -0.123748 0.327293
-0.0583178 -0.124124 0.326503
-0.0581029 -0.124521 0.325775
-0.0578902 -0.124922 0.325059
-0.0576965 -0.125368 0.324466
-0.0575096 -0.125828 0.323916
-0.0573268 -0.126298 0.323391
-0.0571176 -0.126697 0.322691
-0.0568963 -0.127062 0.32191
-0.0566554 -0.127372 0.320996
-0.056425 -0.127706 0.32015
-0.0562072 -0.128069 0.319384
-0.0560268 -0.12853 0.318864
-0.0558887 -0.129103 0.318624
-0.0557881 -0.129779 0.318636
-0.0557383 -0.130594 0.318987
-0.0557014 -0.131448 0.319427
-0.0556686 -0.132317 0.319897
-0.055619 -0.133142 0.320256
-0.0555554 -0.13393 0.320523
-0.0554524 -0.13461 0.320526
-0.0553336 -0.135245 0.320422
-0.0552043 -0.135851 0.320247
-0.0550502 -0.136385 0.319904
-0.0548904 -0.136901 0.319522
-0.054725 -0.1374 0.3191
-0.0545512 -0.137872 0.31862
-0.0543677 -0.138314 0.318072
-0.0541967 -0.138792 0.317609
-0.0540309 -0.139283 0.31718
-0.053868 -0.139782 0.31677
-0.0537205 -0.140326 0.316466
-0.0535869 -0.140912 0.316256
-0.0534536 -0.141498 0.31605
-0.0533208 -0.142086 0.315846
-0.0531928 -0.142689 0.315676
-0.0530648 -0.143292 0.315505
-0.0529325 -0.14388 0.315304
-0.0527954 -0.144455 0.315071
-0.0526623 -0.145041 0.314864
-0.0525204 -0.145598 0.314596
-0.0523874 -0.146184 0.314389
-0.0522453 -0.14674 0.314119
-0.0521165 -0.147339 0.313942
-0.0519698 -0.147879 0.313638
-0.0518317 -0.148447 0.313395
-0.0516843 -0.148982 0.313084
-0.0515505 -0.149564 0.312872
-0.0514094 -0.150119 0.312605
-0.0512817 -0.15072 0.312435
-0.0511585 -0.151337 0.312298
-0.0510357 -0.151956 0.312163
-0.0509179 -0.152591 0.312064
-0.0508089 -0.153259 0.31203
-0.0507009 -0.15393 0.312003
-0.050588 -0.154585 0.311942
-0.0504828 -0.155268 0.311937
-0.0503819 -0.155968 0.311964
-0.0502827 -0.156675 0.312004
-0.0502188 -0.157512 0.312305
-0.0501655 -0.158391 0.312684
-0.0501095 -0.159262 0.313047
-0.0500589 -0.160159 0.313453
-0.0501111 -0.161442 0.314621
-0.0503827 -0.163557 0.317423
-0.0518979 -0.1727 0.331143
-0.0522412 -0.175186 0.334549
-0.052329 -0.176704 0.336055
-0.0522125 -0.177436 0.336031
-0.0521105 -0.178226 0.336118
-0.0520041 -0.179001 0.336173
-0.0668457 -0.0765572 0.335649
-0.0666684 -0.0770924 0.335195
-0.0664607 -0.0775827 0.334564
-0.0662222 -0.0780266 0.333753
-0.0660059 -0.0785 0.333068
-0.0657907 -0.0789728 0.332389
-0.0655779 -0.0794471 0.331722
-0.0653782 -0.0799388 0.33113
-0.0652064 -0.0804707 0.3307
-0.0650374 -0.0810056 0.330285
-0.0648921 -0.081576 0.330009
-0.064754 -0.0821568 0.329775
-0.064627 -0.0827548 0.329605
-0.0645 -0.0833528 0.329436
-0.0643783 -0.0839591 0.329298
-0.064257 -0.0845663 0.329163
-0.0641416 -0.085183 0.329062
-0.0640265 -0.0858008 0.328965
-0.0639167 -0.0864273 0.328898
-0.0638131 -0.0870648 0.328869
-0.0637213 -0.0877224 0.32891
-0.0636257 -0.0883747 0.32893
-0.0635401 -0.0890446 0.32901
-0.0634649 -0.0897335 0.329153
-0.0633797 -0.0904067 0.329238
-0.0632948 -0.0910815 0.329324
-0.0632144 -0.0917653 0.329439
-0.0631227 -0.0924305 0.329487
-0.0630186 -0.0930748 0.32946
-0.062919 -0.0937277 0.329461
-0.0628249 -0.0943913 0.329496
-0.0627326 -0.0950593 0.329543
-0.0626636 -0.0957708 0.329732
-0.062612 -0.0965162 0.330029
-0.0625843 -0.0973081 0.330472
-0.0625526 -0.0980957 0.330894
-0.0625254 -0.0988943 0.331346
-0.0624788 -0.0996592 0.33168
-0.0624247 -0.100412 0.33197
-0.0623594 -0.101145 0.332192
-0.0622846 -0.101862 0.332358
-0.0621871 -0.102535 0.332384
-0.0621024 -0.103235 0.33249
-0.0620065 -0.103914 0.332528
-0.0619125 -0.104598 0.332578
-0.0618305 -0.105307 0.332704
-0.0617589 -0.106039 0.332895
-0.061676 -0.10675 0.333018
-0.061597 -0.107469 0.333165
-0.061502 -0.108158 0.333213
-0.0614012 -0.108835 0.333227
-0.0625387 -0.11088 0.33689
-0.0613807 -0.109682 0.333745
-0.0613826 -0.11148 0.335061
-0.0614021 -0.112425 0.33584
-0.0614755 -0.113491 0.336965
-0.0614664 -0.114384 0.33757
-0.0614911 -0.115355 0.338394
-0.0614418 -0.116167 0.33875
-0.0613727 -0.116937 0.338981
-0.0612255 -0.117533 0.338714
-0.0610783 -0.118128 0.338447
-0.0608898 -0.118629 0.337915
-0.0607032 -0.119132 0.337394
-0.0605181 -0.119637 0.336881
-0.0603206 -0.120111 0.336286
-0.0600945 -0.120516 0.335505
-0.0598455 -0.120864 0.334574
-0.0595962 -0.121207 0.333638
-0.0593384 -0.121525 0.332644
-0.0590882 -0.121858 0.331697
-0.0588486 -0.122213 0.330815
-0.0586157 -0.12258 0.329974
-0.058384 -0.122947 0.32914
-0.0581594 -0.123328 0.328349
-0.057926 -0.123684 0.327498
-0.0576924 -0.124035 0.326643
-0.0574735 -0.124421 0.325882
-0.0572623 -0.124823 0.325171
-0.0570742 -0.125281 0.324609
-0.0568985 -0.12577 0.324129
-0.0567222 -0.126255 0.323643
-0.0565242 -0.126682 0.323012
-0.0563095 -0.127062 0.322268
-0.0560741 -0.127384 0.321383
-0.0558451 -0.127719 0.320538
-0.0556325 -0.128095 0.3198
-0.0554524 -0.128556 0.319279
-0.0553147 -0.129132 0.319042
-0.0552191 -0.129822 0.31909
-0.0551688 -0.13064 0.319445
-0.05513 -0.131492 0.31988
-0.0550951 -0.132359 0.320345
-0.0550437 -0.133183 0.320699
-0.0549748 -0.133959 0.320936
-0.0548715 -0.13464 0.320939
-0.0547528 -0.135277 0.320838
-0.0546283 -0.135897 0.320697
-0.0544801 -0.136449 0.320393
-0.0543307 -0.136996 0.320081
-0.0541716 -0.137513 0.3197
-0.0540028 -0.138001 0.319252
-0.0538188 -0.138441 0.318698
-0.0536477 -0.138918 0.318231
-0.0534772 -0.139395 0.317767
-0.0533097 -0.13988 0.317322
-0.0531568 -0.140408 0.31698
-0.0530175 -0.140977 0.316731
-0.0528791 -0.141549 0.316489
-0.0527418 -0.142124 0.316254
-0.052618 -0.142741 0.316114
-0.0524902 -0.143345 0.315945
-0.0523532 -0.14392 0.315712
-0.0522152 -0.144492 0.315471
-0.0520766 -0.145061 0.315226
-0.0519299 -0.145603 0.314923
-0.0517925 -0.146175 0.314685
-0.0516508 -0.146732 0.314416
-0.051517 -0.147315 0.314204
-0.0513744 -0.147869 0.313928
-0.0512366 -0.148438 0.313687
-0.051095 -0.148993 0.313417
-0.0509622 -0.149578 0.313211
-0.0508254 -0.150149 0.312976
-0.0506975 -0.15075 0.312805
-0.0505785 -0.151383 0.312699
-0.0504565 -0.152005 0.312571
-0.0503432 -0.152658 0.312507
-0.0502252 -0.153296 0.31241
-0.0501066 -0.153931 0.312308
-0.0499835 -0.154551 0.312173
-0.0498731 -0.155217 0.312132
-0.0497721 -0.155917 0.312161
-0.0497228 -0.156809 0.312575
-0.0497035 -0.157816 0.313215
-0.0496533 -0.158712 0.313628
-0.0495959 -0.159585 0.31399
-0.0495321 -0.160438 0.314306
-0.0496466 -0.161968 0.315963
-0.0500037 -0.164433 0.319453
-0.0515301 -0.173734 0.333471
-0.0517535 -0.175784 0.336023
-0.0517383 -0.176914 0.336772
-0.0516266 -0.177668 0.33679
-0.0664105 -0.0759308 0.336271
-0.0662312 -0.0764638 0.335804
-0.0660583 -0.0770048 0.335372
-0.065866 -0.0775168 0.334827
-0.0656394 -0.077977 0.334079
-0.0654299 -0.07846 0.33343
-0.065216 -0.0789341 0.332753
-0.0650043 -0.0794095 0.332088
-0.0648036 -0.0798993 0.331486
-0.0646257 -0.080422 0.331018
-0.0644497 -0.0809462 0.33056
-0.0642984 -0.0815074 0.330247
-0.0641598 -0.0820877 0.330009
-0.0640274 -0.0826775 0.329808
-0.0638999 -0.0832751 0.329637
-0.0637784 -0.0838821 0.3295
-0.0636577 -0.0844907 0.329369
-0.0635435 -0.08511 0.329277
-0.0634397 -0.0857467 0.329248
-0.063337 -0.0863857 0.329225
-0.0632398 -0.0870347 0.329236
-0.0631538 -0.0877033 0.329315
-0.0630631 -0.088365 0.329367
-0.0629768 -0.0890354 0.329446
-0.0628952 -0.089715 0.329555
-0.0628032 -0.0903777 0.329601
-0.0627118 -0.0910424 0.329651
-0.062619 -0.0917058 0.329694
-0.0625143 -0.092349 0.329666
-0.0624089 -0.0929915 0.329632
-0.062303 -0.0936339 0.329598
