ply
format ascii 1.0
element vertex 1790
property float x
property float y
property float z
end_header
0.150547 0.0941368 0.68148
0.151642 0.0946195 0.680687
0.152685 0.0949876 0.679588
0.153754 0.0954148 0.678651
0.154815 0.0958299 0.677684
0.155879 0.0962526 0.67674
0.156949 0.0966913 0.675842
0.158149 0.0974078 0.675683
0.159367 0.0981611 0.675621
0.160602 0.0989477 0.675644
0.161872 0.0998073 0.675856
0.163192 0.100767 0.676326
0.164524 0.101745 0.676842
0.165889 0.102787 0.677519
0.167244 0.103804 0.678125
0.16858 0.104778 0.678612
0.169901 0.105718 0.679009
0.171164 0.106537 0.679087
0.17247 0.10744 0.679379
0.173846 0.108479 0.680017
0.175233 0.109535 0.68069
0.176654 0.110651 0.681514
0.178104 0.111819 0.682461
0.179559 0.112989 0.683409
0.181008 0.114143 0.684306
0.182476 0.115327 0.685272
0.183935 0.116489 0.686176
0.185453 0.117756 0.687337
0.186999 0.119069 0.688603
0.188571 0.120425 0.689971
0.190184 0.121849 0.691495
0.191832 0.12333 0.693152
0.193523 0.124879 0.694969
0.195181 0.126363 0.69661
0.196787 0.12774 0.697976
0.198433 0.129185 0.699502
0.200036 0.130543 0.700803
0.201604 0.13183 0.701923
0.20321 0.133181 0.703189
0.204904 0.134681 0.70481
0.206577 0.136138 0.706314
0.208262 0.137605 0.707835
0.209864 0.138921 0.708978
0.211479 0.140254 0.710156
0.213028 0.141465 0.71103
0.214553 0.14263 0.711788
0.216103 0.143833 0.71263
0.21771 0.145129 0.713687
0.219286 0.146368 0.714602
0.22085 0.147579 0.715444
0.222375 0.148722 0.716116
0.223843 0.149761 0.71654
0.225251 0.150699 0.716718
0.226584 0.151508 0.716591
0.227892 0.152276 0.716366
0.229102 0.152878 0.715752
0.230284 0.153435 0.715036
0.231442 0.153953 0.714229
0.232522 0.154346 0.713132
0.233538 0.154635 0.7118
0.234599 0.155002 0.710651
0.235661 0.155372 0.709512
0.236734 0.155761 0.708422
0.237893 0.156291 0.707656
0.239112 0.156918 0.707114
0.240351 0.157579 0.70665
0.241574 0.158212 0.706122
0.242814 0.158874 0.705661
0.244052 0.159531 0.705187
0.245268 0.160156 0.704642
0.246466 0.16075 0.704028
0.247705 0.161411 0.703564
0.248947 0.162076 0.70311
0.250277 0.162877 0.702961
0.251702 0.163823 0.703131
0.253205 0.164887 0.70356
0.254802 0.166092 0.7043
0.256404 0.167302 0.705043
0.258053 0.168579 0.705929
0.259707 0.16986 0.706816
0.261349 0.171117 0.707645
0.262931 0.172281 0.708262
0.264526 0.173461 0.70891
0.26603 0.174502 0.70925
0.267488 0.175471 0.709428
0.2689 0.176371 0.709454
0.270313 0.177268 0.709472
0.271746 0.178197 0.709556
0.273236 0.179205 0.709808
0.274835 0.180372 0.710395
0.276547 0.181701 0.711327
0.278271 0.183043 0.712279
0.27997 0.184344 0.713137
0.281658 0.185627 0.713949
0.283278 0.186806 0.714536
0.284878 0.187955 0.715055
0.286461 0.189075 0.715506
0.288063 0.190221 0.716007
0.289615 0.191292 0.716347
0.2912 0.192408 0.716776
0.292714 0.193421 0.716988
0.294256 0.194471 0.717272
0.295793 0.195513 0.717536
0.297334 0.196558 0.717803
0.112943 0.0942741 0.764898
0.114101 0.0946322 0.763495
0.115244 0.0949532 0.761986
0.116355 0.0951835 0.760214
0.117418 0.0952765 0.758043
0.118477 0.0953716 0.755887
0.119529 0.0954587 0.753718
0.120594 0.0955951 0.751704
0.121657 0.0957366 0.749714
0.122738 0.0959399 0.747913
0.123826 0.0961754 0.746213
0.124929 0.096457 0.744655
0.126029 0.0967422 0.743113
0.127127 0.0970264 0.741575
0.128244 0.0973696 0.740213
0.129377 0.0977642 0.739003
0.130501 0.0981381 0.737739
0.131643 0.0985642 0.736628
0.132762 0.0989356 0.735366
0.133878 0.0993038 0.734098
0.135002 0.0996966 0.732905
0.136144 0.100142 0.731864
0.137321 0.10068 0.731087
0.138545 0.101336 0.730645
0.139795 0.102058 0.730387
0.140175 0.10062 0.724099
0.140445 0.0989453 0.717184
0.140587 0.0969955 0.709542
0.140737 0.0951033 0.7021
0.1409 0.0932855 0.694902
0.141925 0.0935598 0.6935
0.142922 0.0937737 0.691938
0.143884 0.0939134 0.690179
0.144845 0.0940551 0.688432
0.145821 0.0942416 0.686815
0.146817 0.0944793 0.685343
0.147794 0.0946789 0.683774
0.148822 0.0949987 0.682536
0.149883 0.0953978 0.681515
0.150969 0.0958568 0.680659
0.152013 0.0962239 0.679559
0.153081 0.0966476 0.678613
0.15414 0.0970547 0.677627
0.155203 0.0974722 0.676671
0.156272 0.0979067 0.675763
0.15746 0.0985978 0.675535
0.158678 0.0993506 0.675468
0.159913 0.100139 0.675494
0.161196 0.101026 0.675774
0.162519 0.101993 0.676261
0.163863 0.103001 0.676848
0.165216 0.104021 0.67746
0.166556 0.105009 0.677987
0.167864 0.105929 0.67833
0.16917 0.106841 0.678649
0.170431 0.107658 0.678719
0.17175 0.10859 0.679083
0.17314 0.10966 0.679795
0.174543 0.110749 0.680549
0.175978 0.111898 0.681449
0.177444 0.1131 0.682476
0.178914 0.114305 0.683504
0.180364 0.115463 0.684405
0.181831 0.116649 0.685371
0.183287 0.117809 0.686262
0.184761 0.118997 0.687215
0.186272 0.120247 0.688319
0.187809 0.121543 0.689528
0.189387 0.122907 0.690896
0.190987 0.124305 0.69234
0.19264 0.125794 0.693998
0.194245 0.127186 0.695405
0.195809 0.128495 0.6966
0.197415 0.129875 0.69796
0.198998 0.131205 0.699189
0.200562 0.132492 0.700303
0.202167 0.133849 0.701581
0.203841 0.135323 0.703133
0.20546 0.136689 0.704414
0.207099 0.138086 0.705759
0.208654 0.139327 0.70672
0.210226 0.140593 0.707735
0.211753 0.141773 0.708535
0.213326 0.14303 0.709512
0.214908 0.144297 0.710507
0.216552 0.145665 0.711733
0.218185 0.147007 0.712891
0.219802 0.148317 0.713963
0.221346 0.149497 0.714722
0.222848 0.150601 0.715295
0.224291 0.151599 0.715616
0.225639 0.152437 0.715556
0.226965 0.153235 0.715403
0.228212 0.153901 0.714939
0.229417 0.154496 0.714312
0.23062 0.155088 0.713679
0.231764 0.155585 0.712826
0.232827 0.155949 0.711667
0.233915 0.156355 0.710612
0.235021 0.156794 0.709634
0.236099 0.15719 0.708558
0.23726 0.157722 0.707798
0.23852 0.158414 0.707403
0.239803 0.159143 0.707091
0.241053 0.159818 0.706656
0.242339 0.160552 0.706354
0.243604 0.161249 0.70597
0.244825 0.161879 0.705432
0.246023 0.162473 0.704816
0.24726 0.163127 0.704335
0.2485 0.163786 0.703863
0.249829 0.164585 0.703704
0.251233 0.165498 0.703796
0.252733 0.16656 0.704215
0.254287 0.167699 0.704802
0.255888 0.168911 0.705541
0.257537 0.17019 0.706423
0.259197 0.171482 0.707328
0.260799 0.172681 0.708022
0.262372 0.173834 0.708611
0.263941 0.174977 0.709172
0.265399 0.175948 0.709355
0.266836 0.176888 0.709467
0.268251 0.177792 0.709498
0.269683 0.178721 0.70958
0.27112 0.179654 0.70967
0.272658 0.180737 0.710078
0.274288 0.18195 0.71076
0.276026 0.18332 0.711771
0.277726 0.184631 0.712649
0.279419 0.185926 0.713487
0.281086 0.18718 0.714231
0.282706 0.188363 0.71482
0.284313 0.189523 0.715356
0.285922 0.190683 0.715885
0.287505 0.191802 0.716326
0.289006 0.192802 0.716513
0.290531 0.193833 0.71676
0.291984 0.194762 0.716792
0.293444 0.195697 0.716832
0.294898 0.196622 0.716852
0.113237 0.095624 0.762462
0.114402 0.0960106 0.761154
0.115553 0.0963601 0.759743
0.116647 0.0965404 0.757836
0.117736 0.0967205 0.755938
0.118801 0.0968346 0.753855
0.119868 0.0969702 0.751844
0.120932 0.0971053 0.74984
0.122006 0.0972821 0.747967
0.123096 0.0975137 0.74626
0.124211 0.0978264 0.744796
0.125324 0.0981382 0.743334
0.126435 0.0984544 0.741891
0.127572 0.0988465 0.740671
0.128709 0.0992456 0.739476
0.129836 0.0996199 0.738213
0.130977 0.100041 0.737088
0.132108 0.100436 0.735894
0.133217 0.100778 0.734554
0.134342 0.101169 0.733356
0.135497 0.101644 0.7324
0.136677 0.102184 0.731626
0.137914 0.102871 0.731268
0.139187 0.10365 0.731163
0.139745 0.102631 0.726063
0.140025 0.100949 0.719149
0.140306 0.0970134 0.703859
0.140442 0.0950961 0.696412
0.14129 0.0949373 0.693823
0.142289 0.0951485 0.692256
0.143255 0.0952901 0.690505
0.144226 0.095451 0.688815
0.145207 0.0956391 0.687205
0.146206 0.0958785 0.68574
0.147183 0.0960716 0.684157
0.148211 0.0963878 0.68291
0.149261 0.0967578 0.681812
0.150348 0.0972145 0.680949
0.151383 0.0975567 0.679784
0.152441 0.0979547 0.678771
0.15349 0.0983375 0.67772
0.154541 0.0987258 0.676688
0.155601 0.099135 0.675714
0.156788 0.0998243 0.675479
0.158005 0.100577 0.675409
0.15924 0.101367 0.675435
0.160524 0.102256 0.675719
0.161859 0.103252 0.676274
0.163202 0.10426 0.676857
0.164541 0.105254 0.677396
0.165866 0.106213 0.677843
0.167159 0.107105 0.67811
0.16844 0.107967 0.678299
0.169702 0.108788 0.678376
0.171035 0.109751 0.678815
0.17244 0.110854 0.679605
0.173869 0.111999 0.680496
0.175331 0.113205 0.681535
0.176798 0.114413 0.682569
0.178282 0.115648 0.683664
0.17973 0.116807 0.684561
0.181185 0.117972 0.685466
0.182625 0.119105 0.686283
0.184098 0.120294 0.687233
0.185578 0.121491 0.688197
0.187085 0.122734 0.689264
0.188628 0.124038 0.690477
0.190194 0.125377 0.691767
0.191781 0.126751 0.693134
0.193331 0.128047 0.694301
0.194852 0.129282 0.695309
0.196417 0.130594 0.696497
0.197961 0.13186 0.697567
0.199506 0.133121 0.698616
0.201091 0.134449 0.699817
0.202743 0.135892 0.701289
0.204355 0.137256 0.702561
0.205974 0.138625 0.703837
0.207543 0.139898 0.704872
0.209109 0.141159 0.705874
0.210644 0.142362 0.706727
0.212228 0.143644 0.707761
0.213827 0.144947 0.70884
0.215486 0.146351 0.710147
0.217134 0.147727 0.711381
0.218766 0.149069 0.712525
0.22031 0.150254 0.713292
0.221829 0.151393 0.713946
0.223293 0.152433 0.714363
0.22468 0.153337 0.714459
0.226025 0.15417 0.714387
0.22731 0.154902 0.714078
0.228555 0.155564 0.713607
0.229781 0.156195 0.713065
0.230969 0.156763 0.712376
0.232094 0.157228 0.711453
0.233228 0.157709 0.710571
0.234379 0.158218 0.709754
0.235518 0.158711 0.708902
0.236702 0.159277 0.708218
0.237965 0.159972 0.707827
0.23925 0.160704 0.70752
0.240541 0.161445 0.707231
0.241858 0.162225 0.70703
0.24315 0.162966 0.70674
0.244394 0.16363 0.706277
0.245612 0.164251 0.705718
0.246806 0.164836 0.705078
0.248025 0.16546 0.704526
0.249354 0.166259 0.704363
0.250738 0.16714 0.704382
0.252219 0.168173 0.704729
0.253769 0.169309 0.705303
0.255371 0.170523 0.706041
0.257004 0.171782 0.706871
0.258645 0.173046 0.707707
0.260246 0.174246 0.708395
0.261793 0.17536 0.708893
0.263312 0.17643 0.70929
0.264744 0.177364 0.709388
0.266203 0.178337 0.709569
0.267616 0.179239 0.709593
0.269051 0.180173 0.709683
0.270512 0.181144 0.709851
0.272081 0.182273 0.710351
0.273713 0.183493 0.711043
0.275432 0.184838 0.711993
0.277152 0.186182 0.712934
0.278869 0.187514 0.713844
0.280536 0.188771 0.714589
0.282185 0.189998 0.715264
0.283821 0.191201 0.715885
0.285435 0.192371 0.716428
0.287019 0.193493 0.716868
0.288523 0.194498 0.71706
0.289996 0.195456 0.717151
0.291418 0.196338 0.717081
0.292839 0.197219 0.717007
0.112458 0.09688 0.762217
0.113631 0.0972887 0.760978
0.114778 0.0976201 0.759516
0.115893 0.0978601 0.757792
0.117004 0.0980982 0.756069
0.118089 0.0982667 0.754151
0.11916 0.0984014 0.752142
0.120217 0.0985081 0.750061
0.121292 0.0986795 0.748177
0.122384 0.0989091 0.746469
0.123503 0.099225 0.745016
0.124636 0.0995905 0.743711
0.12577 0.0999622 0.742428
0.126911 0.100361 0.741229
0.128059 0.100784 0.740101
0.129187 0.101157 0.738835
0.130312 0.101526 0.737563
0.131432 0.101886 0.736271
0.13254 0.102221 0.734912
0.133657 0.102584 0.733637
0.134825 0.103086 0.732756
0.136016 0.103652 0.732057
0.137264 0.104367 0.731771
0.138548 0.10517 0.73173
0.139291 0.1046 0.72789
0.139578 0.102905 0.720964
0.139847 0.0988702 0.705453
0.139949 0.0968396 0.697721
0.140613 0.0962161 0.693869
0.141633 0.0964747 0.692435
0.142622 0.0966625 0.690814
0.143609 0.0968544 0.689211
0.144612 0.09709 0.687732
0.145613 0.0973264 0.686261
0.146592 0.097518 0.684676
0.147621 0.0978306 0.683421
0.148683 0.0982218 0.682379
0.149771 0.0986777 0.681514
0.150807 0.0990177 0.680343
0.151856 0.0993901 0.679262
0.152896 0.0997466 0.678143
0.153939 0.100113 0.677052
0.154989 0.100498 0.676017
0.156166 0.101165 0.675719
0.157371 0.101891 0.675579
0.158605 0.102677 0.675589
0.159878 0.103546 0.675814
0.161201 0.104517 0.676301
0.162532 0.105501 0.676817
0.163854 0.106463 0.677268
0.165151 0.107367 0.677569
0.166443 0.108258 0.677829
0.167712 0.109098 0.677957
0.168977 0.109926 0.678053
0.170322 0.110916 0.678557
0.171742 0.112052 0.679425
0.173184 0.11323 0.680392
0.174674 0.114496 0.681573
0.176166 0.115757 0.682735
0.177663 0.117023 0.6839
0.179112 0.118185 0.684797
0.18055 0.119322 0.685623
0.181975 0.120428 0.686366
0.183434 0.121592 0.687248
0.184902 0.122771 0.688158
0.186407 0.124014 0.68922
0.187935 0.125293 0.690364
0.18948 0.126598 0.691563
0.191016 0.127881 0.692699
0.192513 0.129082 0.693626
0.193978 0.13022 0.694393
0.195492 0.131442 0.695358
0.196999 0.132646 0.696272
0.198523 0.133875 0.697237
0.200082 0.135162 0.698339
0.20171 0.13657 0.699721
0.203316 0.137931 0.700983
0.204901 0.139246 0.702124
0.206485 0.140554 0.70324
0.20805 0.141823 0.704255
0.209584 0.143028 0.705112
0.211179 0.144338 0.706211
0.212806 0.145698 0.707419
0.214448 0.147077 0.708664
0.21609 0.148451 0.709889
0.21773 0.149815 0.71108
0.219287 0.151028 0.711911
0.220811 0.15218 0.712594
0.222296 0.15326 0.713103
0.223723 0.154239 0.71337
0.22509 0.15511 0.713387
0.226397 0.15588 0.713167
0.227682 0.156612 0.712857
0.228947 0.157308 0.712465
0.230174 0.157942 0.71193
0.23136 0.158505 0.711234
0.232538 0.159059 0.710518
0.233734 0.159641 0.709867
0.234916 0.160202 0.709169
0.236122 0.160803 0.708563
0.237385 0.161496 0.708167
0.238671 0.162229 0.707859
0.239986 0.163007 0.707651
0.241324 0.163823 0.707526
0.242641 0.164601 0.707317
0.243908 0.165301 0.706931
0.245147 0.165954 0.706441
0.246344 0.166541 0.705804
0.247586 0.1672 0.705328
0.248921 0.168005 0.705174
0.250308 0.168892 0.705199
0.25179 0.169926 0.705543
0.253319 0.171032 0.706043
0.254901 0.172215 0.706707
0.256535 0.173475 0.707531
0.258156 0.174713 0.708302
0.259732 0.175877 0.708907
0.261253 0.176953 0.709315
0.262747 0.177984 0.709622
0.264155 0.178883 0.709642
0.265593 0.179825 0.70975
0.266984 0.180694 0.7097
0.26844 0.18166 0.709857
0.269927 0.18267 0.710104
0.271503 0.183812 0.710627
0.273164 0.185079 0.71141
0.274905 0.18646 0.712431
0.276646 0.187836 0.713431
0.278342 0.189143 0.71428
0.280038 0.190443 0.715108
0.281695 0.191683 0.715806
0.283355 0.192925 0.716501
0.284969 0.194096 0.71704
0.286555 0.195222 0.717483
0.288036 0.196193 0.717598
0.289482 0.197112 0.717604
0.290876 0.197954 0.717448
0.111711 0.098246 0.762294
0.112883 0.0986439 0.761026
0.114024 0.0989514 0.759497
0.115142 0.0991938 0.757785
0.116264 0.0994559 0.756136
0.117362 0.0996576 0.754319
0.118444 0.0998169 0.752388
0.119513 0.0999492 0.750386
0.120597 0.100139 0.748559
0.121691 0.100368 0.746853
0.12282 0.100706 0.745464
0.123958 0.101079 0.744182
0.125104 0.101479 0.742982
0.126257 0.101904 0.741857
0.127418 0.102357 0.740814
0.128549 0.102729 0.739549
0.129674 0.10309 0.738255
0.130776 0.103395 0.736806
0.131873 0.103693 0.735346
0.13298 0.104024 0.733984
0.134139 0.104498 0.733024
0.135323 0.105042 0.732261
0.136571 0.105756 0.731972
0.137832 0.106501 0.731766
0.138751 0.106367 0.72914
0.13905 0.104672 0.722237
0.139743 0.100941 0.713335
0.139251 0.102767 0.714797
0.139336 0.100614 0.706718
0.139444 0.0985622 0.698958
0.139939 0.0975065 0.693942
0.140994 0.0978457 0.692729
0.142009 0.0980897 0.691264
0.143021 0.0983341 0.689805
0.144037 0.098595 0.688396
0.145042 0.0988326 0.68693
0.146023 0.0990209 0.685338
0.147055 0.0993361 0.68409
0.14812 0.09973 0.683056
0.1492 0.100164 0.68213
0.150237 0.1005 0.68095
0.151276 0.100844 0.679794
0.152304 0.101169 0.678593
0.153337 0.101508 0.677432
0.154388 0.101891 0.676391
0.155545 0.102511 0.675968
0.156749 0.103235 0.675818
0.157982 0.10402 0.675823
0.159254 0.104886 0.676037
0.160566 0.105835 0.676461
0.161883 0.106793 0.676904
0.16318 0.107702 0.677214
0.164448 0.108547 0.67736
0.165726 0.10941 0.677547
0.166983 0.110227 0.677612
0.168261 0.111083 0.677775
0.169619 0.112103 0.678349
0.171051 0.113269 0.679289
0.172495 0.114454 0.680267
0.174 0.115753 0.681525
0.175507 0.117052 0.682772
0.177019 0.11835 0.68401
0.178467 0.119515 0.684907
0.179916 0.120676 0.685788
0.181353 0.121808 0.686589
0.182811 0.122975 0.687469
0.184268 0.124134 0.688323
0.185774 0.125382 0.689391
0.18727 0.126605 0.690388
0.188781 0.127851 0.691434
0.190254 0.129016 0.692276
0.191714 0.130153 0.693042
0.193131 0.131203 0.69359
0.194609 0.132365 0.694405
0.196082 0.13351 0.695172
0.197581 0.1347 0.696041
0.199102 0.135924 0.696985
0.200703 0.13729 0.698261
0.202287 0.138617 0.699438
0.20385 0.139901 0.700501
0.205451 0.141246 0.701702
0.207015 0.142519 0.702724
0.208549 0.143733 0.703599
0.210158 0.145074 0.704766
0.211801 0.146469 0.706054
0.213421 0.147818 0.707223
0.215055 0.149184 0.708425
0.216704 0.150571 0.709668
0.218254 0.15178 0.710485
0.219779 0.152937 0.711178
0.221301 0.154088 0.711849
0.222766 0.155134 0.712271
0.224173 0.156078 0.712456
0.225522 0.15692 0.712402
0.226847 0.157721 0.712252
0.228133 0.158453 0.711943
0.229397 0.159149 0.71155
0.230605 0.159749 0.710938
0.231808 0.160344 0.710314
0.233048 0.160999 0.70983
0.234274 0.16163 0.709291
0.235502 0.162267 0.708764
0.236788 0.162998 0.708449
0.238092 0.16376 0.708204
0.239425 0.164566 0.708056
0.240785 0.165417 0.708007
0.242108 0.166204 0.707814
0.243379 0.166908 0.707435
0.244638 0.167593 0.707013
0.245839 0.168183 0.706381
0.247109 0.168885 0.705997
0.248472 0.169734 0.705937
0.249907 0.170697 0.706122
0.251389 0.171732 0.706464
0.252918 0.172838 0.706956
0.254478 0.173988 0.707539
0.25609 0.175216 0.708288
0.257666 0.176385 0.708899
0.259193 0.177475 0.709338
0.26069 0.178514 0.709662
0.262163 0.179514 0.709898
0.263551 0.180383 0.709849
0.264987 0.181323 0.709949
0.2664 0.182226 0.709969
0.267861 0.1832 0.710137
0.269352 0.184218 0.710395
0.270949 0.185393 0.710985
0.272611 0.186663 0.711769
0.274399 0.188118 0.712936
0.276171 0.189545 0.714037
0.277896 0.190896 0.714972
0.2796 0.192211 0.715823
0.28128 0.193486 0.716586
0.282892 0.194659 0.717128
0.28448 0.195792 0.717585
0.286062 0.196915 0.718014
0.287567 0.197921 0.718197
0.288995 0.198814 0.718145
0.110022 0.0999975 0.765943
0.111104 0.100077 0.76373
0.112222 0.100288 0.761915
0.113325 0.100461 0.759995
0.114434 0.100667 0.758179
0.115549 0.100902 0.756454
0.116659 0.101129 0.754715
0.117745 0.101292 0.752799
0.118835 0.101479 0.750958
0.119922 0.101665 0.749125
0.121018 0.101891 0.747412
0.12214 0.102202 0.74595
0.123288 0.102597 0.744731
0.124437 0.102999 0.743536
0.125603 0.103456 0.742501
0.126786 0.103964 0.741614
0.127929 0.104362 0.740421
0.129047 0.104699 0.739058
0.130139 0.104966 0.737507
0.131226 0.105228 0.735947
0.132304 0.105475 0.734351
0.133444 0.105894 0.73324
0.134618 0.106407 0.732392
0.135846 0.107066 0.731946
0.137086 0.107756 0.731587
0.138181 0.108069 0.730197
0.138672 0.106837 0.724584
0.139331 0.101282 0.702885
0.139654 0.0997699 0.696642
0.140553 0.0997091 0.694346
0.141428 0.0996042 0.691941
0.142456 0.0998801 0.690568
0.143476 0.100142 0.689162
0.144481 0.100374 0.687682
0.145476 0.100586 0.686156
0.146501 0.100879 0.684849
0.147571 0.10128 0.683833
0.148644 0.10169 0.682843
0.149671 0.101996 0.681586
0.150686 0.102282 0.680278
0.151702 0.102575 0.678992
0.152724 0.102882 0.67775
0.153775 0.103262 0.676701
0.15492 0.103855 0.676207
0.156124 0.104577 0.676047
0.157345 0.105335 0.67598
0.158616 0.106201 0.676189
0.159918 0.10713 0.676557
0.161222 0.10806 0.676921
0.162492 0.108914 0.677088
0.163744 0.109727 0.677147
0.165008 0.110561 0.677258
0.166253 0.111353 0.67726
0.167542 0.112236 0.677487
0.168912 0.113282 0.678124
0.170354 0.114475 0.679124
0.171801 0.11567 0.680119
0.173332 0.117028 0.681516
0.174855 0.118363 0.682847
0.17637 0.119673 0.684105
0.177834 0.120874 0.685085
0.179284 0.122038 0.685966
0.18072 0.123171 0.686762
0.182177 0.12434 0.687642
0.183633 0.1255 0.688492
0.185125 0.126724 0.689492
0.186603 0.127917 0.690408
0.188083 0.129107 0.69131
0.189506 0.130181 0.691924
0.190948 0.131287 0.69261
0.192347 0.132306 0.69308
0.193809 0.133441 0.693823
0.195264 0.134558 0.694519
0.196744 0.135715 0.695304
0.198228 0.136876 0.696093
0.199792 0.13818 0.697216
0.201354 0.139473 0.698306
0.20291 0.14075 0.699349
0.204521 0.142121 0.700607
0.2061 0.143427 0.701703
0.207636 0.144651 0.702596
0.20926 0.146025 0.703837
0.210884 0.147394 0.705057
0.212484 0.148712 0.706148
0.214096 0.150046 0.707271
0.215756 0.15146 0.708569
0.217289 0.152643 0.709325
0.21881 0.1538 0.710015
0.220347 0.15498 0.710749
0.221843 0.156085 0.711308
0.22327 0.157068 0.711578
0.224662 0.157986 0.711698
0.226029 0.15886 0.711714
0.227335 0.159628 0.711486
0.228601 0.160326 0.711099
0.229829 0.16096 0.710564
0.231055 0.161591 0.710024
0.232338 0.162318 0.709701
0.233608 0.163023 0.709328
0.234881 0.163733 0.708964
0.236189 0.164501 0.708731
0.237495 0.165264 0.708486
0.238808 0.166038 0.708262
0.240167 0.166886 0.708204
0.241491 0.167676 0.708015
0.242786 0.168418 0.707718
0.244093 0.169179 0.70746
0.245358 0.169872 0.707053
0.246678 0.170651 0.706835
0.248067 0.171543 0.706864
0.249529 0.172548 0.707137
0.251015 0.173587 0.707481
0.252505 0.174632 0.707832
0.254038 0.175741 0.708319
0.255601 0.176895 0.708898
0.257128 0.177988 0.709343
0.258634 0.179045 0.709704
0.260129 0.180085 0.710023
0.261559 0.181018 0.710111
0.262969 0.181921 0.710131
0.264408 0.182866 0.710241
0.265825 0.183775 0.710269
0.267286 0.18475 0.710435
0.2688 0.185804 0.710765
0.270398 0.186984 0.711357
0.272061 0.188257 0.712141
0.273873 0.189752 0.713385
0.275677 0.19123 0.714586
0.277437 0.192636 0.715625
0.279144 0.193958 0.716485
0.280818 0.195228 0.717229
0.282425 0.196394 0.717753
0.283986 0.197488 0.718121
0.285548 0.198582 0.718484
0.287054 0.199591 0.718669
0.28848 0.200481 0.718607
0.109411 0.101852 0.76743
0.110473 0.101846 0.76497
0.111568 0.101969 0.762898
0.112653 0.10207 0.760771
0.113753 0.102234 0.758837
0.114868 0.102458 0.757084
0.11598 0.102682 0.755339
0.117071 0.102852 0.753446
0.118182 0.103094 0.751766
0.119283 0.103312 0.750027
0.120382 0.103537 0.748313
0.121505 0.103841 0.746831
0.122655 0.104233 0.745603
0.123806 0.104633 0.744402
0.124975 0.105091 0.743369
0.126162 0.105605 0.742496
0.127318 0.106034 0.741389
0.12844 0.106372 0.740031
0.129515 0.106583 0.738325
0.130593 0.106811 0.736671
0.13165 0.10699 0.734891
0.132759 0.107321 0.733536
0.133913 0.107776 0.732527
0.135119 0.108374 0.731913
0.136337 0.109004 0.73139
0.137585 0.109714 0.731085
0.138263 0.108944 0.726749
0.139075 0.10541 0.718472
0.13888 0.108038 0.722066
0.139407 0.102149 0.699627
0.140139 0.101657 0.696171
0.140863 0.101165 0.692731
0.141905 0.101466 0.691428
0.142927 0.101725 0.690015
0.143922 0.101927 0.688456
0.144929 0.102161 0.68699
0.145957 0.102453 0.68568
0.147031 0.102857 0.68467
0.148104 0.103262 0.683669
0.14912 0.103539 0.682332
0.150112 0.103763 0.680863
0.151096 0.103977 0.679374
0.152094 0.104225 0.677978
0.153123 0.10455 0.676788
0.154255 0.105112 0.676214
0.155448 0.10581 0.67599
0.156669 0.106568 0.675922
0.157942 0.10744 0.676143
0.159243 0.108369 0.676504
0.160535 0.109276 0.676807
0.16179 0.110097 0.676887
0.163039 0.110904 0.676929
0.16429 0.111712 0.67697
0.165535 0.112506 0.676973
0.166824 0.113391 0.677204
0.168193 0.11444 0.677842
0.169623 0.115611 0.67878
0.171079 0.116829 0.679828
0.17261 0.118193 0.681233
0.174147 0.119563 0.682641
0.175676 0.120908 0.683978
0.177169 0.12217 0.685102
0.178621 0.123343 0.685999
0.180072 0.124509 0.68687
0.181545 0.125713 0.687828
0.183 0.126875 0.688675
0.184476 0.128071 0.6896
0.185935 0.129229 0.690425
0.187382 0.130358 0.691172
0.188773 0.131372 0.691637
0.190198 0.132449 0.692247
0.191595 0.133468 0.692713
0.193057 0.134607 0.693461
0.194512 0.135727 0.694158
0.195974 0.136856 0.694871
0.197439 0.137986 0.695581
0.198969 0.139232 0.69656
0.200495 0.140464 0.697499
0.202015 0.14168 0.698392
0.203618 0.143042 0.699624
0.205195 0.144351 0.700723
0.206745 0.145603 0.701678
0.208385 0.147015 0.703001
0.210003 0.148379 0.704204
0.211598 0.149694 0.705285
0.213208 0.151031 0.706409
0.214835 0.152392 0.707578
0.21635 0.153548 0.708267
0.217865 0.1547 0.708942
0.219394 0.155871 0.709655
0.220889 0.156978 0.710214
0.222354 0.15803 0.710642
0.223785 0.159019 0.710922
0.225193 0.159967 0.711105
0.226521 0.160772 0.710961
0.227805 0.161503 0.710648
0.229051 0.162168 0.710184
0.230316 0.162865 0.709791
0.231624 0.163633 0.70956
0.232937 0.164412 0.70935
0.234255 0.165197 0.709153
0.235569 0.165972 0.708935
0.236878 0.16674 0.708698
0.238228 0.167575 0.708609
0.239609 0.168461 0.708628
0.240958 0.169291 0.708524
0.242298 0.170104 0.708381
0.243647 0.170933 0.70827
0.244921 0.171638 0.707888
0.246268 0.17246 0.70776
0.247643 0.173327 0.707728
0.249106 0.174334 0.707998
0.25055 0.175308 0.708194
0.252037 0.176348 0.708529
0.253527 0.17739 0.708867
0.255087 0.178539 0.709428
0.256589 0.179596 0.709788
0.25809 0.180647 0.710129
0.259565 0.181655 0.710378
0.260996 0.18259 0.710464
0.26241 0.183499 0.710495
0.26387 0.184477 0.710669
0.265313 0.185427 0.71078
0.266781 0.186413 0.710965
0.268297 0.18747 0.711295
0.26989 0.188645 0.711871
0.271552 0.189918 0.712648
0.273351 0.191397 0.713849
0.275183 0.192922 0.71514
0.27695 0.194342 0.716201
0.278653 0.195661 0.717047
0.280325 0.196928 0.717778
0.281927 0.198088 0.718282
0.283467 0.199154 0.718585
0.285054 0.200285 0.719021
0.286586 0.201333 0.719282
0.288019 0.202232 0.719234
0.107702 0.103636 0.771138
0.108771 0.103624 0.768654
0.109836 0.103613 0.766186
0.110925 0.103701 0.764015
0.112004 0.103768 0.761795
0.113097 0.103897 0.759761
0.114205 0.104086 0.757909
0.115319 0.104306 0.756155
0.116422 0.104501 0.754335
0.117539 0.104751 0.752681
0.118653 0.105 0.751031
0.119756 0.105225 0.749319
0.120881 0.105525 0.747827
0.122031 0.105908 0.746575
0.123184 0.106305 0.745365
0.124347 0.106741 0.744267
0.125546 0.107281 0.743468
0.126706 0.107713 0.742366
0.127832 0.108054 0.741015
0.12891 0.108264 0.739309
0.129989 0.108486 0.737639
0.131027 0.108603 0.735689
0.132115 0.108866 0.734148
0.133235 0.109224 0.732875
0.134409 0.109732 0.732015
0.135595 0.110276 0.731253
0.136822 0.110928 0.73079
0.137677 0.110607 0.727687
0.138501 0.110219 0.724419
0.139345 0.105029 0.703921
0.139907 0.104082 0.69925
0.140474 0.103174 0.694707
0.141361 0.103082 0.692355
0.142405 0.103387 0.691065
0.143393 0.103561 0.689433
0.1444 0.10379 0.687953
0.145421 0.104056 0.686577
0.146494 0.104453 0.685549
0.147535 0.104777 0.684332
0.14855 0.105043 0.682969
0.149531 0.105236 0.681422
0.150506 0.105421 0.679858
0.151493 0.10564 0.67839
0.152521 0.105958 0.677182
0.153631 0.106466 0.676467
0.154802 0.107113 0.676112
0.156023 0.107872 0.67604
0.157287 0.108723 0.676203
0.158565 0.109604 0.67644
0.159856 0.11051 0.676735
0.161108 0.111327 0.676802
0.162347 0.112112 0.676785
0.163586 0.112897 0.676764
0.164844 0.113718 0.676834
0.166121 0.11458 0.677004
0.167477 0.115604 0.677575
0.168893 0.11675 0.678443
0.170333 0.11794 0.679416
0.171848 0.119277 0.680745
0.173382 0.120647 0.682148
0.174911 0.121998 0.683493
0.176429 0.123318 0.684752
0.177923 0.124581 0.685862
0.179407 0.125817 0.6869
0.18091 0.127084 0.688004
0.18238 0.128277 0.688922
0.183853 0.129472 0.689835
0.185295 0.1306 0.690581
0.18671 0.131669 0.691177
0.188084 0.132652 0.69156
0.189506 0.133726 0.692159
0.19089 0.134722 0.692565
0.192354 0.135868 0.693326
0.193809 0.136992 0.694027
0.195255 0.138093 0.694667
0.196702 0.139191 0.695297
0.198197 0.140377 0.696126
0.199672 0.141518 0.696845
0.201173 0.142702 0.697659
0.202756 0.144034 0.698814
0.204331 0.145346 0.699914
0.205879 0.1466 0.700869
0.207533 0.148043 0.702258
0.209146 0.149404 0.703448
0.210736 0.150717 0.704519
0.212326 0.152023 0.705564
0.213951 0.153387 0.706738
0.215446 0.154512 0.707352
0.21694 0.15563 0.707943
0.218446 0.156765 0.708571
0.219937 0.157871 0.709125
0.221422 0.158963 0.709642
0.222895 0.160028 0.710094
0.224342 0.161045 0.710432
0.225706 0.161916 0.710436
0.227028 0.162711 0.710267
0.228294 0.163411 0.70988
0.229581 0.164145 0.709573
0.23091 0.164952 0.709427
0.232246 0.165768 0.709297
0.233567 0.166557 0.709108
0.234882 0.167336 0.708895
0.236212 0.168139 0.708734
0.237566 0.168981 0.708657
0.23897 0.169905 0.708758
0.240361 0.170804 0.708804
0.241747 0.171695 0.708828
0.243126 0.172571 0.708818
0.244466 0.173382 0.708663
0.245834 0.174239 0.708606
0.247211 0.175107 0.708571
0.248669 0.176106 0.708818
0.250108 0.177072 0.708992
0.251554 0.178046 0.70918
0.253002 0.179022 0.709367
0.254537 0.180135 0.709847
0.25604 0.181193 0.710202
0.257523 0.182217 0.710482
0.259003 0.183233 0.710743
0.260455 0.184203 0.7109
0.261867 0.185108 0.710917
0.263308 0.186056 0.711023
0.264757 0.187015 0.711148
0.266248 0.188038 0.711406
0.267788 0.189134 0.711816
0.269411 0.190354 0.712479
0.271073 0.191632 0.713257
0.272893 0.193146 0.714524
0.274726 0.194675 0.715813
0.276469 0.196063 0.7168
0.278148 0.197347 0.717565
0.279841 0.19865 0.718364
0.281471 0.199854 0.718952
0.283045 0.200969 0.719353
0.284666 0.202153 0.719891
0.286228 0.203245 0.720234
0.106581 0.103486 0.773159
0.104665 0.10462 0.774962
0.105821 0.104874 0.773243
0.106981 0.105156 0.771612
0.108075 0.105215 0.769341
0.109159 0.105257 0.767031
0.110254 0.105348 0.764872
0.111346 0.105446 0.762744
0.112443 0.105574 0.760714
0.113553 0.105759 0.758853
0.114661 0.105947 0.757009
0.115775 0.106166 0.755261
0.116903 0.106441 0.753679
0.118031 0.106722 0.75212
0.119146 0.106975 0.750489
0.120283 0.107301 0.749069
0.121427 0.107656 0.747736
0.122582 0.108051 0.746519
0.123747 0.108482 0.745409
0.124948 0.109022 0.744603
0.126118 0.109477 0.743564
0.127267 0.109872 0.742362
0.128351 0.110089 0.740675
0.129425 0.110284 0.738933
0.130453 0.110361 0.736877
0.131502 0.110505 0.735009
0.13257 0.110713 0.733326
0.133701 0.111098 0.732131
0.134853 0.111548 0.731116
0.136049 0.112117 0.730424
0.137082 0.112257 0.728578
0.138119 0.112415 0.726789
0.138931 0.108833 0.71848
0.138791 0.111629 0.722474
0.1399 0.107106 0.703893
0.1403 0.105742 0.698146
0.141022 0.105221 0.694654
0.141923 0.105159 0.692392
0.142913 0.105329 0.69075
0.143905 0.10551 0.689144
0.144914 0.10574 0.687674
0.145955 0.106053 0.686424
0.146964 0.106292 0.684987
0.147946 0.106474 0.683407
0.148919 0.106642 0.681796
0.149884 0.106798 0.680162
0.150874 0.107018 0.678698
0.151902 0.107331 0.677478
0.153013 0.107837 0.676759
0.154183 0.108481 0.676391
0.155393 0.109214 0.676252
0.156644 0.110037 0.676341
0.157898 0.110865 0.676437
0.159175 0.111743 0.676657
0.160417 0.112537 0.676662
0.161657 0.113326 0.676654
0.162886 0.11409 0.67658
0.164156 0.11494 0.676719
0.165444 0.115824 0.67694
0.166788 0.116827 0.677452
0.168189 0.117943 0.678242
0.169612 0.119102 0.67913
0.171095 0.120379 0.680304
0.172599 0.121693 0.681561
0.174111 0.123015 0.682827
0.175655 0.124396 0.68423
0.177192 0.125753 0.685564
0.178736 0.127115 0.6869
0.180272 0.128454 0.688174
0.181787 0.129741 0.689311
0.183245 0.130909 0.690152
0.184687 0.132038 0.690894
0.186071 0.133048 0.691342
0.187444 0.13403 0.691718
0.188851 0.135078 0.692248
0.19025 0.136105 0.692723
0.191702 0.13723 0.693428
0.193144 0.138331 0.694067
0.194571 0.139399 0.694625
0.195997 0.14046 0.69516
0.197457 0.141581 0.695833
0.198912 0.142689 0.696469
0.200424 0.1439 0.697339
0.201974 0.145175 0.698355
0.203548 0.146489 0.699453
0.205097 0.14775 0.70042
0.206733 0.149167 0.701742
0.208313 0.150472 0.702795
0.209914 0.15181 0.703917
0.211482 0.153083 0.704881
0.213087 0.154416 0.705976
0.21456 0.155504 0.706503
0.216028 0.156582 0.707
0.217512 0.157682 0.707543
0.219004 0.158793 0.708108
0.220509 0.159925 0.708713
0.22202 0.161061 0.709323
0.223507 0.162151 0.709824
0.224892 0.16306 0.709911
0.226251 0.163923 0.709893
0.227539 0.16466 0.709591
0.22885 0.165436 0.709374
0.230201 0.16628 0.709309
0.231557 0.16713 0.709256
0.232874 0.167913 0.709049
0.234186 0.168688 0.708825
0.235536 0.169524 0.708735
0.236914 0.170406 0.708744
0.238346 0.171378 0.708947
0.239784 0.172357 0.709164
0.241196 0.17329 0.709277
0.242579 0.174173 0.709277
0.243941 0.175021 0.709198
0.245312 0.175881 0.709145
0.246663 0.176708 0.709018
0.248098 0.177668 0.709178
0.24953 0.178624 0.709323
0.250954 0.179563 0.709431
0.252381 0.180507 0.709545
0.253899 0.181594 0.709964
0.255422 0.182685 0.710388
0.256911 0.183719 0.710685
0.258394 0.184742 0.710953
0.259871 0.185752 0.711193
0.261304 0.186691 0.711277
0.262769 0.187676 0.711458
0.264239 0.18867 0.711654
0.265761 0.189741 0.712006
0.26733 0.190883 0.712505
0.269001 0.19218 0.713322
0.27067 0.193469 0.714118
0.272489 0.194986 0.715379
0.274294 0.196476 0.716577
0.276026 0.197848 0.717524
0.277659 0.199065 0.718143
0.279382 0.200414 0.719029
0.281052 0.20168 0.719737
0.282686 0.202887 0.72032
0.28434 0.204121 0.720953
0.285954 0.205292 0.721453
0.103843 0.105796 0.774418
0.105029 0.106155 0.77301
0.106216 0.106526 0.771642
0.107332 0.106651 0.769568
0.108435 0.106748 0.767424
0.109552 0.106903 0.765456
0.110665 0.107063 0.763509
0.111785 0.107254 0.761659
0.112908 0.107469 0.759888
0.114027 0.107683 0.75812
0.115144 0.107898 0.756361
0.116282 0.108195 0.754841
0.117413 0.108476 0.753284
0.118541 0.108754 0.751724
0.119683 0.109086 0.75032
0.12083 0.109442 0.748989
0.121989 0.109836 0.74777
0.123156 0.110264 0.746648
0.124357 0.110799 0.745825
0.125531 0.111254 0.744786
0.126692 0.111677 0.743659
0.12779 0.111922 0.742049
0.12887 0.112122 0.740322
0.129893 0.112173 0.738194
0.130921 0.112247 0.736141
0.131948 0.11233 0.734117
0.133035 0.112588 0.732579
0.134144 0.112914 0.731229
0.135307 0.113391 0.730289
0.136492 0.113931 0.729523
0.137709 0.114557 0.728988
0.138591 0.114301 0.726099
0.140278 0.108731 0.702661
0.14085 0.107803 0.698099
0.141601 0.107348 0.694801
0.142471 0.107205 0.692336
0.143455 0.107355 0.69065
0.144433 0.107499 0.688953
0.14542 0.107671 0.687337
0.146392 0.107815 0.685655
0.147342 0.107913 0.683858
0.148295 0.108026 0.68211
0.149254 0.108161 0.680423
0.150258 0.108408 0.679032
0.151289 0.108722 0.677816
0.152401 0.10923 0.6771
0.15356 0.109847 0.676661
0.154758 0.11055 0.676444
0.155982 0.111313 0.676375
0.15721 0.112083 0.676322
0.158472 0.112928 0.676456
0.159714 0.113723 0.676463
0.160957 0.114521 0.676473
0.162188 0.115289 0.676405
0.163468 0.116161 0.676597
0.164741 0.117017 0.676746
0.166072 0.117993 0.677186
0.167458 0.119083 0.677905
0.168877 0.120236 0.678775
0.170341 0.121481 0.679861
0.17184 0.122789 0.681097
0.173349 0.124111 0.682358
0.174919 0.12555 0.683894
0.176473 0.126949 0.685323
0.178051 0.128388 0.686839
0.179607 0.129772 0.688212
0.181151 0.131122 0.689494
0.182611 0.132298 0.690347
0.184082 0.133487 0.691226
0.18547 0.134505 0.691688
0.186858 0.13552 0.692139
0.188264 0.136566 0.692658
0.189665 0.137598 0.693139
0.191086 0.138667 0.693701
0.192509 0.139733 0.694254
0.193917 0.140766 0.694722
0.195324 0.141793 0.695173
0.196766 0.142883 0.695766
0.198219 0.143989 0.696392
0.199729 0.145198 0.697252
0.201263 0.146448 0.698202
0.202819 0.147734 0.699228
0.204367 0.148996 0.700193
0.205986 0.150387 0.701445
0.207531 0.151633 0.702356
0.20913 0.152972 0.703474
0.210676 0.154209 0.704352
0.212242 0.155476 0.70529
0.213691 0.156526 0.705725
0.215156 0.157601 0.706213
0.216618 0.158667 0.706677
0.218124 0.159808 0.707304
0.219649 0.160976 0.70799
0.221181 0.162156 0.708695
0.22269 0.163288 0.709287
0.224095 0.164234 0.709454
0.225475 0.165135 0.70952
0.226786 0.165913 0.709308
0.228123 0.166734 0.70919
0.229495 0.167615 0.709204
0.230866 0.168493 0.70921
0.23216 0.169237 0.708917
0.23345 0.169973 0.708605
0.234798 0.170807 0.708507
0.236179 0.171695 0.708528
0.237616 0.172676 0.70875
0.239096 0.173729 0.709123
0.240573 0.17477 0.709469
0.241979 0.175693 0.709553
0.243363 0.176577 0.709548
0.244732 0.177433 0.709484
0.246065 0.178229 0.709287
0.247455 0.179118 0.709288
0.248868 0.180043 0.709364
0.250269 0.180946 0.70939
0.251676 0.181858 0.709435
0.25319 0.18294 0.709837
0.254734 0.184068 0.710335
0.256269 0.185178 0.710789
0.257784 0.186253 0.711164
0.259333 0.187379 0.711644
0.260812 0.18839 0.711877
0.262299 0.189413 0.71213
0.263774 0.190413 0.712333
0.265344 0.191561 0.712842
0.266943 0.192751 0.713434
0.268627 0.19407 0.714289
0.2703 0.195368 0.715094
0.272071 0.196812 0.716196
0.27382 0.198218 0.717211
0.275502 0.199516 0.717996
0.277134 0.200733 0.718609
0.278864 0.202098 0.719521
0.280614 0.203486 0.720474
0.282311 0.204791 0.721249
0.284001 0.20608 0.721986
0.103027 0.106994 0.773939
0.104228 0.107405 0.772684
0.105426 0.107807 0.771412
0.106545 0.107937 0.769358
0.107669 0.108095 0.767396
0.108812 0.108338 0.765685
0.109948 0.108564 0.763931
0.111088 0.108815 0.762258
0.112232 0.109091 0.76066
0.113363 0.109332 0.758972
0.114483 0.109545 0.757209
0.115625 0.109843 0.755694
0.116766 0.110145 0.754197
0.117906 0.110455 0.752727
0.119061 0.110817 0.751407
0.120221 0.111203 0.750159
0.121391 0.111625 0.749013
0.122561 0.11205 0.747883
0.123758 0.112564 0.747
0.124934 0.113016 0.74595
0.126098 0.11344 0.744825
0.12721 0.113716 0.7433
0.128285 0.11389 0.741503
0.129312 0.113937 0.739369
0.130322 0.113949 0.737147
0.131318 0.113934 0.734863
0.132362 0.114064 0.73298
0.133438 0.114292 0.731369
0.134568 0.114674 0.730176
0.135731 0.115151 0.729241
0.136936 0.115745 0.728621
0.137976 0.115902 0.726839
0.139269 0.113527 0.721842
0.138852 0.115631 0.72393
0.139734 0.112225 0.716203
0.139529 0.114857 0.719705
0.140231 0.111696 0.707071
0.140678 0.110416 0.70159
0.141305 0.109621 0.697405
0.142056 0.109164 0.694122
0.14301 0.109228 0.692209
0.143966 0.109307 0.690345
0.144905 0.109353 0.688401
0.145844 0.109405 0.686483
0.14676 0.109412 0.684456
0.147713 0.109518 0.682691
0.148653 0.109599 0.68087
0.14966 0.109847 0.679482
0.150684 0.110139 0.678212
0.151798 0.110648 0.677498
0.152937 0.111215 0.676933
0.154122 0.11189 0.676638
0.15532 0.112593 0.676416
0.15652 0.113299 0.6762
0.157767 0.114112 0.67625
0.159009 0.114908 0.676255
0.160253 0.115709 0.676272
0.161485 0.116479 0.676208
0.162774 0.117374 0.676454
0.164035 0.118203 0.676531
0.165352 0.119152 0.676902
0.166714 0.120193 0.677496
0.168116 0.121316 0.678285
0.169539 0.122478 0.679165
0.171021 0.123757 0.680322
0.172501 0.125025 0.681444
0.174097 0.126528 0.683128
0.175679 0.12799 0.684705
0.177314 0.129555 0.686518
0.1789 0.131006 0.688044
0.180512 0.132503 0.689671
0.182001 0.13374 0.690664
0.183506 0.135001 0.691708
0.184898 0.136029 0.692189
0.186319 0.13711 0.692789
0.187712 0.138132 0.693244
0.189097 0.139133 0.693646
0.190499 0.140164 0.694112
0.191905 0.141198 0.694583
0.193279 0.142166 0.694895
0.194669 0.143162 0.695267
0.196097 0.144228 0.695798
0.19752 0.145279 0.696291
0.199014 0.146463 0.697086
0.200529 0.14768 0.697954
0.202065 0.148933 0.698896
0.203607 0.15019 0.699841
0.205224 0.151581 0.701088
0.206768 0.152829 0.702
0.208363 0.154167 0.703109
0.209889 0.15537 0.703902
0.211417 0.156573 0.704689
0.212846 0.157589 0.705043
0.21429 0.15863 0.705451
0.215733 0.159664 0.705839
0.217237 0.160805 0.706466
0.218777 0.162007 0.707221
0.220328 0.163224 0.708006
0.221875 0.164428 0.708755
0.223318 0.165444 0.70908
0.224738 0.166416 0.709301
0.226071 0.167233 0.709174
0.227446 0.168121 0.709203
0.228821 0.169009 0.709229
0.230194 0.16989 0.709239
0.231469 0.1706 0.708869
0.232736 0.171297 0.70847
0.234081 0.172126 0.70836
0.235481 0.173048 0.70845
0.23694 0.17407 0.708756
0.238466 0.175199 0.709293
0.239981 0.176309 0.709782
0.241411 0.177271 0.709946
0.242777 0.178124 0.709873
0.244126 0.178947 0.709733
0.245457 0.179741 0.709527
0.246827 0.180596 0.709453
0.248202 0.181459 0.709395
0.249602 0.182361 0.709416
0.251007 0.183271 0.709453
0.252519 0.184351 0.709846
0.254063 0.185482 0.710346
0.255623 0.186634 0.710884
0.257188 0.187791 0.711427
0.258789 0.189003 0.712081
0.2603 0.190067 0.712421
0.26184 0.191173 0.712844
0.263362 0.192249 0.713199
0.264938 0.193406 0.713721
0.266565 0.194642 0.714401
0.268253 0.195969 0.715264
0.269928 0.19727 0.716068
0.271653 0.198646 0.717019
0.273373 0.20001 0.71794
0.275029 0.20127 0.71864
0.276684 0.202524 0.719322
0.278448 0.203942 0.720333
0.280254 0.20542 0.721461
0.282007 0.206812 0.722405
0.283701 0.208108 0.72315
0.102222 0.108236 0.773587
0.103432 0.108673 0.772411
0.104636 0.109094 0.771194
0.105773 0.109279 0.769306
0.106907 0.109466 0.767433
0.108062 0.10974 0.765812
0.109209 0.109997 0.764151
0.110369 0.110308 0.762652
0.111525 0.110614 0.761142
0.112677 0.110916 0.759628
0.113808 0.111158 0.757951
0.114954 0.111459 0.756445
0.116097 0.11176 0.754943
0.117249 0.112096 0.753549
0.118406 0.112458 0.752228
0.119572 0.112851 0.751
0.120762 0.113327 0.750005
0.121944 0.113783 0.748957
0.123144 0.114298 0.748076
0.124325 0.114757 0.747041
0.1255 0.115204 0.74598
0.126623 0.115502 0.744514
0.127702 0.115678 0.742723
0.128724 0.115698 0.740518
0.129735 0.115699 0.738272
0.130713 0.115618 0.735812
0.131718 0.115627 0.733607
0.132763 0.115761 0.731747
0.133871 0.116076 0.730376
0.135001 0.116461 0.729196
0.136184 0.116994 0.728413
0.137368 0.117531 0.727643
0.138406 0.117679 0.725849
0.139266 0.117365 0.722845
0.139917 0.113355 0.713578
0.139854 0.116352 0.718018
0.140594 0.113287 0.705721
0.141112 0.112184 0.700738
0.141754 0.111427 0.696677
0.142583 0.111161 0.693909
0.143527 0.111198 0.691936
0.144423 0.111125 0.689687
0.145328 0.111084 0.68753
0.14621 0.110997 0.685265
0.147142 0.111043 0.68335
0.148061 0.111066 0.681383
0.149057 0.111279 0.679911
0.15007 0.11154 0.678563
0.151174 0.112023 0.677781
0.152304 0.112566 0.677152
0.153477 0.113212 0.676783
0.154651 0.113859 0.676419
0.155826 0.114508 0.676057
0.157049 0.115265 0.675966
0.158288 0.116057 0.675961
0.159522 0.116836 0.675919
0.160754 0.117607 0.675857
0.16203 0.118477 0.676036
0.163288 0.119302 0.676101
0.16458 0.120199 0.67634
0.165926 0.121209 0.676855
0.167315 0.122308 0.677582
0.168735 0.12347 0.678454
0.170204 0.124728 0.679555
0.171669 0.125969 0.680608
0.173287 0.127528 0.682419
0.174908 0.12908 0.684205
0.176573 0.130714 0.686176
0.1782 0.132259 0.687918
0.179868 0.133876 0.689824
0.181387 0.135178 0.690965
0.182926 0.136513 0.692177
0.184354 0.137615 0.692827
0.185794 0.138736 0.693515
0.187201 0.139786 0.69403
0.188569 0.140752 0.694345
0.189926 0.141694 0.694597
0.191297 0.142662 0.694905
0.192654 0.143597 0.695133
0.194016 0.14454 0.695377
0.19543 0.145581 0.695845
0.19687 0.146667 0.696414
0.198364 0.147854 0.69721
0.199861 0.149039 0.697996
0.201377 0.150257 0.698852
0.202897 0.151477 0.699705
0.204478 0.152805 0.700801
0.206003 0.154023 0.701635
0.20758 0.155331 0.702672
0.209104 0.156535 0.703461
0.21063 0.157738 0.704243
0.212058 0.158754 0.704596
0.213501 0.159797 0.705004
0.214943 0.160832 0.705391
0.216463 0.162007 0.706088
0.218003 0.163212 0.706848
0.219554 0.164433 0.707635
0.221118 0.165672 0.708458
0.222581 0.166725 0.708862
0.224004 0.167705 0.709096
0.225357 0.168556 0.709044
0.22675 0.169478 0.709145
0.228126 0.170368 0.709173
0.229502 0.171255 0.709193
0.230762 0.171939 0.708764
0.232027 0.172632 0.708356
0.233387 0.173488 0.7083
0.234769 0.17438 0.708324
0.23623 0.175405 0.708635
0.237794 0.176604 0.709316
0.239331 0.177753 0.709885
0.240746 0.178691 0.709994
0.242136 0.179585 0.710006
0.243462 0.18037 0.709782
0.244767 0.181119 0.709479
0.246115 0.181938 0.709325
0.24749 0.182801 0.709263
0.248873 0.183677 0.709225
0.250296 0.184616 0.70932
0.251804 0.185695 0.709709
0.253371 0.186863 0.710282
0.254957 0.188061 0.710912
0.256614 0.189368 0.711767
0.258249 0.190637 0.712534
0.259835 0.191823 0.713123
0.261406 0.19298 0.713645
0.262955 0.1941 0.714087
0.264535 0.195264 0.714615
0.266185 0.196539 0.715369
0.267826 0.197793 0.716073
0.269475 0.199055 0.716789
0.271192 0.200421 0.71771
0.272892 0.201755 0.718563
0.274573 0.203056 0.71934
0.276263 0.204366 0.720129
0.278051 0.205825 0.721217
0.279911 0.207388 0.722506
0.28169 0.208822 0.723527
0.283362 0.210086 0.724198
0.101422 0.109495 0.773283
0.102631 0.109924 0.772087
0.103834 0.110337 0.770851
0.104981 0.110549 0.769047
0.106123 0.110759 0.767242
0.107279 0.111032 0.765625
0.108443 0.111341 0.764117
0.109614 0.111683 0.762704
0.11078 0.112018 0.76128
0.111943 0.112351 0.759855
0.113086 0.112623 0.758266
0.114243 0.112954 0.756846
0.115406 0.11331 0.755502
0.116569 0.113676 0.754189
0.117739 0.114069 0.752957
0.118915 0.114487 0.751798
0.120126 0.115021 0.750961
0.121331 0.115542 0.75009
0.122546 0.116094 0.749305
0.123738 0.116581 0.748347
0.124923 0.117048 0.747336
0.12604 0.117316 0.745788
0.127112 0.117459 0.743911
0.128129 0.11745 0.741629
0.129132 0.117415 0.739291
0.130102 0.117298 0.73674
0.131089 0.117245 0.734372
0.132117 0.117318 0.732352
0.133215 0.1176 0.730894
0.134325 0.117922 0.729549
0.135487 0.118393 0.728601
0.136649 0.118867 0.727666
0.13782 0.119367 0.726801
0.138829 0.119438 0.724812
0.139593 0.118869 0.721158
0.14025 0.11487 0.711985
0.140176 0.117841 0.716326
0.141005 0.115001 0.704698
0.14154 0.113939 0.69985
0.142242 0.113331 0.696201
0.143062 0.113038 0.693378
0.143927 0.112874 0.6909
0.144822 0.112798 0.688655
0.145674 0.112625 0.686175
0.146586 0.112612 0.684111
0.147481 0.112567 0.681977
0.148464 0.112743 0.680411
0.149452 0.11294 0.678902
0.150534 0.113365 0.677975
0.151652 0.113878 0.67727
0.152803 0.114471 0.676766
0.153954 0.115064 0.676265
0.155106 0.115659 0.675769
0.156316 0.116387 0.675602
0.157543 0.117154 0.675532
0.158776 0.117932 0.675488
0.160008 0.118705 0.675428
0.161284 0.119575 0.675604
0.162552 0.120425 0.67573
0.163843 0.12132 0.675964
0.165186 0.122329 0.676471
0.166573 0.123428 0.677192
0.167979 0.124561 0.677989
0.169433 0.125793 0.679021
0.170895 0.127034 0.680066
0.172511 0.128596 0.681878
0.174131 0.130156 0.683671
0.175824 0.131859 0.685798
0.177468 0.133445 0.687631
0.179179 0.13516 0.689761
0.180745 0.136564 0.691137
0.182332 0.138001 0.692584
0.183807 0.139203 0.693462
0.185276 0.140384 0.694287
0.186671 0.14141 0.694738
0.188024 0.142347 0.694976
0.189363 0.143253 0.695139
0.190704 0.14416 0.695299
0.192047 0.145069 0.695462
0.193408 0.146009 0.695695
0.194822 0.147052 0.696161
0.196262 0.14814 0.696729
0.19774 0.149298 0.697451
0.199219 0.150453 0.698162
0.200701 0.151608 0.698865
0.202202 0.152793 0.699634
0.203748 0.15406 0.700583
0.205271 0.155278 0.701412
0.20683 0.156558 0.702376
0.20837 0.157796 0.703238
0.209897 0.159003 0.704025
0.211342 0.160055 0.704454
0.212804 0.161134 0.70494
0.214266 0.162207 0.705408
0.215787 0.163388 0.706113
0.21731 0.164565 0.706802
0.218839 0.165749 0.707504
0.220383 0.166955 0.708246
0.221847 0.168013 0.708656
0.223256 0.168969 0.708835
0.224626 0.169853 0.708854
0.226035 0.170805 0.709017
0.227412 0.171696 0.709044
0.228773 0.172559 0.709008
0.230031 0.173238 0.70857
0.231295 0.173929 0.708154
0.232674 0.174819 0.708174
0.23406 0.17572 0.708212
0.235545 0.176789 0.708614
0.237147 0.178055 0.709435
0.238708 0.179245 0.710088
0.240127 0.180191 0.71021
0.241499 0.181055 0.710155
0.242821 0.181833 0.709913
0.244098 0.182534 0.709505
0.245421 0.183314 0.709265
0.246757 0.184112 0.709061
0.248157 0.185016 0.709084
0.24958 0.185957 0.709181
0.251093 0.187044 0.70958
0.252664 0.188224 0.710173
0.254274 0.189462 0.710884
0.255976 0.190847 0.711895
0.25768 0.192231 0.712897
0.259345 0.193547 0.71375
0.260967 0.194787 0.714439
0.262566 0.195988 0.715042
0.264141 0.197146 0.715552
0.265749 0.198352 0.716155
0.267335 0.199523 0.716679
0.268955 0.200742 0.717299
0.270645 0.202068 0.718133
0.272325 0.203373 0.718919
0.274038 0.204726 0.719794
0.275781 0.206123 0.720753
0.277581 0.207601 0.72187
0.279467 0.20921 0.723246
0.281244 0.210644 0.724257
0.282863 0.211828 0.724761
0.100662 0.110913 0.773431
0.101868 0.111322 0.772182
0.10307 0.111727 0.770924
0.104211 0.111907 0.769031
0.105347 0.112086 0.767146
0.106504 0.112355 0.765521
0.107668 0.112658 0.763998
0.10884 0.112997 0.762585
0.110016 0.113362 0.761245
0.111198 0.113751 0.759982
0.112361 0.114085 0.758568
0.113529 0.114445 0.75723
0.114704 0.114835 0.755982
0.115869 0.115199 0.754664
0.117041 0.115591 0.753431
0.118228 0.11604 0.752355
0.119451 0.116608 0.751609
0.120679 0.117193 0.750912
0.121909 0.117784 0.750233
0.123104 0.11827 0.74927
0.124281 0.118707 0.748177
0.125397 0.118963 0.7466
0.126463 0.119078 0.744648
0.127473 0.119034 0.74228
0.128488 0.119024 0.740011
0.12946 0.118898 0.737443
0.130451 0.118844 0.735078
0.131472 0.118889 0.732986
0.132572 0.119167 0.73152
