ply
format ascii 1.0
element vertex 1705
property float x
property float y
property float z
end_header
0.22206 -0.0603905 0.851655
0.223064 -0.0591464 0.852508
0.224069 -0.0578998 0.853359
0.22507 -0.0566491 0.854186
0.226129 -0.0554119 0.855263
0.227203 -0.0541757 0.856398
0.228266 -0.0529325 0.857475
0.229347 -0.0516906 0.858621
0.230439 -0.0504471 0.859805
0.231453 -0.0491802 0.860647
0.232456 -0.0479075 0.861425
0.233499 -0.0466418 0.862376
0.234609 -0.0453885 0.863604
0.235662 -0.0441183 0.864583
0.236782 -0.0428591 0.865836
0.237923 -0.0416004 0.867168
0.239136 -0.040352 0.868797
0.240406 -0.0391094 0.870654
0.24194 -0.0379116 0.8736
0.243636 -0.0367332 0.877204
0.245345 -0.035546 0.88083
0.254799 -0.00820213 0.852314
0.255827 -0.00690567 0.853132
0.256807 -0.00560449 0.853762
0.257678 -0.00429689 0.85397
0.258505 -0.00298727 0.854007
0.259207 -0.00167542 0.85357
0.259821 -0.000362432 0.852797
0.260459 0.000948165 0.852129
0.261098 0.00225647 0.851464
0.261711 0.00356244 0.850709
0.262365 0.0048672 0.850105
0.263043 0.00617049 0.849602
0.263657 0.00747096 0.848858
0.264313 0.00877056 0.848281
0.265034 0.0100699 0.847944
0.265789 0.0113697 0.847735
0.266509 0.0126673 0.847398
0.267293 0.0139661 0.847297
0.268089 0.0152664 0.847238
0.268912 0.0165677 0.847281
0.269797 0.0178724 0.847547
0.270744 0.0191818 0.848033
0.271687 0.0204917 0.848505
0.272622 0.0218034 0.848941
0.273478 0.0231099 0.849096
0.274386 0.0244213 0.849434
0.27533 0.0257359 0.849895
0.276385 0.0270631 0.850746
0.278932 0.027596 0.852153
0.277545 0.028402 0.851964
0.28013 0.028941 0.85349
0.278714 0.0297447 0.853204
0.188654 -0.19022 1.03011
0.185762 -0.190384 1.02786
0.186819 -0.18893 1.02842
0.189797 -0.18886 1.03121
0.170439 -0.14677 0.867175
0.170995 -0.145175 0.865515
0.171524 -0.143563 0.86371
0.172015 -0.141922 0.861702
0.172572 -0.140353 0.860108
0.173131 -0.138793 0.858538
0.173738 -0.137286 0.857282
0.174407 -0.135841 0.856406
0.175122 -0.134441 0.855806
0.175822 -0.133031 0.855123
0.176517 -0.13162 0.854429
0.177183 -0.130186 0.853565
0.177847 -0.128754 0.852696
0.178462 -0.127285 0.851556
0.179073 -0.125818 0.850406
0.17971 -0.124377 0.849415
0.180322 -0.122919 0.848289
0.180963 -0.12149 0.847349
0.181666 -0.120113 0.846754
0.182402 -0.118764 0.846356
0.183128 -0.117409 0.845903
0.183928 -0.116111 0.845868
0.184683 -0.114779 0.845578
0.185433 -0.113446 0.845272
0.186181 -0.112112 0.844953
0.186947 -0.110792 0.844737
0.187686 -0.109454 0.844374
0.18847 -0.108148 0.844257
0.189253 -0.106842 0.844136
0.190052 -0.105547 0.844102
0.190839 -0.104244 0.844002
0.191625 -0.102941 0.843904
0.192441 -0.101657 0.84396
0.193243 -0.100363 0.843939
0.19403 -0.0990617 0.843844
0.1948 -0.0977494 0.84366
0.195563 -0.0964342 0.843441
0.196308 -0.0951098 0.843134
0.19707 -0.093796 0.842917
0.197874 -0.0925056 0.842913
0.198715 -0.0912353 0.843094
0.199573 -0.0899736 0.843363
0.200412 -0.0887007 0.843531
0.201195 -0.0873985 0.843422
0.201957 -0.0860858 0.843207
0.202698 -0.0847638 0.842889
0.203462 -0.0834541 0.842687
0.20421 -0.082137 0.842406
0.205029 -0.0808543 0.842481
0.20583 -0.0795629 0.842462
0.206688 -0.0782972 0.842719
0.20753 -0.0770236 0.8429
0.208409 -0.0757648 0.84325
0.209268 -0.0744966 0.843507
0.210163 -0.0732418 0.843931
0.21108 -0.0719947 0.844457
0.212025 -0.0707564 0.845108
0.213028 -0.0695377 0.846025
0.214034 -0.0683174 0.84695
0.215061 -0.0671013 0.847962
0.216034 -0.0658621 0.848718
0.217043 -0.0646328 0.849632
0.217978 -0.0633749 0.850197
0.218949 -0.0621268 0.850924
0.219901 -0.0608698 0.851559
0.220917 -0.0596312 0.852476
0.221921 -0.0583855 0.853332
0.222929 -0.057138 0.854201
0.22397 -0.0558977 0.85521
0.225014 -0.0546544 0.856224
0.226064 -0.0534091 0.857259
0.22708 -0.052151 0.85813
0.228133 -0.0509 0.859157
0.229183 -0.0496445 0.860167
0.230199 -0.0483769 0.861016
0.231242 -0.047113 0.861977
0.232328 -0.0458564 0.863113
0.233461 -0.0446065 0.864452
0.234561 -0.0433448 0.865634
0.235706 -0.0420889 0.866997
0.23683 -0.0408241 0.86826
0.238017 -0.0395676 0.869786
0.239327 -0.0383301 0.871819
0.240866 -0.0371296 0.874801
0.242477 -0.0359319 0.878065
0.244095 -0.0347253 0.881336
0.252368 -0.00867978 0.851198
0.253436 -0.00738708 0.852183
0.254573 -0.00609449 0.853434
0.255674 -0.00479689 0.854531
0.256605 -0.00349043 0.854973
0.257485 -0.00218088 0.855209
0.25823 -0.00086835 0.85493
0.258814 0.000445843 0.854037
0.259399 0.00175842 0.853158
0.26001 0.00306731 0.852377
0.260619 0.0043745 0.851597
0.26125 0.00567891 0.850906
0.26191 0.00698227 0.850327
0.262525 0.00828307 0.849583
0.263179 0.00958351 0.848989
0.263876 0.0108828 0.84856
0.264609 0.0121822 0.848264
0.265328 0.0134805 0.847924
0.266088 0.0147795 0.847733
0.26686 0.0160783 0.847585
0.267655 0.0173777 0.847527
0.268514 0.0186821 0.847698
0.269434 0.0199903 0.84809
0.27038 0.0213012 0.848573
0.271315 0.0226127 0.849014
0.272174 0.0239203 0.849178
0.273057 0.0252294 0.849427
0.273996 0.026544 0.849877
0.275023 0.0278689 0.850633
0.276154 0.0292069 0.851754
0.277292 0.0305476 0.852892
0.184694 -0.19182 1.02721
0.183535 -0.193141 1.02595
0.181937 -0.192124 1.02577
0.183038 -0.190734 1.02666
0.184056 -0.18924 1.02699
0.185011 -0.187669 1.02689
0.186033 -0.186178 1.02724
0.168839 -0.147842 0.870723
0.169339 -0.146177 0.868672
0.169843 -0.144527 0.866673
0.170311 -0.14285 0.864471
0.170787 -0.141191 0.862344
0.17133 -0.139607 0.860646
0.171874 -0.138032 0.858978
0.172468 -0.136511 0.857625
0.173139 -0.135066 0.856749
0.173858 -0.13367 0.856167
0.174577 -0.132275 0.855592
0.175294 -0.130882 0.855013
0.17599 -0.129474 0.854319
0.176654 -0.128041 0.853446
0.177286 -0.126584 0.852387
0.177913 -0.125127 0.851317
0.178584 -0.123712 0.850508
0.179232 -0.122281 0.849577
0.179911 -0.120879 0.848834
0.180634 -0.119515 0.848344
0.181372 -0.118164 0.847946
0.182098 -0.116806 0.847486
0.18287 -0.115483 0.84728
0.183607 -0.114136 0.846884
0.184341 -0.112788 0.846475
0.185089 -0.111451 0.846149
0.185856 -0.11013 0.845934
0.186596 -0.108791 0.845573
0.187381 -0.107483 0.845451
0.188161 -0.106173 0.845308
0.188928 -0.104854 0.845097
0.189682 -0.103528 0.844816
0.190466 -0.102222 0.844701
0.191265 -0.100926 0.844668
0.192051 -0.0996222 0.844561
0.192838 -0.0983188 0.84446
0.193624 -0.0970156 0.844355
0.19439 -0.095701 0.844151
0.19514 -0.0943776 0.843862
0.195922 -0.0930738 0.843745
0.196742 -0.0917912 0.843818
0.197583 -0.0905191 0.843999
0.198442 -0.0892562 0.844271
0.199298 -0.0879907 0.844522
0.200067 -0.0866793 0.844334
0.200813 -0.0853571 0.844032
0.201539 -0.0840263 0.843634
0.202283 -0.0827059 0.843337
0.203017 -0.0813812 0.842982
0.203853 -0.0801055 0.843131
0.204673 -0.0788216 0.843206
0.205547 -0.077562 0.843544
0.20639 -0.0762869 0.843723
0.207266 -0.0750258 0.844061
0.208106 -0.0737477 0.844224
0.208983 -0.0724845 0.844562
0.209884 -0.0712295 0.845011
0.21083 -0.0699909 0.845672
0.211833 -0.0687711 0.846592
0.21284 -0.06755 0.847526
0.213881 -0.0663378 0.848609
0.21487 -0.0651031 0.849443
0.215879 -0.0638723 0.850361
0.216815 -0.0626128 0.850932
0.217804 -0.0613697 0.851745
0.218739 -0.0601056 0.852303
0.219734 -0.0588585 0.853128
0.220773 -0.0576227 0.854147
0.22182 -0.0563854 0.855196
0.22287 -0.0551455 0.856247
0.223916 -0.0539005 0.857274
0.224942 -0.0526466 0.858201
0.225913 -0.0513744 0.858875
0.226922 -0.0501096 0.85971
0.227953 -0.048848 0.86064
0.228991 -0.0475848 0.861594
0.230074 -0.0463294 0.862735
0.231182 -0.045076 0.863976
0.232337 -0.0438293 0.865411
0.233481 -0.0425749 0.866787
0.234627 -0.0413169 0.868162
0.235749 -0.040049 0.869422
0.236933 -0.0387893 0.870941
0.238285 -0.037557 0.873157
0.239863 -0.0363596 0.876318
0.241387 -0.0351421 0.879229
0.25323 -0.00527963 0.853384
0.254433 -0.00398453 0.854891
0.255449 -0.00267914 0.85566
0.256431 -0.00137177 0.856289
0.257227 -5.81018e-05 0.8562
0.257788 0.00125727 0.855213
0.258301 0.0025705 0.854049
0.258878 0.00387989 0.853134
0.259439 0.00518746 0.852162
0.260051 0.00649199 0.851394
0.260712 0.00779562 0.850817
0.261349 0.00909643 0.85015
0.262002 0.0103966 0.849551
0.262701 0.0116958 0.84912
0.263428 0.012996 0.848804
0.264145 0.0142942 0.84845
0.264903 0.0155936 0.84825
0.265678 0.0168929 0.848109
0.266452 0.0181927 0.847971
0.267286 0.0194956 0.848052
0.268178 0.0208024 0.848345
0.269099 0.0221123 0.848738
0.270011 0.0234226 0.849097
0.270869 0.0247307 0.849261
0.271726 0.0260372 0.849417
0.272662 0.0273528 0.849854
0.273657 0.0286752 0.850503
0.274761 0.0300102 0.851535
0.275845 0.0313468 0.852487
0.278452 0.0318942 0.854103
0.276976 0.0326903 0.853601
0.182461 -0.195537 1.03587
0.180307 -0.196629 1.0387
0.180004 -0.193451 1.02992
0.180314 -0.191076 1.02543
0.181291 -0.189536 1.02549
0.18218 -0.187891 1.02496
0.183035 -0.186207 1.0242
0.183949 -0.184596 1.02386
0.168279 -0.149453 0.872419
0.167719 -0.151071 0.874132
0.166436 -0.150298 0.874561
0.167084 -0.148771 0.87339
0.167673 -0.147187 0.871856
0.168195 -0.145542 0.869926
0.168674 -0.143862 0.867738
0.169096 -0.142137 0.86523
0.169543 -0.140446 0.862893
0.170068 -0.138843 0.861074
0.170599 -0.137253 0.859304
0.171181 -0.135719 0.857865
0.171855 -0.134277 0.856999
0.17259 -0.132895 0.856513
0.173314 -0.131504 0.855962
0.174049 -0.130126 0.855482
0.174763 -0.128732 0.854887
0.175427 -0.127298 0.854002
0.176075 -0.125852 0.853024
0.176734 -0.124421 0.852129
0.177442 -0.123035 0.851525
0.178125 -0.12163 0.850787
0.178838 -0.120252 0.850222
0.179575 -0.118895 0.849801
0.180313 -0.117542 0.849395
0.181026 -0.116171 0.848846
0.181783 -0.114834 0.84855
0.182491 -0.113463 0.84799
0.183194 -0.112091 0.847402
0.183926 -0.110741 0.846978
0.184696 -0.10942 0.846767
0.185425 -0.108072 0.846339
0.186211 -0.106763 0.846222
0.186992 -0.105452 0.846077
0.187742 -0.104122 0.845773
0.18848 -0.102784 0.845403
0.189264 -0.101477 0.845281
0.190062 -0.100179 0.845238
0.190848 -0.098874 0.845129
0.191636 -0.0975706 0.845033
0.192437 -0.0962749 0.845002
0.193222 -0.0949699 0.84489
0.193973 -0.0936462 0.844603
0.194772 -0.0923504 0.844568
0.195591 -0.0910656 0.844636
0.196417 -0.0897842 0.844736
0.197262 -0.0885124 0.844934
0.198119 -0.0872461 0.845191
0.198871 -0.0859254 0.84492
0.199616 -0.0846018 0.844605
0.200339 -0.0832685 0.844191
0.201082 -0.0819468 0.843878
0.201816 -0.0806214 0.84352
0.202668 -0.0793523 0.843752
0.203509 -0.0780771 0.843925
0.204404 -0.0768252 0.844361
0.205249 -0.07555 0.844556
0.206143 -0.0742948 0.844982
0.206983 -0.0730155 0.84514
0.207862 -0.0717509 0.845484
0.208764 -0.0704948 0.845937
0.209724 -0.0692598 0.84667
0.210729 -0.0680391 0.847601
0.211736 -0.0668155 0.848535
0.212762 -0.0655958 0.849551
0.213749 -0.0643584 0.850378
0.214755 -0.063125 0.851284
0.21569 -0.0618638 0.851854
0.216662 -0.0606128 0.852587
0.217615 -0.0593531 0.853227
0.218589 -0.0580979 0.853962
0.21963 -0.0568604 0.854992
0.220677 -0.0556214 0.856045
0.221729 -0.0543801 0.857108
0.222756 -0.053128 0.858056
0.22378 -0.0518716 0.858976
0.224725 -0.050591 0.859539
0.225732 -0.0493246 0.860364
0.226783 -0.0480666 0.86139
0.227846 -0.0468078 0.862457
0.228955 -0.0455568 0.863716
0.230085 -0.0443064 0.865058
0.231239 -0.0430567 0.866494
0.232379 -0.0417991 0.86786
0.233503 -0.0405338 0.869141
0.234624 -0.0392637 0.870402
0.235806 -0.0380012 0.871914
0.237176 -0.0367693 0.874223
0.238692 -0.0355571 0.877136
0.240166 -0.0343277 0.879852
0.254685 -0.00456761 0.86432
0.25323 -0.00317287 0.855403
0.254362 -0.00186954 0.856624
0.255428 -0.000561433 0.857583
0.256271 0.000752682 0.857671
0.256821 0.00206934 0.85663
0.257314 0.00338343 0.855377
0.257863 0.00469431 0.854344
0.25835 0.00600144 0.853083
0.258917 0.00730675 0.852136
0.259558 0.00860981 0.851474
0.26022 0.00991204 0.850898
0.260875 0.011212 0.8503
0.261576 0.0125123 0.849873
0.262305 0.0138128 0.849559
0.26302 0.0151117 0.849194
0.263755 0.0164113 0.848905
0.264507 0.0177102 0.84868
0.265259 0.0190088 0.848457
0.266068 0.0203108 0.848445
0.266933 0.0216159 0.848642
0.267824 0.0229243 0.848925
0.26871 0.0242335 0.849188
0.269565 0.0255405 0.849343
0.270397 0.0268452 0.849409
0.271328 0.0281609 0.849837
0.272297 0.0294813 0.850391
0.273351 0.0308116 0.85125
0.274381 0.0321422 0.852018
0.275481 0.0334828 0.853027
0.177709 -0.197165 1.03849
0.177455 -0.194018 1.02992
0.1778 -0.191671 1.02559
0.178629 -0.189949 1.02464
0.179507 -0.18829 1.02403
0.180353 -0.186596 1.02321
0.181157 -0.184855 1.02212
0.181982 -0.183146 1.02119
0.182888 -0.181533 1.0208
0.165156 -0.149529 0.875015
0.165857 -0.148056 0.874173
0.166463 -0.146489 0.872737
0.167001 -0.144857 0.870881
0.16746 -0.143153 0.868543
0.167836 -0.141378 0.865714
0.168255 -0.139658 0.863183
0.168769 -0.138042 0.861272
0.169287 -0.136439 0.859413
0.169871 -0.134906 0.85797
0.170543 -0.133463 0.85709
0.171293 -0.132093 0.856683
0.172033 -0.130717 0.856227
0.172771 -0.129341 0.855759
0.173501 -0.12796 0.85525
0.174181 -0.126538 0.85445
0.174846 -0.125107 0.853572
0.175526 -0.123692 0.852787
0.176269 -0.122333 0.852381
0.176972 -0.120942 0.851744
0.177701 -0.119575 0.851261
0.178437 -0.118216 0.850835
0.179174 -0.116859 0.850409
0.179887 -0.115485 0.849851
0.180629 -0.114136 0.849468
0.181337 -0.112763 0.848894
0.18204 -0.111389 0.848293
0.182772 -0.110038 0.847867
0.183545 -0.108717 0.847667
0.184294 -0.10738 0.847338
0.185082 -0.106072 0.847232
0.185863 -0.104758 0.847081
0.186599 -0.103416 0.846689
0.187321 -0.102067 0.846229
0.18809 -0.100749 0.846022
0.188874 -0.0994412 0.8459
0.189646 -0.0981263 0.84571
0.190433 -0.0968215 0.845609
0.191236 -0.0955257 0.845587
0.192038 -0.0942299 0.845559
0.192789 -0.0929053 0.845272
0.193589 -0.0916086 0.845233
0.194405 -0.090321 0.845285
0.195231 -0.0890388 0.845384
0.196058 -0.0877564 0.845493
0.196916 -0.0864895 0.845754
0.197668 -0.085168 0.845473
0.198395 -0.0838347 0.845066
0.199116 -0.0824997 0.844633
0.199841 -0.0811682 0.844227
0.200573 -0.0798418 0.843857
0.201428 -0.0785735 0.844102
0.202289 -0.0773067 0.844375
0.203208 -0.0760645 0.844931
0.204075 -0.0747977 0.845229
0.204988 -0.0735495 0.845748
0.205848 -0.0722769 0.846004
0.206725 -0.0710108 0.846342
0.207626 -0.0697525 0.846792
0.20862 -0.0685291 0.847686
0.209627 -0.0673069 0.848627
0.210635 -0.066082 0.849572
0.211679 -0.0648668 0.850676
0.212666 -0.0636273 0.851505
0.213656 -0.0623859 0.852338
0.21459 -0.0611223 0.852902
0.215558 -0.0598682 0.85362
0.216511 -0.0586064 0.854261
0.217468 -0.0573436 0.854916
0.218506 -0.0561033 0.855937
0.219571 -0.0548681 0.857076
0.220607 -0.0536196 0.858071
0.221633 -0.0523653 0.859009
0.222651 -0.0511056 0.85991
0.223594 -0.0498226 0.860459
0.224581 -0.0485489 0.861207
0.225657 -0.0472952 0.862342
0.226724 -0.0460357 0.863428
0.227854 -0.0447873 0.864789
0.228986 -0.0435351 0.866145
0.230137 -0.0422821 0.867574
0.231256 -0.041018 0.86885
0.232372 -0.0397483 0.870105
0.233491 -0.0384755 0.87136
0.234673 -0.0372107 0.872881
0.236026 -0.0359731 0.875129
0.237518 -0.0347531 0.877952
0.238944 -0.0335122 0.880474
0.252024 -0.00236027 0.855904
0.253212 -0.00105666 0.85735
0.254318 0.000253152 0.85847
0.255194 0.00156739 0.858686
0.255805 0.00288475 0.857873
0.256279 0.00419997 0.856533
0.256824 0.00551064 0.855477
0.257284 0.00681789 0.854097
0.257805 0.00812179 0.852968
0.258424 0.00942596 0.852215
0.259109 0.010729 0.851719
0.259769 0.0120297 0.851137
0.260452 0.0133301 0.850643
0.261186 0.0146315 0.850338
0.2619 0.015931 0.849964
0.262612 0.0172295 0.849585
0.263339 0.0185275 0.84927
0.264093 0.0198272 0.849047
0.264876 0.0211276 0.848939
0.265712 0.0224315 0.849026
0.266573 0.0237383 0.849199
0.267429 0.0250453 0.84936
0.268261 0.0263509 0.849426
0.269092 0.0276556 0.849492
0.270024 0.0289713 0.84992
0.270967 0.0302898 0.85039
0.271993 0.0316181 0.85115
0.273016 0.0329488 0.851898
0.274086 0.0342864 0.852808
0.174591 -0.197011 1.03458
0.174904 -0.194582 1.02989
0.17526 -0.192235 1.02558
0.17611 -0.190536 1.02475
0.176881 -0.188741 1.02339
0.177665 -0.18697 1.02214
0.178449 -0.185205 1.02092
0.179218 -0.183428 1.01959
0.18005 -0.181732 1.0187
0.180945 -0.180114 1.01827
0.163087 -0.150143 0.875763
0.163908 -0.148796 0.875694
0.164615 -0.147327 0.874871
0.165207 -0.145742 0.873325
0.165747 -0.14411 0.871464
0.166194 -0.142392 0.869026
0.166558 -0.140602 0.866097
0.166965 -0.138869 0.863469
0.167468 -0.137241 0.86147
0.167977 -0.135627 0.859528
0.168562 -0.134095 0.858083
0.169234 -0.13265 0.85719
0.169982 -0.131279 0.856772
0.170736 -0.129915 0.856394
0.17149 -0.128553 0.856016
0.172222 -0.127173 0.855517
0.172918 -0.125765 0.854809
0.173616 -0.12436 0.85411
0.174317 -0.122962 0.853444
0.175081 -0.121618 0.853152
0.175801 -0.12024 0.852611
0.176529 -0.11887 0.852117
0.17725 -0.117498 0.851591
0.177974 -0.116129 0.851083
0.178687 -0.114754 0.850523
0.179431 -0.113405 0.850138
0.180137 -0.112029 0.849548
0.180839 -0.110653 0.848936
0.181571 -0.109301 0.848504
0.18233 -0.107969 0.848224
0.183096 -0.106643 0.847983
0.183901 -0.105345 0.847965
0.184699 -0.104042 0.847907
0.185451 -0.102708 0.847596
0.186174 -0.101358 0.847133
0.186927 -0.100028 0.846833
0.187694 -0.0987086 0.846617
0.188451 -0.0973829 0.846338
0.189224 -0.0960685 0.846158
0.190028 -0.0947726 0.846137
0.19083 -0.0934762 0.846113
0.191584 -0.0921521 0.845832
0.192383 -0.0908542 0.845793
0.193199 -0.0895653 0.845838
0.194023 -0.0882811 0.845929
0.194849 -0.0869973 0.846025
0.195705 -0.0857285 0.846275
0.196457 -0.0844058 0.845989
0.197168 -0.0830636 0.8455
0.197888 -0.081728 0.845059
0.198614 -0.0803965 0.84465
0.199347 -0.0790702 0.844284
0.200205 -0.0778019 0.844541
0.2011 -0.0765501 0.84499
0.202039 -0.0753159 0.845649
0.202928 -0.0740573 0.846052
0.203862 -0.0728163 0.846677
0.204756 -0.0715565 0.847096
0.205637 -0.0702898 0.847453
0.206541 -0.0690305 0.84791
0.207536 -0.0678051 0.848811
0.208541 -0.0665803 0.849752
0.209533 -0.0653471 0.850618
0.210576 -0.0641295 0.851726
0.211565 -0.0628886 0.85256
0.212535 -0.061638 0.853301
0.213452 -0.060367 0.853785
0.2144 -0.0591047 0.854412
0.21535 -0.0578406 0.855041
0.216288 -0.0565705 0.855607
0.217326 -0.0553287 0.856636
0.218408 -0.0540965 0.857858
0.219458 -0.0528508 0.858919
0.220465 -0.051589 0.859777
0.221482 -0.0503273 0.860674
0.222443 -0.0490477 0.861309
0.223415 -0.0477687 0.861984
0.224491 -0.0465133 0.86313
0.225598 -0.0452615 0.864399
0.226749 -0.044016 0.865855
0.227878 -0.0427604 0.867208
0.229029 -0.0415051 0.868643
0.230141 -0.0402369 0.869891
0.231238 -0.0389613 0.871064
0.232375 -0.0376899 0.872406
0.233562 -0.0364234 0.873954
0.234914 -0.0351825 0.876203
0.236358 -0.0339507 0.878837
0.237709 -0.0326942 0.88105
0.252014 -0.000241405 0.857898
0.253134 0.00106901 0.859077
0.254039 0.00238447 0.859403
0.254737 0.00370184 0.85892
0.255245 0.00501681 0.857702
0.25579 0.00632934 0.856637
0.256221 0.00763584 0.85514
0.256715 0.00894037 0.853893
0.257265 0.0102419 0.852873
0.25795 0.0115459 0.852374
0.258635 0.0128481 0.851877
0.259347 0.0141499 0.851483
0.260086 0.0154527 0.851197
0.260823 0.0167544 0.850908
0.261533 0.0180528 0.850518
0.262257 0.0193514 0.85018
0.263007 0.0206515 0.849945
0.263746 0.0219503 0.849664
0.264534 0.0232513 0.849571
0.265387 0.0245587 0.849718
0.266217 0.025864 0.849783
0.267029 0.0271679 0.849775
0.267887 0.0284766 0.849937
0.268819 0.029793 0.850369
0.269738 0.0311095 0.85075
0.270711 0.0324324 0.851324
0.271704 0.0337601 0.851965
0.27272 0.0350931 0.852686
0.170986 -0.196168 1.027
0.171877 -0.194514 1.02645
0.172738 -0.192822 1.02569
0.17361 -0.191147 1.025
0.174402 -0.189374 1.02377
0.175149 -0.187552 1.02224
0.175875 -0.185712 1.02059
0.176621 -0.183903 1.01908
0.177391 -0.18213 1.01776
0.178291 -0.18052 1.01735
0.179203 -0.178925 1.01703
0.180122 -0.177338 1.01675
0.161832 -0.149403 0.876402
0.162652 -0.148053 0.876317
0.163346 -0.14657 0.875408
0.163929 -0.144973 0.873784
0.164459 -0.143328 0.871837
0.164894 -0.141596 0.8693
0.165261 -0.139808 0.866362
0.165699 -0.138102 0.8639
0.166207 -0.136477 0.861915
0.16672 -0.134866 0.859982
0.167306 -0.133334 0.858527
0.167964 -0.131874 0.857534
0.168684 -0.130477 0.85694
0.169425 -0.129101 0.856477
0.170193 -0.127751 0.85619
0.170928 -0.126374 0.8557
0.171642 -0.12498 0.855088
0.172356 -0.123589 0.854484
0.173074 -0.122204 0.853913
0.17384 -0.120861 0.85363
0.17459 -0.119506 0.853256
0.17532 -0.118136 0.852765
0.176042 -0.116763 0.852238
0.176767 -0.115394 0.85173
0.177482 -0.114019 0.851168
0.178211 -0.112658 0.850702
0.178921 -0.111284 0.85012
0.179623 -0.109906 0.849502
0.180357 -0.108554 0.849073
0.181115 -0.107221 0.848784
0.18188 -0.105894 0.848535
0.182686 -0.104595 0.848517
0.183487 -0.103293 0.848475
0.184243 -0.101961 0.848177
0.184966 -0.10061 0.847711
0.185715 -0.0992765 0.847388
0.186465 -0.0979452 0.847069
0.187218 -0.0966164 0.846771
0.18799 -0.0953007 0.846582
0.188794 -0.0940044 0.846564
0.189598 -0.0927081 0.846547
0.190371 -0.0913939 0.846358
0.191171 -0.090096 0.846324
0.191974 -0.0887993 0.846299
0.192779 -0.087504 0.846289
0.193587 -0.0862098 0.846287
0.194423 -0.0849305 0.846441
0.195177 -0.0836087 0.84616
0.195891 -0.082268 0.84568
0.196614 -0.080934 0.845251
0.197357 -0.0796104 0.844929
0.198109 -0.0782923 0.844654
0.198968 -0.0770243 0.844917
0.199881 -0.0757797 0.845458
0.200836 -0.0745515 0.846197
0.201741 -0.0732991 0.846685
0.202694 -0.0720647 0.847405
0.203609 -0.0708123 0.847928
0.204511 -0.0695526 0.848386
0.205433 -0.068299 0.848933
0.206429 -0.0670721 0.849845
0.207417 -0.0658387 0.850703
0.20839 -0.0645967 0.851483
0.209412 -0.0633695 0.852484
0.210397 -0.0621256 0.85331
0.211351 -0.0608683 0.853975
0.212266 -0.0595953 0.854452
0.213212 -0.0583308 0.855071
0.21416 -0.057065 0.855692
0.215081 -0.0557882 0.856181
0.216116 -0.0545443 0.857198
0.217215 -0.0533158 0.858506
0.218266 -0.0520684 0.859579
0.219276 -0.0508064 0.860456
0.220311 -0.0495481 0.861434
0.221293 -0.0482726 0.862171
0.222265 -0.0469918 0.862849
0.223363 -0.04574 0.864095
0.224485 -0.0444897 0.865442
0.225615 -0.0432369 0.866809
0.226743 -0.0419787 0.868156
0.227893 -0.0407211 0.869591
0.228985 -0.0394463 0.870758
0.230082 -0.0381688 0.871937
0.23126 -0.0369029 0.873465
0.232473 -0.0356392 0.875135
0.233805 -0.0343911 0.877307
0.235217 -0.0331504 0.879818
0.23653 -0.0318846 0.881871
0.251996 0.00188573 0.859868
0.252884 0.00320357 0.860132
0.253634 0.00452111 0.859846
0.254195 0.00583601 0.858827
0.254773 0.00714891 0.857878
0.255205 0.00845724 0.856373
0.255696 0.00976187 0.855104
0.256222 0.0110631 0.85398
0.256884 0.0123674 0.853382
0.257546 0.0136688 0.852795
0.258235 0.0149709 0.852309
0.258951 0.0162726 0.851933
0.259667 0.0175733 0.851558
0.260376 0.0188732 0.851161
0.261124 0.0201747 0.85091
0.261878 0.0214754 0.850682
0.262615 0.0227734 0.850397
0.2634 0.0240763 0.850289
0.264229 0.0253822 0.850346
0.265038 0.0266866 0.850328
0.265852 0.0279907 0.850326
0.266713 0.0293006 0.8505
0.267645 0.0306183 0.850936
0.268542 0.0319327 0.851233
0.269458 0.033251 0.851604
0.270421 0.0345757 0.85214
0.271409 0.0359059 0.852763
0.273844 0.036441 0.853789
0.27251 0.0372521 0.853789
0.171151 -0.199271 1.03525
0.169296 -0.200825 1.04048
0.169098 -0.197631 1.0318
0.169435 -0.195211 1.02716
0.170288 -0.193502 1.02631
0.171077 -0.191716 1.02502
0.171892 -0.18997 1.02394
0.172658 -0.188166 1.02251
0.173372 -0.186303 1.02074
0.174048 -0.184403 1.01872
0.174794 -0.182599 1.01722
0.175577 -0.180846 1.01599
0.176542 -0.179316 1.01603
0.177489 -0.177766 1.01595
0.178498 -0.176287 1.0163
0.160523 -0.148606 0.876699
0.161334 -0.147245 0.876549
0.162041 -0.145774 0.875714
0.162607 -0.144158 0.873964
0.163138 -0.142513 0.872005
0.163578 -0.140784 0.869473
0.163949 -0.138997 0.86653
0.164391 -0.137295 0.864075
0.164904 -0.135674 0.862101
0.165421 -0.134065 0.860173
0.166008 -0.132533 0.858711
0.166666 -0.131072 0.857709
0.167372 -0.129662 0.857023
0.168114 -0.128286 0.85656
0.168898 -0.126951 0.856366
0.169635 -0.125575 0.855889
0.170366 -0.124196 0.855375
0.171094 -0.122815 0.854847
0.171826 -0.121442 0.854357
0.172592 -0.120098 0.85407
0.173358 -0.118755 0.853785
0.174104 -0.117397 0.853382
0.174843 -0.116036 0.852946
0.17557 -0.114667 0.852444
0.176287 -0.113292 0.851886
0.177017 -0.11193 0.851413
0.177728 -0.110556 0.850836
0.178434 -0.10918 0.850233
0.179157 -0.107818 0.84973
0.179898 -0.106472 0.849341
0.180659 -0.105141 0.849068
0.18145 -0.10383 0.84896
0.182239 -0.10252 0.84885
0.183013 -0.101199 0.848654
0.183753 -0.0998584 0.848273
0.184503 -0.0985247 0.847948
0.185251 -0.0971906 0.847609
0.185986 -0.0958507 0.847216
0.186741 -0.094524 0.846928
0.187529 -0.0932172 0.846818
0.188316 -0.0919112 0.846711
0.18909 -0.0905975 0.846528
0.189893 -0.0893008 0.846504
0.190696 -0.088004 0.846484
0.191501 -0.0867085 0.846469
0.192306 -0.0854129 0.846457
0.193126 -0.0841248 0.846523
0.193897 -0.0828116 0.846334
0.194614 -0.0814725 0.845866
0.195357 -0.0801477 0.845536
0.196118 -0.0788325 0.8453
0.196891 -0.0775237 0.845128
0.19775 -0.0762551 0.845397
0.19868 -0.0750172 0.846021
0.199631 -0.0737861 0.846743
0.200553 -0.07254 0.847319
0.201522 -0.0713116 0.848122
0.20246 -0.0700669 0.84876
0.203381 -0.0688132 0.84931
0.204322 -0.0675654 0.849956
0.205318 -0.0663366 0.850868
0.206285 -0.0650931 0.851626
0.207237 -0.0638418 0.852302
0.208234 -0.0626041 0.853196
0.209199 -0.0613516 0.853924
0.210134 -0.0600867 0.8545
0.211049 -0.0588126 0.854978
0.211994 -0.057547 0.855595
0.212941 -0.0562795 0.856213
0.21386 -0.0550012 0.856693
0.214878 -0.0537509 0.857635
0.215976 -0.0525206 0.858949
0.217028 -0.051273 0.860034
0.218042 -0.050011 0.86093
0.219099 -0.0487571 0.862021
0.220101 -0.0474857 0.862848
0.221092 -0.0462083 0.863614
0.222208 -0.0449592 0.864949
0.22333 -0.0437065 0.866302
0.224459 -0.0424514 0.867669
0.225587 -0.0411913 0.869023
0.226733 -0.0399304 0.870449
0.227828 -0.0386543 0.871635
0.228964 -0.0373826 0.872995
0.230172 -0.0361204 0.874656
0.231407 -0.0348575 0.876429
0.232699 -0.0335992 0.878438
0.234057 -0.0323456 0.880721
0.235313 -0.031068 0.882541
0.251757 0.00402263 0.860975
0.252517 0.00534146 0.860723
0.253139 0.00665835 0.859936
0.253754 0.0079721 0.859128
0.254259 0.00928128 0.857891
0.254773 0.0105867 0.8567
0.255276 0.01189 0.855476
0.255894 0.0131932 0.854703
0.256529 0.0144952 0.854
0.257189 0.0157971 0.853399
0.257857 0.0170968 0.852831
0.25855 0.0183973 0.852365
0.259238 0.0196963 0.85188
0.259968 0.0209959 0.851562
0.260702 0.0222958 0.851256
0.261444 0.0235959 0.850986
0.262229 0.0248988 0.850875
0.263056 0.0262046 0.850924
0.263866 0.0275098 0.850907
0.264682 0.0288158 0.850914
0.265568 0.0301286 0.851176
0.266501 0.0314479 0.851615
0.267392 0.032763 0.851896
0.268281 0.0340794 0.852166
0.269239 0.0354049 0.852681
0.270177 0.0367296 0.853128
0.271226 0.0380695 0.853969
0.167249 -0.199185 1.03705
0.167131 -0.196102 1.0289
0.167894 -0.194266 1.02738
0.168676 -0.192462 1.026
0.16939 -0.190575 1.02416
0.170151 -0.188759 1.02267
0.170888 -0.18692 1.02103
0.171604 -0.185063 1.01927
0.1723 -0.183191 1.01738
0.173083 -0.181433 1.01613
0.173869 -0.179687 1.01492
0.174843 -0.178171 1.01504
0.1758 -0.176635 1.01503
0.176822 -0.175174 1.01548
0.159209 -0.147802 0.87696
0.160013 -0.146434 0.876766
0.16073 -0.144973 0.875987
0.161298 -0.143357 0.874231
0.161819 -0.1417 0.872185
0.162263 -0.139973 0.869651
0.162638 -0.138188 0.866701
0.163084 -0.136489 0.864254
0.163601 -0.134871 0.862291
0.164123 -0.133266 0.860377
0.16471 -0.131732 0.858902
0.165367 -0.130271 0.857886
0.16606 -0.128847 0.857106
0.166802 -0.127472 0.856643
0.167602 -0.12615 0.85654
0.168341 -0.124775 0.856073
0.169073 -0.123397 0.855564
0.169801 -0.122017 0.85503
0.170533 -0.120642 0.854529
0.171284 -0.119286 0.854153
0.172066 -0.117956 0.853961
0.172829 -0.116611 0.85366
0.173588 -0.115265 0.853339
0.174331 -0.113908 0.852921
0.175075 -0.112553 0.852524
0.175807 -0.111191 0.852051
0.176536 -0.109828 0.851562
0.17726 -0.108464 0.851059
0.177983 -0.107101 0.850553
0.178696 -0.105733 0.849992
0.179453 -0.104398 0.849687
0.180225 -0.103074 0.849477
0.181 -0.101753 0.84928
0.181776 -0.100434 0.849096
0.182535 -0.0991034 0.848807
0.183288 -0.0977706 0.848495
0.184037 -0.0964365 0.848165
0.184774 -0.0950969 0.847772
0.185529 -0.0937688 0.847474
0.186314 -0.09246 0.847352
0.1871 -0.0911521 0.847236
0.187888 -0.0898457 0.847129
0.188677 -0.0885403 0.847028
0.189481 -0.0872429 0.847004
0.190285 -0.085946 0.846984
0.191089 -0.0846494 0.846969
0.191895 -0.0833532 0.846957
0.192684 -0.0820485 0.846857
0.193403 -0.0807093 0.846393
0.194148 -0.079385 0.846069
0.19491 -0.0780697 0.845837
0.195683 -0.0767602 0.845664
0.196546 -0.0754921 0.845946
0.197492 -0.0742601 0.846659
0.198442 -0.0730277 0.847384
0.19938 -0.0717873 0.84804
0.200369 -0.0705653 0.848944
0.201325 -0.0693268 0.849678
0.20225 -0.0680734 0.850249
0.203191 -0.0668237 0.850893
0.204166 -0.0655849 0.851702
0.205096 -0.0643259 0.852281
0.206023 -0.0630642 0.85284
0.207 -0.0618179 0.853634
0.207944 -0.0605575 0.854269
0.20886 -0.0592852 0.854753
0.209792 -0.0580164 0.855315
0.210737 -0.0567498 0.855935
0.211667 -0.0554764 0.856481
0.212604 -0.054203 0.857046
0.213637 -0.0529564 0.858071
0.214736 -0.0517251 0.859388
0.215789 -0.0504765 0.860489
0.216821 -0.0492181 0.861473
0.217862 -0.0479591 0.862492
0.218862 -0.0466857 0.863315
0.219855 -0.0454079 0.864096
0.22097 -0.044157 0.865434
0.222097 -0.0429045 0.866814
0.223242 -0.0416511 0.868269
0.224368 -0.0403893 0.86962
0.225513 -0.0391266 0.871044
0.226628 -0.037853 0.872326
0.227809 -0.036588 0.873893
0.22906 -0.0353316 0.875757
0.23032 -0.0340706 0.87765
0.231649 -0.0328157 0.879831
0.232985 -0.0315548 0.882024
0.234236 -0.030273 0.883831
0.25136 0.00616291 0.861456
0.252041 0.00748077 0.860893
0.252705 0.00879599 0.86027
0.253319 0.0101091 0.859453
0.253862 0.0114168 0.858361
0.254389 0.0127209 0.857216
0.254961 0.0140241 0.856255
0.255546 0.0153258 0.855352
0.256133 0.016624 0.85446
0.256744 0.0179217 0.85367
0.257389 0.0192195 0.853012
0.258055 0.0205168 0.852439
0.258788 0.0218183 0.852126
0.259526 0.0231182 0.851831
0.260269 0.0244191 0.851562
0.261055 0.0257223 0.851454
0.261907 0.0270317 0.851595
0.262718 0.0283379 0.851583
0.263533 0.0296437 0.851583
0.264416 0.0309577 0.851836
0.265348 0.0322777 0.85227
0.266218 0.0335924 0.85247
0.26711 0.0349092 0.852749
0.268062 0.0362354 0.853249
0.268975 0.037557 0.8536
0.26997 0.0388924 0.854252
0.272335 0.0394213 0.855024
0.271022 0.0402369 0.855105
0.166038 -0.195784 1.03252
0.166299 -0.193248 1.0272
0.167024 -0.191365 1.0254
0.167685 -0.189409 1.02314
0.16841 -0.187547 1.02138
0.169133 -0.185691 1.01964
0.169872 -0.183866 1.01803
0.170612 -0.182049 1.01644
0.171415 -0.180319 1.01533
0.172206 -0.17858 1.01415
0.173212 -0.177105 1.0145
0.174168 -0.175569 1.01449
0.175193 -0.174113 1.01496
0.157871 -0.146972 0.877061
0.158658 -0.145585 0.876744
0.159375 -0.144123 0.875964
0.159963 -0.142528 0.87432
0.16049 -0.140876 0.872296
0.160949 -0.139164 0.869845
0.161354 -0.137408 0.867067
0.161817 -0.135723 0.864703
0.162326 -0.134095 0.862663
0.162864 -0.132504 0.86083
0.163439 -0.130957 0.859263
0.164083 -0.129482 0.858154
0.164763 -0.128045 0.85728
0.165504 -0.126669 0.85681
0.166304 -0.125347 0.856708
0.167059 -0.123986 0.85633
0.167807 -0.122621 0.855915
0.168537 -0.121242 0.855388
0.169268 -0.119866 0.854881
0.170005 -0.118497 0.854411
0.170788 -0.117167 0.854218
0.171554 -0.115825 0.853936
0.172332 -0.114494 0.853725
0.173094 -0.11315 0.853419
0.173841 -0.111797 0.853028
0.17457 -0.110432 0.852537
0.175298 -0.109067 0.852042
0.176025 -0.107704 0.851544
0.176738 -0.106333 0.850971
0.17745 -0.104964 0.850397
0.178187 -0.103614 0.849978
0.178942 -0.102278 0.849661
0.1797 -0.100946 0.849368
0.180505 -0.0996451 0.849344
0.181282 -0.0983263 0.849161
0.182055 -0.0970059 0.848957
0.182826 -0.0956846 0.84874
0.18358 -0.0943541 0.848436
0.18432 -0.0930162 0.848059
0.185104 -0.0917057 0.847924
0.185891 -0.090397 0.847801
0.186678 -0.0890894 0.847691
0.187467 -0.0877826 0.847584
0.18827 -0.0864844 0.847558
0.189074 -0.0851863 0.847534
0.18988 -0.0838896 0.847522
0.190686 -0.0825927 0.847514
0.191475 -0.0812873 0.847414
0.192194 -0.0799475 0.846945
0.192939 -0.0786219 0.846614
0.193701 -0.0773058 0.846376
0.194476 -0.0759961 0.846203
0.195336 -0.0747264 0.846484
0.1963 -0.0735015 0.847286
0.197255 -0.07227 0.848039
0.198212 -0.0710361 0.848794
0.199202 -0.0698132 0.849707
0.200175 -0.0685804 0.850529
0.201099 -0.0673243 0.851095
0.202039 -0.0660731 0.851737
0.202977 -0.0648183 0.852368
0.203901 -0.0635561 0.852916
0.204808 -0.0622857 0.853378
0.205749 -0.0610257 0.854004
0.206694 -0.0597648 0.854638
0.207626 -0.0584972 0.85521
0.208558 -0.0572274 0.85577
0.209486 -0.0559546 0.856315
0.210435 -0.0546861 0.856946
0.211373 -0.0534125 0.857524
0.212405 -0.0521642 0.858548
0.213466 -0.0509208 0.859695
0.214532 -0.0496747 0.860859
0.215542 -0.0484093 0.861747
0.216597 -0.0471534 0.862843
0.217617 -0.0458841 0.863765
0.218651 -0.0446154 0.864736
0.219768 -0.0433631 0.866091
0.220912 -0.0421129 0.867556
0.222038 -0.0408535 0.868929
0.223143 -0.0395849 0.870194
0.224288 -0.0383206 0.871628
0.22542 -0.0370488 0.872994
0.226626 -0.0357874 0.874677
0.227901 -0.034533 0.876661
0.229164 -0.0332699 0.878576
0.230532 -0.0320188 0.880942
0.231867 -0.0307546 0.883142
0.233145 -0.0294743 0.885074
0.25098 0.00830557 0.862011
0.251666 0.00962275 0.861462
0.252345 0.0109382 0.860893
0.252947 0.0122485 0.860026
0.253479 0.0135544 0.858887
0.254005 0.0148564 0.857734
0.254542 0.0161566 0.856637
0.255076 0.0174532 0.855531
0.255639 0.0187486 0.854546
0.256255 0.0200448 0.853769
0.256897 0.0213403 0.853097
0.257649 0.022644 0.852855
0.258408 0.0239463 0.852639
0.259175 0.0252496 0.852452
0.259965 0.0265541 0.852357
0.260841 0.0278672 0.852588
0.261655 0.029175 0.85258
0.262446 0.0304797 0.852493
0.263281 0.0317894 0.852562
0.264186 0.0331084 0.852896
0.265035 0.0344206 0.853018
0.265907 0.0357357 0.853225
0.266842 0.0370605 0.853661
0.267773 0.0383865 0.854083
0.268739 0.0397181 0.854624
0.269738 0.0410562 0.855289
0.164953 -0.195485 1.03628
0.16469 -0.192209 1.02692
0.165362 -0.190255 1.02469
0.166 -0.188265 1.02224
0.16669 -0.186359 1.02022
0.167418 -0.184513 1.0185
0.168181 -0.182719 1.01706
0.168974 -0.180972 1.01586
0.169801 -0.179271 1.0149
0.170612 -0.177557 1.01386
0.171594 -0.176055 1.01404
0.172542 -0.17451 1.01398
0.173524 -0.173006 1.01415
0.156503 -0.146109 0.876956
0.157279 -0.14471 0.876565
0.158017 -0.14327 0.875911
0.158639 -0.141711 0.874493
0.159172 -0.140065 0.87249
0.159651 -0.138371 0.870142
0.160087 -0.136644 0.867544
0.160554 -0.134961 0.865176
0.161053 -0.133321 0.863049
0.161605 -0.131742 0.861294
0.162168 -0.130182 0.859632
0.1628 -0.128695 0.858429
0.163466 -0.127245 0.857464
0.164207 -0.125868 0.856984
0.164992 -0.124533 0.856791
0.165763 -0.123185 0.856504
0.166528 -0.121834 0.856189
0.167274 -0.120468 0.855761
0.168008 -0.119094 0.855261
0.168743 -0.117723 0.854778
0.169523 -0.11639 0.854566
0.17029 -0.115048 0.854283
0.171072 -0.113719 0.854091
0.171852 -0.112389 0.853889
0.172615 -0.111047 0.853591
0.173347 -0.109683 0.853108
0.174075 -0.108317 0.852606
0.1748 -0.106952 0.852096
0.175514 -0.10558 0.85152
0.176227 -0.104211 0.850945
0.176966 -0.102861 0.85053
0.177704 -0.101513 0.850111
0.178446 -0.100169 0.849719
0.17925 -0.0988671 0.849689
0.180029 -0.0975494 0.849515
0.180806 -0.0962307 0.849333
0.181595 -0.0949203 0.849215
0.182366 -0.0935991 0.849003
0.183108 -0.0922616 0.84863
0.183895 -0.0909519 0.848508
0.184683 -0.0896431 0.848391
0.185472 -0.0883353 0.848284
0.186261 -0.0870277 0.848175
0.187064 -0.0857283 0.848145
0.187867 -0.0844288 0.848113
0.18869 -0.08314 0.848193
0.189515 -0.0818516 0.848277
0.190305 -0.0805452 0.848179
0.19104 -0.0792121 0.847787
0.191783 -0.0778841 0.84744
0.192529 -0.076559 0.847115
0.193284 -0.0752392 0.846838
0.19416 -0.0739753 0.847192
0.195109 -0.0727424 0.847926
0.196067 -0.0715111 0.848697
0.197028 -0.0702775 0.849473
0.198031 -0.069059 0.850464
0.198987 -0.0678174 0.851197
0.199911 -0.0665605 0.851767
0.200865 -0.0653133 0.852487
0.201803 -0.0640572 0.85311
0.202707 -0.0627862 0.853564
0.203613 -0.0615144 0.854021
0.204555 -0.0602532 0.854648
0.205485 -0.058986 0.855217
0.206417 -0.0577171 0.855788
0.207348 -0.0564461 0.856348
0.208294 -0.055178 0.856979
0.209245 -0.0539089 0.857625
0.210182 -0.0526333 0.858201
0.211214 -0.0513837 0.859226
0.212253 -0.0501321 0.860278
0.213278 -0.0488733 0.861252
0.21428 -0.0476053 0.862106
0.21535 -0.0463515 0.86328
0.216394 -0.0450876 0.864313
0.217449 -0.0438224 0.865395
0.218586 -0.0425737 0.866849
0.219706 -0.0413157 0.868212
0.220809 -0.0400494 0.869483
0.221872 -0.0387703 0.870562
0.223016 -0.0375045 0.871997
0.224148 -0.0362315 0.873372
0.225392 -0.0349754 0.875243
0.226669 -0.0337195 0.877248
0.227991 -0.032465 0.879437
0.229404 -0.0312189 0.882014
0.230763 -0.0299556 0.884337
0.232094 -0.0286804 0.886511
0.249875 0.00913153 0.862959
0.250584 0.0104494 0.862497
0.25131 0.0117674 0.862106
0.251971 0.013081 0.861463
0.252595 0.0143918 0.86068
0.253097 0.0156943 0.859422
0.253595 0.0169933 0.858154
0.254104 0.0182888 0.856939
0.25464 0.0195838 0.85584
0.255188 0.020876 0.854793
0.255807 0.0221704 0.854029
0.256535 0.0234723 0.853686
0.257271 0.0247735 0.853377
0.258059 0.0260801 0.853271
0.258897 0.0273902 0.853354
0.259781 0.0287058 0.853613
0.260598 0.030015 0.853614
0.261388 0.0313209 0.853513
0.262167 0.0326256 0.853378
0.263022 0.0339393 0.853519
0.263844 0.035249 0.853541
0.264719 0.0365659 0.853762
0.265634 0.0378891 0.854122
0.266566 0.0392151 0.854546
0.267506 0.0405444 0.854999
0.268479 0.0418798 0.855569
0.270864 0.0424157 0.85641
0.269577 0.0432366 0.856594
0.27436 0.0441564 0.866114
0.270681 0.0445963 0.857627
0.163066 -0.191149 1.0265
0.163706 -0.18915 1.02402
0.164313 -0.187119 1.02132
0.164985 -0.18519 1.01915
0.165714 -0.183345 1.01741
0.16648 -0.181557 1.01598
0.16731 -0.179857 1.01505
0.168173 -0.178205 1.01437
0.169019 -0.176534 1.01356
0.169957 -0.174979 1.01342
0.17089 -0.173419 1.01326
0.155895 -0.143828 0.876341
0.156649 -0.142407 0.875801
0.157302 -0.14088 0.874572
0.157866 -0.139265 0.872756
0.158366 -0.137592 0.870535
0.158834 -0.135896 0.868123
0.159307 -0.134216 0.865765
0.159807 -0.132575 0.863626
0.160361 -0.130996 0.86186
0.160912 -0.129423 0.860102
0.161532 -0.127923 0.85881
0.162184 -0.126458 0.857739
0.162911 -0.125067 0.857161
0.163681 -0.123718 0.856874
0.164466 -0.122383 0.85668
0.165248 -0.121047 0.856471
0.166014 -0.119698 0.856161
0.166764 -0.118336 0.855755
0.167499 -0.116963 0.855257
0.168261 -0.115616 0.854936
0.169025 -0.114271 0.854631
0.169806 -0.11294 0.854432
0.170589 -0.111612 0.854246
0.171369 -0.110282 0.854045
0.172117 -0.108928 0.853648
0.172858 -0.107572 0.853221
0.173601 -0.106218 0.852803
0.174316 -0.104847 0.852233
0.175031 -0.103477 0.85166
0.17577 -0.102126 0.851239
0.176482 -0.100758 0.850659
0.177194 -0.0993937 0.850092
0.177983 -0.0980813 0.84997
0.17876 -0.0967618 0.849785
0.17954 -0.0954448 0.849613
0.180343 -0.0941427 0.849576
0.181131 -0.0928314 0.849454
0.181889 -0.0915024 0.849165
0.182679 -0.0901934 0.849055
0.183468 -0.0888847 0.848948
0.18426 -0.0875774 0.848847
0.185049 -0.0862692 0.84874
0.185853 -0.084969 0.848713
0.186658 -0.08367 0.84869
0.187497 -0.0823882 0.84885
0.188339 -0.0811077 0.849032
0.189133 -0.0798021 0.848946
0.189885 -0.0784763 0.848643
0.190644 -0.0771549 0.848372
0.191375 -0.0758209 0.84796
0.192113 -0.074492 0.84759
0.193002 -0.0732328 0.848016
0.193951 -0.0719983 0.848744
0.194894 -0.0707583 0.849442
0.195869 -0.0695297 0.850296
0.196871 -0.068309 0.85128
0.197808 -0.0670582 0.851923
0.19873 -0.0657992 0.852484
0.199687 -0.0645515 0.853218
0.200626 -0.0632944 0.853854
0.20155 -0.0620292 0.854404
0.202474 -0.0607623 0.854951
0.203417 -0.0595001 0.855593
0.204347 -0.0582313 0.856158
0.205261 -0.0569544 0.85664
0.206192 -0.0556817 0.857201
0.207138 -0.054412 0.857833
0.208072 -0.0531359 0.858396
0.209026 -0.051864 0.859056
0.210058 -0.0506127 0.860085
0.211057 -0.0493483 0.860946
0.212076 -0.0480861 0.861898
0.213091 -0.0468197 0.862819
0.214148 -0.0455614 0.863935
0.215216 -0.0443017 0.86509
0.216295 -0.043041 0.866288
0.217394 -0.0417807 0.867566
0.218465 -0.0405099 0.868708
0.219558 -0.0392402 0.86994
0.220579 -0.0379509 0.870827
0.221702 -0.0366795 0.872179
0.22287 -0.0354124 0.873728
0.224152 -0.0341624 0.875783
0.225451 -0.032908 0.877899
0.226816 -0.0316588 0.880296
0.228269 -0.0304163 0.883075
0.229632 -0.0291505 0.885422
0.230986 -0.0278759 0.887708
0.249562 0.01128 0.863785
0.250296 0.0126 0.863425
0.250996 0.0139174 0.862927
0.251654 0.0152301 0.862268
0.252137 0.0165325 0.860921
0.252613 0.0178308 0.859556
0.253102 0.0191258 0.858251
0.253618 0.0204194 0.85706
0.254145 0.0217104 0.85592
0.254742 0.023004 0.855062
0.25545 0.0243058 0.854637
0.256184 0.0256077 0.854318
0.256977 0.026915 0.854226
0.25782 0.028228 0.854328
0.25873 0.029548 0.854684
0.259527 0.0308557 0.854601
0.260289 0.0321593 0.854395
0.261041 0.0334616 0.85415
0.26184 0.0347694 0.854085
0.262633 0.0360757 0.853995
0.263528 0.0373958 0.854285
0.264442 0.0387202 0.854647
0.265379 0.0400482 0.855092
0.266343 0.0413818 0.855633
0.267317 0.0427188 0.856209
0.268366 0.0440695 0.857054
0.269466 0.0454315 0.858081
0.271716 0.0459478 0.858408
0.270498 0.0467834 0.858854
0.275222 0.0477304 0.868131
0.271478 0.048129 0.859429
0.161472 -0.190131 1.02632
0.162087 -0.188093 1.0236
0.162681 -0.186044 1.02078
0.163354 -0.184114 1.01859
0.164066 -0.182248 1.01673
0.164847 -0.180481 1.01541
0.165698 -0.178809 1.01461
0.166564 -0.177161 1.01395
0.167423 -0.175507 1.01323
0.168306 -0.173886 1.01271
0.169194 -0.172273 1.01222
0.154548 -0.142987 0.87637
0.155299 -0.141563 0.8758
0.15598 -0.140066 0.874762
0.156572 -0.138479 0.873115
0.157079 -0.136811 0.870918
0.15758 -0.135147 0.868701
0.15807 -0.133482 0.866441
0.158575 -0.131843 0.864302
0.159144 -0.130276 0.862617
0.159697 -0.128703 0.860851
0.160305 -0.127189 0.859464
0.160943 -0.12571 0.858292
0.161654 -0.124303 0.857606
0.162397 -0.122928 0.857132
0.163183 -0.121594 0.856939
0.163968 -0.12026 0.856745
0.164751 -0.118925 0.856543
0.165518 -0.117577 0.856241
0.166255 -0.116205 0.855751
0.167001 -0.114843 0.855322
0.167762 -0.113494 0.854992
0.168528 -0.112151 0.854696
0.16931 -0.110822 0.854506
0.170106 -0.109503 0.854395
0.170869 -0.108162 0.854095
0.171616 -0.106808 0.853691
0.172374 -0.105465 0.853361
0.173091 -0.104093 0.852794
0.173808 -0.102724 0.852226
0.174551 -0.101375 0.851815
0.175263 -0.100006 0.851234
0.175975 -0.0986401 0.850658
0.176761 -0.0973251 0.850515
0.177522 -0.095994 0.850232
0.178285 -0.0946656 0.849961
0.179072 -0.093353 0.849832
0.179859 -0.0920408 0.849702
0.180619 -0.0907128 0.849419
0.181425 -0.0894131 0.849402
0.182231 -0.0881135 0.849384
0.183038 -0.0868138 0.849366
0.183829 -0.0855056 0.849265
0.184634 -0.0842054 0.849241
0.185455 -0.0829141 0.849304
0.186311 -0.0816403 0.84956
0.187173 -0.0803688 0.849846
0.187972 -0.0790646 0.849786
0.188742 -0.0777462 0.849575
0.189487 -0.0764164 0.849227
0.190219 -0.0750817 0.84881
0.19096 -0.0737523 0.848445
0.19185 -0.072492 0.848874
0.19278 -0.0712475 0.849511
0.193718 -0.0700044 0.850185
0.194672 -0.0687653 0.850931
0.195655 -0.0675354 0.851824
0.196591 -0.0662832 0.852463
0.197532 -0.0650303 0.853122
0.19849 -0.0637818 0.853864
0.199432 -0.0625248 0.854518
0.200377 -0.0612663 0.855177
0.201321 -0.0600048 0.855823
0.202247 -0.058735 0.856383
0.203175 -0.0574637 0.85694
0.204086 -0.0561849 0.857409
0.204996 -0.0549038 0.857864
0.205925 -0.0536273 0.858412
0.206858 -0.0523498 0.858977
0.207831 -0.0510829 0.859731
0.20886 -0.0498287 0.860752
0.20984 -0.0485576 0.861521
0.210875 -0.0472987 0.862552
0.21191 -0.0460362 0.86358
0.212973 -0.0447776 0.864724
0.214066 -0.0435223 0.866006
0.215161 -0.0422633 0.867287
0.216216 -0.0409904 0.868366
0.21726 -0.0397117 0.869381
0.218308 -0.0384306 0.870408
0.219305 -0.037135 0.87119
0.220407 -0.0358581 0.872451
0.221593 -0.0345935 0.874093
0.222857 -0.033338 0.876076
0.224174 -0.0320856 0.87829
0.225562 -0.0308377 0.880807
0.227056 -0.0295996 0.883786
0.228422 -0.0283321 0.886162
0.229826 -0.0270622 0.888687
0.249368 0.0134387 0.865098
0.250074 0.0147571 0.864616
0.250761 0.0160747 0.864062
0.251248 0.0173779 0.862719
0.251683 0.0186749 0.861174
0.252129 0.0199678 0.859687
0.252641 0.0212612 0.858472
0.253149 0.0225511 0.857244
0.253728 0.0238444 0.856306
0.254435 0.0251464 0.855872
0.255171 0.0264508 0.855552
0.255941 0.027757 0.85537
0.256765 0.0290693 0.855392
0.257678 0.0303905 0.855761
0.258473 0.0317003 0.855671
0.259211 0.0330025 0.855367
0.259913 0.0342992 0.854928
0.260663 0.0356006 0.854672
0.261404 0.0369009 0.854385
0.26227 0.0382175 0.854567
0.263184 0.0395419 0.854932
0.264147 0.0408752 0.855473
0.265137 0.0422147 0.856115
0.266136 0.0435568 0.856783
0.267182 0.0449084 0.857622
0.268281 0.0462717 0.858651
0.269314 0.047625 0.859425
0.270296 0.0489723 0.860015
0.272447 0.0494734 0.859962
0.271265 0.0503181 0.860547
0.159878 -0.189109 1.02611
0.1605 -0.187081 1.02343
0.161114 -0.185056 1.02073
0.16179 -0.183129 1.01854
0.162485 -0.181239 1.01654
0.163268 -0.179474 1.01522
0.164105 -0.177784 1.0143
0.164971 -0.176135 1.01363
0.165852 -0.174511 1.01308
0.166757 -0.172917 1.01271
0.153971 -0.140743 0.875958
0.154664 -0.139259 0.874994
0.15528 -0.137695 0.873495
0.155791 -0.136029 0.871299
0.156311 -0.134383 0.869186
0.156817 -0.132733 0.867013
0.157327 -0.131096 0.864884
0.157912 -0.129544 0.863294
0.158471 -0.127972 0.86154
0.159079 -0.126457 0.860142
0.159705 -0.124964 0.858869
0.160401 -0.123542 0.858072
0.161115 -0.122141 0.857407
0.161898 -0.120803 0.857197
0.162684 -0.119469 0.857004
0.163483 -0.118148 0.856902
0.164268 -0.116814 0.856702
0.16502 -0.115454 0.856306
0.165768 -0.114092 0.855885
0.166529 -0.112742 0.855547
0.167294 -0.111398 0.855241
0.168076 -0.110067 0.855044
0.168873 -0.108749 0.854937
0.169638 -0.107407 0.854645
0.170388 -0.106055 0.854253
0.171151 -0.104714 0.853946
0.171871 -0.103344 0.853387
0.172602 -0.101983 0.852899
0.173344 -0.100632 0.852481
0.174057 -0.099263 0.851896
0.17477 -0.0978963 0.851314
0.175554 -0.0965785 0.851156
0.176285 -0.0952272 0.850693
0.17703 -0.0938864 0.850312
0.177801 -0.0925635 0.850089
0.178572 -0.0912411 0.849865
0.179318 -0.0899046 0.849502
0.180124 -0.0886049 0.849484
0.18093 -0.0873052 0.849466
0.181752 -0.0860142 0.849532
0.182574 -0.084723 0.849604
0.183397 -0.0834322 0.849678
0.184236 -0.0821494 0.84984
0.185123 -0.0808914 0.850271
0.186003 -0.0796277 0.850652
0.186807 -0.0783243 0.850612
0.187596 -0.0770137 0.850495
0.188357 -0.0756904 0.85023
0.189091 -0.0743551 0.849819
0.189835 -0.0730253 0.849462
0.19071 -0.0717564 0.849814
0.191622 -0.0705024 0.850357
0.19254 -0.069249 0.850924
0.193474 -0.0679998 0.851568
0.194424 -0.0667549 0.852291
0.195359 -0.0655018 0.852932
0.196299 -0.0642476 0.85359
0.197258 -0.0629986 0.854339
0.198204 -0.0617419 0.855012
0.199181 -0.0604942 0.855841
0.200128 -0.0592328 0.856511
0.201056 -0.057962 0.857074
0.201981 -0.0566888 0.857619
0.202886 -0.0554064 0.858058
0.203775 -0.0541176 0.858414
0.204704 -0.0528399 0.858961
0.205655 -0.051567 0.859616
0.206629 -0.0502986 0.860381
0.207641 -0.0490383 0.861322
0.208603 -0.047761 0.862008
0.209652 -0.0465044 0.863115
0.210694 -0.0452426 0.864176
0.2118 -0.0439933 0.86554
0.212931 -0.0427455 0.867007
0.214039 -0.0414873 0.868357
0.215069 -0.0402066 0.869316
0.216091 -0.0389209 0.87023
0.217097 -0.0376289 0.871064
0.218075 -0.036328 0.871763
0.219174 -0.035049 0.873018
0.220361 -0.0337828 0.874669
0.221622 -0.0325245 0.876654
0.222942 -0.0312704 0.878893
0.224369 -0.0300267 0.881603
0.225863 -0.0287856 0.884602
0.227224 -0.0275138 0.886969
0.228642 -0.0262434 0.889575
0.231337 -0.0257996 0.891676
0.230128 -0.024974 0.892461
0.232934 -0.0245391 0.895027
0.231658 -0.0237013 0.895528
0.247683 0.0129561 0.86708
0.248434 0.0142797 0.866767
0.249158 0.0156019 0.866349
0.249817 0.0169188 0.865673
0.250306 0.0182234 0.864324
0.250735 0.0195195 0.862744
0.251178 0.0208132 0.861227
0.251649 0.0221047 0.859835
0.252154 0.0233951 0.858589
0.252735 0.0246891 0.857646
0.253421 0.0259902 0.857124
0.254132 0.0272934 0.856703
0.254901 0.0286012 0.856509
0.255699 0.0299113 0.856434
