ply
format ascii 1.0
element vertex 1627
property float x
property float y
property float z
end_header
-0.0597926 -0.0492137 0.944537
-0.0588157 -0.0479297 0.944598
-0.057826 -0.0466405 0.944441
-0.056841 -0.0453543 0.944341
-0.0558459 -0.0440646 0.944063
-0.0548698 -0.042783 0.944094
-0.0539184 -0.0415108 0.944561
-0.0529737 -0.0402398 0.945171
-0.0520289 -0.0389683 0.945784
-0.0510919 -0.0376985 0.946559
-0.0501483 -0.0364259 0.947228
-0.0491997 -0.0351506 0.947821
-0.0482663 -0.0338785 0.948729
-0.0473473 -0.0326082 0.949961
-0.0464266 -0.0313346 0.951207
-0.0455146 -0.030061 0.952673
-0.0445993 -0.0287836 0.954127
-0.043682 -0.0275032 0.955589
-0.042749 -0.0262185 0.956741
-0.0418214 -0.0249316 0.958072
-0.0408837 -0.0236417 0.959206
-0.0399572 -0.0223495 0.960664
-0.0390211 -0.0210546 0.961936
-0.0380753 -0.0197575 0.963005
-0.0374302 -0.018421 0.97223
-0.183391 -0.203953 1.02568
-0.182232 -0.202444 1.02551
-0.181037 -0.200901 1.02512
-0.179765 -0.199282 1.02426
-0.178512 -0.197681 1.02351
-0.177299 -0.196122 1.02298
-0.176116 -0.194592 1.02261
-0.174882 -0.193013 1.02194
-0.173703 -0.191488 1.02158
-0.172597 -0.190034 1.02165
-0.171045 -0.188149 1.01901
-0.154739 -0.1702 0.957892
-0.152562 -0.167752 0.950663
-0.151077 -0.165967 0.94778
-0.149534 -0.16413 0.944482
-0.148024 -0.162327 0.941344
-0.146593 -0.160601 0.93868
-0.145284 -0.158992 0.936785
-0.143988 -0.157397 0.93494
-0.14274 -0.155848 0.933388
-0.141492 -0.154301 0.931815
-0.140222 -0.152735 0.930059
-0.138941 -0.15116 0.928203
-0.137736 -0.149658 0.926839
-0.136541 -0.148166 0.925521
-0.13537 -0.146697 0.924347
-0.134229 -0.145257 0.923365
-0.133128 -0.143854 0.922643
-0.132019 -0.142445 0.921858
-0.130956 -0.141078 0.921383
-0.129925 -0.139742 0.921134
-0.128883 -0.138395 0.920788
-0.127851 -0.137058 0.920515
-0.12683 -0.135732 0.920316
-0.125815 -0.134411 0.920151
-0.124805 -0.133095 0.920018
-0.123821 -0.131803 0.920076
-0.122824 -0.130498 0.920029
-0.121814 -0.129183 0.919879
-0.120805 -0.127869 0.91973
-0.119785 -0.126547 0.91949
-0.118777 -0.125235 0.919335
-0.117768 -0.123922 0.919165
-0.116773 -0.122622 0.919101
-0.115781 -0.121324 0.919051
-0.11472 -0.119968 0.918432
-0.113652 -0.118608 0.917742
-0.112592 -0.117254 0.917095
-0.111529 -0.1159 0.916414
-0.110487 -0.114564 0.915895
-0.109537 -0.113304 0.916148
-0.108577 -0.112037 0.916318
-0.107616 -0.110769 0.916484
-0.106666 -0.10951 0.916731
-0.105705 -0.108242 0.91689
-0.104745 -0.106975 0.917056
-0.103796 -0.105716 0.917313
-0.102836 -0.104449 0.917472
-0.101874 -0.103181 0.91762
-0.100913 -0.101914 0.917763
-0.0999521 -0.100646 0.917912
-0.099003 -0.0993884 0.918168
-0.0980755 -0.098147 0.918633
-0.0971495 -0.0969066 0.919117
-0.0962336 -0.0956734 0.919704
-0.0953338 -0.0944523 0.92046
-0.094434 -0.0932304 0.921224
-0.0935529 -0.0920219 0.922189
-0.0926721 -0.0908126 0.923172
-0.0917902 -0.0896019 0.92416
-0.0908868 -0.0883745 0.924938
-0.0899624 -0.0871315 0.925505
-0.0890178 -0.0858738 0.925864
-0.0880811 -0.0846213 0.926309
-0.0871455 -0.0833695 0.92677
-0.0862113 -0.0821184 0.927252
-0.0853115 -0.0808905 0.928125
-0.0844109 -0.0796613 0.929003
-0.0835363 -0.0784488 0.930195
-0.0826706 -0.0772407 0.931509
-0.0818039 -0.0760306 0.932841
-0.0809082 -0.0748003 0.933852
-0.0800076 -0.0735659 0.934823
-0.0790888 -0.072319 0.935589
-0.0781558 -0.0710625 0.936195
-0.0772297 -0.0698099 0.936896
-0.076333 -0.0685743 0.937979
-0.0754835 -0.0673654 0.93969
-0.0746471 -0.0661621 0.94161
-0.0738274 -0.0649658 0.943794
-0.0730137 -0.0637699 0.946111
-0.072154 -0.0625454 0.947863
-0.0712369 -0.0612875 0.948869
-0.0702938 -0.0600145 0.949534
-0.0693276 -0.0587289 0.949883
-0.0683191 -0.0574216 0.949629
-0.0673158 -0.0561177 0.949433
-0.0662503 -0.0547845 0.94831
-0.0651778 -0.0534503 0.947035
-0.0641122 -0.0521221 0.945821
-0.0630736 -0.0508084 0.944976
-0.0620433 -0.0495002 0.944227
-0.0610725 -0.0482187 0.944393
-0.0600949 -0.0469346 0.94445
-0.0591049 -0.0456465 0.944285
-0.0581189 -0.0443602 0.944182
-0.0571278 -0.0430727 0.943985
-0.0561521 -0.0417918 0.944027
-0.0552019 -0.0405195 0.94451
-0.0542579 -0.039248 0.945127
-0.0533143 -0.0379766 0.945751
-0.0523724 -0.0367043 0.946434
-0.0514345 -0.0354323 0.947201
-0.0504972 -0.0341593 0.948003
-0.0495764 -0.0328888 0.949146
-0.0486688 -0.031618 0.950604
-0.0477603 -0.030345 0.952079
-0.0468527 -0.0290684 0.95364
-0.045938 -0.0277882 0.955101
-0.0450211 -0.0265052 0.956558
-0.0440835 -0.0252176 0.957611
-0.0431569 -0.0239289 0.958942
-0.0422191 -0.0226368 0.960072
-0.0412894 -0.0213422 0.961438
-0.0403588 -0.0200446 0.962835
-0.039749 -0.0187091 0.972427
-0.184746 -0.20277 1.0251
-0.18361 -0.201284 1.02505
-0.182458 -0.199785 1.02492
-0.181208 -0.19819 1.0242
-0.179957 -0.196593 1.02347
-0.178743 -0.195035 1.02294
-0.177559 -0.193505 1.02257
-0.176285 -0.19189 1.02167
-0.175104 -0.190365 1.0213
-0.173955 -0.188872 1.02112
-0.172761 -0.187334 1.02066
-0.169069 -0.185855 1.01372
-0.171193 -0.185442 1.01792
-0.154285 -0.167103 0.953064
-0.152496 -0.16504 0.948287
-0.150981 -0.163237 0.945203
-0.149483 -0.161454 0.942187
-0.148062 -0.159743 0.939621
-0.146765 -0.158149 0.937824
-0.145463 -0.156553 0.93597
-0.144228 -0.15502 0.934529
-0.142992 -0.153487 0.933061
-0.14173 -0.151932 0.931389
-0.140457 -0.15037 0.929621
-0.139233 -0.148853 0.928155
-0.138035 -0.14736 0.926835
-0.136846 -0.145879 0.925566
-0.135702 -0.144438 0.924579
-0.1346 -0.143036 0.923876
-0.133501 -0.141638 0.923178
-0.132436 -0.140271 0.922711
-0.131401 -0.138931 0.922447
-0.130341 -0.137569 0.921992
-0.129291 -0.136217 0.921599
-0.128244 -0.134868 0.921218
-0.127201 -0.133524 0.920864
-0.126176 -0.132195 0.920629
-0.12519 -0.1309 0.920674
-0.124189 -0.129593 0.92061
-0.12319 -0.128288 0.920553
-0.122179 -0.126973 0.920404
-0.121169 -0.12566 0.920254
-0.120161 -0.124348 0.920104
-0.119153 -0.123036 0.919955
-0.118158 -0.121736 0.919898
-0.117173 -0.120445 0.919927
-0.116098 -0.11908 0.919213
-0.115017 -0.117709 0.918428
-0.113943 -0.116347 0.917694
-0.112878 -0.114992 0.917009
-0.111825 -0.113647 0.916407
-0.110874 -0.112387 0.916664
-0.109924 -0.111127 0.916921
-0.108973 -0.109867 0.917178
-0.108022 -0.108607 0.917435
-0.107072 -0.107347 0.917691
-0.106131 -0.106095 0.91804
-0.105182 -0.104836 0.918304
-0.104221 -0.103568 0.918474
-0.103259 -0.1023 0.918629
-0.102297 -0.101031 0.918779
-0.101327 -0.0997557 0.918847
-0.100386 -0.0985036 0.919195
-0.0994667 -0.0972672 0.919746
-0.0985485 -0.0960313 0.920314
-0.0976397 -0.094802 0.920979
-0.0967394 -0.0935786 0.921737
-0.09583 -0.0923478 0.922414
-0.0949404 -0.0911309 0.923299
-0.0940501 -0.0899127 0.924189
-0.0931588 -0.088693 0.925082
-0.0922554 -0.087464 0.925866
-0.0913305 -0.0862194 0.926435
-0.0903745 -0.0849528 0.926682
-0.0894247 -0.0836905 0.926996
-0.0884773 -0.0824298 0.927337
-0.0875328 -0.0811708 0.92771
-0.086624 -0.0799355 0.928482
-0.0857242 -0.0787053 0.929366
-0.0848596 -0.077497 0.930661
-0.0839962 -0.076288 0.931994
-0.0831319 -0.075077 0.933343
-0.0822383 -0.0738461 0.934375
-0.0813457 -0.0726148 0.935436
-0.0804359 -0.0713718 0.936313
-0.079511 -0.0701191 0.937021
-0.0785938 -0.0688701 0.937836
-0.0777204 -0.0676457 0.93921
-0.0768904 -0.0664443 0.94116
-0.0760658 -0.0652433 0.943223
-0.0752618 -0.0640509 0.945601
-0.0744468 -0.0628492 0.947891
-0.0735621 -0.0616073 0.949309
-0.0726261 -0.0603369 0.950068
-0.0716588 -0.05905 0.950414
-0.0706698 -0.057752 0.950461
-0.0696458 -0.0564374 0.950009
-0.068627 -0.0551266 0.94961
-0.0675382 -0.0537846 0.948179
-0.0664554 -0.0524483 0.946786
-0.0653812 -0.0511188 0.94547
-0.0643421 -0.0498068 0.944635
-0.0633111 -0.0485001 0.943893
-0.0623459 -0.0472212 0.944147
-0.0613685 -0.0459379 0.944206
-0.060372 -0.0446477 0.943951
-0.0593797 -0.0433597 0.943753
-0.0583948 -0.0420755 0.943657
-0.0574253 -0.0407972 0.943804
-0.056476 -0.0395248 0.944302
-0.0555441 -0.0382564 0.945122
-0.0546049 -0.036985 0.945825
-0.053663 -0.0357122 0.946493
-0.0527259 -0.0344399 0.947262
-0.0517949 -0.0331674 0.94817
-0.0508809 -0.0318962 0.949435
-0.0499808 -0.0306246 0.951016
-0.0490834 -0.0293504 0.952702
-0.0481826 -0.0280725 0.954374
-0.0472739 -0.026791 0.955938
-0.0463529 -0.0255044 0.957306
-0.04542 -0.0242158 0.958446
-0.0444931 -0.0229242 0.959768
-0.0435513 -0.0216297 0.96081
-0.0426269 -0.0203327 0.962282
-0.0417058 -0.0190323 0.963888
-0.18608 -0.201567 1.02441
-0.18496 -0.200099 1.02446
-0.183797 -0.198589 1.02425
-0.18257 -0.197019 1.02367
-0.18134 -0.195446 1.02306
-0.180126 -0.19389 1.02254
-0.178921 -0.192342 1.02206
-0.177663 -0.190745 1.02126
-0.176481 -0.189221 1.02089
-0.175296 -0.187694 1.02049
-0.174078 -0.186136 1.01989
-0.172867 -0.184586 1.01932
-0.169285 -0.183229 1.01305
-0.171348 -0.182749 1.01687
-0.154626 -0.164766 0.953282
-0.152781 -0.162665 0.948162
-0.150948 -0.16058 0.943044
-0.149521 -0.15887 0.940468
-0.148201 -0.15726 0.938554
-0.146895 -0.155665 0.936699
-0.14567 -0.154144 0.935346
-0.144463 -0.152641 0.93409
-0.143202 -0.151091 0.932453
-0.141941 -0.149543 0.930789
-0.140696 -0.148011 0.929209
-0.139475 -0.146502 0.92776
-0.13828 -0.145017 0.926468
-0.137147 -0.143589 0.925581
-0.136044 -0.142188 0.924888
-0.134959 -0.140803 0.924303
-0.133892 -0.139435 0.923835
-0.13284 -0.138081 0.923465
-0.131764 -0.136707 0.922916
-0.130713 -0.135354 0.922527
-0.129661 -0.134003 0.922131
-0.128616 -0.132656 0.921767
-0.127576 -0.131315 0.921433
-0.126573 -0.130007 0.921372
-0.125559 -0.128689 0.921213
-0.124569 -0.127392 0.921239
-0.123557 -0.126076 0.921085
-0.122558 -0.124773 0.92103
-0.121559 -0.123469 0.92097
-0.120561 -0.122166 0.920912
-0.119554 -0.120856 0.920771
-0.118571 -0.119567 0.920824
-0.117494 -0.118201 0.92011
-0.116409 -0.116829 0.919321
-0.11532 -0.115456 0.918478
-0.11424 -0.11409 0.917687
-0.113172 -0.112736 0.916981
-0.112209 -0.111465 0.91714
-0.111247 -0.110196 0.917305
-0.110306 -0.108944 0.917654
-0.109366 -0.107692 0.918009
-0.108427 -0.10644 0.918368
-0.107498 -0.105196 0.918821
-0.106557 -0.103943 0.91918
-0.105606 -0.102682 0.919442
-0.104654 -0.10142 0.919694
-0.103701 -0.100158 0.919941
-0.102739 -0.0988884 0.920099
-0.101797 -0.0976348 0.920455
-0.100867 -0.0963889 0.920912
-0.0999376 -0.0951435 0.921382
-0.0990179 -0.0939048 0.921951
-0.0981173 -0.0926794 0.92271
-0.0972085 -0.0914475 0.923398
-0.0963183 -0.0902283 0.92428
-0.0954279 -0.0890081 0.925173
-0.0945365 -0.0877863 0.926069
-0.093624 -0.0865492 0.926762
-0.0926883 -0.085296 0.927227
-0.0917212 -0.0840214 0.92737
-0.0907697 -0.0827575 0.927675
-0.0898215 -0.0814954 0.928015
-0.0888779 -0.0802363 0.928406
-0.0879692 -0.0789995 0.92918
-0.0870688 -0.077767 0.930057
-0.0861954 -0.0765507 0.931249
-0.0853255 -0.0753352 0.932501
-0.0844544 -0.0741176 0.933762
-0.0835602 -0.0728845 0.934782
-0.0826755 -0.0716561 0.935932
-0.081783 -0.0704216 0.937009
-0.0808597 -0.0691683 0.937741
-0.0799591 -0.067927 0.938756
-0.0791113 -0.0667141 0.94044
-0.0782907 -0.0655138 0.942495
-0.0774526 -0.0643013 0.944378
-0.0766558 -0.0631079 0.946827
-0.0758257 -0.0618937 0.948905
-0.0749182 -0.0606375 0.950022
-0.0739601 -0.0593546 0.950491
-0.072983 -0.0580622 0.950711
-0.0719843 -0.0567597 0.950636
-0.070951 -0.0554417 0.950074
-0.0699169 -0.0541248 0.949476
-0.0688244 -0.0527839 0.948025
-0.0677385 -0.0514491 0.946617
-0.0666496 -0.0501159 0.945117
-0.065603 -0.0488029 0.944192
-0.0645705 -0.0474975 0.943443
-0.0636048 -0.0462187 0.943684
-0.0626277 -0.0449356 0.94375
-0.0616378 -0.043649 0.943605
-0.0606589 -0.0423665 0.943622
-0.0596855 -0.0410863 0.943725
-0.0587169 -0.0398078 0.943899
-0.0577682 -0.0385353 0.944399
-0.0568358 -0.0372658 0.945199
-0.0558908 -0.0359925 0.94579
-0.054943 -0.0347174 0.946356
-0.0540111 -0.0334451 0.947213
-0.0530868 -0.0321728 0.948228
-0.0521801 -0.0309017 0.949601
-0.0512873 -0.0296289 0.951298
-0.0503963 -0.0283536 0.953075
-0.049497 -0.0270734 0.954755
-0.0485897 -0.0257891 0.956329
-0.0476745 -0.0245016 0.957789
-0.0467477 -0.0232112 0.959049
-0.0458218 -0.0219174 0.960382
-0.044885 -0.0206213 0.961521
-0.0439656 -0.0193215 0.963092
-0.0434038 -0.0179762 0.973025
-0.189961 -0.203195 1.03161
-0.187413 -0.200368 1.02372
-0.186298 -0.198904 1.02379
-0.185134 -0.197396 1.02358
-0.183929 -0.195847 1.02313
-0.182697 -0.194276 1.02252
-0.181465 -0.192704 1.02189
-0.180258 -0.191156 1.0214
-0.178997 -0.189559 1.02059
-0.177797 -0.188019 1.02011
-0.176591 -0.186475 1.0196
-0.175371 -0.184919 1.01899
-0.174136 -0.183349 1.01828
-0.172977 -0.181849 1.01801
-0.168964 -0.180106 1.00909
-0.17101 -0.179608 1.01284
-0.153221 -0.16043 0.949015
-0.151404 -0.158375 0.94402
-0.149698 -0.156422 0.939664
-0.148385 -0.154825 0.937789
-0.147143 -0.153292 0.936348
-0.145952 -0.151806 0.93522
-0.144704 -0.150271 0.933692
-0.143442 -0.148726 0.932051
-0.142177 -0.14718 0.930362
-0.140933 -0.145654 0.928785
-0.139714 -0.144151 0.927351
-0.138563 -0.142709 0.926361
-0.137473 -0.141321 0.925769
-0.136389 -0.139938 0.925208
-0.135333 -0.138581 0.924838
-0.134281 -0.137228 0.92448
-0.133215 -0.135863 0.924015
-0.132149 -0.134499 0.923535
-0.131096 -0.133147 0.923145
-0.130047 -0.131799 0.92277
-0.129001 -0.130454 0.922409
-0.127984 -0.129133 0.92225
-0.126967 -0.127814 0.92209
-0.125978 -0.126517 0.922131
-0.124966 -0.125202 0.921992
-0.123978 -0.123907 0.922032
-0.122989 -0.122611 0.922056
-0.122002 -0.121318 0.922097
-0.121005 -0.120017 0.922056
-0.120034 -0.118736 0.922213
-0.118965 -0.117378 0.921593
-0.117866 -0.115997 0.920713
-0.11676 -0.114611 0.919751
-0.115661 -0.113232 0.918833
-0.114574 -0.111864 0.917997
-0.113587 -0.110574 0.917962
-0.112623 -0.109303 0.918121
-0.111682 -0.10805 0.918477
-0.110743 -0.106798 0.918843
-0.109814 -0.105554 0.919306
-0.108897 -0.104318 0.919873
-0.107969 -0.103073 0.920343
-0.107018 -0.101812 0.920623
-0.106063 -0.100546 0.920858
-0.105097 -0.0992738 0.921001
-0.104122 -0.0979947 0.921058
-0.10317 -0.0967325 0.921324
-0.10223 -0.0954786 0.921696
-0.101291 -0.0942254 0.922084
-0.10037 -0.0929849 0.922648
-0.0994692 -0.0917577 0.923405
-0.0985595 -0.0905239 0.924088
-0.0976695 -0.089303 0.924973
-0.0967781 -0.0880803 0.925855
-0.095876 -0.0868496 0.926644
-0.0949522 -0.0856038 0.927227
-0.0940069 -0.0843434 0.927597
-0.0930396 -0.0830686 0.927745
-0.0920993 -0.0818112 0.92817
-0.0911534 -0.0805501 0.92854
-0.0902102 -0.0792906 0.928942
-0.0893016 -0.0780522 0.929716
-0.0884004 -0.0768178 0.930583
-0.0875187 -0.0755942 0.931678
-0.0866472 -0.0743755 0.932903
-0.085775 -0.0731549 0.934144
-0.0848882 -0.0719244 0.935242
-0.0840048 -0.0706946 0.9364
-0.08313 -0.0694683 0.937678
-0.0822262 -0.0682242 0.93864
-0.081352 -0.0669954 0.939972
-0.0805225 -0.0657886 0.941868
-0.0797106 -0.0645885 0.944021
-0.0788559 -0.0633632 0.945693
-0.0780424 -0.0621565 0.947916
-0.0771887 -0.0609265 0.949679
-0.0762592 -0.0596574 0.950511
-0.075294 -0.0583702 0.950893
-0.0743089 -0.0570737 0.951015
-0.0733014 -0.0557673 0.950834
-0.0722571 -0.0544456 0.950143
-0.0711987 -0.0531195 0.94923
-0.0700953 -0.051777 0.947658
-0.0690061 -0.0504435 0.946232
-0.0679094 -0.0491103 0.94465
-0.0668552 -0.0477967 0.943633
-0.0658337 -0.0464971 0.943057
-0.0648677 -0.0452185 0.943293
-0.063891 -0.0439364 0.943362
-0.0629152 -0.0426549 0.943438
-0.0619495 -0.0413769 0.943668
-0.0609831 -0.0400983 0.943892
-0.06002 -0.0388212 0.944162
-0.059071 -0.0375476 0.944662
-0.058133 -0.0362755 0.945366
-0.0571814 -0.0349999 0.945847
-0.056234 -0.0337249 0.946403
-0.0552977 -0.0324508 0.947172
-0.0543797 -0.0311782 0.94829
-0.0534797 -0.0299062 0.949764
-0.0525936 -0.0286325 0.951549
-0.0517045 -0.0273546 0.95334
-0.0508119 -0.0260736 0.955109
-0.0499064 -0.0247875 0.956693
-0.0489931 -0.0234978 0.958174
-0.0480669 -0.0222048 0.959443
-0.0471471 -0.0209091 0.960883
-0.0462167 -0.0196113 0.962143
-0.0453027 -0.0183083 0.963818
-0.189939 -0.200706 1.0234
-0.188788 -0.199209 1.02327
-0.187637 -0.197713 1.02314
-0.186449 -0.196183 1.0228
-0.185241 -0.194635 1.02234
-0.184006 -0.193063 1.02171
-0.182773 -0.191492 1.02108
-0.181545 -0.189927 1.02047
-0.18028 -0.188329 1.01964
-0.179076 -0.186789 1.01914
-0.177856 -0.185233 1.01854
-0.176619 -0.183663 1.01784
-0.175379 -0.182091 1.0171
-0.174198 -0.180574 1.0167
-0.172617 -0.178695 1.01389
-0.168547 -0.176917 1.00457
-0.170604 -0.176429 1.00842
-0.15155 -0.15589 0.943008
-0.149853 -0.153959 0.938713
-0.148592 -0.152414 0.937176
-0.147429 -0.150955 0.936248
-0.146195 -0.149436 0.934836
-0.144929 -0.147891 0.933195
-0.143644 -0.146331 0.931398
-0.142391 -0.1448 0.929785
-0.141137 -0.143271 0.928138
-0.139968 -0.141816 0.927043
-0.138878 -0.140429 0.926468
-0.137792 -0.139047 0.925913
-0.136721 -0.137677 0.925444
-0.135678 -0.136333 0.925166
-0.134611 -0.134969 0.924705
-0.133546 -0.133607 0.924249
-0.132505 -0.132265 0.923954
-0.131467 -0.130927 0.923672
-0.13042 -0.129582 0.923315
-0.1294 -0.128259 0.923149
-0.128394 -0.126948 0.923077
-0.127417 -0.125662 0.923224
-0.126419 -0.124359 0.923204
-0.125446 -0.123076 0.92337
-0.124457 -0.121779 0.923407
-0.123467 -0.120483 0.923443
-0.12248 -0.119189 0.92349
-0.12152 -0.117917 0.92375
-0.120463 -0.116569 0.923245
-0.119361 -0.115186 0.922366
-0.118224 -0.113779 0.921194
-0.117082 -0.112368 0.919948
-0.115952 -0.110969 0.918781
-0.114937 -0.109659 0.918535
-0.113961 -0.108379 0.918606
-0.113021 -0.107125 0.918968
-0.112092 -0.10588 0.919428
-0.111177 -0.104645 0.920007
-0.110273 -0.103417 0.920688
-0.109358 -0.102181 0.921279
-0.108416 -0.100925 0.921648
-0.10746 -0.0996589 0.921887
-0.106491 -0.0983834 0.922012
-0.105503 -0.097095 0.921969
-0.104549 -0.0958307 0.922225
-0.103607 -0.0945748 0.922592
-0.102666 -0.0933189 0.922965
-0.101744 -0.0920764 0.923523
-0.100833 -0.0908407 0.924189
-0.099913 -0.0895987 0.92478
-0.099013 -0.0883695 0.925568
-0.0981199 -0.0871439 0.926434
-0.0972065 -0.0859043 0.927112
-0.0962814 -0.0846566 0.927683
-0.0953441 -0.0834007 0.92814
-0.0943864 -0.0821317 0.928393
-0.093448 -0.0808746 0.928843
-0.0925217 -0.0796247 0.929423
-0.0915893 -0.0783708 0.929947
-0.0906721 -0.0771255 0.930635
-0.0897689 -0.075888 0.931483
-0.0888753 -0.0746552 0.932449
-0.087985 -0.0734231 0.933467
-0.0871037 -0.0721951 0.9346
-0.0862169 -0.0709626 0.935692
-0.0853352 -0.0697317 0.936862
-0.0844721 -0.0685094 0.938266
-0.0835959 -0.0672784 0.939546
-0.0827433 -0.066058 0.941125
-0.0819173 -0.0648492 0.943053
-0.0810999 -0.0636421 0.945125
-0.0802337 -0.0624077 0.946649
-0.0793946 -0.0611842 0.948537
-0.0785238 -0.0599431 0.950075
-0.0775942 -0.0586724 0.950902
-0.076621 -0.0573809 0.951187
-0.0756278 -0.0560807 0.951212
-0.0746098 -0.0547702 0.950904
-0.0735562 -0.0534459 0.95011
-0.0724729 -0.0521116 0.948885
-0.0713653 -0.0507703 0.947287
-0.0702733 -0.0494387 0.94585
-0.0691677 -0.0481053 0.944174
-0.0681054 -0.0467909 0.943061
-0.0670953 -0.0454969 0.942661
-0.0661296 -0.0442186 0.942896
-0.0651613 -0.0429398 0.943087
-0.0641997 -0.0416627 0.943387
-0.063247 -0.0403879 0.943824
-0.0622884 -0.0391115 0.944169
-0.0613258 -0.0378341 0.944451
-0.0603703 -0.0365584 0.944848
-0.059431 -0.0352851 0.945523
-0.0584791 -0.0340087 0.945999
-0.0575322 -0.0327326 0.94657
-0.0566026 -0.0314587 0.947446
-0.055697 -0.0301867 0.948762
-0.0547982 -0.028912 0.950253
-0.0539092 -0.0276357 0.951958
-0.0530154 -0.0263552 0.953632
-0.0521188 -0.0250716 0.955298
-0.0512037 -0.0237835 0.956669
-0.0502921 -0.0224923 0.958155
-0.0493782 -0.0211987 0.959634
-0.0484707 -0.0199 0.961311
-0.0475515 -0.0185993 0.962791
-0.0466404 -0.0172943 0.964492
-0.191411 -0.199638 1.02348
-0.190213 -0.198099 1.0231
-0.188996 -0.196543 1.02261
-0.18776 -0.19497 1.022
-0.186502 -0.193378 1.02126
-0.185206 -0.191752 1.02029
-0.183952 -0.190166 1.01954
-0.182701 -0.188582 1.0188
-0.181436 -0.186988 1.01796
-0.180234 -0.18545 1.01748
-0.17903 -0.183913 1.01698
-0.177814 -0.182364 1.01639
-0.176579 -0.1808 1.01568
-0.175382 -0.179271 1.01518
-0.174166 -0.177725 1.01456
-0.172571 -0.175843 1.01166
-0.168568 -0.174147 1.00273
-0.17097 -0.173959 1.00867
-0.153411 -0.155351 0.946353
-0.151331 -0.153098 0.939681
-0.150081 -0.151565 0.938237
-0.148914 -0.150105 0.937304
-0.147687 -0.148595 0.935965
-0.146417 -0.14705 0.934319
-0.145099 -0.145466 0.932333
-0.143824 -0.143921 0.930602
-0.142564 -0.14239 0.928938
-0.141362 -0.14091 0.92764
-0.140256 -0.139511 0.926974
-0.139181 -0.138139 0.926501
-0.138121 -0.136781 0.926123
-0.137063 -0.135424 0.925744
-0.136007 -0.13407 0.925377
-0.134953 -0.132718 0.925014
-0.133915 -0.13138 0.92475
-0.132877 -0.130043 0.924483
-0.131842 -0.128708 0.924225
-0.130821 -0.127385 0.924062
-0.129828 -0.126084 0.924097
-0.128864 -0.124808 0.924346
-0.12788 -0.123515 0.924442
-0.12692 -0.122242 0.92472
-0.125944 -0.120956 0.924872
-0.124953 -0.119658 0.924912
-0.123964 -0.118363 0.924963
-0.123003 -0.117088 0.925223
-0.121956 -0.115749 0.924824
-0.120864 -0.114375 0.92405
-0.119713 -0.112959 0.922792
-0.118548 -0.111533 0.921398
-0.117397 -0.110121 0.920095
-0.116353 -0.108789 0.919631
-0.115354 -0.107491 0.919519
-0.114402 -0.106228 0.919788
-0.113482 -0.104988 0.920333
-0.112577 -0.103759 0.921002
-0.111686 -0.102539 0.921796
-0.110785 -0.101312 0.922517
-0.109854 -0.100062 0.922988
-0.108884 -0.0987857 0.923124
-0.1079 -0.0974992 0.923132
-0.106899 -0.0962013 0.922984
-0.105932 -0.0949277 0.92314
-0.104988 -0.0936694 0.923496
-0.104044 -0.092411 0.923855
-0.103111 -0.0911596 0.924314
-0.102199 -0.0899215 0.92497
-0.101269 -0.088672 0.925476
-0.100357 -0.0874334 0.926153
-0.0994539 -0.0861996 0.926918
-0.0985391 -0.084958 0.927585
-0.0976141 -0.0837093 0.928159
-0.0966966 -0.0824649 0.928814
-0.0957588 -0.0812074 0.929275
-0.0948308 -0.0799555 0.929837
-0.0939134 -0.0787097 0.930516
-0.0929796 -0.0774534 0.931035
-0.0920517 -0.0762003 0.93162
-0.0911389 -0.0749552 0.93237
-0.0902353 -0.0737147 0.933231
-0.0893352 -0.0724751 0.934142
-0.0884446 -0.0712399 0.935172
-0.087559 -0.070006 0.936272
-0.0866879 -0.0687785 0.937554
-0.0858457 -0.0675645 0.939186
-0.0849894 -0.066341 0.940688
-0.0841578 -0.065128 0.942505
-0.0833348 -0.0639165 0.94446
-0.082501 -0.0626971 0.946328
-0.0816156 -0.0614503 0.94762
-0.0807503 -0.0602111 0.949179
-0.0798536 -0.0589553 0.950387
-0.0789063 -0.0576755 0.950992
-0.0779235 -0.0563797 0.951156
-0.0769214 -0.055076 0.951076
-0.0759029 -0.0537662 0.950772
-0.0748326 -0.0524368 0.949778
-0.0737309 -0.0510979 0.948331
-0.0726193 -0.0497585 0.946709
-0.0715176 -0.0484263 0.945165
-0.0704047 -0.0470938 0.943416
-0.0693481 -0.045784 0.942398
-0.0683446 -0.0444936 0.9421
-0.0673799 -0.0432161 0.942342
-0.0664202 -0.0419403 0.942656
-0.0654733 -0.0406674 0.943168
-0.0645299 -0.0393949 0.943738
-0.0635779 -0.0381201 0.944184
-0.0626144 -0.0368423 0.944454
-0.0616577 -0.0355654 0.944836
-0.0607182 -0.0342916 0.9455
-0.0597728 -0.033016 0.946079
-0.0588334 -0.031741 0.946764
-0.0579111 -0.0304666 0.947758
-0.0570077 -0.0291929 0.949099
-0.05611 -0.0279167 0.95058
-0.0552166 -0.0266373 0.952191
-0.0543189 -0.0253551 0.953761
-0.0534218 -0.0240688 0.9554
-0.0525069 -0.0227795 0.956747
-0.0516021 -0.0214871 0.958328
-0.0507045 -0.0201899 0.960117
-0.0498108 -0.0188885 0.962037
-0.0489043 -0.0175839 0.963763
-0.0480043 -0.016274 0.965687
-0.192805 -0.198497 1.02314
-0.191547 -0.196905 1.02243
-0.190262 -0.19529 1.02157
-0.188955 -0.193656 1.02058
-0.187651 -0.192025 1.01958
-0.18631 -0.190361 1.01835
-0.185032 -0.188757 1.01747
-0.183783 -0.187178 1.01674
-0.182539 -0.185606 1.01602
-0.181338 -0.184072 1.01553
-0.18014 -0.182542 1.01506
-0.178944 -0.181014 1.01459
-0.17773 -0.179471 1.01399
-0.176537 -0.177948 1.01352
-0.175346 -0.176427 1.01304
-0.17414 -0.174893 1.01247
-0.17295 -0.173375 1.01198
-0.169075 -0.171817 1.00386
-0.171515 -0.171644 1.01001
-0.153236 -0.152594 0.943328
-0.151624 -0.150757 0.939625
-0.15042 -0.149268 0.938473
-0.149183 -0.147753 0.937096
-0.147876 -0.14618 0.935236
-0.146553 -0.144596 0.933245
-0.145278 -0.143054 0.931536
-0.144027 -0.141534 0.929956
-0.142819 -0.140053 0.928645
-0.141693 -0.138639 0.927859
-0.140586 -0.137242 0.927185
-0.139509 -0.135871 0.926702
-0.138447 -0.134512 0.926312
-0.137392 -0.133159 0.925955
-0.136338 -0.131808 0.925602
-0.135312 -0.13048 0.925438
-0.134288 -0.129155 0.925278
-0.133254 -0.127821 0.92504
-0.132233 -0.126499 0.924892
-0.131251 -0.125208 0.925021
-0.130287 -0.12393 0.925274
-0.129316 -0.122647 0.925478
-0.128369 -0.121383 0.925858
-0.127405 -0.120106 0.926115
-0.126426 -0.118817 0.926252
-0.125447 -0.117528 0.92639
-0.124484 -0.116251 0.926651
-0.123449 -0.114921 0.92636
-0.122368 -0.113557 0.925699
-0.121226 -0.11215 0.924548
-0.120068 -0.110732 0.923245
-0.118922 -0.109324 0.922009
-0.117874 -0.10799 0.921533
-0.116848 -0.106672 0.921229
-0.11588 -0.105397 0.921388
-0.114945 -0.104144 0.921813
-0.114026 -0.102904 0.92238
-0.113126 -0.101675 0.923106
-0.112235 -0.100453 0.923921
-0.111305 -0.0992029 0.924408
-0.110331 -0.0979229 0.924528
-0.109345 -0.0966345 0.924535
-0.108341 -0.0953342 0.924378
-0.107362 -0.0940514 0.924438
-0.106406 -0.0927839 0.924697
-0.105439 -0.0915094 0.924862
-0.104493 -0.0902485 0.925213
-0.103569 -0.0890018 0.925769
-0.102637 -0.0877494 0.926256
-0.101714 -0.0865027 0.926839
-0.10082 -0.0852729 0.927689
-0.0999052 -0.08403 0.928361
-0.0989829 -0.0827816 0.928966
-0.0980681 -0.0815374 0.929652
-0.0971409 -0.0802852 0.930225
-0.096212 -0.0790315 0.930787
-0.0952936 -0.0777834 0.93146
-0.0943657 -0.0765292 0.932046
-0.0934371 -0.0752742 0.932633
-0.0925232 -0.0740268 0.933378
-0.0916107 -0.0727794 0.934148
-0.0907014 -0.071533 0.934964
-0.0897923 -0.0702856 0.935793
-0.0889163 -0.0690548 0.936995
-0.0880562 -0.0678304 0.938392
-0.0872345 -0.0666237 0.940242
-0.0864078 -0.0654117 0.942073
-0.0856021 -0.0642073 0.944178
-0.0847725 -0.0629884 0.946051
-0.0839196 -0.0617558 0.947693
-0.0830057 -0.060493 0.948652
-0.082104 -0.0592344 0.949772
-0.0811738 -0.057962 0.95057
-0.0802088 -0.0566738 0.950955
-0.0792084 -0.0553708 0.950908
-0.0781969 -0.054064 0.950712
-0.0771537 -0.0527457 0.950104
-0.0760658 -0.0514122 0.948897
-0.0749539 -0.0500727 0.947338
-0.0738407 -0.0487365 0.945715
-0.0727385 -0.0474076 0.944186
-0.0716389 -0.0460832 0.942642
-0.0705894 -0.044778 0.941736
-0.0695932 -0.0434912 0.941543
-0.0686296 -0.0422145 0.941796
-0.0676781 -0.040941 0.942223
-0.0667459 -0.0396718 0.942938
-0.0658168 -0.0384025 0.943714
-0.0648729 -0.0371294 0.944272
-0.0639148 -0.0358516 0.944638
-0.0629628 -0.0345754 0.945095
-0.062024 -0.0333011 0.945761
-0.0610798 -0.0320249 0.94636
-0.0601423 -0.0307484 0.947081
-0.0592275 -0.0294739 0.948184
-0.0583303 -0.0281987 0.949615
-0.057434 -0.0269202 0.951108
-0.0565416 -0.0256391 0.95271
-0.0556435 -0.0243542 0.954258
-0.0547414 -0.0230663 0.955777
-0.0538211 -0.0217751 0.957014
-0.0529225 -0.0204801 0.958692
-0.0520338 -0.0191805 0.960614
-0.0511545 -0.0178755 0.962782
-0.050267 -0.0165661 0.96486
-0.0493682 -0.0152522 0.966799
-0.196535 -0.199922 1.02926
-0.1941 -0.197268 1.02226
-0.192809 -0.195649 1.02139
-0.191456 -0.193976 1.02015
-0.19012 -0.192319 1.019
-0.188765 -0.190646 1.01772
-0.187377 -0.188946 1.01624
-0.186079 -0.187326 1.01524
-0.184829 -0.18575 1.0145
-0.183591 -0.184186 1.01381
-0.182396 -0.182661 1.01335
-0.18124 -0.18117 1.01311
-0.180065 -0.179664 1.01276
-0.178877 -0.178146 1.01231
-0.177708 -0.176646 1.01197
-0.176537 -0.175145 1.01161
-0.175333 -0.173615 1.01105
-0.174168 -0.17212 1.01071
-0.173103 -0.170712 1.01095
-0.170038 -0.169878 1.00775
-0.172049 -0.169312 1.01127
-0.168124 -0.167737 1.00278
-0.170602 -0.167579 1.00921
-0.155284 -0.152193 0.947804
-0.153303 -0.150055 0.94184
-0.152073 -0.148547 0.940557
-0.150797 -0.147001 0.938955
-0.149449 -0.145399 0.936867
-0.148121 -0.143815 0.934876
-0.146841 -0.142273 0.933164
-0.145572 -0.140741 0.931498
-0.144345 -0.139246 0.930083
-0.143198 -0.137817 0.929174
-0.142041 -0.136381 0.928184
-0.14093 -0.134983 0.927491
-0.139839 -0.133602 0.926914
-0.138781 -0.132248 0.926551
-0.137725 -0.130897 0.926199
-0.136699 -0.12957 0.926039
-0.135673 -0.128243 0.925877
-0.134649 -0.126918 0.925723
-0.133628 -0.125596 0.925579
-0.132648 -0.124306 0.92573
-0.131684 -0.123028 0.925991
-0.130735 -0.121761 0.92636
-0.1298 -0.120505 0.926833
-0.128837 -0.119228 0.927103
-0.127857 -0.117938 0.927253
-0.126889 -0.116657 0.927486
-0.125912 -0.115369 0.927647
-0.124873 -0.114037 0.927341
-0.123804 -0.112683 0.926792
-0.122688 -0.111295 0.92586
-0.121558 -0.1099 0.924805
-0.120434 -0.108511 0.923779
-0.119397 -0.107184 0.923413
-0.118377 -0.10587 0.92318
-0.117392 -0.104582 0.923222
-0.116442 -0.103318 0.92354
-0.115507 -0.102064 0.923985
-0.114594 -0.100825 0.924616
-0.113691 -0.0995923 0.925336
-0.112758 -0.0983389 0.925814
-0.111783 -0.0970573 0.925938
-0.110795 -0.095767 0.925942
-0.109778 -0.094458 0.925695
-0.108786 -0.0931664 0.925659
-0.107817 -0.0918895 0.925815
-0.106837 -0.0906059 0.925874
-0.105878 -0.089336 0.926121
-0.104942 -0.0880805 0.926575
-0.103998 -0.0868194 0.926955
-0.103065 -0.0855649 0.927442
-0.102169 -0.0843331 0.928286
-0.101258 -0.0830905 0.928984
-0.100346 -0.0818473 0.929697
-0.0994429 -0.0806084 0.930498
-0.0985268 -0.0793613 0.931183
-0.0975973 -0.0781058 0.931746
-0.0966773 -0.0768552 0.93241
-0.0957478 -0.0755988 0.932987
-0.0948179 -0.0743415 0.933566
-0.0939053 -0.0730931 0.934329
-0.092993 -0.0718441 0.935106
-0.0920832 -0.0705955 0.935921
-0.0911719 -0.0693452 0.936731
-0.0903125 -0.0681202 0.938109
-0.0894728 -0.0669029 0.939725
-0.0886744 -0.0657035 0.941822
-0.0878771 -0.0645015 0.943974
-0.087081 -0.0632967 0.946181
-0.0862235 -0.0620604 0.94774
-0.0853404 -0.0608105 0.949037
-0.0843879 -0.0595284 0.949554
-0.0834405 -0.0582481 0.950139
-0.0824839 -0.0569634 0.950621
-0.0815005 -0.0556675 0.950787
-0.0804826 -0.054358 0.950531
-0.0794529 -0.0530452 0.950116
-0.0783837 -0.0517191 0.949193
-0.0772763 -0.0503815 0.947754
-0.0761543 -0.0490424 0.946086
-0.0750393 -0.0477094 0.944455
-0.0739467 -0.0463874 0.943069
-0.0728698 -0.0450734 0.941847
-0.0718353 -0.043775 0.941156
-0.070854 -0.0424933 0.941169
-0.0698911 -0.041217 0.941429
-0.0689525 -0.0399468 0.942031
-0.0680288 -0.0386794 0.942855
-0.0671017 -0.0374094 0.943653
-0.0661592 -0.0361357 0.944233
-0.0652082 -0.03486 0.944691
-0.0642496 -0.0335819 0.945053
-0.0633118 -0.0323069 0.945731
-0.0623753 -0.0310309 0.946446
-0.0614451 -0.0297545 0.947276
-0.0605379 -0.0284797 0.948486
-0.0596408 -0.0272018 0.949911
-0.0587398 -0.0259221 0.951294
-0.0578413 -0.0246384 0.952773
-0.056945 -0.0233519 0.954326
-0.0560394 -0.0220629 0.955752
-0.0551263 -0.0207703 0.957096
-0.0542356 -0.0194734 0.958887
-0.0533603 -0.01817 0.961034
-0.0524957 -0.0168605 0.963445
-0.0516272 -0.0155461 0.965856
-0.0511386 -0.0141576 0.975859
-0.19898 -0.200175 1.02842
-0.196554 -0.197542 1.02156
-0.195264 -0.195927 1.0207
-0.193882 -0.19423 1.01934
-0.192457 -0.192498 1.01771
-0.191077 -0.190806 1.01632
-0.189681 -0.189102 1.01481
-0.188335 -0.187443 1.01356
-0.187076 -0.185863 1.01277
-0.185853 -0.184313 1.01217
-0.184658 -0.18279 1.01172
-0.183488 -0.181289 1.0114
-0.182339 -0.179806 1.01119
-0.181167 -0.178304 1.01084
-0.179979 -0.176789 1.01039
-0.178792 -0.175276 1.00995
-0.177626 -0.173781 1.00961
-0.176422 -0.172255 1.00904
-0.175278 -0.17078 1.00882
-0.174215 -0.169374 1.00906
-0.173183 -0.167994 1.0095
-0.172152 -0.166615 1.00994
-0.16827 -0.165098 1.00171
-0.170314 -0.164562 1.0055
-0.155339 -0.149636 0.946246
-0.153749 -0.147835 0.942742
-0.152444 -0.146268 0.940989
-0.151071 -0.144649 0.938774
-0.149722 -0.143052 0.93668
-0.148437 -0.141509 0.934973
-0.147164 -0.139978 0.933312
-0.145915 -0.138468 0.931782
-0.144731 -0.137011 0.930655
-0.143551 -0.135559 0.929534
-0.142403 -0.134133 0.928609
-0.141278 -0.132726 0.927818
-0.140188 -0.131349 0.927254
-0.139131 -0.129997 0.926904
-0.138102 -0.128668 0.926735
-0.137072 -0.127339 0.926559
-0.13606 -0.126023 0.926493
-0.135049 -0.124709 0.92644
-0.134055 -0.123408 0.926496
-0.133089 -0.122128 0.92675
-0.132139 -0.12086 0.927118
-0.131204 -0.119603 0.927593
-0.130241 -0.118325 0.927878
-0.129275 -0.117045 0.928132
-0.128294 -0.115754 0.928273
-0.1273 -0.114454 0.928321
-0.126245 -0.11311 0.927899
-0.125185 -0.111764 0.927436
-0.124083 -0.110389 0.926634
-0.122983 -0.109016 0.925831
-0.12189 -0.10765 0.92507
-0.120878 -0.106341 0.924918
-0.119856 -0.105026 0.924689
-0.118868 -0.103735 0.924723
-0.117913 -0.102466 0.925011
-0.116965 -0.101202 0.925365
-0.116035 -0.0999498 0.925862
-0.115116 -0.0987053 0.926464
-0.114181 -0.0974492 0.926932
-0.113206 -0.0961665 0.927063
-0.11223 -0.0948836 0.927185
-0.111222 -0.093581 0.927039
-0.110239 -0.0922939 0.927089
-0.109266 -0.0910139 0.927231
-0.108272 -0.089721 0.927184
-0.107299 -0.0884416 0.927322
-0.10635 -0.0871763 0.927662
-0.105394 -0.0859073 0.92795
-0.104449 -0.0846445 0.928335
-0.103555 -0.0834112 0.92919
-0.102642 -0.0821663 0.929883
-0.101731 -0.0809221 0.930606
-0.100827 -0.0796809 0.931403
-0.0999186 -0.0784366 0.932169
-0.0989893 -0.0771798 0.932742
-0.0980692 -0.0759275 0.933411
-0.0971402 -0.07467 0.934
-0.0962197 -0.0734162 0.934681
-0.0953088 -0.0721668 0.935468
-0.0944064 -0.0709209 0.936352
-0.0935045 -0.0696741 0.937255
-0.0926094 -0.0684297 0.938243
-0.0917603 -0.0672063 0.939732
-0.0909424 -0.0659958 0.94158
-0.0901587 -0.0647983 0.94383
-0.0893735 -0.0635969 0.946109
-0.0885612 -0.0623796 0.948136
-0.0876821 -0.06113 0.94946
-0.0867599 -0.0598599 0.95032
-0.0857652 -0.0585586 0.950371
-0.0847791 -0.057261 0.950513
-0.0837929 -0.0559637 0.950654
-0.0827833 -0.0546577 0.950514
-0.0817395 -0.0533395 0.949954
-0.0806834 -0.0520186 0.949225
-0.0795854 -0.0506849 0.947958
-0.0784565 -0.0493437 0.946268
-0.0773309 -0.0480075 0.944569
-0.0762264 -0.0466819 0.943088
-0.0751514 -0.0453688 0.941941
-0.0740984 -0.0440649 0.941044
-0.0730874 -0.0427748 0.940674
-0.0721076 -0.0414943 0.940706
-0.071145 -0.0402184 0.940966
-0.0702134 -0.0389498 0.941651
-0.0692896 -0.0376816 0.942464
-0.0683657 -0.0364122 0.94329
-0.067432 -0.0351401 0.943985
-0.0664942 -0.0338658 0.944642
-0.0655431 -0.0325886 0.94511
-0.0646131 -0.0313143 0.945896
-0.063684 -0.0300379 0.946724
-0.0627538 -0.0287607 0.947544
-0.0618465 -0.027484 0.948744
-0.0609445 -0.0262047 0.950063
-0.0600372 -0.024922 0.951339
-0.0591354 -0.0236379 0.952723
-0.0582455 -0.0223494 0.954365
-0.0573423 -0.0210588 0.955811
-0.0564381 -0.019764 0.957294
-0.0555613 -0.0184643 0.959298
-0.0547005 -0.0171573 0.961667
-0.0538439 -0.0158441 0.964183
-0.052983 -0.0145241 0.966719
-0.200126 -0.199281 1.0208
-0.198873 -0.197699 1.02016
-0.197602 -0.196102 1.0194
-0.19621 -0.1944 1.018
-0.194757 -0.192647 1.01625
-0.193287 -0.19088 1.01439
-0.191906 -0.189194 1.01298
-0.190518 -0.187501 1.01151
-0.189221 -0.18589 1.01052
-0.187992 -0.184339 1.00989
-0.186815 -0.182832 1.00954
-0.185667 -0.181352 1.00933
-0.184521 -0.179874 1.00914
-0.183394 -0.178412 1.00905
-0.182246 -0.176933 1.00883
-0.181038 -0.175404 1.00826
-0.179849 -0.173891 1.00779
-0.178681 -0.172397 1.00744
-0.177476 -0.170873 1.00686
-0.176334 -0.169402 1.00664
-0.175291 -0.168014 1.00699
-0.174282 -0.166653 1.00755
-0.173276 -0.165296 1.00813
-0.171907 -0.163639 1.00653
-0.157449 -0.149257 0.951034
-0.155487 -0.147162 0.94527
-0.154143 -0.145568 0.943311
-0.152761 -0.143945 0.941079
-0.151384 -0.14233 0.938848
-0.150062 -0.140761 0.93693
-0.14878 -0.139225 0.935244
-0.14751 -0.137701 0.933609
-0.146306 -0.136231 0.932379
-0.145103 -0.134762 0.931128
-0.143945 -0.133331 0.930162
-0.142782 -0.131897 0.929144
-0.141671 -0.130503 0.928454
-0.140581 -0.129127 0.927897
-0.139521 -0.127775 0.92753
-0.138463 -0.126424 0.927165
-0.137446 -0.125106 0.927081
-0.136435 -0.123792 0.927031
-0.13544 -0.12249 0.927089
-0.134473 -0.121209 0.927339
-0.133521 -0.119939 0.927697
-0.132572 -0.118671 0.928081
-0.131612 -0.117394 0.928382
-0.130659 -0.116124 0.928744
-0.129676 -0.114831 0.928875
-0.128679 -0.113528 0.928907
-0.127618 -0.112181 0.928457
-0.126554 -0.110833 0.927975
-0.125463 -0.109468 0.927277
-0.12439 -0.108115 0.926696
-0.123324 -0.106769 0.926161
-0.122325 -0.105469 0.926129
-0.121315 -0.104162 0.926005
-0.120327 -0.10287 0.926052
-0.119362 -0.101593 0.926274
-0.1184 -0.100319 0.926526
-0.117453 -0.0990552 0.926901
-0.116519 -0.0977987 0.927377
-0.11557 -0.0965324 0.927735
-0.114596 -0.0952503 0.927888
-0.113621 -0.0939681 0.928035
-0.112625 -0.0926721 0.927993
-0.11164 -0.0913838 0.928043
-0.110664 -0.0901014 0.92817
-0.109667 -0.0888066 0.928113
-0.108693 -0.0875257 0.928248
-0.107742 -0.0862588 0.928588
-0.106785 -0.0849877 0.928866
-0.105838 -0.0837228 0.929243
-0.104932 -0.0824814 0.930001
-0.104007 -0.0812281 0.930585
-0.103094 -0.079981 0.931287
-0.102188 -0.0787373 0.932069
-0.10128 -0.0774915 0.932839
-0.100361 -0.0762392 0.933516
-0.0994422 -0.074986 0.934198
-0.098524 -0.0737326 0.934899
-0.0976145 -0.0724829 0.935693
-0.0967037 -0.0712317 0.936486
-0.0958119 -0.069989 0.937481
-0.094929 -0.0687494 0.938582
-0.0940561 -0.067513 0.939802
-0.09323 -0.0662969 0.941531
-0.0924444 -0.0650968 0.943716
-0.0916732 -0.0638997 0.946096
-0.0908888 -0.0626931 0.948382
-0.0900567 -0.0614624 0.950196
-0.0891563 -0.0602001 0.951293
-0.0881945 -0.058911 0.95173
-0.0871581 -0.0575918 0.951332
-0.086131 -0.0562776 0.951025
-0.0851049 -0.0549647 0.950715
-0.0840503 -0.0536425 0.95006
-0.0829782 -0.0523158 0.949177
-0.081902 -0.05099 0.948218
-0.080775 -0.0496497 0.946614
-0.0796345 -0.0483089 0.944799
-0.0785229 -0.0469813 0.943289
-0.0774354 -0.0456644 0.942037
-0.0763792 -0.0443595 0.941139
-0.0753514 -0.0430647 0.940579
-0.0743552 -0.0417797 0.940408
-0.073369 -0.040498 0.940357
-0.0723992 -0.0392207 0.940519
-0.0714606 -0.0379501 0.941101
-0.0705443 -0.0366833 0.941999
-0.0696225 -0.0354142 0.942834
-0.068697 -0.0341429 0.943638
-0.0677748 -0.0328707 0.944506
-0.0668317 -0.0315946 0.945084
-0.0659021 -0.0303189 0.945877
-0.0649732 -0.0290422 0.946691
-0.0640495 -0.0277647 0.947603
-0.0631371 -0.0264863 0.948707
-0.0622359 -0.0252056 0.950022
-0.0613298 -0.0239224 0.951288
-0.0604274 -0.022636 0.952652
-0.0595405 -0.0213469 0.954303
-0.0586463 -0.0200543 0.955878
-0.0577509 -0.0187573 0.957489
-0.0568888 -0.0174544 0.959711
-0.0560361 -0.0161436 0.962186
-0.0551815 -0.0148268 0.964704
-0.201229 -0.20073 1.02066
-0.202346 -0.199351 1.0189
-0.201259 -0.197916 1.01912
-0.200009 -0.19634 1.01849
-0.198618 -0.194642 1.01711
-0.197117 -0.192851 1.01513
-0.195565 -0.191019 1.01286
-0.194061 -0.189228 1.01081
-0.192649 -0.18752 1.00923
-0.191357 -0.185917 1.00828
-0.190181 -0.184413 1.00793
-0.189028 -0.182929 1.00771
-0.1879 -0.181467 1.00761
-0.186778 -0.18001 1.00755
-0.185633 -0.178535 1.00735
-0.184467 -0.177042 1.00703
-0.183295 -0.175545 1.00668
-0.182065 -0.174 1.00597
-0.180875 -0.17249 1.0055
-0.179708 -0.170999 1.00514
-0.178525 -0.169495 1.00468
-0.177402 -0.168043 1.00456
-0.176363 -0.166658 1.00493
-0.175377 -0.165317 1.0056
-0.1744 -0.163982 1.00634
-0.173476 -0.162691 1.00739
-0.169657 -0.161264 0.999598
-0.171713 -0.160723 1.00344
-0.15723 -0.146482 0.94779
-0.155845 -0.144859 0.945611
-0.154454 -0.143234 0.94336
-0.153071 -0.141617 0.941126
-0.151738 -0.140043 0.939177
-0.150431 -0.13849 0.937362
-0.149151 -0.136962 0.935697
-0.14791 -0.135465 0.934256
-0.146674 -0.133973 0.932821
-0.145484 -0.132519 0.931665
-0.144312 -0.13108 0.930611
-0.14318 -0.129672 0.929802
-0.142068 -0.12828 0.929115
-0.14099 -0.126915 0.928639
-0.139927 -0.125561 0.928258
-0.138896 -0.124233 0.92809
-0.137857 -0.122898 0.927857
-0.136846 -0.121585 0.927814
-0.135876 -0.120301 0.928052
-0.134908 -0.119019 0.928303
-0.133947 -0.117741 0.9286
-0.132984 -0.116462 0.928889
-0.132031 -0.11519 0.929247
-0.131034 -0.113888 0.929294
-0.130037 -0.112586 0.929326
-0.128972 -0.111237 0.928863
-0.127905 -0.109888 0.928367
-0.126835 -0.108538 0.92784
-0.125772 -0.107194 0.92735
-0.124717 -0.105855 0.926909
-0.12374 -0.10457 0.927058
-0.122754 -0.103279 0.927135
-0.121779 -0.101995 0.927297
-0.120804 -0.100712 0.927458
-0.119841 -0.0994355 0.927707
-0.118868 -0.0981533 0.927879
-0.117906 -0.0968783 0.92814
-0.116933 -0.095596 0.928307
-0.115969 -0.0943204 0.928557
-0.114996 -0.093038 0.928716
-0.114011 -0.0917492 0.928784
-0.113036 -0.0904668 0.928933
-0.112061 -0.0891842 0.929075
-0.111064 -0.0878891 0.929029
-0.110089 -0.0866071 0.929168
-0.109126 -0.0853322 0.929409
-0.108167 -0.0840597 0.929687
-0.107208 -0.0827874 0.929967
-0.106291 -0.0815376 0.930615
-0.105363 -0.0802817 0.93118
-0.104447 -0.0790318 0.931862
-0.103531 -0.0777813 0.932548
-0.102624 -0.0765344 0.933324
-0.101706 -0.0752812 0.934008
-0.100788 -0.0740277 0.934708
-0.0998797 -0.0727777 0.9355
-0.0989906 -0.0715366 0.936494
-0.098091 -0.0702891 0.937399
-0.0972307 -0.0690592 0.938707
-0.0963704 -0.0678275 0.940037
-0.095541 -0.0666082 0.941703
-0.0947403 -0.0653993 0.943693
-0.0939787 -0.0642046 0.946124
-0.0932067 -0.0630015 0.948493
-0.0924193 -0.0617882 0.950747
-0.0915563 -0.0605398 0.952235
-0.0906262 -0.0592622 0.953024
-0.0896326 -0.0579587 0.953131
-0.0885561 -0.0566238 0.952318
-0.0874792 -0.0552906 0.951473
-0.0864033 -0.0539601 0.950616
-0.0853151 -0.0526275 0.949592
-0.084212 -0.0512924 0.948365
-0.0831091 -0.0499603 0.947102
-0.0819556 -0.0486154 0.945201
-0.0808277 -0.0472826 0.943555
-0.0797253 -0.0459614 0.942174
-0.0786569 -0.0446528 0.941168
-0.0776353 -0.0433594 0.940714
-0.0766308 -0.0420719 0.940458
-0.0756338 -0.0407873 0.940283
-0.0746458 -0.0395056 0.940216
-0.0736679 -0.0382268 0.940271
-0.0727149 -0.0369532 0.940654
-0.0717989 -0.0356857 0.941543
-0.0708777 -0.0344168 0.942368
-0.0699538 -0.0331451 0.943183
-0.0690416 -0.0318743 0.944169
-0.0681064 -0.0305984 0.944859
-0.0671856 -0.0293238 0.945758
-0.0662631 -0.0280466 0.946662
-0.0653464 -0.0267683 0.94767
-0.0644351 -0.0254886 0.948778
-0.0635417 -0.0242066 0.950197
-0.0626367 -0.0229222 0.951461
-0.0617295 -0.0216351 0.952722
-0.060844 -0.0203439 0.954374
-0.0599566 -0.0190483 0.956047
-0.0590645 -0.0177507 0.957674
-0.0582059 -0.0164445 0.959924
-0.057355 -0.015131 0.962386
-0.206326 -0.203322 1.0335
-0.209489 -0.204189 1.03623
-0.206822 -0.201379 1.02851
-0.203103 -0.197668 1.01533
-0.20194 -0.19617 1.01514
-0.200607 -0.194527 1.01407
-0.199133 -0.192764 1.01224
-0.197537 -0.190898 1.00976
-0.196079 -0.189154 1.00797
-0.194641 -0.187428 1.00626
-0.193324 -0.185806 1.00517
-0.192156 -0.184312 1.00486
-0.191101 -0.182912 1.00516
-0.190022 -0.181493 1.00533
-0.188923 -0.180057 1.00538
-0.1878 -0.178602 1.0053
-0.186657 -0.17713 1.00511
-0.185489 -0.175638 1.00477
-0.184299 -0.174129 1.0043
-0.183064 -0.172583 1.00357
-0.181893 -0.171091 1.00319
-0.180729 -0.169605 1.00284
-0.179575 -0.168128 1.00254
-0.178476 -0.166696 1.00255
-0.177442 -0.165317 1.00293
-0.176455 -0.163975 1.00358
-0.175502 -0.16266 1.00445
-0.174586 -0.161374 1.00553
-0.173233 -0.159741 1.00404
-0.159208 -0.145973 0.9517
-0.157546 -0.144139 0.94786
-0.156148 -0.142512 0.945603
-0.154738 -0.14088 0.943244
-0.153368 -0.13928 0.941092
-0.152036 -0.137712 0.939155
-0.150732 -0.136168 0.937363
-0.149486 -0.134669 0.935916
-0.148246 -0.133178 0.934484
-0.147054 -0.131723 0.93334
-0.145865 -0.130273 0.9322
-0.144728 -0.128863 0.931382
-0.143597 -0.127458 0.930585
-0.142527 -0.126099 0.930185
-0.14146 -0.124743 0.929793
-0.140426 -0.123412 0.929622
-0.13937 -0.122065 0.929285
-0.138341 -0.120739 0.929133
-0.13734 -0.119432 0.929168
-0.136356 -0.118138 0.929314
-0.135376 -0.116847 0.929493
-0.134397 -0.115556 0.929675
-0.133428 -0.114272 0.929925
-0.132417 -0.11296 0.929871
-0.131406 -0.111649 0.929819
-0.130331 -0.110294 0.929285
-0.129262 -0.108945 0.928791
-0.12819 -0.107594 0.92826
-0.127122 -0.106248 0.927748
-0.126063 -0.104908 0.92729
-0.125085 -0.103621 0.92743
-0.124122 -0.102345 0.92769
-0.123161 -0.10107 0.927967
-0.122199 -0.0997943 0.928238
-0.121247 -0.0985249 0.928588
-0.120271 -0.0972401 0.928742
-0.119295 -0.0959554 0.928896
-0.118319 -0.0946711 0.92905
-0.117343 -0.0933873 0.929206
-0.116367 -0.0921034 0.929358
-0.115393 -0.0908207 0.929523
-0.114408 -0.0895316 0.929593
-0.113433 -0.088249 0.929749
-0.112447 -0.08696 0.929807
-0.111462 -0.0856717 0.929865
-0.110488 -0.0843902 0.930023
-0.109526 -0.0831155 0.930282
-0.108566 -0.0818415 0.930552
-0.107637 -0.0805846 0.931105
-0.106709 -0.0793276 0.93167
-0.105793 -0.0780763 0.932349
-0.104877 -0.0768245 0.933038
-0.103962 -0.0755721 0.933737
-0.103054 -0.0743226 0.934515
-0.102145 -0.0730723 0.935301
-0.101257 -0.0718308 0.936288
-0.10039 -0.0705983 0.937496
-0.099514 -0.0693595 0.938629
-0.0986857 -0.0681415 0.940251
-0.097858 -0.0669213 0.941907
-0.0970638 -0.0657135 0.943926
-0.0962886 -0.0645108 0.946175
-0.0955397 -0.0633157 0.948735
-0.094746 -0.0620977 0.950881
-0.0939357 -0.0608694 0.952894
-0.0930296 -0.0596 0.953935
-0.0920687 -0.0583079 0.954409
-0.0910455 -0.056992 0.954215
-0.0899462 -0.0556492 0.953184
-0.0888268 -0.0543018 0.951899
-0.0877085 -0.0529578 0.950592
-0.0865769 -0.0516125 0.949099
-0.0854348 -0.0502673 0.947444
-0.0843029 -0.0489293 0.945861
-0.0831561 -0.0475906 0.944061
-0.0820475 -0.0462672 0.942662
-0.080963 -0.0449537 0.94151
-0.07993 -0.0436568 0.94095
-0.0789339 -0.0423708 0.940819
-0.077922 -0.041082 0.940483
-0.0769224 -0.0397971 0.940285
-0.0759296 -0.0385148 0.940163
-0.0749432 -0.0372344 0.940114
-0.0739756 -0.0359583 0.940302
-0.0730672 -0.0346918 0.941274
-0.0721446 -0.0334211 0.942079
-0.0712231 -0.0321501 0.942906
-0.0703129 -0.0308786 0.943909
-0.0693859 -0.0296029 0.944704
-0.068466 -0.0283273 0.945608
-0.0675513 -0.0270505 0.946606
-0.0666442 -0.0257717 0.94774
-0.0657356 -0.0244911 0.948872
-0.0648451 -0.0232077 0.950314
-0.0639401 -0.0219217 0.951564
-0.0630332 -0.0206325 0.952822
-0.0621485 -0.0193395 0.954462
-0.0612699 -0.0180425 0.956241
-0.0603787 -0.0167423 0.957865
-0.0599985 -0.0153724 0.968044
-0.207554 -0.200165 1.01907
-0.206343 -0.198624 1.01867
-0.203794 -0.195945 1.01147
-0.202454 -0.194299 1.01036
-0.201043 -0.192595 1.00887
-0.199518 -0.190797 1.00677
-0.197914 -0.188933 1.00423
-0.196527 -0.187255 1.0028
-0.195213 -0.18564 1.00173
-0.193998 -0.184109 1.00117
-0.192938 -0.182707 1.00141
-0.191979 -0.181389 1.0022
-0.190992 -0.180047 1.00285
-0.189938 -0.17865 1.00313
-0.188837 -0.177215 1.00316
-0.187713 -0.17576 1.00307
-0.186523 -0.174253 1.0026
-0.185312 -0.172728 1.00201
-0.184077 -0.171187 1.00127
-0.182911 -0.169701 1.00091
-0.181776 -0.168241 1.00072
-0.180688 -0.166819 1.00079
-0.179639 -0.165428 1.00107
-0.17861 -0.164053 1.00147
-0.177638 -0.162723 1.00221
-0.176696 -0.161417 1.00312
-0.17576 -0.160114 1.00407
-0.17474 -0.158745 1.00454
-0.170854 -0.157299 0.996385
-0.17275 -0.156622 0.999266
-0.161099 -0.145381 0.955016
-0.159181 -0.143359 0.94967
-0.157776 -0.141731 0.947402
-0.156362 -0.140099 0.94505
-0.154969 -0.138487 0.942795
-0.15363 -0.136917 0.94084
-0.152303 -0.135359 0.938933
-0.151034 -0.133846 0.93737
-0.149806 -0.132365 0.936035
-0.148625 -0.130921 0.934989
-0.147436 -0.129473 0.933875
-0.146297 -0.128062 0.933066
-0.145164 -0.126657 0.932277
-0.144091 -0.125296 0.931879
-0.143022 -0.123939 0.931491
-0.142 -0.122616 0.931417
-0.140925 -0.121255 0.930972
-0.139875 -0.119914 0.930696
-0.138838 -0.118582 0.930491
-0.137821 -0.117264 0.930424
-0.136799 -0.115943 0.930317
-0.135801 -0.11464 0.930378
-0.134814 -0.113343 0.930504
-0.133786 -0.11202 0.930338
-0.132761 -0.110699 0.930192
-0.131684 -0.109345 0.929664
-0.130616 -0.107997 0.929183
-0.129544 -0.106648 0.928666
-0.128477 -0.105303 0.928166
-0.127416 -0.103963 0.927707
-0.126435 -0.102675 0.927838
-0.125472 -0.101397 0.928098
-0.124512 -0.100123 0.928388
-0.12355 -0.0988465 0.928661
-0.122598 -0.0975763 0.929011
-0.121619 -0.0962898 0.929153
-0.120643 -0.0950049 0.929311
-0.119664 -0.093719 0.929453
-0.118687 -0.0924337 0.929599
-0.117709 -0.0911488 0.929745
-0.116746 -0.0898718 0.929999
-0.115771 -0.0885888 0.930165
-0.114808 -0.0873123 0.930426
-0.113833 -0.0860293 0.930586
-0.112857 -0.0847457 0.930734
-0.111881 -0.0834625 0.930884
-0.110918 -0.082186 0.931136
-0.109956 -0.0809104 0.931403
-0.109016 -0.0796466 0.931868
-0.108089 -0.0783885 0.932443
-0.107174 -0.0771363 0.933135
-0.10625 -0.0758788 0.933751
-0.105343 -0.074629 0.934529
