ply
format ascii 1.0
element vertex 1612
property float x
property float y
property float z
end_header
0.0265298 -0.0590307 0.51245
0.0262128 -0.060101 0.514969
0.025876 -0.0610929 0.516596
0.0246757 -0.0614461 0.515501
0.0255432 -0.0621258 0.518593
0.0251827 -0.0630113 0.519041
0.0232001 -0.070036 0.537269
0.0228156 -0.0708716 0.536963
0.0224325 -0.071712 0.536707
0.0220454 -0.0725081 0.536068
0.021661 -0.0733197 0.535579
0.0212779 -0.0741425 0.5352
0.0208947 -0.0749554 0.534747
0.0205118 -0.0757624 0.534256
0.0201312 -0.0765962 0.534003
0.019752 -0.0774449 0.533872
0.0193733 -0.0783015 0.533813
0.0189946 -0.0791601 0.533768
0.0186166 -0.0800325 0.533834
0.0182387 -0.0809115 0.533952
0.0178605 -0.0817844 0.534018
0.0174822 -0.0826658 0.534148
0.0171039 -0.0835555 0.534338
0.0167262 -0.0844701 0.534708
0.0163474 -0.0853945 0.535145
0.0159679 -0.0863302 0.535653
0.0155883 -0.0872917 0.536336
0.0152073 -0.0882474 0.536963
0.0148259 -0.0891811 0.537417
0.0144437 -0.0901033 0.537788
0.063086 0.0215527 0.517221
0.0626483 0.0206699 0.516387
0.0622214 0.0197957 0.515673
0.0617691 0.0189083 0.514643
0.061266 0.017994 0.512982
0.0607574 0.0170802 0.511223
0.0602231 0.0161567 0.509123
0.0596805 0.0152332 0.506879
0.0591282 0.0143105 0.504483
0.0586251 0.0134177 0.502663
0.0581254 0.0125316 0.500863
0.0576509 0.0116612 0.499346
0.0572095 0.0108098 0.498234
0.0567781 0.00996554 0.497235
0.0563351 0.00911889 0.496066
0.05588 0.00827031 0.494718
0.0554198 0.00742274 0.49327
0.0549654 0.0065816 0.491884
0.0545207 0.00574682 0.490595
0.0540938 0.00492204 0.489538
0.0536952 0.00410867 0.488845
0.0533017 0.00329899 0.488218
0.0529244 0.00249555 0.487807
0.0525587 0.00169603 0.487546
0.0521862 0.00089603 0.487196
0.0518169 9.74154e-05 0.486877
0.0514376 -0.000702534 0.486402
0.0510648 -0.00149976 0.486017
0.0506868 -0.00229675 0.485549
0.0503201 -0.00309064 0.485244
0.0499477 -0.00388467 0.48484
0.0495844 -0.00467642 0.484572
0.0492213 -0.00546744 0.484298
0.048859 -0.00625728 0.484043
0.0485014 -0.00704664 0.483842
0.0481433 -0.00783509 0.483641
0.0477856 -0.00862328 0.483426
0.0474213 -0.00941026 0.48311
0.0470605 -0.0101965 0.482846
0.0466925 -0.0109813 0.482448
0.046327 -0.0117651 0.48209
0.0459645 -0.0125482 0.481769
0.0456028 -0.0133303 0.481461
0.0452367 -0.0141105 0.48107
0.0448791 -0.0148915 0.480812
0.0445211 -0.0156714 0.480544
0.0441689 -0.0164521 0.480384
0.0438161 -0.0172322 0.480196
0.0434707 -0.0180141 0.480153
0.0431124 -0.0187909 0.479858
0.0427586 -0.0195685 0.479634
0.042402 -0.0203441 0.479362
0.0420592 -0.0211254 0.479353
0.0417184 -0.0219079 0.479385
0.0413823 -0.0226932 0.479507
0.0410445 -0.0234779 0.479599
0.0407054 -0.0242622 0.479674
0.0403648 -0.0250458 0.47972
0.0400259 -0.0258306 0.479795
0.0396954 -0.0266223 0.480053
0.0393599 -0.0274111 0.480212
0.0390235 -0.0281998 0.480363
0.0386891 -0.0289909 0.480555
0.0383552 -0.0297834 0.480769
0.0380192 -0.0305746 0.480939
0.0376868 -0.0313702 0.481192
0.0373553 -0.0321682 0.481479
0.0370333 -0.0329792 0.482026
0.0367154 -0.033797 0.482667
0.0363985 -0.0346201 0.483378
0.0360742 -0.035436 0.48391
0.0357494 -0.0362534 0.48444
0.0354048 -0.0370449 0.48448
0.0350629 -0.03784 0.484579
0.034726 -0.0386441 0.484824
0.034395 -0.0394594 0.485243
0.034064 -0.0402772 0.485682
0.0337443 -0.0411183 0.486467
0.0334284 -0.0419716 0.487406
0.0331124 -0.04283 0.488375
0.0327984 -0.0436981 0.489444
0.0324839 -0.0445722 0.490555
0.0321637 -0.0454386 0.491506
0.0318387 -0.0463006 0.492361
0.0315114 -0.047161 0.493156
0.0311873 -0.0480356 0.494108
0.0308591 -0.0489066 0.494978
0.0305318 -0.049785 0.495905
0.0302031 -0.0506651 0.496819
0.0298754 -0.0515561 0.497833
0.0295461 -0.0524477 0.498816
0.029212 -0.0533317 0.499675
0.028875 -0.0542113 0.500452
0.02856 -0.0551811 0.502232
0.0282677 -0.0562551 0.505118
0.027978 -0.0573631 0.508281
0.0277079 -0.0585829 0.512548
0.0274201 -0.0597634 0.516261
0.0271073 -0.060859 0.518966
0.0267625 -0.0618205 0.520201
0.0264213 -0.0628108 0.521689
0.0260512 -0.0636596 0.521718
0.024835 -0.0639869 0.520372
0.0256876 -0.0645461 0.522118
0.0232827 -0.0721531 0.537111
0.0228964 -0.0729653 0.536607
0.0225111 -0.0737886 0.536214
0.0221283 -0.0746227 0.535921
0.0217433 -0.0754316 0.535426
0.0213587 -0.0762347 0.534892
0.0209765 -0.0770626 0.534578
0.0205962 -0.0779031 0.534372
0.0202164 -0.0787528 0.534247
0.0198368 -0.0796051 0.53415
0.0194586 -0.0804788 0.534219
0.0190801 -0.0813516 0.53428
0.0187011 -0.0822172 0.53428
0.0183224 -0.0830899 0.534339
0.0179444 -0.0839637 0.534405
0.017566 -0.0848618 0.534649
0.0171873 -0.0857785 0.535023
0.0168087 -0.0867075 0.535477
0.0164297 -0.0876615 0.536102
0.0160499 -0.0886184 0.536733
0.0156689 -0.0895509 0.537179
0.0152874 -0.0904819 0.537608
0.014047 -0.0916498 0.542457
0.014906 -0.0914039 0.537964
0.0646006 0.0222429 0.520795
0.0641732 0.0213629 0.520136
0.0637 0.0204568 0.518931
0.0631995 0.0195374 0.517387
0.0626903 0.0186171 0.515723
0.0621653 0.0176913 0.513839
0.0616369 0.0167682 0.511885
0.0611227 0.0158572 0.510072
0.0605995 0.0149459 0.508121
0.060065 0.0140329 0.505992
0.0595473 0.0131339 0.504043
0.0590353 0.0122419 0.50213
0.0585505 0.0113677 0.500534
0.0581044 0.0105134 0.499391
0.0576776 0.00967082 0.498484
0.0572366 0.0088247 0.497377
0.0567844 0.0079768 0.496103
0.0563265 0.00713002 0.494732
0.0558662 0.00628599 0.493307
0.0554128 0.00544786 0.491946
0.054979 0.00461963 0.490825
0.0545695 0.00380202 0.490018
0.0541668 0.00298845 0.489288
0.0537831 0.00218202 0.48881
0.0534079 0.00137887 0.488438
0.0530306 0.000576295 0.48803
0.05266 -0.000223815 0.487709
0.0522788 -0.00102478 0.487236
0.051905 -0.00182337 0.486855
0.051526 -0.00262176 0.486387
0.0511578 -0.00341729 0.486073
0.050784 -0.00421245 0.485672
0.0504195 -0.00500554 0.485404
0.050056 -0.00579807 0.485139
0.0496957 -0.00658935 0.484927
0.0493375 -0.00738021 0.484736
0.0489784 -0.00817023 0.484534
0.0486194 -0.00895983 0.484322
0.048257 -0.00974843 0.484056
0.0478953 -0.0105364 0.483793
0.0475282 -0.0113229 0.483438
0.0471613 -0.0121083 0.483072
0.0467964 -0.0128927 0.48274
0.0464336 -0.0136767 0.482424
0.0460632 -0.0144577 0.481984
0.0457016 -0.0152395 0.481679
0.0453421 -0.0160208 0.481405
0.0449887 -0.016803 0.481236
0.0446319 -0.0175835 0.481002
0.0442861 -0.0183672 0.480958
0.043927 -0.0191454 0.480672
0.0435717 -0.0199243 0.480447
0.0432144 -0.0207014 0.480173
0.0428703 -0.0214841 0.480159
0.0425269 -0.022267 0.480141
0.0421897 -0.0230536 0.480264
0.041854 -0.0238414 0.480409
0.0415177 -0.0246294 0.480543
0.0411792 -0.0254165 0.480642
0.0408414 -0.0262045 0.480756
0.0405101 -0.0269978 0.481005
0.0401693 -0.0277845 0.48106
0.0398275 -0.0285707 0.481104
0.0394881 -0.0293593 0.4812
0.0391517 -0.0301509 0.481357
0.0388138 -0.0309416 0.481482
0.0384824 -0.0317403 0.481781
0.0381552 -0.0325445 0.48217
0.0378369 -0.0333608 0.482782
0.0375192 -0.034181 0.483437
0.0372052 -0.0350088 0.4842
0.0368811 -0.0358267 0.484734
0.0365541 -0.0366437 0.485222
0.0362101 -0.0374378 0.485278
0.0358732 -0.038243 0.485522
0.0355403 -0.0390562 0.485889
0.0352148 -0.0398836 0.486472
0.0348901 -0.0407147 0.487081
0.0345757 -0.0415685 0.488019
0.0342605 -0.0424259 0.488966
0.0339445 -0.043287 0.489926
0.0336289 -0.0441544 0.490937
0.0333145 -0.0450312 0.492038
0.0329932 -0.0458979 0.492951
0.0326673 -0.0467598 0.493758
0.0323381 -0.0476191 0.494498
0.0320124 -0.0484917 0.495386
0.0316832 -0.0493621 0.49621
0.0313569 -0.0502443 0.49715
0.0310318 -0.051137 0.498185
0.030708 -0.0520412 0.499321
0.0303817 -0.0529462 0.500427
0.0300525 -0.0538474 0.501446
0.0297194 -0.0547456 0.502396
0.0294106 -0.0557364 0.50436
0.0291255 -0.0568324 0.507429
0.0288441 -0.0579687 0.510837
0.0285645 -0.059138 0.514484
0.0282726 -0.0602902 0.517838
0.0279484 -0.0613266 0.519877
0.0275934 -0.0622362 0.520552
0.0272379 -0.0631526 0.521279
0.0268702 -0.0640117 0.521411
0.0237514 -0.0734429 0.537317
0.023367 -0.0742821 0.53705
0.022984 -0.0751308 0.53687
0.0225968 -0.0759351 0.536323
0.0222101 -0.0767328 0.535736
0.021827 -0.0775617 0.535415
0.0214443 -0.0783882 0.535088
0.0210627 -0.0792241 0.534838
0.0206819 -0.0800683 0.534666
0.0203028 -0.080935 0.534672
0.019923 -0.0817938 0.534617
0.0195434 -0.0826442 0.534497
0.0191636 -0.0835003 0.534423
0.0187845 -0.0843568 0.534356
0.0184054 -0.0852313 0.534419
0.0180272 -0.0861392 0.534727
0.01765 -0.0870746 0.535229
0.0172717 -0.0880296 0.535858
0.0168924 -0.0889868 0.536488
0.0165126 -0.089936 0.537049
0.0161317 -0.0908769 0.537541
0.0157506 -0.0918022 0.537916
0.0145123 -0.0929704 0.542698
0.0153686 -0.092713 0.538185
0.0650389 0.0231312 0.521568
0.0659069 0.0228011 0.521861
0.0654813 0.0219211 0.521249
0.0650608 0.0210452 0.520682
0.064592 0.0201427 0.519556
0.0640834 0.0192201 0.517953
0.0635516 0.0182885 0.516059
0.0630124 0.017357 0.514045
0.0624705 0.0164291 0.511972
0.061953 0.0155185 0.510154
0.0614416 0.0146152 0.508379
0.0609265 0.0137145 0.506533
0.0604209 0.0128226 0.50477
0.0599106 0.0119328 0.502922
0.0594174 0.0110555 0.501257
0.058957 0.0101958 0.49997
0.0585291 0.00935301 0.499075
0.0580902 0.00850774 0.498019
0.0576521 0.0076658 0.49696
0.0572089 0.00682445 0.495813
0.0567549 0.00598243 0.494507
0.056292 0.0051412 0.493066
0.0558515 0.00431022 0.491889
0.0554281 0.00348763 0.490922
0.0550153 0.00267035 0.490078
0.0546218 0.00186057 0.489486
0.0542414 0.0010554 0.48906
0.0538586 0.000250975 0.488595
0.0534872 -0.000550107 0.488276
0.0531089 -0.00135136 0.487857
0.0527375 -0.00215032 0.48753
0.0523607 -0.00294915 0.487115
0.0519914 -0.00374602 0.486801
0.0516192 -0.00454203 0.48644
0.0512535 -0.00533667 0.486166
0.050889 -0.00613034 0.485906
0.0505284 -0.00692293 0.485707
0.0501722 -0.00771516 0.48556
0.0498158 -0.00850692 0.485407
0.0494586 -0.00929797 0.485245
0.0490987 -0.0100885 0.485036
0.0487397 -0.0108785 0.484829
0.0483746 -0.011667 0.484526
0.0480055 -0.012454 0.484156
0.0476366 -0.0132398 0.483775
0.0472687 -0.0140246 0.483405
0.046894 -0.0148066 0.482911
0.0465253 -0.0155885 0.482506
0.0461617 -0.0163704 0.482182
0.0458042 -0.017153 0.481962
0.0454463 -0.0179348 0.481723
0.0450999 -0.0187199 0.481679
0.0447424 -0.0195004 0.48144
0.044384 -0.0202797 0.481174
0.044025 -0.0210578 0.480896
0.0436805 -0.0218419 0.480875
0.0433353 -0.0226258 0.480852
0.0429985 -0.0234142 0.480981
0.0426653 -0.0242053 0.481177
0.042333 -0.0249978 0.481404
0.0419946 -0.0257871 0.481518
0.0416545 -0.0265756 0.481595
0.0413198 -0.0273685 0.481791
0.0409753 -0.0281542 0.481783
0.0406284 -0.0289379 0.481721
0.0402858 -0.0297253 0.481759
0.0399468 -0.0305159 0.481864
0.0396058 -0.0313053 0.481934
0.0392766 -0.0321073 0.482278
0.0389545 -0.0329182 0.482775
0.038639 -0.0337392 0.483455
0.0383262 -0.0345664 0.48421
0.038014 -0.0353978 0.485002
0.0376935 -0.0362221 0.485616
0.0373669 -0.0370415 0.486112
0.0370265 -0.0378438 0.486282
0.0366954 -0.0386607 0.486693
0.0363687 -0.0394858 0.487217
0.0360438 -0.0403168 0.487811
0.0357224 -0.0411571 0.488524
0.0354086 -0.0420143 0.489464
0.0350902 -0.0428686 0.490319
0.0347706 -0.0437256 0.491175
0.0344536 -0.0445918 0.492125
0.0341355 -0.0454616 0.493084
0.0338113 -0.0463242 0.493905
0.033484 -0.0471845 0.494661
0.0331554 -0.048046 0.495402
0.0328286 -0.0489171 0.496238
0.0325001 -0.0497897 0.497062
0.0321759 -0.0506788 0.498062
0.0318552 -0.051584 0.499219
0.0315356 -0.0525005 0.500472
0.0312138 -0.0534186 0.501697
0.0308891 -0.0543361 0.502872
0.0305609 -0.0552524 0.503995
0.0302575 -0.0562598 0.506097
0.0299605 -0.0573075 0.508578
0.0296675 -0.0583885 0.511335
0.0293787 -0.0595088 0.514423
0.0290814 -0.060621 0.517327
0.0287502 -0.061616 0.51893
0.0284028 -0.062553 0.519891
0.0280512 -0.0634796 0.520719
0.0246197 -0.0739979 0.538686
0.0242326 -0.0748297 0.538337
0.0238472 -0.075674 0.538102
0.0234572 -0.0764708 0.537475
0.0230677 -0.0772549 0.536762
0.0226814 -0.0780708 0.536322
0.0222964 -0.0788834 0.535869
0.0219119 -0.0797039 0.535489
0.0215291 -0.0805329 0.535188
0.0211486 -0.081392 0.535122
0.0207679 -0.0822432 0.535001
0.0203878 -0.0830934 0.534874
0.0200069 -0.0839407 0.53473
0.0196267 -0.084789 0.534592
0.0192473 -0.0856537 0.53458
0.0188692 -0.0865455 0.534766
0.0184913 -0.0874728 0.535202
0.0181135 -0.0884216 0.53578
0.0177355 -0.0893715 0.536358
0.017356 -0.0903228 0.536927
0.0169763 -0.0912733 0.537481
0.0165953 -0.0922006 0.53787
0.0162139 -0.0931214 0.538202
0.0149783 -0.0943036 0.543005
0.0158324 -0.0940317 0.538458
0.0663342 0.0215806 0.52137
0.0659264 0.0207126 0.520958
0.06547 0.0198179 0.519991
0.0649525 0.0188922 0.518322
0.0644112 0.0179577 0.51636
0.0638574 0.0170208 0.514219
0.0633011 0.0160877 0.512014
0.0627713 0.0151735 0.510091
0.0622696 0.0142771 0.508463
0.0617706 0.0133858 0.506839
0.0612766 0.0125011 0.505256
0.0607724 0.0116153 0.503517
0.0602798 0.0107391 0.501894
0.0598038 0.00987375 0.500449
0.0593526 0.00902176 0.499285
0.058905 0.00817446 0.498153
0.058469 0.00733352 0.497135
0.0580332 0.00649553 0.496107
0.05759 0.00565823 0.494974
0.0571417 0.0048218 0.493747
0.0567018 0.0039913 0.492611
0.056268 0.00316569 0.491538
0.0558442 0.00234539 0.490576
0.0554416 0.00153285 0.489877
0.0550563 0.00072612 0.489398
0.054673 -7.8764e-05 0.488942
0.0543043 -0.00087957 0.488676
0.0539322 -0.00168052 0.488354
0.053564 -0.00247968 0.488084
0.0531905 -0.00327903 0.487729
0.0528198 -0.00407665 0.487416
0.0524495 -0.00487384 0.487092
0.0520826 -0.00566934 0.486821
0.0517207 -0.00646416 0.486609
0.0513598 -0.00725807 0.486416
0.0510025 -0.00805153 0.486267
0.0506446 -0.00884439 0.486111
0.0502865 -0.0096369 0.485946
0.0499267 -0.0104288 0.485746
0.0495698 -0.0112202 0.485596
0.0492101 -0.0120108 0.485397
0.0488412 -0.0127995 0.485043
0.0484714 -0.0135869 0.484669
0.0481013 -0.0143729 0.484286
0.0477275 -0.0151569 0.483826
0.0473538 -0.0159393 0.48337
0.0469891 -0.0167227 0.483044
0.0466279 -0.017506 0.482775
0.0462687 -0.0182891 0.482527
0.0459183 -0.0190745 0.482431
0.0455597 -0.0198563 0.482193
0.0452002 -0.0206369 0.48193
0.0448405 -0.0214163 0.48165
0.0444924 -0.0222006 0.481581
0.0441437 -0.0229843 0.481506
0.0438064 -0.0237741 0.481629
0.0434748 -0.0245678 0.48187
0.0431458 -0.0253641 0.482159
0.0428101 -0.026157 0.482333
0.0424698 -0.0269473 0.482414
0.0421301 -0.0277385 0.482517
0.0417793 -0.0285213 0.482401
0.0414264 -0.0293017 0.482233
0.0410812 -0.030088 0.482214
0.0407414 -0.0308796 0.482318
0.0404044 -0.0316742 0.482482
0.0400803 -0.0324827 0.482929
0.0397631 -0.0333005 0.483537
0.0394464 -0.0341217 0.484181
0.0391339 -0.0349505 0.484928
0.0388191 -0.0357801 0.485652
0.0385008 -0.0366085 0.486308
0.0381772 -0.0374334 0.486872
0.0378455 -0.0382495 0.487252
0.0375188 -0.0390751 0.487774
0.0371955 -0.0399082 0.488392
0.0368667 -0.040736 0.488898
0.0365429 -0.0415745 0.489543
0.0362241 -0.0424246 0.490334
0.0359005 -0.0432707 0.491031
0.035574 -0.0441159 0.491689
0.0352557 -0.0449799 0.492582
0.034937 -0.0458476 0.493486
0.0346139 -0.0467121 0.494314
0.0342892 -0.0475784 0.49513
0.0339624 -0.0484449 0.495917
0.0336349 -0.049314 0.496706
0.0333077 -0.0501885 0.497533
0.0329846 -0.0510797 0.498535
0.0326673 -0.0519917 0.499753
0.0323508 -0.0529158 0.501074
0.0320318 -0.0538407 0.502354
0.0317114 -0.0547699 0.503639
0.0313889 -0.0557031 0.504928
0.0310797 -0.0566867 0.50673
0.030775 -0.0577008 0.508808
0.0304779 -0.0587566 0.511266
0.0301826 -0.0598396 0.513935
0.0298811 -0.0609192 0.516482
0.0295551 -0.0619248 0.518192
0.0292133 -0.0628781 0.519319
0.0288589 -0.0637865 0.519967
0.025503 -0.0746315 0.540718
0.0251112 -0.0754458 0.540191
0.0247182 -0.0762419 0.539524
0.024324 -0.0770234 0.538755
0.0239306 -0.0777987 0.53795
0.0235406 -0.0785923 0.53732
0.0231513 -0.079385 0.536691
0.0227643 -0.0801902 0.53618
0.0223787 -0.0809961 0.535687
0.0219958 -0.0818321 0.535437
0.0216134 -0.0826684 0.535196
0.0212318 -0.0835115 0.53501
0.0208502 -0.0843527 0.534817
0.0204693 -0.0852006 0.534674
0.0200893 -0.0860573 0.534601
0.019711 -0.0869406 0.534719
0.0193334 -0.0878597 0.535092
0.0189562 -0.0888003 0.535609
0.0185783 -0.0897433 0.536134
0.0181999 -0.0906943 0.536702
0.0178209 -0.0916535 0.537311
0.0174408 -0.092591 0.537761
0.0170599 -0.0935113 0.538091
0.0166781 -0.0944298 0.538399
0.067169 0.0212288 0.521284
0.0667742 0.0203685 0.521022
0.0663343 0.0194838 0.520254
0.0658284 0.0185663 0.518749
0.0652842 0.0176322 0.51679
0.0647162 0.0166901 0.514528
0.0641438 0.0157516 0.512185
0.0635998 0.0148327 0.510135
0.0630951 0.0139367 0.508503
0.0625987 0.0130483 0.50694
0.0621158 0.0121701 0.505516
0.061614 0.0112875 0.503848
0.0611193 0.0104116 0.502232
0.0606361 0.00954417 0.500727
0.0601734 0.00868862 0.499449
0.0597114 0.00783649 0.498159
0.0592677 0.00699408 0.497073
0.0588332 0.00615791 0.496088
0.058394 0.0053223 0.495018
0.0579554 0.00449009 0.493945
0.0575217 0.00366205 0.492916
0.0570857 0.00283602 0.491836
0.0566589 0.00201535 0.490859
0.0562541 0.00120235 0.490151
0.0558608 0.000393746 0.489581
0.055477 -0.000411318 0.489131
0.0551119 -0.00121224 0.488915
0.0547427 -0.00201286 0.488647
0.054378 -0.00281206 0.488437
0.0540111 -0.00361121 0.488183
0.0536403 -0.00440978 0.487878
0.0532686 -0.0052074 0.487557
0.0529007 -0.00600405 0.487278
0.0525344 -0.00679973 0.487019
0.0521731 -0.00759462 0.486826
0.0518148 -0.00838888 0.486675
0.0514559 -0.00918263 0.486511
0.0510975 -0.00997606 0.486347
0.0507394 -0.0107688 0.486192
0.0503826 -0.0115613 0.486051
0.0500291 -0.0123537 0.485956
0.0496655 -0.0131442 0.485706
0.0492984 -0.0139334 0.485387
0.04893 -0.0147212 0.485053
0.0485574 -0.015507 0.484633
0.048182 -0.0162905 0.484172
0.0478164 -0.0170753 0.48385
0.047454 -0.01786 0.483574
0.047093 -0.0186442 0.483321
0.0467413 -0.0194309 0.483222
0.046382 -0.0202143 0.482982
0.0460215 -0.0209962 0.482718
0.0456603 -0.0217769 0.482438
0.0453087 -0.0225612 0.482319
0.0449568 -0.023345 0.48219
0.0446159 -0.0241345 0.482263
0.044282 -0.0249284 0.482461
0.0439504 -0.0257246 0.482711
0.0436148 -0.026519 0.482885
0.0432739 -0.0273105 0.482968
0.0429333 -0.0281025 0.48306
0.0425815 -0.028886 0.482936
0.0422278 -0.0296674 0.482765
0.0418823 -0.0304551 0.482754
0.0415425 -0.0312483 0.482865
0.0412055 -0.0320445 0.483039
0.0408844 -0.0328571 0.483537
0.0405701 -0.0336793 0.484202
0.0402522 -0.0345005 0.484809
0.03994 -0.0353308 0.485553
0.0396254 -0.0361617 0.486265
0.0393074 -0.0369919 0.486927
0.0389847 -0.0378194 0.487508
0.0386585 -0.0386444 0.488012
0.0383323 -0.0394724 0.488544
0.038009 -0.040307 0.489155
0.0376774 -0.0411321 0.489586
0.0373495 -0.0419651 0.490118
0.0370245 -0.0428058 0.490743
0.036697 -0.0436457 0.491329
0.0363672 -0.0444843 0.491867
0.0360455 -0.0453418 0.492654
0.0357259 -0.0462069 0.493509
0.0354056 -0.0470761 0.494389
0.0350844 -0.047948 0.495265
0.0347611 -0.0488206 0.496116
0.0344365 -0.0496956 0.496964
0.0341129 -0.0505783 0.497879
0.0337909 -0.0514712 0.498885
0.0334748 -0.0523848 0.5001
0.0331606 -0.0533111 0.501423
0.0328443 -0.054242 0.502755
0.0325272 -0.0551783 0.504102
0.0322113 -0.0561281 0.505554
0.0318986 -0.0570978 0.507175
0.0315921 -0.0580988 0.509084
0.0312931 -0.0591401 0.511361
0.0309953 -0.0602039 0.513803
0.0306907 -0.0612609 0.516096
0.0303697 -0.062276 0.517894
0.0300303 -0.0632308 0.519028
0.0263817 -0.0751912 0.542086
0.025988 -0.0760077 0.54156
0.0255922 -0.0768041 0.540879
0.0251941 -0.077571 0.539971
0.0247952 -0.0783227 0.538966
0.0244016 -0.0791011 0.538197
0.0240084 -0.0798707 0.537376
0.0236184 -0.0806611 0.536739
0.0232298 -0.0814585 0.536171
0.0228446 -0.0822788 0.535795
0.02246 -0.0831006 0.535435
0.0220774 -0.0839361 0.53519
0.021695 -0.0847711 0.534945
0.0213132 -0.0856135 0.534762
0.0209323 -0.086464 0.534641
0.0205534 -0.0873393 0.534697
0.0201763 -0.0882573 0.535057
0.0197992 -0.0891883 0.535504
0.0194214 -0.0901235 0.535968
0.0190438 -0.0910736 0.536526
0.018666 -0.0920321 0.537129
0.0182858 -0.0929611 0.537519
0.0179055 -0.0938816 0.537849
0.0175242 -0.0948004 0.538157
0.0162985 -0.0960498 0.54331
0.0171433 -0.0957272 0.538511
0.0680093 0.0208797 0.521253
0.0676211 0.0200228 0.521063
0.0671838 0.0191408 0.520344
0.0666844 0.018228 0.518932
0.0661407 0.0172961 0.517013
0.065566 0.0163536 0.514722
0.0649834 0.0154133 0.512312
0.0644353 0.0144941 0.510246
0.0639274 0.0135987 0.508612
0.0634371 0.0127147 0.507149
0.0629527 0.0118371 0.505736
0.062453 0.0109567 0.504123
0.061956 0.0100811 0.502511
0.0614656 0.00921249 0.500957
0.0609914 0.00835368 0.499569
0.0605168 0.00749848 0.498158
0.0600621 0.00665319 0.496957
0.0596252 0.00581702 0.49596
0.0591837 0.00498207 0.494888
0.0587526 0.00415283 0.493926
0.0583225 0.00332648 0.49296
0.0578889 0.00250186 0.491935
0.0574611 0.00168111 0.49096
0.0570583 0.000868868 0.490295
0.0566634 6.0198e-05 0.489725
0.0562793 -0.000745204 0.489278
0.0559133 -0.00154634 0.489064
0.0555477 -0.00234696 0.488846
0.0551827 -0.00314661 0.48864
0.0548156 -0.00394602 0.488398
0.0544512 -0.00474441 0.48819
0.0540825 -0.0055426 0.487915
0.0537136 -0.00633981 0.48764
0.0533464 -0.00713617 0.48738
0.0529838 -0.00793183 0.487178
0.0526217 -0.00872689 0.486978
0.0522618 -0.00952136 0.486807
0.0519023 -0.0103154 0.48664
0.0515404 -0.0111084 0.486437
0.0511828 -0.0119015 0.486291
0.050832 -0.0126951 0.48624
0.0504712 -0.0134868 0.486044
0.0501068 -0.0142772 0.485786
0.0497448 -0.0150673 0.485557
0.0493747 -0.0158548 0.485196
0.0489991 -0.0166395 0.48474
0.048632 -0.0174251 0.484419
0.0482683 -0.0182107 0.484143
0.0479067 -0.018996 0.483889
0.0475545 -0.0197839 0.483789
0.0471944 -0.0205684 0.483549
0.0468328 -0.0213512 0.483285
0.0464702 -0.0221327 0.483003
0.046115 -0.0229168 0.482834
0.0457593 -0.0236999 0.482651
0.0454173 -0.0244901 0.48271
0.0450805 -0.0252835 0.482859
0.0447491 -0.0260809 0.483106
0.0444131 -0.0268762 0.483281
0.0440738 -0.0276699 0.483396
0.0437324 -0.0284627 0.483485
0.0433831 -0.0292495 0.483412
0.0430263 -0.0300301 0.483205
0.0426831 -0.0308212 0.483247
0.0423436 -0.0316158 0.483363
0.0420093 -0.0324159 0.483593
0.0416888 -0.0332306 0.484108
0.0413756 -0.0340549 0.484778
0.0410552 -0.0348747 0.485327
0.0407431 -0.035706 0.486059
0.0404291 -0.0365387 0.486776
0.0401151 -0.0373745 0.487507
0.0397958 -0.0382074 0.488155
0.0394722 -0.0390372 0.488713
0.0391457 -0.0398663 0.489234
0.0388185 -0.0406965 0.489742
0.0384819 -0.0415156 0.490058
0.0381497 -0.0423428 0.490479
0.0378183 -0.0431741 0.490944
0.037487 -0.0440073 0.491415
0.0371527 -0.0448384 0.491839
0.0368301 -0.0456926 0.492564
0.0365116 -0.0465584 0.493419
0.0361948 -0.0474331 0.49436
0.035877 -0.0483107 0.495301
0.0355606 -0.0491964 0.496309
0.035239 -0.0500775 0.497221
0.0349171 -0.0509626 0.498145
0.034598 -0.0518603 0.499192
0.0342814 -0.0527706 0.500349
0.0339666 -0.0536936 0.501616
0.0336521 -0.0546262 0.50295
0.0333383 -0.055569 0.504351
0.0330248 -0.0565216 0.505815
0.0327161 -0.057499 0.507502
0.0324125 -0.0585035 0.509424
0.0321168 -0.0595495 0.511727
0.0318198 -0.0606062 0.514067
0.031515 -0.0616546 0.516248
0.0311915 -0.0626523 0.517849
0.0308509 -0.0636003 0.518908
0.0304958 -0.0644996 0.519455
0.0276513 -0.0748749 0.543477
0.0272565 -0.0757025 0.543022
0.0268622 -0.0765244 0.542528
0.0264648 -0.0773231 0.541859
0.026064 -0.0780907 0.540945
0.0256623 -0.0788347 0.539864
0.0252632 -0.0795908 0.538907
0.0248651 -0.0803376 0.537898
0.0244716 -0.081111 0.537127
0.0240805 -0.0818931 0.536436
0.0236927 -0.082698 0.535938
0.0233073 -0.0835182 0.535564
0.0229237 -0.0843539 0.535315
0.0225404 -0.0851892 0.53507
0.0221582 -0.086032 0.534888
0.0217774 -0.0868839 0.53477
0.0213975 -0.0877516 0.534771
0.0210208 -0.0886692 0.535125
0.0206432 -0.0895922 0.535508
0.0202657 -0.0905185 0.535906
0.0198886 -0.0914591 0.536393
0.0195112 -0.0924087 0.536932
0.019131 -0.0933287 0.53726
0.0187513 -0.0942508 0.537597
0.0183705 -0.0951698 0.537908
0.0179899 -0.0961057 0.53832
0.0167615 -0.09664 0.53877
0.0176087 -0.0970369 0.538693
0.0684505 0.0196676 0.520916
0.0680133 0.0187864 0.520209
0.0675205 0.0178788 0.518893
0.0669855 0.0169538 0.517102
0.0664209 0.0160186 0.514958
0.0658436 0.015083 0.512647
0.065291 0.0141642 0.510574
0.0647763 0.0132671 0.508895
0.0642841 0.0123834 0.507438
0.0638059 0.0115094 0.506122
0.063303 0.0106288 0.504503
0.0628025 0.00975366 0.502892
0.0623045 0.00888283 0.501275
0.061818 0.00802073 0.499774
0.061327 0.00716107 0.498198
0.0608606 0.00631299 0.496881
0.0604092 0.00547342 0.495731
0.0599655 0.00463898 0.494653
0.059538 0.00381151 0.493747
0.0591117 0.00298701 0.492846
0.0586857 0.00216543 0.491941
0.0582648 0.00134689 0.491073
0.057861 0.000534762 0.490414
0.0574656 -0.000274492 0.48984
0.0570832 -0.00107938 0.489434
0.0567167 -0.00188113 0.489214
0.056354 -0.00268159 0.489046
0.0559921 -0.00348134 0.488888
0.0556315 -0.00428061 0.488741
0.0552705 -0.00507946 0.488588
0.0549014 -0.00587818 0.488324
0.0545283 -0.00667635 0.487999
0.0541562 -0.00747363 0.48768
0.0537856 -0.00826996 0.487375
0.0534189 -0.00906532 0.487121
0.053059 -0.00986026 0.486959
0.0527024 -0.010655 0.486838
0.0523429 -0.0114489 0.48668
0.0519876 -0.0122429 0.486574
0.0516328 -0.0130367 0.486469
0.0512712 -0.013829 0.486269
0.0509064 -0.0146199 0.486017
0.0505452 -0.0154108 0.485809
0.0501775 -0.0161994 0.485506
0.0498074 -0.0169864 0.485153
0.0494432 -0.017774 0.48488
0.049082 -0.0185614 0.484659
0.0487227 -0.0193489 0.484455
0.0483701 -0.020138 0.48436
0.0480088 -0.0209233 0.484119
0.0476432 -0.0217059 0.483808
0.0472803 -0.0224886 0.483523
0.0469208 -0.0232719 0.483302
0.0465613 -0.0240545 0.483065
0.0462186 -0.0248454 0.483116
0.0458786 -0.0256381 0.483213
0.0455437 -0.0264344 0.483407
0.0452045 -0.0272285 0.483521
0.0448647 -0.0280228 0.483631
0.0445214 -0.028815 0.483681
0.0441771 -0.0296066 0.483718
0.0438236 -0.0303907 0.48357
0.0434823 -0.0311849 0.483666
0.0431421 -0.0319804 0.483779
0.0428102 -0.0327837 0.484052
0.0424902 -0.0335999 0.484566
0.0421749 -0.034423 0.485187
0.0418569 -0.0352463 0.485776
0.0415473 -0.0360812 0.486549
0.0412348 -0.0369164 0.487281
0.0409218 -0.0377544 0.488026
0.0406056 -0.038592 0.488724
0.0402815 -0.0394226 0.48927
0.039953 -0.0402497 0.489732
0.0396228 -0.0410774 0.490181
0.0392822 -0.0418917 0.490401
0.0389462 -0.0427137 0.490726
0.038611 -0.0435392 0.491089
0.0382755 -0.0443658 0.491453
0.0379375 -0.0451904 0.491773
0.0376155 -0.0460448 0.492493
0.0372964 -0.0469084 0.493308
0.0369815 -0.0477843 0.494252
0.036669 -0.0486706 0.495295
0.0363579 -0.0495662 0.496419
0.0360403 -0.0504537 0.497394
0.0357234 -0.0513491 0.498434
0.0354056 -0.0522485 0.499481
0.0350879 -0.0531555 0.500582
0.0347727 -0.0540744 0.501783
0.0344604 -0.0550082 0.50311
0.0341468 -0.0559486 0.504468
0.0338354 -0.0569037 0.505943
0.0335306 -0.0578879 0.507685
0.0332313 -0.0588999 0.509668
0.0329413 -0.0599546 0.512037
0.0326492 -0.0610201 0.514443
0.0323426 -0.0620551 0.516462
0.0320181 -0.0630445 0.517962
0.0316794 -0.0639949 0.519031
0.031321 -0.0648807 0.519438
0.0281288 -0.076181 0.543666
0.0277352 -0.0770169 0.543282
0.0273356 -0.0778117 0.542569
0.0269354 -0.0785957 0.541783
0.0265321 -0.0793473 0.540757
0.0261287 -0.0800887 0.539673
0.025726 -0.0808199 0.538536
0.0253286 -0.081578 0.537636
0.0249332 -0.0823363 0.536758
0.0245425 -0.0831257 0.536138
0.0241551 -0.0839385 0.535708
0.0237705 -0.0847655 0.535393
0.0233866 -0.0855998 0.535139
0.0230036 -0.0864423 0.534948
0.022622 -0.0872932 0.534823
0.0222415 -0.0881536 0.534768
0.0218643 -0.0890638 0.535065
0.0214875 -0.0899787 0.535389
0.0211097 -0.0908965 0.535726
0.0207322 -0.0918209 0.536096
0.0203551 -0.0927687 0.536624
0.019976 -0.0936884 0.536948
0.0195963 -0.0946112 0.537288
0.0192168 -0.0955314 0.537606
0.0188369 -0.096476 0.538075
0.0184563 -0.0974165 0.538508
0.0688346 0.0184271 0.519979
0.0683497 0.0175252 0.518767
0.0678292 0.0166092 0.51716
0.0672854 0.0156867 0.515283
0.0667203 0.0147591 0.513147
0.0661712 0.0138432 0.511147
0.0656525 0.0129456 0.509457
0.0651522 0.0120596 0.507944
0.0646712 0.0111851 0.506624
0.0641649 0.0103045 0.505003
0.0636652 0.00943038 0.50343
0.0631547 0.0085561 0.501705
0.0626551 0.00769068 0.500089
0.0621466 0.00682623 0.498339
0.0616594 0.00597298 0.496811
0.0611892 0.00512839 0.495452
0.060739 0.0042936 0.494319
0.0603143 0.00346796 0.493463
0.0598916 0.00264555 0.492625
0.0594784 0.00182731 0.491884
0.0590684 0.00101217 0.491175
0.0586724 0.000201317 0.49062
0.0582796 -0.000607316 0.490097
0.0579003 -0.00141224 0.489737
0.0575326 -0.00221441 0.489518
0.0571687 -0.00301559 0.489344
0.0568065 -0.00381614 0.489184
0.0564454 -0.00461612 0.489039
0.0560881 -0.00541549 0.48894
0.055719 -0.00621496 0.488684
0.0553449 -0.00701371 0.488361
0.0549674 -0.00781167 0.48798
0.0545911 -0.0086085 0.487611
0.0542164 -0.0094042 0.487255
0.0538526 -0.0101993 0.487048
0.053493 -0.0109941 0.486894
0.0531342 -0.0117887 0.486742
0.0527782 -0.0125829 0.486633
0.0524222 -0.0133769 0.486518
0.0520627 -0.0141698 0.486359
0.0517042 -0.0149626 0.4862
0.0513488 -0.0157553 0.486094
0.0509844 -0.0165455 0.485847
0.0506201 -0.0173349 0.485593
0.0502577 -0.0181241 0.485369
0.0498968 -0.0189129 0.485156
0.0495369 -0.0197012 0.484959
0.0491866 -0.0204926 0.484914
0.0488246 -0.021279 0.484673
0.0484581 -0.0220626 0.484357
0.0480935 -0.0228459 0.484069
0.0477306 -0.023629 0.483801
0.0473642 -0.0244092 0.483467
0.0470154 -0.0251979 0.483417
0.0466687 -0.0259877 0.48341
0.0463286 -0.0267815 0.483504
0.0459862 -0.0275742 0.483568
0.0456492 -0.028371 0.483734
0.0453088 -0.0291657 0.483835
0.0449682 -0.0299609 0.483939
0.0446169 -0.0307479 0.483846
0.0442755 -0.0315429 0.48394
0.0439368 -0.0323406 0.484082
0.0436069 -0.0331468 0.484395
0.0432877 -0.0339644 0.484912
0.0429705 -0.0347866 0.485492
0.042655 -0.035613 0.486118
0.0423466 -0.0364495 0.486888
0.0420348 -0.0372863 0.487632
0.0417232 -0.0381263 0.488385
0.0414098 -0.0389679 0.48913
0.0410851 -0.0397986 0.489655
0.0407519 -0.0406206 0.490015
0.0404181 -0.0414432 0.490365
0.0400776 -0.0422584 0.490586
0.0397393 -0.0430781 0.490867
0.0394048 -0.0439048 0.491235
0.0390696 -0.0447323 0.491601
0.0387315 -0.0455577 0.491921
0.0384089 -0.0464103 0.492602
0.0380904 -0.0472745 0.49341
0.0377748 -0.048148 0.494308
0.0374637 -0.049035 0.495346
0.0371568 -0.0499364 0.496525
0.0368427 -0.0508302 0.497567
0.0365293 -0.0517324 0.498674
0.0362148 -0.0526378 0.499777
0.0358988 -0.0535461 0.500872
0.0355847 -0.0544663 0.502069
0.0352734 -0.0554014 0.503395
0.0349619 -0.0563437 0.504754
0.0346545 -0.0573054 0.506279
0.0343568 -0.0583052 0.50817
0.034062 -0.0593255 0.510214
0.0337754 -0.0603839 0.512591
0.0334852 -0.0614487 0.51496
0.0331762 -0.0624712 0.516828
0.0328477 -0.0634434 0.518138
0.0325059 -0.064381 0.519069
0.0289945 -0.0766107 0.543886
0.0286024 -0.0774609 0.543618
0.0282034 -0.0782705 0.543021
0.0278044 -0.0790712 0.54237
0.0274017 -0.0798393 0.54147
0.0269973 -0.0805885 0.540448
0.0265908 -0.0813123 0.539245
0.0261892 -0.0820537 0.538209
0.0257896 -0.0827953 0.537197
0.0253953 -0.0835683 0.536448
0.0250057 -0.084366 0.5359
0.0246187 -0.0851861 0.535532
0.0242337 -0.0860128 0.53522
0.0238503 -0.0868539 0.535013
0.0234684 -0.0877033 0.534878
0.0230867 -0.0885638 0.534819
0.0227093 -0.0894668 0.535063
0.0223323 -0.0903746 0.535333
0.0219546 -0.0912833 0.535603
0.021576 -0.0921904 0.535855
0.0211988 -0.0931214 0.536266
0.02082 -0.09404 0.536584
0.0204417 -0.0949717 0.536981
0.0200625 -0.0959018 0.537365
0.0196843 -0.0968575 0.537901
0.0193047 -0.0978171 0.538452
0.0180927 -0.0991171 0.543759
0.0189255 -0.0987938 0.539101
0.0691721 0.0171686 0.518575
0.0686831 0.0162695 0.517326
0.0681702 0.0153625 0.515803
0.0676251 0.0144449 0.513914
0.0670856 0.0135349 0.512063
0.0665578 0.0126341 0.510309
0.0660435 0.0117431 0.508678
0.0655539 0.0108661 0.507297
0.06504 0.00998288 0.505617
0.0645377 0.0091086 0.50405
0.0640185 0.0082327 0.502269
0.0635063 0.00736347 0.500537
0.0629789 0.00649438 0.498609
0.0624778 0.00563805 0.496953
0.0619861 0.00478876 0.495379
0.0615249 0.00395186 0.494136
0.0610978 0.00312663 0.493271
0.0606788 0.00230567 0.492488
0.0602696 0.00148901 0.49181
0.0598723 0.00067657 0.491262
0.0594845 -0.000132769 0.490818
0.0590947 -0.000940862 0.490349
0.0587191 -0.00174574 0.490042
0.0583507 -0.00254847 0.489827
0.057987 -0.00335038 0.489659
0.0576241 -0.00415159 0.4895
0.0572621 -0.00495225 0.489353
0.0569045 -0.00575233 0.489255
0.0565349 -0.00655251 0.489001
0.0561565 -0.00735203 0.488631
0.0557734 -0.0081504 0.488192
0.0553949 -0.00894759 0.487802
0.0550147 -0.00974333 0.487389
0.0546473 -0.0105388 0.487136
0.0542874 -0.011334 0.486983
0.053928 -0.0121288 0.486833
0.0535691 -0.0129233 0.486686
0.0532127 -0.0137175 0.486576
0.0528567 -0.0145116 0.486463
0.0525003 -0.0153051 0.486348
0.052148 -0.0160991 0.48629
0.0517864 -0.0168907 0.486093
0.0514276 -0.0176823 0.485934
0.0510655 -0.0184724 0.485721
0.0507039 -0.019262 0.485512
0.0503434 -0.0200512 0.485315
0.0499929 -0.0208434 0.485265
0.0496266 -0.0216291 0.484977
0.0492593 -0.0224133 0.48466
0.0488939 -0.0231973 0.48437
0.0485269 -0.0239793 0.484051
0.0481567 -0.0247585 0.483666
0.0478039 -0.0255458 0.483561
0.0474507 -0.0263325 0.483447
0.0471072 -0.0271247 0.483492
0.0467644 -0.0279176 0.483552
0.0464315 -0.0287173 0.483772
0.0460946 -0.0295151 0.483935
0.0457591 -0.0303147 0.484133
0.0454101 -0.0311044 0.48409
0.0450686 -0.0319002 0.48418
0.0447297 -0.0326985 0.484322
0.0443973 -0.0335032 0.484582
0.0440756 -0.0343192 0.485053
0.0437594 -0.0351426 0.485636
0.043448 -0.0359732 0.48632
0.0431401 -0.0368109 0.487099
0.0428323 -0.037652 0.487891
0.0425209 -0.0384927 0.488636
0.0422056 -0.0393324 0.489329
0.0418786 -0.0401608 0.489801
0.0415438 -0.0409807 0.490113
0.0412096 -0.0418037 0.490461
0.0408742 -0.0426263 0.490785
0.0405384 -0.0434502 0.491115
0.0402069 -0.0442818 0.491541
0.0398763 -0.0451175 0.492008
0.0395416 -0.0459486 0.492389
0.0392151 -0.0467958 0.492975
0.0388953 -0.0476573 0.493728
0.0385796 -0.0485306 0.494607
0.0382672 -0.0494148 0.495589
0.0379618 -0.0503181 0.496774
0.0376532 -0.0512221 0.497923
0.0373442 -0.0521309 0.499088
0.037031 -0.0530389 0.500202
0.0367142 -0.0539449 0.501251
0.0363993 -0.0548621 0.502394
0.0360883 -0.0557948 0.503672
0.0357787 -0.0567392 0.505034
0.0354767 -0.0577126 0.506671
0.0351856 -0.0587253 0.508672
0.0348957 -0.059754 0.510779
0.0346102 -0.0608103 0.513106
0.0343221 -0.0618758 0.515456
0.0340126 -0.0628916 0.517231
0.0336815 -0.0638521 0.518405
0.0302491 -0.0761621 0.54414
0.0298587 -0.0770281 0.543998
0.0294672 -0.0778856 0.543788
0.0290709 -0.0787143 0.543345
0.0286747 -0.0795395 0.542891
0.0282714 -0.0803176 0.542067
0.0278676 -0.0810833 0.541168
0.0274604 -0.0818152 0.540023
0.0270542 -0.0825417 0.538867
0.0266506 -0.0832725 0.537771
0.026252 -0.0840275 0.536878
0.0258576 -0.0848011 0.536146
0.0254686 -0.0856061 0.535664
0.0250828 -0.0864331 0.535349
0.0246979 -0.087267 0.535091
0.024315 -0.0881174 0.534957
0.0239334 -0.0889779 0.534896
0.0235556 -0.089873 0.535079
0.0231776 -0.0907706 0.535277
0.022799 -0.0916706 0.535483
0.0224202 -0.0925685 0.535672
0.0220432 -0.0934905 0.53602
0.0216648 -0.0944093 0.536336
0.021287 -0.0953413 0.536734
0.0209094 -0.0962824 0.537183
0.0205317 -0.0972403 0.537733
0.0201535 -0.0982109 0.538353
0.0197751 -0.0991885 0.539004
0.0699946 0.0168117 0.518379
0.0695351 0.0159272 0.517451
0.0690511 0.0150345 0.516259
0.0685209 0.0141249 0.514561
0.0679877 0.0132187 0.512812
0.0674489 0.0123143 0.510976
0.0669234 0.0114199 0.509258
0.0664217 0.0105387 0.50777
0.065904 0.00965567 0.50609
0.0654043 0.00878293 0.504577
0.0648818 0.0079072 0.502799
0.0643612 0.00703635 0.50101
0.0638243 0.00616529 0.49901
0.0633086 0.00530585 0.497223
0.0627993 0.0044527 0.495477
0.0623302 0.00361448 0.494166
0.0618923 0.00278733 0.493196
0.0614714 0.00196676 0.49241
0.0610615 0.00115037 0.491736
0.0606685 0.000338858 0.491247
0.0602807 -0.000470202 0.490817
0.0598989 -0.00127687 0.490455
0.0595275 -0.00208137 0.490206
0.0591637 -0.0028843 0.490047
0.0588033 -0.00368627 0.489929
0.0584438 -0.0044878 0.489819
0.058081 -0.0052891 0.48967
0.0577264 -0.00608986 0.489615
0.0573557 -0.00689067 0.48936
0.0569766 -0.00769094 0.488989
0.0565884 -0.00848982 0.4885
0.0562047 -0.0092873 0.488059
0.0558192 -0.0100834 0.487584
0.0554498 -0.0108791 0.48732
0.0550862 -0.0116748 0.487117
0.054726 -0.0124699 0.486965
0.0543661 -0.0132646 0.486814
0.0540065 -0.0140589 0.486663
0.053647 -0.0148527 0.486512
0.0532915 -0.0156469 0.486408
0.0529392 -0.0164414 0.486353
0.0525806 -0.0172341 0.486206
0.0522252 -0.0180273 0.486098
0.0518651 -0.0188186 0.485932
0.0515063 -0.0196097 0.485769
0.0511483 -0.0204007 0.485614
0.0507934 -0.0211922 0.485513
0.0504233 -0.0219772 0.485171
0.0500516 -0.0227602 0.484804
0.0496823 -0.023543 0.484466
0.049312 -0.0243241 0.484101
0.0489374 -0.0251015 0.483661
0.0485834 -0.0258886 0.483542
0.0482266 -0.0266736 0.483373
0.0478823 -0.0274656 0.483407
0.0475406 -0.0282593 0.483478
0.0472105 -0.0290612 0.483748
0.0468738 -0.0298596 0.483917
0.0465413 -0.0306617 0.484161
0.0461948 -0.0314539 0.484164
0.0458536 -0.0322503 0.484256
0.0455152 -0.0330496 0.484407
0.0451827 -0.0338548 0.484667
0.0448619 -0.0346719 0.485143
0.0445465 -0.0354962 0.485726
0.044236 -0.0363281 0.486419
0.0439301 -0.0371674 0.487203
0.0436225 -0.0380092 0.487994
0.043312 -0.0388508 0.488739
0.0429949 -0.0396884 0.489379
0.0426693 -0.0405181 0.489859
0.0423368 -0.0413417 0.49022
0.0420037 -0.0421661 0.490575
0.0416706 -0.0429923 0.490944
0.0413379 -0.0438209 0.49133
0.0410115 -0.044661 0.491866
0.0406845 -0.0455024 0.492397
0.0403521 -0.0463387 0.492836
0.0400264 -0.047187 0.493414
0.039704 -0.0480452 0.494106
0.0393841 -0.0489111 0.494868
0.0390705 -0.0497925 0.495797
0.0387667 -0.0506969 0.496976
0.0384597 -0.0516029 0.498134
0.0381523 -0.0525136 0.499302
0.0378428 -0.0534271 0.500463
0.0375269 -0.0543342 0.50151
0.0372156 -0.055258 0.502711
0.0369062 -0.0561929 0.503993
0.0366006 -0.0571445 0.505416
0.0363069 -0.0581351 0.507215
0.0360231 -0.0591632 0.509356
0.0357368 -0.060198 0.511498
0.0354526 -0.0612525 0.513772
0.0351644 -0.0623122 0.516033
0.0348492 -0.0633078 0.517582
0.0345109 -0.0642445 0.518505
0.034166 -0.0651675 0.519269
0.0311076 -0.0765474 0.543982
0.0307237 -0.0774429 0.544084
0.0303334 -0.0783089 0.54394
0.0299377 -0.0791456 0.543564
0.0295447 -0.0799934 0.543285
0.0291452 -0.080803 0.542707
0.0287397 -0.0815711 0.541823
0.0283312 -0.0823128 0.540749
0.0279229 -0.0830403 0.539594
0.0275143 -0.0837541 0.538365
0.0271117 -0.0844918 0.537337
0.0267126 -0.0852459 0.536458
0.0263202 -0.086034 0.535848
0.0259323 -0.0868536 0.535478
0.025547 -0.0876893 0.535229
0.0251634 -0.0885335 0.535049
0.0247819 -0.0893947 0.53499
0.0244028 -0.0902815 0.535109
0.0240236 -0.0911696 0.535236
0.0236445 -0.0920584 0.535366
0.0232654 -0.0929465 0.535486
0.0228873 -0.0938602 0.535777
0.0225099 -0.0947789 0.536091
0.0221325 -0.0957103 0.536485
0.0217557 -0.0966622 0.537002
0.0213798 -0.0976324 0.537624
0.0210034 -0.0986141 0.53831
0.0206256 -0.0995913 0.538955
0.0708603 0.0164741 0.518618
0.0704197 0.0155985 0.517901
0.0699595 0.0147164 0.516975
0.069438 0.0138113 0.515399
0.0688955 0.012902 0.513587
0.068345 0.0119946 0.51167
0.0677997 0.0110934 0.509773
0.0672883 0.0102094 0.508212
0.0667728 0.00932816 0.506586
0.0662799 0.00845863 0.505179
0.0657606 0.00758459 0.503467
0.0652412 0.00671489 0.501728
0.064695 0.00584229 0.49967
0.0641658 0.00497977 0.497767
0.0636337 0.00412172 0.495806
0.0631525 0.00328098 0.494383
0.0626979 0.00245064 0.493246
0.0622713 0.00162877 0.492403
0.0618591 0.000812569 0.491723
0.0614695 1.98072e-06 0.491287
0.0610816 -0.000807265 0.490861
0.0607038 -0.00161362 0.49055
0.0603351 -0.00241776 0.490348
0.0599719 -0.00322114 0.490198
0.0596159 -0.00402306 0.49014
0.0592602 -0.00482483 0.490084
0.0589011 -0.00562673 0.489981
0.0585453 -0.0064281 0.489923
0.0581773 -0.00722952 0.489709
0.0577973 -0.00803034 0.489342
0.0574091 -0.00882991 0.488861
0.0570244 -0.00962818 0.488418
0.0566372 -0.0104246 0.487943
0.0562602 -0.0112207 0.487582
0.0558903 -0.0120161 0.487315
0.0555292 -0.012812 0.487149
0.0551681 -0.0136071 0.48699
0.0548083 -0.0144019 0.486841
0.0544523 -0.015197 0.486742
0.0540963 -0.0159918 0.486644
0.0537407 -0.0167863 0.486545
0.0533812 -0.0175794 0.486397
0.0530256 -0.0183731 0.486292
0.0526662 -0.0191654 0.486136
0.0523101 -0.0199582 0.486024
0.0519536 -0.0207504 0.485909
0.0515952 -0.0215415 0.485755
0.0512201 -0.0223253 0.485356
0.050844 -0.0231071 0.484934
0.0504706 -0.0238887 0.484543
0.050096 -0.0246683 0.484128
0.0497205 -0.0254457 0.483685
0.049366 -0.026233 0.48356
0.0490087 -0.0270183 0.483391
0.0486616 -0.027809 0.483382
0.0483193 -0.0286027 0.483449
0.047987 -0.0294033 0.483672
0.0476474 -0.0301999 0.483794
0.0473127 -0.0310005 0.48399
0.0469713 -0.0317967 0.484085
0.0466307 -0.032594 0.48419
0.0462958 -0.0333965 0.4844
0.0459641 -0.0342025 0.484664
0.0456459 -0.0350222 0.485177
0.045331 -0.0358471 0.485757
0.0450215 -0.0366799 0.486453
0.044717 -0.0375208 0.487249
0.0444107 -0.0383633 0.488034
0.0441011 -0.0392057 0.488774
0.0437819 -0.040041 0.489366
0.043457 -0.0408717 0.489852
0.043128 -0.0416993 0.490266
0.0427976 -0.0425278 0.490677
0.0424677 -0.0433586 0.491102
0.0421408 -0.0441957 0.491598
0.0418205 -0.0450445 0.492244
0.0414948 -0.0458885 0.49279
0.0411671 -0.0467329 0.493323
0.0408392 -0.0475789 0.493853
0.040515 -0.0484342 0.494485
0.0401928 -0.0492967 0.495187
0.0398803 -0.0501792 0.49611
0.0395755 -0.0510818 0.497249
0.0392706 -0.05199 0.498411
0.0389644 -0.0529016 0.499573
0.0386557 -0.0538162 0.500729
0.0383409 -0.0547243 0.50177
0.0380316 -0.0556504 0.502979
0.0377259 -0.0565917 0.504315
0.0374266 -0.0575555 0.50585
0.0371421 -0.0585652 0.50783
0.0368667 -0.0596099 0.510116
0.036584 -0.0606506 0.51229
0.0362979 -0.0616971 0.514451
0.0360057 -0.0627407 0.516519
0.0356842 -0.0637159 0.517845
0.0353412 -0.0646363 0.518593
0.034994 -0.0655509 0.519268
0.0315852 -0.0778388 0.544009
0.0312017 -0.0787399 0.544153
0.030808 -0.0795926 0.5439
0.0304177 -0.0804571 0.543752
0.0300198 -0.0812829 0.543298
0.0296182 -0.0820811 0.542641
0.0292077 -0.0828251 0.541581
0.0287972 -0.0835549 0.540438
0.028384 -0.0842557 0.539098
0.0279757 -0.0849735 0.537921
0.0275711 -0.0857014 0.536845
0.0271731 -0.0864637 0.536041
0.0267821 -0.0872672 0.535551
0.0263969 -0.0881029 0.535301
0.0260136 -0.0889556 0.535178
0.0256301 -0.0898108 0.535072
0.0252506 -0.090689 0.53513
0.0248702 -0.0915675 0.535187
0.0244904 -0.0924463 0.535245
0.0241091 -0.0933166 0.535249
0.0237323 -0.0942303 0.535537
0.0233549 -0.0951496 0.535852
0.022979 -0.0960908 0.536306
0.0226039 -0.0970517 0.53688
0.0222284 -0.0980222 0.537502
0.0218529 -0.0990056 0.538193
0.0214761 -0.0999826 0.538832
0.0202809 -0.101317 0.544232
0.0210969 -0.100944 0.53936
0.0717401 0.0161412 0.518981
0.0713039 0.0152678 0.518325
0.0708513 0.0143889 0.51749
0.0703321 0.0134859 0.51597
0.0697859 0.0125766 0.514158
0.069231 0.0116684 0.512224
0.0686798 0.0107666 0.510306
0.0681548 0.00987892 0.508635
0.0676368 0.00899775 0.507011
0.0671515 0.00813118 0.505711
0.0666489 0.00726301 0.50421
0.0661374 0.00639623 0.502591
0.0656071 0.00552862 0.500745
0.0650706 0.00466433 0.498804
0.0645237 0.00380297 0.496724
0.0640142 0.00295594 0.495026
0.0635331 0.00211964 0.493617
0.0630814 0.00129289 0.492513
0.0626631 0.000475265 0.49177
0.0622724 -0.0003353 0.491334
0.0618873 -0.00114396 0.490952
0.0615169 -0.00194955 0.490736
0.0611522 -0.0027539 0.490581
0.0607922 -0.00355727 0.49048
0.0604323 -0.00436021 0.490381
0.0600725 -0.00516291 0.49028
0.059709 -0.00596557 0.49013
0.0593488 -0.00676754 0.490024
0.0589811 -0.00756938 0.489819
0.058605 -0.00837056 0.489507
0.0582195 -0.0091704 0.489077
0.0578384 -0.00996924 0.48869
0.0574541 -0.0107665 0.488261
0.0570759 -0.0115631 0.487899
0.0567022 -0.0123589 0.487589
0.0563355 -0.0131546 0.487366
0.0559695 -0.0139497 0.487143
0.055608 -0.0147448 0.486984
0.0552515 -0.0155403 0.486886
0.0548993 -0.0163365 0.486836
0.0545429 -0.0171315 0.486735
0.0541826 -0.0179251 0.486581
0.0538225 -0.0187182 0.486424
0.0534597 -0.01951 0.486223
0.0531003 -0.0203022 0.486072
0.0527447 -0.0210952 0.485968
0.0523822 -0.0218852 0.485766
0.0520025 -0.0226675 0.485311
0.0516275 -0.0234502 0.484915
0.0512532 -0.0242318 0.484518
0.050875 -0.0250099 0.48406
0.0505016 -0.0257889 0.483667
0.0501475 -0.0265767 0.483549
0.0497867 -0.0273604 0.483335
0.0494371 -0.02815 0.483287
0.0490941 -0.0289435 0.483345
0.0487581 -0.0297419 0.483512
0.0484183 -0.0305384 0.483623
0.048081 -0.031337 0.48377
0.047743 -0.0321358 0.483916
0.0474058 -0.0329358 0.484079
0.0470752 -0.0337418 0.48435
0.0467436 -0.0345483 0.484617
0.0464252 -0.0353677 0.485116
0.0461107 -0.0361929 0.485687
0.0458022 -0.0370264 0.486381
0.0454991 -0.0378684 0.487183
0.0451965 -0.0387145 0.488017
0.0448902 -0.0395603 0.488802
0.0445718 -0.0403963 0.48939
0.0442501 -0.0412307 0.489924
0.0439212 -0.0420594 0.490347
0.0435948 -0.0428925 0.490814
0.0432683 -0.0437283 0.4913
0.0429468 -0.0445732 0.491898
0.0426279 -0.0454244 0.492556
0.0423074 -0.0462766 0.493201
0.041983 -0.0471266 0.493792
0.0416529 -0.0479703 0.494273
0.0413291 -0.0488268 0.494902
0.0410106 -0.0496951 0.495656
0.0406964 -0.0505755 0.496534
0.0403914 -0.0514767 0.497634
0.0400897 -0.0523902 0.498841
0.0397797 -0.053295 0.499902
0.0394724 -0.0542105 0.50105
0.0391614 -0.0551249 0.502144
0.0388561 -0.0560582 0.503413
0.0385548 -0.0570079 0.504819
0.0382656 -0.0579933 0.506568
0.037991 -0.0590227 0.508727
0.0377217 -0.0600784 0.511092
0.0374423 -0.0611246 0.513286
0.037154 -0.0621623 0.515326
0.0368546 -0.0631846 0.51715
0.0365269 -0.064141 0.518268
0.036179 -0.065047 0.518863
0.0358275 -0.0659476 0.519389
0.0316842 -0.0800551 0.544357
0.0312935 -0.0809233 0.544229
0.0308962 -0.0817577 0.543837
0.0304959 -0.0825714 0.543293
0.0300843 -0.083324 0.542294
0.0296733 -0.0840632 0.541215
0.0292585 -0.0847717 0.539933
0.0288466 -0.0854822 0.538695
0.0284377 -0.0861997 0.537536
0.0280355 -0.086944 0.536596
0.0276404 -0.0877296 0.535971
0.0272515 -0.0885489 0.5356
0.0268672 -0.0894011 0.535468
0.0264838 -0.0902564 0.535357
0.0261027 -0.0911274 0.535363
0.0257214 -0.0919985 0.535364
0.0253409 -0.0928769 0.535414
0.0249587 -0.0937385 0.535355
0.02458 -0.0946372 0.535535
0.0242024 -0.0955472 0.535793
0.023827 -0.0964886 0.536243
0.0234526 -0.0974499 0.536815
0.0230783 -0.0984222 0.537442
0.0227031 -0.0994058 0.538132
0.0223269 -0.100383 0.538767
0.0219482 -0.101335 0.539232
0.0726397 0.0158154 0.519523
0.0722026 0.0149414 0.518873
0.0717433 0.0140598 0.517988
0.07121 0.0131524 0.516358
0.0706556 0.0122413 0.514491
0.0700915 0.0113315 0.5125
0.0695314 0.0104283 0.510527
0.0689988 0.00953937 0.508806
0.0684875 0.00866171 0.507282
0.0680112 0.00779855 0.506096
0.0675268 0.00693666 0.504818
0.0670346 0.00607544 0.503429
0.066527 0.00521444 0.501864
0.0660058 0.0043542 0.50013
0.0654504 0.00349049 0.497998
0.0649156 0.00263765 0.496066
0.0644 0.00179368 0.49431
0.0639189 0.000961247 0.492908
0.0634712 0.000138733 0.491862
0.0630713 -0.000673502 0.491331
0.0626866 -0.00148221 0.49096
0.0623198 -0.00228757 0.490789
0.0619584 -0.00309163 0.49068
0.0616023 -0.00389506 0.490628
0.0612462 -0.00469822 0.490578
0.0608862 -0.00550169 0.490474
0.0605212 -0.00630472 0.490318
0.0601568 -0.00710759 0.490159
0.0597881 -0.00790964 0.489955
0.0594079 -0.00871101 0.489605
0.0590267 -0.0095114 0.489234
0.0586487 -0.0103108 0.488893
0.0582679 -0.0111087 0.488522
0.0578898 -0.0119059 0.488168
0.0575154 -0.0127023 0.487861
0.0571437 -0.013498 0.487584
0.0567729 -0.014293 0.48731
0.0564072 -0.0150879 0.487097
0.0560464 -0.0158832 0.486951
0.0556936 -0.0166796 0.486899
0.055333 -0.017474 0.486745
0.054971 -0.0182676 0.486573
0.0546099 -0.0190608 0.486406
0.0542464 -0.0198527 0.486203
0.053887 -0.0206452 0.486057
0.0535344 -0.0214396 0.486006
0.0531718 -0.0222301 0.485806
0.0527914 -0.0230125 0.485349
0.0524154 -0.0237952 0.48495
0.0520368 -0.0245753 0.484508
0.0516546 -0.0253519 0.484003
0.051281 -0.0261311 0.483611
0.0509266 -0.0269191 0.483497
0.0505662 -0.0277034 0.483296
0.0502162 -0.0284931 0.483244
0.0498758 -0.0292886 0.483342
0.0495362 -0.030085 0.483449
0.049193 -0.0308793 0.483505
0.0488552 -0.0316777 0.483645
