ply
format ascii 1.0
element vertex 1720
property float x
property float y
property float z
end_header
-0.363745 -0.136029 1.1481
-0.363084 -0.135119 1.14926
-0.362447 -0.134214 1.15047
-0.361855 -0.133322 1.15182
-0.36118 -0.132404 1.15295
-0.360507 -0.131485 1.15409
-0.359835 -0.130566 1.15523
-0.359105 -0.129628 1.15622
-0.358451 -0.128712 1.15742
-0.357795 -0.127794 1.15863
-0.35715 -0.126877 1.15987
-0.35645 -0.125944 1.16096
-0.355839 -0.125034 1.1623
-0.355122 -0.124094 1.16336
-0.354463 -0.123169 1.16458
-0.353868 -0.122259 1.16599
-0.353325 -0.121361 1.16756
-0.352677 -0.120434 1.16883
-0.352114 -0.119527 1.17035
-0.351635 -0.11864 1.17212
-0.3511 -0.117736 1.17374
-0.350626 -0.116845 1.17555
-0.350239 -0.115974 1.17762
-0.349817 -0.115091 1.1796
-0.349244 -0.114169 1.18115
-0.348824 -0.113281 1.18316
-0.34838 -0.112385 1.18511
-0.347992 -0.111499 1.18723
-0.347662 -0.110624 1.18955
-0.347441 -0.109769 1.1922
-0.347222 -0.108911 1.19488
-0.347055 -0.108061 1.19774
-0.346971 -0.107224 1.20086
-0.346837 -0.106371 1.20386
-0.34665 -0.105502 1.2067
-0.34618 -0.10457 1.2087
-0.346795 -0.103859 1.21407
-0.347161 -0.103088 1.2187
-0.347929 -0.102389 1.22461
-0.349326 -0.101804 1.23254
-0.350785 -0.101217 1.24073
-0.350864 -0.10035 1.24462
-0.350939 -0.0994768 1.24852
-0.350448 -0.098491 1.25065
-0.349269 -0.0973777 1.2506
-0.348187 -0.0962821 1.25085
-0.347194 -0.0952034 1.25139
-0.346237 -0.0941306 1.25204
-0.345366 -0.0930725 1.25298
-0.344611 -0.0920326 1.25429
-0.343868 -0.0909928 1.25565
-0.343122 -0.0899518 1.25701
-0.461227 -0.22403 1.16079
-0.4595 -0.222638 1.15973
-0.458012 -0.221356 1.15917
-0.456399 -0.220019 1.15834
-0.454661 -0.218629 1.15724
-0.453077 -0.217309 1.15645
-0.451338 -0.215924 1.15533
-0.449354 -0.214433 1.15367
-0.447121 -0.212837 1.15148
-0.444788 -0.211201 1.14906
-0.442437 -0.209562 1.14658
-0.4404 -0.208063 1.14476
-0.438449 -0.206604 1.1431
-0.436693 -0.205233 1.14185
-0.43512 -0.203944 1.14099
-0.433625 -0.202689 1.14028
-0.432114 -0.20143 1.13953
-0.430709 -0.200216 1.13901
-0.429271 -0.198991 1.1384
-0.427799 -0.197753 1.13771
-0.426324 -0.196516 1.13702
-0.424824 -0.195271 1.13625
-0.423361 -0.194043 1.13556
-0.421935 -0.192832 1.13495
-0.420585 -0.191653 1.13449
-0.419243 -0.190481 1.13405
-0.41791 -0.189312 1.13363
-0.416572 -0.188143 1.13318
-0.415168 -0.18695 1.13258
-0.413761 -0.185757 1.13197
-0.412396 -0.184581 1.13144
-0.411135 -0.18345 1.13115
-0.409892 -0.182326 1.13089
-0.408743 -0.181242 1.13084
-0.407655 -0.180181 1.13093
-0.406575 -0.179125 1.13104
-0.405533 -0.178084 1.13123
-0.404529 -0.177058 1.1315
-0.403586 -0.176057 1.13192
-0.402618 -0.175045 1.13228
-0.401614 -0.17402 1.13255
-0.400572 -0.172981 1.13273
-0.399492 -0.171928 1.13282
-0.398384 -0.170866 1.13284
-0.397222 -0.169783 1.13273
-0.396061 -0.168703 1.13262
-0.394923 -0.167632 1.13255
-0.393789 -0.166563 1.1325
-0.39266 -0.165497 1.13245
-0.391593 -0.164455 1.13255
-0.390587 -0.163435 1.1328
-0.38956 -0.162407 1.13298
-0.388593 -0.161403 1.13332
-0.387688 -0.160419 1.13381
-0.386818 -0.15945 1.13438
-0.385954 -0.158481 1.13497
-0.385056 -0.157501 1.13547
-0.384205 -0.156537 1.1361
-0.3833 -0.155554 1.13658
-0.382283 -0.154532 1.13679
-0.381257 -0.153508 1.13697
-0.380246 -0.15249 1.13719
-0.379157 -0.151446 1.13721
-0.378108 -0.150415 1.13732
-0.377175 -0.149425 1.13774
-0.376249 -0.148437 1.13816
-0.375352 -0.147458 1.13866
-0.374479 -0.146487 1.13923
-0.373608 -0.145517 1.1398
-0.372796 -0.144565 1.14052
-0.371964 -0.143607 1.14119
-0.371155 -0.142656 1.14193
-0.37037 -0.141711 1.14272
-0.369611 -0.140775 1.14359
-0.36875 -0.139806 1.1442
-0.367967 -0.138861 1.14501
-0.367148 -0.137904 1.14572
-0.366305 -0.13694 1.14638
-0.365545 -0.136 1.14725
-0.364846 -0.135078 1.1483
-0.364155 -0.134157 1.14937
-0.363485 -0.133241 1.1505
-0.36286 -0.132338 1.15175
-0.362183 -0.131418 1.15288
-0.361513 -0.130499 1.15402
-0.360839 -0.129577 1.15516
-0.360107 -0.128639 1.15614
-0.359504 -0.127735 1.15749
-0.358859 -0.126817 1.15872
-0.358223 -0.125902 1.15999
-0.357551 -0.124975 1.16116
-0.35694 -0.124063 1.1625
-0.356197 -0.123115 1.16348
-0.355516 -0.122181 1.16464
-0.354914 -0.121268 1.16603
-0.354345 -0.120361 1.16752
-0.353692 -0.119431 1.16878
-0.353137 -0.118524 1.17032
-0.352686 -0.117642 1.17217
-0.352183 -0.116744 1.17388
-0.351711 -0.115851 1.17569
-0.351347 -0.114982 1.17783
-0.350926 -0.114096 1.17981
-0.35038 -0.113178 1.18144
-0.349991 -0.112295 1.18354
-0.349604 -0.111408 1.18565
-0.34925 -0.110527 1.18788
-0.348951 -0.109655 1.19028
-0.348731 -0.108796 1.19294
-0.348465 -0.107923 1.19547
-0.348241 -0.107056 1.19815
-0.348067 -0.106195 1.20099
-0.347843 -0.10532 1.20371
-0.34757 -0.104429 1.20629
-0.347691 -0.103616 1.2101
-0.348965 -0.103029 1.21748
-0.350035 -0.102388 1.22429
-0.351502 -0.101812 1.23238
-0.353043 -0.101237 1.24077
-0.353878 -0.10051 1.247
-0.353326 -0.0995149 1.24892
-0.352826 -0.0985251 1.25102
-0.351852 -0.097448 1.25163
-0.350584 -0.0963173 1.2513
-0.349437 -0.0952097 1.25135
-0.348413 -0.0941249 1.25179
-0.34745 -0.0930504 1.25243
-0.346601 -0.0919936 1.25343
-0.34585 -0.0909527 1.25476
-0.345106 -0.0899101 1.25612
-0.344365 -0.0888672 1.2575
-0.460383 -0.221537 1.15916
-0.458828 -0.220228 1.15846
-0.457267 -0.218917 1.15774
-0.455666 -0.21759 1.15693
-0.454223 -0.216334 1.15644
-0.45268 -0.215037 1.15574
-0.450896 -0.213635 1.15451
-0.448829 -0.212115 1.15269
-0.446535 -0.2105 1.15036
-0.444174 -0.208861 1.14788
-0.442014 -0.207312 1.1458
-0.439968 -0.205816 1.14396
-0.438094 -0.204397 1.14246
-0.436478 -0.20309 1.14151
-0.434944 -0.20182 1.14073
-0.433454 -0.200572 1.14003
-0.432006 -0.199342 1.13942
-0.430561 -0.198114 1.1388
-0.429081 -0.196875 1.13811
-0.427609 -0.19564 1.13742
-0.426073 -0.194382 1.13659
-0.424605 -0.193153 1.13589
-0.423139 -0.191927 1.1352
-0.421681 -0.190706 1.13451
-0.4203 -0.189518 1.13398
-0.418923 -0.188333 1.13346
-0.417555 -0.187154 1.13296
-0.416152 -0.185962 1.13236
-0.41478 -0.184785 1.13183
-0.413379 -0.183596 1.13123
-0.412112 -0.182463 1.13093
-0.410864 -0.181339 1.13066
-0.409717 -0.180256 1.13062
-0.408635 -0.179198 1.13072
-0.407582 -0.178153 1.13089
-0.406536 -0.177111 1.13108
-0.405527 -0.176083 1.13134
-0.40455 -0.175068 1.13168
-0.403576 -0.174055 1.13203
-0.402575 -0.17303 1.13231
-0.401537 -0.171994 1.1325
-0.400463 -0.170944 1.13261
-0.399381 -0.169891 1.13269
-0.398216 -0.168809 1.13258
-0.397079 -0.167738 1.13252
-0.39597 -0.166677 1.13253
-0.394868 -0.165621 1.13256
-0.393774 -0.164567 1.1326
-0.39274 -0.163537 1.13278
-0.391707 -0.162508 1.13296
-0.390674 -0.161479 1.13314
-0.389732 -0.160482 1.13354
-0.388829 -0.159499 1.13403
-0.387963 -0.15853 1.13462
-0.387129 -0.157571 1.13529
-0.38623 -0.156589 1.13579
-0.38535 -0.155615 1.13634
-0.384442 -0.154629 1.13682
-0.383428 -0.153609 1.13704
-0.382404 -0.152585 1.13724
-0.381395 -0.151568 1.13746
-0.380277 -0.150514 1.13741
-0.37922 -0.149481 1.13751
-0.37828 -0.148488 1.13791
-0.377328 -0.147491 1.13827
-0.376403 -0.146502 1.13871
-0.375556 -0.145539 1.13933
-0.374683 -0.144567 1.1399
-0.373874 -0.143616 1.14063
-0.37307 -0.142666 1.14138
-0.37229 -0.141723 1.14219
-0.371528 -0.140784 1.14305
-0.370769 -0.139846 1.14392
-0.369935 -0.138884 1.1446
-0.369149 -0.137937 1.1454
-0.368329 -0.13698 1.14612
-0.367455 -0.136004 1.14669
-0.366665 -0.135054 1.14749
-0.365938 -0.134123 1.14846
-0.365218 -0.133192 1.14945
-0.36452 -0.132267 1.15051
-0.363868 -0.131354 1.15169
-0.363191 -0.130432 1.15281
-0.362496 -0.129504 1.15389
-0.361848 -0.128588 1.1551
-0.361142 -0.127656 1.15615
-0.360565 -0.126757 1.15757
-0.35995 -0.125847 1.15889
-0.359345 -0.124937 1.16024
-0.358675 -0.124009 1.16141
-0.358042 -0.123089 1.1627
-0.357296 -0.122139 1.16367
-0.356612 -0.121204 1.16482
-0.355986 -0.120282 1.16614
-0.355417 -0.119373 1.16763
-0.35479 -0.118448 1.16896
-0.354241 -0.11754 1.17052
-0.353773 -0.116651 1.17232
-0.353298 -0.115757 1.17411
-0.352819 -0.114859 1.1759
-0.352456 -0.113988 1.17804
-0.352063 -0.113106 1.1801
-0.351551 -0.112193 1.18182
-0.351168 -0.111308 1.18394
-0.350808 -0.110424 1.18613
-0.350506 -0.109551 1.18851
-0.350215 -0.108676 1.19093
-0.350001 -0.107815 1.1936
-0.34973 -0.106937 1.19612
-0.349479 -0.106059 1.19871
-0.349198 -0.105172 1.20123
-0.34889 -0.104275 1.20369
-0.348527 -0.103363 1.20598
-0.349212 -0.102657 1.2115
-0.351096 -0.102178 1.22074
-0.352831 -0.101654 1.22959
-0.354851 -0.101168 1.23939
-0.356504 -0.100595 1.24812
-0.356744 -0.0997423 1.25251
-0.355628 -0.0986358 1.25269
-0.354631 -0.0975511 1.25324
-0.353225 -0.0963941 1.25249
-0.351893 -0.0952528 1.25197
-0.350715 -0.0941391 1.25193
-0.34966 -0.093048 1.25227
-0.348669 -0.091967 1.25282
-0.347792 -0.0909045 1.25374
-0.347006 -0.0898555 1.25496
-0.346284 -0.0888158 1.25639
-0.345595 -0.0877783 1.25794
-0.458159 -0.217824 1.15719
-0.456699 -0.216562 1.15668
-0.455337 -0.215343 1.15636
-0.45395 -0.214115 1.15599
-0.452352 -0.212797 1.15517
-0.450485 -0.211366 1.15377
-0.448319 -0.209809 1.15173
-0.446035 -0.208206 1.14942
-0.443786 -0.206623 1.14717
-0.441601 -0.205071 1.14504
-0.4396 -0.203601 1.14329
-0.437869 -0.202247 1.1421
-0.436258 -0.200947 1.14116
-0.43476 -0.199696 1.14045
-0.43327 -0.198449 1.13975
-0.431783 -0.197207 1.13906
-0.430299 -0.195967 1.13836
-0.428852 -0.194744 1.13773
-0.427313 -0.193486 1.1369
-0.42581 -0.192244 1.13613
-0.424307 -0.191004 1.13536
-0.422806 -0.189768 1.13458
-0.421383 -0.188564 1.13397
-0.419971 -0.187367 1.13338
-0.418632 -0.1862 1.13294
-0.417258 -0.185021 1.13242
-0.415889 -0.183846 1.1319
-0.414455 -0.182647 1.13123
-0.413186 -0.181515 1.13092
-0.4119 -0.180376 1.13057
-0.410723 -0.179282 1.13047
-0.409643 -0.178225 1.13058
-0.408596 -0.177183 1.13076
-0.407553 -0.176141 1.13096
-0.406507 -0.1751 1.13114
-0.405492 -0.17407 1.13139
-0.40448 -0.173042 1.13165
-0.403474 -0.172017 1.13192
-0.402441 -0.170983 1.13212
-0.4014 -0.169945 1.13231
-0.400352 -0.168906 1.13248
-0.399243 -0.167845 1.1325
-0.398136 -0.166785 1.13252
-0.397061 -0.165738 1.13262
-0.39602 -0.164703 1.13279
-0.394988 -0.163672 1.13298
-0.39396 -0.162644 1.13318
-0.392929 -0.161615 1.13337
-0.391895 -0.160584 1.13355
-0.390921 -0.159576 1.13388
-0.389988 -0.158582 1.1343
-0.389122 -0.157612 1.13489
-0.388286 -0.156651 1.13555
-0.387385 -0.155668 1.13605
-0.386503 -0.154692 1.13661
-0.385595 -0.153707 1.13709
-0.384579 -0.152685 1.13731
-0.383556 -0.151662 1.1375
-0.38255 -0.150645 1.13774
-0.381429 -0.14959 1.13769
-0.380366 -0.148556 1.13778
-0.379426 -0.147562 1.13818
-0.378467 -0.146562 1.13853
-0.377539 -0.145572 1.13896
-0.37669 -0.144607 1.13958
-0.375814 -0.143634 1.14015
-0.375004 -0.142681 1.14088
-0.374226 -0.141738 1.14169
-0.373448 -0.140794 1.14251
-0.372691 -0.139855 1.14338
-0.371931 -0.138916 1.14426
-0.371094 -0.137952 1.14492
-0.370279 -0.136995 1.14566
-0.369459 -0.136036 1.14637
-0.36858 -0.135059 1.14694
-0.367788 -0.134107 1.14773
-0.367057 -0.133173 1.14869
-0.36631 -0.132233 1.14961
-0.365586 -0.131298 1.1506
-0.364931 -0.130383 1.15178
-0.364233 -0.129454 1.15284
-0.363537 -0.128524 1.15391
-0.362869 -0.127602 1.15507
-0.362187 -0.126675 1.15619
-0.361615 -0.125775 1.15762
-0.361002 -0.124864 1.15894
-0.360372 -0.123945 1.16022
-0.359723 -0.123022 1.16145
-0.35908 -0.122097 1.16271
-0.358311 -0.121139 1.16362
-0.357654 -0.120209 1.16484
-0.357061 -0.119294 1.16625
-0.356519 -0.11839 1.16782
-0.3559 -0.117464 1.16917
-0.355374 -0.11656 1.1708
-0.354855 -0.115656 1.17245
-0.354377 -0.114759 1.17423
-0.353925 -0.113866 1.1761
-0.353568 -0.112992 1.17825
-0.353182 -0.112109 1.18033
-0.352726 -0.111206 1.18221
-0.352345 -0.110318 1.18433
-0.351963 -0.109426 1.18646
-0.351691 -0.108556 1.18892
-0.351401 -0.107678 1.19134
-0.351191 -0.106813 1.19402
-0.350922 -0.105932 1.19654
-0.350668 -0.10505 1.19912
-0.350308 -0.104142 1.2014
-0.349947 -0.10323 1.20368
-0.349578 -0.102314 1.20596
-0.350876 -0.101721 1.21333
-0.353364 -0.101344 1.2244
-0.355811 -0.100939 1.23542
-0.357853 -0.100437 1.24528
-0.359443 -0.0998337 1.25381
-0.359037 -0.098853 1.2562
-0.35738 -0.0976463 1.25471
-0.355872 -0.0964698 1.25366
-0.354431 -0.0953071 1.25281
-0.353058 -0.0941595 1.25217
-0.351873 -0.0930456 1.25211
-0.350819 -0.0919536 1.25247
-0.349859 -0.0908773 1.25312
-0.349014 -0.0898179 1.25415
-0.348279 -0.0887747 1.25553
-0.347585 -0.0877363 1.25705
-0.346926 -0.0867008 1.25869
-0.459068 -0.21674 1.15668
-0.457725 -0.21553 1.15641
-0.456403 -0.214329 1.15618
-0.455114 -0.213145 1.15602
-0.45363 -0.211878 1.15544
-0.451924 -0.210518 1.15439
-0.449951 -0.209047 1.15276
-0.44778 -0.207496 1.15071
-0.445521 -0.205912 1.14846
-0.443275 -0.204337 1.14621
-0.441138 -0.202812 1.14418
-0.439283 -0.201409 1.14273
-0.437597 -0.200079 1.14164
-0.436029 -0.1988 1.14079
-0.434498 -0.197539 1.14001
-0.433006 -0.196296 1.13931
-0.431451 -0.195029 1.13846
-0.429998 -0.193805 1.13782
-0.42849 -0.192561 1.13706
-0.426951 -0.191306 1.13622
-0.42541 -0.190053 1.13537
-0.423904 -0.188817 1.13459
-0.422441 -0.187598 1.1339
-0.420995 -0.186389 1.13323
-0.419685 -0.185236 1.13286
-0.418314 -0.184059 1.13235
-0.416975 -0.182897 1.13191
-0.41554 -0.181699 1.13124
-0.414267 -0.180566 1.13093
-0.412975 -0.179426 1.13057
-0.411795 -0.178332 1.13046
-0.410684 -0.177264 1.13051
-0.409638 -0.176221 1.13069
-0.408594 -0.17518 1.13089
-0.407521 -0.174128 1.13101
-0.406502 -0.173097 1.13126
-0.40548 -0.172066 1.13149
-0.404469 -0.171039 1.13175
-0.403433 -0.170004 1.13196
-0.402397 -0.168967 1.13215
-0.401351 -0.16793 1.13233
-0.400275 -0.166881 1.13243
-0.399205 -0.165835 1.13254
-0.398168 -0.164801 1.13273
-0.397193 -0.16379 1.13306
-0.396223 -0.162782 1.13341
-0.395226 -0.161763 1.13369
-0.394223 -0.160743 1.13395
-0.393213 -0.159722 1.13419
-0.392234 -0.158711 1.13451
-0.391298 -0.157715 1.13493
-0.390403 -0.156733 1.13545
-0.389533 -0.155761 1.13603
-0.388598 -0.154765 1.13646
-0.387684 -0.153777 1.13693
-0.386773 -0.152789 1.13741
-0.385786 -0.151777 1.1377
-0.38479 -0.150763 1.13797
-0.383807 -0.149753 1.13827
-0.382685 -0.148698 1.13822
-0.381595 -0.147654 1.13825
-0.380623 -0.146649 1.13857
-0.379636 -0.145639 1.13885
-0.378677 -0.14464 1.13921
-0.377849 -0.143681 1.13989
-0.376975 -0.142707 1.14046
-0.376166 -0.141753 1.1412
-0.375388 -0.140808 1.14201
-0.374607 -0.139863 1.14283
-0.373823 -0.138915 1.14363
-0.373039 -0.137967 1.14444
-0.372203 -0.137002 1.14512
-0.371386 -0.136044 1.14584
-0.370538 -0.135076 1.14649
-0.36966 -0.134098 1.14706
-0.368865 -0.133144 1.14785
-0.368106 -0.132201 1.14873
-0.367329 -0.131251 1.14958
-0.366631 -0.130323 1.15063
-0.365978 -0.129406 1.15181
-0.365306 -0.128483 1.15294
-0.364639 -0.12756 1.1541
-0.363972 -0.126636 1.15526
-0.363267 -0.1257 1.15631
-0.362696 -0.1248 1.15774
-0.362084 -0.123886 1.15907
-0.361449 -0.122966 1.16034
-0.360824 -0.122046 1.16164
-0.360179 -0.121119 1.16289
-0.359406 -0.120159 1.16378
-0.35875 -0.119227 1.16501
-0.358189 -0.118318 1.16652
-0.357685 -0.117421 1.16819
-0.357146 -0.116513 1.16977
-0.35665 -0.115613 1.17148
-0.356126 -0.114704 1.17312
-0.355611 -0.113795 1.17479
-0.355132 -0.112893 1.17658
-0.354758 -0.112012 1.17867
-0.354359 -0.111122 1.18071
-0.353932 -0.110223 1.18268
-0.35355 -0.109331 1.1848
-0.353164 -0.108435 1.18691
-0.352895 -0.107562 1.18938
-0.352585 -0.106676 1.19174
-0.352327 -0.105797 1.19427
-0.35208 -0.104916 1.19685
-0.351831 -0.104031 1.19944
-0.351422 -0.10311 1.20157
-0.35114 -0.102211 1.20409
-0.350824 -0.101302 1.20653
-0.352674 -0.100803 1.21555
-0.357625 -0.0999884 1.23763
-0.359557 -0.0994502 1.24713
-0.361071 -0.0988194 1.25541
-0.36015 -0.097743 1.25621
-0.358585 -0.0965546 1.25501
-0.357077 -0.095379 1.25397
-0.355655 -0.0942216 1.25319
-0.354274 -0.0930727 1.25253
-0.353057 -0.0919533 1.25238
-0.352031 -0.0908655 1.25283
-0.351107 -0.0897934 1.2536
-0.35027 -0.088734 1.25465
-0.349484 -0.0876814 1.25587
-0.348815 -0.0866442 1.25747
-0.348162 -0.0856067 1.25914
-0.348654 -0.0860028 1.26814
-0.347432 -0.0845561 1.26056
-0.458752 -0.214497 1.15615
-0.457575 -0.213359 1.15622
-0.45632 -0.21219 1.15613
-0.454872 -0.210941 1.15563
-0.453274 -0.209628 1.15481
-0.451422 -0.208211 1.15345
-0.449367 -0.206712 1.15166
-0.447141 -0.205146 1.14948
-0.444878 -0.203567 1.14721
-0.442647 -0.202007 1.14499
-0.440674 -0.200558 1.14331
-0.438939 -0.19921 1.14212
-0.43733 -0.197916 1.14119
-0.435764 -0.196641 1.14034
-0.434232 -0.195383 1.13956
-0.432668 -0.194115 1.1387
-0.431149 -0.192866 1.13792
-0.429603 -0.191608 1.13709
-0.428062 -0.190355 1.13625
-0.426516 -0.189102 1.13539
-0.424972 -0.187852 1.13453
-0.423504 -0.186633 1.13383
-0.422091 -0.185438 1.13325
-0.420753 -0.184275 1.13282
-0.419414 -0.183113 1.13239
-0.418135 -0.181975 1.13208
-0.416731 -0.18079 1.13148
-0.415456 -0.179657 1.13117
-0.414194 -0.17853 1.13089
-0.413006 -0.177432 1.13077
-0.411855 -0.176349 1.13072
-0.410772 -0.175293 1.13083
-0.409693 -0.174239 1.13095
-0.408588 -0.173175 1.131
-0.40754 -0.172133 1.13118
-0.40649 -0.171092 1.13136
-0.405474 -0.170063 1.13161
-0.404464 -0.169037 1.13187
-0.403457 -0.168012 1.13214
-0.402446 -0.166986 1.1324
-0.401436 -0.165961 1.13266
-0.400432 -0.164939 1.13293
-0.399432 -0.163918 1.13321
-0.398492 -0.162919 1.13363
-0.397523 -0.16191 1.13398
-0.396523 -0.16089 1.13426
-0.395516 -0.159868 1.13452
-0.394503 -0.158844 1.13476
-0.393526 -0.157834 1.13509
-0.392587 -0.156837 1.1355
-0.391655 -0.155841 1.13594
-0.390719 -0.154845 1.13636
-0.389747 -0.153836 1.1367
-0.3888 -0.152838 1.13709
-0.387892 -0.15185 1.13758
-0.386904 -0.150838 1.13788
-0.385935 -0.149831 1.13822
-0.384951 -0.148821 1.13852
-0.383856 -0.147774 1.13854
-0.382766 -0.146731 1.13857
-0.381796 -0.145726 1.1389
-0.380803 -0.144715 1.13917
-0.37984 -0.143712 1.13952
-0.378989 -0.142745 1.14015
-0.378118 -0.141771 1.14072
-0.377279 -0.140807 1.14138
-0.376524 -0.139869 1.14226
-0.375743 -0.138922 1.14308
-0.374961 -0.137974 1.14389
-0.374176 -0.137024 1.1447
-0.373361 -0.136065 1.14543
-0.372517 -0.135097 1.14609
-0.371669 -0.134128 1.14674
-0.370793 -0.13315 1.14731
-0.369971 -0.132188 1.14803
-0.369185 -0.131235 1.14885
-0.368379 -0.130276 1.14961
-0.367701 -0.129352 1.15072
-0.367054 -0.128435 1.15192
-0.366412 -0.127519 1.15314
-0.365777 -0.126603 1.15437
-0.36513 -0.125683 1.15559
-0.364425 -0.124745 1.15665
-0.363823 -0.123834 1.15799
-0.363185 -0.122912 1.15924
-0.362523 -0.121982 1.16044
-0.361871 -0.121053 1.16166
-0.361176 -0.120113 1.16277
-0.360455 -0.119165 1.16382
-0.35986 -0.118246 1.16522
-0.359356 -0.117349 1.16688
-0.358915 -0.116464 1.16873
-0.358437 -0.115568 1.17048
-0.357916 -0.114659 1.17212
-0.357388 -0.113747 1.17375
-0.35687 -0.112834 1.17541
-0.356388 -0.111928 1.17719
-0.355994 -0.111039 1.17923
-0.355595 -0.110146 1.18127
-0.355137 -0.109237 1.18315
-0.354752 -0.108342 1.18525
-0.354368 -0.107443 1.18736
-0.354103 -0.106566 1.18984
-0.353794 -0.105676 1.1922
-0.353533 -0.104793 1.19472
-0.353261 -0.103903 1.19723
-0.352988 -0.103009 1.19974
-0.352583 -0.102086 1.20188
-0.352362 -0.101194 1.20458
-0.352086 -0.100289 1.20713
-0.353975 -0.0997842 1.21624
-0.358817 -0.0989173 1.23792
-0.360659 -0.0983499 1.24712
-0.362154 -0.0977034 1.25531
-0.361221 -0.096624 1.25607
-0.359748 -0.0954529 1.25517
-0.358272 -0.0942846 1.25424
-0.356878 -0.0931322 1.25356
-0.355468 -0.0919804 1.25281
-0.354248 -0.0908604 1.25265
-0.35325 -0.0897763 1.2532
-0.35236 -0.0887078 1.25408
-0.351558 -0.087652 1.25525
-0.350834 -0.0866054 1.25667
-0.350195 -0.0855695 1.25837
-0.349545 -0.0845295 1.26004
-0.348814 -0.0834761 1.26146
-0.349176 -0.0838365 1.27007
-0.348054 -0.0824176 1.2628
-0.459862 -0.213498 1.15605
-0.458655 -0.212349 1.15606
-0.457418 -0.211187 1.15601
-0.456032 -0.209965 1.15565
-0.45447 -0.20867 1.15491
-0.452692 -0.207287 1.15371
-0.450748 -0.205837 1.15216
-0.448569 -0.204294 1.15009
-0.446342 -0.202735 1.14791
-0.444139 -0.20119 1.14577
-0.442113 -0.199722 1.14398
-0.440298 -0.198343 1.14263
-0.438646 -0.197034 1.14161
-0.437035 -0.195743 1.14067
-0.435462 -0.19447 1.13981
-0.433895 -0.193202 1.13895
-0.432367 -0.191951 1.13816
-0.430816 -0.190693 1.13732
-0.429271 -0.18944 1.13648
-0.427721 -0.188187 1.13563
-0.426173 -0.186937 1.13477
-0.424671 -0.185706 1.13399
-0.423254 -0.184512 1.1334
-0.421914 -0.183348 1.13298
-0.420577 -0.182188 1.13255
-0.419301 -0.181052 1.13226
-0.41796 -0.179893 1.13181
-0.416721 -0.178774 1.13159
-0.41546 -0.177648 1.13131
-0.414268 -0.176548 1.13118
-0.413079 -0.175452 1.13106
-0.41195 -0.174379 1.13107
-0.41083 -0.173309 1.13109
-0.409719 -0.172244 1.13114
-0.408673 -0.171203 1.13133
-0.407659 -0.170174 1.13159
-0.406617 -0.169136 1.13178
-0.405576 -0.168098 1.13198
-0.404561 -0.16707 1.13223
-0.40355 -0.166045 1.13249
-0.402546 -0.165022 1.13277
-0.401605 -0.16402 1.13319
-0.400666 -0.163021 1.13362
-0.399757 -0.162032 1.13411
-0.398816 -0.161032 1.13453
-0.397812 -0.16001 1.1348
-0.396772 -0.158977 1.13499
-0.39573 -0.157943 1.13516
-0.394722 -0.156921 1.13542
-0.393755 -0.155913 1.13577
-0.392818 -0.154916 1.1362
-0.391874 -0.153917 1.13661
-0.390893 -0.152905 1.13692
-0.389942 -0.151904 1.13731
-0.389034 -0.150916 1.13781
-0.38802 -0.149895 1.13804
-0.387026 -0.148881 1.13832
-0.386041 -0.147869 1.13862
-0.384945 -0.146823 1.13864
-0.383856 -0.14578 1.13868
-0.382911 -0.144782 1.13908
-0.381944 -0.143778 1.13942
-0.380982 -0.142776 1.13977
-0.380131 -0.141808 1.1404
-0.37926 -0.140833 1.14098
-0.378423 -0.13987 1.14165
-0.377668 -0.13893 1.14253
-0.376885 -0.13798 1.14334
-0.376099 -0.13703 1.14414
-0.375311 -0.136078 1.14495
-0.374494 -0.135117 1.14567
-0.373648 -0.134148 1.14633
-0.3728 -0.133178 1.14698
-0.371926 -0.1322 1.14756
-0.371076 -0.131228 1.14821
-0.370261 -0.130266 1.14895
-0.369471 -0.129311 1.14976
-0.368796 -0.128386 1.15088
-0.368157 -0.12747 1.1521
-0.367525 -0.126554 1.15334
-0.36689 -0.125636 1.15458
-0.366186 -0.1247 1.15564
-0.365472 -0.123758 1.15667
-0.364816 -0.122831 1.15787
-0.364147 -0.1219 1.15904
-0.363512 -0.120975 1.1603
-0.362863 -0.120047 1.16154
-0.362201 -0.119113 1.16274
-0.361568 -0.118185 1.16402
-0.361058 -0.117284 1.16566
-0.360592 -0.116393 1.16743
-0.360208 -0.115519 1.16943
-0.359761 -0.114627 1.17127
-0.359249 -0.113717 1.17294
-0.358701 -0.112797 1.17451
-0.358179 -0.111882 1.17617
-0.357722 -0.110977 1.17802
-0.357295 -0.110077 1.17996
-0.356867 -0.109175 1.18191
-0.356403 -0.108261 1.18378
-0.355987 -0.107355 1.18578
-0.355581 -0.106449 1.18784
-0.355295 -0.105564 1.19025
-0.35496 -0.104665 1.19253
-0.354692 -0.103777 1.19503
-0.354443 -0.102887 1.19759
-0.354148 -0.101985 1.20004
-0.353807 -0.101071 1.20236
-0.353648 -0.100188 1.20525
-0.353414 -0.0992856 1.20792
-0.355202 -0.0987489 1.21671
-0.359858 -0.0978168 1.23775
-0.361656 -0.097229 1.24678
-0.363126 -0.0965675 1.25487
-0.362295 -0.0955048 1.25595
-0.360885 -0.094346 1.25524
-0.359473 -0.0931891 1.25452
-0.358143 -0.0920476 1.25405
-0.356791 -0.090905 1.25349
-0.3556 -0.0897896 1.25343
-0.354657 -0.0887113 1.25415
-0.353796 -0.087645 1.25513
-0.352999 -0.0865878 1.25632
-0.352276 -0.0855383 1.25775
-0.351605 -0.0844948 1.25935
-0.350889 -0.0834429 1.26081
-0.350098 -0.0823797 1.26204
-0.349253 -0.0813076 1.26311
-0.460953 -0.212489 1.15591
-0.459694 -0.21132 1.15582
-0.458465 -0.210163 1.15579
-0.457076 -0.20894 1.15542
-0.455586 -0.207676 1.15484
-0.453838 -0.206308 1.15371
-0.452004 -0.204908 1.15239
-0.449907 -0.203402 1.15051
-0.447765 -0.201881 1.14852
-0.445599 -0.200356 1.14646
-0.443567 -0.198888 1.14467
-0.44167 -0.197479 1.14316
-0.439966 -0.19615 1.14204
-0.438315 -0.194844 1.14102
-0.436701 -0.193557 1.14008
-0.435093 -0.192274 1.13913
-0.433556 -0.191021 1.13834
-0.432002 -0.189764 1.13749
-0.430449 -0.18851 1.13665
-0.428902 -0.187259 1.1358
-0.427388 -0.186025 1.13502
-0.42588 -0.184795 1.13424
-0.424455 -0.183598 1.13364
-0.423108 -0.182433 1.13321
-0.421802 -0.181285 1.13285
-0.420529 -0.18015 1.13257
-0.419227 -0.179007 1.13222
-0.418023 -0.177901 1.13208
-0.416765 -0.176777 1.13181
-0.415542 -0.175667 1.13162
-0.414346 -0.174567 1.13148
-0.413177 -0.173479 1.13141
-0.412019 -0.172396 1.13135
-0.4109 -0.171328 1.13138
-0.409851 -0.170286 1.13157
-0.40884 -0.169258 1.13184
-0.407798 -0.168219 1.13204
-0.406756 -0.167181 1.13223
-0.40574 -0.166153 1.13249
-0.404726 -0.165126 1.13274
-0.403719 -0.164102 1.13302
-0.402777 -0.1631 1.13344
-0.401837 -0.162099 1.13387
-0.400926 -0.161109 1.13436
-0.399984 -0.160107 1.13478
-0.398977 -0.159085 1.13505
-0.397931 -0.158049 1.13522
-0.396885 -0.157014 1.13539
-0.395846 -0.155982 1.13558
-0.394847 -0.154963 1.13586
-0.393878 -0.153955 1.13621
-0.392905 -0.152945 1.13655
-0.391925 -0.151934 1.13687
-0.390974 -0.150932 1.13726
-0.390066 -0.149944 1.13776
-0.389052 -0.148923 1.13799
-0.388052 -0.147907 1.13826
-0.387038 -0.146885 1.13849
-0.385969 -0.145848 1.13858
-0.384882 -0.144807 1.13863
-0.383941 -0.14381 1.13904
-0.383002 -0.142815 1.13945
-0.382066 -0.14182 1.13987
-0.381218 -0.140852 1.14051
-0.380374 -0.139885 1.14116
-0.379562 -0.138927 1.14189
-0.378808 -0.137986 1.14278
-0.378025 -0.137035 1.14359
-0.377215 -0.136076 1.14433
-0.376394 -0.135115 1.14505
-0.375548 -0.134145 1.14571
-0.374674 -0.133166 1.14629
-0.373798 -0.132188 1.14687
-0.372948 -0.131216 1.14752
-0.372125 -0.130251 1.14824
-0.371305 -0.129287 1.14897
-0.370542 -0.128338 1.14985
-0.369896 -0.127419 1.15104
-0.369262 -0.126503 1.15227
-0.368612 -0.12558 1.15347
-0.367997 -0.124666 1.15476
-0.367261 -0.123719 1.15574
-0.366517 -0.122769 1.15669
-0.365806 -0.121827 1.15774
-0.365133 -0.120893 1.15889
-0.364466 -0.119958 1.16007
-0.36387 -0.119041 1.16145
-0.3633 -0.118128 1.1629
-0.362765 -0.117222 1.16446
-0.362322 -0.116335 1.16628
-0.361916 -0.115455 1.16821
-0.361533 -0.114577 1.17022
-0.361085 -0.113682 1.17206
-0.360602 -0.112776 1.17381
-0.360088 -0.111861 1.17548
-0.359575 -0.110944 1.17716
-0.359117 -0.110036 1.17901
-0.358632 -0.10912 1.18079
-0.358143 -0.1082 1.18257
-0.357619 -0.107271 1.18426
-0.357204 -0.106362 1.18627
-0.356776 -0.105447 1.18825
-0.356441 -0.104549 1.19052
-0.356076 -0.103641 1.19271
-0.355799 -0.102747 1.19518
-0.355528 -0.101851 1.19767
-0.355214 -0.100941 1.20006
-0.35487 -0.100023 1.20237
-0.354714 -0.0991359 1.20525
-0.354502 -0.098234 1.20799
-0.35657 -0.0977356 1.21759
-0.359253 -0.0973256 1.22911
-0.361489 -0.0968171 1.23937
-0.3631 -0.0961831 1.2478
-0.364197 -0.095447 1.25473
-0.363449 -0.0943964 1.25606
-0.362127 -0.093253 1.25564
-0.360776 -0.0921068 1.25511
-0.359509 -0.0909756 1.25484
-0.358223 -0.0898429 1.2545
-0.357063 -0.0887308 1.25455
-0.356119 -0.0876512 1.25527
-0.355255 -0.0865822 1.25625
-0.354427 -0.0855174 1.25734
-0.353672 -0.084461 1.25867
-0.352939 -0.0834058 1.26008
-0.352157 -0.0823427 1.26133
-0.351345 -0.0812752 1.26249
-0.350465 -0.0801973 1.26345
-0.350789 -0.0805254 1.27192
-0.349459 -0.0791034 1.26399
-0.460541 -0.210208 1.15518
-0.459346 -0.209067 1.15522
-0.457968 -0.20785 1.15488
-0.456552 -0.206619 1.15445
-0.454872 -0.205283 1.15347
-0.453149 -0.20393 1.15239
-0.451166 -0.202474 1.15076
-0.449144 -0.201006 1.14903
-0.447056 -0.199515 1.14715
-0.445056 -0.198063 1.14543
-0.443112 -0.196638 1.14383
-0.441327 -0.195279 1.14255
-0.43966 -0.193969 1.1415
-0.438007 -0.192668 1.14048
-0.436365 -0.191373 1.13948
-0.434791 -0.190108 1.1386
-0.433222 -0.188847 1.13774
-0.431638 -0.187581 1.13683
-0.430091 -0.186333 1.13599
-0.428576 -0.1851 1.13521
-0.427068 -0.183871 1.13444
-0.425633 -0.182672 1.13383
-0.424245 -0.181492 1.1333
-0.422934 -0.180343 1.13294
-0.421694 -0.179223 1.13274
-0.420426 -0.178093 1.13247
-0.419227 -0.176989 1.13234
-0.41803 -0.175888 1.13222
-0.416837 -0.174789 1.1321
-0.415609 -0.173678 1.1319
-0.414442 -0.172591 1.13183
-0.413277 -0.171505 1.13176
-0.412158 -0.170437 1.13179
-0.411108 -0.169394 1.13198
-0.410094 -0.168365 1.13225
-0.409049 -0.167325 1.13245
-0.408 -0.166285 1.13263
-0.406948 -0.165243 1.13281
-0.405872 -0.164194 1.13292
-0.404828 -0.163156 1.13311
-0.403848 -0.162142 1.13345
-0.402874 -0.161129 1.1338
-0.401934 -0.160128 1.13423
-0.400991 -0.159127 1.13465
-0.400013 -0.158114 1.13499
-0.398998 -0.157088 1.13524
-0.397978 -0.156061 1.13547
-0.396934 -0.155028 1.13565
-0.395928 -0.154006 1.13591
-0.394927 -0.152987 1.13619
-0.393926 -0.151969 1.13646
-0.392922 -0.15095 1.13673
-0.391978 -0.14995 1.13714
-0.39107 -0.148962 1.13763
-0.390048 -0.147938 1.13785
-0.389041 -0.14692 1.1381
-0.388049 -0.145906 1.13839
-0.387009 -0.144878 1.13856
-0.385956 -0.143847 1.13869
-0.385021 -0.142851 1.13912
-0.384082 -0.141855 1.13953
-0.383117 -0.140852 1.13988
-0.382266 -0.139882 1.14051
-0.381424 -0.138914 1.14117
-0.380643 -0.137965 1.14199
-0.379891 -0.137023 1.14287
-0.37911 -0.136072 1.14369
-0.378294 -0.135111 1.14443
-0.377476 -0.134148 1.14515
-0.376628 -0.133178 1.14581
-0.375752 -0.132198 1.14639
-0.374872 -0.131218 1.14696
-0.374018 -0.130243 1.14759
-0.373168 -0.129271 1.14825
-0.372323 -0.128299 1.14891
-0.371592 -0.127357 1.14988
-0.371003 -0.126452 1.15122
-0.370378 -0.125537 1.15248
-0.369748 -0.124618 1.15373
-0.369128 -0.1237 1.15501
-0.368385 -0.122749 1.15596
-0.367588 -0.121785 1.15677
-0.36685 -0.120834 1.15775
-0.366175 -0.119898 1.1589
-0.365529 -0.118968 1.16013
-0.364965 -0.118056 1.16159
-0.364461 -0.117157 1.16323
-0.363996 -0.116264 1.16498
-0.363595 -0.115385 1.16692
-0.36319 -0.114502 1.16885
-0.362799 -0.113619 1.17083
-0.362375 -0.112726 1.17274
-0.36192 -0.111823 1.17457
-0.361443 -0.110912 1.17634
-0.360963 -0.109999 1.17812
-0.360477 -0.109082 1.17989
-0.359964 -0.108157 1.18159
-0.35942 -0.107223 1.18321
-0.358867 -0.106284 1.18482
-0.358451 -0.105372 1.18682
-0.358023 -0.104455 1.18881
-0.357606 -0.103537 1.19084
-0.357206 -0.102618 1.19292
-0.356902 -0.101715 1.19531
-0.356607 -0.10081 1.19773
-0.356223 -0.0998847 1.1999
-0.355937 -0.0989747 1.20238
-0.355784 -0.098084 1.20527
-0.356364 -0.0973183 1.21036
-0.358227 -0.0967678 1.21932
-0.361226 -0.0963947 1.23176
-0.363772 -0.0959213 1.24293
-0.364936 -0.0951973 1.24999
-0.365476 -0.094359 1.25522
-0.364827 -0.0933223 1.25685
-0.363475 -0.0921736 1.25634
-0.362126 -0.0910277 1.25584
-0.360919 -0.0899057 1.25576
-0.359694 -0.0887817 1.25562
-0.358541 -0.0876696 1.2557
-0.357598 -0.0865883 1.25643
-0.356696 -0.0855108 1.25729
-0.355829 -0.0844384 1.25827
-0.355013 -0.0833722 1.2594
-0.354217 -0.0823062 1.26061
-0.353365 -0.0812327 1.26165
-0.352516 -0.0801577 1.26269
-0.351576 -0.0790722 1.26345
-0.350595 -0.0779801 1.26408
-0.350805 -0.078279 1.27219
-0.349527 -0.0768803 1.26443
-0.460239 -0.207977 1.15468
-0.458854 -0.206758 1.15432
-0.4575 -0.205555 1.15403
-0.455872 -0.204241 1.15316
-0.454228 -0.202924 1.15225
-0.452321 -0.201502 1.15078
-0.45045 -0.200097 1.14938
-0.448435 -0.198639 1.14766
-0.44647 -0.197204 1.14603
-0.444516 -0.195778 1.14441
-0.442717 -0.194415 1.14311
-0.441008 -0.193092 1.14199
-0.439358 -0.191793 1.14098
-0.437744 -0.190511 1.14004
-0.436164 -0.189245 1.13917
-0.434556 -0.18797 1.13822
-0.432961 -0.186703 1.1373
-0.431409 -0.185454 1.13645
-0.429899 -0.184223 1.13569
-0.428387 -0.182994 1.13492
-0.426977 -0.181806 1.13437
-0.425554 -0.180614 1.13377
-0.424203 -0.179451 1.13333
-0.422925 -0.178316 1.13305
-0.421685 -0.177197 1.13284
-0.420482 -0.176093 1.13272
-0.419287 -0.174992 1.1326
-0.418123 -0.173905 1.13255
-0.416925 -0.172805 1.13242
-0.415761 -0.171719 1.13237
-0.414573 -0.170625 1.13225
-0.413454 -0.169556 1.13229
-0.412369 -0.168501 1.1324
-0.411315 -0.167458 1.13258
-0.410264 -0.166415 1.13277
-0.409213 -0.165373 1.13295
-0.40816 -0.164332 1.13313
-0.407077 -0.16328 1.13323
-0.406021 -0.162239 1.1334
-0.404975 -0.1612 1.13359
-0.403963 -0.160175 1.13385
-0.402987 -0.159161 1.1342
-0.402014 -0.15815 1.13455
-0.401011 -0.157128 1.13483
-0.400001 -0.156104 1.13509
-0.398985 -0.15508 1.13534
-0.397939 -0.154045 1.13551
-0.396898 -0.153013 1.1357
-0.395888 -0.151991 1.13595
-0.394884 -0.150972 1.13622
-0.393911 -0.149962 1.13656
-0.392973 -0.148964 1.13699
-0.392093 -0.147985 1.13756
-0.391068 -0.14696 1.13777
-0.390056 -0.145939 1.13801
-0.389034 -0.144917 1.13823
-0.388025 -0.143898 1.13847
-0.387005 -0.142876 1.13869
-0.3861 -0.14189 1.13919
-0.38519 -0.140902 1.13968
-0.384247 -0.139905 1.14009
-0.383368 -0.138926 1.14065
-0.382498 -0.13795 1.14124
-0.381694 -0.136993 1.142
-0.380942 -0.13605 1.14289
-0.380159 -0.135097 1.1437
-0.379372 -0.134143 1.14451
-0.378583 -0.133188 1.14531
-0.377763 -0.132223 1.14604
-0.376858 -0.131235 1.14655
-0.375973 -0.130253 1.14711
-0.375088 -0.12927 1.14767
-0.37424 -0.128296 1.14832
-0.373402 -0.127326 1.14901
-0.372731 -0.126399 1.15013
-0.372149 -0.125494 1.1515
-0.371522 -0.124575 1.15275
-0.370861 -0.123646 1.15391
-0.370208 -0.122718 1.1551
-0.369409 -0.121753 1.15591
-0.368614 -0.120788 1.15673
-0.36785 -0.119829 1.15764
-0.367173 -0.118891 1.15878
-0.366553 -0.117966 1.16008
-0.366052 -0.117067 1.16172
-0.365589 -0.116175 1.16346
-0.365189 -0.115296 1.16539
-0.364813 -0.114418 1.16739
-0.364399 -0.11353 1.1693
-0.363978 -0.112637 1.1712
-0.363553 -0.111741 1.1731
-0.363134 -0.110843 1.17503
-0.36269 -0.109937 1.17689
-0.362211 -0.109021 1.17867
-0.361751 -0.108106 1.18052
-0.361207 -0.107172 1.18213
-0.360662 -0.106234 1.18375
-0.360086 -0.105289 1.18529
-0.359699 -0.104379 1.18738
-0.359244 -0.103453 1.18928
-0.358796 -0.102525 1.19122
-0.358331 -0.101591 1.19312
-0.357958 -0.100672 1.19529
-0.357563 -0.0997458 1.19742
-0.357145 -0.0988111 1.19949
-0.356882 -0.0979019 1.20203
-0.356743 -0.0970105 1.20495
-0.366032 -0.0950094 1.24639
-0.366812 -0.0942101 1.25229
-0.36692 -0.0932941 1.2562
-0.366285 -0.0922565 1.25788
-0.364863 -0.0910975 1.25717
-0.363505 -0.08995 1.25664
-0.362299 -0.0888268 1.25657
-0.361075 -0.0877033 1.25645
-0.359949 -0.0865933 1.25662
-0.358975 -0.0855057 1.25726
-0.358064 -0.0844262 1.25809
-0.357188 -0.083351 1.25904
-0.356367 -0.0822804 1.26017
-0.355514 -0.0812063 1.2612
-0.354631 -0.0801267 1.26214
-0.35372 -0.0790434 1.26299
-0.352749 -0.0779523 1.26366
-0.351742 -0.0768571 1.2642
-0.350758 -0.0757646 1.26482
-0.350981 -0.0760472 1.27298
-0.349896 -0.0746841 1.26584
-0.460964 -0.206817 1.15379
-0.459683 -0.205643 1.15365
-0.458436 -0.204484 1.15358
-0.456919 -0.203217 1.15294
-0.455421 -0.201961 1.15234
-0.453701 -0.200616 1.15127
-0.452013 -0.199288 1.15026
-0.450402 -0.197992 1.1494
-0.448564 -0.196609 1.14805
-0.446576 -0.195171 1.14637
-0.444679 -0.193771 1.14488
-0.442864 -0.192407 1.14354
-0.440888 -0.190984 1.14185
-0.439248 -0.189693 1.14087
-0.437734 -0.188453 1.14014
-0.436116 -0.187176 1.13918
-0.43444 -0.185879 1.13809
-0.43281 -0.184602 1.13709
-0.431253 -0.183355 1.13624
-0.429675 -0.182103 1.13533
-0.428238 -0.180904 1.13472
-0.426805 -0.179711 1.13411
-0.425451 -0.178547 1.13367
-0.424131 -0.177398 1.1333
-0.422885 -0.176278 1.13308
-0.42168 -0.175173 1.13296
-0.42048 -0.17407 1.13283
-0.419346 -0.172994 1.13286
-0.418153 -0.171897 1.13275
-0.417023 -0.170823 1.13277
-0.415863 -0.169739 1.13272
-0.414772 -0.16868 1.13283
-0.413686 -0.167624 1.13294
-0.412631 -0.16658 1.13313
-0.411545 -0.165526 1.13324
-0.410456 -0.16447 1.13334
-0.409369 -0.163417 1.13344
-0.408223 -0.162343 1.1334
-0.407136 -0.161291 1.1335
-0.406048 -0.160239 1.13359
-0.404999 -0.1592 1.13377
-0.403986 -0.158176 1.13404
-0.40304 -0.157172 1.13445
-0.402067 -0.15616 1.13481
-0.401063 -0.155139 1.13508
-0.400053 -0.154115 1.13535
-0.399009 -0.153082 1.13553
-0.397936 -0.152039 1.13564
-0.39689 -0.151006 1.13581
-0.395908 -0.149993 1.13613
-0.394962 -0.148993 1.13655
-0.394025 -0.147995 1.13698
-0.393148 -0.147016 1.13755
-0.392122 -0.14599 1.13776
-0.39108 -0.144961 1.13794
-0.390032 -0.14393 1.13809
-0.389026 -0.142912 1.13835
-0.38801 -0.141892 1.13857
-0.387105 -0.140906 1.13908
-0.386194 -0.139917 1.13957
-0.385246 -0.138918 1.13996
-0.384392 -0.137946 1.14059
-0.383551 -0.136977 1.14126
-0.382775 -0.136027 1.14208
-0.382023 -0.135083 1.14298
-0.381266 -0.134136 1.14386
-0.380451 -0.133174 1.14459
-0.379664 -0.132217 1.1454
-0.378852 -0.131254 1.14615
-0.377976 -0.130274 1.14673
-0.377063 -0.129283 1.14723
-0.376199 -0.128304 1.14784
-0.375376 -0.127337 1.14857
-0.37457 -0.126374 1.14934
-0.373933 -0.125454 1.15055
-0.373354 -0.124547 1.15192
-0.372696 -0.123618 1.15309
-0.371976 -0.122673 1.1541
-0.371265 -0.121729 1.15514
-0.370438 -0.120756 1.15588
-0.369641 -0.119789 1.15669
-0.368877 -0.118829 1.1576
-0.368256 -0.117903 1.15889
-0.367673 -0.116985 1.16029
-0.367211 -0.116092 1.16203
-0.366833 -0.115218 1.164
-0.366457 -0.11434 1.166
-0.366049 -0.113452 1.16791
-0.365653 -0.112565 1.16987
-0.365231 -0.111669 1.17177
-0.364788 -0.110765 1.17361
-0.364405 -0.109872 1.17564
-0.363964 -0.108964 1.17751
-0.363458 -0.108039 1.17922
-0.362965 -0.107114 1.18097
-0.362419 -0.106177 1.18258
-0.361849 -0.105232 1.18412
-0.361278 -0.104285 1.18568
-0.360894 -0.103373 1.18777
-0.360414 -0.102439 1.1896
-0.359906 -0.101497 1.19137
-0.35938 -0.100549 1.19309
-0.358919 -0.0996102 1.195
-0.358411 -0.0986606 1.19679
-0.357901 -0.0977082 1.19859
-0.357613 -0.0967916 1.20105
-0.36947 -0.0933377 1.25691
-0.368906 -0.0923085 1.2588
-0.367741 -0.0911858 1.25889
-0.366276 -0.0900207 1.25806
-0.364912 -0.0888725 1.25752
-0.363698 -0.0877473 1.25744
-0.362496 -0.0866255 1.25738
-0.361368 -0.0855155 1.25756
-0.36036 -0.0844212 1.2581
-0.359416 -0.0833356 1.25883
-0.358505 -0.0822537 1.25968
-0.3576 -0.0811713 1.26055
-0.356695 -0.0800888 1.26142
-0.355784 -0.0790048 1.26227
-0.354842 -0.077916 1.26302
-0.353839 -0.0768217 1.26359
-0.352859 -0.0757287 1.26422
-0.351937 -0.0746414 1.26505
-0.351139 -0.0735666 1.26627
-0.351466 -0.0738423 1.27478
-0.350391 -0.0724938 1.26767
-0.460492 -0.204521 1.15294
-0.459421 -0.203433 1.15323
-0.45804 -0.202222 1.15288
-0.456704 -0.201031 1.15262
-0.455469 -0.199881 1.15256
-0.454177 -0.19871 1.15238
-0.45295 -0.197564 1.15233
-0.451183 -0.19621 1.15115
-0.449201 -0.194774 1.14951
-0.447032 -0.19327 1.14745
-0.444956 -0.191807 1.14558
-0.442707 -0.19028 1.14333
-0.441097 -0.189002 1.14242
-0.439545 -0.187748 1.14162
-0.43785 -0.186442 1.14051
-0.436089 -0.185114 1.13924
-0.434335 -0.183792 1.13799
-0.432694 -0.182516 1.13696
-0.43107 -0.181247 1.13596
-0.429599 -0.180038 1.13528
-0.428134 -0.178833 1.13461
-0.426772 -0.177667 1.13416
-0.42541 -0.176504 1.13371
-0.424124 -0.175369 1.13341
-0.422883 -0.174252 1.1332
-0.421717 -0.173162 1.13316
-0.420618 -0.172098 1.13327
-0.419453 -0.171011 1.13322
-0.418354 -0.169948 1.13332
-0.417224 -0.168875 1.13335
-0.416129 -0.167815 1.13345
-0.415007 -0.166746 1.13349
-0.413919 -0.165689 1.1336
-0.412829 -0.164633 1.1337
-0.411739 -0.163578 1.13381
-0.410653 -0.162523 1.13392
-0.409502 -0.161449 1.13387
-0.408412 -0.160395 1.13397
-0.407291 -0.159332 1.13399
-0.406207 -0.158282 1.13409
-0.405127 -0.157234 1.1342
-0.404145 -0.156219 1.13454
-0.403167 -0.155205 1.13488
-0.402162 -0.154183 1.13516
-0.401154 -0.15316 1.13543
-0.400112 -0.152127 1.13562
-0.399036 -0.151084 1.13573
-0.39796 -0.150041 1.13583
-0.396943 -0.149017 1.13607
-0.395968 -0.148007 1.13642
-0.39503 -0.147009 1.13685
-0.394157 -0.14603 1.13743
-0.393128 -0.145004 1.13764
-0.392089 -0.143976 1.13782
-0.39104 -0.142945 1.13798
-0.39006 -0.141935 1.1383
-0.389069 -0.140922 1.13859
-0.388167 -0.139936 1.1391
-0.387255 -0.138947 1.13959
-0.386308 -0.137947 1.13999
-0.385452 -0.136974 1.14062
-0.384612 -0.136005 1.14129
-0.383835 -0.135053 1.14211
-0.383082 -0.134108 1.143
-0.382322 -0.13316 1.14388
-0.381508 -0.132197 1.14462
-0.380725 -0.13124 1.14544
-0.379943 -0.130284 1.14626
-0.379099 -0.129312 1.14693
-0.378215 -0.128327 1.1475
-0.37738 -0.127355 1.14819
-0.376613 -0.126402 1.14906
-0.375864 -0.125451 1.14998
-0.375235 -0.124531 1.15122
-0.374654 -0.123621 1.15259
-0.37396 -0.122682 1.15367
-0.373174 -0.121719 1.15451
-0.372403 -0.120758 1.15539
-0.371574 -0.119783 1.15612
-0.370749 -0.118809 1.15686
-0.369985 -0.117848 1.15777
-0.369423 -0.116933 1.15922
-0.368876 -0.116021 1.16072
-0.368477 -0.11514 1.16262
-0.368133 -0.11427 1.16469
-0.367753 -0.113388 1.16667
-0.36731 -0.112489 1.16849
-0.366914 -0.111598 1.17044
-0.366501 -0.110701 1.17237
-0.366096 -0.109802 1.17432
-0.365744 -0.108912 1.17643
-0.365303 -0.108001 1.17831
-0.36479 -0.107071 1.17999
-0.36427 -0.106138 1.18166
-0.363693 -0.105191 1.18319
-0.363127 -0.104244 1.18475
-0.362528 -0.10329 1.18622
-0.36212 -0.102369 1.18825
-0.361583 -0.101421 1.18992
-0.361497 -0.100555 1.19289
-0.360922 -0.099594 1.19447
-0.360905 -0.0987319 1.19767
-0.360423 -0.0977813 1.19955
-0.371662 -0.0923793 1.2601
-0.370383 -0.0912371 1.25985
-0.369195 -0.090111 1.25988
-0.367692 -0.0889396 1.25894
-0.366291 -0.0877865 1.2583
-0.365043 -0.0866566 1.25812
-0.363802 -0.0855289 1.25796
-0.362637 -0.0844126 1.25802
-0.36157 -0.0833111 1.25839
-0.360595 -0.0822191 1.25903
-0.359655 -0.081133 1.25979
-0.358722 -0.0800462 1.26057
-0.357786 -0.078959 1.26134
-0.356899 -0.0778768 1.26227
-0.355982 -0.0767904 1.26311
-0.355008 -0.0756975 1.26376
-0.35406 -0.0746071 1.26451
-0.353196 -0.0735239 1.26552
-0.352408 -0.0724474 1.26678
-0.351666 -0.0713733 1.26819
-0.352162 -0.0716482 1.27727
-0.351067 -0.0703097 1.27008
-0.460828 -0.202548 1.15374
-0.459905 -0.201519 1.15434
-0.458945 -0.200475 1.15486
-0.458151 -0.199496 1.15573
-0.457246 -0.198475 1.15637
-0.456176 -0.197387 1.15666
-0.454417 -0.196034 1.15551
-0.452433 -0.194598 1.15389
-0.450069 -0.19302 1.15145
-0.447748 -0.191463 1.14908
-0.445226 -0.189835 1.14627
-0.443447 -0.188492 1.14502
-0.441741 -0.18718 1.14391
-0.440003 -0.185859 1.14272
-0.43823 -0.184527 1.14144
-0.436351 -0.18316 1.13993
-0.434574 -0.181833 1.13862
-0.432787 -0.180506 1.13728
-0.431166 -0.179242 1.13629
-0.429598 -0.178001 1.13541
-0.42823 -0.176834 1.13495
-0.426829 -0.175656 1.13441
-0.425539 -0.17452 1.13411
-0.424263 -0.173391 1.13384
-0.423125 -0.172311 1.13386
-0.422061 -0.171259 1.13405
-0.420903 -0.170174 1.13402
-0.419801 -0.169109 1.13412
-0.418631 -0.168022 1.13406
-0.417498 -0.166948 1.13409
-0.416342 -0.165868 1.13405
-0.415252 -0.164811 1.13417
-0.41413 -0.163742 1.1342
-0.413033 -0.162685 1.1343
-0.411942 -0.161629 1.1344
-0.410794 -0.160555 1.13437
-0.409706 -0.159502 1.13447
-0.408581 -0.158438 1.13449
-0.407493 -0.157386 1.13459
-0.406381 -0.156327 1.13463
-0.405363 -0.1553 1.13488
-0.404351 -0.154275 1.13515
-0.40334 -0.15325 1.13542
-0.402326 -0.152226 1.13568
-0.401278 -0.15119 1.13586
-0.400199 -0.150146 1.13596
-0.399122 -0.149102 1.13607
-0.398079 -0.148071 1.13625
-0.397102 -0.14706 1.13659
-0.396134 -0.146051 1.13695
-0.395225 -0.145062 1.13745
-0.394167 -0.144027 1.13759
-0.39315 -0.143005 1.13783
-0.392098 -0.141974 1.13798
-0.391148 -0.140972 1.13838
-0.390185 -0.139967 1.13874
-0.389311 -0.138988 1.13933
-0.3884 -0.137998 1.13982
-0.387454 -0.136999 1.14022
-0.386598 -0.136025 1.14085
-0.38576 -0.135055 1.14153
-0.384987 -0.134103 1.14237
-0.384234 -0.133157 1.14326
-0.383474 -0.132207 1.14413
-0.382683 -0.131248 1.14493
-0.381928 -0.130299 1.14583
-0.381177 -0.12935 1.14673
-0.380368 -0.128385 1.1475
-0.379515 -0.127407 1.14814
-0.378683 -0.126436 1.14885
-0.377918 -0.12548 1.14973
-0.377204 -0.124537 1.15074
-0.376551 -0.123609 1.15192
-0.375966 -0.122695 1.15328
-0.375234 -0.121744 1.15426
-0.374408 -0.120769 1.155
-0.373576 -0.119792 1.15572
-0.372743 -0.118815 1.15644
-0.371891 -0.117833 1.15712
-0.371156 -0.116878 1.1581
-0.370652 -0.115975 1.15971
-0.370195 -0.11508 1.16145
-0.369837 -0.114206 1.16347
-0.36955 -0.113344 1.16568
-0.369199 -0.112465 1.16774
-0.368759 -0.111563 1.16957
-0.368344 -0.110665 1.17148
-0.367965 -0.10977 1.17349
-0.367565 -0.108869 1.17546
-0.367214 -0.107975 1.17758
-0.366741 -0.107053 1.17937
-0.366226 -0.10612 1.18104
-0.365703 -0.105183 1.18271
-0.36513 -0.104234 1.18425
-0.364536 -0.103279 1.18573
-0.363933 -0.10232 1.1872
-0.363887 -0.101464 1.19025
-0.363771 -0.100589 1.19313
-0.364163 -0.0998017 1.19747
-0.364087 -0.0989231 1.2005
-0.364557 -0.0981352 1.20512
-0.364337 -0.0972203 1.20777
-0.373086 -0.0912964 1.26097
-0.371778 -0.0901497 1.26065
-0.370551 -0.0890168 1.26056
-0.36902 -0.0878432 1.25955
-0.367592 -0.0866861 1.25884
-0.366307 -0.0855514 1.25856
-0.36503 -0.0844189 1.25829
-0.3638 -0.0832944 1.25816
-0.362701 -0.0821875 1.25842
-0.361696 -0.081092 1.25898
-0.360751 -0.0800035 1.25972
-0.359809 -0.0789154 1.26048
-0.358867 -0.0778266 1.26123
-0.35795 -0.0767402 1.26207
-0.357004 -0.0756503 1.26281
-0.356058 -0.0745603 1.26356
-0.355144 -0.0734714 1.26441
-0.354292 -0.0723893 1.26546
-0.353563 -0.0713161 1.26691
-0.352842 -0.0702414 1.26839
-0.352213 -0.069173 1.27018
-0.350489 -0.0692446 1.27204
-0.351575 -0.0681004 1.27195
-0.352124 -0.0683512 1.28126
-0.350873 -0.0670205 1.27352
-0.462487 -0.201089 1.15726
-0.461832 -0.200161 1.15842
-0.461329 -0.199292 1.1599
-0.460632 -0.198345 1.16098
-0.459538 -0.197245 1.16124
-0.457705 -0.195863 1.15996
-0.455595 -0.194378 1.15809
-0.453117 -0.192758 1.15544
-0.450589 -0.191124 1.15266
-0.447835 -0.189411 1.14939
-0.445857 -0.187994 1.14773
-0.444006 -0.186628 1.14632
-0.442152 -0.185264 1.1449
-0.440447 -0.183959 1.14379
-0.438694 -0.182638 1.14256
-0.436865 -0.181293 1.14115
-0.434947 -0.179919 1.13955
-0.433186 -0.178605 1.13826
-0.431452 -0.177304 1.13703
-0.429875 -0.176062 1.13613
-0.428371 -0.174848 1.13538
-0.427071 -0.173709 1.13506
-0.425789 -0.172577 1.13478
-0.424654 -0.171499 1.13482
-0.423593 -0.170446 1.13502
-0.422467 -0.169372 1.13507
-0.421362 -0.168305 1.13517
-0.420154 -0.167205 1.13504
-0.419012 -0.166128 1.13504
-0.417818 -0.165034 1.13493
-0.416723 -0.163974 1.13504
-0.415563 -0.162893 1.135
-0.414464 -0.161834 1.13509
-0.413338 -0.160767 1.13512
-0.412218 -0.159702 1.13516
-0.411131 -0.158648 1.13527
-0.41001 -0.157585 1.1353
-0.408918 -0.156532 1.1354
-0.407799 -0.15547 1.13543
-0.406746 -0.15443 1.1356
-0.405666 -0.153384 1.13572
-0.404619 -0.152346 1.13591
-0.403567 -0.15131 1.13609
-0.402515 -0.150272 1.13626
-0.401406 -0.149219 1.13629
-0.400325 -0.148175 1.13639
-0.39928 -0.147142 1.13658
-0.398328 -0.146137 1.13698
-0.397329 -0.145119 1.13727
-0.396416 -0.144127 1.13776
-0.395348 -0.14309 1.13788
-0.394325 -0.142066 1.13811
-0.393243 -0.141026 1.1382
-0.392295 -0.140024 1.1386
-0.391336 -0.13902 1.13898
-0.390468 -0.138041 1.13958
-0.389555 -0.137051 1.14007
-0.388633 -0.136057 1.14053
-0.387779 -0.135082 1.14117
-0.386943 -0.134113 1.14185
-0.386201 -0.133168 1.14277
-0.38545 -0.13222 1.14367
-0.384688 -0.131269 1.14454
-0.383897 -0.130309 1.14534
-0.383142 -0.129358 1.14624
-0.382366 -0.128401 1.14708
-0.381583 -0.127441 1.14791
-0.38076 -0.126471 1.14864
-0.380019 -0.12552 1.14959
-0.379349 -0.124586 1.15071
-0.378727 -0.123664 1.15197
-0.378076 -0.122733 1.15315
-0.377458 -0.121809 1.15443
-0.376631 -0.120832 1.15517
-0.375739 -0.11984 1.15574
-0.374848 -0.118848 1.15631
-0.374044 -0.117876 1.15711
-0.373249 -0.116906 1.15794
-0.3726 -0.115968 1.15915
-0.372158 -0.115076 1.16093
-0.371795 -0.114198 1.16292
-0.371472 -0.113328 1.16504
-0.371194 -0.112463 1.16728
-0.370848 -0.11158 1.16936
-0.370408 -0.110675 1.17119
-0.370001 -0.109773 1.17312
-0.369655 -0.108882 1.17523
-0.369256 -0.107976 1.1772
-0.368904 -0.107077 1.17932
-0.368425 -0.10615 1.18109
-0.367911 -0.105214 1.18278
-0.367422 -0.104279 1.18455
-0.366859 -0.103328 1.18611
-0.366263 -0.102369 1.1876
-0.365933 -0.101457 1.18984
-0.366246 -0.100659 1.19391
-0.366497 -0.0998426 1.19783
-0.367358 -0.0991274 1.20352
-0.367773 -0.0983237 1.20797
-0.368435 -0.0975544 1.21315
-0.374106 -0.090151 1.26063
-0.372863 -0.089015 1.26051
-0.371667 -0.0878868 1.26052
-0.370216 -0.0867251 1.25976
-0.36886 -0.0855786 1.25927
-0.367571 -0.0844433 1.25898
-0.366286 -0.0833098 1.2587
-0.365021 -0.0821815 1.25846
-0.363886 -0.0810693 1.25863
-0.362873 -0.0799717 1.25916
-0.361896 -0.0788785 1.25981
-0.360922 -0.0777863 1.26046
-0.359975 -0.0766958 1.2612
-0.359055 -0.0756084 1.26203
-0.358081 -0.0745147 1.26269
-0.357144 -0.0734239 1.26346
-0.356233 -0.0723354 1.26433
-0.35541 -0.0712539 1.26547
-0.354652 -0.0701765 1.26683
-0.353931 -0.0691005 1.26831
-0.353293 -0.0680288 1.27006
-0.352625 -0.0669521 1.27173
-0.351867 -0.0658671 1.27312
-0.35228 -0.0660887 1.28199
