ply
format ascii 1.0
element vertex 1708
property float x
property float y
property float z
end_header
-0.17464 0.106489 0.779825
-0.175353 0.105233 0.779845
-0.176081 0.103985 0.779933
-0.176833 0.102748 0.780122
-0.177627 0.101533 0.780495
-0.178443 0.100327 0.780962
-0.179295 0.0991376 0.78158
-0.180183 0.0979638 0.782351
-0.181095 0.0967984 0.783225
-0.182035 0.0956431 0.784209
-0.183051 0.0945193 0.785513
-0.184035 0.0933764 0.786672
-0.184963 0.0922039 0.787582
-0.185863 0.0910161 0.788369
-0.18674 0.0898157 0.789055
-0.187584 0.0885989 0.789595
-0.188432 0.0873818 0.790151
-0.189321 0.0861792 0.790871
-0.19019 0.0849666 0.791502
-0.191138 0.0837825 0.792461
-0.192097 0.0825997 0.793459
-0.193146 0.081447 0.794822
-0.194138 0.0802687 0.795938
-0.195203 0.079113 0.797348
-0.196207 0.0779308 0.798501
-0.197281 0.0767689 0.799927
-0.198364 0.0756053 0.801384
-0.199496 0.0744529 0.803031
-0.200608 0.0732882 0.804584
-0.201674 0.0721038 0.805943
-0.202761 0.0709211 0.807373
-0.203855 0.0697359 0.808829
-0.205027 0.0685689 0.810581
-0.206187 0.0673927 0.812276
-0.207408 0.0662282 0.8142
-0.208675 0.0650698 0.816294
-0.209959 0.0639095 0.818443
-0.211306 0.0627586 0.820822
-0.212817 0.0616423 0.823823
-0.214227 0.0604902 0.826416
-0.215502 0.0592966 0.828467
-0.216664 0.0580688 0.830072
-0.131295 0.20458 0.826362
-0.131854 0.202986 0.825204
-0.132323 0.201277 0.823506
-0.132742 0.199512 0.821536
-0.133026 0.197581 0.818781
-0.133398 0.195776 0.81657
-0.133791 0.194012 0.814515
-0.13426 0.192354 0.812922
-0.134758 0.190738 0.811504
-0.135266 0.189144 0.810171
-0.135786 0.18757 0.808914
-0.136135 0.185798 0.806688
-0.136499 0.184054 0.80457
-0.137068 0.181782 0.796279
-0.136462 0.18185 0.800187
-0.135821 0.176854 0.788342
-0.135645 0.174564 0.783317
-0.135492 0.172324 0.778467
-0.135818 0.170638 0.776332
-0.136294 0.169126 0.775041
-0.136946 0.167811 0.774736
-0.137597 0.166496 0.77443
-0.138234 0.165167 0.774046
-0.138854 0.163824 0.77358
-0.139513 0.162522 0.773328
-0.140176 0.161226 0.773095
-0.140814 0.159906 0.772735
-0.141493 0.158628 0.772596
-0.14214 0.15732 0.772289
-0.142771 0.155998 0.771896
-0.143399 0.154675 0.771496
-0.144058 0.153383 0.771262
-0.144707 0.152083 0.770976
-0.145387 0.150813 0.770852
-0.146093 0.149568 0.770871
-0.146788 0.148311 0.770825
-0.147482 0.147056 0.770782
-0.14819 0.145812 0.770808
-0.148882 0.144554 0.770751
-0.149589 0.14331 0.77077
-0.150311 0.142079 0.770872
-0.151036 0.140849 0.770985
-0.151763 0.139621 0.7711
-0.152501 0.138401 0.77128
-0.15321 0.137157 0.771307
-0.153918 0.135914 0.771335
-0.154627 0.13467 0.771363
-0.155336 0.133426 0.77139
-0.156044 0.132182 0.771418
-0.156753 0.130938 0.771445
-0.157461 0.129695 0.771473
-0.15817 0.128451 0.771501
-0.158879 0.127207 0.771528
-0.159619 0.125986 0.771708
-0.160396 0.124789 0.772058
-0.161178 0.123594 0.772432
-0.162027 0.122443 0.773121
-0.162927 0.121324 0.774045
-0.163884 0.120238 0.77523
-0.164872 0.119167 0.77655
-0.165863 0.118094 0.777875
-0.166732 0.116938 0.778624
-0.167551 0.115749 0.779134
-0.168294 0.114511 0.77929
-0.168992 0.113246 0.77924
-0.169693 0.111983 0.779206
-0.170461 0.11076 0.779476
-0.171245 0.109545 0.779818
-0.172016 0.108321 0.7801
-0.172773 0.107088 0.780308
-0.173507 0.105842 0.780422
-0.174236 0.104593 0.780511
-0.17495 0.103336 0.780531
-0.175687 0.10209 0.78065
-0.17648 0.100874 0.781023
-0.177314 0.0996762 0.781568
-0.178168 0.0984866 0.782199
-0.179079 0.0973222 0.783071
-0.180031 0.0961746 0.784123
-0.18099 0.0950263 0.78519
-0.182025 0.0939097 0.786585
-0.183007 0.0927634 0.787736
-0.183932 0.0915879 0.788642
-0.184813 0.0903898 0.789347
-0.185689 0.0891866 0.790024
-0.186515 0.0879607 0.790491
-0.187367 0.0867435 0.791061
-0.188236 0.0855309 0.791699
-0.189085 0.0843087 0.792251
-0.190014 0.0831156 0.793129
-0.19093 0.0819147 0.793953
-0.191951 0.0807506 0.795207
-0.19292 0.0795627 0.796234
-0.193983 0.0784054 0.79764
-0.194988 0.0772224 0.798803
-0.196079 0.0760656 0.800308
-0.197141 0.0748937 0.801688
-0.198288 0.0737455 0.803402
-0.199397 0.0725788 0.804953
-0.200485 0.0714003 0.806409
-0.201595 0.0702234 0.807942
-0.202713 0.0690439 0.809495
-0.203888 0.0678761 0.811267
-0.205067 0.0667037 0.813049
-0.206293 0.0655386 0.814997
-0.207563 0.0643789 0.817112
-0.20887 0.0632223 0.819359
-0.210215 0.0620683 0.821744
-0.2117 0.0609425 0.82466
-0.213081 0.0597807 0.827151
-0.214374 0.0585891 0.829285
-0.215556 0.0573642 0.830971
-0.219947 0.0573313 0.839834
-0.216643 0.0561116 0.832278
-0.130805 0.20261 0.826936
-0.131223 0.200827 0.824913
-0.131588 0.198984 0.822591
-0.131828 0.196989 0.819541
-0.13217 0.195143 0.817132
-0.132563 0.193374 0.815051
-0.13302 0.191697 0.813367
-0.13352 0.190082 0.811951
-0.134029 0.188486 0.810606
-0.134537 0.186895 0.809265
-0.135059 0.18533 0.808024
-0.135614 0.183808 0.806983
-0.135811 0.18187 0.803893
-0.136257 0.179472 0.794894
-0.135847 0.17976 0.799917
-0.134975 0.172443 0.782684
-0.135086 0.170505 0.779296
-0.135356 0.16876 0.776838
-0.135816 0.167231 0.77545
-0.13645 0.165896 0.775045
-0.137072 0.16455 0.774574
-0.137678 0.16319 0.774022
-0.138323 0.161873 0.773685
-0.13897 0.160559 0.773365
-0.139607 0.159238 0.772996
-0.140287 0.157961 0.772866
-0.140939 0.156657 0.772577
-0.141586 0.155349 0.772266
-0.142214 0.154025 0.771862
-0.142857 0.152718 0.771539
-0.143504 0.151414 0.771236
-0.144182 0.150142 0.771106
-0.144877 0.148886 0.77106
-0.145585 0.147642 0.771087
-0.146294 0.146398 0.771115
-0.147003 0.145154 0.771143
-0.147697 0.143898 0.771097
-0.148404 0.142653 0.771119
-0.149112 0.141409 0.771144
-0.149821 0.140166 0.771174
-0.150531 0.138923 0.771207
-0.151254 0.137692 0.771308
-0.151963 0.136448 0.771336
-0.152671 0.135204 0.771363
-0.15338 0.13396 0.771391
-0.154089 0.132716 0.771419
-0.154797 0.131472 0.771446
-0.155506 0.130229 0.771474
-0.156214 0.128985 0.771501
-0.156938 0.127752 0.771603
-0.157663 0.12652 0.771709
-0.158422 0.125311 0.771979
-0.159233 0.124138 0.772498
-0.160068 0.122979 0.773127
-0.160971 0.121863 0.774072
-0.161927 0.120779 0.775266
-0.162925 0.119717 0.776643
-0.163929 0.118655 0.778046
-0.164935 0.117587 0.779441
-0.165785 0.116417 0.780102
-0.166569 0.115203 0.780445
-0.16729 0.11395 0.780497
-0.167965 0.112669 0.780338
-0.168631 0.111383 0.780138
-0.169382 0.110148 0.780326
-0.170165 0.108931 0.780666
-0.170921 0.107696 0.780872
-0.171658 0.106451 0.780996
-0.17239 0.105203 0.781097
-0.17312 0.103953 0.781185
-0.17382 0.102687 0.781138
-0.174573 0.101449 0.781336
-0.175385 0.100241 0.781782
-0.176217 0.0990406 0.782325
-0.177091 0.0978594 0.783044
-0.178038 0.0967115 0.784082
-0.178995 0.0955643 0.785157
-0.179976 0.0944243 0.786323
-0.181028 0.0933127 0.787793
-0.181993 0.0921569 0.788878
-0.182919 0.0909794 0.789784
-0.183796 0.0897773 0.790476
-0.184656 0.0885656 0.791088
-0.185465 0.0873299 0.791478
-0.186315 0.08611 0.79204
-0.187167 0.0848889 0.792606
-0.188016 0.0836646 0.793154
-0.188939 0.0824676 0.794011
-0.189833 0.0812567 0.794746
-0.190812 0.0800751 0.795827
-0.191775 0.0788835 0.796832
-0.192833 0.0777229 0.798232
-0.193843 0.0765405 0.799418
-0.194919 0.0753771 0.800868
-0.19598 0.0742033 0.80225
-0.197102 0.0730452 0.803869
-0.198189 0.0718699 0.805338
-0.199281 0.0706915 0.806814
-0.200435 0.0695273 0.808534
-0.201599 0.0683601 0.810281
-0.202812 0.0672015 0.812217
-0.204015 0.0660335 0.814097
-0.205259 0.064871 0.816131
-0.206531 0.0637095 0.818264
-0.207858 0.0625555 0.8206
-0.209156 0.0613856 0.822806
-0.21061 0.0602489 0.825613
-0.211941 0.059072 0.827921
-0.213207 0.0578716 0.829957
-0.214371 0.0566402 0.831582
-0.215503 0.0553966 0.833068
-0.129762 0.202248 0.828748
-0.130162 0.200434 0.826587
-0.130478 0.198518 0.823931
-0.130676 0.19646 0.82059
-0.13096 0.194532 0.817803
-0.131324 0.192722 0.815528
-0.131754 0.191008 0.813668
-0.132255 0.189392 0.812244
-0.132766 0.187797 0.810898
-0.133276 0.186207 0.809556
-0.133799 0.18464 0.808309
-0.134368 0.183135 0.807339
-0.134755 0.181418 0.805322
-0.135012 0.179559 0.802575
-0.135662 0.177415 0.794722
-0.135076 0.177492 0.798755
-0.134622 0.172752 0.787895
-0.134521 0.170564 0.783262
-0.134588 0.168582 0.779617
-0.134856 0.166838 0.777133
-0.135312 0.165306 0.775717
-0.135919 0.163944 0.775165
-0.136526 0.162583 0.774607
-0.137159 0.161251 0.774196
-0.137793 0.159923 0.773801
-0.13843 0.1586 0.773427
-0.13911 0.157322 0.773287
-0.139763 0.156018 0.773
-0.140412 0.154711 0.772701
-0.141044 0.15339 0.772309
-0.141672 0.152067 0.771904
-0.142303 0.150748 0.771515
-0.142965 0.14946 0.771292
-0.143643 0.148188 0.771162
-0.144338 0.146932 0.771116
-0.145046 0.145688 0.771143
-0.145755 0.144444 0.771171
-0.146464 0.1432 0.771199
-0.147172 0.141957 0.771226
-0.147881 0.140713 0.771254
-0.148589 0.139469 0.771281
-0.149298 0.138225 0.771309
-0.150007 0.136981 0.771337
-0.150715 0.135737 0.771364
-0.151424 0.134494 0.771392
-0.152132 0.13325 0.771419
-0.152841 0.132006 0.771447
-0.15355 0.130762 0.771475
-0.154258 0.129518 0.771502
-0.154982 0.128286 0.771603
-0.155723 0.127066 0.771789
-0.156466 0.125846 0.771986
-0.157244 0.12465 0.772346
-0.158088 0.123499 0.773024
-0.158957 0.122363 0.773822
-0.159899 0.121272 0.77496
-0.16091 0.120223 0.776419
-0.161961 0.119194 0.778057
-0.162981 0.118139 0.779537
-0.163983 0.117066 0.78092
-0.164812 0.11588 0.781474
-0.165557 0.114639 0.781639
-0.166243 0.113362 0.781521
-0.166916 0.112078 0.781348
-0.167567 0.110782 0.781072
-0.168318 0.109545 0.781262
-0.169105 0.108328 0.781613
-0.169862 0.107092 0.781822
-0.170586 0.105838 0.781884
-0.171318 0.104588 0.781982
-0.172047 0.103336 0.782061
-0.172729 0.102059 0.781933
-0.173484 0.100821 0.782135
-0.174278 0.0996016 0.782506
-0.175093 0.0983918 0.78297
-0.175964 0.0972079 0.783678
-0.17693 0.0960675 0.784802
-0.177888 0.0949192 0.785882
-0.178887 0.0937864 0.787139
-0.179958 0.0926823 0.7887
-0.180905 0.0915162 0.789709
-0.18183 0.0903364 0.79061
-0.182709 0.0891336 0.791311
-0.183585 0.087927 0.791994
-0.184395 0.0866904 0.79239
-0.185264 0.0854767 0.793033
-0.186112 0.0842521 0.79358
-0.186956 0.0830242 0.794115
-0.187843 0.081811 0.794816
-0.188718 0.0805909 0.795469
-0.189674 0.0793992 0.79646
-0.190615 0.0781981 0.79738
-0.191673 0.0770363 0.798781
-0.192704 0.0758602 0.800061
-0.193782 0.0746958 0.80153
-0.194844 0.0735209 0.802918
-0.195961 0.0723592 0.804526
-0.197023 0.0711745 0.805898
-0.198133 0.0700002 0.80746
-0.199334 0.0688488 0.809375
-0.200525 0.067688 0.811243
-0.201759 0.0665332 0.813273
-0.202996 0.0653724 0.815295
-0.204239 0.0642066 0.817332
-0.20549 0.0630362 0.819392
-0.206793 0.0618728 0.821639
-0.208062 0.0606933 0.82374
-0.209441 0.0595342 0.826267
-0.210699 0.0583373 0.828291
-0.211936 0.0571281 0.830224
-0.213144 0.0559063 0.83203
-0.214332 0.0546738 0.833747
-0.1282 0.203557 0.832055
-0.128697 0.201859 0.830448
-0.129105 0.200049 0.82831
-0.129386 0.198078 0.825407
-0.129568 0.195992 0.821935
-0.129824 0.19402 0.818938
-0.130145 0.19215 0.816377
-0.130548 0.190397 0.814336
-0.131038 0.188765 0.812832
-0.131553 0.18717 0.811487
-0.132064 0.185579 0.81014
-0.132575 0.183995 0.808807
-0.13313 0.182471 0.807745
-0.133688 0.180955 0.80671
-0.134131 0.17931 0.805014
-0.134419 0.177492 0.802441
-0.134951 0.175226 0.793882
-0.134532 0.175487 0.798884
-0.134266 0.173068 0.793185
-0.133978 0.170654 0.787421
-0.133833 0.168425 0.782518
-0.133892 0.166443 0.77882
-0.134146 0.164689 0.776247
-0.134739 0.163309 0.775605
-0.135335 0.161935 0.774979
-0.135957 0.160591 0.774509
-0.136579 0.15925 0.774042
-0.137214 0.157924 0.773649
-0.137878 0.156629 0.773417
-0.138529 0.155323 0.773122
-0.139194 0.154031 0.772904
-0.139843 0.152726 0.772602
-0.140475 0.151406 0.772213
-0.141104 0.150084 0.771807
-0.141748 0.148779 0.77149
-0.14241 0.147492 0.771269
-0.14309 0.146221 0.771144
-0.143799 0.144978 0.771172
-0.144507 0.143734 0.771199
-0.145202 0.142478 0.771153
-0.145909 0.141233 0.771176
-0.146618 0.139989 0.771201
-0.147326 0.138746 0.771231
-0.148037 0.137504 0.771264
-0.148759 0.136271 0.771365
-0.149467 0.135027 0.771393
-0.150176 0.133784 0.77142
-0.150885 0.13254 0.771448
-0.151593 0.131296 0.771475
-0.152317 0.130063 0.771577
-0.153041 0.128831 0.771683
-0.153782 0.127611 0.771872
-0.154542 0.126404 0.772148
-0.155304 0.125197 0.772433
-0.156099 0.124013 0.772881
-0.156959 0.122872 0.773642
-0.15786 0.121756 0.774593
-0.158851 0.120697 0.775975
-0.159914 0.119681 0.777695
-0.160986 0.118664 0.779435
-0.162006 0.117606 0.780923
-0.162986 0.116517 0.782204
-0.163778 0.115305 0.782587
-0.164492 0.114043 0.782596
-0.165162 0.112754 0.782401
-0.165837 0.11147 0.782228
-0.166491 0.110173 0.781963
-0.167245 0.108936 0.782163
-0.168034 0.107719 0.782524
-0.168792 0.106482 0.782739
-0.169517 0.105227 0.782802
-0.17025 0.103976 0.782898
-0.170979 0.102722 0.782982
-0.171661 0.101444 0.782845
-0.172415 0.100203 0.783037
-0.173207 0.0989808 0.783401
-0.174023 0.0977699 0.783868
-0.174875 0.096575 0.784496
-0.175837 0.0954311 0.785607
-0.176794 0.0942807 0.786686
-0.177811 0.0931545 0.788025
-0.178883 0.092049 0.789594
-0.179849 0.0908897 0.790688
-0.180789 0.0897151 0.791666
-0.181685 0.0885176 0.79244
-0.182549 0.0873033 0.793068
-0.18336 0.0860653 0.793466
-0.184225 0.0848477 0.794093
-0.185035 0.0836059 0.794476
-0.185843 0.0823618 0.794851
-0.186709 0.0811393 0.795474
-0.187565 0.0799108 0.79605
-0.188504 0.0787112 0.796965
-0.189462 0.0775153 0.797961
-0.190538 0.0763587 0.799447
-0.191591 0.0751886 0.800827
-0.19269 0.0740298 0.802386
-0.193749 0.0728517 0.80377
-0.19484 0.0716796 0.805273
-0.195876 0.0704845 0.806544
-0.197004 0.0693143 0.808184
-0.198208 0.0681619 0.810127
-0.199443 0.0670123 0.812181
-0.200701 0.0658623 0.814317
-0.201956 0.0647042 0.816424
-0.203196 0.063535 0.818458
-0.204424 0.0623554 0.820425
-0.205661 0.0611717 0.822423
-0.206898 0.0599814 0.824405
-0.208204 0.058802 0.826649
-0.209431 0.0575958 0.828565
-0.210685 0.0563894 0.830576
-0.21194 0.0551768 0.832576
-0.21318 0.0539546 0.834503
-0.127676 0.205226 0.833515
-0.127036 0.203039 0.833186
-0.127584 0.201408 0.831884
-0.128038 0.199654 0.830002
-0.128332 0.197693 0.827145
-0.12852 0.195607 0.823668
-0.128761 0.193608 0.820549
-0.129055 0.191695 0.817786
-0.12943 0.1899 0.815543
-0.129893 0.188229 0.813859
-0.130396 0.186617 0.812434
-0.130898 0.185011 0.811015
-0.131411 0.183425 0.809674
-0.131952 0.18188 0.80851
-0.132482 0.180328 0.807298
-0.133067 0.178848 0.806422
-0.133537 0.177237 0.80488
-0.133842 0.175443 0.802393
-0.133789 0.173254 0.797859
-0.133534 0.170861 0.792214
-0.1332 0.168406 0.786166
-0.133063 0.166199 0.781304
-0.13313 0.164234 0.777639
-0.133549 0.162664 0.775999
-0.134157 0.161301 0.775433
-0.134779 0.159956 0.774956
-0.135389 0.1586 0.774412
-0.136011 0.157261 0.773944
-0.136658 0.155948 0.773621
-0.137307 0.154639 0.773306
-0.137973 0.153348 0.773093
-0.138639 0.152059 0.772881
-0.139275 0.150741 0.772505
-0.139905 0.14942 0.772102
-0.140532 0.148098 0.77169
-0.141178 0.146796 0.771379
-0.141843 0.145512 0.771173
-0.142552 0.144268 0.7712
-0.14326 0.143024 0.771228
-0.143954 0.141767 0.771177
-0.144661 0.140522 0.771195
-0.145368 0.139278 0.771218
-0.146078 0.138035 0.771251
-0.146788 0.136793 0.771287
-0.147512 0.135561 0.771393
-0.148221 0.134318 0.771421
-0.148929 0.133074 0.771449
-0.149638 0.13183 0.771476
-0.150346 0.130586 0.771504
-0.151085 0.129366 0.771684
-0.151827 0.128146 0.771878
-0.152587 0.12694 0.772162
-0.153365 0.125745 0.772528
-0.154158 0.12456 0.772974
-0.154968 0.123385 0.773494
-0.155859 0.122265 0.774411
-0.156808 0.121181 0.775602
-0.157832 0.120143 0.777151
-0.158915 0.119137 0.778965
-0.16 0.118127 0.780784
-0.161005 0.117057 0.782198
-0.161952 0.115945 0.78333
-0.162728 0.11472 0.783629
-0.163423 0.113444 0.783549
-0.164079 0.112145 0.783285
-0.164759 0.110862 0.783131
-0.165415 0.109565 0.782867
-0.166173 0.108328 0.783081
-0.166975 0.107117 0.783504
-0.167735 0.10588 0.783723
-0.168459 0.104622 0.783778
-0.169194 0.10337 0.783883
-0.16994 0.102123 0.784038
-0.170608 0.100835 0.783832
-0.171378 0.0996012 0.784098
-0.172169 0.0983766 0.784454
-0.172984 0.097163 0.784913
-0.173818 0.0959575 0.785462
-0.174761 0.0948022 0.786488
-0.175713 0.0936481 0.787556
-0.176731 0.0925206 0.7889
-0.177804 0.0914134 0.790481
-0.178787 0.0902603 0.79166
-0.179747 0.0890922 0.792719
-0.180627 0.0878857 0.793427
-0.18149 0.0866694 0.794055
-0.182284 0.0854224 0.794376
-0.183114 0.084189 0.794851
-0.18392 0.0829439 0.79522
-0.184726 0.0816978 0.795587
-0.185574 0.0804667 0.79613
-0.186447 0.0792435 0.796778
-0.187384 0.0780413 0.797692
-0.188343 0.0768448 0.798696
-0.189424 0.0756879 0.800207
-0.190477 0.0745161 0.801591
-0.191576 0.0733554 0.803158
-0.19263 0.0721738 0.804527
-0.193697 0.0709923 0.805941
-0.194731 0.069795 0.807207
-0.195875 0.068628 0.808919
-0.19708 0.0674742 0.810875
-0.198338 0.0663292 0.813035
-0.199617 0.0651828 0.815268
-0.200872 0.0640226 0.817383
-0.20209 0.0628447 0.819336
-0.203295 0.0616567 0.821222
-0.204503 0.0604631 0.823109
-0.205714 0.0592641 0.824997
-0.206949 0.0580648 0.826969
-0.208172 0.0568563 0.828875
-0.209444 0.0556529 0.830972
-0.210748 0.05445 0.833174
-0.212019 0.0532323 0.835235
-0.216509 0.0531837 0.844634
-0.213273 0.0520048 0.837218
-0.125861 0.20251 0.834275
-0.126454 0.200936 0.833236
-0.126953 0.199239 0.831612
-0.127287 0.197324 0.828968
-0.127512 0.195279 0.825678
-0.127733 0.193245 0.822396
-0.127999 0.191287 0.819427
-0.128342 0.189445 0.816964
-0.128762 0.187713 0.814989
-0.129241 0.186066 0.813397
-0.129744 0.184457 0.811969
-0.13026 0.182872 0.810632
-0.130802 0.181325 0.809459
-0.131316 0.179751 0.808138
-0.131885 0.178248 0.807155
-0.132484 0.176786 0.806353
-0.132945 0.175168 0.804757
-0.133079 0.173183 0.801265
-0.133019 0.170997 0.796681
-0.132699 0.168543 0.790644
-0.132406 0.166147 0.784813
-0.132295 0.163978 0.780084
-0.132543 0.162217 0.777446
-0.133003 0.160693 0.776031
-0.133626 0.159348 0.775554
-0.134235 0.15799 0.774999
-0.134842 0.156633 0.774436
-0.135461 0.155291 0.773951
-0.136083 0.153954 0.773486
-0.136749 0.152662 0.773267
-0.137418 0.151375 0.773068
-0.138057 0.15006 0.772702
-0.138688 0.148739 0.772302
-0.139314 0.147416 0.77188
-0.139945 0.146099 0.771487
-0.140595 0.144802 0.771201
-0.141304 0.143558 0.771229
-0.142013 0.142314 0.771256
-0.142692 0.141045 0.77113
-0.143398 0.139799 0.77114
-0.144103 0.138552 0.771153
-0.144815 0.137312 0.771196
-0.145526 0.13607 0.77124
-0.146264 0.134851 0.771422
-0.146973 0.133607 0.771449
-0.147681 0.132364 0.771477
-0.14839 0.13112 0.771505
-0.149099 0.129876 0.771532
-0.149839 0.128656 0.77172
-0.150598 0.12745 0.772001
-0.151378 0.126258 0.772385
-0.152172 0.125075 0.772836
-0.152994 0.12391 0.773429
-0.153834 0.122756 0.774103
-0.15476 0.121659 0.775191
-0.155746 0.120599 0.776571
-0.156789 0.119572 0.778219
-0.157885 0.118574 0.780111
-0.158968 0.117559 0.781924
-0.159954 0.116476 0.783258
-0.160884 0.11535 0.784302
-0.161657 0.114122 0.78459
-0.162337 0.112835 0.784435
-0.162995 0.111536 0.784169
-0.163677 0.110251 0.78402
-0.164334 0.108953 0.783757
-0.16509 0.107714 0.78396
-0.165891 0.1065 0.784381
-0.166649 0.10526 0.784591
-0.16739 0.10401 0.784719
-0.168143 0.102766 0.784902
-0.168893 0.10152 0.785074
-0.169563 0.100231 0.784872
-0.170334 0.0989954 0.785137
-0.171109 0.0977613 0.785423
-0.171908 0.0965377 0.785809
-0.172742 0.0953304 0.786353
-0.173664 0.0941632 0.787293
-0.174614 0.0930066 0.788351
-0.17563 0.0918765 0.789696
-0.176705 0.0907685 0.791295
-0.177692 0.0896155 0.792491
-0.178668 0.0884533 0.79363
-0.179549 0.0872454 0.794343
-0.180394 0.0860196 0.794892
-0.181186 0.0847699 0.795202
-0.181994 0.0835257 0.795579
-0.182798 0.0822788 0.795941
-0.183605 0.0810317 0.796309
-0.184452 0.0797986 0.79685
-0.185325 0.0785739 0.797496
-0.186277 0.0773764 0.798484
-0.187256 0.0761852 0.799576
-0.18834 0.0750275 0.801108
-0.189395 0.0738545 0.802504
-0.19047 0.0726831 0.803977
-0.19152 0.0714988 0.805332
-0.192551 0.0703033 0.806601
-0.193565 0.0690984 0.807789
-0.194709 0.0679298 0.809513
-0.195908 0.0667721 0.811454
-0.197165 0.0656251 0.813618
-0.198464 0.0644831 0.815942
-0.199743 0.0633271 0.818169
-0.20098 0.0621525 0.82021
-0.20218 0.0609609 0.822086
-0.203363 0.0597587 0.823878
-0.20457 0.0585566 0.825758
-0.205802 0.0573543 0.827725
-0.207029 0.0561443 0.829659
-0.208306 0.0549399 0.831783
-0.209636 0.0537408 0.834104
-0.210907 0.0525209 0.836172
-0.212178 0.051294 0.838233
-0.124703 0.202008 0.835495
-0.125319 0.20046 0.834575
-0.125863 0.19882 0.833221
-0.12625 0.196971 0.83088
-0.126514 0.194969 0.827792
-0.126744 0.192939 0.824528
-0.12697 0.190919 0.821271
-0.127268 0.18901 0.818491
-0.12764 0.187212 0.816206
-0.128091 0.185524 0.814414
-0.128586 0.183901 0.812917
-0.129118 0.182332 0.811657
-0.129661 0.180783 0.81048
-0.130164 0.179192 0.809075
-0.130706 0.177653 0.807913
-0.131288 0.176169 0.807006
-0.131891 0.174713 0.806231
-0.132201 0.172924 0.803736
-0.132346 0.170961 0.800303
-0.132077 0.16855 0.794487
-0.131765 0.166119 0.788478
-0.131485 0.163753 0.782717
-0.131545 0.161781 0.778962
-0.131837 0.160074 0.776571
-0.132461 0.158728 0.776088
-0.133069 0.157368 0.775525
-0.13365 0.155982 0.774807
-0.134253 0.154622 0.774226
-0.13486 0.15327 0.77367
-0.135512 0.151964 0.773369
-0.136167 0.150663 0.773096
-0.136806 0.149348 0.772731
-0.137438 0.148028 0.77233
-0.138065 0.146705 0.771908
-0.138683 0.145376 0.771442
-0.13932 0.144066 0.771077
-0.140013 0.142809 0.771023
-0.140707 0.141553 0.770972
-0.141372 0.140271 0.770769
-0.14209 0.139037 0.770853
-0.142812 0.137805 0.77095
-0.143537 0.136576 0.771068
-0.144264 0.135349 0.771192
-0.145017 0.134141 0.77145
-0.145726 0.132898 0.771478
-0.146434 0.131654 0.771505
-0.147143 0.13041 0.771533
-0.147852 0.129166 0.771561
-0.148606 0.127957 0.771822
-0.149381 0.126763 0.772189
-0.150177 0.125583 0.772656
-0.150987 0.124411 0.773189
-0.15184 0.123268 0.773936
-0.152714 0.122137 0.774781
-0.153677 0.121065 0.776066
-0.154701 0.120029 0.777638
-0.155763 0.119013 0.779386
-0.156856 0.118011 0.781276
-0.157917 0.116981 0.78299
-0.158884 0.115882 0.784232
-0.159781 0.114734 0.785125
-0.160537 0.113493 0.785329
-0.161216 0.112204 0.785159
-0.161857 0.110893 0.784812
-0.162521 0.109597 0.784571
-0.163192 0.108306 0.784373
-0.163962 0.107074 0.784641
-0.16475 0.105851 0.784997
-0.165525 0.10462 0.785286
-0.166285 0.103379 0.785504
-0.167038 0.102134 0.785686
-0.167791 0.100887 0.785868
-0.168479 0.0996067 0.785748
-0.169237 0.0983625 0.785948
-0.17001 0.0971258 0.786223
-0.170809 0.0959005 0.78661
-0.171627 0.0946839 0.787081
-0.172531 0.0935067 0.78794
-0.173497 0.0923561 0.789078
-0.17451 0.0912235 0.790417
-0.175571 0.0901076 0.791957
-0.176574 0.0889602 0.793233
-0.177551 0.0877968 0.794384
-0.178413 0.0865792 0.795011
-0.179254 0.0853502 0.79554
-0.180043 0.0840984 0.79584
-0.18083 0.0828445 0.796125
-0.181634 0.0815963 0.796487
-0.182441 0.0803484 0.796855
-0.183254 0.0791014 0.797254
-0.184126 0.0778752 0.797898
-0.185095 0.0766827 0.798958
-0.186096 0.0754986 0.80015
-0.187179 0.074339 0.801688
-0.188251 0.0731704 0.80316
-0.18932 0.0719956 0.804615
-0.190367 0.0708087 0.805964
-0.191398 0.0696119 0.807241
-0.192416 0.0684064 0.808451
-0.19356 0.0672362 0.81018
-0.194755 0.0660754 0.812112
-0.195985 0.0649186 0.814178
-0.197262 0.0637682 0.816423
-0.19856 0.0626161 0.818739
-0.199799 0.0614398 0.820801
-0.201 0.0602472 0.82269
-0.202178 0.0590417 0.824473
-0.203404 0.0578424 0.826439
-0.204642 0.0566398 0.828438
-0.205894 0.0554338 0.830483
-0.207214 0.0542372 0.83279
-0.208564 0.0530397 0.835202
-0.20983 0.0518157 0.837262
-0.211097 0.0505851 0.839308
-0.123517 0.201468 0.836548
-0.124149 0.199939 0.835723
-0.124721 0.198332 0.83452
-0.125153 0.19654 0.832444
-0.125455 0.194581 0.829559
-0.125719 0.192588 0.826466
-0.125934 0.190545 0.823101
-0.1262 0.188588 0.82009
-0.126529 0.186727 0.817501
-0.126951 0.184997 0.81551
-0.127435 0.183356 0.813923
-0.127971 0.181788 0.812675
-0.128519 0.180242 0.811513
-0.129024 0.178649 0.810103
-0.129555 0.177094 0.808861
-0.130112 0.175576 0.807783
-0.130686 0.174084 0.806823
-0.131135 0.172451 0.805128
-0.131459 0.170686 0.80272
-0.131206 0.168282 0.796934
-0.130895 0.165842 0.790866
-0.130592 0.163441 0.78491
-0.130479 0.161273 0.780111
-0.130603 0.159383 0.776725
-0.131259 0.158069 0.776418
-0.131882 0.156724 0.775934
-0.132446 0.15532 0.775118
-0.133035 0.153944 0.774448
-0.133625 0.152574 0.773792
-0.134262 0.151253 0.773405
-0.134903 0.149938 0.773045
-0.135541 0.148621 0.772672
-0.136172 0.147301 0.772266
-0.136787 0.145967 0.771775
-0.137393 0.144626 0.771233
-0.138027 0.143315 0.770858
-0.138704 0.142043 0.770716
-0.139382 0.140773 0.770582
-0.140047 0.139493 0.770377
-0.140781 0.138273 0.77054
-0.141516 0.137054 0.770719
-0.14226 0.135841 0.770934
-0.143017 0.134638 0.771218
-0.143799 0.133455 0.771631
-0.144523 0.132224 0.77174
-0.145247 0.130992 0.771847
-0.14597 0.129758 0.771949
-0.146679 0.128514 0.771976
-0.147433 0.127304 0.772236
-0.148207 0.126109 0.7726
-0.149002 0.124927 0.77306
-0.149829 0.123766 0.773681
-0.150715 0.122646 0.774599
-0.15164 0.121551 0.775704
-0.15264 0.120503 0.777181
-0.153698 0.119489 0.77893
-0.154775 0.118481 0.780764
-0.15585 0.117464 0.782565
-0.156862 0.116399 0.784048
-0.157793 0.115275 0.785118
-0.158669 0.114111 0.785908
-0.159408 0.112859 0.786032
-0.160088 0.111569 0.785862
-0.160745 0.110266 0.785587
-0.161407 0.108968 0.785335
-0.162078 0.107676 0.785127
-0.162832 0.106433 0.785321
-0.163623 0.10521 0.785686
-0.164401 0.103979 0.785991
-0.16518 0.102748 0.786298
-0.165937 0.101503 0.786498
-0.166691 0.100256 0.786684
-0.167396 0.0989821 0.786633
-0.16815 0.0977347 0.786821
-0.168925 0.0964972 0.787101
-0.169722 0.0952697 0.78748
-0.17054 0.0940508 0.787948
-0.171411 0.0928562 0.78866
-0.172375 0.0917032 0.789788
-0.173369 0.0905603 0.791051
-0.174412 0.0894348 0.792517
-0.175431 0.0882932 0.793868
-0.176406 0.0871275 0.795014
-0.177249 0.0859006 0.795558
-0.17807 0.0846623 0.796002
-0.178838 0.083401 0.79621
-0.179588 0.0821311 0.796332
-0.180393 0.080883 0.796699
-0.181201 0.0796348 0.797072
-0.182015 0.0783879 0.797475
-0.182905 0.0771679 0.798201
-0.183891 0.0759809 0.799344
-0.184911 0.0748028 0.800626
-0.185979 0.0736367 0.802106
-0.187067 0.0724721 0.803657
-0.188148 0.0713004 0.805169
-0.189193 0.0701111 0.806519
-0.190226 0.0689137 0.807808
-0.191286 0.0677203 0.809199
-0.192406 0.0665409 0.810839
-0.193559 0.0653655 0.812602
-0.194799 0.0642098 0.814719
-0.196052 0.0630509 0.816877
-0.19733 0.0618916 0.819126
-0.198591 0.0607198 0.821287
-0.19981 0.0595301 0.823261
-0.200971 0.0583184 0.824979
-0.202216 0.0571225 0.827035
-0.203478 0.0559238 0.829145
-0.204776 0.0547267 0.831384
-0.206141 0.0535378 0.833888
-0.207484 0.0523355 0.836283
-0.208723 0.051103 0.838239
-0.122327 0.200925 0.8376
-0.122959 0.199393 0.836764
-0.123545 0.197802 0.835635
-0.124007 0.196045 0.833724
-0.124342 0.194125 0.831016
-0.124627 0.192152 0.828018
-0.12486 0.190125 0.824724
-0.125115 0.188145 0.821603
-0.125416 0.186241 0.818807
-0.125812 0.184474 0.816634
-0.126283 0.182812 0.814947
-0.126823 0.181245 0.813706
-0.127375 0.179699 0.812549
-0.127885 0.178109 0.81115
-0.128404 0.176535 0.809815
-0.128945 0.174996 0.808637
-0.129479 0.173453 0.807415
-0.130054 0.171965 0.806461
-0.130531 0.170368 0.80493
-0.130462 0.168163 0.800179
-0.130177 0.16574 0.794198
-0.129895 0.163348 0.788294
-0.129639 0.161013 0.782598
-0.129604 0.158943 0.778244
-0.130116 0.157474 0.777099
-0.130741 0.156129 0.776624
-0.131294 0.154711 0.775726
-0.131856 0.153307 0.774898
-0.13243 0.151919 0.774145
-0.133039 0.150569 0.773593
-0.133651 0.149225 0.773066
-0.134275 0.147894 0.772608
-0.134904 0.146572 0.77219
-0.135508 0.145227 0.771633
-0.1361 0.143874 0.771012
-0.136732 0.14256 0.770622
-0.137391 0.141273 0.770379
-0.138054 0.139991 0.770163
-0.138732 0.138723 0.77003
-0.139481 0.137517 0.770283
-0.140236 0.136315 0.770563
-0.140996 0.135117 0.770873
-0.14177 0.133929 0.771247
-0.142553 0.132747 0.771674
-0.14328 0.131517 0.771793
-0.144005 0.130286 0.77191
-0.144744 0.129065 0.772089
-0.145467 0.127832 0.772197
-0.146222 0.126622 0.772461
-0.146995 0.125426 0.772818
-0.147803 0.124253 0.773347
-0.148643 0.123102 0.774043
-0.149564 0.122007 0.775141
-0.150541 0.120947 0.77652
-0.15159 0.119932 0.778247
-0.152661 0.118926 0.780075
-0.153749 0.117923 0.781968
-0.154807 0.116893 0.783693
-0.155799 0.115812 0.785083
-0.156711 0.114674 0.786062
-0.157583 0.113506 0.786838
-0.158307 0.112242 0.78688
-0.158973 0.110943 0.786639
-0.159617 0.10963 0.786291
-0.160264 0.108321 0.785961
-0.160918 0.107018 0.785673
-0.161658 0.105765 0.785797
-0.162466 0.104552 0.786248
-0.163263 0.103331 0.78664
-0.16406 0.102108 0.787031
-0.164836 0.100872 0.78732
-0.165606 0.0996321 0.787576
-0.16631 0.0983566 0.787524
-0.167047 0.0970984 0.787626
-0.167805 0.0958504 0.787823
-0.168584 0.0946126 0.788116
-0.169401 0.0933923 0.788584
-0.17027 0.0921953 0.789288
-0.171232 0.0910404 0.790418
-0.172227 0.0898962 0.791683
-0.173262 0.0887659 0.793128
-0.174263 0.0876149 0.794401
-0.175199 0.0864311 0.795377
-0.176023 0.085195 0.795837
-0.176824 0.0839483 0.796195
-0.177574 0.0826785 0.796319
-0.178325 0.081409 0.796447
-0.179145 0.0801665 0.796882
-0.179973 0.078926 0.797346
-0.180806 0.0776857 0.797834
-0.18173 0.0764778 0.798718
-0.182737 0.0752972 0.799954
-0.18376 0.0741187 0.801254
-0.184828 0.072951 0.802741
-0.185914 0.0717846 0.804294
-0.186976 0.0706049 0.80573
-0.188004 0.0694086 0.807012
-0.189035 0.068209 0.808301
-0.190114 0.0670203 0.80978
-0.191215 0.0658333 0.811346
-0.192342 0.0646487 0.813008
-0.193575 0.0634897 0.815109
-0.194802 0.0623218 0.817171
-0.196079 0.0611605 0.819424
-0.197379 0.0599983 0.821764
-0.19864 0.0588177 0.823923
-0.199823 0.05761 0.825738
-0.201128 0.0564267 0.828052
-0.202413 0.0552311 0.830267
-0.203692 0.0540264 0.832442
-0.205036 0.0528297 0.834867
-0.206373 0.0516234 0.837248
-0.121109 0.200345 0.838486
-0.121724 0.198785 0.837522
-0.122312 0.197192 0.836391
-0.122796 0.195461 0.834594
-0.123148 0.19356 0.831972
-0.123454 0.191609 0.829076
-0.123721 0.189623 0.825968
-0.123985 0.187648 0.822869
-0.12429 0.185743 0.820065
-0.124673 0.183953 0.817783
-0.125146 0.182289 0.816081
-0.125675 0.180704 0.814753
-0.126243 0.179174 0.813679
-0.126768 0.177598 0.812354
-0.127288 0.176022 0.811011
-0.127805 0.174449 0.809662
-0.128308 0.172866 0.808238
-0.128839 0.171325 0.807011
-0.129441 0.169869 0.806212
-0.129531 0.167837 0.802364
-0.129421 0.165599 0.797358
-0.129179 0.16324 0.791625
-0.128943 0.160915 0.785984
-0.12874 0.158652 0.780585
-0.12909 0.157004 0.778473
-0.129572 0.155504 0.777149
-0.130113 0.154073 0.77618
-0.130648 0.152639 0.775184
-0.131208 0.151237 0.774345
-0.13179 0.149859 0.77363
-0.132374 0.148487 0.772942
-0.132995 0.147154 0.772467
-0.133612 0.145819 0.771974
-0.134203 0.144463 0.77134
-0.13478 0.143096 0.770637
-0.135395 0.141768 0.77015
-0.136026 0.140456 0.769752
-0.136687 0.139173 0.769527
-0.137354 0.137897 0.769334
-0.138117 0.136705 0.76967
-0.138901 0.13553 0.770112
-0.139691 0.134358 0.770584
-0.140481 0.133184 0.771052
-0.141294 0.132027 0.771636
-0.142036 0.13081 0.771842
-0.142762 0.12958 0.771962
-0.143515 0.12837 0.772223
-0.144256 0.127151 0.772418
-0.145014 0.125942 0.772699
-0.1458 0.124756 0.773129
-0.146634 0.123602 0.773797
-0.147505 0.122473 0.774653
-0.148461 0.121402 0.775942
-0.149488 0.120377 0.777579
-0.150553 0.119371 0.779397
-0.151621 0.118361 0.781215
-0.152689 0.117342 0.783014
-0.153712 0.116287 0.784578
-0.154672 0.115184 0.785814
-0.155565 0.114031 0.786701
-0.156419 0.112851 0.787393
-0.157128 0.111577 0.787357
-0.157797 0.110278 0.787129
-0.158443 0.108966 0.786785
-0.159091 0.107657 0.786456
-0.159762 0.106362 0.786243
-0.160502 0.105109 0.786367
-0.161309 0.103894 0.786811
-0.162121 0.10268 0.787278
-0.162936 0.101466 0.787754
-0.163715 0.10023 0.788056
-0.164486 0.0989893 0.788318
-0.165206 0.0977209 0.788335
-0.165925 0.096452 0.78835
-0.166668 0.095195 0.788473
-0.167444 0.0939544 0.788756
-0.168275 0.0927399 0.789288
-0.169144 0.091542 0.790002
-0.170091 0.0903781 0.791059
-0.171081 0.0892304 0.792313
-0.172078 0.0880815 0.793587
-0.173038 0.086911 0.79468
-0.173937 0.08571 0.795494
-0.174758 0.0844728 0.795947
-0.175558 0.0832251 0.7963
-0.176325 0.0819624 0.796498
-0.177094 0.0806997 0.796707
-0.177916 0.0794579 0.797157
-0.178762 0.0782234 0.797701
-0.179596 0.0769831 0.798196
-0.180541 0.0757823 0.799175
-0.181568 0.074608 0.800507
-0.182629 0.0734416 0.801978
-0.183698 0.0722726 0.803476
-0.184781 0.0711033 0.805021
-0.185822 0.0699146 0.806376
-0.186848 0.0687162 0.807655
-0.187864 0.0675103 0.808881
-0.18894 0.0663194 0.810356
-0.190038 0.0651298 0.811919
-0.1912 0.0639542 0.81374
-0.192434 0.0627931 0.815853
-0.19366 0.0616229 0.817924
-0.194936 0.0604593 0.820184
-0.19627 0.059304 0.822676
-0.197515 0.0581168 0.824778
-0.198681 0.0569024 0.826532
-0.200007 0.055722 0.828947
-0.201326 0.0545319 0.831312
-0.202585 0.05332 0.833415
-0.20604 0.0525995 0.844534
-0.119823 0.199666 0.838927
-0.120432 0.198097 0.837916
-0.121018 0.196499 0.836762
-0.121533 0.194809 0.835153
-0.121918 0.192948 0.83271
-0.122272 0.191057 0.830094
-0.122579 0.189118 0.827209
-0.122877 0.187182 0.824294
-0.12319 0.185281 0.821504
-0.123561 0.183469 0.819117
-0.124007 0.181765 0.817224
-0.124537 0.180177 0.81588
-0.125094 0.17863 0.814724
-0.125636 0.177071 0.813487
-0.126158 0.175494 0.812137
-0.126662 0.1739 0.810686
-0.127135 0.17228 0.809074
-0.127638 0.170701 0.80765
-0.128197 0.169194 0.806582
-0.128434 0.167325 0.803583
-0.128507 0.165287 0.799628
-0.128464 0.163138 0.795017
-0.128237 0.160811 0.789362
-0.128015 0.158515 0.783791
-0.128174 0.156654 0.780521
-0.128476 0.154959 0.778121
-0.128862 0.153362 0.776231
-0.129396 0.151928 0.775225
-0.129947 0.150514 0.774319
-0.130512 0.149119 0.773506
-0.131082 0.147734 0.77273
-0.131689 0.146387 0.772172
-0.132293 0.145041 0.771601
-0.13287 0.143672 0.77089
-0.133433 0.142293 0.770103
-0.134033 0.140951 0.769527
-0.134648 0.139627 0.769046
-0.135298 0.138335 0.768753
-0.135978 0.137072 0.768638
-0.136755 0.135894 0.769054
-0.137566 0.134744 0.769653
-0.138386 0.133598 0.770287
-0.139203 0.132448 0.770913
-0.14003 0.131303 0.771579
-0.140784 0.130096 0.77185
-0.141509 0.128865 0.771966
-0.142278 0.127668 0.772307
-0.143035 0.126461 0.772594
-0.143811 0.125267 0.772974
-0.144615 0.124093 0.773494
-0.145478 0.122961 0.774321
-0.146395 0.121865 0.775419
-0.147386 0.120818 0.776892
-0.148446 0.119815 0.778711
-0.149526 0.118817 0.780613
-0.150589 0.117802 0.782418
-0.151624 0.116759 0.784061
-0.152613 0.115678 0.785454
-0.153557 0.114563 0.786614
-0.154434 0.113399 0.787424
-0.155273 0.112208 0.78804
-0.155966 0.110922 0.787923
-0.156649 0.10963 0.787758
-0.157295 0.108317 0.787415
-0.157961 0.107018 0.787168
-0.158649 0.105732 0.787035
-0.159405 0.104486 0.78723
-0.160195 0.10326 0.787596
-0.16099 0.102035 0.787978
-0.161804 0.100819 0.78845
-0.162567 0.0995739 0.788679
-0.163325 0.098325 0.788876
-0.164046 0.0970558 0.788893
-0.164782 0.0957946 0.788987
-0.165523 0.0945358 0.789101
-0.1663 0.0932947 0.789389
-0.167148 0.0920871 0.790001
-0.168036 0.0908966 0.790799
-0.168951 0.0897161 0.791716
-0.169922 0.0885583 0.792887
-0.170894 0.0873967 0.794052
-0.171814 0.0862076 0.79497
-0.172675 0.0849894 0.795612
-0.173528 0.0837654 0.796211
-0.17433 0.0825182 0.796574
-0.1751 0.0812559 0.79679
-0.175888 0.0800006 0.797086
-0.176728 0.0787653 0.797614
-0.177577 0.0775312 0.798175
-0.178431 0.0762972 0.798758
-0.179415 0.0751098 0.799915
-0.180446 0.0739353 0.801271
-0.181507 0.0727671 0.802748
-0.182554 0.0715886 0.804158
-0.18363 0.0704151 0.805681
-0.184671 0.0692249 0.807038
-0.185694 0.0680241 0.808313
-0.186726 0.0668222 0.809616
-0.187818 0.065634 0.811167
-0.188899 0.0644375 0.81266
-0.190081 0.0632659 0.814581
-0.191337 0.062109 0.816797
-0.192567 0.0609373 0.818893
-0.193862 0.0597762 0.821245
-0.195234 0.0586282 0.823909
-0.196483 0.0574392 0.826034
-0.19765 0.0562223 0.827803
-0.198995 0.0550432 0.830304
-0.200312 0.0538494 0.83267
-0.20157 0.0526339 0.834774
-0.11905 0.197281 0.83772
-0.119623 0.195664 0.836467
-0.120163 0.194007 0.835006
-0.120596 0.19221 0.832856
-0.121048 0.190451 0.830861
-0.12142 0.188594 0.828365
-0.121757 0.186704 0.825668
-0.122087 0.184818 0.822955
-0.122444 0.182981 0.820439
-0.122849 0.18122 0.818267
-0.123352 0.179595 0.816741
-0.123926 0.178065 0.815672
-0.124486 0.176524 0.814528
-0.125041 0.174982 0.813364
-0.125534 0.173373 0.811833
-0.125995 0.171732 0.810114
-0.126467 0.170113 0.808481
-0.126983 0.168554 0.807138
-0.127358 0.166839 0.804947
-0.127609 0.164996 0.802037
-0.127743 0.163036 0.798442
-0.127534 0.160716 0.792827
-0.127276 0.158368 0.78697
-0.127228 0.156274 0.782422
-0.127331 0.154363 0.778821
-0.127564 0.152604 0.776012
-0.128114 0.151185 0.775085
-0.128664 0.149771 0.774171
-0.129218 0.148364 0.773286
-0.1298 0.14699 0.772571
-0.130392 0.14563 0.771929
-0.130986 0.144273 0.771291
-0.131563 0.142905 0.770574
-0.132124 0.141524 0.769771
-0.132711 0.140172 0.769121
-0.133326 0.138847 0.76863
-0.133975 0.137555 0.768337
-0.134655 0.136293 0.768222
-0.135433 0.135117 0.768646
-0.136242 0.133967 0.769244
-0.137075 0.132834 0.769963
-0.137909 0.131699 0.770681
-0.13875 0.130567 0.771433
-0.139518 0.129371 0.771781
-0.140255 0.12815 0.771961
-0.141036 0.126963 0.772376
-0.14181 0.125769 0.772751
-0.14259 0.124578 0.773149
-0.14341 0.123416 0.773759
-0.144318 0.122317 0.774826
-0.14527 0.121246 0.776118
-0.146296 0.120223 0.77778
-0.147417 0.119262 0.779924
-0.148511 0.118273 0.781911
-0.149558 0.117243 0.783639
-0.150588 0.116195 0.785261
-0.151559 0.1151 0.786573
-0.15247 0.113961 0.787567
-0.15333 0.112785 0.788295
-0.154168 0.111591 0.788905
-0.154829 0.110283 0.788626
-0.155511 0.10899 0.788451
-0.156158 0.107676 0.788104
-0.156841 0.106385 0.787941
-0.157519 0.105092 0.787749
-0.158275 0.103845 0.787946
-0.159065 0.102617 0.788307
-0.15984 0.10138 0.788597
-0.160653 0.100162 0.789063
-0.161416 0.0989156 0.789289
-0.16219 0.0976741 0.789561
-0.162911 0.0964039 0.789582
-0.163665 0.0951509 0.78976
-0.164409 0.0938919 0.789882
-0.165205 0.0926585 0.790257
-0.166072 0.0914587 0.790962
-0.166965 0.0902692 0.791787
-0.167864 0.0890789 0.792628
-0.168812 0.0879086 0.793698
-0.16976 0.0867344 0.794757
-0.170641 0.0855268 0.795502
-0.171484 0.0842995 0.796058
-0.172356 0.0830827 0.796745
-0.17316 0.0818354 0.797123
-0.173953 0.0805816 0.797439
-0.17478 0.0793411 0.797911
-0.17564 0.0781118 0.79853
-0.176489 0.076876 0.799093
-0.177378 0.0756538 0.799838
-0.178367 0.0744658 0.801015
-0.17938 0.0732827 0.802297
-0.180423 0.0721057 0.803699
-0.181444 0.070916 0.805
-0.182517 0.06974 0.806515
-0.183591 0.0685588 0.808026
-0.184638 0.0673635 0.809409
-0.18571 0.0661717 0.81089
-0.186878 0.0650046 0.812776
-0.187996 0.0638158 0.814438
-0.189208 0.0626489 0.816488
-0.190471 0.0614901 0.818745
-0.191725 0.060321 0.82095
-0.192997 0.0591496 0.823213
-0.194351 0.0579918 0.825808
-0.195579 0.0567934 0.82785
-0.196748 0.0555731 0.829634
-0.19809 0.0543893 0.832128
-0.199405 0.0531906 0.834498
-0.117678 0.196477 0.83758
-0.118218 0.194812 0.836089
-0.118783 0.19319 0.834788
-0.119274 0.191473 0.833012
-0.119792 0.189801 0.831425
-0.120208 0.187999 0.829188
-0.12056 0.186125 0.826563
-0.120862 0.184197 0.823636
-0.121245 0.182389 0.821263
-0.121684 0.180668 0.819283
-0.122175 0.179022 0.817658
-0.12274 0.177479 0.816521
-0.123332 0.175974 0.81556
-0.123919 0.174468 0.814583
-0.124433 0.172879 0.81316
-0.124898 0.171239 0.811446
-0.125354 0.169597 0.809698
-0.125842 0.167999 0.808156
-0.126347 0.166431 0.806748
-0.126775 0.164782 0.804875
-0.126917 0.16282 0.801278
-0.126702 0.160482 0.795563
-0.126407 0.158083 0.789419
-0.126105 0.155707 0.783299
-0.125987 0.153555 0.778337
-0.126219 0.151795 0.775503
-0.126776 0.150384 0.774612
-0.127342 0.148986 0.773783
-0.127909 0.147594 0.772974
-0.12849 0.146219 0.77225
-0.129072 0.144849 0.771539
-0.129652 0.14348 0.770825
-0.130229 0.142112 0.770099
-0.130792 0.140733 0.7693
-0.131365 0.139369 0.768571
-0.131981 0.138047 0.768088
-0.132642 0.136767 0.767864
-0.133322 0.135506 0.767745
-0.134098 0.134329 0.768167
-0.134921 0.133192 0.768845
-0.135768 0.132072 0.769644
-0.136603 0.130939 0.770378
-0.137445 0.129808 0.771142
-0.138213 0.128614 0.771496
-0.13895 0.127394 0.771676
-0.139729 0.126206 0.772091
-0.140518 0.125024 0.772544
-0.141312 0.123845 0.773025
-0.142175 0.122715 0.773868
-0.143142 0.121661 0.775258
-0.144143 0.120626 0.776819
-0.145204 0.119628 0.778674
-0.146357 0.118688 0.780998
-0.147463 0.117705 0.783053
-0.148494 0.116663 0.78471
-0.149508 0.115602 0.78626
-0.150475 0.114503 0.787558
-0.151385 0.113361 0.788546
-0.152228 0.112171 0.78919
-0.153048 0.110965 0.789713
-0.153691 0.109644 0.789331
-0.154356 0.108339 0.789069
-0.154988 0.107014 0.788642
-0.155661 0.105716 0.788423
-0.15634 0.104423 0.788236
-0.157098 0.103177 0.788439
-0.157886 0.101946 0.78879
-0.15866 0.100708 0.789077
-0.159471 0.0994879 0.789533
-0.160232 0.0982397 0.789751
-0.161023 0.0970062 0.790105
-0.16176 0.0957435 0.790201
-0.162534 0.0944996 0.790473
-0.163298 0.0932495 0.790689
-0.164132 0.0920334 0.791243
-0.165018 0.0908414 0.792045
-0.165928 0.0896575 0.792949
-0.166826 0.0884649 0.793789
-0.167771 0.0872906 0.794843
-0.168698 0.0861047 0.795809
-0.169544 0.0848794 0.796389
-0.170369 0.0836429 0.796862
-0.171242 0.0824249 0.797559
-0.172069 0.0811854 0.798033
-0.172886 0.0799403 0.798467
-0.173748 0.0787118 0.799098
-0.174611 0.0774811 0.799727
-0.175476 0.0762495 0.800364
-0.176386 0.0750329 0.801201
-0.177375 0.0738422 0.802386
-0.17837 0.0726498 0.803588
-0.179405 0.0714672 0.804961
-0.180437 0.0702788 0.806311
-0.18153 0.0691064 0.807923
-0.182652 0.0679384 0.809647
-0.183767 0.066762 0.811336
-0.184903 0.0655862 0.813097
-0.186094 0.0644218 0.815091
-0.187238 0.063236 0.816864
-0.188456 0.0620663 0.818947
-0.189739 0.0609078 0.821295
-0.191034 0.0597449 0.82368
-0.192306 0.0585675 0.825949
-0.193643 0.0573999 0.828479
-0.194888 0.0562003 0.830603
-0.196056 0.0549745 0.832377
-0.117416 0.192392 0.834659
-0.117944 0.190724 0.833106
-0.11852 0.18913 0.831895
-0.119136 0.187599 0.830964
-0.119711 0.186017 0.829773
-0.120014 0.184079 0.826809
-0.120389 0.18225 0.824346
-0.120818 0.180505 0.822263
-0.121142 0.178636 0.81952
-0.121551 0.176889 0.817359
-0.122187 0.175436 0.816667
-0.12282 0.173984 0.815972
-0.123368 0.172432 0.814742
-0.123866 0.170826 0.813214
-0.124313 0.169167 0.811382
-0.124772 0.167531 0.809639
-0.125251 0.165927 0.808042
-0.125801 0.164413 0.806903
-0.125871 0.162362 0.802821
-0.125598 0.15995 0.796685
-0.125242 0.157478 0.790115
-0.124875 0.155025 0.783545
-0.124571 0.15267 0.777413
-0.124825 0.150933 0.774687
-0.125409 0.149552 0.773958
-0.125992 0.148173 0.773229
-0.126563 0.146785 0.772434
-0.127132 0.1454 0.77164
-0.127714 0.14403 0.77092
-0.12828 0.142649 0.770126
-0.128845 0.14127 0.769328
-0.129409 0.139894 0.768533
-0.129985 0.138534 0.767815
-0.130614 0.137225 0.767406
-0.131289 0.135959 0.767259
-0.131983 0.134712 0.767223
-0.132759 0.133537 0.76765
-0.133592 0.13241 0.768395
-0.134449 0.1313 0.769262
-0.135297 0.130179 0.770072
-0.136155 0.129063 0.770933
-0.136951 0.127892 0.771443
-0.137702 0.126683 0.771704
-0.138482 0.125496 0.772119
-0.13927 0.124314 0.772573
-0.140063 0.123134 0.773053
-0.140966 0.122036 0.774126
-0.14198 0.121016 0.775774
-0.143031 0.120017 0.777605
-0.144155 0.119064 0.779804
-0.145365 0.118163 0.782444
-0.146473 0.11718 0.784524
-0.147505 0.116135 0.786188
-0.148486 0.115049 0.787571
-0.149408 0.113917 0.788638
-0.150269 0.11274 0.789382
-0.151079 0.111527 0.789855
-0.151881 0.110308 0.790288
-0.152524 0.108986 0.7899
-0.153206 0.10769 0.789715
-0.153852 0.106374 0.78936
-0.154542 0.105084 0.789218
-0.155221 0.10379 0.789027
-0.155994 0.10255 0.789304
-0.156766 0.10131 0.789578
-0.157526 0.100061 0.789788
-0.158337 0.0988401 0.790249
-0.159099 0.0975908 0.790464
-0.159891 0.096357 0.790828
-0.160664 0.0951115 0.791092
-0.161475 0.0938853 0.791544
-0.16226 0.0926436 0.79186
-0.163128 0.0914425 0.792578
-0.164034 0.0902576 0.793472
-0.164929 0.0890636 0.794303
-0.165825 0.0878676 0.795137
-0.166751 0.0866822 0.796104
-0.167645 0.085479 0.796915
-0.168474 0.0842436 0.797413
-0.169298 0.0830047 0.797882
-0.17017 0.0817846 0.798579
-0.171016 0.0805513 0.799142
-0.171852 0.0793117 0.799659
-0.172737 0.0780901 0.800393
-0.173618 0.0768643 0.801106
-0.174503 0.0756377 0.801832
-0.175432 0.0744251 0.802753
-0.176419 0.0732307 0.803935
-0.177414 0.0720352 0.805138
-0.17846 0.0708533 0.806564
-0.179512 0.0696688 0.808008
-0.180648 0.0685075 0.809818
-0.181841 0.067359 0.811863
-0.183029 0.0662015 0.813875
-0.184212 0.0650355 0.815851
-0.185428 0.0638731 0.817954
-0.186576 0.0626835 0.819747
-0.187795 0.0615079 0.821837
-0.189061 0.0603389 0.824117
-0.19037 0.0591741 0.82657
-0.191663 0.0579966 0.82893
-0.193004 0.056824 0.831482
-0.194253 0.0556192 0.833627
-0.116618 0.189981 0.833237
-0.117262 0.188481 0.832472
-0.119317 0.18417 0.831047
-0.119668 0.182298 0.828382
-0.120074 0.18051 0.826106
-0.120422 0.178658 0.823467
-0.120682 0.176709 0.820295
-0.121189 0.175087 0.818754
-0.12184 0.173651 0.818154
-0.122421 0.172133 0.817114
-0.122954 0.170561 0.815774
-0.123409 0.168904 0.813965
-0.12387 0.167262 0.812204
-0.124387 0.165695 0.810819
-0.124969 0.164208 0.809847
-0.124903 0.161995 0.804879
-0.124516 0.159446 0.797973
-0.124033 0.156825 0.790551
-0.123549 0.15424 0.783208
-0.123142 0.15177 0.776398
-0.123444 0.150085 0.773945
-0.124058 0.148736 0.77339
-0.124645 0.147362 0.772682
-0.125216 0.145975 0.771881
-0.125773 0.144578 0.771009
-0.12634 0.143195 0.770207
-0.126893 0.141802 0.769327
-0.12746 0.140426 0.768531
-0.128036 0.139063 0.767804
-0.128627 0.137718 0.767171
-0.129272 0.136426 0.766856
-0.129961 0.135174 0.766793
-0.130684 0.133953 0.766923
-0.131461 0.132781 0.767361
-0.132293 0.131654 0.768106
-0.13316 0.130553 0.769038
-0.13402 0.129443 0.769922
-0.134879 0.128329 0.770795
-0.13569 0.127171 0.771393
-0.136454 0.125973 0.771733
-0.137234 0.124786 0.772148
-0.138021 0.123603 0.772601
-0.138827 0.122433 0.773156
-0.139761 0.121358 0.774396
-0.140821 0.120373 0.776305
-0.14192 0.11941 0.778412
-0.143091 0.118489 0.780875
-0.14433 0.117608 0.783689
-0.145451 0.116632 0.785845
-0.146467 0.115573 0.78743
-0.147433 0.114475 0.788742
-0.148334 0.113326 0.789702
-0.149161 0.112125 0.790266
-0.149938 0.110889 0.790569
-0.150738 0.109668 0.790995
-0.15137 0.108337 0.790546
-0.152053 0.107041 0.790363
-0.152719 0.105735 0.790097
-0.153422 0.104452 0.790019
-0.154087 0.103147 0.789751
-0.154873 0.101914 0.790096
-0.155645 0.100672 0.790368
-0.156407 0.0994233 0.790584
-0.157219 0.0982014 0.791053
-0.158 0.096961 0.791363
-0.15881 0.0957346 0.791807
-0.159621 0.0945076 0.792259
-0.160469 0.0932978 0.792886
-0.161292 0.0920735 0.793388
-0.162178 0.0908784 0.794194
-0.163082 0.0896893 0.795076
-0.16396 0.0884842 0.795826
-0.164839 0.0872772 0.796578
-0.165751 0.0860823 0.797478
-0.166644 0.0848761 0.798288
-0.167472 0.0836378 0.798779
-0.168314 0.0824039 0.79933
-0.169201 0.0811878 0.800092
-0.170051 0.0799531 0.800671
-0.170886 0.0787104 0.801181
-0.17179 0.0774934 0.802004
-0.172672 0.0762652 0.802723
-0.17356 0.0750364 0.803461
-0.174526 0.073835 0.804553
-0.175518 0.0726386 0.805756
-0.176496 0.0714338 0.806885
-0.177542 0.0702483 0.808314
-0.178633 0.0690737 0.809938
-0.17982 0.0679256 0.811978
-0.181086 0.0667961 0.814356
-0.182337 0.065654 0.816655
-0.18356 0.0644952 0.81881
-0.184774 0.0633261 0.820911
-0.185905 0.0621255 0.822627
-0.187082 0.0609324 0.824536
-0.188364 0.059762 0.826891
-0.189714 0.0586029 0.829524
-0.191063 0.0574343 0.832134
-0.192412 0.0562572 0.834731
-0.193721 0.0550611 0.837129
-0.119011 0.184801 0.838001
-0.119405 0.182964 0.835555
-0.119818 0.181164 0.833257
-0.120075 0.179174 0.829966
-0.120252 0.177099 0.826175
-0.120656 0.175329 0.823909
-0.121211 0.173759 0.822651
-0.121713 0.172132 0.821069
