ply
format ascii 1.0
element vertex 1752
property float x
property float y
property float z
end_header
0.182222 0.118717 0.783483
0.181341 0.119691 0.784602
0.180487 0.12069 0.785872
0.179591 0.121658 0.786935
0.17869 0.122627 0.787984
0.177769 0.12358 0.788939
0.176845 0.124534 0.789888
0.175899 0.125471 0.79072
0.174977 0.126433 0.791698
0.174068 0.127408 0.792755
0.173144 0.128374 0.79374
0.172229 0.129353 0.794792
0.171314 0.130333 0.795848
0.170398 0.131317 0.796918
0.169468 0.13229 0.797913
0.168547 0.133276 0.798977
0.167623 0.134263 0.800033
0.166701 0.135253 0.801102
0.16579 0.136262 0.802267
0.164929 0.137324 0.803729
0.164107 0.138435 0.805448
0.163249 0.139513 0.806975
0.162423 0.140632 0.808708
0.1616 0.141761 0.810496
0.160728 0.142844 0.811999
0.159928 0.144014 0.813972
0.159216 0.145292 0.816522
0.158537 0.146621 0.819321
0.157909 0.148021 0.822481
0.157304 0.149465 0.825851
0.156658 0.150873 0.828999
0.155941 0.152212 0.831739
0.15517 0.153494 0.834159
0.294264 0.0482082 0.826272
0.291356 0.0487337 0.820904
0.288604 0.0492775 0.815985
0.28596 0.0498323 0.811367
0.283978 0.0505258 0.808844
0.28221 0.0512615 0.806988
0.280429 0.0519891 0.805071
0.278688 0.0527193 0.803263
0.276859 0.0534225 0.801146
0.274972 0.0541044 0.798817
0.273095 0.0547812 0.796494
0.271296 0.0554712 0.794408
0.269538 0.0561659 0.792435
0.267842 0.0568703 0.790652
0.266224 0.0575914 0.789112
0.264698 0.0583323 0.787868
0.263226 0.0590842 0.786793
0.26183 0.0598552 0.785968
0.26047 0.0606333 0.785252
0.259132 0.0614147 0.784609
0.25779 0.0621928 0.783938
0.256344 0.0629353 0.782897
0.254829 0.0636523 0.781598
0.253336 0.0643713 0.780357
0.251912 0.0651086 0.779352
0.250533 0.0658576 0.778495
0.249308 0.0666544 0.778176
0.24813 0.0674656 0.778024
0.246967 0.0682811 0.777919
0.245721 0.0690658 0.777511
0.244444 0.0698376 0.776981
0.243109 0.0705856 0.776228
0.241801 0.0713404 0.775565
0.240485 0.0720887 0.774862
0.239212 0.0728513 0.774311
0.237921 0.0736037 0.773682
0.236686 0.0743756 0.773256
0.235474 0.0751553 0.77291
0.234254 0.0759288 0.772527
0.233031 0.0766992 0.772125
0.231876 0.0774961 0.771978
0.230727 0.0782938 0.771849
0.229572 0.0790878 0.771694
0.228438 0.0798893 0.771619
0.227316 0.0806958 0.771585
0.226172 0.0814909 0.771459
0.22503 0.0822855 0.771336
0.22393 0.0830986 0.771381
0.222852 0.0839203 0.771512
0.221759 0.0847358 0.771579
0.220678 0.0855555 0.771695
0.219564 0.0863589 0.771668
0.218451 0.0871613 0.771645
0.217339 0.0879638 0.771625
0.216227 0.0887645 0.771597
0.21511 0.0895626 0.77155
0.214013 0.0903696 0.771581
0.212905 0.0911695 0.77156
0.211784 0.0919618 0.771484
0.210693 0.0927694 0.771531
0.209617 0.0935841 0.77164
0.208545 0.0944016 0.771764
0.207507 0.0952368 0.772039
0.206501 0.096091 0.772453
0.205495 0.0969454 0.772865
0.204441 0.0977719 0.773068
0.203383 0.0985961 0.773251
0.202338 0.0994275 0.773494
0.201254 0.100235 0.773558
0.200173 0.101043 0.77363
0.199146 0.101885 0.773954
0.198123 0.10273 0.774293
0.197077 0.10356 0.774525
0.196116 0.104446 0.775158
0.19517 0.105344 0.775866
0.194182 0.106214 0.776377
0.193205 0.107094 0.776949
0.192224 0.107971 0.777503
0.191185 0.108809 0.777778
0.190145 0.109645 0.77805
0.189119 0.110493 0.77839
0.188065 0.111319 0.778593
0.187041 0.112168 0.77894
0.186031 0.113028 0.779365
0.185038 0.113901 0.779876
0.184088 0.114809 0.780609
0.183209 0.115775 0.781708
0.182334 0.116747 0.782842
0.181484 0.117742 0.784114
0.180617 0.118728 0.785314
0.179743 0.119713 0.786491
0.178829 0.120667 0.787467
0.177897 0.121609 0.788364
0.176964 0.122554 0.78926
0.176042 0.123509 0.790217
0.175107 0.124457 0.791126
0.174199 0.125431 0.792185
0.173305 0.126422 0.793331
0.172394 0.1274 0.794397
0.171494 0.128394 0.795543
0.17059 0.129386 0.796672
0.16966 0.130358 0.797671
0.168713 0.131316 0.79858
0.167775 0.132287 0.799552
0.166835 0.133257 0.800518
0.165899 0.134236 0.801525
0.164987 0.135243 0.802681
0.164124 0.136305 0.804149
0.163285 0.137398 0.805781
0.162424 0.138474 0.807298
0.161594 0.139589 0.809024
0.160796 0.140746 0.810971
0.159963 0.141874 0.812733
0.159191 0.143076 0.814893
0.15849 0.144369 0.817538
0.157818 0.145708 0.82041
0.157161 0.147076 0.82341
0.156518 0.148477 0.826561
0.155842 0.149852 0.829541
0.155085 0.15114 0.832033
0.154271 0.152371 0.834186
0.302277 0.0464006 0.839838
0.302668 0.0443295 0.840134
0.301352 0.0452238 0.839918
0.300149 0.047127 0.837064
0.299714 0.0460528 0.838683
0.297372 0.0477101 0.832217
0.297231 0.0467041 0.834753
0.294293 0.0472485 0.82934
0.291319 0.0477697 0.823756
0.288386 0.0482843 0.818253
0.285598 0.0488153 0.813162
0.283603 0.0495114 0.810592
0.281789 0.0502412 0.80859
0.27996 0.050962 0.806512
0.278171 0.0516854 0.804547
0.276291 0.0523802 0.802261
0.274379 0.0530604 0.799842
0.272503 0.0537415 0.79752
0.270727 0.0544414 0.795505
0.268986 0.0551446 0.793588
0.267289 0.0558529 0.791795
0.265643 0.0565692 0.790161
0.264091 0.0573062 0.788828
0.262595 0.0580544 0.787668
0.261197 0.0588269 0.786838
0.259859 0.0596137 0.786202
0.258567 0.0604112 0.785717
0.257253 0.0611996 0.785146
0.255828 0.0619521 0.784178
0.254296 0.0626667 0.782819
0.252773 0.0633801 0.781478
0.251302 0.0641048 0.780305
0.249914 0.0648534 0.779412
0.248665 0.0656445 0.779011
0.247523 0.0664693 0.778989
0.246361 0.0672867 0.778893
0.245136 0.0680811 0.778565
0.243847 0.0688507 0.77799
0.242534 0.069609 0.777324
0.241169 0.0703451 0.776448
0.23983 0.0710882 0.775657
0.23853 0.071842 0.775006
0.237237 0.0725961 0.774372
0.236002 0.0733695 0.773947
0.234814 0.0741594 0.773691
0.233612 0.0749425 0.773377
0.232408 0.0757227 0.773054
0.231271 0.0765285 0.772978
0.230122 0.0773283 0.772856
0.228987 0.0781331 0.772784
0.227852 0.0789368 0.772705
0.226709 0.079735 0.772593
0.225525 0.0805143 0.772312
0.224345 0.0812934 0.772042
0.223207 0.0820901 0.771935
0.222112 0.0829058 0.772001
0.221017 0.0837207 0.77206
0.21995 0.0845482 0.772232
0.218834 0.0853516 0.772202
0.21772 0.0861547 0.772177
0.216608 0.0869585 0.772157
0.215496 0.0877603 0.772132
0.214384 0.0885619 0.772102
0.213301 0.0893773 0.7722
0.212208 0.0901867 0.772245
0.211116 0.0909961 0.772296
0.21004 0.0918133 0.772412
0.208966 0.0926308 0.77253
0.207893 0.093449 0.772658
0.206855 0.0942858 0.772936
0.205819 0.0951238 0.77322
0.204782 0.0959619 0.773504
0.203743 0.0967984 0.773775
0.202702 0.0976335 0.77404
0.201661 0.0984694 0.774306
0.200592 0.0992869 0.77444
0.199519 0.100102 0.774558
0.19846 0.100926 0.774738
0.197404 0.101751 0.77493
0.196353 0.102579 0.775141
0.195376 0.103455 0.775703
0.194415 0.104344 0.776347
0.193426 0.105215 0.776859
0.19245 0.106095 0.777435
0.191453 0.106962 0.77792
0.190416 0.107801 0.778202
0.189375 0.108639 0.778474
0.188347 0.109485 0.778809
0.187294 0.110313 0.779018
0.186281 0.111172 0.77943
0.185283 0.112041 0.779918
0.18429 0.112915 0.780428
0.183351 0.113833 0.781224
0.182483 0.114807 0.782391
0.181609 0.115782 0.783538
0.180748 0.116769 0.784762
0.179878 0.117753 0.785956
0.178985 0.118723 0.787047
0.178054 0.119664 0.787935
0.177109 0.120595 0.788767
0.176187 0.12155 0.789733
0.175267 0.122507 0.790706
0.174344 0.123467 0.791684
0.173447 0.124452 0.792817
0.172565 0.125454 0.794039
0.171656 0.126437 0.795131
0.17078 0.127453 0.796413
0.169874 0.128447 0.797554
0.168944 0.129419 0.798555
0.167982 0.130366 0.799392
0.167028 0.131321 0.800278
0.166061 0.132266 0.801095
0.165121 0.133242 0.802092
0.164196 0.134237 0.803184
0.163333 0.135299 0.804656
0.162479 0.136377 0.80621
0.161614 0.137449 0.807715
0.160781 0.138563 0.809439
0.160008 0.139748 0.81155
0.159215 0.140921 0.813575
0.158471 0.142157 0.815936
0.157781 0.143464 0.818674
0.157103 0.144798 0.821525
0.156411 0.146129 0.824339
0.155716 0.147469 0.827169
0.154997 0.148794 0.829897
0.154199 0.150035 0.832139
0.153346 0.151215 0.83404
0.300422 0.0440466 0.839983
0.299105 0.0449408 0.839759
0.29687 0.0456477 0.836611
0.294113 0.0462387 0.83176
0.291152 0.0467723 0.826213
0.28813 0.0472773 0.820411
0.285221 0.0477912 0.814918
0.283171 0.0484804 0.812171
0.281351 0.0492139 0.810145
0.279513 0.0499371 0.808038
0.277692 0.0506572 0.805969
0.275761 0.0513445 0.803509
0.273868 0.0520335 0.801151
0.271995 0.0527205 0.79883
0.270223 0.053426 0.796827
0.268483 0.0541328 0.794913
0.2668 0.0548493 0.793167
0.265127 0.0555624 0.791441
0.26353 0.0562908 0.789954
0.262009 0.0570347 0.788708
0.260589 0.0578035 0.787799
0.259246 0.0585911 0.78715
0.257952 0.0593902 0.786659
0.25666 0.0601877 0.786167
0.25526 0.0609502 0.785287
0.253729 0.0616688 0.78393
0.252188 0.0623794 0.782522
0.250674 0.0630938 0.781193
0.249242 0.06383 0.780147
0.24795 0.0646085 0.779589
0.246801 0.0654326 0.779547
0.245621 0.0662454 0.779385
0.244419 0.0670487 0.77914
0.243154 0.0678284 0.778655
0.241865 0.0685974 0.778074
0.24048 0.0693286 0.777127
0.239134 0.0700705 0.776312
0.237809 0.070817 0.775564
0.236514 0.0715721 0.774917
0.235281 0.0723476 0.774502
0.234112 0.0731467 0.774317
0.232929 0.0739385 0.77408
0.231746 0.0747282 0.773837
0.230613 0.075538 0.773782
0.229468 0.0763406 0.773676
0.228347 0.077153 0.773661
0.227227 0.0779645 0.77365
0.226099 0.078772 0.773598
0.224913 0.0795519 0.773314
0.22373 0.080332 0.773033
0.222556 0.0811142 0.772784
0.221424 0.0819142 0.772698
0.220292 0.0827128 0.77261
0.219207 0.0835328 0.772714
0.218088 0.0843357 0.772672
0.216973 0.0851397 0.772642
0.21586 0.0859435 0.772617
0.214746 0.0867458 0.772592
0.213635 0.0875483 0.772566
0.212541 0.0883592 0.772616
0.211449 0.0891703 0.772667
0.210372 0.0899883 0.772783
0.209309 0.0908135 0.77296
0.20825 0.0916403 0.773148
0.207193 0.0924681 0.773345
0.206169 0.0933146 0.773692
0.205132 0.0941535 0.773976
0.204095 0.0949923 0.774262
0.203056 0.0958307 0.77454
0.202016 0.0966678 0.774814
0.200977 0.0975055 0.775091
0.199893 0.0983164 0.775162
0.198803 0.099122 0.775205
0.197737 0.0999428 0.775355
0.196662 0.100757 0.775462
0.195609 0.101584 0.775668
0.194632 0.102462 0.776236
0.193671 0.103351 0.776885
0.192671 0.104215 0.777345
0.191693 0.105094 0.777917
0.190683 0.105953 0.77834
0.189642 0.106792 0.778616
0.188601 0.107629 0.778888
0.187574 0.108477 0.779228
0.186519 0.109304 0.779431
0.185519 0.110173 0.779911
0.184536 0.111055 0.780477
0.183541 0.111928 0.780988
0.182615 0.112855 0.781851
0.181758 0.113841 0.783087
0.180884 0.114815 0.784243
0.18001 0.115794 0.785412
0.179138 0.116778 0.786606
0.17823 0.117735 0.78762
0.177281 0.118663 0.788427
0.176335 0.119594 0.789253
0.175414 0.12055 0.790231
0.174505 0.121517 0.791275
0.173594 0.122489 0.792326
0.17271 0.123486 0.793538
0.171825 0.124487 0.79476
0.17094 0.125492 0.795991
0.170062 0.126509 0.797282
0.169158 0.127504 0.798436
0.168212 0.128465 0.799363
0.167237 0.1294 0.800131
0.166267 0.130341 0.800934
0.165297 0.131286 0.80175
0.164356 0.132262 0.802745
0.163432 0.133258 0.80385
0.162565 0.134318 0.805316
0.161698 0.135383 0.8068
0.160819 0.136441 0.808227
0.159996 0.137566 0.810026
0.159248 0.13878 0.812314
0.158494 0.139997 0.814598
0.157764 0.141252 0.817071
0.15707 0.142558 0.819811
0.156371 0.143871 0.82256
0.155636 0.145153 0.825115
0.154895 0.146441 0.827676
0.154136 0.147717 0.830148
0.153321 0.148937 0.832288
0.152429 0.150071 0.833951
0.299267 0.0428264 0.839339
0.297884 0.0437074 0.8389
0.295735 0.0444341 0.836011
0.293103 0.0450553 0.83154
0.290388 0.0456465 0.826761
0.287592 0.0462069 0.821673
0.284858 0.0467655 0.816735
0.282739 0.0474459 0.813759
0.280885 0.0481764 0.811622
0.279014 0.0488963 0.809406
0.277162 0.0496145 0.807226
0.275203 0.0502994 0.804671
0.273331 0.0509985 0.802376
0.271458 0.0516897 0.800057
0.26969 0.0524001 0.798064
0.267953 0.053112 0.796159
0.266271 0.0538327 0.794415
0.264578 0.054544 0.792614
0.262955 0.0552684 0.791039
0.261407 0.0560087 0.789702
0.25996 0.0567725 0.788697
0.258593 0.0575553 0.787962
0.257277 0.0583499 0.787398
0.255999 0.0591536 0.786956
0.25462 0.0599248 0.786148
0.25313 0.0606587 0.784939
0.251615 0.0613805 0.783623
0.250123 0.0621046 0.782371
0.24865 0.0628308 0.781173
0.247312 0.0635968 0.780453
0.246104 0.0644032 0.780197
0.244902 0.0652096 0.779957
0.243719 0.0660207 0.779782
0.242491 0.0668153 0.779434
0.241222 0.0675934 0.778929
0.239856 0.0683339 0.77805
0.238508 0.0690774 0.777227
0.23716 0.0698177 0.776395
0.235845 0.070567 0.775675
0.234595 0.0713384 0.775192
0.233424 0.0721383 0.775007
0.232261 0.0729391 0.774847
0.231079 0.0737316 0.774607
0.229947 0.0745423 0.774561
0.228819 0.0753541 0.774522
0.227697 0.0761673 0.774509
0.226561 0.0769735 0.774431
0.225451 0.0777895 0.774458
0.224285 0.0785811 0.774256
0.223103 0.0793632 0.773982
0.221924 0.0801453 0.773714
0.220784 0.0809433 0.773603
0.219631 0.0817341 0.773433
0.21853 0.0825481 0.773471
0.217396 0.0833453 0.773374
0.216263 0.0841419 0.773271
0.215144 0.0849439 0.773222
0.214028 0.0857467 0.773187
0.212917 0.0865503 0.773167
0.211825 0.0873635 0.773226
0.210733 0.0881758 0.773282
0.209641 0.0889862 0.773333
0.208564 0.0898052 0.773449
0.20749 0.090625 0.773574
0.206432 0.0914529 0.773774
0.205408 0.0923 0.774118
0.204368 0.0931382 0.774395
0.203327 0.0939758 0.774667
0.202299 0.0948206 0.774998
0.201274 0.0956674 0.775341
0.200238 0.0965081 0.775634
0.199168 0.0973283 0.775772
0.19809 0.0981429 0.775874
0.196994 0.0989459 0.775888
0.195888 0.0997412 0.775851
0.194818 0.100559 0.77598
0.193826 0.101426 0.776479
0.192854 0.102308 0.777075
0.191866 0.103181 0.777603
0.190902 0.104071 0.778243
0.189903 0.104938 0.778725
0.188876 0.105786 0.779066
0.187849 0.106635 0.779411
0.186836 0.107493 0.779823
0.185795 0.108332 0.780103
0.184796 0.109202 0.78059
0.183799 0.110075 0.781094
0.182792 0.110941 0.781549
0.181852 0.111858 0.782349
0.180995 0.112843 0.78359
0.18012 0.113818 0.784749
0.179244 0.114796 0.785917
0.178368 0.115777 0.787099
0.177457 0.116733 0.788107
0.176495 0.11765 0.788846
0.175562 0.118592 0.789749
0.17464 0.119548 0.790729
0.173743 0.120527 0.791849
0.172832 0.1215 0.792915
0.171959 0.122508 0.794192
0.171062 0.123499 0.795354
0.170186 0.124514 0.796649
0.169296 0.125519 0.797879
0.168389 0.126513 0.799026
0.167442 0.127473 0.799956
0.166475 0.128417 0.800782
0.165492 0.129348 0.801515
0.164534 0.130305 0.802406
0.163592 0.131281 0.803405
0.162666 0.132277 0.804514
0.161787 0.133326 0.805918
0.160916 0.134389 0.80739
0.160045 0.135456 0.808883
0.159246 0.136608 0.810844
0.158512 0.137838 0.813239
0.157795 0.139099 0.815777
0.157084 0.140378 0.818398
0.156386 0.141682 0.82114
0.155669 0.142977 0.823799
0.154904 0.144227 0.826186
0.154123 0.145469 0.828501
0.153333 0.14671 0.830793
0.152489 0.147896 0.832759
0.151572 0.148999 0.834257
0.298231 0.0416299 0.839066
0.296629 0.0424692 0.837926
0.294534 0.0432091 0.835192
0.292024 0.0438587 0.831095
0.289517 0.0444974 0.826967
0.286852 0.0450912 0.822287
0.28433 0.0457015 0.818028
0.282215 0.0463882 0.815057
0.280335 0.0471177 0.81283
0.278434 0.0478349 0.810509
0.276557 0.0485517 0.808247
0.274578 0.0492365 0.805618
0.272706 0.0499391 0.803321
0.270852 0.0506392 0.801059
0.269107 0.0513593 0.79914
0.267374 0.0520759 0.797245
0.265696 0.0528013 0.795513
0.264023 0.0535217 0.79378
0.262398 0.0542494 0.792192
0.260826 0.0549859 0.790772
0.259354 0.0557459 0.789683
0.257981 0.0565297 0.788926
0.256639 0.0573191 0.788273
0.255321 0.0581129 0.787691
0.253957 0.0588907 0.786938
0.252492 0.0596346 0.785814
0.251022 0.0603731 0.784656
0.249535 0.0611021 0.783423
0.24808 0.0618374 0.78229
0.246696 0.0625907 0.781403
0.245441 0.0633836 0.780977
0.244197 0.0641776 0.780582
0.243012 0.0649891 0.780402
0.241784 0.0657855 0.780058
0.240534 0.0665717 0.779624
0.239189 0.0673214 0.778821
0.237843 0.0680684 0.778004
0.236499 0.0688123 0.777186
0.235182 0.0695631 0.776456
0.23393 0.0703356 0.775971
0.232741 0.0711297 0.775718
0.231575 0.0719313 0.775548
0.230409 0.0727315 0.775372
0.229258 0.0735359 0.775253
0.228109 0.0743407 0.775139
0.226984 0.0751538 0.775114
0.225847 0.0759609 0.775032
0.224726 0.0767736 0.775016
0.2236 0.0775841 0.774978
0.22244 0.0783771 0.774795
0.22126 0.0791601 0.774527
0.220114 0.0799574 0.774393
0.218955 0.0807472 0.774201
0.217837 0.0815547 0.774173
0.216706 0.0823543 0.774085
0.215588 0.0831598 0.774052
0.214469 0.0839632 0.774005
0.213349 0.0847654 0.773955
0.212235 0.0855695 0.773926
0.211141 0.0863825 0.773978
0.210032 0.0871877 0.773964
0.208922 0.0879905 0.77394
0.207827 0.0888007 0.773984
0.206737 0.089613 0.77404
0.205666 0.0904345 0.774178
0.204639 0.0912807 0.774517
0.203598 0.0921186 0.774789
0.202555 0.0929554 0.775055
0.201527 0.0938014 0.775387
0.2005 0.094648 0.775726
0.199462 0.0954879 0.77601
0.198391 0.0963085 0.776149
0.197315 0.0971247 0.776257
0.19622 0.0979287 0.776277
0.195114 0.098725 0.776242
0.194044 0.0995437 0.776374
0.193049 0.10041 0.776858
0.19206 0.101281 0.77738
0.19107 0.102152 0.777901
0.19009 0.103032 0.778472
0.189077 0.10389 0.778883
0.18805 0.104738 0.779229
0.187025 0.105588 0.779581
0.186013 0.106448 0.780006
0.185001 0.107308 0.78043
0.184018 0.10819 0.780999
0.183022 0.109064 0.78151
0.18204 0.10995 0.782099
0.181112 0.110877 0.782968
0.180242 0.111853 0.784149
0.179364 0.112826 0.785305
0.178484 0.113801 0.786459
0.177592 0.11477 0.787562
0.176667 0.115715 0.788502
0.175717 0.116642 0.789311
0.174784 0.117586 0.790228
0.173863 0.118543 0.791215
0.172978 0.119534 0.792416
0.172079 0.120517 0.79355
0.171195 0.121517 0.794779
0.170307 0.122517 0.796005
0.169443 0.123543 0.797377
0.168538 0.124537 0.798533
0.16763 0.125531 0.799682
0.16669 0.1265 0.800668
0.165735 0.127456 0.801564
0.164753 0.128388 0.802312
0.163818 0.12937 0.803356
0.162878 0.13035 0.804375
0.161949 0.131346 0.805483
0.161054 0.13238 0.806801
0.160191 0.133452 0.808337
0.159319 0.134522 0.809842
0.158534 0.13569 0.811908
0.157798 0.136922 0.814318
0.157091 0.138194 0.816943
0.156365 0.139459 0.819489
0.155651 0.140747 0.822154
0.154919 0.142026 0.824738
0.154151 0.143276 0.827128
0.153369 0.144518 0.829456
0.152575 0.145758 0.831749
0.151729 0.146944 0.833718
0.150796 0.148029 0.835125
0.29307 0.0419363 0.833522
0.2907 0.0426161 0.829854
0.288388 0.0432967 0.826339
0.285976 0.0439467 0.822462
0.28367 0.0446078 0.818892
0.281602 0.0453084 0.816069
0.279696 0.0460364 0.813753
0.277793 0.0467579 0.811423
0.275899 0.0474744 0.809094
0.273926 0.0481655 0.80648
0.272036 0.0488678 0.804115
0.270199 0.0495757 0.801907
0.268471 0.0503032 0.800043
0.266762 0.0510302 0.798223
0.265108 0.0517644 0.796573
0.263477 0.0524993 0.794983
0.261832 0.0532255 0.793324
0.260237 0.0539595 0.791824
0.258762 0.0547209 0.790724
0.25737 0.0555019 0.789904
0.255987 0.0562822 0.789105
0.254643 0.0570708 0.788433
0.253275 0.0578493 0.787663
0.251812 0.0585969 0.786542
0.250369 0.059346 0.78548
0.248911 0.0600866 0.784352
0.247473 0.0608298 0.783281
0.246062 0.0615766 0.782295
0.244757 0.0623553 0.781686
0.243449 0.0631297 0.78106
0.242242 0.0639356 0.780797
0.241 0.0647277 0.780397
0.23977 0.0655222 0.780036
0.238468 0.0662893 0.779396
0.237162 0.0670525 0.778731
0.23586 0.0678134 0.77807
0.234597 0.0685865 0.777552
0.233346 0.0693615 0.777068
0.232134 0.0701493 0.776732
0.230962 0.0709503 0.776542
0.229757 0.0717371 0.776216
0.228569 0.0725291 0.775951
0.227398 0.0733259 0.775752
0.226252 0.0741317 0.775643
0.225112 0.0749383 0.775554
0.224007 0.0757592 0.775607
0.222888 0.0765732 0.775594
0.221749 0.0773773 0.775501
0.22059 0.0781717 0.775318
0.219443 0.0789699 0.775183
0.218284 0.0797611 0.774995
0.217164 0.0805689 0.77496
0.216032 0.0813702 0.774872
0.214915 0.082177 0.774845
0.213795 0.0829818 0.7748
0.212661 0.0837789 0.774692
0.21153 0.0845756 0.77459
0.210415 0.08538 0.774557
0.209285 0.0861744 0.774454
0.208154 0.0869679 0.774339
0.207056 0.0877771 0.774368
0.205963 0.0885886 0.774414
0.20489 0.0894101 0.774546
0.203848 0.0902484 0.774818
0.202806 0.0910865 0.775091
0.201765 0.0919248 0.775364
0.200738 0.0927716 0.775703
0.199712 0.093619 0.776048
0.198685 0.0944665 0.776394
0.197615 0.0952883 0.776532
0.196539 0.0961055 0.776646
0.195448 0.096913 0.776683
0.194343 0.0977111 0.776654
0.193283 0.0985368 0.776834
0.192272 0.0993929 0.77725
0.191265 0.100253 0.777685
0.190259 0.101114 0.77813
0.189263 0.101983 0.778621
0.188237 0.102831 0.778968
0.18721 0.10368 0.779319
0.186199 0.104541 0.779746
0.185205 0.105413 0.780258
0.184222 0.106295 0.780834
0.183253 0.107188 0.781484
0.182284 0.108082 0.782135
0.181313 0.108978 0.782786
0.180396 0.109915 0.78372
0.17951 0.11088 0.784831
0.178604 0.111831 0.785846
0.177694 0.112782 0.786847
0.176784 0.113738 0.787866
0.175845 0.114672 0.788735
0.174885 0.11559 0.789496
0.173964 0.116545 0.790482
0.173055 0.117512 0.791539
0.172183 0.118514 0.792816
0.171297 0.119509 0.794034
0.170437 0.120532 0.795413
0.169575 0.121556 0.79679
0.168722 0.122594 0.798244
0.167816 0.123587 0.799399
0.166892 0.124569 0.800474
0.16595 0.125536 0.801451
0.164982 0.126482 0.802288
0.164015 0.12743 0.803131
0.163083 0.128417 0.804204
0.162152 0.129408 0.805291
0.161221 0.130403 0.806393
0.160321 0.131433 0.807697
0.159458 0.132507 0.809247
0.158597 0.13359 0.810836
0.157812 0.134762 0.812923
0.157064 0.135981 0.815274
0.156337 0.137235 0.817799
0.155581 0.138467 0.820175
0.154841 0.139727 0.822692
0.154109 0.141008 0.825298
0.153365 0.142286 0.827866
0.152618 0.143572 0.830452
0.15185 0.144845 0.83294
0.151026 0.146061 0.835087
0.150092 0.147148 0.836499
0.2918 0.040703 0.83247
0.289658 0.0414297 0.82952
0.287489 0.0421418 0.826454
0.285201 0.0428218 0.822966
0.283001 0.0435094 0.819735
0.280912 0.0442107 0.816839
0.279004 0.0449419 0.814509
0.277101 0.0456673 0.812173
0.275231 0.0463927 0.809918
0.273265 0.0470899 0.807321
0.271397 0.0478012 0.805025
0.26956 0.0485131 0.80281
0.267829 0.0492437 0.800934
0.266121 0.049974 0.799113
0.264471 0.0507131 0.797471
0.262863 0.0514573 0.79596
0.261237 0.0521911 0.794366
0.259646 0.0529301 0.792875
0.258151 0.0536892 0.791708
0.256756 0.0544716 0.790875
0.255332 0.0552431 0.789929
0.253945 0.0560213 0.789105
0.252572 0.0568007 0.788317
0.251125 0.0575553 0.787253
0.249708 0.0583142 0.786287
0.248276 0.0590657 0.785246
0.246841 0.0598118 0.784189
0.245403 0.0605536 0.783104
0.244035 0.0613139 0.782261
0.24268 0.0620748 0.781457
0.24147 0.0628803 0.781184
0.240249 0.0636812 0.780861
0.239045 0.0644857 0.7806
0.237819 0.0652809 0.780248
0.236575 0.0660681 0.779817
0.235295 0.06684 0.779245
0.234075 0.067631 0.778892
0.232838 0.0684142 0.778472
0.23159 0.0691909 0.777995
0.230376 0.069978 0.777647
0.229127 0.0707499 0.777152
0.227881 0.0715205 0.776662
0.226675 0.0723051 0.776321
0.225506 0.0731021 0.776125
0.224362 0.0739088 0.77602
0.223272 0.0747369 0.776133
0.222169 0.075559 0.776192
0.221049 0.0763726 0.776175
0.219909 0.0771768 0.776077
0.218768 0.077979 0.775963
0.217609 0.0787717 0.775778
0.216471 0.0795731 0.775674
0.215337 0.0803749 0.775576
0.214218 0.0811825 0.775547
0.213102 0.0819904 0.775518
0.211954 0.082782 0.775355
0.210821 0.0835791 0.775245
0.209685 0.0843736 0.775124
0.208519 0.0851514 0.774867
0.207355 0.0859287 0.774603
0.206251 0.0867353 0.774609
0.205156 0.0875462 0.774644
0.204082 0.0883678 0.774778
0.203056 0.0892151 0.775122
0.202045 0.0900709 0.775534
0.20102 0.090919 0.775886
0.199996 0.0917685 0.776243
0.198971 0.0926178 0.776595
0.197944 0.0934659 0.77694
0.196872 0.0942869 0.777073
0.195783 0.0950979 0.777125
0.19469 0.0959052 0.777161
0.193585 0.0967038 0.777131
0.192512 0.0975215 0.777249
0.191485 0.0983692 0.777591
0.190475 0.0992282 0.778016
0.189466 0.100087 0.778449
0.188467 0.100955 0.778933
0.187454 0.101813 0.779345
0.186427 0.102662 0.779698
0.18543 0.103532 0.780196
0.184448 0.104415 0.780777
0.183495 0.105319 0.781509
0.182544 0.106226 0.782253
0.181588 0.107132 0.782986
0.180616 0.108027 0.783639
0.179683 0.108954 0.784501
0.178757 0.109888 0.785403
0.177832 0.110826 0.78633
0.17689 0.111752 0.787167
0.175964 0.112695 0.788106
0.175012 0.113618 0.788903
0.174062 0.114546 0.789728
0.173168 0.115522 0.790864
0.172285 0.116513 0.79208
0.171427 0.117527 0.793438
0.170566 0.118545 0.794807
0.169717 0.119578 0.796263
0.168844 0.120595 0.797595
0.16799 0.121634 0.799054
0.167083 0.122627 0.800218
0.166156 0.123608 0.801285
0.165226 0.124587 0.802338
0.164271 0.125547 0.803263
0.163316 0.12651 0.804195
0.162397 0.127511 0.805358
0.161464 0.128502 0.806445
0.160529 0.129496 0.807539
0.159626 0.130527 0.808844
0.158761 0.131601 0.810401
0.157903 0.132689 0.81202
0.157115 0.133859 0.814112
0.156335 0.135047 0.816284
0.155576 0.136267 0.818625
0.15478 0.137454 0.820755
0.154024 0.138699 0.82319
0.153313 0.140005 0.825956
0.152628 0.141354 0.828941
0.151946 0.14272 0.831993
0.151242 0.144072 0.834941
0.150443 0.145324 0.837289
0.288738 0.0402672 0.82958
0.286705 0.0410092 0.826947
0.284521 0.0417146 0.823791
0.282393 0.0424217 0.820786
0.280299 0.0431268 0.817865
0.278342 0.0438526 0.815364
0.276415 0.0445767 0.812943
0.274521 0.0453009 0.810608
0.272598 0.0460113 0.808146
0.270712 0.0467229 0.805783
0.268878 0.0474389 0.803574
0.267145 0.0481726 0.801684
0.265438 0.0489066 0.799865
0.263768 0.0496431 0.798151
0.262185 0.0503968 0.796721
0.260583 0.0511405 0.795208
0.25901 0.0518863 0.79378
0.257516 0.0526488 0.792613
0.256122 0.0534343 0.791783
0.254675 0.0542015 0.790754
0.253239 0.0549683 0.789757
0.251822 0.0557372 0.788807
0.250391 0.0564981 0.787798
0.248997 0.0572665 0.786913
0.247609 0.0580334 0.786035
0.246218 0.0587958 0.785134
0.244781 0.0595401 0.78405
0.243367 0.0602879 0.783042
0.241969 0.0610374 0.782073
0.240719 0.0618315 0.781652
0.239515 0.062639 0.781393
0.238319 0.0634478 0.781162
0.237134 0.0642588 0.780967
0.23595 0.0650682 0.780769
0.234712 0.0658576 0.78036
0.233497 0.0666526 0.78003
0.2323 0.0674527 0.779767
0.231031 0.0682244 0.779212
0.229773 0.0689977 0.778694
0.2285 0.0697626 0.778108
0.227213 0.0705189 0.777459
0.225967 0.0712892 0.776961
0.224781 0.0720812 0.776692
0.223617 0.0728806 0.776512
0.222508 0.0737012 0.776549
0.22142 0.0745308 0.776665
0.220315 0.0753519 0.776716
0.21921 0.0761722 0.77676
0.218087 0.0769845 0.77673
0.216948 0.0777874 0.776627
0.215809 0.0785899 0.77652
0.214669 0.0793906 0.776404
0.213533 0.0801919 0.776301
0.212415 0.0810006 0.776271
0.211266 0.0817933 0.776104
0.210132 0.0825911 0.775993
0.208979 0.0833789 0.775799
0.207795 0.0841494 0.775463
0.206612 0.0849181 0.775123
0.205493 0.0857175 0.775059
0.204383 0.0865219 0.775032
0.203311 0.0873444 0.775171
0.202286 0.0881933 0.775523
0.201275 0.0890499 0.775942
0.200251 0.089899 0.776298
0.199229 0.0907508 0.776667
0.198204 0.0916001 0.777024
0.197177 0.0924487 0.77737
0.196118 0.0932789 0.777569
0.195042 0.0940986 0.777684
0.193962 0.0949149 0.777781
0.192884 0.0957319 0.777885
0.191825 0.0965608 0.778077
0.190799 0.0974097 0.778427
0.189776 0.0982613 0.778797
0.188749 0.09911 0.779143
0.187734 0.0999675 0.779551
0.186719 0.100826 0.779964
0.185706 0.101686 0.780389
0.184737 0.102578 0.78104
0.183781 0.103479 0.781758
0.182844 0.104396 0.782578
0.181892 0.105305 0.78333
0.180926 0.106204 0.784014
0.179939 0.107091 0.7846
0.17899 0.108007 0.785389
0.178031 0.108918 0.786131
0.177089 0.109843 0.786968
0.176128 0.110756 0.787714
0.175186 0.111686 0.788571
0.174219 0.112598 0.789295
0.173282 0.113537 0.790196
0.1724 0.114524 0.791407
0.171531 0.115527 0.792711
0.170674 0.116543 0.794096
0.169826 0.117574 0.795546
0.168965 0.118596 0.796941
0.16809 0.119611 0.798267
0.167223 0.120639 0.799666
0.166326 0.121645 0.800907
0.165399 0.122626 0.801979
0.164492 0.123629 0.803182
0.163548 0.124601 0.804184
0.162618 0.12559 0.805277
0.161697 0.126591 0.806441
0.160761 0.127583 0.80753
0.159823 0.128574 0.808612
0.15892 0.129606 0.809928
0.158044 0.130672 0.811434
0.157194 0.131771 0.813126
0.15639 0.132925 0.81513
0.155568 0.134071 0.817062
0.154765 0.135243 0.819136
0.153949 0.136409 0.821149
0.153199 0.137661 0.823645
0.152525 0.13901 0.826677
0.151915 0.140449 0.830192
0.151296 0.141894 0.833707
0.150652 0.143324 0.837108
0.290303 0.038432 0.833723
0.28829 0.0391911 0.831179
0.286179 0.0399244 0.828287
0.283959 0.0406278 0.825006
0.2818 0.0413345 0.821894
0.279673 0.0420384 0.818855
0.277663 0.0427574 0.816174
0.275709 0.0434798 0.813657
0.273792 0.0442028 0.811233
0.27189 0.0449224 0.808836
0.270006 0.0456377 0.806476
0.268174 0.0463583 0.804266
0.266465 0.0471008 0.802455
0.264797 0.0478469 0.800767
0.26315 0.0485931 0.799127
0.261591 0.0493554 0.797783
0.26001 0.0501077 0.796342
0.258441 0.0508579 0.794923
0.256923 0.0516172 0.793673
0.255502 0.0523984 0.792748
0.254009 0.0531557 0.791558
0.25253 0.053913 0.790401
0.251086 0.0546762 0.789354
0.249634 0.0554339 0.788268
0.248243 0.0562049 0.787386
0.246881 0.0569813 0.786604
0.245531 0.0577574 0.785851
0.244117 0.0585119 0.784854
0.242723 0.0592687 0.783914
0.241305 0.0600136 0.782873
0.240048 0.0608078 0.782425
0.238826 0.0616106 0.782103
0.237648 0.0624268 0.781941
0.236468 0.0632414 0.781768
0.235323 0.0640665 0.781723
0.234107 0.064865 0.781398
0.232911 0.0656698 0.781146
0.231713 0.0664718 0.780884
0.23046 0.0672513 0.780393
0.229202 0.0680271 0.77988
0.227922 0.068792 0.779269
0.226632 0.0695497 0.778605
0.225382 0.0703208 0.778094
0.224176 0.0711074 0.777753
0.222994 0.0719013 0.777502
0.221869 0.0727172 0.777476
0.220745 0.0735331 0.777453
0.219621 0.0743477 0.777428
0.218513 0.0751678 0.777463
0.21739 0.0759814 0.777434
0.216252 0.0767864 0.777336
0.215128 0.0775971 0.777297
0.214005 0.0784073 0.777253
0.212865 0.0792081 0.777136
0.211744 0.0800172 0.777099
0.210592 0.0808097 0.776923
0.209456 0.0816088 0.776806
0.208302 0.0823975 0.776611
0.207136 0.0831785 0.776353
0.20597 0.083958 0.77609
0.204867 0.0847682 0.776103
0.203772 0.0855822 0.776151
0.202687 0.0864001 0.776237
0.201646 0.0872417 0.776522
0.200603 0.0880823 0.776798
0.199559 0.0889222 0.777073
0.198533 0.0897724 0.777428
0.197523 0.0906316 0.777856
0.196511 0.0914907 0.778282
0.195467 0.0923311 0.778555
0.194403 0.0931598 0.778736
0.193338 0.093988 0.778909
0.192275 0.0948156 0.779089
0.191232 0.0956569 0.779368
0.19022 0.0965175 0.779797
0.189194 0.0973692 0.780159
0.188152 0.0982105 0.780442
0.187121 0.0990602 0.780779
0.186091 0.0999106 0.781127
0.185065 0.100764 0.781494
0.184082 0.101647 0.782081
0.183113 0.102542 0.782742
0.18216 0.103449 0.783491
0.181193 0.104348 0.784173
0.180223 0.105247 0.78485
0.179234 0.106132 0.785426
0.178281 0.107047 0.786206
0.177306 0.107946 0.786866
0.176345 0.108859 0.787613
0.175368 0.109759 0.788277
0.1744 0.11067 0.788997
0.173429 0.111579 0.78971
0.172517 0.112539 0.790754
0.171649 0.11354 0.792062
0.170799 0.114558 0.793472
0.169967 0.115598 0.795012
0.169115 0.116626 0.796458
0.168236 0.117635 0.797762
0.167357 0.118648 0.799081
0.166486 0.119673 0.800465
0.165589 0.120679 0.801713
0.164661 0.121661 0.802792
0.163755 0.122667 0.804017
0.162811 0.123641 0.805025
0.16188 0.12463 0.806125
0.160956 0.12563 0.807283
0.160029 0.126632 0.808438
0.159102 0.127637 0.809605
0.158222 0.128695 0.811084
0.157356 0.129774 0.812671
0.156503 0.130872 0.814361
0.155669 0.131997 0.816198
0.154818 0.133112 0.817955
0.153987 0.134255 0.819863
0.153165 0.135417 0.821865
0.152451 0.13671 0.824612
0.151825 0.138118 0.827998
0.151268 0.139622 0.831914
0.150688 0.141116 0.835726
0.150055 0.142564 0.839241
0.292051 0.0376194 0.835386
0.293043 0.0356559 0.837647
0.291352 0.0364869 0.836184
0.289729 0.0373246 0.834927
0.287739 0.038093 0.832454
0.285559 0.038819 0.82933
0.283394 0.0395385 0.826223
0.281179 0.0402398 0.822916
0.278993 0.0409365 0.819676
0.27693 0.0416493 0.816808
0.275 0.0423813 0.814364
0.273083 0.0431083 0.811933
0.271249 0.0438461 0.809763
0.269367 0.0445663 0.807401
0.267538 0.0452912 0.805198
0.265827 0.0460366 0.803375
0.264159 0.0467866 0.801682
0.262513 0.0475362 0.800049
0.260977 0.0483067 0.79878
0.259422 0.0490689 0.797428
0.257872 0.0498277 0.796075
0.256351 0.0505894 0.794814
0.254887 0.0513618 0.793736
0.253364 0.0521141 0.79244
0.251843 0.052863 0.791128
0.250354 0.0536158 0.789918
0.248882 0.0543698 0.788754
0.247489 0.0551418 0.787866
0.246149 0.0559263 0.787163
0.244827 0.0567135 0.78651
0.243457 0.0574831 0.785675
0.242104 0.0582549 0.784892
0.240705 0.0590089 0.78392
0.239428 0.0597986 0.783401
0.238201 0.0606018 0.783059
0.236999 0.0614122 0.782811
0.235821 0.0622289 0.782643
0.234672 0.063054 0.782589
0.233474 0.0638616 0.782339
0.232293 0.0646727 0.782146
0.231094 0.0654767 0.781881
0.229841 0.0662586 0.781395
0.228601 0.067043 0.780956
0.227326 0.0678121 0.780367
0.226038 0.0685734 0.779712
0.224805 0.0693537 0.779272
0.223595 0.0701407 0.778922
0.222395 0.0709299 0.7786
0.22125 0.0717398 0.778498
0.220106 0.072549 0.778395
0.218963 0.0733573 0.778294
0.217854 0.0741791 0.778329
0.21673 0.0749929 0.778299
0.215591 0.0757996 0.778201
0.214466 0.0766113 0.778158
0.213342 0.077423 0.778118
0.212172 0.0782113 0.777875
0.211033 0.0790134 0.777762
0.209877 0.0798054 0.777568
0.20874 0.0806052 0.777449
0.20759 0.0813974 0.777272
0.206458 0.0821978 0.777169
0.205324 0.0829948 0.777055
0.20424 0.0838169 0.777157
0.203162 0.0846411 0.777283
0.202089 0.085468 0.777428
0.201029 0.0863009 0.777633
0.199963 0.0871309 0.777815
0.198913 0.0879692 0.778064
0.197883 0.0888186 0.778407
0.196873 0.0896801 0.778845
0.195877 0.0905497 0.779352
0.194849 0.0914017 0.779706
0.193786 0.0922334 0.779899
0.192723 0.0930636 0.780088
0.191663 0.0938969 0.780293
0.190623 0.0947412 0.78059
0.18961 0.0956037 0.781027
0.188581 0.0964559 0.781383
0.187536 0.0972973 0.781653
0.1865 0.0981456 0.781981
0.185468 0.0989975 0.782327
0.184443 0.0998526 0.782702
0.183471 0.100746 0.783357
0.182502 0.101643 0.784028
0.181543 0.102548 0.78476
0.180557 0.103436 0.785355
0.179578 0.10433 0.785994
0.178558 0.105195 0.786421
0.177577 0.10609 0.787057
0.176574 0.10697 0.787577
0.175611 0.107882 0.788324
0.174608 0.108764 0.788853
0.17365 0.109683 0.789634
0.172706 0.110615 0.790502
0.171808 0.111587 0.791633
0.170944 0.112592 0.792969
0.170116 0.113631 0.794525
0.169268 0.114659 0.79599
0.168401 0.115675 0.797358
0.167516 0.11668 0.798643
0.166632 0.11769 0.799945
0.165745 0.118703 0.801253
0.164858 0.11972 0.802572
0.16393 0.120702 0.803661
0.163022 0.121709 0.804892
0.162078 0.122683 0.805905
0.161144 0.123671 0.806998
0.160206 0.12466 0.808086
0.159279 0.125663 0.809254
0.158374 0.126693 0.810571
0.157507 0.127766 0.812147
0.156631 0.128835 0.81368
0.155773 0.129931 0.815363
0.154932 0.131052 0.817177
0.154044 0.132127 0.818707
0.153199 0.133258 0.820546
0.152435 0.134485 0.822943
0.151773 0.135839 0.826068
0.15119 0.1373 0.829783
0.15067 0.138851 0.833988
0.150091 0.140352 0.837858
0.149413 0.141751 0.841098
0.292201 0.0344954 0.837991
0.290688 0.0353582 0.837106
0.289172 0.0362181 0.836196
0.287309 0.0370135 0.834135
0.285308 0.0377772 0.831599
0.283064 0.0384895 0.828225
0.280765 0.0391814 0.824638
0.27849 0.0398673 0.82109
0.276295 0.0405598 0.817777
0.274234 0.0412689 0.814882
0.27237 0.0420105 0.812626
0.270566 0.0427585 0.810549
0.268707 0.0434879 0.808262
0.266899 0.0442214 0.806125
0.265168 0.0449661 0.804231
0.263521 0.0457236 0.802608
0.261896 0.0464816 0.801046
0.260386 0.0472619 0.799868
0.258856 0.0480331 0.7986
0.257305 0.0487948 0.797247
0.255761 0.0495542 0.795903
0.254269 0.0503219 0.794725
0.252725 0.0510722 0.793348
0.25116 0.0518123 0.791877
0.24965 0.0525619 0.790587
0.248174 0.0533169 0.78941
0.246778 0.0540902 0.788508
0.245439 0.0548769 0.787806
0.244158 0.0556783 0.787306
0.242831 0.0564632 0.786632
0.241506 0.0572463 0.785954
0.240147 0.0580153 0.785136
0.23889 0.0588139 0.784691
0.237657 0.0596181 0.784335
0.236433 0.060423 0.784002
0.235226 0.0612322 0.783733
0.234057 0.0620523 0.783601
0.232818 0.0628478 0.783194
0.231599 0.0636471 0.782857
0.230414 0.0644576 0.782649
0.22916 0.065241 0.782163
0.227909 0.0660235 0.781678
0.226676 0.0668105 0.781257
0.225411 0.0675829 0.780696
0.224164 0.0683594 0.780202
0.222988 0.0691617 0.77999
0.221786 0.0699525 0.779662
0.220635 0.0707617 0.77954
0.219487 0.0715712 0.779428
0.218339 0.0723792 0.779311
0.217195 0.0731876 0.779201
0.216069 0.0740027 0.779166
0.214928 0.0748103 0.779067
0.213805 0.0756246 0.779035
0.212682 0.0764384 0.779001
0.211511 0.0772284 0.778758
0.21037 0.0780309 0.778639
0.209213 0.0788247 0.778444
0.208092 0.0796337 0.778398
0.206944 0.0804291 0.778236
0.205846 0.0812477 0.778284
0.204747 0.0820653 0.778331
0.203666 0.0828907 0.778451
0.202588 0.0837175 0.778585
0.201523 0.0845508 0.778782
0.200442 0.0853749 0.778897
0.199341 0.0861878 0.778917
0.198271 0.0870172 0.779084
0.197222 0.0878575 0.779345
0.196199 0.0887132 0.779727
0.195192 0.0895779 0.780188
0.194178 0.0904398 0.78062
0.19313 0.0912816 0.780891
0.192081 0.092123 0.781154
0.191038 0.0929679 0.781444
0.19001 0.0938216 0.781809
0.189009 0.0946934 0.782312
0.187978 0.0955473 0.782666
0.186929 0.0963887 0.782933
0.185893 0.0972391 0.78326
0.184844 0.0980805 0.783528
0.183813 0.0989358 0.783887
0.182839 0.0998285 0.784538
0.181865 0.100725 0.785201
0.180891 0.101621 0.78586
0.179898 0.102506 0.78643
0.178888 0.103379 0.786914
0.177851 0.104233 0.787257
0.176856 0.10512 0.787823
0.175852 0.106 0.788348
0.174889 0.106913 0.7891
0.173885 0.107795 0.78963
0.172927 0.108715 0.790418
0.171996 0.10966 0.791372
0.171126 0.110656 0.792667
0.170275 0.111674 0.794097
0.169457 0.112723 0.795725
0.168603 0.113748 0.797169
0.167729 0.11476 0.798515
0.166831 0.115756 0.799737
0.165921 0.116745 0.800904
0.165022 0.117747 0.802148
0.164129 0.11876 0.80345
0.163188 0.119733 0.804471
0.162266 0.120726 0.805624
0.16133 0.121711 0.806705
0.160393 0.122698 0.807792
0.159465 0.123698 0.808954
0.158549 0.124714 0.8102
0.157658 0.12576 0.811623
0.156793 0.126837 0.813224
0.155913 0.127906 0.814763
0.155031 0.128976 0.816296
0.154174 0.130082 0.818024
0.15326 0.131131 0.8194
0.152425 0.132274 0.821321
0.151724 0.133574 0.824164
0.151139 0.13502 0.827847
0.150599 0.136533 0.831894
0.150106 0.138121 0.836333
0.291544 0.0333635 0.838938
0.290077 0.0342369 0.8382
0.288632 0.0351111 0.837528
0.28684 0.0359229 0.835698
0.285003 0.0367211 0.833703
0.282958 0.0374766 0.830988
0.28057 0.03816 0.8271
0.278177 0.038831 0.823156
0.275856 0.0395059 0.819415
0.273685 0.0401993 0.816143
0.271635 0.0409075 0.813247
0.269906 0.0416744 0.811424
0.268069 0.0424123 0.809205
0.266258 0.0431498 0.807054
0.264503 0.0438922 0.805074
0.26288 0.0446585 0.803533
0.26128 0.0454253 0.802053
0.259792 0.0462138 0.80095
0.258263 0.0469888 0.799687
0.256714 0.0477542 0.798339
0.255169 0.0485162 0.796989
0.253652 0.0492811 0.795724
0.252104 0.0500332 0.794331
0.250557 0.0507807 0.792925
0.249033 0.0515301 0.791582
0.247552 0.0522868 0.790383
0.246153 0.053062 0.789471
0.244808 0.0538495 0.788746
0.243527 0.0546527 0.788254
0.242225 0.0554468 0.787671
0.24094 0.0562444 0.787143
0.239606 0.0570242 0.786421
0.238333 0.0578202 0.785922
0.23708 0.0586206 0.785489
0.23583 0.0594196 0.785065
0.23458 0.0602164 0.784629
0.23337 0.0610243 0.784343
0.232127 0.0618202 0.783922
0.230887 0.0626142 0.783504
0.229682 0.063419 0.783219
0.228447 0.0642109 0.782801
0.22723 0.0650075 0.782457
0.226019 0.0658041 0.782125
0.224775 0.0665865 0.781652
0.223546 0.0673726 0.781235
0.222352 0.0681701 0.780952
0.221131 0.0689549 0.780547
0.219964 0.0697594 0.780361
0.218828 0.0705754 0.780302
0.217695 0.0713915 0.780252
0.216567 0.0722086 0.780214
0.215458 0.0730329 0.780257
0.214333 0.0738497 0.780227
0.213223 0.0746714 0.780256
0.212098 0.0754865 0.780222
0.210911 0.0762719 0.77991
0.209751 0.0770678 0.779715
0.208591 0.0778617 0.77951
0.20747 0.0786737 0.779472
0.206326 0.0794723 0.779326
0.205258 0.0803081 0.779522
0.204191 0.0811437 0.779715
0.203109 0.0819711 0.779842
0.202014 0.082792 0.779907
0.200947 0.0836265 0.780096
0.199832 0.0844351 0.780065
0.198699 0.0852327 0.779948
0.197612 0.0860545 0.780036
0.196563 0.0868963 0.780301
0.195539 0.0877528 0.780687
0.194544 0.0886265 0.781214
0.193544 0.089498 0.781717
0.192523 0.0903576 0.782125
0.191488 0.0912096 0.782462
0.190455 0.0920627 0.782813
0.189438 0.0929261 0.783243
0.188435 0.0937997 0.783746
0.187388 0.0946446 0.784032
0.186324 0.0954804 0.784233
0.185272 0.0963219 0.784486
0.184206 0.0971551 0.784679
0.183172 0.0980092 0.785029
0.182182 0.0988937 0.785607
0.181193 0.0997808 0.786197
0.180191 0.100659 0.786723
0.179183 0.101535 0.787219
0.178145 0.10239 0.787565
0.177107 0.103243 0.787898
0.176111 0.10413 0.788474
0.175132 0.10503 0.789137
0.174168 0.105944 0.789894
0.173187 0.106847 0.790562
0.172244 0.107779 0.791438
0.171325 0.108736 0.792473
0.170458 0.109737 0.793801
0.169593 0.110743 0.795156
0.168755 0.111778 0.796695
0.167896 0.1128 0.798123
0.167022 0.113814 0.799484
0.166125 0.114812 0.800728
0.165229 0.115815 0.801986
0.164325 0.116817 0.803223
0.163406 0.117807 0.804375
0.162447 0.118764 0.805302
0.161498 0.119735 0.806306
0.16056 0.120718 0.807383
0.15962 0.121704 0.808464
0.158706 0.122719 0.809716
0.15779 0.123735 0.810977
0.156911 0.124793 0.812485
0.156041 0.125869 0.814082
0.155161 0.126938 0.815629
0.154273 0.128006 0.817147
0.153414 0.12911 0.818873
0.152497 0.130157 0.820243
0.151674 0.131315 0.82226
0.150986 0.132632 0.825223
0.150451 0.134137 0.829276
0.2908 0.0322161 0.839607
0.289371 0.0330969 0.838995
0.287999 0.0339855 0.838564
0.286361 0.0348269 0.837241
0.284672 0.0356555 0.835736
0.282803 0.0364477 0.833613
0.28069 0.0371894 0.830645
0.278407 0.0378911 0.82707
0.275955 0.0385502 0.822889
0.27361 0.0392187 0.819026
0.271388 0.0399003 0.815543
0.269446 0.0406288 0.812992
0.267428 0.0413338 0.810146
0.26568 0.0420886 0.808209
0.263947 0.0428402 0.8063
0.262329 0.0436117 0.804774
0.260768 0.0443905 0.803434
0.259302 0.0451879 0.802409
0.257772 0.0459662 0.801146
0.256221 0.0467344 0.799793
0.254692 0.0475045 0.798503
0.253154 0.0482677 0.797161
0.251627 0.0490288 0.795844
0.250102 0.0497864 0.79452
0.248579 0.0505395 0.793181
0.247078 0.0512943 0.79191
0.245673 0.0520714 0.79098
0.244304 0.0528548 0.790171
0.242984 0.05365 0.789535
0.241697 0.0544518 0.789013
0.240431 0.0552575 0.788559
0.239113 0.0560454 0.787905
0.237841 0.0568448 0.787413
0.23657 0.0576419 0.786918
0.235315 0.0584423 0.786476
0.234043 0.059235 0.785957
0.232792 0.0600321 0.785515
0.231528 0.0608229 0.785016
0.230286 0.0616187 0.784592
0.229043 0.0624113 0.784158
0.227804 0.0632043 0.783731
0.226605 0.0640095 0.783459
0.225393 0.0648081 0.783126
0.224164 0.0655984 0.782717
0.222949 0.0663917 0.782356
0.221753 0.0671907 0.782069
0.22053 0.0679773 0.781666
0.219365 0.0687845 0.781493
0.218214 0.0695964 0.781374
0.217068 0.0704088 0.781269
0.215936 0.0712267 0.781224
0.214845 0.0720602 0.781344
0.213739 0.0728873 0.781401
0.212664 0.0737268 0.781589
0.211554 0.0745506 0.781624
0.210375 0.0753425 0.781359
0.209212 0.0761399 0.78115
0.20805 0.0769359 0.780947
0.206929 0.0777497 0.780917
0.205799 0.0785585 0.780842
0.20473 0.0793958 0.781037
0.203643 0.0802241 0.781152
0.202544 0.081046 0.781206
0.201429 0.0818587 0.781187
0.200343 0.0826852 0.781299
0.199212 0.0834876 0.7812
0.198081 0.0842889 0.781094
0.196995 0.085113 0.781192
0.195943 0.0859553 0.781456
0.194915 0.0868114 0.781825
0.193917 0.087685 0.782347
0.192915 0.0885569 0.782848
0.191893 0.0894184 0.783258
0.190842 0.0902626 0.783531
0.189793 0.0911082 0.783807
0.188759 0.0919631 0.784162
0.187739 0.0928274 0.78459
0.186694 0.0936753 0.784886
0.185644 0.0945206 0.785161
0.184589 0.0953627 0.785413
0.183522 0.0961964 0.785602
0.182485 0.0970504 0.785945
0.18148 0.0979269 0.786453
0.180478 0.0988051 0.786983
0.179474 0.0996843 0.787504
0.178479 0.100569 0.788075
0.177455 0.101437 0.788498
0.17643 0.102303 0.788923
0.175435 0.103191 0.789501
0.174466 0.104101 0.790236
0.173503 0.105017 0.790999
0.172522 0.105922 0.791682
0.17159 0.106866 0.792636
0.170684 0.107834 0.793753
0.1698 0.108823 0.795001
0.168904 0.109807 0.796202
0.16805 0.110829 0.797657
0.167188 0.11185 0.799082
0.166317 0.112868 0.800469
0.165436 0.113882 0.801823
0.164552 0.114897 0.803166
0.163656 0.115908 0.804465
0.162705 0.116873 0.805448
0.161731 0.117817 0.806293
0.160755 0.118764 0.807139
0.159813 0.119747 0.808208
0.158862 0.120723 0.809233
0.157947 0.121738 0.810492
0.157042 0.122768 0.811841
0.156184 0.123849 0.813498
0.155312 0.124923 0.815093
0.154438 0.126002 0.816697
0.153558 0.127079 0.818282
0.152687 0.128173 0.819951
0.151767 0.129221 0.821321
0.150941 0.130376 0.823338
0.289987 0.0310562 0.840057
0.288576 0.0319416 0.839502
0.287237 0.0328373 0.839179
0.285732 0.0337031 0.838297
0.284246 0.0345698 0.837465
0.2826 0.0354055 0.83609
0.280732 0.0361974 0.833947
0.27875 0.0369626 0.831393
0.276377 0.0376471 0.827487
0.274068 0.0383329 0.823752
0.271627 0.0389823 0.81953
0.269437 0.0396698 0.816129
0.267176 0.0403332 0.812442
0.265257 0.0410576 0.809913
0.263377 0.0417829 0.807488
0.261827 0.0425727 0.806202
0.260315 0.0433665 0.805033
0.258885 0.0441747 0.804141
0.25735 0.0449562 0.802864
0.255798 0.0457289 0.801508
0.254268 0.0465019 0.800216
0.25275 0.0472742 0.798951
0.251262 0.0480498 0.797778
0.249781 0.0488227 0.796617
0.248262 0.0495816 0.795299
0.24678 0.0503463 0.794106
0.245367 0.0511255 0.793151
0.243993 0.051912 0.792328
0.242647 0.0527034 0.791603
0.241359 0.0535089 0.791081
0.240065 0.0543102 0.790535
0.238724 0.0550945 0.789794
0.23739 0.0558783 0.789072
0.236057 0.0566595 0.788344
0.234742 0.0574439 0.787673
0.233447 0.0582316 0.787071
0.23218 0.0590256 0.786567
0.230918 0.0598191 0.786078
0.229708 0.0606281 0.785785
0.2285 0.0614359 0.785493
0.227242 0.0622248 0.784994
0.226023 0.0630248 0.784645
0.22479 0.0638184 0.784229
0.223522 0.0645965 0.783665
0.222268 0.0653772 0.783147
0.221085 0.0661825 0.782915
0.219881 0.0669786 0.782588
0.218717 0.0677883 0.782426
0.217586 0.0686099 0.782396
0.216454 0.06943 0.782355
0.215325 0.0702512 0.782323
0.214234 0.0710868 0.782454
0.213147 0.0719236 0.782596
0.212075 0.0727669 0.782805
0.210966 0.0735929 0.782851
0.209804 0.0743946 0.782661
0.208653 0.0752 0.782512
0.207504 0.0760046 0.782373
0.206398 0.0768282 0.782415
0.205281 0.0776463 0.78241
0.204195 0.0784781 0.782537
0.203072 0.0792908 0.782494
0.201934 0.0800953 0.782377
0.200781 0.0808908 0.782192
0.199679 0.0817111 0.78223
0.198549 0.0825158 0.782137
0.197434 0.0833273 0.782112
0.196345 0.0841518 0.782208
0.195291 0.0849954 0.782465
0.194244 0.0858423 0.782757
0.193216 0.0867005 0.78314
0.192212 0.0875725 0.783637
0.19119 0.0884346 0.784054
0.190126 0.089273 0.784261
0.189075 0.0901186 0.784536
0.188052 0.0909813 0.784951
0.187018 0.091837 0.785309
0.18597 0.0926853 0.785601
0.184932 0.0935397 0.785945
0.183879 0.0943844 0.786206
0.182812 0.0952202 0.7864
0.181775 0.0960749 0.786748
0.180768 0.0969515 0.787255
0.179776 0.0978384 0.787845
0.178784 0.0987269 0.788434
0.177802 0.099624 0.78909
0.17678 0.100493 0.789527
0.17577 0.101372 0.790038
0.174759 0.102252 0.790546
0.173792 0.103164 0.791295
0.172825 0.104079 0.792055
0.17186 0.104998 0.792827
0.170939 0.105953 0.793861
0.17003 0.106922 0.794979
0.169128 0.107898 0.796138
0.168213 0.108867 0.797237
0.167339 0.109876 0.798598
0.166453 0.110877 0.799894
0.165596 0.111908 0.801378
0.164716 0.112925 0.802753
0.16383 0.11394 0.804101
0.162931 0.114949 0.805391
0.161976 0.115912 0.80636
0.160986 0.116845 0.807122
0.159996 0.117779 0.807889
0.159053 0.118761 0.80896
0.15811 0.119748 0.810049
0.157195 0.120764 0.811328
0.156302 0.121807 0.812757
0.155464 0.122911 0.814565
0.15459 0.123985 0.816165
0.153714 0.125064 0.817774
0.152845 0.126155 0.81945
0.151983 0.12726 0.821197
0.151065 0.128313 0.822597
0.287847 0.0307956 0.84023
0.286567 0.0317017 0.840103
0.284029 0.0335138 0.83991
0.282568 0.0343858 0.839162
0.280856 0.035212 0.837553
0.279097 0.0360245 0.835767
0.276867 0.0367461 0.832351
0.274585 0.0374477 0.828719
0.272149 0.0381094 0.824519
0.269844 0.0387853 0.82073
0.267495 0.0394421 0.816745
0.265476 0.0401546 0.813875
0.263489 0.0408652 0.811084
0.261829 0.0416381 0.809422
0.260267 0.0424268 0.808087
0.258725 0.0432158 0.806806
0.257099 0.0439811 0.805209
0.255515 0.0447519 0.803742
0.253964 0.0455244 0.802377
0.252447 0.0463019 0.801121
0.250983 0.0470881 0.800041
0.249562 0.0478808 0.799106
0.248041 0.0486443 0.797791
0.246578 0.049419 0.796671
