ply
format ascii 1.0
element vertex 1669
property float x
property float y
property float z
end_header
-0.107337 0.0225103 0.866486
-0.105892 0.0224901 0.867318
-0.104451 0.0224713 0.868204
-0.102975 0.0224434 0.868761
-0.101491 0.0224131 0.869234
-0.100035 0.0223919 0.870042
-0.0985936 0.0223759 0.871039
-0.0971462 0.022359 0.872004
-0.0957344 0.0223541 0.873417
-0.0943171 0.022349 0.874822
-0.0929099 0.0223485 0.876404
-0.0914699 0.0223385 0.877642
-0.0900242 0.0223279 0.878858
-0.0885381 0.0223042 0.879601
-0.158552 0.0248574 0.842734
-0.156786 0.0247615 0.841016
-0.15527 0.024714 0.840852
-0.153747 0.0246651 0.84064
-0.152217 0.0246145 0.840372
-0.150751 0.0245768 0.840522
-0.149336 0.0245497 0.841014
-0.147914 0.0245212 0.841466
-0.146517 0.0244983 0.842093
-0.145162 0.0244845 0.843025
-0.143781 0.024466 0.843802
-0.142414 0.0244507 0.844692
-0.141045 0.0244356 0.845585
-0.139661 0.0244175 0.846386
-0.138258 0.0243961 0.847076
-0.136875 0.0243794 0.847925
-0.135459 0.0243556 0.848548
-0.134054 0.0243348 0.849266
-0.132664 0.024318 0.850119
-0.131262 0.0242988 0.850896
-0.12987 0.0242827 0.851774
-0.128491 0.02427 0.852772
-0.127087 0.0242522 0.853605
-0.125678 0.0242335 0.854409
-0.124283 0.0242189 0.855353
-0.122858 0.0241975 0.856068
-0.121445 0.0241794 0.856898
-0.120046 0.024166 0.857886
-0.118635 0.0241497 0.858782
-0.117221 0.0241336 0.859688
-0.115843 0.0241279 0.860947
-0.114448 0.0241184 0.86208
-0.113049 0.0241086 0.863207
-0.11164 0.0240973 0.864285
-0.110226 0.0240849 0.865333
-0.108785 0.0240659 0.86616
-0.107336 0.024045 0.866924
-0.105892 0.0240264 0.867763
-0.104449 0.0240087 0.86864
-0.102965 0.0239791 0.869114
-0.101478 0.023949 0.869569
-0.100013 0.0239261 0.870279
-0.0985637 0.0239093 0.871194
-0.0971084 0.0238913 0.872071
-0.0956892 0.0238863 0.8734
-0.161464 0.0266829 0.851764
-0.158956 0.0264352 0.845537
-0.156898 0.0262766 0.842009
-0.15519 0.0261891 0.840634
-0.153667 0.0261397 0.840422
-0.152125 0.0260858 0.84007
-0.150648 0.0260459 0.840146
-0.149235 0.0260196 0.840641
-0.147815 0.0259921 0.841103
-0.146417 0.0259697 0.841719
-0.145062 0.0259573 0.842647
-0.143682 0.0259401 0.843425
-0.142327 0.0259289 0.844395
-0.140971 0.025918 0.845376
-0.139611 0.0259067 0.846351
-0.138222 0.0258895 0.847141
-0.136851 0.025877 0.848077
-0.135425 0.0258518 0.848629
-0.134006 0.0258288 0.849243
-0.132604 0.0258103 0.850002
-0.131191 0.0257895 0.85069
-0.129778 0.0257693 0.851398
-0.128397 0.0257577 0.852379
-0.127013 0.025746 0.853359
-0.125607 0.0257294 0.85419
-0.124236 0.0257225 0.855328
-0.122844 0.0257109 0.856321
-0.12144 0.0256969 0.857241
-0.120032 0.0256824 0.858148
-0.118628 0.0256699 0.859119
-0.117204 0.0256522 0.859929
-0.115825 0.0256484 0.861185
-0.114421 0.0256381 0.862235
-0.113012 0.0256275 0.863281
-0.111587 0.0256128 0.864195
-0.110174 0.0256025 0.865257
-0.108734 0.0255852 0.866091
-0.107294 0.0255682 0.866945
-0.105865 0.0255556 0.867941
-0.10443 0.0255421 0.868909
-0.102945 0.0255127 0.869366
-0.101441 0.0254777 0.869645
-0.159179 0.0279835 0.847216
-0.156893 0.0277696 0.842265
-0.155155 0.0276731 0.840701
-0.153631 0.027623 0.840483
-0.152099 0.0275708 0.840201
-0.150622 0.0275306 0.840271
-0.149197 0.0275025 0.840694
-0.147788 0.0274782 0.841223
-0.146378 0.027454 0.841763
-0.145011 0.0274403 0.842609
-0.143643 0.027427 0.843466
-0.142289 0.0274176 0.844445
-0.140945 0.0274112 0.845514
-0.139608 0.0274073 0.846658
-0.138242 0.027397 0.847619
-0.136873 0.0273866 0.848574
-0.135458 0.0273651 0.849209
-0.134038 0.0273429 0.849821
-0.132635 0.0273256 0.850584
-0.131211 0.0273034 0.851198
-0.129779 0.0272791 0.851755
-0.128383 0.0272654 0.852627
-0.126996 0.0272546 0.853588
-0.12559 0.0272393 0.854419
-0.124223 0.0272353 0.855591
-0.122853 0.0272317 0.856776
-0.121449 0.0272194 0.857705
-0.12003 0.0272032 0.858515
-0.118623 0.0271914 0.859465
-0.117187 0.0271719 0.860182
-0.115791 0.0271647 0.861276
-0.114374 0.0271522 0.862211
-0.112962 0.0271424 0.863227
-0.111518 0.0271229 0.863957
-0.164848 0.0286334 0.863489
-0.164711 0.0301344 0.862941
-0.162082 0.0298438 0.856145
-0.159389 0.0295342 0.848806
-0.156994 0.0292878 0.843197
-0.155228 0.0291821 0.841458
-0.153687 0.0291277 0.841135
-0.152141 0.0290716 0.840766
-0.150649 0.0290284 0.840749
-0.149223 0.0290008 0.841168
-0.147801 0.0289742 0.841617
-0.146389 0.0289506 0.842147
-0.14502 0.0289379 0.842987
-0.143653 0.0289262 0.843853
-0.1423 0.0289187 0.844842
-0.140968 0.0289172 0.845999
-0.139643 0.0289182 0.847233
-0.138289 0.028913 0.848292
-0.136922 0.0289047 0.84927
-0.135505 0.0288841 0.849902
-0.134083 0.0288625 0.850507
-0.13268 0.0288466 0.851272
-0.131247 0.0288231 0.851827
-0.129814 0.0287998 0.85239
-0.128405 0.0287838 0.853161
-0.127015 0.0287737 0.854102
-0.125597 0.0287566 0.854841
-0.124221 0.0287521 0.855946
-0.12285 0.0287502 0.857126
-0.121455 0.028742 0.858132
-0.120024 0.0287238 0.858852
-0.118616 0.0287134 0.859797
-0.117179 0.0286946 0.860506
-0.115763 0.0286831 0.861422
-0.114316 0.0286627 0.862088
-0.112882 0.0286469 0.862889
-0.159506 0.0310684 0.849829
-0.157135 0.0308183 0.844374
-0.155332 0.0307012 0.842416
-0.153763 0.0306394 0.84192
-0.152212 0.0305817 0.841527
-0.150706 0.0305352 0.841427
-0.149269 0.0305056 0.841779
-0.147845 0.0304794 0.842219
-0.146441 0.0304587 0.84281
-0.14506 0.0304443 0.84357
-0.143692 0.0304341 0.844442
-0.142339 0.0304284 0.845435
-0.141008 0.0304291 0.846605
-0.139681 0.0304321 0.84784
-0.13833 0.0304293 0.848918
-0.136961 0.0304225 0.849896
-0.135544 0.030403 0.850534
-0.13413 0.030385 0.85121
-0.132736 0.0303731 0.852056
-0.131303 0.0303506 0.852616
-0.129869 0.0303283 0.853181
-0.128448 0.0303102 0.853863
-0.127044 0.0302978 0.854702
-0.125603 0.030275 0.85526
-0.124215 0.0302687 0.856269
-0.122832 0.0302651 0.857354
-0.121435 0.030258 0.858345
-0.119993 0.0302376 0.858974
-0.118577 0.0302258 0.859841
-0.117131 0.0302054 0.860475
-0.159446 0.0325621 0.849744
-0.157308 0.0323606 0.845754
-0.155518 0.0322437 0.843888
-0.15393 0.032177 0.843293
-0.152377 0.0321183 0.842898
-0.15087 0.0320716 0.842802
-0.149417 0.032039 0.843067
-0.147978 0.0320099 0.843422
-0.14656 0.031987 0.843934
-0.145164 0.0319701 0.844601
-0.143784 0.0319583 0.8454
-0.142418 0.031951 0.846313
-0.141072 0.0319498 0.847387
-0.139743 0.0319545 0.848615
-0.138378 0.0319499 0.849607
-0.136999 0.0319419 0.850514
-0.13558 0.031923 0.851138
-0.134164 0.0319056 0.851807
-0.132758 0.0318918 0.852571
-0.131324 0.0318701 0.853131
-0.12989 0.0318487 0.853698
-0.128467 0.0318313 0.854373
-0.127051 0.0318168 0.855123
-0.125598 0.031791 0.855582
-0.124186 0.0317791 0.856403
-0.12279 0.031773 0.857376
-0.159192 0.0340054 0.848452
-0.157277 0.0338542 0.845847
-0.155666 0.0337814 0.845129
-0.154103 0.0337204 0.844702
-0.15256 0.0336644 0.844392
-0.151064 0.033621 0.844386
-0.149598 0.0335856 0.844575
-0.148141 0.0335528 0.84483
-0.146706 0.0335264 0.845238
-0.145286 0.0335042 0.845754
-0.143892 0.0334902 0.846469
-0.14251 0.03348 0.84728
-0.141146 0.0334759 0.848242
-0.13978 0.033472 0.849208
-0.138389 0.0334614 0.850014
-0.136985 0.0334477 0.850747
-0.135553 0.0334258 0.851278
-0.134126 0.0334062 0.851865
-0.13271 0.0333903 0.852548
-0.131288 0.0333729 0.853194
-0.129853 0.0333524 0.853764
-0.12843 0.0333361 0.85444
-0.127004 0.0333193 0.855105
-0.125549 0.0332935 0.855548
-0.155796 0.0353181 0.846252
-0.154262 0.0352649 0.846023
-0.152736 0.0352135 0.845839
-0.151241 0.0351707 0.845852
-0.149768 0.0351339 0.846009
-0.148281 0.0350935 0.846078
-0.146829 0.0350632 0.846384
-0.145394 0.0350382 0.846814
-0.143986 0.0350214 0.84744
-0.142589 0.0350086 0.848159
-0.141196 0.0349976 0.848926
-0.13979 0.034983 0.849609
-0.138361 0.0349622 0.850143
-0.157336 0.0368764 0.846802
-0.155817 0.0368271 0.846675
-0.154326 0.0367862 0.846731
-0.152829 0.0367429 0.84674
-0.151346 0.036704 0.846846
-0.149858 0.0366636 0.846915
-0.148364 0.0366214 0.846946
-0.146896 0.036587 0.847153
-0.145447 0.0365587 0.847496
-0.144027 0.0365397 0.848048
-0.142616 0.0365234 0.848668
-0.141187 0.0365024 0.849179
-0.139742 0.0364766 0.849585
-0.151386 0.0382209 0.84741
-0.149907 0.0381835 0.847548
-0.148399 0.0381371 0.847492
-0.146919 0.0380995 0.84762
-0.145458 0.0380679 0.847884
-0.144025 0.0380457 0.848351
-0.142589 0.0380228 0.848804
0.0347146 -0.210138 1.01375
0.0326372 -0.206891 1.0065
0.0343026 -0.206587 1.0048
0.0529606 -0.207225 0.997406
0.0508175 -0.204123 0.990741
0.0525329 -0.204133 0.990633
0.0543307 -0.206238 0.992295
0.0542752 -0.204225 0.990945
0.0564403 -0.207328 0.997611
0.0559795 -0.204209 0.990707
0.0306638 -0.203999 1.00093
0.0323455 -0.20379 0.999695
0.0340518 -0.203692 0.999039
0.0360965 -0.206791 1.00567
0.0359063 -0.204158 1.00127
0.0376026 -0.20594 1.0012
0.037474 -0.203562 0.998057
0.0391305 -0.205215 0.997363
0.0390422 -0.203004 0.995045
0.0407805 -0.204956 0.995898
0.0407024 -0.202799 0.99384
0.0424479 -0.204772 0.994803
0.0423922 -0.202701 0.993174
0.0441238 -0.204629 0.993927
0.0440727 -0.202584 0.992417
0.0457832 -0.204444 0.992831
0.0457306 -0.202403 0.991331
0.0474435 -0.204273 0.991815
0.0473873 -0.202236 0.990325
0.0491358 -0.204212 0.991348
0.0490796 -0.202176 0.989858
0.0507505 -0.202067 0.989151
0.05246 -0.202073 0.989023
0.0541921 -0.202143 0.989224
0.0559001 -0.202144 0.989067
0.0576595 -0.204134 0.99017
0.0575781 -0.202073 0.988549
0.0597756 -0.205195 0.995386
0.0592686 -0.202034 0.988191
0.0302215 -0.200258 0.99072
0.0320661 -0.200761 0.993157
0.0338219 -0.200897 0.993689
0.0357353 -0.20161 0.997214
0.037369 -0.20128 0.99535
0.0389938 -0.200943 0.993446
0.0406582 -0.200761 0.992351
0.0423373 -0.200639 0.991564
0.0440061 -0.200496 0.990668
0.0456605 -0.200315 0.989572
0.0473228 -0.200173 0.988685
0.0490044 -0.200096 0.988118
0.0506791 -0.200004 0.987491
0.0523759 -0.199984 0.987223
0.0540891 -0.20001 0.987194
0.0557926 -0.20001 0.987046
0.0574864 -0.199987 0.986758
0.0591831 -0.199976 0.98655
0.0613991 -0.203111 0.993539
0.0609001 -0.200017 0.986602
0.0299682 -0.197318 0.984492
0.0318447 -0.197985 0.987807
0.0336354 -0.198287 0.989216
0.0355869 -0.199157 0.99358
0.0372734 -0.199041 0.992823
0.0389511 -0.198905 0.991947
0.0406115 -0.198721 0.990831
0.0422799 -0.198575 0.989905
0.0439399 -0.198411 0.988889
0.0455898 -0.198232 0.987802
0.0472496 -0.198092 0.986905
0.0489199 -0.197993 0.986228
0.0505901 -0.1979 0.98559
0.0522762 -0.197857 0.985202
0.0539844 -0.197879 0.985154
0.0556854 -0.197883 0.985016
0.0574013 -0.197928 0.985088
0.0591178 -0.197974 0.985169
0.0608696 -0.198107 0.9857
0.0630906 -0.201216 0.992619
0.062618 -0.198231 0.986181
0.0260284 -0.195036 0.972926
0.0242506 -0.192734 0.969999
0.0258298 -0.192286 0.967485
0.0279957 -0.196207 0.978873
0.0279861 -0.19427 0.977753
0.0300222 -0.195637 0.984779
0.0319319 -0.196423 0.988743
0.033738 -0.196775 0.990431
0.0355415 -0.197094 0.991941
0.0372192 -0.196959 0.991064
0.0388934 -0.196822 0.990178
0.0405517 -0.196641 0.989062
0.0422165 -0.196497 0.988146
0.0438788 -0.196355 0.987239
0.0455266 -0.196176 0.986132
0.0471838 -0.196041 0.985265
0.0488526 -0.195946 0.984598
0.0505198 -0.195854 0.98396
0.0521941 -0.195789 0.983452
0.0538989 -0.195809 0.983393
0.0556056 -0.195837 0.983375
0.0573292 -0.195908 0.983586
0.0590552 -0.195985 0.983827
0.0608245 -0.196167 0.984618
0.0626083 -0.196376 0.985549
0.06437 -0.198357 0.986673
0.0643869 -0.196568 0.98639
0.0665996 -0.199591 0.992921
0.0661461 -0.196708 0.986972
0.0228722 -0.194158 0.977649
0.0227004 -0.191452 0.972439
0.0242177 -0.190696 0.968259
0.0259781 -0.191042 0.969936
0.0281776 -0.193164 0.981023
0.0302479 -0.194631 0.988638
0.0321733 -0.195447 0.992802
0.0338311 -0.19522 0.991427
0.0354896 -0.195015 0.990172
0.0371581 -0.194859 0.989186
0.0388293 -0.194724 0.988299
0.0404902 -0.194567 0.987303
0.0421602 -0.194449 0.986516
0.043821 -0.194312 0.985619
0.0454734 -0.194161 0.984652
0.0471368 -0.194049 0.983894
0.048803 -0.193955 0.983237
0.0504686 -0.193869 0.982609
0.0521487 -0.193825 0.982221
0.0538509 -0.193848 0.982172
0.0555633 -0.193894 0.982253
0.0572937 -0.193989 0.982584
0.0590348 -0.194104 0.983035
0.0608117 -0.194308 0.983946
0.0626043 -0.194538 0.984997
0.0643829 -0.194733 0.985858
0.0661523 -0.194898 0.986569
0.0684283 -0.198027 0.993711
0.0679466 -0.195114 0.987551
0.0246102 -0.190531 0.976517
0.0263852 -0.190877 0.978205
0.0284379 -0.192328 0.9858
0.0303623 -0.193178 0.990183
0.0321413 -0.19342 0.991303
0.0337894 -0.193168 0.989788
0.0354439 -0.192961 0.988513
0.0371021 -0.192784 0.987396
0.0387655 -0.192634 0.98643
0.0404374 -0.192522 0.985663
0.0421057 -0.192412 0.984906
0.0437726 -0.192303 0.984158
0.0454369 -0.192197 0.983421
0.0471123 -0.192129 0.982893
0.0487856 -0.192062 0.982365
0.0504579 -0.191999 0.981857
0.052137 -0.191957 0.981469
0.0538382 -0.191979 0.98142
0.0555492 -0.192027 0.981511
0.0572785 -0.19212 0.981842
0.0590244 -0.192254 0.982393
0.0607989 -0.192451 0.983274
0.0625876 -0.192675 0.984305
0.0643662 -0.192869 0.985166
0.0661449 -0.193058 0.986007
0.0679591 -0.19332 0.987238
0.0702294 -0.196396 0.994151
0.0697501 -0.193522 0.98815
0.024986 -0.190263 0.984367
0.0267659 -0.19057 0.985856
0.0286744 -0.191376 0.990039
0.0304582 -0.191642 0.991299
0.0321082 -0.191392 0.989784
0.0337518 -0.191141 0.988259
0.0354105 -0.190958 0.987093
0.0370662 -0.190783 0.985986
0.0387342 -0.190659 0.985139
0.0404107 -0.190573 0.984512
0.0420848 -0.190487 0.983875
0.0437563 -0.190402 0.983247
0.0454274 -0.190319 0.982629
0.0471021 -0.190258 0.982131
0.0487827 -0.190215 0.981733
0.0504622 -0.190173 0.981335
0.0521475 -0.190153 0.981056
0.0538487 -0.190175 0.981008
0.0555591 -0.190225 0.981109
0.0572788 -0.190295 0.98132
0.0590066 -0.190387 0.981641
0.0607618 -0.190538 0.982282
0.0625466 -0.190757 0.983293
0.0643393 -0.190986 0.984363
0.0661262 -0.191194 0.985315
0.0679493 -0.191474 0.986646
0.0697387 -0.191677 0.987567
0.0720281 -0.194757 0.994561
0.0715054 -0.191822 0.988179
0.020381 -0.192825 0.998727
0.0183348 -0.189252 0.989007
0.0204349 -0.191121 0.999025
0.0218278 -0.19148 0.991288
0.0220115 -0.190395 0.994897
0.0233781 -0.190714 0.98698
0.0236005 -0.189784 0.991388
0.025229 -0.189395 0.989085
0.0270042 -0.189647 0.990294
0.028776 -0.189873 0.991354
0.0304309 -0.189634 0.989879
0.0320803 -0.189391 0.988374
0.0337227 -0.189147 0.986869
0.0353841 -0.188987 0.985822
0.0370406 -0.188823 0.984756
0.0387129 -0.188722 0.984039
0.0403941 -0.188657 0.983511
0.0420657 -0.18857 0.982863
0.0437362 -0.188487 0.982236
0.0454119 -0.188426 0.981738
0.0470934 -0.188387 0.981359
0.0487739 -0.18835 0.980981
0.0504659 -0.188349 0.980802
0.0521667 -0.18837 0.980744
0.0538664 -0.188395 0.980705
0.0555763 -0.188442 0.980796
0.0572862 -0.188491 0.980887
0.0589961 -0.188539 0.980978
0.0607309 -0.188646 0.981399
0.062506 -0.188843 0.98229
0.0642957 -0.189069 0.983341
0.0660914 -0.189297 0.984412
0.067913 -0.189576 0.985754
0.0697001 -0.189774 0.986665
0.0714623 -0.189913 0.987247
0.0738235 -0.193106 0.994921
0.0732549 -0.190112 0.988148
0.0185278 -0.188269 0.993184
0.0205847 -0.189881 1.00189
0.0221999 -0.189316 0.998607
0.0238164 -0.188808 0.995626
0.0254587 -0.188455 0.993503
0.0271107 -0.18817 0.991759
0.0287688 -0.187932 0.990274
0.0304163 -0.187677 0.98869
0.0320689 -0.187459 0.987314
0.033716 -0.187241 0.985948
0.0353798 -0.187093 0.984951
0.037041 -0.186952 0.984005
0.0387179 -0.186872 0.983387
0.0403967 -0.186808 0.982869
0.0420609 -0.186703 0.982112
0.043729 -0.186619 0.981474
0.0454027 -0.186556 0.980956
0.0470832 -0.186518 0.980577
0.0487626 -0.186482 0.980199
0.0504686 -0.186522 0.98025
0.0521771 -0.186568 0.980331
0.0538865 -0.186619 0.980432
0.0555964 -0.186667 0.980524
0.0573024 -0.186708 0.980575
0.0590011 -0.18673 0.980516
0.0607256 -0.186814 0.980807
0.0624818 -0.18697 0.981488
0.0642632 -0.187177 0.982449
0.0660487 -0.187387 0.98343
0.0678596 -0.187645 0.984671
0.0696447 -0.18784 0.985562
0.0714031 -0.187974 0.986124
0.073182 -0.188148 0.986906
0.0750402 -0.190289 0.98894
0.0749638 -0.188322 0.987687
0.0205439 -0.187718 0.99967
0.0221725 -0.187238 0.996819
0.0238071 -0.186829 0.994367
0.0254577 -0.186523 0.992494
0.0271033 -0.186223 0.99064
0.0287591 -0.185989 0.989164
0.0304094 -0.185754 0.987679
0.0320662 -0.185561 0.986433
0.0337242 -0.185388 0.985297
0.0353926 -0.185266 0.98444
0.0370595 -0.185146 0.983593
0.0387344 -0.185067 0.982975
0.0404127 -0.185 0.982427
0.0420697 -0.184878 0.98158
0.0437372 -0.184794 0.980932
0.0454084 -0.18473 0.980404
0.0470796 -0.184671 0.979895
0.0487639 -0.184652 0.979617
0.0504848 -0.184738 0.979918
0.0521962 -0.184792 0.980039
0.0539085 -0.184848 0.98018
0.0556233 -0.184912 0.980351
0.0573123 -0.184911 0.980172
0.0589827 -0.184871 0.979773
0.060696 -0.184931 0.979934
0.0624414 -0.185064 0.980495
0.0642205 -0.185269 0.981446
0.0660128 -0.185495 0.982527
0.0678236 -0.185755 0.983788
0.0696161 -0.185968 0.98479
0.0713827 -0.186121 0.985461
0.0731509 -0.186273 0.986123
0.074921 -0.186427 0.986804
0.0204961 -0.185531 0.997274
0.0221463 -0.185173 0.995081
0.0237981 -0.184858 0.993138
0.0254571 -0.1846 0.991503
0.0271008 -0.184302 0.989649
0.0287493 -0.184051 0.988054
0.0303985 -0.18382 0.986589
0.0320647 -0.18367 0.985562
0.033739 -0.183563 0.984785
0.0354136 -0.183463 0.984038
0.0370848 -0.183363 0.983301
0.038763 -0.183297 0.982753
0.0404412 -0.183235 0.982225
0.0420923 -0.183098 0.981277
0.0437593 -0.183015 0.980639
0.0454286 -0.18295 0.980091
0.0470847 -0.18285 0.979353
0.0487539 -0.182795 0.978864
0.0504821 -0.1829 0.979275
0.0522002 -0.182975 0.979516
0.053913 -0.183036 0.979687
0.0556273 -0.1831 0.979868
0.0573143 -0.183098 0.979669
0.0589653 -0.183015 0.979031
0.0606678 -0.183053 0.979072
0.062401 -0.183163 0.979502
0.0641859 -0.18338 0.980533
0.0659845 -0.183624 0.981724
0.0677939 -0.183881 0.982976
0.0695771 -0.184076 0.983887
0.0713437 -0.184232 0.984578
0.0731104 -0.184383 0.98525
0.0748811 -0.184537 0.985922
0.0772301 -0.18762 0.993218
0.0766302 -0.184649 0.986373
0.0184846 -0.184139 0.989639
0.018463 -0.182084 0.98787
0.0204763 -0.183485 0.995626
0.0221385 -0.183198 0.993812
0.0237978 -0.182927 0.992098
0.0254547 -0.182671 0.990463
0.0271015 -0.182397 0.988729
0.0287534 -0.182166 0.987233
0.030412 -0.181981 0.986007
0.0320834 -0.181856 0.98511
0.033771 -0.181797 0.984593
0.0354446 -0.1817 0.983866
0.0371157 -0.181602 0.983128
0.0387935 -0.181535 0.98257
0.0404712 -0.181473 0.982032
0.0421164 -0.181323 0.981005
0.0437828 -0.181244 0.980377
0.0454516 -0.181177 0.979819
0.047099 -0.181057 0.978961
0.0487593 -0.180982 0.978352
0.0504784 -0.181064 0.978633
0.0521877 -0.181121 0.978774
0.053898 -0.181177 0.978915
0.0556113 -0.181241 0.979096
0.0572958 -0.181239 0.978907
0.058955 -0.181178 0.978378
0.0606634 -0.181232 0.978499
0.0623863 -0.18132 0.97882
0.0641605 -0.181518 0.979751
0.0659572 -0.181757 0.980922
0.0677661 -0.182013 0.982183
0.0695483 -0.182209 0.983114
0.0713228 -0.182382 0.983905
0.0730998 -0.182553 0.984687
0.0748679 -0.182706 0.985369
0.0766176 -0.18282 0.98583
0.0204707 -0.181509 0.994347
0.0221392 -0.181266 0.992772
0.0238015 -0.181018 0.991168
0.0254565 -0.180763 0.989523
0.0271012 -0.180491 0.987778
0.0287558 -0.180282 0.986402
0.0304196 -0.180122 0.985306
0.0320924 -0.180008 0.984459
0.0337853 -0.179972 0.984071
0.0354588 -0.179881 0.983364
0.0371351 -0.179804 0.982736
0.0388191 -0.179757 0.982288
0.0404958 -0.179699 0.98177
0.0421477 -0.179569 0.980842
0.0438199 -0.179509 0.980314
0.0454819 -0.179424 0.979656
0.0471209 -0.179287 0.978688
0.0487798 -0.179208 0.978049
0.0504809 -0.179246 0.97808
0.0521717 -0.179257 0.977961
0.0538776 -0.179311 0.978092
0.0555903 -0.179377 0.978283
0.0572763 -0.179378 0.978104
0.0589423 -0.179338 0.977695
0.0606589 -0.179414 0.977946
0.0623823 -0.179506 0.978277
0.0641472 -0.179684 0.979118
0.0659337 -0.179902 0.980179
0.0677319 -0.180135 0.98132
0.0695112 -0.180327 0.982231
0.0712837 -0.180498 0.983022
0.0730587 -0.180668 0.983804
0.0748259 -0.18082 0.984486
0.0765863 -0.180955 0.985067
0.020492 -0.179664 0.993806
0.0221596 -0.179421 0.992211
0.0238188 -0.179171 0.990577
0.0254636 -0.178882 0.988712
0.027107 -0.178615 0.986987
0.0287615 -0.178412 0.985621
0.0304291 -0.178275 0.984645
0.0321066 -0.178181 0.983917
0.0338042 -0.178167 0.983649
0.035483 -0.178096 0.983052
0.0371651 -0.17804 0.982544
0.0388549 -0.178016 0.982215
0.0405276 -0.177942 0.981597
0.0421839 -0.177832 0.98078
0.0438555 -0.177771 0.980241
0.0455111 -0.177671 0.979473
0.0471361 -0.177499 0.978295
0.048792 -0.177416 0.977637
0.050475 -0.177411 0.977418
0.0521557 -0.177399 0.977169
0.0538523 -0.177432 0.97717
0.0555698 -0.177514 0.97746
0.0572562 -0.177521 0.977311
0.0589319 -0.177506 0.977042
0.0606494 -0.177588 0.977333
0.0623733 -0.177681 0.977674
0.0641368 -0.177857 0.978505
0.0659209 -0.178069 0.979536
0.0677054 -0.178278 0.980557
0.0694842 -0.178468 0.981458
0.0712636 -0.178654 0.982349
0.0730371 -0.178824 0.983141
0.0748038 -0.178977 0.983832
0.076573 -0.179129 0.984514
0.0205115 -0.177811 0.993195
0.0221813 -0.177587 0.9917
0.0238349 -0.17732 0.989946
0.0254776 -0.177031 0.988071
0.0271202 -0.176769 0.986346
0.0287789 -0.176589 0.98511
0.0304462 -0.176456 0.984143
0.0321275 -0.176381 0.983515
0.0338232 -0.176361 0.983207
0.0355058 -0.176308 0.982709
0.037182 -0.176237 0.982102
0.0388727 -0.17622 0.981813
0.0405444 -0.176147 0.981195
0.0422001 -0.176037 0.980367
0.0438635 -0.175957 0.979719
0.0455181 -0.175858 0.978951
0.047142 -0.175688 0.977773
0.0487823 -0.175569 0.976894
0.0504565 -0.175544 0.976555
0.0521274 -0.175513 0.976186
0.053821 -0.175545 0.976187
0.0555312 -0.175612 0.976388
0.057239 -0.175673 0.976558
0.0589322 -0.175701 0.976529
0.0606585 -0.175804 0.97694
0.0623819 -0.175897 0.977291
0.064142 -0.176065 0.978092
0.0659128 -0.176253 0.978992
0.0676872 -0.17644 0.979884
0.0694547 -0.176609 0.980675
0.0712346 -0.176796 0.981576
0.0730169 -0.176985 0.982488
0.0747836 -0.177137 0.983179
0.0765494 -0.177285 0.983851
0.0205393 -0.175998 0.992814
0.0222038 -0.175759 0.991209
0.0238556 -0.17549 0.989425
0.0254963 -0.175203 0.98754
0.0271389 -0.174945 0.985824
0.0288073 -0.174807 0.984828
0.0304802 -0.174696 0.983971
0.03216 -0.17462 0.983333
0.0338479 -0.17458 0.982905
0.0355309 -0.174527 0.982397
0.0371994 -0.174438 0.981689
0.03889 -0.174422 0.981401
0.0405603 -0.174348 0.980773
0.0422144 -0.174239 0.979935
0.043871 -0.174141 0.979167
0.045523 -0.174044 0.978408
0.0471463 -0.173875 0.97722
0.0487856 -0.173758 0.976341
0.0504511 -0.173715 0.975902
0.0521141 -0.173668 0.975433
0.0538077 -0.173701 0.975434
0.0555242 -0.173786 0.975745
0.0572402 -0.17387 0.976045
0.0589495 -0.173936 0.976246
0.0606841 -0.174057 0.976767
0.0624046 -0.174145 0.977098
0.0641446 -0.174272 0.977648
0.065896 -0.174418 0.978309
0.0676503 -0.174567 0.97899
0.0694071 -0.174717 0.979681
0.0711854 -0.174904 0.980593
0.072978 -0.175112 0.981614
0.0747428 -0.175265 0.982326
0.0765174 -0.175429 0.983098
0.0205646 -0.174177 0.992373
0.0222291 -0.173943 0.990778
0.0238796 -0.173675 0.988983
0.025519 -0.173391 0.987098
0.0271654 -0.173154 0.985492
0.0288401 -0.173043 0.984635
0.0305137 -0.172936 0.983808
0.0321934 -0.172863 0.983171
0.0338745 -0.172803 0.982623
0.0355555 -0.172748 0.982095
0.0372191 -0.172645 0.981287
0.0389072 -0.172627 0.980989
0.0405755 -0.172551 0.98034
0.0422277 -0.172439 0.979482
0.0438774 -0.172327 0.978614
0.0455284 -0.17223 0.977856
0.0471507 -0.172064 0.976667
0.0487894 -0.17195 0.975799
0.0504538 -0.171908 0.975359
0.0521143 -0.17186 0.97488
0.0538074 -0.171894 0.974891
0.0555307 -0.171997 0.975302
0.0572487 -0.172086 0.975642
0.058958 -0.172153 0.975843
0.0606921 -0.172275 0.976374
0.0624116 -0.17236 0.976684
0.0641409 -0.172466 0.977115
0.065881 -0.17259 0.977666
0.0676231 -0.172716 0.978217
0.0693681 -0.172844 0.978788
0.0711352 -0.173011 0.979569
0.0729151 -0.173198 0.980491
0.0746804 -0.173352 0.981212
0.076454 -0.173519 0.982004
0.0205813 -0.172319 0.991692
0.0222442 -0.172087 0.990097
0.0238965 -0.171837 0.988402
0.0255363 -0.171558 0.986517
0.0271922 -0.171367 0.985171
0.0288681 -0.171263 0.984343
0.0305466 -0.171178 0.983636
0.0322306 -0.171122 0.983108
0.0339122 -0.171063 0.98255
0.0355879 -0.170993 0.981932
0.0372494 -0.170889 0.981104
0.0389255 -0.170834 0.980576
0.0405854 -0.170739 0.979818
0.0422298 -0.17061 0.97884
0.0438774 -0.170499 0.977972
0.0455289 -0.170406 0.977223
0.0471569 -0.170261 0.976155
0.0487946 -0.170148 0.975286
0.0504585 -0.170107 0.974836
0.0521175 -0.170058 0.974347
0.0538076 -0.170088 0.974338
0.0555309 -0.170192 0.974768
0.0572489 -0.170283 0.975109
0.0589576 -0.170353 0.97534
0.0606903 -0.170473 0.97586
0.0624088 -0.170558 0.976171
0.0641371 -0.170663 0.976602
0.0658758 -0.170785 0.977143
0.0676159 -0.170908 0.977674
0.0693482 -0.171011 0.978105
0.0711011 -0.171153 0.978756
0.0728781 -0.171337 0.979657
0.0746325 -0.171473 0.980279
0.0764071 -0.171642 0.98109
0.0788366 -0.17476 0.989161
0.0782009 -0.171839 0.982072
0.0205848 -0.170407 0.990682
0.0222448 -0.170175 0.989066
0.0239011 -0.16995 0.987501
0.0255494 -0.169714 0.985855
0.0272109 -0.169549 0.984659
0.0288908 -0.169466 0.983951
0.0305737 -0.169399 0.983344
0.0322567 -0.169345 0.982816
0.0339377 -0.169288 0.982268
0.0356139 -0.169218 0.98164
0.0372749 -0.169116 0.980822
0.0389373 -0.169026 0.980074
0.0405948 -0.168929 0.979286
0.0422318 -0.168783 0.978197
0.0438789 -0.168675 0.977339
0.0455298 -0.168585 0.9766
0.0471704 -0.168478 0.975752
0.0488085 -0.168369 0.974893
0.0504714 -0.168329 0.974443
0.0521293 -0.16828 0.973954
0.0538175 -0.168308 0.973925
0.0555325 -0.168394 0.974245
0.0572471 -0.16848 0.974576
0.0589563 -0.16855 0.974796
0.0606865 -0.168668 0.975307
0.062405 -0.168754 0.975638
0.064126 -0.168844 0.975978
0.0658636 -0.168967 0.976519
0.0676018 -0.169087 0.97705
0.0693223 -0.169171 0.977361
0.071063 -0.16929 0.977882
0.0728355 -0.169467 0.978754
0.0745753 -0.169579 0.979235
0.0763469 -0.169747 0.980046
0.0781402 -0.169945 0.981038
0.0205966 -0.168534 0.989881
0.0222541 -0.168301 0.988246
0.023915 -0.168102 0.98681
0.0255631 -0.167876 0.985224
0.0272297 -0.167736 0.984157
0.0289135 -0.167669 0.983539
0.0305989 -0.167618 0.983031
0.0322823 -0.167564 0.982494
0.0339638 -0.167513 0.981975
0.0356384 -0.167446 0.981357
0.0372989 -0.167344 0.980529
0.0389535 -0.167232 0.979641
0.0406036 -0.167119 0.978743
0.0422449 -0.16699 0.977745
0.0438924 -0.166887 0.976916
0.0455428 -0.1668 0.976188
0.0471906 -0.166713 0.975449
0.0488345 -0.166622 0.97469
0.050491 -0.16657 0.97417
0.0521563 -0.166541 0.973791
0.0538449 -0.166568 0.973752
0.0555575 -0.166651 0.974062
0.0572638 -0.166718 0.974263
0.058969 -0.166783 0.974463
0.0606919 -0.166883 0.974864
0.0624085 -0.166969 0.975194
0.0641206 -0.167041 0.975435
0.065849 -0.167148 0.975886
0.0675773 -0.16725 0.976317
0.0692969 -0.167335 0.976628
0.0710267 -0.167437 0.977049
0.0727875 -0.167593 0.9778
0.0745238 -0.167701 0.978251
0.076292 -0.167861 0.979032
0.0780706 -0.168038 0.979904
0.0805295 -0.171156 0.988157
0.0798453 -0.168202 0.980716
0.0185132 -0.166892 0.979996
0.0186166 -0.165438 0.981671
0.0206078 -0.166663 0.98907
0.0222687 -0.16645 0.987544
0.0239288 -0.166258 0.986138
0.0255777 -0.166041 0.984592
0.0272526 -0.165938 0.983735
0.0289346 -0.16587 0.983107
0.0306192 -0.165817 0.982579
0.0323069 -0.165784 0.982171
0.0339946 -0.165756 0.981783
0.0356697 -0.165691 0.981175
0.0373292 -0.165588 0.980327
0.038976 -0.165458 0.979319
0.0406182 -0.165327 0.978301
0.0422589 -0.165201 0.977312
0.0439127 -0.165118 0.976593
0.045564 -0.165036 0.975885
0.0472182 -0.164968 0.975255
0.0488684 -0.164895 0.974606
0.0505268 -0.164846 0.974087
0.052192 -0.164821 0.973728
0.0538806 -0.16485 0.973708
0.0555849 -0.164913 0.973889
0.0572819 -0.16496 0.973979
0.0589778 -0.165007 0.97407
0.0606905 -0.165087 0.97436
0.0624055 -0.16517 0.974661
0.0641137 -0.165239 0.974882
0.0658401 -0.165342 0.975312
0.0675675 -0.165443 0.975743
0.0692885 -0.165532 0.976084
0.07101 -0.165619 0.976415
0.07276 -0.165757 0.977066
0.0744934 -0.165861 0.977497
0.0762479 -0.166001 0.978158
0.0780254 -0.166176 0.97903
0.079808 -0.166356 0.979942
0.0186213 -0.163548 0.98065
0.0206115 -0.164763 0.988069
0.0222752 -0.164574 0.986673
0.0239388 -0.164401 0.985377
0.0255915 -0.164206 0.983941
0.0272692 -0.16412 0.983193
0.0289501 -0.164052 0.982555
0.0306394 -0.164021 0.982147
0.0323281 -0.163993 0.981759
0.0340158 -0.163967 0.981391
0.0356903 -0.163904 0.980792
0.0373473 -0.163798 0.979914
0.0389867 -0.163653 0.978796
0.0406284 -0.163523 0.977768
0.0422754 -0.163418 0.976909
0.0439286 -0.163339 0.976201
0.0455803 -0.16326 0.975502
0.0472388 -0.163207 0.974962
0.0488973 -0.163154 0.974423
0.0505478 -0.163092 0.973824
0.0522135 -0.163068 0.973475
0.0539012 -0.163096 0.973435
0.0555883 -0.163124 0.973405
0.057276 -0.163154 0.973386
0.0589705 -0.1632 0.973466
0.0606737 -0.163262 0.973647
0.0623785 -0.163326 0.973837
0.0640916 -0.163407 0.974138
0.065816 -0.163507 0.974549
0.0675405 -0.163608 0.97498
0.0692688 -0.163711 0.97541
0.0709977 -0.163814 0.975851
0.0727482 -0.163953 0.976512
0.0744815 -0.164059 0.976963
0.076236 -0.164198 0.977625
0.0780131 -0.164373 0.978506
0.0797942 -0.164551 0.979408
0.0167375 -0.160803 0.974396
0.0187414 -0.162163 0.982814
0.0206234 -0.1629 0.987278
0.0222902 -0.162732 0.985992
0.023953 -0.162565 0.984725
0.0256092 -0.162389 0.983389
0.0272861 -0.162303 0.982631
0.0289665 -0.16224 0.982013
0.0306552 -0.162212 0.981625
0.0323439 -0.162187 0.981257
0.034031 -0.162161 0.980878
0.0357094 -0.162116 0.98038
0.0373658 -0.162013 0.979512
0.0390105 -0.161886 0.978503
0.0406575 -0.161775 0.977585
0.0423113 -0.161691 0.976846
0.0439586 -0.161597 0.976037
0.0456162 -0.161536 0.975438
0.0472751 -0.161485 0.974909
0.0489326 -0.161433 0.97437
0.0505767 -0.161355 0.973661
0.0522404 -0.16133 0.973291
0.0539183 -0.161338 0.973132
0.0555956 -0.161347 0.972982
0.0572744 -0.161359 0.972842
0.0589689 -0.161405 0.972923
0.0606624 -0.161451 0.973003
0.0623568 -0.161497 0.973084
0.0640596 -0.16156 0.973274
0.0657821 -0.161659 0.973685
0.0675065 -0.16176 0.974116
0.0692417 -0.16188 0.974666
0.0709789 -0.161998 0.975197
0.072727 -0.162134 0.975848
0.0744687 -0.162256 0.97641
0.0762241 -0.162399 0.977091
0.0780022 -0.162575 0.977992
0.0797942 -0.16277 0.979015
0.016879 -0.159535 0.977269
0.0188595 -0.160758 0.984888
0.0206434 -0.161074 0.986697
0.0223143 -0.160928 0.98555
0.0239767 -0.160766 0.984294
0.0256316 -0.160592 0.982957
0.0273083 -0.160509 0.982209
0.028983 -0.160431 0.981491
0.030671 -0.160404 0.981103
0.0323582 -0.160378 0.980725
0.034038 -0.160335 0.980236
0.0357144 -0.160289 0.979718
0.0373707 -0.16019 0.978869
0.0390221 -0.160086 0.977981
0.0406759 -0.159997 0.977202
0.0423423 -0.159949 0.976683
0.0439901 -0.159859 0.975884
0.045653 -0.159812 0.975375
0.047304 -0.159745 0.974726
0.0489536 -0.159678 0.974087
0.050589 -0.159584 0.973277
0.0522507 -0.159556 0.972888
0.0539187 -0.159542 0.972588
0.0555936 -0.159549 0.972409
0.0572704 -0.159559 0.972269
0.0589629 -0.159605 0.972349
0.0606564 -0.159651 0.97243
0.0623488 -0.159697 0.97251
0.0640516 -0.159761 0.9727
0.0657647 -0.159845 0.973021
0.0674822 -0.159933 0.973372
0.0692165 -0.160053 0.973922
0.0709512 -0.160171 0.974463
0.0726988 -0.160306 0.975104
0.0744488 -0.160444 0.975776
0.0762038 -0.160586 0.976467
0.0779815 -0.16076 0.977359
0.0797818 -0.160971 0.978491
0.0170025 -0.158177 0.979612
0.018972 -0.159323 0.986812
0.0206602 -0.159238 0.986045
0.0223304 -0.159097 0.984909
0.0239927 -0.158939 0.983662
0.0256558 -0.158801 0.982545
0.0273315 -0.158721 0.981807
0.0290052 -0.158642 0.981079
0.0306873 -0.158597 0.980571
0.0323651 -0.15855 0.980042
0.0340376 -0.158488 0.979424
0.0357124 -0.158444 0.978915
0.0373741 -0.158366 0.978197
0.0390376 -0.1583 0.977558
0.0406991 -0.158235 0.976919
0.042366 -0.158191 0.97641
0.0440186 -0.158116 0.975711
0.0456741 -0.158055 0.975092
0.0473178 -0.15797 0.974333
0.0489669 -0.157904 0.973684
0.0505992 -0.157809 0.972854
0.0522462 -0.157748 0.972244
0.0539108 -0.157734 0.971935
0.0555846 -0.157739 0.971755
0.0572604 -0.157752 0.971615
0.0589524 -0.157799 0.971705
0.0606527 -0.15786 0.971886
0.0623452 -0.157906 0.971966
0.064046 -0.157969 0.972157
0.0657581 -0.158053 0.972477
0.0674722 -0.158139 0.972818
0.069199 -0.158244 0.973279
0.070925 -0.158345 0.973719
0.0726696 -0.15848 0.97436
0.0744186 -0.158616 0.975031
0.0761712 -0.158755 0.975713
0.0779572 -0.158945 0.976714
0.0797773 -0.159186 0.978047
0.0822435 -0.162225 0.986252
0.0815747 -0.159384 0.979099
0.0171185 -0.156776 0.981716
0.0190026 -0.157539 0.986501
0.0206817 -0.157425 0.985524
0.0223515 -0.157286 0.984387
0.024017 -0.157147 0.98326
0.0256891 -0.157045 0.982362
0.0273599 -0.156951 0.981524
0.0290328 -0.156873 0.980786
0.0307069 -0.156807 0.980128
0.0323725 -0.156725 0.97937
0.0340308 -0.156629 0.978522
0.0357051 -0.156584 0.978003
0.0373652 -0.156509 0.977294
0.039035 -0.156466 0.976785
0.0407023 -0.156422 0.976287
0.042375 -0.156397 0.975897
0.0440265 -0.156323 0.975198
0.0456815 -0.156262 0.974569
0.0473237 -0.156178 0.9738
0.0489698 -0.156111 0.97315
0.0506021 -0.156016 0.972301
0.0522402 -0.155941 0.971591
0.0538974 -0.155913 0.971191
0.0555629 -0.155906 0.970921
0.0572298 -0.155902 0.970681
0.0589129 -0.155935 0.970672
0.0606191 -0.156014 0.970972
0.0623105 -0.156059 0.971052
0.0640182 -0.156138 0.971343
0.0657357 -0.156235 0.971753
0.0674567 -0.156333 0.972174
0.0691801 -0.156435 0.972624
0.0709134 -0.156551 0.973155
0.072658 -0.156686 0.973816
0.0744065 -0.156821 0.974477
0.0761572 -0.156959 0.975159
0.0779408 -0.157145 0.97615
0.0797712 -0.157401 0.977593
0.0815815 -0.157618 0.978785
0.0171582 -0.155042 0.981673
0.0190417 -0.155794 0.986428
0.0207199 -0.155676 0.985411
0.0223894 -0.155541 0.984294
0.0240547 -0.155406 0.983167
0.0257323 -0.155324 0.982399
0.0273984 -0.155216 0.981452
0.0290659 -0.155123 0.980614
0.0307273 -0.155023 0.979726
0.0323862 -0.154922 0.978828
0.0340371 -0.154807 0.977849
0.0357035 -0.154748 0.97723
0.0373626 -0.154675 0.976522
0.0390377 -0.154649 0.976123
0.040704 -0.154607 0.975624
0.0423756 -0.154583 0.975234
0.0440389 -0.154541 0.974735
0.0456996 -0.154498 0.974226
0.0473423 -0.15442 0.973486
0.0489878 -0.154353 0.972827
0.0506264 -0.154276 0.972087
0.0522567 -0.154186 0.971277
0.0539069 -0.154145 0.970778
0.0555694 -0.154135 0.970488
0.0572364 -0.154132 0.970248
0.0589096 -0.154148 0.970138
0.0606168 -0.154228 0.970438
0.0623068 -0.154275 0.970528
0.0640061 -0.15434 0.970729
0.0657221 -0.154434 0.971129
0.067441 -0.154532 0.97155
0.0691625 -0.15463 0.97198
0.0708938 -0.154745 0.972511
0.0726463 -0.154892 0.973252
0.0743935 -0.155027 0.973923
0.0761455 -0.155167 0.974615
0.0779287 -0.155352 0.975616
0.079769 -0.155623 0.977179
0.0815798 -0.155841 0.978382
0.0172118 -0.153365 0.982
0.0190817 -0.154049 0.986356
0.0207544 -0.153917 0.985239
0.0224238 -0.153784 0.984112
0.024089 -0.153651 0.982995
0.0257712 -0.15359 0.982347
0.0274329 -0.153468 0.981299
0.0291044 -0.153391 0.980561
0.030761 -0.153276 0.979553
0.0324129 -0.153158 0.978535
0.034057 -0.153028 0.977436
0.035716 -0.152952 0.976708
0.0373682 -0.152863 0.975879
0.0390408 -0.152836 0.97547
0.0407051 -0.152793 0.974951
0.0423757 -0.152769 0.974561
0.0440453 -0.152747 0.974192
0.045706 -0.152708 0.973703
0.0473486 -0.152634 0.972983
0.0489945 -0.152571 0.972334
0.0506405 -0.152512 0.971704
0.0522765 -0.152439 0.970994
0.0539258 -0.152397 0.970494
0.0555863 -0.152385 0.970184
0.0572488 -0.152378 0.969914
0.0589132 -0.152375 0.969664
0.0606105 -0.152439 0.969864
0.0623 -0.152488 0.969964
0.0639988 -0.152552 0.970175
0.0657059 -0.152632 0.970475
0.0674165 -0.152716 0.970805
0.0691282 -0.152799 0.971136
0.0708575 -0.152912 0.971667
0.0726086 -0.153058 0.972418
0.074365 -0.153211 0.973199
0.076127 -0.153366 0.97401
0.0779195 -0.153567 0.975122
0.0797599 -0.153836 0.976685
0.0815687 -0.154051 0.977888
0.0153434 -0.150716 0.975965
0.0173577 -0.152075 0.984964
0.0191258 -0.152325 0.986423
0.0207901 -0.152161 0.985067
0.0224545 -0.152013 0.98383
0.0241198 -0.151885 0.982732
0.0258058 -0.15184 0.982194
0.0274721 -0.151737 0.981256
0.0291483 -0.151677 0.980618
0.0307989 -0.151548 0.97951
0.0324455 -0.151415 0.978382
0.0340836 -0.15127 0.977164
0.0357353 -0.151178 0.976305
0.0373796 -0.151072 0.975356
0.0390502 -0.151043 0.974927
0.040714 -0.151001 0.974418
0.0423772 -0.150965 0.973938
0.0440467 -0.150944 0.973569
0.0457059 -0.150907 0.973089
0.0473558 -0.150851 0.97248
0.0490101 -0.150808 0.97196
0.0506618 -0.150766 0.97145
0.0522984 -0.150697 0.97075
0.0539387 -0.15064 0.97013
0.055582 -0.150594 0.96959
0.0572258 -0.150552 0.96908
0.0588782 -0.150532 0.968713
0.0605647 -0.150578 0.968793
0.0622516 -0.150625 0.968885
0.0639481 -0.150688 0.969082
0.0656625 -0.150783 0.969494
0.0673798 -0.150882 0.969928
0.0690913 -0.150968 0.970281
0.0708202 -0.151082 0.970822
0.0725786 -0.151241 0.971663
0.0743351 -0.151394 0.972464
0.0761069 -0.151566 0.973396
0.0779103 -0.151783 0.974628
0.0797586 -0.152064 0.976291
0.0815656 -0.152274 0.977474
0.0841241 -0.155375 0.986463
0.0833863 -0.1525 0.978756
0.015383 -0.148992 0.975912
0.0175092 -0.150798 0.988077
0.0191821 -0.15065 0.98682
0.0208422 -0.150467 0.985324
0.0225022 -0.150305 0.983977
0.0241677 -0.150179 0.98287
0.0258539 -0.150137 0.982351
0.0275207 -0.150036 0.981413
0.0291921 -0.149962 0.980675
0.0308427 -0.149835 0.979567
0.0324892 -0.149705 0.978439
0.0341209 -0.149546 0.977111
0.0357668 -0.149436 0.976132
0.0374042 -0.149316 0.975063
0.0390669 -0.14927 0.974514
0.0407301 -0.149231 0.974014
0.0423938 -0.149196 0.973545
0.0440613 -0.149177 0.973175
0.0457264 -0.149153 0.972776
0.0473816 -0.149111 0.972256
0.0490358 -0.149072 0.971757
0.050689 -0.149036 0.971277
0.0523329 -0.148983 0.970687
0.053957 -0.148896 0.969857
0.0555844 -0.14882 0.969099
0.0572095 -0.148744 0.968348
0.0588503 -0.148706 0.967856
0.0605182 -0.148719 0.967713
0.0622033 -0.148766 0.967801
0.0638964 -0.148827 0.967986
0.0656081 -0.148921 0.968394
0.0673237 -0.149018 0.968823
0.0690414 -0.149117 0.969269
0.0707787 -0.149246 0.969918
0.0725367 -0.149408 0.970788
0.0743021 -0.149575 0.97169
0.0760823 -0.149762 0.972732
0.0778862 -0.149979 0.973974
0.0797247 -0.150243 0.975537
0.0815376 -0.150462 0.976799
0.0833461 -0.150669 0.977972
0.0851944 -0.1527 0.979879
0.0851522 -0.150868 0.979095
0.0173424 -0.148207 0.982142
0.0192398 -0.148977 0.987248
0.0208984 -0.148791 0.985711
0.0225498 -0.148598 0.984134
0.0242162 -0.148476 0.983037
0.0258983 -0.14842 0.982409
0.027564 -0.148319 0.981471
0.0292307 -0.14823 0.980613
0.0308861 -0.14812 0.979614
0.0325335 -0.147996 0.978506
0.0341646 -0.147838 0.977167
0.0358036 -0.147713 0.976069
0.0374389 -0.147588 0.97496
0.0390968 -0.147532 0.974331
0.0407609 -0.147496 0.973851
0.0424246 -0.147463 0.973382
0.0440901 -0.147441 0.972992
0.0457517 -0.147413 0.972563
0.0474069 -0.147373 0.972043
0.0490552 -0.147324 0.971463
0.0507084 -0.147288 0.970983
0.0523517 -0.147236 0.970383
0.0539664 -0.147131 0.969425
0.0555836 -0.147039 0.968553
0.0572063 -0.146963 0.967789
0.0588463 -0.146926 0.967293
0.0605038 -0.146924 0.967041
0.0621873 -0.146969 0.967121
0.0638707 -0.147015 0.967201
0.0655712 -0.147091 0.967496
0.0672755 -0.147172 0.967813
0.0689922 -0.147271 0.968262
0.0707185 -0.147385 0.968812
0.0724749 -0.147544 0.969675
0.0742473 -0.147724 0.970675
0.0760364 -0.147926 0.971837
0.0778487 -0.148158 0.973189
0.0796873 -0.148421 0.974772
0.0814992 -0.148639 0.976035
0.0833038 -0.148841 0.977187
0.085109 -0.149038 0.97831
0.0190585 -0.146379 0.981182
0.020952 -0.147102 0.986018
0.0225957 -0.146883 0.984222
0.0242619 -0.146762 0.983134
0.0259427 -0.146704 0.982486
0.0276077 -0.146603 0.981528
0.0292736 -0.146515 0.98066
0.0309348 -0.146422 0.979771
0.032588 -0.146316 0.978783
0.0342157 -0.146148 0.977354
0.0358535 -0.146023 0.976236
0.0374874 -0.145897 0.975117
0.0391394 -0.145826 0.974367
0.0407976 -0.145778 0.973788
0.0424617 -0.145747 0.973328
0.0441204 -0.145708 0.972819
0.0457741 -0.145664 0.972269
0.0474283 -0.145625 0.971749
0.0490755 -0.145577 0.971169
0.0507292 -0.145543 0.9707
0.0523695 -0.14549 0.97008
0.0539814 -0.145383 0.969097
0.0555896 -0.145276 0.968106
0.0572034 -0.145186 0.967243
0.0588431 -0.145151 0.966752
0.0605002 -0.14515 0.966507
0.0621748 -0.145181 0.966486
0.0638479 -0.145211 0.966456
0.0655295 -0.145257 0.966533
0.0672124 -0.145304 0.966626
0.0689156 -0.145384 0.966946
0.0706384 -0.145496 0.967488
0.072394 -0.145657 0.968367
0.0741738 -0.14585 0.969477
0.0759791 -0.146078 0.970831
0.077793 -0.14631 0.972214
0.0796291 -0.146572 0.973787
0.081451 -0.146804 0.97517
0.0832526 -0.147002 0.976302
0.0850568 -0.147197 0.977425
0.0210184 -0.145458 0.986645
0.0226535 -0.145211 0.984639
0.0243166 -0.14508 0.983451
0.0259977 -0.145021 0.982783
0.0276616 -0.144918 0.981805
0.0293266 -0.144827 0.980907
0.0309947 -0.144755 0.980158
0.0326606 -0.144686 0.97941
0.0342966 -0.144541 0.978131
0.0359462 -0.144446 0.977212
0.037581 -0.14432 0.976073
0.0392207 -0.144218 0.975094
0.0408671 -0.144139 0.974295
0.042518 -0.144076 0.973605
0.0441629 -0.144008 0.972876
0.0458102 -0.14395 0.972216
0.0474643 -0.143912 0.971696
0.0491052 -0.14385 0.971026
0.0507578 -0.143817 0.970536
0.0523809 -0.14373 0.969686
0.0539838 -0.143609 0.968584
0.0555819 -0.143488 0.967477
0.0571887 -0.143389 0.966533
0.0588202 -0.143341 0.965949
0.0604762 -0.14334 0.965705
0.0621389 -0.143355 0.965567
0.0638007 -0.14337 0.965424
0.0654795 -0.143412 0.965479
0.0671585 -0.143456 0.965548
0.0688577 -0.143533 0.96585
0.070578 -0.143642 0.966382
0.072331 -0.1438 0.967254
0.0741104 -0.143993 0.968374
0.0759247 -0.144237 0.969845
0.077748 -0.144483 0.971339
0.079594 -0.144758 0.973032
0.0814248 -0.145003 0.974515
0.083225 -0.145199 0.975657
0.0850267 -0.145391 0.97677
0.0875492 -0.148339 0.985131
0.0868097 -0.145553 0.977662
0.0222898 -0.142084 0.974574
0.0241139 -0.142545 0.977643
0.0256867 -0.142173 0.974716
0.0305481 -0.141643 0.97015
0.0322051 -0.141594 0.96955
0.0338361 -0.141486 0.968526
0.03559 -0.141702 0.969831
0.0373368 -0.141892 0.970941
0.039092 -0.142094 0.972141
0.0408498 -0.142292 0.973311
0.0426086 -0.142484 0.974442
0.0442398 -0.142383 0.973472
0.0458748 -0.142297 0.972603
0.047522 -0.142245 0.971983
0.0491619 -0.142183 0.971293
0.0508071 -0.142135 0.970693
0.0524168 -0.142022 0.969632
0.0540175 -0.1419 0.968513
0.055616 -0.141779 0.9674
0.0572148 -0.141668 0.966358
0.0588367 -0.141607 0.965666
0.0604906 -0.141604 0.965404
0.0621436 -0.141602 0.965141
0.0637953 -0.1416 0.964884
0.0654622 -0.141626 0.964819
0.0671301 -0.141654 0.964772
0.0688174 -0.141714 0.964954
0.0705273 -0.141808 0.965379
0.0722699 -0.141952 0.966161
0.074047 -0.142144 0.967286
0.075862 -0.142386 0.968767
0.0776911 -0.142644 0.970361
0.0795381 -0.142918 0.972077
0.0813769 -0.143174 0.97366
0.0831884 -0.143385 0.974912
0.0849996 -0.143592 0.976135
0.0867935 -0.143768 0.977148
0.0892838 -0.146639 0.98507
0.0885572 -0.143902 0.97785
0.0237989 -0.139664 0.969166
0.0253398 -0.139245 0.96586
0.0272417 -0.14178 0.971638
0.0369664 -0.13917 0.96355
0.0387311 -0.139423 0.965133
0.0406025 -0.139911 0.968427
0.0424699 -0.140367 0.971488
0.0442022 -0.140502 0.972219
0.0458292 -0.140407 0.971269
0.047597 -0.140611 0.972499
0.0492294 -0.140535 0.971699
0.0508667 -0.140471 0.970979
0.0524602 -0.140328 0.969688
0.0540463 -0.140181 0.968365
0.0556354 -0.140046 0.967139
0.0572245 -0.13992 0.965972
0.0588366 -0.139842 0.965159
0.060487 -0.139837 0.964867
0.0621368 -0.139832 0.964589
0.0637877 -0.139831 0.964326
0.0654547 -0.139859 0.964279
0.0671223 -0.139888 0.964238
0.0687998 -0.139934 0.964318
0.0704984 -0.140012 0.964631
0.0722374 -0.14015 0.965387
0.0740038 -0.140327 0.966408
0.0758164 -0.140564 0.967878
0.0776557 -0.140836 0.969589
0.0795113 -0.141123 0.971412
0.0813511 -0.14138 0.973015
0.0831835 -0.141619 0.974488
0.0849952 -0.141824 0.975721
0.0867995 -0.142015 0.976844
0.088585 -0.142177 0.977766
0.041955 -0.137418 0.962335
0.0437872 -0.137802 0.964911
0.0455293 -0.13798 0.965959
0.0474256 -0.138469 0.969297
0.0491797 -0.138649 0.970365
0.0509199 -0.138794 0.971176
0.0524967 -0.138623 0.969662
0.0540661 -0.138445 0.968097
0.0556455 -0.138296 0.966746
0.0572246 -0.138156 0.965461
0.0588352 -0.138078 0.964637
0.0604831 -0.138071 0.964336
0.0621333 -0.138069 0.964066
0.0637837 -0.13807 0.963816
0.0654519 -0.138101 0.963783
0.067119 -0.138132 0.963753
0.0687954 -0.138177 0.963833
0.0704918 -0.138252 0.964131
0.07222 -0.138374 0.964767
0.0739724 -0.138529 0.965652
0.0757808 -0.138762 0.967106
0.0776087 -0.139016 0.96871
0.079464 -0.139301 0.970539
0.0813144 -0.139572 0.97227
0.0831458 -0.139809 0.973743
0.084958 -0.140015 0.974986
0.0867712 -0.140217 0.976209
0.0885558 -0.140378 0.977132
0.0471281 -0.136079 0.964169
0.0490122 -0.136534 0.967299
0.0508642 -0.136906 0.969801
0.0525403 -0.136929 0.969712
0.0540905 -0.136719 0.967895
0.0556525 -0.136542 0.966314
0.0572215 -0.136388 0.964914
0.0588323 -0.136314 0.964102
0.0604818 -0.136312 0.96383
0.0621409 -0.136327 0.96368
0.0638002 -0.136344 0.963549
0.0654766 -0.13639 0.963629
0.0671531 -0.136435 0.963708
0.0688296 -0.136481 0.963788
0.070515 -0.13654 0.963969
0.0722226 -0.13663 0.964379
0.073952 -0.136753 0.96503
0.0757391 -0.136953 0.966256
0.0775639 -0.137202 0.967843
0.0794179 -0.137485 0.96968
0.081278 -0.137768 0.971515
0.0831185 -0.138018 0.973108
0.0849396 -0.138234 0.974451
0.0867519 -0.138435 0.975674
0.088536 -0.138594 0.976587
0.048594 -0.133936 0.960507
0.0505614 -0.134547 0.964851
0.0523508 -0.134799 0.966484
0.0540076 -0.134797 0.966205
0.0556652 -0.134801 0.965968
0.0572274 -0.134638 0.964482
0.0588467 -0.134583 0.963798
0.0605065 -0.134599 0.963656
0.0621745 -0.13463 0.963627
0.0638432 -0.134662 0.963605
0.0655197 -0.134707 0.963685
0.0671962 -0.134753 0.963764
0.0688727 -0.134799 0.963844
0.0705492 -0.134844 0.963924
0.0722449 -0.134918 0.964214
0.0739541 -0.135009 0.964635
0.0757166 -0.135174 0.965617
0.0775187 -0.135392 0.966983
0.0793605 -0.135656 0.968707
0.081218 -0.135935 0.970537
0.0830688 -0.136198 0.972242
0.0848989 -0.136426 0.973686
0.0867216 -0.136639 0.975019
0.0885152 -0.136811 0.976042
0.0910595 -0.139679 0.984347
0.0902889 -0.136954 0.976845
0.0285639 -0.129023 0.926275
0.0269615 -0.129018 0.926491
0.0268043 -0.126847 0.922342
0.0286106 -0.127415 0.926435
0.0301803 -0.129067 0.926356
0.0302326 -0.127473 0.926621
0.0318072 -0.129138 0.926637
0.0318655 -0.127558 0.927013
0.0335483 -0.129489 0.929029
0.033501 -0.127647 0.92743
0.0353993 -0.130081 0.933243
0.0352265 -0.127943 0.929435
0.0371416 -0.130391 0.935328
0.0368326 -0.127955 0.929266
0.0389877 -0.130918 0.939049
0.0385447 -0.1282 0.930885
0.05002 -0.131756 0.956461
0.0519277 -0.132249 0.959958
0.0536926 -0.132463 0.961329
0.0554633 -0.132681 0.962721
0.0571402 -0.132728 0.962813
0.0588646 -0.132856 0.963524
0.0605332 -0.132889 0.963502
0.0622097 -0.132934 0.963582
0.0638862 -0.13298 0.963661
0.0655627 -0.133025 0.963741
0.0672392 -0.133071 0.963821
0.0689157 -0.133116 0.9639
0.0705922 -0.133162 0.96398
0.0722785 -0.133221 0.964161
0.0739749 -0.133295 0.964459
0.0757156 -0.133428 0.965205
0.0774926 -0.13361 0.966316
0.0793209 -0.133855 0.967914
0.0811682 -0.134119 0.969651
0.0830185 -0.13438 0.971367
0.0848596 -0.134622 0.972931
0.0866928 -0.134848 0.974374
0.0884868 -0.135019 0.975407
0.0902695 -0.135173 0.97631
0.0284425 -0.125242 0.922214
0.030255 -0.125803 0.926299
0.031891 -0.125897 0.926762
0.0335244 -0.125981 0.927152
0.0351337 -0.126005 0.927078
0.0367427 -0.126033 0.927027
0.0383496 -0.126055 0.92694
0.0402452 -0.128412 0.932242
0.0399408 -0.126045 0.926593
0.0420707 -0.128876 0.935526
0.041649 -0.12628 0.928153
0.0513784 -0.12949 0.951654
0.053181 -0.129795 0.953738
0.0550624 -0.130225 0.956792
0.0568601 -0.130496 0.958618
0.0587021 -0.130831 0.960933
0.0604743 -0.131041 0.962277
0.062237 -0.131226 0.963437
0.0639119 -0.131271 0.963508
0.0655791 -0.131302 0.963476
0.0672451 -0.131333 0.963447
0.0689215 -0.131379 0.963526
0.0706066 -0.131438 0.963714
0.0722933 -0.131498 0.963906
0.0739882 -0.131571 0.964195
0.0757156 -0.131686 0.964808
0.077469 -0.131834 0.965678
0.0792734 -0.132046 0.96704
0.0811054 -0.13229 0.968644
