ply
format ascii 1.0
element vertex 1587
property float x
property float y
property float z
end_header
-0.0379149 -0.0635507 0.80594
-0.0366008 -0.063209 0.806821
-0.035284 -0.0628663 0.807699
-0.0339523 -0.0625024 0.808352
-0.0326367 -0.0621671 0.809325
-0.0313146 -0.0618244 0.810225
-0.0299945 -0.0614885 0.81121
-0.0286676 -0.0611443 0.812111
-0.0273502 -0.060821 0.813255
-0.0260272 -0.0604924 0.814349
-0.0247093 -0.0601781 0.815618
-0.0233815 -0.0598499 0.81674
-0.0220563 -0.0595325 0.817996
-0.0207274 -0.0592137 0.819251
-0.0193962 -0.0588963 0.820532
-0.0180685 -0.0585938 0.822003
-0.0167463 -0.0583132 0.823747
-0.015417 -0.0580258 0.825429
-0.0140883 -0.0577508 0.827278
-0.0127682 -0.0575117 0.829577
-0.0114638 -0.0573342 0.832646
-0.010176 -0.0572309 0.836656
-0.0088811 -0.0571404 0.840868
-0.00757076 -0.0570378 0.844979
-0.00622883 -0.0568634 0.848249
-0.00485182 -0.0565916 0.850343
-0.0034482 -0.0562342 0.851386
-0.00204165 -0.055875 0.852418
-0.000626923 -0.0554889 0.853118
0.000787995 -0.0551103 0.853921
0.00219914 -0.0547645 0.855154
0.00361557 -0.0544052 0.856225
0.00503449 -0.0540477 0.85733
0.00645251 -0.0537241 0.858893
0.00787527 -0.0533944 0.860394
0.00930416 -0.0530365 0.861536
0.0107359 -0.0526809 0.862723
0.0121713 -0.0523144 0.863775
0.0136089 -0.051921 0.864473
0.0150495 -0.0515403 0.865356
0.0164926 -0.0511869 0.866618
0.0179388 -0.0508194 0.867704
0.0193923 -0.0505071 0.869569
0.0208621 -0.0502999 0.872931
0.0223546 -0.0501832 0.877617
0.0238716 -0.0501279 0.883241
0.0254056 -0.0500647 0.888828
0.0269398 -0.0499133 0.893219
0.0284598 -0.049641 0.895912
0.0299744 -0.0493061 0.897719
0.0314838 -0.0489319 0.898976
0.032997 -0.0485626 0.900327
0.0345174 -0.0481985 0.901763
0.0360499 -0.0478625 0.903647
0.0375973 -0.0475459 0.905849
0.0391614 -0.047249 0.908378
-0.199419 -0.115857 0.859932
-0.197898 -0.115387 0.859935
-0.196376 -0.114917 0.859932
-0.194757 -0.114386 0.859509
-0.193166 -0.113872 0.859197
-0.191543 -0.113337 0.858736
-0.189879 -0.112776 0.858092
-0.188267 -0.112247 0.857662
-0.186684 -0.111735 0.857346
-0.185146 -0.111251 0.857233
-0.183672 -0.110808 0.857401
-0.182268 -0.110409 0.85789
-0.180853 -0.110003 0.858332
-0.179559 -0.109676 0.859337
-0.178244 -0.109335 0.860257
-0.176907 -0.108982 0.861088
-0.175544 -0.108611 0.861801
-0.174173 -0.108237 0.862489
-0.172704 -0.107799 0.862706
-0.17121 -0.107344 0.86281
-0.169635 -0.106836 0.862511
-0.167977 -0.106272 0.861793
-0.166254 -0.105664 0.86074
-0.164435 -0.10499 0.859184
-0.162559 -0.104275 0.857305
-0.160633 -0.103524 0.855137
-0.158732 -0.102786 0.853056
-0.156883 -0.102082 0.851206
-0.155143 -0.10145 0.849894
-0.153455 -0.100852 0.848832
-0.15184 -0.100302 0.848134
-0.150243 -0.0997643 0.847516
-0.148615 -0.0992039 0.846719
-0.146972 -0.0986309 0.845815
-0.145283 -0.0980246 0.844642
-0.143526 -0.0973679 0.843062
-0.141721 -0.0966744 0.841175
-0.139839 -0.0959231 0.838815
-0.137935 -0.0951523 0.836278
-0.136058 -0.0943968 0.833841
-0.134224 -0.0936699 0.831611
-0.132451 -0.0929836 0.82969
-0.13072 -0.0923258 0.827981
-0.128984 -0.0916611 0.8262
-0.127249 -0.0909948 0.824389
-0.125532 -0.0903385 0.822643
-0.123828 -0.0896899 0.820945
-0.122165 -0.0890691 0.81946
-0.120499 -0.0884439 0.817925
-0.118858 -0.0878348 0.81651
-0.117234 -0.087237 0.815174
-0.11562 -0.0866438 0.813865
-0.113993 -0.0860389 0.812444
-0.112418 -0.0854724 0.811334
-0.110821 -0.084886 0.810044
-0.109216 -0.0842907 0.808666
-0.107607 -0.0836898 0.807223
-0.10604 -0.0831201 0.806038
-0.104493 -0.0825648 0.804964
-0.102951 -0.0820116 0.803899
-0.10138 -0.0814318 0.802589
-0.0998068 -0.0808479 0.801228
-0.0982042 -0.0802362 0.79961
-0.0965973 -0.0796176 0.797914
-0.0950108 -0.0790132 0.796327
-0.0934644 -0.0784402 0.795005
-0.0919349 -0.0778792 0.793778
-0.0904316 -0.0773386 0.79272
-0.0889445 -0.0768099 0.791762
-0.0874908 -0.0763091 0.791045
-0.0860638 -0.0758306 0.790525
-0.0846328 -0.0753472 0.789952
-0.0832405 -0.0748978 0.789687
-0.0818674 -0.0744653 0.789575
-0.0804897 -0.074028 0.789415
-0.0791241 -0.0736012 0.789352
-0.0777847 -0.0731992 0.789519
-0.0764371 -0.0727892 0.78961
-0.0750824 -0.072372 0.789632
-0.0737356 -0.0719623 0.789725
-0.0723888 -0.0715525 0.789815
-0.0710503 -0.0711509 0.789983
-0.0696888 -0.0707257 0.789923
-0.068325 -0.0702977 0.789833
-0.066968 -0.069876 0.789802
-0.0656119 -0.0694549 0.789775
-0.0642841 -0.0690634 0.79004
-0.062981 -0.0686989 0.790573
-0.0616846 -0.0683427 0.791193
-0.0603856 -0.0679848 0.791799
-0.0590981 -0.067641 0.792553
-0.0577981 -0.0672844 0.793183
-0.0565113 -0.0669444 0.793988
-0.0552301 -0.0666129 0.794884
-0.0539517 -0.0662865 0.795842
-0.0526702 -0.0659588 0.796795
-0.0513809 -0.0656237 0.797678
-0.0500888 -0.0652876 0.798558
-0.0488003 -0.064958 0.799515
-0.0474981 -0.0646133 0.80032
-0.046187 -0.0642591 0.80103
-0.0448844 -0.0639179 0.801886
-0.0435808 -0.0635777 0.802759
-0.0422831 -0.0632481 0.803754
-0.0409998 -0.0629418 0.805011
-0.0397086 -0.0626278 0.806197
-0.038408 -0.0623042 0.807288
-0.0370975 -0.061969 0.808262
-0.0357789 -0.0616246 0.809142
-0.0344444 -0.0612584 0.809784
-0.0331267 -0.0609208 0.810755
-0.0317978 -0.0605683 0.811567
-0.0304757 -0.0602301 0.812547
-0.029147 -0.0598842 0.813449
-0.0278285 -0.0595596 0.814605
-0.0265032 -0.0592277 0.815687
-0.0251806 -0.0589055 0.816892
-0.0238468 -0.0585665 0.817913
-0.0225168 -0.0582401 0.819091
-0.0211794 -0.0579042 0.82017
-0.0198432 -0.0575761 0.821352
-0.0185149 -0.0572712 0.822824
-0.0171862 -0.0569738 0.824401
-0.0158531 -0.0566757 0.825987
-0.014521 -0.0563896 0.827736
-0.0131951 -0.0561315 0.829845
-0.0118836 -0.0559273 0.832647
-0.010597 -0.055816 0.836634
-0.00930107 -0.05571 0.840734
-0.00799281 -0.0556006 0.84484
-0.00665265 -0.0554222 0.848121
-0.00527889 -0.0551548 0.850309
-0.00387577 -0.0547962 0.851355
-0.0024695 -0.0544354 0.852383
-0.00105504 -0.0540482 0.853081
0.000358067 -0.0536761 0.853981
0.0017673 -0.0533369 0.855323
0.00318225 -0.0529849 0.856512
0.00459904 -0.0526409 0.857818
0.00601541 -0.0523299 0.859584
0.00743744 -0.0520128 0.861287
0.00886559 -0.0516741 0.862717
0.0102977 -0.0513373 0.86419
0.0117344 -0.0509831 0.865443
0.0131743 -0.0506225 0.866619
0.0146178 -0.050276 0.868005
0.0160662 -0.049959 0.869825
0.0175192 -0.0496295 0.87149
0.0189813 -0.0493466 0.873842
0.0204581 -0.0491511 0.877475
0.0219576 -0.0490402 0.882382
0.0234694 -0.0489063 0.887023
0.0249946 -0.0487644 0.891609
0.0265191 -0.0485416 0.895068
0.0280268 -0.0482001 0.8968
0.0295266 -0.0478009 0.897693
0.0310355 -0.0474249 0.898951
0.0325481 -0.0470538 0.900302
0.0340655 -0.0466815 0.901644
0.0355952 -0.0463359 0.903416
0.0371418 -0.0460151 0.905599
0.0387059 -0.0457214 0.90824
-0.198248 -0.113838 0.859514
-0.196768 -0.113393 0.859684
-0.195166 -0.112874 0.859337
-0.193578 -0.112363 0.859037
-0.191964 -0.111835 0.858616
-0.190322 -0.111289 0.858069
-0.188708 -0.11076 0.857629
-0.187126 -0.110249 0.857322
-0.185588 -0.109766 0.857207
-0.184115 -0.109324 0.857384
-0.182711 -0.108924 0.857869
-0.181294 -0.108517 0.858302
-0.180004 -0.10819 0.85932
-0.17869 -0.107849 0.860246
-0.177356 -0.107495 0.861086
-0.175992 -0.107124 0.861799
-0.174642 -0.106762 0.86258
-0.173191 -0.106335 0.862888
-0.171735 -0.105906 0.86318
-0.17022 -0.105438 0.863174
-0.168661 -0.104941 0.862956
-0.167045 -0.104406 0.862449
-0.165334 -0.103808 0.861451
-0.163524 -0.103142 0.859927
-0.161626 -0.102416 0.857933
-0.159691 -0.101662 0.855707
-0.15777 -0.100915 0.853516
-0.155944 -0.100229 0.851777
-0.154172 -0.0995778 0.850291
-0.152481 -0.0989789 0.849201
-0.150824 -0.0984023 0.848275
-0.149158 -0.0978178 0.847279
-0.147496 -0.0972346 0.846283
-0.145822 -0.0966418 0.8452
-0.144081 -0.0959999 0.843717
-0.142292 -0.0953225 0.841936
-0.140423 -0.0945858 0.839663
-0.13853 -0.093829 0.837206
-0.136647 -0.0930755 0.834754
-0.134794 -0.09234 0.832426
-0.133001 -0.0916445 0.830404
-0.131266 -0.0909879 0.828683
-0.129515 -0.0903165 0.826822
-0.127766 -0.0896444 0.824939
-0.126047 -0.0889915 0.823198
-0.124339 -0.0883433 0.82148
-0.122672 -0.087724 0.819987
-0.121019 -0.0871114 0.818537
-0.11939 -0.0865157 0.817214
-0.117777 -0.08593 0.815965
-0.11616 -0.0853386 0.814654
-0.114531 -0.0847353 0.813227
-0.112956 -0.0841721 0.812131
-0.111359 -0.0835894 0.810855
-0.109742 -0.0829881 0.809406
-0.108141 -0.0823976 0.808035
-0.106558 -0.081819 0.806756
-0.105005 -0.0812624 0.805656
-0.103462 -0.0807113 0.804593
-0.101911 -0.0801517 0.803445
-0.100352 -0.0795826 0.802198
-0.0987809 -0.0790018 0.800835
-0.0971837 -0.0783963 0.799234
-0.0956039 -0.0778023 0.797722
-0.0940521 -0.0772291 0.796382
-0.0925082 -0.0766599 0.795066
-0.0909911 -0.0761111 0.793921
-0.0894895 -0.0755733 0.792866
-0.0880236 -0.0750647 0.792069
-0.0865832 -0.0745768 0.791456
-0.0851494 -0.0740933 0.790876
-0.0837467 -0.0736363 0.790537
-0.0823741 -0.0732057 0.790444
-0.0809956 -0.0727691 0.790291
-0.0796279 -0.072342 0.790223
-0.0782864 -0.0719389 0.790384
-0.0769364 -0.0715277 0.790467
-0.0755877 -0.0711176 0.790559
-0.0742481 -0.070716 0.790734
-0.0729084 -0.0703145 0.790909
-0.0715688 -0.0699129 0.791083
-0.070205 -0.0694872 0.79102
-0.0688391 -0.069059 0.790928
-0.0674727 -0.0686293 0.790822
-0.0661162 -0.0682096 0.79081
-0.0647868 -0.0678175 0.791075
-0.0634821 -0.0674519 0.791608
-0.062178 -0.0670879 0.792161
-0.0608774 -0.0667285 0.792766
-0.0595883 -0.0663828 0.793515
-0.058293 -0.0660318 0.794216
-0.0570051 -0.0656906 0.795024
-0.0557215 -0.0653561 0.795907
-0.0544404 -0.0650265 0.79685
-0.0531513 -0.0646895 0.797724
-0.0518538 -0.0643445 0.79852
-0.0505609 -0.0640071 0.799402
-0.0492719 -0.0636765 0.800366
-0.0479681 -0.0633297 0.801164
-0.046656 -0.0629743 0.801876
-0.0453529 -0.0626322 0.802739
-0.0440547 -0.0622991 0.803707
-0.042762 -0.0619761 0.804794
-0.0414787 -0.0616691 0.80607
-0.0401861 -0.0613529 0.807255
-0.0388881 -0.0610327 0.808407
-0.0375762 -0.0606959 0.809383
-0.0362523 -0.0603442 0.810198
-0.0349163 -0.0599764 0.81084
-0.0335962 -0.0596355 0.811793
-0.0322654 -0.0592806 0.812596
-0.0309434 -0.0589428 0.813602
-0.0296184 -0.0586041 0.814606
-0.0283035 -0.0582859 0.815863
-0.026977 -0.0579526 0.816954
-0.025648 -0.0576192 0.818054
-0.0243083 -0.0572704 0.81898
-0.0229727 -0.0569335 0.820058
-0.0216275 -0.0565819 0.820972
-0.0202873 -0.0562454 0.822076
-0.018958 -0.0559373 0.823539
-0.0176262 -0.0556314 0.825045
-0.0162899 -0.0553242 0.82655
-0.0149571 -0.0550339 0.828281
-0.0136335 -0.0547779 0.830464
-0.0123223 -0.0545696 0.833269
-0.0110343 -0.0544458 0.837178
-0.00973949 -0.0543335 0.841282
-0.0084296 -0.0542094 0.845284
-0.00708573 -0.0540113 0.848379
-0.00570845 -0.0537267 0.850389
-0.00430547 -0.0533664 0.851431
-0.0028978 -0.0529974 0.852369
-0.00148358 -0.0526096 0.853069
-7.23057e-05 -0.0522434 0.854064
0.00133516 -0.0519103 0.855513
0.00274838 -0.0515654 0.856821
0.00416294 -0.051234 0.858327
0.00557678 -0.050941 0.860378
0.00699692 -0.0506424 0.862376
0.00842454 -0.0503237 0.864119
0.00985688 -0.0500063 0.865903
0.0112946 -0.0496782 0.867558
0.0127373 -0.0493442 0.86915
0.0141846 -0.0490268 0.870999
0.0156381 -0.0487461 0.873399
0.0170981 -0.0484538 0.875665
0.0185668 -0.0481871 0.878331
0.0200506 -0.0479916 0.882082
0.0215462 -0.0478024 0.885973
0.0230503 -0.0475811 0.889443
0.0245656 -0.0473626 0.893004
0.0260793 -0.0470789 0.89563
0.0275766 -0.0466821 0.896569
0.0290774 -0.0462894 0.897575
0.0305871 -0.045918 0.898925
0.0321016 -0.0455512 0.900369
0.0336195 -0.0451839 0.901823
0.0351525 -0.0448422 0.903698
0.0366979 -0.0445188 0.905899
0.0384207 -0.0446075 0.914758
-0.197171 -0.111878 0.859488
-0.195616 -0.111387 0.859335
-0.19405 -0.11089 0.859134
-0.192442 -0.110367 0.858746
-0.190837 -0.109845 0.858358
-0.189225 -0.109319 0.85793
-0.187642 -0.108809 0.857625
-0.186106 -0.108328 0.857521
-0.184632 -0.107885 0.857695
-0.183207 -0.107472 0.858089
-0.181787 -0.107063 0.85851
-0.180491 -0.10673 0.859503
-0.179177 -0.106388 0.860426
-0.177844 -0.106034 0.861271
-0.17648 -0.105661 0.86198
-0.175127 -0.105297 0.862753
-0.173657 -0.104858 0.862969
-0.172205 -0.10443 0.863275
-0.170725 -0.103986 0.863454
-0.169247 -0.103542 0.863634
-0.167735 -0.103076 0.863647
-0.166148 -0.102561 0.863279
-0.16444 -0.101967 0.862296
-0.162618 -0.101296 0.860709
-0.160698 -0.100559 0.858594
-0.158744 -0.0997964 0.85626
-0.15685 -0.0990709 0.854197
-0.154992 -0.0983665 0.852282
-0.153214 -0.0977133 0.850754
-0.151495 -0.0970983 0.849515
-0.149772 -0.0964781 0.848224
-0.148074 -0.0958736 0.847046
-0.146396 -0.0952802 0.845946
-0.144655 -0.0946426 0.844478
-0.142864 -0.0939684 0.842699
-0.141011 -0.0932484 0.840531
-0.139144 -0.0925155 0.838239
-0.137242 -0.0917543 0.835692
-0.135369 -0.0910103 0.833265
-0.133555 -0.0903047 0.831133
-0.131814 -0.0896485 0.829391
-0.130032 -0.0889598 0.827363
-0.128295 -0.0883003 0.825559
-0.126574 -0.0876504 0.823819
-0.124862 -0.087004 0.822092
-0.123181 -0.086377 0.820514
-0.121537 -0.0857759 0.819141
-0.119911 -0.0851858 0.817848
-0.118298 -0.084603 0.816606
-0.116694 -0.0840248 0.81539
-0.115073 -0.0834316 0.814032
-0.113508 -0.0828794 0.813018
-0.111922 -0.0823083 0.811827
-0.110315 -0.0817198 0.810471
-0.108698 -0.0811206 0.809006
-0.107109 -0.0805409 0.8077
-0.10553 -0.0799667 0.806429
-0.103974 -0.0794079 0.805282
-0.102434 -0.0788606 0.804228
-0.100895 -0.0783119 0.803149
-0.0993367 -0.0777453 0.801896
-0.0977717 -0.0771708 0.800556
-0.096201 -0.0765888 0.799136
-0.0946464 -0.0760176 0.797798
-0.0930975 -0.0754486 0.796467
-0.0915773 -0.0749012 0.795323
-0.090063 -0.0743564 0.79419
-0.0885944 -0.0738486 0.793393
-0.0871595 -0.0733683 0.792846
-0.0857228 -0.0728851 0.792264
-0.0843167 -0.0724275 0.791919
-0.0829403 -0.0719956 0.791814
-0.0815592 -0.0715587 0.791659
-0.0801799 -0.071123 0.791511
-0.0788352 -0.0707182 0.791662
-0.0774825 -0.070306 0.791741
-0.076123 -0.0698872 0.791754
-0.0747807 -0.0694845 0.791922
-0.0734389 -0.0690821 0.792095
-0.0720975 -0.0686802 0.792272
-0.0707318 -0.0682545 0.792211
-0.0693722 -0.0678344 0.792203
-0.0680042 -0.0674053 0.792103
-0.066646 -0.0669856 0.792096
-0.0653146 -0.0665929 0.792363
-0.0640085 -0.0662267 0.792902
-0.0627025 -0.0658612 0.793454
-0.0614001 -0.0655006 0.79406
-0.0601018 -0.0651457 0.794729
-0.0588034 -0.0647917 0.795414
-0.0575059 -0.0644401 0.79613
-0.0562139 -0.0640962 0.796932
-0.0549247 -0.063757 0.797792
-0.0536329 -0.0634167 0.798647
-0.0523279 -0.063063 0.799365
-0.0510407 -0.0627318 0.800333
-0.0497506 -0.0623997 0.801299
-0.048446 -0.062052 0.802104
-0.0471332 -0.0616958 0.802823
-0.0458342 -0.0613591 0.803763
-0.0445297 -0.0610177 0.804658
-0.0432366 -0.0606935 0.805755
-0.0419513 -0.060383 0.807016
-0.0406563 -0.060063 0.808183
-0.0393517 -0.059733 0.809246
-0.0380336 -0.0593871 0.810137
-0.0367085 -0.0590335 0.810948
-0.0353713 -0.0586645 0.811589
-0.0340507 -0.0583224 0.812547
-0.0327196 -0.0579673 0.813363
-0.0314015 -0.0576354 0.81446
-0.0300771 -0.057297 0.815491
-0.0287619 -0.056978 0.816762
-0.0274306 -0.0566365 0.817777
-0.0260964 -0.0562934 0.818783
-0.0247546 -0.0559408 0.819684
-0.0234141 -0.0555941 0.820666
-0.0220646 -0.0552342 0.821495
-0.0207239 -0.0548959 0.822597
-0.0193944 -0.0545853 0.824059
-0.0180591 -0.0542703 0.82548
-0.016723 -0.0539611 0.826991
-0.0153903 -0.0536687 0.82873
-0.0140729 -0.0534236 0.831095
-0.0127654 -0.0532193 0.834011
-0.0114762 -0.0530846 0.837862
-0.0101798 -0.0529591 0.841882
-0.00886794 -0.0528203 0.845776
-0.00751777 -0.0525957 0.848589
-0.00613832 -0.052299 0.850477
-0.00473743 -0.0519437 0.851607
-0.00332989 -0.0515739 0.852551
-0.00191578 -0.051186 0.853263
-0.000504384 -0.0508174 0.854243
0.000904101 -0.0504755 0.855602
0.0023181 -0.0501228 0.856827
0.00373007 -0.0498028 0.858521
0.00513945 -0.0495344 0.86096
0.00655555 -0.0492684 0.863464
0.0079806 -0.048984 0.86574
0.00941163 -0.0487064 0.868141
0.0108506 -0.0484114 0.870323
0.0122963 -0.0480977 0.872262
0.0137472 -0.0477944 0.874378
0.0152057 -0.0475332 0.877142
0.0166718 -0.0472511 0.879637
0.0181457 -0.0469808 0.882338
0.0196285 -0.0467173 0.885179
0.0211204 -0.0464521 0.888037
0.0226158 -0.0461568 0.890471
0.0241221 -0.0458761 0.893167
0.0256251 -0.0455422 0.895073
0.0271248 -0.0451586 0.896227
0.0286283 -0.0447778 0.897446
0.0301388 -0.044411 0.898899
0.0316548 -0.0440488 0.900446
0.0331752 -0.0436865 0.902012
0.0347091 -0.0433496 0.904017
0.0362544 -0.0430242 0.906238
-0.196058 -0.109896 0.859308
-0.194522 -0.109417 0.859233
-0.192942 -0.108912 0.858966
-0.191387 -0.108422 0.8588
-0.18981 -0.107917 0.858532
-0.188226 -0.107409 0.85823
-0.186689 -0.106928 0.858124
-0.185195 -0.106472 0.85821
-0.183724 -0.106031 0.8584
-0.182279 -0.105606 0.858709
-0.180959 -0.105258 0.85959
-0.179625 -0.104902 0.860423
-0.178288 -0.104545 0.861251
-0.176923 -0.104171 0.861957
-0.175571 -0.103805 0.862728
-0.174101 -0.103366 0.862944
-0.17265 -0.102939 0.863257
-0.171211 -0.10252 0.863629
-0.169794 -0.102116 0.864112
-0.168363 -0.101702 0.864529
-0.166878 -0.101254 0.864679
-0.165266 -0.100724 0.864194
-0.163524 -0.10011 0.863037
-0.161661 -0.0994156 0.861238
-0.15971 -0.0986619 0.858952
-0.157771 -0.0979128 0.856682
-0.155844 -0.0971682 0.85443
-0.153978 -0.0964618 0.852463
-0.152179 -0.0957972 0.850814
-0.150412 -0.0951516 0.849302
-0.148693 -0.0945359 0.848019
-0.147008 -0.0939422 0.846904
-0.145265 -0.0933068 0.845435
-0.143472 -0.0926352 0.843656
-0.141617 -0.091919 0.841491
-0.139748 -0.0911906 0.839206
-0.137844 -0.0904341 0.836666
-0.135967 -0.0896932 0.834232
-0.134132 -0.0889784 0.831995
-0.132372 -0.0883125 0.83015
-0.13058 -0.0876222 0.82808
-0.128827 -0.0869556 0.826191
-0.127089 -0.0862979 0.82436
-0.125375 -0.085654 0.822631
-0.123691 -0.0850294 0.82105
-0.122045 -0.08443 0.819672
-0.120433 -0.0838532 0.818477
-0.118822 -0.0832754 0.81726
-0.11723 -0.0827094 0.816135
-0.115618 -0.0821268 0.814851
-0.11405 -0.0815752 0.813829
-0.112462 -0.0810064 0.812642
-0.110875 -0.0804368 0.811435
-0.109256 -0.0798399 0.809972
-0.107676 -0.0792707 0.808743
-0.106095 -0.0786987 0.807475
-0.104534 -0.0781399 0.806314
-0.102991 -0.0775934 0.805254
-0.101461 -0.077055 0.804256
-0.0999137 -0.0765013 0.803105
-0.0983595 -0.0759396 0.801867
-0.0968093 -0.0753788 0.800625
-0.095263 -0.0748186 0.799375
-0.0937115 -0.0742518 0.79805
-0.0921873 -0.0737052 0.7969
-0.090679 -0.0731695 0.795841
-0.0891982 -0.0726549 0.794971
-0.0877516 -0.0721676 0.794353
-0.0863198 -0.0716915 0.793836
-0.0849098 -0.0712331 0.793483
-0.0835297 -0.0707999 0.793369
-0.082153 -0.0703692 0.793276
-0.0807791 -0.0699404 0.793201
-0.0794326 -0.0695358 0.793362
-0.0780777 -0.0691235 0.793446
-0.0767149 -0.0687038 0.793455
-0.0753695 -0.0682999 0.793621
-0.0740246 -0.0678965 0.793792
-0.0726807 -0.067494 0.793972
-0.0713042 -0.0670603 0.793834
-0.0699415 -0.0666392 0.793823
-0.0685616 -0.0662009 0.793632
-0.0671934 -0.0657735 0.793549
-0.0658512 -0.0653714 0.793728
-0.0645431 -0.0650039 0.794268
-0.0632269 -0.064629 0.794734
-0.0619224 -0.0642669 0.795338
-0.060622 -0.06391 0.796004
-0.0593151 -0.0635475 0.796612
-0.0580093 -0.0631874 0.797253
-0.0567143 -0.0628402 0.798037
-0.0554167 -0.0624917 0.798815
-0.0541175 -0.0621432 0.799598
-0.0528177 -0.0617953 0.800395
-0.0515289 -0.0614623 0.801362
-0.0502385 -0.0611294 0.80234
-0.0489399 -0.060789 0.803244
-0.0476306 -0.0604378 0.804034
-0.046325 -0.0600929 0.804903
-0.045018 -0.0597485 0.805785
-0.0437168 -0.0594139 0.806786
-0.0424193 -0.0590866 0.807881
-0.041112 -0.0587494 0.808872
-0.0398002 -0.0584089 0.809836
-0.0384758 -0.0580536 0.810634
-0.0371453 -0.057692 0.811366
-0.0358078 -0.0573222 0.812008
-0.0344917 -0.0569858 0.813052
-0.0331657 -0.0566378 0.813968
-0.0318519 -0.0563118 0.815158
-0.0305358 -0.0559863 0.816365
-0.0292197 -0.0556649 0.817635
-0.0278835 -0.055315 0.81857
-0.0265432 -0.0549614 0.819467
-0.0251965 -0.0546 0.820276
-0.0238481 -0.0542382 0.821092
-0.0224984 -0.0538775 0.821926
-0.021157 -0.0535366 0.823019
-0.0198272 -0.0532234 0.824476
-0.0184915 -0.0529056 0.825889
-0.0171556 -0.0525946 0.827408
-0.0158264 -0.0523069 0.829245
-0.0145157 -0.0520737 0.831812
-0.013218 -0.0518883 0.83504
-0.0119329 -0.051757 0.839024
-0.0106367 -0.0516255 0.843051
-0.00932094 -0.0514696 0.846807
-0.00796494 -0.0512241 0.849399
-0.00657852 -0.0509036 0.85101
-0.00517551 -0.0505407 0.852058
-0.00376598 -0.0501635 0.852922
-0.00234969 -0.0497678 0.853539
-0.000937751 -0.0493962 0.854497
0.000469545 -0.0490572 0.855926
0.00188357 -0.0487024 0.857149
0.00329405 -0.0483869 0.858945
0.00469721 -0.0481546 0.861956
0.00610913 -0.0479221 0.865003
0.00753157 -0.0476736 0.867861
0.00896135 -0.047436 0.870917
0.0104011 -0.0471837 0.873797
0.0118514 -0.0468748 0.875876
0.013307 -0.0465741 0.878103
0.0147708 -0.0463095 0.880909
0.0162412 -0.0460244 0.883438
0.017717 -0.0457023 0.885438
0.0191989 -0.0453791 0.887449
0.0206861 -0.0450472 0.889354
0.0221752 -0.0446884 0.890862
0.0236718 -0.044355 0.892788
0.0251741 -0.0440122 0.894598
0.0266752 -0.0436414 0.895978
0.0281797 -0.0432729 0.897421
0.0296915 -0.0429108 0.898986
0.031209 -0.0425527 0.900635
0.0327337 -0.0422008 0.902415
0.0342693 -0.0418637 0.904467
0.0358174 -0.0415416 0.9068
-0.195007 -0.107952 0.859386
-0.193477 -0.107477 0.859334
-0.191972 -0.107016 0.859391
-0.190439 -0.10654 0.859327
-0.188875 -0.106045 0.859119
-0.187355 -0.105574 0.859095
-0.185836 -0.105105 0.859079
-0.184319 -0.104637 0.859067
-0.182847 -0.104196 0.859256
-0.181482 -0.103819 0.859937
-0.180106 -0.103436 0.860574
-0.178751 -0.103067 0.861318
-0.177386 -0.102691 0.862019
-0.176013 -0.102312 0.862693
-0.174541 -0.101872 0.862902
-0.173088 -0.101444 0.863205
-0.171674 -0.10104 0.863694
-0.170283 -0.100651 0.864306
-0.168876 -0.100252 0.864841
-0.167447 -0.0998394 0.865277
-0.165928 -0.0993708 0.865265
-0.164288 -0.0988245 0.864636
-0.162527 -0.0981999 0.863374
-0.160638 -0.0974917 0.861429
-0.158691 -0.0967437 0.859147
-0.156715 -0.0959742 0.856671
-0.154765 -0.0952184 0.854283
-0.152902 -0.0945166 0.852313
-0.151095 -0.093849 0.850606
-0.149352 -0.0932218 0.849214
-0.14763 -0.0926064 0.847906
-0.145878 -0.0919688 0.846402
-0.144066 -0.091289 0.844532
-0.142208 -0.090576 0.842365
-0.140339 -0.0898526 0.840091
-0.138461 -0.08912 0.837718
-0.136583 -0.0883846 0.8353
-0.134729 -0.0876617 0.832965
-0.132961 -0.0869957 0.831094
-0.131162 -0.0863054 0.828996
-0.12939 -0.0856308 0.827013
-0.12765 -0.0849758 0.825181
-0.125935 -0.0843355 0.823459
-0.124244 -0.0837104 0.821853
-0.122595 -0.0831124 0.82047
-0.120994 -0.0825465 0.819353
-0.119383 -0.0819722 0.818151
-0.117802 -0.0814176 0.817112
-0.116188 -0.0808369 0.815828
-0.114617 -0.0802864 0.814802
-0.113014 -0.0797096 0.813528
-0.111427 -0.0791434 0.812336
-0.109818 -0.0785582 0.810959
-0.108238 -0.0779924 0.809745
-0.106653 -0.0774214 0.808469
-0.105089 -0.0768641 0.807307
-0.103541 -0.0763167 0.806222
-0.102008 -0.0757796 0.805224
-0.100469 -0.0752355 0.804148
-0.0989366 -0.0746945 0.803089
-0.0973965 -0.0741456 0.801942
-0.0958695 -0.073605 0.800863
-0.0943257 -0.0730488 0.799622
-0.0928067 -0.0725105 0.798539
-0.0913061 -0.071985 0.797568
-0.0898309 -0.0714787 0.79677
-0.0883825 -0.0709929 0.796164
-0.0869474 -0.0705172 0.795648
-0.0855337 -0.0700584 0.795291
-0.0841407 -0.0696164 0.795095
-0.0827615 -0.0691856 0.795007
-0.0813852 -0.0687569 0.794937
-0.0800366 -0.0683521 0.795104
-0.0786797 -0.06794 0.795197
-0.0773144 -0.0675201 0.795211
-0.0759659 -0.0671151 0.795374
-0.0746172 -0.06671 0.795537
-0.0732713 -0.0663074 0.795726
-0.0718831 -0.0658653 0.795505
-0.0705081 -0.0654347 0.7954
-0.0691152 -0.0649864 0.795107
-0.0677342 -0.0645487 0.794921
-0.0663742 -0.0641307 0.794938
-0.065055 -0.0637528 0.795381
-0.063729 -0.0633688 0.79576
-0.0624226 -0.063005 0.796361
-0.0611147 -0.0626407 0.796959
-0.0598068 -0.0622775 0.797574
-0.0585058 -0.0619225 0.798284
-0.0572102 -0.0615747 0.799079
-0.0559052 -0.0612182 0.799784
-0.0546109 -0.0608751 0.800642
-0.0533159 -0.0605328 0.801519
-0.0520275 -0.0601998 0.802509
-0.0507427 -0.0598732 0.80358
-0.0494488 -0.0595386 0.804568
-0.0481324 -0.0591795 0.805288
-0.0468243 -0.058832 0.806147
-0.0455092 -0.0584779 0.806937
-0.0441944 -0.0581261 0.807762
-0.0428831 -0.057781 0.808672
-0.0415684 -0.0574336 0.809563
-0.0402458 -0.057078 0.810367
-0.0389152 -0.0567139 0.811077
-0.0375883 -0.0563568 0.811876
-0.0362552 -0.0559932 0.812605
-0.0349447 -0.055664 0.813757
-0.0336235 -0.0553226 0.814772
-0.032309 -0.054995 0.815966
-0.030987 -0.0546593 0.817075
-0.0296652 -0.0543278 0.818246
-0.0283234 -0.0539684 0.819081
-0.0269784 -0.0536065 0.819893
-0.0256315 -0.0532439 0.820704
-0.0242825 -0.052881 0.821518
-0.0229326 -0.0525196 0.822361
-0.0215911 -0.0521768 0.823452
-0.0202607 -0.0518609 0.824903
-0.0189249 -0.0515408 0.826316
-0.017592 -0.0512339 0.827919
-0.0162692 -0.0509573 0.829941
-0.0149629 -0.0507293 0.832637
-0.0136694 -0.0505485 0.835998
-0.0123852 -0.0504124 0.840003
-0.0110862 -0.0502661 0.843923
-0.0097631 -0.0500831 0.847391
-0.00840413 -0.0498239 0.849855
-0.00701558 -0.0494948 0.85138
-0.00561241 -0.0491306 0.852434
-0.00420286 -0.0487533 0.853314
-0.00278568 -0.0483551 0.85391
-0.00137173 -0.0479744 0.854759
3.70665e-05 -0.0476259 0.856082
0.00145124 -0.0472683 0.857287
0.00286109 -0.0469509 0.859095
0.00425674 -0.0467548 0.862706
0.00566141 -0.0465686 0.866514
0.00707913 -0.0463669 0.870142
0.00850748 -0.0461671 0.87385
0.00994845 -0.0459417 0.877225
0.0114034 -0.0456267 0.879284
0.0128639 -0.0453053 0.88127
0.0143309 -0.0449884 0.883356
0.015803 -0.0446554 0.885218
0.0172785 -0.0442884 0.886573
0.0187584 -0.0439242 0.887989
0.0202414 -0.0435536 0.889324
0.0217289 -0.0431848 0.890708
0.0232237 -0.0428413 0.892514
0.0247241 -0.0424968 0.894333
0.026226 -0.0421316 0.89584
0.0277328 -0.0417686 0.897404
0.029245 -0.0414109 0.899081
0.030766 -0.0410618 0.900926
0.032294 -0.0407203 0.902921
0.0338332 -0.0403874 0.905104
0.0355273 -0.0404357 0.913904
-0.194092 -0.106086 0.860049
-0.192616 -0.105644 0.860241
-0.191117 -0.105187 0.860327
-0.189553 -0.104693 0.860127
-0.188008 -0.10421 0.860009
-0.186441 -0.103713 0.859781
-0.184875 -0.103217 0.859554
-0.183355 -0.102747 0.859528
-0.181946 -0.102343 0.860009
-0.180529 -0.101935 0.860457
-0.179174 -0.101564 0.861194
-0.177808 -0.101188 0.861893
-0.176415 -0.100795 0.862471
-0.174942 -0.100354 0.862677
-0.173507 -0.0999368 0.863062
-0.172095 -0.0995334 0.86356
-0.170725 -0.0991562 0.864269
-0.169342 -0.0987713 0.864923
-0.167952 -0.0983829 0.865551
-0.166475 -0.0979406 0.86575
-0.164931 -0.0974564 0.865611
-0.163252 -0.0968872 0.864784
-0.16146 -0.0962451 0.863353
-0.159552 -0.0955276 0.861295
-0.157599 -0.0947797 0.858968
-0.155602 -0.0940001 0.85636
-0.153695 -0.0932751 0.854178
-0.151849 -0.0925871 0.852282
-0.150066 -0.0919376 0.850691
-0.148306 -0.0913014 0.849194
-0.146529 -0.0906518 0.847571
-0.144692 -0.0899604 0.84558
-0.142828 -0.0892485 0.843395
-0.140971 -0.0885388 0.841208
-0.139123 -0.0878326 0.839029
-0.137258 -0.0871115 0.836703
-0.135417 -0.0864033 0.834465
-0.133629 -0.0857288 0.832498
-0.131811 -0.08503 0.8303
-0.130003 -0.0843362 0.828125
-0.12826 -0.0836836 0.826289
-0.126527 -0.0830355 0.824476
-0.124819 -0.0824028 0.82278
-0.123166 -0.0818054 0.821383
-0.121558 -0.0812384 0.820243
-0.119933 -0.0806572 0.818963
-0.11835 -0.0801041 0.817923
-0.116745 -0.0795342 0.816719
-0.115173 -0.0789849 0.815692
-0.113567 -0.0784103 0.814419
-0.111991 -0.0778553 0.813314
-0.110393 -0.0772823 0.81203
-0.108826 -0.0767301 0.810926
-0.10724 -0.0761617 0.809659
-0.105672 -0.0756048 0.808484
-0.104118 -0.0750562 0.807377
-0.10257 -0.0745105 0.806283
-0.101028 -0.0739679 0.805207
-0.0995032 -0.0734363 0.804223
-0.0979827 -0.0729062 0.803243
-0.0964646 -0.0723763 0.802253
-0.0949403 -0.0718395 0.801185
-0.0934293 -0.0713114 0.800189
-0.091945 -0.0708027 0.799372
-0.0904675 -0.0702982 0.798585
-0.0890155 -0.0698127 0.797979
-0.0875854 -0.0693441 0.797531
-0.0861689 -0.0688856 0.797179
-0.0847562 -0.0684294 0.796844
-0.0833745 -0.0679986 0.796761
-0.0819951 -0.0675693 0.796689
-0.0806349 -0.0671562 0.796781
-0.0792757 -0.0667438 0.796878
-0.0779162 -0.066331 0.796972
-0.0765651 -0.0659254 0.797139
-0.0752144 -0.0655202 0.797309
-0.0738648 -0.065116 0.797491
-0.0724646 -0.0646655 0.797184
-0.0710762 -0.0642249 0.796977
-0.0696703 -0.0637671 0.796583
-0.0682768 -0.0633198 0.796296
-0.0668977 -0.0628854 0.796143
-0.0655676 -0.0624977 0.79649
-0.0642304 -0.0621034 0.796769
-0.0629147 -0.0617307 0.797284
-0.061599 -0.0613588 0.79781
-0.0602842 -0.0609887 0.798362
-0.0589819 -0.0606322 0.799069
-0.0576918 -0.0602898 0.79994
-0.0563929 -0.0599397 0.800733
-0.0551065 -0.0596046 0.801702
-0.0538243 -0.0592762 0.802755
-0.0525405 -0.0589481 0.803823
-0.0512488 -0.0586137 0.804828
-0.0499529 -0.0582766 0.805812
-0.0486352 -0.0579167 0.806538
-0.0473196 -0.0575606 0.807316
-0.0459965 -0.0571976 0.80802
-0.0446728 -0.0568352 0.808738
-0.0433535 -0.0564797 0.809545
-0.0420321 -0.0561237 0.810353
-0.0407076 -0.0557658 0.811145
-0.0393764 -0.0554009 0.811861
-0.0380537 -0.0550494 0.812745
-0.0367201 -0.0546852 0.813485
-0.0354094 -0.0543551 0.814651
-0.0340873 -0.0540122 0.815671
-0.0327676 -0.0536761 0.816785
-0.0314436 -0.0533369 0.817874
-0.0301159 -0.0529961 0.818951
-0.0287682 -0.0526272 0.819683
-0.0274186 -0.0522575 0.820413
-0.0260706 -0.0518931 0.821217
-0.0247183 -0.0515239 0.821966
-0.0233715 -0.0511674 0.822889
-0.0220299 -0.0508236 0.823991
-0.0206998 -0.0505063 0.825455
-0.0193669 -0.0501901 0.826951
-0.0180336 -0.0498807 0.828555
-0.0167144 -0.0496086 0.830683
-0.0154113 -0.0493833 0.833476
-0.0141213 -0.0492044 0.836938
-0.0128322 -0.0490491 0.840772
-0.0115303 -0.0488881 0.844577
-0.0101998 -0.0486789 0.847758
-0.00883878 -0.0484091 0.850126
-0.00744876 -0.0480728 0.851582
-0.0060459 -0.0477079 0.852646
-0.00463799 -0.0473348 0.853606
-0.00322211 -0.0469412 0.854279
-0.00180607 -0.0465528 0.855036
-0.000396019 -0.0461965 0.856271
0.00101648 -0.0458438 0.857577
0.00241775 -0.0455674 0.860037
0.00380601 -0.045408 0.864291
0.00520528 -0.0452586 0.868755
0.00662025 -0.0450879 0.872959
0.00804896 -0.0449059 0.87705
0.00949559 -0.0446506 0.880067
0.0109551 -0.0442989 0.881617
0.01242 -0.0439392 0.88307
0.0138889 -0.0435827 0.884589
0.0153617 -0.0432125 0.885912
0.0168362 -0.0428178 0.886853
0.0183151 -0.0424388 0.888065
0.0197967 -0.0420538 0.889197
0.0212812 -0.0416713 0.890379
0.0227744 -0.041318 0.89207
0.0242732 -0.0409707 0.893881
0.0257757 -0.0406106 0.895507
0.0272838 -0.0402593 0.897304
0.0288003 -0.0399177 0.899298
0.0303257 -0.0395828 0.901432
0.0318606 -0.0392554 0.903735
0.0335351 -0.0392915 0.912486
-0.194724 -0.104703 0.860836
-0.19324 -0.104256 0.860993
-0.191762 -0.103812 0.86118
-0.190213 -0.103328 0.861056
-0.188646 -0.102833 0.860841
-0.187052 -0.102322 0.860505
-0.185438 -0.101798 0.860067
-0.183848 -0.101288 0.85973
-0.182393 -0.100857 0.859999
-0.180931 -0.100422 0.860241
-0.179532 -0.100024 0.860776
-0.178166 -0.0996462 0.86147
-0.176756 -0.0992423 0.861962
-0.175304 -0.0988136 0.862258
-0.173889 -0.0984075 0.862736
-0.172495 -0.0980144 0.86332
-0.171108 -0.0976258 0.863945
-0.169743 -0.0972509 0.864682
-0.168352 -0.0968611 0.865307
-0.166917 -0.0964442 0.865711
-0.165436 -0.0959998 0.865892
-0.16386 -0.0954959 0.865587
-0.162165 -0.0949183 0.86467
-0.160329 -0.0942511 0.863003
-0.158411 -0.0935299 0.860871
-0.156427 -0.0927654 0.858357
-0.154513 -0.0920421 0.856166
-0.152658 -0.0913535 0.854246
-0.150854 -0.0906952 0.852563
-0.149051 -0.0900361 0.850857
-0.147232 -0.0893638 0.849023
-0.145353 -0.0886499 0.846815
-0.143466 -0.0879291 0.844524
-0.141605 -0.0872222 0.842333
-0.139789 -0.0865418 0.84035
-0.137954 -0.0858464 0.838216
-0.136144 -0.0851645 0.836182
-0.134337 -0.084482 0.834121
-0.132497 -0.083775 0.831824
-0.130666 -0.083071 0.829529
-0.128889 -0.0824005 0.827512
-0.127124 -0.0817352 0.825521
-0.125399 -0.0810951 0.823736
-0.123738 -0.0804961 0.822305
-0.122101 -0.079912 0.820994
-0.12047 -0.0793304 0.819692
-0.118899 -0.0787886 0.818741
-0.117307 -0.0782304 0.817629
-0.115733 -0.0776834 0.816607
-0.114136 -0.0771185 0.815408
-0.112568 -0.0765723 0.814369
-0.11097 -0.0760029 0.813103
-0.109413 -0.0754618 0.812088
-0.107827 -0.0748972 0.81084
-0.106265 -0.0743484 0.809728
-0.104707 -0.0738004 0.808611
-0.103156 -0.073256 0.807517
-0.101601 -0.0727062 0.806358
-0.100083 -0.0721835 0.805448
-0.0985587 -0.0716537 0.804458
-0.09704 -0.0711266 0.803483
-0.0955244 -0.0706001 0.802502
-0.094024 -0.0700837 0.80161
-0.0925484 -0.0695852 0.800885
-0.0910688 -0.069082 0.800105
-0.0896125 -0.068596 0.799487
-0.0881789 -0.068127 0.799034
-0.0867687 -0.067676 0.798757
-0.0853539 -0.0672205 0.798429
-0.0839791 -0.0667975 0.798428
-0.0826051 -0.0663746 0.798429
-0.081241 -0.06596 0.798512
-0.0798782 -0.0655463 0.798604
-0.0785166 -0.0651333 0.798703
-0.0771544 -0.0647198 0.798795
-0.0757922 -0.064306 0.798884
-0.0744305 -0.0638926 0.798976
-0.0730181 -0.0634336 0.798578
-0.07161 -0.0629774 0.798204
-0.0701998 -0.062518 0.797791
-0.0687955 -0.062063 0.797417
-0.0674057 -0.0616204 0.797174
-0.0660655 -0.0612238 0.797434
-0.0647251 -0.0608274 0.797695
-0.0634073 -0.0604529 0.798202
-0.0620831 -0.0600731 0.798652
-0.0607595 -0.0596942 0.799117
-0.0594622 -0.0593426 0.799893
-0.0581784 -0.0590061 0.800849
-0.0568817 -0.058658 0.801681
-0.0556089 -0.0583368 0.80283
-0.0543397 -0.0580216 0.80406
-0.0530487 -0.0576857 0.805061
-0.0517485 -0.0573416 0.805977
-0.0504498 -0.0570014 0.806946
-0.0491298 -0.056639 0.807661
-0.0478073 -0.0562753 0.808368
-0.0464774 -0.0559047 0.808996
-0.0451519 -0.0555403 0.809707
-0.04383 -0.0551819 0.810497
-0.0425016 -0.0548174 0.811219
-0.041177 -0.0544592 0.812027
-0.0398503 -0.0541004 0.812833
-0.0385322 -0.0537548 0.813813
-0.0371979 -0.0533904 0.814565
-0.0358863 -0.0530586 0.815739
-0.0345577 -0.0527069 0.81667
-0.0332312 -0.0523607 0.817681
-0.0318964 -0.0520054 0.818589
-0.0305588 -0.051649 0.819488
-0.0292062 -0.0512725 0.820137
-0.0278561 -0.0509018 0.820867
-0.0265078 -0.0505364 0.821674
-0.0251546 -0.0501653 0.822414
-0.0238113 -0.0498138 0.823425
-0.0224701 -0.0494699 0.824548
-0.0211399 -0.0491507 0.826019
-0.0198106 -0.0488395 0.827615
-0.0184803 -0.0485337 0.829306
-0.0171641 -0.0482648 0.831528
-0.0158641 -0.048042 0.834419
-0.014571 -0.0478503 0.837783
-0.0132777 -0.0476786 0.841475
-0.0119707 -0.0474973 0.84508
-0.0106331 -0.0472637 0.847984
-0.00927105 -0.0469858 0.850288
-0.00788337 -0.0466531 0.851829
-0.006481 -0.0462881 0.852914
-0.00507508 -0.0459204 0.853972
-0.00366072 -0.0455325 0.854745
-0.00224453 -0.0451441 0.855518
-0.000835497 -0.0447916 0.856842
0.000566168 -0.0444861 0.858896
0.00195851 -0.0442538 0.862096
0.00334108 -0.044126 0.866952
0.00473806 -0.0439971 0.871864
0.00615474 -0.0438297 0.876245
0.00759016 -0.0436088 0.879847
0.00904203 -0.0433141 0.88233
0.0105073 -0.0429261 0.883357
0.0119756 -0.0425312 0.884285
0.0134458 -0.0421462 0.885386
0.0149189 -0.0417496 0.88631
0.0163933 -0.0413347 0.886945
0.0178709 -0.040942 0.887955
0.0193512 -0.0405489 0.888975
0.0208343 -0.0401582 0.890045
0.0223251 -0.039796 0.891622
0.0238228 -0.0394457 0.893427
0.0253258 -0.0390955 0.895258
0.0268391 -0.0387656 0.897474
0.0283614 -0.0384465 0.899915
0.0298923 -0.0381273 0.902395
0.0314316 -0.0378084 0.904922
-0.195315 -0.103293 0.861441
-0.193855 -0.10286 0.861711
-0.192364 -0.10241 0.861845
-0.190818 -0.101927 0.861732
-0.189257 -0.101437 0.861557
-0.187637 -0.100912 0.861106
-0.185998 -0.100376 0.860565
-0.184383 -0.0998526 0.86012
-0.182881 -0.099394 0.860177
-0.181368 -0.0989294 0.860188
-0.179923 -0.0985042 0.860509
-0.178515 -0.0981008 0.861004
-0.177088 -0.0976864 0.861413
-0.175659 -0.0972706 0.861813
-0.174248 -0.0968661 0.862308
-0.172856 -0.0964731 0.862895
-0.171467 -0.0960822 0.863506
-0.170098 -0.0957038 0.86422
-0.168689 -0.0953024 0.864751
-0.167294 -0.0949087 0.865348
-0.165858 -0.0944913 0.865752
-0.164363 -0.0940379 0.865859
-0.162769 -0.093524 0.86546
-0.161032 -0.0929216 0.864313
-0.159175 -0.092244 0.862522
-0.157242 -0.0915168 0.860294
-0.155342 -0.0908079 0.8582
-0.153463 -0.0901095 0.856176
-0.151633 -0.0894402 0.85438
-0.149788 -0.0887588 0.852464
-0.147927 -0.0880646 0.850418
-0.146005 -0.0873294 0.847996
-0.144128 -0.0866199 0.845776
-0.142266 -0.0859174 0.843595
-0.140496 -0.0852723 0.841896
-0.138708 -0.0846126 0.840053
-0.136928 -0.0839558 0.838217
-0.135087 -0.0832571 0.835987
-0.133236 -0.082549 0.833652
-0.131347 -0.0818123 0.831035
-0.129519 -0.0811125 0.828727
-0.127719 -0.0804296 0.826548
-0.125991 -0.0797914 0.824758
-0.124312 -0.0791845 0.823234
-0.122669 -0.0785997 0.821899
-0.121035 -0.0780192 0.820589
-0.119462 -0.0774793 0.819642
-0.117869 -0.0769239 0.81854
-0.116281 -0.07637 0.81744
-0.114681 -0.075806 0.816232
-0.11311 -0.0752607 0.815187
-0.11152 -0.0747007 0.813992
-0.109964 -0.0741626 0.812992
-0.108399 -0.0736163 0.811902
-0.106847 -0.0730788 0.810884
-0.105299 -0.0725413 0.809854
-0.103745 -0.0719984 0.80876
-0.102199 -0.0714589 0.807686
-0.100678 -0.0709365 0.806769
-0.0991497 -0.0704075 0.805775
-0.0976268 -0.0698805 0.804789
-0.0961101 -0.0693565 0.803822
-0.0946186 -0.0688502 0.80302
-0.0931415 -0.0683533 0.802305
-0.0916596 -0.0678514 0.801529
-0.0901995 -0.0673653 0.800903
-0.0887711 -0.0669029 0.800514
-0.0873588 -0.0664524 0.800242
-0.0859513 -0.066005 0.799998
-0.0845738 -0.0655814 0.799998
-0.0832038 -0.0651637 0.800056
-0.0818272 -0.0647401 0.800053
-0.0804523 -0.0643178 0.800062
-0.0790877 -0.0639039 0.800157
-0.0777224 -0.0634892 0.800243
-0.0763401 -0.0630597 0.800169
-0.0749659 -0.0626368 0.800163
-0.0735407 -0.0621688 0.799665
-0.0721137 -0.061698 0.799127
-0.0706948 -0.0612331 0.798646
-0.0692893 -0.0607789 0.798278
-0.0678904 -0.0603298 0.797959
-0.0665484 -0.0599322 0.798213
-0.0651993 -0.0595282 0.798395
-0.06388 -0.0591525 0.798898
-0.0625543 -0.0587711 0.799341
-0.0612209 -0.058383 0.799709
-0.059922 -0.0580292 0.800475
-0.0586443 -0.0576979 0.801509
-0.0573488 -0.0573505 0.802366
-0.056079 -0.057031 0.803558
-0.0548228 -0.056728 0.804956
-0.053524 -0.0563831 0.805872
-0.0522142 -0.0560284 0.806679
-0.0509131 -0.0556847 0.807626
-0.0495917 -0.0553206 0.808336
-0.0482701 -0.0549576 0.809067
-0.0469458 -0.0545932 0.809786
-0.0456301 -0.0542403 0.810652
-0.0443134 -0.053888 0.811536
-0.0429901 -0.0535298 0.812355
-0.0416712 -0.0531789 0.813274
-0.0403487 -0.0528258 0.814174
-0.0390245 -0.0524728 0.815084
-0.037683 -0.0520998 0.815748
-0.036364 -0.0517581 0.816821
-0.0350237 -0.0513906 0.817571
-0.0336901 -0.0510344 0.818476
-0.0323493 -0.0506706 0.819292
-0.0310062 -0.050306 0.820103
-0.0296494 -0.0499232 0.820682
-0.0283021 -0.0495567 0.821485
-0.0269493 -0.0491839 0.822211
-0.0255989 -0.0488174 0.823029
-0.0242626 -0.0484768 0.824211
-0.0229248 -0.0481382 0.825433
-0.0215951 -0.0478185 0.826932
-0.0202712 -0.0475159 0.828687
-0.0189432 -0.0472139 0.830472
-0.0176303 -0.0469493 0.83281
-0.0163301 -0.0467222 0.835712
-0.0150329 -0.0465174 0.838973
-0.0137329 -0.0463252 0.842459
-0.0124196 -0.0461235 0.845854
-0.0110744 -0.0458664 0.848485
-0.00971018 -0.0455791 0.850704
-0.00832045 -0.0452385 0.852162
-0.00691598 -0.0448662 0.853164
-0.00551018 -0.0444972 0.854227
-0.00409608 -0.0441098 0.855022
-0.00268178 -0.0437275 0.855908
-0.00127621 -0.0433865 0.857438
0.00011084 -0.0431395 0.860454
0.00149452 -0.0429468 0.864365
0.00287342 -0.0428367 0.869637
0.00427048 -0.0427106 0.874734
0.00569008 -0.0425315 0.87906
0.00713423 -0.0422556 0.881887
0.00859211 -0.0419224 0.88382
0.0100609 -0.0415081 0.884446
0.0115312 -0.0410924 0.885057
0.0130027 -0.0406874 0.885856
0.0144755 -0.0402715 0.886478
0.0159505 -0.0398444 0.886922
0.0174269 -0.0394444 0.887828
0.0189062 -0.0390495 0.888836
0.0203886 -0.0386508 0.889796
0.0218772 -0.0382801 0.891259
0.0233726 -0.0379266 0.893044
0.0248787 -0.0375958 0.895269
0.0263964 -0.037283 0.897849
0.0279254 -0.0369808 0.900673
0.0294602 -0.0366724 0.903423
0.031121 -0.0367073 0.912582
-0.194352 -0.101395 0.861911
-0.192846 -0.100937 0.861981
-0.1913 -0.100455 0.861874
-0.189748 -0.0999706 0.861738
-0.188129 -0.0994476 0.861296
-0.186491 -0.0989134 0.860761
-0.184875 -0.0983912 0.860316
-0.183326 -0.0979061 0.860162
-0.181746 -0.0974038 0.859866
-0.180271 -0.0969605 0.860044
-0.17884 -0.0965434 0.86043
-0.177393 -0.0961169 0.860741
-0.17599 -0.0957153 0.861256
-0.17462 -0.0953342 0.861943
-0.173234 -0.0949438 0.862558
-0.171846 -0.0945525 0.863168
-0.170473 -0.0941708 0.863862
-0.169041 -0.0937541 0.864268
-0.167664 -0.0933706 0.864954
-0.166271 -0.0929781 0.865569
-0.164824 -0.0925538 0.865919
-0.163331 -0.0921017 0.866036
-0.161714 -0.0915746 0.865513
-0.159955 -0.0909606 0.864243
-0.158119 -0.0902983 0.862544
-0.156305 -0.0896479 0.860933
-0.154419 -0.0889512 0.858903
-0.152561 -0.0882695 0.856985
-0.150653 -0.0875541 0.854753
-0.148712 -0.0868161 0.852301
-0.146712 -0.0860383 0.849473
-0.144811 -0.0853195 0.847143
-0.142931 -0.0846107 0.844876
-0.141179 -0.083981 0.843294
-0.139423 -0.0833469 0.841657
-0.137672 -0.0827137 0.840012
-0.135841 -0.0820272 0.837865
-0.133979 -0.0813176 0.835487
-0.132049 -0.0805606 0.832651
-0.130177 -0.0798386 0.830109
-0.128327 -0.079128 0.827645
-0.126564 -0.0784711 0.825656
-0.124855 -0.0778478 0.823959
-0.123208 -0.0772645 0.822617
-0.121574 -0.0766875 0.82132
-0.120012 -0.0761574 0.820453
-0.118433 -0.0756138 0.819448
-0.116855 -0.0750707 0.818435
-0.115252 -0.0745081 0.817224
-0.113676 -0.0739625 0.816161
-0.112095 -0.0734114 0.815035
-0.110525 -0.0728668 0.813958
-0.108971 -0.0723318 0.812963
-0.10743 -0.0718044 0.812031
-0.105892 -0.0712779 0.811096
-0.10435 -0.0707468 0.810105
-0.102813 -0.070218 0.809124
-0.101289 -0.0696965 0.808205
-0.0997451 -0.0691591 0.807115
-0.0982168 -0.0686315 0.80611
-0.0966949 -0.0681069 0.805124
-0.0952009 -0.0676016 0.804324
-0.0937223 -0.0671064 0.803618
-0.092246 -0.0666117 0.802907
-0.0907823 -0.0661254 0.802274
-0.0893414 -0.0656555 0.801804
-0.0879269 -0.0652052 0.801534
-0.0865179 -0.0647587 0.801297
-0.0851381 -0.0643346 0.801296
-0.0837672 -0.0639174 0.801366
-0.0823787 -0.0634858 0.801281
-0.0809916 -0.0630549 0.801199
-0.0796144 -0.0626317 0.801199
-0.0782375 -0.0622084 0.801195
-0.076843 -0.0617701 0.801025
-0.0754648 -0.0613449 0.800997
-0.0740286 -0.0608697 0.80041
-0.072591 -0.0603918 0.799785
-0.0711624 -0.0599204 0.799223
-0.0697479 -0.05946 0.798777
-0.0683485 -0.059012 0.798465
-0.0670144 -0.0586219 0.798809
-0.0656728 -0.0582254 0.799081
-0.0643536 -0.0578498 0.799595
-0.0630335 -0.0574739 0.800111
-0.0616986 -0.0570848 0.800476
-0.0603979 -0.0567288 0.801232
-0.0591199 -0.0563962 0.802272
-0.0578311 -0.0560549 0.803219
-0.0565603 -0.0557331 0.804409
-0.0552973 -0.0554218 0.805736
-0.0539892 -0.0550667 0.806548
-0.0526705 -0.0547023 0.807254
-0.0513619 -0.0543497 0.808111
-0.0500403 -0.0539849 0.808826
-0.0487255 -0.0536288 0.809655
-0.0474134 -0.0532775 0.810553
-0.0461102 -0.052938 0.811609
-0.0448055 -0.0525993 0.812685
-0.0434887 -0.052249 0.813624
-0.0421744 -0.0519038 0.81464
-0.0408498 -0.0515486 0.815537
-0.0395179 -0.0511864 0.816353
-0.0381733 -0.0508105 0.816996
-0.0368473 -0.0504599 0.81798
-0.035495 -0.0500772 0.818551
-0.0341495 -0.0497052 0.819267
-0.0328021 -0.0493323 0.81998
-0.0314493 -0.0489539 0.820623
-0.0300916 -0.04857 0.8212
-0.0287444 -0.0482031 0.822013
-0.0273911 -0.0478293 0.822743
-0.026044 -0.0474676 0.823646
-0.0247118 -0.0471325 0.824931
-0.0233738 -0.0467926 0.826164
-0.0220507 -0.0464827 0.827837
-0.0207332 -0.0461896 0.829771
-0.0194149 -0.0459035 0.831831
-0.0181084 -0.0456491 0.834376
-0.0168054 -0.0454139 0.837235
-0.0155013 -0.0451914 0.840321
-0.0141913 -0.0449732 0.843511
-0.0128632 -0.0447337 0.846428
-0.0115079 -0.0444483 0.848699
-0.0101411 -0.0441497 0.850799
-0.0087492 -0.0438007 0.85216
-0.00734694 -0.0434322 0.85324
-0.00594343 -0.0430677 0.854396
-0.00453165 -0.042686 0.8553
-0.00312067 -0.0423145 0.856371
-0.00172989 -0.0420245 0.85875
-0.000356181 -0.0418277 0.862649
0.00101738 -0.0416792 0.867386
0.00239442 -0.0415797 0.872988
0.003796 -0.041436 0.877956
0.00522728 -0.0411957 0.881408
0.00668084 -0.0408616 0.883357
0.00814475 -0.0404781 0.884505
0.00961622 -0.0400507 0.884931
0.0110875 -0.0396229 0.885351
0.0125588 -0.0392093 0.886019
0.0140322 -0.0387805 0.886435
0.0155063 -0.0383528 0.88687
0.0169825 -0.0379404 0.887585
0.0184606 -0.037539 0.888498
0.0199407 -0.0371329 0.88934
0.0214284 -0.0367598 0.890796
0.022923 -0.0364037 0.892581
0.024431 -0.0360873 0.895123
0.0259528 -0.0357952 0.898159
0.0274855 -0.0355093 0.901365
0.0290249 -0.0352099 0.904376
-0.193344 -0.0994721 0.862188
-0.191769 -0.0989754 0.861956
-0.190202 -0.0984833 0.861757
-0.188588 -0.0979641 0.861339
-0.186955 -0.097434 0.860827
-0.185321 -0.0969035 0.860307
-0.18375 -0.0964068 0.860053
-0.182123 -0.0958785 0.85954
-0.180602 -0.0954094 0.859505
-0.179149 -0.0949786 0.85978
-0.177702 -0.0945516 0.860085
-0.1763 -0.0941502 0.860604
-0.174974 -0.0937927 0.861493
-0.173594 -0.0934048 0.862131
-0.172209 -0.0930141 0.86275
-0.170836 -0.0926309 0.863436
-0.169399 -0.0922114 0.863821
-0.168022 -0.0918269 0.864503
-0.166651 -0.091446 0.86522
-0.165247 -0.0910465 0.865784
-0.163853 -0.0906533 0.866404
-0.162357 -0.0901994 0.866505
-0.160738 -0.0896729 0.865975
-0.159057 -0.0891078 0.865105
-0.157373 -0.0885401 0.8642
-0.155537 -0.0878795 0.862471
-0.153719 -0.0872279 0.860804
-0.151878 -0.0865606 0.85898
-0.149827 -0.0857622 0.855971
-0.147727 -0.0849304 0.852634
-0.145739 -0.0841643 0.849855
-0.143774 -0.0834094 0.847149
-0.14189 -0.0827019 0.844846
-0.14018 -0.0821008 0.843489
-0.138457 -0.08149 0.842029
-0.136637 -0.0808164 0.839976
-0.134753 -0.0800987 0.837494
-0.132783 -0.0793233 0.834452
-0.130855 -0.0785721 0.831603
-0.12895 -0.0778316 0.828827
-0.127137 -0.0771472 0.82655
-0.125395 -0.076507 0.824667
-0.123734 -0.0759176 0.823249
-0.122085 -0.0753334 0.821863
-0.12051 -0.0747974 0.820924
-0.11894 -0.0742634 0.819994
-0.117375 -0.0737309 0.819068
-0.115784 -0.0731797 0.81795
-0.114219 -0.0726445 0.816974
-0.112649 -0.0721045 0.815939
-0.111075 -0.07156 0.814848
-0.109532 -0.0710353 0.813941
-0.108002 -0.0705186 0.813102
-0.106477 -0.0700039 0.812273
-0.104946 -0.0694837 0.811378
-0.103429 -0.068972 0.810559
-0.101903 -0.068453 0.809655
-0.100356 -0.0679162 0.808558
-0.0988112 -0.0673804 0.807454
-0.0972821 -0.0668538 0.806435
-0.0957618 -0.066332 0.805454
-0.094269 -0.0658289 0.804655
-0.0927906 -0.0653352 0.803945
-0.0913337 -0.0648564 0.803383
-0.0898921 -0.0643881 0.802925
-0.0884862 -0.0639462 0.802743
-0.0870854 -0.0635077 0.802593
-0.0856947 -0.0630765 0.80252
-0.0843221 -0.0626592 0.802593
-0.0829212 -0.0622192 0.802418
-0.0815228 -0.0617807 0.802255
-0.080132 -0.0613479 0.802151
-0.0787429 -0.0609159 0.802053
-0.0773284 -0.0604625 0.801713
-0.0759405 -0.0600303 0.801606
-0.0745004 -0.059554 0.800996
-0.0730607 -0.0590765 0.800364
-0.0716381 -0.0586123 0.799874
-0.0702298 -0.0581591 0.799503
-0.0688365 -0.0577181 0.799267
-0.0675099 -0.0573352 0.799702
-0.0661688 -0.0569397 0.799994
-0.0648502 -0.0565648 0.800529
-0.0635365 -0.056195 0.80113
-0.0622082 -0.0558127 0.801584
-0.0609006 -0.0554504 0.802282
-0.0596208 -0.0551152 0.803316
-0.0583292 -0.0547707 0.804245
-0.0570417 -0.0544318 0.805253
-0.0557559 -0.0540964 0.806314
-0.0544393 -0.0537323 0.80703
-0.0531132 -0.0533598 0.807648
-0.0517983 -0.0529998 0.808429
-0.0504837 -0.0526416 0.80924
-0.0491754 -0.0522916 0.810165
-0.0478704 -0.0519471 0.811166
-0.046575 -0.0516149 0.812339
-0.0452828 -0.0512891 0.813606
-0.0439725 -0.0509457 0.814657
-0.042663 -0.0506055 0.815763
-0.0413366 -0.0502484 0.816657
-0.0399957 -0.0498758 0.817356
-0.0386434 -0.0494909 0.817897
-0.0373056 -0.0491252 0.818701
-0.0359469 -0.048735 0.819182
-0.0345962 -0.0483558 0.819819
-0.0332468 -0.0479801 0.820507
-0.031893 -0.0476001 0.821145
-0.0305343 -0.0472149 0.821715
-0.0291912 -0.0468532 0.822621
-0.0278415 -0.0464848 0.823442
-0.0264987 -0.0461292 0.824453
-0.02517 -0.0457984 0.825832
-0.0238354 -0.0454635 0.827169
-0.0225155 -0.0451575 0.82894
-0.0212047 -0.0448739 0.831063
-0.0198933 -0.0445983 0.833331
-0.018584 -0.0443366 0.835836
-0.0172805 -0.0440973 0.83871
