ply
format ascii 1.0
element vertex 1662
property float x
property float y
property float z
end_header
0.115172 -0.066846 0.27639
0.115349 -0.0674263 0.276559
0.115545 -0.0680219 0.276783
0.115744 -0.0686196 0.277012
0.115935 -0.0692124 0.277218
0.116123 -0.0698038 0.277416
0.116309 -0.0703948 0.277606
0.116456 -0.0709572 0.277686
0.116612 -0.0715267 0.277791
0.116758 -0.0720895 0.277866
0.116913 -0.0726595 0.277968
0.117071 -0.0732318 0.278076
0.11724 -0.0738132 0.278214
0.117429 -0.0744115 0.278411
0.117651 -0.075036 0.278698
0.117885 -0.075672 0.279022
0.118134 -0.0763201 0.279383
0.118443 -0.0770185 0.279917
0.103535 -0.00539801 0.281025
0.103552 -0.00589858 0.280708
0.10357 -0.00639829 0.280391
0.103596 -0.00689868 0.280104
0.103605 -0.00739552 0.279763
0.103612 -0.00789116 0.279415
0.10362 -0.00838588 0.279068
0.103619 -0.00887833 0.278696
0.103637 -0.00937311 0.278384
0.103672 -0.00987055 0.278131
0.103727 -0.010371 0.277939
0.103783 -0.0108716 0.277755
0.103848 -0.0113736 0.2776
0.103937 -0.0118804 0.277523
0.103739 -0.0125394 0.278235
0.103948 -0.0123701 0.277191
0.103891 -0.0130612 0.278361
0.103949 -0.0128569 0.276829
0.101061 -0.0173353 0.263631
0.101087 -0.017803 0.26337
0.101111 -0.0182692 0.263099
0.101108 -0.0187269 0.262745
0.110999 -0.0251992 0.291557
0.111334 -0.0258144 0.292236
0.111666 -0.0264312 0.292905
0.111975 -0.0270421 0.293498
0.111919 -0.0275261 0.29294
0.11191 -0.0280262 0.292537
0.11192 -0.0285316 0.292191
0.111903 -0.0290264 0.291762
0.111847 -0.0295052 0.29121
0.111784 -0.0299801 0.290639
0.111689 -0.0304411 0.289969
0.111557 -0.0308859 0.289186
0.111435 -0.0313322 0.288435
0.111323 -0.0317803 0.287715
0.111231 -0.0322346 0.287062
0.111143 -0.0326884 0.28642
0.111093 -0.0331564 0.285899
0.111047 -0.0336242 0.285389
0.110999 -0.0340903 0.284877
0.110941 -0.0345506 0.284334
0.110861 -0.035 0.283725
0.110772 -0.0354435 0.283088
0.110702 -0.0358935 0.28251
0.110654 -0.036352 0.282003
0.110628 -0.0368192 0.281565
0.110641 -0.0373026 0.281245
0.110674 -0.0377949 0.280988
0.110727 -0.0382958 0.280792
0.110783 -0.0387976 0.280604
0.110856 -0.0393074 0.280471
0.110892 -0.0397991 0.280224
0.110914 -0.0402834 0.279935
0.110894 -0.0407465 0.279519
0.110853 -0.041198 0.279041
0.110783 -0.0416336 0.278474
0.110724 -0.0420733 0.277942
0.110683 -0.0425209 0.277467
0.110665 -0.0429788 0.277061
0.110706 -0.0434662 0.276833
0.110761 -0.0439609 0.276649
0.110845 -0.0444706 0.276553
0.110935 -0.0449833 0.276474
0.111015 -0.0454908 0.276367
0.111097 -0.0459986 0.276261
0.11117 -0.0465021 0.276133
0.111252 -0.0470103 0.276031
0.111323 -0.0475121 0.275896
0.111412 -0.0480239 0.275815
0.111494 -0.0485314 0.275711
0.111605 -0.0490555 0.275694
0.111717 -0.0495807 0.275682
0.111829 -0.0501061 0.275669
0.11196 -0.0506426 0.275712
0.112073 -0.0511685 0.275699
0.11213 -0.0516619 0.275524
0.112115 -0.0521114 0.275135
0.112087 -0.0525527 0.27471
0.112031 -0.0529748 0.274199
0.111992 -0.0534069 0.273743
0.112007 -0.0538706 0.273445
0.112079 -0.0543695 0.273316
0.112152 -0.0548686 0.273188
0.112233 -0.0553725 0.273086
0.112314 -0.0558768 0.272983
0.112405 -0.0563871 0.272909
0.112533 -0.0569214 0.272945
0.112702 -0.0574825 0.273099
0.112897 -0.0580612 0.273326
0.11313 -0.0586658 0.273665
0.113374 -0.0592793 0.274035
0.113618 -0.0598939 0.274403
0.113852 -0.060504 0.274743
0.114087 -0.0611151 0.275084
0.114284 -0.0617017 0.275312
0.114488 -0.0622945 0.275562
0.114672 -0.0628741 0.275752
0.114837 -0.0634414 0.275888
0.114983 -0.0639966 0.275971
0.115126 -0.0645497 0.276042
0.115268 -0.0651019 0.276108
0.115391 -0.0656421 0.276122
0.115555 -0.0662115 0.276254
0.115723 -0.0667842 0.276394
0.115912 -0.0673728 0.276594
0.116111 -0.0679698 0.276824
0.11632 -0.0685752 0.277081
0.11652 -0.0691752 0.277312
0.116719 -0.0697742 0.277537
0.116908 -0.070368 0.277736
0.117066 -0.0709386 0.277845
0.117223 -0.0715093 0.27795
0.117368 -0.0720713 0.278023
0.117515 -0.0726354 0.278099
0.117672 -0.0732078 0.278205
0.117831 -0.0737816 0.278314
0.118009 -0.0743716 0.278477
0.118199 -0.0749707 0.278672
0.118421 -0.0755969 0.278959
0.118669 -0.0762439 0.279317
0.118981 -0.0769433 0.279853
0.103414 -0.00388282 0.281751
0.103769 -0.00325374 0.281536
0.103844 -0.00376382 0.281408
0.103462 -0.00438942 0.281533
0.103885 -0.00426939 0.281168
0.103519 -0.00489679 0.281347
0.103941 -0.00477645 0.280979
0.10395 -0.00527646 0.280635
0.103958 -0.00577557 0.280289
0.103958 -0.00627255 0.279919
0.103975 -0.00677113 0.279603
0.103975 -0.00726611 0.279232
0.103982 -0.00776143 0.278887
0.103981 -0.00825439 0.278515
0.103988 -0.00874783 0.278171
0.104005 -0.00924213 0.277858
0.10404 -0.00973892 0.277603
0.104094 -0.010239 0.277413
0.104158 -0.0107406 0.277255
0.104222 -0.0112419 0.277096
0.104301 -0.0117461 0.276987
0.104159 -0.0122027 0.276165
0.103989 -0.0126506 0.275255
0.101384 -0.0167326 0.263388
0.101394 -0.017196 0.263076
0.101419 -0.0176629 0.262812
0.101452 -0.0181314 0.262573
0.101476 -0.0185967 0.262306
0.101549 -0.0190761 0.262196
0.111377 -0.0260456 0.290237
0.112104 -0.0267962 0.292136
0.112403 -0.0274032 0.292693
0.112404 -0.0279067 0.29232
0.112424 -0.028416 0.292007
0.112417 -0.0289147 0.29161
0.112379 -0.0294011 0.291119
0.112326 -0.0298803 0.290581
0.11224 -0.0303456 0.289942
0.112117 -0.0307946 0.289189
0.112005 -0.031246 0.288474
0.111894 -0.0316957 0.287762
0.111802 -0.032151 0.287111
0.111712 -0.0326048 0.286464
0.111651 -0.0330693 0.285913
0.111592 -0.0335328 0.285366
0.111543 -0.0339991 0.284852
0.111484 -0.0344598 0.284309
0.111414 -0.0349142 0.283733
0.111334 -0.0353625 0.283126
0.111263 -0.0358132 0.282549
0.111204 -0.0362676 0.28201
0.111176 -0.0367345 0.281566
0.111178 -0.0372135 0.281213
0.11121 -0.0377058 0.280954
0.111262 -0.0382069 0.280757
0.111326 -0.0387126 0.280593
0.111408 -0.0392271 0.280487
0.111461 -0.0397274 0.280292
0.111495 -0.0402184 0.280041
0.111487 -0.0406881 0.279662
0.111458 -0.0411462 0.27922
0.11138 -0.0415793 0.278633
0.111311 -0.042015 0.278073
0.111269 -0.0424634 0.277598
0.11126 -0.0429268 0.27722
0.111293 -0.0434113 0.276971
0.111358 -0.0439114 0.276814
0.11144 -0.0444204 0.276711
0.111521 -0.0449289 0.276605
0.111601 -0.0454369 0.276496
0.111682 -0.0459453 0.276391
0.111754 -0.0464484 0.276257
0.111826 -0.0469515 0.276124
0.111885 -0.0474474 0.275955
0.111974 -0.0479597 0.275873
0.112058 -0.0484687 0.275775
0.112163 -0.0489905 0.275744
0.112268 -0.0495113 0.275707
0.112369 -0.0500308 0.275662
0.112469 -0.0505492 0.275611
0.112562 -0.0510637 0.27554
0.112598 -0.0515448 0.275304
0.112561 -0.0519822 0.274854
0.112513 -0.0524107 0.274367
0.112444 -0.0528263 0.273825
0.112396 -0.0532527 0.273343
0.112412 -0.0537172 0.273049
0.112502 -0.0542273 0.272975
0.112593 -0.0547376 0.272901
0.112684 -0.0552476 0.272827
0.112775 -0.0557579 0.272753
0.112866 -0.0562678 0.272679
0.112994 -0.0568018 0.272712
0.113162 -0.0573625 0.272864
0.113365 -0.057946 0.273115
0.113621 -0.0585649 0.273516
0.113887 -0.0591925 0.273948
0.114163 -0.0598277 0.274406
0.114438 -0.0604645 0.27486
0.114696 -0.0610912 0.275265
0.114896 -0.0616807 0.275503
0.115109 -0.0622792 0.275775
0.115282 -0.0628514 0.275931
0.115428 -0.063406 0.276012
0.115565 -0.0639549 0.276065
0.115709 -0.0645087 0.276137
0.115842 -0.0650554 0.276178
0.115955 -0.0655888 0.276164
0.116119 -0.0661578 0.276292
0.116286 -0.0667298 0.276428
0.116467 -0.0673131 0.276605
0.116656 -0.0679031 0.276805
0.116863 -0.0685062 0.277054
0.117063 -0.0691054 0.277281
0.117265 -0.0697071 0.277514
0.117466 -0.0703096 0.277747
0.117635 -0.0708888 0.277885
0.1178 -0.071465 0.278011
0.117945 -0.0720276 0.278082
0.118093 -0.0725922 0.278161
0.118243 -0.0731594 0.278245
0.118411 -0.0737402 0.278377
0.118578 -0.0743215 0.278508
0.118747 -0.0749043 0.278643
0.118958 -0.0755218 0.278898
0.119206 -0.076168 0.279252
0.11951 -0.0768608 0.279764
0.104187 -0.00263201 0.281528
0.104231 -0.00313881 0.281299
0.104262 -0.00364361 0.281028
0.104293 -0.00414771 0.280757
0.104337 -0.0046528 0.280528
0.104346 -0.00515267 0.280187
0.104363 -0.00565271 0.279871
0.104363 -0.00614941 0.279501
0.10437 -0.0066463 0.279155
0.104369 -0.00714101 0.278785
0.104378 -0.00763629 0.278445
0.104377 -0.00812914 0.278077
0.104393 -0.00862384 0.277762
0.104417 -0.00911917 0.277474
0.104444 -0.00961468 0.277199
0.104498 -0.0101143 0.277007
0.104553 -0.0106138 0.276819
0.104606 -0.0111127 0.276629
0.104542 -0.0115869 0.276062
0.104232 -0.0120068 0.274703
0.103878 -0.0124134 0.273214
0.101683 -0.016124 0.26307
0.101711 -0.0165927 0.262817
0.101721 -0.0170556 0.262506
0.10175 -0.0175232 0.262256
0.10179 -0.0179933 0.262042
0.101838 -0.0184651 0.26185
0.10193 -0.0189497 0.2618
0.111817 -0.0264102 0.289495
0.112528 -0.0271555 0.291329
0.112877 -0.0277801 0.29204
0.112917 -0.0282965 0.291788
0.112929 -0.0288024 0.291453
0.112902 -0.0292934 0.290999
0.112859 -0.029777 0.290494
0.112783 -0.0302467 0.289889
0.112669 -0.0307001 0.289167
0.112566 -0.031156 0.288483
0.112464 -0.0316103 0.287803
0.112373 -0.0320666 0.287155
0.11228 -0.0325209 0.286507
0.112208 -0.0329812 0.285919
0.112128 -0.0334368 0.285311
0.112068 -0.0338994 0.284767
0.112008 -0.0343605 0.284223
0.111949 -0.0348202 0.283683
0.111869 -0.0352694 0.283079
0.111807 -0.0357247 0.282531
0.111746 -0.0361791 0.281989
0.111716 -0.0366458 0.281541
0.111708 -0.0371212 0.281161
0.11173 -0.037609 0.28087
0.111771 -0.0381055 0.280641
0.111824 -0.0386064 0.280444
0.111896 -0.0391162 0.280307
0.11195 -0.0396174 0.280118
0.112012 -0.0401216 0.279949
0.112034 -0.0406066 0.279664
0.112036 -0.0410808 0.279316
0.111979 -0.0415252 0.278795
0.111918 -0.0419662 0.278261
0.111866 -0.0424105 0.277757
0.111848 -0.0428704 0.277354
0.111872 -0.0433511 0.277079
0.111937 -0.0438518 0.276923
0.112018 -0.044361 0.276817
0.112099 -0.0448697 0.276709
0.112178 -0.045378 0.276599
0.11226 -0.0458875 0.276496
0.112333 -0.0463915 0.276365
0.112393 -0.0468889 0.276198
0.112443 -0.04738 0.276
0.112531 -0.047892 0.275914
0.112606 -0.0483968 0.275791
0.112703 -0.0489139 0.275734
0.112814 -0.0494388 0.275716
0.112923 -0.049963 0.275693
0.113002 -0.05047 0.275583
0.113084 -0.050978 0.275478
0.113098 -0.0514467 0.275177
0.113041 -0.0518721 0.274667
0.112971 -0.0522893 0.274125
0.112904 -0.052706 0.273588
0.112856 -0.0531332 0.273109
0.112882 -0.0536037 0.272845
0.112972 -0.0541139 0.272771
0.113063 -0.0546242 0.272696
0.113154 -0.0551341 0.272622
0.113245 -0.0556445 0.272548
0.113345 -0.0561603 0.2725
0.113483 -0.0567004 0.272562
0.113654 -0.0572625 0.27272
0.113869 -0.0578534 0.273003
0.114154 -0.0584911 0.273487
0.114432 -0.0591261 0.273952
0.114732 -0.0597766 0.274474
0.115039 -0.0604341 0.275017
0.115319 -0.0610754 0.275482
0.115522 -0.0616666 0.275724
0.115735 -0.0622656 0.275995
0.115896 -0.0628306 0.276118
0.11603 -0.0633772 0.276162
0.116157 -0.0639187 0.276184
0.116301 -0.0644738 0.276258
0.116435 -0.0650212 0.2763
0.116549 -0.0655554 0.276287
0.116703 -0.0661174 0.276384
0.116859 -0.0666827 0.276491
0.117019 -0.0672506 0.276606
0.117197 -0.0678316 0.276771
0.117403 -0.0684343 0.277015
0.117603 -0.0690333 0.277241
0.117817 -0.0696439 0.277507
0.118021 -0.070248 0.277744
0.1182 -0.0708345 0.27791
0.118365 -0.071411 0.278036
0.118511 -0.0719739 0.278108
0.11865 -0.0725324 0.278161
0.11881 -0.0731068 0.27827
0.118969 -0.0736809 0.278376
0.119127 -0.0742552 0.278481
0.119286 -0.0748308 0.278588
0.119488 -0.0754403 0.278814
0.119725 -0.0760778 0.279136
0.120019 -0.0767621 0.279617
0.104717 -0.00252446 0.281512
0.10472 -0.00302699 0.28115
0.10471 -0.00352709 0.280747
0.104725 -0.00402922 0.280426
0.104742 -0.00453066 0.280111
0.104751 -0.00503038 0.279772
0.10476 -0.00552911 0.279432
0.104758 -0.00602543 0.279059
0.104757 -0.00652065 0.278686
0.104754 -0.0070149 0.278313
0.104763 -0.00750993 0.277975
0.104772 -0.00800408 0.277639
0.104798 -0.00850021 0.277357
0.104822 -0.00899564 0.277074
0.104858 -0.00949217 0.276824
0.104902 -0.00999005 0.276605
0.104948 -0.0104874 0.276389
0.104883 -0.0109624 0.275821
0.104674 -0.0114062 0.274795
0.104183 -0.0117874 0.272872
0.103656 -0.0121548 0.270839
0.101613 -0.0156441 0.263193
0.101896 -0.0150327 0.262827
0.101941 -0.0155062 0.262628
0.102003 -0.0159835 0.262481
0.102031 -0.0164513 0.262226
0.102047 -0.0169156 0.261937
0.102077 -0.0173829 0.261692
0.102128 -0.0178556 0.261513
0.102184 -0.0183295 0.26135
0.102296 -0.0188193 0.26136
0.102931 -0.019708 0.2646
0.102819 -0.0194321 0.262653
0.112265 -0.0267768 0.288783
0.113018 -0.0275377 0.290736
0.1134 -0.0281736 0.291541
0.113432 -0.0286868 0.291268
0.113416 -0.0291823 0.29085
0.113376 -0.0296673 0.290355
0.11331 -0.0301413 0.289783
0.113213 -0.0306022 0.289118
0.113109 -0.0310585 0.288433
0.113007 -0.0315136 0.287756
0.112923 -0.0319739 0.287136
0.112829 -0.0324282 0.286484
0.112744 -0.0328847 0.285864
0.112662 -0.0333403 0.285252
0.112602 -0.0338032 0.284707
0.11255 -0.0342683 0.284191
0.112501 -0.0347329 0.283681
0.112422 -0.0351836 0.283085
0.11236 -0.03564 0.282541
0.112298 -0.0360944 0.281995
0.112257 -0.0365571 0.281517
0.112239 -0.0370288 0.281109
0.112252 -0.037513 0.280791
0.112282 -0.0380047 0.280529
0.112323 -0.0385008 0.2803
0.112385 -0.0390058 0.280131
0.11244 -0.0395073 0.279943
0.112512 -0.0400169 0.279807
0.112565 -0.0405169 0.279614
0.112597 -0.0410062 0.279358
0.112568 -0.0414656 0.278923
0.112535 -0.0419213 0.278474
0.112508 -0.0423794 0.278047
0.112489 -0.0428401 0.277643
0.112496 -0.0433125 0.277314
0.112548 -0.0438077 0.277122
0.112609 -0.0443072 0.276956
0.112671 -0.0448069 0.276794
0.112744 -0.0453123 0.276664
0.112826 -0.045822 0.276561
0.11289 -0.046322 0.276404
0.112941 -0.046815 0.276211
0.112981 -0.0473013 0.275984
0.113057 -0.047807 0.275864
0.113131 -0.0483112 0.275736
0.113226 -0.0488272 0.275671
0.113327 -0.0493471 0.275626
0.113424 -0.0498645 0.275568
0.113485 -0.0503612 0.275404
0.113555 -0.0508629 0.275267
0.113559 -0.0513257 0.274937
0.113501 -0.0517511 0.274427
0.113432 -0.0521688 0.273886
0.113373 -0.0525913 0.273378
0.113326 -0.0530194 0.272903
0.113351 -0.0534904 0.27264
0.113442 -0.0540005 0.272566
0.113533 -0.0545108 0.272492
0.113624 -0.0550208 0.272418
0.113724 -0.0555366 0.27237
0.113834 -0.0560589 0.272351
0.113984 -0.0566066 0.272447
0.114185 -0.0571878 0.27269
0.114431 -0.0577983 0.27306
0.11473 -0.0584444 0.27358
0.115031 -0.0590937 0.274104
0.11535 -0.0597566 0.274679
0.11566 -0.0604158 0.275227
0.115935 -0.0610536 0.275674
0.116138 -0.0616454 0.275915
0.11635 -0.0622439 0.276182
0.116501 -0.0628016 0.276272
0.116626 -0.0633423 0.276289
0.116751 -0.0638837 0.276306
0.116894 -0.0644379 0.276376
0.117018 -0.0649791 0.27639
0.117134 -0.0655144 0.276379
0.117287 -0.0660765 0.276474
0.117443 -0.0666415 0.276578
0.117592 -0.0672014 0.27666
0.117748 -0.0677679 0.276765
0.117953 -0.0683688 0.277002
0.118153 -0.0689684 0.277229
0.118371 -0.0695809 0.277502
0.118567 -0.0701794 0.277716
0.118756 -0.0707726 0.277907
0.118911 -0.0713418 0.278003
0.119047 -0.0718981 0.278048
0.119178 -0.0724501 0.278077
0.119347 -0.0730313 0.278211
0.119506 -0.0736057 0.278317
0.119666 -0.0741809 0.278425
0.119817 -0.07475 0.278508
0.120017 -0.0753582 0.278728
0.120233 -0.0759794 0.278991
0.120507 -0.0766464 0.279412
0.12036 -0.0774847 0.280227
0.120838 -0.0773595 0.279989
0.105309 -0.00191921 0.282066
0.105264 -0.00241837 0.281548
0.105224 -0.00291674 0.281048
0.10518 -0.00341322 0.280537
0.105168 -0.00391216 0.28013
0.105167 -0.00441137 0.279759
0.105167 -0.0049097 0.279393
0.105158 -0.00540585 0.278997
0.105146 -0.00590042 0.278592
0.105134 -0.00639384 0.278187
0.105131 -0.00688766 0.277814
0.105148 -0.0073837 0.277506
0.105174 -0.0078805 0.277228
0.105209 -0.008378 0.276975
0.105244 -0.00887495 0.276725
0.105278 -0.00937134 0.276475
0.105322 -0.00986883 0.276255
0.105256 -0.0103446 0.275684
0.105055 -0.0107922 0.274688
0.104698 -0.011205 0.273198
0.104058 -0.0115543 0.270815
0.103388 -0.0118895 0.268343
0.102993 -0.0124857 0.268379
0.102852 -0.012246 0.2663
0.102472 -0.0128406 0.266373
0.102464 -0.0126293 0.26473
0.102088 -0.0132211 0.264808
0.102222 -0.0130409 0.263623
0.10197 -0.0136596 0.264091
0.10223 -0.0135078 0.263306
0.101845 -0.0140941 0.26335
0.102222 -0.0139698 0.262938
0.101861 -0.0145614 0.263059
0.102229 -0.0144347 0.262619
0.102263 -0.0149054 0.262385
0.1023 -0.0153764 0.262161
0.10236 -0.0158529 0.26201
0.102387 -0.0163205 0.261756
0.102411 -0.0167865 0.261492
0.102442 -0.0172538 0.261251
0.102493 -0.0177262 0.261072
0.102549 -0.0181997 0.260911
0.10266 -0.0186887 0.260917
0.102803 -0.0191877 0.261026
0.103359 -0.0200547 0.263999
0.102943 -0.0196861 0.261122
0.113192 -0.0278083 0.289179
0.113594 -0.0284499 0.29004
0.113921 -0.0290677 0.290672
0.113881 -0.0295534 0.290182
0.113814 -0.0300276 0.289609
0.113726 -0.0304924 0.288974
0.113631 -0.0309527 0.288319
0.113548 -0.0314157 0.287701
0.113464 -0.0318767 0.287083
0.113377 -0.0323352 0.286459
0.113282 -0.0327882 0.285809
0.113199 -0.0332442 0.285196
0.113127 -0.0337031 0.28462
0.113075 -0.0341688 0.284105
0.113025 -0.0346339 0.283596
0.112965 -0.0350931 0.283058
0.112903 -0.0355504 0.282517
0.11284 -0.0360054 0.281972
0.112798 -0.0364682 0.281491
0.112779 -0.03694 0.281081
0.112782 -0.0374205 0.280736
0.112803 -0.0379085 0.280448
0.112842 -0.0384038 0.280212
0.112893 -0.038904 0.280011
0.112947 -0.0394054 0.279821
0.113029 -0.0399201 0.279716
0.113103 -0.0404302 0.279584
0.113156 -0.0409304 0.279392
0.113158 -0.0414056 0.279051
0.113144 -0.0418716 0.27866
0.113128 -0.0423358 0.278265
0.113107 -0.0427966 0.277856
0.1131 -0.0432633 0.277489
0.11314 -0.0437531 0.277261
0.113181 -0.0442429 0.277036
0.113223 -0.0447327 0.276815
0.113304 -0.0452425 0.276708
0.113378 -0.0457485 0.276581
0.113442 -0.0462492 0.276426
0.113493 -0.0467425 0.276232
0.113531 -0.0472284 0.276001
0.113579 -0.0477188 0.275797
0.11364 -0.0482166 0.275634
0.113714 -0.048721 0.275507
0.113806 -0.0492355 0.275434
0.113895 -0.0497486 0.275353
0.113948 -0.0502406 0.275166
0.114008 -0.0507366 0.275
0.114011 -0.0511994 0.27467
0.113961 -0.05163 0.274186
0.113894 -0.0520496 0.273655
0.113845 -0.0524787 0.273177
0.113806 -0.0529121 0.272728
0.11383 -0.0533824 0.272462
0.113912 -0.0538871 0.272362
0.114003 -0.0543974 0.272287
0.114094 -0.0549074 0.272213
0.114203 -0.0554292 0.272193
0.114334 -0.0559644 0.272232
0.114515 -0.0565314 0.272416
0.11475 -0.0571335 0.272752
0.115037 -0.0577705 0.273239
0.115358 -0.0584302 0.273816
0.11567 -0.0590869 0.27437
0.115992 -0.0597513 0.274948
0.116293 -0.0604042 0.275467
0.116547 -0.0610282 0.275852
0.11674 -0.0616131 0.276061
0.116943 -0.0622055 0.2763
0.117086 -0.0627588 0.276367
0.117211 -0.0632997 0.276383
0.117336 -0.0638413 0.2764
0.117479 -0.0643957 0.276467
0.117594 -0.0649304 0.276454
0.117709 -0.0654665 0.276443
0.117853 -0.0660223 0.276512
0.118 -0.0665804 0.276586
0.118137 -0.0671326 0.276637
0.118293 -0.0676988 0.276739
0.118499 -0.0683004 0.276978
0.118702 -0.0689015 0.277211
0.118921 -0.0695151 0.277485
0.119116 -0.0701123 0.277694
0.119305 -0.0707056 0.277883
0.119449 -0.0712668 0.277948
0.119576 -0.0718162 0.277968
0.119695 -0.0723594 0.277962
0.119863 -0.0729398 0.278093
0.120023 -0.0735142 0.278199
0.120184 -0.0740912 0.278312
0.120336 -0.0746602 0.278394
0.120525 -0.0752595 0.278582
0.120718 -0.0758624 0.278779
0.120969 -0.0765108 0.279135
0.10591 -0.00131175 0.282642
0.105865 -0.00181321 0.282127
0.105797 -0.00231079 0.281539
0.105729 -0.0028066 0.280951
0.105653 -0.00329968 0.280336
0.105622 -0.00379648 0.27987
0.105601 -0.00429328 0.279438
0.105583 -0.00478926 0.279015
0.105562 -0.00528365 0.278584
0.10554 -0.00577662 0.278148
0.105516 -0.00626821 0.27771
0.105514 -0.00676185 0.27734
0.105539 -0.00725882 0.277059
0.105584 -0.00775838 0.276841
0.105629 -0.00825746 0.276624
0.105672 -0.00875585 0.276403
0.105706 -0.009252 0.276151
0.105653 -0.00973142 0.275624
0.10546 -0.0101828 0.274657
0.105128 -0.010604 0.273252
0.104631 -0.0109876 0.271329
0.103985 -0.0113345 0.268943
0.103441 -0.0116952 0.266882
0.103037 -0.0120798 0.265269
0.102767 -0.0124888 0.264078
0.102639 -0.0129264 0.263336
0.102622 -0.0133874 0.262941
0.102596 -0.0138453 0.262521
0.102596 -0.0143081 0.262179
0.102628 -0.0147782 0.261941
0.102665 -0.0152488 0.261718
0.102726 -0.0157252 0.26157
0.102762 -0.0161949 0.261346
0.102795 -0.016663 0.26111
0.102826 -0.0171303 0.260872
0.102869 -0.0176002 0.260669
0.102924 -0.018073 0.260502
0.103026 -0.0185593 0.260484
0.103162 -0.0190555 0.260569
0.103303 -0.0195537 0.260668
0.103132 -0.0202002 0.261371
0.103485 -0.0200652 0.260896
0.103332 -0.0207188 0.261653
0.103685 -0.0205828 0.261176
0.1039 -0.0213547 0.263071
0.103902 -0.0211069 0.261506
0.113344 -0.0280692 0.287569
0.114066 -0.0288241 0.2894
0.114353 -0.0294269 0.289903
0.114294 -0.0299049 0.28936
0.114224 -0.0303767 0.288782
0.11414 -0.0308418 0.288163
0.114059 -0.0313063 0.287555
0.113984 -0.0317716 0.286968
0.113907 -0.0322343 0.286375
0.113801 -0.0326839 0.285697
0.113718 -0.0331405 0.285086
0.113644 -0.0335995 0.284506
0.113592 -0.0340657 0.283994
0.11354 -0.0345307 0.283483
0.113499 -0.0349986 0.283003
0.113438 -0.0354565 0.282464
0.113383 -0.0359162 0.281948
0.11334 -0.0363793 0.281466
0.113319 -0.0368507 0.281051
0.113312 -0.0373273 0.280678
0.113332 -0.0378156 0.280389
0.113371 -0.0383111 0.280152
0.113421 -0.0388114 0.27995
0.113474 -0.0393126 0.279756
0.113565 -0.0398318 0.279679
0.11364 -0.040343 0.279552
0.113704 -0.0408488 0.279392
0.113728 -0.0413348 0.279114
0.113736 -0.0418126 0.27879
0.113723 -0.0422793 0.278406
0.113712 -0.0427459 0.278027
0.113702 -0.0432121 0.277653
0.11372 -0.0436912 0.27736
0.113747 -0.0441747 0.277096
0.113777 -0.0446594 0.276842
0.113848 -0.045164 0.276704
0.113912 -0.0456651 0.276547
0.113974 -0.0461653 0.276388
0.114007 -0.0466489 0.276139
0.114033 -0.0471291 0.275876
0.114061 -0.0476091 0.275615
0.114111 -0.0481009 0.27542
0.114166 -0.0485949 0.275239
0.114257 -0.049109 0.275164
0.114348 -0.0496225 0.275087
0.11441 -0.0501199 0.274926
0.11447 -0.0506161 0.274762
0.114491 -0.0510892 0.274484
0.114453 -0.0515274 0.274036
0.114388 -0.0519488 0.273513
0.114339 -0.0523782 0.273036
0.114297 -0.052811 0.272583
0.11431 -0.0532749 0.272285
0.114382 -0.0537738 0.272157
0.114473 -0.0542841 0.272083
0.114564 -0.054794 0.272009
0.114683 -0.0553222 0.272017
0.114835 -0.05587 0.272115
0.115049 -0.0564574 0.272391
0.115326 -0.057086 0.272845
0.115667 -0.0577563 0.27348
0.116013 -0.0584322 0.274126
0.116337 -0.0590966 0.27471
0.116647 -0.0597533 0.275251
0.116917 -0.0603863 0.275679
0.117139 -0.0609888 0.27597
0.117319 -0.0615654 0.276142
0.117513 -0.0621516 0.276351
0.117658 -0.0627063 0.276424
0.117786 -0.0632496 0.276448
0.117902 -0.0637856 0.276439
0.118035 -0.0643333 0.276477
0.118149 -0.0648678 0.27646
0.118264 -0.0654032 0.276447
0.118409 -0.0659602 0.276518
0.118556 -0.0665188 0.276593
0.118704 -0.0670786 0.276672
0.118862 -0.0676458 0.276778
0.11907 -0.0682492 0.277022
0.119274 -0.0688509 0.277255
0.119493 -0.0694641 0.277527
0.119678 -0.070054 0.277706
0.119855 -0.0706386 0.27786
0.119988 -0.0711916 0.277894
0.120104 -0.0717329 0.277882
0.120211 -0.0722671 0.277843
0.120378 -0.0728468 0.277969
0.120538 -0.0734211 0.278075
0.120691 -0.0739917 0.278164
0.120842 -0.0745606 0.278246
0.12102 -0.0751508 0.2784
0.121179 -0.075727 0.278503
0.10644 -0.000695113 0.282985
0.106413 -0.00119993 0.282527
0.106376 -0.00170262 0.282041
0.106301 -0.00219985 0.281432
0.106213 -0.00269397 0.280783
0.106116 -0.00318509 0.280106
0.106072 -0.00368056 0.279601
0.106025 -0.00417422 0.279088
0.105997 -0.00466876 0.278634
0.105965 -0.00516157 0.27817
0.105939 -0.00565396 0.277726
0.105915 -0.00614531 0.277288
0.105921 -0.00664007 0.276948
0.105949 -0.00713728 0.276676
0.106012 -0.0076396 0.276517
0.106058 -0.00813876 0.276304
0.106102 -0.008637 0.276083
0.106134 -0.00913284 0.275829
0.105978 -0.00959341 0.274979
0.105665 -0.0100222 0.273641
0.1052 -0.0104172 0.271826
0.104565 -0.0107729 0.269486
0.103946 -0.0111241 0.267198
0.10353 -0.0115105 0.265553
0.103241 -0.0119186 0.264304
0.10308 -0.0123512 0.263462
0.103059 -0.0128125 0.263056
0.103015 -0.0132674 0.26258
0.102981 -0.0137233 0.262136
0.102979 -0.0141859 0.261794
0.103013 -0.014656 0.26156
0.10305 -0.0151266 0.261339
0.103119 -0.0156049 0.261218
0.103157 -0.0160747 0.260999
0.103191 -0.016543 0.260768
0.10323 -0.0170122 0.260553
0.103272 -0.0174819 0.260349
0.103325 -0.0179542 0.26018
0.103427 -0.0184401 0.26016
0.103555 -0.0189336 0.260219
0.103686 -0.0194286 0.260289
0.103852 -0.0199343 0.260463
0.104041 -0.0204483 0.260711
0.10425 -0.0209691 0.261015
0.104437 -0.0217338 0.262814
0.104452 -0.021489 0.261298
0.113773 -0.0284272 0.286817
0.114428 -0.029158 0.28843
0.114691 -0.0297516 0.28886
0.114652 -0.0302353 0.288381
0.114588 -0.0307083 0.287827
0.114528 -0.0311809 0.287284
0.114464 -0.0316508 0.286732
0.114407 -0.0321215 0.2862
0.114301 -0.032572 0.285525
0.114225 -0.0330323 0.284941
0.114151 -0.0334914 0.284361
0.114107 -0.0339616 0.283875
0.114055 -0.034427 0.283365
0.114023 -0.0348996 0.282917
0.113971 -0.0353622 0.282408
0.113928 -0.0358273 0.281927
0.113883 -0.0362904 0.281442
0.11386 -0.0367618 0.281024
0.113851 -0.0372382 0.280647
0.113863 -0.0377228 0.280331
0.113903 -0.0382194 0.280099
0.113952 -0.03872 0.279897
0.114005 -0.0392214 0.279703
0.114096 -0.0397407 0.279624
0.11417 -0.0402519 0.279495
0.114235 -0.0407583 0.279338
0.114276 -0.0412534 0.279113
0.114306 -0.0417425 0.278855
0.114307 -0.0422165 0.278511
0.114306 -0.042689 0.278163
0.114305 -0.0431602 0.277815
0.114311 -0.0436347 0.27749
0.114319 -0.0441093 0.277171
0.114339 -0.0445887 0.276884
0.114397 -0.0450875 0.276711
0.114449 -0.045583 0.276521
0.114493 -0.0460738 0.276308
0.114522 -0.0465563 0.276052
0.114539 -0.0470315 0.27576
0.114546 -0.0475006 0.27544
0.114576 -0.0479818 0.275188
0.114629 -0.0484747 0.275002
0.114711 -0.0489837 0.274901
0.114802 -0.0494977 0.274826
0.114874 -0.0500005 0.274694
0.114935 -0.050497 0.274531
0.114964 -0.0509753 0.274279
0.114935 -0.0514195 0.273861
0.114882 -0.0518481 0.273372
0.114834 -0.0522791 0.272902
0.114799 -0.0527159 0.272467
0.1148 -0.0531733 0.272137
0.114861 -0.0536658 0.271978
0.114943 -0.0541707 0.271878
0.115034 -0.0546807 0.271804
0.115181 -0.0552257 0.271892
0.115383 -0.0558044 0.27213
0.115651 -0.0564255 0.272557
0.115984 -0.0570888 0.273167
0.11637 -0.0577872 0.273924
0.116719 -0.058465 0.274574
0.117027 -0.0591186 0.275106
0.117296 -0.0597497 0.275531
0.117523 -0.0603546 0.275833
0.117712 -0.0609355 0.276028
0.11788 -0.0615043 0.276165
0.118056 -0.0620784 0.276323
0.118202 -0.062634 0.276397
0.11834 -0.0631843 0.276449
0.118466 -0.0637271 0.276467
0.1186 -0.0642753 0.276506
0.118723 -0.0648171 0.276516
0.118848 -0.0653594 0.276529
0.118984 -0.0659102 0.276574
0.119122 -0.0664624 0.276622
0.119271 -0.067023 0.276702
0.11943 -0.0675913 0.27681
0.11964 -0.0681965 0.27706
0.119847 -0.0688 0.277297
0.120064 -0.069412 0.277564
0.120237 -0.069993 0.277707
0.120403 -0.0705693 0.27783
0.120516 -0.0711084 0.277809
0.12062 -0.0716406 0.277762
0.120715 -0.0721667 0.277691
0.120871 -0.0727375 0.277786
0.121021 -0.0733043 0.277865
0.121175 -0.0738749 0.277954
0.121326 -0.0744438 0.278035
0.121494 -0.0750253 0.278159
0.12163 -0.0755837 0.278199
0.106883 -6.94127e-05 0.283045
0.106909 -0.000579937 0.282758
0.106889 -0.00108562 0.282327
0.106843 -0.00158755 0.281812
0.106766 -0.00208493 0.281201
0.106666 -0.00257805 0.280518
0.106576 -0.00307023 0.279867
0.106523 -0.00356472 0.279334
0.106474 -0.00405821 0.278815
0.106434 -0.00455141 0.278327
0.106385 -0.00504204 0.277812
0.10635 -0.00553312 0.277342
0.106326 -0.0060244 0.276906
0.106333 -0.00651915 0.27657
0.10637 -0.00701772 0.276331
0.106444 -0.0075214 0.276203
0.10649 -0.00802047 0.275991
0.106532 -0.0085185 0.275769
0.106572 -0.00901552 0.275538
0.106308 -0.00945713 0.274357
0.105885 -0.0098655 0.272682
0.105288 -0.0102353 0.270467
0.104668 -0.0105935 0.268186
0.104065 -0.0109476 0.265961
0.103768 -0.011358 0.264696
0.103581 -0.0117877 0.263775
0.10352 -0.0122419 0.263247
0.103473 -0.0126976 0.262762
0.103418 -0.0131502 0.262255
0.103376 -0.0136042 0.261786
0.103374 -0.0140666 0.261445
0.103408 -0.0145369 0.261216
0.103461 -0.0150112 0.261044
0.103539 -0.0154916 0.26095
0.103585 -0.0159635 0.260757
0.103627 -0.0164339 0.260551
0.103665 -0.0169032 0.260337
0.103707 -0.0173727 0.260131
0.103752 -0.0178428 0.259938
0.103846 -0.0183261 0.259892
0.103964 -0.0188167 0.259921
0.104085 -0.0193085 0.25996
0.104224 -0.0198059 0.260053
0.104396 -0.0203136 0.260242
0.104585 -0.0208279 0.260488
0.10478 -0.0213447 0.260747
0.104997 -0.0221202 0.262626
0.104991 -0.021868 0.261057
0.114167 -0.029759 0.285246
0.114441 -0.0303534 0.28571
0.1147 -0.0309437 0.286125
0.114911 -0.0315171 0.286395
0.114872 -0.0319956 0.285923
0.114777 -0.0324507 0.285284
0.11472 -0.0329186 0.284756
0.114655 -0.0333822 0.284208
0.114621 -0.0338568 0.283752
0.114579 -0.0343269 0.283274
0.114566 -0.0348079 0.282884
0.114534 -0.0352795 0.282435
0.114502 -0.0357504 0.281991
0.114468 -0.0362189 0.281539
0.114444 -0.036691 0.281121
0.114432 -0.0371667 0.280735
0.114424 -0.0376434 0.280363
0.114454 -0.0381364 0.280104
0.114496 -0.0386339 0.279879
0.114548 -0.0391358 0.279685
0.11463 -0.039651 0.279579
0.114703 -0.0401614 0.279443
0.114775 -0.0406717 0.279308
0.114825 -0.0411714 0.279109
0.114874 -0.0416702 0.278907
0.114895 -0.0421548 0.278623
0.114915 -0.0426386 0.278339
0.114924 -0.0431159 0.278021
0.114932 -0.0435921 0.277702
0.114931 -0.0440629 0.277356
0.114939 -0.0445374 0.277038
0.114987 -0.0450318 0.276836
0.115019 -0.0455176 0.276589
0.115042 -0.045998 0.276315
0.11506 -0.0464748 0.276026
0.115056 -0.0469395 0.275675
0.115042 -0.0473982 0.275298
0.115061 -0.0478737 0.275015
0.115112 -0.0483658 0.274824
0.115184 -0.0488695 0.274695
0.115276 -0.0493834 0.27462
0.115348 -0.0498868 0.274491
0.115418 -0.0503887 0.274355
0.115459 -0.0508734 0.274134
0.115449 -0.0513288 0.273771
0.115404 -0.0517637 0.273311
0.115365 -0.0522004 0.272867
0.115329 -0.0526377 0.272433
0.11532 -0.0530892 0.272073
0.115361 -0.0535701 0.271858
0.115441 -0.0540741 0.271753
0.115531 -0.0545845 0.271679
0.115719 -0.0551536 0.271878
0.115984 -0.0557707 0.272293
0.11631 -0.0564274 0.272879
0.1167 -0.057126 0.273645
0.11713 -0.0578517 0.274518
0.117462 -0.0585191 0.275118
0.117738 -0.0591527 0.275556
0.117973 -0.0597624 0.275883
0.118148 -0.0603341 0.276038
0.118295 -0.0608887 0.276115
0.118443 -0.0614442 0.276193
0.11861 -0.0620124 0.276324
0.118757 -0.0625687 0.2764
0.118904 -0.0631249 0.276475
0.11904 -0.0636747 0.27652
0.119174 -0.0642236 0.27656
0.119299 -0.0647663 0.276573
0.119425 -0.0653099 0.276588
0.119562 -0.0658619 0.276636
0.1197 -0.0664143 0.276683
0.119857 -0.0669811 0.276786
0.120016 -0.0675493 0.276892
0.120219 -0.0681492 0.277119
0.120416 -0.0687453 0.277326
0.120622 -0.0693494 0.277562
0.120784 -0.0699227 0.277673
0.120929 -0.0704845 0.277739
0.121032 -0.0710156 0.277688
0.121135 -0.0715471 0.277638
0.12123 -0.0720728 0.277566
0.121376 -0.0726361 0.277632
0.121526 -0.0732031 0.27771
0.121679 -0.0737726 0.277795
0.12182 -0.0743336 0.277848
0.121967 -0.0748996 0.277917
0.107386 4.31212e-05 0.282927
0.107401 -0.000466763 0.282607
0.10737 -0.000971736 0.282142
0.107307 -0.0014723 0.281574
0.107215 -0.00196841 0.280919
0.107108 -0.00246103 0.280217
0.107027 -0.00295433 0.279598
0.106965 -0.003448 0.279041
0.106923 -0.00394238 0.278545
0.106875 -0.00443467 0.278034
0.106833 -0.00492634 0.277543
0.106791 -0.00541656 0.277053
0.106775 -0.0059091 0.276646
0.106782 -0.00640395 0.276312
0.106828 -0.00690379 0.2761
0.106901 -0.00740745 0.275972
0.106946 -0.00790648 0.27576
0.106988 -0.00840434 0.275534
0.107027 -0.00890138 0.275303
0.106666 -0.00932633 0.273827
0.106144 -0.00971699 0.271852
0.105556 -0.0100889 0.269678
0.104947 -0.0104497 0.267444
0.104353 -0.0108063 0.26526
0.104148 -0.0112355 0.264287
0.104038 -0.0116814 0.263607
0.103951 -0.0121304 0.263001
0.103886 -0.0125826 0.262465
0.103823 -0.0130334 0.261933
0.103787 -0.013489 0.261488
0.103793 -0.0139534 0.261174
0.103829 -0.0144239 0.260949
0.103882 -0.0148982 0.260778
0.103967 -0.0153802 0.260706
0.104012 -0.0158521 0.260512
0.104055 -0.0163227 0.260309
0.104101 -0.0167941 0.26012
0.10415 -0.0172657 0.259938
0.104195 -0.0177359 0.259745
0.104281 -0.018217 0.259675
0.104383 -0.0187027 0.259654
0.104486 -0.019189 0.259637
0.104598 -0.019678 0.259646
0.10475 -0.0201795 0.259777
0.104922 -0.0206877 0.259969
0.105116 -0.0212034 0.260224
0.105336 -0.0217286 0.260559
0.105513 -0.0224924 0.262303
0.105547 -0.0222521 0.260864
0.106058 -0.0231292 0.263619
0.105748 -0.0227733 0.261137
0.113969 -0.0298822 0.282645
0.114578 -0.0305983 0.284102
0.115094 -0.0312841 0.285279
0.115305 -0.0318573 0.285551
0.115229 -0.03232 0.28497
0.115174 -0.0327891 0.284451
0.115119 -0.0332571 0.283936
0.115086 -0.0337324 0.283486
0.115064 -0.0342109 0.283068
0.115072 -0.0347007 0.28274
0.115062 -0.0351823 0.28236
0.11505 -0.0356621 0.281976
0.115037 -0.0361404 0.281589
0.115023 -0.0366169 0.281196
0.11501 -0.0370936 0.280813
0.115009 -0.0375738 0.28046
0.115028 -0.0380626 0.28017
0.115059 -0.0385557 0.279913
0.115101 -0.0390534 0.27969
0.115172 -0.0395642 0.279553
0.115236 -0.0400709 0.279392
0.115306 -0.040581 0.279253
0.115365 -0.041085 0.279079
0.115424 -0.0415888 0.278906
0.115446 -0.0420746 0.278626
0.115476 -0.0425639 0.278372
0.115505 -0.0430518 0.278113
0.115524 -0.043534 0.277825
0.115525 -0.0440065 0.277486
0.115542 -0.0444869 0.277197
0.115588 -0.0449807 0.276988
0.1156 -0.0454569 0.276683
0.115602 -0.0459272 0.276351
0.115609 -0.046399 0.276031
0.115592 -0.0468576 0.275645
0.115568 -0.0473117 0.275241
0.115576 -0.0477814 0.274926
0.115616 -0.048268 0.274704
0.115677 -0.0487657 0.274543
0.115759 -0.0492743 0.27444
0.115832 -0.0497781 0.274313
0.115903 -0.0502808 0.274181
0.115953 -0.0507712 0.273989
0.115961 -0.0512374 0.273678
0.115937 -0.0516847 0.273278
0.1159 -0.0521232 0.272841
0.115874 -0.0525672 0.272437
0.115862 -0.053018 0.272071
0.115901 -0.0534982 0.27185
0.11599 -0.0540077 0.271771
0.11611 -0.0545362 0.27178
0.116342 -0.055132 0.2721
0.116664 -0.0557838 0.272672
0.11704 -0.0564713 0.273394
0.117449 -0.0571815 0.274208
0.11787 -0.0579019 0.275052
0.118178 -0.0585543 0.275579
0.118409 -0.0591599 0.275889
0.118593 -0.0597373 0.276069
0.118736 -0.0602886 0.276133
0.118861 -0.0608297 0.276149
0.118999 -0.0613787 0.276198
0.119155 -0.0619405 0.2763
0.119303 -0.0624967 0.276376
0.119459 -0.0630598 0.276478
0.119606 -0.0636169 0.276551
0.119744 -0.0641679 0.276599
0.11988 -0.0647189 0.276643
0.120017 -0.06527 0.276688
0.120154 -0.0658218 0.276733
0.120291 -0.0663744 0.276778
0.120458 -0.0669478 0.276905
0.120627 -0.0675235 0.277038
0.120831 -0.0681236 0.277264
0.121017 -0.0687123 0.277441
0.121212 -0.0693085 0.277642
0.121361 -0.0698731 0.27772
0.121487 -0.0704209 0.277731
0.12158 -0.0709453 0.277653
0.121683 -0.0714772 0.277603
0.121777 -0.0720032 0.27753
0.121904 -0.0725522 0.277543
0.122043 -0.0731113 0.277591
0.107848 0.000668614 0.283042
0.10787 0.000157229 0.282746
0.107877 -0.000352115 0.2824
0.107825 -0.000855474 0.281871
0.107749 -0.00135509 0.281269
0.107657 -0.00185129 0.280615
0.107558 -0.0023449 0.279943
0.107488 -0.00283954 0.27936
0.107427 -0.00333354 0.278809
0.107385 -0.00382822 0.278318
0.107335 -0.00432051 0.277804
0.107303 -0.00481359 0.277345
0.10726 -0.005304 0.276856
0.107253 -0.00579794 0.276476
0.107259 -0.0062928 0.27614
0.107303 -0.00679263 0.275925
0.107359 -0.0072936 0.275743
0.107403 -0.00779249 0.275527
0.107443 -0.00829018 0.275299
0.107484 -0.0087874 0.275071
0.107025 -0.00919598 0.2733
0.106518 -0.00959025 0.271385
0.105935 -0.00996394 0.269236
0.105327 -0.0103261 0.267019
0.104735 -0.0106842 0.264854
0.104614 -0.0111307 0.264145
0.104474 -0.011571 0.263376
0.104377 -0.0120182 0.262743
0.104304 -0.0124687 0.262184
0.104241 -0.0129198 0.261656
0.104212 -0.0133772 0.261235
0.104228 -0.0138439 0.260951
0.104256 -0.0143126 0.260704
0.104309 -0.0147868 0.260532
0.104385 -0.0152665 0.260432
0.104421 -0.0157362 0.260213
0.104456 -0.0162048 0.259988
0.104512 -0.0166783 0.259826
0.104569 -0.0171521 0.259671
0.104615 -0.0176225 0.25948
0.104701 -0.0181035 0.259411
0.104801 -0.0185887 0.259385
0.104895 -0.0190721 0.25934
0.10499 -0.019556 0.259299
0.105133 -0.0200543 0.259402
0.105296 -0.0205591 0.259563
0.10548 -0.0210714 0.259789
0.1057 -0.0215955 0.26012
0.105929 -0.0221241 0.260478
0.106158 -0.022654 0.260835
0.106304 -0.0234133 0.262479
0.106395 -0.023188 0.261216
0.114587 -0.0312811 0.281784
0.114772 -0.0318391 0.281979
0.114964 -0.0324008 0.282195
0.115156 -0.0329632 0.282409
0.115353 -0.0335288 0.282638
0.115548 -0.0340944 0.282859
0.115558 -0.0345852 0.282538
0.115569 -0.0350758 0.282221
0.115587 -0.0355687 0.281926
0.115596 -0.0360568 0.281604
0.115594 -0.0365393 0.281249
0.115592 -0.037021 0.280896
0.115597 -0.037505 0.280565
0.115604 -0.0379893 0.280241
0.115622 -0.0384772 0.279946
0.115652 -0.0389702 0.27969
0.115722 -0.0394805 0.279547
0.115775 -0.0399833 0.279359
0.115838 -0.0404899 0.279197
0.115899 -0.0409953 0.279029
0.115967 -0.041504 0.278884
0.115998 -0.0419947 0.278631
0.116048 -0.0424938 0.278433
0.116097 -0.0429921 0.278232
0.116128 -0.043481 0.277979
0.116138 -0.0439591 0.277668
0.116164 -0.0444445 0.277403
0.116191 -0.0449301 0.277143
0.116183 -0.0453969 0.276782
0.116172 -0.045861 0.276412
0.116156 -0.0463219 0.27603
0.116119 -0.0467707 0.275588
0.116095 -0.0472251 0.275184
0.116093 -0.04769 0.274841
0.116122 -0.0481713 0.27459
0.116172 -0.0486628 0.274396
0.116242 -0.0491655 0.274262
0.116314 -0.049669 0.274133
0.116396 -0.0501775 0.27403
0.116457 -0.0506743 0.273869
0.116486 -0.0511529 0.273619
0.116491 -0.0516175 0.273303
0.116467 -0.0520642 0.272904
0.116451 -0.0525149 0.272529
0.116457 -0.0529772 0.272216
0.116505 -0.0534636 0.272021
0.116605 -0.0539798 0.271971
0.116768 -0.054534 0.272097
0.117046 -0.0551583 0.272546
0.117397 -0.0558281 0.273194
0.117799 -0.056531 0.273984
0.118209 -0.0572418 0.274794
0.118589 -0.0579365 0.275517
0.118852 -0.0585618 0.275917
0.119049 -0.059146 0.276129
0.119191 -0.0596973 0.276193
0.119313 -0.0602361 0.276199
0.119438 -0.0607765 0.27621
0.119574 -0.0613251 0.276255
0.119731 -0.0618875 0.276358
0.119889 -0.0624511 0.276462
0.120059 -0.0630223 0.276597
0.120209 -0.0635819 0.276679
0.120357 -0.0641405 0.276754
0.120504 -0.0646989 0.276827
0.120651 -0.0652576 0.276899
0.12079 -0.0658116 0.276948
0.120938 -0.0663719 0.277023
0.121117 -0.0669535 0.277179
0.121288 -0.0675313 0.277317
0.121512 -0.0681458 0.277596
0.12171 -0.068743 0.277803
0.121914 -0.0693461 0.278027
0.122105 -0.0699406 0.278215
0.122358 -0.0705806 0.278571
0.122565 -0.0711883 0.278802
0.122795 -0.0718137 0.279092
0.123001 -0.0724225 0.279317
0.123181 -0.0730144 0.279474
0.123182 -0.0734742 0.279144
0.108372 0.0007801 0.282987
0.108386 0.000268998 0.282665
0.10836 -0.000238076 0.282218
0.108282 -0.00073952 0.281611
0.108204 -0.00123912 0.281005
0.108111 -0.00173545 0.280351
0.108013 -0.0022293 0.279682
0.107951 -0.00272507 0.279131
0.107898 -0.00322021 0.278607
0.107856 -0.00371514 0.278119
0.107814 -0.00420868 0.277632
0.107791 -0.00470317 0.277204
0.107749 -0.00519398 0.276717
0.107741 -0.00568824 0.27634
0.107744 -0.0061829 0.275995
0.107779 -0.00668147 0.27575
0.107816 -0.00717975 0.275513
0.10786 -0.00767855 0.275295
0.1079 -0.00817628 0.275068
0.10794 -0.00867347 0.274839
0.107577 -0.00909983 0.273372
0.107092 -0.00949968 0.271534
0.106503 -0.00987429 0.269379
0.105888 -0.0102372 0.267153
0.105276 -0.0105935 0.264938
0.105046 -0.0110188 0.263895
0.104886 -0.0114556 0.263072
0.104794 -0.0119041 0.262457
0.104713 -0.012353 0.261875
0.104659 -0.0128062 0.261378
0.104631 -0.013264 0.260962
0.104648 -0.0137308 0.260681
0.104667 -0.0141975 0.260408
0.104717 -0.0146712 0.260232
0.104783 -0.0151482 0.260102
0.104819 -0.0156176 0.259881
0.104854 -0.0160862 0.259658
0.104918 -0.0165618 0.259522
0.104985 -0.0170379 0.259396
0.10504 -0.0175107 0.259233
0.105126 -0.0179918 0.259165
0.105226 -0.0184767 0.259138
0.105311 -0.0189575 0.259067
0.105398 -0.019439 0.259002
0.105527 -0.0199327 0.259061
0.105681 -0.0204345 0.259196
0.105865 -0.0209459 0.259417
0.106084 -0.0214694 0.259745
0.106331 -0.0220029 0.260155
0.106581 -0.0225387 0.26057
0.106838 -0.0230787 0.261008
0.106924 -0.0238203 0.262465
0.107053 -0.0236065 0.26132
0.107815 -0.0245789 0.26479
0.107589 -0.0242425 0.262579
0.114659 -0.0324632 0.279338
0.114945 -0.0330588 0.279826
0.115356 -0.0337067 0.280679
0.115551 -0.0342698 0.280901
0.115752 -0.0348362 0.281139
0.115946 -0.035401 0.281358
0.116128 -0.0359615 0.281539
0.11613 -0.0364464 0.281198
0.116139 -0.0369334 0.280878
0.116146 -0.0374187 0.280553
0.116151 -0.0379023 0.280222
0.116149 -0.0383821 0.279872
0.116184 -0.0388779 0.279632
0.116253 -0.0393883 0.279487
0.116307 -0.0398914 0.2793
0.116371 -0.0403989 0.279141
0.116441 -0.0409092 0.279002
0.116501 -0.0414144 0.278833
0.116543 -0.0419105 0.278611
0.116603 -0.0424151 0.278443
0.116662 -0.0429189 0.278272
0.116712 -0.0434179 0.278076
0.116733 -0.0439019 0.277795
0.11676 -0.0443888 0.277535
0.116786 -0.0448741 0.27727
0.116766 -0.0453355 0.276875
0.116733 -0.0457895 0.276445
0.116704 -0.0462444 0.276027
0.116656 -0.0466881 0.275556
0.116622 -0.0471383 0.275126
0.116621 -0.0476044 0.274788
0.11664 -0.0480806 0.274509
0.116677 -0.048566 0.274281
0.116736 -0.0490623 0.274113
0.116797 -0.0495599 0.273953
0.11687 -0.0500637 0.273826
0.116941 -0.0505665 0.273695
0.116992 -0.0510573 0.273506
0.117021 -0.0515355 0.273256
0.117017 -0.051995 0.272917
0.117022 -0.0524582 0.272601
0.117038 -0.0529267 0.272315
0.117106 -0.0534252 0.272177
0.117239 -0.0539623 0.27222
0.117459 -0.0545504 0.272502
0.117784 -0.0552026 0.273076
0.118177 -0.0558979 0.273838
0.118577 -0.0566004 0.274618
0.118953 -0.0572901 0.275327
0.119269 -0.057946 0.27587
0.119478 -0.0585373 0.276116
0.119633 -0.0590963 0.276212
0.119756 -0.0596356 0.27622
0.11988 -0.0601755 0.27623
0.120005 -0.0607167 0.276243
0.120151 -0.0612717 0.276314
0.120309 -0.0618349 0.276418
0.12047 -0.0624005 0.27653
0.120652 -0.06298 0.276696
0.120823 -0.0635537 0.276835
0.120994 -0.0641278 0.276972
0.121153 -0.0646945 0.277076
0.121311 -0.0652613 0.277175
0.12146 -0.0658224 0.277252
0.121631 -0.0663988 0.277386
0.121825 -0.0669917 0.277584
0.122032 -0.0675941 0.277815
0.122293 -0.068235 0.278192
0.122514 -0.0688494 0.278459
0.122752 -0.0694771 0.278774
0.12298 -0.0700987 0.279059
0.123342 -0.0708161 0.279704
0.123667 -0.07151 0.280249
0.124017 -0.0722233 0.280859
0.124304 -0.0728932 0.281298
0.124541 -0.073529 0.281604
0.12454 -0.073992 0.281269
0.108944 0.000888493 0.283078
0.108917 0.00037973 0.282631
0.108868 -0.000126048 0.282115
0.108784 -0.000627354 0.28149
0.108698 -0.00112672 0.280863
0.108604 -0.00162335 0.280209
0.108505 -0.00211752 0.279541
0.108441 -0.0026134 0.278984
0.108378 -0.00310788 0.278434
0.108344 -0.00360391 0.27797
0.108311 -0.00409884 0.277512
0.108296 -0.00459483 0.277114
0.108255 -0.00508615 0.276631
0.108247 -0.00558068 0.276254
0.10824 -0.00607434 0.27588
0.108264 -0.00657156 0.275603
0.108291 -0.00706849 0.275335
0.108334 -0.00756735 0.275117
0.108382 -0.00806651 0.274914
0.108432 -0.00856555 0.274718
0.108059 -0.00899126 0.273228
0.107557 -0.00938933 0.271346
0.106946 -0.00976141 0.269137
0.106315 -0.0101226 0.266871
0.10568 -0.0104759 0.264601
0.105451 -0.0109019 0.263567
0.105306 -0.011342 0.262794
0.105222 -0.0117923 0.262204
0.105133 -0.0122398 0.261602
0.105086 -0.012695 0.261131
0.105058 -0.0131528 0.260715
0.105066 -0.0136177 0.260409
0.105076 -0.0140822 0.260109
0.105125 -0.0145554 0.259928
0.105182 -0.0150302 0.259772
0.105217 -0.0154992 0.259551
0.105251 -0.0159673 0.259324
0.105315 -0.0164428 0.259189
0.105383 -0.0169191 0.259066
0.105439 -0.0173922 0.25891
0.105526 -0.0178731 0.258843
0.105625 -0.0183576 0.258814
0.10571 -0.0188382 0.258743
0.105807 -0.0193221 0.258705
0.105936 -0.0198158 0.258766
0.106092 -0.0203176 0.258903
0.106275 -0.0208285 0.259123
0.106502 -0.0213539 0.259472
0.10676 -0.0218901 0.25991
0.10702 -0.0224289 0.260356
0.107279 -0.0229689 0.260796
0.107502 -0.0234988 0.261128
0.107738 -0.0240343 0.261498
0.108141 -0.0248885 0.263885
0.107961 -0.0245668 0.261827
0.108691 -0.0255385 0.265182
0.108187 -0.0251019 0.262166
0.114941 -0.0332344 0.277875
0.115339 -0.0338744 0.278684
0.115748 -0.034522 0.279524
0.11615 -0.0351699 0.280343
0.116522 -0.0358082 0.281074
0.116691 -0.0363635 0.281217
0.116701 -0.0368514 0.2809
0.116708 -0.0373374 0.280575
0.116693 -0.0378132 0.28019
0.116671 -0.0382849 0.279785
0.116689 -0.038773 0.279493
0.116747 -0.0392787 0.279319
0.1168 -0.0397818 0.27913
0.116874 -0.040294 0.279
0.116954 -0.0408088 0.278888
0.117024 -0.0413189 0.278747
0.117075 -0.04182 0.278554
0.117146 -0.0423302 0.278417
0.117218 -0.0428402 0.278281
0.117279 -0.0433453 0.278117
0.117319 -0.0438395 0.277893
0.117356 -0.0443316 0.277659
0.117382 -0.0448179 0.277396
0.11735 -0.0452743 0.276969
0.117313 -0.0457272 0.276529
0.117263 -0.0461721 0.276053
0.117214 -0.0466164 0.275582
0.11717 -0.0470619 0.275125
0.117169 -0.0475285 0.274787
0.117177 -0.0479996 0.274479
0.117213 -0.0484847 0.274248
0.117261 -0.0489756 0.27405
0.117311 -0.0494677 0.27386
0.117382 -0.0499709 0.273729
0.117454 -0.0504741 0.2736
0.117516 -0.0509714 0.273441
0.117557 -0.051457 0.273226
0.117585 -0.0519347 0.272975
0.117611 -0.0524107 0.272719
0.117647 -0.0528919 0.272491
0.117728 -0.0533989 0.272388
0.117885 -0.0539499 0.272495
0.118148 -0.0545645 0.272897
0.11849 -0.0552269 0.273514
0.118887 -0.055924 0.27428
0.119273 -0.0566173 0.275014
0.119611 -0.057284 0.275615
0.119872 -0.0579068 0.276005
0.12006 -0.0584849 0.276189
0.120205 -0.059038 0.276259
0.12033 -0.0595787 0.27627
0.120465 -0.0601265 0.276311
0.120592 -0.0606692 0.27633
0.120742 -0.0612265 0.276408
0.120911 -0.0617972 0.276542
0.121083 -0.06237 0.276681
0.121268 -0.0629519 0.276854
0.121451 -0.0635332 0.277022
0.121633 -0.0641152 0.27719
0.121804 -0.0646901 0.277323
0.121986 -0.0652733 0.277488
0.122168 -0.0658572 0.277652
0.122374 -0.0664577 0.277879
0.122604 -0.0670755 0.27817
0.122837 -0.0676965 0.27847
0.123126 -0.0683576 0.27892
0.123374 -0.0689918 0.279259
0.123654 -0.0696496 0.279682
0.123933 -0.0703075 0.280099
0.124377 -0.071084 0.280961
0.124794 -0.0718441 0.281748
0.125252 -0.0726356 0.28264
0.12561 -0.0733588 0.283265
0.125898 -0.0740344 0.283702
0.125938 -0.0745308 0.283475
0.109573 0.00150603 0.28371
0.109502 0.000998047 0.283126
0.109444 0.000490955 0.282581
0.109363 -1.28915e-05 0.28197
0.109279 -0.000514533 0.281346
0.109201 -0.00101501 0.280747
0.109099 -0.00151132 0.280071
0.109007 -0.00200666 0.279429
0.10894 -0.0025027 0.278867
0.108876 -0.00299735 0.278313
0.10884 -0.00349365 0.277848
0.108816 -0.00399 0.277421
0.108811 -0.00448752 0.277052
0.10878 -0.00498065 0.276603
0.108771 -0.00547553 0.276224
0.108754 -0.00596829 0.275822
0.108767 -0.00646425 0.275512
0.108784 -0.00696001 0.275213
0.108826 -0.00745904 0.274995
0.108876 -0.00795872 0.274799
0.108936 -0.00845963 0.274633
0.108547 -0.00888366 0.273101
0.108015 -0.00927786 0.271141
0.107388 -0.00964838 0.268892
0.10673 -0.0100061 0.266559
0.106083 -0.0103582 0.264262
0.105863 -0.0107865 0.263261
0.105737 -0.0112306 0.262547
0.105661 -0.0116829 0.261986
0.105571 -0.0121307 0.261386
0.105517 -0.0125843 0.260892
0.105487 -0.0130419 0.260473
0.105483 -0.0135043 0.260134
0.105482 -0.0139665 0.259804
0.105524 -0.0144377 0.259601
0.105582 -0.0149126 0.259448
0.105617 -0.0153816 0.259228
0.10565 -0.0158494 0.259
0.105713 -0.0163245 0.258863
0.10578 -0.0168004 0.258739
0.105837 -0.0172734 0.258584
0.105924 -0.0177542 0.258518
0.106024 -0.0182387 0.258491
0.106116 -0.018721 0.25844
0.106221 -0.0192072 0.258428
0.106352 -0.0197009 0.258491
0.106516 -0.0202049 0.258653
0.106707 -0.0207178 0.258894
0.106937 -0.0212436 0.25925
0.107204 -0.0217824 0.259714
0.107474 -0.0223236 0.260184
0.107725 -0.0228607 0.260598
0.107946 -0.0233896 0.260923
0.108174 -0.0239221 0.261266
0.108381 -0.0244488 0.261546
0.108599 -0.0249807 0.26186
0.108466 -0.0256565 0.262659
0.108868 -0.0255313 0.262323
0.109021 -0.0263099 0.263961
