ply
format ascii 1.0
element vertex 1612
property float x
property float y
property float z
end_header
0.00404425 0.00165631 0.938899
0.140282 -0.0612644 0.950134
0.141112 -0.063417 0.95034
0.139594 -0.0627249 0.9501
0.138084 -0.0620322 0.949902
0.136515 -0.0613409 0.949329
0.134973 -0.0606502 0.948913
0.133469 -0.0599593 0.948729
0.131951 -0.0592694 0.948448
0.130444 -0.0585802 0.948233
0.104402 -0.0560859 0.820149
0.103018 -0.0554953 0.819388
0.101654 -0.0549049 0.818749
0.100191 -0.0543219 0.81739
0.0987264 -0.0537421 0.815992
0.0972764 -0.0531635 0.814666
0.0958404 -0.052586 0.813409
0.0944319 -0.0520086 0.812327
0.0930696 -0.051428 0.81156
0.0917333 -0.0508475 0.810975
0.0904285 -0.0502638 0.810613
0.0891537 -0.0496773 0.810472
0.0878621 -0.0490931 0.810192
0.0865709 -0.0485099 0.809908
0.0852961 -0.047925 0.809745
0.0840237 -0.0473402 0.809596
0.0827542 -0.0467561 0.809468
0.0815124 -0.0461673 0.809563
0.0802714 -0.0455781 0.809664
0.079038 -0.0449877 0.80983
0.0778128 -0.0443959 0.810071
0.0765884 -0.043803 0.81032
0.0753565 -0.0432115 0.810507
0.0741547 -0.0426141 0.810972
0.0729695 -0.0420115 0.811598
0.0718027 -0.0414035 0.812411
0.0706588 -0.040788 0.813459
0.0695354 -0.0401658 0.814734
0.0683942 -0.0395449 0.815866
0.0672332 -0.0389278 0.81684
0.0660531 -0.0383138 0.817645
0.0648398 -0.0377084 0.818136
0.0654165 -0.0322253 0.894079
0.0641062 -0.031555 0.89482
0.0627539 -0.0309 0.895104
0.0613918 -0.0302491 0.895286
0.0599863 -0.0296159 0.894952
0.0585786 -0.0289852 0.894578
0.0571706 -0.0283558 0.894179
0.0557726 -0.0277227 0.893886
0.0543793 -0.0270892 0.893643
0.0530152 -0.0264409 0.893758
0.051644 -0.0257968 0.893784
0.0502779 -0.0251503 0.893878
0.0489185 -0.0244995 0.894059
0.0475544 -0.0238514 0.894177
0.0461908 -0.0232031 0.894303
0.0448372 -0.022548 0.89458
0.0434769 -0.0218974 0.89477
0.042129 -0.0212372 0.895145
0.0407821 -0.0205754 0.895552
0.0394405 -0.0199086 0.89606
0.0380959 -0.0192428 0.896542
0.0367599 -0.018568 0.897184
0.0354083 -0.0179048 0.897587
0.034057 -0.0172396 0.898005
0.0327172 -0.0165625 0.898656
0.0313762 -0.0158844 0.899314
0.0300386 -0.0152005 0.900078
0.0287089 -0.0145048 0.90104
0.0273903 -0.0137928 0.902282
0.0260732 -0.0130735 0.903634
0.0247495 -0.0123559 0.90492
0.023417 -0.0116434 0.906097
0.0220763 -0.0109359 0.907149
0.0207322 -0.0102275 0.908179
0.0193754 -0.00953268 0.908963
0.0180339 -0.00881011 0.91021
0.0166966 -0.00807288 0.91167
0.0153562 -0.00733239 0.913164
0.0140179 -0.0065782 0.914841
0.0126829 -0.00580593 0.916779
0.0113298 -0.00505755 0.918293
0.00998245 -0.00428471 0.920171
0.00866534 -0.00342588 0.923368
0.00733866 -0.00256307 0.926545
0.00602021 -0.00164834 0.930473
0.00469985 -0.000700034 0.934823
0.00336373 0.000245375 0.939051
0.00282098 0.00302943 0.949219
0.00206133 0.0013552 0.945637
0.140381 -0.0648779 0.950046
0.138881 -0.0641853 0.949915
0.137393 -0.0634927 0.949853
0.135835 -0.0627999 0.949341
0.134294 -0.0621086 0.948936
0.132798 -0.0614171 0.948799
0.131284 -0.0607266 0.94855
0.103677 -0.0573513 0.819224
0.102305 -0.0567595 0.818532
0.100941 -0.0561685 0.817883
0.0995022 -0.0555832 0.816685
0.0980505 -0.055001 0.815365
0.0966117 -0.0544198 0.814106
0.0951788 -0.05384 0.812859
0.0937816 -0.0532603 0.811848
0.0924207 -0.0526798 0.811087
0.0910863 -0.0520968 0.810502
0.0897813 -0.0515137 0.810134
0.0885046 -0.0509268 0.809971
0.0872129 -0.0503434 0.809688
0.085932 -0.0497585 0.809477
0.0846698 -0.0491716 0.80941
0.0834085 -0.0485857 0.80935
0.0821497 -0.0479987 0.809302
0.0809081 -0.0474099 0.809397
0.0796665 -0.0468211 0.809492
0.0784248 -0.0462323 0.809588
0.0771909 -0.0456426 0.809752
0.0759575 -0.0450525 0.809922
0.0747244 -0.0444615 0.810094
0.0735143 -0.0438663 0.810482
0.0723213 -0.0432662 0.811031
0.0711464 -0.0426614 0.811765
0.0699864 -0.0420519 0.81266
0.0688547 -0.0414335 0.813849
0.0677124 -0.0408157 0.81497
0.0665605 -0.0401983 0.816028
0.0653967 -0.0395812 0.816991
0.0642073 -0.0389705 0.817724
0.0647832 -0.0335847 0.894234
0.0634895 -0.0329088 0.895171
0.0621448 -0.0322509 0.895557
0.0607836 -0.031598 0.895751
0.0593777 -0.0309637 0.895419
0.057969 -0.0303323 0.895043
0.0565599 -0.0297019 0.894637
0.0551547 -0.0290711 0.89426
0.0537612 -0.0284366 0.89402
0.0523964 -0.0277881 0.894137
0.051025 -0.027143 0.894167
0.049657 -0.0264968 0.894247
0.048297 -0.0258456 0.894428
0.0469321 -0.0251975 0.89455
0.0455687 -0.0245482 0.89469
0.044215 -0.0238927 0.894977
0.0428539 -0.0232412 0.895159
0.0414992 -0.0225856 0.895451
0.0401453 -0.0219282 0.895757
0.0387957 -0.0212675 0.89615
0.03745 -0.0206021 0.896617
0.0361138 -0.0199278 0.897267
0.0347676 -0.0192598 0.897774
0.033421 -0.0185903 0.898292
0.0320849 -0.0179097 0.899033
0.0307426 -0.0172323 0.899695
0.0294038 -0.0165487 0.900456
0.0280734 -0.0158534 0.901427
0.0267524 -0.0151438 0.902656
0.0254337 -0.0144258 0.904007
0.0241075 -0.013711 0.905273
0.0227739 -0.0129992 0.906453
0.0214318 -0.0122926 0.907508
0.0200865 -0.0115854 0.908548
0.0187291 -0.0108905 0.909349
0.0173859 -0.010169 0.910591
0.0160468 -0.00943379 0.912046
0.0147049 -0.00869473 0.913539
0.0133648 -0.00794228 0.915221
0.0120248 -0.00717847 0.917069
0.0106695 -0.00643257 0.918572
0.00932515 -0.00565167 0.920613
0.00800246 -0.00480273 0.923715
0.00667491 -0.00393913 0.926972
0.00535475 -0.0030246 0.930984
0.00402864 -0.00208744 0.935256
0.00268256 -0.00116829 0.939155
0.00131038 -0.000295088 0.942279
0.139723 -0.0663401 0.9502
0.138203 -0.0656461 0.949947
0.136703 -0.0649532 0.949805
0.135132 -0.0642595 0.949214
0.133576 -0.0635666 0.948709
0.132083 -0.062875 0.948593
0.130574 -0.0621842 0.94837
0.101635 -0.0580207 0.817979
0.100271 -0.0574285 0.817318
0.0988534 -0.0568409 0.816259
0.0974043 -0.056256 0.814945
0.0959581 -0.055674 0.813622
0.0945366 -0.055092 0.812448
0.0931503 -0.0545098 0.811508
0.0917925 -0.0539272 0.810759
0.0904582 -0.0533441 0.810173
0.0891528 -0.0527601 0.809795
0.0878662 -0.0521743 0.80955
0.0865755 -0.0515901 0.809266
0.0853051 -0.0510046 0.809138
0.084054 -0.0504164 0.809157
0.0828032 -0.0498286 0.809179
0.081553 -0.0492414 0.809205
0.0803113 -0.0486526 0.8093
0.0790697 -0.0480639 0.809395
0.0778281 -0.0474751 0.809491
0.0765865 -0.0468863 0.809586
0.0753448 -0.0462975 0.809682
0.0741033 -0.0457088 0.809777
0.0728855 -0.045115 0.810089
0.0716775 -0.0445191 0.8105
0.0704929 -0.0439182 0.811143
0.0693241 -0.0433122 0.811951
0.0681758 -0.0426997 0.812978
0.0670262 -0.0420858 0.814022
0.0658816 -0.0414679 0.815142
0.0647263 -0.0408514 0.816189
0.06356 -0.0402352 0.81715
0.063948 -0.0350133 0.892129
0.0629067 -0.0342519 0.895918
0.0615549 -0.0335951 0.896233
0.0601915 -0.032943 0.896423
0.058777 -0.0323107 0.895999
0.0573609 -0.0316799 0.895532
0.0559444 -0.0310514 0.895041
0.0545383 -0.0304203 0.894664
0.0531444 -0.0297842 0.894421
0.0517783 -0.029136 0.894535
0.0504051 -0.0284914 0.894554
0.0490375 -0.0278437 0.894642
0.0476757 -0.0271931 0.894812
0.0463105 -0.0265442 0.89494
0.0449458 -0.0258948 0.895072
0.0435909 -0.0252399 0.895359
0.0422296 -0.0245875 0.895548
0.0408681 -0.0239355 0.895742
0.0395068 -0.0232833 0.895945
0.0381554 -0.0226232 0.896315
0.0368088 -0.0219585 0.896782
0.0354772 -0.0212803 0.897525
0.0341407 -0.0206041 0.898223
0.0328021 -0.0199269 0.898908
0.0314694 -0.019242 0.899743
0.0301301 -0.0185607 0.900493
0.0287862 -0.017881 0.901192
0.0274537 -0.0171865 0.90216
0.0261268 -0.0164821 0.903306
0.0247982 -0.0157743 0.904477
0.0234617 -0.015071 0.905555
0.022126 -0.0143612 0.906716
0.0207797 -0.0136596 0.90769
0.0194343 -0.0129521 0.908756
0.0180825 -0.0122484 0.909738
0.0167448 -0.0115177 0.91117
0.0154041 -0.0107833 0.912645
0.014063 -0.0100406 0.914229
0.0127203 -0.00929088 0.915904
0.0113756 -0.00853333 0.917663
0.0100182 -0.00778935 0.91916
0.00867131 -0.00701088 0.921205
0.0073433 -0.00617094 0.924227
0.00601472 -0.00530588 0.927586
0.00469117 -0.00439558 0.931602
0.00335911 -0.00346939 0.935795
0.00200723 -0.0025621 0.939596
0.000630285 -0.00169935 0.942613
0.139042 -0.0678021 0.950212
0.137512 -0.0671067 0.949892
0.136 -0.0664128 0.949677
0.134414 -0.0657181 0.948993
0.132842 -0.065024 0.948376
0.131331 -0.0643321 0.948139
0.1298 -0.0636408 0.947771
0.100957 -0.0592795 0.81736
0.0995916 -0.058687 0.816677
0.0981961 -0.0580969 0.815765
0.0967663 -0.0575105 0.814583
0.0953146 -0.0569261 0.813206
0.0939045 -0.0563423 0.812109
0.0925298 -0.0557585 0.811249
0.0911732 -0.0551746 0.810504
0.0898308 -0.0545909 0.809846
0.0885245 -0.0540066 0.809457
0.0872304 -0.0534212 0.809148
0.0859409 -0.0528369 0.80887
0.0846815 -0.0522495 0.808822
0.0834399 -0.0516608 0.808917
0.0821982 -0.051072 0.809012
0.0809567 -0.0504832 0.809108
0.079715 -0.0498944 0.809203
0.0784734 -0.0493057 0.809298
0.077224 -0.0487179 0.809326
0.0759818 -0.0481295 0.809416
0.0747401 -0.0475406 0.809509
0.0734988 -0.0469521 0.809607
0.072274 -0.0463598 0.809853
0.0710642 -0.0457654 0.81025
0.0698642 -0.0451677 0.810745
0.0686709 -0.0445684 0.811319
0.0675056 -0.0439612 0.812176
0.0663471 -0.0433513 0.813128
0.0652024 -0.0427366 0.814247
0.0640566 -0.0421195 0.815384
0.0629125 -0.0414993 0.816571
0.0631323 -0.0364301 0.89021
0.0623335 -0.0355936 0.896787
0.0609784 -0.0349371 0.897083
0.059606 -0.0342871 0.897185
0.058182 -0.0336566 0.896657
0.0567569 -0.0330279 0.896088
0.055332 -0.0324013 0.8955
0.0539192 -0.0317713 0.895038
0.052524 -0.0311352 0.894788
0.0511571 -0.0304864 0.894899
0.0497832 -0.0298414 0.894918
0.0484153 -0.029193 0.895011
0.0470528 -0.0285425 0.895187
0.0456864 -0.0278932 0.895304
0.0443201 -0.0272445 0.895427
0.042964 -0.0265894 0.895705
0.0416016 -0.0259374 0.89589
0.0402341 -0.0252881 0.895998
0.0388664 -0.02464 0.896109
0.0375141 -0.02398 0.896471
0.0361677 -0.023315 0.896948
0.0348359 -0.0226374 0.897713
0.0335089 -0.0219534 0.898596
0.0321786 -0.0212687 0.899461
0.0308496 -0.0205802 0.900397
0.0295136 -0.0198945 0.901241
0.0281683 -0.0192146 0.901946
0.0268337 -0.0185209 0.902909
0.0255013 -0.0178211 0.903978
0.0241656 -0.0171204 0.905042
0.0228238 -0.0164221 0.906031
0.0214856 -0.0157149 0.90717
0.020134 -0.015019 0.90805
0.0187874 -0.0143123 0.909119
0.0174384 -0.0136036 0.910205
0.0161025 -0.0128689 0.91176
0.0147605 -0.012135 0.913249
0.0134206 -0.0113886 0.914935
0.0120756 -0.0106401 0.916612
0.0107252 -0.00989065 0.918266
0.00936557 -0.00914867 0.919761
0.00802171 -0.00836048 0.922004
0.00668931 -0.00752645 0.924987
0.00535773 -0.00666404 0.928383
0.00402945 -0.00576025 0.932384
0.00269146 -0.00484508 0.936469
0.0013314 -0.00395661 0.940049
-4.88554e-05 -0.0030995 0.94303
0.139878 -0.0699599 0.950458
0.138346 -0.0692636 0.950136
0.136806 -0.0685671 0.94975
0.135283 -0.0678724 0.949464
0.133684 -0.0671756 0.948691
0.132096 -0.0664807 0.947965
0.13057 -0.0657877 0.94763
0.129016 -0.0650961 0.947104
0.10026 -0.0605377 0.816599
0.0988938 -0.0599452 0.815904
0.0975237 -0.0593526 0.815159
0.0961149 -0.0587637 0.814117
0.0946806 -0.0581769 0.812859
0.0932738 -0.0575914 0.811775
0.0919113 -0.0570055 0.810999
0.0905562 -0.0564204 0.810259
0.0892138 -0.0558367 0.809599
0.0879165 -0.0552506 0.809274
0.0866233 -0.0546648 0.80897
0.0853353 -0.0540796 0.808698
0.0840851 -0.0534914 0.808725
0.0828436 -0.0529026 0.80882
0.0816019 -0.0523138 0.808915
0.0803603 -0.0517251 0.809011
0.0791187 -0.0511363 0.809106
0.0778692 -0.0505484 0.809133
0.0766107 -0.0499623 0.809081
0.0753601 -0.0493749 0.809093
0.0741105 -0.0487873 0.809111
0.0728622 -0.0482003 0.809142
0.0716302 -0.0476104 0.809319
0.0704203 -0.0470163 0.809708
0.0692111 -0.0464217 0.810113
0.0680093 -0.0458247 0.810598
0.0668358 -0.0452217 0.811375
0.0656832 -0.044612 0.812378
0.0645391 -0.0439989 0.813499
0.063408 -0.0433806 0.814786
0.0622804 -0.0427583 0.816145
0.0625068 -0.0406747 0.825598
0.0616294 -0.0420096 0.822624
0.0623266 -0.0378394 0.888376
0.0617727 -0.0369339 0.897817
0.0604001 -0.0362825 0.897931
0.0590185 -0.0356336 0.897933
0.0575844 -0.035005 0.897292
0.056149 -0.0343793 0.89661
0.0547159 -0.033754 0.89592
0.0532957 -0.0331258 0.895369
0.051894 -0.0324911 0.895035
0.050526 -0.0318425 0.89514
0.0491521 -0.0311966 0.895162
0.0477838 -0.0305484 0.895261
0.0464159 -0.0298995 0.895363
0.0450482 -0.0292512 0.895471
0.0436809 -0.0286022 0.895582
0.0423184 -0.0279504 0.895771
0.0409505 -0.0273018 0.895876
0.0395825 -0.0266531 0.895981
0.0382147 -0.0260044 0.896086
0.0368623 -0.025345 0.896457
0.0355208 -0.0246766 0.897029
0.0341902 -0.0239984 0.897823
0.0328672 -0.0233116 0.898801
0.0315464 -0.022619 0.899862
0.0302216 -0.0219262 0.900903
0.0288854 -0.0212402 0.901774
0.0275423 -0.0205572 0.902554
0.0262047 -0.0198661 0.903497
0.0248656 -0.0191724 0.904457
0.0235253 -0.0184756 0.905442
0.0221816 -0.0177789 0.906421
0.0208414 -0.0170734 0.907551
0.0194882 -0.0163792 0.90842
0.0181431 -0.0156696 0.90957
0.0167958 -0.014957 0.910752
0.0154618 -0.0142182 0.912415
0.0141188 -0.013484 0.913934
0.0127792 -0.0127348 0.915712
0.0114287 -0.0119934 0.917285
0.0100763 -0.0112454 0.918942
0.00871446 -0.010505 0.920442
0.00737281 -0.00970819 0.922889
0.00603778 -0.00887573 0.925907
0.00470488 -0.00801084 0.929409
0.00337003 -0.00711776 0.933316
0.00202474 -0.00621645 0.937268
0.000657146 -0.00534503 0.940629
-0.000680329 -0.00432122 0.946424
0.141456 -0.0706593 0.951052
0.140701 -0.0721194 0.950621
0.139151 -0.0714203 0.95019
0.137614 -0.0707233 0.949833
0.136053 -0.0700258 0.949317
0.134521 -0.0693303 0.948966
0.132921 -0.0686321 0.948179
0.131319 -0.0679349 0.947353
0.129794 -0.0672418 0.947015
0.12824 -0.0665496 0.946481
0.0982619 -0.0612 0.815594
0.0968903 -0.0606065 0.814832
0.0955047 -0.0600158 0.813952
0.0940885 -0.0594265 0.81282
0.0926734 -0.0588395 0.81167
0.091312 -0.0582522 0.810897
0.0899492 -0.0576663 0.810093
0.0886069 -0.057081 0.809428
0.0873101 -0.0564939 0.809101
0.0860171 -0.0559084 0.808798
0.0847304 -0.055322 0.808532
0.0834888 -0.0547332 0.808628
0.0822472 -0.0541445 0.808723
0.0810056 -0.0535557 0.808818
0.079764 -0.0529669 0.808914
0.0785145 -0.052379 0.808941
0.0772562 -0.0517919 0.808889
0.0759884 -0.0512067 0.808751
0.0747286 -0.0506205 0.808677
0.0734702 -0.0500344 0.808611
0.0722227 -0.0494479 0.808644
0.0709911 -0.0488579 0.808818
0.0697813 -0.048265 0.809205
0.0685721 -0.0476711 0.809606
0.0673634 -0.0470762 0.810019
0.0661817 -0.0464763 0.810714
0.0650221 -0.0458698 0.811645
0.063879 -0.0452589 0.812774
0.0627499 -0.0446417 0.814078
0.061637 -0.0440188 0.815594
0.0607523 -0.0433368 0.819607
0.060941 -0.0383607 0.895698
0.0597889 -0.0376401 0.898397
0.0583985 -0.0369945 0.89831
0.0569577 -0.036366 0.897583
0.0555136 -0.035742 0.896791
0.0540721 -0.0351189 0.895996
0.0526444 -0.0344926 0.895345
0.0512368 -0.0338598 0.894929
0.0498688 -0.0332111 0.895034
0.0485009 -0.0325624 0.895139
0.0471329 -0.0319137 0.895244
0.0457593 -0.031268 0.895265
0.044391 -0.0306198 0.895364
0.0430176 -0.0299741 0.895384
0.0416499 -0.0293252 0.895485
0.0402822 -0.028677 0.895594
0.0389197 -0.0280254 0.895785
0.0375574 -0.027373 0.895979
0.0362153 -0.026707 0.896529
0.034874 -0.0260386 0.897115
0.0335472 -0.0253578 0.897995
0.0322329 -0.024664 0.899144
0.0309206 -0.0239653 0.900402
0.0296005 -0.0232682 0.901573
0.0282678 -0.0225777 0.902549
0.026926 -0.0218924 0.903392
0.0255816 -0.0212066 0.904229
0.0242321 -0.020522 0.904999
0.0228828 -0.0198343 0.905815
0.0215376 -0.0191386 0.906788
0.0201898 -0.0184415 0.907759
0.0188352 -0.0177486 0.908626
0.0174919 -0.0170364 0.909859
0.0161465 -0.0163209 0.911135
0.0148115 -0.0155825 0.912809
0.0134691 -0.0148462 0.914411
0.0121271 -0.0140997 0.91618
0.0107695 -0.0133696 0.917572
0.0094178 -0.0126189 0.919318
0.00805699 -0.0118743 0.920915
0.00671542 -0.011075 0.923472
0.00538157 -0.0102359 0.926683
0.00405087 -0.00935993 0.930457
0.00270761 -0.00848274 0.934178
0.00135582 -0.00759297 0.938018
-1.68728e-05 -0.00673129 0.941278
-0.00135897 -0.00571336 0.947121
0.139899 -0.073574 0.94989
0.138361 -0.0728765 0.949531
0.136831 -0.0721789 0.949208
0.135266 -0.0714801 0.948658
0.133737 -0.070785 0.948321
0.132138 -0.0700859 0.947531
0.130537 -0.0693883 0.946706
0.128999 -0.0686936 0.946272
0.127447 -0.0680006 0.945742
0.0962806 -0.0618594 0.814675
0.0949086 -0.0612673 0.813891
0.0935016 -0.0606761 0.812821
0.0920856 -0.0600864 0.811655
0.0907053 -0.0594986 0.810736
0.0893418 -0.0589115 0.809922
0.0879999 -0.0583251 0.809255
0.0867034 -0.0577383 0.80893
0.0854122 -0.0571507 0.808632
0.0841341 -0.0565638 0.808435
0.0828925 -0.055975 0.808531
0.0816509 -0.0553863 0.808626
0.0804011 -0.0547983 0.808653
0.0791508 -0.0542107 0.808676
0.0778923 -0.0536232 0.808621
0.0766248 -0.0530374 0.808485
0.0753485 -0.0524531 0.808267
0.07408 -0.0518682 0.808108
0.0728215 -0.0512825 0.808033
0.0715741 -0.0506952 0.808055
0.0703354 -0.0501075 0.80816
0.0691271 -0.0495145 0.808552
0.0679262 -0.0489203 0.809025
0.0667193 -0.0483265 0.809455
0.0655393 -0.047727 0.81016
0.0643796 -0.0471228 0.811092
0.0632422 -0.0465127 0.812282
0.0621136 -0.0458974 0.813593
0.0610012 -0.0452768 0.81512
0.0598902 -0.0446527 0.816709
0.060069 -0.0397938 0.893067
0.0591666 -0.039003 0.898743
0.0577761 -0.0383566 0.89866
0.0563351 -0.0377273 0.897938
0.0548911 -0.0371011 0.897146
0.0534492 -0.0364762 0.896344
0.0520147 -0.0358504 0.8956
0.0505996 -0.0352198 0.895087
0.0492245 -0.0345738 0.8951
0.0478497 -0.0339281 0.895114
0.0464757 -0.0332824 0.895137
0.0450962 -0.0326391 0.895069
0.0437219 -0.0319941 0.895076
0.0423423 -0.031352 0.894994
0.0409691 -0.0307067 0.895005
0.0396025 -0.030058 0.895115
0.0382462 -0.0294037 0.895404
0.0367368 -0.0288447 0.893098
0.0352475 -0.0282805 0.891014
0.0339127 -0.0276176 0.891574
0.0326034 -0.0269347 0.892632
0.0313248 -0.0262254 0.894331
0.0301724 -0.0254093 0.898573
0.0289854 -0.0246061 0.90238
0.027643 -0.0239229 0.903196
0.0262909 -0.0232461 0.903855
0.0249363 -0.0225692 0.904499
0.0235778 -0.0218938 0.905087
0.0222238 -0.0212112 0.905811
0.0208815 -0.0205124 0.90687
0.0195359 -0.0198129 0.907923
0.0181841 -0.0191165 0.908898
0.0168437 -0.0183999 0.910244
0.0155035 -0.0176761 0.911709
0.0141661 -0.0169399 0.913382
0.012818 -0.0162113 0.914877
0.011471 -0.0154716 0.916536
0.0101086 -0.0147488 0.917823
0.00875523 -0.0140002 0.919578
0.00739337 -0.0132565 0.921193
0.0060474 -0.012465 0.923677
0.00471088 -0.0116304 0.926876
0.00337658 -0.010761 0.930643
0.00202537 -0.00990319 0.934091
0.000725253 -0.00884892 0.940948
-0.000646549 -0.00796178 0.944717
-0.00199333 -0.00693148 0.950871
0.139049 -0.0750238 0.948869
0.137522 -0.0743267 0.948565
0.135988 -0.0736285 0.948204
0.134413 -0.0729289 0.947578
0.1329 -0.0722343 0.947333
0.131318 -0.0715357 0.946643
0.129736 -0.0708379 0.945928
0.128208 -0.070144 0.945554
0.126685 -0.0694509 0.945203
0.0956654 -0.0631122 0.814478
0.094307 -0.0625181 0.813786
0.0929237 -0.0619252 0.812889
0.0915174 -0.0613347 0.811796
0.090126 -0.0607445 0.810786
0.0887525 -0.0601563 0.809891
0.08741 -0.0595691 0.809216
0.0861057 -0.0589811 0.808824
0.0848147 -0.0583938 0.80853
0.0835373 -0.0578065 0.808338
0.0822957 -0.0572178 0.808434
0.0810463 -0.0566288 0.808461
0.0797874 -0.0560414 0.808409
0.0785278 -0.055454 0.808347
0.0772598 -0.0548675 0.808207
0.0759761 -0.0542836 0.807926
0.0746922 -0.0536992 0.807626
0.0734167 -0.0531155 0.807395
0.0721518 -0.0525301 0.80725
0.0708975 -0.0519451 0.807202
0.0696673 -0.0513567 0.807374
0.0684676 -0.0507638 0.807842
0.067276 -0.0501698 0.808404
0.0660786 -0.0495748 0.808915
0.064906 -0.0489759 0.809697
0.0637463 -0.0483726 0.810626
0.0626079 -0.0477647 0.811807
0.0614837 -0.0471513 0.813172
0.0603709 -0.0465325 0.814698
0.0592661 -0.0459094 0.816361
0.0591622 -0.0412305 0.889982
0.0585201 -0.0403742 0.898803
0.0571305 -0.0397272 0.898735
0.0556983 -0.0390936 0.898118
0.0542633 -0.0384626 0.897437
0.0528278 -0.037834 0.89672
0.0513925 -0.0372077 0.895973
0.0499701 -0.0365783 0.895363
0.0485875 -0.0359341 0.895274
0.0472052 -0.0352914 0.895187
0.045819 -0.0346501 0.89503
0.0444272 -0.0340124 0.894781
0.0430464 -0.0333706 0.894683
0.0416602 -0.0327321 0.894489
0.0402822 -0.03209 0.894413
0.0387615 -0.0315282 0.891998
0.037249 -0.0309701 0.889595
0.0355767 -0.0305176 0.884312
0.0199071 -0.0222384 0.899004
0.0186798 -0.0214209 0.902847
0.0174429 -0.0205956 0.906735
0.0161978 -0.0197608 0.910709
0.0148565 -0.0190374 0.9122
0.0135167 -0.0183042 0.91387
0.0121663 -0.0175775 0.915346
0.0108116 -0.0168492 0.916814
0.00944506 -0.016133 0.917998
0.00808972 -0.0153873 0.919744
0.00672435 -0.0146498 0.921275
0.0053725 -0.0138705 0.923582
0.0040293 -0.013051 0.926588
0.00269215 -0.0121884 0.93033
0.00133546 -0.0113455 0.933604
3.2102e-05 -0.0102983 0.940529
-0.00133686 -0.00939964 0.944604
-0.0026837 -0.0083613 0.951054
0.138197 -0.0764701 0.947823
0.136665 -0.0757726 0.947474
0.135128 -0.0750745 0.947087
0.133541 -0.0743731 0.946371
0.132033 -0.0736785 0.946148
0.130471 -0.0729805 0.945564
0.128923 -0.0722845 0.94506
0.127398 -0.0715905 0.944695
0.125871 -0.0708972 0.944309
0.124314 -0.0702028 0.943709
0.0950648 -0.0643647 0.814387
0.0937007 -0.06377 0.81365
0.0923341 -0.0631753 0.812872
0.0909397 -0.0625827 0.811864
0.089529 -0.0619915 0.810703
0.0881459 -0.061401 0.809724
0.0868026 -0.0608124 0.809036
0.0854991 -0.0602241 0.808649
0.0842095 -0.0596358 0.808362
0.082933 -0.0590481 0.808173
0.0816823 -0.0584604 0.808196
0.0804236 -0.0578717 0.808141
0.079155 -0.0572854 0.808006
0.0778866 -0.0566983 0.807861
0.0766173 -0.0561121 0.807703
0.0753265 -0.055528 0.807349
0.074044 -0.0549436 0.807054
0.0727624 -0.0543594 0.806755
0.0714903 -0.0537761 0.806539
0.070229 -0.0531917 0.806412
0.0690007 -0.0526037 0.806593
0.0678022 -0.0520117 0.807065
0.0666199 -0.0514175 0.807709
0.0654376 -0.0508224 0.80837
0.0642736 -0.0502229 0.809232
0.0631198 -0.0496207 0.810225
0.0619806 -0.0490141 0.8114
0.0608614 -0.048402 0.812822
0.0597418 -0.0477871 0.814282
0.0586354 -0.047167 0.815936
0.058669 -0.0451674 0.823705
0.0580199 -0.0464384 0.823124
0.0584896 -0.042598 0.889657
0.0578594 -0.0417501 0.898696
0.0564774 -0.0411003 0.898717
0.0550535 -0.0404632 0.898203
0.0536273 -0.0398283 0.897632
0.0522007 -0.0391951 0.897029
0.0507721 -0.0385647 0.896373
0.049343 -0.0379359 0.895671
0.0479514 -0.0372953 0.895469
0.0463708 -0.0367319 0.892533
0.0449608 -0.0361045 0.891973
0.0435555 -0.0354765 0.891448
0.0420102 -0.0349158 0.888743
0.0404625 -0.0343654 0.88587
0.0390835 -0.033736 0.885563
0.0153644 -0.0213645 0.905809
0.0141293 -0.0205096 0.910303
0.0128784 -0.0196524 0.914724
0.0115227 -0.0189316 0.916109
0.0101576 -0.0182184 0.917293
0.00878632 -0.0175085 0.918373
0.00742643 -0.0167702 0.920015
0.00605721 -0.0160391 0.921451
0.00469892 -0.0152728 0.923565
0.003349 -0.0144686 0.926353
0.00200685 -0.0136185 0.929958
0.000644593 -0.012791 0.933037
-0.00066443 -0.0117588 0.939875
-0.00203085 -0.0108507 0.944241
-0.00334338 -0.00966493 0.953577
0.137358 -0.0779157 0.946847
0.135837 -0.0772182 0.946556
0.134294 -0.0765188 0.94612
0.132693 -0.0758156 0.945305
0.131185 -0.0751209 0.94507
0.12964 -0.0744244 0.944585
0.128113 -0.073729 0.944211
0.126599 -0.0730359 0.943908
0.125078 -0.0723426 0.943554
0.123549 -0.0716494 0.94313
0.0931133 -0.0650218 0.813654
0.0917513 -0.0644263 0.812908
0.0903695 -0.0638311 0.811989
0.0889418 -0.0632377 0.810691
0.0875479 -0.0626466 0.809627
0.0862047 -0.0620566 0.808936
0.0848926 -0.0614673 0.808475
0.0835959 -0.0608785 0.808126
0.0823186 -0.0602909 0.807929
0.0810588 -0.0597023 0.807867
0.0797897 -0.0591153 0.807727
0.0785051 -0.0585287 0.807446
0.0772278 -0.0579419 0.807216
0.0759527 -0.0573558 0.806996
0.0746626 -0.0567717 0.806638
0.0733817 -0.0561874 0.806348
0.0721081 -0.0556032 0.806114
0.0708448 -0.0550183 0.805966
0.0695917 -0.0544332 0.805909
0.0683633 -0.0538458 0.806083
0.0671579 -0.0532563 0.806487
0.0659763 -0.0526626 0.807132
0.0647943 -0.0520688 0.807794
0.0636315 -0.0514706 0.808666
0.0624789 -0.05087 0.809671
0.0613462 -0.0502638 0.810912
0.0602276 -0.0496539 0.812344
0.0591064 -0.049042 0.813796
0.0579999 -0.0484243 0.815452
0.0571455 -0.0477529 0.819999
0.057213 -0.0431218 0.898762
0.0558383 -0.0424696 0.898878
0.054422 -0.0418291 0.898459
0.0530093 -0.0411889 0.898065
0.0515895 -0.0405524 0.897562
0.0501627 -0.039919 0.896928
0.048733 -0.039289 0.896229
0.0471507 -0.038718 0.893334
0.0453444 -0.0382417 0.887048
0.043723 -0.0377068 0.883218
0.0132933 -0.0221271 0.904969
0.0121457 -0.0211379 0.912576
0.010873 -0.020296 0.916714
0.00950348 -0.019588 0.917806
0.00813043 -0.0188796 0.918872
0.00676587 -0.018148 0.920402
0.00539457 -0.0174194 0.921826
0.00403194 -0.0166606 0.923835
0.00267308 -0.0158758 0.926315
0.00132371 -0.0150428 0.929684
-4.58618e-05 -0.0142364 0.932437
-0.00136554 -0.0132353 0.938885
-0.00269789 -0.0122031 0.945739
-0.00402018 -0.0110329 0.955021
0.136552 -0.0793612 0.946073
0.135021 -0.0786622 0.945712
0.133484 -0.0779639 0.945308
0.131897 -0.0772603 0.944565
0.130389 -0.0765658 0.944326
0.12886 -0.07587 0.943937
0.127364 -0.0751773 0.943755
0.125866 -0.0744846 0.943555
0.124347 -0.0737918 0.943211
0.122834 -0.0730984 0.942894
0.121339 -0.0724076 0.942689
0.0924838 -0.0662719 0.81334
0.0911373 -0.0656759 0.812706
0.0897799 -0.06508 0.811969
0.0883435 -0.0644845 0.810598
0.0869503 -0.0638911 0.80953
0.0855972 -0.0632998 0.808755
0.0842687 -0.0627098 0.808158
0.0829634 -0.0621211 0.807735
0.0816857 -0.0615324 0.807526
0.0804162 -0.0609449 0.807381
0.0791462 -0.0603572 0.807224
0.0778542 -0.0597703 0.80687
0.0765703 -0.0591842 0.806575
0.0752957 -0.0585981 0.806352
0.0740074 -0.0580132 0.805997
0.0727286 -0.0574285 0.805715
0.0714645 -0.0568436 0.80556
0.0702096 -0.0562585 0.805484
0.0689573 -0.0556734 0.805427
0.0677289 -0.0550864 0.805597
0.066516 -0.0544981 0.805923
0.0653324 -0.0539062 0.806545
0.0641509 -0.0533132 0.807207
0.0629879 -0.0527171 0.808078
0.0618443 -0.0521166 0.809173
0.0607253 -0.0515112 0.810566
0.0596139 -0.0509025 0.812084
0.0584934 -0.0502917 0.813545
0.0573857 -0.0496762 0.815196
0.0565283 -0.0490128 0.819749
0.0565891 -0.0444889 0.899114
0.0552078 -0.0438374 0.899151
0.0537908 -0.043196 0.898726
0.0523836 -0.0425536 0.898411
0.0509709 -0.0419132 0.898002
0.0495508 -0.0412767 0.897471
0.047937 -0.0407059 0.894189
0.0461442 -0.0402082 0.888201
0.0441083 -0.039815 0.878366
0.0114081 -0.0226286 0.910182
0.0102303 -0.0216499 0.917582
0.00885341 -0.0209513 0.918484
0.00747795 -0.0202447 0.919547
0.00610929 -0.0195181 0.920995
0.004738 -0.018787 0.922514
0.00337096 -0.0180346 0.924433
0.00200529 -0.0172628 0.926708
0.000647372 -0.0164493 0.929767
-0.00072852 -0.0156587 0.932277
-0.00206375 -0.0147042 0.937993
-0.00336523 -0.0135525 0.947399
0.135822 -0.0808138 0.945767
0.134281 -0.0801131 0.945342
0.132739 -0.0794132 0.944896
0.131153 -0.0787095 0.944157
0.129629 -0.0780125 0.943804
0.128087 -0.0773142 0.943321
0.126605 -0.0766236 0.943232
0.125109 -0.0759308 0.943043
0.123592 -0.0752372 0.942698
0.122086 -0.0745447 0.94243
0.1206 -0.0738539 0.942282
0.0918835 -0.0675233 0.813247
0.0905463 -0.0669264 0.81268
0.0892001 -0.06633 0.812028
0.0877738 -0.0657319 0.810727
0.0863794 -0.0651366 0.809646
0.0850164 -0.0645437 0.80879
0.0836702 -0.0639523 0.808045
0.0823547 -0.0633625 0.807534
0.0810593 -0.0627737 0.807176
0.0797724 -0.0621856 0.806878
0.0784882 -0.0615979 0.806591
0.0771967 -0.061011 0.806232
0.0759141 -0.0604244 0.805938
0.0746399 -0.0598384 0.805709
0.0733608 -0.0592529 0.805428
0.0720911 -0.0586678 0.80522
0.0708373 -0.0580822 0.805154
0.0695848 -0.0574969 0.805094
0.0683341 -0.0569117 0.805048
0.0671053 -0.0563253 0.805211
0.0658842 -0.0557381 0.805452
0.0646922 -0.0551481 0.80599
0.063509 -0.0545565 0.806631
0.0623403 -0.0539623 0.80744
0.0612034 -0.0533634 0.808606
0.0600861 -0.0527599 0.810018
0.0589754 -0.0521531 0.811544
0.0578549 -0.0515451 0.813012
0.0567461 -0.0509327 0.814658
0.0558718 -0.0502784 0.819043
0.0557426 -0.0459071 0.896676
0.0545926 -0.0452028 0.899628
0.0531676 -0.0445625 0.899108
0.0517593 -0.0439183 0.898779
0.0503459 -0.0432776 0.898368
0.0489326 -0.0426375 0.897937
0.047118 -0.0421256 0.891786
0.0451066 -0.0416958 0.882514
0.042266 -0.039373 0.870988
0.042848 -0.0413763 0.869152
0.0294364 -0.0355869 0.831921
0.0297478 -0.0376488 0.825407
0.0283479 -0.0371275 0.822938
0.0280332 -0.0350648 0.829534
0.0269666 -0.0366042 0.820676
0.0268088 -0.0344356 0.830473
0.0257395 -0.035992 0.821316
0.0106655 -0.0241243 0.907485
0.00958544 -0.0230081 0.918434
0.00820621 -0.0223107 0.919338
0.00683161 -0.0215994 0.920505
0.00546288 -0.0208695 0.922067
0.00409309 -0.0201307 0.923778
0.00272516 -0.0193743 0.925823
0.00135619 -0.0186032 0.928127
-1.11937e-05 -0.0178067 0.930907
-0.00139438 -0.0170301 0.933171
-0.00278318 -0.0162466 0.935537
0.135092 -0.0822663 0.94546
0.133539 -0.0815638 0.944956
0.132004 -0.0808634 0.944546
0.130437 -0.0801603 0.943924
0.128901 -0.0794613 0.943492
0.127359 -0.0787626 0.943004
0.125891 -0.0780725 0.943005
0.124396 -0.0773801 0.942819
0.122871 -0.0766846 0.942421
0.121382 -0.0759933 0.942258
0.119894 -0.0753023 0.9421
0.0912987 -0.0687755 0.813271
0.0899709 -0.068178 0.812775
0.0886307 -0.0675806 0.812168
0.0872064 -0.0669803 0.810878
0.0858116 -0.066383 0.80979
0.0844385 -0.0657881 0.808849
0.0830732 -0.0651947 0.807945
0.0817386 -0.0646036 0.807272
0.0804336 -0.064014 0.806828
0.0791313 -0.0634251 0.806391
0.0778396 -0.0628372 0.806034
0.0765489 -0.0622499 0.805673
0.0752673 -0.0616632 0.805378
0.0739941 -0.0610769 0.80515
0.0727315 -0.0604909 0.805011
0.0714712 -0.0599052 0.804883
0.0702271 -0.0593194 0.804903
0.0689834 -0.0587337 0.804925
0.0677335 -0.0581482 0.804883
0.0664973 -0.0575623 0.804973
0.0652751 -0.0569755 0.805203
0.0640759 -0.0563869 0.805668
0.0628789 -0.0557973 0.806167
0.0617089 -0.0552047 0.806963
0.0605708 -0.0546076 0.808118
0.0594469 -0.0540071 0.809463
0.0583359 -0.053403 0.810991
0.057221 -0.0527967 0.812523
0.0561113 -0.0521868 0.814164
0.0552094 -0.051543 0.81826
0.0548706 -0.047325 0.893878
0.05397 -0.0465716 0.900023
0.052544 -0.0459298 0.899491
0.0511349 -0.0452851 0.899159
0.0497211 -0.044643 0.898747
0.0481105 -0.0440573 0.895553
0.0460815 -0.0436042 0.886218
0.0311684 -0.0381667 0.828102
0.0314922 -0.0401878 0.822105
0.0300896 -0.0396622 0.819613
0.0288361 -0.0390678 0.819709
0.0275863 -0.0384713 0.819876
0.0263331 -0.0378767 0.819978
0.0250978 -0.0372711 0.820442
0.0245124 -0.0353785 0.82199
0.0238629 -0.0366642 0.820937
0.0234287 -0.0346629 0.825699
0.0226382 -0.0360488 0.821673
0.0222248 -0.0340221 0.827047
0.0214156 -0.0354298 0.822499
0.0210253 -0.0333736 0.828583
0.0202069 -0.0347976 0.823692
0.0198056 -0.0327356 0.82975
0.018987 -0.03417 0.824701
0.0185874 -0.0320919 0.831021
0.0177736 -0.0335335 0.825933
0.0172546 -0.0315484 0.829536
0.0165503 -0.032901 0.827004
0.0161175 -0.0308216 0.83299
0.0153174 -0.0322735 0.827898
0.0149673 -0.0300939 0.836371
0.0140735 -0.0316535 0.828554
0.0060238 -0.0232365 0.914864
0.00474411 -0.022358 0.920028
0.0034532 -0.0214638 0.925374
0.00208519 -0.0207004 0.927629
0.000713004 -0.0199282 0.929995
-0.000664864 -0.0191496 0.932429
-0.00205578 -0.0183862 0.934467
-0.00345019 -0.0176121 0.936676
-0.00409145 -0.0151235 0.944697
-0.00477154 -0.0165202 0.94546
0.134362 -0.0837183 0.945155
0.132814 -0.0830143 0.944668
0.131298 -0.0823164 0.944382
0.129766 -0.0816172 0.943991
0.128233 -0.080918 0.943571
0.126691 -0.0802174 0.943084
0.125222 -0.0795273 0.943079
0.123725 -0.0788341 0.942879
0.122189 -0.0781364 0.942407
0.120694 -0.0774434 0.9422
0.119212 -0.0767533 0.942081
0.0907302 -0.0700293 0.813422
0.089419 -0.0694318 0.813055
0.0880822 -0.0688333 0.812474
0.0866675 -0.0682311 0.811258
0.0852724 -0.0676317 0.810168
0.0838902 -0.0670344 0.809152
0.0825051 -0.0664385 0.808084
0.0811528 -0.0658452 0.80726
0.0798367 -0.0652544 0.80672
0.0785178 -0.0646644 0.806139
0.0772172 -0.0640756 0.805697
0.0759182 -0.0634877 0.805258
0.0746367 -0.0629005 0.804958
0.0733583 -0.0623141 0.804676
0.0721053 -0.061728 0.804617
0.0708542 -0.0611421 0.80457
0.0696184 -0.0605561 0.804665
0.0683756 -0.0599703 0.804692
0.067125 -0.0593848 0.804642
0.065888 -0.0587991 0.804722
0.0646595 -0.0582129 0.804886
0.0634543 -0.0576253 0.80529
0.0622506 -0.0570371 0.805718
0.0610789 -0.0564458 0.806495
0.0599325 -0.0558514 0.807564
0.0588065 -0.0552533 0.808888
0.0576953 -0.0546516 0.810416
0.0565851 -0.0540471 0.812005
0.0554745 -0.0534401 0.813642
0.0543332 -0.0528343 0.814976
0.0531205 -0.0479883 0.897469
0.0519182 -0.0472992 0.899855
0.0505095 -0.0466532 0.899534
0.0491138 -0.0460052 0.899376
0.0472949 -0.0454691 0.893214
0.03563 -0.041833 0.827692
0.035968 -0.0438131 0.822414
0.0345196 -0.043287 0.819424
0.0341844 -0.0413068 0.824834
0.0332438 -0.042701 0.819157
0.0329144 -0.0407119 0.824793
0.0319905 -0.0421067 0.819253
0.0307328 -0.0415141 0.819274
0.0294752 -0.0409218 0.819293
0.028218 -0.0403295 0.819314
0.0269613 -0.0397373 0.819341
0.0257044 -0.0391453 0.819361
0.0244584 -0.0385472 0.819595
0.0232128 -0.0379484 0.819847
0.0219775 -0.0373424 0.820331
0.0207484 -0.0367308 0.820982
0.0195342 -0.0361062 0.822017
0.0183091 -0.0354867 0.822856
0.0170872 -0.0348615 0.823832
0.0158562 -0.0342406 0.824643
0.0146199 -0.0336217 0.82537
0.0133793 -0.0330042 0.826027
0.012921 -0.0309327 0.831889
0.0121368 -0.032386 0.826684
0.00274895 -0.0229299 0.923957
0.00144691 -0.022022 0.929666
6.90248e-05 -0.0212539 0.931978
-0.00131958 -0.0204938 0.934031
-0.00272577 -0.0197675 0.935299
-0.00413357 -0.0190325 0.93671
0.132083 -0.0844644 0.944347
0.130589 -0.0837693 0.944204
0.129095 -0.083074 0.944048
0.127569 -0.0823755 0.943685
0.126028 -0.0816742 0.943201
0.124557 -0.0809831 0.943182
0.123059 -0.0802891 0.942978
0.121509 -0.0795888 0.942404
0.120008 -0.0788947 0.94216
0.118527 -0.0782032 0.942045
0.0901626 -0.071284 0.813583
0.0888571 -0.0706861 0.813261
0.0875241 -0.0700865 0.81271
0.0861203 -0.0694829 0.811578
0.0847253 -0.0688813 0.810486
0.0833336 -0.0682814 0.809391
0.0819393 -0.0676829 0.808244
0.0805773 -0.0670877 0.807337
0.0792518 -0.0664952 0.806715
0.0779236 -0.0659038 0.80605
0.0766138 -0.065314 0.805525
0.0753136 -0.0647252 0.80507
0.0740323 -0.0641376 0.804769
0.072755 -0.0635506 0.804493
0.0715037 -0.0629643 0.804447
0.0702606 -0.0623782 0.804474
0.0690177 -0.0617922 0.804501
0.067767 -0.0612065 0.80445
0.066508 -0.060621 0.804314
0.0652633 -0.0600357 0.804313
0.0640348 -0.0594499 0.804473
0.0628313 -0.0588629 0.804891
0.0616285 -0.0582754 0.805328
0.0604554 -0.0576855 0.80609
0.0593064 -0.0570929 0.807134
0.0581672 -0.0564979 0.808317
0.0570484 -0.0558993 0.809763
0.055938 -0.0552976 0.811353
0.0548272 -0.0546933 0.812991
0.0536868 -0.0540897 0.814336
0.0536678 -0.0521575 0.821997
0.0527681 -0.0534555 0.818378
0.0520238 -0.0494442 0.891612
0.0510869 -0.0487107 0.897466
0.0499077 -0.0480178 0.900245
0.0485254 -0.0473652 0.900289
0.0464961 -0.0468714 0.891075
0.0378309 -0.0442085 0.831683
0.0368498 -0.0455976 0.82579
0.0352012 -0.045126 0.819712
0.0339176 -0.0445413 0.819331
0.0326373 -0.0439565 0.818984
0.0313752 -0.0433657 0.818927
0.0301132 -0.0427751 0.818865
0.0288518 -0.0421849 0.818804
0.0275948 -0.0415931 0.818817
0.0263385 -0.0410011 0.818837
0.0250788 -0.0404111 0.818787
0.0238293 -0.0398159 0.818937
0.02258 -0.0392203 0.819095
0.0213387 -0.0386195 0.819434
0.0201005 -0.038016 0.81986
0.0188799 -0.0373987 0.82072
0.0176489 -0.0367864 0.821386
0.0164163 -0.0361733 0.822055
0.0151782 -0.0355625 0.822623
0.0139435 -0.0349467 0.823324
0.0127027 -0.034334 0.823905
0.0114616 -0.0337194 0.824522
0.000745298 -0.0234874 0.92838
-0.000573917 -0.0225758 0.93419
-0.00197428 -0.0218359 0.935834
-0.00339403 -0.0211415 0.936356
-0.00481467 -0.0204446 0.936935
0.131425 -0.085926 0.944496
0.129959 -0.0852341 0.944534
0.128478 -0.0845408 0.944468
0.126956 -0.0838403 0.944128
0.125399 -0.0831361 0.943545
0.123908 -0.0824416 0.943393
0.12238 -0.0817432 0.942988
0.120816 -0.0810393 0.942313
0.119306 -0.0803434 0.942003
0.117796 -0.0796484 0.941688
0.116223 -0.0789462 0.940905
0.0896255 -0.0725424 0.813983
0.0883184 -0.0719434 0.813651
0.0869824 -0.0713424 0.81308
0.0855869 -0.0707371 0.812012
0.0841919 -0.0701333 0.81092
0.0828002 -0.0695313 0.809826
0.0814073 -0.0689306 0.80869
0.0800355 -0.0683327 0.807701
0.0786936 -0.0677381 0.806939
0.0773546 -0.0671446 0.80618
0.0760207 -0.0665525 0.805444
0.0747122 -0.0659625 0.80491
0.0734308 -0.0653743 0.804604
0.0721538 -0.0647868 0.804329
0.0709027 -0.0642004 0.804282
0.069667 -0.0636144 0.804377
0.0684166 -0.0630282 0.804332
0.0671575 -0.0624423 0.804198
0.0658901 -0.0618568 0.803975
0.0646372 -0.0612715 0.803886
0.0634095 -0.060686 0.80405
0.0622067 -0.0600996 0.804474
0.0610039 -0.0595128 0.804908
0.0598309 -0.0589242 0.80567
0.0586819 -0.0583333 0.806716
0.0575362 -0.0577406 0.807831
0.0564108 -0.0571447 0.809207
0.0552996 -0.0565457 0.810793
0.0541883 -0.055944 0.812428
0.0530484 -0.0553426 0.813782
0.0518925 -0.0547406 0.814988
0.0360408 -0.0469211 0.822491
0.0345853 -0.0463853 0.819398
0.033302 -0.0458 0.819013
0.0320214 -0.045215 0.81865
0.0307548 -0.044626 0.818506
0.029485 -0.0440389 0.818291
0.0282195 -0.0434508 0.818138
0.0269592 -0.0428611 0.818069
0.0256999 -0.0422714 0.818013
0.0244379 -0.0416835 0.81789
0.0231862 -0.0410907 0.81797
0.0219348 -0.0404978 0.818057
0.0206942 -0.0398986 0.818379
0.019454 -0.0392982 0.81873
0.0182286 -0.0386868 0.819452
0.0169954 -0.0380787 0.82003
0.0157604 -0.0374703 0.820598
0.0145181 -0.036866 0.821009
0.0132823 -0.0362549 0.821627
0.0120435 -0.0356441 0.822204
0.0108091 -0.0350269 0.822963
0.0104346 -0.0328674 0.831902
0.00967586 -0.0342978 0.827033
0.12935 -0.0867044 0.945007
0.127889 -0.0860129 0.945079
0.12637 -0.0853126 0.944767
0.124838 -0.0846105 0.944355
0.123315 -0.0839108 0.943994
0.121769 -0.0832074 0.943466
0.120189 -0.0824998 0.942684
0.118658 -0.0818006 0.942232
0.117103 -0.0810976 0.941594
0.115501 -0.0803896 0.940601
0.0890914 -0.0738028 0.814412
0.0877901 -0.0732033 0.81413
0.0864577 -0.0726013 0.81359
0.0850616 -0.0719938 0.81252
0.0836578 -0.071387 0.811356
0.0822657 -0.0707827 0.810258
0.0808648 -0.0701791 0.809054
0.0794769 -0.069578 0.807927
0.0781256 -0.0689811 0.807084
0.0767857 -0.0683861 0.806315
0.075444 -0.0677921 0.805506
0.0741287 -0.0672006 0.80491
0.0728462 -0.0666117 0.804594
0.0715683 -0.0660235 0.804307
0.0703091 -0.0654365 0.804186
0.0690734 -0.0648505 0.804281
0.0678223 -0.0642641 0.804228
0.0665555 -0.0636777 0.804016
0.0652799 -0.0630916 0.803708
0.0640266 -0.0625062 0.803613
0.0627988 -0.061921 0.803774
0.0615896 -0.0613354 0.804129
0.0603878 -0.0607492 0.804572
0.0592206 -0.0601616 0.805399
0.0580662 -0.0595724 0.806389
0.0569208 -0.0589815 0.807511
0.0557945 -0.0583877 0.808885
0.0546873 -0.0577908 0.810523
0.0535752 -0.0571917 0.812161
0.0524354 -0.056592 0.813523
0.0512796 -0.0559919 0.814737
0.0512194 -0.0540783 0.82217
0.0503471 -0.0553667 0.818763
0.0352435 -0.0482331 0.819306
0.0339592 -0.0476468 0.818914
0.0326767 -0.0470612 0.818527
0.0313966 -0.0464759 0.818154
0.0301259 -0.0458885 0.817922
0.0288524 -0.045303 0.817623
0.0275838 -0.0447167 0.817394
0.0263205 -0.0441289 0.817244
0.0250586 -0.0435412 0.817113
0.0237944 -0.0429553 0.816917
0.0225439 -0.0423632 0.816992
0.0212936 -0.041771 0.817072
0.0200514 -0.0411744 0.817335
0.0188096 -0.0405768 0.817618
0.0175845 -0.0399675 0.818323
0.0163495 -0.0393631 0.818824
0.0151134 -0.0387581 0.819325
0.0138699 -0.0381573 0.81966
0.0126326 -0.0375502 0.820195
0.0113951 -0.0369418 0.820759
0.0101618 -0.0363268 0.821504
0.00892965 -0.0357078 0.822349
0.00853716 -0.0335553 0.831326
0.00769889 -0.0350838 0.823318
0.128745 -0.0881769 0.945511
0.127299 -0.0874878 0.945691
0.125778 -0.0867864 0.945366
0.124238 -0.0860819 0.944904
0.122696 -0.0853766 0.944416
0.121118 -0.0846675 0.94367
0.119509 -0.083954 0.942688
0.117955 -0.0832497 0.942071
0.116381 -0.0825433 0.941294
0.114756 -0.0818295 0.940124
0.113024 -0.0811021 0.938152
0.0893719 -0.0751643 0.821236
0.0872525 -0.0744642 0.814542
0.0859175 -0.0738604 0.813984
0.0845284 -0.0732516 0.812969
0.0831244 -0.0726424 0.811803
0.0817337 -0.072036 0.810716
0.0803393 -0.0714307 0.809568
0.0789509 -0.0708273 0.808438
0.077589 -0.0702276 0.807504
0.0762408 -0.0696302 0.806663
0.074898 -0.0690345 0.805845
0.0735676 -0.0684405 0.805113
0.0722767 -0.0678503 0.804721
0.0709903 -0.0672609 0.804358
0.0697228 -0.066673 0.804157
0.0684798 -0.0660867 0.804184
0.0672219 -0.0654998 0.804064
0.065948 -0.0649127 0.803779
0.0646722 -0.0643261 0.803465
0.0634192 -0.0637405 0.803368
0.0621858 -0.0631553 0.803468
0.0609767 -0.0625703 0.803823
0.0597806 -0.0619849 0.804327
0.0586132 -0.0613986 0.805154
0.0574589 -0.0608108 0.806151
0.0563197 -0.0602212 0.807348
0.0551922 -0.0596296 0.808719
0.0540838 -0.059035 0.810355
0.0529698 -0.0584382 0.81198
0.051829 -0.0578407 0.81334
0.0506785 -0.0572419 0.814629
0.0495166 -0.0566418 0.81582
0.0496554 -0.0547068 0.825982
0.0485672 -0.0560196 0.819764
0.0371523 -0.0486616 0.829453
0.038108 -0.0504704 0.833827
0.0363317 -0.0499813 0.826019
0.0346194 -0.0494934 0.818859
0.0333321 -0.0489077 0.818401
0.0320508 -0.0483216 0.818017
0.0307673 -0.0477373 0.817571
0.0294939 -0.047151 0.817272
0.0282173 -0.0465668 0.816895
0.0269458 -0.0459817 0.816588
0.0256796 -0.0453958 0.816357
0.0244189 -0.0448085 0.816222
0.023156 -0.0442227 0.816021
0.0219065 -0.0436312 0.816096
0.0206578 -0.0430395 0.816181
0.0194163 -0.0424438 0.816435
0.0181754 -0.0418472 0.816715
0.0169486 -0.0412411 0.817357
0.0157117 -0.0406399 0.817782
0.0144736 -0.0400384 0.8182
0.0132314 -0.0394388 0.818532
0.0119931 -0.0388351 0.819002
0.0107567 -0.0382281 0.81956
0.00952448 -0.0376151 0.8203
0.00829287 -0.0369986 0.821124
0.00706129 -0.0363786 0.822027
0.00646121 -0.0344634 0.824136
0.00582674 -0.0357581 0.822912
0.00522681 -0.0338347 0.825164
0.00459388 -0.0351311 0.823961
0.004074 -0.0330842 0.829655
0.00336222 -0.034497 0.82518
0.126698 -0.0889633 0.946236
0.125161 -0.0882574 0.945808
0.123622 -0.087552 0.945358
0.122063 -0.0868434 0.944758
0.120468 -0.0861293 0.943896
0.118855 -0.0854122 0.94288
0.117287 -0.0847042 0.94216
0.115683 -0.0839918 0.941165
0.114035 -0.0832728 0.939826
0.112296 -0.0825409 0.937785
0.111312 -0.0803797 0.936271
0.110567 -0.081812 0.935765
0.10956 -0.0796539 0.934048
0.108851 -0.0810883 0.933801
0.107238 -0.0803813 0.932562
0.0867146 -0.0757266 0.814957
0.0853766 -0.0751211 0.814377
0.0839971 -0.0745113 0.813441
0.0825931 -0.0738999 0.812275
0.0811934 -0.0732903 0.811113
0.079798 -0.0726824 0.809954
0.0784084 -0.0720768 0.808812
0.077038 -0.0714744 0.807804
0.0756891 -0.0708752 0.806957
0.0743458 -0.0702776 0.806135
0.0730072 -0.0696815 0.805328
0.0717076 -0.0690897 0.804857
0.0704124 -0.0684987 0.804409
0.0691369 -0.0679098 0.804134
0.0678862 -0.0673228 0.804088
0.0666217 -0.0667352 0.803901
0.065348 -0.0661477 0.803615
0.064073 -0.0655605 0.803304
0.0628205 -0.0649747 0.803211
0.061588 -0.0643895 0.803319
0.0603858 -0.0638052 0.803749
0.0591885 -0.0632203 0.804242
0.05802 -0.0626349 0.805065
0.0568644 -0.0620486 0.806054
0.0557189 -0.0614608 0.807189
0.0545844 -0.0608712 0.808486
0.0534745 -0.0602791 0.810117
0.0523595 -0.0596848 0.811741
0.0512126 -0.0590896 0.813035
0.0500672 -0.0584923 0.814393
0.0489102 -0.0578937 0.815653
0.047738 -0.0572944 0.816764
0.03864 -0.052377 0.83162
0.0370691 -0.0518308 0.827076
0.0355069 -0.0512926 0.822443
0.0339967 -0.0507525 0.818427
0.0327051 -0.0501674 0.817882
0.0314211 -0.0495819 0.817434
0.0301354 -0.048998 0.816925
0.028859 -0.0484128 0.816554
0.0275834 -0.0478284 0.81617
0.026313 -0.0472434 0.81586
0.0250483 -0.0466573 0.815639
0.023789 -0.0460698 0.815506
0.0225268 -0.0454843 0.815298
0.0212748 -0.0448948 0.815296
0.0200237 -0.0443053 0.815304
0.0187835 -0.0437102 0.815563
0.0175435 -0.0431145 0.81584
0.016317 -0.0425101 0.816468
0.0150806 -0.0419101 0.816883
0.0138436 -0.0413097 0.8173
0.0126048 -0.0407092 0.817704
0.0113677 -0.0401063 0.81818
0.0101299 -0.0395025 0.818672
0.00889594 -0.0388934 0.819329
0.00766468 -0.0382791 0.820139
0.00643138 -0.0376635 0.820956
0.00519594 -0.0370469 0.821771
0.00396399 -0.0364222 0.822818
0.00273461 -0.0357885 0.824102
0.00220741 -0.0337379 0.830026
0.00150441 -0.0351488 0.825518
0.1261 -0.0904404 0.9468
0.124565 -0.0897346 0.946392
0.123015 -0.0890253 0.945871
0.121443 -0.0883132 0.94519
0.119843 -0.0875958 0.944289
0.118214 -0.0868744 0.943161
0.116619 -0.0861604 0.942248
0.114984 -0.0854395 0.941029
0.113322 -0.0847157 0.939576
0.111593 -0.0839825 0.937598
0.109869 -0.0832509 0.935601
0.108193 -0.08253 0.933925
0.106597 -0.0818231 0.932819
0.0868072 -0.0770812 0.820441
0.0848509 -0.0763856 0.814901
0.083471 -0.0757737 0.813962
0.0820589 -0.0751588 0.81273
0.0806598 -0.0745469 0.811571
0.0792647 -0.0739368 0.810414
0.0778738 -0.0733286 0.809261
0.0764961 -0.0727233 0.80819
0.0751386 -0.0721215 0.807266
0.0737875 -0.0715214 0.806372
0.0724394 -0.0709228 0.805478
0.0711391 -0.0703297 0.805
0.0698352 -0.0697371 0.804472
0.0685589 -0.0691475 0.804189
0.0673001 -0.0685594 0.804064
0.066035 -0.0679714 0.803871
0.0647544 -0.0673827 0.803513
0.0634791 -0.066795 0.803197
0.0622345 -0.0662092 0.803183
0.0610028 -0.0656241 0.803301
0.0598008 -0.0650402 0.803738
0.0586028 -0.0644559 0.804227
0.0574329 -0.0638716 0.805041
0.0562701 -0.0632864 0.805958
0.0551232 -0.0627001 0.807086
0.0539876 -0.0621124 0.808381
0.0528766 -0.0615227 0.81001
0.0517605 -0.0609307 0.811635
0.050613 -0.0603373 0.812933
0.0494727 -0.0597417 0.814365
0.0483151 -0.0591448 0.81563
0.0471535 -0.0585464 0.81689
0.0467922 -0.0566733 0.820887
0.045995 -0.0579457 0.818237
0.0458638 -0.0560435 0.825409
0.0448567 -0.0573414 0.81991
0.0388064 -0.0543267 0.823948
0.0374337 -0.0537454 0.822344
0.0360644 -0.0531668 0.820712
0.0347042 -0.0525901 0.819143
0.0333761 -0.0520101 0.818023
0.0320808 -0.0514254 0.817398
0.0307975 -0.0508393 0.816946
0.0295125 -0.050255 0.816432
0.0282328 -0.0496705 0.815983
0.026954 -0.049087 0.815517
0.0256813 -0.0485029 0.815138
0.0244147 -0.0479179 0.814852
0.0231533 -0.0473318 0.814654
0.0218957 -0.0467449 0.814516
0.0206449 -0.0461559 0.814512
0.0193947 -0.0455668 0.814517
0.0181582 -0.0449711 0.814842
0.0169191 -0.0443761 0.815119
0.0156876 -0.043776 0.815607
0.0144518 -0.0431774 0.81601
0.0132124 -0.0425802 0.816337
0.0119724 -0.0419825 0.816671
0.0107366 -0.0413807 0.817155
0.00950253 -0.0407759 0.817729
0.00826932 -0.0401683 0.818385
0.00703846 -0.0395559 0.819181
0.00580559 -0.0389426 0.819983
0.00457072 -0.038328 0.820789
0.00333741 -0.037708 0.821749
0.00210698 -0.037079 0.822961
0.000878253 -0.0364408 0.824417
0.000346596 -0.0343795 0.830779
-0.000350895 -0.0357945 0.826068
0.123925 -0.0912046 0.946691
0.122368 -0.0904927 0.946123
0.120772 -0.0897739 0.945267
0.119172 -0.0890559 0.94437
0.117537 -0.0883307 0.943191
0.115936 -0.0876134 0.942236
0.114303 -0.0868913 0.941023
0.112654 -0.0861675 0.93966
0.110966 -0.085437 0.937969
0.109244 -0.0847028 0.93599
0.107575 -0.0839803 0.934365
0.105988 -0.0832727 0.933326
0.0843245 -0.0776518 0.815424
0.082943 -0.0770377 0.814475
0.0815305 -0.0764203 0.813239
0.0801312 -0.075806 0.812079
0.0787364 -0.0751936 0.810926
0.0773464 -0.0745834 0.80978
0.0759686 -0.0739757 0.808709
0.0746026 -0.0733709 0.807711
0.0732501 -0.0727688 0.806806
0.0718857 -0.0721664 0.805762
0.0705772 -0.0715714 0.80521
0.0692725 -0.0709775 0.804673
0.0679891 -0.0703863 0.804323
0.0667225 -0.0697972 0.804124
0.0654626 -0.0692091 0.803984
0.0641745 -0.0686189 0.80355
0.0628992 -0.0680303 0.803232
0.0616616 -0.0674448 0.803292
0.0604299 -0.0668597 0.803415
0.0592216 -0.0662758 0.803788
0.0580286 -0.0656923 0.804339
0.0568518 -0.0651086 0.805085
0.0556823 -0.0645245 0.805936
0.0545279 -0.0639396 0.806987
0.05339 -0.0633537 0.808267
0.0522712 -0.0627662 0.809816
0.0511551 -0.0621766 0.811452
0.0500134 -0.061585 0.812828
0.0488785 -0.0609914 0.814343
0.0477201 -0.0603962 0.81561
0.0465685 -0.059799 0.817012
0.045415 -0.0591998 0.818443
0.0442883 -0.0585969 0.820296
0.043712 -0.0567349 0.82156
0.043162 -0.0579909 0.822229
0.042572 -0.0561251 0.823344
0.0420379 -0.0573816 0.824273
0.041378 -0.0555187 0.824423
0.0408416 -0.056776 0.825352
0.0401332 -0.054917 0.824797
0.0395872 -0.0561748 0.825609
0.038249 -0.0555837 0.824597
0.0368632 -0.055001 0.822788
