ply
format ascii 1.0
element vertex 1713
property float x
property float y
property float z
end_header
0.155146 -0.13632 0.839753
0.153828 -0.136416 0.840747
0.152407 -0.136414 0.841155
0.150925 -0.136354 0.841212
0.149328 -0.136179 0.840586
0.147724 -0.135996 0.839906
0.146035 -0.135723 0.838687
0.144392 -0.135493 0.837723
0.142783 -0.135292 0.836933
0.141221 -0.135136 0.836411
0.13969 -0.13501 0.836067
0.138174 -0.134897 0.835802
0.136683 -0.134808 0.835683
0.135183 -0.134707 0.835496
0.133721 -0.134647 0.835545
0.132263 -0.13459 0.835621
0.130819 -0.134547 0.83578
0.129373 -0.134503 0.835924
0.127902 -0.134428 0.835889
0.12642 -0.134339 0.835771
0.124928 -0.134238 0.835574
0.123439 -0.134138 0.835382
0.12194 -0.134024 0.835107
0.120453 -0.133922 0.834906
0.118967 -0.13382 0.834701
0.117505 -0.133744 0.834657
0.116079 -0.133712 0.834878
0.114667 -0.133698 0.835209
0.113257 -0.133686 0.835549
0.111842 -0.133668 0.835856
0.110405 -0.133622 0.835988
0.108989 -0.133601 0.836277
0.107567 -0.133573 0.83652
0.106156 -0.13356 0.836855
0.10476 -0.133567 0.837317
0.103373 -0.133588 0.837857
0.101988 -0.133614 0.83843
0.100605 -0.133642 0.839019
0.0992455 -0.133708 0.839833
0.0978766 -0.133761 0.840574
0.0965147 -0.133827 0.841397
0.0951599 -0.133907 0.8423
0.0938129 -0.134002 0.8433
0.092464 -0.134098 0.844301
0.0911195 -0.134205 0.845372
0.0897877 -0.134336 0.846596
0.0884639 -0.134486 0.847934
0.0871698 -0.134692 0.849615
0.0858822 -0.134919 0.851423
0.0845902 -0.135145 0.853231
0.0833058 -0.135394 0.855181
0.0819799 -0.135577 0.856725
0.0806564 -0.135772 0.858347
0.0793426 -0.135993 0.860134
0.0780269 -0.13622 0.861955
0.0766945 -0.136424 0.863634
0.0753823 -0.136677 0.865615
0.0740377 -0.136877 0.867276
0.0726896 -0.137078 0.868939
0.0713312 -0.137264 0.870517
0.0699995 -0.13752 0.872523
0.0686465 -0.137741 0.874313
0.0673136 -0.138018 0.876458
0.06601 -0.13838 0.879122
0.0647143 -0.138777 0.882013
0.0634005 -0.139153 0.884766
0.232068 -0.143886 0.854902
0.230389 -0.143743 0.854503
0.228688 -0.143584 0.854014
0.226918 -0.143376 0.85324
0.225114 -0.143143 0.852319
0.223314 -0.14291 0.8514
0.221472 -0.142645 0.850291
0.219633 -0.14238 0.849178
0.217823 -0.14213 0.848158
0.215986 -0.141859 0.847009
0.214154 -0.141588 0.845859
0.212336 -0.141323 0.844743
0.210506 -0.141046 0.843558
0.208627 -0.140731 0.842146
0.206776 -0.140431 0.840821
0.204928 -0.14013 0.839489
0.20307 -0.139817 0.838087
0.201238 -0.139519 0.836769
0.199435 -0.139238 0.835551
0.197659 -0.138974 0.834429
0.195906 -0.138723 0.833382
0.194176 -0.138487 0.832418
0.192454 -0.138253 0.831468
0.190773 -0.138047 0.830679
0.189099 -0.137844 0.829908
0.187461 -0.137667 0.829285
0.18583 -0.137492 0.828676
0.184219 -0.13733 0.828143
0.182614 -0.137172 0.827628
0.181062 -0.137053 0.827348
0.17945 -0.136884 0.826771
0.177885 -0.136752 0.826407
0.176354 -0.136645 0.826193
0.174895 -0.136597 0.826326
0.17345 -0.136561 0.826524
0.172144 -0.136642 0.827414
0.170839 -0.136725 0.828319
0.169488 -0.13677 0.828999
0.168142 -0.136821 0.829716
0.166763 -0.136844 0.830266
0.165324 -0.136815 0.830507
0.163885 -0.136785 0.830747
0.162529 -0.13683 0.831427
0.16124 -0.136937 0.832477
0.160078 -0.137163 0.834226
0.158967 -0.13744 0.836284
0.157894 -0.137758 0.838584
0.156778 -0.138042 0.840685
0.155538 -0.138214 0.842126
0.154231 -0.138325 0.843204
0.152779 -0.138298 0.843463
0.151235 -0.138181 0.843186
0.1496 -0.137971 0.84236
0.147938 -0.137731 0.841353
0.146203 -0.137412 0.839878
0.14453 -0.137151 0.838743
0.1429 -0.13693 0.837844
0.141321 -0.136757 0.837231
0.139777 -0.136616 0.83681
0.138249 -0.136491 0.836481
0.136756 -0.136401 0.836359
0.135263 -0.136309 0.83623
0.133788 -0.136235 0.836206
0.132329 -0.136178 0.836281
0.130894 -0.136148 0.836514
0.129447 -0.136103 0.836664
0.127965 -0.136018 0.836567
0.126481 -0.135928 0.836445
0.124986 -0.135824 0.836235
0.123495 -0.135722 0.83604
0.122006 -0.135621 0.835855
0.120519 -0.13552 0.835659
0.119032 -0.135417 0.83546
0.117569 -0.135342 0.835421
0.116141 -0.13531 0.835644
0.114729 -0.135298 0.835984
0.113317 -0.135286 0.836326
0.1119 -0.135267 0.83663
0.11047 -0.135231 0.836827
0.109051 -0.13521 0.837115
0.107629 -0.135184 0.837371
0.106216 -0.135171 0.837709
0.104828 -0.135192 0.838251
0.103439 -0.135213 0.838792
0.102052 -0.135239 0.839362
0.100668 -0.135271 0.839967
0.0993171 -0.135352 0.840872
0.0979546 -0.135419 0.841693
0.0965897 -0.135485 0.842508
0.0952247 -0.135554 0.843339
0.0938559 -0.135619 0.84415
0.0924864 -0.135686 0.844971
0.0911153 -0.135753 0.845793
0.0897666 -0.13586 0.846859
0.0884345 -0.135999 0.84812
0.0871323 -0.136195 0.849726
0.0858438 -0.136422 0.851526
0.084543 -0.136637 0.853247
0.0832501 -0.136874 0.855111
0.0819161 -0.137045 0.856567
0.0805916 -0.13724 0.858179
0.07927 -0.137451 0.859884
0.0779536 -0.13768 0.861697
0.0766208 -0.137885 0.863374
0.0753138 -0.138153 0.865432
0.073971 -0.138357 0.8671
0.0726229 -0.138561 0.868768
0.071264 -0.138749 0.870344
0.0699307 -0.139005 0.872333
0.0685712 -0.139214 0.874038
0.0672384 -0.139495 0.876183
0.0659577 -0.139915 0.879182
0.0646824 -0.14037 0.882392
0.0633778 -0.140774 0.8853
0.0621118 -0.141301 0.888961
0.232193 -0.145524 0.855404
0.230533 -0.145393 0.855081
0.228803 -0.145213 0.854484
0.227025 -0.144999 0.853687
0.225239 -0.144777 0.852844
0.223418 -0.144528 0.851844
0.221554 -0.144247 0.850655
0.219733 -0.143991 0.849615
0.217924 -0.143741 0.848605
0.216089 -0.14347 0.847468
0.214278 -0.143212 0.846409
0.212461 -0.142946 0.845304
0.210627 -0.142665 0.84411
0.208747 -0.142346 0.842699
0.206915 -0.142059 0.841462
0.205085 -0.141769 0.840212
0.203261 -0.141479 0.838961
0.201426 -0.141177 0.83764
0.199618 -0.140891 0.836408
0.197802 -0.140596 0.835118
0.196027 -0.140327 0.833985
0.194296 -0.140088 0.83302
0.192573 -0.139853 0.832073
0.190911 -0.139661 0.831379
0.189269 -0.139482 0.830761
0.187649 -0.139318 0.830225
0.186014 -0.139141 0.829612
0.184417 -0.138991 0.829155
0.182808 -0.138829 0.828628
0.18127 -0.138722 0.828425
0.179674 -0.138567 0.827938
0.178126 -0.138449 0.827665
0.176608 -0.138355 0.827529
0.175162 -0.13832 0.827738
0.173729 -0.138295 0.828012
0.172425 -0.138381 0.828926
0.171119 -0.138467 0.829841
0.169761 -0.13851 0.830507
0.168395 -0.138547 0.831135
0.166996 -0.138555 0.831594
0.165567 -0.138537 0.831904
0.16414 -0.13852 0.832224
0.162784 -0.138569 0.832923
0.161522 -0.138705 0.834133
0.160374 -0.138949 0.835976
0.159268 -0.139236 0.838077
0.158195 -0.139562 0.840404
0.157092 -0.139865 0.842597
0.155852 -0.140042 0.844053
0.15453 -0.140144 0.845071
0.15306 -0.140102 0.845246
0.151494 -0.139965 0.844862
0.149825 -0.139723 0.843857
0.148143 -0.139463 0.842751
0.146391 -0.139127 0.841194
0.144699 -0.138846 0.839957
0.143051 -0.138606 0.83896
0.141464 -0.138425 0.838312
0.139891 -0.138255 0.837729
0.138359 -0.138127 0.837387
0.136863 -0.138035 0.83726
0.135368 -0.137942 0.837128
0.133891 -0.137868 0.837104
0.132441 -0.137823 0.837255
0.130994 -0.137781 0.837419
0.129534 -0.137723 0.837491
0.128049 -0.137635 0.837386
0.126552 -0.137531 0.837188
0.125045 -0.137414 0.836908
0.123552 -0.137311 0.836714
0.122074 -0.137224 0.836613
0.120588 -0.137126 0.836442
0.119111 -0.137037 0.836329
0.117656 -0.136973 0.836363
0.116236 -0.136954 0.836661
0.114823 -0.136943 0.837012
0.11341 -0.136931 0.837357
0.11199 -0.136913 0.837658
0.110556 -0.136874 0.837843
0.109135 -0.136853 0.83813
0.107712 -0.136828 0.838393
0.106299 -0.136817 0.838745
0.104909 -0.13684 0.839293
0.103516 -0.13686 0.839826
0.10212 -0.136874 0.840328
0.100733 -0.136904 0.840923
0.0993706 -0.136973 0.84175
0.0980053 -0.13704 0.842563
0.0966305 -0.137094 0.843304
0.0952621 -0.137162 0.84412
0.0938753 -0.137202 0.844775
0.0924947 -0.137253 0.845503
0.0911113 -0.137303 0.846217
0.0897615 -0.137412 0.847284
0.0884213 -0.137541 0.848474
0.0871184 -0.13774 0.850091
0.0858276 -0.137968 0.851876
0.0845169 -0.138169 0.8535
0.0832081 -0.138381 0.855198
0.0818656 -0.138539 0.856563
0.0805327 -0.138722 0.85809
0.079204 -0.138922 0.859711
0.0778814 -0.139141 0.861453
0.0765559 -0.139362 0.863211
0.0752487 -0.139635 0.865277
0.0739056 -0.139841 0.866945
0.0725573 -0.140046 0.868607
0.0711968 -0.140235 0.870171
0.0698568 -0.14048 0.872078
0.0684976 -0.140691 0.873779
0.0671636 -0.140973 0.875915
0.0659022 -0.141444 0.879195
0.0646404 -0.141938 0.882612
0.0633358 -0.142351 0.885543
0.0620466 -0.142825 0.88885
0.060811 -0.141763 0.892223
0.060705 -0.143186 0.891471
0.0593692 -0.141871 0.893326
0.0592609 -0.143285 0.892508
0.0581193 -0.144244 0.898763
0.233914 -0.147252 0.855968
0.232289 -0.147145 0.855794
0.230663 -0.147036 0.855608
0.228906 -0.146838 0.854911
0.227135 -0.146627 0.854147
0.225372 -0.14642 0.853398
0.223569 -0.146182 0.852472
0.221706 -0.1459 0.851297
0.219905 -0.145656 0.850341
0.218091 -0.145402 0.849317
0.216254 -0.145127 0.848181
0.214439 -0.144865 0.847115
0.212625 -0.1446 0.846027
0.21081 -0.144331 0.844917
0.208949 -0.144024 0.843591
0.207152 -0.143761 0.842513
0.205324 -0.143472 0.841281
0.203517 -0.143194 0.840115
0.201678 -0.142887 0.838783
0.199847 -0.142583 0.837465
0.197987 -0.142253 0.835993
0.196204 -0.141977 0.834833
0.19445 -0.14172 0.833778
0.192727 -0.141483 0.832838
0.191081 -0.141303 0.832224
0.189474 -0.141152 0.831772
0.187873 -0.141004 0.831337
0.186256 -0.140841 0.830814
0.184674 -0.140703 0.830439
0.183061 -0.140538 0.829906
0.181519 -0.14043 0.8297
0.179922 -0.140275 0.829218
0.178389 -0.14017 0.829031
0.176869 -0.140076 0.828902
0.175435 -0.140053 0.829183
0.174013 -0.140041 0.829526
0.172707 -0.140128 0.830445
0.171399 -0.140216 0.831366
0.170039 -0.140261 0.832036
0.168669 -0.140297 0.832658
0.167248 -0.140288 0.833023
0.165834 -0.140286 0.833425
0.164419 -0.140284 0.833828
0.16308 -0.140351 0.834634
0.161834 -0.140506 0.835945
0.160701 -0.14077 0.837891
0.159578 -0.141049 0.839924
0.158503 -0.141379 0.842254
0.157383 -0.141673 0.844378
0.156138 -0.14185 0.845826
0.154798 -0.141939 0.846762
0.153322 -0.141894 0.846922
0.15175 -0.141754 0.846525
0.150089 -0.14152 0.845586
0.148377 -0.141231 0.844321
0.146609 -0.140878 0.842688
0.144898 -0.140577 0.841354
0.143208 -0.140293 0.840113
0.141591 -0.140081 0.839294
0.140012 -0.139906 0.838689
0.138477 -0.139775 0.838338
0.136978 -0.139681 0.838206
0.135494 -0.139602 0.838159
0.134015 -0.139528 0.83814
0.132553 -0.139471 0.838224
0.131102 -0.139426 0.838377
0.129627 -0.139353 0.838359
0.128127 -0.139249 0.838169
0.126615 -0.139129 0.837877
0.125117 -0.139023 0.837669
0.123624 -0.138921 0.837487
0.122147 -0.138836 0.837402
0.120669 -0.13875 0.837309
0.119202 -0.138674 0.837277
0.117744 -0.13861 0.837315
0.116313 -0.138579 0.837542
0.114897 -0.138566 0.83788
0.113481 -0.138554 0.838224
0.11206 -0.138536 0.838529
0.110616 -0.138486 0.838649
0.109184 -0.138452 0.838862
0.107757 -0.138424 0.839112
0.106333 -0.1384 0.839381
0.104933 -0.13841 0.839857
0.103531 -0.138419 0.840322
0.10214 -0.138444 0.840885
0.10075 -0.138473 0.841466
0.0993845 -0.138539 0.842272
0.0980175 -0.138606 0.843082
0.0966497 -0.138674 0.8439
0.0952734 -0.138732 0.844656
0.0938772 -0.138759 0.845234
0.0924856 -0.138796 0.845866
0.0910921 -0.138831 0.846491
0.0897413 -0.138941 0.847557
0.088401 -0.139073 0.848758
0.0870907 -0.139263 0.850304
0.0857909 -0.139478 0.851996
0.0844695 -0.139664 0.853524
0.0831453 -0.13985 0.855049
0.0817948 -0.139995 0.856331
0.0804611 -0.14018 0.857849
0.0791326 -0.140381 0.859466
0.0778162 -0.140616 0.861289
0.0764975 -0.140856 0.863144
0.0751929 -0.141135 0.865231
0.0738482 -0.141342 0.866891
0.0724972 -0.141547 0.868537
0.0711362 -0.141735 0.870089
0.0697903 -0.141971 0.871923
0.0684307 -0.142185 0.873632
0.0670974 -0.142472 0.875771
0.0658282 -0.142929 0.87894
0.0645746 -0.14345 0.882489
0.0632727 -0.143874 0.885461
0.0619708 -0.144322 0.888579
0.0606107 -0.144637 0.8909
0.0591602 -0.144718 0.891822
0.0579291 -0.145433 0.896548
0.234148 -0.148968 0.856875
0.232515 -0.148856 0.856676
0.230847 -0.148719 0.856339
0.229063 -0.148502 0.855546
0.227294 -0.148292 0.854795
0.22553 -0.148082 0.854046
0.223749 -0.147859 0.853217
0.221909 -0.147591 0.852138
0.220105 -0.147345 0.85118
0.218266 -0.147072 0.850066
0.216439 -0.146803 0.848977
0.214603 -0.146523 0.847827
0.212786 -0.146255 0.846739
0.211009 -0.146013 0.845793
0.209205 -0.145747 0.844712
0.20743 -0.145499 0.843738
0.20564 -0.145237 0.842676
0.203853 -0.144973 0.841605
0.201992 -0.14465 0.840195
0.200135 -0.144325 0.838777
0.198229 -0.143958 0.837118
0.196403 -0.143647 0.835776
0.194624 -0.14337 0.834621
0.192899 -0.143131 0.83368
0.19127 -0.142965 0.833154
0.189699 -0.142842 0.832872
0.188133 -0.142723 0.832608
0.186536 -0.142576 0.832191
0.184969 -0.142452 0.831902
0.183352 -0.142285 0.831367
0.181822 -0.142189 0.83123
0.180236 -0.142043 0.830815
0.178718 -0.141953 0.830718
0.177197 -0.14186 0.8306
0.175759 -0.141836 0.830876
0.174316 -0.141808 0.83113
0.172988 -0.141881 0.83196
0.171664 -0.141958 0.832815
0.170301 -0.142003 0.833485
0.16893 -0.142042 0.834118
0.167509 -0.142036 0.8345
0.166106 -0.142047 0.834976
0.164708 -0.142063 0.835482
0.163402 -0.142164 0.836479
0.162185 -0.142352 0.837969
0.161064 -0.142634 0.840002
0.159933 -0.142912 0.842017
0.15885 -0.143242 0.844328
0.157709 -0.143522 0.846354
0.15643 -0.143672 0.847633
0.155069 -0.143745 0.848472
0.153574 -0.143684 0.848544
0.151986 -0.143529 0.848069
0.150325 -0.143296 0.847148
0.148611 -0.143004 0.84589
0.146838 -0.142646 0.844245
0.14511 -0.142329 0.842831
0.143401 -0.142025 0.841495
0.141755 -0.141782 0.840512
0.14016 -0.141591 0.839822
0.138623 -0.141459 0.839473
0.137135 -0.141378 0.839424
0.135651 -0.141302 0.839397
0.134183 -0.141242 0.839461
0.132717 -0.141184 0.839542
0.13125 -0.141123 0.839605
0.129747 -0.141019 0.839416
0.128241 -0.140909 0.839193
0.126704 -0.140761 0.838745
0.125192 -0.14064 0.838458
0.123696 -0.140535 0.838264
0.122226 -0.140461 0.838248
0.120748 -0.140375 0.838159
0.119279 -0.1403 0.838134
0.117821 -0.140236 0.838176
0.116376 -0.140189 0.838317
0.114947 -0.140161 0.838566
0.113518 -0.140134 0.838824
0.112096 -0.140116 0.839131
0.110653 -0.140069 0.839268
0.109219 -0.140034 0.839478
0.107789 -0.140004 0.839711
0.10636 -0.139975 0.839956
0.104957 -0.139984 0.840424
0.103555 -0.139994 0.840895
0.102153 -0.140006 0.841375
0.10076 -0.140032 0.841943
0.0993928 -0.140098 0.842743
0.0980169 -0.140154 0.843485
0.0966492 -0.140225 0.844315
0.0952799 -0.140297 0.845148
0.0938754 -0.140313 0.845658
0.0924821 -0.140349 0.846285
0.091096 -0.1404 0.846994
0.0897441 -0.140511 0.848062
0.088404 -0.140647 0.84928
0.0870917 -0.140839 0.850822
0.085774 -0.141027 0.852343
0.0844437 -0.1412 0.853779
0.0831027 -0.141358 0.855128
0.0817378 -0.141479 0.85626
0.0803966 -0.14165 0.857688
0.0790731 -0.141865 0.859375
0.077764 -0.142118 0.861287
0.0764536 -0.142379 0.863245
0.0751494 -0.142664 0.865349
0.0738105 -0.142886 0.867088
0.0724508 -0.143076 0.868633
0.0710826 -0.143253 0.870101
0.0697312 -0.143479 0.871862
0.0683726 -0.143697 0.873581
0.0670318 -0.143971 0.875629
0.0657552 -0.144416 0.878694
0.0644884 -0.14491 0.882052
0.0631799 -0.145321 0.884919
0.0618617 -0.145729 0.88777
0.0604995 -0.146039 0.890044
0.0590531 -0.146133 0.891032
0.0577843 -0.146744 0.895098
0.236161 -0.150897 0.858508
0.234491 -0.150762 0.85819
0.2328 -0.150612 0.857785
0.23109 -0.150446 0.857295
0.229273 -0.150205 0.856384
0.227498 -0.14999 0.855617
0.225728 -0.149776 0.854854
0.223949 -0.149553 0.854039
0.222111 -0.149286 0.852977
0.22033 -0.149055 0.852117
0.218484 -0.148775 0.850983
0.21663 -0.148486 0.849793
0.214784 -0.148199 0.848615
0.212984 -0.147942 0.847602
0.211211 -0.147701 0.846681
0.209447 -0.147464 0.845776
0.207712 -0.147245 0.844976
0.20596 -0.147011 0.844088
0.204209 -0.146774 0.843183
0.202363 -0.146462 0.841855
0.200483 -0.146119 0.840349
0.198514 -0.145701 0.838428
0.196639 -0.145352 0.836888
0.194819 -0.145041 0.835558
0.193075 -0.144786 0.83454
0.191446 -0.144619 0.834022
0.189926 -0.144539 0.833986
0.188378 -0.144435 0.833813
0.186814 -0.144317 0.833562
0.185264 -0.144208 0.833365
0.183661 -0.144053 0.832908
0.182127 -0.143955 0.832767
0.180537 -0.143807 0.832348
0.179016 -0.143717 0.832253
0.177494 -0.143624 0.832142
0.176052 -0.1436 0.832421
0.174604 -0.14357 0.832665
0.173285 -0.143655 0.833556
0.171957 -0.143733 0.834411
0.170595 -0.143781 0.835096
0.169236 -0.143834 0.835812
0.167828 -0.143843 0.836278
0.166439 -0.14387 0.836845
0.165057 -0.143904 0.837453
0.163793 -0.14405 0.838696
0.162576 -0.144244 0.840213
0.161466 -0.144544 0.842328
0.160314 -0.144809 0.844251
0.159209 -0.145125 0.846468
0.15802 -0.145365 0.848247
0.156707 -0.145486 0.849357
0.155298 -0.145515 0.849939
0.153783 -0.145437 0.849917
0.15218 -0.145267 0.849371
0.150519 -0.145035 0.848467
0.148819 -0.144758 0.847307
0.147042 -0.144395 0.845656
0.145306 -0.144068 0.844207
0.143591 -0.143757 0.842848
0.14193 -0.1435 0.841791
0.14032 -0.143293 0.841023
0.138792 -0.143172 0.84075
0.137304 -0.143095 0.840723
0.13582 -0.143021 0.84071
0.134362 -0.142975 0.840861
0.132892 -0.142914 0.840931
0.131409 -0.142837 0.840903
0.129877 -0.142701 0.840537
0.128355 -0.142575 0.840226
0.126802 -0.142408 0.83968
0.125288 -0.142285 0.839388
0.12379 -0.14218 0.839199
0.122318 -0.142104 0.839175
0.120836 -0.142016 0.839078
0.119364 -0.141938 0.839041
0.117893 -0.14186 0.839008
0.116435 -0.141798 0.839063
0.115001 -0.141767 0.839293
0.113569 -0.141737 0.839534
0.112146 -0.14172 0.839847
0.110703 -0.141674 0.839995
0.109258 -0.141626 0.840128
0.107813 -0.141577 0.840257
0.106371 -0.141531 0.840404
0.104958 -0.141527 0.840792
0.103556 -0.141538 0.84127
0.102154 -0.141552 0.841764
0.10076 -0.141578 0.842328
0.0993837 -0.141634 0.843061
0.0979991 -0.141678 0.843731
0.0966318 -0.141752 0.844573
0.0952615 -0.141824 0.845404
0.0938639 -0.141854 0.845991
0.0924782 -0.141905 0.846701
0.0911004 -0.141972 0.847504
0.0897412 -0.142074 0.848512
0.0883999 -0.142212 0.849727
0.0870785 -0.14239 0.851181
0.0857434 -0.142551 0.852534
0.0844033 -0.142709 0.853868
0.0830538 -0.142855 0.855136
0.0816865 -0.142974 0.856253
0.0803389 -0.143135 0.857609
0.0790156 -0.143353 0.859297
0.0777064 -0.143609 0.861214
0.0764024 -0.143888 0.863263
0.0750989 -0.144178 0.865379
0.0737658 -0.144419 0.867206
0.0724052 -0.144609 0.868741
0.0710358 -0.144786 0.870205
0.0696838 -0.145014 0.871958
0.0683185 -0.145221 0.873599
0.0669705 -0.145483 0.875559
0.0656866 -0.145917 0.87853
0.0644075 -0.146385 0.881705
0.0630938 -0.146785 0.884483
0.0617701 -0.147182 0.887243
0.0604024 -0.14748 0.889426
0.0589644 -0.147596 0.890542
0.057499 -0.147643 0.891246
0.236561 -0.152735 0.860026
0.234864 -0.152583 0.859623
0.233098 -0.152381 0.858941
0.231334 -0.152179 0.858258
0.229485 -0.151914 0.85723
0.227683 -0.15168 0.856367
0.225906 -0.15146 0.855585
0.224126 -0.151235 0.854772
0.222307 -0.15098 0.853788
0.220525 -0.150749 0.852938
0.218679 -0.150467 0.851808
0.216781 -0.150144 0.850447
0.214929 -0.14985 0.84925
0.213108 -0.149577 0.84816
0.211335 -0.149334 0.847243
0.209594 -0.149114 0.846445
0.207917 -0.148938 0.845894
0.206205 -0.148734 0.845183
0.204473 -0.148512 0.844374
0.202645 -0.148212 0.843128
0.200758 -0.147862 0.841606
0.198746 -0.147409 0.83951
0.196863 -0.147051 0.837941
0.195052 -0.146747 0.836664
0.193306 -0.14649 0.835651
0.191679 -0.146325 0.83515
0.19019 -0.146271 0.835267
0.188638 -0.146165 0.835091
0.187074 -0.146047 0.834849
0.185537 -0.145951 0.834726
0.183934 -0.145797 0.834284
0.182397 -0.145697 0.834139
0.180803 -0.145548 0.833717
0.179279 -0.145456 0.83362
0.177755 -0.145364 0.833515
0.176311 -0.14534 0.833796
0.174858 -0.145309 0.834034
0.173538 -0.145395 0.834928
0.172207 -0.145473 0.835782
0.170859 -0.145538 0.836561
0.1695 -0.145594 0.837287
0.168104 -0.145617 0.837832
0.166727 -0.145659 0.838477
0.165371 -0.145722 0.839246
0.164123 -0.145888 0.840594
0.162949 -0.146128 0.842355
0.161852 -0.146447 0.844569
0.160697 -0.146717 0.846501
0.159561 -0.14701 0.848569
0.158338 -0.147222 0.850183
0.156977 -0.1473 0.851042
0.155519 -0.147283 0.851364
0.153969 -0.147172 0.851157
0.15236 -0.146998 0.850594
0.150684 -0.14675 0.849615
0.148982 -0.146471 0.848461
0.147202 -0.146103 0.8468
0.145462 -0.145771 0.845342
0.143729 -0.145441 0.843895
0.142063 -0.145178 0.84282
0.140464 -0.144983 0.842132
0.138935 -0.144864 0.84187
0.137446 -0.144787 0.841849
0.13596 -0.144711 0.841834
0.134499 -0.144664 0.841982
0.133013 -0.144588 0.841962
0.131529 -0.144511 0.84194
0.129993 -0.144372 0.841568
0.128469 -0.144244 0.841251
0.126912 -0.144074 0.840699
0.125386 -0.143937 0.840333
0.123884 -0.143829 0.840129
0.122399 -0.143739 0.84003
0.120914 -0.143649 0.839928
0.11944 -0.14357 0.839893
0.117967 -0.143491 0.839852
0.116486 -0.143399 0.839741
0.115038 -0.143351 0.839878
0.113592 -0.143305 0.840027
0.112159 -0.143275 0.840265
0.110714 -0.143229 0.840418
0.109269 -0.143181 0.840553
0.107822 -0.143131 0.840678
0.106387 -0.143096 0.840889
0.104974 -0.143093 0.841284
0.103572 -0.143108 0.841779
0.10217 -0.143123 0.842279
0.100774 -0.14315 0.842845
0.0993873 -0.143191 0.843492
0.0979935 -0.143223 0.844088
0.0966158 -0.143283 0.844844
0.0952441 -0.143355 0.84567
0.0938612 -0.143411 0.846406
0.0924852 -0.143481 0.847224
0.0911237 -0.14358 0.848202
0.0897723 -0.143699 0.849304
0.0884278 -0.143836 0.850509
0.0870948 -0.143999 0.851858
0.0857426 -0.144132 0.853044
0.0843851 -0.144263 0.854214
0.0830264 -0.144395 0.855393
0.0816665 -0.14453 0.856586
0.0803102 -0.144679 0.857865
0.0789863 -0.1449 0.85956
0.0776765 -0.145159 0.861474
0.0763721 -0.145441 0.863526
0.0750613 -0.145721 0.865567
0.0737275 -0.145964 0.867395
0.0723666 -0.146157 0.868934
0.0710027 -0.146352 0.870483
0.0696421 -0.146566 0.872151
0.0682694 -0.14676 0.873697
0.0669149 -0.147007 0.875557
0.0656075 -0.147388 0.87819
0.064311 -0.147816 0.881103
0.062996 -0.148218 0.883866
0.0616675 -0.148605 0.886548
0.0603008 -0.148909 0.888746
0.0588786 -0.14907 0.890112
0.0574196 -0.149132 0.890907
0.238499 -0.154621 0.861341
0.236861 -0.154511 0.861172
0.235217 -0.154396 0.860978
0.233436 -0.154184 0.860252
0.231643 -0.153961 0.859465
0.229742 -0.153659 0.858249
0.227886 -0.153385 0.857185
0.22604 -0.153116 0.856141
0.224233 -0.152871 0.855228
0.222433 -0.152628 0.854329
0.220651 -0.152395 0.85348
0.218807 -0.152113 0.852365
0.216926 -0.151801 0.851082
0.215071 -0.151504 0.84988
0.213246 -0.151225 0.848776
0.211493 -0.150997 0.847949
0.209789 -0.150804 0.847311
0.208131 -0.150643 0.846851
0.20644 -0.150454 0.846236
0.204725 -0.150245 0.845506
0.202916 -0.149959 0.844356
0.201045 -0.149621 0.842917
0.199064 -0.149189 0.840966
0.197193 -0.148841 0.839466
0.195381 -0.148534 0.838195
0.193634 -0.148276 0.837191
0.192002 -0.148109 0.836684
0.190491 -0.148039 0.836714
0.188917 -0.147916 0.836449
0.187347 -0.147795 0.836196
0.185793 -0.147685 0.836004
0.184186 -0.147529 0.835557
0.182644 -0.147427 0.835407
0.181064 -0.14729 0.835065
0.179537 -0.147198 0.834966
0.178026 -0.147117 0.834935
0.17658 -0.147095 0.835224
0.175124 -0.147063 0.83546
0.17382 -0.147167 0.836449
0.172489 -0.14725 0.837322
0.171126 -0.147304 0.838036
0.169762 -0.147359 0.838752
0.16836 -0.14738 0.839283
0.166966 -0.147408 0.839857
0.16561 -0.147475 0.840639
0.164376 -0.147659 0.842077
0.163231 -0.147932 0.844014
0.162166 -0.14829 0.846418
0.16103 -0.148584 0.848473
0.159908 -0.148898 0.850644
0.158693 -0.149125 0.852323
0.157295 -0.149171 0.853004
0.155788 -0.149107 0.853065
0.154201 -0.14896 0.852664
0.152556 -0.148749 0.851908
0.150859 -0.14848 0.850822
0.149142 -0.148185 0.84959
0.147359 -0.147813 0.847928
0.145615 -0.147477 0.846467
0.143879 -0.147142 0.845008
0.142199 -0.146863 0.843863
0.140597 -0.146666 0.843173
0.139064 -0.146543 0.842895
0.137572 -0.146464 0.842865
0.136081 -0.146385 0.842839
0.134617 -0.146337 0.842979
0.133119 -0.146247 0.842892
0.131631 -0.146169 0.842865
0.130095 -0.14603 0.842497
0.128569 -0.145902 0.84219
0.127013 -0.145733 0.841651
0.125494 -0.145607 0.841357
0.123992 -0.1455 0.841163
0.122504 -0.145409 0.841062
0.121017 -0.145318 0.84096
0.11953 -0.145224 0.840842
0.118044 -0.145129 0.840721
0.11655 -0.145022 0.840528
0.115089 -0.144958 0.840576
0.113631 -0.144897 0.840644
0.112186 -0.144853 0.840802
0.110731 -0.144793 0.840877
0.109274 -0.144731 0.840932
0.107817 -0.144666 0.840975
0.106381 -0.144632 0.841195
0.104978 -0.144645 0.841681
0.103586 -0.144677 0.842274
0.102193 -0.144708 0.842862
0.100804 -0.144748 0.843497
0.0994213 -0.144799 0.844199
0.0980239 -0.144828 0.844777
0.0966434 -0.144887 0.845522
0.0952701 -0.14496 0.846348
0.0938946 -0.145032 0.847171
0.0925187 -0.145106 0.848007
0.0911587 -0.145211 0.849018
0.0897982 -0.145319 0.850047
0.0884492 -0.145453 0.851224
0.087098 -0.145587 0.8524
0.0857282 -0.145692 0.853416
0.0843632 -0.14581 0.854506
0.0830029 -0.145943 0.855678
0.0816415 -0.14608 0.856877
0.0802854 -0.146232 0.858162
0.0789609 -0.146457 0.859869
0.0776486 -0.146716 0.861767
0.0763353 -0.146982 0.863712
0.0750218 -0.147263 0.865741
0.0736954 -0.147526 0.867664
0.0723356 -0.147726 0.869232
0.0709707 -0.147923 0.870786
0.0696086 -0.148138 0.872442
0.0682213 -0.148302 0.873805
0.0668532 -0.14852 0.875485
0.0655215 -0.148842 0.877759
0.064211 -0.149239 0.880467
0.0629002 -0.149655 0.883287
0.0615789 -0.150064 0.886068
0.0602204 -0.150394 0.888397
0.0588162 -0.150607 0.890052
0.0573662 -0.1507 0.891024
0.240039 -0.154663 0.861141
0.240324 -0.156432 0.862212
0.238794 -0.156398 0.86246
0.237157 -0.156289 0.862302
0.235538 -0.156192 0.862209
0.233745 -0.155971 0.861449
0.231879 -0.155697 0.860395
0.229949 -0.155373 0.859078
0.228043 -0.155062 0.857827
0.226152 -0.154758 0.856611
0.224294 -0.154475 0.855505
0.22249 -0.154228 0.854591
0.220688 -0.153978 0.853666
0.218868 -0.153712 0.852652
0.217006 -0.153412 0.851451
0.215171 -0.153128 0.850332
0.213343 -0.152846 0.849224
0.211607 -0.15263 0.848473
0.209902 -0.152434 0.847834
0.208244 -0.152274 0.847381
0.206588 -0.152112 0.846923
0.204894 -0.151918 0.84629
0.20312 -0.151659 0.8453
0.201288 -0.151349 0.844035
0.199346 -0.150947 0.842266
0.197498 -0.150616 0.840878
0.195703 -0.150323 0.8397
0.193938 -0.15005 0.838625
0.192281 -0.149863 0.838021
0.190744 -0.149773 0.837944
0.189146 -0.149631 0.837585
0.187556 -0.149494 0.837247
0.185997 -0.149381 0.837046
0.184401 -0.149235 0.83666
0.182859 -0.149133 0.836518
0.181292 -0.149009 0.836249
0.179765 -0.148918 0.836164
0.178267 -0.148851 0.836211
0.176818 -0.148828 0.836497
0.175377 -0.148812 0.836821
0.174072 -0.148919 0.837823
0.172743 -0.149006 0.838714
0.17136 -0.149045 0.839343
0.169975 -0.149084 0.839969
0.168567 -0.149102 0.84048
0.167169 -0.14913 0.841049
0.165829 -0.149214 0.841927
0.164594 -0.149402 0.843373
0.163523 -0.149753 0.845726
0.162493 -0.150152 0.84834
0.16138 -0.150476 0.850541
0.160258 -0.150797 0.852733
0.15905 -0.151038 0.854477
0.157572 -0.151007 0.85473
0.156015 -0.150895 0.854528
0.154393 -0.150712 0.853941
0.152714 -0.150466 0.852998
0.150982 -0.15016 0.851723
0.149258 -0.149857 0.850465
0.147473 -0.149481 0.8488
0.145717 -0.14913 0.847272
0.143993 -0.148807 0.8459
0.142321 -0.148538 0.84482
0.140705 -0.148325 0.844051
0.139157 -0.148186 0.843695
0.13766 -0.148103 0.843646
0.136152 -0.148006 0.843524
0.134674 -0.147942 0.843581
0.133186 -0.147866 0.843572
0.131698 -0.147789 0.843552
0.130174 -0.147665 0.843277
0.128659 -0.147551 0.843056
0.127114 -0.147397 0.842607
0.125595 -0.147272 0.842325
0.124102 -0.147178 0.84221
0.122621 -0.147098 0.842177
0.121144 -0.147022 0.842163
0.119666 -0.146943 0.842132
0.118178 -0.146848 0.842015
0.11667 -0.146725 0.841736
0.115183 -0.146628 0.841606
0.113701 -0.146536 0.841504
0.112233 -0.146462 0.841496
0.110766 -0.146387 0.841489
0.109307 -0.146322 0.841537
0.107849 -0.146258 0.841583
0.106413 -0.146225 0.84181
0.105009 -0.146241 0.84231
0.103627 -0.14629 0.842998
0.102233 -0.146323 0.843591
0.100842 -0.146362 0.844223
0.0994557 -0.146411 0.844909
0.0980558 -0.146439 0.84548
0.0966667 -0.146487 0.846161
0.0952998 -0.146574 0.847062
0.0939315 -0.146662 0.847969
0.0925705 -0.146766 0.848969
0.0912183 -0.14689 0.850078
0.089848 -0.146986 0.851031
0.0884875 -0.147104 0.852111
0.0871239 -0.147219 0.853178
0.0857369 -0.147296 0.854026
0.0843708 -0.147418 0.85513
0.0830166 -0.147567 0.856386
0.081661 -0.14772 0.857668
0.0803047 -0.147877 0.858971
0.0789717 -0.14809 0.860596
0.0776435 -0.148321 0.862324
0.0763259 -0.148586 0.86424
0.0750046 -0.148855 0.866186
0.0736832 -0.149135 0.868193
0.0723299 -0.149355 0.869866
0.0709649 -0.149557 0.871434
0.0695902 -0.149746 0.87293
0.0681871 -0.149877 0.874098
0.0667984 -0.150049 0.8755
0.0654343 -0.150295 0.877321
0.0641103 -0.150658 0.879813
0.062802 -0.151085 0.882668
0.0614885 -0.15152 0.885574
0.0601463 -0.151895 0.888142
0.0587745 -0.152207 0.89035
0.0573508 -0.152381 0.891775
0.240432 -0.158083 0.86263
0.238886 -0.158038 0.86282
0.237271 -0.157945 0.862754
0.235683 -0.15787 0.862781
0.233908 -0.157661 0.862096
0.232022 -0.157371 0.860971
0.230068 -0.157027 0.859565
0.228114 -0.15668 0.858135
0.226192 -0.156352 0.856802
0.224308 -0.156047 0.855596
0.222502 -0.155796 0.854678
0.22072 -0.15556 0.853835
0.218942 -0.155324 0.852993
0.217084 -0.155024 0.851808
0.215267 -0.154752 0.850773
0.21344 -0.154469 0.849672
0.211683 -0.154235 0.848837
0.209958 -0.154024 0.848122
0.208297 -0.15386 0.847659
0.206638 -0.153695 0.847194
0.204962 -0.153515 0.846642
0.203228 -0.153286 0.845826
0.201422 -0.152996 0.844682
0.199539 -0.152639 0.843179
0.197749 -0.152354 0.842055
0.195996 -0.152094 0.841069
0.19424 -0.151829 0.840053
0.192611 -0.151666 0.839587
0.191049 -0.151556 0.839411
0.189428 -0.151397 0.838962
0.187833 -0.151255 0.838613
0.186268 -0.15114 0.838399
0.184671 -0.150993 0.838021
0.183141 -0.150904 0.837952
0.181575 -0.150782 0.837701
0.18003 -0.150677 0.837543
0.178529 -0.150609 0.837591
0.177077 -0.150585 0.837873
0.175635 -0.150571 0.838208
0.174313 -0.150666 0.839138
0.172979 -0.150753 0.840021
0.171559 -0.15076 0.840476
0.170135 -0.150765 0.840916
0.168708 -0.150766 0.841336
0.16731 -0.150797 0.841915
0.16597 -0.150884 0.842805
0.164838 -0.151176 0.844812
0.163863 -0.151629 0.847696
0.162886 -0.152088 0.850617
0.16182 -0.152468 0.853107
0.160705 -0.152804 0.855364
0.159403 -0.152956 0.856611
0.157856 -0.152858 0.856497
0.15625 -0.152696 0.856031
0.154581 -0.152466 0.855193
0.152868 -0.152185 0.854073
0.151118 -0.151858 0.852702
0.149361 -0.151519 0.851258
0.147573 -0.151138 0.84959
0.145815 -0.150784 0.848063
0.144104 -0.150475 0.846779
0.142432 -0.150204 0.845706
0.140812 -0.149987 0.844928
0.139248 -0.14983 0.844481
0.137734 -0.149729 0.844338
0.136226 -0.149633 0.844221
0.134746 -0.149569 0.844281
0.133258 -0.149494 0.84428
0.131768 -0.149414 0.844256
0.130252 -0.149302 0.844047
0.128726 -0.149175 0.843762
0.127192 -0.149036 0.843405
0.125683 -0.148926 0.843207
0.124198 -0.148844 0.843166
0.122718 -0.148766 0.84315
0.12125 -0.148704 0.843216
0.119782 -0.148641 0.843278
0.118303 -0.148561 0.843246
0.116791 -0.148435 0.84296
0.115301 -0.148335 0.842818
0.113813 -0.148238 0.842688
0.112321 -0.148131 0.842509
0.11083 -0.148026 0.842334
0.109358 -0.147943 0.842287
0.107887 -0.147863 0.842247
0.10644 -0.147816 0.842396
0.105036 -0.147832 0.842896
0.103652 -0.147882 0.843584
0.102248 -0.147902 0.844105
0.100847 -0.147928 0.844659
0.0994608 -0.147979 0.845357
0.0980613 -0.148011 0.845942
0.0966811 -0.148076 0.846717
0.0953228 -0.148181 0.847713
0.0939694 -0.148298 0.848779
0.0926148 -0.148418 0.84986
0.091261 -0.148544 0.850972
0.0898798 -0.148625 0.851838
0.0885082 -0.148727 0.852822
0.0871335 -0.148826 0.853793
0.0857456 -0.148905 0.854646
0.0843792 -0.149029 0.855757
0.0830324 -0.149198 0.857113
0.0816904 -0.149384 0.858571
0.0803325 -0.149542 0.859876
0.0789837 -0.149729 0.86134
0.0776383 -0.14993 0.862885
0.0763038 -0.150165 0.864621
0.0749754 -0.150421 0.866479
0.0736544 -0.150708 0.868506
0.0723083 -0.150951 0.870292
0.0709482 -0.15117 0.871948
0.0695643 -0.151342 0.873335
0.0681528 -0.151454 0.87439
0.0667496 -0.151594 0.8756
0.0653712 -0.151808 0.877224
0.0640393 -0.152156 0.87961
0.0627416 -0.152614 0.882622
0.0614353 -0.153075 0.885645
0.0601056 -0.153494 0.88844
0.058746 -0.153848 0.890867
0.057336 -0.154072 0.892567
0.242158 -0.159829 0.863113
0.240587 -0.159769 0.863221
0.238951 -0.159662 0.863084
0.237312 -0.159552 0.862931
0.235701 -0.15946 0.862875
0.233928 -0.159251 0.862198
0.232045 -0.158961 0.861088
0.230111 -0.158629 0.85976
0.228134 -0.158263 0.858246
0.226186 -0.157912 0.856814
0.224298 -0.157603 0.855596
0.222491 -0.157349 0.854673
0.220713 -0.157114 0.853848
0.218958 -0.156893 0.853099
0.217121 -0.156608 0.852005
0.215307 -0.156335 0.850979
0.213478 -0.156049 0.849875
0.211719 -0.155812 0.849038
0.209972 -0.155583 0.848236
0.208307 -0.155414 0.847758
0.206646 -0.155247 0.847285
0.204989 -0.155081 0.846817
0.203298 -0.154885 0.846189
0.201567 -0.154654 0.845377
0.199781 -0.154375 0.844303
0.198066 -0.15415 0.843521
0.196348 -0.15392 0.842706
0.194624 -0.153682 0.841848
0.193007 -0.15353 0.84145
0.191406 -0.153391 0.84112
0.189766 -0.153215 0.840592
0.188165 -0.153071 0.840235
0.186598 -0.152955 0.840026
0.184999 -0.152808 0.839654
0.183487 -0.152737 0.839686
0.181935 -0.152629 0.839521
0.180368 -0.152506 0.839272
0.178861 -0.152436 0.839309
0.177387 -0.152395 0.839502
0.175928 -0.152368 0.839766
0.17457 -0.152434 0.840538
0.173213 -0.152503 0.841319
0.171752 -0.152474 0.841576
0.170291 -0.152446 0.841839
0.168846 -0.152433 0.842181
0.167433 -0.152451 0.842691
0.166213 -0.152658 0.844222
0.165184 -0.153057 0.846793
0.164313 -0.153622 0.850258
0.163373 -0.154128 0.853412
0.162375 -0.154585 0.8563
0.161175 -0.154844 0.858119
0.15977 -0.154896 0.858819
0.158139 -0.154714 0.858255
0.156478 -0.154498 0.857504
0.154748 -0.154203 0.856326
0.152992 -0.153876 0.854971
0.151212 -0.153516 0.853439
0.149437 -0.153155 0.851895
0.147657 -0.152781 0.850283
0.145886 -0.15241 0.848681
0.144175 -0.1521 0.847411
0.142526 -0.151855 0.846491
0.140904 -0.151635 0.845708
0.139337 -0.151476 0.845257
0.137822 -0.151375 0.845118
0.136324 -0.151292 0.845078
0.134833 -0.151216 0.845074
0.133354 -0.151154 0.845148
0.13185 -0.151059 0.845044
0.130343 -0.150959 0.84491
0.128813 -0.150829 0.844611
0.127288 -0.150702 0.844329
0.125779 -0.150593 0.844142
0.124304 -0.150526 0.844191
0.122833 -0.150463 0.844256
0.121365 -0.150403 0.844336
0.119896 -0.150341 0.844411
0.118416 -0.150262 0.844388
0.116893 -0.150123 0.844032
0.115378 -0.149991 0.843722
0.113876 -0.149875 0.843493
0.112369 -0.14975 0.843218
0.110866 -0.149627 0.842952
0.10941 -0.149571 0.843052
0.107956 -0.149516 0.843159
0.106525 -0.149496 0.84346
0.105127 -0.149526 0.844034
0.103738 -0.149572 0.844698
0.102313 -0.149563 0.845054
0.1009 -0.149573 0.845523
0.0995049 -0.149614 0.846156
0.0981057 -0.149649 0.846762
0.0967259 -0.149719 0.847558
0.0953669 -0.149827 0.848565
0.0940037 -0.149932 0.849556
0.0926403 -0.15004 0.850567
0.0912763 -0.150152 0.851596
0.0898934 -0.150234 0.852461
0.0885205 -0.150336 0.85344
0.0871507 -0.150449 0.854479
0.0857765 -0.150559 0.855498
0.0844178 -0.150704 0.856716
0.0830785 -0.150894 0.858185
0.0817359 -0.151083 0.85965
0.0803668 -0.151228 0.860866
0.0790021 -0.151385 0.862154
0.0776387 -0.151555 0.863519
0.0762891 -0.151761 0.865077
0.0749579 -0.152018 0.866927
0.0736379 -0.152312 0.868983
0.0722922 -0.152559 0.870776
0.0709377 -0.152798 0.872528
0.069545 -0.152954 0.873819
0.0681234 -0.153048 0.874762
0.0667057 -0.153156 0.875784
0.0653164 -0.153343 0.877249
0.0639799 -0.153682 0.879568
0.0626932 -0.154179 0.882766
0.0613981 -0.154678 0.885982
0.060084 -0.155151 0.889055
0.058734 -0.155542 0.891667
0.0573294 -0.155789 0.893481
0.243916 -0.1616 0.863697
0.242237 -0.161465 0.863419
0.240622 -0.161373 0.863367
0.238928 -0.161224 0.863019
0.237257 -0.161091 0.862747
0.235644 -0.160997 0.862682
0.233894 -0.160804 0.862096
0.232035 -0.160528 0.861078
0.230103 -0.160196 0.859762
0.228146 -0.15984 0.858323
0.226176 -0.159471 0.856808
0.224289 -0.159159 0.855594
0.222463 -0.15889 0.854601
0.220708 -0.15867 0.85387
0.218953 -0.158449 0.853126
0.217139 -0.158178 0.852121
0.215303 -0.157887 0.851014
0.213491 -0.157611 0.84998
0.21173 -0.157372 0.849138
0.209961 -0.157123 0.848244
0.208276 -0.156937 0.847682
0.20663 -0.156781 0.847276
0.204993 -0.15663 0.846894
0.203344 -0.156467 0.846452
0.201674 -0.156285 0.845907
0.199999 -0.156096 0.845325
0.198325 -0.155905 0.84473
0.196645 -0.155707 0.844097
0.194958 -0.1555 0.843416
0.193374 -0.155378 0.843186
0.191743 -0.155214 0.84273
0.190115 -0.15505 0.842278
0.188524 -0.154917 0.841984
0.186955 -0.154801 0.841781
0.185374 -0.154672 0.841511
0.18388 -0.154619 0.841645
0.182339 -0.154524 0.841549
0.180749 -0.154383 0.841212
0.179231 -0.154305 0.841214
0.177719 -0.154233 0.841239
0.176223 -0.154174 0.841338
0.174812 -0.154194 0.841857
0.173397 -0.154211 0.842364
0.171896 -0.154147 0.842433
0.170433 -0.154117 0.842689
0.168988 -0.154106 0.843044
0.167681 -0.15423 0.844117
0.166592 -0.154572 0.846357
0.165657 -0.155073 0.849451
0.164833 -0.155696 0.853198
0.163914 -0.156234 0.856496
0.162824 -0.156607 0.858913
0.161546 -0.156793 0.86033
0.16007 -0.156775 0.860656
0.158371 -0.156525 0.859733
0.156671 -0.156267 0.858767
0.154916 -0.155946 0.857464
0.153113 -0.155567 0.855848
0.151303 -0.155174 0.854153
0.149525 -0.154807 0.852599
0.147753 -0.154441 0.851049
0.14598 -0.154067 0.849447
0.144283 -0.153771 0.84827
0.142634 -0.153526 0.847362
0.141008 -0.153303 0.846572
0.139438 -0.15314 0.846109
0.137923 -0.15304 0.845981
0.136426 -0.15296 0.845959
0.134945 -0.152898 0.84604
0.133465 -0.152836 0.846116
0.131945 -0.152724 0.845922
0.130422 -0.152606 0.845694
0.128879 -0.152459 0.84531
0.127341 -0.152317 0.844951
0.12584 -0.152219 0.844831
0.124365 -0.152154 0.844892
0.122904 -0.152106 0.845042
0.121445 -0.15206 0.845202
0.119985 -0.152012 0.845352
0.118503 -0.151933 0.845333
0.116988 -0.151806 0.845055
0.115471 -0.151674 0.844751
0.113967 -0.151556 0.844519
0.112458 -0.15143 0.844242
0.110952 -0.151305 0.84397
0.109495 -0.15125 0.844078
0.108041 -0.151198 0.844208
0.106601 -0.151168 0.84445
0.105191 -0.151184 0.844946
0.103789 -0.151213 0.845517
0.102358 -0.151197 0.845834
0.100942 -0.151205 0.846291
0.0995443 -0.151245 0.846917
0.0981439 -0.151281 0.847527
0.0967702 -0.151365 0.848394
0.0954098 -0.151475 0.849406
0.0940373 -0.151568 0.850326
0.0926632 -0.151662 0.85125
0.0912959 -0.151771 0.852262
0.0899038 -0.15184 0.853047
0.0885301 -0.151945 0.854035
0.0871697 -0.15208 0.855188
0.0858096 -0.152223 0.856385
0.0844591 -0.152389 0.85771
0.0831197 -0.152583 0.859194
0.0817663 -0.152758 0.860567
0.080387 -0.152887 0.861689
0.0790041 -0.153011 0.862791
0.0776259 -0.153152 0.86398
0.0762665 -0.153343 0.865447
0.0749328 -0.1536 0.86728
0.0736117 -0.153897 0.869336
0.0722659 -0.154149 0.871147
0.070905 -0.154378 0.872828
0.0695106 -0.154533 0.874102
0.068082 -0.154611 0.874957
0.0666524 -0.154691 0.875816
0.0652753 -0.154915 0.877474
0.0639447 -0.155277 0.879899
0.0626656 -0.155803 0.883235
0.0613795 -0.156338 0.88662
0.0600753 -0.156847 0.889865
0.0587173 -0.157226 0.892394
0.0573156 -0.157488 0.894273
0.0562495 -0.157079 0.901131
0.0559057 -0.157743 0.896113
0.24577 -0.163439 0.864616
0.244051 -0.163277 0.864203
0.242329 -0.163111 0.863773
0.240663 -0.162983 0.863538
0.238922 -0.1628 0.863017
0.237221 -0.162644 0.862634
0.235561 -0.162516 0.862395
0.233814 -0.162323 0.86182
0.231957 -0.162046 0.860808
0.230049 -0.161728 0.859582
0.228115 -0.161387 0.858235
0.226148 -0.161017 0.856733
0.224283 -0.160719 0.855608
0.222456 -0.160447 0.854613
0.220701 -0.160226 0.853883
0.218965 -0.160017 0.853216
0.217152 -0.159745 0.852219
0.215314 -0.159451 0.851105
0.2135 -0.159171 0.850064
0.211715 -0.158912 0.849127
0.209926 -0.158645 0.848151
0.20824 -0.158457 0.847589
0.206595 -0.1583 0.847185
0.204978 -0.158165 0.846893
0.203369 -0.158034 0.846624
0.201743 -0.157887 0.846271
0.200131 -0.157749 0.845967
0.1985 -0.157594 0.845571
0.196858 -0.157429 0.845117
0.195223 -0.157266 0.844678
0.193677 -0.157178 0.844632
0.192065 -0.157031 0.844275
0.19047 -0.156897 0.843988
0.188908 -0.156791 0.843845
0.187352 -0.156689 0.843719
0.185803 -0.156591 0.843621
0.184343 -0.156573 0.843936
0.182801 -0.156479 0.843856
0.181201 -0.156331 0.843492
0.179672 -0.156248 0.843467
0.178137 -0.156157 0.843397
0.176603 -0.156065 0.843329
0.175121 -0.156023 0.843515
0.173646 -0.155986 0.843736
0.172103 -0.155884 0.843607
0.170593 -0.155811 0.843635
0.169277 -0.155928 0.844666
0.168136 -0.156221 0.846628
0.167204 -0.156727 0.849723
0.166376 -0.157347 0.853423
0.165603 -0.158035 0.857486
0.164542 -0.158441 0.860057
0.163323 -0.158691 0.861802
0.161923 -0.158757 0.862575
0.160339 -0.158631 0.862325
0.158579 -0.158316 0.861072
0.15684 -0.158016 0.8599
0.155044 -0.157651 0.858378
0.153206 -0.157232 0.856565
0.151367 -0.156804 0.854705
0.149585 -0.156433 0.853145
0.147812 -0.156063 0.851587
0.146052 -0.155701 0.850076
0.144354 -0.155405 0.848908
0.142718 -0.155173 0.848083
0.141102 -0.154961 0.847368
0.139544 -0.154813 0.846989
0.138027 -0.154713 0.846865
0.136542 -0.154649 0.846937
0.135071 -0.154601 0.847093
0.133589 -0.154539 0.847171
0.132076 -0.154438 0.847042
0.130563 -0.154334 0.846894
0.129027 -0.154199 0.84658
0.127509 -0.154083 0.846373
0.126006 -0.153987 0.846267
0.124517 -0.153906 0.846244
0.123041 -0.153842 0.846309
0.121556 -0.153764 0.846299
0.120072 -0.153684 0.846284
0.118585 -0.153602 0.846249
0.117069 -0.153474 0.845973
0.115552 -0.153344 0.845681
0.114056 -0.153241 0.845537
0.112547 -0.153115 0.84527
0.111041 -0.152992 0.845013
0.109584 -0.15294 0.84514
0.108129 -0.15289 0.845283
0.106681 -0.152851 0.845481
0.105261 -0.152854 0.845904
0.103847 -0.152867 0.846385
0.102402 -0.152833 0.846608
0.100983 -0.152839 0.847048
0.0995838 -0.152879 0.847676
0.0981807 -0.152915 0.848278
0.0968031 -0.152996 0.849126
0.0954387 -0.153103 0.850117
0.0940469 -0.153165 0.850866
0.0926696 -0.153257 0.851772
0.0913076 -0.15338 0.852851
0.0899224 -0.153465 0.853722
0.0885578 -0.153591 0.854818
0.0872129 -0.153762 0.856159
0.0858615 -0.153926 0.857466
0.0845102 -0.154096 0.858802
0.0831598 -0.154276 0.860198
0.0817955 -0.154434 0.861469
0.080405 -0.154543 0.862479
0.079005 -0.154638 0.863409
0.0776114 -0.154749 0.864433
0.076249 -0.154939 0.865882
0.0749078 -0.155184 0.867634
0.0735797 -0.155469 0.869606
0.0722324 -0.155724 0.87142
0.0708638 -0.155937 0.873005
0.0694569 -0.156065 0.874123
0.0680276 -0.156145 0.874979
0.066592 -0.15621 0.875754
0.0652212 -0.156454 0.877512
0.0639073 -0.156869 0.880206
0.0626406 -0.157436 0.883736
0.0613548 -0.157982 0.887155
0.0600534 -0.15851 0.890474
0.0586933 -0.15889 0.892984
0.0572779 -0.159119 0.894674
0.055845 -0.159304 0.896118
0.247543 -0.165223 0.86522
0.245817 -0.165058 0.864799
0.244092 -0.16489 0.864368
0.242352 -0.164711 0.863875
0.240655 -0.16456 0.863527
0.238874 -0.164347 0.86286
0.237145 -0.164169 0.862374
0.235461 -0.164022 0.862043
0.233715 -0.163828 0.861471
0.231881 -0.163566 0.860547
0.230018 -0.163279 0.859495
0.22811 -0.162955 0.858249
0.226166 -0.162599 0.856841
0.224323 -0.162316 0.855803
0.222492 -0.162039 0.854795
0.220733 -0.161813 0.854052
0.218996 -0.161602 0.853382
0.217202 -0.161343 0.852467
0.215365 -0.161048 0.851359
0.213529 -0.160749 0.850235
0.21172 -0.160468 0.8492
0.209929 -0.160198 0.848216
0.208225 -0.159994 0.84758
0.206564 -0.159823 0.847112
0.204966 -0.159702 0.846901
0.203375 -0.159586 0.846714
0.201771 -0.159457 0.846458
0.200203 -0.159356 0.84635
0.198631 -0.159251 0.84622
0.197047 -0.159134 0.846029
0.195481 -0.159032 0.845911
0.19399 -0.158993 0.846123
0.192414 -0.158879 0.845945
0.190854 -0.158778 0.845835
0.189323 -0.158701 0.845851
0.187781 -0.158614 0.845808
0.186249 -0.158534 0.845808
0.184804 -0.158533 0.846217
0.183258 -0.15844 0.846144
0.181653 -0.15829 0.845777
0.180104 -0.158191 0.845672
0.178546 -0.158082 0.845515
0.176975 -0.157958 0.845283
0.175419 -0.157848 0.845122
0.173869 -0.157741 0.844974
0.172456 -0.157767 0.84552
0.171094 -0.157843 0.846335
0.169916 -0.158103 0.848107
0.168953 -0.158582 0.851035
0.168164 -0.159245 0.854927
0.167275 -0.159819 0.858355
0.166328 -0.160344 0.861532
0.165129 -0.160619 0.863393
0.163789 -0.160752 0.864512
0.16227 -0.160699 0.864655
0.160598 -0.160482 0.863936
0.158824 -0.160152 0.862618
0.157051 -0.159817 0.861276
0.155203 -0.159394 0.859466
0.153329 -0.158934 0.857458
0.151455 -0.158466 0.855407
0.149673 -0.158091 0.853848
0.147912 -0.157735 0.852382
0.146165 -0.157386 0.850957
0.144481 -0.157105 0.849883
0.142855 -0.156886 0.849138
0.141237 -0.156672 0.848421
0.139675 -0.156522 0.848037
0.138158 -0.156422 0.847921
0.13667 -0.156358 0.84799
0.135198 -0.156311 0.848153
0.133712 -0.156247 0.848224
0.132211 -0.156162 0.848186
0.130708 -0.156072 0.848121
0.129185 -0.155956 0.847915
0.127677 -0.155857 0.847798
0.126183 -0.155774 0.847771
0.124678 -0.155676 0.847661
0.123196 -0.155607 0.847703
0.121705 -0.155524 0.84767
0.120195 -0.155412 0.847488
0.118695 -0.155313 0.847368
0.117174 -0.155182 0.847079
0.115644 -0.155034 0.846701
0.11414 -0.15492 0.846504
0.112639 -0.15481 0.846322
0.111141 -0.154701 0.84615
0.109682 -0.154649 0.846283
0.108226 -0.154601 0.846431
0.106782 -0.154571 0.846681
0.105358 -0.154572 0.847097
0.103933 -0.154572 0.847504
0.102487 -0.154539 0.847736
0.101067 -0.154548 0.848192
0.0996494 -0.154561 0.848674
0.0982343 -0.15458 0.849185
0.0968525 -0.154658 0.850013
0.0954766 -0.15475 0.850913
0.094067 -0.154784 0.851509
0.0926868 -0.154874 0.852402
0.0913306 -0.155012 0.853553
0.0899529 -0.155114 0.854512
0.0885982 -0.155265 0.855733
0.0872677 -0.155471 0.857253
0.0859224 -0.155652 0.85864
0.0845592 -0.155806 0.859883
0.0831897 -0.155953 0.861089
0.0818075 -0.156078 0.86218
0.0804062 -0.156171 0.863094
0.0789991 -0.156253 0.863948
0.0776036 -0.156366 0.864973
0.0762276 -0.156528 0.866266
0.0748852 -0.156774 0.868013
0.0735409 -0.157028 0.869803
0.0721803 -0.157254 0.871444
0.0707972 -0.157437 0.87285
0.0693942 -0.157578 0.874032
0.0679657 -0.157658 0.874883
0.0665359 -0.157743 0.875764
0.0651813 -0.158034 0.877761
0.0638844 -0.158502 0.880721
0.0626222 -0.159095 0.884361
0.0613364 -0.159648 0.887789
0.0600273 -0.160165 0.891022
0.0586449 -0.160484 0.893181
0.0572073 -0.160647 0.894497
0.055748 -0.160747 0.895469
0.249248 -0.166961 0.865568
0.247557 -0.16682 0.86528
0.245839 -0.16666 0.864892
0.244107 -0.166486 0.864438
0.242354 -0.166296 0.863899
0.24061 -0.166111 0.863382
0.238803 -0.165877 0.862616
0.237047 -0.165678 0.86203
0.235342 -0.165514 0.861618
0.233596 -0.165318 0.861046
0.231786 -0.165072 0.860214
0.229968 -0.164816 0.859333
0.228086 -0.164508 0.858187
0.226149 -0.164155 0.856807
0.224303 -0.163868 0.855762
0.222488 -0.163601 0.854817
0.220706 -0.163355 0.853984
0.218969 -0.163143 0.853317
0.217197 -0.1629 0.852493
0.215384 -0.162621 0.851483
0.213547 -0.162319 0.850357
0.211737 -0.162036 0.84932
0.209939 -0.161758 0.848315
0.208233 -0.161552 0.847673
0.206575 -0.161382 0.847218
0.204994 -0.161275 0.847082
0.203438 -0.161187 0.847048
0.201888 -0.161103 0.847032
0.200377 -0.161051 0.847179
0.198829 -0.160968 0.847163
0.197262 -0.160866 0.847056
0.195712 -0.160778 0.847019
0.194203 -0.160726 0.847163
0.192632 -0.160617 0.847018
0.191109 -0.160551 0.847088
0.189614 -0.160508 0.847283
0.188089 -0.160439 0.847338
0.186606 -0.160405 0.847582
0.185177 -0.160423 0.848085
0.183647 -0.160346 0.848105
0.182056 -0.160212 0.847824
0.180518 -0.160126 0.847794
0.178943 -0.160004 0.847574
0.177368 -0.159879 0.847341
0.175965 -0.159919 0.847964
0.174557 -0.159956 0.848566
0.173317 -0.160157 0.850025
0.172133 -0.160419 0.851795
0.171094 -0.160829 0.854342
0.170093 -0.161286 0.857132
0.169243 -0.161904 0.86076
0.16815 -0.162285 0.863159
0.166997 -0.162612 0.86528
0.165644 -0.162735 0.866342
0.164162 -0.162725 0.866711
0.16255 -0.162577 0.866362
0.160873 -0.162357 0.865635
0.159078 -0.162005 0.864222
0.157259 -0.16162 0.862631
0.155377 -0.161158 0.860642
0.153453 -0.160641 0.85836
0.151547 -0.160134 0.856125
0.149761 -0.159755 0.854561
0.148014 -0.159412 0.853184
0.14627 -0.159066 0.851785
0.144583 -0.158781 0.850708
