ply
format ascii 1.0
element vertex 1582
property float x
property float y
property float z
end_header
-0.114786 0.0155994 0.793081
-0.115919 0.0164603 0.793
-0.117022 0.0173131 0.792684
-0.118163 0.0181753 0.792682
-0.119275 0.0190299 0.792447
-0.120417 0.0198923 0.792454
-0.121519 0.0207436 0.792143
-0.122648 0.0216019 0.792055
-0.123744 0.0224509 0.791717
-0.124872 0.0233088 0.791623
-0.125981 0.0241607 0.791395
-0.127123 0.0250223 0.791406
-0.128264 0.0258833 0.791416
-0.129395 0.0267415 0.791353
-0.130557 0.027609 0.791514
-0.131745 0.0284847 0.791854
-0.132949 0.0293663 0.792303
-0.134156 0.0302488 0.79277
-0.135382 0.0311383 0.793351
-0.136597 0.0320248 0.793849
-0.137826 0.0329164 0.794436
-0.139111 0.0338272 0.79538
-0.140441 0.0347548 0.79661
-0.141776 0.0356851 0.797857
-0.143135 0.036625 0.799239
-0.144483 0.0375627 0.800519
-0.146102 0.0385973 0.803523
-0.148355 0.0398605 0.810507
-0.157318 0.0445021 0.84446
-0.159914 0.045928 0.853001
-0.161825 0.0471075 0.857205
-0.16315 0.0480709 0.8578
-0.164462 0.0490302 0.858302
-0.165757 0.0499835 0.858695
-0.167018 0.0509242 0.85889
0.0148469 -0.0842492 0.795346
0.0136712 -0.0833032 0.79445
0.0125055 -0.082382 0.793821
0.0113315 -0.0814305 0.792821
0.0101456 -0.0804333 0.791256
0.00896909 -0.0794572 0.789902
0.00779816 -0.0784901 0.788628
0.00663133 -0.0775288 0.787391
0.0054763 -0.0766027 0.786561
0.00433153 -0.0757111 0.786146
0.0031897 -0.0748287 0.785836
0.00205281 -0.0739659 0.785773
0.000916009 -0.0731033 0.78571
-0.000220482 -0.0722404 0.785641
-0.00135684 -0.0713775 0.785571
-0.00249228 -0.0705204 0.785576
-0.00362741 -0.069664 0.785592
-0.00476201 -0.0688131 0.785684
-0.00589687 -0.0679618 0.785774
-0.0070319 -0.0671099 0.785859
-0.00816724 -0.066258 0.785943
-0.00930172 -0.0654274 0.786349
-0.0104372 -0.0645984 0.78679
-0.0115738 -0.0637796 0.787402
-0.0127123 -0.0629739 0.788237
-0.0138527 -0.0621617 0.788998
-0.0149953 -0.0613489 0.789771
-0.0161403 -0.0605393 0.790623
-0.0172867 -0.0597187 0.791322
-0.0184334 -0.058887 0.791853
-0.0195836 -0.0580662 0.792593
-0.0207335 -0.0572318 0.793119
-0.0218868 -0.0564065 0.793826
-0.0230472 -0.0556011 0.794923
-0.0242145 -0.0548085 0.796295
-0.0253869 -0.054018 0.797764
-0.0265652 -0.0532304 0.799342
-0.0277473 -0.0524384 0.800897
-0.028927 -0.0516269 0.802126
-0.0301077 -0.0508078 0.803247
-0.0312916 -0.0499868 0.804378
-0.0324733 -0.0491533 0.805287
-0.0336488 -0.0483025 0.805861
-0.0348284 -0.0474548 0.806526
-0.0360028 -0.0465949 0.806944
-0.0371769 -0.0457323 0.807317
-0.0383601 -0.0448797 0.807952
-0.0395478 -0.0440297 0.80868
-0.0407343 -0.0431745 0.80931
-0.0474637 -0.0395465 0.831763
-0.0487079 -0.0386818 0.832921
-0.0499296 -0.0377952 0.83348
-0.0511773 -0.0369252 0.834596
-0.0523694 -0.0360134 0.834419
-0.0535729 -0.0351095 0.834499
-0.0547434 -0.034186 0.833888
-0.0559097 -0.0332622 0.833229
-0.0570238 -0.0323136 0.831572
-0.0581416 -0.0313723 0.830075
-0.0592519 -0.0304325 0.828512
-0.0603737 -0.0295027 0.827239
-0.0614932 -0.0285758 0.825984
-0.0626 -0.0276481 0.824567
-0.0636806 -0.0267156 0.82277
-0.064739 -0.025781 0.820683
-0.0657805 -0.0248475 0.818417
-0.0668176 -0.0239191 0.816176
-0.067862 -0.0229985 0.814142
-0.0689181 -0.0220861 0.812371
-0.0699874 -0.0211813 0.810869
-0.0710598 -0.0202808 0.809473
-0.0721356 -0.0193846 0.808179
-0.0732027 -0.01849 0.806813
-0.0742523 -0.0175963 0.805255
-0.0753138 -0.0167079 0.803916
-0.0763682 -0.0158217 0.802531
-0.0774408 -0.0149405 0.801433
-0.0785124 -0.0140616 0.80036
-0.0795911 -0.0131857 0.799416
-0.0806279 -0.0123097 0.797981
-0.0816584 -0.0114366 0.796516
-0.0826587 -0.0105656 0.794735
-0.083668 -0.00969849 0.793118
-0.0846886 -0.00883476 0.791682
-0.0857558 -0.00797335 0.790829
-0.0868673 -0.00711274 0.790502
-0.0880385 -0.00625088 0.790851
-0.0892876 -0.00538485 0.792048
-0.0905602 -0.00451537 0.793463
-0.0918525 -0.00364202 0.795047
-0.0931222 -0.00276745 0.79635
-0.0943676 -0.00189255 0.797365
-0.0955601 -0.00102082 0.797812
-0.0967273 -0.000150774 0.797991
-0.0978612 0.000715752 0.797834
-0.0989666 0.00157874 0.797401
-0.100061 0.00243953 0.796872
-0.101145 0.00329792 0.79626
-0.102221 0.00415432 0.795588
-0.103296 0.00500926 0.79492
-0.104385 0.00586538 0.794396
-0.105482 0.00672216 0.793968
-0.106582 0.0075786 0.793569
-0.1077 0.00843763 0.793342
-0.108835 0.00929959 0.793269
-0.10997 0.0101613 0.793199
-0.111105 0.011023 0.793136
-0.112249 0.0118864 0.793146
-0.113393 0.0127499 0.793157
-0.114538 0.0136133 0.793168
-0.115672 0.0144744 0.793098
-0.116815 0.0153377 0.7931
-0.117928 0.0161936 0.79287
-0.119069 0.017056 0.792862
-0.120173 0.0179092 0.79256
-0.121306 0.0187695 0.792484
-0.122397 0.0196187 0.792099
-0.123515 0.0204746 0.791922
-0.124601 0.0213215 0.791507
-0.125728 0.0221792 0.791406
-0.126836 0.0230312 0.791173
-0.127977 0.0238928 0.791183
-0.129129 0.0247569 0.791269
-0.130281 0.0256214 0.79136
-0.131456 0.0264924 0.791609
-0.132657 0.0273721 0.792033
-0.133861 0.0282527 0.792479
-0.135058 0.029132 0.792859
-0.136262 0.0300138 0.793289
-0.137478 0.0308998 0.793786
-0.138699 0.031788 0.794312
-0.14001 0.032706 0.795426
-0.141354 0.0336356 0.796743
-0.142703 0.0345687 0.798064
-0.144063 0.0355072 0.799436
-0.145712 0.036545 0.802644
-0.147678 0.0376944 0.807825
-0.150326 0.0390851 0.817225
-0.156423 0.0421795 0.840538
-0.159107 0.0436158 0.84966
-0.161353 0.0449045 0.855959
-0.162938 0.0459603 0.858137
-0.164264 0.0469239 0.858724
-0.165581 0.0478849 0.859242
-0.16688 0.0488397 0.859655
0.0128184 -0.0844582 0.794446
0.0116521 -0.083533 0.793782
0.0104761 -0.0825709 0.792678
0.0092935 -0.081578 0.791188
0.00812185 -0.080613 0.789991
0.00695379 -0.0796516 0.788808
0.00578943 -0.0786947 0.78765
0.00463307 -0.0777608 0.786745
0.00348654 -0.0768612 0.786243
0.00234197 -0.0759654 0.785774
0.0012036 -0.0750956 0.785626
6.68602e-05 -0.0742329 0.785563
-0.00106874 -0.0733759 0.785573
-0.00220434 -0.0725189 0.785584
-0.00333994 -0.0716619 0.785595
-0.00447553 -0.0708049 0.785605
-0.00561047 -0.0699532 0.78569
-0.00674571 -0.0691018 0.78578
-0.00788103 -0.0682504 0.785872
-0.0090162 -0.0674094 0.786117
-0.0101515 -0.0665847 0.786605
-0.0112881 -0.0657561 0.787051
-0.0124259 -0.0649328 0.78759
-0.0135657 -0.0641269 0.788414
-0.0147072 -0.0633104 0.789097
-0.0158507 -0.0624937 0.789798
-0.0169963 -0.0616802 0.790573
-0.0181436 -0.0608601 0.791268
-0.0192898 -0.0600191 0.791636
-0.020439 -0.0591895 0.792211
-0.0215889 -0.0583551 0.792723
-0.0227418 -0.0575261 0.793344
-0.0239007 -0.0567136 0.794284
-0.0250683 -0.0559215 0.795628
-0.0262417 -0.0551337 0.797099
-0.0274195 -0.0543445 0.798599
-0.0286011 -0.0535516 0.800089
-0.0297826 -0.0527455 0.801379
-0.0309621 -0.0519247 0.802427
-0.0321443 -0.0511017 0.803471
-0.0333259 -0.0502699 0.804378
-0.0345009 -0.0494204 0.804947
-0.0356806 -0.0485749 0.805628
-0.0368569 -0.0477199 0.806127
-0.0380331 -0.0468619 0.80658
-0.0392163 -0.0460109 0.807221
-0.0404065 -0.0451656 0.808021
-0.0415932 -0.0443117 0.808655
-0.0420494 -0.0424595 0.813606
-0.0428484 -0.0435316 0.811165
-0.0433794 -0.0417393 0.817995
-0.0441066 -0.0427424 0.813575
-0.044718 -0.0410073 0.822302
-0.0453706 -0.0419479 0.81597
-0.0492396 -0.0395665 0.824056
-0.050493 -0.0387228 0.825595
-0.0517813 -0.0378982 0.827814
-0.0530164 -0.0370286 0.828761
-0.0542772 -0.0361721 0.830192
-0.0554941 -0.0352837 0.830651
-0.0566986 -0.0343866 0.830841
-0.0578486 -0.0334597 0.829969
-0.0589976 -0.0325352 0.829121
-0.0601152 -0.0315986 0.82774
-0.0612407 -0.0306702 0.826569
-0.0623683 -0.0297462 0.825489
-0.0634831 -0.0288207 0.824239
-0.0645722 -0.0278895 0.822617
-0.0656349 -0.0269544 0.820634
-0.0666903 -0.0260226 0.818623
-0.0677319 -0.0250924 0.81648
-0.0687749 -0.0241687 0.814446
-0.0698246 -0.0232521 0.812596
-0.0708862 -0.0223432 0.810996
-0.0719463 -0.0214381 0.809435
-0.0730149 -0.0205386 0.808053
-0.0740746 -0.0196411 0.806603
-0.0751282 -0.0187464 0.805121
-0.0761889 -0.017856 0.803788
-0.0772482 -0.0169687 0.802484
-0.0783268 -0.0160865 0.801475
-0.0794106 -0.0152073 0.800569
-0.080497 -0.0143303 0.799725
-0.0815464 -0.0134527 0.798454
-0.0825759 -0.0125768 0.796984
-0.0835744 -0.0117027 0.795192
-0.0845818 -0.0108328 0.793561
-0.0856014 -0.00996645 0.792123
-0.08667 -0.00910324 0.791285
-0.0877971 -0.00824132 0.791126
-0.0889791 -0.00737881 0.791579
-0.0902387 -0.00651324 0.792861
-0.0915219 -0.00564419 0.794359
-0.0928163 -0.004772 0.795933
-0.0940889 -0.00389792 0.797237
-0.0953432 -0.00302289 0.798318
-0.0965369 -0.00215059 0.798755
-0.0977056 -0.00127964 0.798932
-0.0988571 -0.000410068 0.798935
-0.0999665 0.000455136 0.798528
-0.101065 0.00131814 0.798023
-0.102151 0.00217905 0.79742
-0.10322 0.00303661 0.796675
-0.10427 0.00389035 0.795762
-0.105339 0.00474518 0.795057
-0.106416 0.00560033 0.794434
-0.107496 0.00645478 0.793859
-0.108604 0.00731298 0.79354
-0.109739 0.00817525 0.793456
-0.110873 0.00903715 0.793378
-0.112008 0.0098994 0.793307
-0.113153 0.0107632 0.793318
-0.114298 0.0116271 0.793329
-0.115433 0.0124887 0.793265
-0.116558 0.0133486 0.79312
-0.117691 0.0142097 0.793041
-0.118805 0.0150664 0.792812
-0.119938 0.0159269 0.792733
-0.12105 0.0167828 0.792497
-0.122191 0.0176452 0.79249
-0.123291 0.0184972 0.792172
-0.124411 0.0193542 0.792002
-0.125507 0.0202047 0.791666
-0.126635 0.0210628 0.791571
-0.127744 0.0219159 0.791344
-0.128886 0.0227775 0.791355
-0.130039 0.0236425 0.791446
-0.131193 0.0245077 0.791545
-0.13236 0.0253765 0.791734
-0.133551 0.0262527 0.792082
-0.134745 0.0271297 0.792449
-0.135928 0.0280042 0.792731
-0.137131 0.0288853 0.793152
-0.138349 0.0297709 0.793655
-0.139572 0.0306592 0.794191
-0.140895 0.0315789 0.795376
-0.142251 0.0325109 0.796759
-0.143604 0.033443 0.798101
-0.144979 0.0343843 0.799552
-0.146655 0.0354257 0.802911
-0.148984 0.036687 0.810351
-0.15825 0.0413004 0.846015
-0.160931 0.0427233 0.855007
-0.162853 0.0438917 0.859247
-0.164152 0.0448455 0.85966
-0.165498 0.0458161 0.86035
-0.166834 0.0467838 0.860962
0.011969 -0.0856262 0.794578
0.0108033 -0.084701 0.79393
0.00962897 -0.0837407 0.792867
0.00844741 -0.0827458 0.791382
0.00727658 -0.0817794 0.790193
0.00610927 -0.0808163 0.789013
0.00494559 -0.079858 0.787862
0.00378826 -0.0789164 0.786886
0.00264013 -0.0780079 0.786287
0.00149412 -0.0771034 0.785723
0.000354362 -0.0762261 0.785484
-0.000783367 -0.0753568 0.785342
-0.00191896 -0.0744998 0.785352
-0.00305457 -0.0736428 0.785363
-0.00418946 -0.0727914 0.785447
-0.00532458 -0.0719403 0.785537
-0.00645926 -0.071095 0.785709
-0.00759449 -0.0702499 0.785888
-0.00872979 -0.0694097 0.786139
-0.0098656 -0.0685753 0.78648
-0.0110021 -0.0677519 0.786987
-0.01214 -0.066924 0.787444
-0.0132792 -0.0661047 0.788042
-0.0144205 -0.0652943 0.78879
-0.0155633 -0.0644734 0.789401
-0.0167076 -0.0636515 0.790017
-0.0178541 -0.0628328 0.7907
-0.0190009 -0.0620027 0.791225
-0.0201475 -0.0611608 0.791576
-0.0212957 -0.0603222 0.791992
-0.0224461 -0.0594877 0.792489
-0.0235981 -0.0586537 0.793014
-0.0247566 -0.0578382 0.793876
-0.0259217 -0.0570353 0.794994
-0.0270959 -0.0562497 0.796462
-0.0282731 -0.0554584 0.797879
-0.0294555 -0.0546679 0.799367
-0.0306359 -0.0538601 0.80058
-0.0318171 -0.0530442 0.801687
-0.0329973 -0.0522183 0.802636
-0.0341766 -0.0513837 0.80345
-0.035349 -0.0505316 0.803934
-0.0365281 -0.0496875 0.804608
-0.0377042 -0.0488346 0.805121
-0.0388825 -0.047982 0.805664
-0.0400682 -0.0471363 0.806386
-0.0412612 -0.0462961 0.807267
-0.0424507 -0.045447 0.807984
-0.0436442 -0.0445991 0.808761
-0.044831 -0.0437401 0.809302
-0.0460158 -0.0428767 0.80976
-0.0466798 -0.0411845 0.819339
-0.0472509 -0.0420587 0.811425
-0.0497638 -0.0404368 0.815428
-0.0510414 -0.0396302 0.817723
-0.0523632 -0.0388473 0.820846
-0.0536347 -0.0380169 0.82273
-0.0549368 -0.0371995 0.825138
-0.0561892 -0.0363426 0.826426
-0.0574297 -0.0354738 0.827417
-0.05861 -0.0345686 0.827215
-0.0597895 -0.0336634 0.82701
-0.0609331 -0.0327417 0.82617
-0.0620759 -0.0318223 0.825354
-0.0632175 -0.030905 0.824557
-0.0643453 -0.0299846 0.823564
-0.0654431 -0.0290559 0.822122
-0.0665143 -0.0281221 0.820316
-0.0675796 -0.0271919 0.818495
-0.068631 -0.0262624 0.816534
-0.0696844 -0.0253391 0.814683
-0.0707434 -0.0244223 0.812988
-0.0718045 -0.0235106 0.811392
-0.0728621 -0.0226025 0.809808
-0.073923 -0.0216991 0.808328
-0.0749692 -0.0207967 0.806702
-0.0760101 -0.0198975 0.805064
-0.0770637 -0.0190043 0.803653
-0.0781225 -0.0181153 0.802359
-0.0792061 -0.0172324 0.801427
-0.080303 -0.0163532 0.800692
-0.0813967 -0.0154755 0.799943
-0.0824591 -0.0145969 0.798839
-0.0834955 -0.0137189 0.797461
-0.084499 -0.0128422 0.795739
-0.0855061 -0.0119693 0.794112
-0.0865317 -0.0111004 0.792745
-0.0876002 -0.0102352 0.791903
-0.0887288 -0.00937221 0.791753
-0.0899206 -0.0085094 0.792294
-0.0911835 -0.00764448 0.793584
-0.0924685 -0.00677656 0.795071
-0.0937645 -0.00590548 0.796632
-0.0950385 -0.00503235 0.797925
-0.096288 -0.00415811 0.798932
-0.0974833 -0.00328543 0.79937
-0.098654 -0.00241394 0.799554
-0.0998153 -0.00154273 0.799641
-0.100935 -0.000675225 0.799329
-0.102052 0.000191449 0.798995
-0.103151 0.00105553 0.798495
-0.104229 0.00191634 0.797829
-0.105278 0.00277244 0.796901
-0.106348 0.0036297 0.796187
-0.107416 0.0044856 0.79548
-0.108488 0.00534076 0.79482
-0.109587 0.00619892 0.79441
-0.110711 0.00706061 0.794229
-0.111837 0.00792212 0.794064
-0.112964 0.0087836 0.793916
-0.114119 0.00964991 0.794003
-0.115265 0.0105145 0.79402
-0.116392 0.0113759 0.793876
-0.117516 0.0122363 0.793714
-0.118639 0.013096 0.793541
-0.119742 0.0139514 0.793224
-0.120866 0.0148108 0.793071
-0.121979 0.0156674 0.792839
-0.123109 0.0165274 0.792746
-0.124219 0.0173831 0.792497
-0.12534 0.0182407 0.792331
-0.12645 0.0190957 0.792097
-0.127581 0.019955 0.792019
-0.128701 0.0208119 0.791868
-0.129844 0.0216742 0.791877
-0.13101 0.0225429 0.792048
-0.132167 0.0234089 0.792165
-0.133348 0.0242823 0.792439
-0.134518 0.0251525 0.79263
-0.135686 0.0260226 0.792811
-0.136843 0.0268894 0.792911
-0.138035 0.0277664 0.793244
-0.139253 0.0286518 0.793751
-0.140618 0.0295814 0.795217
-0.142072 0.03054 0.797247
-0.143445 0.0314755 0.798714
-0.144803 0.0324089 0.800055
-0.146147 0.0333393 0.801284
-0.148021 0.0344385 0.805858
-0.150635 0.0357817 0.815016
-0.160078 0.0404024 0.851418
-0.162424 0.0417013 0.858271
-0.164043 0.0427622 0.860618
-0.165361 0.0437223 0.861134
0.0122825 -0.0877113 0.795232
0.0111146 -0.0867807 0.794552
0.00995073 -0.0858591 0.793957
0.00878191 -0.0849152 0.793096
0.00760475 -0.0839309 0.79176
0.00643604 -0.0829696 0.790654
0.00526909 -0.0820047 0.789481
0.00410576 -0.0810446 0.788336
0.00294809 -0.0800992 0.787336
0.00179825 -0.0791817 0.786649
0.000650565 -0.0782675 0.785984
-0.000490714 -0.0773824 0.785659
-0.00162898 -0.076512 0.785509
-0.00276584 -0.0756487 0.785445
-0.00390194 -0.0747909 0.785451
-0.0050373 -0.0739395 0.785538
-0.00617278 -0.0730891 0.785639
-0.00730814 -0.0722452 0.785831
-0.00844327 -0.0714119 0.786171
-0.00957922 -0.070579 0.786525
-0.0107161 -0.0697514 0.786961
-0.011854 -0.0689342 0.787557
-0.0129934 -0.0681113 0.788089
-0.0141345 -0.0672919 0.788686
-0.0152774 -0.0664761 0.789353
-0.0164213 -0.065649 0.789873
-0.0175665 -0.0648217 0.790403
-0.0187131 -0.0639922 0.790917
-0.0198595 -0.0631509 0.791262
-0.0210065 -0.0623082 0.791597
-0.0221545 -0.0614646 0.791928
-0.0233045 -0.0606261 0.792351
-0.0244559 -0.0597878 0.792793
-0.0256139 -0.0589682 0.793568
-0.026777 -0.0581572 0.794517
-0.0279508 -0.057369 0.7959
-0.0291273 -0.0565752 0.797236
-0.0303105 -0.0557868 0.798714
-0.0314913 -0.0549804 0.799919
-0.0326708 -0.054162 0.800939
-0.0338491 -0.0533332 0.8018
-0.0350277 -0.0524992 0.802589
-0.0361971 -0.0516438 0.802983
-0.0373737 -0.0507976 0.80358
-0.0385512 -0.0499492 0.804158
-0.0397295 -0.0490986 0.804712
-0.0409153 -0.0482552 0.805446
-0.0421115 -0.0474209 0.80642
-0.0433038 -0.0465771 0.807219
-0.0444978 -0.0457311 0.808003
-0.0456875 -0.0448768 0.808628
-0.0468722 -0.0440145 0.809085
-0.0480574 -0.0431506 0.809526
-0.0484878 -0.0412348 0.813022
-0.0492362 -0.0422791 0.809791
-0.0504552 -0.0414407 0.81095
-0.0516847 -0.0406056 0.812266
-0.0529609 -0.0398006 0.814503
-0.0542462 -0.0389932 0.816802
-0.0555669 -0.0382009 0.819687
-0.0568496 -0.0373738 0.821681
-0.0581194 -0.0365317 0.823326
-0.0593365 -0.0356537 0.823909
-0.0605493 -0.0347717 0.824387
-0.0617248 -0.0338693 0.824184
-0.0628868 -0.0329612 0.823758
-0.0640474 -0.0320539 0.823323
-0.0651842 -0.031138 0.822519
-0.0662964 -0.0302149 0.821352
-0.0673869 -0.0292874 0.819892
-0.068468 -0.028361 0.818349
-0.0695355 -0.0274347 0.816661
-0.0706053 -0.0265138 0.815075
-0.0716649 -0.0255946 0.813404
-0.0727194 -0.0246786 0.811722
-0.073769 -0.023766 0.810037
-0.0748157 -0.0228572 0.808377
-0.0758475 -0.0219497 0.806574
-0.0768858 -0.021048 0.804921
-0.0779317 -0.0201516 0.803427
-0.0789892 -0.0192609 0.802133
-0.080078 -0.0183777 0.801279
-0.0811875 -0.0174991 0.800708
-0.0822891 -0.016621 0.800061
-0.0833659 -0.0157419 0.799138
-0.0844154 -0.0148629 0.797923
-0.0854263 -0.0139837 0.796297
-0.0864329 -0.0131078 0.794672
-0.0874582 -0.0122363 0.793307
-0.0885263 -0.0113691 0.792459
-0.0896549 -0.0105052 0.792296
-0.090847 -0.00964218 0.792824
-0.0921056 -0.00877829 0.794044
-0.0933921 -0.00791165 0.795522
-0.0946903 -0.00704181 0.797081
-0.0959587 -0.00617001 0.798293
-0.0972034 -0.00529681 0.799233
-0.0984009 -0.00442408 0.799682
-0.0995808 -0.00355172 0.799946
-0.100744 -0.00268003 0.800042
-0.101881 -0.00181016 0.799893
-0.103017 -0.000940701 0.799726
-0.104132 -7.33882e-05 0.799381
-0.105221 0.000790368 0.798798
-0.10628 0.00164998 0.797959
-0.107351 0.00250951 0.797248
-0.108422 0.00336778 0.796552
-0.109496 0.00422537 0.795899
-0.110596 0.00508536 0.79549
-0.111722 0.00594866 0.795311
-0.112849 0.00681169 0.795142
-0.113977 0.00767461 0.79499
-0.115125 0.00854045 0.795007
-0.116264 0.00940503 0.794945
-0.117381 0.0102657 0.794712
-0.118494 0.0111246 0.794452
-0.119604 0.0119831 0.794177
-0.120698 0.012838 0.793772
-0.121811 0.0136959 0.793532
-0.122915 0.0145515 0.79322
-0.124045 0.0154124 0.793124
-0.125168 0.0162715 0.792971
-0.126322 0.0171372 0.793053
-0.1275 0.0180088 0.793308
-0.128669 0.0188786 0.79349
-0.129836 0.0197484 0.793659
-0.131035 0.0206256 0.794052
-0.132249 0.021508 0.794546
-0.133437 0.0223839 0.794847
-0.134679 0.0232743 0.795515
-0.135942 0.0241707 0.796324
-0.137188 0.025064 0.796994
-0.138412 0.0259523 0.797513
-0.139661 0.026848 0.798182
-0.140936 0.027752 0.799009
-0.142285 0.028678 0.800319
-0.1437 0.029625 0.802033
-0.145051 0.0305554 0.8033
-0.146378 0.0314797 0.804391
-0.147685 0.0323998 0.80534
-0.149479 0.0334698 0.809346
0.0104606 -0.0886551 0.802281
0.00917762 -0.0873173 0.797245
0.00793771 -0.0861055 0.793486
0.00676641 -0.0851409 0.792394
0.00559922 -0.0841838 0.791364
0.00443356 -0.0832226 0.790262
0.00327002 -0.0822597 0.789115
0.0021119 -0.0813111 0.788106
0.00095901 -0.0803781 0.787258
-0.000190397 -0.0794544 0.786501
-0.00133435 -0.0785552 0.786021
-0.00247403 -0.0776774 0.78579
-0.00361231 -0.076807 0.785646
-0.00474909 -0.0759487 0.785649
-0.00588498 -0.075097 0.785736
-0.00702111 -0.0742467 0.785844
-0.00815709 -0.0734036 0.786049
-0.00929294 -0.0725768 0.786474
-0.0104299 -0.07175 0.78691
-0.0115679 -0.0709284 0.787431
-0.0127074 -0.0701126 0.788044
-0.0138485 -0.0692943 0.78864
-0.0149911 -0.0684746 0.789232
-0.0161353 -0.0676534 0.789821
-0.0172801 -0.0668215 0.79027
-0.018426 -0.0659872 0.790698
-0.0195722 -0.0651462 0.791034
-0.0207174 -0.0642938 0.791208
-0.0218651 -0.0634511 0.791538
-0.0230127 -0.0626037 0.791804
-0.0241636 -0.0617665 0.792243
-0.0253166 -0.0609327 0.792751
-0.0264753 -0.0601132 0.793512
-0.0276365 -0.0592932 0.794291
-0.0288095 -0.0585006 0.795567
-0.0299866 -0.0577071 0.796874
-0.0311676 -0.0569119 0.798197
-0.0323478 -0.0561042 0.79934
-0.0335258 -0.055283 0.800278
-0.0347016 -0.0544506 0.80104
-0.0358757 -0.0536096 0.801667
-0.0370421 -0.0527509 0.801972
-0.0382153 -0.0519015 0.802474
-0.0393922 -0.0510548 0.803051
-0.0405697 -0.0502056 0.803599
-0.0417555 -0.0493647 0.804349
-0.0429545 -0.0485366 0.805409
-0.04415 -0.0476987 0.806298
-0.0453443 -0.046855 0.807095
-0.0465341 -0.0460024 0.807727
-0.0477212 -0.0451445 0.808258
-0.0489061 -0.0442819 0.808698
-0.0500844 -0.0434114 0.808966
-0.0512672 -0.0425436 0.809315
-0.0524588 -0.0416816 0.809834
-0.0536927 -0.0408497 0.811203
-0.0549338 -0.0400179 0.812645
-0.0562147 -0.0392078 0.814795
-0.057507 -0.0383969 0.817053
-0.0587922 -0.0375735 0.819066
-0.060036 -0.0367189 0.820225
-0.061278 -0.0358592 0.821297
-0.0624825 -0.0349765 0.821667
-0.0636684 -0.0340835 0.821706
-0.0648474 -0.0331873 0.82163
-0.0659991 -0.0322794 0.82111
-0.0671304 -0.0313649 0.820292
-0.0682425 -0.0304456 0.819208
-0.0693453 -0.0295261 0.818029
-0.0704349 -0.0286057 0.816699
-0.0715269 -0.0276901 0.815459
-0.0725983 -0.0267717 0.813969
-0.0736588 -0.0258545 0.812383
-0.0747074 -0.0249386 0.810691
-0.0757458 -0.0240249 0.808924
-0.0767569 -0.0231097 0.806856
-0.0777859 -0.0222035 0.805096
-0.0788175 -0.0213024 0.803431
-0.0798668 -0.0204084 0.802045
-0.0809493 -0.019523 0.801122
-0.082065 -0.0186445 0.800633
-0.0831674 -0.0177656 0.800003
-0.0842582 -0.0168868 0.799254
-0.0853283 -0.0160077 0.798288
-0.0863605 -0.0151277 0.796917
-0.0873758 -0.0142494 0.795395
-0.0884081 -0.0133756 0.79411
-0.089474 -0.0125062 0.793233
-0.0905948 -0.0116406 0.792974
-0.0917739 -0.0107772 0.793344
-0.0930267 -0.00991389 0.79448
-0.094301 -0.00904856 0.795807
-0.0955934 -0.00818033 0.797282
-0.0968562 -0.00730963 0.79842
-0.0981033 -0.00643732 0.799371
-0.099302 -0.00556491 0.799821
-0.100491 -0.00469211 0.800165
-0.101654 -0.0038201 0.800259
-0.102801 -0.00294902 0.800187
-0.103946 -0.00207815 0.800107
-0.105073 -0.00120892 0.799863
-0.10618 -0.000341912 0.799442
-0.107266 0.000522193 0.79884
-0.108358 0.00138599 0.798312
-0.109451 0.00224893 0.797803
-0.110546 0.00311117 0.797321
-0.111649 0.00397369 0.796923
-0.112767 0.00483749 0.796661
-0.113886 0.00570106 0.796411
-0.115007 0.00656429 0.796181
-0.116147 0.00743032 0.796118
-0.117286 0.00829588 0.79605
-0.118405 0.00915815 0.795814
-0.119518 0.0100189 0.795537
-0.120628 0.0108783 0.795254
-0.121722 0.0117347 0.794839
-0.122835 0.0125942 0.794589
-0.123949 0.0134533 0.794345
-0.125083 0.0143162 0.794259
-0.126239 0.0151832 0.794341
-0.127443 0.0160612 0.794778
-0.128685 0.0169477 0.795481
-0.129897 0.0178289 0.795951
-0.131126 0.0187143 0.796535
-0.132354 0.0196005 0.797106
-0.13359 0.0204888 0.797716
-0.134809 0.0213743 0.798204
-0.136075 0.0222722 0.799001
-0.137386 0.0231823 0.800094
-0.138694 0.0240934 0.801146
-0.139984 0.0250008 0.802061
-0.141275 0.0259099 0.802966
-0.142612 0.0268326 0.804151
-0.143984 0.0277664 0.805555
-0.14539 0.0287114 0.807147
-0.146736 0.0296414 0.808331
-0.148047 0.0305633 0.809267
-0.149317 0.0314738 0.809933
-0.151124 0.0325444 0.813953
-0.152406 0.034897 0.820371
-0.15375 0.0338661 0.822991
0.00715044 -0.0875388 0.796495
0.00592632 -0.0863524 0.793023
0.00476053 -0.0854005 0.792075
0.00359508 -0.0844383 0.79099
0.00243136 -0.0834722 0.789835
0.00127287 -0.0825211 0.788824
0.000118284 -0.0815784 0.787888
-0.00103233 -0.080647 0.787062
-0.0021778 -0.0797391 0.786496
-0.00331914 -0.0788534 0.786182
-0.00445882 -0.0779751 0.785952
-0.00559671 -0.0771099 0.785877
-0.0067335 -0.0762571 0.785955
-0.00787031 -0.0754068 0.786066
-0.00900704 -0.0745622 0.786254
-0.0101439 -0.0737353 0.786676
-0.0112818 -0.0729141 0.787184
-0.0124209 -0.0720936 0.787716
-0.0135619 -0.0712828 0.788394
-0.0147046 -0.0704707 0.789072
-0.0158488 -0.0696518 0.789675
-0.016994 -0.0688256 0.79019
-0.0181399 -0.0679925 0.790621
-0.0192855 -0.0671468 0.790883
-0.0204317 -0.0662996 0.79113
-0.0215775 -0.0654465 0.791295
-0.022726 -0.0646046 0.791634
-0.0238745 -0.0637583 0.791917
-0.0250264 -0.0629219 0.792364
-0.0261805 -0.0620889 0.79288
-0.0273389 -0.0612644 0.793551
-0.0284978 -0.0604348 0.794159
-0.0296683 -0.0596328 0.795249
-0.0308446 -0.0588358 0.796464
-0.0320228 -0.0580334 0.797627
-0.0332018 -0.0572232 0.798693
-0.0343801 -0.0564034 0.799628
-0.0355561 -0.0555724 0.800389
-0.0367299 -0.0547319 0.801
-0.0378936 -0.0538702 0.80123
-0.0390639 -0.0530174 0.801646
-0.0402374 -0.0521674 0.802128
-0.0414115 -0.0513152 0.802587
-0.042594 -0.0504721 0.803255
-0.0437958 -0.0496499 0.804389
-0.0449945 -0.0488181 0.80537
-0.0461923 -0.0479802 0.806257
-0.0473852 -0.0471328 0.80697
-0.0485727 -0.0462766 0.80751
-0.0497572 -0.0454149 0.80795
-0.0509356 -0.0445457 0.808228
-0.052118 -0.043679 0.808579
-0.0533097 -0.0428183 0.809104
-0.0545077 -0.0419605 0.809731
-0.0557089 -0.0411025 0.810384
-0.0569487 -0.0402689 0.811752
-0.0582042 -0.0394407 0.813344
-0.0594624 -0.0386082 0.814911
-0.06073 -0.0377756 0.816569
-0.0619983 -0.0369377 0.818164
-0.0632315 -0.0360755 0.819085
-0.0644406 -0.0351982 0.819563
-0.0656386 -0.034314 0.819838
-0.0668093 -0.0334167 0.819667
-0.0679619 -0.0325125 0.819219
-0.0690908 -0.0316001 0.818429
-0.0702112 -0.0306869 0.817541
-0.0713235 -0.0297737 0.816572
-0.0724329 -0.0288623 0.815597
-0.0735169 -0.0279458 0.814301
-0.0745886 -0.0270294 0.812884
-0.0756421 -0.0261121 0.811269
-0.0766735 -0.0251935 0.809418
-0.0776756 -0.0242729 0.807247
-0.0786898 -0.0233608 0.805309
-0.0797123 -0.0224554 0.803542
-0.0807595 -0.0215591 0.802145
-0.081835 -0.020671 0.80114
-0.0829504 -0.0197915 0.800651
-0.0840588 -0.0189125 0.800095
-0.085163 -0.0180341 0.799507
-0.0862422 -0.0171542 0.79865
-0.0872905 -0.0162735 0.797468
-0.0883196 -0.0153935 0.796108
-0.089359 -0.0145175 0.794901
-0.0904117 -0.0136451 0.793876
-0.0915238 -0.0127779 0.793515
-0.0926951 -0.0119136 0.793789
-0.0939344 -0.0110509 0.794762
-0.0951953 -0.0101863 0.79593
-0.0964886 -0.00931979 0.797395
-0.0977524 -0.00845038 0.798525
-0.0990007 -0.00757889 0.799475
-0.100201 -0.00670669 0.79993
-0.101398 -0.00583387 0.800347
-0.102561 -0.00496146 0.800434
-0.103709 -0.00408995 0.800369
-0.104855 -0.00321842 0.800297
-0.105992 -0.00234772 0.800142
-0.107111 -0.00147877 0.79982
-0.108218 -0.000611502 0.799407
-0.10933 0.000255653 0.799053
-0.110453 0.00112318 0.798798
-0.111579 0.00199043 0.798569
-0.112703 0.00285735 0.79834
-0.113834 0.00372443 0.798165
-0.114963 0.00459101 0.797982
-0.116084 0.0054562 0.797738
-0.117216 0.00632283 0.797587
-0.118357 0.0071902 0.797512
-0.119476 0.00805398 0.797264
-0.120592 0.00891662 0.797004
-0.121708 0.00977928 0.796744
-0.122804 0.0106384 0.796337
-0.12392 0.0114999 0.796088
-0.125044 0.0123627 0.795906
-0.126201 0.0132312 0.795978
-0.127397 0.0141078 0.796328
-0.128653 0.0149967 0.797126
-0.129951 0.015896 0.798207
-0.131209 0.0167884 0.798976
-0.132475 0.0176833 0.799785
-0.133721 0.0185752 0.800446
-0.134966 0.0194672 0.801086
-0.136209 0.0203601 0.801696
-0.137497 0.0212646 0.802607
-0.138862 0.0221887 0.804022
-0.140238 0.0231177 0.805492
-0.141607 0.0240472 0.806883
-0.142966 0.0249757 0.808182
-0.144352 0.025913 0.80964
-0.145742 0.0268529 0.811097
-0.147122 0.0277925 0.812466
-0.148439 0.0287163 0.813409
-0.149727 0.0296331 0.814154
-0.151018 0.0305519 0.814897
-0.152543 0.031539 0.817093
-0.154798 0.0327401 0.823758
0.00635714 -0.0889826 0.799523
0.0050796 -0.0875442 0.793412
0.00391578 -0.0865984 0.792552
0.00275177 -0.0856417 0.791551
0.00158805 -0.084673 0.790394
0.000430881 -0.0837273 0.789469
-0.000723916 -0.0827824 0.788532
-0.00187485 -0.0818487 0.787705
-0.00302105 -0.0809376 0.787119
-0.00416395 -0.0800434 0.786721
-0.00530515 -0.0791567 0.786402
-0.00644442 -0.0782836 0.786241
-0.00758252 -0.0774241 0.786242
-0.00872037 -0.076566 0.786263
-0.00985812 -0.0757145 0.786364
-0.0109958 -0.0748864 0.786769
-0.0121346 -0.0740649 0.787269
-0.0132747 -0.0732393 0.787729
-0.0144165 -0.0724295 0.788411
-0.0155607 -0.071624 0.789168
-0.0167058 -0.0708056 0.789771
-0.0178515 -0.0699754 0.790226
-0.0189988 -0.0691471 0.790722
-0.020145 -0.068301 0.790977
-0.0212919 -0.067454 0.791226
-0.0224384 -0.0666017 0.791406
-0.0235888 -0.0657652 0.791825
-0.0247384 -0.0649194 0.792114
-0.0258911 -0.0640829 0.792558
-0.0270463 -0.0632503 0.793077
-0.0282045 -0.0624216 0.793672
-0.029363 -0.061588 0.794208
-0.0305314 -0.0607769 0.795131
-0.0317047 -0.0599706 0.796164
-0.0328816 -0.059164 0.79723
-0.0340594 -0.0583507 0.798215
-0.0352362 -0.0575281 0.799073
-0.0364145 -0.0567024 0.799905
-0.0375886 -0.0558632 0.800519
-0.0387499 -0.0549978 0.800672
-0.03992 -0.0541459 0.801085
-0.0410932 -0.0532962 0.801556
-0.0422611 -0.0524362 0.801844
-0.0434426 -0.0515931 0.802482
-0.0446445 -0.0507725 0.803609
-0.0458406 -0.0499392 0.804517
-0.0470359 -0.0491003 0.805342
-0.0482282 -0.0482541 0.806047
-0.0494146 -0.0473985 0.806571
-0.0505989 -0.0465385 0.807016
-0.0517813 -0.0456748 0.807399
-0.0529678 -0.0448129 0.807843
-0.0541633 -0.0439567 0.808447
-0.0553568 -0.0430966 0.808983
-0.0565527 -0.0422362 0.809539
-0.0577662 -0.0413859 0.810395
-0.0589922 -0.040541 0.811443
-0.0602275 -0.039698 0.812607
-0.0614777 -0.03886 0.813982
-0.062736 -0.0380217 0.81543
-0.0639829 -0.037172 0.816621
-0.0652104 -0.0363084 0.817441
-0.0664224 -0.0354345 0.81798
-0.0676129 -0.0345489 0.818157
-0.0687872 -0.0336558 0.818079
-0.0699388 -0.0327533 0.817659
-0.0710762 -0.031847 0.817049
-0.0722053 -0.0309392 0.816342
-0.0733264 -0.030031 0.815548
-0.0744225 -0.0291168 0.814437
-0.0755074 -0.0282026 0.813214
-0.0765677 -0.0272846 0.811703
-0.0776035 -0.0263644 0.809923
-0.0786095 -0.0254415 0.80782
-0.0796165 -0.0245244 0.805801
-0.0806369 -0.0236156 0.80402
-0.0816899 -0.0227178 0.802699
-0.0827579 -0.0218264 0.801603
-0.0838599 -0.0209432 0.800949
-0.0849664 -0.0200624 0.800369
-0.0860703 -0.0191827 0.799777
-0.0871575 -0.0183023 0.799014
-0.0882218 -0.0174211 0.798017
-0.089274 -0.016541 0.796917
-0.0903211 -0.0156631 0.795793
-0.0913727 -0.0147879 0.794751
-0.0924785 -0.0139186 0.794311
-0.093643 -0.0130534 0.794496
-0.0948608 -0.0121898 0.795226
-0.0961055 -0.0113256 0.796208
-0.0973905 -0.0104603 0.797568
-0.0986392 -0.00959176 0.798533
-0.0998737 -0.00872136 0.799335
-0.101074 -0.00784975 0.799787
-0.102271 -0.00697722 0.800198
-0.103427 -0.00610517 0.800209
-0.104582 -0.00523312 0.80022
-0.105738 -0.00436107 0.80023
-0.106885 -0.00348952 0.800166
-0.108022 -0.00261869 0.800012
-0.109166 -0.00174773 0.799925
-0.11031 -0.000876834 0.79984
-0.111465 -5.20089e-06 0.799851
-0.112622 0.00086659 0.799878
-0.113768 0.00173732 0.799813
-0.114901 0.00260643 0.799645
-0.116031 0.00347495 0.799452
-0.117153 0.00434207 0.7992
-0.118276 0.00520883 0.798961
-0.11941 0.00607693 0.798806
-0.120531 0.0069426 0.798564
-0.121651 0.00780786 0.798319
-0.122782 0.0086745 0.798158
-0.123893 0.00953757 0.797853
-0.125042 0.0104062 0.797844
-0.126192 0.0112754 0.797835
-0.127377 0.0121507 0.79809
-0.1286 0.0130336 0.798627
-0.129897 0.0139315 0.799684
-0.131218 0.0148354 0.800894
-0.132496 0.0157327 0.801774
-0.133778 0.0166324 0.802664
-0.135043 0.0175292 0.803418
-0.136302 0.0184258 0.804122
-0.137572 0.019326 0.80488
-0.13889 0.0202382 0.805962
-0.140302 0.021174 0.807656
-0.141727 0.0221148 0.809403
-0.143143 0.0230563 0.811058
-0.144541 0.0239953 0.812572
-0.145966 0.0249434 0.81423
-0.147382 0.025891 0.815804
-0.148758 0.0268302 0.817092
-0.150065 0.0277535 0.817922
-0.151362 0.0286746 0.81868
-0.15267 0.0296001 0.819491
-0.154219 0.030593 0.82178
-0.1561 0.0316815 0.826064
-0.158245 0.032851 0.831884
0.0153045 -0.101058 0.868168
0.0165439 -0.10197 0.867857
0.0156108 -0.10321 0.867662
0.0143699 -0.102295 0.867934
0.0140608 -0.100133 0.868352
0.0131255 -0.101368 0.868098
0.00432683 -0.0892109 0.798846
0.00311157 -0.0880217 0.795436
0.00190644 -0.0868441 0.79208
0.000744138 -0.0858803 0.791001
-0.000412326 -0.0849392 0.790152
-0.00156632 -0.0839994 0.789298
-0.00271778 -0.0830645 0.788479
-0.00386468 -0.0821517 0.787896
-0.00500874 -0.0812536 0.787471
-0.00615137 -0.0803581 0.787066
-0.00729219 -0.0794769 0.786821
-0.00843164 -0.0786099 0.786741
-0.00957074 -0.0777441 0.786675
-0.0107095 -0.076885 0.78669
-0.0118484 -0.07605 0.787009
-0.012988 -0.075217 0.787358
-0.0141289 -0.0743906 0.787805
-0.015272 -0.0735821 0.788496
-0.0164173 -0.0727778 0.78926
-0.0175631 -0.0719555 0.789804
-0.0187095 -0.0711246 0.790246
-0.0198574 -0.0702964 0.790737
-0.0210044 -0.0694508 0.790998
-0.022152 -0.0686054 0.791269
-0.0233004 -0.0677598 0.791544
-0.0244529 -0.0669292 0.792047
-0.0256043 -0.0660877 0.792403
-0.0267581 -0.0652508 0.792839
-0.027916 -0.0644232 0.793431
-0.0290757 -0.0635951 0.794032
-0.0302356 -0.0627619 0.794575
-0.0314021 -0.0619419 0.795344
-0.0325729 -0.0611256 0.796199
-0.0337465 -0.0603092 0.797082
-0.0349225 -0.059491 0.797964
-0.0360961 -0.0586612 0.798676
-0.0372729 -0.0578327 0.799438
-0.0384496 -0.0569987 0.800127
-0.0396083 -0.0561295 0.800203
-0.0407759 -0.0552743 0.800542
-0.0419463 -0.0544211 0.800929
-0.0431075 -0.0535527 0.801041
-0.0442822 -0.052702 0.8015
-0.0454804 -0.0518789 0.802532
-0.046673 -0.0510436 0.803358
-0.0478646 -0.0502029 0.804104
-0.0490556 -0.049358 0.804793
-0.0502403 -0.0485032 0.805299
-0.0514269 -0.0476482 0.805817
-0.0526127 -0.04679 0.806289
-0.0538039 -0.0459345 0.806847
-0.055007 -0.0450866 0.807613
-0.0562 -0.0442276 0.808145
-0.0573908 -0.0433647 0.808605
-0.0585911 -0.042507 0.80922
-0.0598063 -0.0416572 0.810078
-0.0610261 -0.0408071 0.810975
-0.0622644 -0.0399651 0.812147
-0.0635068 -0.0391213 0.81334
-0.0647513 -0.0382746 0.814515
-0.0659825 -0.0374168 0.815423
-0.0672046 -0.0365515 0.816149
-0.0684063 -0.0356741 0.816531
-0.069602 -0.0347926 0.816806
-0.0707748 -0.0339007 0.81673
-0.0719286 -0.0330014 0.816382
-0.0730737 -0.0320998 0.815922
-0.0742067 -0.0311952 0.81531
-0.0753146 -0.030284 0.814377
-0.076406 -0.0293702 0.813255
-0.0774723 -0.0284523 0.81184
-0.0785139 -0.0275312 0.810155
-0.0795321 -0.0266086 0.808227
-0.0805512 -0.0256915 0.806375
-0.0815796 -0.0247815 0.804701
-0.0826389 -0.0238825 0.803461
-0.083707 -0.0229885 0.802364
-0.0848011 -0.0221019 0.801609
-0.0858991 -0.0212179 0.800923
-0.0870086 -0.0203373 0.800392
-0.0880978 -0.0194553 0.799646
-0.0891706 -0.018573 0.798743
-0.0902449 -0.017693 0.797881
-0.0913006 -0.016813 0.796845
-0.0923544 -0.0159353 0.79582
-0.0934677 -0.0150645 0.795446
-0.0946181 -0.0141971 0.795465
-0.0958059 -0.0133316 0.795865
-0.097026 -0.0124667 0.796578
-0.0982863 -0.0116017 0.797673
-0.0995112 -0.0107336 0.79839
-0.100738 -0.0098639 0.79911
-0.101947 -0.00899284 0.799638
-0.103153 -0.00812081 0.800132
-0.104318 -0.00724843 0.800227
-0.105483 -0.00637598 0.800321
-0.106647 -0.00550321 0.800407
-0.107803 -0.00463074 0.800418
-0.108951 -0.00375874 0.800353
-0.110107 -0.00288633 0.800364
-0.111264 -0.00201391 0.800382
-0.11244 -0.00113998 0.800569
-0.113619 -0.000265509 0.800773
-0.114789 0.00060854 0.800894
-0.115935 0.00148039 0.80082
-0.117077 0.0023515 0.800706
-0.118199 0.00322046 0.800444
-0.119304 0.0040866 0.800048
-0.120428 0.00495474 0.799809
-0.12156 0.00582331 0.79964
-0.122692 0.00669147 0.799478
-0.123837 0.00756144 0.799413
-0.124993 0.00843282 0.79943
-0.12618 0.00930958 0.799687
-0.12737 0.0101866 0.799958
-0.128584 0.0110686 0.800402
-0.129836 0.011958 0.80111
-0.131138 0.012857 0.802175
-0.132459 0.0137616 0.803344
-0.133738 0.0146596 0.804202
-0.135031 0.0155618 0.805142
-0.13631 0.0164625 0.805961
-0.13757 0.0173606 0.806642
-0.138864 0.0182665 0.807539
-0.140198 0.0191827 0.808693
-0.141635 0.0201235 0.810508
-0.143109 0.021075 0.812548
-0.144573 0.0220272 0.814479
-0.146014 0.0229763 0.816226
-0.147483 0.0239351 0.818125
-0.148791 0.0248567 0.818963
-0.150035 0.0257637 0.819376
-0.151339 0.0266861 0.820157
-0.152626 0.0276053 0.820824
-0.153953 0.028536 0.821727
0.0134485 -0.103581 0.868185
0.012195 -0.102621 0.868029
0.0117175 -0.0998099 0.861888
0.0108803 -0.101411 0.865369
0.00234354 -0.089695 0.80089
0.00109374 -0.0882592 0.794869
-0.000103981 -0.0870742 0.79144
-0.00126038 -0.0861314 0.790592
-0.00241327 -0.0851986 0.789836
-0.00356426 -0.0842681 0.789088
-0.00471214 -0.0833481 0.788442
-0.0058574 -0.0824421 0.787941
-0.00700066 -0.0815444 0.787525
-0.00814253 -0.0806545 0.78719
-0.00928281 -0.0797802 0.787033
-0.0104225 -0.0789133 0.786961
-0.0115621 -0.0780533 0.786972
-0.0127017 -0.0772061 0.78714
-0.0138422 -0.0763721 0.787477
-0.0149841 -0.0755462 0.787925
-0.0161277 -0.0747319 0.788535
-0.0172736 -0.0739224 0.789222
-0.0184201 -0.0730998 0.789755
-0.0195664 -0.072263 0.790111
-0.0207152 -0.0714354 0.790604
-0.0218635 -0.0705965 0.790953
-0.0230129 -0.0697586 0.791327
-0.0241643 -0.0689248 0.791767
-0.0253192 -0.0680998 0.792347
-0.0264717 -0.0672581 0.792701
-0.0276265 -0.066421 0.793134
-0.0287871 -0.0655985 0.793798
-0.0299484 -0.0647714 0.794414
-0.0311097 -0.0639387 0.79496
-0.032276 -0.0631141 0.795649
-0.0334457 -0.062292 0.796403
-0.0346159 -0.0614648 0.797099
-0.0357884 -0.0606373 0.797811
-0.0369603 -0.0598034 0.798442
-0.0381379 -0.0589758 0.799201
-0.0393153 -0.0581429 0.799893
-0.040474 -0.0572737 0.799967
-0.0416393 -0.0564146 0.800226
-0.0428037 -0.0555528 0.800447
-0.0439584 -0.0546758 0.800387
-0.045123 -0.0538126 0.800592
-0.0463142 -0.0529823 0.801444
-0.0475029 -0.0521448 0.802182
-0.0486897 -0.0513011 0.80283
-0.049876 -0.0504538 0.803429
-0.0510624 -0.0496038 0.803994
-0.0522482 -0.0487505 0.804517
-0.0534377 -0.0478984 0.805084
-0.0546366 -0.0470523 0.805813
-0.0558442 -0.0462102 0.806674
-0.0570377 -0.0453534 0.807222
-0.0582316 -0.0444948 0.807752
-0.0594275 -0.0436353 0.808289
-0.0606291 -0.0427778 0.808905
-0.061843 -0.0419262 0.809707
-0.0630696 -0.0410797 0.810687
-0.0642954 -0.0402291 0.811611
-0.0655276 -0.039379 0.8126
-0.0667621 -0.0385266 0.81358
-0.0679834 -0.0376642 0.814318
-0.069201 -0.0367974 0.814967
-0.070414 -0.0359265 0.815523
-0.0716032 -0.0350434 0.815711
-0.0727737 -0.0341519 0.815621
-0.0739354 -0.0332572 0.815414
-0.0750798 -0.0323567 0.814972
-0.0762051 -0.031451 0.81429
-0.0773081 -0.0305398 0.813336
-0.0783866 -0.0296237 0.812095
-0.0794406 -0.0287038 0.810582
-0.0804722 -0.027782 0.808838
-0.0815 -0.0268641 0.807106
-0.0825432 -0.0259545 0.805619
-0.0836111 -0.0250544 0.804476
-0.08468 -0.0241577 0.803383
-0.085767 -0.0232673 0.802535
-0.0868644 -0.022381 0.801833
-0.0879735 -0.0214985 0.801286
-0.0890703 -0.0206152 0.800616
-0.0901587 -0.0197325 0.799878
-0.0912576 -0.0188529 0.799273
-0.0923305 -0.0179719 0.798408
-0.0933868 -0.0170911 0.797395
-0.0945018 -0.0162181 0.797017
-0.0956304 -0.0153468 0.796789
-0.0967786 -0.0144775 0.796765
-0.0979579 -0.0136099 0.797051
-0.0991914 -0.0127443 0.797861
-0.100383 -0.0118754 0.798249
-0.101602 -0.0110065 0.798885
-0.10282 -0.0101362 0.799495
-0.104037 -0.00926477 0.80008
-0.105204 -0.00839238 0.800195
-0.106379 -0.0075197 0.800374
-0.107553 -0.00664659 0.800541
-0.10871 -0.00577374 0.800553
-0.109867 -0.00490085 0.80057
-0.111051 -0.00402683 0.80082
-0.112229 -0.00315249 0.801008
-0.113428 -0.00227653 0.801378
-0.114629 -0.00139981 0.801751
-0.115811 -0.000523956 0.801958
-0.116951 0.000348713 0.801818
-0.118085 0.00122054 0.801639
-0.119199 0.00208977 0.801296
-0.120304 0.00295738 0.80089
-0.121428 0.00382688 0.800645
-0.122571 0.00469822 0.800547
-0.123715 0.00556934 0.800462
-0.124881 0.00644334 0.800549
-0.126072 0.00732064 0.800822
-0.127299 0.00820369 0.801362
-0.12853 0.00908865 0.801911
-0.129775 0.00997643 0.802557
-0.131041 0.0108687 0.803337
-0.13232 0.0117645 0.804202
-0.133582 0.0126583 0.804931
-0.134833 0.0135516 0.805566
-0.136091 0.0144471 0.806235
-0.137327 0.0153392 0.806742
-0.138556 0.0162307 0.807195
-0.139839 0.0171338 0.808003
-0.141137 0.0180414 0.808904
-0.142489 0.0189614 0.810142
-0.143909 0.0198981 0.811805
-0.145327 0.0208369 0.81343
-0.146752 0.0217791 0.815069
-0.148188 0.0227266 0.816752
-0.149549 0.0236587 0.817926
-0.150832 0.0245736 0.81859
-0.152166 0.025502 0.819564
-0.153471 0.026424 0.820345
-0.15483 0.0273614 0.821436
0.0137952 -0.105884 0.869118
0.0125348 -0.104902 0.868762
0.0112746 -0.103918 0.868379
0.0100182 -0.102947 0.868112
0.000314109 -0.0899428 0.800415
-0.000923075 -0.0884908 0.794242
-0.00211051 -0.0873187 0.790959
-0.00326272 -0.0863918 0.790285
-0.00441364 -0.0854611 0.789554
-0.00556124 -0.0845467 0.788988
-0.00670744 -0.0836326 0.788413
-0.00785125 -0.0827328 0.787988
-0.00899394 -0.0818352 0.787578
-0.0101351 -0.0809532 0.787339
-0.0112755 -0.0800796 0.787196
-0.0124156 -0.0792192 0.787207
-0.0135559 -0.0783654 0.787297
-0.014697 -0.0775247 0.787551
-0.0158395 -0.0766974 0.787979
-0.0169842 -0.0758832 0.788583
-0.0181306 -0.0750688 0.7892
-0.0192778 -0.0742454 0.789715
-0.0204244 -0.0734073 0.790051
-0.0215737 -0.0725796 0.790536
-0.0227228 -0.0717421 0.7909
-0.0238751 -0.0709166 0.791438
-0.02503 -0.0700949 0.792044
-0.0261876 -0.0692765 0.792713
-0.0273426 -0.0684404 0.79315
-0.0285006 -0.0676092 0.79367
-0.0296632 -0.0667878 0.794347
-0.0308262 -0.0659609 0.794964
-0.031991 -0.0651334 0.795591
-0.033157 -0.0643033 0.796197
-0.0343241 -0.0634707 0.796783
-0.0354908 -0.0626326 0.7973
-0.0366618 -0.0617995 0.797913
-0.0378323 -0.060961 0.79846
-0.0390086 -0.0601299 0.799146
-0.0401866 -0.0592971 0.799829
-0.0413451 -0.0584269 0.799888
-0.0425051 -0.057559 0.799988
-0.0436635 -0.056688 0.800039
-0.0448137 -0.0558051 0.799872
-0.0459741 -0.0549371 0.799975
-0.0471586 -0.0540994 0.800656
-0.0483433 -0.0532584 0.801301
-0.0495259 -0.0524117 0.801857
-0.0507081 -0.0515619 0.802374
-0.0518865 -0.0507057 0.802782
-0.0530715 -0.0498541 0.803301
-0.0542643 -0.0490076 0.803953
-0.0554679 -0.0481679 0.804783
-0.0566763 -0.0473291 0.805668
-0.0578733 -0.0464769 0.806289
-0.0590713 -0.045623 0.8069
-0.0602667 -0.0447649 0.807436
-0.0614641 -0.0439061 0.807982
-0.0626727 -0.0430527 0.808694
-0.0638886 -0.0422013 0.809497
-0.0651017 -0.0413455 0.81022
-0.0663215 -0.0404908 0.811018
-0.0675488 -0.0396377 0.811901
-0.0687744 -0.0387806 0.812723
-0.0700081 -0.0379249 0.813633
-0.0712322 -0.0370615 0.814366
-0.072434 -0.0361858 0.814749
-0.0736221 -0.0353029 0.814923
-0.0747914 -0.0344119 0.814832
-0.075936 -0.0335116 0.814407
-0.0770665 -0.0326075 0.81381
-0.0781741 -0.0316974 0.812935
-0.0792584 -0.0307821 0.811787
-0.0803248 -0.0298647 0.810452
-0.0813815 -0.0289482 0.809044
-0.082424 -0.0280318 0.807505
-0.0834881 -0.0271252 0.806278
-0.0845709 -0.0262263 0.805314
-0.0856534 -0.0253299 0.804377
-0.0867351 -0.0244359 0.80346
-0.0878403 -0.0235488 0.802837
-0.0889576 -0.0226654 0.802368
-0.0900565 -0.0217802 0.801711
-0.0911543 -0.0208965 0.801062
-0.0922841 -0.0200188 0.800774
-0.0933764 -0.0191372 0.8001
-0.0944437 -0.0182542 0.799186
-0.0955687 -0.0173792 0.798885
-0.0966964 -0.0165052 0.798623
-0.0978048 -0.0156303 0.798175
-0.0989487 -0.0147589 0.798087
-0.10014 -0.0138904 0.798464
-0.101305 -0.0130199 0.798578
-0.102492 -0.0121501 0.798901
-0.103703 -0.0112801 0.799439
-0.104914 -0.0104092 0.799959
-0.106083 -0.00953675 0.800086
-0.107251 -0.0086641 0.800199
-0.108434 -0.00779114 0.800448
-0.1096 -0.00691803 0.800547
-0.110777 -0.00604437 0.800728
-0.111982 -0.00516947 0.801151
-0.11318 -0.00429406 0.801506
-0.114399 -0.00341685 0.80203
-0.115612 -0.00253917 0.802485
-0.116806 -0.00166188 0.802781
-0.117957 -0.000787176 0.802718
-0.119102 8.68323e-05 0.802611
-0.120206 0.000956732 0.802181
-0.12131 0.00182585 0.801763
-0.122424 0.00269543 0.80143
-0.123558 0.00356674 0.801262
-0.124694 0.0044381 0.801104
-0.125883 0.00531527 0.801352
-0.12711 0.00619815 0.801883
-0.128366 0.00708544 0.802616
-0.129629 0.00797524 0.803378
-0.130897 0.00886687 0.804171
-0.132141 0.00975601 0.804779
-0.133374 0.0106448 0.80529
-0.134587 0.0115305 0.805649
-0.135798 0.0124168 0.805997
-0.13701 0.0133035 0.806337
-0.138224 0.0141914 0.806689
-0.139455 0.0150825 0.80715
-0.140725 0.0159821 0.807869
-0.142012 0.0168862 0.808682
-0.143338 0.0177992 0.809735
-0.144741 0.0187295 0.811283
-0.146133 0.01966 0.812728
-0.147559 0.0205998 0.814368
-0.148985 0.0215422 0.815978
-0.150359 0.0224749 0.817238
-0.151643 0.0233887 0.817903
-0.152986 0.0243174 0.818934
-0.154284 0.0252366 0.819664
-0.155646 0.0261725 0.820776
0.0141778 -0.108328 0.871308
0.0129015 -0.107293 0.870482
0.0116295 -0.106268 0.869743
0.0103615 -0.105254 0.869088
0.00909671 -0.104247 0.86849
0.00863968 -0.101419 0.862313
0.00777654 -0.102968 0.865204
0.00726508 -0.0998482 0.855956
0.00645984 -0.101668 0.861654
-0.00174593 -0.0899348 0.797245
-0.00296185 -0.0885087 0.791337
-0.00411412 -0.0875801 0.790663
-0.00526456 -0.0866547 0.790007
-0.006412 -0.0857452 0.78951
-0.0075589 -0.0848236 0.78887
-0.00870361 -0.0839153 0.788363
-0.00984662 -0.0830157 0.787942
-0.0109884 -0.0821256 0.787621
-0.0121293 -0.0812448 0.787403
-0.0132699 -0.0803839 0.787413
-0.0144109 -0.0795294 0.787498
-0.0155525 -0.0786818 0.787672
-0.0166958 -0.0778541 0.788092
-0.017841 -0.0770344 0.788621
-0.0189877 -0.0762135 0.789149
-0.0201347 -0.0753841 0.789583
-0.0212818 -0.0745456 0.789909
-0.0224316 -0.073718 0.790387
-0.0235822 -0.072887 0.790832
-0.0247367 -0.0720686 0.791459
-0.025894 -0.0712544 0.792157
-0.0270544 -0.0704429 0.792915
-0.0282124 -0.069614 0.79345
-0.0293747 -0.0687942 0.794129
-0.030541 -0.0679794 0.794901
-0.0317078 -0.0671587 0.795608
-0.032878 -0.0663415 0.796388
-0.034046 -0.0655109 0.796989
-0.0352129 -0.064673 0.797499
-0.0363789 -0.0638289 0.797927
-0.0375489 -0.0629901 0.798452
-0.0387157 -0.0621411 0.798829
-0.0398882 -0.0613003 0.799353
-0.0410619 -0.0604581 0.799872
-0.0422178 -0.0595828 0.799848
-0.0433743 -0.0587087 0.799843
-0.0445293 -0.0578324 0.799801
-0.0456788 -0.0569486 0.799621
-0.0468357 -0.0560759 0.799636
-0.0480136 -0.0552301 0.800149
-0.0491941 -0.0543848 0.800691
-0.0503696 -0.053531 0.80109
-0.0515442 -0.0526742 0.801445
-0.0527186 -0.0518155 0.801778
-0.0539025 -0.0509649 0.802287
-0.0550912 -0.0501165 0.802865
-0.0562981 -0.0492821 0.803767
-0.0575115 -0.0484496 0.804746
-0.0587127 -0.0476027 0.805451
-0.0599148 -0.0467538 0.806141
-0.0611143 -0.0459 0.80675
-0.0623121 -0.0450428 0.807306
-0.0635158 -0.0441873 0.807933
-0.0647207 -0.0433304 0.808555
-0.0659223 -0.0424692 0.809096
-0.0671301 -0.0416096 0.809713
-0.0683456 -0.0407522 0.810422
-0.0695642 -0.0398943 0.811151
-0.0708025 -0.039044 0.812141
-0.0720321 -0.0381859 0.812968
-0.0732465 -0.0373184 0.813548
-0.0744472 -0.0364428 0.813915
-0.0756285 -0.0355579 0.814003
-0.0767787 -0.0346605 0.813672
-0.0779205 -0.0337608 0.81324
-0.0790341 -0.0328524 0.812459
-0.08013 -0.0319404 0.81148
-0.081209 -0.0310257 0.810322
-0.0822856 -0.0301136 0.809173
-0.083347 -0.0292005 0.807878
-0.0844326 -0.0282975 0.806914
-0.0855298 -0.0274001 0.806116
-0.0866281 -0.0265052 0.805357
-0.087718 -0.0256103 0.804525
-0.0888246 -0.024721 0.803906
-0.0899451 -0.0238362 0.803459
-0.0910533 -0.0229501 0.802891
-0.0921682 -0.0220668 0.802413
-0.0933176 -0.0211898 0.802313
-0.094436 -0.0203087 0.801893
-0.0955303 -0.0194257 0.801237
-0.0966667 -0.0185491 0.801025
-0.0977872 -0.0176712 0.800662
-0.0988787 -0.0167917 0.800022
-0.0999879 -0.015915 0.799571
-0.101144 -0.0150427 0.799587
-0.102275 -0.0141688 0.799358
-0.103436 -0.0132969 0.799421
-0.104631 -0.0124262 0.799792
-0.105833 -0.011555 0.800221
-0.106994 -0.010682 0.800266
-0.108161 -0.00980926 0.800371
-0.109353 -0.00893616 0.800695
-0.110532 -0.00806247 0.800892
-0.111722 -0.00718839 0.801178
-0.112949 -0.00631286 0.801778
-0.114169 -0.00543632 0.802305
-0.115393 -0.00455864 0.802853
-0.116607 -0.00368045 0.803308
-0.11781 -0.00280212 0.803659
-0.118961 -0.0019264 0.80359
-0.120108 -0.00105094 0.803485
-0.121222 -0.000178569 0.803126
-0.122337 0.000693626 0.80278
-0.123432 0.0015627 0.802291
-0.124546 0.00243317 0.80196
-0.125661 0.00330335 0.801635
-0.126851 0.00418058 0.801885
-0.128084 0.00506408 0.802445
-0.129368 0.00595494 0.803365
-0.130643 0.00684593 0.80421
-0.131922 0.00773877 0.805065
-0.133144 0.00862484 0.80549
-0.134341 0.00950816 0.80574
-0.135518 0.0103882 0.805842
-0.136705 0.0112702 0.806013
-0.137892 0.0121527 0.806185
-0.139094 0.0130381 0.806451
-0.140324 0.0139286 0.806901
-0.141584 0.0148253 0.807539
-0.142869 0.0157274 0.808339
-0.144169 0.0166338 0.809218
-0.145561 0.0175595 0.810688
-0.146942 0.0184855 0.812054
-0.14837 0.0194227 0.813703
-0.149799 0.0203628 0.815325
