ply
format ascii 1.0
element vertex 1657
property float x
property float y
property float z
end_header
0.0519053 -0.0142696 0.969157
0.0521329 -0.0126087 0.96803
0.0523697 -0.0109538 0.967354
0.0526067 -0.00930122 0.966706
0.0528497 -0.00765118 0.966344
0.0530899 -0.00600236 0.965867
0.05333 -0.00435506 0.965397
0.0535657 -0.00271003 0.964739
0.0538055 -0.00106613 0.964276
0.0540306 0.000571925 0.963195
0.0542541 0.0022059 0.962067
0.0544784 0.0038368 0.960997
0.0547034 0.00546473 0.959976
0.0549267 0.0070886 0.958909
0.0551648 0.00871845 0.958463
0.0554052 0.0103487 0.958123
0.0556407 0.0119742 0.95759
0.0558859 0.013606 0.957453
0.0561365 0.0152421 0.95753
0.0563886 0.0168798 0.957663
0.0566436 0.0185207 0.957904
0.0569036 0.0201676 0.958333
0.0571554 0.0218066 0.958443
0.0574042 0.0234426 0.958437
0.0576526 0.0250782 0.958421
0.0578956 0.026707 0.958205
0.0581413 0.0283387 0.95809
0.0583869 0.02997 0.957972
0.0586297 0.0315972 0.957758
0.0588721 0.0332232 0.957535
0.0591141 0.0348482 0.957301
0.0593499 0.0364631 0.956858
0.0595758 0.0380616 0.956083
0.0598004 0.0396559 0.955276
0.0600241 0.0412467 0.954451
0.0602397 0.0428218 0.953369
0.0604581 0.0443992 0.9524
0.060688 0.0459945 0.951824
0.0609182 0.0475891 0.951269
0.0611521 0.049189 0.950842
0.0613859 0.0507878 0.950416
0.0616184 0.0523832 0.949959
0.0618405 0.0539571 0.94918
0.0620652 0.0555343 0.948494
0.0622842 0.0570983 0.947641
0.0625062 0.0586667 0.946895
0.0627243 0.0602251 0.946041
0.0629478 0.0617931 0.945361
0.0631746 0.0633671 0.944797
0.0633995 0.0649353 0.944179
0.0636207 0.0664941 0.943465
0.0638365 0.0680389 0.9426
0.0640467 0.0695691 0.941585
0.06425 0.0710807 0.940384
0.0644609 0.072608 0.939419
0.0646726 0.0741352 0.938493
0.0648801 0.07565 0.937457
0.0650814 0.0771477 0.936267
0.0652812 0.0786391 0.935047
0.0654888 0.0801474 0.934061
0.0657085 0.0816849 0.933427
0.0659409 0.0832535 0.933145
0.0661945 0.0848767 0.933444
0.0664635 0.0865409 0.934155
0.066731 0.0882028 0.934817
0.067003 0.0898779 0.935589
0.0672771 0.0915602 0.936404
0.0675471 0.0932328 0.937103
0.0678108 0.0948899 0.937627
0.068095 0.0966044 0.938678
0.0683777 0.0983169 0.939673
0.0686726 0.100066 0.940971
0.0689798 0.101853 0.94256
0.0692917 0.103657 0.94425
0.0300458 -0.158571 1.05635
0.0303241 -0.155884 1.04999
0.0305965 -0.153914 1.04866
0.0308681 -0.152076 1.04827
0.0311394 -0.150254 1.04799
0.0314108 -0.148385 1.04736
0.0316816 -0.146551 1.04695
0.0319526 -0.144734 1.04669
0.0322218 -0.142715 1.04484
0.0324901 -0.14072 1.04312
0.0327575 -0.138738 1.04147
0.0330209 -0.136531 1.03794
0.0347934 -0.120752 1.00734
0.0350433 -0.118717 1.00443
0.0353008 -0.116932 1.00374
0.0355594 -0.115184 1.00339
0.0358261 -0.113625 1.00483
0.036093 -0.112051 1.00617
0.0363613 -0.110485 1.00763
0.0366284 -0.108878 1.00873
0.0368944 -0.10724 1.00956
0.0371587 -0.105564 1.01001
0.0374225 -0.103876 1.01036
0.0376848 -0.102159 1.01041
0.0379475 -0.10045 1.01054
0.0382117 -0.0987589 1.01088
0.0384771 -0.0970768 1.01134
0.0387412 -0.095378 1.01162
0.0390063 -0.0936865 1.012
0.0392741 -0.0920198 1.01269
0.0395404 -0.0903333 1.01317
0.0398064 -0.0886393 1.01357
0.0400715 -0.0869331 1.01384
0.0403332 -0.0851961 1.01372
0.04059 -0.0834209 1.01307
0.0408483 -0.0816626 1.01263
0.0411039 -0.0798859 1.01191
0.0413573 -0.0780987 1.01101
0.0416075 -0.0762968 1.00985
0.0418466 -0.0744322 1.00767
0.0420774 -0.072531 1.00482
0.0423039 -0.0706228 1.00172
0.0425333 -0.0687498 0.999011
0.0427651 -0.0669054 0.996635
0.0430105 -0.0651422 0.995519
0.0432559 -0.0633849 0.994453
0.0435104 -0.0616744 0.994177
0.0437723 -0.0599967 0.9945
0.0440436 -0.0583553 0.995554
0.0443299 -0.0567655 0.997718
0.0446424 -0.0552592 1.00178
0.0449669 -0.0537738 1.00659
0.0452951 -0.0522764 1.01148
0.0456245 -0.050758 1.01627
0.04594 -0.0491765 1.01993
0.0462365 -0.0475258 1.02214
0.0465127 -0.0458134 1.0229
0.0467759 -0.0440654 1.02277
0.0470216 -0.0422787 1.0215
0.047257 -0.0404756 1.0196
0.0474823 -0.0386609 1.01713
0.0477066 -0.0368548 1.01467
0.0479209 -0.0350421 1.01168
0.0481292 -0.0332325 1.00841
0.0483124 -0.0313991 1.00374
0.0484814 -0.0295658 0.998389
0.0486389 -0.0277394 0.992524
0.0488032 -0.0259435 0.987218
0.0489796 -0.0241802 0.982743
0.0491803 -0.0224555 0.979737
0.0493951 -0.0207532 0.977584
0.0496189 -0.019065 0.975976
0.0498443 -0.0173836 0.974495
0.0500686 -0.015707 0.972997
0.0502986 -0.014038 0.971828
0.0505284 -0.0123729 0.970686
0.0507625 -0.0107128 0.969785
0.0510002 -0.00905618 0.969088
0.0512396 -0.00740202 0.968492
0.0514771 -0.00574985 0.967819
0.0517166 -0.00409971 0.967255
0.0519535 -0.00245182 0.966584
0.0521896 -0.000806273 0.965891
0.0524141 0.000833171 0.964678
0.0526347 0.00246728 0.963314
0.0528562 0.00409759 0.962024
0.0530802 0.0057253 0.960873
0.0533053 0.00735028 0.959795
0.0535444 0.0089815 0.959353
0.0537859 0.0106133 0.959023
0.0540223 0.01224 0.958486
0.0542656 0.0138711 0.958248
0.0545135 0.015506 0.958212
0.0547653 0.0171445 0.958333
0.0550174 0.018784 0.958469
0.0552741 0.0204286 0.958785
0.0555253 0.0220679 0.958874
0.055774 0.0237043 0.95886
0.0560203 0.0253377 0.958756
0.0562667 0.0269709 0.958652
0.0565153 0.0286069 0.958639
0.0567614 0.0302394 0.958532
0.0570021 0.0318636 0.958221
0.0572422 0.0334861 0.957893
0.0574737 0.0350943 0.957253
0.0576988 0.0366906 0.95639
0.0579145 0.038269 0.9552
0.0581311 0.039846 0.954062
0.0583473 0.0414195 0.952933
0.0585663 0.0429955 0.951923
0.0587856 0.0445694 0.950941
0.0590156 0.0461612 0.950348
0.0592432 0.047747 0.949682
0.0594737 0.0493371 0.949131
0.0597014 0.0509201 0.948491
0.0599312 0.052506 0.947933
0.0601546 0.0540773 0.947172
0.0603835 0.0556585 0.946602
0.0606097 0.0572326 0.945955
0.0608359 0.0588054 0.94532
0.0610582 0.0603681 0.944568
0.061282 0.0619326 0.943877
0.0615092 0.0635033 0.943306
0.0617346 0.0650686 0.942684
0.0619602 0.066633 0.942079
0.0621809 0.0681844 0.941334
0.0623996 0.0697295 0.940537
0.0626087 0.0712491 0.93946
0.0628213 0.0727754 0.938506
0.0630338 0.0742996 0.937566
0.0632421 0.0758108 0.936509
0.0634454 0.0773073 0.935326
0.0636473 0.0787976 0.934118
0.063853 0.0802954 0.933036
0.0640767 0.0818394 0.932492
0.0643123 0.0834144 0.932296
0.0645621 0.0850279 0.932508
0.0648331 0.0867003 0.933316
0.0651065 0.0883809 0.93418
0.0653812 0.0900668 0.935068
0.0656549 0.0917517 0.935918
0.0659274 0.0934352 0.936719
0.0661896 0.0950894 0.937232
0.0664711 0.0968012 0.938259
0.0667484 0.0985031 0.939156
0.0670333 0.100229 0.940245
0.0673357 0.102009 0.941787
0.0676482 0.103822 0.943573
0.0294689 -0.165052 1.07629
0.0276295 -0.164907 1.07724
0.0279362 -0.1617 1.06761
0.0282363 -0.158636 1.05878
0.0285277 -0.155835 1.05162
0.0288053 -0.153703 1.04914
0.0290778 -0.151847 1.04862
0.0293502 -0.149992 1.04809
0.0296222 -0.148136 1.04755
0.0298967 -0.145999 1.04486
0.0301696 -0.143865 1.0421
0.0304422 -0.141535 1.03775
0.0307125 -0.139252 1.03366
0.0345427 -0.122821 1.01045
0.0325444 -0.12346 1.00332
0.0328019 -0.121579 1.0018
0.0330593 -0.119749 1.00068
0.0333169 -0.117943 0.999775
0.0335787 -0.116359 1.00088
0.0338415 -0.114794 1.00219
0.0341055 -0.113235 1.00363
0.0343699 -0.111666 1.005
0.034635 -0.110092 1.00637
0.0349 -0.108488 1.00748
0.0351643 -0.106852 1.0083
0.0354278 -0.10519 1.00887
0.0356905 -0.103492 1.0091
0.0359514 -0.101764 1.00899
0.0362122 -0.100032 1.00886
0.0364753 -0.0983392 1.00915
0.0367387 -0.0966512 1.00951
0.0370027 -0.0949668 1.00992
0.0372683 -0.0932995 1.01055
0.0375345 -0.0916341 1.01124
0.0377981 -0.0899308 1.01148
0.0380612 -0.0882182 1.01162
0.0383236 -0.0864971 1.01165
0.0385824 -0.0847384 1.01118
0.0388389 -0.082959 1.01043
0.0390962 -0.0811945 1.00984
0.0393512 -0.0794138 1.00899
0.0396024 -0.0776083 1.00775
0.0398517 -0.0757947 1.00633
0.04009 -0.0739105 1.00376
0.0403212 -0.0719923 1.00054
0.0405473 -0.0700625 0.996952
0.0407812 -0.068205 0.994365
0.0410183 -0.0663849 0.992249
0.04127 -0.0646608 0.991683
0.0415231 -0.0629475 0.991287
0.0417861 -0.0612884 0.991851
0.0420519 -0.0596395 0.992645
0.0423237 -0.0580138 0.993949
0.0426069 -0.0564304 0.996203
0.0429079 -0.054908 0.999896
0.0432249 -0.0534279 1.00478
0.0435472 -0.0519426 1.0099
0.0438745 -0.0504479 1.01522
0.0441889 -0.0488846 1.01929
0.0444918 -0.0472661 1.0223
0.04477 -0.0455621 1.02332
0.0450368 -0.0438224 1.02343
0.0452899 -0.0420478 1.02254
0.0455353 -0.0402592 1.02112
0.04577 -0.0384535 1.01899
0.0460007 -0.0366484 1.01666
0.0462244 -0.0348408 1.01393
0.0464419 -0.0330334 1.01088
0.0466388 -0.0312058 1.00656
0.0468237 -0.0293782 1.00161
0.0469997 -0.0275585 0.996248
0.0471714 -0.025755 0.990792
0.0473519 -0.0239821 0.986047
0.0475522 -0.0222466 0.982661
0.0477653 -0.0205349 0.980145
0.0479888 -0.0188401 0.978317
0.0482186 -0.0171562 0.976917
0.0484462 -0.015476 0.975433
0.0486788 -0.0138033 0.97427
0.0489093 -0.0121339 0.973018
0.049143 -0.0104695 0.971983
0.0493781 -0.00880894 0.971053
0.049617 -0.00715158 0.970351
0.049856 -0.00549652 0.969673
0.050099 -0.00384313 0.969219
0.0503376 -0.00219219 0.968554
0.0505751 -0.000543606 0.967849
0.0508012 0.00109841 0.966589
0.05102 0.0027332 0.964998
0.0512376 0.00436261 0.963391
0.0514594 0.00598947 0.962023
0.051684 0.00761428 0.960821
0.0519214 0.00924521 0.960258
0.0521636 0.0108783 0.959924
0.0524034 0.0125083 0.959488
0.0526492 0.0141429 0.95934
0.0528954 0.0157774 0.959207
0.0531445 0.0174147 0.95921
0.0533941 0.0190527 0.959235
0.0536479 0.0206955 0.959438
0.0538967 0.0223329 0.959426
0.0541431 0.023967 0.95931
0.054387 0.0255975 0.959092
0.0546333 0.0272308 0.958978
0.0548796 0.0288638 0.958866
0.0551237 0.030493 0.958664
0.0553598 0.0321092 0.958145
0.0555921 0.0337178 0.957487
0.0558105 0.0353014 0.95629
0.0560251 0.0368756 0.954971
0.0562339 0.0384361 0.95345
0.0564495 0.0400055 0.95222
0.0566649 0.0415716 0.951007
0.0568879 0.0431492 0.950101
0.057111 0.044725 0.949218
0.057339 0.0463087 0.948533
0.0575645 0.0478856 0.947766
0.0577951 0.0494717 0.947203
0.0580233 0.0510511 0.94656
0.0582539 0.0526342 0.946013
0.0584837 0.0542146 0.94545
0.0587192 0.0558065 0.945095
0.0589496 0.057386 0.94457
0.0591767 0.0589567 0.943943
0.0594025 0.0605231 0.943281
0.0596271 0.062085 0.942588
0.0598552 0.0636542 0.942025
0.0600812 0.0652167 0.9414
0.0603103 0.0667862 0.940891
0.060532 0.0683354 0.940145
0.0607525 0.0698803 0.939375
0.0609607 0.0713915 0.938221
0.0611742 0.0729145 0.937257
0.0613878 0.0744357 0.936308
0.0615943 0.0759361 0.935154
0.0617993 0.0774299 0.933971
0.0620066 0.0789277 0.932876
0.0622175 0.0804336 0.931908
0.0624423 0.0819772 0.931382
0.0626841 0.0835678 0.931372
0.0629335 0.0851803 0.931589
0.0632029 0.0868513 0.932398
0.0634774 0.0885388 0.933346
0.0637538 0.0902336 0.934331
0.0640302 0.0919305 0.935308
0.0643054 0.0936254 0.93623
0.06457 0.0952897 0.936838
0.0648459 0.0969899 0.937756
0.0651198 0.098685 0.93861
0.0653954 0.100387 0.939495
0.0656912 0.102155 0.940929
0.0660003 0.103966 0.942711
0.0257907 -0.164646 1.0774
0.026106 -0.161679 1.06944
0.0264198 -0.15866 1.06093
0.0267254 -0.155794 1.0533
0.0270115 -0.153523 1.04982
0.0272865 -0.151612 1.04892
0.0275686 -0.149401 1.04574
0.027849 -0.147207 1.04262
0.0281345 -0.14472 1.03718
0.0322882 -0.125575 1.00681
0.0303115 -0.126376 1.00129
0.0305728 -0.124281 0.997934
0.0308317 -0.122445 0.996737
0.03109 -0.120823 0.997411
0.0313486 -0.119212 0.998215
0.0316078 -0.117593 0.998969
0.0318675 -0.115996 0.999943
0.0321277 -0.114416 1.00112
0.0323887 -0.112836 1.00232
0.0326503 -0.111267 1.00367
0.0329127 -0.109684 1.00493
0.0331754 -0.108083 1.00605
0.0334377 -0.10644 1.00678
0.0337003 -0.10479 1.00745
0.0339618 -0.103085 1.00758
0.0342226 -0.101357 1.00746
0.0344825 -0.0996051 1.00707
0.0347439 -0.0979014 1.00721
0.0350055 -0.0961969 1.00734
0.0352674 -0.0944999 1.00756
0.0355304 -0.0928196 1.008
0.0357936 -0.0911382 1.00843
0.0360555 -0.0894272 1.00853
0.0363168 -0.0877084 1.00852
0.0365783 -0.0859919 1.00854
0.0368365 -0.0842299 1.00797
0.0370939 -0.0824629 1.0073
0.0373507 -0.0806952 1.00659
0.0376049 -0.0789043 1.00553
0.0378549 -0.0770803 1.00392
0.0381035 -0.0752545 1.00222
0.0383426 -0.0733536 0.999289
0.0385756 -0.0714233 0.995742
0.038807 -0.0695058 0.992216
0.0390467 -0.0676784 0.989969
0.0392903 -0.0658951 0.988353
0.0395461 -0.0642061 0.988287
0.0398049 -0.0625376 0.988581
0.0400705 -0.0609091 0.989625
0.0403368 -0.0592776 0.990689
0.0406082 -0.0576667 0.992233
0.040887 -0.0560848 0.994467
0.0411787 -0.0545519 0.997891
0.0414896 -0.0530858 1.00303
0.0418065 -0.0516174 1.00851
0.0421304 -0.0501468 1.01437
0.0424447 -0.0486102 1.01909
0.0427518 -0.0470239 1.02294
0.0430313 -0.0453281 1.0242
0.043301 -0.0435962 1.02457
0.0435576 -0.0418244 1.02381
0.04381 -0.0400457 1.02274
0.0440502 -0.0382418 1.02075
0.0442878 -0.0364401 1.01861
0.0445163 -0.0346293 1.01587
0.04474 -0.0328208 1.01286
0.0449462 -0.0309939 1.00866
0.0451451 -0.0291725 1.00409
0.0453348 -0.0273561 0.999022
0.0455234 -0.0255588 0.994056
0.0457134 -0.0237827 0.98937
0.0459178 -0.02204 0.985815
0.0461315 -0.0203196 0.983009
0.0463551 -0.0186177 0.980943
0.0465846 -0.0169273 0.979323
0.0468136 -0.0152426 0.977729
0.0470468 -0.0135655 0.976448
0.0472781 -0.0118922 0.975085
0.0475104 -0.0102238 0.973833
0.0477473 -0.00856031 0.972886
0.0479861 -0.00690007 0.972084
0.0482267 -0.00524235 0.971409
0.0484709 -0.00358623 0.970956
0.0487128 -0.00193213 0.970386
0.0489484 -0.000281917 0.969487
0.0491791 0.00136337 0.96834
0.0494008 0.00300058 0.96674
0.0496193 0.00463104 0.965013
0.0498393 0.00625733 0.963412
0.0500635 0.00788208 0.962068
0.0502961 0.00950978 0.961189
0.0505348 0.0111406 0.960644
0.0507756 0.0127717 0.960212
0.0510217 0.0144073 0.960059
0.0512683 0.0160429 0.959926
0.0515174 0.0176813 0.959924
0.051767 0.0193201 0.95994
0.0520186 0.0209617 0.960049
0.0522673 0.0225996 0.960026
0.0525117 0.0242313 0.959801
0.0527534 0.0258586 0.959463
0.0529972 0.0274881 0.959225
0.0532411 0.0291171 0.958995
0.0534807 0.0307386 0.958582
0.0537079 0.0323377 0.957643
0.0539258 0.0339183 0.956328
0.0541295 0.0354698 0.954434
0.0543295 0.0370101 0.952431
0.0545291 0.0385445 0.950447
0.0547439 0.0401044 0.949134
0.0549639 0.0416716 0.948056
0.0551938 0.0432569 0.9474
0.0554258 0.0448451 0.94684
0.0556603 0.0464372 0.946387
0.0558917 0.048022 0.945828
0.0561281 0.0496164 0.945468
0.0563617 0.0512036 0.945006
0.0565958 0.0527912 0.944577
0.0568295 0.0543767 0.944138
0.0570684 0.0559739 0.943901
0.0573022 0.0575581 0.943479
0.0575303 0.0591275 0.942861
0.0577571 0.0606921 0.942204
0.0579828 0.0622527 0.941519
0.0582118 0.0638203 0.940964
0.0584362 0.065375 0.940258
0.0586654 0.066941 0.939733
0.0588879 0.0684878 0.938982
0.0591063 0.0700221 0.938107
0.0593104 0.0715151 0.936761
0.0595221 0.0730269 0.935692
0.0597331 0.0745346 0.934619
0.0599412 0.076032 0.933469
0.0601515 0.0775335 0.932407
0.06037 0.0790573 0.931633
0.0605889 0.0805805 0.930882
0.0608175 0.0821314 0.930454
0.0610594 0.0837214 0.930454
0.0613084 0.0853332 0.930682
0.0615732 0.0869938 0.931397
0.0618457 0.0886792 0.932337
0.0621197 0.0903712 0.933313
0.0623971 0.0920755 0.934374
0.0626713 0.0937715 0.935325
0.0629385 0.0954469 0.936046
0.0632124 0.0971453 0.936959
0.0634811 0.0988277 0.937705
0.0637505 0.100514 0.938462
0.0640404 0.102269 0.939798
0.0643395 0.104057 0.941387
0.0242817 -0.161387 1.06937
0.0246003 -0.158586 1.06238
0.0249143 -0.155839 1.05563
0.0252244 -0.153126 1.04895
0.0255185 -0.150755 1.04463
0.0258228 -0.148074 1.03789
0.0300484 -0.128502 1.00482
0.0280905 -0.12916 0.998267
0.0283511 -0.127378 0.99758
0.028612 -0.125565 0.996614
0.0288728 -0.123736 0.995487
0.0291292 -0.122132 0.996291
0.0293864 -0.120511 0.996975
0.0296439 -0.118878 0.997569
0.0299014 -0.117258 0.998303
0.0301594 -0.115648 0.999147
0.0304176 -0.114056 1.00019
0.0306764 -0.11245 1.00114
0.0309356 -0.110867 1.00233
0.0311954 -0.10926 1.00333
0.0314558 -0.107648 1.00433
0.0317164 -0.105997 1.00494
0.0319773 -0.104341 1.00553
0.0322379 -0.102629 1.00554
0.0324981 -0.100895 1.00531
0.0327578 -0.0991354 1.0048
0.0330184 -0.0974251 1.00482
0.033279 -0.0957229 1.00493
0.0335397 -0.0940206 1.00505
0.033801 -0.0923325 1.00534
0.034062 -0.0906361 1.00554
0.0343222 -0.088909 1.00537
0.0345818 -0.0871761 1.00511
0.0348419 -0.085455 1.00501
0.0350997 -0.0836909 1.00432
0.0353574 -0.0819314 1.00367
0.0356136 -0.080156 1.00277
0.0358675 -0.0783555 1.00147
0.0361181 -0.0765214 0.999626
0.036367 -0.0746861 0.997659
0.03661 -0.0727949 0.994753
0.0368492 -0.0708908 0.991476
0.0370873 -0.0690004 0.98826
0.0373315 -0.0671977 0.986303
0.0375792 -0.065442 0.985047
0.0378356 -0.0637708 0.985191
0.0380947 -0.0621203 0.985715
0.0383595 -0.0605082 0.986989
0.0386257 -0.0588979 0.988373
0.0388956 -0.0573017 0.990137
0.039171 -0.0557289 0.992491
0.0394554 -0.0541914 0.995775
0.0397614 -0.0527509 1.00143
0.0400726 -0.051303 1.00734
0.0403912 -0.0498566 1.01376
0.0407036 -0.0483464 1.01914
0.0410121 -0.0467916 1.02383
0.0412923 -0.0451035 1.02535
0.0415619 -0.0433706 1.02574
0.0418223 -0.0416047 1.02521
0.0420771 -0.0398244 1.02416
0.0423224 -0.0380227 1.02229
0.0425642 -0.03622 1.02019
0.0427977 -0.0344073 1.01744
0.0430239 -0.0325903 1.01417
0.0432404 -0.0307683 1.01023
0.0434513 -0.0289526 1.00598
0.0436534 -0.0271404 1.0012
0.0438584 -0.025352 0.996841
0.0440629 -0.0235802 0.992615
0.0442719 -0.0218306 0.988899
0.0444864 -0.0201009 0.985733
0.0447118 -0.0183929 0.983497
0.0449398 -0.0166951 0.981531
0.0451687 -0.0150052 0.9797
0.0454029 -0.0133243 0.978301
0.0456349 -0.0116476 0.976802
0.0458679 -0.00997624 0.975424
0.0461067 -0.00831037 0.974473
0.0463472 -0.00664769 0.97367
0.046588 -0.00498762 0.972905
0.0468348 -0.00332887 0.972549
0.0470782 -0.00167227 0.971988
0.0473159 -1.95625e-05 0.971099
0.0475492 0.00162824 0.969971
0.0477776 0.00326985 0.968588
0.0479979 0.00490183 0.966766
0.0482187 0.00652883 0.965031
0.0484428 0.00815365 0.963534
0.0486747 0.00978124 0.962513
0.0489091 0.0114085 0.961663
0.0491508 0.0130412 0.961228
0.0493958 0.0146766 0.960989
0.049641 0.0163114 0.960759
0.0498884 0.0179486 0.960655
0.0501379 0.0195883 0.96066
0.0503873 0.021228 0.96066
0.0506365 0.0228673 0.960648
0.0508792 0.0244966 0.960317
0.0511192 0.0261206 0.959859
0.0513585 0.0277424 0.959383
0.051598 0.0293634 0.958925
0.0518253 0.0309611 0.957898
0.0520399 0.0325329 0.956307
0.0522424 0.0340779 0.954193
0.052433 0.0355943 0.951585
0.0526208 0.0370992 0.948911
0.0528201 0.0386219 0.946812
0.0530387 0.0401807 0.945609
0.0532628 0.0417487 0.944672
0.0534985 0.0433404 0.944253
0.0537382 0.0449403 0.944016
0.0539808 0.0465464 0.943904
0.054221 0.0481466 0.943699
0.0544676 0.0497618 0.94376
0.0547095 0.0513655 0.943625
0.054949 0.0529632 0.943398
0.0551862 0.0545545 0.943083
0.0554256 0.0561507 0.942862
0.05566 0.0577336 0.942448
0.0558913 0.0593075 0.941923
0.0561214 0.0608769 0.94136
0.0563512 0.0624446 0.940798
0.0565813 0.0640121 0.940257
0.0568067 0.065565 0.939549
0.0570336 0.0671214 0.938914
0.0572512 0.0686495 0.937948
0.0574626 0.0701579 0.936773
0.0576646 0.0716368 0.935284
0.0578717 0.0731277 0.934
0.0580784 0.0746152 0.932726
0.0582882 0.0761101 0.931585
0.058506 0.0776271 0.930739
0.0587291 0.0791596 0.930096
0.0589555 0.0807006 0.929569
0.0591906 0.0822687 0.929352
0.0594378 0.0838747 0.929541
0.0596862 0.085485 0.929767
0.059947 0.0871359 0.930398
0.060217 0.0888177 0.931318
0.0604881 0.090505 0.93226
0.0607635 0.092208 0.933323
0.061039 0.093913 0.934374
0.0613117 0.0956107 0.935317
0.0615842 0.0973084 0.936242
0.0618545 0.099001 0.937079
0.0621191 0.100675 0.937731
0.0624031 0.102417 0.938968
0.0626923 0.10418 0.940341
0.0648211 0.106459 0.948194
0.063001 0.106013 0.942283
0.022797 -0.158134 1.06116
0.0231332 -0.155179 1.05288
0.0234791 -0.151988 1.04266
0.0238031 -0.149156 1.03485
0.0261637 -0.129663 0.990605
0.0264209 -0.127965 0.990518
0.0266697 -0.126485 0.992263
0.0269206 -0.124975 0.993817
0.0271734 -0.123421 0.995022
0.0274277 -0.121835 0.995976
0.0276833 -0.120226 0.99677
0.0279398 -0.118591 0.997344
0.0281969 -0.116945 0.997838
0.0284538 -0.115311 0.998452
0.0287105 -0.113696 0.999266
0.028968 -0.112067 0.99997
0.0292255 -0.110458 1.0009
0.0294835 -0.108836 1.00174
0.0297421 -0.107202 1.00247
0.0300014 -0.10554 1.00296
0.0302608 -0.103886 1.00353
0.0305208 -0.102179 1.00354
0.030781 -0.10044 1.00324
0.031041 -0.0986852 1.00273
0.0313008 -0.0969693 1.00265
0.0315606 -0.0952491 1.00251
0.0318204 -0.093528 1.00236
0.0320801 -0.0918217 1.00238
0.0323398 -0.0900997 1.00221
0.0325987 -0.0883499 1.00168
0.0328575 -0.0866056 1.00121
0.0331164 -0.0848745 1.00088
0.0333739 -0.0831033 1.00001
0.0336312 -0.0813432 0.999249
0.0338867 -0.0795452 0.997932
0.0341398 -0.0777142 0.996076
0.0343909 -0.0758662 0.993879
0.0346414 -0.0740337 0.991813
0.0348891 -0.0721782 0.989286
0.0351356 -0.0703319 0.98677
0.0353818 -0.0685087 0.984493
0.0356309 -0.0667486 0.983137
0.035882 -0.0650247 0.982321
0.0361374 -0.0633578 0.982455
0.0363954 -0.0617164 0.983069
0.0366565 -0.0601014 0.984203
0.036921 -0.0585057 0.985797
0.0371892 -0.0569298 0.987881
0.0374611 -0.0553672 0.990385
0.037738 -0.0538235 0.99347
0.0380375 -0.0524088 0.999644
0.0383416 -0.0509833 1.00604
0.0386533 -0.0495604 1.01301
0.0389622 -0.0480812 1.01916
0.0392711 -0.046566 1.0249
0.0395519 -0.0448895 1.02679
0.0398232 -0.0431621 1.02742
0.0400867 -0.0414012 1.0271
0.0403447 -0.0396211 1.02617
0.0405939 -0.0378171 1.02432
0.0408409 -0.0360158 1.02234
0.0410809 -0.0342037 1.01974
0.041311 -0.0323787 1.01626
0.0415329 -0.03055 1.01214
0.0417527 -0.0287352 1.00803
0.0419631 -0.0269202 1.00322
0.0421776 -0.0251324 0.999015
0.0423928 -0.023363 0.995069
0.0426103 -0.0216122 0.991493
0.0428289 -0.019877 0.988177
0.0430567 -0.0181636 0.985771
0.0432855 -0.01646 0.983555
0.0435162 -0.014766 0.981579
0.0437514 -0.0130814 0.980043
0.0439848 -0.0114015 0.978421
0.0442188 -0.00972749 0.976912
0.0444581 -0.00805921 0.975854
0.0446988 -0.00639445 0.974939
0.0449412 -0.0047325 0.974177
0.0451859 -0.00307244 0.973607
0.0454317 -0.00141384 0.973135
0.0456727 0.000241237 0.972352
0.0459102 0.00189187 0.971352
0.0461432 0.00353667 0.970099
0.0463687 0.00517204 0.968394
0.0465911 0.00679981 0.966548
0.0468159 0.00842474 0.964917
0.0470475 0.010052 0.963754
0.0472801 0.011677 0.962682
0.0475209 0.013309 0.962137
0.0477647 0.0149434 0.961788
0.0480086 0.016577 0.961451
0.0482545 0.0182127 0.96124
0.048504 0.0198533 0.961242
0.0487535 0.0214938 0.96124
0.0490011 0.0231312 0.961132
0.0492424 0.0247576 0.960692
0.0494811 0.0263783 0.96012
0.0497153 0.0279892 0.959321
0.0499436 0.0295871 0.958245
0.0501574 0.0311539 0.956449
0.0503587 0.0326913 0.954069
0.0505483 0.0341988 0.951161
0.0507314 0.0356859 0.948009
0.0509182 0.037174 0.945112
0.0511224 0.038695 0.943126
0.0513466 0.0402578 0.94214
0.0515763 0.0418313 0.941434
0.0518184 0.0434333 0.941321
0.052067 0.0450509 0.941508
0.0523164 0.0466708 0.941726
0.0525623 0.0482824 0.941785
0.0528163 0.0499149 0.942197
0.0530656 0.0515362 0.942399
0.0533082 0.0531398 0.942304
0.0535482 0.054736 0.942098
0.0537897 0.0563362 0.941962
0.0540243 0.0579167 0.941538
0.0542563 0.0594888 0.941013
0.0544899 0.0610647 0.940566
0.0547231 0.0626388 0.940113
0.0549541 0.0642055 0.939583
0.0551802 0.0657563 0.938862
0.0554027 0.0672952 0.938019
0.0556137 0.0687972 0.93674
0.0558208 0.0702848 0.935334
0.0560193 0.0717432 0.933631
0.0562222 0.0732123 0.932123
0.0564301 0.0746952 0.930836
0.0566465 0.076203 0.929884
0.0568687 0.0777283 0.929167
0.0570989 0.0792787 0.928753
0.0573317 0.0808373 0.928445
0.0575698 0.082413 0.928329
0.0578191 0.0840265 0.928614
0.0580696 0.0856447 0.928937
0.0583289 0.0872935 0.929561
0.058597 0.0889736 0.930476
0.058866 0.0906589 0.93141
0.0591361 0.092349 0.932361
0.0594095 0.0940521 0.933408
0.0596837 0.0957601 0.934467
0.0599524 0.09745 0.93532
0.0602243 0.0991529 0.936265
0.0604902 0.100835 0.937003
0.0607657 0.102553 0.938036
0.0610455 0.104289 0.939192
0.061346 0.106104 0.940983
0.0634694 0.108416 0.948977
0.0616467 0.107922 0.942757
0.0210115 -0.157474 1.05844
0.0213757 -0.1543 1.04852
0.0217609 -0.15076 1.03569
0.0253526 -0.135642 0.997806
0.0234317 -0.136364 0.992244
0.0237198 -0.134137 0.988006
0.0256308 -0.133491 0.994218
0.0239831 -0.132326 0.987
0.0259054 -0.13139 0.990921
0.024246 -0.130515 0.985943
0.0244898 -0.129053 0.987738
0.0247339 -0.127594 0.989602
0.0249797 -0.126115 0.991347
0.0252269 -0.124621 0.993021
0.0254767 -0.123084 0.994366
0.0257281 -0.121524 0.99555
0.0259816 -0.119929 0.996454
0.0262371 -0.118293 0.997008
0.0264938 -0.116633 0.997372
0.0267502 -0.114985 0.997856
0.0270063 -0.113348 0.99845
0.0272632 -0.111697 0.998934
0.0275198 -0.110065 0.999628
0.0277768 -0.108421 1.00021
0.0280346 -0.106764 1.0007
0.0282932 -0.105082 1.00093
0.0285514 -0.103417 1.00135
0.0288112 -0.101702 1.00126
0.0290712 -0.0999661 1.00093
0.0293314 -0.098227 1.00057
0.0295909 -0.0965061 1.00038
0.0298507 -0.0947613 0.999913
0.0301104 -0.0930198 0.999476
0.0303696 -0.0912863 0.99911
0.0306288 -0.0895324 0.998474
0.0308878 -0.0877624 0.997618
0.0311464 -0.0860059 0.996901
0.0314047 -0.0842633 0.996335
0.0316622 -0.0824749 0.995129
0.0319195 -0.080708 0.994162
0.0321753 -0.0788946 0.992496
0.03243 -0.0770612 0.990469
0.0326831 -0.075212 0.988113
0.0329362 -0.0734138 0.986406
0.0331879 -0.0716037 0.98443
0.0334393 -0.0698206 0.982773
0.0336905 -0.0680572 0.981347
0.0339428 -0.0663377 0.980571
0.0341952 -0.064632 0.97999
0.0344501 -0.0629741 0.980219
0.0347064 -0.0613355 0.980813
0.0349643 -0.0597125 0.981737
0.0352262 -0.0581309 0.983521
0.0354913 -0.0565694 0.985835
0.0357596 -0.0550223 0.988599
0.0360311 -0.0534825 0.991724
0.0363226 -0.0520942 0.998448
0.0366177 -0.0506852 1.00521
0.0369204 -0.0492842 1.01272
0.0372229 -0.0478302 1.01953
0.0375266 -0.0463403 1.02599
0.037807 -0.0446757 1.02827
0.0380791 -0.0429539 1.02912
0.0383446 -0.0411945 1.02895
0.0386051 -0.0394149 1.0281
0.0388597 -0.0376152 1.02649
0.0391114 -0.0358138 1.02463
0.0393565 -0.0339995 1.02205
0.039592 -0.0321682 1.01844
0.03982 -0.0303334 1.01417
0.0400458 -0.0285128 1.00989
0.0402652 -0.0266969 1.00514
0.0404883 -0.0249093 1.00105
0.0407137 -0.023143 0.997433
0.0409381 -0.0213899 0.993897
0.041163 -0.0196515 0.990581
0.0413929 -0.0179319 0.987935
0.0416243 -0.0162238 0.985559
0.0418554 -0.0145242 0.983263
0.0420922 -0.0128365 0.981597
0.0423272 -0.0111538 0.979846
0.0425627 -0.0094774 0.978219
0.0428027 -0.00780705 0.977037
0.0430452 -0.0061406 0.97612
0.0432889 -0.00447696 0.975341
0.0435347 -0.00281518 0.974761
0.0437801 -0.00115542 0.974168
0.0440225 0.000501046 0.973371
0.0442618 0.00215304 0.972369
0.0444989 0.00380047 0.971242
0.0447278 0.0054376 0.969561
0.0449552 0.00706847 0.967832
0.0451829 0.00869484 0.966188
0.0454153 0.0103221 0.964923
0.0456466 0.0119446 0.963625
0.0458865 0.0135752 0.962946
0.046129 0.0152079 0.962458
0.0463717 0.0168397 0.962004
0.0466164 0.0184734 0.961683
0.0468659 0.0201145 0.961677
0.0471154 0.0217557 0.961671
0.0473632 0.0233935 0.961559
0.0476055 0.0250207 0.961123
0.0478273 0.0266066 0.959503
0.0480442 0.0281787 0.957641
0.0482543 0.0297322 0.955448
0.0484505 0.0312509 0.952538
0.0486363 0.0327397 0.949131
0.0488332 0.0342468 0.946429
0.0490299 0.0357475 0.94379
0.0492295 0.0372495 0.941371
0.0494453 0.0387865 0.93987
0.0496803 0.0403685 0.939396
0.0499182 0.0419572 0.939086
0.0501603 0.0435563 0.938996
0.0504138 0.0451855 0.939473
0.0506687 0.0468194 0.940004
0.0509209 0.048447 0.940393
0.051179 0.050092 0.941058
0.0514345 0.0517309 0.941583
0.0516775 0.0533344 0.941509
0.0519196 0.0549349 0.941391
0.0521609 0.0565332 0.941247
0.0523978 0.0581176 0.940902
0.0526306 0.0596891 0.940385
0.0528673 0.0612716 0.940049
0.0530995 0.0628395 0.939524
0.0533289 0.0643976 0.938892
0.0535532 0.0659382 0.938055
0.0537739 0.0674654 0.93708
0.053982 0.0689499 0.935603
0.0541859 0.0704176 0.933981
0.0543841 0.0718637 0.93216
0.0545864 0.0733209 0.930544
0.0547965 0.0748021 0.929272
0.0550144 0.0763083 0.928336
0.0552401 0.0778403 0.927724
0.0554755 0.0794055 0.927504
0.0557138 0.0809807 0.927399
0.0559502 0.0825486 0.927219
0.0562012 0.0841692 0.927598
0.0564556 0.0858029 0.928098
0.0567116 0.0874428 0.928643
0.0569756 0.0891135 0.929477
0.0572425 0.0907959 0.930399
0.0575103 0.0924831 0.931337
0.0577789 0.0941746 0.932286
0.0580537 0.0958909 0.933438
0.0583211 0.0975811 0.934307
0.0585939 0.0992923 0.935351
0.0588583 0.100973 0.936088
0.0591285 0.102677 0.937007
0.0593969 0.104376 0.937848
0.0596845 0.106152 0.93932
0.0599696 0.107919 0.940684
0.0192682 -0.156398 1.05273
0.0231358 -0.138696 0.997172
0.0212139 -0.139591 0.993051
0.0215199 -0.137236 0.987943
0.0217974 -0.135257 0.985646
0.0220693 -0.133346 0.983809
0.0223136 -0.131822 0.985033
0.0225607 -0.130261 0.985987
0.0228053 -0.128741 0.987312
0.0230482 -0.127252 0.988916
0.0232919 -0.125759 0.990541
0.0235362 -0.124265 0.992205
0.0237833 -0.122732 0.99357
0.0240318 -0.121187 0.994884
0.0242833 -0.119594 0.995798
0.0245371 -0.117971 0.996462
0.0247929 -0.116311 0.996806
0.0250486 -0.114662 0.99728
0.0253043 -0.113011 0.997734
0.0255609 -0.111348 0.998098
0.0258172 -0.109696 0.998582
0.026074 -0.108032 0.998946
0.0263316 -0.106354 0.99919
0.0265901 -0.104663 0.999304
0.0268482 -0.102978 0.999488
0.0271077 -0.101263 0.999362
0.0273679 -0.0995292 0.999026
0.0276281 -0.0977945 0.998669
0.0278882 -0.0960573 0.998263
0.0281489 -0.0942953 0.997557
0.0284098 -0.0925174 0.99663
0.0286702 -0.0907492 0.995794
0.0289307 -0.0889642 0.994717
0.0291905 -0.0871819 0.993621
0.0294496 -0.0854132 0.992655
0.0297081 -0.0836589 0.991838
0.0299668 -0.0818593 0.990372
0.0302248 -0.0800753 0.989065
0.0304824 -0.0782438 0.987019
0.0307391 -0.0764107 0.984862
0.0309947 -0.0745847 0.982696
0.0312494 -0.0728203 0.98136
0.0315032 -0.07106 0.980006
0.0317567 -0.0693331 0.979117
0.03201 -0.0676214 0.978426
0.0322633 -0.0659303 0.978043
0.0325165 -0.0642489 0.977802
0.0327707 -0.0626006 0.978139
0.0330256 -0.0609706 0.978828
0.0332812 -0.0593451 0.979648
0.0335398 -0.0577722 0.981545
0.0338009 -0.0562197 0.983979
0.0340645 -0.0546816 0.986884
0.0343302 -0.0531447 0.990018
0.0346119 -0.051781 0.997273
0.0348967 -0.050387 1.00439
0.0351885 -0.0490069 1.0124
0.0354822 -0.0475771 1.01986
0.0357779 -0.0461081 1.02692
0.0360559 -0.0444512 1.02946
0.0363288 -0.0427404 1.03071
0.0365957 -0.0409834 1.03067
0.0368595 -0.0392091 1.03009
0.0371184 -0.0374129 1.02869
0.0373751 -0.0356142 1.02704
0.0376257 -0.033799 1.02456
0.0378686 -0.0319672 1.02106
0.0381036 -0.0301267 1.01667
0.0383354 -0.0282973 1.01213
0.0385605 -0.0264716 1.00699
0.0387912 -0.0246825 1.00294
0.0390232 -0.022914 0.999328
0.0392557 -0.0211619 0.996012
0.0394885 -0.0194238 0.992926
0.0397252 -0.0177033 0.990479
0.0399593 -0.0159897 0.987893
0.0401936 -0.0142857 0.985457
0.0404309 -0.0125928 0.983481
0.040668 -0.0109068 0.981595
0.0409044 -0.0092273 0.979741
0.0411456 -0.00755464 0.978446
0.0413887 -0.00588614 0.977406
0.0416327 -0.00422085 0.976505
0.0418775 -0.00255812 0.97571
0.0421239 -0.000897032 0.975099
0.0423677 0.000760628 0.974287
0.0426076 0.00241295 0.973178
0.0428479 0.00406238 0.972144
0.0430822 0.00570292 0.970661
0.0433132 0.00733558 0.968962
0.0435443 0.00896387 0.96735
0.0437804 0.0105944 0.966185
0.0440139 0.0122183 0.964866
0.0442549 0.0138504 0.964166
0.0444969 0.0154823 0.96356
0.0447404 0.0171153 0.963082
0.0449828 0.0187451 0.96255
0.0452294 0.0203818 0.962326
0.0454746 0.022015 0.962007
0.0457025 0.023612 0.960542
0.045925 0.0251943 0.95877
0.0461297 0.0267334 0.955896
0.0463297 0.0282557 0.952817
0.046525 0.0297601 0.949536
0.0467289 0.0312786 0.946899
0.0469242 0.0327701 0.943811
0.0471343 0.0342929 0.94171
0.0473462 0.0358162 0.93978
0.0475612 0.0373437 0.938083
0.0477888 0.0389022 0.937163
0.0480301 0.0404969 0.937044
0.0482735 0.0420971 0.937043
0.0485187 0.0437029 0.937145
0.0487733 0.0453358 0.937747
0.0490306 0.0469782 0.938481
0.0492853 0.0486144 0.939062
0.0495438 0.0502627 0.939818
0.0498 0.0519058 0.940445
0.050043 0.0535076 0.940377
0.0502847 0.0551056 0.940251
0.0505258 0.0567011 0.940094
0.0507652 0.058291 0.939859
0.051001 0.0598685 0.939458
0.0512404 0.0614575 0.939238
0.051471 0.0630163 0.93861
0.0516987 0.0645637 0.937855
0.0519213 0.0660924 0.936888
0.0521391 0.0676029 0.935726
0.052347 0.0690764 0.934144
0.0525532 0.0705412 0.93252
0.0527541 0.0719844 0.9307
0.0529571 0.0734327 0.929012
0.0531692 0.074912 0.927754
0.0533887 0.0764171 0.926836
0.0536151 0.0779466 0.926228
0.0538527 0.0795174 0.926096
0.0540932 0.0810993 0.92609
0.054332 0.0826745 0.926012
0.0545846 0.0843032 0.926497
0.0548405 0.085945 0.927098
0.0550953 0.0875838 0.927648
0.0553578 0.0892534 0.928487
0.055623 0.0909346 0.92941
0.0558863 0.0926098 0.930246
0.0561501 0.0942879 0.931083
0.056422 0.0960001 0.932212
0.0566877 0.0976884 0.933083
0.0569558 0.0993878 0.934032
0.057221 0.101076 0.934856
0.0574893 0.102778 0.935774
0.0577506 0.104453 0.936421
0.058026 0.106187 0.937564
0.0583036 0.107931 0.938763
0.0209018 -0.142011 0.998519
0.0193011 -0.140556 0.98956
0.0195862 -0.13854 0.987043
0.0198689 -0.136546 0.984635
0.0201236 -0.134873 0.984669
0.0203754 -0.133236 0.984983
0.0206216 -0.131666 0.985858
0.0208718 -0.130049 0.986372
0.021118 -0.128484 0.987326
0.0213607 -0.126963 0.988671
0.021603 -0.125453 0.990155
0.0218453 -0.123947 0.99171
0.0220891 -0.122426 0.993184
0.022334 -0.120895 0.994608
0.0225831 -0.119315 0.995633
0.0228363 -0.117683 0.996227
0.0230915 -0.116025 0.996581
0.0233471 -0.114364 0.996935
0.023603 -0.1127 0.997269
0.0238596 -0.111026 0.997503
0.0241158 -0.109361 0.997857
0.0243726 -0.107687 0.998111
0.0246304 -0.106 0.998254
0.0248891 -0.104299 0.998248
0.0251486 -0.102584 0.998102
0.0254086 -0.10086 0.997846
0.0256697 -0.0991171 0.99738
0.0259305 -0.0973751 0.996903
0.0261918 -0.0956232 0.996297
0.0264539 -0.0938531 0.99546
0.0267165 -0.0920653 0.994374
0.0269783 -0.0902888 0.993388
0.0272408 -0.0884897 0.992081
0.0275021 -0.0867036 0.990875
0.0277631 -0.0849212 0.989678
0.0280234 -0.0831364 0.988382
0.0282851 -0.0813066 0.986435
0.0285452 -0.0795027 0.984759
0.0288061 -0.0776483 0.982282
0.0290654 -0.0758182 0.980043
0.0293233 -0.0740048 0.977939
0.0295788 -0.0722536 0.976671
0.0298333 -0.0705242 0.975673
0.0300866 -0.0688423 0.975379
0.0303396 -0.0671734 0.975284
0.0305924 -0.0655166 0.975385
0.0308453 -0.0638709 0.975687
0.0310983 -0.0622384 0.976241
0.0313516 -0.0606231 0.977145
0.0316054 -0.0590014 0.977987
0.0318606 -0.0574418 0.980099
0.0321171 -0.0558964 0.982633
0.0323756 -0.0543595 0.985538
0.0326373 -0.0528678 0.989622
0.0329075 -0.0515247 0.997367
0.033181 -0.0501453 1.00486
0.0334604 -0.0487768 1.01324
0.0337428 -0.0473599 1.02109
0.0340253 -0.0458643 1.02756
0.0342996 -0.0442107 1.03024
0.0345714 -0.0425075 1.03174
0.0348395 -0.0407575 1.03198
0.0351057 -0.0389904 1.03168
0.0353685 -0.037199 1.03053
0.0356284 -0.035398 1.0289
0.035884 -0.0335826 1.02649
0.0361343 -0.0317535 1.02321
0.0363788 -0.029918 1.01915
0.0366195 -0.0280886 1.01474
0.0368557 -0.0262661 1.00993
0.037093 -0.0244705 1.00572
0.0373313 -0.0226971 1.00203
0.0375692 -0.0209395 0.998576
0.0378079 -0.0191981 0.99551
0.0380486 -0.017473 0.992974
0.0382884 -0.0157566 0.990478
0.0385258 -0.0140473 0.987821
0.038765 -0.0123494 0.985585
0.0390039 -0.0106595 0.983459
0.0392429 -0.00897701 0.981483
0.0394839 -0.00730147 0.979859
0.0397281 -0.00563102 0.978701
0.039972 -0.00396433 0.97758
0.0402171 -0.00230058 0.97665
0.0404628 -0.000639331 0.975829
0.0407091 0.00102001 0.975116
0.04095 0.00267238 0.973895
0.041192 0.0043226 0.972848
0.0414299 0.00596502 0.971457
0.041665 0.00759996 0.969861
0.0419004 0.00923129 0.968373
0.0421402 0.0108656 0.967343
0.0423774 0.0124932 0.966137
0.0426211 0.0141291 0.96553
0.0428645 0.0157632 0.964929
0.043108 0.0173961 0.964362
0.0433514 0.0190276 0.963812
0.0435778 0.020621 0.961938
0.0438003 0.0222014 0.959837
0.0440075 0.0237418 0.956659
0.0442107 0.0252658 0.953306
0.0443996 0.0267472 0.94903
0.0446063 0.0282656 0.946187
0.044808 0.0297649 0.943089
0.0450216 0.0312907 0.940931
0.045231 0.0328005 0.938558
0.0454563 0.034351 0.937327
0.0456845 0.0359074 0.936324
0.0459141 0.037466 0.935445
0.0461529 0.039051 0.93518
0.0463989 0.0406579 0.935377
0.0466452 0.0422659 0.935585
0.0468921 0.043876 0.935818
0.0471456 0.0455081 0.936442
0.0474029 0.0471536 0.937271
0.0476578 0.0487926 0.937934
0.0479127 0.0504325 0.938578
0.0481655 0.0520664 0.939086
0.0484074 0.0536634 0.938976
0.0486472 0.0552525 0.93875
0.0488866 0.05684 0.93851
0.0491265 0.0584293 0.938309
0.0493648 0.060012 0.93802
0.0496044 0.0615994 0.937812
0.0498334 0.0631468 0.937064
0.0500594 0.0646822 0.936184
0.0502827 0.0662058 0.93519
0.0504983 0.0676989 0.933845
0.0507089 0.0691709 0.93229
0.0509198 0.0706417 0.930785
0.0511255 0.0720903 0.92907
0.0513292 0.0735289 0.927305
0.0515434 0.0750064 0.926063
0.0517619 0.0765001 0.925052
0.0519865 0.0780171 0.924337
0.0522235 0.0795835 0.924194
0.0524658 0.0811713 0.924286
0.0527089 0.0827629 0.924415
0.0529651 0.0844088 0.925105
0.0532261 0.0860757 0.925987
0.0534822 0.0877231 0.926641
0.0537477 0.0894109 0.927674
0.0540134 0.0911007 0.928693
0.0542747 0.0927732 0.929513
0.0545343 0.0944389 0.930242
0.0548036 0.096148 0.931355
0.0550624 0.0978124 0.932017
0.0553261 0.0994989 0.932867
0.0555873 0.101175 0.933598
0.055851 0.102864 0.93441
0.0561106 0.104535 0.935053
0.0563783 0.106243 0.935991
0.0566407 0.107928 0.936711
0.058854 0.11083 0.949474
0.057023 0.110153 0.941865
0.0574401 0.11254 0.94821
0.0173089 -0.142426 0.992872
0.0176532 -0.13987 0.986353
0.0179106 -0.138171 0.986206
0.0181677 -0.136475 0.98608
0.0184248 -0.134778 0.985954
0.0186793 -0.133109 0.986048
0.0189282 -0.131497 0.986582
0.0191807 -0.129848 0.986846
0.0194295 -0.128239 0.98745
0.0196737 -0.126678 0.988465
0.019916 -0.125142 0.989719
0.0201567 -0.123622 0.991154
0.0203971 -0.122112 0.992718
0.0206383 -0.120594 0.994253
0.0208844 -0.119028 0.995417
0.0211352 -0.11741 0.996121
0.0213897 -0.115753 0.996495
0.0216457 -0.114081 0.996739
0.021902 -0.112405 0.996953
0.0221593 -0.110717 0.997057
0.0224156 -0.109042 0.997281
0.0226721 -0.107366 0.997515
0.0229297 -0.105678 0.997639
0.0231889 -0.103968 0.997523
0.0234494 -0.102244 0.997276
0.0237105 -0.10051 0.9969
0.0239736 -0.0987489 0.996204
0.0242366 -0.0969882 0.995497
0.0245001 -0.0952179 0.994651
0.0247646 -0.0934305 0.993574
0.0250299 -0.0916274 0.992268
0.0252934 -0.0898444 0.991151
0.0255587 -0.0880317 0.989625
0.0258226 -0.0862335 0.988218
0.0260858 -0.0844388 0.986792
0.0263494 -0.0826327 0.985155
0.0266151 -0.0807826 0.982858
0.0268781 -0.0789667 0.980922
0.0271418 -0.0771281 0.978573
0.0274036 -0.0753087 0.976389
0.0276641 -0.073501 0.97427
0.0279208 -0.0717562 0.973001
0.0281752 -0.0700523 0.9723
0.0284275 -0.0683888 0.972209
0.028679 -0.0667477 0.972481
0.0289296 -0.0651295 0.973158
0.0291803 -0.0635195 0.974014
0.0294315 -0.0619025 0.974796
0.0296826 -0.0603026 0.975945
0.0299344 -0.0586944 0.977007
0.0301857 -0.0571421 0.97924
0.0304379 -0.0555966 0.981767
0.0306913 -0.0540485 0.984412
0.0309456 -0.0526036 0.989496
0.0312027 -0.0512736 0.997572
0.0314639 -0.0499058 1.0054
0.0317296 -0.0485441 1.01401
0.0319991 -0.0471358 1.02217
0.0322701 -0.0456013 1.02769
0.0325399 -0.0439462 1.03036
0.0336105 -0.0369621 1.03161
0.0338736 -0.0351599 1.02998
0.0341335 -0.0333431 1.02758
0.0343901 -0.0315189 1.02452
0.0346429 -0.0296884 1.02074
0.0348922 -0.0278633 1.01661
0.0351388 -0.0260476 1.01225
0.0353837 -0.0242489 1.00803
0.035629 -0.0224738 1.00442
0.0358737 -0.0207144 1.00105
0.0361191 -0.0189722 0.998185
0.0363645 -0.0172424 0.995578
0.0366096 -0.0155232 0.993172
0.0368516 -0.0138098 0.990456
0.0370937 -0.0121066 0.98796
0.0373352 -0.0104123 0.985584
0.0375771 -0.00872641 0.983457
0.0378198 -0.00704785 0.981611
0.0380647 -0.00537503 0.980215
0.0383099 -0.0037065 0.978958
0.0385561 -0.00204122 0.977916
0.0388017 -0.000379412 0.97687
0.0390486 0.00128065 0.976053
0.0392909 0.00293331 0.974731
0.039534 0.00458338 0.973574
0.0397743 0.00622641 0.972165
0.0400131 0.00786347 0.970668
0.0402523 0.0094978 0.969307
0.0404951 0.0111352 0.968384
0.0407358 0.0127665 0.9673
0.0409811 0.014405 0.966731
0.0412262 0.0160418 0.966166
0.0414542 0.0176378 0.964005
0.0416795 0.0192226 0.961692
0.0418872 0.0207586 0.957891
0.042091 0.0222767 0.953916
0.0422826 0.0237538 0.949047
0.0424902 0.0252663 0.945757
0.0426862 0.0267393 0.941637
0.0429026 0.0282645 0.939347
0.0431156 0.0297754 0.936881
0.0433421 0.0313233 0.935564
0.0435654 0.0328591 0.934058
0.0438026 0.034437 0.933652
0.0440409 0.0360178 0.933346
0.0442821 0.0376079 0.933261
0.0445264 0.0392082 0.933394
0.0447749 0.0408233 0.933819
0.0450234 0.0424392 0.934231
0.0452723 0.044057 0.934653
0.0455231 0.0456824 0.935188
0.0457775 0.0473214 0.935934
0.0460292 0.0489518 0.936488
0.0462792 0.0505767 0.936913
0.0465272 0.0521944 0.937201
0.0467669 0.0537809 0.936978
0.0470064 0.0553661 0.936742
0.0472458 0.0569507 0.936511
0.0474874 0.0585439 0.936418
0.0477259 0.0601244 0.936146
0.0479653 0.0617081 0.935932
0.0481917 0.0632384 0.934994
0.048418 0.0647674 0.93408
0.0486405 0.0662797 0.932985
0.048858 0.0677694 0.93165
0.049073 0.0692473 0.93022
0.0492882 0.0707244 0.92884
0.0494967 0.0721711 0.927149
0.049703 0.0736063 0.925388
0.0499183 0.0750784 0.924121
0.0501358 0.0765589 0.923001
0.0503608 0.0780711 0.922274
0.0505995 0.0796425 0.922224
0.0508452 0.0812453 0.922514
0.0510924 0.0828549 0.922864
0.0513516 0.0845191 0.92377
0.0516174 0.0862141 0.924958
0.0518765 0.0878793 0.925809
0.0521402 0.0895668 0.92685
0.0524039 0.0912556 0.92787
0.0526617 0.0929178 0.928603
0.052915 0.09456 0.929125
0.0531773 0.0962448 0.930024
0.0534295 0.0978831 0.930477
0.0536889 0.0995558 0.931214
0.053948 0.101227 0.931933
0.0542077 0.102903 0.932652
0.0544658 0.104571 0.933295
0.0547286 0.106263 0.93412
0.0549804 0.107902 0.934478
0.0552236 0.109501 0.934496
0.0156332 -0.141984 0.991516
0.0159534 -0.139738 0.987317
0.0162111 -0.138039 0.987191
0.0164671 -0.136355 0.987165
0.0167262 -0.134643 0.986929
0.0169822 -0.132959 0.986903
0.0172339 -0.131314 0.987197
0.0174878 -0.129649 0.987351
0.0177389 -0.12801 0.987705
0.017983 -0.126434 0.988589
0.0182245 -0.124884 0.989743
0.0184643 -0.123352 0.991078
0.0187017 -0.121843 0.992643
0.0189405 -0.120324 0.994177
0.0191842 -0.118761 0.995351
0.0194339 -0.117142 0.996066
0.0196868 -0.115496 0.99654
0.0199424 -0.113823 0.996764
0.0201995 -0.112135 0.996868
0.0204578 -0.110436 0.996861
0.020715 -0.108748 0.996965
0.0209722 -0.10706 0.997069
0.0212305 -0.105362 0.997073
0.0214899 -0.103652 0.996957
0.0217516 -0.101919 0.99659
0.0220144 -0.100175 0.996094
0.0222797 -0.0984018 0.995258
0.0225456 -0.0966215 0.994311
0.0228121 -0.0948339 0.993245
0.0230797 -0.0930293 0.991928
0.0233486 -0.0912103 0.990401
0.0236151 -0.0894134 0.989075
0.0238831 -0.0875973 0.987458
0.0241494 -0.0857949 0.985942
0.0244152 -0.0839964 0.984415
0.0246822 -0.082178 0.982558
0.0249513 -0.0803317 0.980242
0.0252181 -0.0785054 0.978092
0.0254847 -0.0766748 0.975782
0.0257481 -0.0748776 0.973845
0.0260103 -0.0730902 0.971956
0.0262687 -0.0713481 0.970661
0.0265229 -0.069658 0.970113
0.026775 -0.0679964 0.969992
0.0270252 -0.0663613 0.970304
0.0272736 -0.0647549 0.971121
0.0275214 -0.0631629 0.972233
0.0277697 -0.0615671 0.97335
0.0280171 -0.0599935 0.974944
0.0282659 -0.058405 0.976357
0.0285131 -0.0568543 0.978609
0.028761 -0.0553077 0.981101
0.0290104 -0.0537472 0.983476
0.0292538 -0.0523551 0.989721
0.0294968 -0.0510408 0.998206
0.0297443 -0.0496947 1.00661
0.0299959 -0.0483236 1.0151
0.030252 -0.0469129 1.02329
0.0305148 -0.04532 1.02733
0.0328996 -0.0294324 1.02119
0.0331573 -0.0276211 1.0177
0.033413 -0.0258191 1.01411
0.0336668 -0.0240284 1.01047
0.0339199 -0.0222556 1.00721
0.0341714 -0.0204948 1.00402
0.0344227 -0.01875 1.00127
0.0346731 -0.0170154 0.998633
0.0349229 -0.0152917 0.996207
0.0351703 -0.0135735 0.99346
0.0354167 -0.0118653 0.990824
0.0356618 -0.0101658 0.988208
0.0359067 -0.00847566 0.985832
0.0361522 -0.00679358 0.983815
0.0363982 -0.0051179 0.982079
0.036644 -0.00344756 0.980473
0.0368916 -0.00178066 0.979306
0.0371379 -0.000118261 0.978032
0.0373851 0.0015418 0.976997
0.0376291 0.00319452 0.975556
0.0378736 0.00484444 0.974291
0.0381164 0.00648839 0.97289
0.0383586 0.00812761 0.971488
0.0386012 0.00976467 0.970237
0.0388466 0.0114054 0.969427
0.0390765 0.0130071 0.966755
0.0393081 0.0146074 0.964439
0.039539 0.0162012 0.962178
0.0397541 0.0177466 0.958257
0.0399657 0.0192746 0.954171
0.040176 0.0207914 0.950171
0.0403829 0.0222906 0.946026
0.0405784 0.0237464 0.940936
0.0407909 0.025249 0.937786
0.0409979 0.026728 0.934256
0.0412238 0.0282663 0.932683
0.0414502 0.0298038 0.931228
0.0416889 0.0313829 0.930944
0.0419261 0.0329563 0.930545
0.0421736 0.0345669 0.931043
0.0424199 0.036174 0.931422
0.0426643 0.0377742 0.931626
0.042909 0.0393761 0.931853
0.0431562 0.040988 0.932263
0.0434037 0.0426014 0.932676
0.0436514 0.0442167 0.933097
0.0438996 0.045834 0.93353
0.0441519 0.047469 0.93425
0.0444008 0.0490906 0.934699
0.0446468 0.050701 0.934934
0.0448908 0.0523027 0.935013
0.04513 0.053884 0.934765
0.0453664 0.055453 0.934339
0.0456029 0.0570216 0.933931
0.0458423 0.0586027 0.933722
0.0460787 0.0601704 0.933334
0.0463146 0.0617353 0.932923
0.0465404 0.0632542 0.931901
0.0467675 0.0647785 0.930996
0.0469912 0.0662857 0.929909
0.0472118 0.0677778 0.928672
0.0474305 0.0692598 0.927363
0.0476478 0.0707339 0.926009
0.0478605 0.0721849 0.924432
0.0480704 0.0736215 0.922746
0.0482867 0.0750874 0.921465
0.0485051 0.0765616 0.920325
0.0487307 0.0780693 0.919603
0.048969 0.0796373 0.919563
0.0492174 0.0812544 0.920053
0.0494695 0.08289 0.920721
0.0497331 0.0845825 0.921955
0.0500049 0.0863158 0.923563
0.050268 0.0880078 0.924703
0.0505319 0.0897045 0.925852
0.0507937 0.091392 0.926873
0.0510498 0.0930521 0.9276
0.0512997 0.0946816 0.928018
0.0515597 0.0963622 0.928894
0.0518084 0.0979865 0.929229
0.0520616 0.0996331 0.929762
0.0523165 0.10129 0.93036
0.0525742 0.102961 0.931067
0.0528264 0.104604 0.931516
0.0530854 0.106283 0.932253
0.0533388 0.107933 0.932727
0.0535756 0.109498 0.932492
0.0538061 0.11103 0.931997
0.0135286 -0.144622 1.00045
0.013938 -0.141735 0.99161
0.0142351 -0.139727 0.989202
0.0145091 -0.137902 0.988126
0.0147672 -0.136202 0.98799
0.0150285 -0.134475 0.987653
0.015288 -0.132764 0.987427
0.0155423 -0.131093 0.987511
0.0157949 -0.129437 0.987735
0.0160456 -0.127796 0.988079
0.0162885 -0.126218 0.988973
0.0165279 -0.124669 0.990128
0.0167656 -0.123136 0.991452
0.0170005 -0.121625 0.993027
0.0172383 -0.120094 0.994452
0.0174814 -0.118518 0.995536
0.0177301 -0.116899 0.99623
0.0179809 -0.115262 0.996794
0.0182362 -0.113588 0.997018
0.0184919 -0.111911 0.997232
0.0187502 -0.110213 0.997236
0.0190075 -0.108523 0.99733
0.0192673 -0.106812 0.997214
0.0195269 -0.105102 0.997097
0.0197877 -0.103381 0.996861
0.0200513 -0.101638 0.996385
0.0203161 -0.0998824 0.995758
0.020584 -0.0980991 0.994802
0.0208548 -0.0962888 0.993495
0.0211254 -0.0944803 0.992169
0.0213962 -0.0926676 0.990742
0.0216684 -0.0908414 0.989095
0.0219376 -0.0890399 0.987679
0.022208 -0.0872255 0.986052
0.0224784 -0.0854084 0.984315
0.0227473 -0.0836033 0.982659
0.0230189 -0.081772 0.980592
0.0232909 -0.0799316 0.978296
0.0235613 -0.0781045 0.976082
0.0238305 -0.0762857 0.973885
0.0240974 -0.0744855 0.971847
0.0243617 -0.0727076 0.970044
0.0246224 -0.0709616 0.968636
0.0248771 -0.0692746 0.968079
0.0251288 -0.067616 0.967952
0.0253775 -0.0659906 0.968367
0.0256238 -0.0643882 0.969199
0.0258683 -0.0628107 0.970518
0.0261131 -0.0612303 0.971862
0.0263557 -0.0596775 0.973804
0.0266001 -0.0581099 0.975588
0.0268428 -0.0565663 0.977968
0.027086 -0.0550247 0.980555
0.0273314 -0.0534616 0.98286
0.0275605 -0.0521166 0.990155
0.0277882 -0.0508159 0.999021
0.0280206 -0.0494822 1.00781
0.028259 -0.0480963 1.01602
0.0285025 -0.0466705 1.02393
0.0316808 -0.0255754 1.0152
0.0319415 -0.0237968 1.01232
0.032201 -0.0220297 1.00958
0.0324593 -0.0202722 1.00687
0.0327163 -0.0185272 1.00444
0.0329724 -0.0167902 1.00202
0.0332273 -0.0150622 0.999691
0.0334802 -0.0133397 0.997025
0.0337316 -0.0116256 0.994279
0.0339813 -0.00992027 0.991432
0.03423 -0.0082247 0.988706
