ply
format ascii 1.0
element vertex 1693
property float x
property float y
property float z
end_header
0.167707 -0.0808692 0.777221
0.167152 -0.0821807 0.777022
0.166595 -0.08349 0.776808
0.166038 -0.0847978 0.776591
0.165471 -0.0861003 0.776326
0.164904 -0.0874013 0.776055
0.164337 -0.0887002 0.775771
0.163766 -0.0899962 0.77547
0.163212 -0.0912989 0.775264
0.162692 -0.0926163 0.775235
0.16219 -0.0939425 0.775306
0.161744 -0.0952963 0.775685
0.161301 -0.0966528 0.776082
0.160846 -0.0980042 0.776418
0.160401 -0.0993618 0.776806
0.159954 -0.100718 0.777182
0.159477 -0.10206 0.777398
0.158946 -0.10337 0.777307
0.158382 -0.104662 0.777033
0.157785 -0.105932 0.77657
0.157218 -0.107217 0.776264
0.156631 -0.108488 0.775845
0.1561 -0.109793 0.775742
0.155644 -0.111144 0.776074
0.155222 -0.112519 0.776599
0.154796 -0.113891 0.777105
0.154423 -0.1153 0.77792
0.154059 -0.116719 0.778792
0.153654 -0.118112 0.77943
0.15326 -0.119515 0.780139
0.152879 -0.12093 0.780923
0.152461 -0.12232 0.781498
0.15204 -0.123709 0.782055
0.151616 -0.125098 0.782594
0.151151 -0.126457 0.782896
0.150764 -0.127878 0.783667
0.150462 -0.129368 0.784957
0.150186 -0.130884 0.786411
0.149964 -0.132449 0.788198
0.149784 -0.134055 0.790254
0.149643 -0.135702 0.792566
0.149486 -0.137345 0.794797
0.14952 -0.139161 0.798212
0.149642 -0.141069 0.802203
0.149731 -0.142962 0.806013
0.149704 -0.144766 0.809134
0.149623 -0.146533 0.81193
0.20819 -0.0114111 0.831145
0.207129 -0.0128602 0.828885
0.205786 -0.0143068 0.825328
0.204485 -0.0157414 0.821944
0.203147 -0.0171644 0.818375
0.201838 -0.0185761 0.81491
0.200628 -0.0199768 0.811884
0.199461 -0.0213683 0.809038
0.198358 -0.0227518 0.806466
0.19727 -0.0241268 0.803954
0.196281 -0.0254973 0.80188
0.195352 -0.0268635 0.800072
0.194465 -0.0282256 0.798453
0.193569 -0.0295814 0.796779
0.192743 -0.0309363 0.795422
0.191905 -0.0322854 0.793999
0.191054 -0.033628 0.79251
0.190238 -0.0349687 0.791176
0.189493 -0.0363118 0.790165
0.188725 -0.0376482 0.789046
0.188046 -0.0389911 0.788334
0.187401 -0.0403357 0.787787
0.186725 -0.0416734 0.787084
0.186014 -0.0430035 0.786212
0.185312 -0.0443316 0.785376
0.184599 -0.0456546 0.784474
0.183877 -0.0469726 0.783526
0.183238 -0.0483016 0.782978
0.182637 -0.0496349 0.782609
0.182041 -0.0509677 0.782266
0.181445 -0.0522986 0.781918
0.180862 -0.0536306 0.781626
0.180262 -0.0549575 0.781254
0.179648 -0.0562795 0.780808
0.179083 -0.057611 0.780601
0.178536 -0.0589455 0.780483
0.177991 -0.0602796 0.780375
0.177415 -0.0616049 0.780107
0.176864 -0.0629354 0.779961
0.176253 -0.0642484 0.779511
0.175641 -0.065559 0.779053
0.175015 -0.0668635 0.778525
0.174406 -0.0681707 0.778074
0.173754 -0.0694623 0.777399
0.173159 -0.0707696 0.777014
0.17257 -0.0720765 0.776649
0.172013 -0.0733933 0.776457
0.171492 -0.0747208 0.776442
0.171 -0.0760583 0.776578
0.170507 -0.0773958 0.776714
0.170015 -0.0787333 0.77685
0.169523 -0.0800708 0.776987
0.169001 -0.0813968 0.776969
0.168461 -0.0827147 0.776855
0.167918 -0.0840303 0.776718
0.167348 -0.0853336 0.776438
0.16678 -0.086636 0.776166
0.166198 -0.0879309 0.775818
0.165628 -0.0892293 0.77553
0.165058 -0.090526 0.775237
0.164519 -0.0918363 0.775116
0.164001 -0.0931555 0.7751
0.163512 -0.0944888 0.775247
0.163067 -0.0958439 0.775627
0.162621 -0.0971996 0.776008
0.162166 -0.0985518 0.776337
0.161705 -0.0999012 0.776644
0.161256 -0.101258 0.77701
0.160766 -0.102592 0.777148
0.160207 -0.103888 0.776906
0.159639 -0.105177 0.776612
0.159053 -0.106454 0.776211
0.158485 -0.107738 0.775911
0.157928 -0.109028 0.775661
0.157439 -0.110359 0.775803
0.15699 -0.111716 0.776173
0.156568 -0.113092 0.776703
0.156142 -0.114466 0.7772
0.155755 -0.115866 0.777929
0.155379 -0.117278 0.778731
0.154988 -0.118681 0.779449
0.154611 -0.120097 0.780248
0.154231 -0.121513 0.781039
0.153812 -0.122903 0.781604
0.15339 -0.124293 0.782152
0.152965 -0.125682 0.782687
0.152503 -0.127045 0.78301
0.152118 -0.128468 0.783787
0.151804 -0.129949 0.784995
0.151526 -0.131464 0.786427
0.151291 -0.133018 0.788123
0.151128 -0.134638 0.790268
0.151006 -0.136301 0.792673
0.150866 -0.137959 0.794988
0.150863 -0.139741 0.798154
0.151027 -0.141683 0.802359
0.151128 -0.143585 0.806211
0.151142 -0.145427 0.809558
0.151127 -0.147254 0.812749
0.209208 -0.00995627 0.833199
0.211163 -0.0104824 0.835395
0.210184 -0.0119386 0.83354
0.209025 -0.0133933 0.830861
0.207571 -0.0148431 0.826845
0.206111 -0.0162801 0.822777
0.204656 -0.0177031 0.818709
0.20326 -0.0191134 0.81488
0.20208 -0.0205136 0.812016
0.200946 -0.0219048 0.809344
0.199859 -0.0232888 0.806868
0.198803 -0.0246648 0.804521
0.197809 -0.0260358 0.802444
0.196855 -0.0274015 0.800541
0.195925 -0.0287618 0.798735
0.195002 -0.0301163 0.79695
0.194135 -0.0314685 0.79542
0.193292 -0.0328171 0.793989
0.192441 -0.0341599 0.792508
0.191624 -0.0355004 0.791181
0.190877 -0.0368435 0.790174
0.190106 -0.03818 0.789051
0.189408 -0.039521 0.78826
0.188761 -0.0408657 0.787707
0.1881 -0.0422059 0.787087
0.187423 -0.0435414 0.786383
0.186727 -0.0448713 0.785582
0.186012 -0.0461946 0.784689
0.185268 -0.0475098 0.783639
0.18459 -0.0488327 0.782912
0.183935 -0.0501565 0.782289
0.183333 -0.0514882 0.78192
0.182735 -0.0528191 0.781563
0.182149 -0.0541506 0.781266
0.181579 -0.0554841 0.781045
0.180984 -0.0568106 0.780695
0.180423 -0.0581437 0.780512
0.179879 -0.0594795 0.780411
0.17935 -0.0608182 0.780383
0.178775 -0.0621446 0.780128
0.178226 -0.0634765 0.779993
0.177611 -0.0647893 0.779536
0.176997 -0.0661001 0.77907
0.176382 -0.0674084 0.778601
0.175757 -0.0687119 0.778077
0.175104 -0.0700038 0.777406
0.174508 -0.0713116 0.777018
0.173913 -0.0726175 0.776632
0.17334 -0.0739295 0.776362
0.172816 -0.0752567 0.776339
0.17231 -0.0765898 0.776402
0.171802 -0.0779223 0.776458
0.171294 -0.0792542 0.776513
0.170787 -0.0805862 0.776571
0.170265 -0.0819122 0.776555
0.169742 -0.0832372 0.77653
0.169217 -0.0845608 0.776495
0.168649 -0.0858652 0.77623
0.168079 -0.0871674 0.77595
0.167493 -0.0884608 0.775584
0.166921 -0.0897593 0.775296
0.166355 -0.0910582 0.775026
0.165832 -0.0923767 0.774996
0.165328 -0.0937035 0.775059
0.16484 -0.0950374 0.775204
0.164378 -0.0963851 0.775496
0.163916 -0.0977338 0.775792
0.163456 -0.0990827 0.776093
0.16298 -0.100425 0.776315
0.162517 -0.101775 0.776603
0.162026 -0.103109 0.776739
0.161466 -0.104404 0.77649
0.160884 -0.105685 0.776123
0.160296 -0.10696 0.775717
0.159726 -0.108244 0.775406
0.159196 -0.109552 0.775317
0.158728 -0.110896 0.775577
0.158301 -0.112266 0.776065
0.157896 -0.113653 0.776686
0.157478 -0.115033 0.777233
0.157073 -0.116424 0.777864
0.156697 -0.117835 0.778655
0.156323 -0.11925 0.779464
0.155948 -0.120669 0.780274
0.155572 -0.122088 0.781079
0.155154 -0.12348 0.78165
0.154731 -0.124869 0.782191
0.154306 -0.12626 0.782725
0.153857 -0.127634 0.783124
0.153475 -0.12906 0.783916
0.153149 -0.130532 0.785044
0.15287 -0.132046 0.786457
0.152621 -0.13359 0.788061
0.152451 -0.135204 0.79014
0.152335 -0.136871 0.792563
0.152199 -0.13853 0.794882
0.152169 -0.14029 0.797858
0.152358 -0.142251 0.802185
0.15249 -0.144179 0.806189
0.15256 -0.146068 0.809848
0.152625 -0.147968 0.8135
0.2128 -0.0110227 0.836144
0.21195 -0.0124765 0.834878
0.210896 -0.0139298 0.832699
0.209568 -0.0153794 0.829278
0.208002 -0.0168189 0.824776
0.206449 -0.0182432 0.820305
0.204948 -0.0196536 0.816039
0.203643 -0.0210526 0.812636
0.202397 -0.0224416 0.80948
0.201344 -0.0238261 0.807182
0.200304 -0.0252031 0.804926
0.199323 -0.0265747 0.802928
0.198381 -0.0279415 0.801096
0.19741 -0.0293 0.799125
0.196463 -0.0306533 0.797244
0.19557 -0.0320041 0.795608
0.194689 -0.0333501 0.794013
0.193816 -0.0346907 0.792446
0.192996 -0.0360312 0.791116
0.192246 -0.0373741 0.790107
0.191471 -0.0387106 0.78897
0.190752 -0.0400493 0.788091
0.1901 -0.0413933 0.787525
0.189457 -0.0427364 0.786992
0.188799 -0.044075 0.786391
0.188124 -0.0454083 0.785697
0.187424 -0.046735 0.784882
0.186673 -0.0480499 0.783816
0.185957 -0.0493667 0.782914
0.185264 -0.0506842 0.782115
0.184629 -0.0520098 0.781586
0.184027 -0.0533398 0.781218
0.183442 -0.0546717 0.780927
0.182889 -0.0560091 0.780794
0.18231 -0.0573395 0.780527
0.181764 -0.0586764 0.780421
0.181219 -0.0600129 0.780316
0.180689 -0.0613521 0.780291
0.18013 -0.0626832 0.780115
0.179583 -0.0640165 0.779999
0.178973 -0.0653313 0.779564
0.178356 -0.0666422 0.779098
0.177741 -0.0679515 0.77863
0.177099 -0.0692503 0.778031
0.176443 -0.0705421 0.777349
0.175844 -0.0718495 0.776957
0.175248 -0.0731558 0.776568
0.174674 -0.0744681 0.776299
0.17415 -0.0757963 0.776274
0.173628 -0.0771244 0.776259
0.173102 -0.0784509 0.776228
0.172576 -0.0797766 0.77619
0.172051 -0.081102 0.77616
0.171515 -0.0824225 0.77607
0.170994 -0.083748 0.776055
0.170471 -0.0850722 0.776032
0.169903 -0.086377 0.775769
0.169332 -0.0876786 0.775486
0.168757 -0.0889774 0.775188
0.1682 -0.0902825 0.774979
0.167649 -0.091589 0.774795
0.167143 -0.0929157 0.774852
0.166652 -0.0942494 0.774988
0.166163 -0.095584 0.77513
0.165699 -0.0969311 0.775414
0.165237 -0.0982801 0.775706
0.164761 -0.099623 0.775924
0.164271 -0.100958 0.776066
0.163792 -0.102298 0.776267
0.163286 -0.103625 0.776324
0.162712 -0.104912 0.776003
0.16213 -0.106193 0.775637
0.161542 -0.107469 0.775236
0.160973 -0.108753 0.774936
0.16047 -0.110077 0.774999
0.160031 -0.11144 0.77542
0.159621 -0.112822 0.776005
0.159218 -0.114211 0.776635
0.158811 -0.115599 0.777236
0.158391 -0.11698 0.777778
0.158015 -0.118391 0.778562
0.157657 -0.119818 0.77946
0.157299 -0.121248 0.780361
0.156925 -0.122671 0.781182
0.156506 -0.124062 0.781739
0.156081 -0.125453 0.782274
0.155657 -0.126845 0.782812
0.155223 -0.128231 0.783294
0.154858 -0.12967 0.784182
0.154533 -0.131145 0.785311
0.154241 -0.132649 0.786639
0.153978 -0.134182 0.788143
0.153796 -0.135786 0.790141
0.153659 -0.137436 0.79242
0.153514 -0.139087 0.794668
0.153444 -0.140811 0.797378
0.153662 -0.142794 0.801831
0.153839 -0.144759 0.806073
0.153963 -0.146695 0.810028
0.154081 -0.148642 0.813973
0.214355 -0.0115672 0.836516
0.213631 -0.0130184 0.835819
0.21268 -0.0144708 0.834115
0.211523 -0.0159195 0.831486
0.209938 -0.0173606 0.826937
0.208311 -0.0187866 0.822176
0.206676 -0.0201964 0.817353
0.205232 -0.0215939 0.813357
0.203846 -0.0229794 0.809594
0.202828 -0.0243644 0.807477
0.201802 -0.0257417 0.805306
0.200835 -0.0271145 0.803392
0.199894 -0.0284819 0.801579
0.198904 -0.0298398 0.799537
0.197949 -0.0311932 0.797642
0.197032 -0.0325425 0.795908
0.196109 -0.0338853 0.794134
0.195213 -0.0352243 0.792477
0.194389 -0.0365644 0.791141
0.1936 -0.0379036 0.789963
0.19282 -0.0392395 0.788811
0.192097 -0.0405779 0.787922
0.191427 -0.0419199 0.787279
0.190799 -0.043265 0.786823
0.190175 -0.044609 0.786385
0.189501 -0.0459431 0.785709
0.188819 -0.0472731 0.784986
0.18808 -0.0485905 0.783987
0.187343 -0.0499043 0.782996
0.186615 -0.0512159 0.782037
0.18596 -0.0525385 0.781421
0.185326 -0.0538622 0.780906
0.184743 -0.0551946 0.780624
0.184194 -0.0565331 0.780508
0.183613 -0.0578635 0.780243
0.183065 -0.0592004 0.78013
0.182513 -0.0605352 0.779996
0.18198 -0.061874 0.779954
0.181421 -0.0632053 0.779781
0.180893 -0.0645438 0.779759
0.180315 -0.065868 0.779491
0.179732 -0.0671893 0.779194
0.179131 -0.0685036 0.778809
0.178503 -0.069808 0.778283
0.177846 -0.0711006 0.777606
0.177229 -0.0724032 0.777128
0.176617 -0.0737055 0.776671
0.176028 -0.0750137 0.776326
0.17549 -0.0763377 0.776236
0.174951 -0.0776608 0.776139
0.174408 -0.0789814 0.776016
0.17386 -0.0802995 0.775874
0.173317 -0.0816181 0.775752
0.172764 -0.0829321 0.775581
0.172242 -0.0842572 0.77556
0.171717 -0.0855807 0.775528
0.171148 -0.0868848 0.77526
0.170575 -0.088186 0.774978
0.170015 -0.0894911 0.774758
0.169475 -0.090804 0.774636
0.168939 -0.0921178 0.774539
0.168448 -0.0934521 0.774675
0.167957 -0.0947863 0.77481
0.167466 -0.0961206 0.774946
0.16699 -0.0974619 0.775161
0.166529 -0.098812 0.775458
0.166041 -0.100148 0.775613
0.16555 -0.101483 0.775751
0.165069 -0.102824 0.775945
0.164562 -0.10415 0.775993
0.163986 -0.105436 0.775669
0.163405 -0.106718 0.775313
0.162817 -0.107994 0.774917
0.162234 -0.109271 0.774547
0.161743 -0.110603 0.774676
0.161319 -0.111974 0.775171
0.160923 -0.113366 0.775834
0.160535 -0.114764 0.776539
0.160141 -0.116161 0.777217
0.159734 -0.117552 0.77783
0.159348 -0.118958 0.778555
0.159005 -0.120396 0.779537
0.15865 -0.121829 0.780444
0.158289 -0.123261 0.78133
0.157869 -0.124653 0.781886
0.157445 -0.126045 0.78242
0.157008 -0.127429 0.782887
0.156589 -0.128826 0.783448
0.156213 -0.130259 0.784269
0.155878 -0.131726 0.785332
0.155573 -0.133221 0.786578
0.155308 -0.134752 0.788063
0.155113 -0.136346 0.78997
0.154964 -0.137985 0.792159
0.154808 -0.139625 0.794315
0.154714 -0.141328 0.796861
0.15495 -0.143324 0.801387
0.15518 -0.145332 0.805905
0.155346 -0.147303 0.810072
0.155503 -0.149283 0.814222
0.215819 -0.0121152 0.836481
0.215188 -0.0135649 0.836194
0.21433 -0.0150163 0.834916
0.213333 -0.0164643 0.833014
0.211753 -0.0179057 0.828529
0.210109 -0.0193318 0.82373
0.208364 -0.0207407 0.81846
0.206809 -0.022136 0.814004
0.205293 -0.0235176 0.809696
0.20431 -0.0249036 0.80775
0.203298 -0.0262816 0.805665
0.20233 -0.0276544 0.80376
0.201387 -0.0290223 0.80196
0.200396 -0.0303806 0.799931
0.199437 -0.0317339 0.798033
0.198496 -0.0330819 0.796206
0.197565 -0.0344246 0.794413
0.196663 -0.0357632 0.792745
0.195818 -0.0371021 0.791322
0.195007 -0.0384391 0.790056
0.194222 -0.0397749 0.788895
0.19348 -0.0411116 0.787926
0.192778 -0.0424497 0.787141
0.192145 -0.0437946 0.786666
0.191519 -0.0451386 0.786223
0.190844 -0.0464727 0.785548
0.190163 -0.0478032 0.784838
0.189441 -0.0491237 0.783935
0.188703 -0.0504378 0.782944
0.187957 -0.0517464 0.781908
0.187296 -0.0530681 0.781275
0.18666 -0.0543917 0.780752
0.186076 -0.0557243 0.780476
0.185528 -0.0570637 0.78037
0.184964 -0.0583985 0.780186
0.184412 -0.059735 0.780058
0.183857 -0.0610699 0.779911
0.183306 -0.0624049 0.779784
0.182744 -0.0637357 0.779598
0.182215 -0.0650747 0.779579
0.181654 -0.0664039 0.779395
0.18109 -0.0677314 0.779195
0.180523 -0.0690566 0.778981
0.179896 -0.0703623 0.778469
0.17925 -0.0716598 0.777861
0.178631 -0.072963 0.777379
0.178018 -0.0742663 0.77692
0.177428 -0.0755749 0.776576
0.176889 -0.0769003 0.776485
0.176332 -0.0782181 0.776303
0.175755 -0.0795273 0.776018
0.175174 -0.0808334 0.775707
0.174598 -0.0821403 0.77542
0.174027 -0.0834472 0.775159
0.173474 -0.0847598 0.774981
0.172931 -0.0860757 0.774854
0.172356 -0.087377 0.774566
0.171784 -0.0886779 0.774287
0.171229 -0.0899853 0.774096
0.170706 -0.0913056 0.774066
0.170186 -0.0926263 0.77405
0.169694 -0.0939606 0.774186
0.169203 -0.0952948 0.774322
0.168712 -0.0966291 0.774458
0.168237 -0.0979715 0.774675
0.167791 -0.0993295 0.775055
0.167321 -0.100675 0.775302
0.166846 -0.102018 0.775523
0.166379 -0.103367 0.77579
0.165883 -0.1047 0.775907
0.165307 -0.105987 0.775582
0.164725 -0.107269 0.775226
0.164149 -0.108554 0.774903
0.163565 -0.10983 0.774529
0.16306 -0.111154 0.774586
0.162619 -0.112517 0.774993
0.162209 -0.1139 0.77557
0.161795 -0.115281 0.776129
0.161404 -0.11668 0.776818
0.161015 -0.118083 0.777524
0.160647 -0.119501 0.778349
0.160333 -0.120959 0.779483
0.159992 -0.122403 0.78047
0.15963 -0.123834 0.781346
0.15921 -0.125228 0.781895
0.158786 -0.126619 0.782426
0.158337 -0.127995 0.782818
0.157932 -0.129404 0.783465
0.157556 -0.130838 0.784276
0.157209 -0.132296 0.785268
0.156891 -0.13378 0.786425
0.156613 -0.135302 0.787828
0.15639 -0.136872 0.789558
0.156229 -0.1385 0.791654
0.156085 -0.14015 0.793869
0.155995 -0.141855 0.796416
0.156256 -0.143868 0.801044
0.156539 -0.14592 0.805837
0.156761 -0.147939 0.810307
0.156947 -0.149943 0.814585
0.217277 -0.0126643 0.836407
0.216673 -0.0141139 0.836247
0.215919 -0.0155641 0.83543
0.215073 -0.0170117 0.834207
0.213504 -0.0184531 0.829808
0.211883 -0.0198797 0.825149
0.210108 -0.0212879 0.819792
0.208447 -0.0226809 0.814909
0.206804 -0.0240584 0.810072
0.205836 -0.0254454 0.808211
0.204799 -0.0268225 0.806034
0.203826 -0.0281956 0.804123
0.202878 -0.0295633 0.802318
0.201883 -0.0309216 0.800285
0.200902 -0.0322737 0.798311
0.199957 -0.0336221 0.796478
0.199022 -0.0349646 0.794687
0.198099 -0.0363016 0.792936
0.197233 -0.0376387 0.791435
0.196418 -0.0389757 0.790161
0.195614 -0.0403098 0.788924
0.194852 -0.041644 0.787874
0.194147 -0.0429823 0.787083
0.193495 -0.044325 0.786528
0.192863 -0.0456685 0.78606
0.192201 -0.0470049 0.785453
0.191521 -0.0483359 0.784753
0.190818 -0.04966 0.783945
0.190098 -0.0509779 0.783052
0.189348 -0.0522866 0.782008
0.188668 -0.0536048 0.781293
0.188025 -0.0549281 0.780743
0.187423 -0.0562578 0.780386
0.186873 -0.0575971 0.780274
0.18631 -0.0589327 0.780099
0.185759 -0.0602701 0.779978
0.185205 -0.0616058 0.779839
0.184653 -0.0629411 0.779709
0.184073 -0.064268 0.779447
0.183541 -0.0656069 0.779411
0.182979 -0.0669363 0.779224
0.182415 -0.0682642 0.779034
0.181868 -0.0695959 0.778921
0.18126 -0.0709079 0.778503
0.180629 -0.0722111 0.777976
0.180008 -0.0735148 0.777493
0.179405 -0.0748222 0.777091
0.178814 -0.0761319 0.776744
0.178272 -0.0774574 0.776649
0.177685 -0.0787652 0.776317
0.177088 -0.0800681 0.775936
0.176473 -0.0813621 0.775459
0.175864 -0.0826564 0.775013
0.175278 -0.0839573 0.774674
0.174735 -0.0852744 0.774555
0.17419 -0.0865894 0.774418
0.17363 -0.0878973 0.774208
0.173058 -0.0891984 0.773935
0.172504 -0.0905062 0.773748
0.171967 -0.0918207 0.773651
0.171447 -0.0931415 0.773635
0.170941 -0.0944692 0.773698
0.17045 -0.0958034 0.773834
0.169959 -0.0971377 0.77397
0.169483 -0.098479 0.774184
0.169053 -0.0998455 0.774642
0.168597 -0.101199 0.774968
0.168141 -0.102553 0.775289
0.167691 -0.10391 0.775646
0.167212 -0.105254 0.775847
0.166636 -0.106542 0.775532
0.16605 -0.107823 0.775165
0.165475 -0.109109 0.774845
0.164887 -0.110384 0.774459
0.16438 -0.111708 0.774509
0.163939 -0.11307 0.774909
0.163527 -0.114453 0.775481
0.163113 -0.115836 0.776035
0.162723 -0.117236 0.776727
0.162352 -0.118651 0.777524
0.162 -0.12008 0.778435
0.161692 -0.121543 0.779594
0.161352 -0.122987 0.780579
0.160991 -0.124421 0.781455
0.160569 -0.125815 0.781994
0.160147 -0.12721 0.782539
0.159699 -0.128585 0.782932
0.159292 -0.129995 0.783567
0.158899 -0.131417 0.784286
0.158526 -0.132855 0.785116
0.158178 -0.134317 0.7861
0.157875 -0.135818 0.787341
0.15764 -0.137377 0.788982
0.157481 -0.139004 0.791074
0.157367 -0.140679 0.793451
0.157325 -0.142422 0.796252
0.157583 -0.144432 0.800829
0.157918 -0.146526 0.805879
0.158176 -0.148573 0.810517
0.158372 -0.150586 0.814827
0.218738 -0.0132139 0.836343
0.218133 -0.0146639 0.836184
0.217493 -0.0161136 0.835866
0.216747 -0.0175614 0.835091
0.215237 -0.0190029 0.83098
0.213611 -0.0204288 0.826348
0.211824 -0.0218367 0.820976
0.210038 -0.0232262 0.815585
0.208289 -0.0245993 0.810325
0.207278 -0.0259848 0.808287
0.206217 -0.0273604 0.806019
0.205236 -0.0287328 0.804094
0.204299 -0.0301012 0.802346
0.203296 -0.0314586 0.800304
0.202312 -0.0328103 0.798328
0.201382 -0.0341598 0.796579
0.200445 -0.0355021 0.794792
0.199503 -0.0368377 0.792973
0.198652 -0.0381765 0.791553
0.197835 -0.0395138 0.79028
0.197009 -0.0408452 0.788955
0.196243 -0.0421795 0.787901
0.195533 -0.0435176 0.787092
0.194862 -0.0448582 0.786455
0.19421 -0.046199 0.785903
0.193561 -0.0475378 0.785365
0.192896 -0.048872 0.784745
0.192211 -0.0501998 0.784027
0.19151 -0.0515216 0.783228
0.190774 -0.0528336 0.782265
0.190059 -0.054146 0.781389
0.189376 -0.0554618 0.780666
0.188753 -0.0567875 0.780209
0.188169 -0.0581199 0.77994
0.187607 -0.0594557 0.779769
0.187074 -0.0607976 0.779739
0.18654 -0.0621389 0.7797
0.185991 -0.0634754 0.779587
0.18541 -0.0648027 0.779323
0.184857 -0.0661359 0.779187
0.184289 -0.0674645 0.778982
0.183725 -0.0687925 0.778788
0.18318 -0.0701253 0.778689
0.182603 -0.0714474 0.778432
0.182005 -0.0727613 0.778068
0.181384 -0.0740663 0.777591
0.180797 -0.0753801 0.777273
0.180204 -0.0766901 0.776926
0.179631 -0.0780059 0.776677
0.179009 -0.0793024 0.776181
0.178391 -0.0805981 0.775698
0.177743 -0.0818796 0.775063
0.177116 -0.083167 0.774528
0.176528 -0.0844675 0.774189
0.176002 -0.0857913 0.774155
0.175461 -0.0871084 0.774043
0.174917 -0.088423 0.773914
0.174359 -0.0897305 0.773716
0.173803 -0.0910379 0.773523
0.173248 -0.0923447 0.773337
0.172723 -0.0936643 0.773304
0.172202 -0.0949845 0.773283
0.171697 -0.0963123 0.773345
0.171219 -0.0976531 0.773555
0.170758 -0.0990023 0.773843
0.170329 -0.100369 0.774304
0.169889 -0.101731 0.774708
0.169449 -0.103094 0.775116
0.169004 -0.104455 0.775501
0.168515 -0.105793 0.77565
0.167951 -0.107088 0.775401
0.167364 -0.108371 0.775034
0.166786 -0.109654 0.774708
0.166199 -0.110933 0.774329
0.165707 -0.112265 0.774462
0.165266 -0.113629 0.774861
0.164853 -0.115011 0.775424
0.164452 -0.116403 0.776044
0.164075 -0.117812 0.776806
0.163719 -0.119237 0.77768
0.163384 -0.120679 0.778679
0.163079 -0.122145 0.779846
0.162726 -0.123582 0.780756
0.162365 -0.125017 0.781631
0.161945 -0.126412 0.782178
0.161524 -0.12781 0.782727
0.161077 -0.129187 0.783126
0.160669 -0.130596 0.783751
0.160247 -0.131998 0.784305
0.159842 -0.133413 0.784951
0.159465 -0.134852 0.785762
0.159131 -0.136329 0.786823
0.158899 -0.137889 0.788466
0.158759 -0.139532 0.790652
0.158697 -0.141247 0.793302
0.158697 -0.143023 0.796317
0.158934 -0.145015 0.800738
0.159296 -0.14713 0.805904
0.159583 -0.1492 0.81067
0.159805 -0.151234 0.815096
0.15851 -0.152562 0.818818
0.159959 -0.153224 0.819149
0.220235 -0.0137637 0.836424
0.219624 -0.0152145 0.836239
0.218956 -0.0166647 0.835811
0.218162 -0.018113 0.834834
0.216677 -0.0195522 0.830869
0.215052 -0.0209764 0.826267
0.21327 -0.0223817 0.820962
0.211518 -0.02377 0.81576
0.20983 -0.0251433 0.810804
0.208771 -0.0265269 0.808577
0.207686 -0.0279015 0.806225
0.206682 -0.0292728 0.804209
0.205718 -0.0306391 0.802364
0.204709 -0.0319959 0.800307
0.203722 -0.0333475 0.798333
0.202791 -0.0346964 0.796602
0.201887 -0.0360421 0.794974
0.20096 -0.0373794 0.793239
0.200122 -0.03872 0.791891
0.199305 -0.0400582 0.790631
0.198474 -0.04139 0.789299
0.197702 -0.0427243 0.788227
0.196971 -0.0440605 0.78733
0.196264 -0.0453968 0.78654
0.195578 -0.046733 0.78584
0.194926 -0.048072 0.785291
0.194259 -0.049406 0.78467
0.193576 -0.0507346 0.783971
0.19289 -0.0520599 0.783251
0.192173 -0.0533761 0.78238
0.191451 -0.0546878 0.781487
0.190735 -0.0559973 0.780609
0.190087 -0.0573181 0.780046
0.189466 -0.0586424 0.779609
0.188901 -0.0599781 0.779429
0.188371 -0.0613209 0.779413
0.187857 -0.0626673 0.779468
0.187326 -0.064009 0.779445
0.186745 -0.0653368 0.779185
0.186174 -0.0666659 0.778967
0.1856 -0.0679929 0.778734
0.185033 -0.0693205 0.778531
0.184488 -0.0706537 0.778431
0.183943 -0.0719859 0.778333
0.183378 -0.0733111 0.778137
0.18276 -0.0746178 0.77768
0.182174 -0.0759331 0.777376
0.181578 -0.0772433 0.777019
0.180974 -0.0785487 0.776619
0.180332 -0.0798386 0.776027
0.179694 -0.0811277 0.775455
0.179025 -0.0824018 0.774721
0.178381 -0.0836828 0.774112
0.177808 -0.0849893 0.773849
0.177302 -0.0863215 0.773915
0.176781 -0.0876473 0.773911
0.176259 -0.0889721 0.773893
0.175713 -0.0902861 0.773764
0.175153 -0.0915924 0.773552
0.174578 -0.0928909 0.773264
0.17405 -0.0942096 0.773216
0.173525 -0.0955293 0.773185
0.173018 -0.0968569 0.773241
0.172542 -0.0981993 0.773457
0.172068 -0.0995429 0.773679
0.171624 -0.100902 0.774062
0.171183 -0.102264 0.774461
0.170743 -0.103627 0.77487
0.1703 -0.10499 0.775261
0.169812 -0.106329 0.775413
0.169259 -0.107632 0.775231
0.168671 -0.108913 0.774862
0.168108 -0.110207 0.774616
0.167539 -0.111496 0.774342
0.167062 -0.112839 0.774557
0.166623 -0.114205 0.774966
0.166212 -0.115589 0.775531
0.16581 -0.116982 0.77615
0.165421 -0.118384 0.776844
0.16508 -0.11982 0.777793
0.164745 -0.121263 0.778788
0.16444 -0.12273 0.779952
0.164087 -0.124167 0.780855
0.163739 -0.125611 0.781792
0.16332 -0.127009 0.782348
0.162901 -0.128409 0.782909
0.162457 -0.12979 0.783321
0.162034 -0.131189 0.78386
0.161583 -0.13257 0.784248
0.161132 -0.133951 0.784637
0.160738 -0.135376 0.785342
0.160374 -0.136829 0.786226
0.160144 -0.138391 0.787872
0.160051 -0.14007 0.790305
0.16006 -0.141841 0.793334
0.160114 -0.143663 0.796639
0.160316 -0.145623 0.800822
0.160687 -0.147743 0.805999
0.160953 -0.149795 0.810603
0.161233 -0.151876 0.815325
0.161397 -0.153874 0.819402
0.159844 -0.154986 0.821646
0.161378 -0.155724 0.822445
0.221741 -0.0143137 0.836536
0.221096 -0.0157657 0.836214
0.220385 -0.0172166 0.835605
0.219498 -0.0186643 0.834237
0.218036 -0.0201014 0.830395
0.216424 -0.0215228 0.82589
0.21469 -0.0229264 0.820827
0.212971 -0.0243135 0.815804
0.211348 -0.0256875 0.811168
0.210222 -0.0270682 0.80867
0.20913 -0.028442 0.806309
0.208104 -0.0298116 0.804219
0.207156 -0.031179 0.802457
0.206162 -0.0325369 0.800483
0.205174 -0.0338883 0.798524
0.204223 -0.0352361 0.796714
0.203331 -0.0365827 0.795158
0.202399 -0.0379199 0.793417
0.201562 -0.0392612 0.792083
0.200761 -0.0406016 0.79091
0.199947 -0.0419363 0.789665
0.199153 -0.0432689 0.788505
0.1984 -0.0446028 0.78752
0.197672 -0.0459367 0.786639
0.196965 -0.0472704 0.785855
0.196296 -0.0486072 0.785235
0.195626 -0.0499412 0.784605
0.194958 -0.051273 0.783982
0.194274 -0.052599 0.783279
0.193571 -0.0539188 0.782485
0.192849 -0.0552311 0.7816
0.192127 -0.0565401 0.780703
0.191458 -0.0578571 0.780051
0.190816 -0.0591774 0.77952
0.190232 -0.060509 0.779252
0.189699 -0.0618518 0.779226
0.189185 -0.0631986 0.779284
0.188656 -0.0645413 0.779274
0.18809 -0.0658738 0.779089
0.187503 -0.0671991 0.778801
0.186912 -0.0685217 0.778486
0.186326 -0.0698442 0.778197
0.185762 -0.0711719 0.778012
0.185219 -0.0725049 0.777922
0.184673 -0.0738361 0.777818
0.184074 -0.0751492 0.777461
0.18349 -0.0764655 0.777167
0.182906 -0.0777804 0.776874
0.182281 -0.0790794 0.776383
0.181633 -0.0803675 0.775772
0.180995 -0.0816563 0.775198
0.180339 -0.0829361 0.774538
0.179695 -0.0842176 0.773935
0.179152 -0.0855366 0.773823
0.178664 -0.086877 0.773982
0.178147 -0.0882055 0.773999
0.177626 -0.0895318 0.773992
0.177079 -0.0908465 0.77386
0.176502 -0.0921464 0.77357
0.175912 -0.093439 0.77321
0.175382 -0.0947578 0.773155
0.174856 -0.0960778 0.773122
0.174349 -0.0974057 0.773176
0.173873 -0.0987491 0.773394
0.1734 -0.100094 0.773621
0.172942 -0.101447 0.773932
0.172498 -0.102808 0.774316
0.172053 -0.104169 0.774693
0.171595 -0.105525 0.775007
0.171104 -0.106862 0.775146
0.170564 -0.108172 0.775033
0.169975 -0.109454 0.774662
0.169428 -0.110758 0.774513
0.16889 -0.112066 0.774405
0.168419 -0.113413 0.774647
0.167979 -0.114781 0.77506
0.167581 -0.116174 0.775691
0.167168 -0.117561 0.776246
0.166782 -0.118965 0.776952
0.166444 -0.120404 0.777916
0.166109 -0.121849 0.778906
0.165775 -0.123296 0.779901
0.165431 -0.124741 0.780855
0.165071 -0.126178 0.781719
0.164656 -0.127577 0.782285
0.16424 -0.12898 0.78286
0.163806 -0.130371 0.783337
0.163356 -0.13175 0.783721
0.162888 -0.133118 0.784017
0.162407 -0.134477 0.784237
0.161997 -0.13589 0.784848
0.161605 -0.13732 0.785569
0.161432 -0.138925 0.787519
0.161404 -0.140656 0.7903
0.161483 -0.142484 0.793697
0.161578 -0.14434 0.797212
0.161739 -0.146264 0.801121
0.162049 -0.148331 0.805907
0.162311 -0.150378 0.81046
0.16267 -0.152525 0.815585
0.162919 -0.154598 0.820123
0.163063 -0.156594 0.824082
0.223215 -0.0148649 0.836505
0.222551 -0.0163176 0.836105
0.221795 -0.0177687 0.835311
0.220832 -0.0192158 0.833634
0.219388 -0.0206502 0.829898
0.217789 -0.0220696 0.825476
0.216061 -0.0234704 0.820481
0.21436 -0.0248554 0.815571
0.212803 -0.0262297 0.811257
0.211612 -0.027607 0.8085
0.210504 -0.0289794 0.806078
0.209494 -0.0303493 0.804077
0.20858 -0.0317188 0.802479
0.207586 -0.0330766 0.800519
0.206597 -0.0344276 0.798575
0.205642 -0.0357749 0.796762
0.204744 -0.0371213 0.795196
0.203788 -0.0384557 0.793361
0.202969 -0.0397991 0.79212
0.202186 -0.0411422 0.791038
0.201392 -0.0424798 0.789893
0.200614 -0.0438153 0.788815
0.199873 -0.0451519 0.787896
0.199121 -0.0464831 0.786923
0.198391 -0.0478143 0.786038
0.197715 -0.0491508 0.785393
0.197026 -0.0504822 0.784685
0.196357 -0.0518146 0.784067
0.195689 -0.0531444 0.783446
0.195001 -0.0544679 0.782731
0.194281 -0.0557818 0.781858
0.193556 -0.057091 0.780964
0.19287 -0.0584054 0.780238
0.192206 -0.0597217 0.779611
0.1916 -0.061049 0.779251
0.191032 -0.0623842 0.779064
0.190499 -0.0637267 0.779033
0.189967 -0.065069 0.779007
0.189402 -0.066402 0.778829
0.188801 -0.0677237 0.778477
0.188208 -0.0690461 0.778166
0.187619 -0.0703681 0.777866
0.187038 -0.0716909 0.777599
0.186494 -0.0730234 0.777509
0.185949 -0.0743555 0.777413
0.185352 -0.0756693 0.777067
0.184765 -0.0769845 0.776763
0.184178 -0.0782986 0.776459
0.183534 -0.0795904 0.775878
0.182888 -0.0808792 0.77528
0.182265 -0.0821741 0.774791
0.18163 -0.0834618 0.774236
0.181001 -0.0847496 0.773716
0.180475 -0.0860758 0.773689
0.180015 -0.0874283 0.773989
0.179499 -0.0887581 0.77401
0.178974 -0.0900835 0.773987
0.178425 -0.0913982 0.773847
0.177847 -0.0926985 0.773554
0.177243 -0.0939859 0.773137
0.176717 -0.0953071 0.773104
0.176193 -0.0966289 0.773079
0.175685 -0.0979577 0.773137
0.17521 -0.0993016 0.773351
0.174735 -0.100647 0.773575
0.174259 -0.101991 0.773798
0.173798 -0.103344 0.77409
0.173336 -0.104697 0.774382
0.17286 -0.106043 0.774601
0.172354 -0.107372 0.77466
0.171827 -0.108691 0.774622
0.171267 -0.109988 0.774405
0.17074 -0.111304 0.774353
0.170219 -0.112623 0.774339
0.169763 -0.11398 0.774662
0.169322 -0.115347 0.775065
0.168922 -0.11674 0.775686
0.168523 -0.118137 0.776316
0.168141 -0.119545 0.777039
0.167805 -0.120986 0.778009
0.16747 -0.122431 0.77899
0.167106 -0.123859 0.77982
0.166748 -0.125295 0.780692
0.166388 -0.126732 0.781553
0.165975 -0.128135 0.782135
0.16556 -0.129538 0.782708
0.165139 -0.130939 0.783253
0.164673 -0.132307 0.78355
0.16419 -0.133664 0.783761
0.163694 -0.135012 0.783899
0.16327 -0.136414 0.784429
0.162865 -0.137834 0.785075
0.162753 -0.139487 0.787347
0.16278 -0.14126 0.790411
0.162901 -0.143121 0.794012
0.163031 -0.145006 0.797702
0.163133 -0.146881 0.801252
0.16341 -0.14892 0.805817
0.163708 -0.150993 0.810523
0.164162 -0.153223 0.816157
0.164472 -0.155347 0.820999
0.164794 -0.157504 0.82595
0.224832 -0.0154152 0.837065
0.224104 -0.0168696 0.836405
0.223321 -0.0183216 0.835504
0.222264 -0.0197675 0.833447
0.220805 -0.0212006 0.829672
0.2192 -0.0226172 0.825261
0.217473 -0.0240159 0.820305
0.215767 -0.0253983 0.815412
0.214244 -0.0267723 0.811271
0.213008 -0.0281467 0.808338
0.211912 -0.0295187 0.805996
0.21094 -0.0308909 0.80417
0.210049 -0.032262 0.802688
0.209054 -0.0336199 0.800741
0.20806 -0.0349708 0.798788
0.207075 -0.0363155 0.79687
0.206154 -0.0376597 0.79521
0.205192 -0.0389937 0.793368
0.20439 -0.0403393 0.792211
0.203627 -0.0416854 0.791221
0.202869 -0.0430281 0.790251
0.20211 -0.0443671 0.789269
0.201353 -0.0457025 0.788286
0.200592 -0.0470337 0.787287
0.199837 -0.0483619 0.786302
0.199122 -0.0496929 0.785491
0.198431 -0.0510248 0.784779
0.197776 -0.0523602 0.78423
0.197109 -0.0536914 0.783619
0.196439 -0.0550191 0.782995
0.195733 -0.056337 0.7822
0.19501 -0.057648 0.78132
0.194321 -0.0589625 0.780592
0.19364 -0.0602766 0.779894
0.193015 -0.0616005 0.779448
0.192407 -0.0629269 0.779082
0.191835 -0.0642603 0.778878
0.191265 -0.0655936 0.778682
0.190683 -0.066922 0.778423
0.190065 -0.068239 0.777996
0.189474 -0.0695619 0.777695
0.188867 -0.0708785 0.777312
0.188267 -0.0721953 0.776961
0.187719 -0.0735265 0.776854
0.187172 -0.0748574 0.776751
0.18659 -0.0761758 0.77648
0.186002 -0.0774906 0.776172
0.185429 -0.0788092 0.775942
0.184782 -0.0801002 0.775352
0.184155 -0.0813956 0.774849
0.183536 -0.082692 0.774387
0.182936 -0.0839933 0.77401
0.182328 -0.0852893 0.77359
0.181817 -0.0866226 0.773644
0.181341 -0.0879692 0.773863
0.180819 -0.0892972 0.773858
0.18029 -0.0906214 0.773818
0.179739 -0.0919357 0.773669
0.179175 -0.0932433 0.773455
0.178589 -0.0945392 0.773125
0.178065 -0.0958623 0.773104
0.177541 -0.097185 0.773086
0.177033 -0.0985148 0.773143
0.176541 -0.0998518 0.77328
0.176064 -0.101197 0.773494
0.175574 -0.102534 0.773638
0.175096 -0.103879 0.773848
0.174618 -0.105224 0.774055
0.174126 -0.106562 0.774194
0.173605 -0.107882 0.774183
0.173095 -0.10921 0.774228
0.172553 -0.110519 0.77411
0.172043 -0.111844 0.774148
0.171535 -0.113173 0.774207
0.171078 -0.114529 0.774521
0.170619 -0.115887 0.774833
0.170219 -0.11728 0.775444
0.16982 -0.118676 0.776071
0.169441 -0.120087 0.776808
0.169106 -0.121529 0.777776
0.168772 -0.122974 0.778753
0.168403 -0.1244 0.779559
0.168048 -0.125837 0.780436
0.16769 -0.127276 0.781307
0.16728 -0.128681 0.781895
0.166863 -0.130084 0.78246
0.166428 -0.131474 0.78292
0.165945 -0.132831 0.783131
0.165449 -0.134178 0.783268
0.164953 -0.135526 0.783405
0.164529 -0.136928 0.783936
0.16414 -0.138359 0.784662
0.164079 -0.140052 0.787196
0.164162 -0.141869 0.790542
0.164311 -0.143753 0.79428
0.164443 -0.145638 0.797945
0.164512 -0.147484 0.801283
0.164661 -0.149412 0.805091
0.165036 -0.151549 0.810195
0.165602 -0.153872 0.816406
0.166033 -0.156102 0.821898
0.166502 -0.158388 0.82764
0.226505 -0.0159664 0.837841
0.22572 -0.0174227 0.836949
0.224896 -0.0188754 0.835894
0.223766 -0.0203207 0.833545
0.22224 -0.0217513 0.829519
0.220653 -0.0231666 0.825214
0.218919 -0.0245625 0.820267
0.217204 -0.0259427 0.81537
0.215666 -0.0273146 0.811199
0.214443 -0.0286886 0.808346
0.213366 -0.0300617 0.806102
0.212415 -0.0314349 0.804381
0.211522 -0.0328065 0.802904
0.210539 -0.0341653 0.801026
0.209537 -0.0355158 0.799057
0.208528 -0.0368586 0.797047
0.2076 -0.0382025 0.795372
0.206652 -0.0395384 0.793607
0.205847 -0.0408842 0.792451
0.205084 -0.0422308 0.791474
0.204361 -0.0435792 0.790663
0.203622 -0.0449219 0.789784
0.202865 -0.0462587 0.78881
0.202087 -0.0475885 0.787745
0.201308 -0.0489141 0.786665
0.200551 -0.050239 0.785674
0.199821 -0.0515651 0.7848
0.199168 -0.0529015 0.784262
0.198516 -0.0542363 0.783728
0.197865 -0.0555686 0.783196
0.197177 -0.0568908 0.78249
0.196484 -0.0582095 0.781759
0.195795 -0.0595258 0.78104
0.195111 -0.0608401 0.780339
0.194467 -0.0621611 0.779812
0.193839 -0.0634838 0.779357
0.193211 -0.0648045 0.778902
0.1926 -0.0661275 0.778521
0.19198 -0.0674462 0.778091
0.191342 -0.068758 0.777576
0.190734 -0.0700761 0.777202
0.190109 -0.0713872 0.77674
0.18949 -0.0726979 0.776301
0.188922 -0.0740227 0.776101
0.188356 -0.0753469 0.775911
0.187759 -0.0766598 0.775567
0.187154 -0.0779683 0.775189
0.186583 -0.0792864 0.774966
0.185954 -0.0805828 0.774461
0.185357 -0.0818887 0.774113
0.184774 -0.0831978 0.773824
0.184226 -0.0845184 0.773693
0.183649 -0.0858272 0.773436
0.183155 -0.0871674 0.773567
0.182662 -0.0885082 0.773709
0.182138 -0.0898356 0.773694
0.181608 -0.0911604 0.773651
0.181057 -0.0924752 0.773505
0.18051 -0.0937906 0.773375
0.179937 -0.0950937 0.773121
0.179412 -0.096417 0.773096
0.178886 -0.0977396 0.773067
0.178376 -0.0990689 0.773117
0.177853 -0.100392 0.773101
0.177361 -0.101729 0.773238
0.176868 -0.103067 0.773374
0.176376 -0.104404 0.77351
0.175883 -0.105742 0.773647
0.175391 -0.107079 0.773783
0.174885 -0.108409 0.773846
0.174377 -0.109738 0.773904
0.173853 -0.111058 0.77388
0.173359 -0.112393 0.774002
0.172866 -0.11373 0.77414
0.172391 -0.115076 0.774362
0.171916 -0.116425 0.774585
0.171513 -0.117816 0.775186
0.171101 -0.119205 0.775742
0.170724 -0.120617 0.776482
0.17039 -0.122059 0.777448
0.170054 -0.123504 0.778411
0.169688 -0.124932 0.779223
0.169348 -0.12638 0.780177
0.16898 -0.127811 0.780987
0.168569 -0.129216 0.781574
0.168152 -0.130618 0.782126
0.1677 -0.131996 0.7825
0.167204 -0.133344 0.782638
0.166708 -0.134691 0.782775
0.166212 -0.13604 0.782912
0.165789 -0.137442 0.783443
0.165402 -0.138875 0.784176
0.165391 -0.140605 0.786962
0.165514 -0.142453 0.790503
0.165672 -0.144342 0.794258
0.165806 -0.146228 0.797909
0.165872 -0.148072 0.801203
0.165887 -0.149885 0.804235
0.166141 -0.151914 0.808616
0.166803 -0.154314 0.815309
0.167365 -0.156655 0.821486
0.167973 -0.159061 0.827964
0.229191 0.0338562 0.76745
0.230968 0.034696 0.766885
0.230469 0.033345 0.767014
0.229979 0.0319962 0.76718
0.228031 -0.01652 0.837996
0.22721 -0.0179768 0.836968
0.226366 -0.0194298 0.835829
0.225264 -0.0208748 0.833617
0.223737 -0.0223037 0.829619
0.222164 -0.0237177 0.825408
0.220433 -0.0251123 0.820508
0.218705 -0.0264904 0.815593
0.217135 -0.0278596 0.81132
0.215909 -0.0292331 0.808473
0.214825 -0.0306051 0.80622
0.213892 -0.0319801 0.804591
0.212999 -0.0333518 0.803128
0.212011 -0.0347104 0.801245
0.210998 -0.0360603 0.799245
0.209965 -0.0374009 0.797143
0.208996 -0.0387408 0.795314
0.208049 -0.0400763 0.793564
0.20724 -0.041422 0.792403
0.206476 -0.042769 0.79143
0.205767 -0.0441194 0.790688
0.205047 -0.0454655 0.789894
0.204309 -0.0468057 0.789019
0.20353 -0.0481359 0.787959
0.202746 -0.0494616 0.786867
0.201966 -0.0507833 0.785789
0.201212 -0.0521057 0.784816
0.200557 -0.0534428 0.784276
0.199925 -0.0547816 0.783839
0.199295 -0.0561192 0.783401
0.198621 -0.0574454 0.782769
0.197961 -0.0587721 0.782197
0.197287 -0.0600931 0.781552
0.196621 -0.0614132 0.780943
0.195975 -0.0627357 0.78042
0.195325 -0.0640547 0.779873
0.194641 -0.0653627 0.779163
0.193972 -0.0666717 0.778523
0.19331 -0.0679796 0.777906
0.192635 -0.0692815 0.777229
0.192008 -0.0705942 0.776766
0.191365 -0.0719001 0.776231
0.190725 -0.0732043 0.775699
0.19012 -0.0745173 0.775329
0.189535 -0.0758349 0.775054
0.188938 -0.0771468 0.77471
0.188338 -0.0784562 0.774358
0.187767 -0.0797741 0.774139
0.187152 -0.0810747 0.773706
0.186574 -0.0823867 0.773441
0.186009 -0.0837022 0.773243
0.185494 -0.0850353 0.773275
0.184951 -0.0863573 0.773178
0.184457 -0.0876982 0.773315
0.183964 -0.089039 0.773451
0.183423 -0.0903603 0.773363
0.182894 -0.0916856 0.773328
0.182333 -0.0929965 0.773135
0.181788 -0.0943132 0.773018
0.181213 -0.0956152 0.772755
0.180685 -0.0969378 0.772719
0.180139 -0.0982513 0.772597
0.179627 -0.0995797 0.772635
0.179103 -0.100902 0.772612
0.178611 -0.102239 0.772748
0.178118 -0.103577 0.772884
0.17764 -0.104922 0.773094
0.177163 -0.106268 0.773309
0.176672 -0.107607 0.773453
0.17618 -0.108944 0.773589
0.175686 -0.110281 0.773718
0.175164 -0.111602 0.773702
0.174656 -0.11293 0.77376
0.174163 -0.114267 0.773894
0.173672 -0.115605 0.774033
0.173195 -0.116952 0.774247
0.172793 -0.118345 0.774848
0.172382 -0.119735 0.775412
0.172021 -0.121157 0.776224
0.171687 -0.122599 0.777189
0.171338 -0.124036 0.778075
0.170974 -0.125465 0.778893
0.170637 -0.126914 0.779853
0.170258 -0.128338 0.7806
0.169845 -0.129742 0.781174
0.169426 -0.131142 0.781716
0.168973 -0.13252 0.782082
0.168478 -0.133869 0.782225
0.167996 -0.135227 0.782439
0.167515 -0.136586 0.782655
0.167092 -0.137989 0.783187
0.166706 -0.139423 0.783921
0.166741 -0.141188 0.786931
0.166872 -0.143041 0.790488
0.167023 -0.144925 0.794176
0.167204 -0.146847 0.798051
0.167303 -0.148717 0.801501
0.167215 -0.150444 0.803945
0.167591 -0.152575 0.808964
0.168342 -0.155049 0.816096
0.169022 -0.15749 0.822879
0.169756 -0.160008 0.830013
0.232685 0.0355218 0.766097
0.232135 0.0341589 0.766035
0.231669 0.0328163 0.766292
0.231204 0.031473 0.766547
0.229453 0.030639 0.767209
0.230686 0.0301183 0.766608
0.228979 0.0292938 0.767435
0.230227 0.0287762 0.766888
0.228473 0.0279412 0.767536
0.229724 0.0274244 0.767004
0.229226 0.0260736 0.767137
0.229556 -0.017075 0.838134
0.228704 -0.0185319 0.836987
0.227839 -0.0199846 0.835778
0.226786 -0.0214298 0.833786
0.225354 -0.0228595 0.830207
0.223802 -0.0242734 0.826117
0.222062 -0.0256669 0.821217
0.220316 -0.0270436 0.816269
0.218709 -0.0284105 0.81187
0.217415 -0.0297802 0.808764
0.216329 -0.0311525 0.806519
0.215414 -0.0325287 0.804982
0.214515 -0.0339009 0.803505
0.21352 -0.0352596 0.801607
0.212482 -0.0366074 0.79952
0.211446 -0.0379481 0.797428
0.210475 -0.039288 0.795602
0.209542 -0.0406258 0.793927
0.208713 -0.0419699 0.792692
0.207942 -0.0433167 0.791697
0.20723 -0.0446679 0.790954
0.206523 -0.0460166 0.790228
0.205804 -0.0473607 0.789444
0.205045 -0.0486952 0.788479
0.204241 -0.0500189 0.78731
0.203434 -0.0513372 0.78612
0.202636 -0.0526527 0.784971
0.201943 -0.0539834 0.78427
0.201312 -0.0553233 0.78384
0.2007 -0.0566653 0.783493
0.200046 -0.0579965 0.782958
0.199403 -0.0593279 0.782466
0.198746 -0.0606537 0.781904
0.198099 -0.0619797 0.781388
0.197453 -0.0633035 0.780868
0.196787 -0.06462 0.780254
0.196059 -0.0659181 0.779361
0.195349 -0.0672172 0.778541
0.19461 -0.0685051 0.777586
0.193881 -0.0697917 0.776664
0.193217 -0.0710936 0.776038
0.19254 -0.0723888 0.775345
0.191879 -0.0736861 0.774725
0.191271 -0.0749969 0.774343
0.190686 -0.0763136 0.774067
0.190089 -0.0776249 0.773731
0.189521 -0.078944 0.773528
0.18895 -0.0802609 0.773306
0.188352 -0.081567 0.772955
0.187787 -0.0828834 0.772761
0.187241 -0.0842056 0.772654
0.186729 -0.0855401 0.772703
0.186203 -0.0868684 0.772687
0.18571 -0.0882093 0.772824
0.185216 -0.08955 0.772961
0.184676 -0.0908714 0.772872
0.184148 -0.0921971 0.772843
0.183587 -0.0935083 0.772656
0.183042 -0.0948249 0.772543
0.182468 -0.0961277 0.772286
0.181937 -0.0974489 0.77224
0.18139 -0.0987615 0.77211
0.180892 -0.100097 0.772218
0.180383 -0.101427 0.772274
0.179908 -0.102772 0.772491
0.17943 -0.104118 0.772707
0.178969 -0.105472 0.772995
0.178494 -0.10682 0.773219
0.178004 -0.10816 0.773368
0.177511 -0.109499 0.773505
0.177016 -0.110836 0.773628
0.176491 -0.112155 0.773603
0.175982 -0.113484 0.773655
0.17549 -0.114822 0.773789
0.174983 -0.116152 0.773854
0.174505 -0.117499 0.77407
0.17409 -0.118884 0.774598
0.173667 -0.120266 0.775087
0.173277 -0.121671 0.775756
0.172942 -0.123112 0.776711
0.17258 -0.124539 0.777525
0.172232 -0.125978 0.778415
0.171897 -0.12743 0.779383
0.171533 -0.128864 0.780201
0.17112 -0.130267 0.78077
0.1707 -0.131667 0.781303
0.170247 -0.133045 0.781669
0.169768 -0.134405 0.781895
0.169303 -0.135776 0.7822
0.168838 -0.137147 0.782502
0.168417 -0.138552 0.783036
0.168029 -0.139985 0.783756
0.168009 -0.141707 0.786452
0.16811 -0.143534 0.789817
0.16825 -0.145406 0.793415
0.168426 -0.147321 0.79723
0.16851 -0.149176 0.800569
0.16838 -0.150866 0.802764
0.168962 -0.153168 0.80887
0.169881 -0.155782 0.816862
0.170731 -0.158369 0.824526
0.171631 -0.161031 0.832521
0.170231 -0.162322 0.835742
0.172079 -0.163324 0.838067
0.233787 0.0382498 0.766225
0.235567 0.0390902 0.765662
0.234955 0.0377113 0.765381
0.233244 0.0368872 0.766189
0.2344 0.0363467 0.765304
0.233813 0.0349754 0.765107
0.233233 0.033607 0.764939
0.232772 0.032266 0.765207
0.232329 0.0309287 0.765546
0.231799 0.029572 0.76556
0.231352 0.0282327 0.765881
0.230866 0.0268851 0.766057
0.230363 0.0255346 0.766175
0.228726 0.0247229 0.767265
0.229856 0.0241826 0.76627
0.228296 0.0233846 0.767653
0.229445 0.0228491 0.766734
0.228965 0.0215023 0.766938
0.230118 -0.0190869 0.836673
0.229281 -0.0205394 0.835589
0.228277 -0.0219851 0.833811
0.22691 -0.0234152 0.830533
0.225459 -0.0248313 0.826886
0.223739 -0.0262248 0.822108
0.221963 -0.0275996 0.817075
0.2203 -0.0289634 0.812477
0.218965 -0.030331 0.809224
0.217816 -0.0316994 0.806733
0.216916 -0.0330773 0.805273
0.216017 -0.0344499 0.803811
0.215037 -0.0358101 0.801996
0.214011 -0.0371594 0.799974
0.212989 -0.0385022 0.797961
0.211999 -0.0398409 0.796072
0.211098 -0.0411832 0.794547
0.210263 -0.0425279 0.793301
0.209451 -0.043871 0.792139
0.208698 -0.0452176 0.79123
0.207986 -0.0465666 0.790487
0.207249 -0.0479087 0.789634
0.20649 -0.0492442 0.788681
0.205685 -0.0505683 0.787517
0.204853 -0.0518831 0.786235
0.204029 -0.0531948 0.784976
0.20331 -0.054521 0.784173
0.202661 -0.0558579 0.783667
0.202067 -0.0572038 0.783404
0.201434 -0.0585402 0.782964
0.200809 -0.0598759 0.78256
0.200171 -0.0612071 0.782092
0.199525 -0.0625343 0.78158
0.198846 -0.0638512 0.780923
0.198174 -0.065167 0.780298
0.197408 -0.0664559 0.779238
0.19664 -0.0677401 0.778167
0.195861 -0.0690171 0.777036
0.195108 -0.0702967 0.776014
0.194407 -0.0715876 0.775228
0.193692 -0.0728708 0.77437
0.193013 -0.0741612 0.773668
0.192387 -0.0754656 0.773205
0.191802 -0.076781 0.772929
0.191206 -0.0780915 0.772601
0.190641 -0.0794106 0.77241
0.190085 -0.0807315 0.772264
0.189517 -0.0820469 0.772053
0.18897 -0.0833693 0.771944
0.188445 -0.0846986 0.771929
0.187965 -0.0860446 0.772133
0.187456 -0.0873794 0.772197
0.186947 -0.0887144 0.77226
0.186436 -0.090048 0.772318
0.185893 -0.0913678 0.772214
0.185362 -0.0926921 0.772174
0.1848 -0.094002 0.77198
0.184271 -0.0953255 0.771944
0.18371 -0.096634 0.771755
0.183181 -0.0979559 0.771716
0.182667 -0.0992844 0.771751
0.182205 -0.100637 0.772031
0.181732 -0.101985 0.772266
0.181291 -0.103349 0.772651
0.18083 -0.104704 0.772948
0.180369 -0.106059 0.773239
0.179879 -0.107401 0.773391
0.179376 -0.108734 0.773474
0.178867 -0.110065 0.773535
0.178368 -0.111401 0.773642
0.177826 -0.112714 0.773535
0.177315 -0.114042 0.773581
0.176822 -0.11538 0.773713
0.1763 -0.116701 0.773703
0.175822 -0.118049 0.773914
0.175392 -0.119425 0.774367
0.174954 -0.120798 0.774781
0.174547 -0.122192 0.775358
0.174212 -0.123634 0.776301
0.173835 -0.125051 0.777034
0.173487 -0.12649 0.777924
0.173154 -0.127942 0.778891
0.17279 -0.129377 0.779708
0.172378 -0.130781 0.780277
0.171958 -0.132181 0.78081
0.171522 -0.13357 0.781258
0.171061 -0.134943 0.781575
0.170617 -0.136329 0.781984
0.170167 -0.137713 0.782372
0.169747 -0.13912 0.782914
0.16933 -0.140529 0.78347
0.169218 -0.142179 0.785659
0.169299 -0.143988 0.78889
0.169425 -0.145846 0.792376
0.169595 -0.147755 0.796132
0.169691 -0.149615 0.799503
0.169532 -0.151279 0.80152
0.170089 -0.153553 0.807438
0.171364 -0.156464 0.817296
0.17263 -0.159408 0.827175
0.173536 -0.162077 0.835145
0.173948 -0.164342 0.840457
0.173782 -0.166775 0.85063
0.173747 -0.166076 0.842416
0.23621 0.0404794 0.766063
0.238046 0.0413352 0.765702
0.237454 0.0399588 0.765496
0.236765 0.0385597 0.764936
0.236104 0.0371691 0.764475
0.23551 0.0357963 0.764256
0.234907 0.0344227 0.764004
0.234306 0.0330505 0.763756
0.233834 0.0317078 0.76398
0.233387 0.0303704 0.764299
0.232876 0.0290189 0.764382
0.232419 0.0276789 0.764668
0.23194 0.0263334 0.764867
0.231467 0.0249897 0.765094
0.230985 0.0236438 0.765285
0.230588 0.0223127 0.765793
0.230146 0.0209732 0.766139
0.228492 0.020156 0.767164
0.229716 0.0196345 0.766527
0.229266 0.0182923 0.766844
0.231388 -0.0196413 0.835774
0.230568 -0.0210929 0.834766
0.229631 -0.0225382 0.833275
0.228351 -0.0239687 0.830375
0.226969 -0.0253856 0.827041
0.225305 -0.02678 0.822522
0.223537 -0.0281538 0.817557
0.221894 -0.0295178 0.81308
0.220519 -0.0308829 0.809689
0.21934 -0.0322495 0.807094
0.218423 -0.0336266 0.805577
0.217543 -0.0350013 0.804205
0.216576 -0.0363634 0.802462
0.215567 -0.0377151 0.800532
0.214545 -0.0390587 0.798533
0.21357 -0.0403999 0.796721
0.212665 -0.0417429 0.795196
0.211807 -0.0430861 0.793862
0.21097 -0.0444272 0.79261
0.21019 -0.0457714 0.791594
0.209474 -0.0471209 0.790846
0.208752 -0.0484666 0.790065
0.207994 -0.0498034 0.789127
0.207187 -0.051128 0.78797
0.20635 -0.0524434 0.786677
0.205464 -0.0537446 0.785163
0.204683 -0.0550599 0.784095
0.204008 -0.0563923 0.783484
0.203396 -0.0577349 0.783145
0.202766 -0.0590719 0.782723
0.202162 -0.0604128 0.782413
0.20154 -0.061748 0.782019
0.20089 -0.0630749 0.781503
0.200191 -0.0643874 0.780762
0.199499 -0.0656987 0.780047
0.198711 -0.066982 0.778903
0.197904 -0.068256 0.777666
0.197104 -0.0695267 0.776451
0.196329 -0.0707999 0.775341
0.195589 -0.0720789 0.774387
0.194853 -0.0733549 0.773436
0.194171 -0.0746438 0.772724
0.193527 -0.0759417 0.77219
0.192946 -0.0772575 0.771931
0.192367 -0.0785723 0.771682
0.191816 -0.0798954 0.771559
0.191264 -0.0812171 0.771427
0.190715 -0.0825387 0.771307
0.190187 -0.0838673 0.771288
0.189679 -0.0852026 0.771354
0.189202 -0.0865497 0.771569
0.188708 -0.0878904 0.771706
0.188198 -0.0892247 0.771764
0.187686 -0.0905579 0.771813
0.187139 -0.0918761 0.771699
0.186591 -0.0931932 0.771575
0.186041 -0.0945081 0.77144
0.185495 -0.0958242 0.771327
0.184937 -0.0971334 0.77115
0.18441 -0.0984561 0.771124
0.183946 -0.0998079 0.771399
0.183508 -0.101172 0.771798
0.183091 -0.102548 0.772299
0.182688 -0.103932 0.772872
0.182261 -0.105305 0.773326
0.181798 -0.106662 0.773614
0.181305 -0.108003 0.773753
0.180782 -0.109328 0.773747
0.180256 -0.110651 0.773721
0.179742 -0.111979 0.773754
