ply
format ascii 1.0
element vertex 1640
property float x
property float y
property float z
end_header
0.0683436 0.0435612 0.362684
0.0683114 0.0429021 0.36267
0.0682198 0.0422141 0.362368
0.068112 0.0415196 0.361988
0.0680066 0.0408274 0.361617
0.0678865 0.0401301 0.361177
0.0677733 0.0394378 0.36077
0.0676734 0.0387531 0.360427
0.0675763 0.038071 0.360097
0.0674983 0.0373986 0.359858
0.0674446 0.0367377 0.359739
0.0674068 0.0360842 0.359696
0.0673464 0.0354217 0.359543
0.0672999 0.0347657 0.359458
0.0672764 0.0341194 0.359486
0.0672425 0.0334691 0.35946
0.0672161 0.0328222 0.359475
0.0672103 0.0321831 0.359587
0.0671805 0.0315351 0.359583
0.0671204 0.0308766 0.359432
0.0670733 0.0302233 0.359341
0.0670184 0.0295681 0.359215
0.0669497 0.0289089 0.35902
0.0668955 0.0282554 0.358896
0.0668643 0.0276099 0.358885
0.0668598 0.0269728 0.359005
0.0668825 0.0263437 0.359256
0.0669524 0.0257278 0.359739
0.0670548 0.0251198 0.360382
0.0671456 0.0245066 0.360966
0.0672501 0.0238955 0.36162
0.0673453 0.02328 0.362227
0.0673934 0.022651 0.362606
0.0674156 0.0220148 0.362857
0.0674416 0.0213789 0.363127
0.0674376 0.0207356 0.36325
0.0674343 0.0200923 0.363376
0.0674624 0.0194554 0.363656
0.0674994 0.0188196 0.363979
0.0675709 0.0181898 0.364475
0.0676771 0.017565 0.36514
0.0678028 0.0169416 0.365899
0.0679129 0.0163134 0.366585
0.0680268 0.0156838 0.36729
0.0681241 0.0150496 0.367912
0.0681906 0.0144092 0.368384
0.0682234 0.0137628 0.368688
0.0683023 0.0131217 0.369222
0.065793 0.00782361 0.361152
0.0650911 0.00841128 0.357513
0.0657112 0.00837023 0.357432
0.0659724 0.00775416 0.358863
0.0702242 0.00533936 0.380471
0.0708659 0.00468282 0.383798
0.0709971 0.00400865 0.384597
0.0708825 0.00333077 0.384179
0.0707413 0.00265513 0.383629
0.0705824 0.00198152 0.382991
0.0703818 0.001311 0.382144
0.070161 0.000644286 0.381198
0.0699212 -1.83711e-05 0.380157
0.0696834 -0.00067723 0.379123
0.0694661 -0.00133347 0.378193
0.0692943 -0.0019894 0.377486
0.069151 -0.00264419 0.37692
0.0690485 -0.00330055 0.376558
0.0689736 -0.00395735 0.376333
0.0689186 -0.00461526 0.376207
0.0688899 -0.00527503 0.376209
0.0688932 -0.00593824 0.376374
0.0688976 -0.00660183 0.376542
0.0689022 -0.00726553 0.376712
0.0689641 -0.00793749 0.377167
0.0689978 -0.00860653 0.377484
0.0690253 -0.00927542 0.377767
0.0690556 -0.00994543 0.378065
0.0690831 -0.0106154 0.37835
0.0690733 -0.0112796 0.378448
0.0690867 -0.0119483 0.378664
0.0690517 -0.0126081 0.378635
0.0688982 0.0505488 0.360647
0.0688987 0.0499086 0.360789
0.0689163 0.0492782 0.361015
0.0689152 0.0486366 0.361151
0.0688841 0.0479781 0.361144
0.0688949 0.047343 0.361338
0.0688938 0.046701 0.361474
0.0689083 0.0460673 0.361685
0.068961 0.0454533 0.362079
0.0690096 0.0448363 0.362456
0.0690302 0.0442036 0.362695
0.069054 0.0435724 0.362952
0.0690153 0.0429093 0.362909
0.0689161 0.0422171 0.362574
0.0687969 0.0415165 0.362141
0.0686646 0.0408116 0.361647
0.0685268 0.0401059 0.361125
0.0684041 0.0394092 0.360676
0.0683032 0.0387243 0.360333
0.0682067 0.0380423 0.360007
0.0681365 0.0373733 0.35981
0.0680833 0.0367126 0.359696
0.0680372 0.0360553 0.359614
0.067974 0.0353916 0.35945
0.0679261 0.0347347 0.359358
0.0679026 0.0340882 0.359386
0.0678768 0.0334409 0.359402
0.0678669 0.0327998 0.359495
0.0678624 0.0321607 0.359614
0.06784 0.031515 0.359647
0.0677871 0.0308586 0.359531
0.0677409 0.0302052 0.359448
0.0676936 0.0295522 0.359361
0.0676326 0.0288951 0.359206
0.0675785 0.028241 0.359084
0.0675554 0.0275972 0.359113
0.0675506 0.0269591 0.359229
0.0675578 0.0263246 0.359405
0.0676277 0.0257077 0.359884
0.0677153 0.0250947 0.360452
0.067782 0.0244742 0.360917
0.0678705 0.023858 0.361487
0.0679567 0.0232399 0.362047
0.0679979 0.0226089 0.362389
0.0680287 0.0219745 0.362679
0.0680557 0.0213387 0.362954
0.0680511 0.020695 0.363073
0.068055 0.0200531 0.363233
0.0680832 0.019416 0.363513
0.0681145 0.0187788 0.363808
0.0681872 0.0181488 0.364303
0.068293 0.0175235 0.364961
0.0683944 0.0168956 0.365599
0.0684885 0.0162646 0.366201
0.0685861 0.0156323 0.366821
0.0686604 0.0149948 0.367325
0.0686942 0.0143502 0.367635
0.0687148 0.0137029 0.367879
0.0687336 0.0130549 0.368114
0.0663137 0.00832786 0.357263
0.0665441 0.00770953 0.358532
0.0709604 0.00462527 0.380922
0.0712787 0.00395776 0.382633
0.0713555 0.00328363 0.38316
0.0713844 0.00260837 0.38345
0.0712244 0.00193484 0.382813
0.0710134 0.00126452 0.381923
0.0707895 0.00059765 0.380971
0.070548 -6.48022e-05 0.379928
0.0703169 -0.00072377 0.378938
0.0701074 -0.00138063 0.378054
0.0699449 -0.00203738 0.377399
0.0697999 -0.00269238 0.376831
0.0696885 -0.00334843 0.37643
0.0696027 -0.00400446 0.376153
0.0695384 -0.00466148 0.375982
0.0695007 -0.00532055 0.375942
0.069513 -0.00598486 0.376149
0.0695194 -0.00664866 0.376326
0.0695263 -0.00731275 0.376507
0.0695883 -0.00798483 0.376961
0.069622 -0.00865356 0.377273
0.0696407 -0.00932112 0.377512
0.0696618 -0.00999004 0.377764
0.0696883 -0.0106597 0.378041
0.0696773 -0.0113239 0.378135
0.0696933 -0.0119928 0.37836
0.0703338 -0.0127824 0.381683
0.0694435 0.0511128 0.359992
0.0694911 0.0505009 0.360359
0.0695139 0.0498739 0.360609
0.0695582 0.0492583 0.360959
0.0695683 0.0486227 0.361148
0.0695614 0.0479772 0.361256
0.0695733 0.047342 0.361454
0.0695822 0.0467049 0.361638
0.0696069 0.0460756 0.361896
0.0696677 0.0454649 0.362327
0.0697084 0.0448426 0.362663
0.0697277 0.0442084 0.362896
0.0697589 0.0435798 0.363186
0.0697128 0.0429124 0.363108
0.0696124 0.0422191 0.362771
0.0694837 0.0415138 0.362299
0.0693312 0.0407992 0.361713
0.0691742 0.0400847 0.361105
0.0690492 0.0393869 0.360648
0.0689417 0.0386988 0.360276
0.0688438 0.0380166 0.35995
0.0687812 0.0373505 0.359789
0.0687274 0.0366893 0.359674
0.0686665 0.0360257 0.359523
0.0686024 0.0353616 0.359357
0.0685594 0.0347064 0.35929
0.0685432 0.0340625 0.359353
0.0685272 0.0334186 0.359417
0.0685347 0.0327836 0.359594
0.0685377 0.0321465 0.359748
0.0685154 0.0315002 0.359781
0.0684615 0.0308431 0.359664
0.0684234 0.0301918 0.35962
0.068378 0.0295387 0.359543
0.0683174 0.0288812 0.359393
0.0682626 0.0282262 0.359269
0.0682378 0.0275812 0.35929
0.0682178 0.0269379 0.359335
0.0682182 0.0263006 0.359476
0.0682802 0.0256808 0.359915
0.0683521 0.0250624 0.3604
0.0684024 0.0244371 0.360785
0.0684894 0.0238202 0.361344
0.0685682 0.0231996 0.361864
0.0686095 0.0225685 0.362205
0.0686407 0.0219339 0.362497
0.0686756 0.0212996 0.362806
0.0686713 0.0206558 0.362926
0.0686836 0.0200155 0.363128
0.0687137 0.0193784 0.363414
0.0687461 0.0187411 0.363713
0.0688022 0.0181076 0.364127
0.0688839 0.0174775 0.364662
0.0689521 0.0168437 0.365136
0.0690204 0.0162085 0.365608
0.0690923 0.0155727 0.366098
0.0691399 0.0149318 0.366471
0.0691398 0.0142832 0.366614
0.0691054 0.0136299 0.36659
0.0690277 0.0129715 0.366355
0.0670179 0.00892561 0.357446
0.0669253 0.00828608 0.357136
0.0671658 0.00766791 0.358444
0.0671903 0.00710924 0.361841
0.0676539 0.00705837 0.360958
0.0713672 0.00390514 0.379755
0.0716568 0.00323584 0.381314
0.0718847 0.00256227 0.382573
0.0718874 0.00188778 0.382735
0.0716742 0.00121728 0.381843
0.0714478 0.000550688 0.380887
0.0712026 -0.000112175 0.379837
0.0709776 -0.000771777 0.378886
0.0707759 -0.00142959 0.378046
0.0706129 -0.0020865 0.377396
0.0704666 -0.00274212 0.376826
0.0703451 -0.00339749 0.376379
0.0702411 -0.00405219 0.376016
0.0701666 -0.00470868 0.375797
0.0701198 -0.00536681 0.375713
0.070125 -0.00603049 0.375884
0.0701401 -0.0066952 0.376105
0.0701656 -0.00736193 0.376375
0.0702389 -0.00803522 0.376881
0.0702811 -0.00870602 0.377235
0.0703061 -0.00937507 0.377504
0.0703253 -0.0100436 0.377745
0.0703436 -0.0107125 0.37798
0.0703325 -0.011377 0.378072
0.0703402 -0.0120449 0.378257
0.0700499 0.0510732 0.35977
0.0701236 0.0504763 0.360258
0.0701658 0.0498598 0.360596
0.0702334 0.0492569 0.361055
0.0702542 0.0486265 0.361294
0.0702652 0.0479904 0.361488
0.0702803 0.0473561 0.361701
0.0702986 0.0467229 0.361928
0.0703233 0.0460926 0.362184
0.0703852 0.0454811 0.362617
0.0704086 0.0448488 0.362869
0.0704336 0.0442167 0.363129
0.0704642 0.0435868 0.363415
0.0704112 0.0429152 0.363306
0.0703026 0.0422177 0.362934
0.07017 0.0415102 0.362447
0.0699899 0.0407826 0.361736
0.0698137 0.0400596 0.361044
0.0696794 0.0393576 0.360547
0.0695638 0.0386661 0.36014
0.0694652 0.0379835 0.359813
0.0694087 0.0373202 0.359685
0.0693547 0.0366587 0.35957
0.0692863 0.0359919 0.359384
0.0692293 0.0353305 0.359254
0.0691862 0.0346753 0.359188
0.0691797 0.0340349 0.359298
0.0691727 0.033394 0.359405
0.0691978 0.0327651 0.359665
0.0692104 0.0321308 0.359863
0.0692028 0.0314891 0.359966
0.0691483 0.0308311 0.359847
0.0691101 0.0301793 0.359806
0.0690645 0.0295254 0.359728
0.0690029 0.0288669 0.359575
0.0689395 0.0282087 0.359413
0.068906 0.0275604 0.359393
0.0688773 0.0269139 0.359397
0.0688763 0.0262757 0.359532
0.0689307 0.025653 0.359931
0.0689873 0.0250297 0.360341
0.0690291 0.0244016 0.360681
0.0691074 0.0237818 0.361195
0.0691709 0.0231571 0.36164
0.0692053 0.022524 0.361944
0.0692444 0.0218913 0.362272
0.0692882 0.0212589 0.362623
0.0692934 0.020617 0.362788
0.0693153 0.0199785 0.363035
0.069346 0.0193411 0.363322
0.0693702 0.0187019 0.363581
0.0694092 0.0180648 0.363909
0.0694647 0.0174298 0.364315
0.0695065 0.0167913 0.364657
0.0695466 0.0161518 0.364992
0.0695769 0.0155099 0.365278
0.0695885 0.0148646 0.365477
0.0695518 0.0142122 0.365443
0.0694722 0.0135545 0.365203
0.0693451 0.0128919 0.364731
0.0675793 0.00824709 0.357211
0.0678463 0.00762969 0.358638
0.0683483 0.00701983 0.361199
0.0684583 0.00645509 0.365012
0.0693017 0.00583968 0.36926
0.0695674 0.00578265 0.367366
0.0717596 0.00318811 0.378537
0.0722077 0.0025177 0.38085
0.0724117 0.00184265 0.381983
0.0723619 0.00116958 0.381891
0.0721338 0.0005024 0.380933
0.0718935 -0.000160864 0.379917
0.0716669 -0.000820934 0.378965
0.0714568 -0.00147864 0.378095
0.0712994 -0.00213659 0.377478
0.071152 -0.00279265 0.376908
0.0710191 -0.00344782 0.37641
0.0709051 -0.00410251 0.376003
0.0708206 -0.0047584 0.375737
0.0707566 -0.0054151 0.375572
0.07076 -0.00607836 0.375732
0.0707758 -0.00674372 0.375955
0.0708117 -0.00741163 0.376274
0.070888 -0.00808609 0.376791
0.0709395 -0.00875802 0.377188
0.0709652 -0.00942761 0.377459
0.0709767 -0.0100951 0.37766
0.0709869 -0.0107631 0.377858
0.0709746 -0.0114274 0.377944
0.0709821 -0.0120954 0.378125
0.0704996 0.0515805 0.358677
0.0706833 0.0510495 0.359674
0.0707805 0.0504655 0.360269
0.0708362 0.0498558 0.360667
0.0709289 0.0492662 0.361241
0.0709588 0.0486402 0.361523
0.0709808 0.048009 0.361766
0.0710124 0.0473824 0.362054
0.0710404 0.0467532 0.362325
0.0710568 0.0461174 0.362543
0.0711014 0.0454956 0.362892
0.071107 0.0448531 0.363059
0.0711066 0.0442074 0.363199
0.0711207 0.0435686 0.363407
0.0710678 0.0428968 0.363299
0.070959 0.0421993 0.36293
0.0708179 0.0414879 0.362409
0.0706342 0.040759 0.361687
0.0704538 0.0400341 0.36098
0.0703102 0.0393283 0.360445
0.0701865 0.0386332 0.360003
0.0700876 0.0379507 0.359679
0.0700212 0.0372831 0.359506
0.0699581 0.0366179 0.359349
0.0698883 0.0359507 0.35916
0.0698405 0.035293 0.359074
0.069807 0.0346416 0.359055
0.0698183 0.0340077 0.359248
0.0698294 0.0333733 0.35944
0.0698648 0.0327474 0.359746
0.0698851 0.0321153 0.359981
0.0698861 0.0314761 0.360126
0.069832 0.0308176 0.360011
0.0697932 0.030165 0.359967
0.0697463 0.02951 0.359885
0.0696753 0.0288481 0.35969
0.0696019 0.0281862 0.359482
0.0695675 0.0275371 0.359459
0.0695377 0.0268897 0.359457
0.0695285 0.0262485 0.359552
0.0695748 0.0256229 0.359911
0.0696296 0.0249987 0.360311
0.0696557 0.0243658 0.360575
0.0697186 0.0237418 0.361013
0.0697745 0.0231148 0.361418
0.0698085 0.0224815 0.36172
0.069849 0.0218488 0.36205
0.0699025 0.0212183 0.362445
0.0699177 0.0205786 0.362659
0.0699495 0.0199418 0.362951
0.0699878 0.0193056 0.363274
0.0700027 0.0186641 0.363485
0.070024 0.0180233 0.363726
0.0700526 0.0173833 0.364003
0.0700661 0.01674 0.364208
0.070072 0.0160952 0.364378
0.0700677 0.0154486 0.3645
0.0700377 0.0147979 0.364496
0.0699647 0.0141417 0.36429
0.0698509 0.0134812 0.363889
0.0697052 0.0128184 0.363335
0.0695315 0.0121544 0.362646
0.0682658 0.00821016 0.357438
0.068302 0.00757819 0.357749
0.0686038 0.00695889 0.359333
0.0725731 0.00180236 0.379497
0.0727224 0.00112891 0.380361
0.0726723 0.000458656 0.380268
0.0726057 -0.000210402 0.380094
0.0723694 -0.000870823 0.379105
0.0721567 -0.00152936 0.378228
0.0719893 -0.0021872 0.37757
0.0718388 -0.00284336 0.376992
0.0716968 -0.00349842 0.376453
0.0715822 -0.00415385 0.376047
0.0714872 -0.00480915 0.375734
0.071421 -0.00546611 0.37556
0.0714066 -0.00612794 0.375635
0.0714208 -0.00679315 0.375849
0.0714563 -0.00746154 0.376164
0.0715269 -0.00813514 0.376651
0.0715812 -0.00880792 0.377058
0.0716152 -0.00947862 0.377368
0.0716287 -0.010147 0.377579
0.0716318 -0.0108142 0.377739
0.0716273 -0.0114801 0.377864
0.0716333 -0.0121481 0.378037
0.071527 0.0498629 0.360829
0.0716169 0.0492705 0.361385
0.0716521 0.0486465 0.36169
0.07169 0.0480231 0.362006
0.0717225 0.047396 0.362297
0.0717575 0.0467695 0.3626
0.0717732 0.0461321 0.362812
0.0718089 0.0455048 0.36312
0.0718043 0.0448564 0.36324
0.0718018 0.0442088 0.363368
0.0717996 0.0435611 0.363499
0.0717465 0.0428888 0.363391
0.071629 0.0421867 0.362985
0.0714787 0.0414712 0.362426
0.071286 0.0407382 0.361668
0.0710955 0.0400091 0.360921
0.070942 0.0392992 0.360346
0.0708165 0.0386035 0.3599
0.0707097 0.0379175 0.359541
0.0706343 0.0372462 0.359328
0.070569 0.0365801 0.359163
0.0704979 0.0359125 0.35897
0.0704588 0.0352583 0.358926
0.0704436 0.0346138 0.358994
0.0704664 0.0339837 0.359239
0.0704933 0.0333549 0.359506
0.0705368 0.0327312 0.359847
0.0705594 0.0320993 0.360093
0.0705624 0.03146 0.360246
0.0705164 0.0308038 0.36017
0.0704693 0.0301477 0.360088
0.070412 0.029489 0.359959
0.0703385 0.0288258 0.359755
0.0702645 0.0281633 0.359547
0.0702224 0.0275114 0.359487
0.0701923 0.0268635 0.359485
0.0701817 0.0262216 0.359576
0.0702125 0.0255909 0.359859
0.0702601 0.0249643 0.360223
0.0702845 0.0243306 0.360477
0.0703399 0.0237042 0.360877
0.0703876 0.0230748 0.361241
0.0704209 0.022441 0.361537
0.0704611 0.0218081 0.361866
0.070517 0.021178 0.362269
0.0705434 0.0205403 0.362532
0.0705753 0.0199032 0.362825
0.0706135 0.0192667 0.363145
0.070619 0.018623 0.36331
0.0706233 0.0179789 0.36347
0.0706263 0.0173344 0.363625
0.0706217 0.0166883 0.363744
0.0706014 0.0160395 0.363789
0.0705715 0.0153895 0.363788
0.0705074 0.0147348 0.363626
0.0704072 0.014076 0.363292
0.0702798 0.0134151 0.36283
0.0701408 0.0127545 0.362313
0.0699852 0.0120942 0.361717
0.0693148 0.0114886 0.361752
0.0698179 0.0114349 0.361065
0.0691213 0.0108282 0.360969
0.0696943 0.0107822 0.360617
0.068953 0.010173 0.360306
0.0695853 0.0101326 0.360241
0.0691498 0.00882202 0.358454
0.0690022 0.00817616 0.357891
0.0690366 0.00754293 0.358194
0.0691229 0.00691131 0.358741
0.069303 0.00628251 0.359736
0.0693867 0.00571144 0.363361
0.0694649 0.00564941 0.360644
0.0726743 0.00109717 0.376905
0.072842 0.000426058 0.377851
0.0729753 -0.000247367 0.378632
0.0729251 -0.000914229 0.378539
0.0728837 -0.00158115 0.378486
0.0727048 -0.00223891 0.377777
0.0725445 -0.00289574 0.377159
0.0724024 -0.00355142 0.376626
0.0722788 -0.00420658 0.37618
0.0721831 -0.00486236 0.375866
0.0721073 -0.00551906 0.375649
0.0720742 -0.00617955 0.375636
0.0720706 -0.00684314 0.375762
0.0720961 -0.00751038 0.376029
0.0721488 -0.00818217 0.376426
0.0722035 -0.00885509 0.376832
0.0722465 -0.00952701 0.377184
0.0722703 -0.0101973 0.377443
0.0722822 -0.0108661 0.377644
0.0722866 -0.0115336 0.377811
0.0723005 -0.0122036 0.378024
0.0722645 0.0498954 0.361198
0.0723314 0.0492886 0.361645
0.0723433 0.0486507 0.361839
0.0723823 0.048027 0.362159
0.0724161 0.0473996 0.362454
0.0724503 0.0467719 0.362753
0.0724671 0.0461343 0.362969
0.0724939 0.0455015 0.363234
0.0724804 0.0448479 0.363312
0.0724682 0.0441949 0.363396
0.072448 0.043538 0.363443
0.0723924 0.0428645 0.363327
0.0722821 0.042166 0.362959
0.0721321 0.0414506 0.362406
0.071939 0.0407178 0.361653
0.0717471 0.0399882 0.360905
0.0715833 0.0392739 0.360288
0.0714481 0.0385741 0.359801
0.0713398 0.0378877 0.359439
0.0712559 0.0372128 0.35919
0.0711895 0.0365462 0.359021
0.0711173 0.0358781 0.358825
0.0710777 0.0352236 0.35878
0.0710736 0.0345832 0.3589
0.0711052 0.0339562 0.359185
0.0711414 0.03333 0.359491
0.0711842 0.0327056 0.359829
0.0712144 0.0320759 0.360109
0.0712187 0.0314364 0.360266
0.0711814 0.0307829 0.360232
0.0711339 0.0301263 0.360151
0.0710755 0.0294667 0.360018
0.0710003 0.0288026 0.359808
0.0709184 0.0281373 0.359565
0.070869 0.0274829 0.359474
0.0708393 0.0268349 0.359475
0.0708295 0.0261926 0.359569
0.0708444 0.0255572 0.359777
0.0708835 0.0249277 0.360097
0.0708993 0.0242914 0.360309
0.0709467 0.0236628 0.360671
0.070986 0.023031 0.360992
0.0710185 0.022397 0.361284
0.0710586 0.021764 0.361611
0.0711224 0.0211354 0.362049
0.0711578 0.0204994 0.362352
0.0711909 0.0198624 0.362647
0.0712292 0.0192256 0.362966
0.0712333 0.0185817 0.363126
0.0712223 0.0179346 0.363214
0.0712008 0.0172858 0.363254
0.0711787 0.0166369 0.363291
0.0711409 0.0159857 0.363252
0.0710858 0.0153324 0.363135
0.0709964 0.0146747 0.362855
0.0708852 0.0140155 0.362474
0.0707563 0.0133554 0.362008
0.0706221 0.0126966 0.361517
0.0704886 0.0120398 0.36103
0.0703561 0.011385 0.360547
0.0702656 0.010736 0.36026
0.0701569 0.0100868 0.359888
0.0699767 0.00943323 0.35918
0.0698278 0.00878459 0.358616
0.0697041 0.00813975 0.358174
0.069723 0.00750467 0.358399
0.0697895 0.00687148 0.358851
0.0699483 0.00624085 0.359738
0.0700845 0.00560648 0.360518
0.06978 0.00501805 0.36228
0.0702059 0.0049696 0.361229
0.0701063 0.0043813 0.363972
0.070373 0.00433133 0.362157
0.0706302 0.00374126 0.366603
0.0707059 0.00369162 0.363867
0.072963 0.000394934 0.375237
0.073326 -0.000283047 0.377097
0.0734763 -0.000956967 0.377953
0.0736127 -0.00163317 0.378743
0.0734224 -0.00229104 0.377988
0.0732611 -0.00294857 0.377371
0.0731269 -0.00360581 0.37688
0.0730039 -0.0042618 0.376441
0.0729068 -0.00491866 0.376126
0.0728294 -0.00557605 0.375903
0.072772 -0.0062346 0.375774
0.072749 -0.00689661 0.37581
0.0727543 -0.00756189 0.375978
0.0727875 -0.00823111 0.37628
0.0728315 -0.00890264 0.376635
0.0728759 -0.00957516 0.376989
0.0729004 -0.0102454 0.377251
0.0729135 -0.0109147 0.377459
0.0729272 -0.011584 0.377667
0.0729515 -0.0122556 0.377928
0.0730303 0.0492972 0.361825
0.0730205 0.0486466 0.36192
0.0730479 0.0480159 0.362185
0.0730817 0.0473879 0.362479
0.0731175 0.0467603 0.362783
0.0731345 0.0461223 0.363
0.0731552 0.0454857 0.363234
0.0731417 0.0448316 0.363313
0.0731284 0.0441777 0.363393
0.0730908 0.0435122 0.36336
0.0730337 0.0428376 0.363238
0.0729211 0.0421382 0.362863
0.0727715 0.0414232 0.362317
0.0725777 0.0406903 0.361567
0.0723849 0.0399608 0.360821
0.0722093 0.0392417 0.360157
0.0720716 0.0385411 0.359663
0.0719627 0.0378545 0.359301
0.0718721 0.0371768 0.359023
0.0718047 0.0365099 0.358852
0.071739 0.0358444 0.358688
0.0717069 0.0351927 0.358679
0.0716962 0.0345496 0.358768
0.0717287 0.0339224 0.359055
0.0717723 0.0332986 0.359394
0.0718134 0.0326731 0.359722
0.0718362 0.0320405 0.359966
0.0718478 0.0314034 0.360159
0.0718114 0.0307499 0.360129
0.071756 0.0300904 0.360011
0.0716972 0.0294307 0.359879
0.0716139 0.028764 0.359633
0.0715236 0.0280965 0.359356
0.0714749 0.0274421 0.359268
0.0714453 0.026794 0.35927
0.0714349 0.0261516 0.35936
0.0714495 0.0255158 0.359566
0.071488 0.0248861 0.359883
0.0715032 0.0242494 0.360091
0.0715503 0.0236205 0.360448
0.0715829 0.022987 0.360737
0.071615 0.0223527 0.361025
0.0716624 0.0217212 0.361384
0.071727 0.0210925 0.361822
0.0717624 0.0204565 0.362125
0.0717959 0.0198193 0.36242
0.0718417 0.019184 0.362773
0.0718393 0.0185386 0.362902
0.0718278 0.0178913 0.362987
0.0717984 0.0172411 0.362989
0.0717666 0.0165907 0.362981
0.0717027 0.0159356 0.362825
0.0716299 0.0152799 0.362624
0.0715213 0.0146202 0.362258
0.071409 0.0139614 0.361877
0.0712876 0.0133031 0.36145
0.0711612 0.0126458 0.361001
0.0710377 0.0119907 0.360563
0.0709132 0.0113371 0.360121
0.0708189 0.0106882 0.35982
0.0707077 0.0100392 0.35944
0.0705683 0.00938934 0.358928
0.070458 0.00874357 0.35855
0.0703721 0.0081009 0.358287
0.0703842 0.00746478 0.358481
0.0704359 0.00683036 0.358861
0.0705673 0.0061976 0.359613
0.0706796 0.00556251 0.360277
0.0707915 0.00492528 0.360938
0.0708114 0.00428468 0.36117
0.0709616 0.00364439 0.362012
0.0710218 0.00304703 0.365499
0.0710828 0.00300185 0.362719
0.0736647 -0.000318503 0.375528
0.0740304 -0.00100014 0.377389
0.0743538 -0.00168589 0.37905
0.0741605 -0.00234457 0.378288
0.0739889 -0.00300231 0.377627
0.0738553 -0.0036604 0.377143
0.0737391 -0.00431779 0.376741
0.0736505 -0.00497644 0.376469
0.0735645 -0.00563389 0.376208
0.0735053 -0.00629347 0.376074
0.0734631 -0.00695398 0.376019
0.07344 -0.00761657 0.376054
0.0734533 -0.00828387 0.376261
0.0734875 -0.00895449 0.376565
0.0735238 -0.0096261 0.376881
0.0735491 -0.0102965 0.377146
0.0735716 -0.0109675 0.377395
0.0735857 -0.0116373 0.377606
0.0736201 -0.0123112 0.377913
0.0736713 0.0492734 0.361737
0.0736618 0.0486226 0.361832
0.0736856 0.0479896 0.36208
0.0737201 0.0473615 0.362376
0.0737571 0.046734 0.362683
0.0737832 0.0461002 0.362941
0.0738052 0.0454637 0.363179
0.0737919 0.0448094 0.363259
0.0737711 0.0441516 0.363305
0.0737239 0.0434812 0.36323
0.0736651 0.0428059 0.363102
0.0735521 0.0421063 0.362728
0.0734025 0.0413917 0.362187
0.0732165 0.0406628 0.361479
0.0730287 0.039936 0.360765
0.072851 0.0392159 0.360094
0.0727116 0.0385147 0.359597
0.0726024 0.0378281 0.359237
0.0725041 0.0371473 0.358928
0.0724373 0.0364803 0.35876
0.0723696 0.035814 0.35859
0.0723292 0.035159 0.358545
0.0723101 0.0345124 0.358594
0.0723417 0.0338847 0.358877
0.0723764 0.0332574 0.359173
0.0724095 0.0326289 0.359463
0.0724325 0.031996 0.359705
0.0724441 0.031359 0.359898
0.0724077 0.0307054 0.359868
0.0723515 0.0300461 0.359751
0.0722927 0.0293864 0.359619
0.072209 0.0287197 0.359373
0.0721104 0.0280497 0.359059
0.0720596 0.0273951 0.358965
0.0720279 0.0267465 0.358958
0.0720101 0.0261021 0.359014
0.0720175 0.0254644 0.359185
0.0720553 0.0248346 0.359498
0.0720701 0.0241981 0.359703
0.0721101 0.0235673 0.360024
0.072151 0.022936 0.36035
0.0721929 0.0223041 0.360682
0.0722499 0.0216748 0.361082
0.0723155 0.0210462 0.361523
0.0723582 0.0204117 0.361858
0.0723928 0.0197748 0.362156
0.0724396 0.0191394 0.362511
0.0724375 0.018494 0.36264
0.0724256 0.0178468 0.362725
0.0723876 0.017195 0.362687
0.0723458 0.0165431 0.362634
0.0722622 0.0158852 0.362387
0.0721706 0.0152271 0.362103
0.0720365 0.0145644 0.361624
0.0719224 0.0139062 0.361235
0.0717939 0.0132478 0.360781
0.0716772 0.0125925 0.360379
0.0715703 0.0119399 0.360024
0.0714615 0.0112886 0.359659
0.0713764 0.010641 0.359402
0.0712846 0.00999388 0.359115
0.0711815 0.00934713 0.358775
0.0710997 0.00870331 0.358535
0.0710481 0.00806243 0.358432
0.0710402 0.00742452 0.358534
0.0710807 0.00678899 0.358859
0.0711762 0.00615466 0.35944
0.0712642 0.00551821 0.359986
0.0713632 0.00488045 0.360583
0.071403 0.00424044 0.360906
0.0714012 0.00359921 0.361036
0.0713568 0.00295758 0.360967
0.0713861 0.00235567 0.364279
0.0714695 0.00231534 0.361631
0.07166 0.00170544 0.365703
0.0715438 0.00167165 0.362114
0.0740072 -0.000353627 0.373996
0.0745991 -0.0010439 0.376895
0.0751253 -0.00174009 0.37949
0.0749203 -0.00239957 0.37868
0.0747378 -0.00305729 0.377974
0.0745938 -0.00371576 0.377445
0.0744686 -0.00437332 0.377007
0.0743798 -0.00503302 0.376737
0.0743011 -0.00569227 0.376513
0.0742329 -0.00635145 0.376337
0.0741813 -0.00701195 0.376241
0.0741383 -0.0076728 0.376183
0.074133 -0.00833818 0.376302
0.0741486 -0.00900672 0.376519
0.0741772 -0.00967757 0.376797
0.0742033 -0.0103487 0.377063
0.0742344 -0.0110212 0.377351
0.0742482 -0.0116913 0.37756
0.0742911 -0.0123674 0.377905
0.0742876 0.0492358 0.361534
0.0742851 0.0485888 0.361662
0.0743143 0.0479582 0.361932
0.0743497 0.04733 0.362229
0.0743868 0.0467024 0.362536
0.0744213 0.0460723 0.362829
0.0744434 0.0454356 0.363069
0.0744308 0.0447814 0.363151
0.0744183 0.0441272 0.363234
0.0743628 0.0434526 0.363123
0.0743029 0.0427768 0.362992
0.0741891 0.0420771 0.362619
0.0740472 0.0413661 0.362117
0.0738614 0.0406376 0.361416
0.0736812 0.0399143 0.360742
0.0735023 0.039194 0.360071
0.0733613 0.0384922 0.359572
0.0732435 0.037802 0.359178
0.0731446 0.0371208 0.358867
0.0730925 0.0364597 0.358771
0.0730255 0.0357933 0.358605
0.0729861 0.0351381 0.358562
0.0729644 0.0344903 0.358603
0.0729873 0.0338587 0.358844
0.0729953 0.0332214 0.359017
0.073021 0.0325899 0.359272
0.0730357 0.0319541 0.359476
0.0730408 0.0313145 0.359636
0.0730028 0.0306608 0.359604
0.0729463 0.0300012 0.359483
0.0728777 0.0293387 0.359311
0.072793 0.028672 0.359063
0.0726845 0.0279994 0.358708
0.0726239 0.0273421 0.358568
0.0725753 0.026689 0.358485
0.072547 0.0260421 0.358495
0.0725463 0.0254027 0.358628
0.0725779 0.0247715 0.358909
0.0725935 0.0241357 0.359117
0.0726415 0.0235074 0.359474
0.0726917 0.0228787 0.359841
0.0727439 0.0222495 0.360217
0.0728117 0.0216227 0.360664
0.0728872 0.0209964 0.361147
0.0729402 0.020364 0.361526
0.0729904 0.0197302 0.361894
0.0730308 0.0190935 0.362217
0.0730362 0.0184496 0.362381
0.0730251 0.0178024 0.362468
0.0729848 0.0171503 0.362422
0.0729264 0.0164958 0.362293
0.072824 0.0158352 0.361965
0.0727121 0.0151746 0.36159
0.0725577 0.0145097 0.361021
0.0724355 0.0138512 0.3606
0.0723083 0.0131937 0.360154
0.0722085 0.0125411 0.359834
0.0721188 0.011891 0.35956
0.0720344 0.0112425 0.359311
0.071966 0.0105966 0.359134
0.0718836 0.00995052 0.358894
0.0718028 0.00930556 0.35866
0.0717291 0.00866207 0.358459
0.0716705 0.00802051 0.358325
0.071639 0.00738111 0.358318
0.0716703 0.00674488 0.3586
0.071741 0.00610957 0.359062
0.0718136 0.00547283 0.359533
0.0719129 0.00483559 0.360128
0.0719701 0.00419587 0.360529
0.0719866 0.00355472 0.360743
0.0719668 0.00291334 0.360789
0.0719255 0.00227206 0.360736
0.0718335 0.00163222 0.36045
0.0743692 -0.000389475 0.372574
0.0751712 -0.00108767 0.376422
0.0758754 -0.00179348 0.37982
0.075676 -0.00245401 0.379042
0.0754814 -0.00311238 0.378286
0.0753339 -0.00377107 0.377748
0.0751987 -0.00442922 0.377267
0.0751087 -0.00508935 0.376993
0.0750219 -0.00574854 0.376735
0.074953 -0.00640873 0.376558
0.0748919 -0.0070688 0.37642
0.0748487 -0.00773053 0.376362
0.0748338 -0.0083954 0.376437
0.0748411 -0.00906348 0.376613
0.0748604 -0.00973343 0.376847
0.0748781 -0.0104035 0.377072
0.0749009 -0.0110754 0.377321
0.0749054 -0.0117444 0.377486
0.0749477 -0.0124205 0.377826
0.0749054 0.0491989 0.361337
0.0749096 0.0485553 0.361495
0.0749355 0.0479226 0.361748
0.0749633 0.0472903 0.36201
0.0749925 0.0466582 0.362279
0.075017 0.0460231 0.362528
0.0750297 0.0453817 0.362724
0.0750171 0.0447276 0.362806
0.0749973 0.0440701 0.362856
0.0749497 0.0433997 0.362782
0.0748975 0.0427276 0.362687
0.0747918 0.0420318 0.362352
0.0746506 0.0413218 0.361859
0.0744807 0.040601 0.361237
0.0743094 0.0398819 0.360607
0.0741391 0.0391656 0.359981
0.0739989 0.0384642 0.359489
0.0738956 0.0377799 0.359163
0.0737946 0.0370979 0.358848
0.0737512 0.0364399 0.358791
0.073685 0.0357734 0.358629
0.073646 0.0351184 0.358593
0.073607 0.0344635 0.358555
0.0736106 0.0338244 0.358708
0.0735919 0.0331773 0.358761
0.0735998 0.0325395 0.358934
0.0735979 0.031898 0.359062
0.0735948 0.0312561 0.359186
0.0735566 0.0306024 0.35915
0.0734992 0.0299432 0.359029
0.0734295 0.0292807 0.358853
0.0733436 0.0286143 0.358602
0.0732255 0.0279394 0.358207
0.0731554 0.0272799 0.358027
0.0730958 0.0266242 0.357895
0.0730589 0.0259755 0.357865
0.0730492 0.0253344 0.357959
0.0730801 0.0247036 0.358234
0.0730878 0.0240665 0.358407
0.0731366 0.023439 0.358765
0.0731969 0.0228131 0.359173
0.0732584 0.0221867 0.35959
0.0733301 0.0215612 0.360052
0.0734238 0.0209391 0.360612
0.0734855 0.020309 0.361031
0.0735459 0.0196774 0.361442
0.0735961 0.0190427 0.361807
0.0736186 0.0184021 0.362047
0.0736066 0.017755 0.362132
0.0735665 0.0171032 0.362089
0.0734908 0.0164461 0.361883
0.0733703 0.0157831 0.361474
0.0732391 0.0151203 0.361016
0.0730734 0.0144545 0.360399
0.0729489 0.0137964 0.35997
0.072829 0.0131406 0.359563
0.0727397 0.0124899 0.359294
0.0726661 0.0118421 0.359097
0.0726083 0.0111966 0.35897
0.07255 0.0105519 0.358841
0.072477 0.00990666 0.358646
0.0724049 0.00926238 0.358454
0.0723292 0.00861882 0.358246
0.0722627 0.00797674 0.358079
0.0722232 0.00733687 0.358035
0.0722541 0.00670044 0.358313
0.072316 0.0060648 0.358731
0.0723872 0.00542838 0.359195
0.0724948 0.00479102 0.359823
0.07257 0.0041519 0.360303
0.0725959 0.00351086 0.360559
0.0725935 0.00286933 0.360687
0.0725612 0.00222777 0.360676
0.0726503 0.00158447 0.361222
0.072618 0.00097299 0.364208
0.0734559 0.000922803 0.365048
0.0734816 0.000299014 0.368333
0.0743426 0.000245665 0.369248
0.0752515 -0.000445498 0.373555
0.0760599 -0.00114643 0.377401
0.076607 -0.00184571 0.380055
0.0764152 -0.00250788 0.37932
0.0762172 -0.00316644 0.378555
0.076058 -0.00382527 0.377967
0.0759291 -0.00448451 0.377518
0.0758288 -0.00514486 0.377202
0.0757409 -0.00580478 0.37694
0.0756718 -0.00646586 0.376766
0.0756113 -0.00712677 0.376632
0.0755602 -0.00778851 0.376539
0.0755357 -0.00845282 0.37657
0.0755334 -0.00911997 0.376702
0.0755427 -0.00978907 0.376887
0.075551 -0.0104586 0.37707
0.075565 -0.0111291 0.377277
0.0755692 -0.0117985 0.37744
0.0763582 -0.012607 0.381221
0.0755113 0.0491557 0.361087
0.0755272 0.0485181 0.361296
0.0755527 0.047885 0.361547
0.0755786 0.0472513 0.361798
0.0755976 0.0466139 0.362021
0.0756115 0.0459733 0.362221
0.0756136 0.0453268 0.362369
0.0756011 0.0446729 0.362452
0.0755738 0.044012 0.362469
0.0755348 0.0433459 0.362434
0.0754908 0.0426778 0.362376
0.0753846 0.0419824 0.362044
0.0752525 0.0412767 0.361593
0.0751004 0.0405642 0.361055
0.0749388 0.0398498 0.360475
0.0747774 0.0391375 0.359894
0.0746438 0.0384392 0.359437
0.0745399 0.0377546 0.359112
0.0744466 0.0370755 0.358833
0.0744128 0.0364208 0.358819
0.0743484 0.0357548 0.358669
0.0743099 0.0350993 0.358634
0.0742612 0.0344405 0.358554
0.0742454 0.033794 0.35862
0.0742068 0.0331397 0.358586
0.0741949 0.0324947 0.358668
0.0741743 0.031847 0.358714
0.0741612 0.0312017 0.358791
0.0741063 0.0305432 0.358684
0.0740404 0.0298817 0.358526
0.0739624 0.0292172 0.358313
0.0738758 0.0285512 0.358062
0.0737567 0.0278767 0.357665
0.0736868 0.0272179 0.357489
0.0736184 0.0265605 0.35732
0.0735794 0.0259117 0.357281
0.0735589 0.0252683 0.357325
0.0735812 0.0246359 0.357562
0.0735975 0.0240015 0.357771
0.0736471 0.0233747 0.35813
0.0737073 0.0227494 0.358537
0.0737705 0.0221236 0.358957
0.073833 0.0214967 0.359376
0.0739122 0.020872 0.359867
0.0739654 0.0202408 0.360245
0.074044 0.0196134 0.360734
0.0741052 0.0189816 0.361148
0.0741564 0.0183468 0.361516
0.0741616 0.017703 0.361677
0.0741378 0.0170542 0.361706
0.0740448 0.0163946 0.361425
0.0739148 0.0157308 0.360978
0.0737719 0.0150669 0.360471
0.0736036 0.0144016 0.359849
0.0734793 0.0137441 0.359425
0.0733678 0.0130899 0.359059
0.0732951 0.0124416 0.358866
0.0732228 0.0117942 0.358676
0.0731747 0.01115 0.358595
0.073126 0.0105064 0.358513
0.073063 0.00986222 0.358365
0.0729989 0.00921861 0.358209
0.0729311 0.00857559 0.35804
0.0728629 0.00793339 0.357869
0.0728211 0.00729338 0.357815
0.072851 0.00665699 0.358087
0.0728972 0.00602068 0.358431
0.0729609 0.00538356 0.358857
0.0730688 0.0047466 0.359482
0.0731444 0.00410746 0.359962
0.0731732 0.00346657 0.360229
0.0731815 0.00282479 0.360404
0.0731574 0.00218345 0.360433
0.0734452 0.00153712 0.361876
0.0742848 0.000872608 0.365829
0.0761301 -0.000501555 0.374497
0.0769424 -0.00120489 0.378336
0.0773161 -0.0018968 0.38018
0.0771327 -0.00255982 0.379489
0.076925 -0.00321865 0.378687
0.076756 -0.00387757 0.37806
0.0766241 -0.00453745 0.377602
0.0765229 -0.0051979 0.377285
0.0764341 -0.00585834 0.377023
0.076382 -0.00652202 0.376928
0.0763305 -0.00718456 0.376835
0.0762884 -0.00784824 0.376785
0.0762647 -0.00851334 0.37682
0.0762611 -0.0091812 0.376946
0.076259 -0.00984981 0.37708
0.0762657 -0.0105197 0.377253
0.0762619 -0.011188 0.377379
0.0762579 -0.0118566 0.377502
0.0761222 0.0491149 0.360858
0.0761663 0.0484918 0.361189
0.0761905 0.0478576 0.361433
0.0762133 0.0472222 0.361672
0.0762261 0.0465811 0.361865
0.0762305 0.0459357 0.362022
0.0762139 0.0452797 0.362086
0.0762014 0.0446259 0.362169
0.0761745 0.0439654 0.36219
0.0761449 0.0433036 0.362196
0.0761091 0.0426395 0.362177
0.0760126 0.0419487 0.36189
0.0758976 0.0412507 0.36152
0.0757631 0.0405461 0.361065
0.0756094 0.0398349 0.360523
0.0754564 0.0391262 0.359984
0.0753225 0.0384275 0.359531
0.0752097 0.037739 0.359169
0.0751169 0.0370598 0.358895
0.0750841 0.0364051 0.358887
0.0750197 0.0357389 0.35874
0.0749727 0.0350797 0.358668
0.0749221 0.0344198 0.35858
0.0748872 0.033766 0.358563
0.07483 0.0331047 0.358445
0.0747902 0.0324501 0.358405
0.0747579 0.0317985 0.358398
0.0747254 0.031147 0.358391
0.0746611 0.0304858 0.358242
0.0745864 0.0298219 0.358047
0.0745002 0.0291555 0.357801
0.0744126 0.0284898 0.357548
0.0742946 0.0278163 0.357159
0.0742253 0.0271583 0.356988
0.0741578 0.0265016 0.356823
0.0741095 0.0258509 0.356745
0.0740793 0.0252054 0.356746
0.0740922 0.0245711 0.356939
0.0740996 0.023935 0.357107
0.0741345 0.0233052 0.357399
0.0741929 0.0226802 0.357795
0.0742466 0.022053 0.35817
0.0742994 0.0214246 0.358541
0.0743595 0.0207968 0.358947
0.0744025 0.0201644 0.359274
0.0744976 0.0195414 0.359835
0.0745707 0.0189126 0.360298
0.0746449 0.0182828 0.360767
0.0746787 0.0176447 0.361055
0.0746804 0.0170006 0.361199
0.074577 0.0163401 0.360874
0.0744528 0.0156777 0.360456
0.074309 0.0150143 0.35995
0.0741425 0.0143499 0.359341
0.0740193 0.0136932 0.358926
0.0739162 0.0130405 0.358601
0.0738507 0.0123934 0.358443
0.0737868 0.0117473 0.358294
0.0737559 0.011105 0.358289
0.0737249 0.010463 0.358287
0.0736785 0.00982015 0.358215
0.0736304 0.0091776 0.358135
0.0735717 0.00853492 0.358008
0.0735031 0.00789234 0.357836
0.0734528 0.00725156 0.357745
0.0734724 0.00661423 0.35797
0.0735018 0.00597709 0.358238
0.0735575 0.00533969 0.358624
0.0736588 0.00470249 0.359216
0.0737356 0.00406324 0.359698
0.0737653 0.00342221 0.359968
0.0737669 0.00278085 0.360111
0.0737344 0.00213936 0.360101
0.0742269 0.00148936 0.362459
0.0750994 0.000822307 0.36653
0.0769939 -0.000557258 0.375357
0.0778123 -0.001263 0.379194
0.0780046 -0.00194685 0.380206
0.0778395 -0.00261176 0.379603
0.07764 -0.00327177 0.378846
0.0774694 -0.00393129 0.378218
0.0773371 -0.00459143 0.377761
0.077227 -0.00525217 0.377407
0.077147 -0.00591418 0.377187
0.0771044 -0.00657924 0.377136
0.0770615 -0.00724382 0.377085
0.0770293 -0.00790935 0.377082
0.0770148 -0.008577 0.377158
0.077002 -0.00924451 0.377243
0.0769811 -0.00991124 0.377292
0.0769685 -0.0105788 0.377376
0.0769368 -0.0112433 0.377374
0.0769138 -0.0119092 0.377413
0.076855 0.048491 0.361298
0.076878 0.0478554 0.361535
0.0768889 0.047213 0.361719
0.076879 0.0465602 0.361813
0.0768606 0.0459034 0.361872
0.0767996 0.045226 0.361742
0.0767695 0.044564 0.361748
0.0767344 0.0438998 0.361732
0.0767134 0.0432426 0.361778
0.0766878 0.0425832 0.361803
0.0766096 0.0419009 0.361599
0.0765213 0.0412151 0.36135
0.0764218 0.0405257 0.361051
0.0762868 0.0398224 0.360596
0.0761408 0.0391166 0.360094
0.0760129 0.0384201 0.359671
0.0758984 0.0377305 0.359304
0.0757967 0.0370476 0.358995
0.0757556 0.0363892 0.358952
0.0756994 0.0357254 0.35884
0.0756501 0.0350649 0.358759
0.0755899 0.0344011 0.358632
0.0755377 0.0337407 0.358539
0.0754705 0.0330758 0.35838
0.0754042 0.0324119 0.358224
0.075337 0.0317485 0.358065
0.0752762 0.0310881 0.357933
0.0752002 0.0304236 0.357735
0.0751158 0.0297573 0.357498
0.0750211 0.029089 0.357217
0.0749417 0.0284265 0.357003
0.0748307 0.0277558 0.356649
0.0747628 0.0270987 0.356485
0.0746969 0.0264429 0.356329
0.0746489 0.0257928 0.356253
0.0746177 0.0251474 0.35625
0.0746294 0.0245132 0.356438
0.0746286 0.0238755 0.356569
0.074654 0.0232438 0.356816
0.0747046 0.0226173 0.357175
0.0747383 0.0219862 0.35746
0.0747629 0.0213525 0.357705
0.074803 0.0207213 0.358017
0.0748258 0.020086 0.358254
0.0749198 0.0194638 0.358807
0.0750041 0.0188382 0.359316
0.0751092 0.0182149 0.359918
0.0751648 0.0175814 0.360301
0.0751945 0.0169427 0.360569
0.0751062 0.0162853 0.360315
0.0749893 0.0156247 0.359932
0.0748546 0.0149631 0.359469
0.0747146 0.0143028 0.358985
0.0746021 0.0136477 0.35862
0.0745168 0.0129973 0.358377
0.0744587 0.012351 0.358255
0.0743946 0.0117047 0.358105
0.0743625 0.0110624 0.358099
0.0743309 0.0104203 0.358094
0.0742774 0.00977668 0.35799
0.0742306 0.00913424 0.357918
0.0741729 0.00849154 0.357796
0.0740972 0.00784856 0.357594
0.0740464 0.00720789 0.357503
0.0740736 0.00657104 0.35776
0.0741105 0.00593372 0.35806
0.0741666 0.00529629 0.358447
0.0742683 0.00465866 0.359035
0.0743525 0.00401936 0.359548
0.0745611 0.00337915 0.360617
0.0747623 0.00273573 0.361653
0.0749272 0.00208943 0.362527
0.0756345 0.00143094 0.365829
0.0765128 0.00075757 0.369897
0.0760684 0.000138907 0.371041
0.0772938 7.35504e-05 0.373533
0.0780163 -0.000619626 0.37691
0.0786531 -0.0013195 0.379903
0.0786673 -0.0019955 0.380112
0.0785212 -0.00266169 0.379598
0.0783397 -0.0033234 0.378928
0.0781856 -0.00398482 0.378381
0.0780621 -0.00464666 0.377969
0.0779521 -0.00530795 0.377617
0.0778724 -0.00597072 0.377401
0.0778299 -0.00663675 0.377352
0.0777893 -0.00730255 0.377312
0.0777669 -0.0079701 0.377355
0.0777542 -0.00863881 0.37744
0.0777414 -0.00930756 0.377524
0.0777193 -0.00997472 0.377566
0.0776958 -0.0106416 0.377604
0.0776444 -0.0113041 0.377515
0.0776096 -0.0119685 0.3775
0.0777111 0.0472764 0.362398
0.0776562 0.0466 0.362298
0.0775583 0.0459035 0.362012
0.0774489 0.0452025 0.361674
0.0773821 0.0445231 0.361522
0.0773286 0.0438504 0.361426
0.0773152 0.0431968 0.361506
0.0772916 0.0425384 0.36154
0.0772243 0.041861 0.361384
0.0771474 0.0411804 0.361187
0.0770749 0.0405025 0.36101
0.0769504 0.0398038 0.360606
0.0768222 0.0391052 0.360185
0.0767018 0.0384115 0.359797
0.076593 0.0377238 0.359459
0.07648 0.037036 0.359103
0.0764193 0.0363697 0.358976
0.0763524 0.0357016 0.35882
0.0762936 0.0350373 0.3587
0.0762174 0.0343675 0.358504
0.0761557 0.0337038 0.358371
0.0760792 0.0330356 0.358173
0.075986 0.0323627 0.357902
0.075891 0.0316905 0.357622
0.0758104 0.0310241 0.357406
0.0757149 0.030354 0.357124
0.0756294 0.0296881 0.356884
0.0755426 0.029023 0.35664
0.0754719 0.0283637 0.356466
0.0753687 0.0276959 0.356149
0.075308 0.0270415 0.35602
0.0752509 0.0263885 0.355904
0.0752039 0.025739 0.355833
0.0751736 0.0250942 0.355835
0.075184 0.0244599 0.356016
0.0751913 0.0238243 0.356182
0.0752004 0.023189 0.356357
0.075241 0.0225605 0.35667
0.0752554 0.0219254 0.356868
0.0752611 0.0212882 0.357028
0.075266 0.0206504 0.357184
0.0752796 0.0200142 0.357379
0.0753545 0.0193893 0.357845
0.0754465 0.018766 0.358384
0.0755622 0.0181454 0.359028
0.075639 0.0175165 0.359502
0.0756799 0.0168805 0.359819
0.0756114 0.0162269 0.359653
0.0755118 0.0155697 0.359351
0.075395 0.0149114 0.358972
0.0752823 0.0142552 0.358611
0.0751891 0.0136027 0.358334
0.075129 0.0129555 0.358205
0.0750796 0.01231 0.358122
0.0750151 0.0116636 0.357973
0.0749741 0.0110201 0.357928
0.0749338 0.0103771 0.357885
0.0748702 0.00973271 0.357738
0.0748144 0.00908967 0.357627
0.0747648 0.00844762 0.357543
0.0746988 0.00780521 0.357386
0.0746647 0.00716532 0.357371
0.0747102 0.00652861 0.357708
0.0747644 0.00589185 0.358082
0.0748305 0.00525401 0.35851
0.0749328 0.00461628 0.359098
0.075197 0.00397816 0.360406
0.0756063 0.00333698 0.362356
0.0760118 0.00268921 0.364294
0.0763701 0.00203627 0.36602
0.0772491 0.00136784 0.370061
0.0779351 0.000691462 0.373248
0.0784925 8.837e-06 0.375865
0.0790111 -0.000680469 0.37831
0.0794667 -0.00137513 0.380479
0.0793331 -0.00204433 0.380027
0.079197 -0.00271141 0.379565
0.0790332 -0.0033747 0.378978
0.0788891 -0.00403728 0.37848
0.0787833 -0.00470113 0.378152
0.0786738 -0.00536343 0.377805
0.0786109 -0.00602883 0.377668
0.0785765 -0.00669671 0.377656
0.0785462 -0.00736439 0.377663
0.078517 -0.00803224 0.377675
0.0785136 -0.0087032 0.3778
0.0784913 -0.00937142 0.377844
0.0784594 -0.0100382 0.377844
0.0784268 -0.0107049 0.377839
0.0783723 -0.0113676 0.377738
0.0790855 -0.012158 0.381069
0.078677 0.0474091 0.363681
0.0785284 0.0466847 0.36318
0.078347 0.0459463 0.362536
0.0781751 0.0452151 0.361935
0.0780577 0.0445114 0.361566
0.077974 0.0438246 0.361342
0.0779431 0.0431627 0.361347
0.0779203 0.0425045 0.361384
0.0778629 0.0418315 0.361273
0.0778033 0.0411583 0.361154
0.0777431 0.0404853 0.36103
0.077638 0.0397945 0.360712
0.0775302 0.039104 0.360384
0.0774188 0.0384135 0.36004
0.0772998 0.0377213 0.359661
0.0771744 0.0370283 0.359256
0.0770847 0.0363504 0.359004
0.0769967 0.0356742 0.358759
0.0769285 0.0350064 0.3586
0.076844 0.0343334 0.358368
0.076783 0.0336698 0.35824
0.0767034 0.0330006 0.358031
0.0765989 0.0323239 0.357713
0.0764923 0.031648 0.357387
0.0764091 0.030981 0.357162
0.076295 0.0303051 0.356801
0.0762083 0.0296394 0.356561
0.076115 0.0289726 0.35629
0.0760364 0.0283113 0.356084
0.0759323 0.0276438 0.355766
0.0758794 0.0269917 0.355671
0.075822 0.026339 0.355556
0.0757843 0.0256921 0.355527
0.0757633 0.0250497 0.355568
0.0757664 0.0244134 0.355716
0.0757733 0.0237779 0.355881
0.0757739 0.0231406 0.356018
0.0757976 0.0225084 0.356256
0.0757934 0.0218696 0.356373
0.0757892 0.0212305 0.356488
0.0757764 0.0205897 0.356568
0.075782 0.0199524 0.356727
0.0758484 0.0193263 0.357151
0.0759306 0.0187019 0.357645
0.0760424 0.0180813 0.358268
0.0761288 0.0174545 0.358779
0.0761811 0.016821 0.359145
0.0761331 0.0161713 0.359069
0.0760613 0.0155188 0.358891
0.0759636 0.0148636 0.358599
0.0758683 0.0142099 0.358318
0.0757932 0.0135599 0.358124
0.0757525 0.0129149 0.358081
0.0757127 0.0122702 0.358042
0.0756482 0.0116236 0.357894
0.0755972 0.0109789 0.357805
0.0755458 0.0103348 0.357715
0.0754711 0.00968942 0.357522
0.0754129 0.00904618 0.357402
0.0753621 0.00840404 0.357314
0.0753043 0.00776206 0.357194
0.0752815 0.00712242 0.357229
0.0753551 0.00648702 0.357687
0.0754315 0.00585011 0.358157
0.0755188 0.0052127 0.358676
0.0758048 0.004577 0.360069
0.0762706 0.00393928 0.362256
0.0768914 0.00329521 0.365124
0.0775089 0.00264165 0.36798
0.0780837 0.00197933 0.37065
0.0787732 0.00130604 0.373829
0.0792356 0.000628358 0.376007
0.0795265 -5.07935e-05 0.377431
0.07983 -0.00073495 0.378912
0.0801018 -0.00142226 0.380252
0.0799881 -0.00209263 0.379895
0.0798622 -0.00276052 0.379481
0.0797175 -0.00342548 0.378984
0.0795831 -0.00408928 0.378532
0.0794884 -0.00475469 0.378256
0.079379 -0.00541767 0.377914
0.0793322 -0.0060852 0.377849
0.079307 -0.0067548 0.377879
0.0792856 -0.00742428 0.377926
0.0792659 -0.00809417 0.37798
0.0792799 -0.00876816 0.378185
0.079257 -0.00943774 0.378224
0.0792243 -0.0101056 0.378222
0.0791908 -0.0107729 0.378216
0.0798807 -0.0115552 0.381417
0.0798516 0.0482976 0.365693
0.079649 0.0475422 0.364968
0.079431 0.046782 0.364174
0.0792008 0.0460191 0.363329
0.0789779 0.0452627 0.362515
0.0788086 0.0445339 0.361927
0.0786899 0.0438305 0.361557
0.07862 0.0431503 0.361394
0.0785612 0.0424759 0.361279
0.0785127 0.0418067 0.361208
0.0784699 0.0411403 0.361161
0.078419 0.0404709 0.361078
0.0783319 0.0397873 0.360842
0.0782437 0.0391043 0.3606
0.0781349 0.0384143 0.36027
0.0780082 0.0377187 0.359862
0.077862 0.0370172 0.35937
0.0777413 0.0363274 0.358989
0.0776317 0.0356431 0.358654
0.0775536 0.0349715 0.358454
0.0774607 0.0342957 0.35819
0.0773993 0.033632 0.358062
0.0773177 0.032962 0.357845
0.0772021 0.0322819 0.357483
0.0770845 0.0316026 0.357113
0.0770014 0.0309357 0.356889
0.0768876 0.0302604 0.356533
0.0768014 0.0295949 0.356298
0.0767149 0.0289304 0.35606
0.0766374 0.0282696 0.35586
0.0765415 0.0276044 0.355581
0.0764972 0.0269547 0.355524
0.0764483 0.026304 0.355446
0.0764034 0.0256551 0.355387
0.0763897 0.0250146 0.355462
0.0763931 0.024378 0.35561
0.0763922 0.0237403 0.35574
0.0763847 0.023101 0.355842
0.0763996 0.0224666 0.356041
0.0763774 0.0218236 0.356078
0.0763629 0.0211826 0.35615
0.0763421 0.0205402 0.356194
0.0763406 0.0199018 0.356322
0.0763905 0.0192727 0.356673
0.0764624 0.0186467 0.357119
0.0765462 0.0180214 0.357615
0.0766211 0.0173934 0.358075
0.0766815 0.0167618 0.358473
0.0766702 0.0161184 0.358558
0.0766195 0.0154693 0.358473
0.0765564 0.0148192 0.358334
0.076488 0.014169 0.358172
0.0764219 0.0135201 0.35802
0.0763832 0.012875 0.357986
0.0763527 0.012231 0.357987
0.076288 0.011584 0.357841
0.0762366 0.0109391 0.357751
0.0761741 0.0102938 0.357615
0.0760961 0.00964798 0.357411
0.0760357 0.00900431 0.357281
0.0759852 0.008362 0.357196
0.0759365 0.00772033 0.357117
0.0759236 0.00708098 0.357195
0.0760094 0.00644544 0.357705
0.0761067 0.00580887 0.358264
0.0762162 0.00517108 0.358876
0.0767062 0.00453838 0.36115
0.0773995 0.00390069 0.364314
0.0782487 0.00325306 0.368161
0.0798146 0.00192116 0.375284
0.0802754 0.00124375 0.37744
0.0805039 0.000565486 0.378581
0.0805649 -0.000111027 0.37899
0.0806554 -0.000789515 0.379528
0.0807449 -0.00146975 0.380061
0.0806509 -0.00214094 0.379793
0.0805427 -0.00281041 0.37946
0.0804165 -0.00347715 0.379049
0.0802922 -0.00414248 0.378646
0.0802083 -0.00480951 0.378419
0.0801074 -0.00547385 0.378118
0.0800614 -0.00614242 0.378058
0.0800355 -0.00681261 0.378086
0.080016 -0.00748317 0.378142
0.0799968 -0.00815375 0.378198
0.0800106 -0.00882873 0.378401
0.0807471 -0.00960264 0.381783
0.0808212 0.049087 0.366801
0.0806988 0.0483682 0.366422
0.0805245 0.0476255 0.365822
0.0803235 0.0468724 0.365108
0.0800946 0.0461088 0.364276
0.0798591 0.0453451 0.363414
0.0796636 0.044603 0.362721
0.0794931 0.0438749 0.362135
0.0793801 0.0431744 0.361791
0.0792817 0.0424817 0.361509
0.0792037 0.0417991 0.361314
0.0791347 0.0411212 0.361157
0.0790893 0.0404539 0.3611
0.0790021 0.0397699 0.360864
0.0789231 0.0390904 0.360665
0.0788332 0.0384076 0.360419
0.0787149 0.0377148 0.360051
0.0785586 0.0370091 0.35952
0.0784162 0.0363109 0.35905
0.0782846 0.0356182 0.358623
0.0781865 0.0349393 0.35834
0.0780844 0.0342602 0.358039
0.0780151 0.0335938 0.357879
0.0779326 0.0329237 0.357662
0.0778161 0.0322433 0.357299
0.07769 0.0315614 0.356894
0.0776001 0.0308925 0.356645
0.0774947 0.0302201 0.35633
0.0774092 0.0295548 0.356097
0.0773301 0.0288926 0.355894
0.0772594 0.0282337 0.355726
0.0771724 0.027571 0.355487
0.0771298 0.0269216 0.355439
0.0770904 0.0262733 0.355403
0.0770527 0.0256259 0.355376
0.0770479 0.024987 0.355489
0.0770605 0.0243523 0.355676
0.0770758 0.0237179 0.355876
0.0770685 0.0230778 0.355978
0.077065 0.0224387 0.356097
0.0770241 0.0217912 0.356055
0.0769817 0.021144 0.356006
0.0769339 0.0204962 0.355936
0.0769238 0.0198561 0.356026
0.0769502 0.0192226 0.356274
0.0769949 0.0185918 0.356599
0.0770658 0.0179647 0.357039
0.077121 0.0173338 0.357409
0.0771832 0.016703 0.357812
0.0772077 0.0160656 0.358052
0.077186 0.0154211 0.358093
0.0771515 0.014775 0.358078
0.0771086 0.0141282 0.358028
0.077051 0.0134801 0.357915
0.077021 0.0128357 0.357919
0.0769993 0.0121925 0.35796
0.0769258 0.0115444 0.357777
0.0768651 0.0108982 0.357649
0.0767929 0.0102518 0.357471
0.0766977 0.00960463 0.357195
0.0766298 0.00896047 0.357036
0.0765884 0.00831869 0.35699
0.0765494 0.0076775 0.356955
0.0765528 0.00703882 0.357104
0.0766569 0.00640357 0.357689
0.0767817 0.00576738 0.358363
0.0769123 0.00512932 0.359063
0.0776219 0.00449944 0.362274
0.0785375 0.00386143 0.366377
0.0790863 0.00259263 0.371961
0.0796256 0.00320991 0.371235
0.0806443 0.00254288 0.375793
0.0815323 0.0018625 0.379788
0.0817746 0.00118086 0.380982
0.0817929 0.000501768 0.381203
0.0816407 -0.000172564 0.380684
0.0815092 -0.000845358 0.380254
0.0814083 -0.00151798 0.379957
0.0813229 -0.00219023 0.379729
0.0812154 -0.00286025 0.379402
0.0810984 -0.00352778 0.379036
0.0809926 -0.00419476 0.378716
0.080918 -0.00486322 0.378533
0.0808175 -0.00552833 0.378236
0.0807804 -0.00619828 0.378217
0.0807556 -0.00686958 0.378249
0.0815092 -0.00762884 0.381676
0.0815665 0.0497657 0.366945
0.0815106 0.0490786 0.366848
0.0814389 0.0483843 0.366685
0.0813132 0.0476648 0.366294
0.0811627 0.0469352 0.365799
