ply
format ascii 1.0
element vertex 1732
property float x
property float y
property float z
end_header
0.185825 -0.159345 0.918438
0.185015 -0.160821 0.919946
0.184164 -0.162265 0.921267
0.183247 -0.163653 0.922252
0.18226 -0.164977 0.922874
0.181278 -0.166308 0.923534
0.180291 -0.167638 0.924173
0.179279 -0.168944 0.924684
0.178225 -0.17021 0.924971
0.177134 -0.17144 0.925061
0.213768 -0.111311 0.867598
0.212734 -0.11247 0.867667
0.211683 -0.113618 0.86766
0.210529 -0.114704 0.867212
0.209489 -0.115858 0.867249
0.208351 -0.116951 0.866858
0.207218 -0.118046 0.86649
0.206041 -0.119111 0.865924
0.204899 -0.120196 0.865501
0.203716 -0.121252 0.864894
0.202622 -0.122363 0.864677
0.201617 -0.123533 0.864854
0.2007 -0.124762 0.86543
0.199866 -0.126049 0.866383
0.199011 -0.127326 0.86725
0.198189 -0.128629 0.868278
0.197305 -0.129892 0.86903
0.19636 -0.131114 0.869512
0.195351 -0.132291 0.869695
0.194313 -0.133447 0.869748
0.194734 -0.135697 0.876655
0.195463 -0.138212 0.8851
0.19636 -0.140892 0.89443
0.197127 -0.143512 0.903249
0.197698 -0.146014 0.911217
0.196797 -0.147371 0.912161
0.195697 -0.148569 0.912149
0.19458 -0.149753 0.912049
0.193501 -0.150967 0.912135
0.192441 -0.152199 0.912316
0.191365 -0.153416 0.912414
0.190345 -0.154682 0.912799
0.189366 -0.155985 0.91339
0.188453 -0.157351 0.914322
0.187661 -0.158828 0.91588
0.186897 -0.160339 0.917595
0.186089 -0.161817 0.919113
0.185227 -0.16325 0.920358
0.18431 -0.164637 0.921339
0.183339 -0.165976 0.922038
0.182355 -0.167305 0.922685
0.181373 -0.168639 0.923347
0.180383 -0.169967 0.923966
0.179384 -0.171289 0.924547
0.178312 -0.172539 0.924747
0.21482 -0.11229 0.866983
0.213789 -0.11345 0.86706
0.212718 -0.114586 0.866973
0.211564 -0.115673 0.866526
0.210503 -0.116813 0.866474
0.209363 -0.117905 0.86608
0.208212 -0.118987 0.865632
0.207035 -0.120052 0.865065
0.205873 -0.121123 0.864557
0.204688 -0.122177 0.863943
0.203554 -0.123262 0.863551
0.202529 -0.124416 0.863635
0.201594 -0.125632 0.864118
0.200739 -0.126904 0.864976
0.199867 -0.128167 0.865754
0.199046 -0.129469 0.866777
0.198143 -0.130717 0.867436
0.197197 -0.131937 0.867903
0.196168 -0.133096 0.867987
0.195052 -0.134192 0.867671
0.19578 -0.136672 0.875967
0.196599 -0.139256 0.884777
0.197568 -0.141995 0.894393
0.198404 -0.144671 0.903486
0.199094 -0.147271 0.911976
0.197931 -0.14842 0.911664
0.196849 -0.149633 0.911742
0.19575 -0.150832 0.911732
0.194671 -0.152048 0.911822
0.193592 -0.153263 0.911911
0.192514 -0.154479 0.912
0.191455 -0.155712 0.912188
0.190437 -0.156981 0.912581
0.1895 -0.158324 0.913387
0.188688 -0.159783 0.91483
0.187925 -0.161293 0.916539
0.187142 -0.162794 0.918171
0.186304 -0.164249 0.919532
0.185391 -0.165639 0.920525
0.184438 -0.166995 0.921313
0.183454 -0.168323 0.921953
0.182474 -0.169659 0.92262
0.181504 -0.171007 0.923346
0.180564 -0.172389 0.92424
0.179517 -0.173664 0.924567
0.215839 -0.11325 0.866228
0.214791 -0.1144 0.866237
0.21371 -0.11553 0.866105
0.212557 -0.116616 0.865662
0.211471 -0.11774 0.865503
0.210331 -0.118831 0.865114
0.209198 -0.119924 0.864745
0.208027 -0.120991 0.864205
0.206883 -0.122073 0.863779
0.205699 -0.123128 0.86317
0.204545 -0.124198 0.862687
0.2035 -0.125339 0.862683
0.202543 -0.126539 0.863067
0.201649 -0.127784 0.863737
0.200754 -0.12903 0.864407
0.19991 -0.130315 0.865323
0.198992 -0.13155 0.865899
0.19805 -0.13277 0.866378
0.197022 -0.133929 0.866462
0.195887 -0.135008 0.866054
0.196287 -0.13724 0.872769
0.199839 -0.148011 0.909633
0.199043 -0.149451 0.911063
0.197942 -0.150649 0.911047
0.196821 -0.15183 0.910934
0.195741 -0.153043 0.911013
0.194662 -0.154259 0.911102
0.193586 -0.155476 0.911201
0.192546 -0.156724 0.911482
0.191546 -0.158009 0.911959
0.190589 -0.159335 0.91266
0.189758 -0.160776 0.913997
0.188991 -0.162283 0.915683
0.188211 -0.163785 0.917312
0.187381 -0.165247 0.918703
0.186473 -0.166641 0.919715
0.185539 -0.168015 0.920599
0.184556 -0.169344 0.921236
0.183578 -0.170681 0.921906
0.182628 -0.17205 0.92274
0.181749 -0.173494 0.92395
0.180746 -0.174814 0.924512
0.216894 -0.114231 0.865629
0.215818 -0.115364 0.865517
0.214711 -0.116478 0.865276
0.213556 -0.117562 0.86483
0.212458 -0.118679 0.864619
0.211319 -0.11977 0.864233
0.210208 -0.120876 0.863959
0.209078 -0.121968 0.863599
0.207936 -0.123051 0.863184
0.206774 -0.124119 0.862676
0.205615 -0.125187 0.86218
0.204551 -0.126315 0.862087
0.203568 -0.127498 0.86236
0.202651 -0.128726 0.862922
0.201714 -0.129943 0.863401
0.20085 -0.131213 0.864212
0.199932 -0.132447 0.864787
0.198955 -0.133641 0.865101
0.197913 -0.134787 0.865118
0.196782 -0.135868 0.864727
0.19678 -0.137797 0.869541
0.200525 -0.148704 0.907029
0.200152 -0.15048 0.91045
0.199051 -0.151678 0.910429
0.197928 -0.152857 0.910309
0.196846 -0.154069 0.910382
0.195787 -0.155301 0.910563
0.194733 -0.156537 0.910769
0.193678 -0.157773 0.910979
0.192679 -0.159059 0.911459
0.191701 -0.160366 0.912054
0.190829 -0.161771 0.913179
0.190028 -0.163246 0.914677
0.189266 -0.164764 0.916387
0.188439 -0.166227 0.917783
0.187553 -0.167643 0.918901
0.186642 -0.169037 0.919893
0.185677 -0.170384 0.920623
0.184718 -0.17174 0.921387
0.18381 -0.17315 0.922428
0.182974 -0.174638 0.923867
0.182016 -0.176008 0.924671
0.217608 -0.116772 0.867974
0.215711 -0.117425 0.864448
0.214563 -0.118514 0.864034
0.213448 -0.11962 0.863753
0.21231 -0.12071 0.863367
0.211223 -0.12183 0.863202
0.210135 -0.122949 0.863024
0.209 -0.124036 0.86264
0.207856 -0.125115 0.862214
0.206698 -0.126184 0.861723
0.205608 -0.127295 0.861521
0.204586 -0.128451 0.861617
0.203626 -0.12965 0.861988
0.202648 -0.130837 0.862278
0.201743 -0.132077 0.862901
0.200803 -0.133294 0.86337
0.199808 -0.134474 0.863599
0.198785 -0.135632 0.863698
0.197676 -0.136727 0.863403
0.197277 -0.138356 0.866366
0.200792 -0.149063 0.902487
0.20089 -0.15121 0.908084
0.200159 -0.152706 0.909813
0.199057 -0.153902 0.909786
0.197992 -0.155129 0.909946
0.196956 -0.15638 0.910238
0.195926 -0.157638 0.910566
0.194894 -0.158895 0.91088
0.193894 -0.160182 0.911366
0.192898 -0.161473 0.911865
0.191987 -0.162844 0.912794
0.191142 -0.164279 0.914064
0.190359 -0.165777 0.915657
0.189513 -0.167224 0.916953
0.188633 -0.168643 0.918084
0.187742 -0.170057 0.919181
0.186817 -0.171442 0.920105
0.185879 -0.172819 0.920979
0.185032 -0.174291 0.922333
0.184259 -0.175844 0.924089
0.183362 -0.177278 0.925212
0.217959 -0.119113 0.868811
0.216082 -0.119772 0.86538
0.214464 -0.120575 0.862996
0.213349 -0.12168 0.862712
0.212284 -0.122813 0.862636
0.211217 -0.123945 0.862551
0.210085 -0.125034 0.862186
0.208944 -0.126116 0.861776
0.207784 -0.127183 0.861277
0.206669 -0.128277 0.860973
0.205606 -0.129406 0.860889
0.204625 -0.13059 0.861164
0.203627 -0.131763 0.861364
0.202682 -0.132974 0.861804
0.201717 -0.134172 0.86216
0.200699 -0.135333 0.862278
0.199656 -0.136476 0.86228
0.198544 -0.137567 0.861976
0.197756 -0.1389 0.863137
0.197729 -0.140648 0.873283
0.197803 -0.140879 0.868146
0.201 -0.149373 0.897716
0.201577 -0.151898 0.905498
0.201251 -0.15372 0.909117
0.20019 -0.154951 0.909288
0.199152 -0.1562 0.909571
0.19814 -0.157473 0.909981
0.197132 -0.15875 0.910412
0.196121 -0.160026 0.910833
0.195102 -0.161298 0.911224
0.194081 -0.162568 0.911603
0.193146 -0.163918 0.912413
0.192258 -0.165314 0.913462
0.191435 -0.166775 0.914843
0.190585 -0.168217 0.916109
0.189708 -0.169639 0.917252
0.188823 -0.171058 0.918364
0.18794 -0.172484 0.919501
0.187063 -0.173921 0.920678
0.186281 -0.175458 0.922362
0.185537 -0.177043 0.924265
0.184681 -0.17852 0.925601
0.218129 -0.12135 0.868896
0.215947 -0.121816 0.864192
0.21437 -0.122638 0.861981
0.213366 -0.123809 0.86216
0.212339 -0.124967 0.862249
0.211245 -0.126081 0.86205
0.210088 -0.127153 0.861572
0.208944 -0.128231 0.86115
0.207807 -0.129312 0.860755
0.206719 -0.130424 0.860568
0.205699 -0.131582 0.860669
0.204658 -0.132725 0.860686
0.203653 -0.133893 0.860854
0.202647 -0.135061 0.861022
0.201584 -0.136188 0.860935
0.200518 -0.137313 0.860838
0.199428 -0.138417 0.860623
0.198277 -0.139476 0.860133
0.197921 -0.14114 0.863259
0.201426 -0.15191 0.899041
0.201567 -0.154101 0.904789
0.200934 -0.155677 0.906956
0.200295 -0.157257 0.909114
0.199329 -0.15857 0.909745
0.198343 -0.159867 0.910281
0.197348 -0.161158 0.91078
0.196325 -0.162427 0.911153
0.195284 -0.163681 0.911435
0.194306 -0.164993 0.91203
0.193374 -0.166349 0.912855
0.192506 -0.167769 0.914011
0.191637 -0.169192 0.915168
0.190763 -0.170616 0.916319
0.189901 -0.172056 0.917539
0.189062 -0.173525 0.918892
0.188249 -0.175025 0.920388
0.187516 -0.176612 0.922317
0.186799 -0.178225 0.924347
0.186002 -0.179765 0.925988
0.233804 -0.123256 0.915553
0.238403 -0.124415 0.924481
0.236155 -0.124999 0.919922
0.232767 -0.124905 0.910677
0.220311 -0.123013 0.872925
0.21753 -0.12312 0.865781
0.21547 -0.123645 0.861579
0.214468 -0.124819 0.861772
0.213461 -0.125989 0.861938
0.212367 -0.127103 0.861741
0.211189 -0.128162 0.861187
0.210045 -0.12924 0.860767
0.208905 -0.13032 0.860361
0.207775 -0.131403 0.859991
0.20671 -0.13253 0.859904
0.205647 -0.133657 0.859817
0.204598 -0.134794 0.859797
0.20355 -0.135931 0.859775
0.202465 -0.13704 0.859589
0.201379 -0.138148 0.859397
0.200289 -0.139251 0.859182
0.199181 -0.14034 0.858884
0.198462 -0.141725 0.860342
0.199851 -0.156984 0.901194
0.199319 -0.158647 0.90383
0.198786 -0.160322 0.906488
0.198206 -0.161968 0.908954
0.197563 -0.16357 0.911142
0.196501 -0.164806 0.911328
0.195502 -0.1661 0.911819
0.194529 -0.16742 0.912444
0.193636 -0.168817 0.913469
0.192746 -0.170221 0.91452
0.191873 -0.171645 0.915664
0.191019 -0.173093 0.916919
0.190241 -0.174621 0.91857
0.189474 -0.176167 0.920291
0.188786 -0.177801 0.922439
0.188096 -0.179442 0.924601
0.187339 -0.181025 0.926438
0.240994 -0.124425 0.925195
0.239473 -0.12543 0.923607
0.237402 -0.126114 0.919784
0.219173 -0.124462 0.867599
0.216552 -0.124641 0.861102
0.215554 -0.125817 0.86131
0.214543 -0.126986 0.861465
0.213468 -0.128113 0.861349
0.212271 -0.129158 0.860714
0.211129 -0.130239 0.860308
0.209985 -0.131315 0.859889
0.208811 -0.132369 0.859336
0.207682 -0.133451 0.858967
0.206592 -0.134558 0.858764
0.205501 -0.135664 0.858557
0.204411 -0.13677 0.858351
0.203345 -0.137891 0.858243
0.202279 -0.139011 0.858137
0.201214 -0.140132 0.858034
0.20015 -0.141252 0.857931
0.199087 -0.142373 0.857834
0.198646 -0.143818 0.86593
0.198846 -0.144132 0.86145
0.199115 -0.15856 0.897072
0.199101 -0.160668 0.902135
0.199028 -0.162747 0.90697
0.198822 -0.164731 0.911227
0.197742 -0.165953 0.911328
0.196723 -0.167231 0.911727
0.195728 -0.168531 0.912241
0.194792 -0.169889 0.913054
0.193883 -0.171275 0.914004
0.193011 -0.172702 0.915151
0.192162 -0.174154 0.916418
0.191426 -0.175723 0.918272
0.190683 -0.177294 0.920106
0.190018 -0.178951 0.922358
0.189331 -0.180597 0.924525
0.188613 -0.182221 0.926553
0.243984 -0.122366 0.92812
0.245282 -0.121222 0.928785
0.246516 -0.12233 0.928529
0.245192 -0.12346 0.927771
0.242503 -0.123406 0.926723
0.243667 -0.124475 0.926207
0.242126 -0.125476 0.924564
0.24054 -0.126444 0.922725
0.239014 -0.127438 0.921109
0.23484 -0.126496 0.913938
0.236983 -0.128132 0.917442
0.218103 -0.12593 0.86256
0.216638 -0.126815 0.860839
0.215625 -0.127982 0.860986
0.214569 -0.129122 0.86095
0.213371 -0.130167 0.860318
0.212231 -0.131249 0.859925
0.211086 -0.132325 0.859504
0.209887 -0.133361 0.858846
0.20871 -0.134411 0.858279
0.207574 -0.135485 0.857878
0.20646 -0.136574 0.857571
0.205353 -0.137666 0.857289
0.204289 -0.138788 0.857191
0.203226 -0.13991 0.857098
0.202183 -0.141046 0.85709
0.201141 -0.142183 0.857086
0.200101 -0.14332 0.857088
0.199467 -0.144773 0.858914
0.198671 -0.145959 0.86541
0.198858 -0.146254 0.860875
0.199323 -0.163066 0.902514
0.199628 -0.165492 0.909151
0.198971 -0.167089 0.911265
0.197935 -0.168352 0.91158
0.196916 -0.169633 0.911986
0.195959 -0.170971 0.91269
0.195045 -0.172354 0.913612
0.194178 -0.173785 0.914777
0.193349 -0.175258 0.91614
0.192639 -0.176853 0.918111
0.191932 -0.17846 0.920118
0.191253 -0.180105 0.922288
0.190545 -0.18173 0.924335
0.189827 -0.183355 0.926354
0.249048 -0.122291 0.928919
0.247608 -0.123362 0.927722
0.246263 -0.12448 0.926882
0.244748 -0.125499 0.925365
0.24318 -0.126483 0.923623
0.241541 -0.12742 0.921584
0.239974 -0.128389 0.919808
0.238389 -0.12934 0.917948
0.233797 -0.128128 0.909065
0.235824 -0.129703 0.91212
0.220221 -0.127574 0.866319
0.21821 -0.128122 0.862381
0.21679 -0.129032 0.860848
0.215732 -0.130171 0.860811
0.214534 -0.131218 0.860185
0.213375 -0.132287 0.859712
0.212207 -0.133348 0.859204
0.210964 -0.134355 0.858363
0.209741 -0.135373 0.857604
0.208561 -0.136416 0.857017
0.207427 -0.13749 0.856622
0.206302 -0.138568 0.856262
0.205259 -0.139704 0.856257
0.204219 -0.140842 0.85626
0.203197 -0.141993 0.856344
0.202175 -0.143145 0.856429
0.201153 -0.144296 0.856513
0.200132 -0.145447 0.856598
0.19911 -0.146599 0.856682
0.19861 -0.148031 0.864499
0.198395 -0.147995 0.858154
0.198383 -0.149841 0.868251
0.197699 -0.149414 0.859727
0.200256 -0.166096 0.906254
0.200058 -0.168098 0.910522
0.199022 -0.169361 0.910835
0.198024 -0.17066 0.911333
0.197105 -0.172034 0.912219
0.19623 -0.173453 0.913325
0.195367 -0.174889 0.914503
0.19456 -0.176384 0.91597
0.193872 -0.178002 0.918041
0.193167 -0.179612 0.92005
0.19247 -0.18124 0.922119
0.19176 -0.182864 0.924146
0.191039 -0.184487 0.926145
0.250202 -0.123356 0.928345
0.248773 -0.124433 0.927195
0.247401 -0.125535 0.926257
0.245828 -0.126522 0.92452
0.244203 -0.127473 0.922566
0.242557 -0.128403 0.920506
0.240964 -0.129356 0.918639
0.239359 -0.130294 0.916706
0.237349 -0.130983 0.913129
0.220285 -0.12975 0.865958
0.218369 -0.130349 0.862416
0.216905 -0.131228 0.860704
0.215707 -0.132275 0.860084
0.214524 -0.133329 0.859522
0.213335 -0.134376 0.858925
0.212044 -0.135351 0.857892
0.210777 -0.136337 0.856949
0.209572 -0.137363 0.85626
0.208438 -0.138436 0.855866
0.207314 -0.139515 0.855516
0.206293 -0.140666 0.8556
0.205271 -0.141818 0.855685
0.204249 -0.142969 0.855769
0.203227 -0.14412 0.855854
0.202206 -0.145272 0.855938
0.201165 -0.146409 0.855941
0.200124 -0.147544 0.855936
0.199022 -0.148631 0.855661
0.197897 -0.149697 0.855275
0.197007 -0.150841 0.86133
0.196767 -0.150758 0.854864
0.196323 -0.152283 0.862992
0.195661 -0.151836 0.854557
0.200357 -0.166234 0.900914
0.200277 -0.168331 0.905683
0.199646 -0.169951 0.907895
0.198708 -0.171299 0.908664
0.19789 -0.172762 0.910018
0.19713 -0.174286 0.911665
0.196691 -0.176122 0.914887
0.195893 -0.177628 0.916394
0.195226 -0.179269 0.918559
0.194507 -0.180867 0.920487
0.193785 -0.182473 0.922432
0.193038 -0.184062 0.924267
0.192276 -0.185644 0.926046
0.24991 -0.125488 0.926561
0.248476 -0.126556 0.92539
0.246852 -0.127514 0.923464
0.245197 -0.128445 0.921396
0.243544 -0.12937 0.919319
0.241902 -0.130292 0.917266
0.240299 -0.131229 0.915347
0.238782 -0.132209 0.913754
0.234258 -0.131007 0.905172
0.236283 -0.132589 0.908213
0.222438 -0.131431 0.869814
0.220017 -0.131712 0.864238
0.218109 -0.132305 0.860724
0.216907 -0.13335 0.860095
0.215678 -0.134375 0.859345
0.214463 -0.135405 0.858644
0.213144 -0.136361 0.857504
0.211852 -0.13733 0.856462
0.210625 -0.13834 0.855685
0.20949 -0.139412 0.855291
0.208366 -0.140491 0.854941
0.207345 -0.141642 0.855025
0.206323 -0.142794 0.85511
0.205301 -0.143945 0.855195
0.204279 -0.145096 0.855279
0.203239 -0.146233 0.855281
0.202177 -0.147353 0.855189
0.201113 -0.14847 0.855084
0.19999 -0.14954 0.854714
0.198865 -0.150605 0.854328
0.197756 -0.151682 0.854012
0.196672 -0.152778 0.853806
0.195473 -0.153684 0.858454
0.196035 -0.154248 0.855635
0.197391 -0.172298 0.901714
0.197144 -0.174286 0.90577
0.197237 -0.176615 0.911505
0.196918 -0.178576 0.91531
0.196636 -0.180589 0.919333
0.195875 -0.18215 0.921055
0.19511 -0.183716 0.922778
0.194302 -0.185245 0.924306
0.19348 -0.186768 0.92578
0.192895 -0.188666 0.934825
0.194147 -0.189839 0.934745
0.252379 -0.125417 0.926692
0.250971 -0.126503 0.925635
0.249444 -0.127518 0.924107
0.247798 -0.128461 0.922107
0.246114 -0.129374 0.919937
0.244433 -0.13028 0.917759
0.242787 -0.131197 0.915695
0.241183 -0.132131 0.913778
0.239662 -0.133106 0.912174
0.237735 -0.133828 0.908932
0.233299 -0.13265 0.900667
0.235383 -0.134277 0.903966
0.222031 -0.133312 0.867528
0.219656 -0.133607 0.862139
0.218085 -0.134411 0.860005
0.216852 -0.135434 0.859247
0.21561 -0.136447 0.858442
0.214265 -0.137385 0.857201
0.212948 -0.138336 0.856059
0.211698 -0.139331 0.855193
0.210543 -0.140389 0.854716
0.209419 -0.141467 0.854366
0.208397 -0.142618 0.854451
0.207375 -0.143769 0.854535
0.206334 -0.144907 0.854538
0.205292 -0.146042 0.854533
0.20423 -0.147162 0.854438
0.203145 -0.148263 0.854245
0.202059 -0.149362 0.854041
0.200951 -0.150442 0.85374
0.199846 -0.151523 0.853445
0.198763 -0.15262 0.853244
0.197702 -0.153735 0.853142
0.196645 -0.154851 0.853055
0.196456 -0.156628 0.862335
0.196575 -0.156809 0.857467
0.197321 -0.176669 0.905945
0.197535 -0.17913 0.912263
0.197726 -0.181599 0.91854
0.197356 -0.183545 0.922156
0.196504 -0.185028 0.923455
0.195629 -0.186492 0.924647
0.194746 -0.187955 0.925818
0.254894 -0.125368 0.926982
0.25347 -0.126449 0.92588
0.252046 -0.127524 0.924764
0.250409 -0.128478 0.922826
0.248764 -0.129419 0.920833
0.247052 -0.130314 0.918566
0.245343 -0.131202 0.916288
0.243668 -0.1321 0.914121
0.242034 -0.133013 0.912093
0.240513 -0.133985 0.910489
0.23908 -0.135003 0.909216
0.237261 -0.135779 0.906399
0.221689 -0.135229 0.865514
0.219642 -0.135725 0.861462
0.218 -0.136476 0.859035
0.216736 -0.137474 0.858146
0.215388 -0.13841 0.856901
0.214047 -0.139346 0.85567
0.212794 -0.140338 0.854798
0.211616 -0.14138 0.85423
0.21049 -0.142457 0.853873
0.209449 -0.143594 0.853876
0.208427 -0.144745 0.85396
0.207366 -0.145867 0.853874
0.206301 -0.146985 0.853772
0.205214 -0.148085 0.853572
0.204106 -0.149168 0.853278
0.202998 -0.150248 0.852977
0.201913 -0.151345 0.852773
0.20083 -0.152444 0.852579
0.199771 -0.153559 0.852484
0.198731 -0.154691 0.85248
0.197694 -0.155825 0.852482
0.197174 -0.157399 0.854828
0.196961 -0.159179 0.864012
0.197059 -0.159332 0.859041
0.198266 -0.182073 0.915107
0.198345 -0.184455 0.920859
0.197884 -0.186324 0.924041
0.196957 -0.18774 0.924985
0.197619 -0.190784 0.93376
0.256104 -0.126463 0.926613
0.254656 -0.127531 0.925428
0.253209 -0.128594 0.924234
0.251499 -0.129507 0.922026
0.249776 -0.130403 0.919747
0.248036 -0.13128 0.917379
0.2463 -0.132149 0.915005
0.244621 -0.133043 0.912832
0.242984 -0.133952 0.9108
0.241464 -0.134922 0.909207
0.240057 -0.135955 0.908041
0.238685 -0.137004 0.907007
0.234646 -0.136047 0.900372
0.236585 -0.137594 0.903066
0.223721 -0.136853 0.868837
0.221188 -0.137032 0.862849
0.219126 -0.137503 0.85873
0.217883 -0.138517 0.857937
0.216558 -0.139469 0.856792
0.215193 -0.140388 0.855472
0.213916 -0.141364 0.854507
0.212713 -0.142388 0.853836
0.211563 -0.143448 0.853387
0.210501 -0.14457 0.853301
0.209479 -0.145721 0.853386
0.208396 -0.146826 0.853209
0.207308 -0.147926 0.853004
0.206194 -0.149005 0.852689
0.205065 -0.15007 0.852303
0.203941 -0.151138 0.851935
0.202879 -0.152252 0.85183
0.201819 -0.153368 0.851738
0.200782 -0.154501 0.85174
0.199763 -0.15565 0.851824
0.198743 -0.156798 0.851909
0.197821 -0.158028 0.852426
0.197269 -0.159581 0.85463
0.197032 -0.161361 0.863701
0.196805 -0.16122 0.857253
0.257205 -0.127501 0.925833
0.255748 -0.128563 0.924621
0.25429 -0.129619 0.923391
0.252524 -0.130499 0.92098
0.250771 -0.131376 0.918598
0.249027 -0.132249 0.916226
0.247265 -0.133102 0.913765
0.245583 -0.133991 0.911586
0.243944 -0.134897 0.909556
0.242424 -0.135865 0.907969
0.241043 -0.136912 0.906909
0.239697 -0.137975 0.905977
0.238049 -0.138846 0.903845
0.234057 -0.137897 0.897377
0.23605 -0.139485 0.900294
0.223153 -0.13862 0.865913
0.220619 -0.138779 0.859918
0.21897 -0.139518 0.857476
0.217667 -0.140485 0.85643
0.216301 -0.141404 0.855116
0.215022 -0.142379 0.854147
0.213792 -0.143383 0.853371
0.212637 -0.14444 0.852904
0.211553 -0.145546 0.852726
0.210531 -0.146697 0.852811
0.209427 -0.147786 0.852545
0.208315 -0.148868 0.852243
0.207179 -0.149929 0.851832
0.206049 -0.150992 0.85144
0.204927 -0.152061 0.851085
0.203888 -0.153193 0.85108
0.20285 -0.154326 0.851083
0.201831 -0.155474 0.851167
0.200812 -0.156623 0.851251
0.199793 -0.157771 0.851335
0.19887 -0.159002 0.851852
0.197957 -0.160242 0.852412
0.197106 -0.16154 0.853264
0.196347 -0.162877 0.859934
0.196254 -0.16284 0.854115
0.195545 -0.164238 0.861057
0.195414 -0.164154 0.855034
0.195051 -0.165882 0.863619
0.194533 -0.165436 0.855771
0.194273 -0.167278 0.864884
0.193728 -0.166789 0.856863
0.258161 -0.12846 0.924515
0.256714 -0.129526 0.923343
0.255237 -0.13057 0.922044
0.25347 -0.131447 0.919643
0.251717 -0.132322 0.91727
0.250023 -0.13322 0.915097
0.248261 -0.134071 0.912645
0.246629 -0.134988 0.910671
0.24499 -0.135892 0.908651
0.243469 -0.136859 0.907065
0.242086 -0.137903 0.906003
0.240739 -0.138965 0.905072
0.239494 -0.140087 0.904534
0.237978 -0.141035 0.902918
0.222638 -0.140411 0.863208
0.220508 -0.140828 0.858846
0.218813 -0.141527 0.856215
0.21745 -0.142449 0.854924
0.216167 -0.14342 0.853943
0.21493 -0.144422 0.85315
0.213752 -0.145462 0.852589
0.212627 -0.146538 0.852243
0.211605 -0.147689 0.852325
0.210479 -0.148762 0.851972
0.209327 -0.149812 0.851498
0.208188 -0.150871 0.851079
0.207057 -0.151934 0.850688
0.205937 -0.153003 0.850341
0.204918 -0.154151 0.850425
0.203899 -0.155299 0.850509
0.20288 -0.156448 0.850594
0.201861 -0.157596 0.850678
0.200824 -0.158729 0.85068
0.199882 -0.159943 0.851108
0.198949 -0.161166 0.851577
0.19808 -0.162447 0.85234
0.19719 -0.163713 0.853018
0.196348 -0.165024 0.853916
0.195463 -0.166301 0.854626
0.194659 -0.167655 0.855719
0.193351 -0.168546 0.859961
0.193825 -0.168984 0.856679
0.193556 -0.170863 0.86581
0.193546 -0.170841 0.860232
0.25914 -0.129432 0.923292
0.257697 -0.130498 0.922136
0.256218 -0.131539 0.920835
0.254481 -0.13243 0.918556
0.252756 -0.133319 0.916299
0.25112 -0.134249 0.914355
0.249386 -0.135115 0.912025
0.247781 -0.136046 0.910162
0.246139 -0.136949 0.908142
0.244615 -0.137913 0.906554
0.243204 -0.13894 0.905392
0.241856 -0.140001 0.904462
0.240634 -0.141137 0.904016
0.239542 -0.142354 0.904073
0.235557 -0.141392 0.897695
0.237615 -0.143032 0.900837
0.222451 -0.142418 0.861834
0.220322 -0.142822 0.85747
0.218594 -0.14349 0.854705
0.217333 -0.144478 0.853827
0.216115 -0.145494 0.853116
0.214914 -0.146517 0.852463
0.213745 -0.147562 0.851942
0.2127 -0.148697 0.85193
0.211552 -0.149753 0.851486
0.210378 -0.150787 0.850924
0.209238 -0.151845 0.850505
0.208107 -0.152907 0.850115
0.206987 -0.153976 0.849767
0.205949 -0.155109 0.84977
0.204909 -0.156241 0.849766
0.20387 -0.157372 0.84976
0.202831 -0.158503 0.849757
0.201774 -0.159619 0.849672
0.200831 -0.16083 0.850089
0.199896 -0.162051 0.850545
0.199025 -0.16333 0.851296
0.198115 -0.164577 0.851875
0.197252 -0.165867 0.852668
0.196347 -0.167124 0.853283
0.195523 -0.168458 0.854271
0.194655 -0.169754 0.855067
0.193897 -0.171158 0.856382
0.19377 -0.173192 0.866171
0.193595 -0.173001 0.859822
0.260172 -0.130432 0.922267
0.258713 -0.131487 0.921058
0.257226 -0.132523 0.919733
0.255513 -0.133425 0.917552
0.253767 -0.1343 0.915227
0.25219 -0.135263 0.913516
0.250489 -0.136146 0.911319
0.248914 -0.137094 0.909581
0.247267 -0.137993 0.907553
0.245761 -0.138968 0.906046
0.244322 -0.139977 0.904781
0.242973 -0.141037 0.903851
0.24175 -0.142173 0.903406
0.240634 -0.143374 0.903371
0.239159 -0.144343 0.901926
0.235156 -0.143349 0.89546
0.237186 -0.14498 0.898502
0.222286 -0.144434 0.860544
0.22013 -0.144808 0.856075
0.218486 -0.145527 0.853649
0.217287 -0.146556 0.853022
0.216063 -0.147565 0.852284
0.214871 -0.148593 0.851671
0.213799 -0.149708 0.851547
0.212645 -0.15076 0.851084
0.21145 -0.151778 0.850438
0.21031 -0.152836 0.850022
0.209177 -0.153897 0.849629
0.208055 -0.154965 0.849276
0.206977 -0.156066 0.849109
0.205916 -0.157179 0.849008
0.204853 -0.15829 0.8489
0.203792 -0.159402 0.848799
0.202695 -0.160484 0.848543
0.201751 -0.161693 0.848949
0.200794 -0.162894 0.849305
0.199904 -0.164154 0.84996
0.198976 -0.165383 0.850449
0.198113 -0.166672 0.851236
0.197172 -0.167894 0.851679
0.19633 -0.169208 0.852576
0.195441 -0.170483 0.853266
0.194664 -0.171866 0.854477
0.193901 -0.173267 0.855765
0.193266 -0.174834 0.863176
0.1931 -0.174638 0.85689
0.19294 -0.176686 0.866579
0.192313 -0.176028 0.858093
0.261182 -0.131419 0.921165
0.259704 -0.132462 0.91989
0.258232 -0.133504 0.918626
0.256587 -0.134443 0.916706
0.254865 -0.135331 0.914483
0.253343 -0.136324 0.912987
0.251695 -0.137238 0.911004
0.250122 -0.138187 0.909284
0.24847 -0.139082 0.907249
0.246934 -0.140038 0.905635
0.245465 -0.141029 0.904263
0.24409 -0.142073 0.903241
0.242867 -0.143208 0.902796
0.241725 -0.144393 0.902662
0.240647 -0.145618 0.902775
0.239127 -0.146554 0.901154
0.234756 -0.145299 0.893232
0.237186 -0.147203 0.897858
0.224278 -0.146068 0.86369
0.22168 -0.146136 0.85748
0.21964 -0.146576 0.853469
0.218466 -0.147625 0.852951
0.217238 -0.148631 0.852204
0.216017 -0.149638 0.851476
0.214897 -0.150718 0.851161
0.21374 -0.151768 0.850686
0.212524 -0.152771 0.849961
0.211385 -0.15383 0.84955
0.210251 -0.154889 0.849153
0.209106 -0.155939 0.848709
0.207985 -0.157005 0.848358
0.206899 -0.158098 0.848153
0.205809 -0.159187 0.847931
0.204708 -0.160264 0.847653
0.203589 -0.161325 0.847298
0.202606 -0.162501 0.847533
0.201613 -0.163667 0.84772
0.200685 -0.164893 0.848202
0.199757 -0.166119 0.848684
0.198879 -0.167391 0.849392
0.197941 -0.168613 0.849839
0.197097 -0.169923 0.850718
0.196207 -0.171194 0.851392
0.195408 -0.172553 0.85249
0.194647 -0.173953 0.853771
0.193869 -0.175342 0.854985
0.193109 -0.176755 0.856301
0.191543 -0.177439 0.859385
0.192365 -0.178188 0.857697
0.190736 -0.17882 0.860517
0.191563 -0.179572 0.858845
0.189834 -0.180111 0.861213
0.19066 -0.180858 0.859523
0.26228 -0.132453 0.92039
0.260799 -0.133494 0.919111
0.259323 -0.134533 0.917837
0.257729 -0.1355 0.916118
0.256029 -0.136399 0.913988
0.25453 -0.137405 0.912586
0.252909 -0.138334 0.910714
0.251333 -0.139282 0.908996
0.249676 -0.140173 0.906953
0.248107 -0.14111 0.905226
0.246609 -0.142083 0.903752
0.245207 -0.143109 0.902631
0.243983 -0.144244 0.902186
0.242815 -0.145412 0.901951
0.241706 -0.146617 0.901943
0.240575 -0.147807 0.901848
0.239089 -0.14876 0.900361
0.234555 -0.147374 0.891798
0.236974 -0.149283 0.89638
0.223309 -0.147522 0.859181
0.220854 -0.147669 0.853532
0.219703 -0.148735 0.853111
0.218471 -0.14974 0.852356
0.217203 -0.150714 0.851444
0.216035 -0.151759 0.850936
0.214855 -0.152792 0.850372
0.21362 -0.15378 0.849572
0.212464 -0.154826 0.849093
0.211325 -0.155883 0.848682
0.210176 -0.156929 0.848221
0.209011 -0.15796 0.847688
0.207901 -0.159033 0.847384
0.206769 -0.160086 0.846981
0.205624 -0.161126 0.846516
0.204446 -0.162136 0.845904
0.203403 -0.163258 0.845872
0.202347 -0.164368 0.845782
0.2014 -0.165572 0.846164
0.200454 -0.16678 0.846561
0.199582 -0.168055 0.847284
0.198666 -0.169292 0.847817
0.197842 -0.170617 0.848771
0.196951 -0.171883 0.849431
0.196136 -0.173224 0.850441
0.195376 -0.174621 0.851711
0.194599 -0.176008 0.852918
0.193847 -0.177425 0.854252
0.193125 -0.178877 0.855741
0.192364 -0.180297 0.857057
0.191499 -0.181619 0.857906
0.18978 -0.182171 0.860316
0.190678 -0.182989 0.858968
0.261997 -0.134583 0.918709
0.26053 -0.135627 0.917477
0.25901 -0.136635 0.916036
0.257309 -0.137533 0.913917
0.255779 -0.138522 0.912412
0.25418 -0.139464 0.910633
0.252573 -0.140393 0.908809
0.250889 -0.141269 0.906679
0.249285 -0.142184 0.904831
0.247779 -0.143152 0.903336
0.246324 -0.144145 0.902021
0.245099 -0.145279 0.901576
0.243905 -0.14643 0.901242
0.242744 -0.147601 0.901031
0.241533 -0.148737 0.900625
0.240416 -0.149935 0.900581
0.238759 -0.150767 0.898421
0.225197 -0.149092 0.861889
0.222306 -0.148932 0.854539
0.220773 -0.149724 0.852587
0.21956 -0.150743 0.851915
0.218306 -0.151728 0.851067
0.217113 -0.152754 0.850461
0.215932 -0.153787 0.849895
0.214697 -0.154775 0.849102
0.213539 -0.15582 0.848622
0.212399 -0.156875 0.848206
0.211226 -0.157903 0.847651
0.210018 -0.158899 0.846941
0.208885 -0.159953 0.846538
0.207714 -0.160973 0.845971
0.206508 -0.161961 0.845248
0.205304 -0.162947 0.844522
0.204214 -0.164027 0.844281
0.203096 -0.165081 0.843919
0.202103 -0.166242 0.844096
0.201156 -0.167445 0.844476
0.200251 -0.168687 0.845041
0.19934 -0.169925 0.845588
0.19854 -0.171268 0.846634
0.197672 -0.172552 0.847384
0.196862 -0.173894 0.848404
0.196122 -0.175306 0.84975
0.195365 -0.176709 0.851036
0.194629 -0.178138 0.852428
0.193913 -0.179593 0.853926
0.193155 -0.181013 0.855243
0.192347 -0.182389 0.856345
0.191589 -0.183821 0.857693
0.263203 -0.135676 0.918333
0.261744 -0.136724 0.917138
0.260294 -0.137772 0.915963
0.25859 -0.138669 0.913844
0.257056 -0.139656 0.912335
0.255453 -0.140596 0.910556
0.253816 -0.141508 0.908633
0.252101 -0.142364 0.906397
0.250463 -0.143259 0.904434
0.248926 -0.144207 0.902832
0.247441 -0.145181 0.90141
0.246216 -0.146315 0.900966
0.244997 -0.14745 0.900541
0.243808 -0.148602 0.900224
0.242567 -0.149719 0.899707
0.241422 -0.150896 0.89955
0.24016 -0.151994 0.898941
0.235803 -0.150704 0.89113
0.23768 -0.152256 0.893553
0.223855 -0.150266 0.855914
0.221863 -0.150729 0.852148
0.220664 -0.151757 0.851533
0.219405 -0.152739 0.850672
0.218191 -0.15375 0.849985
0.217005 -0.154779 0.849406
0.21577 -0.155767 0.848617
0.214612 -0.156812 0.848138
0.21347 -0.157866 0.84772
0.212275 -0.158876 0.847075
0.211045 -0.159854 0.846277
0.209893 -0.160892 0.845796
0.208679 -0.161876 0.845049
0.207429 -0.162826 0.84414
0.206178 -0.163771 0.843217
0.205005 -0.164778 0.84262
0.203821 -0.165773 0.841969
0.202802 -0.166908 0.842025
0.201835 -0.16809 0.84231
0.200931 -0.169329 0.842868
0.200025 -0.170568 0.843428
0.199248 -0.171928 0.84456
0.198387 -0.173215 0.845331
0.197584 -0.17456 0.846369
0.19683 -0.175956 0.847637
0.19609 -0.177371 0.848981
0.195356 -0.178798 0.850364
0.194641 -0.18025 0.85185
0.193886 -0.181669 0.853167
0.193141 -0.183105 0.854546
0.192448 -0.1846 0.85618
0.19073 -0.185156 0.858577
0.191711 -0.186057 0.857622
0.264381 -0.136754 0.917852
0.262968 -0.137828 0.916831
0.261578 -0.138909 0.915882
0.259897 -0.13982 0.913862
0.258362 -0.140807 0.912358
0.256775 -0.141756 0.91065
0.255085 -0.142638 0.908546
0.253363 -0.143491 0.906302
0.251693 -0.144365 0.904228
0.250123 -0.145293 0.902512
0.248584 -0.146234 0.9009
0.247357 -0.147366 0.900448
0.246137 -0.1485 0.900023
0.244925 -0.149637 0.899621
0.243682 -0.150752 0.899098
0.242507 -0.15191 0.898832
0.241212 -0.152985 0.898095
0.239143 -0.153526 0.894336
0.22546 -0.151641 0.857493
0.222952 -0.151732 0.851699
0.221781 -0.152782 0.851202
0.220523 -0.153764 0.850352
0.219285 -0.154757 0.849572
0.218079 -0.155771 0.848915
0.216841 -0.156758 0.848122
0.215663 -0.157786 0.847563
0.214521 -0.158841 0.847146
0.213324 -0.159849 0.846498
0.212092 -0.160826 0.845698
0.210917 -0.161844 0.845123
0.20966 -0.162793 0.844203
0.208364 -0.163704 0.843102
0.207085 -0.164624 0.842067
0.205832 -0.165561 0.841128
0.204608 -0.166519 0.840303
0.203549 -0.167616 0.840179
0.202557 -0.168773 0.840349
0.201617 -0.169976 0.840743
0.200733 -0.171231 0.841381
0.199941 -0.172574 0.842436
0.199099 -0.173875 0.843279
0.198298 -0.175218 0.844314
0.197512 -0.17658 0.84542
0.196757 -0.177977 0.846683
0.196021 -0.179398 0.848043
0.19531 -0.18085 0.84953
0.194561 -0.18227 0.850857
0.193877 -0.183762 0.852495
0.193228 -0.185298 0.854315
0.192555 -0.186818 0.856039
0.191048 -0.187599 0.859434
0.191916 -0.188382 0.857946
0.265617 -0.137865 0.917582
0.264221 -0.138947 0.916625
0.262835 -0.140032 0.9157
0.26115 -0.140941 0.91368
0.25961 -0.141925 0.912169
0.257996 -0.142858 0.910369
0.256277 -0.143722 0.908171
0.254546 -0.144568 0.905903
0.252873 -0.145441 0.903833
0.251274 -0.146351 0.90202
0.249755 -0.147304 0.90049
0.248526 -0.148435 0.900037
0.247306 -0.149569 0.899613
0.246119 -0.150723 0.899311
0.244877 -0.151839 0.898797
0.243676 -0.15298 0.898433
0.242352 -0.154036 0.897591
0.240678 -0.154847 0.895383
0.236407 -0.153589 0.887933
0.23849 -0.155292 0.891153
0.225348 -0.153688 0.856432
0.223608 -0.15433 0.8537
0.221924 -0.155001 0.851164
0.220277 -0.155688 0.848748
0.219069 -0.1567 0.848088
0.217849 -0.157699 0.84737
0.21667 -0.158727 0.846811
0.21553 -0.159782 0.846403
0.214354 -0.160807 0.845844
0.213141 -0.161798 0.845125
0.211943 -0.162799 0.844462
0.210642 -0.16371 0.84336
0.209316 -0.164596 0.842142
0.208014 -0.165495 0.841013
0.206724 -0.166399 0.839919
0.205499 -0.167354 0.839093
0.204438 -0.168449 0.83896
0.203429 -0.169589 0.83905
0.202471 -0.170773 0.839357
0.201585 -0.172026 0.839985
0.200754 -0.173331 0.840858
0.199889 -0.174608 0.84159
0.199049 -0.175911 0.842436
0.19824 -0.177249 0.843434
0.197451 -0.178609 0.844528
0.1967 -0.180011 0.845802
0.195992 -0.181461 0.847282
0.195282 -0.182917 0.848773
0.194624 -0.184431 0.850512
0.194001 -0.18599 0.852432
0.193364 -0.187544 0.85431
0.192729 -0.189108 0.856213
0.1914 -0.190083 0.860446
0.192199 -0.190792 0.858628
0.266856 -0.138977 0.917315
0.265472 -0.140067 0.91641
0.26409 -0.141155 0.915507
0.26243 -0.142077 0.913588
0.26086 -0.143044 0.911975
0.25924 -0.143974 0.910169
0.257488 -0.144818 0.907862
0.255754 -0.145662 0.905598
0.254076 -0.146532 0.903524
0.252454 -0.147427 0.901635
0.250957 -0.148394 0.900196
0.249725 -0.149523 0.899736
0.248504 -0.150658 0.899312
0.24732 -0.151814 0.899024
0.246107 -0.15295 0.898624
0.244881 -0.154075 0.89817
0.243553 -0.155128 0.897319
0.242274 -0.156211 0.896645
0.240621 -0.157031 0.894521
0.223508 -0.15831 0.856884
0.221882 -0.159021 0.854586
0.220213 -0.159689 0.852095
0.218575 -0.16037 0.849703
0.216957 -0.161055 0.847367
0.215341 -0.16173 0.845016
0.214128 -0.162721 0.844301
0.212928 -0.163719 0.843633
0.211623 -0.164627 0.84252
0.210297 -0.165511 0.841305
0.209013 -0.166425 0.840257
0.207741 -0.167344 0.839245
0.206521 -0.168303 0.838443
0.205441 -0.169381 0.838231
0.204431 -0.170519 0.838314
0.203449 -0.171683 0.838522
0.202527 -0.172902 0.838987
0.201636 -0.17415 0.83959
0.200727 -0.175385 0.840124
0.19984 -0.176642 0.840754
0.198974 -0.177922 0.841485
0.198162 -0.179257 0.842463
0.19741 -0.180655 0.843722
0.196704 -0.182104 0.845196
0.19602 -0.183581 0.846785
0.195386 -0.185116 0.848617
0.194765 -0.186673 0.850526
0.194129 -0.188224 0.852389
0.193512 -0.189804 0.85436
0.19295 -0.19145 0.856603
0.268005 -0.140039 0.916728
0.26663 -0.141134 0.915859
0.265226 -0.142208 0.914882
0.263619 -0.14316 0.913161
0.26208 -0.144146 0.911675
0.260432 -0.145059 0.909776
0.258671 -0.145897 0.907448
0.256955 -0.146752 0.905265
0.25528 -0.147623 0.90321
0.253635 -0.148505 0.901251
0.252188 -0.149502 0.900004
0.250953 -0.150631 0.899542
0.249758 -0.151783 0.899221
0.248576 -0.152941 0.898941
0.247413 -0.154111 0.898737
0.246214 -0.155256 0.89839
0.244885 -0.156309 0.897543
0.243557 -0.15736 0.896692
0.242342 -0.158485 0.896264
0.237951 -0.157125 0.888419
0.240163 -0.158929 0.892107
0.237984 -0.159355 0.887913
0.217754 -0.163796 0.849999
0.216044 -0.164396 0.847279
0.214346 -0.164994 0.844583
0.212586 -0.165528 0.841604
0.21128 -0.166428 0.840481
0.21 -0.167345 0.839452
0.20875 -0.168282 0.83854
0.20755 -0.169259 0.837829
0.206471 -0.170337 0.83762
0.205443 -0.171459 0.837626
0.204457 -0.172619 0.837813
0.203494 -0.173799 0.838098
0.202561 -0.175009 0.838519
0.201629 -0.176222 0.838945
0.200698 -0.177436 0.839377
0.19977 -0.178655 0.83983
0.198917 -0.179948 0.840614
0.198127 -0.181306 0.841691
0.19742 -0.18275 0.843144
0.196779 -0.184266 0.844908
0.196154 -0.185806 0.846762
0.195556 -0.187384 0.848762
0.194953 -0.188965 0.850756
0.194336 -0.190542 0.852709
0.193722 -0.192131 0.854693
0.269147 -0.141097 0.916112
0.267725 -0.142165 0.915085
0.266289 -0.143221 0.913997
0.264702 -0.144183 0.912357
0.263192 -0.145184 0.910979
0.261569 -0.146112 0.90918
0.259802 -0.146945 0.906846
0.258107 -0.147812 0.90475
0.256457 -0.148698 0.9028
0.254815 -0.149581 0.900861
0.253397 -0.150597 0.899729
0.252158 -0.151724 0.899255
0.250963 -0.152876 0.898936
0.249781 -0.154035 0.898662
0.248645 -0.155223 0.898561
0.247449 -0.156371 0.898232
0.246123 -0.157427 0.8974
0.244766 -0.158459 0.896445
0.243506 -0.159553 0.895852
0.241789 -0.160322 0.893495
0.240099 -0.161101 0.891222
0.21854 -0.166543 0.852584
0.216291 -0.166702 0.847677
0.214018 -0.166818 0.842623
0.212283 -0.167362 0.839741
0.211045 -0.168314 0.838891
0.209835 -0.169286 0.838153
0.208655 -0.17028 0.837532
0.207579 -0.171361 0.837338
0.206545 -0.172478 0.837321
0.205536 -0.173618 0.83741
0.204548 -0.174777 0.837591
0.203579 -0.175954 0.837852
0.202626 -0.177146 0.838186
0.201656 -0.178324 0.838446
0.200687 -0.179503 0.838715
0.199776 -0.180739 0.839237
0.198943 -0.182053 0.840113
0.198219 -0.183477 0.841476
0.1976 -0.185013 0.843326
0.196984 -0.186559 0.845202
0.196411 -0.18816 0.847297
0.195829 -0.18976 0.849369
0.19523 -0.191353 0.851389
0.19458 -0.192902 0.853194
0.1931 -0.193721 0.856663
0.19394 -0.194471 0.855062
0.267315 -0.144211 0.912983
0.265776 -0.1452 0.911519
0.26429 -0.146215 0.910236
0.262654 -0.147134 0.908402
0.260931 -0.147992 0.906233
0.259232 -0.148855 0.904132
0.257584 -0.149742 0.902201
0.255942 -0.150624 0.900271
0.254572 -0.151671 0.899327
0.253333 -0.152797 0.898854
0.252137 -0.153949 0.898534
0.250954 -0.155108 0.898262
0.24982 -0.156298 0.898169
0.248599 -0.157429 0.897746
0.24727 -0.158483 0.896911
0.245909 -0.159512 0.89595
0.2446 -0.160573 0.895173
0.243303 -0.161638 0.894434
0.242041 -0.162725 0.893826
0.237953 -0.161539 0.887151
0.240382 -0.163521 0.891674
0.235836 -0.16198 0.88316
0.238788 -0.164356 0.889757
0.217931 -0.16816 0.849486
0.214992 -0.167729 0.841752
0.213211 -0.168233 0.838694
0.212022 -0.169225 0.83805
0.210876 -0.170252 0.837582
0.209737 -0.171281 0.837133
0.208681 -0.17238 0.837027
0.207644 -0.173496 0.837
0.206632 -0.174633 0.837078
0.205603 -0.175756 0.837085
0.204597 -0.176898 0.837185
0.203586 -0.178036 0.837266
0.202597 -0.179196 0.837446
0.201609 -0.180356 0.837628
0.200679 -0.181572 0.838061
0.199826 -0.182865 0.838838
0.199096 -0.184282 0.840169
0.198479 -0.185817 0.842009
0.197871 -0.18737 0.843908
0.197325 -0.188995 0.846107
0.196749 -0.1906 0.848192
0.196171 -0.192213 0.85029
0.195503 -0.193742 0.851999
0.194864 -0.19531 0.85386
0.266853 -0.146219 0.910697
0.265297 -0.147191 0.90917
0.263637 -0.148094 0.907257
0.261958 -0.148977 0.905256
0.260286 -0.149856 0.903264
0.258704 -0.150782 0.90158
0.25714 -0.151712 0.899943
0.255771 -0.152759 0.899006
0.254505 -0.153869 0.898441
0.253304 -0.155018 0.898106
0.252091 -0.156157 0.897723
0.25093 -0.157329 0.897531
0.249683 -0.158442 0.897016
0.248348 -0.159492 0.896162
0.246957 -0.160499 0.895089
0.245596 -0.161523 0.89412
0.2443 -0.162588 0.89339
0.243039 -0.163674 0.892786
0.241803 -0.164776 0.892271
0.240708 -0.165978 0.892294
0.237173 -0.165165 0.887736
0.239629 -0.167191 0.892378
0.235639 -0.166027 0.886016
0.238567 -0.168418 0.892527
0.234218 -0.166966 0.884721
0.237647 -0.169752 0.893235
0.216553 -0.169127 0.843269
0.214158 -0.16912 0.837732
0.213001 -0.170139 0.837223
0.211913 -0.171213 0.836991
0.210798 -0.172263 0.836647
0.209745 -0.173366 0.836555
0.20871 -0.174484 0.836539
0.207697 -0.175621 0.836613
0.206648 -0.176725 0.836534
0.205618 -0.177845 0.836534
0.204604 -0.17898 0.836601
0.203611 -0.180136 0.836763
0.202606 -0.181279 0.836868
0.201658 -0.182478 0.837224
0.200786 -0.183752 0.837911
0.200017 -0.18513 0.839059
0.199379 -0.186643 0.840796
0.19879 -0.188213 0.842765
0.198254 -0.189847 0.844994
0.197702 -0.191475 0.847172
0.197146 -0.193109 0.849355
0.196479 -0.194638 0.851058
0.195827 -0.19619 0.852842
0.266302 -0.148165 0.908101
0.264594 -0.149038 0.906024
0.262954 -0.149942 0.904171
0.261308 -0.150835 0.902279
0.259793 -0.151802 0.900844
0.258315 -0.152786 0.899529
0.256945 -0.153833 0.898596
0.255678 -0.154942 0.89803
0.254499 -0.156105 0.897777
0.253282 -0.157243 0.897387
0.252042 -0.158362 0.896904
0.250736 -0.159435 0.896168
0.249314 -0.160425 0.894997
0.247844 -0.161376 0.893631
0.246461 -0.162382 0.892581
0.24522 -0.163483 0.892057
0.243991 -0.164591 0.891576
0.242784 -0.165712 0.891171
0.241738 -0.166949 0.89138
0.240685 -0.168181 0.891563
0.239626 -0.169409 0.891726
0.238757 -0.170782 0.892626
0.23624 -0.170715 0.892032
0.237857 -0.172134 0.893413
0.23468 -0.171555 0.890214
0.236787 -0.173358 0.893538
0.233097 -0.172367 0.888286
0.235705 -0.174572 0.893619
0.216184 -0.170914 0.841159
0.214448 -0.171449 0.838306
0.212893 -0.172127 0.836172
0.211821 -0.173213 0.836004
0.21079 -0.174335 0.836002
0.209757 -0.175455 0.835997
0.208745 -0.176593 0.836075
0.207696 -0.177696 0.835997
0.206642 -0.178795 0.835897
0.205621 -0.179924 0.835934
0.204625 -0.181076 0.836081
0.203621 -0.18222 0.83619
0.202659 -0.183405 0.836482
0.201787 -0.184679 0.837167
0.200996 -0.186034 0.838211
0.200336 -0.187525 0.839842
0.199748 -0.189095 0.841801
0.199214 -0.19073 0.844024
0.198668 -0.192362 0.846213
0.198134 -0.194018 0.848476
0.197486 -0.195566 0.850256
0.196857 -0.197143 0.852137
0.263935 -0.150899 0.903037
0.262378 -0.151844 0.90147
0.260945 -0.152862 0.900336
0.25955 -0.153898 0.899329
0.258152 -0.154927 0.898301
0.25686 -0.15602 0.897648
0.255653 -0.157166 0.897299
0.254434 -0.158302 0.896902
0.253113 -0.159367 0.896123
0.251745 -0.160397 0.895164
0.25026 -0.161343 0.893762
0.24878 -0.162285 0.892363
0.2474 -0.163292 0.891329
0.246215 -0.164431 0.891015
0.245043 -0.165579 0.89075
0.243889 -0.166738 0.890549
0.242847 -0.167977 0.890771
0.241795 -0.16921 0.890957
0.24076 -0.170456 0.891211
0.239894 -0.171832 0.89212
0.238998 -0.173188 0.892923
0.237931 -0.174414 0.89306
0.236848 -0.175628 0.893137
0.234114 -0.175383 0.89168
0.235719 -0.176805 0.893028
0.231595 -0.175438 0.886022
0.233828 -0.177369 0.889902
0.231088 -0.177229 0.883363
0.218913 -0.171188 0.847992
0.217933 -0.172474 0.843418
0.215485 -0.172411 0.837707
0.213868 -0.173035 0.835329
0.212841 -0.174161 0.83535
0.211851 -0.175318 0.835518
0.21086 -0.176475 0.835682
0.209848 -0.177614 0.835766
0.208817 -0.178735 0.835764
0.207742 -0.179815 0.835578
0.206703 -0.180927 0.835541
0.205686 -0.18206 0.835597
0.204682 -0.183205 0.835708
0.203699 -0.18437 0.835912
0.202828 -0.185644 0.836598
0.202018 -0.186981 0.837553
0.201337 -0.18845 0.839078
0.200748 -0.190019 0.841024
0.200198 -0.191637 0.843162
0.199636 -0.193252 0.845267
0.199101 -0.194905 0.847512
0.198475 -0.196476 0.849378
0.19785 -0.198055 0.851262
0.196159 -0.198654 0.853721
0.197177 -0.199592 0.85295
0.263486 -0.152877 0.900799
0.262107 -0.153928 0.899866
0.260792 -0.155014 0.899151
0.259362 -0.156023 0.898014
0.258042 -0.157099 0.897261
0.256835 -0.158245 0.896915
0.255619 -0.159383 0.896534
0.254267 -0.160428 0.89565
0.252889 -0.161452 0.89466
0.251414 -0.162404 0.893302
0.249905 -0.163326 0.891806
0.248527 -0.164333 0.890781
0.247372 -0.165494 0.890583
0.24623 -0.166663 0.890434
0.245079 -0.167825 0.890247
0.244038 -0.169067 0.890476
0.242982 -0.170297 0.890649
0.241946 -0.171543 0.890897
0.241034 -0.172885 0.891627
0.240117 -0.174225 0.892342
0.239048 -0.17545 0.892473
0.23794 -0.176643 0.892449
0.236778 -0.177795 0.892217
0.235462 -0.17882 0.891373
0.218725 -0.175247 0.846005
0.216361 -0.175249 0.840652
0.214756 -0.175886 0.838344
0.213301 -0.176643 0.836624
0.211901 -0.17744 0.835114
0.21089 -0.17858 0.835197
0.209859 -0.179701 0.835201
0.208786 -0.180784 0.835025
0.20775 -0.181898 0.834999
0.206733 -0.183032 0.835059
0.205728 -0.184176 0.835166
0.204744 -0.185339 0.83536
0.203872 -0.186612 0.836038
0.203062 -0.18795 0.836991
0.202366 -0.189404 0.838444
0.20176 -0.190955 0.840302
0.201188 -0.19255 0.842332
0.200607 -0.194145 0.844338
0.200054 -0.195779 0.84649
0.19945 -0.19737 0.848438
0.198849 -0.198974 0.85042
0.1982 -0.200536 0.852203
0.264611 -0.153921 0.900191
0.263313 -0.155021 0.899546
0.262063 -0.156149 0.899068
0.260595 -0.157135 0.897804
0.259243 -0.15819 0.896945
0.25801 -0.159319 0.896508
0.256793 -0.160458 0.896127
0.255442 -0.161503 0.89525
0.25409 -0.162544 0.894362
0.252643 -0.163516 0.893117
0.251165 -0.16446 0.891742
0.249809 -0.165484 0.890812
0.248678 -0.166664 0.890709
0.247557 -0.167849 0.89064
0.246383 -0.168996 0.890372
0.245317 -0.17022 0.890509
0.244227 -0.171427 0.890555
0.243137 -0.172634 0.890598
0.242173 -0.173936 0.891127
0.241231 -0.175257 0.891743
0.240156 -0.176478 0.891853
0.239042 -0.177667 0.891806
0.237876 -0.178815 0.891558
0.236575 -0.179852 0.890777
0.235262 -0.180876 0.889942
0.21471 -0.179977 0.841783
0.213272 -0.18075 0.840145
0.211825 -0.181507 0.838455
0.210355 -0.182234 0.83665
0.208955 -0.183016 0.835119
0.207923 -0.184136 0.835115
0.206912 -0.185276 0.8352
0.205903 -0.186419 0.835296
0.204993 -0.187656 0.835808
0.204149 -0.18896 0.836612
0.203435 -0.190397 0.83798
0.202789 -0.191908 0.839658
0.202179 -0.193464 0.841506
0.201596 -0.195056 0.843492
0.201027 -0.196672 0.845561
0.200445 -0.198285 0.847592
0.199848 -0.199892 0.849579
0.199222 -0.201479 0.851457
0.265801 -0.155004 0.899807
0.264475 -0.156087 0.899071
0.263221 -0.157213 0.898582
0.261747 -0.158195 0.897305
0.260389 -0.159246 0.896429
0.259125 -0.160355 0.895884
0.257904 -0.16149 0.895489
0.256584 -0.162556 0.894731
0.255268 -0.163621 0.893977
0.25389 -0.164641 0.892992
0.252494 -0.165643 0.891931
0.251218 -0.166724 0.891303
0.250106 -0.16792 0.891277
0.249004 -0.169122 0.891286
0.247824 -0.170267 0.891003
0.246678 -0.171435 0.890841
0.245508 -0.172584 0.890591
0.244354 -0.173744 0.890396
0.243308 -0.174985 0.89061
0.242287 -0.176246 0.890925
0.241207 -0.177461 0.891008
0.240141 -0.178688 0.89115
0.239007 -0.179861 0.891029
0.237771 -0.180951 0.890504
0.236524 -0.182028 0.889933
0.233286 -0.181349 0.88647
0.235227 -0.183063 0.889161
0.232515 -0.182914 0.882781
0.214314 -0.183787 0.843818
0.212384 -0.184106 0.840153
0.210537 -0.184484 0.836794
0.209118 -0.185247 0.835189
0.208063 -0.186347 0.835094
0.207012 -0.187449 0.83501
0.206098 -0.188683 0.835506
0.205256 -0.18999 0.836316
0.204543 -0.191429 0.837683
0.203874 -0.192918 0.839254
0.203258 -0.194467 0.841066
0.202636 -0.19602 0.842874
0.202054 -0.197622 0.844872
0.201477 -0.19924 0.846916
0.200901 -0.200869 0.848982
0.200259 -0.202437 0.850776
0.267718 -0.15654 0.901969
0.26563 -0.157149 0.898568
0.264369 -0.15827 0.898059
0.262895 -0.159252 0.896788
0.261533 -0.1603 0.895905
0.26024 -0.16139 0.895258
0.259019 -0.162525 0.894864
0.257746 -0.163623 0.894282
0.256515 -0.164746 0.89384
0.255229 -0.16583 0.893198
0.253922 -0.166895 0.89247
0.252704 -0.16802 0.892066
0.251591 -0.169217 0.89204
0.250459 -0.170401 0.891948
0.249248 -0.171526 0.891553
0.248045 -0.172654 0.891188
0.246839 -0.173779 0.890808
0.245646 -0.174911 0.890473
0.244542 -0.176109 0.890469
0.243488 -0.177346 0.890657
0.242432 -0.178581 0.890839
0.241399 -0.179835 0.891108
0.240275 -0.181017 0.891027
0.239127 -0.182178 0.89085
0.23792 -0.183292 0.890445
0.236589 -0.184299 0.889545
0.234503 -0.184674 0.885668
0.21451 -0.186069 0.844009
0.212204 -0.186031 0.838798
0.210382 -0.186421 0.83554
0.20926 -0.187459 0.835168
0.20814 -0.188498 0.834805
0.207206 -0.189714 0.835216
0.206364 -0.191021 0.836021
0.205633 -0.192442 0.837305
0.204962 -0.193929 0.838859
0.204341 -0.195475 0.840644
0.203701 -0.197009 0.842363
0.203104 -0.198596 0.844284
0.202531 -0.200218 0.846333
0.201919 -0.201808 0.84823
0.201235 -0.203331 0.849827
0.269563 -0.158034 0.903854
0.266742 -0.158184 0.897915
0.265487 -0.159309 0.897429
0.264015 -0.160291 0.896172
0.262654 -0.16134 0.895297
0.26136 -0.162429 0.894651
0.260162 -0.163579 0.894342
0.258943 -0.164713 0.893956
0.257767 -0.165875 0.893719
0.256561 -0.167014 0.893371
0.255312 -0.168121 0.892863
0.254126 -0.169271 0.892579
0.253017 -0.170473 0.892575
0.251857 -0.17164 0.892385
0.250613 -0.172742 0.891877
0.24938 -0.173851 0.891406
0.248147 -0.174957 0.89093
0.246899 -0.176049 0.890395
0.245765 -0.177225 0.890281
0.244709 -0.178461 0.890461
0.243682 -0.17972 0.890754
0.242685 -0.181004 0.891163
0.24164 -0.18225 0.89139
0.240593 -0.183496 0.891612
0.239361 -0.184591 0.891116
0.237995 -0.185573 0.890095
0.236442 -0.186394 0.888327
0.23237 -0.184991 0.881569
0.234835 -0.187161 0.886335
0.216347 -0.187765 0.846633
