ply
format ascii 1.0
element vertex 1670
property float x
property float y
property float z
end_header
0.330842 -0.080608 0.803067
0.330721 -0.0791142 0.803279
0.330653 -0.0776335 0.803636
0.330555 -0.0761448 0.803909
0.330336 -0.074627 0.803856
0.330166 -0.0731215 0.803936
0.330024 -0.071623 0.804092
0.32974 -0.0700925 0.803861
0.32958 -0.0685908 0.803967
0.329386 -0.0670824 0.803984
0.329224 -0.0655808 0.804081
0.329064 -0.0640801 0.804188
0.329119 -0.062623 0.804877
0.329353 -0.0611993 0.806054
0.329768 -0.0598067 0.807723
0.330175 -0.0584076 0.809372
0.330746 -0.0570334 0.811468
0.331253 -0.0556414 0.813395
0.331633 -0.0542216 0.814976
0.331894 -0.0527768 0.816235
0.332067 -0.0513142 0.817256
0.332033 -0.0498157 0.817712
0.331924 -0.0483049 0.817963
0.331897 -0.0468061 0.818439
0.331856 -0.0453042 0.818876
0.331974 -0.0438239 0.81975
0.33208 -0.0423397 0.820592
0.332118 -0.0408443 0.821248
0.332087 -0.0393387 0.821715
0.332115 -0.0378393 0.822345
0.332055 -0.0363281 0.822733
0.331996 -0.0348163 0.823123
0.331966 -0.033307 0.823596
0.332 -0.0318033 0.824243
0.332048 -0.0302993 0.824929
0.332164 -0.0288002 0.825806
0.332282 -0.0272989 0.826686
0.332363 -0.025792 0.827467
0.332531 -0.0242902 0.828489
0.332709 -0.0227859 0.829535
0.333032 -0.0212891 0.830987
0.33346 -0.0197945 0.832728
0.334055 -0.0183049 0.834936
0.334852 -0.0168194 0.837706
0.336647 -0.0153753 0.84324
0.341245 -0.11692 0.823263
0.340955 -0.115325 0.823037
0.34065 -0.113727 0.822771
0.340178 -0.112073 0.822057
0.33962 -0.110393 0.821113
0.338915 -0.108668 0.819776
0.338174 -0.106936 0.818338
0.337469 -0.10522 0.816994
0.336818 -0.103528 0.815795
0.33621 -0.101854 0.814709
0.335666 -0.100205 0.813792
0.335111 -0.0985558 0.812846
0.33443 -0.0968723 0.811559
0.333749 -0.0951934 0.810267
0.333128 -0.0935378 0.809139
0.332455 -0.0918713 0.807866
0.331852 -0.0902303 0.806784
0.331408 -0.0886377 0.806126
0.330852 -0.0870176 0.805168
0.330391 -0.0854267 0.804461
0.329988 -0.0838545 0.803911
0.329719 -0.0823205 0.803727
0.329404 -0.0807753 0.803411
0.329248 -0.0792723 0.80353
0.329173 -0.0777895 0.803864
0.329046 -0.0762938 0.804061
0.328829 -0.0747767 0.804014
0.328663 -0.0732719 0.804102
0.328523 -0.0717736 0.804262
0.328271 -0.0702502 0.804117
0.328171 -0.0687619 0.80439
0.328046 -0.0672674 0.804589
0.327978 -0.0657851 0.804945
0.327913 -0.0643029 0.805309
0.328039 -0.0628587 0.806196
0.328346 -0.061448 0.807576
0.328805 -0.0600625 0.809376
0.329252 -0.058669 0.811139
0.329795 -0.0572879 0.813172
0.330261 -0.0558869 0.814996
0.33058 -0.0544544 0.816417
0.330806 -0.0530021 0.817585
0.330913 -0.051527 0.81843
0.330873 -0.050026 0.818871
0.33076 -0.0485131 0.819115
0.330723 -0.0470112 0.819564
0.330678 -0.0455074 0.819995
0.330725 -0.0440156 0.820675
0.330761 -0.0425207 0.821326
0.330724 -0.0410148 0.82178
0.330659 -0.0395041 0.822154
0.330662 -0.0380013 0.822715
0.330641 -0.0364946 0.823214
0.330622 -0.0349869 0.823719
0.330656 -0.033484 0.824367
0.330691 -0.0319794 0.82502
0.330735 -0.0304742 0.825697
0.330846 -0.0289738 0.826563
0.330959 -0.0274712 0.827434
0.331031 -0.0259629 0.828194
0.331229 -0.0244627 0.829303
0.331439 -0.0229602 0.830446
0.331799 -0.0214648 0.832004
0.332295 -0.0199739 0.833943
0.33293 -0.0184855 0.836275
0.333646 -0.0169941 0.838831
0.335275 -0.0155414 0.843934
0.339754 -0.117094 0.823581
0.339431 -0.115487 0.823265
0.339105 -0.113881 0.822939
0.338678 -0.112242 0.822344
0.338161 -0.110575 0.821505
0.337474 -0.108854 0.820208
0.336808 -0.107145 0.818963
0.336147 -0.105443 0.817732
0.335501 -0.10375 0.816539
0.334961 -0.102096 0.815628
0.334482 -0.100465 0.814884
0.333977 -0.0988289 0.814069
0.333407 -0.0971762 0.813073
0.332796 -0.0955156 0.811968
0.332209 -0.0938666 0.810926
0.331523 -0.0921925 0.809612
0.330856 -0.0905293 0.808349
0.330308 -0.0889045 0.807406
0.32961 -0.0872419 0.806054
0.328985 -0.0856047 0.8049
0.328525 -0.0840165 0.804194
0.328221 -0.0824722 0.803907
0.327807 -0.0809012 0.803323
0.327643 -0.0793965 0.803417
0.327573 -0.0779156 0.803767
0.327508 -0.0764359 0.804136
0.327356 -0.0749343 0.804263
0.327226 -0.0734379 0.804449
0.327116 -0.0719463 0.804691
0.326894 -0.070429 0.804627
0.326798 -0.068941 0.804909
0.326737 -0.0674599 0.805285
0.326769 -0.065998 0.805915
0.326775 -0.0645295 0.806478
0.326976 -0.0630992 0.807573
0.327349 -0.0617 0.80914
0.327789 -0.0603091 0.810893
0.328249 -0.0589168 0.812706
0.328785 -0.0575331 0.814728
0.329217 -0.0561243 0.816467
0.329503 -0.0546847 0.817807
0.329721 -0.0532294 0.818959
0.329767 -0.0517421 0.819636
0.329692 -0.0502341 0.819986
0.329582 -0.0487196 0.820234
0.329477 -0.0472061 0.820501
0.329392 -0.0456952 0.820821
0.329366 -0.0441921 0.821302
0.329333 -0.0426873 0.821769
0.329233 -0.0411725 0.822047
0.3292 -0.0396658 0.822509
0.329208 -0.0381636 0.823089
0.329228 -0.0366614 0.823701
0.329242 -0.035157 0.824297
0.329336 -0.0336602 0.825117
0.329373 -0.0321549 0.825777
0.329417 -0.0306492 0.826461
0.329497 -0.029145 0.827243
0.329598 -0.0276407 0.828084
0.329697 -0.0261339 0.82892
0.32993 -0.0246359 0.830132
0.330214 -0.023138 0.831484
0.330642 -0.0216467 0.833242
0.331202 -0.0201585 0.83537
0.33187 -0.0186705 0.837803
0.332654 -0.0171813 0.840562
0.333415 -0.0156823 0.843262
0.337578 -0.114041 0.823157
0.337214 -0.112424 0.822728
0.336761 -0.110777 0.822056
0.336113 -0.109068 0.820857
0.335485 -0.10737 0.819709
0.334834 -0.105668 0.818497
0.334187 -0.103974 0.817297
0.333679 -0.102328 0.816469
0.333267 -0.100716 0.815902
0.332836 -0.0991011 0.815281
0.332375 -0.0974792 0.814575
0.33187 -0.0958478 0.813753
0.331317 -0.0942051 0.812798
0.330637 -0.0925292 0.811495
0.329895 -0.0908403 0.810022
0.329164 -0.0891602 0.808576
0.328289 -0.0874456 0.806736
0.327659 -0.0858051 0.80556
0.327186 -0.0842116 0.804812
0.32686 -0.0826605 0.804464
0.326399 -0.0810765 0.803751
0.326223 -0.0795681 0.803811
0.326068 -0.0780656 0.80393
0.325979 -0.0765797 0.804229
0.325835 -0.0750801 0.804379
0.325704 -0.0735838 0.804565
0.325657 -0.0721068 0.804978
0.325527 -0.0706107 0.80517
0.325499 -0.069137 0.805636
0.325506 -0.0676702 0.806201
0.325639 -0.0662289 0.807112
0.325689 -0.0647677 0.807795
0.325928 -0.0633442 0.809004
0.326298 -0.061943 0.810572
0.326715 -0.060546 0.812268
0.327102 -0.0591386 0.813887
0.327627 -0.0577519 0.815887
0.32806 -0.0563424 0.817639
0.328347 -0.0549019 0.818987
0.32856 -0.0534444 0.820131
0.328628 -0.0519595 0.820874
0.328493 -0.0504397 0.821056
0.328353 -0.0489193 0.821224
0.328221 -0.0474 0.821414
0.328068 -0.045878 0.82155
0.327974 -0.0443644 0.821845
0.327903 -0.0428535 0.822203
0.327741 -0.0413299 0.822309
0.327708 -0.0398235 0.822777
0.327749 -0.0383254 0.823451
0.327802 -0.0368271 0.824159
0.327847 -0.0353259 0.824842
0.327973 -0.033832 0.825752
0.328011 -0.0323265 0.826419
0.32806 -0.0308204 0.827118
0.328106 -0.0293124 0.827808
0.328173 -0.0278044 0.828556
0.328332 -0.0263028 0.829568
0.328607 -0.0248076 0.830901
0.328974 -0.0233155 0.832491
0.329468 -0.0218279 0.834444
0.330119 -0.0203448 0.836838
0.330811 -0.0188567 0.839353
0.33156 -0.0173638 0.842026
0.332247 -0.0158592 0.844528
0.335967 -0.114171 0.823146
0.335748 -0.112605 0.82311
0.335383 -0.110988 0.822674
0.334839 -0.109312 0.821748
0.334242 -0.107622 0.820679
0.333581 -0.105915 0.819434
0.332903 -0.104208 0.818141
0.33239 -0.102559 0.817295
0.332016 -0.100957 0.816828
0.331656 -0.0993627 0.816397
0.331266 -0.0977611 0.815885
0.330857 -0.0961556 0.815317
0.330396 -0.0945375 0.81461
0.32988 -0.0929062 0.813749
0.329244 -0.0912438 0.81256
0.326654 -0.0860948 0.807105
0.32599 -0.0844467 0.80583
0.325699 -0.0829032 0.805577
0.325292 -0.081331 0.805006
0.325072 -0.0798095 0.804947
0.324941 -0.0783115 0.805133
0.324853 -0.0768239 0.805435
0.324741 -0.0753304 0.805673
0.324616 -0.0738336 0.805876
0.324571 -0.0723556 0.806298
0.324413 -0.0708508 0.806412
0.324364 -0.0693704 0.806819
0.324376 -0.0679034 0.807404
0.324544 -0.0664685 0.808416
0.324632 -0.0650137 0.809208
0.324868 -0.0635876 0.810411
0.325195 -0.0621766 0.811869
0.325531 -0.0607626 0.81335
0.325844 -0.0593402 0.814773
0.326274 -0.0579353 0.816518
0.326679 -0.0565208 0.8182
0.326967 -0.05508 0.819555
0.327179 -0.0536223 0.820702
0.327276 -0.0521419 0.821529
0.327172 -0.0506264 0.821798
0.327032 -0.0491049 0.821966
0.3269 -0.0475847 0.822156
0.326714 -0.0460567 0.822199
0.326556 -0.0445331 0.822317
0.326447 -0.0430166 0.822572
0.326279 -0.0414918 0.822661
0.326247 -0.0399853 0.823129
0.32629 -0.0384874 0.823813
0.326343 -0.0369887 0.82452
0.326383 -0.035487 0.825195
0.326508 -0.0339929 0.826106
0.326549 -0.0324874 0.826783
0.326601 -0.0309817 0.827494
0.326645 -0.0294732 0.828181
0.326737 -0.0279676 0.829004
0.326964 -0.0264714 0.830208
0.327318 -0.0249824 0.83177
0.327795 -0.0234982 0.833682
0.328356 -0.0220141 0.83583
0.329032 -0.0205312 0.838305
0.329746 -0.019043 0.840894
0.330428 -0.0175446 0.843393
0.331046 -0.016035 0.845716
0.334768 -0.114449 0.824259
0.334541 -0.112878 0.824199
0.334166 -0.111255 0.823732
0.333652 -0.109587 0.822885
0.333058 -0.107896 0.821819
0.332296 -0.106153 0.820292
0.33158 -0.10443 0.818884
0.33103 -0.102767 0.817935
0.330629 -0.101156 0.817389
0.330304 -0.0995714 0.817052
0.330011 -0.0979985 0.816802
0.329674 -0.0964137 0.816431
0.32933 -0.0948286 0.81604
0.329012 -0.0932531 0.815717
0.325606 -0.0863748 0.808548
0.324498 -0.0831361 0.806587
0.324187 -0.0815875 0.806279
0.324002 -0.0800729 0.806314
0.323944 -0.0785914 0.806702
0.32388 -0.0771078 0.807074
0.323766 -0.0756113 0.807307
0.323613 -0.0741053 0.807434
0.323564 -0.0726242 0.807848
0.323377 -0.07111 0.807878
0.323296 -0.0696208 0.808204
0.323309 -0.0681516 0.808788
0.323501 -0.0667203 0.809874
0.323583 -0.0652625 0.810652
0.323752 -0.0638208 0.811674
0.323977 -0.0623878 0.812855
0.324239 -0.0609587 0.81414
0.324487 -0.0595231 0.815387
0.324859 -0.0581073 0.816978
0.325292 -0.0566981 0.818746
0.325609 -0.0552626 0.820189
0.325827 -0.0538058 0.821359
0.325928 -0.0523256 0.822202
0.325856 -0.0508144 0.822559
0.325713 -0.0492914 0.822718
0.32558 -0.0477702 0.822909
0.325366 -0.0462369 0.822871
0.325201 -0.0447114 0.82297
0.325056 -0.0431889 0.823122
0.324886 -0.0416631 0.823205
0.324822 -0.0401521 0.82359
0.324864 -0.0386536 0.82427
0.324912 -0.0371541 0.824966
0.32495 -0.0356518 0.825638
0.325075 -0.0341575 0.826552
0.325117 -0.032652 0.827236
0.325166 -0.0311455 0.827941
0.325176 -0.0296335 0.828534
0.325267 -0.0281275 0.829356
0.325559 -0.0266374 0.830752
0.325985 -0.025154 0.832522
0.326534 -0.023675 0.834648
0.327192 -0.0221973 0.83708
0.327894 -0.0207152 0.839646
0.328581 -0.0192238 0.842169
0.329228 -0.0177222 0.84458
0.329779 -0.0162076 0.846723
0.3341 -0.0146361 0.854929
0.331886 -0.0147631 0.853292
0.333282 -0.113134 0.825155
0.332867 -0.111495 0.824575
0.332346 -0.109823 0.823705
0.331771 -0.108136 0.822684
0.330942 -0.106368 0.820964
0.330184 -0.104629 0.819437
0.329631 -0.102963 0.818468
0.329227 -0.101351 0.817915
0.328908 -0.0997666 0.81759
0.328679 -0.0982132 0.817516
0.328442 -0.0966578 0.817418
0.328219 -0.0951076 0.817357
0.32804 -0.0935717 0.817419
0.32786 -0.0920359 0.817478
0.32416 -0.0850749 0.809448
0.32398 -0.0835552 0.809499
0.323509 -0.0819588 0.808745
0.323321 -0.0804397 0.808775
0.323223 -0.0789443 0.809055
0.323086 -0.0774388 0.809227
0.322883 -0.0759167 0.809213
0.322638 -0.0743854 0.809084
0.322584 -0.0729004 0.809484
0.32241 -0.0713871 0.809553
0.322255 -0.0698784 0.809675
0.322229 -0.0683987 0.810153
0.322353 -0.0669509 0.811054
0.322368 -0.0654772 0.811648
0.322468 -0.0640202 0.812482
0.322655 -0.0625789 0.813563
0.322887 -0.0611432 0.814767
0.323134 -0.0597072 0.816016
0.323472 -0.0582852 0.817524
0.323899 -0.056875 0.819281
0.324213 -0.0554388 0.820721
0.324436 -0.0539826 0.82191
0.324544 -0.0525032 0.822775
0.324505 -0.050997 0.823226
0.324364 -0.0494737 0.823395
0.324229 -0.0479513 0.823578
0.324012 -0.0464164 0.823529
0.323845 -0.0448897 0.823623
0.323698 -0.0433664 0.823772
0.32353 -0.0418401 0.823861
0.323467 -0.0403281 0.824246
0.32348 -0.0388254 0.824848
0.32352 -0.0373244 0.825524
0.323556 -0.0358212 0.826191
0.323649 -0.0343231 0.827021
0.32366 -0.032814 0.827621
0.323704 -0.0313068 0.828311
0.323677 -0.0297909 0.828804
0.323795 -0.0282878 0.829709
0.324152 -0.0268033 0.831291
0.324647 -0.0253257 0.833269
0.325228 -0.0238487 0.835492
0.325916 -0.022373 0.838027
0.326646 -0.0208919 0.840679
0.327336 -0.0194002 0.843225
0.327951 -0.0178956 0.845558
0.328595 -0.0163853 0.847977
0.329976 -0.0149044 0.852504
0.331463 -0.111699 0.825136
0.330952 -0.110029 0.824287
0.330289 -0.10831 0.823019
0.32939 -0.106516 0.821093
0.328656 -0.104785 0.819626
0.328122 -0.103125 0.818706
0.327713 -0.101509 0.81813
0.327444 -0.0999406 0.817943
0.327281 -0.0984073 0.818049
0.327115 -0.0968735 0.818149
0.326978 -0.0953484 0.818325
0.32684 -0.0938232 0.818499
0.326802 -0.092328 0.818953
0.327516 -0.090453 0.817084
0.326835 -0.0908527 0.819606
0.323569 -0.0825317 0.813298
0.322986 -0.0809008 0.812227
0.322591 -0.0793231 0.811679
0.322322 -0.0777795 0.811481
0.321981 -0.0762195 0.811082
0.321642 -0.0746622 0.81069
0.321521 -0.0731589 0.810906
0.32131 -0.0716346 0.810869
0.321118 -0.0701152 0.810885
0.32105 -0.0686245 0.811251
0.321109 -0.0671611 0.811971
0.321083 -0.0656779 0.812456
0.321178 -0.064219 0.813281
0.321367 -0.0627775 0.81437
0.321633 -0.0613482 0.815676
0.32188 -0.0599114 0.81693
0.322184 -0.0584821 0.818347
0.322571 -0.0570641 0.820002
0.322851 -0.0556215 0.821352
0.32304 -0.0541589 0.822449
0.323148 -0.0526793 0.823319
0.323141 -0.051178 0.823863
0.323034 -0.0496591 0.824124
0.322903 -0.0481365 0.824322
0.322684 -0.0466004 0.824269
0.322517 -0.0450727 0.82436
0.322371 -0.0435484 0.824511
0.322181 -0.042018 0.824537
0.32212 -0.0405057 0.82493
0.322126 -0.0390012 0.825514
0.322163 -0.0374992 0.826185
0.322197 -0.0359954 0.826852
0.322263 -0.0344937 0.827607
0.322239 -0.0329801 0.82811
0.322272 -0.0314715 0.828775
0.32227 -0.0299576 0.829337
0.322425 -0.0284573 0.830348
0.322816 -0.0269758 0.832039
0.323343 -0.0255005 0.834116
0.323916 -0.0240226 0.836332
0.324597 -0.0225457 0.838855
0.325358 -0.0210665 0.84161
0.326056 -0.0195745 0.84419
0.326765 -0.0180751 0.846805
0.327501 -0.0165686 0.849499
0.328219 -0.0150528 0.852146
0.329993 -0.111881 0.825518
0.329517 -0.110221 0.824761
0.32883 -0.108493 0.823417
0.327907 -0.106689 0.821418
0.327163 -0.104952 0.81991
0.326623 -0.103289 0.818969
0.326189 -0.101664 0.818323
0.325928 -0.100098 0.818154
0.325805 -0.0985776 0.818372
0.325683 -0.0970569 0.818592
0.325712 -0.095583 0.819235
0.325778 -0.0941183 0.819977
0.325961 -0.0926871 0.821051
0.323428 -0.0830556 0.817329
0.322665 -0.0813698 0.81575
0.322062 -0.0797312 0.814614
0.321646 -0.0781454 0.814005
0.321195 -0.0765533 0.813294
0.320753 -0.074967 0.812612
0.320509 -0.0734312 0.812483
0.320183 -0.0718769 0.812121
0.319897 -0.0703341 0.811875
0.319799 -0.0688351 0.812155
0.319796 -0.0673572 0.812705
0.319799 -0.0658791 0.81327
0.319955 -0.0644326 0.814271
0.320181 -0.0629977 0.81547
0.320424 -0.061563 0.81672
0.32067 -0.0601253 0.817978
0.320904 -0.0586814 0.819203
0.321193 -0.0572446 0.820588
0.3214 -0.0557884 0.821736
0.321551 -0.0543189 0.822729
0.321653 -0.0528387 0.823588
0.321677 -0.0513426 0.824222
0.321606 -0.0498295 0.824586
0.32151 -0.0483118 0.82488
0.321354 -0.0467844 0.825003
0.32122 -0.0452608 0.825192
0.321111 -0.0437406 0.825448
0.320948 -0.0422128 0.825552
0.320888 -0.0406991 0.825948
0.320861 -0.0391892 0.82644
0.320867 -0.0376825 0.82703
0.320868 -0.0361736 0.827602
0.320873 -0.0346639 0.828186
0.320813 -0.0331458 0.828587
0.32087 -0.0316392 0.82932
0.320902 -0.0301283 0.829983
0.321126 -0.0286345 0.831203
0.321559 -0.0271558 0.833018
0.322114 -0.0256821 0.835187
0.322614 -0.0241975 0.837203
0.323188 -0.022712 0.83943
0.323942 -0.0212325 0.842182
0.324638 -0.0197402 0.844764
0.325428 -0.0182458 0.847629
0.326266 -0.0167449 0.850631
0.327229 -0.0152407 0.853997
0.330535 -0.0136019 0.859388
0.32874 -0.013751 0.858951
0.330214 -0.0122436 0.863804
0.325577 -0.105088 0.819938
0.325089 -0.103442 0.819136
0.32436 -0.0987578 0.818781
0.324558 -0.097338 0.819901
0.324889 -0.0959555 0.821389
0.326375 -0.0883368 0.823899
0.326086 -0.0903463 0.827015
0.326058 -0.08884 0.827503
0.325164 -0.0870887 0.825553
0.324157 -0.0853139 0.823286
0.323099 -0.0835332 0.820868
0.322084 -0.0817732 0.818572
0.321247 -0.0800682 0.816772
0.320666 -0.0784362 0.815696
0.320076 -0.0768059 0.814589
0.319497 -0.0751829 0.813513
0.319156 -0.073622 0.813107
0.318828 -0.0720663 0.81274
0.318577 -0.0705304 0.812588
0.318541 -0.069045 0.813047
0.318571 -0.0675733 0.813692
0.318638 -0.0661083 0.814443
0.318863 -0.0646753 0.815644
0.319131 -0.0632475 0.816967
0.319378 -0.061812 0.818235
0.319618 -0.060371 0.81948
0.319807 -0.058917 0.820586
0.319994 -0.0574592 0.821684
0.3201 -0.0559834 0.822554
0.320182 -0.0545008 0.823353
0.320217 -0.0530082 0.824023
0.320209 -0.0515065 0.824568
0.320143 -0.0499939 0.824948
0.320083 -0.0484819 0.825348
0.319998 -0.046965 0.825673
0.319897 -0.0454456 0.825955
0.31979 -0.043925 0.826221
0.319595 -0.0423916 0.826233
0.319529 -0.0408763 0.826613
0.31947 -0.0393613 0.827014
0.319476 -0.0378539 0.827604
0.319508 -0.0363483 0.828268
0.319536 -0.0348407 0.828921
0.319502 -0.0333245 0.829397
0.319591 -0.0318205 0.830228
0.319662 -0.0303125 0.831007
0.319903 -0.0288191 0.832277
0.320342 -0.0273403 0.834122
0.320828 -0.0258596 0.836103
0.321252 -0.0243678 0.837907
0.321742 -0.0228758 0.839904
0.322552 -0.0214005 0.84283
0.323256 -0.0199086 0.84545
0.324118 -0.0184184 0.848534
0.325056 -0.0169229 0.851844
0.326108 -0.0154223 0.855483
0.326746 -0.0138906 0.857932
0.327353 -0.0123498 0.860287
0.331572 -0.010716 0.868328
0.327702 -0.0107919 0.861899
0.325385 -0.0922478 0.828992
0.325149 -0.0906781 0.828898
0.324844 -0.0890892 0.828607
0.324125 -0.0873847 0.827142
0.323305 -0.0856581 0.825393
0.322419 -0.0839196 0.823452
0.321406 -0.082154 0.821146
0.320531 -0.080434 0.819233
0.31977 -0.0787504 0.817639
0.319052 -0.0770839 0.816164
0.318365 -0.0754308 0.814775
0.31792 -0.0738423 0.814074
0.317531 -0.0722702 0.813528
0.317284 -0.0707342 0.813388
0.317283 -0.0692557 0.813947
0.31735 -0.0677914 0.8147
0.317519 -0.0663479 0.815746
0.317815 -0.0649285 0.817154
0.318152 -0.0635138 0.818682
0.318426 -0.0620818 0.820033
0.318653 -0.0606361 0.821249
0.318773 -0.0591662 0.822162
0.318862 -0.0576876 0.822984
0.318898 -0.0561972 0.823658
0.318909 -0.0547006 0.824259
0.318879 -0.0531954 0.824743
0.318808 -0.0516822 0.825112
0.31871 -0.0501638 0.825401
0.318622 -0.0486469 0.82572
0.31854 -0.0471303 0.826057
0.318419 -0.0456072 0.826279
0.318313 -0.0440866 0.826549
0.318115 -0.0425523 0.826549
0.318041 -0.041036 0.82691
0.31798 -0.0395206 0.827306
0.317984 -0.0380128 0.827892
0.318046 -0.0365109 0.828646
0.318136 -0.0350103 0.829479
0.318168 -0.0335011 0.830149
0.318297 -0.0320007 0.831098
0.318464 -0.0305018 0.832161
0.318739 -0.0290102 0.833535
0.319114 -0.027524 0.835202
0.319496 -0.0260333 0.83689
0.319839 -0.0245344 0.838468
0.320255 -0.0230364 0.840261
0.321031 -0.0215592 0.843102
0.321798 -0.0200722 0.845919
0.322767 -0.0185892 0.849331
0.323799 -0.0170988 0.85293
0.324848 -0.0155974 0.856582
0.325454 -0.014063 0.858944
0.325927 -0.0125156 0.86092
0.326198 -0.0109543 0.862312
0.327851 -0.00922277 0.862929
0.326224 -0.00938093 0.862988
0.327611 -0.00764015 0.862828
0.326045 -0.00780021 0.863062
0.327352 -0.00605821 0.862671
0.3258 -0.00621839 0.862945
0.327246 -0.00448027 0.86296
0.325654 -0.00463959 0.863119
0.327145 -0.00290178 0.863262
0.325487 -0.00306035 0.863227
0.327469 -0.00132629 0.864804
0.325257 -0.00148121 0.863153
0.32782 0.000253863 0.86643
0.325011 9.7091e-05 0.863032
0.328143 0.00183877 0.867972
0.324719 0.00167439 0.862773
0.328348 0.00342726 0.869177
0.324372 0.00324935 0.862354
0.325279 -0.0937154 0.828124
0.324843 -0.0957108 0.830871
0.324692 -0.0941619 0.831015
0.324438 -0.0925825 0.830869
0.323994 -0.0909481 0.830181
0.323537 -0.089313 0.829456
0.322896 -0.0876284 0.828205
0.322159 -0.0859223 0.826685
0.321341 -0.0841993 0.824926
0.320429 -0.0824577 0.822899
0.319604 -0.0807465 0.821115
0.318849 -0.0790604 0.819529
0.318072 -0.0773748 0.817878
0.317336 -0.0757057 0.816342
0.316757 -0.0740813 0.815253
0.316243 -0.072477 0.814349
0.31597 -0.0709333 0.814131
0.316035 -0.0694695 0.814881
0.316199 -0.0680261 0.815915
0.316496 -0.0666099 0.817336
0.316891 -0.0652106 0.819037
0.317261 -0.0638006 0.820666
0.317531 -0.0623649 0.822009
0.31769 -0.0609033 0.823039
0.317716 -0.0594121 0.823684
0.31771 -0.0579136 0.824239
0.317681 -0.0564093 0.824728
0.317624 -0.0548988 0.825135
0.317554 -0.0533855 0.825508
0.317448 -0.0518652 0.825774
0.317314 -0.0503401 0.825961
0.317189 -0.0488163 0.826173
0.31707 -0.0472935 0.826404
0.316914 -0.0457652 0.82653
0.31678 -0.0442398 0.826713
0.316579 -0.0427052 0.826705
0.316502 -0.0411885 0.827058
0.316469 -0.039677 0.827538
0.316508 -0.0381738 0.828226
0.316636 -0.0366801 0.829176
0.316826 -0.0351911 0.830305
0.316967 -0.0336933 0.831292
0.317165 -0.0321991 0.83245
0.317397 -0.030705 0.833703
0.317628 -0.0292074 0.834959
0.317897 -0.0277093 0.836323
0.318139 -0.0262052 0.837611
0.318374 -0.0246967 0.838881
0.318755 -0.0231962 0.840583
0.319477 -0.0217154 0.843277
0.320284 -0.0202321 0.846226
0.321335 -0.0187549 0.849896
0.322364 -0.0172645 0.853503
0.323273 -0.015756 0.856763
0.323828 -0.0142197 0.858989
0.324211 -0.0126692 0.860713
0.324426 -0.0111066 0.861943
0.324463 -0.00953463 0.862652
0.324329 -0.00795619 0.862862
0.324154 -0.0063765 0.862945
0.324008 -0.00479786 0.863117
0.323808 -0.00321866 0.863128
0.323544 -0.00163962 0.862953
0.323264 -6.17858e-05 0.862731
0.322909 0.00151453 0.862284
0.322593 0.00308886 0.86195
0.324577 0.00482931 0.863556
0.322293 0.00466146 0.861666
0.325783 0.00642996 0.867709
0.322934 0.00624846 0.864163
0.327095 0.00804719 0.872176
0.323672 0.0078454 0.866954
0.324136 -0.0961284 0.833446
0.323758 -0.0945062 0.832948
0.323319 -0.0928675 0.832271
0.322843 -0.0912208 0.831488
0.322333 -0.089568 0.830609
0.321708 -0.0878853 0.829397
0.320977 -0.0861778 0.827883
0.320205 -0.0844645 0.826246
0.319397 -0.0827474 0.824502
0.318698 -0.0810667 0.823074
0.317929 -0.0793728 0.82144
0.317067 -0.0776613 0.819538
0.31626 -0.0759705 0.817788
0.315576 -0.0743169 0.81639
0.314965 -0.0726868 0.815202
0.314663 -0.0711349 0.8149
0.314844 -0.0696974 0.815987
0.315104 -0.0682753 0.817306
0.31553 -0.0668862 0.819103
0.315997 -0.0655007 0.821021
0.316367 -0.0640886 0.822659
0.31657 -0.0626366 0.823818
0.316656 -0.0611575 0.82464
0.31659 -0.0596462 0.825025
0.316495 -0.0581282 0.825323
0.316431 -0.056616 0.825712
0.316334 -0.0550969 0.826006
0.316233 -0.0535767 0.826288
0.316095 -0.0520501 0.826465
0.315897 -0.0505131 0.826465
0.315725 -0.0489811 0.826542
0.315587 -0.047455 0.826716
0.315425 -0.045925 0.82682
0.315262 -0.0443957 0.826925
0.315095 -0.0428657 0.827015
0.315018 -0.0413489 0.827368
0.314957 -0.0398335 0.827767
0.315027 -0.0383347 0.828551
0.315229 -0.03685 0.829719
0.315525 -0.0353734 0.831162
0.315771 -0.033887 0.832464
0.316038 -0.0323988 0.833825
0.316235 -0.0308995 0.834986
0.316393 -0.0293929 0.836032
0.316524 -0.0278809 0.837
0.316623 -0.0263633 0.837874
0.316752 -0.0248461 0.838839
0.317104 -0.0233439 0.840459
0.317797 -0.0218624 0.843086
0.318671 -0.0203852 0.846245
0.319708 -0.0189084 0.849891
0.320763 -0.0174207 0.85359
0.321594 -0.0159089 0.856637
0.322106 -0.0143717 0.858749
0.322413 -0.0128186 0.860254
0.322622 -0.0112574 0.861473
0.322633 -0.00968577 0.862109
0.322542 -0.00810968 0.862442
0.322401 -0.00653185 0.862626
0.322259 -0.00495431 0.86281
0.322091 -0.00337641 0.862918
0.321833 -0.00179784 0.862754
0.321588 -0.000220666 0.86263
0.321268 0.00135532 0.862285
0.321015 0.00292959 0.862139
0.320788 0.00450333 0.862068
0.32092 0.00608183 0.863065
0.321078 0.00766378 0.864137
0.325166 0.00947212 0.871985
0.321875 0.00926543 0.86712
0.3234 -0.0980495 0.835385
0.323117 -0.0964517 0.835153
0.322756 -0.0948314 0.834699
0.322246 -0.0931679 0.833816
0.32173 -0.0915066 0.832915
0.321126 -0.0898227 0.831758
0.32046 -0.0881259 0.830423
0.319735 -0.0864173 0.828916
0.319024 -0.0847187 0.827449
0.318294 -0.08302 0.82592
0.317693 -0.0813625 0.824767
0.316998 -0.0796844 0.823337
0.316081 -0.0779543 0.821265
0.315209 -0.0762431 0.819319
0.314416 -0.0745591 0.817599
0.313732 -0.0729087 0.816196
0.313458 -0.0713616 0.81597
0.31371 -0.0699401 0.817271
0.314102 -0.0685469 0.818976
0.314656 -0.0671851 0.821153
0.315157 -0.0658049 0.82318
0.315467 -0.0643772 0.824654
0.315653 -0.0629192 0.82577
0.31567 -0.0614231 0.826395
0.315536 -0.0598956 0.826585
0.315407 -0.0583687 0.826785
0.315309 -0.056848 0.827079
0.31515 -0.0553155 0.827194
0.314988 -0.0537824 0.827297
0.314792 -0.052244 0.827303
0.314532 -0.0506953 0.827124
0.314297 -0.049152 0.827016
0.314118 -0.0476187 0.82707
0.313922 -0.0460833 0.827077
0.313731 -0.0445494 0.827098
0.31354 -0.0430159 0.827116
0.313462 -0.0414991 0.827468
0.3134 -0.0399838 0.827865
0.313534 -0.0384937 0.828839
0.313831 -0.0370214 0.830292
0.31426 -0.0355607 0.832134
0.314604 -0.0340844 0.833727
0.314932 -0.0326017 0.835276
0.315093 -0.0310967 0.836335
0.315152 -0.0295784 0.837093
0.315145 -0.0280519 0.83766
0.315108 -0.0265217 0.838142
0.315138 -0.0249958 0.838815
0.315513 -0.0234964 0.840514
0.316146 -0.0220113 0.842974
0.317012 -0.0205348 0.846125
0.318037 -0.0190586 0.849751
0.31911 -0.0175737 0.853526
0.319826 -0.0160568 0.856247
0.320336 -0.0145208 0.85836
0.320601 -0.0129674 0.859749
0.320763 -0.0114056 0.860834
0.320739 -0.0098341 0.861365
0.320678 -0.00826077 0.86179
0.320575 -0.0066854 0.862087
0.320465 -0.00510959 0.862364
0.320365 -0.00353361 0.862671
0.320144 -0.0019561 0.862618
0.319969 -0.000379721 0.862701
0.319718 0.001196 0.86256
0.319505 0.00277102 0.862527
0.319341 0.00434569 0.862647
0.319508 0.0059253 0.863754
0.31967 0.00750805 0.864842
0.31986 0.00909428 0.86602
0.322607 0.0108752 0.869909
0.319964 0.0106815 0.866941
0.323265 0.0124907 0.872483
0.319952 0.0122666 0.867514
0.32386 0.0141118 0.87487
0.31977 0.013846 0.867579
0.322578 -0.0984409 0.837675
0.322252 -0.0968258 0.83732
0.32186 -0.095192 0.836774
0.321205 -0.0934803 0.835469
0.320587 -0.0917851 0.83427
0.319879 -0.0900677 0.832808
0.319177 -0.0883577 0.83136
0.318458 -0.0866483 0.829861
0.317789 -0.0849589 0.828505
0.317123 -0.0832753 0.827154
0.316617 -0.0816412 0.82627
0.316015 -0.0799845 0.825102
0.31505 -0.0782375 0.822879
0.314167 -0.0765202 0.820895
0.313297 -0.0748133 0.818942
0.312519 -0.0731363 0.817255
0.312163 -0.0715679 0.81679
0.312457 -0.0701557 0.818217
0.31286 -0.0687647 0.819965
0.313482 -0.067418 0.822351
0.314012 -0.0660437 0.824473
0.314317 -0.0646135 0.825936
0.314493 -0.0631521 0.827032
0.314498 -0.0616517 0.827622
0.314328 -0.0601153 0.827708
0.314197 -0.0585863 0.827903
0.314097 -0.0570634 0.82819
0.313907 -0.0555235 0.828215
0.313709 -0.0539829 0.828217
0.313479 -0.052437 0.828123
0.313161 -0.0508769 0.827769
0.312868 -0.049323 0.827491
0.312661 -0.0477847 0.827464
0.312467 -0.0462494 0.827477
0.312284 -0.0447158 0.827516
0.312122 -0.0431864 0.827622
0.312041 -0.0416686 0.827965
0.312 -0.0401558 0.828426
0.312164 -0.038669 0.829489
0.312496 -0.0372007 0.831051
0.312964 -0.0357447 0.833021
0.313335 -0.0342708 0.8347
0.313689 -0.0327903 0.836336
0.313813 -0.03128 0.837291
0.313807 -0.0297542 0.837863
0.313704 -0.0282175 0.838148
0.313598 -0.0266801 0.838421
0.313556 -0.0251483 0.838888
0.313897 -0.0236468 0.84049
0.314436 -0.0221555 0.842683
0.315285 -0.0206795 0.845801
0.316297 -0.0192043 0.849407
0.317336 -0.0177193 0.853098
0.318057 -0.0162045 0.855849
0.318627 -0.014673 0.85815
0.318862 -0.013119 0.859453
0.319011 -0.0115577 0.860504
0.318976 -0.00998702 0.861006
0.318879 -0.00841322 0.861321
0.318778 -0.00683913 0.861624
0.318701 -0.00526516 0.862002
0.318603 -0.00369019 0.862316
0.318418 -0.00211401 0.862366
0.318316 -0.000538741 0.86267
0.318139 0.00103679 0.862746
0.317996 0.00261217 0.862926
0.317896 0.00418783 0.863234
0.318094 0.00576868 0.864437
0.318248 0.00735187 0.86551
0.318435 0.00893901 0.866687
0.318539 0.0105267 0.867611
0.31853 0.0121136 0.868196
0.318355 0.0136941 0.868281
0.322088 -0.0989429 0.84095
0.321482 -0.097233 0.839782
0.320893 -0.0955333 0.838664
0.320127 -0.0937831 0.837028
0.319408 -0.092054 0.835529
0.318657 -0.0903208 0.833935
0.317899 -0.0885918 0.832317
0.317206 -0.0868878 0.830888
0.31655 -0.0851994 0.829561
0.315945 -0.0835306 0.828382
0.315474 -0.081903 0.827591
0.314935 -0.0802604 0.8266
0.313914 -0.0784952 0.824204
0.313003 -0.0767671 0.822125
0.312066 -0.07504 0.819966
0.311221 -0.0733438 0.818073
0.310808 -0.07176 0.817439
0.311133 -0.0703552 0.818964
0.311573 -0.0689727 0.820828
0.312217 -0.0676313 0.823291
0.312747 -0.0662567 0.825425
0.313075 -0.0648312 0.826966
0.313221 -0.0633621 0.827974
0.313199 -0.0618554 0.828493
0.313002 -0.0603117 0.828495
0.3129 -0.0587878 0.828778
0.312803 -0.0572645 0.829075
0.312614 -0.0557236 0.829103
0.312411 -0.0541804 0.829088
0.312197 -0.0526361 0.829039
0.311845 -0.0510688 0.828587
0.311528 -0.0495092 0.828231
0.311329 -0.0479712 0.828226
0.311136 -0.0464349 0.828241
0.310923 -0.0448959 0.828193
0.310761 -0.0433653 0.828296
0.310708 -0.0418508 0.828725
0.310664 -0.0403368 0.82918
0.310855 -0.0388529 0.830326
0.311215 -0.0373879 0.831983
0.311682 -0.0359308 0.833956
0.312023 -0.034453 0.835559
0.312369 -0.0329706 0.837174
0.312429 -0.0314529 0.837947
0.312364 -0.0299201 0.838343
0.312226 -0.0283794 0.838522
0.312086 -0.0268387 0.838697
0.312011 -0.0253039 0.839066
0.312288 -0.0237974 0.840484
0.312754 -0.0223014 0.84247
0.3135 -0.0208195 0.845296
0.314407 -0.0193396 0.848605
0.315403 -0.0178544 0.852184
0.316156 -0.0163439 0.855043
0.316761 -0.0148167 0.857463
0.317031 -0.0132659 0.858874
0.317205 -0.0117073 0.860005
0.317164 -0.0101376 0.860488
0.317065 -0.00856506 0.8608
0.316966 -0.00699224 0.861109
0.316922 -0.00542009 0.861586
0.316884 -0.00384728 0.86208
0.316731 -0.00227216 0.86223
0.316697 -0.000697833 0.862737
0.316593 0.000877532 0.863035
0.316524 0.00245352 0.863435
0.316425 0.00402979 0.863748
0.316614 0.00561083 0.864929
0.31673 0.00719356 0.865896
0.316882 0.00877971 0.866967
0.316984 0.0103676 0.867888
0.317006 0.0119555 0.868571
0.319173 0.013633 0.875762
0.321239 -0.0993324 0.84321
0.320561 -0.097595 0.841828
0.319918 -0.0958743 0.840547
0.319041 -0.0940858 0.83858
0.318222 -0.0923226 0.836783
0.317375 -0.0905575 0.834898
0.316642 -0.0888334 0.833347
0.315955 -0.0871283 0.831924
0.315305 -0.0854394 0.830609
0.314736 -0.0837779 0.829525
0.314293 -0.082156 0.828814
0.313728 -0.0805038 0.82774
0.312741 -0.0787444 0.825432
0.311864 -0.0770217 0.82344
0.3109 -0.0752845 0.82119
0.310024 -0.0735777 0.819198
0.309539 -0.0719739 0.818347
0.30979 -0.0705509 0.819662
0.310158 -0.0691517 0.821324
0.310801 -0.0678108 0.823797
0.311326 -0.0664353 0.825923
0.311686 -0.0650173 0.827569
0.311868 -0.0635557 0.828688
0.311884 -0.0620562 0.829319
0.311723 -0.0605188 0.829428
0.311657 -0.0590007 0.829818
0.311593 -0.0574823 0.830214
0.311381 -0.0559351 0.83017
0.311143 -0.0543844 0.830056
0.310895 -0.0528323 0.829904
0.310538 -0.0512625 0.829432
0.310221 -0.0497017 0.829076
0.310051 -0.0481672 0.829157
0.309886 -0.046634 0.829253
0.309699 -0.0450976 0.829283
0.309538 -0.0435655 0.82939
0.309488 -0.0420499 0.829828
0.309423 -0.0405314 0.83022
0.309578 -0.0390419 0.831271
0.309907 -0.0375718 0.832837
0.310305 -0.0361058 0.834616
0.310581 -0.0346198 0.836032
0.310888 -0.0331333 0.837542
0.310917 -0.0316119 0.83822
0.310849 -0.0300788 0.838611
0.310712 -0.0285383 0.838796
0.310574 -0.0269975 0.838974
0.310499 -0.0254623 0.839342
0.31071 -0.0239508 0.840574
0.31108 -0.0224478 0.842278
0.311743 -0.0209615 0.844869
0.31254 -0.0194759 0.847865
0.313465 -0.0179888 0.851246
0.314237 -0.016482 0.854177
0.314877 -0.014959 0.85671
0.315187 -0.0134121 0.858252
0.315429 -0.011858 0.859591
0.315418 -0.0102903 0.860165
0.315354 -0.00872 0.860585
0.315289 -0.00714869 0.860997
0.315282 -0.00557788 0.861584
0.315273 -0.00400592 0.862171
0.31515 -0.00243126 0.862409
0.315144 -0.000857214 0.863005
0.31508 0.000718308 0.863421
0.315048 0.00229471 0.863938
0.314957 0.00387155 0.864273
0.315108 0.00545247 0.865349
0.315182 0.00703485 0.866186
0.315294 0.00862073 0.867145
0.315366 0.0102077 0.867976
0.317803 0.0118804 0.876024
0.320711 -0.101354 0.84584
0.320162 -0.099651 0.844829
0.319414 -0.0978873 0.843233
0.31869 -0.0961375 0.841707
0.317784 -0.0943373 0.839649
0.316996 -0.0925802 0.837928
0.316094 -0.0907955 0.835873
0.31536 -0.0890682 0.834306
0.314705 -0.0873703 0.832972
0.314025 -0.0856703 0.831562
0.313463 -0.0840088 0.830494
0.313021 -0.0823849 0.829778
0.312481 -0.0807379 0.828777
0.311614 -0.0790071 0.826805
0.310838 -0.0773075 0.8251
0.309923 -0.0755789 0.822985
0.309074 -0.0738748 0.82106
0.308483 -0.0722414 0.819893
0.308535 -0.0707684 0.820625
0.308764 -0.0693359 0.821886
0.309315 -0.0679742 0.824097
0.309785 -0.0665873 0.826072
0.310148 -0.0651706 0.827731
0.310388 -0.0637223 0.829029
0.31047 -0.0622367 0.82986
0.310379 -0.0607132 0.830177
0.310349 -0.0592013 0.830673
0.310342 -0.0576934 0.831242
0.310102 -0.0561394 0.831117
0.309841 -0.0545823 0.830927
0.309565 -0.053024 0.830692
0.309235 -0.0514578 0.830298
0.308947 -0.0499007 0.830027
0.308806 -0.0483696 0.830196
0.308672 -0.0468395 0.83038
0.308539 -0.0453101 0.830575
0.308408 -0.0437808 0.830773
0.308338 -0.04226 0.831149
0.308274 -0.04074 0.831551
0.30837 -0.0392407 0.832425
0.308624 -0.0377599 0.83378
0.308894 -0.0362771 0.835181
0.3091 -0.0347825 0.836392
0.309341 -0.0332883 0.83771
0.309365 -0.0317667 0.838379
0.309298 -0.0302338 0.838772
0.309197 -0.0286968 0.839064
0.309063 -0.0271561 0.839254
0.30899 -0.0256212 0.839632
0.309137 -0.0241042 0.84067
0.309404 -0.0225939 0.842076
0.309933 -0.0210988 0.844272
0.310582 -0.0196053 0.846839
0.311401 -0.0181144 0.849918
0.312209 -0.016613 0.852966
0.312988 -0.0151005 0.855937
0.313453 -0.0135632 0.857953
0.313706 -0.0120105 0.859331
0.313722 -0.0104449 0.859989
0.313677 -0.00887566 0.860466
0.31368 -0.00730681 0.861087
0.31374 -0.00573793 0.861884
0.313768 -0.00416631 0.862581
0.313675 -0.00259163 0.862911
0.313699 -0.00101731 0.863598
0.31363 0.000558855 0.864005
0.313571 0.00213574 0.864438
0.313478 0.00371312 0.86477
0.313594 0.00529398 0.865739
0.31363 0.00687579 0.86647
0.313708 0.00846077 0.867324
0.313776 0.0100469 0.868152
0.319005 -0.0999452 0.846228
0.318109 -0.0981303 0.844189
0.317296 -0.0963496 0.842392
0.316364 -0.0945386 0.840245
0.315591 -0.0927837 0.838555
0.314778 -0.091024 0.836753
0.314074 -0.0893035 0.835268
0.313453 -0.0876129 0.834024
0.312806 -0.0859199 0.832702
0.312272 -0.0842643 0.831715
0.311829 -0.0826376 0.830991
0.311289 -0.0809877 0.829981
0.310545 -0.079287 0.828363
0.309851 -0.0776057 0.826893
0.309021 -0.0758947 0.825017
0.308181 -0.0741884 0.823109
0.307453 -0.072517 0.821529
0.30727 -0.0709846 0.821569
0.307246 -0.0694909 0.822082
0.30758 -0.0680795 0.823658
0.307956 -0.0666733 0.825363
0.308344 -0.0652644 0.827104
0.308617 -0.0638255 0.828507
0.308791 -0.0623611 0.829615
0.308798 -0.0608585 0.830222
0.308798 -0.0593536 0.830813
0.308821 -0.0578514 0.831469
0.308603 -0.0563015 0.83141
0.308373 -0.05475 0.831311
0.30813 -0.0531972 0.831174
0.307837 -0.0516366 0.830886
0.30761 -0.0500892 0.830797
0.307508 -0.0485635 0.83108
0.307439 -0.0470429 0.831464
0.307344 -0.0455176 0.831769
0.307301 -0.044 0.832231
0.307261 -0.042482 0.832704
0.307225 -0.0409634 0.833188
0.307255 -0.0394531 0.833875
0.307433 -0.0379606 0.835004
0.307539 -0.0364557 0.835921
0.307614 -0.0349444 0.836739
0.307729 -0.0334361 0.837685
0.307722 -0.0319113 0.838261
0.30766 -0.0303794 0.838669
0.307596 -0.0288467 0.839072
0.307496 -0.0273098 0.839369
0.307479 -0.0257801 0.839915
0.307563 -0.0242578 0.840771
0.307759 -0.0227424 0.841966
0.308179 -0.0212401 0.843839
0.308658 -0.0197364 0.845899
0.309295 -0.0182365 0.848442
0.310098 -0.0167385 0.85149
0.311006 -0.0152363 0.854864
0.311677 -0.0137118 0.857519
0.311992 -0.0121633 0.859094
0.312055 -0.0106003 0.8599
0.312085 -0.00903415 0.860604
0.312159 -0.00746747 0.861444
0.312278 -0.00589973 0.862424
0.312346 -0.0043282 0.863248
0.312331 -0.00275368 0.863817
0.312354 -0.00117823 0.864505
0.312282 0.000399067 0.864903
0.312245 0.00197728 0.865405
0.312116 0.00355568 0.865629
0.312137 0.00513619 0.866311
0.312138 0.00671791 0.866935
0.312177 0.00830206 0.867677
0.312188 0.0098876 0.868332
0.315659 -0.0964839 0.84236
0.314835 -0.0947058 0.84052
0.314147 -0.0929761 0.839074
0.313453 -0.0912508 0.837614
0.31282 -0.0895493 0.83633
0.312259 -0.0878738 0.835256
0.311646 -0.086188 0.83403
0.311116 -0.0845307 0.833047
0.310644 -0.0828936 0.832235
0.310071 -0.0812321 0.831122
0.309419 -0.0795532 0.829767
0.308806 -0.0778905 0.828531
0.308063 -0.0761983 0.826903
0.307261 -0.0744975 0.825099
0.306493 -0.0728121 0.823393
0.306055 -0.0712138 0.822668
0.305821 -0.0696681 0.822554
0.305928 -0.0682037 0.82346
0.306171 -0.0667685 0.824777
0.306521 -0.0653533 0.826412
0.306853 -0.063929 0.827993
0.307064 -0.0624745 0.829219
0.307168 -0.0609938 0.830122
0.307199 -0.0594957 0.830806
0.307245 -0.0579989 0.831537
0.307051 -0.0564535 0.831544
0.306854 -0.0549083 0.831547
0.306677 -0.0533674 0.831604
0.306451 -0.0518183 0.831518
0.30632 -0.0502863 0.831712
0.306286 -0.0487712 0.832205
0.306291 -0.0472613 0.832814
0.306237 -0.0457405 0.833244
0.306255 -0.0442303 0.833896
0.306215 -0.0427096 0.834367
0.306148 -0.0411844 0.834763
0.306111 -0.0396626 0.835247
0.306192 -0.0381554 0.836089
0.306161 -0.0366317 0.836592
0.306101 -0.0351035 0.837009
0.306115 -0.033583 0.837647
0.306077 -0.0320554 0.838132
0.30602 -0.0305247 0.838557
0.305991 -0.0289959 0.839067
0.305923 -0.0274627 0.839464
0.305906 -0.0259331 0.840009
0.305957 -0.0244084 0.840766
0.306088 -0.0228881 0.841768
0.306376 -0.0213772 0.843252
0.306684 -0.0198633 0.844798
0.307156 -0.0183555 0.846847
0.310315 -0.0123175 0.858964
0.310398 -0.0107559 0.859834
0.310481 -0.00919208 0.860705
0.310621 -0.00762767 0.861753
0.310767 -0.00606048 0.862821
0.31097 -0.00449139 0.864063
0.311048 -0.002917 0.864923
0.311093 -0.00134016 0.865683
0.31102 0.000238907 0.866074
0.310961 0.00181872 0.866512
0.310762 0.00339797 0.86652
0.310686 0.00497837 0.866908
0.310652 0.00656006 0.867427
0.31066 0.00814373 0.868074
0.310633 0.00972788 0.868614
0.313213 -0.0948435 0.84052
0.312669 -0.0931586 0.839499
0.312065 -0.091459 0.838294
0.311499 -0.0897761 0.837204
0.310948 -0.0881016 0.836154
0.310372 -0.0864244 0.835029
0.309818 -0.0847576 0.833967
0.309377 -0.0831276 0.833244
0.308859 -0.0814788 0.832285
0.308352 -0.0798374 0.831363
0.307866 -0.0782051 0.830498
0.307202 -0.0765297 0.8291
0.306404 -0.0748252 0.827297
0.305569 -0.0731181 0.82538
0.304907 -0.0714611 0.823982
0.304423 -0.0698525 0.823114
0.304348 -0.0683449 0.823478
0.30445 -0.0668775 0.824373
0.304706 -0.0654427 0.825732
0.305045 -0.0640226 0.827346
0.305324 -0.0625844 0.828777
0.305519 -0.0611244 0.829956
0.305583 -0.0596342 0.830746
0.305629 -0.0581381 0.83148
0.305493 -0.0566044 0.831662
0.3053 -0.0550597 0.831672
0.305137 -0.0535215 0.831772
0.305004 -0.0519891 0.831967
0.304996 -0.0504783 0.832535
0.305031 -0.048974 0.833238
0.305132 -0.0474789 0.834143
0.30514 -0.0459664 0.834766
0.305195 -0.0444594 0.835528
0.305122 -0.0429316 0.835905
0.305028 -0.0414002 0.836219
0.304929 -0.0398677 0.836517
0.304916 -0.0383462 0.837077
0.304785 -0.0368083 0.837277
0.30465 -0.03527 0.837465
0.304594 -0.0337411 0.837895
0.304522 -0.0322097 0.838277
0.304466 -0.0306792 0.838706
0.304438 -0.0291508 0.839223
0.304371 -0.0276174 0.839618
0.304325 -0.0260856 0.840083
0.304346 -0.0245585 0.840748
0.304416 -0.023034 0.841567
0.304606 -0.0215164 0.842755
0.304786 -0.0199948 0.843914
0.305045 -0.0184753 0.845318
0.3093 -0.00622231 0.863351
0.309687 -0.00465639 0.865171
0.309895 -0.00308236 0.866437
0.310006 -0.0015039 0.867404
0.309897 7.78657e-05 0.867691
0.309785 0.00165992 0.867967
0.309509 0.00324082 0.867736
0.309307 0.00482134 0.867732
0.309176 0.00640238 0.86795
0.309176 0.00798692 0.868574
0.309143 0.00957153 0.869099
0.3115 -0.0949516 0.840244
0.311133 -0.0933226 0.839747
0.310641 -0.0916569 0.838872
0.310116 -0.0899846 0.837896
0.309594 -0.0883174 0.836928
0.309082 -0.0866568 0.835987
0.308535 -0.0849902 0.834942
0.308127 -0.0833673 0.834311
0.307639 -0.081725 0.83344
0.307191 -0.0800974 0.832689
0.306742 -0.0784726 0.831932
0.306114 -0.0768032 0.830631
0.305317 -0.0750955 0.828822
0.304472 -0.0733825 0.826867
0.303688 -0.0716917 0.82509
0.303075 -0.0700494 0.823827
0.302838 -0.0685022 0.823702
0.302811 -0.0670047 0.824208
0.302968 -0.0655488 0.825276
0.303249 -0.0641177 0.826723
0.303534 -0.0626829 0.828178
0.303761 -0.0612316 0.829462
0.30386 -0.0597498 0.830356
0.303908 -0.0582555 0.831099
0.303862 -0.0567406 0.831555
0.303731 -0.0552086 0.831755
0.303635 -0.0536829 0.832058
0.303567 -0.0521621 0.832449
0.30365 -0.0506675 0.833302
0.303715 -0.0491672 0.834096
0.303851 -0.0476771 0.835112
0.303889 -0.0461681 0.835827
0.303967 -0.0446638 0.836667
0.303867 -0.0431303 0.836962
0.303767 -0.0415964 0.837258
0.303639 -0.0400582 0.837465
0.303564 -0.0385275 0.837841
0.303374 -0.0369808 0.837859
0.303202 -0.0354373 0.837936
0.303086 -0.0339007 0.838181
0.302983 -0.0323654 0.838467
0.302895 -0.0308316 0.8388
0.302861 -0.0293029 0.839301
0.302791 -0.0277697 0.83969
0.302744 -0.0262379 0.840151
0.302765 -0.0247112 0.84082
0.302829 -0.0231865 0.841624
0.302929 -0.0216625 0.842541
0.302975 -0.0201322 0.84329
0.302972 -0.0185966 0.843888
0.308868 -0.00166774 0.868987
0.308738 -8.34961e-05 0.86921
0.308576 0.00150057 0.869332
0.308232 0.00308318 0.868885
0.307957 0.00466445 0.868654
0.30776 0.0062456 0.868665
0.310002 0.0078832 0.876306
0.309828 -0.095073 0.840093
0.309529 -0.0934652 0.839792
0.309153 -0.0918351 0.839261
0.308688 -0.0901801 0.838459
0.308196 -0.0885207 0.837577
0.307743 -0.0868763 0.83681
0.307227 -0.0852169 0.835852
0.306857 -0.083603 0.835331
0.306405 -0.0819687 0.834564
0.305967 -0.0803412 0.833835
0.305554 -0.0787239 0.833182
0.304951 -0.0770589 0.831954
0.304126 -0.0753406 0.830049
0.303275 -0.0736226 0.828061
0.302433 -0.0719147 0.826102
0.301711 -0.0702431 0.824498
0.301332 -0.0686604 0.823939
0.301232 -0.0671465 0.82423
0.301327 -0.0656766 0.82511
0.301543 -0.0642321 0.826364
0.301822 -0.0627977 0.827809
0.302098 -0.0613583 0.829247
0.302231 -0.0598848 0.83025
0.302288 -0.058393 0.831022
0.30233 -0.0568964 0.831749
0.302261 -0.0553761 0.832136
0.302201 -0.0538572 0.832553
0.302164 -0.0523415 0.833039
0.302248 -0.0508467 0.833898
0.302312 -0.0493458 0.834693
0.30244 -0.0478542 0.835691
0.302477 -0.0463445 0.836404
0.302552 -0.0448393 0.837239
0.302476 -0.0433091 0.837612
0.302374 -0.041774 0.837899
0.302244 -0.0402349 0.838103
0.302139 -0.0386992 0.838387
0.30195 -0.0371521 0.838408
0.301755 -0.0356048 0.838412
0.301615 -0.034065 0.838585
0.301483 -0.0325261 0.838783
0.301359 -0.030988 0.839006
0.301291 -0.0294556 0.839399
0.301244 -0.0279249 0.839862
0.3012 -0.0263936 0.840332
0.301223 -0.0248672 0.841011
0.30131 -0.0233447 0.841892
0.301404 -0.0218202 0.842791
0.301418 -0.0202875 0.843443
0.301411 -0.0187518 0.844031
0.307693 -0.00183172 0.870467
0.308423 -0.0952803 0.840742
0.308045 -0.093646 0.840199
0.307657 -0.0920115 0.83963
0.307193 -0.0903556 0.838824
0.306675 -0.0886869 0.837855
0.306222 -0.0870417 0.837083
0.305685 -0.0853753 0.836057
0.305346 -0.0837697 0.835625
0.304962 -0.0821538 0.835058
0.304557 -0.0805349 0.83443
0.304202 -0.0789323 0.833951
0.30369 -0.0772895 0.832988
0.302896 -0.0755767 0.831168
0.302052 -0.0738578 0.829193
0.301244 -0.0721551 0.827321
0.300523 -0.0704813 0.825716
0.300064 -0.0688772 0.824909
0.299905 -0.0673475 0.825017
0.29993 -0.0658609 0.82569
0.30005 -0.0643941 0.826651
0.300263 -0.0629458 0.827903
0.300561 -0.0615122 0.829416
0.300723 -0.0600449 0.830509
0.300813 -0.0585602 0.831386
0.300918 -0.0570763 0.832312
0.300881 -0.0555618 0.832799
0.300821 -0.0540421 0.833218
0.300788 -0.0525264 0.833716
0.300835 -0.0510244 0.834466
0.300864 -0.0495171 0.835156
0.300956 -0.048019 0.836046
0.300989 -0.0465088 0.836752
0.301037 -0.0449992 0.837505
0.300964 -0.0434694 0.837888
0.30086 -0.041934 0.838172
0.300728 -0.0403944 0.83837
0.300624 -0.0388587 0.838655
0.300494 -0.0373192 0.83886
0.300364 -0.0357797 0.839062
0.300259 -0.0342432 0.839344
0.300154 -0.0327066 0.839628
0.300025 -0.0311669 0.839836
0.299923 -0.0296299 0.840126
0.299848 -0.0280955 0.840504
0.29978 -0.0265611 0.8409
0.299803 -0.0250342 0.841582
0.299866 -0.0235091 0.84239
0.299928 -0.0219818 0.843194
0.299919 -0.0204473 0.84378
0.29992 -0.0189119 0.844393
0.310597 -0.000257748 0.880204
0.306527 -0.00199644 0.871995
0.312614 0.00134771 0.88717
0.310735 -0.000427943 0.885895
0.307051 -0.0954988 0.841495
0.30657 -0.0938302 0.840638
0.3061 -0.0921685 0.839812
0.305637 -0.0905124 0.839006
0.305092 -0.0888349 0.837951
0.30464 -0.087189 0.837173
0.304105 -0.0855222 0.836143
0.303794 -0.0839252 0.8358
0.303473 -0.0823266 0.835419
0.303132 -0.0807246 0.834981
0.302813 -0.0791309 0.834608
0.302391 -0.0775107 0.833915
0.301697 -0.0758221 0.832391
0.300929 -0.0741196 0.830636
0.300213 -0.0724371 0.829038
0.29952 -0.0707667 0.827511
0.299023 -0.0691496 0.826579
0.298771 -0.0675953 0.826404
0.298676 -0.0660788 0.826709
0.298677 -0.0645839 0.827311
0.298822 -0.06312 0.828357
0.299087 -0.0616794 0.829776
0.299249 -0.0602127 0.830878
0.299375 -0.0587356 0.831871
0.299537 -0.0572628 0.832974
0.29956 -0.0557596 0.833651
0.299499 -0.0542386 0.834066
0.299489 -0.0527263 0.83464
0.299501 -0.0512167 0.835281
0.299464 -0.0496972 0.835774
0.299489 -0.0481872 0.836459
0.299492 -0.0466718 0.837075
0.299487 -0.0451539 0.837667
0.299419 -0.0436245 0.838062
0.299316 -0.0420896 0.838353
0.299184 -0.04055 0.838551
0.29911 -0.0390185 0.838929
0.29904 -0.037487 0.839322
0.298974 -0.0359551 0.839724
0.298904 -0.0344224 0.840119
0.298829 -0.0328882 0.840496
0.298697 -0.031347 0.840695
0.298565 -0.0298057 0.840893
0.298464 -0.0282677 0.841188
0.298396 -0.0267325 0.841587
0.298421 -0.0252052 0.842279
0.298481 -0.0236791 0.843081
0.298543 -0.0221511 0.84389
0.298538 -0.0206161 0.844489
0.29854 -0.01908 0.845111
0.313011 -0.105151 0.856541
0.311311 -0.105271 0.856387
0.310454 -0.103435 0.854392
0.3058 -0.0957586 0.842629
0.305161 -0.0940358 0.841279
0.304571 -0.0923345 0.840082
0.304081 -0.0906692 0.839189
0.303536 -0.0889905 0.838124
0.303055 -0.0873354 0.837253
0.302513 -0.0856659 0.836196
0.302205 -0.0840693 0.835856
0.301886 -0.0824711 0.835479
0.301583 -0.08088 0.835156
0.301301 -0.0792958 0.834891
0.300973 -0.0777011 0.834487
0.300411 -0.0760456 0.833359
0.299752 -0.0743693 0.831931
0.299109 -0.0727025 0.830548
0.2985 -0.0710493 0.829267
0.297936 -0.0694129 0.828129
0.297588 -0.0678327 0.827652
0.29742 -0.0662972 0.827732
0.297357 -0.0647865 0.828139
0.297442 -0.0633086 0.829007
0.297705 -0.0618674 0.830427
0.297895 -0.0604063 0.831619
0.298053 -0.0589353 0.832717
0.29822 -0.0574631 0.833843
0.29827 -0.0559641 0.834603
0.298206 -0.0544414 0.835012
0.298166 -0.0529226 0.835496
0.298119 -0.0514011 0.835956
0.298046 -0.0498746 0.836339
0.298008 -0.0483532 0.836829
0.298002 -0.0468362 0.837421
0.297972 -0.0453139 0.837936
0.297904 -0.0437849 0.838336
0.297802 -0.0422498 0.838627
0.297695 -0.0407137 0.838905
0.297626 -0.0391826 0.839298
0.297592 -0.0376556 0.839803
0.297562 -0.0361282 0.840325
0.297525 -0.0345988 0.840822
0.297453 -0.0330642 0.841209
0.297349 -0.0315252 0.841494
0.297246 -0.029986 0.841786
0.297174 -0.0284498 0.842174
0.297104 -0.0269131 0.842569
0.297122 -0.0253837 0.843238
0.297176 -0.0238562 0.844028
0.297239 -0.0223273 0.844846
0.297221 -0.0207901 0.845408
0.29725 -0.0192548 0.846115
0.309621 -0.105395 0.856261
0.308788 -0.103566 0.854327
0.308152 -0.101812 0.852994
0.307944 -0.0995131 0.847958
0.306676 -0.0997757 0.849077
0.305483 -0.0978493 0.846028
0.304572 -0.0960268 0.843838
0.303809 -0.0942613 0.842104
0.303076 -0.0925114 0.840455
0.3025 -0.0908181 0.839293
0.301893 -0.0891192 0.83803
0.301348 -0.0874445 0.836958
