ply
format ascii 1.0
element vertex 1705
property float x
property float y
property float z
end_header
0.232824 0.0326223 0.927699
0.232072 0.0312447 0.928182
0.231325 0.0298669 0.928681
0.230515 0.0284813 0.928929
0.229774 0.0271034 0.929453
0.228879 0.0257088 0.929362
0.227939 0.0243113 0.92909
0.226994 0.0229146 0.928791
0.226234 0.0215362 0.929238
0.225785 0.0201829 0.930952
0.225596 0.0188463 0.933742
0.225514 0.0175099 0.936988
0.249735 0.0617649 0.913633
0.248954 0.060393 0.913972
0.248225 0.0590328 0.914499
0.247519 0.0576777 0.915113
0.246637 0.0562828 0.91508
0.245768 0.0548918 0.915095
0.244858 0.0534932 0.914954
0.243826 0.0520706 0.91436
0.242721 0.0506357 0.913484
0.241758 0.0492312 0.91313
0.240725 0.0478158 0.912512
0.239676 0.0463995 0.911826
0.238801 0.0450178 0.911791
0.238109 0.0436682 0.912447
0.237542 0.0423397 0.913585
0.237168 0.0410397 0.915459
0.236846 0.0397446 0.917548
0.236587 0.038455 0.919898
0.236231 0.0371448 0.92188
0.235795 0.0358185 0.923566
0.235326 0.0344836 0.925131
0.23472 0.0331275 0.926174
0.234056 0.0317621 0.926996
0.233335 0.0303879 0.927594
0.232665 0.0290196 0.928401
0.231935 0.0276427 0.928968
0.231254 0.0262702 0.929732
0.230416 0.0248809 0.929875
0.229608 0.0234947 0.930136
0.228776 0.0221064 0.930299
0.228154 0.0207368 0.931311
0.227813 0.0193867 0.933461
0.227693 0.0180486 0.936531
0.227612 0.0167048 0.939776
0.250558 0.0631468 0.913448
0.252342 0.0636072 0.911635
0.251456 0.062211 0.911589
0.250499 0.0608001 0.91129
0.249567 0.059396 0.911074
0.248742 0.0580168 0.911242
0.247983 0.056653 0.911651
0.247109 0.0552639 0.91164
0.246248 0.0538791 0.911678
0.245342 0.0524854 0.911547
0.244336 0.0510726 0.91104
0.243231 0.049643 0.910163
0.242271 0.0482438 0.909816
0.241289 0.0468419 0.909379
0.240268 0.0454354 0.908796
0.239426 0.0440632 0.90888
0.238746 0.0427187 0.909573
0.238191 0.0413935 0.910738
0.23787 0.040104 0.912801
0.237655 0.0388262 0.915278
0.237485 0.0375501 0.91795
0.237236 0.0362555 0.920332
0.236877 0.0349394 0.9223
0.236431 0.0336082 0.923949
0.235827 0.0322519 0.924992
0.235168 0.0308872 0.925826
0.2345 0.0295201 0.926628
0.233915 0.028161 0.927761
0.233291 0.0267955 0.928745
0.232718 0.0254336 0.929936
0.23201 0.0240555 0.930596
0.231339 0.0226803 0.931408
0.230624 0.0213001 0.93205
0.230097 0.0199339 0.933445
0.229807 0.0185825 0.935802
0.229729 0.0172398 0.939032
0.229578 0.0158849 0.94199
0.25323 0.0626698 0.909755
0.25225 0.0612542 0.909372
0.251178 0.0598198 0.908658
0.250112 0.0583887 0.907955
0.249149 0.0569834 0.90762
0.248313 0.0556067 0.907738
0.247465 0.0542281 0.907812
0.24663 0.0528526 0.907932
0.24575 0.051469 0.907887
0.24479 0.0500704 0.907545
0.243714 0.048651 0.906771
0.242762 0.0472583 0.906448
0.241837 0.0458719 0.906222
0.240874 0.04448 0.905847
0.240061 0.0431153 0.906031
0.239387 0.0417743 0.906733
0.238834 0.040452 0.907896
0.238571 0.0391728 0.910162
0.238419 0.0379055 0.912863
0.238293 0.0366349 0.915676
0.238102 0.0353485 0.918261
0.237818 0.0340431 0.920504
0.237378 0.0327123 0.92216
0.236804 0.0313616 0.923313
0.236198 0.0300042 0.924346
0.235589 0.0286441 0.925371
0.235061 0.0272917 0.926719
0.23452 0.0259344 0.92802
0.234028 0.0245799 0.929527
0.233428 0.0232117 0.930612
0.232912 0.0218487 0.932037
0.232353 0.0204791 0.933298
0.231939 0.0191181 0.935148
0.23163 0.0177601 0.937427
0.231545 0.0164111 0.940617
0.233099 0.0151523 0.950445
0.25516 0.0631658 0.908487
0.2541 0.0617322 0.907827
0.253043 0.0603014 0.907171
0.251887 0.0588511 0.906154
0.250699 0.0573975 0.905016
0.24966 0.0559792 0.904401
0.248792 0.0545996 0.904397
0.247916 0.0532191 0.904363
0.247056 0.0518432 0.904387
0.246153 0.0504588 0.904247
0.245195 0.0490658 0.903905
0.244124 0.0476527 0.903145
0.243207 0.0462709 0.902942
0.242345 0.0449002 0.902942
0.241441 0.0435223 0.902778
0.240683 0.0421714 0.903163
0.240029 0.0408364 0.903931
0.239446 0.0395112 0.904966
0.239154 0.0382283 0.907103
0.239033 0.0369657 0.909895
0.238927 0.0356991 0.912766
0.238801 0.0344223 0.915573
0.238621 0.0331315 0.918195
0.238228 0.0318078 0.920021
0.237711 0.0304649 0.92138
0.237213 0.0291207 0.922817
0.236687 0.0277711 0.924156
0.236214 0.0264239 0.925709
0.235777 0.0250771 0.927412
0.235366 0.0237288 0.929226
0.234851 0.0223666 0.93064
0.234441 0.0210107 0.932478
0.233985 0.0196467 0.934144
0.233671 0.0182894 0.936383
0.233369 0.0169273 0.938684
0.23324 0.0155701 0.941689
0.255945 0.0622088 0.906278
0.254768 0.060751 0.905201
0.253674 0.0593164 0.904414
0.252445 0.0578543 0.903139
0.251211 0.0563959 0.901837
0.250149 0.0549772 0.901135
0.249282 0.0536017 0.901127
0.24838 0.0522196 0.900989
0.247495 0.0508432 0.900918
0.246574 0.04946 0.900708
0.245647 0.0480766 0.900467
0.24463 0.0466791 0.899904
0.243771 0.0453112 0.899904
0.242992 0.0439588 0.900201
0.242171 0.0425985 0.900342
0.241447 0.0412549 0.90084
0.240793 0.0399219 0.9016
0.240173 0.0385926 0.902489
0.23982 0.0373015 0.90438
0.239669 0.0360352 0.907043
0.239569 0.0347694 0.909909
0.23945 0.0334935 0.912721
0.239325 0.0322109 0.915533
0.23899 0.0308954 0.917559
0.238559 0.0295636 0.919233
0.238145 0.0282302 0.920982
0.237703 0.0268905 0.922638
0.237288 0.0255491 0.924402
0.236927 0.0242088 0.926385
0.236572 0.0228646 0.928406
0.236117 0.021507 0.930045
0.235765 0.0201543 0.932104
0.235365 0.0187928 0.933981
0.235078 0.0174349 0.936318
0.234806 0.0160724 0.938731
0.234686 0.014712 0.941755
0.255426 0.0597732 0.902567
0.254281 0.0583315 0.9016
0.253 0.056863 0.90014
0.251753 0.0554066 0.898792
0.250673 0.053989 0.898025
0.249812 0.052618 0.898029
0.248879 0.0512343 0.897777
0.247974 0.0498569 0.89762
0.247056 0.0484786 0.897415
0.246188 0.0471111 0.897386
0.245252 0.0457321 0.89711
0.24447 0.044381 0.897387
0.243772 0.0430444 0.89797
0.243035 0.0417009 0.898418
0.242345 0.0403643 0.899034
0.241672 0.0390292 0.899717
0.240999 0.0376936 0.900401
0.240558 0.03639 0.901952
0.240343 0.0351148 0.904353
0.240206 0.0338437 0.907059
0.240095 0.03257 0.909884
0.240028 0.0312944 0.912887
0.239753 0.0299874 0.915128
0.239403 0.0286658 0.917093
0.239077 0.0273428 0.919164
0.238725 0.0260121 0.921147
0.238369 0.0246764 0.923125
0.238084 0.0233424 0.925389
0.237783 0.0220018 0.927607
0.237384 0.0206479 0.929459
0.237047 0.0192946 0.931562
0.236676 0.0179339 0.93355
0.236367 0.0165722 0.935788
0.23605 0.0152045 0.938007
0.235907 0.0138407 0.940927
0.255997 0.0587811 0.899648
0.254787 0.0573296 0.89845
0.25358 0.0558825 0.897254
0.252376 0.0544404 0.896058
0.251277 0.0530224 0.895219
0.25039 0.0516503 0.89513
0.24945 0.0502688 0.894848
0.24854 0.048894 0.894666
0.247626 0.0475206 0.89447
0.246792 0.0461628 0.894561
0.245916 0.0447971 0.894492
0.245194 0.0434593 0.894979
0.244528 0.0421303 0.895674
0.243847 0.0407976 0.896313
0.243214 0.039472 0.897135
0.242598 0.0381466 0.898018
0.241953 0.036816 0.8988
0.241484 0.0355088 0.900238
0.241211 0.034225 0.902408
0.241015 0.0329458 0.904877
0.240874 0.0316675 0.907569
0.240814 0.0303929 0.910582
0.240574 0.0290897 0.912932
0.240306 0.0277781 0.915195
0.240092 0.0264661 0.917669
0.239802 0.0251412 0.919876
0.239483 0.0238081 0.921984
0.239226 0.0224756 0.924345
0.238926 0.0211342 0.926554
0.238507 0.0197778 0.928319
0.238175 0.0184238 0.930429
0.23781 0.0170619 0.932421
0.237499 0.0156995 0.93464
0.237176 0.0143305 0.936827
0.237006 0.0129638 0.939624
0.255222 0.0563193 0.895085
0.254167 0.0549094 0.894419
0.25305 0.053489 0.893526
0.251974 0.0520804 0.892772
0.251085 0.0507104 0.892668
0.250118 0.049327 0.892286
0.249198 0.0479542 0.892069
0.248261 0.0465795 0.891785
0.247435 0.0452259 0.891894
0.246594 0.0438704 0.891951
0.24593 0.0425443 0.892639
0.245322 0.041226 0.893531
0.244697 0.0399044 0.894372
0.244117 0.0385876 0.895374
0.243554 0.0372712 0.896446
0.242942 0.0359461 0.897343
0.242412 0.0346309 0.898546
0.242089 0.0333397 0.900517
0.241862 0.0320558 0.902854
0.241693 0.0307743 0.905426
0.241642 0.0294995 0.908446
0.241507 0.0282079 0.911173
0.241347 0.0269069 0.913823
0.241211 0.0256026 0.916586
0.240984 0.0242818 0.919013
0.240721 0.0229524 0.921322
0.240468 0.0216184 0.923684
0.240166 0.0202745 0.925873
0.239745 0.0189167 0.927621
0.239412 0.0175613 0.929719
0.239045 0.016198 0.931696
0.238706 0.0148318 0.93379
0.238327 0.0134589 0.935747
0.238075 0.0120866 0.938209
0.254731 0.0539365 0.891525
0.253717 0.0525415 0.890992
0.252672 0.0511427 0.890345
0.251733 0.0497664 0.890062
0.250764 0.0483863 0.889671
0.249845 0.0470166 0.88945
0.248911 0.0456458 0.889173
0.248111 0.0442994 0.889369
0.247321 0.0429556 0.889602
0.246687 0.0416361 0.89039
0.246109 0.0403246 0.891385
0.245514 0.0390086 0.89232
0.244961 0.0376972 0.893415
0.244429 0.0363867 0.894588
0.243875 0.0350707 0.89569
0.243401 0.0337628 0.897088
0.243062 0.0324693 0.898989
0.242833 0.0311846 0.901305
0.242662 0.0299015 0.903851
0.242616 0.0286255 0.906871
0.242494 0.0273347 0.909631
0.242442 0.0260438 0.91267
0.242368 0.0247429 0.915642
0.242196 0.023426 0.918264
0.241937 0.0220949 0.920579
0.241681 0.0207592 0.922919
0.24135 0.0194117 0.924987
0.240897 0.0180507 0.926603
0.240516 0.0166902 0.928498
0.240122 0.0153253 0.930364
0.239733 0.0139558 0.932257
0.239298 0.0125799 0.933981
0.238965 0.0112037 0.936113
0.256116 0.054324 0.888526
0.255127 0.0529365 0.888079
0.25431 0.0515846 0.888224
0.253294 0.0501952 0.887673
0.252336 0.0488185 0.887321
0.251396 0.0474474 0.887029
0.250506 0.0460864 0.886906
0.249572 0.0447188 0.886624
0.248774 0.0433757 0.886821
0.248008 0.0420386 0.887135
0.247399 0.040725 0.888
0.246851 0.0394197 0.88909
0.246282 0.0381097 0.890114
0.245762 0.036804 0.891315
0.245257 0.0354979 0.892574
0.244753 0.0341896 0.893848
0.244312 0.0328868 0.895356
0.243976 0.0315935 0.897253
0.243747 0.0303085 0.899556
0.243623 0.0290297 0.902256
0.243585 0.0277539 0.905292
0.243503 0.026465 0.908176
0.243541 0.0251816 0.911531
0.243551 0.023887 0.914802
0.243409 0.0225703 0.917523
0.243151 0.0212383 0.919831
0.242893 0.0198999 0.922148
0.242509 0.0185473 0.924004
0.242026 0.0171836 0.9255
0.241595 0.0158193 0.927196
0.241179 0.0144523 0.928963
0.240741 0.0130807 0.930656
0.240255 0.011702 0.932174
0.239839 0.0103231 0.933968
0.238682 0.00982478 0.938452
0.239471 0.00894178 0.935964
0.255607 0.0519593 0.884949
0.254832 0.0506186 0.885231
0.253879 0.0492455 0.884896
0.252953 0.0478783 0.88465
0.25207 0.0465204 0.884549
0.251235 0.0451726 0.884619
0.250309 0.0438094 0.884363
0.249538 0.0424729 0.884649
0.248774 0.0411377 0.88496
0.248139 0.0398225 0.88573
0.24759 0.0385185 0.886807
0.247052 0.0372138 0.887928
0.246535 0.0359103 0.889132
0.246056 0.0346094 0.890479
0.245606 0.033309 0.891933
0.245191 0.0320095 0.89352
0.244884 0.0307201 0.895513
0.244683 0.0294376 0.8979
0.24461 0.0281629 0.900767
0.244604 0.0268891 0.903905
0.244582 0.0256049 0.906994
0.244681 0.0243251 0.910557
0.244751 0.0230326 0.914025
0.244643 0.0217172 0.916861
0.244388 0.0203828 0.919165
0.24408 0.0190391 0.921285
0.243638 0.0176817 0.922917
0.243131 0.016316 0.924311
0.242675 0.01495 0.925905
0.24224 0.0135819 0.927588
0.241798 0.0122094 0.929256
0.241309 0.0108308 0.930749
0.240839 0.00944987 0.932329
0.240397 0.00806617 0.934024
0.256034 0.0509779 0.881666
0.255316 0.0496523 0.882137
0.254472 0.0483025 0.882171
0.253581 0.0469455 0.882044
0.252732 0.0455966 0.882055
0.251926 0.0442563 0.882219
0.251003 0.0428967 0.881971
0.250238 0.0415639 0.882273
0.249502 0.0402357 0.882678
0.248872 0.0389223 0.883452
0.248372 0.0376271 0.884695
0.247887 0.0363313 0.885992
0.247377 0.0350296 0.887213
0.246928 0.0337333 0.888656
0.246526 0.0324394 0.890272
0.246115 0.0311407 0.891865
0.245819 0.0298519 0.893881
0.245645 0.0285718 0.896352
0.245605 0.0272998 0.899324
0.245629 0.0260264 0.902544
0.245689 0.0247487 0.90592
0.245847 0.0234711 0.909676
0.245977 0.0221816 0.913352
0.245901 0.0208659 0.91629
0.245648 0.0195296 0.91859
0.245314 0.0181829 0.920607
0.244845 0.0168218 0.922125
0.244337 0.0154556 0.923507
0.243855 0.0140879 0.924998
0.243422 0.0127187 0.926681
0.242956 0.0113443 0.928247
0.242439 0.00996424 0.929629
0.241919 0.00858106 0.931005
0.241447 0.00719656 0.932575
0.256325 0.049978 0.877951
0.255739 0.0486798 0.878857
0.255041 0.04736 0.879384
0.254182 0.0460126 0.879363
0.253387 0.044676 0.879559
0.252611 0.0433433 0.879817
0.25174 0.0419952 0.879747
0.251004 0.0406688 0.880144
0.250273 0.0393437 0.880561
0.249646 0.0380328 0.881343
0.249149 0.0367389 0.882583
0.24867 0.0354444 0.883889
0.24819 0.0341478 0.885203
0.247773 0.0328559 0.886746
0.247401 0.0315662 0.88846
0.247021 0.0302718 0.890153
0.246753 0.0289863 0.89226
0.246615 0.027709 0.894842
0.246682 0.0264461 0.898181
0.246765 0.0251763 0.901601
0.246886 0.0239019 0.905181
0.2471 0.0226255 0.909119
0.247261 0.0213346 0.912887
0.247164 0.0200147 0.915735
0.246888 0.0186756 0.917944
0.246529 0.0173248 0.919851
0.24603 0.0159617 0.921256
0.245493 0.0145929 0.922524
0.244991 0.0132232 0.923927
0.244533 0.0118528 0.92551
0.244042 0.010477 0.926972
0.243521 0.00909694 0.92833
0.242978 0.00771343 0.929611
0.242458 0.00632726 0.930985
0.257644 0.050361 0.874869
0.25693 0.0490423 0.875328
0.256361 0.0477496 0.876285
0.255697 0.0464387 0.876921
0.254894 0.0451026 0.877082
0.254131 0.0437741 0.877383
0.253381 0.0424476 0.877727
0.252536 0.0411066 0.877746
0.251801 0.0397825 0.878141
0.251073 0.0384587 0.87856
0.250423 0.0371468 0.879256
0.249955 0.0358577 0.880584
0.249501 0.0345676 0.881973
0.249057 0.033276 0.8834
0.248672 0.0319888 0.88505
0.248353 0.0307056 0.886939
0.247977 0.0294115 0.888635
0.247738 0.0281278 0.890828
0.247631 0.0268528 0.893508
0.247784 0.0255961 0.897137
0.247959 0.0243326 0.900869
0.248196 0.0230649 0.90485
0.248449 0.0217877 0.908909
0.248638 0.0204951 0.912764
0.24851 0.01917 0.915485
0.248206 0.0178259 0.917576
0.247769 0.0164689 0.919194
0.247244 0.0151037 0.920498
0.246681 0.0137329 0.921661
0.246175 0.0123627 0.923046
0.245695 0.0109898 0.924533
0.24523 0.00961502 0.926086
0.24471 0.00823443 0.927443
0.244166 0.00685026 0.928714
0.24362 0.00546358 0.929984
0.242043 0.00494009 0.93277
0.243149 0.00407487 0.931546
0.259174 0.0507828 0.872528
0.258489 0.049472 0.873082
0.257741 0.0481487 0.873423
0.257155 0.0468538 0.874313
0.256473 0.0455418 0.874885
0.255694 0.0442117 0.875122
0.254934 0.0428858 0.875428
0.254191 0.0415624 0.875793
0.253352 0.0402241 0.875825
0.25264 0.0389053 0.876297
0.251937 0.0375867 0.876796
0.251286 0.0362753 0.877479
0.250817 0.0349874 0.8788
0.250389 0.0337013 0.880268
0.249948 0.0324106 0.881701
0.249596 0.031127 0.883448
0.249287 0.0298443 0.885361
0.248933 0.0285523 0.887123
0.248692 0.0272686 0.8893
0.248637 0.0259974 0.892147
0.248907 0.0247497 0.896175
0.249236 0.0234964 0.900436
0.249601 0.0222356 0.904857
0.24994 0.0209605 0.90921
0.250126 0.0196629 0.913035
0.249914 0.0183285 0.915442
0.24955 0.0169784 0.91731
0.249059 0.0156166 0.918722
0.248511 0.0142483 0.91993
0.247918 0.0128754 0.920981
0.247388 0.0115031 0.922269
0.246878 0.0101289 0.923641
0.246417 0.00875315 0.925199
0.245902 0.00737228 0.926565
0.24536 0.00598788 0.927839
0.244841 0.00460077 0.929203
0.244342 0.0032112 0.930656
0.244648 0.00269713 0.940621
0.243797 0.00181762 0.931935
0.260935 0.0512479 0.870979
0.260253 0.0499384 0.871538
0.259517 0.0486186 0.871919
0.258728 0.0472892 0.872121
0.258112 0.0459899 0.872907
0.257405 0.044674 0.873387
0.25663 0.0433461 0.873637
0.255871 0.0420216 0.873943
0.255131 0.0406994 0.874312
0.254293 0.0393629 0.874349
0.25356 0.0380423 0.874741
0.25288 0.0367283 0.875318
0.252231 0.0354179 0.876001
0.251737 0.0341271 0.877229
0.251307 0.0328406 0.878679
0.250892 0.0315531 0.880191
0.25052 0.0302673 0.881859
0.25019 0.0289822 0.883688
0.249834 0.0276906 0.885434
0.24964 0.0264103 0.887758
0.249691 0.0251484 0.890967
0.250138 0.0239136 0.895601
0.250652 0.0226717 0.900496
0.251192 0.0214196 0.905522
0.251571 0.0201423 0.910005
0.251702 0.0188355 0.91362
0.251375 0.0174893 0.915597
0.250924 0.0161316 0.917143
0.250378 0.0147651 0.918352
0.249806 0.0133947 0.919468
0.249187 0.0120197 0.920421
0.248627 0.0106455 0.921595
0.248113 0.00927027 0.922944
0.247629 0.00789262 0.92441
0.247121 0.00651134 0.925796
0.246613 0.00512698 0.927189
0.24612 0.00373973 0.928647
0.245598 0.00234847 0.930003
0.245026 0.000954629 0.93118
0.245307 0.000418325 0.941035
0.244478 -0.000442198 0.932449
0.261355 0.049099 0.870628
0.260602 0.0477766 0.870952
0.259778 0.0464419 0.871036
0.259125 0.0451369 0.871695
0.258398 0.0438184 0.872104
0.257646 0.0424955 0.872429
0.256883 0.0411713 0.872721
0.256144 0.0398501 0.873091
0.255331 0.0385185 0.873209
0.254598 0.0371986 0.873604
0.253896 0.0358824 0.874102
0.253226 0.0345693 0.874707
0.252683 0.0332719 0.875757
0.252202 0.03198 0.877023
0.251779 0.0306918 0.878497
0.251408 0.0294063 0.88016
0.251031 0.0281158 0.881807
0.250652 0.0268222 0.883461
0.250478 0.0255439 0.885844
0.250618 0.0242889 0.889344
0.251276 0.0230692 0.894694
0.252033 0.0218432 0.90043
0.25276 0.0205996 0.906093
0.253215 0.019322 0.910828
0.253309 0.0180073 0.914296
0.252839 0.0166495 0.915762
0.252275 0.0152831 0.916894
0.251675 0.0139125 0.917902
0.251078 0.0125396 0.918923
0.250438 0.0111637 0.919796
0.249846 0.00978721 0.920847
0.249327 0.0084111 0.922171
0.248841 0.00703272 0.923622
0.248366 0.00565164 0.925128
0.247919 0.00426685 0.926737
0.24746 0.00287886 0.928315
0.246965 0.00148661 0.929769
0.246394 9.09161e-05 0.930942
0.24582 -0.00130701 0.932112
0.245958 -0.00186351 0.941416
0.245217 -0.00270694 0.933178
0.263268 0.0495932 0.869594
0.262487 0.0482665 0.869825
0.261719 0.0469415 0.870093
0.260876 0.0456048 0.87012
0.260198 0.044295 0.870687
0.25947 0.0429768 0.871092
0.258718 0.0416546 0.871416
0.257955 0.0403307 0.871704
0.257189 0.0390065 0.871984
0.256349 0.0376721 0.872012
0.255615 0.0363526 0.872394
0.254913 0.0350369 0.872889
0.254218 0.0337219 0.873411
0.253676 0.0324252 0.874457
0.25319 0.0311322 0.875697
0.252711 0.0298377 0.87697
0.252313 0.0285494 0.87853
0.251908 0.0272565 0.880072
0.25148 0.0259579 0.881541
0.251308 0.02468 0.883915
0.25169 0.023444 0.888237
0.252552 0.0222372 0.894279
0.25351 0.021021 0.900693
0.254436 0.0197856 0.90704
0.254966 0.0185058 0.912014
0.254897 0.0171753 0.914892
0.254305 0.015808 0.915919
0.253677 0.0144362 0.916819
0.253025 0.0130617 0.917637
0.252404 0.0116871 0.918574
0.251766 0.0103102 0.91945
0.251143 0.00893205 0.920387
0.250594 0.00755407 0.921597
0.250107 0.0061744 0.923036
0.249665 0.00479258 0.924654
0.249254 0.00340725 0.926392
0.248854 0.00201747 0.92818
0.248391 0.000623526 0.929744
0.247819 -0.00077336 0.930916
0.247221 -0.00217225 0.931995
0.246595 -0.00357339 0.932969
0.246711 -0.00415038 0.942184
0.245958 -0.00497597 0.933911
0.26443 0.0487655 0.868888
0.263632 0.047436 0.869061
0.26285 0.0461094 0.869288
0.262009 0.0447731 0.869315
0.261301 0.0434591 0.869785
0.260522 0.0421331 0.870016
0.259739 0.0408074 0.870238
0.258952 0.0394809 0.870445
0.258135 0.0381506 0.870551
0.257269 0.036814 0.870489
0.25653 0.0354953 0.870856
0.255851 0.034184 0.871424
0.255183 0.0328733 0.872029
0.254642 0.0315764 0.873071
0.254152 0.0302832 0.874292
0.253646 0.0289861 0.875464
0.253218 0.0276943 0.876909
0.252742 0.0263947 0.878197
0.252258 0.0250916 0.879462
0.252056 0.0238112 0.881716
0.252404 0.0225707 0.885893
0.253469 0.0213763 0.892607
0.254653 0.0201726 0.899779
0.2558 0.0189463 0.906865
0.256446 0.0176691 0.91223
0.256504 0.0163428 0.915546
0.25577 0.0149647 0.916068
0.255057 0.0135876 0.916663
0.254374 0.0122105 0.91737
0.253729 0.010834 0.918217
0.253066 0.00945558 0.919001
0.252442 0.00807656 0.919931
0.251891 0.00669733 0.921126
0.251379 0.00531612 0.922472
0.250968 0.00393363 0.924194
0.25059 0.0025467 0.926045
0.250198 0.00115579 0.927859
0.249736 -0.000239632 0.929423
0.24919 -0.00163802 0.930682
0.248595 -0.00303871 0.931764
0.247967 -0.00444037 0.932733
0.247304 -0.00584327 0.933577
0.245266 -0.00637874 0.934651
0.246581 -0.00724624 0.934194
0.265669 0.0479521 0.868435
0.264869 0.0466219 0.868603
0.264084 0.0452944 0.868818
0.263194 0.0439508 0.868689
0.262456 0.0426319 0.869058
0.261645 0.0413018 0.869185
0.260833 0.0399718 0.869308
0.260019 0.0386425 0.869425
0.259175 0.0373093 0.869439
0.258304 0.0359734 0.869362
0.257537 0.0346515 0.869629
0.256833 0.0333377 0.870111
0.256169 0.0320282 0.870728
0.255632 0.0307322 0.871777
0.255097 0.0294341 0.872834
0.254588 0.0281374 0.873991
0.254133 0.0268427 0.875333
0.253603 0.0255385 0.876427
0.253064 0.0242314 0.877498
0.252805 0.0229458 0.879538
0.253399 0.0217235 0.884541
0.254651 0.0205381 0.891868
0.256047 0.0193425 0.899744
0.257374 0.0181209 0.907425
0.258175 0.016846 0.913312
0.258064 0.0155049 0.916019
0.257265 0.014122 0.916313
0.256493 0.0127405 0.916703
0.255756 0.0113601 0.917216
0.255086 0.00998168 0.917971
0.25439 0.00860112 0.918635
0.25374 0.00722088 0.919471
0.253165 0.00583993 0.920574
0.252655 0.00445798 0.921922
0.252273 0.0030743 0.923741
0.251925 0.00168597 0.925693
0.251536 0.000293331 0.927511
0.251075 -0.00110379 0.929071
0.250552 -0.00250367 0.930411
0.24993 -0.00390461 0.931391
0.249278 -0.00530654 0.932269
0.248616 -0.00671045 0.93311
0.24789 -0.00811286 0.93372
0.24791 -0.0087265 0.942547
0.247086 -0.00951354 0.934039
0.266835 0.0471257 0.867746
0.266048 0.0457982 0.867956
0.265271 0.0444725 0.868197
0.264378 0.0431287 0.86806
0.263611 0.0418052 0.868332
0.262765 0.0404708 0.868347
0.261925 0.0391373 0.868376
0.261055 0.037801 0.868308
0.26018 0.0364648 0.86822
0.259279 0.035126 0.868042
0.258485 0.0338023 0.868219
0.257762 0.032487 0.868631
0.257101 0.0311786 0.869253
0.256596 0.0298872 0.870403
0.256064 0.0285896 0.871466
0.255555 0.0272928 0.872613
0.255075 0.0259962 0.873865
0.254515 0.0246901 0.87485
0.253898 0.0233765 0.875643
0.253453 0.0220755 0.877029
0.254277 0.0208694 0.882796
0.255686 0.0196895 0.890625
0.257237 0.0184976 0.898994
0.258756 0.0172804 0.907302
0.259814 0.0160143 0.914057
0.259541 0.0146603 0.916191
0.258713 0.0132751 0.916383
0.257915 0.0118919 0.916686
0.257147 0.0105093 0.917089
0.256442 0.00912853 0.91772
0.255715 0.00774672 0.918276
0.255064 0.00636537 0.9191
0.254465 0.00498332 0.920116
0.25396 0.00360046 0.921476
0.253603 0.00221477 0.923375
0.253255 0.000824833 0.925323
0.252844 -0.000569624 0.927049
0.25238 -0.00196739 0.928595
0.251829 -0.00336804 0.929826
0.251177 -0.0047689 0.930693
0.250528 -0.00617141 0.931579
0.249869 -0.0075753 0.932429
0.249149 -0.00897853 0.933056
0.248371 -0.0103802 0.93347
0.248395 -0.0110123 0.942295
0.247568 -0.0117809 0.933789
0.268008 0.0463006 0.867079
0.267229 0.0449744 0.867314
0.266459 0.0436504 0.867579
0.265563 0.0423069 0.867434
0.264793 0.0409833 0.867697
0.263918 0.0396444 0.867616
0.263048 0.0383079 0.867551
0.262123 0.0369645 0.867299
0.261217 0.0356255 0.867109
0.26026 0.0342812 0.866747
0.259439 0.0329552 0.866831
0.258715 0.0316411 0.86724
0.258082 0.0303373 0.867952
0.257605 0.0290481 0.869186
0.257103 0.0277542 0.870346
0.256598 0.0264576 0.871499
0.256063 0.0251559 0.872558
0.255473 0.0238475 0.873437
0.254776 0.022528 0.87395
0.254147 0.0212131 0.874698
0.255242 0.0200236 0.88136
0.256791 0.018847 0.889627
0.258509 0.0176582 0.898529
0.26015 0.0164406 0.90722
0.261427 0.0151791 0.914703
0.26096 0.0138123 0.916153
0.260135 0.0124265 0.91636
0.259336 0.0110418 0.916657
0.258542 0.00965767 0.916973
0.257805 0.00827521 0.917489
0.257043 0.00689156 0.91792
0.256362 0.00550877 0.918636
0.255711 0.00412589 0.919466
0.255178 0.00274174 0.920718
0.254822 0.00135503 0.922613
0.254477 -3.61271e-05 0.924559
0.25407 -0.00143174 0.92629
0.253607 -0.00283028 0.927834
0.253052 -0.00423123 0.929045
0.252396 -0.00563216 0.929894
0.251748 -0.00703479 0.930781
0.251095 -0.00843913 0.931647
0.250406 -0.00984348 0.932386
0.249655 -0.0112464 0.932901
0.248852 -0.0126471 0.93322
0.269168 0.045474 0.866372
0.268404 0.0441508 0.866657
0.267617 0.0428239 0.866867
0.266695 0.0414777 0.866641
0.265923 0.0401541 0.866895
0.265021 0.038812 0.866726
0.264125 0.0374729 0.866578
0.263171 0.0361274 0.866234
0.262262 0.0347884 0.866032
0.261297 0.0334452 0.865647
0.26045 0.0321173 0.865648
0.259723 0.0308032 0.866039
0.259114 0.0295026 0.866827
0.258617 0.0282111 0.867987
0.258091 0.026915 0.869063
0.257613 0.025621 0.870298
0.257052 0.0243168 0.871261
0.256409 0.0230046 0.871956
0.255679 0.0216835 0.872354
0.25491 0.0203596 0.872624
0.256137 0.0191747 0.879697
0.257799 0.017999 0.888302
0.259701 0.0168138 0.897789
0.26144 0.0155935 0.906773
0.262919 0.014335 0.914916
0.26237 0.0129623 0.91608
0.261547 0.011576 0.916295
0.260699 0.0101892 0.916422
0.259904 0.00880472 0.916735
0.259136 0.00742042 0.917142
0.258344 0.00603558 0.917467
0.257633 0.00465247 0.918077
0.256979 0.00326842 0.918891
0.25642 0.00188326 0.920046
0.256033 0.000495899 0.921826
0.255689 -0.000896958 0.923761
0.255286 -0.00229293 0.925502
0.254806 -0.00369272 0.926971
0.25425 -0.00509345 0.928178
0.253617 -0.00649546 0.929103
0.252966 -0.00789781 0.929977
0.25232 -0.00930263 0.930866
0.251662 -0.0107088 0.931713
0.250992 -0.0121157 0.932522
0.250217 -0.0135182 0.932951
0.27037 0.0446541 0.865799
0.269609 0.0433314 0.866093
0.268797 0.0420013 0.866224
0.267875 0.0406552 0.865999
0.267075 0.0393281 0.866164
0.26617 0.0379869 0.865991
0.26525 0.0366454 0.865765
0.264296 0.0353002 0.865421
0.263359 0.0339595 0.865134
0.262392 0.0326169 0.864742
0.261493 0.0312841 0.86457
0.260737 0.0299681 0.864869
0.260102 0.0286641 0.865564
0.259578 0.0273709 0.866629
0.259029 0.0260725 0.867617
0.25855 0.0247789 0.868847
0.257963 0.0234735 0.869717
0.257319 0.0221612 0.870397
0.25656 0.0208398 0.870697
0.255684 0.0195097 0.8706
0.257329 0.0183485 0.879053
0.25911 0.0171718 0.888019
0.26111 0.0159822 0.897792
0.262941 0.0147575 0.907049
0.264583 0.0134972 0.91571
0.263673 0.0121066 0.915627
0.262875 0.0107214 0.915932
0.262051 0.00933558 0.916149
0.261257 0.00795047 0.916465
0.260462 0.00656544 0.91678
0.259668 0.00518041 0.917096
0.258902 0.00379548 0.91751
0.258193 0.00241087 0.918127
0.257599 0.00102532 0.919157
0.257184 -0.000363412 0.920821
0.25684 -0.0017563 0.922751
0.256472 -0.00315391 0.924606
0.256026 -0.00455457 0.926191
0.255475 -0.00595595 0.927409
0.254868 -0.00735901 0.928423
0.254216 -0.00876185 0.92929
0.253572 -0.0101669 0.930185
0.252943 -0.0115744 0.931138
0.252359 -0.0129863 0.932259
0.25162 -0.0143918 0.932815
0.271528 0.0438276 0.86509
0.270745 0.0425022 0.865315
0.26992 0.0411702 0.865401
0.268998 0.0398255 0.865181
0.268165 0.0384944 0.86524
0.267262 0.0371547 0.865072
0.266366 0.035817 0.864923
0.265418 0.0344742 0.864605
0.264506 0.0331374 0.8644
0.26354 0.0317954 0.864013
0.262613 0.03046 0.86375
0.261831 0.0291421 0.863962
0.261167 0.0278353 0.864559
0.260588 0.0265362 0.865438
0.260008 0.0252354 0.866319
0.259499 0.0239397 0.867443
0.258889 0.0226326 0.86823
0.258249 0.0213225 0.868922
0.257492 0.0200018 0.869221
0.256589 0.018672 0.869033
0.257783 0.0174751 0.875916
0.265349 0.0126183 0.913423
0.264944 0.01125 0.91507
0.264119 0.00986382 0.915281
0.263267 0.00847703 0.915396
0.262469 0.00709233 0.915701
0.261675 0.00570756 0.916017
0.260884 0.00432271 0.916342
0.260143 0.0029386 0.916849
0.259459 0.00155354 0.91755
0.258838 0.000167432 0.918475
0.258395 -0.00122193 0.920034
0.258046 -0.0026156 0.921941
0.25768 -0.00401432 0.923792
0.257244 -0.00541628 0.925406
0.2567 -0.00681824 0.926644
0.25612 -0.00822235 0.927754
0.25547 -0.00962587 0.928618
0.254828 -0.0110315 0.929515
0.25423 -0.0124407 0.930577
0.253734 -0.0138584 0.932014
0.253058 -0.0152681 0.932804
0.272734 0.043009 0.864533
0.271914 0.0416779 0.864639
0.271054 0.0403415 0.864618
0.270131 0.0389977 0.864394
0.269282 0.037665 0.864402
0.268378 0.0363262 0.864236
0.267512 0.0349928 0.864182
0.266618 0.0336576 0.864042
0.265709 0.0323216 0.863847
0.264773 0.030984 0.863561
0.26384 0.0296489 0.863285
0.263032 0.0283274 0.863409
0.262334 0.0270177 0.863894
0.261723 0.0257153 0.864668
0.261086 0.0244094 0.865358
0.260549 0.0231104 0.866379
0.25994 0.0218037 0.867165
0.259252 0.02049 0.867692
0.258474 0.0191696 0.867925
0.257577 0.0178413 0.867754
0.258219 0.0166064 0.87275
0.266034 0.0117395 0.910875
0.266213 0.0103932 0.914502
0.265387 0.0090066 0.914708
0.264532 0.00762027 0.914816
0.263732 0.00623543 0.915115
0.262965 0.00485103 0.915522
0.262204 0.00346641 0.915954
0.261443 0.00208177 0.916389
0.260761 0.000696294 0.917094
0.260109 -0.000689896 0.917913
0.259608 -0.0020798 0.919261
0.259209 -0.00347417 0.920981
0.258869 -0.00487426 0.922913
0.258437 -0.00627676 0.924532
0.257925 -0.00768023 0.925875
0.257376 -0.00908583 0.927093
0.256752 -0.0104904 0.92805
0.256137 -0.0118982 0.929041
0.255598 -0.0133116 0.930309
0.255165 -0.014734 0.931975
0.254557 -0.0161495 0.933007
0.274079 0.0409965 0.867102
0.272187 0.0395138 0.863835
0.271274 0.0381718 0.863643
0.270402 0.0368368 0.863581
0.2695 0.0354984 0.863416
0.268665 0.0341707 0.863469
0.267828 0.0328424 0.863509
0.266927 0.031508 0.863345
0.266015 0.0301737 0.863139
0.265083 0.0288389 0.862869
0.264241 0.027514 0.862885
0.263489 0.0261992 0.863195
0.262822 0.0248913 0.863779
0.26213 0.0235804 0.864282
0.261536 0.0222775 0.865115
0.260897 0.0209692 0.865797
0.260184 0.0196545 0.86624
0.259432 0.0183372 0.866554
0.258564 0.0170121 0.866477
0.258663 0.0157434 0.869635
0.266143 0.0108429 0.906401
0.266968 0.00951973 0.912191
0.266654 0.00814998 0.914136
0.265826 0.00676409 0.914336
0.265052 0.00537989 0.914723
0.264316 0.0039955 0.915239
0.26359 0.00261097 0.915792
0.262861 0.00122492 0.916332
0.262178 -0.000161137 0.917043
0.2615 -0.0015487 0.917766
0.260944 -0.0029394 0.91892
0.260483 -0.0043343 0.920412
0.260112 -0.00573468 0.922228
0.259654 -0.00713731 0.923747
0.259147 -0.00854197 0.925103
0.258629 -0.00994869 0.926426
0.258061 -0.0113569 0.927576
0.257477 -0.0127664 0.928677
0.257026 -0.0141859 0.930258
0.256684 -0.0156161 0.932241
0.256164 -0.0170395 0.933591
0.274954 0.0389067 0.868184
0.273088 0.0374343 0.865009
0.271557 0.0360135 0.862868
0.270685 0.0346798 0.862804
0.269878 0.0333551 0.862944
0.269069 0.0320306 0.863077
0.268173 0.0306972 0.862932
0.267265 0.0293633 0.862742
0.26633 0.0280285 0.862463
0.265456 0.0267015 0.862379
0.26465 0.0253813 0.862511
0.263953 0.0240708 0.862999
0.263234 0.0227584 0.863413
0.262587 0.0214509 0.864066
0.261913 0.0201406 0.864634
0.261168 0.0188246 0.864967
0.260388 0.0175063 0.865185
0.259516 0.016183 0.865098
0.259083 0.014884 0.866467
0.25993 0.0145257 0.876721
0.259794 0.013637 0.871658
0.266172 0.00995162 0.9017
0.267653 0.00864786 0.90966
0.267897 0.00729295 0.913485
0.267128 0.00590811 0.913882
0.26639 0.00452395 0.91439
0.265688 0.00313951 0.915025
0.264993 0.00175388 0.915681
0.264293 0.000367391 0.916327
0.263584 -0.0010197 0.916943
0.262872 -0.00240798 0.917548
0.262282 -0.00379914 0.918582
0.26176 -0.00519409 0.919855
0.26133 -0.00659449 0.921459
0.260865 -0.00799727 0.922948
0.260364 -0.00940258 0.924317
0.259853 -0.0108107 0.925654
0.259346 -0.0122221 0.927017
0.258849 -0.0136373 0.92842
0.258491 -0.0150637 0.93033
0.258191 -0.0164988 0.93246
0.257732 -0.0179287 0.934024
0.275593 0.0367804 0.868522
0.273324 0.035266 0.864087
0.271846 0.0338583 0.862116
0.27112 0.0325431 0.86251
0.270364 0.0312247 0.862815
0.269519 0.0298968 0.862833
0.268589 0.0285606 0.862577
0.267676 0.0272281 0.862374
0.266773 0.0258977 0.862199
0.265934 0.0245747 0.86223
0.265185 0.023259 0.862545
0.264409 0.0219422 0.862778
0.26368 0.0206281 0.86316
0.26295 0.0193143 0.863542
0.262144 0.0179951 0.863672
0.261334 0.0166765 0.863791
0.260489 0.0153562 0.863793
0.259562 0.0140327 0.863522
0.25972 0.0127597 0.866843
0.267186 0.00775065 0.903281
0.26807 0.0064137 0.909222
0.26789 0.00504387 0.911603
0.267704 0.00366744 0.913977
0.267067 0.00228274 0.914831
0.266402 0.000896581 0.915592
0.265726 -0.000490845 0.916316
0.265012 -0.00187919 0.916915
0.264272 -0.00326829 0.917423
0.263621 -0.00465938 0.918242
0.263035 -0.00605406 0.919292
0.262543 -0.00745348 0.920671
0.26205 -0.00885627 0.922054
0.261553 -0.0102621 0.923429
0.261073 -0.0116716 0.924875
0.260629 -0.013087 0.926453
0.260224 -0.0145083 0.928175
0.259937 -0.015941 0.93033
0.259675 -0.0173815 0.932586
0.259302 -0.0188196 0.934455
0.293632 0.0442642 0.913741
0.298812 0.0452478 0.922367
0.296511 0.0436243 0.918095
0.29272 0.0418097 0.90919
0.278274 0.0361391 0.872542
0.275222 0.0345301 0.865695
0.273111 0.0330494 0.861755
0.272388 0.0317341 0.862162
0.271657 0.0304175 0.862543
0.270812 0.0290896 0.862564
0.269856 0.0277517 0.862232
0.268943 0.0264193 0.862032
0.268037 0.0250885 0.861846
0.267141 0.0237605 0.861695
0.266332 0.022441 0.861824
0.265525 0.0211216 0.861954
0.264739 0.0198043 0.862149
0.263952 0.0184873 0.862343
0.263115 0.0171675 0.862373
0.262277 0.0158482 0.862398
0.261433 0.0145298 0.8624
0.260564 0.0132108 0.86232
0.260224 0.0119148 0.863983
0.266818 0.00279511 0.906138
0.266778 0.00142217 0.908986
0.266741 4.13745e-05 0.911858
0.266642 -0.00134649 0.914539
0.266459 -0.00274048 0.916945
0.26569 -0.00412935 0.917358
0.26501 -0.00552117 0.918075
0.264367 -0.00691542 0.918925
0.263839 -0.00831498 0.920174
0.263317 -0.00971759 0.92145
0.262819 -0.011124 0.922819
0.262351 -0.0125355 0.924299
0.261994 -0.0139563 0.926175
0.261654 -0.0153834 0.928121
0.261432 -0.0168227 0.930496
0.26121 -0.0182686 0.932884
0.260894 -0.019714 0.934949
0.30138 0.0458543 0.922878
0.300025 0.044362 0.921541
0.297955 0.0427756 0.917996
0.277199 0.0337989 0.86753
0.274352 0.032237 0.861319
0.273634 0.0309222 0.861741
0.272899 0.0296053 0.862111
0.27208 0.0282796 0.862213
0.271097 0.0269396 0.8618
0.270188 0.0256077 0.861614
0.269276 0.0242771 0.861415
0.268323 0.0229448 0.861082
0.267427 0.0216188 0.860933
0.266585 0.0202974 0.860947
0.265741 0.0189772 0.860957
0.264898 0.0176577 0.860968
0.264085 0.0163408 0.861076
0.263274 0.0150244 0.861186
0.262463 0.0137087 0.861299
0.261653 0.0123936 0.861411
0.260846 0.011079 0.86153
0.261122 0.0106605 0.86975
0.261159 0.00980245 0.865338
0.266223 0.000571207 0.902302
0.266904 -0.000807198 0.907566
0.267508 -0.00219905 0.912606
0.267936 -0.00360276 0.917072
0.267142 -0.00499292 0.917401
0.266435 -0.00638518 0.918025
0.265761 -0.00777935 0.918765
0.265172 -0.00917794 0.919803
0.264621 -0.0105805 0.920978
0.264126 -0.0119883 0.92235
0.263664 -0.013401 0.923843
0.263367 -0.0148269 0.925921
0.263062 -0.016258 0.92798
0.262872 -0.0177019 0.930458
0.262654 -0.0191507 0.932852
0.262394 -0.0206026 0.935108
0.304015 0.0488415 0.925299
0.305076 0.0503008 0.925722
0.3065 0.0494403 0.925507
0.305407 0.0479765 0.924992
0.302717 0.0473491 0.924154
0.304051 0.0464771 0.923682
0.302674 0.0449783 0.922291
0.301236 0.0434763 0.920707
0.299873 0.0419899 0.919343
0.295241 0.0411141 0.91245
0.297851 0.0404223 0.915951
0.27621 0.0314914 0.862798
0.274878 0.0301097 0.861311
0.274141 0.0287923 0.861673
0.273346 0.0274692 0.861854
0.272363 0.0261294 0.861445
0.271457 0.0247983 0.861271
0.270543 0.0234679 0.86107
0.269556 0.0221332 0.860634
0.268598 0.0208029 0.860287
0.267693 0.019478 0.860105
0.266819 0.0181564 0.860016
0.265952 0.0168364 0.859951
0.265143 0.0155205 0.86007
0.264335 0.0142053 0.860192
0.263554 0.0128917 0.8604
0.262774 0.0115785 0.86061
0.261997 0.0102655 0.860827
0.261772 0.00896974 0.862857
0.261569 0.0085187 0.869489
0.261586 0.00766969 0.865021
0.267641 -0.00303923 0.90821
0.268779 -0.00445429 0.915047
0.268577 -0.00585649 0.91738
0.267845 -0.00724919 0.917921
0.267139 -0.00864303 0.918553
0.26652 -0.0100418 0.919483
0.265963 -0.0114455 0.920631
0.265474 -0.0128545 0.922021
0.265041 -0.0142705 0.923609
0.26478 -0.0157005 0.925804
0.264526 -0.0171368 0.928036
0.264316 -0.0185822 0.930432
0.264067 -0.0200312 0.932707
0.263806 -0.0214852 0.934954
0.308985 0.0500393 0.925696
0.307743 0.0485518 0.924748
0.306622 0.0470849 0.924152
0.305279 0.0455897 0.922887
0.303867 0.0440882 0.9214
0.302361 0.0425795 0.919618
0.300944 0.0410884 0.918095
0.299503 0.0395995 0.916488
0.29432 0.0386753 0.9079
0.296782 0.0379592 0.910957
0.27881 0.0308194 0.866554
0.276764 0.0293616 0.862874
0.275491 0.0279896 0.861573
0.274695 0.026666 0.861753
0.273713 0.0253264 0.86135
0.27278 0.0239929 0.861097
0.271837 0.0226602 0.860809
0.270792 0.0213216 0.860192
0.269773 0.0199876 0.859655
0.268809 0.0186595 0.859288
0.267907 0.017337 0.859112
0.267016 0.0160165 0.85897
0.266235 0.0147031 0.85918
0.265457 0.0133898 0.859398
0.264705 0.0120779 0.859697
0.263952 0.010766 0.859995
0.2632 0.00945408 0.860294
0.262447 0.00814223 0.860593
0.261695 0.0068303 0.860892
0.261897 0.00637447 0.868839
0.261363 0.00552576 0.86257
0.262242 0.00506933 0.872787
0.261059 0.00421749 0.86435
0.269374 -0.00529774 0.912203
0.269813 -0.00671543 0.916682
0.269081 -0.00810836 0.917221
0.268403 -0.00950366 0.917946
0.267838 -0.0109051 0.919056
0.267335 -0.0123121 0.920386
0.266852 -0.0137232 0.92179
0.26645 -0.0151422 0.923482
0.266221 -0.0165765 0.925778
0.26597 -0.0180153 0.928012
0.265734 -0.0194615 0.930308
0.265481 -0.0209122 0.932562
0.265217 -0.022368 0.934789
0.310306 0.0491619 0.925166
0.309078 0.0476771 0.924265
0.307922 0.0462068 0.923573
0.306506 0.0447023 0.92209
0.30502 0.0431938 0.920394
0.303505 0.0416866 0.918591
0.302056 0.0401938 0.916977
0.300588 0.0387049 0.915298
0.29859 0.0371577 0.911993
0.279309 0.0286733 0.866451
0.277387 0.0272369 0.863162
0.276056 0.0258628 0.861684
0.275074 0.0245233 0.861286
0.274112 0.0231874 0.860945
0.27314 0.0218526 0.86057
0.272031 0.0205101 0.859762
0.270953 0.0191729 0.859043
0.269957 0.0178435 0.858575
0.269054 0.0165217 0.8584
0.268166 0.0152021 0.858267
0.267413 0.0138902 0.858566
0.26666 0.0125783 0.858865
0.265908 0.0112664 0.859164
0.265155 0.00995451 0.859463
0.264403 0.00864258 0.859761
0.263625 0.00733014 0.859979
0.262845 0.00601783 0.860189
0.261983 0.00470469 0.86013
0.261088 0.00339215 0.859961
0.260761 0.00290483 0.86616
0.260187 0.00208101 0.859767
0.260479 0.00158786 0.868029
0.259317 0.000771393 0.859676
0.269234 -0.00611828 0.906926
0.269833 -0.00753779 0.911902
0.269667 -0.00894429 0.914333
0.269072 -0.0103399 0.915327
0.268647 -0.011745 0.916904
0.268305 -0.0131584 0.918774
0.268423 -0.0146026 0.922216
0.268034 -0.0160251 0.923948
0.267834 -0.0174649 0.926338
0.267563 -0.0189057 0.928493
0.267292 -0.0203522 0.930665
0.266986 -0.0218015 0.932727
0.266662 -0.0232552 0.934735
0.310378 0.0467975 0.923676
0.309143 0.0453171 0.922754
0.307661 0.0438061 0.921085
0.306136 0.0422949 0.919276
0.304611 0.0407898 0.917456
0.303098 0.0392924 0.915659
0.301633 0.0378065 0.913993
0.300278 0.036339 0.912649
0.295179 0.0354589 0.904355
0.29764 0.0347329 0.907399
0.281957 0.027986 0.870304
0.279373 0.0264875 0.865003
0.277458 0.0250623 0.86174
0.276472 0.0237223 0.861333
0.275448 0.0223816 0.860807
0.274442 0.0210444 0.860329
0.273298 0.0197002 0.859415
0.272187 0.0183616 0.858597
0.271161 0.0170312 0.858042
0.270258 0.0157099 0.857867
0.269369 0.0143906 0.857734
0.268616 0.0130788 0.858033
0.267863 0.0117668 0.858332
0.267111 0.0104549 0.858631
0.266358 0.00914306 0.85893
0.265581 0.00783045 0.859147
0.264774 0.00651754 0.85927
0.263963 0.0052051 0.85938
0.263072 0.0038923 0.859227
0.262176 0.00258078 0.859058
0.261303 0.00127076 0.858958
0.260464 -3.81634e-05 0.858968
0.259715 -0.000543626 0.863769
0.260241 -0.00135128 0.861002
0.267647 -0.0124946 0.908667
0.268025 -0.0139363 0.912937
0.26889 -0.015419 0.918886
0.269179 -0.016882 0.92291
0.269526 -0.0183605 0.927155
0.269196 -0.0198006 0.929104
0.268863 -0.0212454 0.931054
0.26847 -0.0226906 0.93281
0.26806 -0.0241382 0.934514
0.268338 -0.0249005 0.943739
0.269802 -0.0257979 0.943704
0.31278 0.047381 0.92361
0.31158 0.0459038 0.9228
0.310225 0.0444084 0.921525
0.308715 0.0428971 0.919783
0.307153 0.0413846 0.917872
0.305593 0.0398786 0.915953
0.304074 0.0383839 0.914145
0.302607 0.0369012 0.91248
0.301246 0.0354363 0.911124
0.299353 0.0339184 0.908148
0.294361 0.0330743 0.900164
0.296902 0.0323519 0.903464
0.281839 0.0257748 0.868296
0.279312 0.0242975 0.863178
0.27784 0.0229177 0.861281
0.276812 0.0215768 0.860747
0.275771 0.0202373 0.860166
0.274592 0.0188916 0.859151
0.273447 0.0175517 0.858235
0.272392 0.0162203 0.857591
0.271461 0.0148979 0.857334
0.270572 0.0135791 0.857201
0.269819 0.0122673 0.8575
0.269067 0.0109553 0.857799
0.268288 0.00964267 0.858016
0.267508 0.00833014 0.858227
0.2667 0.0070172 0.858347
0.265862 0.0057043 0.85837
0.265021 0.00439219 0.858382
0.26415 0.00308062 0.858297
0.263283 0.00177026 0.858219
0.262444 0.00046096 0.858233
0.261636 -0.000847643 0.858346
0.260834 -0.00215571 0.858474
0.261486 -0.00268891 0.867886
0.261396 -0.00348524 0.86308
0.268705 -0.0161904 0.913382
0.269745 -0.0176991 0.919913
0.270762 -0.0192254 0.926407
0.270989 -0.0207098 0.930247
0.270533 -0.0221486 0.931774
0.270044 -0.0235881 0.933196
0.269547 -0.0250305 0.934597
0.315241 0.0479733 0.923699
0.314022 0.0464918 0.922846
0.3128 0.0450132 0.921978
0.311305 0.0435013 0.920297
0.309795 0.0419931 0.918562
0.308198 0.0404795 0.916555
0.306601 0.0389726 0.914536
0.305045 0.0374771 0.912626
0.303539 0.0359936 0.910852
0.302177 0.0345317 0.909496
0.300926 0.0330863 0.908467
0.299172 0.031594 0.90591
0.281806 0.0235792 0.866557
0.279708 0.0221495 0.862762
0.27814 0.0207686 0.860574
0.27707 0.0194277 0.859909
0.275888 0.0180826 0.858891
0.274713 0.0167419 0.857886
0.273654 0.015411 0.857237
0.272693 0.0140874 0.856889
0.271801 0.0127689 0.85675
0.271022 0.0114558 0.856967
0.270269 0.0101439 0.857266
0.269463 0.00883039 0.857396
0.268653 0.0075174 0.857509
0.267812 0.00620428 0.857525
0.266942 0.00489159 0.857448
0.266071 0.00358002 0.857363
0.26523 0.0022697 0.857374
0.264393 0.000960359 0.857396
0.263587 -0.000348396 0.857516
0.262809 -0.00165678 0.857726
0.262033 -0.00296506 0.857942
0.261973 -0.00428662 0.860492
0.262596 -0.00484132 0.869812
0.262475 -0.00562846 0.864902
0.271218 -0.0200317 0.923023
0.272081 -0.0215656 0.928995
0.27218 -0.0230519 0.932404
0.271619 -0.0244876 0.933578
0.273341 -0.0261459 0.942577
0.316633 0.0471048 0.923372
0.315384 0.04562 0.922437
0.314134 0.0441387 0.921492
0.312545 0.0426165 0.919546
0.310936 0.0410982 0.917528
0.309301 0.0395834 0.91542
0.307669 0.0380756 0.913307
0.306108 0.0365829 0.91139
0.304598 0.0351022 0.909612
0.303237 0.0336432 0.908266
0.302021 0.0322036 0.907343
0.30085 0.0307719 0.906549
0.296373 0.0300093 0.900175
0.298725 0.0292548 0.902877
0.284296 0.0228523 0.869886
0.28156 0.0213757 0.864173
0.27944 0.0199578 0.860309
0.278399 0.0186191 0.85974
0.277246 0.0172767 0.858821
0.27604 0.0159349 0.857727
0.27495 0.0146028 0.856986
0.273955 0.013278 0.856535
0.273032 0.0119583 0.856305
0.272225 0.0106443 0.856435
0.271473 0.00933238 0.856734
0.270638 0.00801846 0.856773
0.269794 0.00670496 0.856784
0.268917 0.00539187 0.856686
0.268018 0.00407964 0.856517
0.267126 0.00276884 0.856366
0.266316 0.00145951 0.856476
0.26551 0.000150904 0.856598
0.264734 -0.00115752 0.856815
0.263984 -0.00246596 0.857113
0.263233 -0.0037744 0.857411
0.262615 -0.00508574 0.85814
0.262513 -0.00641218 0.86055
0.263106 -0.00698658 0.869759
0.262533 -0.00774911 0.863377
0.317887 0.0462162 0.92264
0.316626 0.0447315 0.921678
0.315362 0.04325 0.920698
0.313701 0.0417215 0.91855
0.312054 0.0402016 0.916431
0.310414 0.0386895 0.914319
0.308749 0.0371815 0.912119
0.307183 0.0356916 0.910196
0.305671 0.0342138 0.90842
0.304311 0.0327575 0.90708
0.303128 0.0313234 0.906261
0.301989 0.0298967 0.905567
0.300456 0.0284376 0.903686
0.296035 0.0276988 0.897475
0.29846 0.026945 0.9004
0.283965 0.0206357 0.867245
0.281225 0.0191772 0.861523
0.279647 0.0178052 0.859319
0.278524 0.0164654 0.858498
0.277317 0.0151247 0.857411
0.276224 0.0137932 0.856666
0.275194 0.0124673 0.856111
0.274264 0.0111478 0.855863
0.273428 0.00983287 0.855902
0.272676 0.00852094 0.856201
0.271812 0.0072065 0.856152
0.270938 0.0058929 0.856067
0.27003 0.00457998 0.855873
0.269128 0.00326857 0.855698
0.26824 0.00195868 0.855559
0.267461 0.000650027 0.855769
0.266685 -0.000658378 0.855985
0.265934 -0.00196682 0.856283
0.265184 -0.00327526 0.856581
0.264433 -0.0045837 0.85688
0.263816 -0.00589546 0.857608
0.263211 -0.00720891 0.85838
0.262695 -0.00852687 0.859443
0.262567 -0.00909419 0.866263
0.262177 -0.00984708 0.860506
0.262125 -0.0104273 0.867599
0.261678 -0.0111705 0.861636
0.262115 -0.0117838 0.870368
0.261123 -0.0124937 0.862586
0.26171 -0.0131273 0.871846
0.260674 -0.0138247 0.863889
0.318955 0.0453026 0.921377
0.317707 0.0438219 0.920454
0.316418 0.0423396 0.919405
0.314757 0.0408148 0.917268
0.313109 0.0392986 0.915156
0.311534 0.0377977 0.913242
0.309868 0.0362931 0.91105
0.308368 0.0348133 0.909329
0.306856 0.0333382 0.907563
0.305493 0.0318839 0.906224
0.304308 0.0304512 0.905402
0.303169 0.029026 0.90471
0.302162 0.0276151 0.904407
0.300799 0.0261767 0.903036
0.283702 0.0184352 0.86482
0.281491 0.0170245 0.860715
0.279851 0.0156562 0.858323
0.278649 0.0143165 0.857259
0.277549 0.0129853 0.856501
0.276512 0.0116596 0.855929
0.275551 0.0103389 0.855588
0.27466 0.00902218 0.85546
0.273907 0.00771019 0.855756
0.273015 0.00639535 0.85562
0.272085 0.0050813 0.855365
0.271174 0.00376904 0.855163
0.270273 0.00245834 0.854989
0.269386 0.00114915 0.854858
0.268635 -0.000159287 0.855156
0.267885 -0.00146773 0.855454
0.267134 -0.00277617 0.855752
0.266384 -0.00408461 0.85605
0.265608 -0.00539245 0.856266
0.264963 -0.00670366 0.856906
0.264331 -0.00801646 0.857588
0.263789 -0.00933369 0.858563
0.26322 -0.0106519 0.859452
0.262716 -0.0119749 0.860561
0.262155 -0.0132976 0.861485
0.261708 -0.0146287 0.862789
0.260829 -0.015195 0.867195
0.261219 -0.0159603 0.863962
0.261807 -0.0166281 0.873245
0.261514 -0.0173476 0.867722
0.320054 0.0443946 0.920207
0.31881 0.0429168 0.9193
0.317518 0.0414365 0.91825
0.315895 0.0399198 0.916232
0.314284 0.0384112 0.914235
0.312783 0.0369216 0.912546
0.311155 0.035424 0.910475
0.309689 0.0339501 0.908865
0.308174 0.0324767 0.907098
0.306807 0.0310236 0.905757
0.305587 0.0295888 0.904836
0.304446 0.0281645 0.904145
0.303468 0.0267567 0.903932
0.302659 0.0253639 0.904217
0.298248 0.0246504 0.898092
0.300758 0.0238892 0.901242
0.283871 0.0162684 0.863714
0.281658 0.0148697 0.859605
0.279972 0.0135073 0.857078
0.278904 0.0121778 0.856423
0.277892 0.0108531 0.855934
0.2769 0.00953133 0.855501
0.275952 0.00821297 0.855199
0.275168 0.00689979 0.855402
0.274246 0.00558469 0.855176
0.273287 0.00427064 0.854833
0.272375 0.00295891 0.854631
0.271473 0.00164858 0.854457
0.270586 0.000339805 0.854326
0.269809 -0.000968443 0.854543
0.269031 -0.00227648 0.854754
0.268252 -0.00358419 0.854962
0.267475 -0.00489168 0.855172
0.266672 -0.00619818 0.855302
0.266025 -0.0075091 0.855931
0.26539 -0.00882134 0.8566
0.264845 -0.0101383 0.857562
0.264247 -0.011455 0.858353
0.263713 -0.0127764 0.859358
0.263124 -0.0140969 0.860186
0.262647 -0.0154259 0.861386
0.262111 -0.0167537 0.862394
0.261731 -0.0180948 0.863921
0.262522 -0.0187978 0.873864
0.261993 -0.0194883 0.86757
0.32122 0.0434967 0.919233
0.319956 0.0420182 0.918274
0.318654 0.0405388 0.917199
0.317061 0.039029 0.915278
0.315423 0.0375205 0.913214
0.313999 0.0360421 0.911755
0.312412 0.0345517 0.909815
0.310986 0.033084 0.908327
0.309465 0.0316123 0.906553
0.308123 0.0301633 0.905292
0.306865 0.0287263 0.90427
0.305723 0.027303 0.903579
0.304745 0.0258957 0.903367
0.303905 0.0245005 0.90356
0.302595 0.0230719 0.902358
0.298154 0.0223744 0.896144
0.30063 0.0216035 0.899195
0.284067 0.0141071 0.86269
0.281817 0.0127189 0.858474
0.280241 0.0113688 0.856284
0.279254 0.0100451 0.855878
0.278233 0.00872261 0.855361
0.277253 0.00740343 0.854967
0.276433 0.00608925 0.85506
0.275504 0.0047742 0.854815
0.274518 0.00346032 0.854388
0.273605 0.00214882 0.854189
0.272702 0.000838912 0.854012
0.271812 -0.00046965 0.853876
0.270981 -0.00177748 0.853924
0.270172 -0.00308479 0.854039
0.269361 -0.0043916 0.854145
0.268553 -0.00569789 0.854259
0.267696 -0.00700213 0.854217
0.267047 -0.00831231 0.854835
0.266382 -0.0096229 0.855405
0.265809 -0.0109382 0.856271
0.265184 -0.0122528 0.856972
0.264651 -0.0135735 0.857971
0.26401 -0.0148902 0.858627
0.263508 -0.0162168 0.859736
0.262941 -0.0175414 0.860638
0.262532 -0.0188795 0.862061
