ply
format ascii 1.0
element vertex 1657
property float x
property float y
property float z
end_header
-0.13833 0.0380614 0.831349
-0.137058 0.0367998 0.830072
-0.135839 0.0355618 0.829217
-0.13465 0.0343378 0.828607
-0.133507 0.0331328 0.828377
-0.13239 0.031939 0.828377
-0.131289 0.0307512 0.828507
-0.130245 0.0295847 0.829154
-0.129236 0.02843 0.830123
-0.128217 0.0272709 0.831027
-0.127163 0.0260984 0.831616
-0.12611 0.0249254 0.832218
-0.125042 0.0237469 0.832691
-0.123919 0.0225501 0.832634
-0.122815 0.0213599 0.832761
-0.157217 0.059529 0.846603
-0.155371 0.0579405 0.841433
-0.153932 0.0565672 0.839208
-0.15277 0.0553373 0.839022
-0.151563 0.0540857 0.838493
-0.150312 0.052813 0.837608
-0.149061 0.051542 0.836707
-0.147828 0.0502812 0.835924
-0.146579 0.0490144 0.835001
-0.145432 0.0477973 0.834862
-0.144326 0.0465999 0.835047
-0.143228 0.0454065 0.835299
-0.142108 0.044203 0.835371
-0.14098 0.042996 0.835374
-0.139749 0.0417434 0.834512
-0.138455 0.0404647 0.833097
-0.137151 0.0391837 0.831558
-0.135853 0.0379086 0.830048
-0.134611 0.0366591 0.828977
-0.133408 0.0354282 0.828235
-0.132256 0.0342194 0.827919
-0.131141 0.033026 0.827919
-0.13003 0.0318344 0.827949
-0.128972 0.0306637 0.828466
-0.12796 0.0295101 0.829415
-0.126952 0.0283569 0.830425
-0.125914 0.027191 0.831152
-0.124875 0.0260242 0.831892
-0.123809 0.0248472 0.832382
-0.122683 0.0236492 0.832286
-0.121568 0.0224557 0.832302
-0.122278 0.0203432 0.838479
-0.120442 0.0212587 0.832192
-0.153861 0.0589132 0.83928
-0.152696 0.0576806 0.839075
-0.151506 0.056436 0.838676
-0.150284 0.0551752 0.838016
-0.149033 0.053901 0.837117
-0.147797 0.0526362 0.83632
-0.146584 0.0513838 0.835678
-0.145365 0.0501297 0.834976
-0.144232 0.0489189 0.834945
-0.143125 0.0477215 0.835129
-0.142028 0.0465281 0.835381
-0.140909 0.0453247 0.83546
-0.139794 0.0441234 0.835569
-0.138566 0.0428702 0.834722
-0.137274 0.0415897 0.83331
-0.135948 0.0402961 0.831572
-0.134638 0.0390123 0.829929
-0.133373 0.0377509 0.828644
-0.132161 0.0365146 0.827801
-0.131011 0.0353063 0.827495
-0.129908 0.0341177 0.827593
-0.128796 0.0329259 0.827611
-0.127725 0.031751 0.828008
-0.126708 0.0305969 0.828912
-0.125699 0.0294449 0.829909
-0.124672 0.0282847 0.830748
-0.123636 0.0271202 0.831512
-0.122569 0.0259438 0.831998
-0.121433 0.0247421 0.831791
-0.120298 0.0235416 0.831593
-0.119164 0.0223422 0.831392
-0.119305 0.0200588 0.831964
-0.118011 0.0211373 0.830988
-0.118695 0.0190201 0.837132
-0.116846 0.0199296 0.830447
-0.111939 0.0118295 0.836619
-0.111254 0.0139755 0.830003
-0.110176 0.012797 0.830344
-0.11085 0.0106418 0.836919
-0.109116 0.0116227 0.830888
-0.109802 0.00946309 0.837687
-0.108045 0.0104452 0.831323
-0.157584 0.0621304 0.849887
-0.157824 0.0646786 0.852251
-0.155634 0.0628697 0.844578
-0.153873 0.0613055 0.839971
-0.152683 0.060058 0.839587
-0.151486 0.0588073 0.839136
-0.150254 0.0575393 0.838412
-0.149004 0.0562622 0.83752
-0.147754 0.0549871 0.836618
-0.146537 0.0537304 0.835951
-0.14533 0.0524801 0.835349
-0.144139 0.0512386 0.834853
-0.143018 0.0500339 0.834922
-0.141913 0.0488368 0.835109
-0.140816 0.047644 0.835369
-0.139708 0.0464458 0.835535
-0.138593 0.0452441 0.835641
-0.137366 0.0439895 0.83479
-0.136076 0.0427072 0.83338
-0.134752 0.041411 0.831636
-0.133423 0.0401154 0.829806
-0.132146 0.0388465 0.828402
-0.130925 0.0376046 0.827463
-0.129767 0.0363918 0.827067
-0.128645 0.0351957 0.826994
-0.127534 0.0340043 0.827006
-0.126452 0.0328255 0.827292
-0.125433 0.0316723 0.828175
-0.124423 0.0305219 0.829164
-0.123415 0.0293711 0.83019
-0.122379 0.028208 0.830957
-0.121312 0.0270321 0.831424
-0.120173 0.0258296 0.831185
-0.119029 0.0246255 0.830877
-0.117878 0.0234204 0.830494
-0.116718 0.0222127 0.829995
-0.115546 0.0210024 0.829354
-0.115702 0.0187297 0.830101
-0.114383 0.0197965 0.828787
-0.114552 0.0175291 0.829683
-0.113235 0.0185965 0.828358
-0.113425 0.0163362 0.829491
-0.112111 0.0174055 0.828185
-0.112333 0.0151543 0.829684
-0.111043 0.0162315 0.828611
-0.109985 0.0150602 0.82916
-0.108926 0.0138881 0.829709
-0.107875 0.0127172 0.830348
-0.106805 0.011541 0.830788
-0.10699 0.00927088 0.831944
-0.10575 0.0103677 0.831404
-0.105935 0.00809583 0.83258
-0.104695 0.00919379 0.832033
-0.155022 0.064922 0.840638
-0.153859 0.0636877 0.840474
-0.152698 0.0624544 0.840311
-0.151478 0.0611886 0.839692
-0.150238 0.0599131 0.838907
-0.14899 0.0586345 0.838044
-0.147727 0.0573491 0.837045
-0.146481 0.0560743 0.836153
-0.14527 0.0548194 0.835518
-0.144078 0.0535756 0.83502
-0.1429 0.05234 0.83462
-0.141791 0.0511413 0.834781
-0.140676 0.0499393 0.834887
-0.13958 0.0487473 0.83515
-0.138459 0.0475428 0.835208
-0.137319 0.0463289 0.835095
-0.13608 0.045067 0.834124
-0.134806 0.0437894 0.832819
-0.133487 0.0424931 0.831097
-0.132174 0.0412017 0.829377
-0.130909 0.039936 0.828058
-0.129689 0.0386926 0.827104
-0.128521 0.0374746 0.826606
-0.1274 0.0362789 0.826534
-0.12629 0.0350883 0.826556
-0.125199 0.0339063 0.826754
-0.124181 0.0327552 0.827649
-0.123171 0.0316061 0.828632
-0.122164 0.0304574 0.829667
-0.121128 0.0292958 0.830434
-0.12006 0.0281206 0.830895
-0.118921 0.0269175 0.830637
-0.117776 0.025713 0.830308
-0.116617 0.0245043 0.829823
-0.115449 0.0232931 0.829218
-0.114277 0.0220821 0.828555
-0.113104 0.0208724 0.827863
-0.111949 0.0196702 0.827342
-0.110819 0.0184773 0.827079
-0.109746 0.0173031 0.827436
-0.108689 0.0161337 0.82798
-0.107623 0.0149613 0.828443
-0.106573 0.0137926 0.829081
-0.105512 0.0126203 0.829613
-0.104459 0.0114495 0.830243
-0.103413 0.0102797 0.830972
-0.104062 0.00811313 0.837808
-0.102367 0.0091088 0.831717
-0.153848 0.0660741 0.840992
-0.152698 0.0648465 0.840926
-0.151534 0.0636104 0.840739
-0.150297 0.0623335 0.839989
-0.14902 0.061035 0.83891
-0.147742 0.059737 0.837793
-0.146467 0.0584429 0.836683
-0.145225 0.0571684 0.835808
-0.144018 0.0559146 0.835196
-0.142838 0.0546765 0.834787
-0.14167 0.0534455 0.834463
-0.140561 0.0522464 0.834614
-0.139437 0.0510399 0.834644
-0.138342 0.0498485 0.834911
-0.137208 0.0486373 0.834852
-0.136042 0.0474099 0.83451
-0.134792 0.0461404 0.833417
-0.13352 0.0448621 0.832111
-0.132209 0.0435666 0.830428
-0.130913 0.0422805 0.82883
-0.129662 0.0410191 0.827612
-0.128431 0.039769 0.826543
-0.127262 0.0385499 0.826022
-0.126141 0.037354 0.825936
-0.125034 0.0361646 0.825969
-0.123945 0.0349838 0.826177
-0.122937 0.0338391 0.827179
-0.121928 0.0326923 0.828174
-0.120923 0.0315462 0.829234
-0.119888 0.0303862 0.83001
-0.118812 0.0292086 0.830388
-0.117664 0.0280017 0.830029
-0.116511 0.0267934 0.829593
-0.115352 0.0255841 0.829088
-0.114175 0.0243691 0.828373
-0.112996 0.0231548 0.827608
-0.111816 0.0219419 0.826815
-0.110662 0.0207396 0.826274
-0.109524 0.0195443 0.825902
-0.10845 0.0183712 0.826235
-0.107393 0.0172033 0.826767
-0.106328 0.0160325 0.827216
-0.105269 0.0148632 0.827749
-0.104201 0.0136906 0.828181
-0.103149 0.0125219 0.828804
-0.102105 0.0113549 0.829546
-0.101079 0.0101915 0.830533
-0.101305 0.00793317 0.832267
-0.100036 0.00902235 0.831316
-0.100231 0.00675442 0.832682
-0.0989817 0.00784937 0.831972
-0.0991377 0.00557138 0.832861
-0.0979148 0.00667291 0.832477
-0.0980152 0.00438278 0.832652
-0.0968243 0.00549087 0.832679
-0.0975787 0.00331628 0.841532
-0.0960479 0.00437011 0.837118
-0.152679 0.0672302 0.841389
-0.151551 0.0660149 0.841491
-0.150385 0.0647766 0.841288
-0.149135 0.0634898 0.84043
-0.147825 0.0621696 0.839086
-0.146546 0.0608686 0.83795
-0.145246 0.0595572 0.836622
-0.143984 0.0582697 0.835578
-0.14279 0.0570218 0.835059
-0.141611 0.0557828 0.834644
-0.140441 0.05455 0.834299
-0.139334 0.0533522 0.834464
-0.13821 0.0521458 0.834496
-0.137104 0.0509485 0.834665
-0.135956 0.0497295 0.834478
-0.134776 0.048494 0.834003
-0.133515 0.047217 0.832797
-0.132258 0.0459436 0.831591
-0.130964 0.0446538 0.830034
-0.129695 0.0433786 0.828659
-0.128459 0.0421223 0.82756
-0.127229 0.0408706 0.826485
-0.12605 0.0396452 0.825856
-0.124918 0.0384435 0.825657
-0.1238 0.0372492 0.825585
-0.122702 0.0360645 0.8257
-0.121695 0.0349217 0.826705
-0.120685 0.0337765 0.827702
-0.119671 0.0326281 0.828672
-0.118636 0.0314698 0.829454
-0.117552 0.0302893 0.829739
-0.116397 0.0290789 0.829286
-0.115236 0.0278671 0.828754
-0.114078 0.0266578 0.828242
-0.112896 0.0254399 0.827445
-0.111719 0.0242255 0.826674
-0.110542 0.0230128 0.825883
-0.109388 0.0218105 0.825329
-0.108243 0.0206123 0.824847
-0.107158 0.0194366 0.825049
-0.106091 0.0182668 0.825446
-0.105016 0.0170944 0.825769
-0.103951 0.0159247 0.826204
-0.102884 0.0147541 0.826621
-0.101833 0.0135881 0.82725
-0.100799 0.012426 0.828097
-0.099782 0.0112677 0.829186
-0.0987584 0.0101059 0.83021
-0.0977366 0.00894306 0.831282
-0.0967017 0.00777536 0.832208
-0.0956364 0.0065994 0.832745
-0.0945627 0.00542103 0.833176
-0.152668 0.0690991 0.85063
-0.150848 0.0674562 0.845484
-0.149268 0.0659644 0.842101
-0.148009 0.0646693 0.841163
-0.146661 0.0633229 0.839506
-0.145379 0.0620178 0.838342
-0.144053 0.0606882 0.836794
-0.14278 0.0593913 0.835642
-0.141587 0.0581426 0.835123
-0.140397 0.0568966 0.834617
-0.139228 0.055663 0.834268
-0.138121 0.0544653 0.834433
-0.136998 0.053259 0.834468
-0.135892 0.0520616 0.834633
-0.134754 0.0508473 0.834528
-0.133564 0.049605 0.833953
-0.132293 0.0483202 0.832643
-0.131026 0.0470397 0.831339
-0.129735 0.0457481 0.82978
-0.12846 0.044467 0.828327
-0.127229 0.0432114 0.827256
-0.126003 0.0419592 0.826193
-0.124824 0.040733 0.825557
-0.123682 0.0395257 0.825248
-0.122554 0.0383262 0.825071
-0.121455 0.0371414 0.825168
-0.120436 0.0359946 0.826057
-0.119416 0.0348464 0.826952
-0.118379 0.0336899 0.8277
-0.117344 0.0325327 0.828461
-0.11625 0.0313488 0.828632
-0.115088 0.0301354 0.828092
-0.11392 0.0289201 0.827456
-0.112765 0.0277117 0.826942
-0.111594 0.0264979 0.826241
-0.110432 0.0252888 0.825602
-0.109268 0.0240807 0.824933
-0.108116 0.0228786 0.824377
-0.106971 0.0216803 0.823875
-0.10587 0.0204994 0.823869
-0.104796 0.0193283 0.824168
-0.103714 0.0181549 0.824393
-0.102642 0.0169842 0.824717
-0.101575 0.0158155 0.825125
-0.100524 0.0146513 0.825728
-0.099483 0.0134897 0.82648
-0.0984675 0.0123345 0.827573
-0.097458 0.0111795 0.828769
-0.0964454 0.0100218 0.829954
-0.095428 0.00886104 0.831108
-0.0943874 0.00769276 0.83197
-0.0933384 0.00652134 0.832736
-0.0941228 0.00436918 0.84245
-0.0925915 0.00541534 0.837805
-0.150198 0.0689458 0.849965
-0.146937 0.0658849 0.84234
-0.14556 0.0645163 0.840439
-0.144244 0.0631871 0.838992
-0.142902 0.0618443 0.837303
-0.141603 0.0605289 0.835925
-0.140388 0.0592655 0.835217
-0.139197 0.0580179 0.8347
-0.138032 0.0567853 0.834374
-0.136923 0.0555867 0.83453
-0.135802 0.0543805 0.834568
-0.134695 0.0531831 0.834734
-0.133559 0.0519693 0.834643
-0.132382 0.0507328 0.834177
-0.131104 0.0494408 0.832783
-0.129827 0.0481522 0.831375
-0.128534 0.0468564 0.829777
-0.12727 0.0455782 0.828406
-0.126042 0.0443214 0.827341
-0.12483 0.0430749 0.826406
-0.123663 0.0418528 0.82587
-0.12252 0.040644 0.825548
-0.12137 0.0394327 0.825155
-0.120251 0.0382374 0.825049
-0.119209 0.037081 0.825719
-0.118167 0.0359236 0.826393
-0.1171 0.0347534 0.826816
-0.116051 0.033592 0.827444
-0.114938 0.0323997 0.827393
-0.113769 0.0311826 0.826747
-0.112602 0.0299675 0.8261
-0.111459 0.0287638 0.825682
-0.110301 0.0275551 0.825092
-0.109152 0.0263514 0.824583
-0.108001 0.025148 0.824035
-0.106854 0.023947 0.823498
-0.105711 0.022749 0.822997
-0.104596 0.0215632 0.822809
-0.103514 0.0203907 0.823013
-0.102427 0.0192158 0.823145
-0.101347 0.0180441 0.823368
-0.100282 0.0168773 0.823773
-0.0992316 0.0157152 0.824375
-0.098191 0.0145556 0.825114
-0.0971734 0.0134025 0.82617
-0.096163 0.01225 0.82735
-0.0951563 0.011097 0.828609
-0.0941556 0.00994361 0.829984
-0.0931388 0.00878377 0.831171
-0.092113 0.00761978 0.832262
-0.0910964 0.00645641 0.833514
-0.0918627 0.00430337 0.843298
-0.0900718 0.00528916 0.834686
-0.14585 0.0670954 0.84342
-0.144472 0.0657215 0.841499
-0.143134 0.0643746 0.839861
-0.14178 0.0630203 0.838063
-0.140466 0.0616921 0.836549
-0.139237 0.0604184 0.835723
-0.138036 0.0591626 0.835112
-0.136858 0.0579213 0.834677
-0.135737 0.0567153 0.834729
-0.134626 0.0555149 0.834859
-0.133521 0.0543182 0.835041
-0.132401 0.0531127 0.835086
-0.131238 0.0518828 0.834743
-0.129961 0.0505884 0.833349
-0.128672 0.0492893 0.831812
-0.127367 0.047983 0.830082
-0.126101 0.0467009 0.828679
-0.124875 0.0454426 0.827619
-0.123666 0.0441953 0.826698
-0.1225 0.0429725 0.82617
-0.121357 0.0417627 0.825846
-0.120197 0.0405448 0.825345
-0.119067 0.0393433 0.82513
-0.118005 0.0381771 0.825591
-0.116932 0.0370051 0.825951
-0.115823 0.035815 0.825939
-0.114743 0.0346397 0.826231
-0.113603 0.033435 0.825878
-0.112429 0.0322146 0.825135
-0.111266 0.0310011 0.824498
-0.110141 0.0298063 0.824259
-0.108996 0.0286028 0.823778
-0.10786 0.0274046 0.823387
-0.106723 0.0262068 0.822967
-0.105586 0.0250101 0.822535
-0.104453 0.0238158 0.822123
-0.103347 0.0226338 0.822029
-0.102275 0.0214657 0.822335
-0.101197 0.020295 0.82257
-0.100119 0.0191244 0.822803
-0.0990456 0.0179554 0.823101
-0.097988 0.0167919 0.823602
-0.0969336 0.0156292 0.824156
-0.0959009 0.0144731 0.825009
-0.0948814 0.0133203 0.826061
-0.0938737 0.0121696 0.827304
-0.0928803 0.0110214 0.828777
-0.0918859 0.00987079 0.830279
-0.090876 0.00871342 0.831601
-0.0898729 0.00755578 0.833059
-0.0888536 0.00639184 0.834316
-0.146045 0.0696273 0.845634
-0.144782 0.0683214 0.844665
-0.143395 0.0669371 0.842662
-0.142036 0.0655729 0.840847
-0.140657 0.0641982 0.838828
-0.139319 0.062851 0.837098
-0.138075 0.0615659 0.836143
-0.136874 0.0603079 0.83552
-0.135685 0.0590584 0.834986
-0.134563 0.0578511 0.835027
-0.133461 0.0566562 0.835242
-0.132357 0.0554599 0.835436
-0.131239 0.0542553 0.835504
-0.130099 0.0530376 0.835364
-0.128824 0.051741 0.833977
-0.127536 0.0504385 0.83243
-0.126219 0.0491218 0.830577
-0.124952 0.047836 0.829153
-0.123718 0.0465705 0.828004
-0.122522 0.0453278 0.827192
-0.121347 0.0440988 0.826577
-0.120203 0.0428868 0.826235
-0.119033 0.0416621 0.82563
-0.117884 0.0404498 0.825219
-0.116802 0.0392733 0.825479
-0.115707 0.0380904 0.825611
-0.11457 0.0368854 0.825287
-0.113461 0.0356956 0.825254
-0.112311 0.0344859 0.82478
-0.111123 0.0332576 0.823852
-0.109955 0.0320412 0.823132
-0.108834 0.0308484 0.822911
-0.1077 0.0296499 0.822528
-0.106575 0.0284567 0.822238
-0.105457 0.0272675 0.822018
-0.104339 0.0260787 0.821781
-0.103224 0.024892 0.82157
-0.102127 0.0237137 0.821571
-0.101056 0.0225466 0.821885
-0.0999787 0.0213767 0.822119
-0.0989005 0.0202064 0.822345
-0.097828 0.0190384 0.822647
-0.0967635 0.0178732 0.823053
-0.0957009 0.0167084 0.823492
-0.094668 0.0155539 0.824344
-0.0936476 0.0144028 0.825386
-0.0926403 0.0132545 0.826638
-0.0916523 0.0121107 0.8282
-0.0906721 0.010967 0.82992
-0.0896687 0.0098137 0.831349
-0.0886666 0.00865842 0.832839
-0.0876519 0.00749755 0.834181
-0.145105 0.0709467 0.847942
-0.143666 0.0695209 0.845549
-0.142317 0.0681565 0.843842
-0.140957 0.0667872 0.842009
-0.139592 0.0654161 0.840087
-0.138253 0.0640645 0.838349
-0.136983 0.0627596 0.837167
-0.135757 0.0614836 0.83633
-0.134555 0.060224 0.835682
-0.133422 0.0590088 0.835626
-0.132319 0.0578131 0.835838
-0.131214 0.0566158 0.836028
-0.130095 0.0554099 0.836088
-0.128955 0.0541913 0.835952
-0.127681 0.0528923 0.834564
-0.126385 0.0515813 0.832924
-0.125071 0.0502619 0.831077
-0.123797 0.0489689 0.829574
-0.122554 0.047695 0.82832
-0.121358 0.0464505 0.827503
-0.120193 0.045225 0.826971
-0.119039 0.0440069 0.826537
-0.11787 0.0427806 0.825926
-0.116719 0.0415662 0.825496
-0.11561 0.040375 0.825478
-0.114487 0.0391763 0.825302
-0.113329 0.0379595 0.824745
-0.112199 0.036759 0.824481
-0.111034 0.0355403 0.823812
-0.109848 0.0343119 0.822883
-0.108684 0.0330965 0.82218
-0.107566 0.0319048 0.821966
-0.106441 0.0307109 0.821676
-0.105326 0.0295222 0.821482
-0.104218 0.0283375 0.821362
-0.103112 0.0271538 0.821245
-0.102007 0.0259714 0.821144
-0.100912 0.0247941 0.821159
-0.0998418 0.0236278 0.821475
-0.0987649 0.0224585 0.82171
-0.0976877 0.021289 0.821942
-0.0966217 0.0201242 0.822322
-0.0955567 0.0189595 0.822721
-0.0944935 0.0177952 0.82315
-0.0934598 0.0166417 0.823993
-0.0924395 0.0154923 0.825044
-0.091426 0.0143438 0.826219
-0.0904373 0.0132024 0.827787
-0.0894558 0.012061 0.829507
-0.0884584 0.0109119 0.83104
-0.087456 0.00975889 0.832542
-0.08644 0.00859966 0.833879
-0.144117 0.0722427 0.849909
-0.142531 0.0707102 0.84629
-0.141218 0.0693661 0.844869
-0.139877 0.0680049 0.843182
-0.138526 0.0666389 0.841374
-0.137199 0.0652903 0.839724
-0.135905 0.0639657 0.838326
-0.134665 0.0626784 0.837372
-0.133439 0.0614014 0.836518
-0.132295 0.060178 0.836367
-0.13118 0.0589739 0.836474
-0.130062 0.0577683 0.836553
-0.12894 0.0565599 0.836589
-0.127799 0.0553397 0.836443
-0.126527 0.0540385 0.835058
-0.125235 0.0527265 0.833444
-0.123934 0.0514105 0.831695
-0.122671 0.0501205 0.830284
-0.121428 0.048844 0.829028
-0.120233 0.0475974 0.828207
-0.119067 0.04637 0.827671
-0.117904 0.0451445 0.827137
-0.116725 0.0439108 0.82642
-0.115556 0.0426843 0.825795
-0.114426 0.0414805 0.825552
-0.113274 0.0402653 0.825069
-0.112107 0.0390419 0.824393
-0.110952 0.0378269 0.82384
-0.10978 0.036603 0.823064
-0.108595 0.035374 0.822129
-0.107441 0.0341626 0.821514
-0.106323 0.0329711 0.821295
-0.105209 0.0317818 0.821102
-0.104104 0.0305978 0.82101
-0.103007 0.0294183 0.821009
-0.10191 0.0282394 0.82101
-0.100816 0.0270617 0.821026
-0.09973 0.0258883 0.821148
-0.0986594 0.0247221 0.82146
-0.0975818 0.0235527 0.821685
-0.0965038 0.0223829 0.821904
-0.0954323 0.021216 0.822212
-0.0943604 0.0200489 0.822518
-0.0933034 0.0188876 0.823029
-0.0922686 0.017735 0.823866
-0.0912485 0.0165871 0.82493
-0.0902418 0.015443 0.826219
-0.0892586 0.0143058 0.82789
-0.0882736 0.0131656 0.829587
-0.0872802 0.0120199 0.831206
-0.0862762 0.0108684 0.83271
-0.0852543 0.0097089 0.833979
-0.143158 0.0735662 0.852148
-0.141457 0.0719448 0.847553
-0.140107 0.0705717 0.845821
-0.138772 0.0692104 0.844174
-0.137452 0.0678606 0.842612
-0.136149 0.0665246 0.841169
-0.134855 0.0651958 0.839762
-0.133598 0.0638938 0.838657
-0.132349 0.0625982 0.837591
-0.13118 0.0613577 0.83723
-0.130054 0.0601455 0.837239
-0.128923 0.0589307 0.837205
-0.127788 0.0577131 0.837121
-0.126635 0.0564845 0.836866
-0.125365 0.0551809 0.835479
-0.124075 0.0538664 0.833867
-0.122787 0.0525549 0.832229
-0.121526 0.0512623 0.830816
-0.120284 0.0499837 0.829562
-0.119087 0.0487341 0.828722
-0.117923 0.0475055 0.828191
-0.116752 0.0462736 0.82757
-0.115572 0.0450379 0.826845
-0.114411 0.0438137 0.826286
-0.113261 0.0425973 0.825832
-0.112082 0.0413647 0.825045
-0.110903 0.0401332 0.824227
-0.109732 0.0389072 0.823474
-0.108544 0.0376736 0.822514
-0.107363 0.0364444 0.821586
-0.106217 0.0352366 0.821051
-0.105101 0.0340454 0.820835
-0.103988 0.0328568 0.820652
-0.102893 0.0316777 0.820666
-0.101806 0.0305034 0.820778
-0.10072 0.0293292 0.820892
-0.0996338 0.0281556 0.821014
-0.0985554 0.0269858 0.821228
-0.0974841 0.0258195 0.821534
-0.0964062 0.0246499 0.821754
-0.095328 0.0234801 0.821971
-0.0942568 0.0223136 0.822285
-0.0931786 0.0211437 0.822504
-0.0921156 0.0199805 0.822936
-0.0910724 0.0188254 0.82366
-0.0900582 0.0176816 0.824822
-0.0890438 0.0165363 0.826013
-0.0880663 0.015404 0.827792
-0.0870849 0.0142677 0.829569
-0.0860957 0.013126 0.831277
-0.0850835 0.0119735 0.832678
-0.0840672 0.0108177 0.834054
-0.147796 0.0776975 0.871077
-0.150144 0.0797962 0.8805
-0.148634 0.0807908 0.87856
-0.1465 0.0788278 0.870767
-0.145425 0.075591 0.861281
-0.14432 0.0768387 0.86244
-0.142182 0.0748874 0.854301
-0.140395 0.0731935 0.848949
-0.139005 0.071787 0.846865
-0.137663 0.070416 0.84514
-0.13636 0.0690749 0.843726
-0.135074 0.0677464 0.842416
-0.133789 0.0664206 0.841093
-0.132521 0.0651076 0.839883
-0.131257 0.0637985 0.838678
-0.130074 0.0625463 0.838187
-0.128924 0.0613171 0.837983
-0.12777 0.0600859 0.837738
-0.126614 0.0588537 0.837461
-0.125459 0.0576225 0.837182
-0.124191 0.0563174 0.835806
-0.122903 0.0549999 0.834184
-0.121626 0.0536925 0.832644
-0.120376 0.0524033 0.83132
-0.119128 0.0511171 0.829981
-0.117932 0.0498664 0.82915
-0.116777 0.0486417 0.828704
-0.115596 0.0474024 0.827984
-0.114409 0.0461596 0.827165
-0.113248 0.0449341 0.826601
-0.11208 0.0437054 0.825948
-0.11089 0.0424639 0.82502
-0.109711 0.0412305 0.82419
-0.108539 0.0400026 0.823415
-0.107354 0.0387683 0.822465
-0.106182 0.0375426 0.82163
-0.105039 0.0363347 0.821112
-0.103916 0.035139 0.82081
-0.102804 0.03395 0.820626
-0.10171 0.0327711 0.820645
-0.100623 0.0315967 0.820759
-0.0995375 0.030423 0.820881
-0.0984591 0.0292532 0.821095
-0.0973807 0.0280834 0.821309
-0.0963024 0.0269137 0.821522
-0.0952241 0.025744 0.821736
-0.0941457 0.0245742 0.82195
-0.0930745 0.0234078 0.822262
-0.0919968 0.0222382 0.822487
-0.0909328 0.021075 0.822908
-0.0898822 0.0199175 0.823529
-0.0888659 0.0187747 0.824676
-0.0878504 0.0176306 0.825865
-0.0868783 0.0165033 0.827753
-0.0859025 0.015372 0.829645
-0.0849301 0.0142394 0.831651
-0.0839228 0.0130905 0.833159
-0.0829102 0.0119376 0.834628
-0.145099 0.0798785 0.869576
-0.143081 0.0779916 0.862499
-0.141054 0.0761043 0.855205
-0.139234 0.0743748 0.849526
-0.13784 0.0729597 0.847379
-0.136523 0.0716031 0.845862
-0.13526 0.0702872 0.844785
-0.13401 0.068981 0.843788
-0.132739 0.067661 0.842581
-0.131448 0.0663286 0.841168
-0.13017 0.0650067 0.839838
-0.128963 0.0637357 0.839127
-0.127777 0.0624802 0.838594
-0.126601 0.0612322 0.838136
-0.125443 0.0599976 0.837838
-0.124278 0.0587586 0.837463
-0.123013 0.0574516 0.836089
-0.121736 0.0561383 0.834565
-0.120472 0.054835 0.833122
-0.119224 0.0535444 0.831811
-0.117977 0.0522561 0.830475
-0.116782 0.0510033 0.829639
-0.115626 0.0497769 0.829186
-0.114438 0.0485303 0.828372
-0.113252 0.0472859 0.827552
-0.112091 0.0460592 0.826991
-0.110908 0.0448187 0.826152
-0.10971 0.0435702 0.825128
-0.108538 0.0423393 0.824365
-0.10736 0.0411054 0.823501
-0.106178 0.0398706 0.822568
-0.105024 0.0386539 0.821936
-0.10389 0.0374498 0.821514
-0.102768 0.0362536 0.821222
-0.101664 0.0350681 0.821131
-0.100568 0.0338877 0.821137
-0.0994721 0.0327078 0.821141
-0.0983848 0.0315328 0.821245
-0.0973061 0.0303627 0.821459
-0.0962283 0.029193 0.821683
-0.095157 0.0280268 0.821996
-0.094085 0.0268601 0.822303
-0.0929994 0.0256863 0.822424
-0.0919202 0.0245158 0.82263
-0.0908346 0.0233422 0.822748
-0.0897625 0.0221752 0.823058
-0.0886977 0.0210117 0.823479
-0.0876724 0.0198662 0.824502
-0.0866555 0.0187235 0.825685
-0.0856831 0.0175991 0.827597
-0.0847084 0.0164713 0.829533
-0.0837479 0.0153468 0.831765
-0.0827525 0.0142049 0.833496
-0.0817384 0.0130533 0.834973
-0.14355 0.0808118 0.867129
-0.141655 0.0790033 0.860987
-0.139763 0.0772021 0.854741
-0.138052 0.0755418 0.849925
-0.136646 0.0741134 0.847662
-0.135344 0.072764 0.846255
-0.134097 0.0714566 0.845304
-0.132881 0.0701738 0.844615
-0.131625 0.068861 0.843529
-0.130336 0.0675259 0.84212
-0.129049 0.0661937 0.840695
-0.127838 0.0649177 0.839948
-0.126629 0.0636439 0.839195
-0.12544 0.0623856 0.838618
-0.12428 0.0611475 0.838289
-0.123106 0.0599009 0.837824
-0.121832 0.0585843 0.836345
-0.120559 0.0572705 0.834845
-0.119297 0.0559653 0.833409
-0.118052 0.0546733 0.832106
-0.116816 0.0533892 0.830865
-0.115622 0.0521347 0.830028
-0.114457 0.0509007 0.829472
-0.113269 0.049652 0.828648
-0.112082 0.0484057 0.82782
-0.110915 0.0471727 0.827172
-0.109733 0.045931 0.826337
-0.108537 0.0446814 0.825318
-0.107375 0.0434547 0.824656
-0.106192 0.0422159 0.823729
-0.10502 0.0409848 0.822895
-0.103876 0.0397724 0.822369
-0.102751 0.0385727 0.822055
-0.10163 0.0373757 0.821772
-0.100533 0.0361935 0.821771
-0.0994346 0.0350112 0.821754
-0.0983375 0.0338297 0.821742
-0.0972489 0.0326534 0.821836
-0.0961697 0.0314826 0.82205
-0.0950917 0.0303127 0.822281
-0.0940205 0.0291464 0.822605
-0.0929483 0.0279793 0.822918
-0.0918552 0.026801 0.822941
-0.0907613 0.0256224 0.822945
-0.0896673 0.0244441 0.82294
-0.0885868 0.0232729 0.823129
-0.087515 0.0221063 0.823449
-0.0864885 0.0209617 0.824467
-0.0854823 0.0198259 0.825832
-0.0845137 0.0187062 0.82784
-0.0835447 0.0175839 0.829909
-0.0825895 0.0164649 0.832274
-0.0816098 0.0153322 0.834311
-0.138424 0.0782605 0.853852
-0.136835 0.0766838 0.850035
-0.135438 0.0752569 0.847821
-0.134153 0.0739169 0.846548
-0.132919 0.0726174 0.845708
-0.131718 0.0713428 0.845137
-0.130484 0.0700448 0.844256
-0.129209 0.0687163 0.842962
-0.127933 0.0673887 0.841632
-0.126724 0.0661112 0.840892
-0.125503 0.0648265 0.840027
-0.124302 0.063557 0.839328
-0.12313 0.0623093 0.838889
-0.121947 0.0610539 0.838322
-0.120684 0.0597423 0.836947
-0.119442 0.0584465 0.835739
-0.118174 0.0571333 0.834229
-0.116921 0.0558323 0.832835
-0.115683 0.0545437 0.831563
-0.11447 0.0532735 0.830517
-0.113279 0.0520195 0.829672
-0.112091 0.050769 0.828842
-0.110905 0.0495206 0.828003
-0.109729 0.0482801 0.827251
-0.108548 0.0470371 0.826412
-0.107362 0.0457913 0.825484
-0.106211 0.0445706 0.824944
-0.105047 0.0433416 0.824224
-0.103887 0.0421157 0.823518
-0.102758 0.0409115 0.823173
-0.101633 0.0397103 0.822863
-0.100512 0.0385118 0.822579
-0.0994071 0.0373244 0.822495
-0.098309 0.0361413 0.822483
-0.0972043 0.0349545 0.822379
-0.0961146 0.0337769 0.822465
-0.0950347 0.0326055 0.822679
-0.0939569 0.0314353 0.822922
-0.0928853 0.0302687 0.823251
-0.0918126 0.0291013 0.823568
-0.0907119 0.0279179 0.823488
-0.0896098 0.0267341 0.823376
-0.0885129 0.0255535 0.823331
-0.0874254 0.0243783 0.823418
-0.0863478 0.0232086 0.823653
-0.0853205 0.022065 0.824678
-0.0843192 0.0209337 0.826146
-0.0833481 0.0198158 0.828154
-0.0823823 0.0186981 0.830319
-0.0814293 0.0175838 0.832773
-0.0804709 0.0164639 0.835222
-0.136981 0.0792331 0.852043
-0.135481 0.0777177 0.848935
-0.134164 0.0763487 0.847392
-0.132928 0.0750446 0.846545
-0.131708 0.0737528 0.845809
-0.13052 0.0724872 0.845355
-0.129309 0.0712044 0.844673
-0.128048 0.0698837 0.843501
-0.126797 0.0685709 0.842385
-0.12561 0.0673085 0.84186
-0.124392 0.0660232 0.841017
-0.123191 0.0647514 0.840316
-0.122028 0.0635089 0.839971
-0.120842 0.0622499 0.839385
-0.119591 0.0609429 0.838116
-0.11837 0.0596591 0.837116
-0.117112 0.0583493 0.835706
-0.115849 0.0570375 0.834206
-0.114609 0.0557432 0.832903
-0.113375 0.054455 0.831633
-0.112165 0.0531845 0.830575
-0.110959 0.0519185 0.829537
-0.109772 0.0506672 0.828683
-0.108587 0.0494181 0.827821
-0.107406 0.048173 0.826981
-0.106229 0.0469312 0.826151
-0.105087 0.0457146 0.825711
-0.103926 0.0444849 0.825012
-0.102773 0.0432627 0.824406
-0.101652 0.042062 0.824159
-0.10052 0.0408542 0.823755
-0.0993906 0.0396492 0.823376
-0.0982848 0.03846 0.823282
-0.0971795 0.0372715 0.823184
-0.0960682 0.0360795 0.822997
-0.0949796 0.0349021 0.823102
-0.0938991 0.03373 0.823316
-0.0928197 0.0325586 0.823546
-0.091747 0.0313912 0.823871
-0.0906731 0.0302231 0.824184
-0.0895655 0.0290347 0.824005
-0.0884621 0.0278493 0.823875
-0.0873645 0.0266675 0.823821
-0.086277 0.025492 0.823914
-0.0852058 0.0243256 0.824258
-0.0841847 0.0231866 0.825407
-0.0831816 0.0220561 0.826884
-0.0822077 0.0209396 0.828896
-0.0812381 0.0198229 0.831046
-0.0802752 0.0187072 0.833392
-0.0793298 0.0175973 0.836131
-0.131667 0.0761424 0.846205
-0.13046 0.0748598 0.845582
-0.129296 0.0736114 0.845333
-0.128099 0.0723379 0.844773
-0.126863 0.0710334 0.843815
-0.125637 0.0697381 0.842934
-0.124474 0.0684927 0.842639
-0.12328 0.0672234 0.842024
-0.12211 0.065973 0.841626
-0.120976 0.0647518 0.841587
-0.119802 0.0634993 0.841126
-0.118571 0.0622039 0.840064
-0.11736 0.0609242 0.839173
-0.116103 0.0596115 0.837782
-0.114821 0.0582804 0.836072
-0.113575 0.0569784 0.834713
-0.11232 0.05567 0.833204
-0.111081 0.0543755 0.831837
-0.109864 0.0530983 0.830674
-0.108667 0.0518372 0.829709
-0.107466 0.0505733 0.828649
-0.106285 0.0493259 0.827805
-0.105116 0.048087 0.827061
-0.103975 0.0468695 0.826636
-0.102822 0.0456436 0.826039
-0.101669 0.0444192 0.825431
-0.100541 0.0432118 0.825094
-0.0993985 0.0419959 0.824572
-0.098261 0.0407837 0.824088
-0.0971529 0.039592 0.823967
-0.0960474 0.0384024 0.82387
-0.094936 0.0372092 0.823684
-0.0938537 0.0360356 0.823885
-0.092779 0.0348669 0.824192
-0.0916926 0.0336906 0.824335
-0.0906181 0.0325219 0.824648
-0.0895423 0.0313524 0.824945
-0.0884276 0.0301585 0.824665
-0.0873183 0.0289684 0.824449
-0.0862213 0.0277864 0.82441
-0.0851404 0.0266141 0.824612
-0.0840758 0.0254516 0.825077
-0.0830594 0.0243166 0.826335
-0.0820599 0.0231902 0.827915
-0.0810831 0.0220747 0.82993
-0.080104 0.0209558 0.83198
-0.0791259 0.0198352 0.83412
-0.0781871 0.018733 0.83705
-0.125619 0.0721373 0.84358
-0.124408 0.0708515 0.842822
-0.123269 0.0696245 0.842756
-0.12211 0.0683809 0.842474
-0.120974 0.0671567 0.842423
-0.119873 0.0659601 0.842715
-0.118721 0.0647236 0.842489
-0.117522 0.0634495 0.841751
-0.11632 0.062175 0.840975
-0.115082 0.0608727 0.839781
-0.113799 0.0595358 0.838056
-0.112554 0.0582299 0.836703
-0.111285 0.0569075 0.835053
-0.110035 0.0556003 0.833558
-0.108799 0.0543049 0.832176
-0.107592 0.053033 0.831093
-0.106389 0.0517649 0.830017
-0.105208 0.0505149 0.829177
-0.104041 0.0492748 0.828457
-0.102898 0.0480543 0.828022
-0.101751 0.0468306 0.827506
-0.10059 0.0455976 0.826795
-0.0994515 0.0443815 0.826346
-0.0983081 0.0431626 0.825812
-0.0971608 0.0419415 0.825205
-0.0960364 0.0407372 0.824876
-0.0949283 0.0395449 0.824753
-0.0938159 0.0383498 0.82456
-0.0927265 0.0371709 0.824674
-0.0916514 0.0360019 0.824989
-0.0905635 0.034824 0.82512
-0.0894814 0.0336501 0.825335
-0.0883981 0.0324755 0.825532
-0.0872831 0.0312802 0.825248
-0.0861802 0.0300932 0.825132
-0.0850902 0.0289148 0.825208
-0.0840162 0.0277465 0.825534
-0.0829566 0.0265871 0.8261
-0.0819438 0.0254558 0.827457
-0.080942 0.02433 0.829048
-0.079962 0.0232155 0.831068
-0.0789737 0.0220941 0.833017
-0.0779913 0.0209741 0.835145
-0.077054 0.0198771 0.838183
-0.11874 0.0671489 0.843564
-0.117621 0.0659375 0.843681
-0.116443 0.0646788 0.843174
-0.11526 0.0634167 0.8426
-0.114041 0.0621256 0.841609
-0.112759 0.0607853 0.839896
-0.111505 0.0594686 0.838449
-0.110229 0.0581354 0.836707
-0.108969 0.0568164 0.835098
-0.107714 0.0555025 0.833498
-0.106497 0.0542195 0.832293
-0.105295 0.0529489 0.831222
-0.104122 0.0517016 0.830468
-0.102955 0.05046 0.829763
-0.101813 0.0492379 0.829339
-0.100672 0.0480171 0.828909
-0.0995086 0.0467798 0.828175
-0.0983688 0.0455609 0.827716
-0.097224 0.0443389 0.827173
-0.0960681 0.0431092 0.826456
-0.0949355 0.0418974 0.826026
-0.0938247 0.0407019 0.825877
-0.0927054 0.0395005 0.825595
-0.0916077 0.0383152 0.825608
-0.0905313 0.037145 0.825918
-0.0894297 0.035957 0.825862
-0.0883396 0.0347773 0.825969
-0.0872485 0.033597 0.826058
-0.0861337 0.0324007 0.825773
-0.0850375 0.0312173 0.825764
-0.0839657 0.0300504 0.826139
-0.0828971 0.0288856 0.826573
-0.0818482 0.0277333 0.827342
-0.0808388 0.0266059 0.828804
-0.0798278 0.0254762 0.83029
-0.0788331 0.0243554 0.832115
-0.077836 0.0232314 0.833962
-0.0768348 0.0221031 0.835803
-0.112922 0.0633219 0.842629
-0.111651 0.0619865 0.84103
-0.110401 0.0606694 0.839622
-0.109136 0.0593407 0.837992
-0.107884 0.0580231 0.836455
-0.106621 0.0566985 0.834752
-0.105395 0.0554052 0.833442
-0.1042 0.0541373 0.832457
-0.103037 0.0528951 0.831818
-0.101878 0.0516577 0.83122
-0.100736 0.0504336 0.830805
-0.0995932 0.0492094 0.830361
-0.0984293 0.0479692 0.829624
-0.0972821 0.0467427 0.829077
-0.0961307 0.0455135 0.828453
-0.0949744 0.0442812 0.827735
-0.0938403 0.0430664 0.827293
-0.0927221 0.041864 0.827051
-0.0916016 0.0406603 0.826762
-0.0905033 0.0394736 0.826778
-0.0894186 0.0382972 0.826988
-0.0883074 0.0371012 0.826802
-0.0872149 0.0359192 0.826885
-0.0861173 0.0347335 0.826883
-0.0850026 0.033536 0.826606
-0.0839179 0.0323599 0.82679
-0.0828515 0.0311968 0.827275
-0.0817887 0.0300358 0.827829
-0.0807498 0.0288911 0.828805
-0.0797373 0.0277634 0.830268
-0.078718 0.0266301 0.831663
-0.0777128 0.0255049 0.833361
-0.0767003 0.0243734 0.834986
-0.0756797 0.0232354 0.83652
-0.109226 0.0618145 0.840005
-0.107972 0.0604911 0.838484
-0.106722 0.0591714 0.836954
-0.105468 0.05785 0.835336
-0.104245 0.0565551 0.834037
-0.103052 0.0552859 0.833061
-0.101897 0.0540491 0.832529
-0.100747 0.0528166 0.832035
-0.0996063 0.0515921 0.831637
-0.0984706 0.050372 0.831286
-0.0973142 0.0491356 0.830646
-0.096168 0.0479079 0.830115
-0.0950177 0.0466774 0.829505
-0.0938693 0.0454491 0.828896
-0.092734 0.0442316 0.828443
-0.0916153 0.0430275 0.828204
-0.0904949 0.0418226 0.827927
-0.089396 0.0406346 0.827948
-0.0883028 0.039451 0.828049
-0.0871825 0.0382469 0.827733
-0.0860815 0.0370579 0.827696
-0.084976 0.0358657 0.82758
-0.0838623 0.0346675 0.827319
-0.0827838 0.0334957 0.827618
-0.0817232 0.0323372 0.82822
-0.0806712 0.0311845 0.828982
-0.0796375 0.0300445 0.830087
-0.0786174 0.0289135 0.831467
-0.0775893 0.0277758 0.83275
-0.0765736 0.0266459 0.834311
-0.0755412 0.0255032 0.835611
-0.0745066 0.0243579 0.836918
-0.101883 0.0564197 0.833432
-0.100737 0.0551886 0.833005
-0.0995816 0.0539498 0.832434
-0.0984485 0.0527302 0.83213
-0.0973136 0.0515095 0.831787
-0.0961649 0.0502774 0.831241
-0.0950274 0.0490553 0.830824
-0.0938853 0.0478297 0.830324
-0.0927437 0.046605 0.829808
-0.0916085 0.0453857 0.829356
-0.0904894 0.0441802 0.82912
-0.0893686 0.0429736 0.82884
-0.0882634 0.0417798 0.828779
-0.0871564 0.0405846 0.828679
-0.0860349 0.0393783 0.828344
-0.0849261 0.0381824 0.828189
-0.0838153 0.0369851 0.827989
-0.0827079 0.0357907 0.827828
-0.0816404 0.0346275 0.828319
-0.0805856 0.0334741 0.829041
-0.0795338 0.0323223 0.829833
-0.0784983 0.0311826 0.83094
-0.0774756 0.0300517 0.832318
-0.0764337 0.0289057 0.833387
-0.0753999 0.027765 0.834646
-0.0743544 0.0266148 0.835725
-0.0972505 0.0538351 0.832107
-0.0961167 0.0526142 0.831767
-0.0949769 0.0513883 0.831328
-0.0938546 0.0501777 0.831111
-0.0927142 0.0489518 0.830624
-0.0915801 0.0477318 0.830206
-0.0904514 0.0465166 0.829844
-0.0893324 0.0453101 0.829606
-0.0882058 0.0440973 0.829237
-0.0871 0.0429023 0.829166
-0.0859857 0.0417005 0.828954
-0.0848589 0.0404884 0.828526
-0.0837448 0.0392871 0.828278
-0.0826344 0.0380894 0.828078
-0.0815272 0.0368943 0.827912
-0.0804601 0.0357321 0.828419
-0.0794049 0.0345793 0.829143
-0.0783578 0.0334326 0.830033
-0.0773207 0.0322934 0.831132
-0.268031 -0.184926 0.872785
-0.268458 -0.182895 0.874812
-0.268137 -0.184734 0.878457
-0.267727 -0.186783 0.876479
-0.267029 -0.186016 0.878864
-0.266613 -0.188055 0.876856
-0.265873 -0.187263 0.879072
-0.264642 -0.188691 0.873664
-0.264694 -0.188493 0.879191
-0.264464 -0.190663 0.877946
-0.263492 -0.189704 0.879212
-0.268319 -0.180746 0.869328
-0.269083 -0.178943 0.872731
-0.268399 -0.180511 0.874849
-0.26767 -0.182054 0.876809
-0.26657 -0.183338 0.877245
-0.265493 -0.18464 0.877781
-0.264366 -0.185904 0.878108
-0.263218 -0.187156 0.878346
-0.262074 -0.188408 0.878603
-0.271994 -0.172866 0.865117
-0.272059 -0.170931 0.860608
-0.272147 -0.170639 0.865995
-0.271044 -0.171899 0.866369
-0.271055 -0.174235 0.866144
-0.27001 -0.173205 0.86702
-0.27028 -0.175716 0.867844
-0.269244 -0.174695 0.86877
-0.269736 -0.177363 0.870494
-0.268572 -0.176254 0.870916
-0.267815 -0.177763 0.872737
-0.266989 -0.179231 0.874281
-0.266156 -0.180698 0.875816
-0.265055 -0.181979 0.876242
-0.264011 -0.183303 0.876905
-0.262913 -0.184587 0.877351
-0.261826 -0.18588 0.877847
-0.260737 -0.187174 0.878332
-0.262105 -0.190559 0.88386
-0.259717 -0.188523 0.879126
-0.270738 -0.169369 0.865407
-0.270157 -0.170971 0.867888
-0.269067 -0.172243 0.868322
-0.268265 -0.173712 0.869934
-0.267483 -0.175198 0.871645
-0.266601 -0.17662 0.872961
-0.265678 -0.178021 0.874109
-0.264747 -0.179418 0.875238
-0.263631 -0.180686 0.875604
-0.262586 -0.182006 0.876268
-0.261494 -0.183295 0.876733
-0.260435 -0.184607 0.877348
-0.259352 -0.185905 0.877853
-0.258361 -0.187273 0.878765
-0.259769 -0.190699 0.884522
-0.25737 -0.188645 0.879688
-0.270065 -0.168579 0.867787
-0.269486 -0.170186 0.870298
-0.268364 -0.171442 0.870614
-0.267474 -0.172853 0.87189
-0.266573 -0.174262 0.873127
-0.265543 -0.175586 0.873839
-0.264482 -0.17689 0.874423
-0.263439 -0.178208 0.875086
-0.26227 -0.179439 0.875224
-0.261199 -0.18074 0.875779
-0.26011 -0.182027 0.876254
-0.259049 -0.183339 0.876858
-0.257987 -0.18465 0.877463
-0.257019 -0.186035 0.878474
-0.256082 -0.187446 0.879625
-0.257503 -0.190893 0.885493
-0.255156 -0.188871 0.880836
-0.268722 -0.167352 0.867466
-0.268733 -0.169345 0.872402
-0.267586 -0.170586 0.872629
-0.26661 -0.171944 0.873559
-0.265594 -0.173277 0.874331
-0.264441 -0.17452 0.874538
-0.263292 -0.175763 0.874756
-0.262141 -0.177006 0.874973
-0.260969 -0.178235 0.875092
-0.259872 -0.179516 0.875537
-0.258777 -0.180799 0.875993
-0.257709 -0.182104 0.876567
-0.256692 -0.183449 0.87736
-0.255728 -0.184835 0.878392
-0.254818 -0.186267 0.879671
-0.253918 -0.18771 0.881001
-0.26736 -0.166114 0.867067
-0.267918 -0.168461 0.874268
-0.266764 -0.169703 0.874476
-0.265729 -0.171024 0.875179
-0.264626 -0.172301 0.875595
-0.263363 -0.17347 0.875347
-0.262149 -0.174671 0.875297
-0.260942 -0.175874 0.875277
-0.259719 -0.177067 0.875178
-0.258593 -0.178327 0.875504
-0.257471 -0.179591 0.875841
-0.256401 -0.180892 0.876405
-0.255411 -0.182256 0.877317
-0.254499 -0.183683 0.878577
-0.253598 -0.185121 0.879906
-0.252716 -0.18658 0.881325
-0.25407 -0.189987 0.886987
-0.251754 -0.18798 0.882398
-0.266049 -0.164908 0.866865
-0.267135 -0.167597 0.876294
-0.265977 -0.16884 0.876492
-0.264858 -0.17011 0.876849
-0.263671 -0.171332 0.876928
-0.262324 -0.172446 0.876324
-0.261029 -0.173592 0.875938
-0.259743 -0.174742 0.875581
-0.258468 -0.175897 0.875263
-0.257291 -0.177121 0.875362
-0.256141 -0.178364 0.875579
-0.255072 -0.179666 0.876154
-0.254114 -0.181054 0.877205
-0.25324 -0.182506 0.878643
-0.252366 -0.183966 0.880091
-0.251478 -0.185421 0.881491
-0.25048 -0.186792 0.882404
-0.264985 -0.163864 0.867682
-0.266174 -0.166616 0.877597
-0.265034 -0.167873 0.877875
-0.263855 -0.169106 0.877984
-0.262614 -0.170295 0.877836
-0.261263 -0.171406 0.877222
-0.259913 -0.172516 0.876598
-0.25855 -0.173614 0.875914
-0.257216 -0.174729 0.875339
-0.256009 -0.17593 0.875309
-0.254856 -0.17717 0.875516
-0.25382 -0.178497 0.87623
-0.252917 -0.179924 0.877528
-0.252095 -0.181418 0.879205
-0.25122 -0.182877 0.880654
-0.250305 -0.184311 0.881944
-0.249254 -0.185641 0.88263
-0.250436 -0.188925 0.887619
-0.248068 -0.186868 0.882719
-0.265132 -0.165581 0.878574
-0.263983 -0.166835 0.878812
-0.262777 -0.168049 0.878823
-0.261508 -0.169222 0.878556
-0.260154 -0.170335 0.877922
-0.25878 -0.171429 0.877199
-0.257383 -0.172505 0.876357
-0.256018 -0.173596 0.875653
-0.254779 -0.174776 0.875484
-0.253603 -0.175999 0.875582
-0.252568 -0.177327 0.876305
-0.251642 -0.178737 0.877515
-0.25084 -0.180246 0.879281
-0.249962 -0.181703 0.88073
-0.249047 -0.183136 0.88202
-0.247974 -0.184449 0.882616
-0.246764 -0.185655 0.882587
-0.246828 -0.188051 0.882551
-0.245427 -0.18676 0.881981
-0.263535 -0.164186 0.877225
-0.262918 -0.165786 0.87971
-0.261709 -0.167002 0.879701
-0.260418 -0.168161 0.879345
-0.259069 -0.169278 0.878732
-0.257668 -0.170356 0.87789
-0.25622 -0.171396 0.876829
-0.254773 -0.172433 0.875758
-0.253502 -0.173589 0.87545
-0.252303 -0.174797 0.87545
-0.25127 -0.176124 0.876183
-0.250342 -0.177532 0.877383
-0.249529 -0.179032 0.879109
-0.248644 -0.180482 0.880538
-0.247731 -0.181917 0.881839
-0.246663 -0.183232 0.882454
-0.24548 -0.18446 0.882544
-0.244162 -0.18558 0.882017
-0.262321 -0.163042 0.877479
-0.261762 -0.164679 0.880222
-0.260557 -0.165897 0.880233
-0.259296 -0.167076 0.880006
-0.257952 -0.1682 0.879412
-0.256525 -0.169261 0.878451
-0.255025 -0.170266 0.877163
-0.253547 -0.171282 0.875953
-0.252207 -0.172389 0.875338
-0.251007 -0.173594 0.875327
-0.249947 -0.174902 0.875941
-0.24901 -0.176303 0.877111
-0.248191 -0.177797 0.878818
-0.247327 -0.179262 0.880336
-0.24642 -0.180699 0.881676
-0.245377 -0.182035 0.882401
-0.244219 -0.183283 0.88261
-0.242904 -0.184403 0.882093
-0.243959 -0.187601 0.886628
-0.241564 -0.185503 0.881447
-0.260334 -0.161397 0.874456
-0.259473 -0.16283 0.875902
-0.257861 -0.163771 0.874149
-0.256606 -0.164944 0.87391
-0.254919 -0.16582 0.871799
-0.253558 -0.166912 0.871074
-0.252502 -0.168211 0.871688
-0.251472 -0.169532 0.87241
-0.250517 -0.170907 0.87347
-0.249673 -0.172367 0.875036
-0.248616 -0.173675 0.87566
-0.247679 -0.175075 0.87683
-0.246838 -0.176552 0.878447
-0.245998 -0.178032 0.880084
-0.245065 -0.17945 0.881306
-0.244027 -0.180788 0.88206
-0.242893 -0.182054 0.882378
-0.241605 -0.183197 0.881971
-0.241399 -0.185212 0.886622
-0.249128 -0.165569 0.862397
-0.248239 -0.166968 0.863697
-0.247318 -0.16835 0.864871
-0.246866 -0.170074 0.868147
-0.246186 -0.171644 0.870436
-0.245601 -0.173294 0.873174
-0.245095 -0.175012 0.876299
-0.244647 -0.176788 0.879724
-0.243716 -0.178205 0.880965
-0.242698 -0.179559 0.881809
-0.241587 -0.180841 0.882226
-0.240351 -0.182024 0.882067
-0.24025 -0.184126 0.887236
-0.243064 -0.171174 0.867383
-0.243032 -0.173235 0.872661
-0.243031 -0.17534 0.878141
-0.242475 -0.177042 0.88111
-0.241432 -0.178378 0.881845
-0.240297 -0.17964 0.882153
-0.239086 -0.180844 0.882103
-0.240524 -0.173222 0.872417
-0.240424 -0.17526 0.877491
-0.239814 -0.176922 0.880232
-0.23908 -0.178497 0.882418
-0.237873 -0.179703 0.882388
-0.23727 -0.176887 0.87988
-0.237714 -0.179406 0.887693
-0.235851 -0.175586 0.879171
-0.20951 0.0199247 0.89012
-0.210829 0.0212198 0.890696
-0.209559 0.0224141 0.890822
-0.208184 0.0211088 0.889931
-0.206801 0.0198043 0.888981
-0.209658 0.0249172 0.891801
-0.208311 0.0236124 0.891068
-0.206926 0.0223036 0.890117
-0.205537 0.0209965 0.889127
-0.20379 0.0196335 0.886095
-0.211115 0.0262446 0.893115
-0.210049 0.0274837 0.894384
-0.208562 0.0261468 0.892893
-0.207153 0.0248286 0.891825
-0.205724 0.0235089 0.890619
-0.204293 0.022192 0.889382
-0.202296 0.0207821 0.88491
-0.214691 0.0294717 0.913098
-0.214584 0.0319918 0.91295
-0.211615 0.030314 0.903437
-0.208851 0.0286989 0.894935
-0.207363 0.0273588 0.893434
-0.205946 0.0260364 0.892307
-0.204479 0.0247075 0.890884
-0.20303 0.0233852 0.889538
-0.200773 0.0219218 0.883538
-0.210756 0.0326398 0.899145
-0.209188 0.0312718 0.897242
-0.207655 0.0299156 0.895506
-0.206136 0.028566 0.893818
-0.20468 0.0272334 0.892464
-0.203211 0.0259018 0.891021
-0.201782 0.0245809 0.889774
-0.199269 0.0230609 0.882253
-0.213678 0.0343265 0.908431
-0.212957 0.036685 0.904917
-0.211265 0.0352739 0.902386
-0.209546 0.0338618 0.899667
-0.207901 0.0324725 0.89732
-0.206313 0.031101 0.895259
-0.204773 0.0297449 0.893442
-0.203318 0.0284105 0.892078
-0.201851 0.0270772 0.890625
-0.200464 0.0257634 0.889615
-0.19774 0.0241913 0.880801
-0.196376 0.0214881 0.872412
-0.194964 0.022628 0.87156
-0.214329 0.0395693 0.91287
-0.211573 0.0378737 0.904523
-0.209905 0.0364647 0.9021
-0.20821 0.0350544 0.899489
-0.206546 0.0336569 0.897014
-0.204975 0.0322864 0.895031
-0.203433 0.0309269 0.893185
-0.201961 0.0295873 0.891712
-0.200493 0.0282517 0.890239
-0.199132 0.026942 0.889367
-0.196425 0.0253605 0.880582
-0.193684 0.0237913 0.871478
-0.214472 0.0421584 0.91409
-0.211537 0.0403925 0.90476
-0.210062 0.0390272 0.903411
-0.208423 0.0376231 0.901125
-0.206752 0.0362156 0.898622
-0.205111 0.0348208 0.896255
-0.203539 0.0334475 0.894242
-0.201997 0.032086 0.892376
-0.200526 0.0307449 0.890893
-0.199088 0.029414 0.889567
-0.197771 0.0281132 0.888941
-0.195065 0.0265199 0.880097
-0.192339 0.0249408 0.871001
-0.212812 0.0442387 0.90543
-0.211427 0.0428926 0.904594
-0.210055 0.0415518 0.903815
-0.208581 0.0401857 0.902456
-0.206989 0.0387909 0.900406
-0.205348 0.037388 0.89805
-0.203739 0.035998 0.895841
-0.202173 0.0346237 0.893847
-0.200637 0.0332607 0.89199
-0.199151 0.0319136 0.890399
-0.197753 0.0305907 0.8893
-0.196478 0.0292983 0.88891
-0.193807 0.0276996 0.880203
-0.191107 0.0261126 0.871196
-0.211217 0.0453633 0.903876
-0.209865 0.0440264 0.903206
-0.208512 0.0426909 0.902516
-0.20706 0.0413295 0.901255
-0.205522 0.0399475 0.89949
-0.203932 0.0385552 0.8974
-0.202353 0.03717 0.895338
-0.200796 0.0357951 0.893373
-0.199303 0.0344406 0.891753
-0.19786 0.0331018 0.890397
-0.196524 0.031792 0.889653
-0.195309 0.0305124 0.889619
-0.192637 0.0288999 0.880842
-0.189894 0.0272893 0.871508
-0.208262 0.0451432 0.901563
-0.206912 0.0438088 0.900872
-0.205488 0.0424547 0.899748
-0.204001 0.0410854 0.898249
-0.202464 0.0397054 0.896434
-0.200968 0.0383406 0.894834
-0.199493 0.0369845 0.893323
-0.198046 0.0356395 0.891959
-0.196646 0.0343092 0.89085
-0.195369 0.0330121 0.890451
-0.19418 0.0317381 0.890574
-0.207936 0.047568 0.900186
-0.20666 0.0462548 0.899899
-0.205325 0.0449251 0.899277
-0.203982 0.0435945 0.898595
-0.202548 0.0422394 0.897381
-0.201094 0.040881 0.896029
-0.199639 0.0395252 0.894646
-0.198188 0.0381733 0.893263
-0.196765 0.0368322 0.892026
-0.19543 0.0355172 0.891292
-0.194199 0.0342308 0.891169
-0.19305 0.0329659 0.89154
-0.191793 0.030179 0.883455
-0.190695 0.0314033 0.884568
-0.209118 0.0488517 0.899931
-0.20883 0.0512818 0.898772
-0.207681 0.0500097 0.899203
-0.206458 0.048713 0.899211
-0.205211 0.0474093 0.899081
-0.203871 0.0460776 0.89842
-0.202559 0.0447561 0.897905
-0.201153 0.0434073 0.896829
-0.199762 0.0420657 0.895831
-0.198312 0.0407093 0.894468
-0.196883 0.0393615 0.893203
-0.195487 0.0380261 0.892114
-0.194212 0.036726 0.891735
-0.193024 0.0354501 0.891868
-0.191915 0.0341953 0.892486
-0.189575 0.0326246 0.885553
-0.21007 0.0525845 0.898852
-0.209836 0.0550283 0.897998
-0.208676 0.0537532 0.89836
-0.207455 0.0524569 0.898378
-0.206289 0.0511798 0.898711
-0.205041 0.049875 0.898571
-0.203788 0.0485696 0.898402
-0.202474 0.0472455 0.897878
-0.201166 0.0459244 0.897373
-0.199767 0.0445764 0.896326
-0.19842 0.0432469 0.895574
-0.196993 0.0418949 0.894329
-0.195588 0.0405521 0.893192
-0.194228 0.0392249 0.89231
-0.19303 0.0379456 0.892394
-0.191882 0.03668 0.892775
-0.190813 0.0354359 0.893649
-0.188441 0.0338451 0.886469
-0.208526 0.0562245 0.897968
-0.207325 0.0549348 0.898094
-0.206074 0.0536284 0.897945
-0.204873 0.0523396 0.898071
-0.203607 0.0510289 0.897823
-0.20234 0.0497189 0.897565
-0.201049 0.0484018 0.897158
-0.199764 0.0470878 0.896782
-0.198386 0.0457451 0.895843
-0.197061 0.0444214 0.895209
-0.195656 0.0430744 0.894082
-0.194274 0.0417368 0.893072
-0.192935 0.0404144 0.892309
-0.191775 0.0391458 0.89262
-0.190651 0.0378873 0.893149
-0.189605 0.0366502 0.894171
-0.187203 0.0350397 0.886753
-0.208429 0.0587143 0.897871
-0.207203 0.0574153 0.89786
-0.205991 0.056122 0.897927
-0.204726 0.0548098 0.897689
-0.203501 0.0535129 0.897677
-0.202198 0.0521892 0.897212
-0.200948 0.0508847 0.897042
-0.199679 0.0495744 0.896754
-0.198398 0.0482609 0.896387
-0.197024 0.0469185 0.895467
-0.195734 0.045605 0.895031
-0.194331 0.0442567 0.893903
-0.19299 0.0429301 0.89313
-0.191713 0.041625 0.892732
-0.190612 0.040374 0.893408
-0.189545 0.0391323 0.894302
-0.188554 0.0379114 0.89568
-0.185819 0.0361933 0.88612
-0.208322 0.0612003 0.897715
-0.207098 0.0599015 0.897714
-0.205863 0.0585991 0.897653
-0.204636 0.0573002 0.897631
-0.203349 0.0559797 0.897265
-0.202104 0.0546752 0.897125
-0.200799 0.0533502 0.89664
-0.19955 0.0520461 0.89647
-0.198287 0.0507377 0.896212
-0.197009 0.0494249 0.895854
-0.195637 0.0480819 0.894935
-0.194346 0.0467672 0.894478
-0.192965 0.0454246 0.893468
-0.191668 0.0441111 0.892952
-0.190455 0.0428258 0.892948
-0.189397 0.0415884 0.89389
-0.188025 0.0402545 0.89289
-0.186684 0.0389319 0.892066
-0.20696 0.062375 0.897391
-0.20575 0.0610818 0.897468
-0.204509 0.0597769 0.897367
-0.203263 0.0584702 0.897228
-0.201991 0.0571549 0.89694
-0.200724 0.0558422 0.896672
-0.199404 0.0545109 0.896088
-0.198138 0.0532005 0.89581
-0.196874 0.0518912 0.895531
-0.195582 0.0505735 0.895085
-0.194212 0.0492295 0.894155
-0.192924 0.0479158 0.893708
-0.191582 0.0465853 0.892925
-0.190309 0.045279 0.892546
-0.189142 0.0440085 0.892818
-0.188096 0.0427765 0.89384
-0.186392 0.0413365 0.890747
-0.184666 0.0398951 0.887455
-0.205672 0.0635783 0.897479
-0.204464 0.0622854 0.897566
-0.203203 0.0609721 0.897347
-0.20193 0.0596545 0.89705
-0.200639 0.058331 0.896644
-0.199336 0.0570041 0.89616
