ply
format ascii 1.0
element vertex 1721
property float x
property float y
property float z
end_header
0.140943 0.0793453 0.875757
0.140094 0.0781792 0.876388
0.139243 0.0770103 0.877006
0.138412 0.0758568 0.877803
0.137701 0.0747958 0.879613
0.137182 0.0738835 0.883084
0.136847 0.0731072 0.888169
0.136516 0.0723301 0.893387
0.136158 0.0715256 0.898454
0.135595 0.0705605 0.901815
0.134851 0.069456 0.903632
0.133906 0.0681997 0.903692
0.13293 0.0669195 0.903459
0.13191 0.0656089 0.902832
0.130866 0.0642808 0.901965
0.129813 0.0629472 0.900989
0.128743 0.0616027 0.899839
0.127697 0.0602781 0.898896
0.126684 0.0589768 0.898236
0.125705 0.0577 0.897881
0.124729 0.056428 0.897566
0.123792 0.0551823 0.897616
0.122857 0.0539377 0.897675
0.12193 0.0526991 0.897821
0.121004 0.0514614 0.897974
0.120087 0.0502285 0.898215
0.119116 0.0489615 0.897911
0.118133 0.0476866 0.897461
0.117094 0.046377 0.896417
0.116055 0.0450694 0.89535
0.114979 0.04374 0.893852
0.113916 0.0424206 0.892455
0.112837 0.0410936 0.890852
0.11176 0.0397705 0.889224
0.110646 0.0384279 0.887145
0.109568 0.0371099 0.885426
0.108558 0.0358345 0.884454
0.107614 0.0345981 0.884219
0.106717 0.0333885 0.884529
0.105902 0.0322238 0.885822
0.105122 0.0310762 0.88757
0.104345 0.0299271 0.88938
0.103589 0.0287867 0.891501
0.102837 0.0276446 0.893715
0.102043 0.026479 0.895465
0.10125 0.025311 0.897258
0.100439 0.0241318 0.89887
0.0996156 0.0229433 0.900339
0.0987957 0.0217551 0.901904
0.0979865 0.0205685 0.903646
0.0971615 0.019372 0.905212
0.0963328 0.0181716 0.906768
0.0955006 0.0169682 0.908328
0.0946604 0.0157575 0.909795
0.093823 0.0145467 0.911357
0.0929645 0.0133244 0.912634
0.0921214 0.0121053 0.914177
0.0912629 0.0108793 0.915542
0.090422 0.00965602 0.91721
0.0900916 0.00858577 0.926938
0.169903 0.114503 0.886771
0.168788 0.1131 0.885664
0.167695 0.111718 0.884685
0.166528 0.110272 0.883198
0.165364 0.108829 0.881701
0.164249 0.107432 0.880522
0.16319 0.106082 0.879696
0.162162 0.104763 0.87908
0.16114 0.103447 0.87848
0.160081 0.102101 0.877621
0.159053 0.100783 0.876966
0.158001 0.0994449 0.876125
0.156942 0.0981029 0.875229
0.155913 0.0967865 0.874526
0.154934 0.0955125 0.874171
0.153936 0.0942243 0.873673
0.152965 0.0929579 0.873359
0.152019 0.0917129 0.87322
0.151087 0.0904794 0.87318
0.150169 0.0892586 0.87325
0.149275 0.0880563 0.873489
0.14838 0.0868537 0.873727
0.147483 0.0856498 0.873957
0.146576 0.0844372 0.874104
0.145669 0.0832246 0.874252
0.144762 0.0820119 0.874399
0.143855 0.0807994 0.874546
0.142992 0.079621 0.875042
0.14211 0.0784283 0.875397
0.14126 0.0772606 0.876018
0.140422 0.0760998 0.87673
0.139614 0.0749634 0.877713
0.138909 0.0739031 0.879553
0.138331 0.072939 0.882495
0.137995 0.0721537 0.887526
0.13767 0.0713693 0.89272
0.137307 0.0705524 0.897692
0.136765 0.0695975 0.901196
0.136097 0.0685456 0.903659
0.135173 0.0673031 0.903895
0.134216 0.0660382 0.903852
0.133207 0.0647362 0.903335
0.132184 0.0634242 0.902675
0.131139 0.0620978 0.901799
0.130076 0.0607605 0.900741
0.129028 0.0594353 0.899802
0.128013 0.0581338 0.89915
0.127021 0.0568485 0.898694
0.126041 0.0555732 0.898352
0.125093 0.0543189 0.8983
0.124146 0.0530663 0.898261
0.123199 0.0518146 0.898225
0.122253 0.0505627 0.898181
0.121315 0.0493169 0.898224
0.120325 0.0480374 0.897724
0.119314 0.0467461 0.897002
0.118263 0.0454314 0.895851
0.117203 0.044113 0.894575
0.116115 0.042779 0.892961
0.115041 0.0414566 0.89147
0.113971 0.0401378 0.88997
0.112902 0.0388236 0.888467
0.111804 0.0374944 0.88659
0.110741 0.036188 0.885061
0.109747 0.0349231 0.88428
0.108811 0.0336918 0.88415
0.10793 0.0324906 0.88465
0.107148 0.0313407 0.886314
0.106396 0.030204 0.888374
0.105638 0.0290618 0.890415
0.104893 0.0279222 0.89265
0.104133 0.0267727 0.894765
0.103317 0.0255918 0.896217
0.102501 0.0244096 0.897711
0.101668 0.0232169 0.899024
0.100836 0.0220228 0.900376
0.10001 0.0208286 0.901833
0.0992019 0.0196394 0.903559
0.098377 0.0184418 0.90512
0.0975575 0.0172426 0.90678
0.0967289 0.0160374 0.908361
0.0958965 0.0148275 0.909919
0.0950611 0.0136147 0.911489
0.0942032 0.0123909 0.912768
0.0933627 0.0111704 0.914332
0.0925197 0.00994651 0.915905
0.0917014 0.00872663 0.917889
0.169979 0.112174 0.88534
0.168883 0.110791 0.884347
0.167746 0.109374 0.883069
0.166596 0.107947 0.881691
0.165511 0.106577 0.880721
0.164464 0.105241 0.879995
0.163435 0.103921 0.879375
0.162423 0.102616 0.878866
0.161388 0.101291 0.87818
0.160375 0.0999871 0.877641
0.159337 0.0986624 0.876916
0.158289 0.0973309 0.876114
0.157256 0.0960116 0.875397
0.156251 0.0947165 0.874867
0.155236 0.0934145 0.874259
0.154236 0.0921249 0.873745
0.153273 0.0908674 0.873501
0.152315 0.0896132 0.873278
0.151383 0.0883807 0.873245
0.150476 0.087168 0.873392
0.149581 0.0859645 0.873629
0.148675 0.0847527 0.873786
0.147768 0.0835398 0.873934
0.146859 0.082326 0.874071
0.145951 0.0811126 0.874212
0.145044 0.0799003 0.874365
0.144183 0.0787227 0.874873
0.143291 0.0775217 0.875149
0.142442 0.0763528 0.875767
0.141604 0.0751913 0.876475
0.140799 0.0740555 0.877473
0.140097 0.0729947 0.879326
0.139468 0.0719864 0.881811
0.139149 0.0712044 0.886928
0.138825 0.0704123 0.892082
0.138479 0.069598 0.897137
0.137962 0.0686536 0.900807
0.13737 0.067653 0.903907
0.136435 0.0664022 0.904051
0.135488 0.0651439 0.904101
0.134489 0.063849 0.90368
0.133476 0.0625455 0.90313
0.132449 0.0612332 0.902442
0.131405 0.059911 0.901585
0.130356 0.0585862 0.900657
0.129339 0.0572832 0.900001
0.128334 0.0559905 0.899449
0.127332 0.0547 0.898911
0.126362 0.0534318 0.898662
0.125402 0.0521706 0.89851
0.124437 0.0509063 0.898295
0.123477 0.0496467 0.898134
0.122528 0.0483933 0.898062
0.121526 0.0471079 0.897457
0.120495 0.0458061 0.896546
0.119433 0.0444866 0.895292
0.11836 0.0431633 0.893901
0.11726 0.0418252 0.892183
0.116175 0.0404998 0.890594
0.115111 0.0391885 0.889188
0.114059 0.0378859 0.887868
0.112977 0.0365705 0.886208
0.11193 0.0352755 0.884879
0.110951 0.0340204 0.884286
0.110038 0.0328015 0.884422
0.109175 0.0316083 0.88513
0.108415 0.0304661 0.887028
0.10769 0.0293399 0.889401
0.106951 0.0282023 0.891647
0.1062 0.0270551 0.893803
0.105426 0.025893 0.895711
0.104591 0.0247012 0.896936
0.103751 0.0235048 0.898122
0.102896 0.0222997 0.899145
0.10205 0.0210972 0.900299
0.101216 0.0198982 0.901645
0.100395 0.0187018 0.903184
0.0995652 0.0174987 0.90464
0.0987471 0.0162981 0.906295
0.0979272 0.0150945 0.907969
0.0971044 0.0138863 0.909641
0.096285 0.0126763 0.911402
0.0954356 0.0114532 0.912785
0.0946158 0.0102374 0.914632
0.0937889 0.00901584 0.916429
0.0929827 0.00779584 0.918568
0.171114 0.111198 0.884643
0.170026 0.109826 0.883718
0.168917 0.108435 0.882634
0.167803 0.107043 0.881505
0.166736 0.105689 0.880662
0.165689 0.104355 0.879946
0.164658 0.103034 0.87932
0.163657 0.10174 0.878896
0.162633 0.100427 0.8783
0.161635 0.0991354 0.87787
0.160636 0.0978436 0.877426
0.159603 0.0965255 0.876739
0.158581 0.095218 0.876124
0.15756 0.0939103 0.875494
0.156529 0.0925952 0.874779
0.155499 0.0912842 0.874074
0.154508 0.0900035 0.873627
0.153522 0.0887279 0.873208
0.152575 0.0874838 0.87307
0.151656 0.0862609 0.873127
0.150751 0.0850497 0.873291
0.149845 0.0838384 0.873453
0.148938 0.0826255 0.8736
0.14804 0.0814194 0.873816
0.147143 0.0802148 0.874044
0.146248 0.0790119 0.874294
0.145389 0.0778353 0.87482
0.144496 0.0766335 0.875091
0.143636 0.0754543 0.875609
0.142785 0.0742823 0.876215
0.141982 0.0731462 0.877221
0.141272 0.072076 0.878991
0.14063 0.0710542 0.881346
0.140335 0.0702798 0.886604
0.140029 0.0694903 0.891848
0.139697 0.0686763 0.896964
0.1392 0.0677408 0.900779
0.138625 0.0667445 0.903983
0.137668 0.0654785 0.903943
0.13673 0.0642271 0.904078
0.135731 0.0629335 0.903673
0.134739 0.0616454 0.90332
0.133733 0.060348 0.902828
0.132719 0.0590456 0.902248
0.131678 0.0577276 0.901422
0.13068 0.0564385 0.900965
0.129673 0.0551442 0.900409
0.128665 0.0538514 0.899844
0.127681 0.0525737 0.899482
0.1267 0.0512998 0.899145
0.125703 0.0500153 0.898637
0.124722 0.0487427 0.89828
0.12375 0.0474756 0.897993
0.122727 0.0461783 0.897191
0.121685 0.0448717 0.896184
0.120621 0.0435534 0.89493
0.119538 0.0422263 0.89345
0.118426 0.0408857 0.891637
0.117329 0.0395558 0.889938
0.116263 0.0382467 0.888533
0.115218 0.0369509 0.887312
0.114161 0.0356518 0.88594
0.113139 0.0343725 0.884907
0.112216 0.0331474 0.884944
0.111345 0.031949 0.88556
0.110517 0.0307708 0.886665
0.109776 0.0296344 0.888784
0.109069 0.0285105 0.891348
0.108308 0.0273573 0.893334
0.107533 0.0261943 0.895195
0.106725 0.0250133 0.89671
0.105865 0.0238074 0.897626
0.104993 0.0225948 0.898417
0.104116 0.021378 0.899152
0.103255 0.0201682 0.900118
0.102409 0.0189614 0.901281
0.101574 0.0177583 0.90263
0.100731 0.0165488 0.903885
0.0999136 0.0153466 0.905516
0.0990959 0.0141416 0.907184
0.0982917 0.0129374 0.90907
0.097483 0.0117293 0.910956
0.0966492 0.0105094 0.912532
0.0958385 0.0092934 0.914474
0.0950274 0.00807366 0.916468
0.0942312 0.00685382 0.91873
0.170045 0.10746 0.881917
0.168971 0.106103 0.881054
0.167935 0.104779 0.880432
0.166899 0.103456 0.879797
0.165868 0.102136 0.87918
0.164877 0.100851 0.878828
0.163864 0.0995477 0.87831
0.16288 0.0982688 0.877984
0.161911 0.0970022 0.877754
0.160904 0.0957062 0.87726
0.159895 0.094409 0.876741
0.15887 0.0931006 0.876104
0.157823 0.0917748 0.875299
0.156777 0.0904511 0.874485
0.155759 0.0891505 0.873859
0.154743 0.0878526 0.873238
0.15377 0.0865874 0.872908
0.152836 0.0853544 0.872865
0.151919 0.0841343 0.872944
0.151015 0.0829242 0.873117
0.150108 0.0817113 0.873264
0.149209 0.0805046 0.873475
0.148324 0.0793086 0.873795
0.147443 0.0781158 0.874149
0.146599 0.0769489 0.874784
0.145716 0.0757541 0.875134
0.144852 0.0745713 0.875625
0.143987 0.0733886 0.876123
0.143162 0.0722345 0.876943
0.142389 0.0711152 0.878183
0.14168 0.0700419 0.879972
0.141315 0.0692092 0.884596
0.141026 0.0684229 0.889909
0.14072 0.0676188 0.895177
0.140287 0.0667199 0.899462
0.139772 0.0657603 0.903133
0.138882 0.0645413 0.903673
0.137945 0.0632898 0.903808
0.136968 0.0620115 0.903598
0.136009 0.0607458 0.90354
0.135035 0.0594709 0.90335
0.134053 0.0581903 0.903073
0.133032 0.0568866 0.902451
0.132044 0.0556031 0.902098
0.131023 0.0543009 0.901446
0.130013 0.0530071 0.90088
0.129024 0.0517263 0.900491
0.128031 0.0504444 0.90006
0.127011 0.0491466 0.899357
0.126017 0.0478655 0.898882
0.125012 0.0465789 0.898293
0.123966 0.0452702 0.897291
0.122922 0.0439638 0.89628
0.121866 0.0426527 0.895131
0.120783 0.0413277 0.893675
0.119668 0.0399879 0.891866
0.118557 0.0386544 0.890068
0.117478 0.0373392 0.888538
0.11643 0.0360449 0.887315
0.115391 0.034756 0.886148
0.114395 0.0334929 0.88543
0.113517 0.0322892 0.885965
0.112683 0.0311073 0.886994
0.111883 0.029939 0.888409
0.111152 0.0288029 0.89065
0.110444 0.0276726 0.893187
0.109655 0.0265018 0.894847
0.108845 0.0253195 0.896305
0.108003 0.0241207 0.897418
0.107119 0.0229009 0.898031
0.106224 0.0216772 0.898544
0.105331 0.0204532 0.899086
0.104455 0.019236 0.899859
0.103601 0.0180252 0.900917
0.102754 0.0168148 0.90207
0.101896 0.0155989 0.903123
0.101078 0.0143954 0.904726
0.100271 0.0131912 0.906485
0.0994775 0.0119889 0.908493
0.0986813 0.0107822 0.910511
0.0978643 0.00956549 0.912293
0.0970545 0.0083472 0.914218
0.0962513 0.0071269 0.916291
0.0954657 0.00590648 0.918667
0.171193 0.106504 0.881334
0.170167 0.105189 0.880794
0.169163 0.103891 0.880382
0.168147 0.102586 0.879887
0.167115 0.101267 0.879276
0.16611 0.0999698 0.878827
0.165095 0.0986674 0.878315
0.16411 0.0973886 0.877991
0.163155 0.0961337 0.877863
0.162162 0.0948506 0.877476
0.161166 0.0935645 0.877057
0.160151 0.0922652 0.876504
0.159114 0.0909485 0.87578
0.158055 0.0896156 0.874886
0.157023 0.0883049 0.874171
0.155992 0.0869971 0.873457
0.154989 0.0857106 0.872925
0.154028 0.0844567 0.87269
0.153097 0.0832255 0.872664
0.15218 0.0820055 0.872743
0.151273 0.0807926 0.87289
0.150376 0.0795876 0.873115
0.149493 0.0783926 0.873448
0.148615 0.0772018 0.873824
0.147771 0.0760338 0.874456
0.14689 0.0748389 0.874809
0.146024 0.0736561 0.875295
0.145158 0.0724714 0.875776
0.14432 0.0713061 0.876484
0.143509 0.0701594 0.877419
0.142788 0.0690737 0.879084
0.142357 0.0681869 0.883115
0.142071 0.0673945 0.888398
0.141774 0.0665881 0.893673
0.141384 0.0657109 0.898259
0.140889 0.0647596 0.902058
0.140067 0.0635842 0.903148
0.139141 0.0623397 0.903375
0.138197 0.0610842 0.903458
0.137264 0.0598362 0.903633
0.136316 0.0585779 0.903673
0.135367 0.0573186 0.9037
0.134368 0.0560277 0.903278
0.133388 0.0547517 0.903034
0.132368 0.0534493 0.902401
0.131365 0.0521599 0.90192
0.130364 0.050872 0.901443
0.129369 0.0495886 0.901006
0.128326 0.0482786 0.900118
0.127317 0.0469892 0.899522
0.126288 0.0456892 0.898722
0.125237 0.0443787 0.89769
0.124192 0.043073 0.896691
0.123155 0.0417736 0.89575
0.122081 0.0404565 0.894425
0.120971 0.039122 0.892704
0.119872 0.0377957 0.891048
0.118794 0.0364846 0.889588
0.117754 0.0351936 0.888463
0.116738 0.0339184 0.88758
0.115767 0.0326673 0.88716
0.114911 0.0314717 0.88794
0.11409 0.0302917 0.889122
0.113303 0.0291261 0.890699
0.112554 0.0279753 0.892728
0.111819 0.0268275 0.894951
0.110991 0.0256357 0.896177
0.110145 0.0244342 0.897225
0.10927 0.023219 0.897953
0.108368 0.0219912 0.898371
0.107456 0.0207596 0.898686
0.106548 0.0195288 0.899043
0.105656 0.0183039 0.899606
0.104786 0.0170861 0.900459
0.103923 0.0158692 0.901407
0.103052 0.0146478 0.902265
0.102229 0.0134402 0.903764
0.10143 0.0122377 0.905605
0.100648 0.0110373 0.907734
0.0998646 0.00983137 0.909872
0.0990648 0.00861711 0.91185
0.0982567 0.00739685 0.913764
0.0974413 0.00617111 0.915631
0.0966486 0.00494711 0.917868
0.171353 0.104265 0.880465
0.170397 0.103008 0.880371
0.169394 0.101713 0.879966
0.168381 0.100411 0.879489
0.167384 0.0991224 0.87911
0.166366 0.0978179 0.878586
0.165368 0.096529 0.87818
0.164412 0.0952739 0.878052
0.16343 0.093999 0.877745
0.162445 0.0927231 0.877413
0.161432 0.0914258 0.876881
0.160408 0.0901198 0.876256
0.15936 0.0887979 0.875464
0.158313 0.0874775 0.874659
0.157267 0.0861591 0.873851
0.156247 0.0848609 0.873213
0.155259 0.0835864 0.872786
0.1543 0.0823351 0.872566
0.153368 0.0811047 0.87254
0.152448 0.0798826 0.872596
0.151541 0.0786691 0.872741
0.150658 0.0774741 0.873075
0.149779 0.0762817 0.873439
0.148924 0.0751062 0.873988
0.148044 0.0739119 0.874348
0.147182 0.0727291 0.874845
0.146296 0.0715311 0.875176
0.145435 0.070348 0.875689
0.144596 0.0691813 0.876396
0.143859 0.0680835 0.877919
0.143358 0.0671418 0.881338
0.143074 0.0663425 0.886572
0.142782 0.0655304 0.891819
0.142434 0.0646741 0.896692
0.141954 0.0637261 0.90056
0.141196 0.0625923 0.902172
0.140293 0.061363 0.902586
0.139375 0.0601236 0.902877
0.138469 0.0588917 0.903276
0.137557 0.0576571 0.903637
0.136642 0.0564191 0.903966
0.135665 0.0551423 0.903746
0.134706 0.0538778 0.903691
0.133703 0.0525874 0.90324
0.1327 0.0512981 0.902775
0.131708 0.0500158 0.902396
0.130712 0.0487319 0.901971
0.129657 0.0474148 0.900987
0.128635 0.0461181 0.900291
0.1276 0.0448168 0.899468
0.126546 0.0435052 0.898428
0.125516 0.0422096 0.897609
0.1245 0.0409216 0.89689
0.123443 0.0396151 0.895771
0.122339 0.0382851 0.894147
0.121243 0.0369624 0.89257
0.120162 0.0356493 0.891103
0.119127 0.0343629 0.890084
0.118127 0.0330953 0.889403
0.117182 0.0318542 0.889267
0.116342 0.0306641 0.890246
0.115528 0.0294833 0.891518
0.11473 0.0283081 0.892984
0.113947 0.0271369 0.894638
0.113168 0.0259647 0.896374
0.112295 0.024751 0.897106
0.111406 0.0235296 0.897666
0.110506 0.022302 0.898103
0.109595 0.0210703 0.898425
0.108676 0.0198351 0.898657
0.107758 0.0186005 0.898908
0.106857 0.0173711 0.899348
0.10597 0.0161466 0.899984
0.105084 0.0149208 0.900635
0.104205 0.0136971 0.901394
0.10337 0.0124845 0.902711
0.102581 0.0112833 0.904642
0.101811 0.0100837 0.906869
0.101044 0.0088807 0.909198
0.100256 0.00766672 0.911286
0.099463 0.00644786 0.913372
0.0986345 0.00521757 0.915035
0.0978287 0.00398823 0.91705
0.172556 0.103354 0.880239
0.171611 0.102106 0.88022
0.170618 0.100821 0.879886
0.169634 0.0995419 0.879604
0.168644 0.0982598 0.87928
0.167637 0.096964 0.878835
0.166634 0.095673 0.878408
0.165673 0.0944147 0.878257
0.164677 0.0931295 0.877859
0.163691 0.0918534 0.87753
0.162692 0.0905673 0.877102
0.161668 0.0892629 0.876491
0.160632 0.0879513 0.875793
0.159585 0.0866317 0.874999
0.158535 0.0853118 0.874176
0.157501 0.0840045 0.87345
0.156495 0.0827194 0.872915
0.155497 0.0814404 0.872425
0.154561 0.0802064 0.872367
0.153628 0.0789746 0.872329
0.152708 0.0777522 0.872381
0.151813 0.0765484 0.872623
0.15093 0.0753531 0.872957
0.15005 0.0741587 0.873309
0.149169 0.0729638 0.873662
0.148311 0.0717838 0.874186
0.147418 0.0705799 0.874452
0.146545 0.0693898 0.874878
0.145682 0.068206 0.875384
0.144912 0.0670831 0.876621
0.144308 0.0660687 0.879191
0.143956 0.065216 0.88381
0.143676 0.0644035 0.889075
0.14336 0.0635611 0.894137
0.142921 0.0626337 0.898282
0.142265 0.0615632 0.900701
0.14145 0.0603895 0.901835
0.140555 0.0591655 0.902324
0.139685 0.057955 0.903016
0.138809 0.0567416 0.903681
0.137929 0.0555232 0.904305
0.136981 0.0542657 0.904368
0.136033 0.0530068 0.904414
0.135041 0.0517231 0.904076
0.134047 0.050439 0.903708
0.133064 0.0491612 0.903427
0.132056 0.0478708 0.902913
0.131007 0.0465584 0.902017
0.129983 0.0452614 0.901327
0.128937 0.0439538 0.900417
0.127881 0.0426419 0.899384
0.126869 0.0413559 0.898759
0.125861 0.0400728 0.898151
0.124804 0.0387668 0.897057
0.123705 0.0374412 0.895526
0.122614 0.0361223 0.894036
0.121531 0.0348095 0.892593
0.120497 0.0335232 0.89161
0.119513 0.0322624 0.891118
0.11858 0.0310274 0.891155
0.117754 0.0298393 0.892281
0.116928 0.02865 0.89344
0.116116 0.0274643 0.894757
0.115303 0.0262761 0.896097
0.114487 0.0250853 0.897432
0.113572 0.0238515 0.897699
0.112664 0.0226206 0.89805
0.111747 0.0213861 0.898302
0.110827 0.0201505 0.898533
0.109901 0.0189118 0.89868
0.108975 0.0176738 0.898834
0.108056 0.0164385 0.899079
0.107153 0.0152074 0.899507
0.106251 0.013976 0.899957
0.105364 0.0127495 0.900607
0.104516 0.0115324 0.901742
0.103737 0.010332 0.903759
0.102969 0.00913039 0.905975
0.102215 0.00792765 0.908413
0.101436 0.0067149 0.910596
0.100648 0.00549509 0.91271
0.099807 0.00426038 0.914171
0.0989882 0.00302638 0.915961
0.0970951 0.00276778 0.920117
0.0982185 0.0017971 0.918472
0.171864 0.099944 0.879947
0.170909 0.0986886 0.879859
0.16993 0.0974152 0.879612
0.16894 0.0961336 0.879287
0.167948 0.0948508 0.878941
0.16697 0.0935802 0.878688
0.165967 0.0922914 0.878262
0.164968 0.0910047 0.877845
0.163968 0.0897189 0.877422
0.162957 0.0884247 0.876909
0.16192 0.0871139 0.876216
0.160869 0.0857927 0.875411
0.159817 0.0844729 0.874592
0.158767 0.0831558 0.873771
0.157749 0.0818621 0.873156
0.156736 0.0805731 0.872568
0.155784 0.0793284 0.872406
0.154836 0.0780866 0.872266
0.15389 0.0768466 0.872139
0.152969 0.0756243 0.872188
0.152072 0.0744178 0.872408
0.151166 0.0732057 0.872566
0.150284 0.0720098 0.872903
0.149425 0.0708298 0.873422
0.148534 0.0696265 0.873691
0.147651 0.0684304 0.874041
0.146766 0.0672307 0.874365
0.145974 0.0660923 0.875417
0.14525 0.0649964 0.877017
0.144781 0.0640623 0.88065
0.144507 0.063247 0.885894
0.144242 0.062429 0.891284
0.143853 0.0615266 0.895761
0.143354 0.0605508 0.899419
0.142664 0.0594532 0.90157
0.141792 0.0582412 0.902234
0.140933 0.0570377 0.903027
0.140081 0.0558369 0.90389
0.139215 0.0546253 0.904633
0.138291 0.0533804 0.904899
0.137342 0.0521217 0.904956
0.13635 0.0508372 0.904621
0.135354 0.0495525 0.904254
0.134371 0.0482747 0.903986
0.13336 0.046983 0.903462
0.132329 0.045682 0.902754
0.131314 0.0443891 0.902154
0.130278 0.0430878 0.901366
0.129239 0.0417864 0.900527
0.128245 0.0405099 0.900093
0.127244 0.0392304 0.899581
0.126193 0.0379275 0.898578
0.1251 0.0366055 0.897136
0.124014 0.0352895 0.895733
0.122935 0.0339808 0.894384
0.121906 0.0326967 0.893491
0.120929 0.031438 0.893096
0.119996 0.0301998 0.893142
0.119124 0.0289888 0.89382
0.118259 0.0277793 0.894575
0.117406 0.026574 0.895469
0.116557 0.0253684 0.896415
0.115708 0.0241613 0.897385
0.11479 0.0229268 0.897631
0.113873 0.0216917 0.897876
0.112954 0.0204561 0.898114
0.112028 0.0192176 0.898265
0.111101 0.0179792 0.898415
0.110175 0.0167408 0.898565
0.109248 0.0155023 0.898716
0.108329 0.014266 0.898954
0.107419 0.0130323 0.899294
0.106531 0.0118051 0.899927
0.105677 0.0105847 0.900955
0.104907 0.0093853 0.903068
0.104142 0.00818232 0.905276
0.1034 0.00697937 0.907818
0.102625 0.00576471 0.910012
0.101848 0.00454494 0.912234
0.100995 0.00330643 0.913516
0.100162 0.00206857 0.91509
0.0993413 0.000829292 0.916866
0.0974838 0.000567979 0.921541
0.0985479 -0.00040967 0.919066
0.0968099 -0.00065928 0.925556
0.0978474 -0.00164285 0.922601
0.172276 0.0979016 0.880683
0.171306 0.0966343 0.880503
0.170331 0.0953654 0.880294
0.169346 0.0940882 0.880007
0.16834 0.0927954 0.879577
0.167321 0.0914952 0.879058
0.166303 0.0901963 0.878537
0.165273 0.0888889 0.877924
0.164258 0.087593 0.877399
0.163206 0.0862717 0.876615
0.162152 0.0849502 0.875803
0.161086 0.0836221 0.874904
0.160033 0.0823048 0.874078
0.159002 0.081002 0.873379
0.157974 0.0797037 0.872696
0.157009 0.0784503 0.872452
0.156046 0.0771985 0.872211
0.155088 0.0759498 0.871995
0.15414 0.0747093 0.871853
0.153229 0.0734938 0.871973
0.152296 0.0722644 0.871937
0.151401 0.0710595 0.872174
0.15053 0.0698713 0.872597
0.149638 0.0686675 0.872857
0.148755 0.0674711 0.873198
0.147871 0.0662717 0.873518
0.147055 0.0651173 0.874379
0.146307 0.0640042 0.875773
0.145716 0.0629878 0.878411
0.14534 0.0621 0.882773
0.145081 0.0612792 0.888138
0.144749 0.0604064 0.893009
0.144323 0.0594704 0.897198
0.143786 0.058461 0.900547
0.143032 0.0573186 0.902172
0.142185 0.0561206 0.903062
0.141336 0.0549194 0.903937
0.140471 0.0537085 0.904695
0.139559 0.0524695 0.905062
0.138621 0.0512165 0.905218
0.137639 0.0499375 0.90498
0.136651 0.0486571 0.904693
0.135666 0.0473786 0.904418
0.134652 0.0460862 0.903887
0.13362 0.0447848 0.90318
0.132614 0.0434983 0.902689
0.1316 0.0422084 0.902115
0.13058 0.0409174 0.901475
0.129594 0.0396447 0.901137
0.128609 0.0383728 0.900794
0.127565 0.0370735 0.899879
0.126495 0.0357639 0.898704
0.125433 0.0344598 0.897573
0.124369 0.033158 0.896403
0.123345 0.0318756 0.895593
0.122363 0.0306133 0.895185
0.121408 0.0293642 0.895043
0.120499 0.0281346 0.895357
0.119596 0.0269066 0.895728
0.118704 0.0256829 0.896226
0.117817 0.024461 0.896785
0.116934 0.023239 0.897389
0.116007 0.0220004 0.897539
0.11509 0.0207649 0.897783
0.114164 0.0195266 0.897944
0.113237 0.0182879 0.898094
0.112317 0.0170513 0.898323
0.111383 0.0158101 0.898385
0.110448 0.0145694 0.89845
0.109529 0.0133326 0.898686
0.108618 0.0120981 0.899013
0.107731 0.01087 0.899642
0.106878 0.00964906 0.900674
0.106111 0.00844786 0.902792
0.105349 0.00724224 0.905
0.104608 0.00603741 0.90754
0.103829 0.00481885 0.909645
0.103055 0.00359728 0.911867
0.102197 0.00235606 0.913058
0.101344 0.00111356 0.91434
0.100479 -0.000133001 0.915505
0.0996476 -0.00137842 0.917137
0.0989193 -0.00261641 0.920215
0.17269 0.0958567 0.881436
0.171731 0.094598 0.881333
0.170741 0.093317 0.881027
0.169717 0.092012 0.880497
0.168666 0.0906888 0.879781
0.167629 0.0893769 0.879149
0.166569 0.0880488 0.878349
0.165535 0.0867413 0.877715
0.164466 0.0854088 0.876827
0.16341 0.0840876 0.876017
0.162341 0.0827584 0.875103
0.161288 0.0814419 0.87429
0.160253 0.0801385 0.873578
0.159222 0.0788395 0.87289
0.158255 0.0775855 0.872638
0.157268 0.0763172 0.872232
0.156295 0.0750603 0.871925
0.155333 0.0738103 0.871682
0.154409 0.0725854 0.871708
0.153451 0.0713407 0.871498
0.152544 0.070128 0.871645
0.151661 0.0689303 0.871966
0.150756 0.0677188 0.87213
0.14986 0.0665139 0.872369
0.148976 0.0653151 0.872688
0.148149 0.0641521 0.873448
0.147364 0.0630141 0.874538
0.146663 0.0619264 0.876296
0.14618 0.0609681 0.879771
0.145829 0.0600855 0.884347
0.145555 0.0592407 0.889592
0.145227 0.0583576 0.894496
0.144853 0.0574386 0.899095
0.144239 0.0563758 0.901836
0.143522 0.05525 0.903772
0.142683 0.0540536 0.904743
0.141819 0.0528404 0.905504
0.140905 0.0515999 0.90587
0.139955 0.0503387 0.905929
0.138959 0.0490519 0.905582
0.137948 0.0477601 0.905116
0.136959 0.0464799 0.904826
0.135945 0.0451864 0.904298
0.134931 0.0438958 0.903771
0.133936 0.0426152 0.903398
0.132942 0.0413356 0.90302
0.131932 0.0400495 0.90249
0.130955 0.0387802 0.90225
0.129979 0.0375116 0.902005
0.128941 0.0362164 0.90119
0.12789 0.0349158 0.900217
0.126836 0.0336164 0.899205
0.12577 0.0323135 0.898049
0.124732 0.0310248 0.897138
0.123735 0.0297557 0.896612
0.122749 0.0284921 0.896174
0.121809 0.0272483 0.896192
0.120883 0.0260096 0.89634
0.119961 0.0247733 0.896538
0.119046 0.0235392 0.896806
0.118152 0.0223131 0.897302
0.117225 0.0210741 0.897453
0.11631 0.0198385 0.897717
0.115393 0.0186028 0.897979
0.114466 0.0173636 0.898129
0.113545 0.0161264 0.898352
0.112609 0.0148848 0.898405
0.111674 0.0136431 0.898468
0.110756 0.0124062 0.898715
0.109852 0.0111732 0.899137
0.108974 0.0099463 0.899862
0.108131 0.00872571 0.90101
0.107361 0.00751979 0.903056
0.1066 0.00631183 0.905267
0.105852 0.00510177 0.907684
0.105066 0.0038792 0.909676
0.104279 0.00265185 0.911705
0.103422 0.00140936 0.912887
0.102554 0.00016356 0.913971
0.101667 -0.00108716 0.91483
0.100813 -0.00233599 0.916138
0.100072 -0.003578 0.918978
0.174093 0.0950856 0.882453
0.173126 0.093822 0.882318
0.172139 0.0925429 0.882043
0.171097 0.0912255 0.881411
0.170013 0.0898806 0.880504
0.168945 0.0885469 0.879677
0.16785 0.0871962 0.878667
0.166788 0.0858685 0.877849
0.1657 0.0845256 0.876852
0.164642 0.0832045 0.876041
0.163571 0.081876 0.875131
0.162517 0.0805608 0.87432
0.161478 0.0792563 0.873596
0.160446 0.0779569 0.872904
0.159478 0.0767024 0.87265
0.158478 0.0754264 0.872161
0.157503 0.0741686 0.871846
0.156525 0.0729102 0.871507
0.155588 0.0716765 0.871436
0.154619 0.0704242 0.871142
0.153711 0.0692116 0.87129
0.152816 0.0680061 0.871521
0.15191 0.0667939 0.871674
0.151002 0.0655816 0.871825
0.150106 0.0643753 0.872052
0.149257 0.0631986 0.872641
0.148436 0.0620374 0.873446
0.147631 0.0608845 0.87438
0.147031 0.0598528 0.876916
0.146577 0.0589027 0.880614
0.146215 0.058001 0.885095
0.145992 0.0571719 0.890736
0.145774 0.0563378 0.896513
0.145339 0.0553729 0.90064
0.144775 0.05433 0.903788
0.144066 0.0532026 0.905807
0.143188 0.0519803 0.906466
0.14227 0.0507353 0.906799
0.141295 0.0494606 0.906665
0.140272 0.048161 0.906119
0.139249 0.0468613 0.905551
0.138257 0.0455801 0.905249
0.137252 0.0442924 0.904822
0.13627 0.0430172 0.904584
0.135308 0.0417523 0.904512
0.134313 0.0404726 0.904155
0.133322 0.0391949 0.90381
0.132342 0.0379228 0.903558
0.131364 0.0366536 0.903327
0.130327 0.0353582 0.902539
0.129304 0.0340707 0.901869
0.128262 0.0327751 0.900987
0.127204 0.0314762 0.899952
0.126162 0.0301852 0.899031
0.125156 0.0289123 0.898462
0.124154 0.0276403 0.897891
0.12319 0.0263856 0.897693
0.12225 0.025141 0.897735
0.121298 0.0238914 0.897639
0.12036 0.0226468 0.897682
0.119437 0.021409 0.897891
0.118492 0.0201625 0.897853
0.117558 0.0189212 0.89795
0.116643 0.0176847 0.898227
0.115707 0.0164421 0.898288
0.114785 0.0152039 0.898499
0.113847 0.0139615 0.898546
0.112913 0.0127196 0.89862
0.111994 0.0114816 0.898863
0.1111 0.0102499 0.899389
0.11024 0.00902569 0.900323
0.109424 0.00780919 0.901781
0.108657 0.00660063 0.903852
0.107905 0.00539035 0.906144
0.107147 0.00417392 0.908422
0.106346 0.00294495 0.910209
0.105535 0.00171131 0.911935
0.104678 0.000466981 0.913109
0.103796 -0.000783016 0.913999
0.102902 -0.00203577 0.914757
0.102041 -0.00328695 0.915965
0.10128 -0.00453332 0.918506
0.0994062 -0.00482024 0.92293
0.100611 -0.00577995 0.922337
0.175532 0.0943365 0.883682
0.174556 0.0930643 0.883493
0.173537 0.0917638 0.883038
0.172462 0.0904243 0.882214
0.171358 0.0890657 0.881187
0.170257 0.0877107 0.880167
0.169118 0.0863311 0.878884
0.168036 0.0849928 0.877956
0.166945 0.0836486 0.876947
0.165885 0.0823282 0.876137
0.164815 0.0810019 0.875245
0.163773 0.0796956 0.874525
0.162733 0.0783916 0.873805
0.161697 0.0770909 0.873099
0.160703 0.0758203 0.872675
0.159701 0.0745439 0.872181
0.158724 0.0732846 0.871852
0.157733 0.0720181 0.871427
0.156781 0.0707761 0.871263
0.15581 0.0695231 0.870961
0.15489 0.0683024 0.871019
0.153972 0.0670825 0.871082
0.153064 0.0658699 0.871229
0.152157 0.0646573 0.871376
0.15125 0.0634447 0.871523
0.150402 0.0622676 0.872112
0.149559 0.0610923 0.872744
0.148719 0.0599185 0.873406
0.147999 0.0588131 0.874994
0.147425 0.0577894 0.877724
0.146935 0.0568089 0.881143
0.146625 0.0559252 0.886029
0.146506 0.05514 0.892487
0.146255 0.0542722 0.898006
0.145862 0.0533185 0.902469
0.145306 0.0522706 0.905692
0.144545 0.0511089 0.907298
0.143602 0.0498496 0.907434
0.142598 0.0485588 0.907064
0.141559 0.0472516 0.9064
0.140519 0.0459457 0.905716
0.139539 0.0446696 0.905517
0.138556 0.043393 0.905287
0.137599 0.0421301 0.90528
0.13666 0.0408757 0.905428
0.135696 0.0396095 0.905349
0.134721 0.0383393 0.905178
0.133749 0.0370704 0.905021
0.132791 0.0358078 0.904979
0.131771 0.0345196 0.904379
0.130758 0.0332354 0.903826
0.129722 0.0319429 0.903048
0.128671 0.0306462 0.90211
0.127623 0.0293523 0.901181
0.126605 0.0280724 0.900513
0.125596 0.0267975 0.89992
0.12462 0.0255361 0.899632
0.123669 0.0242845 0.899576
0.122694 0.0230254 0.899286
0.121743 0.0217748 0.899217
0.120797 0.0205268 0.899205
0.119829 0.019272 0.898965
0.118876 0.0180226 0.898868
0.11794 0.0167793 0.898948
0.116985 0.0155296 0.898813
0.116044 0.0142856 0.898843
0.115089 0.0130371 0.898701
0.114146 0.0117925 0.898682
0.113219 0.0105525 0.898844
0.112325 0.00932039 0.899376
0.111491 0.00810001 0.900593
0.11072 0.00689068 0.902554
0.109959 0.00567933 0.904678
0.109224 0.00446824 0.907154
0.108464 0.00324705 0.909379
0.107644 0.00201219 0.910944
0.106804 0.000771022 0.912302
0.105947 -0.000475075 0.913478
0.105057 -0.00172759 0.91426
0.10417 -0.00298155 0.915107
0.103312 -0.00423442 0.916334
0.102525 -0.00548593 0.918511
0.101822 -0.00673817 0.921846
0.1769 0.0935313 0.884444
0.175914 0.0922526 0.884204
0.174888 0.0909468 0.88371
0.173799 0.0895986 0.882812
0.172663 0.0882198 0.881603
0.171542 0.0868525 0.880465
0.170384 0.0854631 0.87908
0.169272 0.084106 0.877969
0.168178 0.0827625 0.876959
0.167118 0.0814422 0.876152
0.166063 0.0801272 0.875367
0.165034 0.0788309 0.874745
0.164006 0.0775366 0.874123
0.16298 0.0762437 0.873497
0.161984 0.074971 0.873065
0.160966 0.0736864 0.87248
0.159974 0.072418 0.87206
0.158981 0.0711503 0.871624
0.158003 0.0698932 0.871286
0.157018 0.0686313 0.870889
0.156083 0.0674016 0.870843
0.155151 0.0661733 0.870811
0.154231 0.064954 0.870874
0.153324 0.0637415 0.871021
0.152417 0.0625288 0.871168
0.15157 0.0613506 0.871756
0.150727 0.0601752 0.872389
0.149888 0.0590008 0.873051
0.149056 0.0578291 0.873774
0.148343 0.0567239 0.875418
0.147714 0.0556637 0.877733
0.147263 0.0546959 0.881445
0.146957 0.0530636 0.893728
0.146762 0.0522105 0.899684
0.14638 0.0512514 0.904253
0.145783 0.0501719 0.907145
0.144975 0.0489822 0.908385
0.143932 0.0476712 0.907712
0.142866 0.046351 0.906842
0.141811 0.045038 0.906044
0.14083 0.0437618 0.905852
0.13986 0.0424919 0.905747
0.13893 0.0412402 0.905971
0.138026 0.0400013 0.906428
0.137095 0.0387492 0.906657
0.136141 0.037487 0.906683
0.135177 0.0362202 0.906615
0.134227 0.0349609 0.906678
0.133214 0.033674 0.906163
0.132207 0.0323916 0.905693
0.131177 0.0311003 0.904995
0.130121 0.0298014 0.904051
0.129069 0.0285055 0.903115
0.128038 0.0272195 0.902358
0.127028 0.0259435 0.901791
0.126053 0.0246804 0.901529
0.125111 0.0234306 0.901594
0.124133 0.0221686 0.9013
0.123177 0.0209145 0.90122
0.122216 0.0196599 0.901082
0.121226 0.018396 0.900639
0.120238 0.0171345 0.900213
0.11927 0.0158799 0.899977
0.118282 0.0146206 0.899529
0.117313 0.0133673 0.899258
0.116331 0.0121118 0.898845
0.115368 0.0108625 0.898629
0.114539 0.0096442 0.899855
0.113708 0.00842367 0.901089
0.112931 0.007212 0.902956
0.112213 0.00600775 0.905527
0.111483 0.00479513 0.907999
0.110676 0.00356505 0.909649
0.109874 0.00233193 0.9114
0.109006 0.00108517 0.91239
0.108133 -0.000163733 0.913353
0.107251 -0.00141558 0.914231
0.106337 -0.00267218 0.914737
0.105444 -0.00392802 0.9155
0.104595 -0.00518319 0.91683
0.104428 -0.0064071 0.926866
0.178169 0.092653 0.884573
0.177174 0.0913685 0.884284
0.176146 0.0900622 0.883787
0.175052 0.0887128 0.882871
0.17392 0.0873394 0.881703
0.172807 0.0859792 0.880628
0.17167 0.0846051 0.879389
0.170527 0.083229 0.878091
0.169429 0.081885 0.87707
0.168353 0.0805567 0.876174
0.16731 0.0792519 0.875488
0.166298 0.0779665 0.874984
0.165284 0.076682 0.874461
0.16427 0.075398 0.873929
0.16327 0.0741243 0.873488
0.162236 0.0728298 0.872803
0.161229 0.0715529 0.87229
0.160223 0.0702772 0.871773
0.159218 0.0690041 0.871255
0.158215 0.0677331 0.870743
0.157265 0.0664938 0.87059
0.156318 0.0652579 0.870462
0.155398 0.0640376 0.870519
0.154491 0.062825 0.870666
0.153584 0.0616124 0.870813
0.152726 0.0604274 0.871318
0.151872 0.0592445 0.87186
0.151021 0.0580629 0.872429
0.150176 0.0568842 0.873056
0.149339 0.0557085 0.873741
0.148581 0.054575 0.875037
0.147978 0.0535219 0.877534
0.147018 0.0538352 0.886827
0.147575 0.0525713 0.881614
0.147002 0.0500037 0.899249
0.146598 0.0490218 0.903623
0.145986 0.04793 0.906395
0.145104 0.0467005 0.907023
0.144183 0.0454524 0.907345
0.143103 0.0441285 0.906359
0.14212 0.0428512 0.90616
0.141162 0.0415862 0.906157
0.140266 0.0403498 0.906683
0.139388 0.0391209 0.907367
0.138492 0.0378829 0.907906
0.137561 0.0366291 0.908145
0.13661 0.0353663 0.908208
0.135657 0.0341041 0.908265
0.134651 0.03282 0.907843
0.13365 0.0315381 0.907449
0.132616 0.0302449 0.906745
0.131554 0.0289435 0.905779
0.130498 0.0276456 0.904841
0.129474 0.0263611 0.904174
0.128464 0.0250836 0.903632
0.127497 0.0238226 0.903483
0.126565 0.0225742 0.903673
0.125595 0.0213124 0.903483
0.124629 0.0200527 0.903325
0.123656 0.0187919 0.903098
0.122641 0.0175197 0.902441
0.121629 0.0162496 0.901801
0.120715 0.0150083 0.902141
0.119805 0.0137679 0.902532
0.118907 0.0125299 0.90305
0.118011 0.0112906 0.903587
0.117127 0.0100539 0.904262
0.116299 0.0088282 0.90556
0.115454 0.00759671 0.906694
0.114655 0.00637174 0.90836
0.113896 0.00515015 0.910495
0.113114 0.00392054 0.912419
0.112224 0.00266926 0.913153
0.11135 0.00142005 0.914097
0.110409 0.000159531 0.91427
0.109482 -0.00109879 0.914616
0.109221 -0.00229348 0.92288
0.178434 0.0904832 0.884361
0.177404 0.0891763 0.883859
0.176299 0.0878207 0.88288
0.17517 0.0864516 0.881745
0.174047 0.0850879 0.880629
0.172916 0.0837193 0.879436
0.171776 0.0823485 0.87818
0.170698 0.0810184 0.877293
0.169603 0.0796796 0.87629
0.168559 0.0783749 0.875602
0.16756 0.0770995 0.875197
0.166549 0.0758167 0.874705
0.165535 0.0745343 0.874187
0.164521 0.0732514 0.873651
0.163483 0.0719563 0.872956
0.162461 0.0706705 0.872346
0.161439 0.069387 0.871732
0.160419 0.0681054 0.871118
0.159413 0.0668332 0.870591
0.158446 0.0655851 0.87033
0.157486 0.0643414 0.87011
0.156566 0.0631212 0.870164
0.155658 0.0619086 0.870311
0.154751 0.0606959 0.870458
0.153881 0.0595037 0.870872
0.153013 0.0583136 0.871315
0.152149 0.0571234 0.871778
0.151281 0.0559316 0.872221
0.15042 0.0547421 0.872719
0.149523 0.053534 0.872957
0.148764 0.0523977 0.874242
0.148186 0.051352 0.876917
0.147374 0.0517204 0.887332
0.147824 0.0504133 0.881304
0.146913 0.0476374 0.896229
0.14634 0.0465662 0.899228
0.145651 0.0454336 0.901339
0.144934 0.0442859 0.903262
0.144043 0.0430534 0.903796
0.143231 0.0418569 0.90498
0.14244 0.0406681 0.906365
0.141567 0.0394405 0.907081
0.140726 0.0382254 0.908068
0.139867 0.0370022 0.90893
0.138961 0.0357575 0.909395
0.13802 0.034498 0.909566
0.137076 0.0332369 0.909709
0.136089 0.0319588 0.909471
0.135107 0.0306839 0.909276
0.134084 0.0293945 0.908708
0.133039 0.0280977 0.907923
0.131976 0.026797 0.906961
0.130925 0.0255021 0.906082
0.1299 0.0242182 0.905429
0.12896 0.0229644 0.905563
0.128038 0.0217164 0.905865
0.127098 0.0204623 0.905992
0.126158 0.0192083 0.906121
0.125211 0.017952 0.906182
0.124202 0.0166788 0.905631
0.123233 0.0154178 0.905464
0.12236 0.0141821 0.906252
0.121512 0.012952 0.907312
0.12067 0.0117205 0.908444
0.119824 0.0104862 0.909562
0.11895 0.00924414 0.910411
0.118129 0.00801151 0.911839
0.117265 0.00676681 0.912821
0.116447 0.00552904 0.91432
0.115639 0.00428987 0.915973
0.114824 0.00304595 0.917574
0.113884 0.00178094 0.917803
0.112975 0.000519696 0.918387
0.176405 0.085553 0.881691
0.175316 0.0842129 0.880796
0.174174 0.0828401 0.879555
0.173043 0.0814768 0.878367
0.171971 0.0801529 0.877537
0.170895 0.078827 0.876665
0.169835 0.0775135 0.875888
0.168849 0.0762461 0.875575
0.16785 0.0749723 0.875173
0.166836 0.0736892 0.874661
0.165805 0.0723973 0.874031
0.16475 0.071093 0.873234
0.163712 0.0697984 0.872524
0.162663 0.0684995 0.871736
0.161626 0.0672102 0.871023
0.160604 0.0659294 0.870395
0.159625 0.0646749 0.870053
0.158653 0.063425 0.869752
0.157732 0.0622053 0.869809
0.156825 0.0609928 0.869956
0.155918 0.0597801 0.870103
0.155035 0.0585803 0.870424
0.154154 0.0573817 0.870762
0.153274 0.0561832 0.871107
0.152392 0.0549832 0.871444
0.151508 0.053782 0.871765
0.1506 0.0525681 0.871912
0.149692 0.0513543 0.872059
0.148944 0.0502216 0.873424
0.148392 0.049184 0.876293
0.147475 0.0494733 0.885852
0.14786 0.0481508 0.879355
0.146589 0.0451748 0.891381
0.14596 0.0440739 0.893884
0.145455 0.0430256 0.897423
0.144781 0.0418955 0.899652
0.144168 0.0407882 0.902411
0.143574 0.0396852 0.905377
0.142863 0.0385258 0.907408
0.142036 0.0373158 0.908521
0.141224 0.0361096 0.909773
0.14033 0.0348679 0.91035
0.139399 0.033611 0.910614
0.138463 0.0323526 0.910846
0.137506 0.0310849 0.910884
0.13653 0.0298112 0.91076
0.135531 0.0285291 0.910424
0.134498 0.027236 0.909776
0.133437 0.0259354 0.908869
0.132368 0.0246339 0.907861
0.131325 0.0233429 0.907075
0.130403 0.022093 0.907393
0.129491 0.0208453 0.907805
0.128581 0.019598 0.908243
0.12767 0.0183489 0.90867
0.126763 0.017101 0.909144
0.125772 0.0158304 0.908813
0.124863 0.0145812 0.909273
0.124048 0.0133545 0.910669
0.123261 0.0121327 0.912383
0.122477 0.0109068 0.914141
0.121676 0.00967415 0.915774
0.120812 0.00842577 0.916782
0.119986 0.00718269 0.918207
0.119102 0.00592568 0.919038
0.118233 0.00467033 0.920053
0.117387 0.00341633 0.921338
0.116535 0.0021583 0.922569
0.115542 0.000880133 0.922283
0.114591 -0.000392405 0.922443
0.112667 -0.000674652 0.925872
0.175391 0.0819334 0.879409
0.174261 0.0805729 0.878239
0.173196 0.0792544 0.877462
0.172138 0.0779419 0.876718
0.171102 0.0766436 0.876103
0.170128 0.0753849 0.875878
0.169129 0.0741101 0.875479
0.168124 0.0728344 0.875042
0.167089 0.0715411 0.874399
0.166018 0.0702275 0.873502
0.164949 0.0689174 0.872609
0.163896 0.067617 0.871804
0.162833 0.0663133 0.87092
0.161796 0.065026 0.870204
0.160805 0.0637646 0.869778
0.159831 0.0625147 0.869474
0.1589 0.0612889 0.869453
0.157992 0.0600763 0.869601
0.157085 0.0588637 0.869748
0.15619 0.0576572 0.869979
0.155295 0.0564509 0.870216
0.154401 0.0552449 0.870456
0.153506 0.0540381 0.870694
0.152609 0.0528313 0.870925
0.151702 0.0516182 0.871072
0.150794 0.050405 0.871219
0.149886 0.0491918 0.871367
0.149153 0.0480626 0.872822
0.148441 0.0469413 0.874462
0.147502 0.0471972 0.883808
0.147902 0.0459004 0.877463
0.146834 0.0438055 0.883653
0.146248 0.0427265 0.886411
0.145843 0.0417238 0.890644
0.145307 0.0406565 0.893901
0.144798 0.0395949 0.897426
0.144283 0.0385242 0.900952
0.143618 0.0373865 0.903323
0.142775 0.0361708 0.904251
0.142086 0.0350158 0.906479
0.141335 0.0338323 0.908219
0.140556 0.0326355 0.909758
0.139745 0.0314237 0.911045
0.138922 0.0302044 0.912236
0.137947 0.0289297 0.91214
0.136899 0.0276305 0.91141
0.135812 0.0263187 0.910307
0.134713 0.0250058 0.909077
0.133587 0.0236871 0.90758
0.132529 0.0223928 0.906662
0.13166 0.0211578 0.907459
0.130803 0.0199258 0.908377
0.129959 0.0186961 0.909439
0.129127 0.0174674 0.910626
0.128252 0.0162249 0.911426
0.127322 0.0149672 0.911708
0.126481 0.0137306 0.912852
0.125731 0.0125135 0.914917
0.12501 0.0112989 0.917305
0.124276 0.0100762 0.919602
0.123502 0.0088405 0.921546
0.122653 0.0075871 0.922763
0.121843 0.00633723 0.924389
0.120953 0.00507111 0.925226
0.120045 0.00380022 0.925876
0.119155 0.00253167 0.92675
0.118287 0.00126376 0.927864
0.117253 -2.57044e-05 0.927191
0.116267 -0.00130804 0.927037
0.175496 0.0796777 0.87821
0.174435 0.0783635 0.877469
0.1734 0.0770664 0.876884
0.172385 0.0757814 0.876406
0.17144 0.07454 0.876377
0.170456 0.0732746 0.876083
0.169434 0.0719889 0.87555
0.168383 0.0706873 0.874814
0.167293 0.0693646 0.873809
0.166195 0.0680387 0.872738
0.165112 0.0667233 0.871746
0.164032 0.0654114 0.87076
0.162981 0.0641166 0.869951
0.161974 0.0628485 0.869433
0.161 0.0615988 0.869124
0.160067 0.0603725 0.869098
0.15916 0.0591599 0.869246
0.158252 0.0579472 0.869393
0.157345 0.0567346 0.86954
0.156438 0.0555221 0.869687
0.155531 0.0543094 0.869834
0.154624 0.0530968 0.869982
0.153717 0.0518842 0.870129
0.152809 0.0506716 0.870276
0.151902 0.0494589 0.870423
0.150995 0.0482464 0.870571
0.150088 0.0470338 0.870718
0.149204 0.0458318 0.871039
0.148493 0.0447094 0.872678
0.147373 0.0448576 0.880569
0.147794 0.0435894 0.874424
0.147095 0.042467 0.876206
0.146576 0.0414197 0.879398
0.146253 0.0404518 0.884177
0.145804 0.0394224 0.888037
0.145402 0.0384053 0.892332
0.144963 0.0373653 0.896393
0.144311 0.0362323 0.898804
0.143433 0.0350063 0.899413
0.142713 0.0338401 0.901322
0.141948 0.0326533 0.902889
0.141197 0.0314689 0.904592
0.140418 0.0302723 0.9061
0.139643 0.0290735 0.907656
0.138798 0.027848 0.908638
0.137884 0.0265983 0.909043
0.136878 0.0253169 0.908644
0.135843 0.0240279 0.907984
0.134747 0.0227211 0.90676
0.13371 0.0214352 0.906049
0.132869 0.0202081 0.907086
0.132063 0.01899 0.908469
0.131278 0.0177742 0.910061
0.130531 0.0165656 0.91204
0.129681 0.0153262 0.913075
0.128815 0.0140812 0.913977
0.128034 0.0128548 0.91572
0.127352 0.0116474 0.918449
0.126685 0.010436 0.921368
0.126008 0.00921697 0.924248
0.125269 0.00797974 0.926563
0.124447 0.00672362 0.928088
0.123546 0.00545025 0.928834
0.122605 0.00417001 0.929186
0.121645 0.00288668 0.929353
0.120715 0.00160688 0.92982
0.119814 0.000329944 0.930609
0.118845 -0.000956245 0.930673
0.117877 -0.00224116 0.930761
0.17564 0.0774513 0.877263
0.174655 0.0761846 0.876994
0.173671 0.0749191 0.876723
0.172752 0.0736929 0.876863
0.171788 0.0724394 0.876711
0.17078 0.0711622 0.876275
0.169713 0.0698512 0.875447
0.168618 0.0685273 0.874431
0.1675 0.0671917 0.873243
0.166388 0.0658605 0.872073
0.165289 0.0645401 0.870979
0.164233 0.0632449 0.870155
0.16321 0.0619679 0.869532
0.162233 0.0607176 0.869218
0.161286 0.0594838 0.8691
0.160365 0.0582639 0.869157
0.159445 0.0570438 0.869211
0.158525 0.0558243 0.869269
0.157605 0.0546062 0.869332
0.156697 0.0533936 0.86948
0.15579 0.0521809 0.869627
0.154883 0.0509683 0.869774
0.153976 0.0497558 0.869921
0.153069 0.0485431 0.870068
0.152162 0.0473305 0.870216
0.151267 0.0461225 0.870447
0.150396 0.0449268 0.870867
0.149528 0.0437311 0.871312
0.148661 0.0425363 0.871773
0.147802 0.0413436 0.872293
0.147144 0.0402364 0.874368
0.146707 0.0392172 0.878171
0.146318 0.0382118 0.882419
0.145958 0.0372095 0.886948
0.145536 0.0361755 0.891072
0.144882 0.0350435 0.893402
0.143977 0.0338108 0.89374
0.143227 0.0326357 0.895342
0.14246 0.0314524 0.896838
0.141761 0.0302898 0.898905
0.141013 0.0291071 0.900607
0.140283 0.0279267 0.902485
0.139458 0.0267118 0.903586
0.138566 0.025473 0.904128
0.137646 0.0242251 0.904447
0.1367 0.0229677 0.904532
0.13566 0.0216831 0.903792
0.134686 0.0204192 0.90362
0.133936 0.0192192 0.90545
0.133191 0.018016 0.907341
0.132468 0.016816 0.909485
0.131816 0.0156282 0.9123
0.131055 0.0144091 0.914165
0.130242 0.0131738 0.915575
0.129502 0.0119525 0.917698
0.128787 0.0107311 0.920093
0.128053 0.00950177 0.922362
0.127311 0.00826502 0.924585
0.126501 0.00701246 0.926186
0.125628 0.00574539 0.927177
0.124749 0.00447591 0.928141
0.123851 0.00320144 0.928914
0.122943 0.00192508 0.929621
0.122074 0.000651238 0.930726
0.121234 -0.000622166 0.932147
0.120338 -0.00190368 0.933018
0.119435 -0.00318694 0.93383
0.17496 0.0740557 0.877044
0.174081 0.0728516 0.877437
0.173156 0.0716208 0.877544
0.172149 0.0703431 0.877123
0.171089 0.069038 0.876362
0.169988 0.0677115 0.875325
0.168838 0.066359 0.873946
0.167692 0.0650117 0.872579
0.166575 0.0636835 0.871385
0.165504 0.06238 0.870467
0.164464 0.0610963 0.86975
0.163485 0.0598448 0.869429
0.162512 0.0585974 0.869138
0.161576 0.0573692 0.869096
0.160639 0.0561417 0.869046
0.159704 0.0549151 0.869003
0.158772 0.0536898 0.868977
0.157865 0.0524771 0.869124
0.156958 0.0512645 0.869272
0.15605 0.0500519 0.869419
0.155143 0.0488393 0.869566
0.154248 0.0476321 0.869798
0.153352 0.0464252 0.870034
0.152482 0.045228 0.870448
0.151626 0.0440378 0.870974
0.150771 0.0428472 0.871518
0.149906 0.0416513 0.871987
0.149059 0.0404624 0.872597
0.148271 0.0392974 0.873667
0.147697 0.0382178 0.876387
0.14719 0.0371606 0.879669
0.146694 0.0361007 0.883081
0.146119 0.0350055 0.885934
0.145456 0.033871 0.888131
0.144528 0.032634 0.888241
0.143729 0.0314447 0.889397
0.142946 0.0302586 0.890697
0.142252 0.0291012 0.892743
0.14151 0.0279234 0.894421
0.140802 0.0267541 0.896414
0.139985 0.025546 0.897526
0.139098 0.0243139 0.898055
0.136502 0.020632 0.900266
0.13562 0.0193979 0.900877
0.134958 0.0182211 0.90344
0.13426 0.0170302 0.90572
0.133541 0.0158288 0.907854
0.13294 0.0146518 0.911099
0.132206 0.0134374 0.913184
0.131408 0.0122044 0.914701
0.130642 0.0109754 0.916554
0.129934 0.00975421 0.918991
0.129172 0.00851699 0.920945
0.12843 0.00727957 0.923134
0.127603 0.00602347 0.924538
0.126754 0.0047603 0.925747
0.125901 0.00349496 0.926942
0.125046 0.00222662 0.92814
0.124184 0.000955002 0.929283
0.123368 -0.000314695 0.930917
0.122571 -0.00158598 0.932781
0.121717 -0.00286633 0.934081
0.120844 -0.00415037 0.935218
0.175358 0.0719784 0.877674
0.174483 0.0707743 0.878096
0.173505 0.0695142 0.877876
0.172452 0.0682123 0.877166
0.171364 0.0668938 0.876228
0.170218 0.065546 0.874904
0.169039 0.0641827 0.873344
0.167893 0.0628398 0.871978
0.166805 0.0615295 0.870968
0.165751 0.0602385 0.87017
0.164756 0.0589801 0.869758
0.163756 0.0577179 0.869287
0.162791 0.0564757 0.869056
0.161836 0.0552393 0.868888
0.160885 0.0540051 0.868741
0.159939 0.0527734 0.868622
0.159032 0.0515607 0.868769
0.158125 0.050348 0.868916
0.157218 0.0491355 0.869064
0.156311 0.0479229 0.869211
0.155427 0.0467215 0.869532
0.154547 0.0455198 0.869869
0.153704 0.0443348 0.870481
0.152862 0.0431496 0.871112
0.15202 0.0419635 0.871749
0.15115 0.0407655 0.872192
0.150312 0.0395793 0.872873
0.149539 0.0384175 0.874043
0.148833 0.0372817 0.875748
0.148193 0.0361678 0.877975
0.147546 0.0350469 0.880178
0.146804 0.033887 0.881683
0.145977 0.0326928 0.882541
0.145041 0.0314589 0.882553
0.144205 0.0302605 0.883361
0.143413 0.0290748 0.884529
0.142719 0.0279211 0.886508
0.141985 0.0267494 0.888183
0.141289 0.0255878 0.890208
0.140489 0.024389 0.891396
0.139606 0.0231638 0.891907
0.138823 0.021967 0.893273
0.138082 0.0207795 0.895015
0.137226 0.0195571 0.895799
0.136409 0.0183436 0.896927
0.135778 0.0171758 0.8997
0.135074 0.0159839 0.901875
0.134384 0.0147912 0.904215
0.133842 0.0136266 0.907918
0.133172 0.0124268 0.910529
0.132457 0.0112122 0.91278
0.131735 0.00999166 0.915004
0.13104 0.00877102 0.917514
0.130268 0.00753123 0.919344
0.129538 0.00629423 0.921607
0.128707 0.00503751 0.922948
0.127884 0.00377901 0.924388
0.127066 0.00251748 0.925895
0.126255 0.00125399 0.927509
0.125427 -1.54132e-05 0.928974
0.124646 -0.00128282 0.930943
0.123883 -0.00255412 0.933135
0.123061 -0.00383422 0.934757
0.122211 -0.00511988 0.936125
0.175814 0.0699283 0.878663
0.174861 0.0686807 0.878603
0.173824 0.0673886 0.878015
0.172718 0.0660608 0.876975
0.171576 0.0647169 0.875698
0.17039 0.0633522 0.87412
0.169211 0.0619944 0.872563
0.168084 0.0606647 0.871311
0.167026 0.0593724 0.870499
0.166015 0.0581063 0.869988
0.164997 0.0568366 0.869415
0.164003 0.0555803 0.868995
0.163032 0.054336 0.868722
0.162066 0.0530947 0.868476
