ply
format ascii 1.0
element vertex 1732
property float x
property float y
property float z
end_header
0.29384 -0.110767 0.774713
0.293048 -0.111277 0.776503
0.292153 -0.11175 0.778034
0.291145 -0.112184 0.779281
0.290002 -0.112566 0.78018
0.288826 -0.112939 0.780996
0.287627 -0.113301 0.781753
0.286399 -0.113653 0.782435
0.285158 -0.114001 0.783086
0.283881 -0.114334 0.78364
0.282577 -0.114657 0.784122
0.281282 -0.114983 0.784628
0.279992 -0.115312 0.785149
0.278668 -0.115627 0.785576
0.277363 -0.115948 0.786054
0.275996 -0.116245 0.786359
0.274746 -0.11659 0.786992
0.273538 -0.116953 0.787742
0.272396 -0.117345 0.788682
0.271337 -0.117773 0.789862
0.270333 -0.118226 0.791206
0.269282 -0.11866 0.792422
0.268281 -0.119119 0.793793
0.267308 -0.119591 0.795254
0.266333 -0.120064 0.796717
0.265388 -0.120552 0.79828
0.264416 -0.121031 0.799775
0.263435 -0.121509 0.801253
0.262584 -0.122048 0.803128
0.262032 -0.122727 0.805916
0.261551 -0.123444 0.80894
0.26128 -0.124265 0.812627
0.26098 -0.125079 0.816259
0.260565 -0.125846 0.819575
0.259831 -0.126468 0.821941
0.258942 -0.12702 0.823848
0.257901 -0.127502 0.8253
0.256704 -0.12791 0.826274
0.255359 -0.128247 0.826788
0.253977 -0.128564 0.827186
0.252622 -0.128895 0.827664
0.251219 -0.129203 0.827995
0.249765 -0.129484 0.828153
0.248298 -0.129758 0.828268
0.246768 -0.129998 0.828175
0.245272 -0.130254 0.828187
0.244254 -0.129463 0.830738
0.243792 -0.130518 0.828244
0.244011 -0.130372 0.8349
0.24309 -0.131189 0.830871
0.243843 -0.13133 0.839355
0.242463 -0.131905 0.833772
0.325375 -0.108208 0.781041
0.32379 -0.108449 0.78091
0.322139 -0.108666 0.780619
0.320452 -0.10887 0.78023
0.318731 -0.109061 0.779755
0.316889 -0.109209 0.778979
0.31494 -0.109317 0.777928
0.31295 -0.109408 0.776766
0.310926 -0.109483 0.775507
0.309025 -0.109599 0.774531
0.307053 -0.109687 0.773368
0.30499 -0.109738 0.77196
0.302988 -0.109808 0.77069
0.301119 -0.109922 0.769736
0.299331 -0.110064 0.768971
0.297864 -0.11032 0.769007
0.296894 -0.110758 0.770302
0.296004 -0.111228 0.771807
0.295279 -0.111761 0.773747
0.294591 -0.112311 0.775797
0.2938 -0.112826 0.777594
0.292838 -0.113277 0.778958
0.291756 -0.113685 0.780017
0.290521 -0.114034 0.780679
0.289255 -0.114372 0.781262
0.28802 -0.114722 0.781928
0.286752 -0.115059 0.782507
0.285479 -0.115395 0.783076
0.284171 -0.115717 0.783548
0.282804 -0.116014 0.783861
0.281462 -0.116322 0.784243
0.280154 -0.116644 0.784714
0.278822 -0.116955 0.78512
0.277491 -0.117267 0.785527
0.276156 -0.117576 0.785921
0.274906 -0.117922 0.786554
0.273672 -0.118274 0.78723
0.272561 -0.11868 0.788257
0.271572 -0.119139 0.789636
0.270668 -0.119637 0.791267
0.269716 -0.120117 0.792769
0.268779 -0.120605 0.794327
0.267775 -0.121066 0.795703
0.266732 -0.121511 0.796973
0.265661 -0.121947 0.798172
0.26456 -0.122369 0.799287
0.263484 -0.122805 0.800485
0.262608 -0.123334 0.802284
0.262037 -0.124007 0.805008
0.26162 -0.124758 0.808222
0.261343 -0.125581 0.811884
0.261071 -0.126412 0.815599
0.260592 -0.127153 0.818716
0.259825 -0.127762 0.820976
0.258871 -0.128284 0.82268
0.257828 -0.128766 0.824121
0.25661 -0.129164 0.825026
0.255303 -0.129518 0.825654
0.253951 -0.12985 0.826144
0.2526 -0.130184 0.826634
0.251227 -0.130505 0.827054
0.249776 -0.130786 0.827223
0.248337 -0.131073 0.827429
0.246837 -0.131328 0.827431
0.245394 -0.131611 0.827615
0.243974 -0.131905 0.827869
0.242853 -0.132358 0.829109
0.24175 -0.132822 0.83042
0.242446 -0.132953 0.838746
0.241173 -0.133571 0.833496
0.327563 -0.10946 0.781736
0.326076 -0.109735 0.781847
0.324505 -0.109981 0.781758
0.322774 -0.110171 0.781281
0.32104 -0.110359 0.780788
0.319213 -0.110513 0.780064
0.317324 -0.110643 0.779179
0.315375 -0.110749 0.778137
0.313447 -0.11086 0.777129
0.311501 -0.110961 0.776066
0.309698 -0.11111 0.775339
0.307799 -0.111222 0.774362
0.305671 -0.11125 0.772804
0.303595 -0.111291 0.771358
0.301608 -0.111362 0.770115
0.299741 -0.111473 0.769157
0.2983 -0.111738 0.769263
0.297405 -0.112207 0.770751
0.29665 -0.11273 0.772605
0.296057 -0.113317 0.774888
0.295405 -0.113885 0.777036
0.294553 -0.11438 0.778684
0.293573 -0.114828 0.78001
0.29242 -0.11521 0.78089
0.291115 -0.115534 0.781375
0.289813 -0.115859 0.781869
0.288544 -0.116197 0.782449
0.287213 -0.116511 0.782866
0.285878 -0.116822 0.783273
0.284511 -0.117121 0.783591
0.283082 -0.117394 0.783741
0.281678 -0.117677 0.783954
0.280329 -0.117981 0.784315
0.278965 -0.118279 0.784633
0.277606 -0.118579 0.784964
0.276247 -0.118878 0.785293
0.274998 -0.119224 0.785925
0.273762 -0.119576 0.786599
0.272713 -0.120009 0.787798
0.271816 -0.12051 0.789437
0.27104 -0.121066 0.791431
0.270179 -0.121588 0.793199
0.2693 -0.122106 0.794928
0.268262 -0.122554 0.796209
0.267127 -0.12296 0.797217
0.26593 -0.12334 0.79805
0.264705 -0.123708 0.798804
0.263539 -0.124103 0.799734
0.262687 -0.124645 0.801604
0.262065 -0.125298 0.804174
0.261647 -0.126052 0.807377
0.261364 -0.126876 0.811019
0.261116 -0.127724 0.814799
0.26054 -0.128423 0.817615
0.259774 -0.129033 0.819875
0.258786 -0.129541 0.82147
0.257705 -0.130004 0.822787
0.256458 -0.130386 0.823596
0.255179 -0.130754 0.824307
0.253861 -0.131103 0.824901
0.252538 -0.131449 0.825476
0.251223 -0.1318 0.826079
0.249804 -0.132097 0.82635
0.248425 -0.132414 0.826748
0.246983 -0.132698 0.826938
0.245573 -0.132997 0.827227
0.244206 -0.133321 0.827657
0.243115 -0.133791 0.828998
0.242016 -0.134258 0.830323
0.240939 -0.13474 0.831731
0.240534 -0.134293 0.836395
0.239789 -0.135184 0.832902
0.239828 -0.134985 0.839097
0.238541 -0.135575 0.833752
0.239064 -0.13565 0.841628
0.237155 -0.135891 0.834132
0.32849 -0.111067 0.783062
0.326952 -0.111326 0.783063
0.325343 -0.111559 0.782892
0.32345 -0.111694 0.782039
0.321601 -0.111842 0.781279
0.319657 -0.111955 0.780282
0.317724 -0.112068 0.779296
0.315777 -0.112173 0.778263
0.313889 -0.112296 0.777358
0.312007 -0.112419 0.776456
0.310302 -0.112602 0.775974
0.308496 -0.112747 0.775236
0.30631 -0.112751 0.773543
0.304219 -0.112785 0.772065
0.302145 -0.112823 0.770614
0.300174 -0.112893 0.769401
0.298646 -0.113127 0.769292
0.297795 -0.113614 0.770893
0.297054 -0.114145 0.772784
0.296534 -0.114763 0.775255
0.295914 -0.115347 0.777488
0.295057 -0.115843 0.779127
0.294068 -0.11629 0.780432
0.292901 -0.116668 0.781281
0.291558 -0.116978 0.781672
0.290253 -0.117303 0.782163
0.28898 -0.11764 0.782736
0.287617 -0.117941 0.783072
0.286247 -0.11824 0.783387
0.284845 -0.118525 0.783615
0.283356 -0.118773 0.783606
0.281894 -0.119031 0.783665
0.280518 -0.119325 0.783954
0.279156 -0.119624 0.784277
0.277802 -0.119925 0.784624
0.276472 -0.120237 0.785033
0.275219 -0.120582 0.785658
0.274003 -0.120944 0.786389
0.272983 -0.12139 0.78767
0.27212 -0.121908 0.789407
0.271384 -0.122486 0.791516
0.27055 -0.123022 0.793362
0.269698 -0.123554 0.795169
0.268625 -0.123989 0.796356
0.26743 -0.12437 0.797192
0.266144 -0.12471 0.797767
0.264854 -0.125048 0.798331
0.263623 -0.125414 0.799072
0.262743 -0.125945 0.800853
0.262039 -0.126562 0.803175
0.261612 -0.127315 0.806346
0.261324 -0.128141 0.809966
0.261051 -0.128982 0.813667
0.260485 -0.129688 0.816508
0.259776 -0.130329 0.818938
0.258764 -0.130825 0.820454
0.257673 -0.131285 0.821739
0.256419 -0.131664 0.82252
0.255108 -0.132015 0.82313
0.253793 -0.132364 0.823729
0.2525 -0.132725 0.824397
0.251188 -0.133077 0.825006
0.2498 -0.133389 0.825373
0.248485 -0.133739 0.825972
0.247105 -0.134055 0.826363
0.245754 -0.134387 0.826849
0.24444 -0.134738 0.827452
0.243375 -0.135223 0.828881
0.242271 -0.13569 0.830191
0.241193 -0.136174 0.831597
0.240043 -0.136619 0.832771
0.238798 -0.137014 0.833632
0.237416 -0.137332 0.834031
0.329795 -0.112808 0.785269
0.327942 -0.112961 0.784543
0.326112 -0.11312 0.783859
0.32409 -0.113209 0.78271
0.322126 -0.113316 0.781682
0.320131 -0.113409 0.780567
0.318133 -0.113498 0.779431
0.316211 -0.113611 0.778463
0.314332 -0.113735 0.777585
0.312512 -0.113879 0.77684
0.310839 -0.114073 0.776442
0.309096 -0.11424 0.775865
0.306845 -0.114218 0.774019
0.304717 -0.114236 0.772457
0.302567 -0.114243 0.770822
0.30052 -0.114283 0.769426
0.298931 -0.114493 0.769164
0.298114 -0.114995 0.770853
0.297414 -0.115545 0.772849
0.29692 -0.116177 0.775388
0.296303 -0.116766 0.77763
0.295472 -0.117275 0.779338
0.294452 -0.117711 0.780564
0.293258 -0.11808 0.781348
0.291885 -0.118378 0.781664
0.29061 -0.118716 0.782234
0.289339 -0.119055 0.782817
0.287976 -0.119357 0.783156
0.286599 -0.119653 0.783455
0.285211 -0.119943 0.783725
0.283688 -0.120178 0.783627
0.282199 -0.120424 0.783618
0.280829 -0.12072 0.783925
0.279467 -0.12102 0.784252
0.278084 -0.12131 0.78452
0.276752 -0.121621 0.784926
0.275526 -0.121978 0.785628
0.274308 -0.12234 0.786355
0.273313 -0.122799 0.787712
0.27248 -0.123334 0.789533
0.271744 -0.123914 0.791645
0.270885 -0.124442 0.79342
0.270025 -0.124973 0.795208
0.268894 -0.125384 0.796227
0.267643 -0.12574 0.796903
0.266323 -0.126064 0.797381
0.265002 -0.126388 0.797855
0.263741 -0.12674 0.798506
0.262803 -0.127246 0.800118
0.262036 -0.127836 0.802249
0.261521 -0.12855 0.80515
0.261144 -0.129337 0.808496
0.260839 -0.130166 0.812091
0.260307 -0.130891 0.815029
0.259636 -0.131553 0.817565
0.258657 -0.132066 0.819179
0.257591 -0.132539 0.820535
0.256332 -0.132915 0.8213
0.255022 -0.133265 0.821906
0.25371 -0.133616 0.822511
0.252447 -0.133992 0.823269
0.251188 -0.13437 0.824043
0.249829 -0.134698 0.824501
0.248572 -0.135079 0.825288
0.247255 -0.135428 0.825882
0.245967 -0.135793 0.826571
0.244653 -0.136144 0.827179
0.243582 -0.136628 0.828587
0.242448 -0.137081 0.829798
0.241341 -0.13755 0.831107
0.24019 -0.137996 0.832277
0.238971 -0.138406 0.833228
0.239521 -0.13982 0.840185
0.330711 -0.114424 0.786561
0.328772 -0.114547 0.785644
0.326878 -0.114684 0.784817
0.324728 -0.114728 0.783372
0.322649 -0.114793 0.782079
0.320543 -0.114845 0.780705
0.318568 -0.11494 0.779629
0.316647 -0.115051 0.778668
0.314771 -0.115176 0.777803
0.312985 -0.11533 0.777145
0.31134 -0.115534 0.776821
0.309565 -0.115688 0.77617
0.307344 -0.115675 0.774406
0.305246 -0.115702 0.772925
0.303062 -0.115693 0.77121
0.300977 -0.115717 0.769726
0.299309 -0.115896 0.76927
0.298416 -0.116372 0.770769
0.297643 -0.116897 0.772581
0.297152 -0.117534 0.775127
0.296532 -0.118124 0.777361
0.295738 -0.11865 0.779162
0.294755 -0.119103 0.780488
0.293601 -0.119489 0.781374
0.292264 -0.119802 0.781787
0.291024 -0.120154 0.782454
0.289785 -0.120507 0.783127
0.288396 -0.120799 0.783401
0.286984 -0.121081 0.783611
0.28556 -0.121357 0.783787
0.284029 -0.121588 0.783673
0.282539 -0.121834 0.783663
0.281197 -0.122143 0.784049
0.27986 -0.122453 0.78445
0.278502 -0.122754 0.78479
0.277169 -0.123066 0.7852
0.275945 -0.123425 0.785911
0.274705 -0.123778 0.78658
0.273679 -0.124226 0.787849
0.272815 -0.124749 0.789588
0.272016 -0.125304 0.791522
0.271096 -0.125808 0.793126
0.270202 -0.126326 0.794816
0.269041 -0.126723 0.795749
0.267788 -0.127079 0.796419
0.26647 -0.127404 0.796903
0.26515 -0.127729 0.79738
0.263889 -0.12808 0.798031
0.262894 -0.128561 0.79947
0.26204 -0.129111 0.801343
0.261454 -0.129795 0.804027
0.260983 -0.13054 0.807084
0.26062 -0.131344 0.810494
0.260112 -0.132083 0.813495
0.259476 -0.132765 0.816133
0.258538 -0.133299 0.817866
0.257535 -0.133804 0.819413
0.256303 -0.134194 0.820259
0.255025 -0.134561 0.820964
0.253744 -0.134928 0.821663
0.252513 -0.13532 0.822522
0.251281 -0.135713 0.823381
0.249948 -0.136054 0.82392
0.248717 -0.136448 0.824788
0.247433 -0.136816 0.825491
0.246177 -0.137199 0.826287
0.24487 -0.137554 0.826916
0.243769 -0.138024 0.828227
0.242599 -0.138457 0.829318
0.24146 -0.13891 0.830522
0.240284 -0.139343 0.831609
0.241081 -0.140897 0.839347
0.333183 -0.11579 0.787857
0.331381 -0.115962 0.787276
0.329359 -0.116054 0.786169
0.327369 -0.116156 0.785123
0.325183 -0.116185 0.783599
0.323131 -0.116258 0.782375
0.320959 -0.116284 0.780851
0.318978 -0.116375 0.779764
0.317089 -0.116496 0.778884
0.315176 -0.116606 0.777934
0.313394 -0.116761 0.777292
0.311746 -0.116963 0.776965
0.309997 -0.117126 0.77638
0.307897 -0.117155 0.774922
0.305901 -0.117218 0.773701
0.303762 -0.117225 0.77211
0.3017 -0.117256 0.770689
0.299915 -0.11739 0.76995
0.298813 -0.117787 0.770922
0.297896 -0.118258 0.772371
0.297312 -0.118862 0.774679
0.296639 -0.119435 0.776775
0.29585 -0.119964 0.778588
0.294929 -0.120444 0.780075
0.293844 -0.120858 0.78114
0.292578 -0.121201 0.781741
0.291374 -0.121568 0.782505
0.290194 -0.121947 0.783334
0.288776 -0.122228 0.783536
0.287336 -0.122498 0.783678
0.285883 -0.122762 0.78378
0.284378 -0.123003 0.783736
0.282916 -0.123262 0.783804
0.281601 -0.123583 0.784271
0.280292 -0.123905 0.784752
0.278987 -0.124231 0.785242
0.277682 -0.124556 0.785735
0.276436 -0.124907 0.786389
0.275198 -0.125262 0.787068
0.274112 -0.125686 0.788176
0.273179 -0.12618 0.789722
0.272258 -0.126683 0.791311
0.271272 -0.127158 0.792727
0.270317 -0.127649 0.794242
0.269153 -0.128046 0.795166
0.2679 -0.128402 0.795838
0.266616 -0.128744 0.79642
0.265299 -0.129069 0.796908
0.264041 -0.129424 0.797567
0.262986 -0.129876 0.79883
0.262041 -0.130385 0.800429
0.261334 -0.131012 0.802749
0.260734 -0.131697 0.805411
0.260282 -0.132459 0.808542
0.259812 -0.13322 0.811648
0.259309 -0.133971 0.814684
0.258514 -0.134578 0.816849
0.257524 -0.13509 0.81843
0.256318 -0.135493 0.819354
0.255057 -0.13587 0.820111
0.253837 -0.136268 0.821
0.252668 -0.136694 0.822052
0.251467 -0.137104 0.823012
0.25016 -0.137459 0.823636
0.248954 -0.137868 0.824587
0.247668 -0.138235 0.825281
0.246388 -0.138605 0.826
0.245078 -0.138961 0.826626
0.243947 -0.139415 0.827838
0.242747 -0.139833 0.828831
0.24158 -0.14027 0.829939
0.240403 -0.140703 0.831021
0.331967 -0.117474 0.78779
0.329773 -0.117505 0.786288
0.327679 -0.117567 0.785002
0.325459 -0.117581 0.7834
0.323418 -0.117655 0.782207
0.321341 -0.117713 0.780911
0.319389 -0.117813 0.779899
0.317531 -0.117944 0.779102
0.31565 -0.118064 0.778233
0.313897 -0.118229 0.777664
0.312244 -0.118429 0.777331
0.310489 -0.118588 0.77674
0.308517 -0.118663 0.775602
0.306604 -0.118758 0.774595
0.304549 -0.118795 0.773222
0.30249 -0.118825 0.771818
0.300554 -0.118901 0.770709
0.299202 -0.119202 0.771057
0.298019 -0.11957 0.771831
0.29721 -0.120087 0.773565
0.296443 -0.120624 0.775417
0.295684 -0.121167 0.777301
0.294802 -0.121663 0.778881
0.293813 -0.122118 0.780196
0.292649 -0.122501 0.78106
0.291478 -0.122883 0.781909
0.290328 -0.123274 0.782817
0.288932 -0.123564 0.783078
0.287523 -0.123847 0.783302
0.286103 -0.124125 0.783493
0.284633 -0.12438 0.783547
0.283231 -0.124664 0.78378
0.281954 -0.125002 0.784351
0.28071 -0.125354 0.785012
0.279439 -0.125695 0.785603
0.27822 -0.12606 0.786336
0.277004 -0.126426 0.787079
0.27579 -0.126793 0.787832
0.274641 -0.127192 0.78877
0.273634 -0.127656 0.79011
0.272555 -0.128088 0.791258
0.271443 -0.128506 0.792317
0.270369 -0.128945 0.793492
0.269176 -0.129328 0.79433
0.267929 -0.129686 0.795017
0.26668 -0.130044 0.795699
0.265397 -0.130386 0.796285
0.264191 -0.130766 0.797097
0.263079 -0.131193 0.798192
0.26207 -0.131671 0.799598
0.261265 -0.132252 0.801623
0.260512 -0.132863 0.803819
0.259899 -0.133549 0.806458
0.259432 -0.134312 0.809561
0.259053 -0.135128 0.812963
0.25845 -0.135835 0.81571
0.257519 -0.136379 0.81747
0.256357 -0.136806 0.818528
0.255164 -0.137217 0.819494
0.254009 -0.13765 0.820584
0.252892 -0.138104 0.821802
0.251727 -0.138535 0.822878
0.250488 -0.138927 0.823721
0.249282 -0.139338 0.824673
0.247991 -0.139703 0.82536
0.24673 -0.140086 0.826142
0.245389 -0.140424 0.826668
0.244176 -0.140835 0.827616
0.242946 -0.141237 0.828511
0.241747 -0.141658 0.829514
0.240523 -0.142065 0.830438
0.327717 -0.118882 0.784239
0.325613 -0.118935 0.782914
0.323664 -0.119039 0.781941
0.321715 -0.119141 0.780953
0.319837 -0.119267 0.780123
0.318041 -0.119419 0.779479
0.316193 -0.11955 0.778698
0.31444 -0.119715 0.778135
0.312753 -0.119901 0.777723
0.310959 -0.120046 0.777041
0.309081 -0.120155 0.776141
0.307251 -0.120281 0.775346
0.305284 -0.120349 0.774198
0.303259 -0.120392 0.772891
0.301275 -0.120448 0.77167
0.299647 -0.120641 0.77133
0.29824 -0.12092 0.771541
0.297194 -0.121345 0.77267
0.296291 -0.121828 0.774169
0.295496 -0.122358 0.775957
0.294677 -0.12288 0.777697
0.293731 -0.123353 0.779117
0.29267 -0.123781 0.780246
0.291531 -0.124176 0.781179
0.290407 -0.124579 0.782154
0.289034 -0.124877 0.782475
0.28766 -0.125175 0.782793
0.286305 -0.12548 0.78316
0.284903 -0.125765 0.783396
0.283595 -0.12609 0.783887
0.282386 -0.126459 0.784647
0.281216 -0.126845 0.785513
0.279985 -0.127205 0.786217
0.278826 -0.127599 0.787122
0.277607 -0.127965 0.787864
0.276362 -0.128321 0.788538
0.275146 -0.12869 0.789291
0.274044 -0.129113 0.79037
0.272831 -0.129485 0.791142
0.27159 -0.129844 0.791836
0.270418 -0.130237 0.792731
0.269196 -0.130607 0.793487
0.267955 -0.130968 0.794188
0.26674 -0.131342 0.794968
0.265488 -0.1317 0.795643
0.264282 -0.13208 0.796455
0.26314 -0.132492 0.79746
0.262072 -0.132942 0.798688
0.261149 -0.133466 0.800357
0.26024 -0.134002 0.802082
0.259481 -0.134614 0.804269
0.257547 -0.137684 0.816609
0.256404 -0.138121 0.817725
0.25526 -0.138559 0.818842
0.254166 -0.139024 0.820122
0.253074 -0.139494 0.82142
0.252031 -0.139991 0.822878
0.250874 -0.14043 0.823988
0.249687 -0.140853 0.825006
0.248393 -0.141217 0.825687
0.247111 -0.14159 0.82641
0.245709 -0.141895 0.826739
0.244413 -0.142261 0.827416
0.243153 -0.142646 0.828215
0.241927 -0.143053 0.82913
0.240671 -0.143443 0.829948
0.325663 -0.12025 0.782182
0.323875 -0.120412 0.781589
0.322021 -0.120546 0.780832
0.320214 -0.120696 0.780176
0.318427 -0.120851 0.779555
0.316615 -0.120995 0.778867
0.314831 -0.121146 0.778234
0.313176 -0.121344 0.777904
0.311437 -0.121509 0.777361
0.309715 -0.121678 0.77685
0.308018 -0.121854 0.776391
0.306131 -0.121953 0.775452
0.304103 -0.121994 0.774147
0.30204 -0.122018 0.772739
0.30017 -0.122114 0.771796
0.298492 -0.122285 0.771329
0.297254 -0.122632 0.771969
0.296203 -0.123056 0.773088
0.295312 -0.123548 0.774626
0.294506 -0.124078 0.776393
0.293632 -0.124581 0.777998
0.292668 -0.125049 0.779376
0.291566 -0.125461 0.780403
0.290443 -0.125865 0.78138
0.28913 -0.126189 0.78186
0.287759 -0.126487 0.782183
0.286419 -0.126798 0.782589
0.285111 -0.127124 0.783079
0.283928 -0.127504 0.783908
0.282789 -0.127905 0.784859
0.281715 -0.128336 0.785993
0.280547 -0.128726 0.786871
0.279422 -0.129137 0.787877
0.278169 -0.12949 0.788533
0.276896 -0.129834 0.789133
0.275617 -0.130176 0.789719
0.274422 -0.130557 0.790541
0.273111 -0.130884 0.791039
0.271796 -0.13121 0.791524
0.270557 -0.131572 0.79223
0.269303 -0.131927 0.792892
0.268063 -0.132289 0.793597
0.26685 -0.132665 0.794382
0.265598 -0.133022 0.795056
0.264367 -0.133391 0.795794
0.263197 -0.13379 0.796715
0.262073 -0.134213 0.797776
0.26106 -0.134693 0.799173
0.260035 -0.13517 0.800545
0.259081 -0.135685 0.802142
0.253295 -0.140905 0.82116
0.252418 -0.141495 0.823146
0.251377 -0.141999 0.824627
0.250247 -0.142456 0.825835
0.248921 -0.142805 0.82642
0.247592 -0.143153 0.826996
0.24612 -0.14342 0.827106
0.244713 -0.143724 0.827424
0.243368 -0.144062 0.827946
0.242135 -0.144465 0.828841
0.240874 -0.144854 0.829645
0.325609 -0.121526 0.781203
0.324019 -0.121759 0.78108
0.322289 -0.121938 0.780619
0.320524 -0.122102 0.780066
0.318767 -0.122268 0.77952
0.317022 -0.122435 0.778997
0.315243 -0.122587 0.77838
0.31362 -0.122798 0.778134
0.311912 -0.122973 0.777671
0.310251 -0.123165 0.777316
0.308591 -0.123356 0.776954
0.306737 -0.123467 0.776104
0.304705 -0.123505 0.774796
0.302626 -0.12352 0.773356
0.300618 -0.123559 0.772074
0.298799 -0.123672 0.771253
0.297387 -0.123949 0.771453
0.296198 -0.124317 0.772223
0.295206 -0.124768 0.773497
0.294343 -0.125276 0.775113
0.293479 -0.125784 0.776738
0.292552 -0.126269 0.778208
0.291487 -0.126696 0.77933
0.290368 -0.127103 0.780314
0.28915 -0.127466 0.78104
0.287844 -0.127793 0.781536
0.286572 -0.128134 0.782125
0.28533 -0.128489 0.782793
0.284242 -0.128913 0.783877
0.283133 -0.129327 0.784911
0.282095 -0.129777 0.786144
0.280955 -0.130181 0.787107
0.279855 -0.130605 0.788182
0.278574 -0.130946 0.788765
0.277294 -0.131288 0.789349
0.275984 -0.131616 0.789852
0.274729 -0.131971 0.790508
0.273358 -0.13227 0.79084
0.272007 -0.132579 0.791225
0.270709 -0.132913 0.791763
0.269424 -0.133254 0.792338
0.268154 -0.133601 0.792956
0.266936 -0.133975 0.793726
0.265682 -0.134332 0.794394
0.26445 -0.1347 0.795129
0.263282 -0.1351 0.796053
0.262153 -0.135522 0.797099
0.261057 -0.135961 0.798249
0.259909 -0.136376 0.799247
0.258712 -0.136766 0.800107
0.250768 -0.144042 0.826535
0.249422 -0.144382 0.827062
0.248047 -0.144706 0.827496
0.246513 -0.144937 0.82741
0.245041 -0.145204 0.827522
0.243637 -0.145509 0.827854
0.244347 -0.147049 0.835182
0.325602 -0.122819 0.780336
0.324086 -0.123079 0.780389
0.322485 -0.123305 0.780236
0.320786 -0.123492 0.77984
0.319059 -0.123668 0.779372
0.317379 -0.123859 0.779006
0.315631 -0.124022 0.778468
0.314048 -0.124247 0.778321
0.312376 -0.124437 0.777953
0.310722 -0.12463 0.777618
0.309098 -0.124835 0.777351
0.307268 -0.124955 0.776567
0.305199 -0.124976 0.775175
0.303107 -0.124984 0.773708
0.301032 -0.124994 0.772264
0.299091 -0.125055 0.771139
0.297524 -0.125268 0.77095
0.29626 -0.125606 0.771525
0.295202 -0.126029 0.77263
0.294272 -0.12651 0.774071
0.293406 -0.127019 0.775686
0.292533 -0.127527 0.777294
0.291506 -0.127972 0.778512
0.290398 -0.128383 0.779523
0.289272 -0.128788 0.780493
0.28803 -0.129142 0.781157
0.286796 -0.129501 0.781848
0.285586 -0.12987 0.782602
0.284499 -0.130296 0.783692
0.28339 -0.130712 0.784726
0.282346 -0.13116 0.785943
0.281205 -0.131565 0.786904
0.280102 -0.131989 0.787974
0.278847 -0.132343 0.788627
0.277562 -0.132683 0.789203
0.276251 -0.133012 0.789704
0.274965 -0.133352 0.790277
0.273594 -0.133652 0.790611
0.272219 -0.13395 0.79093
0.270898 -0.134273 0.791403
0.269585 -0.1346 0.791898
0.26828 -0.134931 0.792416
0.267028 -0.135288 0.793087
0.265798 -0.135657 0.793823
0.264569 -0.136027 0.794566
0.263403 -0.136429 0.795498
0.262298 -0.136864 0.796614
0.261197 -0.137302 0.797748
0.260018 -0.137701 0.798657
0.258819 -0.138091 0.799508
0.25126 -0.145615 0.827138
0.325898 -0.124225 0.780184
0.32429 -0.124449 0.780022
0.322675 -0.124669 0.779835
0.320973 -0.124855 0.779436
0.319214 -0.125016 0.778892
0.317532 -0.125205 0.778522
0.315758 -0.125357 0.777924
0.314208 -0.125593 0.777858
0.312609 -0.12581 0.777669
0.310991 -0.126018 0.777425
0.309429 -0.126247 0.777314
0.307695 -0.126404 0.77677
0.305655 -0.126435 0.775456
0.303567 -0.126442 0.774002
0.301521 -0.126462 0.77264
0.299577 -0.126521 0.771514
0.297921 -0.126696 0.771104
0.296591 -0.127007 0.771515
0.295459 -0.127401 0.772433
0.294427 -0.127839 0.773611
0.293493 -0.128321 0.775051
0.292647 -0.128843 0.776726
0.291651 -0.129302 0.778025
0.290579 -0.12973 0.779129
0.289521 -0.130166 0.780278
0.288312 -0.130536 0.781032
0.287078 -0.130895 0.781725
0.285871 -0.131267 0.78249
0.284747 -0.131677 0.783481
0.283602 -0.132078 0.78442
0.282521 -0.132511 0.785539
0.281378 -0.132915 0.786492
0.280248 -0.133327 0.787489
0.278996 -0.133683 0.788151
0.27771 -0.134024 0.788723
0.276397 -0.134351 0.789219
0.275111 -0.134691 0.789793
0.2738 -0.13502 0.790294
0.272487 -0.135348 0.790793
0.2712 -0.135688 0.791364
0.269914 -0.136029 0.791937
0.268603 -0.136358 0.792441
0.267318 -0.1367 0.793021
0.26606 -0.137055 0.793679
0.264807 -0.137414 0.794354
0.263642 -0.137818 0.795289
0.262514 -0.138242 0.796339
0.261383 -0.138666 0.797385
0.260184 -0.139056 0.798234
0.258992 -0.13945 0.799108
0.25262 -0.147493 0.836365
0.251766 -0.1472 0.827784
0.253167 -0.148929 0.843064
0.25431 -0.149771 0.840806
0.326234 -0.125647 0.780124
0.324506 -0.125825 0.779682
0.322794 -0.126007 0.779267
0.321092 -0.126191 0.77887
0.319301 -0.126338 0.778249
0.317616 -0.126524 0.777874
0.315842 -0.126674 0.777274
0.314324 -0.126923 0.777287
0.312794 -0.127166 0.777266
0.311244 -0.127401 0.777192
0.309721 -0.127644 0.777177
0.308083 -0.127839 0.776876
0.306149 -0.127912 0.775829
0.304137 -0.127948 0.774574
0.302188 -0.128006 0.773459
0.300269 -0.128075 0.772405
0.298566 -0.128231 0.771885
0.297134 -0.128499 0.772042
0.295871 -0.12884 0.77263
0.294712 -0.129225 0.773485
0.293706 -0.129677 0.774739
0.292826 -0.130187 0.776329
0.291834 -0.130649 0.777635
0.290801 -0.131096 0.778843
0.289803 -0.131559 0.780151
0.288658 -0.131959 0.781076
0.287422 -0.132318 0.781765
0.28624 -0.132702 0.782599
0.285078 -0.133097 0.783492
0.283866 -0.133469 0.784253
0.282717 -0.133871 0.785187
0.281543 -0.134262 0.786059
0.28036 -0.13465 0.786909
0.279112 -0.135008 0.787582
0.277829 -0.13535 0.788161
0.276515 -0.135677 0.788656
0.27526 -0.136033 0.789314
0.274009 -0.136391 0.789986
0.27276 -0.13675 0.790666
0.271508 -0.137108 0.791339
0.27025 -0.137464 0.791997
0.268935 -0.137792 0.792493
0.26762 -0.13812 0.792989
0.266335 -0.138463 0.793572
0.265083 -0.138822 0.79425
0.26392 -0.139229 0.795193
0.26279 -0.139653 0.796238
0.26166 -0.140078 0.797288
0.260464 -0.140471 0.798149
0.259273 -0.140867 0.79903
0.339084 -0.12628 0.791891
0.339074 -0.127596 0.791009
0.336875 -0.127616 0.789564
0.326714 -0.127127 0.780401
0.324799 -0.127231 0.779521
0.322946 -0.127358 0.778777
0.321212 -0.127528 0.778302
0.319417 -0.127671 0.777674
0.317698 -0.127843 0.777218
0.315913 -0.127986 0.776595
0.314396 -0.128235 0.77661
0.312867 -0.128477 0.776593
0.311361 -0.128728 0.776623
0.309876 -0.128987 0.776705
0.308343 -0.129225 0.776663
0.306551 -0.129354 0.775972
0.304655 -0.129437 0.775011
0.302781 -0.129525 0.774091
0.300947 -0.129628 0.773259
0.299169 -0.129752 0.772555
0.297628 -0.129974 0.772444
0.296285 -0.130281 0.77283
0.295056 -0.130637 0.77351
0.293987 -0.131065 0.774603
0.293107 -0.131577 0.776193
0.292145 -0.132054 0.77758
0.291147 -0.132518 0.778882
0.290156 -0.132987 0.78021
0.289038 -0.1334 0.781209
0.287799 -0.133759 0.781894
0.286585 -0.13413 0.782645
0.285362 -0.134496 0.783376
0.284113 -0.134853 0.784037
0.282898 -0.135225 0.784795
0.281716 -0.135613 0.785645
0.280507 -0.13599 0.786426
0.279261 -0.136349 0.787103
0.277977 -0.136691 0.787682
0.27669 -0.137031 0.78825
0.275439 -0.137389 0.788921
0.274223 -0.137764 0.789694
0.273013 -0.138144 0.790482
0.271793 -0.138519 0.791248
0.270537 -0.138876 0.791915
0.269249 -0.139218 0.792489
0.267962 -0.13956 0.79307
0.266705 -0.139919 0.793737
0.26545 -0.140278 0.794412
0.264279 -0.140682 0.795335
0.263144 -0.141105 0.796367
0.262015 -0.141534 0.797426
0.260807 -0.141921 0.798252
0.259641 -0.142332 0.799211
0.339074 -0.128915 0.790153
0.3369 -0.12894 0.788764
0.334962 -0.129051 0.787908
0.331563 -0.127295 0.784496
0.332041 -0.128783 0.784753
0.329464 -0.12864 0.782368
0.327223 -0.12862 0.780745
0.325161 -0.128667 0.779524
0.323137 -0.128723 0.778379
0.321302 -0.128853 0.777666
0.319433 -0.128965 0.776862
0.317639 -0.129105 0.776227
0.315816 -0.12923 0.77551
0.314302 -0.129478 0.775532
0.312875 -0.129761 0.775759
0.311444 -0.130043 0.775974
0.31003 -0.13033 0.77623
0.308627 -0.130621 0.776509
0.306971 -0.130805 0.776159
0.305159 -0.130922 0.775413
0.303396 -0.131057 0.774777
0.301595 -0.131173 0.774036
0.299774 -0.131278 0.773229
0.298152 -0.131466 0.772918
0.296767 -0.131755 0.773205
0.29553 -0.132109 0.773868
0.294461 -0.132539 0.774965
0.293615 -0.133068 0.776646
0.292684 -0.133563 0.778118
0.291716 -0.134042 0.779502
0.290698 -0.134501 0.780763
0.289577 -0.134915 0.78176
0.288309 -0.135262 0.782371
0.287061 -0.135619 0.783039
0.285781 -0.135961 0.783619
0.284496 -0.136302 0.784191
0.283245 -0.136657 0.784853
0.282028 -0.13703 0.785609
0.280783 -0.137391 0.786294
0.279533 -0.137749 0.786963
0.278247 -0.138091 0.787537
0.276959 -0.138431 0.788108
0.275709 -0.13879 0.788783
0.274497 -0.139168 0.789567
0.273289 -0.139549 0.790365
0.27207 -0.139927 0.791136
0.270814 -0.140284 0.791803
0.269582 -0.140656 0.792541
0.268329 -0.141017 0.793222
0.267104 -0.141393 0.793985
0.265847 -0.141752 0.794657
0.264722 -0.142182 0.79572
0.263583 -0.142606 0.796745
0.262483 -0.143051 0.797892
0.261291 -0.143449 0.798774
0.260191 -0.143897 0.799935
0.340902 -0.130076 0.789874
0.339118 -0.13025 0.789397
0.337041 -0.130309 0.788232
0.335081 -0.130409 0.787327
0.332557 -0.130288 0.785098
0.330034 -0.130162 0.782846
0.327718 -0.130111 0.781055
0.325511 -0.130098 0.7795
0.323331 -0.130091 0.777987
0.321419 -0.130187 0.777096
0.319512 -0.130282 0.776201
0.317675 -0.130403 0.775463
0.315847 -0.130524 0.774735
0.314333 -0.130772 0.774755
0.31292 -0.13106 0.775016
0.31156 -0.13137 0.775405
0.310216 -0.131685 0.77583
0.308881 -0.132005 0.776279
0.307322 -0.13223 0.776172
0.305642 -0.132401 0.775759
0.303984 -0.132581 0.775391
0.302282 -0.132739 0.774905
0.300524 -0.13287 0.774267
0.298839 -0.133031 0.773805
0.297383 -0.133291 0.773918
0.29611 -0.133631 0.774493
0.295016 -0.134052 0.775532
0.294117 -0.13456 0.777079
0.29325 -0.135086 0.77872
0.292279 -0.135567 0.780102
0.291257 -0.136027 0.781357
0.290134 -0.136442 0.782354
0.288889 -0.136801 0.783033
0.287611 -0.137146 0.783626
0.286325 -0.137487 0.784199
0.284979 -0.137799 0.784609
0.283662 -0.138126 0.785097
0.282381 -0.13847 0.785685
0.281102 -0.138814 0.786277
0.279822 -0.139159 0.786869
0.27853 -0.139498 0.787429
0.277242 -0.139839 0.788
0.275989 -0.140197 0.78867
0.274804 -0.14059 0.789531
0.273617 -0.140984 0.790393
0.272424 -0.141375 0.79124
0.271194 -0.141747 0.791983
0.270048 -0.142164 0.792973
0.268831 -0.142545 0.793762
0.267646 -0.142943 0.794645
0.266446 -0.143335 0.795491
0.265377 -0.143797 0.796721
0.264209 -0.144207 0.797671
0.263112 -0.144657 0.798833
0.261934 -0.145065 0.799764
0.260812 -0.145505 0.800867
0.342614 -0.129875 0.79018
0.342759 -0.13125 0.789655
0.341008 -0.131436 0.78926
0.339236 -0.131612 0.78881
0.33736 -0.131746 0.788111
0.33539 -0.131841 0.787184
0.333072 -0.131796 0.785438
0.330671 -0.131714 0.783478
0.328281 -0.131632 0.781522
0.325946 -0.131566 0.779671
0.323596 -0.131488 0.777765
0.321574 -0.131538 0.776613
0.319659 -0.131628 0.775703
0.317779 -0.131729 0.774862
0.315987 -0.131863 0.774223
0.314512 -0.132125 0.774338
0.313139 -0.132431 0.774697
0.311847 -0.132768 0.775251
0.310539 -0.133099 0.775768
0.309203 -0.13342 0.776217
0.307708 -0.133671 0.776271
0.306123 -0.133883 0.776097
0.304535 -0.134092 0.775911
0.302938 -0.134295 0.775693
0.301312 -0.134485 0.775399
0.299631 -0.134649 0.774954
0.298177 -0.13491 0.775078
0.296927 -0.135263 0.775724
0.295864 -0.1357 0.77685
0.294943 -0.136202 0.778349
0.294074 -0.136732 0.779992
0.293095 -0.137213 0.781361
0.292036 -0.137659 0.782528
0.29088 -0.138061 0.783447
0.289606 -0.138408 0.784055
0.288321 -0.138752 0.784636
0.286968 -0.139063 0.785037
0.285552 -0.139344 0.785268
0.284169 -0.13964 0.785585
0.282824 -0.139954 0.786002
0.281483 -0.14027 0.786433
0.280168 -0.140598 0.786932
0.278848 -0.140925 0.787417
0.277531 -0.141251 0.78791
0.276274 -0.141609 0.788571
0.275083 -0.142 0.789417
0.273894 -0.142393 0.790273
0.272728 -0.142799 0.791199
0.271555 -0.143203 0.792109
0.270477 -0.143656 0.793293
0.269324 -0.144071 0.79427
0.26823 -0.14452 0.795425
0.267091 -0.144946 0.796453
0.26603 -0.145416 0.797717
0.264867 -0.145831 0.798688
0.341309 -0.13287 0.789089
0.339613 -0.133075 0.788815
0.337917 -0.133277 0.788532
0.336053 -0.133412 0.787858
0.333815 -0.133397 0.786304
0.331406 -0.133309 0.784334
0.328997 -0.133217 0.782342
0.326502 -0.133084 0.780126
0.324032 -0.132956 0.777943
0.321937 -0.132973 0.776623
0.319988 -0.133048 0.775636
0.318082 -0.133136 0.774737
0.316322 -0.133283 0.774178
0.314849 -0.133546 0.774301
0.313479 -0.133852 0.774671
0.312216 -0.134203 0.775298
0.310939 -0.134549 0.775894
0.30961 -0.134872 0.776362
0.308148 -0.135138 0.776502
0.306625 -0.135377 0.776487
0.305101 -0.135614 0.776466
0.303611 -0.135865 0.776522
0.302094 -0.136102 0.77651
0.300517 -0.136312 0.776337
0.299122 -0.136602 0.776623
0.297862 -0.136953 0.777251
0.296824 -0.137405 0.778451
0.295871 -0.137897 0.779877
0.294971 -0.138416 0.781449
0.293952 -0.138882 0.782722
0.292883 -0.139327 0.783871
0.291636 -0.13969 0.784558
0.290331 -0.140025 0.785094
0.289011 -0.140353 0.785591
0.287587 -0.140633 0.785812
0.286097 -0.140879 0.78585
0.284674 -0.141157 0.786065
0.283291 -0.141453 0.786385
0.281918 -0.141754 0.78673
0.280599 -0.142082 0.787224
0.279278 -0.142408 0.78771
0.277956 -0.142734 0.788194
0.276699 -0.143093 0.78886
0.275507 -0.143486 0.789707
0.274319 -0.14388 0.790571
0.273189 -0.144307 0.7916
0.272054 -0.144731 0.792623
0.271038 -0.14522 0.793991
0.269947 -0.14567 0.795152
0.268914 -0.146154 0.796488
0.267836 -0.146616 0.797702
0.26681 -0.147107 0.799076
0.341461 -0.134248 0.788578
0.339877 -0.134495 0.78856
0.338306 -0.134746 0.788569
0.336594 -0.13494 0.788246
0.334464 -0.134965 0.786951
0.33215 -0.134913 0.78521
0.329764 -0.134827 0.78328
0.327222 -0.134672 0.780964
0.324675 -0.13451 0.778608
0.322497 -0.134492 0.7771
0.320439 -0.13452 0.77586
0.3185 -0.134594 0.774889
0.316746 -0.134741 0.774348
0.315311 -0.135021 0.774566
0.313966 -0.135339 0.774999
0.312732 -0.135703 0.775703
0.311454 -0.13605 0.7763
0.310158 -0.136389 0.776855
0.308697 -0.136655 0.777001
0.307207 -0.136909 0.777074
0.30578 -0.137189 0.7773
0.304362 -0.137472 0.777545
0.30295 -0.137758 0.777804
0.301505 -0.138029 0.777975
0.300173 -0.13835 0.778432
0.298941 -0.138716 0.779142
0.297899 -0.13917 0.780341
0.296878 -0.139635 0.781603
0.295908 -0.140126 0.783006
0.294847 -0.140576 0.784178
0.293709 -0.140992 0.785158
0.292428 -0.141341 0.785764
0.291116 -0.141675 0.78629
0.289761 -0.141989 0.786703
0.288295 -0.14225 0.786817
0.286765 -0.142477 0.786758
0.285272 -0.142722 0.786791
0.283794 -0.142973 0.786863
0.282385 -0.143257 0.787116
0.281031 -0.143569 0.787517
0.27968 -0.143881 0.787924
0.278358 -0.144207 0.788413
0.277131 -0.144584 0.789166
0.27597 -0.144993 0.790106
0.274819 -0.145409 0.791076
0.273721 -0.145853 0.792202
0.27265 -0.146314 0.793411
0.271668 -0.146824 0.794882
0.270582 -0.14728 0.796064
0.26957 -0.147779 0.797469
0.268577 -0.148289 0.798937
0.333074 -0.136595 0.7865
0.330691 -0.136507 0.784588
0.328122 -0.136339 0.78222
0.325524 -0.136152 0.779755
0.323287 -0.13611 0.778119
0.321143 -0.1361 0.776683
0.319164 -0.136156 0.775624
0.317408 -0.136302 0.775085
0.316004 -0.136597 0.775383
0.314624 -0.136901 0.77574
0.313417 -0.137279 0.776514
0.312169 -0.13764 0.77719
0.310909 -0.137996 0.77784
0.309483 -0.13828 0.778083
0.308054 -0.138561 0.778315
0.306755 -0.138901 0.778868
0.30544 -0.139232 0.77938
0.304099 -0.139552 0.779829
0.30272 -0.139855 0.78018
0.301479 -0.14022 0.780881
0.300191 -0.140565 0.781463
0.299083 -0.140993 0.782506
0.297987 -0.141428 0.78359
0.29694 -0.141887 0.784802
0.295743 -0.142277 0.785632
0.294539 -0.142664 0.786448
0.293188 -0.142982 0.786881
0.29184 -0.143302 0.787321
0.290444 -0.143598 0.787632
0.288946 -0.143843 0.787669
0.287384 -0.144056 0.787533
0.285857 -0.144286 0.787483
0.284314 -0.144504 0.787382
0.282861 -0.144768 0.787523
0.281473 -0.145063 0.787835
0.280091 -0.145361 0.788163
0.278802 -0.145705 0.788746
0.277636 -0.146113 0.789672
0.276509 -0.146543 0.790711
0.275389 -0.146977 0.791776
0.274348 -0.147455 0.793067
0.273306 -0.147933 0.794365
0.272324 -0.148446 0.795843
0.271261 -0.148918 0.797099
0.270302 -0.149448 0.798664
0.269394 -0.150009 0.800385
0.26994 -0.150079 0.807278
0.328889 -0.137957 0.78316
0.326097 -0.137686 0.780249
0.323801 -0.137617 0.778481
0.321568 -0.137567 0.776841
0.319552 -0.137606 0.775699
0.317779 -0.137744 0.775122
0.316403 -0.138051 0.775491
0.315182 -0.138424 0.776236
0.314125 -0.138869 0.777379
0.312971 -0.139273 0.778293
0.311822 -0.139681 0.779222
0.31058 -0.140047 0.779928
0.309251 -0.140376 0.780417
0.308058 -0.140765 0.781246
0.306813 -0.141133 0.781948
0.305567 -0.1415 0.782649
0.304243 -0.141832 0.783158
0.303037 -0.142218 0.783963
0.301718 -0.142552 0.784484
0.300538 -0.142951 0.78536
0.299297 -0.143323 0.786086
0.298066 -0.1437 0.786837
0.29673 -0.144028 0.787319
0.295399 -0.144357 0.787813
0.29398 -0.144645 0.788078
0.292588 -0.144945 0.788409
0.291154 -0.145224 0.788628
0.289628 -0.145457 0.7886
0.288099 -0.145687 0.788559
0.286575 -0.145918 0.788526
0.284992 -0.146119 0.788328
0.283466 -0.146347 0.788277
0.282036 -0.146622 0.788482
0.280622 -0.146904 0.78873
0.279341 -0.147255 0.789339
0.278207 -0.147682 0.790362
0.277112 -0.14813 0.791495
0.275989 -0.148566 0.792556
0.274948 -0.149045 0.793854
0.273928 -0.14954 0.795222
0.272915 -0.150039 0.796618
0.271906 -0.150543 0.798034
0.271003 -0.151107 0.799766
0.270161 -0.151708 0.801687
0.329585 -0.13955 0.783933
0.326754 -0.139259 0.780941
0.324435 -0.139177 0.779124
0.322087 -0.139077 0.77722
0.320019 -0.139092 0.77596
0.318214 -0.139216 0.775311
0.317037 -0.139609 0.776163
0.316016 -0.140071 0.777397
0.315126 -0.140592 0.778951
0.314112 -0.141062 0.780217
0.313061 -0.141516 0.781398
0.311854 -0.141902 0.782201
0.310596 -0.142266 0.782879
0.309444 -0.142679 0.783826
0.308172 -0.143037 0.784474
0.306928 -0.143409 0.785196
0.30562 -0.143752 0.785757
0.304408 -0.144139 0.786564
0.303056 -0.144462 0.787015
0.301808 -0.144834 0.787734
0.300408 -0.145134 0.788065
0.29902 -0.145439 0.788422
0.297571 -0.145715 0.788622
0.296139 -0.145999 0.788862
0.294655 -0.146255 0.788964
0.293249 -0.14655 0.789268
0.291772 -0.146809 0.789382
0.290245 -0.147043 0.789357
0.288757 -0.147294 0.789431
0.287237 -0.147529 0.789417
0.285647 -0.147727 0.789207
0.284107 -0.147948 0.789128
0.282636 -0.148203 0.789229
0.281194 -0.148472 0.789406
0.279942 -0.14884 0.790102
0.278781 -0.149255 0.791053
0.277682 -0.149704 0.792181
0.276554 -0.15014 0.793235
0.275507 -0.15062 0.794524
0.27446 -0.151101 0.79582
0.273474 -0.151619 0.797298
0.272492 -0.152141 0.798797
0.27163 -0.15273 0.800651
0.270861 -0.153376 0.802788
0.315367 -0.142909 0.782411
0.314332 -0.143375 0.783643
0.313154 -0.143778 0.784533
0.311866 -0.144132 0.785152
0.310688 -0.144536 0.786045
0.309407 -0.144894 0.786686
0.308146 -0.145262 0.787377
0.306832 -0.145605 0.787936
0.30562 -0.145996 0.788757
0.304261 -0.14632 0.789205
0.302932 -0.146656 0.789727
0.301476 -0.146932 0.789926
0.300002 -0.147199 0.790076
0.298505 -0.147454 0.790161
0.296977 -0.147692 0.790163
0.295452 -0.147932 0.790167
0.293972 -0.148191 0.790284
0.292458 -0.148433 0.790307
0.290896 -0.14865 0.790198
0.289439 -0.148918 0.790363
0.287923 -0.149156 0.790367
0.286332 -0.149354 0.790164
0.284785 -0.149572 0.790073
0.28325 -0.149796 0.790008
0.281742 -0.150033 0.790013
0.280485 -0.150398 0.790701
0.279289 -0.150798 0.791563
0.278154 -0.15123 0.792596
0.277021 -0.151665 0.793639
0.275974 -0.152148 0.794933
0.274901 -0.152617 0.796157
0.273914 -0.153137 0.797637
0.272996 -0.153696 0.799321
0.272199 -0.154326 0.801368
0.271533 -0.155032 0.803806
0.317973 -0.144438 0.78413
0.316902 -0.14489 0.785284
0.315721 -0.145296 0.786175
0.314409 -0.145642 0.786748
0.313076 -0.145979 0.787269
0.311841 -0.146361 0.788034
0.310511 -0.1467 0.788564
0.309205 -0.147049 0.789153
0.307855 -0.147379 0.789635
0.306607 -0.147756 0.790374
0.305215 -0.148066 0.790748
0.303846 -0.148386 0.791179
0.302324 -0.148632 0.79122
0.300781 -0.148867 0.791201
0.299252 -0.149108 0.791213
0.297688 -0.14933 0.791127
0.29616 -0.149569 0.791133
0.294674 -0.149827 0.791243
0.29318 -0.15008 0.791328
0.291612 -0.150294 0.791211
0.290182 -0.150578 0.791456
0.288693 -0.150831 0.791543
0.287163 -0.151061 0.791512
0.285647 -0.151298 0.791516
0.284084 -0.151508 0.791386
0.282535 -0.151725 0.791288
0.281173 -0.152038 0.791697
0.279875 -0.152385 0.792282
0.278647 -0.15277 0.793063
0.27751 -0.153205 0.794103
0.276466 -0.153692 0.795408
0.275424 -0.154181 0.796726
0.274528 -0.154754 0.798467
0.273729 -0.155383 0.800498
0.273003 -0.156056 0.802753
0.272398 -0.156804 0.805378
0.318387 -0.146861 0.788026
0.316863 -0.147114 0.788094
0.315392 -0.14739 0.788289
0.314004 -0.147705 0.788684
0.312588 -0.148005 0.78901
0.311141 -0.148291 0.789256
0.309786 -0.148619 0.78973
0.308441 -0.148952 0.790229
0.307105 -0.14929 0.790752
0.305771 -0.149628 0.791279
0.304396 -0.149947 0.7917
0.302818 -0.150166 0.791603
0.301227 -0.150378 0.791464
0.299767 -0.150653 0.79166
0.298232 -0.15089 0.791658
0.2968 -0.151176 0.791917
0.29538 -0.151469 0.792209
0.293951 -0.151756 0.792473
0.29241 -0.151986 0.792437
0.290973 -0.152268 0.792673
0.289478 -0.152519 0.792752
0.28798 -0.152767 0.792817
0.286472 -0.153009 0.792854
0.284878 -0.153205 0.792649
0.283314 -0.153415 0.79252
0.281842 -0.153672 0.792637
0.280442 -0.153966 0.792947
0.279176 -0.154333 0.79363
0.278069 -0.154787 0.794758
0.27703 -0.155278 0.79608
0.276077 -0.155821 0.797657
0.275276 -0.156449 0.799675
0.274544 -0.157121 0.801904
0.273883 -0.157837 0.804354
0.273283 -0.158592 0.807001
0.2741 -0.158859 0.814707
0.272612 -0.159313 0.809468
0.320375 -0.148121 0.788207
0.318888 -0.148393 0.788372
0.31733 -0.14863 0.788362
0.315813 -0.148885 0.788448
0.314315 -0.149148 0.788577
0.312782 -0.149395 0.788614
0.311255 -0.149643 0.788665
0.309801 -0.149924 0.788892
0.308395 -0.150227 0.789237
0.307058 -0.150564 0.789754
0.305755 -0.150917 0.790357
0.304415 -0.151252 0.790866
0.30294 -0.15152 0.791031
0.301451 -0.151782 0.791157
0.300088 -0.152105 0.791604
0.298654 -0.152392 0.791867
0.297329 -0.152733 0.792409
0.295989 -0.153067 0.792917
0.294641 -0.153397 0.7934
0.293131 -0.153644 0.793454
0.291686 -0.153922 0.793679
0.290185 -0.154172 0.793749
0.288717 -0.154437 0.793904
0.287277 -0.154716 0.794131
0.285683 -0.154913 0.793937
0.28408 -0.155104 0.793713
0.282526 -0.155319 0.793615
0.281051 -0.155575 0.793728
0.27972 -0.155908 0.794235
0.278647 -0.156382 0.795464
0.277673 -0.156914 0.796976
0.27682 -0.157514 0.798839
0.276086 -0.158186 0.801053
0.275395 -0.158885 0.803406
0.274741 -0.15961 0.805886
0.274105 -0.160352 0.808439
0.273361 -0.161036 0.810703
0.321989 -0.149212 0.787474
0.3205 -0.149482 0.787638
0.319012 -0.149753 0.787802
0.317441 -0.149983 0.787762
0.315856 -0.150206 0.787682
0.314262 -0.150423 0.787574
0.312661 -0.150636 0.787443
0.311125 -0.150879 0.787468
0.309601 -0.151125 0.787517
0.308128 -0.151395 0.78769
0.30676 -0.151715 0.788123
0.305455 -0.152066 0.788717
0.304151 -0.152417 0.789313
0.302809 -0.15275 0.789814
0.301458 -0.153079 0.79029
0.300233 -0.15347 0.791092
0.298932 -0.153824 0.7917
0.297745 -0.154236 0.792605
0.296522 -0.15463 0.793423
0.295284 -0.155018 0.7942
0.293872 -0.155317 0.794524
0.292454 -0.155612 0.794827
0.290975 -0.155873 0.794965
0.289501 -0.156137 0.795115
0.288065 -0.15642 0.795361
0.28644 -0.156602 0.795093
0.284801 -0.156774 0.794779
0.283178 -0.156953 0.794501
0.281694 -0.157205 0.794597
0.280363 -0.15754 0.795113
0.279327 -0.158039 0.79645
0.278448 -0.158626 0.798234
0.277694 -0.159287 0.800383
0.277 -0.159985 0.80272
0.276314 -0.160694 0.8051
0.275653 -0.161422 0.807568
0.274946 -0.162129 0.809926
0.276315 -0.164041 0.818299
0.321819 -0.150438 0.786198
0.320335 -0.150709 0.786372
0.318854 -0.150981 0.78655
0.317259 -0.1512 0.786449
0.315631 -0.1514 0.78626
0.313976 -0.151586 0.785998
0.312345 -0.151783 0.785791
0.310774 -0.152006 0.785724
0.309187 -0.15222 0.78561
0.307643 -0.152453 0.785599
0.306233 -0.152751 0.785922
0.304922 -0.153097 0.786492
0.303661 -0.153468 0.787188
0.302433 -0.153856 0.787972
0.301233 -0.154258 0.788829
0.300152 -0.154721 0.789997
0.298989 -0.155145 0.790962
0.297965 -0.155641 0.792291
0.29688 -0.156108 0.793468
0.295718 -0.156536 0.79445
0.294408 -0.156887 0.795045
0.293046 -0.157213 0.795502
0.291596 -0.157491 0.795726
0.290154 -0.157774 0.795968
0.288744 -0.158072 0.796293
0.287119 -0.158255 0.796031
0.285443 -0.158408 0.795628
0.283726 -0.158536 0.795099
0.282235 -0.158784 0.795183
0.281057 -0.159206 0.796128
0.280189 -0.159801 0.79794
0.279481 -0.160489 0.800212
0.27891 -0.161259 0.802886
0.278268 -0.161995 0.805384
0.277455 -0.162638 0.807416
0.322341 -0.151026 0.782859
0.321096 -0.151405 0.783597
0.319796 -0.151759 0.784206
0.318366 -0.152054 0.784501
0.316795 -0.15228 0.78445
0.315228 -0.152507 0.784405
0.313601 -0.152704 0.784207
0.311942 -0.152883 0.783925
0.310376 -0.153107 0.783863
0.308754 -0.153301 0.78366
0.307141 -0.153498 0.783469
0.305688 -0.153772 0.783677
0.304375 -0.154116 0.784234
0.303152 -0.154503 0.785019
0.302046 -0.154951 0.786104
0.301 -0.155431 0.787351
0.300068 -0.15597 0.788899
0.299044 -0.156464 0.790218
0.298089 -0.156997 0.791723
0.297098 -0.157513 0.793146
0.295972 -0.157962 0.794223
0.294699 -0.158333 0.794917
0.293346 -0.158664 0.795402
0.291959 -0.158976 0.795795
0.290519 -0.15926 0.796046
0.289145 -0.159579 0.796471
0.287574 -0.15979 0.796363
0.285951 -0.159972 0.796108
0.284289 -0.160129 0.795736
0.28286 -0.160414 0.795997
0.281849 -0.160931 0.797409
0.281156 -0.161629 0.799715
0.280626 -0.162423 0.802493
0.321559 -0.151962 0.78013
0.320338 -0.15235 0.780917
0.31911 -0.152736 0.78169
0.317692 -0.153032 0.782004
0.316197 -0.153292 0.782131
0.314696 -0.153548 0.78224
0.31307 -0.153743 0.782038
0.311383 -0.153905 0.781677
0.309819 -0.154127 0.781616
0.308166 -0.154302 0.781326
0.306489 -0.154464 0.78097
0.305033 -0.154735 0.781159
0.303723 -0.155076 0.781713
0.30257 -0.155498 0.782667
0.301605 -0.156015 0.784102
0.300734 -0.156583 0.785789
0.299951 -0.1572 0.787713
0.299064 -0.157766 0.789383
0.298144 -0.158317 0.790977
0.297213 -0.158866 0.792556
0.296086 -0.159315 0.79363
0.294846 -0.159705 0.79441
0.293556 -0.160069 0.795061
0.29227 -0.160436 0.795727
0.290904 -0.160759 0.796176
0.289626 -0.161131 0.796863
0.288151 -0.161395 0.79702
0.28662 -0.161627 0.797022
0.285082 -0.161855 0.796999
0.28378 -0.162212 0.797619
0.282875 -0.162793 0.799334
0.282301 -0.163564 0.801978
0.28186 -0.164417 0.805018
0.322175 -0.152587 0.777055
0.320849 -0.152924 0.777581
0.319591 -0.153293 0.778268
0.318362 -0.153676 0.779029
0.316904 -0.153951 0.779237
0.315463 -0.154233 0.779486
0.313969 -0.154488 0.7796
0.312317 -0.154667 0.779326
0.31057 -0.154796 0.778809
0.309007 -0.155015 0.77874
0.307356 -0.155187 0.778445
0.305684 -0.155348 0.778089
0.304238 -0.155619 0.778293
0.303028 -0.156009 0.77909
0.301981 -0.156482 0.780301
0.30118 -0.157083 0.782145
0.300446 -0.157722 0.784174
0.299794 -0.158406 0.786429
0.299014 -0.159029 0.788368
0.29813 -0.159601 0.790053
0.297202 -0.160153 0.791636
0.296099 -0.160614 0.792769
0.294921 -0.161037 0.793712
0.293669 -0.161422 0.794463
0.292483 -0.161843 0.795394
0.291218 -0.162222 0.796118
0.290017 -0.162637 0.797013
0.288615 -0.162942 0.797371
0.287252 -0.163268 0.797832
0.285857 -0.163576 0.798208
0.284731 -0.164035 0.799317
0.283958 -0.164696 0.801409
0.283467 -0.16552 0.804296
0.283021 -0.166378 0.807334
0.323557 -0.152276 0.776661
0.324669 -0.153132 0.77478
0.323205 -0.153404 0.774976
0.32165 -0.153632 0.774956
0.320128 -0.153874 0.775007
0.318744 -0.154182 0.775386
0.317447 -0.15453 0.775971
0.316001 -0.154807 0.776196
0.314572 -0.155092 0.776464
0.313086 -0.155347 0.776586
0.311469 -0.155539 0.776387
0.309725 -0.155665 0.775869
0.308169 -0.155883 0.775805
0.306584 -0.156085 0.775664
0.304951 -0.156261 0.775397
0.303549 -0.156551 0.775702
0.302356 -0.156947 0.776529
0.301322 -0.157426 0.777763
0.300589 -0.158061 0.779768
0.29999 -0.15877 0.782131
0.299449 -0.159513 0.784662
0.298805 -0.160207 0.786944
0.298016 -0.160831 0.788872
0.297117 -0.161399 0.790526
0.296015 -0.161862 0.791659
0.294842 -0.162288 0.792612
0.293658 -0.162708 0.793539
0.292579 -0.163188 0.79475
0.291449 -0.163642 0.795834
0.290384 -0.164132 0.797096
0.289147 -0.164529 0.797902
0.287956 -0.164953 0.798837
0.28671 -0.165347 0.799627
0.285701 -0.165876 0.801067
0.28499 -0.166577 0.803338
0.284545 -0.167436 0.806363
0.284007 -0.168248 0.809155
0.324307 -0.154254 0.773078
0.322722 -0.154467 0.772986
0.32102 -0.154623 0.772611
0.319325 -0.15478 0.772244
0.317765 -0.155 0.772192
0.316369 -0.155298 0.772527
0.314958 -0.155587 0.772825
0.313564 -0.155885 0.773161
0.312112 -0.156154 0.773357
0.310557 -0.156371 0.773297
0.308854 -0.156514 0.772867
0.30731 -0.156733 0.772823
0.305802 -0.156969 0.772863
0.304245 -0.157179 0.772774
0.302881 -0.157487 0.773164
0.301695 -0.157884 0.773999
0.300664 -0.158363 0.77523
0.300003 -0.159036 0.77741
0.299483 -0.159786 0.779963
0.298994 -0.160558 0.782614
0.29842 -0.161291 0.785071
