ply
format ascii 1.0
element vertex 1679
property float x
property float y
property float z
end_header
0.0194797 -0.0965188 1.18982
0.0184138 -0.0976129 1.18985
0.0173514 -0.0987178 1.19005
0.0162813 -0.0998002 1.18991
0.0152135 -0.100887 1.18982
0.0141409 -0.101955 1.18946
0.0130683 -0.103016 1.189
0.0119922 -0.104056 1.18828
0.0109183 -0.105094 1.18753
0.00983978 -0.106096 1.18632
0.00876132 -0.107074 1.18479
0.00768806 -0.108058 1.18341
0.00661982 -0.109056 1.18226
0.00555549 -0.110069 1.18134
-0.00399044 -0.120838 1.19333
-0.00505572 -0.121848 1.19235
-0.00612292 -0.122911 1.19201
-0.00718533 -0.123925 1.19113
-0.00824461 -0.124924 1.1901
-0.0093237 -0.126149 1.19154
-0.0126726 -0.13055 1.20326
-0.0138014 -0.131997 1.20677
-0.0148846 -0.133097 1.20666
-0.015968 -0.134197 1.20656
-0.0170514 -0.135303 1.20651
-0.0264163 -0.147069 1.23275
-0.0275466 -0.148274 1.23332
-0.0286639 -0.149426 1.23342
-0.0297847 -0.150589 1.23361
-0.0309078 -0.15176 1.23386
-0.0320203 -0.152889 1.23375
-0.0331299 -0.154013 1.23359
-0.0342495 -0.155169 1.23372
-0.0353593 -0.156291 1.23355
-0.0364743 -0.157433 1.23355
-0.0375872 -0.158565 1.23347
-0.0387 -0.159702 1.23343
-0.0398169 -0.160848 1.23348
-0.0409407 -0.162016 1.23369
-0.0420524 -0.163148 1.23361
-0.04318 -0.164326 1.2339
-0.0443142 -0.165522 1.23432
-0.0454463 -0.166711 1.23468
-0.0465828 -0.167912 1.23512
-0.0477241 -0.169122 1.23563
-0.0488564 -0.170307 1.23595
-0.0500005 -0.171523 1.23648
-0.0511485 -0.172745 1.23705
-0.0522975 -0.17397 1.23763
-0.0534411 -0.175179 1.23809
-0.054578 -0.176369 1.2384
-0.0557103 -0.177546 1.23862
-0.0568558 -0.178755 1.23906
-0.0580045 -0.179971 1.23954
0.0561183 -0.0631567 1.21335
0.0549945 -0.064266 1.21287
0.0538642 -0.0653708 1.21225
0.0527122 -0.0664627 1.21123
0.0515271 -0.0675339 1.20957
0.050333 -0.0685941 1.20767
0.0491264 -0.0696398 1.20545
0.0479388 -0.0706889 1.20349
0.0467499 -0.0717296 1.20143
0.0455957 -0.0727861 1.19996
0.0444641 -0.0738532 1.19889
0.043349 -0.0749287 1.19811
0.0422358 -0.0760022 1.19735
0.0411413 -0.0770888 1.19695
0.0400407 -0.0781677 1.19639
0.0389372 -0.0792414 1.19574
0.0378461 -0.0803245 1.19533
0.0367518 -0.0814022 1.19484
0.0356678 -0.0824891 1.19457
0.034595 -0.0835882 1.19458
0.0335274 -0.0846936 1.19472
0.032455 -0.0857936 1.19475
0.0313878 -0.0869012 1.19494
0.0303185 -0.0880062 1.19505
0.0292376 -0.0890931 1.19481
0.0281527 -0.0901721 1.19445
0.0270674 -0.0912476 1.19404
0.025975 -0.0923069 1.19335
0.0248805 -0.093356 1.19251
0.0237921 -0.0944122 1.19182
0.0227141 -0.0954878 1.19149
0.0216307 -0.0965475 1.19092
0.0205598 -0.0976355 1.19083
0.0194917 -0.0987302 1.19085
0.0184246 -0.0998271 1.1909
0.0173535 -0.100911 1.19074
0.016283 -0.101998 1.19065
0.0152068 -0.103059 1.19017
0.0141286 -0.104107 1.18952
0.0130535 -0.105159 1.18895
0.0119786 -0.106204 1.18829
0.0109014 -0.107228 1.18738
0.00982311 -0.108228 1.18616
0.00875171 -0.10925 1.18527
0.00768293 -0.110281 1.18455
0.00661695 -0.111318 1.18391
0.00556065 -0.112442 1.18441
-0.00187651 -0.121299 1.19899
-0.00295071 -0.122297 1.19779
-0.00402244 -0.123289 1.19656
-0.00509514 -0.124363 1.19627
-0.00616671 -0.125426 1.19587
-0.00723746 -0.126492 1.19552
-0.00832192 -0.12773 1.19702
-0.00941862 -0.129063 1.19948
-0.010518 -0.130368 1.20159
-0.0116244 -0.131706 1.20399
-0.0127332 -0.133022 1.20611
-0.0138197 -0.134144 1.20622
-0.0149061 -0.135265 1.20633
-0.0160047 -0.136459 1.20715
-0.0171101 -0.137692 1.20833
-0.0253293 -0.148176 1.23258
-0.0264626 -0.149395 1.23328
-0.0275859 -0.150571 1.23357
-0.0287111 -0.151749 1.23388
-0.0298377 -0.152933 1.23424
-0.0309483 -0.154053 1.23404
-0.0320564 -0.155166 1.23379
-0.0331743 -0.156313 1.23383
-0.0342838 -0.157434 1.23365
-0.0354027 -0.158586 1.23374
-0.0365155 -0.159718 1.23365
-0.037632 -0.160865 1.23369
-0.0387539 -0.162024 1.23383
-0.0398743 -0.163182 1.23395
-0.0409782 -0.164287 1.23365
-0.0420965 -0.165438 1.23372
-0.0432165 -0.166593 1.23383
-0.0443355 -0.167744 1.23389
-0.0454716 -0.168946 1.23434
-0.0466077 -0.170145 1.23477
-0.0477401 -0.171331 1.23508
-0.0488831 -0.172546 1.23561
-0.0500337 -0.17378 1.23627
-0.0511826 -0.175006 1.23686
-0.0523305 -0.17623 1.23742
-0.0534726 -0.177436 1.23785
-0.0546043 -0.178612 1.23805
-0.055748 -0.179819 1.23847
-0.0568947 -0.181031 1.23893
0.0572076 -0.0642174 1.21314
0.0560876 -0.0653284 1.21274
0.0549585 -0.0664342 1.21216
0.0538104 -0.0675279 1.21123
0.0526211 -0.0685967 1.20955
0.0514185 -0.069652 1.20754
0.050203 -0.0706924 1.2052
0.0490115 -0.0717384 1.20323
0.0478199 -0.0727768 1.20117
0.0466694 -0.0738359 1.19981
0.0455453 -0.0749088 1.19892
0.0444333 -0.0759876 1.19824
0.0433195 -0.0770617 1.19749
0.0422244 -0.078149 1.19711
0.0411268 -0.079232 1.19664
0.0400186 -0.0803025 1.19591
0.0389294 -0.0813892 1.19558
0.037834 -0.0824675 1.19509
0.0367518 -0.0835583 1.19491
0.0356795 -0.0846598 1.19495
0.0346143 -0.0857705 1.19517
0.0335412 -0.0868719 1.19521
0.0324762 -0.0879851 1.19548
0.0314054 -0.089091 1.19559
0.0303266 -0.090184 1.19545
0.0292468 -0.0912752 1.19529
0.0281628 -0.0923577 1.19498
0.0270712 -0.0934237 1.1944
0.0259762 -0.0944785 1.19364
0.0248854 -0.0955363 1.19297
0.0238029 -0.0966083 1.19257
0.0227178 -0.0976701 1.192
0.0216449 -0.0987599 1.19191
0.0205755 -0.0998566 1.19193
0.0195041 -0.100949 1.19188
0.018429 -0.102027 1.19162
0.0173535 -0.103102 1.19132
0.0162713 -0.10415 1.19064
0.0151891 -0.105189 1.18986
0.0141102 -0.106234 1.18918
0.0130324 -0.107272 1.18844
0.0119578 -0.108315 1.18778
0.010882 -0.109344 1.18695
0.00981095 -0.110389 1.18638
0.00874673 -0.111472 1.18631
0.00768491 -0.112572 1.18645
-0.000798844 -0.12024 1.19949
0.000259495 -0.121325 1.19959
-0.000818881 -0.122401 1.19926
-0.00189699 -0.123499 1.19921
-0.00297402 -0.124583 1.199
-0.00405355 -0.125745 1.19964
-0.00513477 -0.126915 1.20036
-0.00621897 -0.128101 1.20124
-0.00730533 -0.129292 1.20215
-0.0083975 -0.130538 1.2036
-0.00948711 -0.131724 1.2044
-0.0105798 -0.132922 1.20531
-0.0116734 -0.134108 1.20607
-0.0127612 -0.135241 1.20629
-0.0138538 -0.136403 1.20679
-0.0149617 -0.137668 1.20829
-0.016082 -0.138995 1.21033
-0.0231005 -0.148016 1.23128
-0.0242373 -0.149263 1.23223
-0.0253746 -0.150503 1.23311
-0.0265078 -0.151719 1.23375
-0.0276397 -0.15293 1.23434
-0.0287764 -0.154151 1.23499
-0.029891 -0.155281 1.23487
-0.0309995 -0.156391 1.23459
-0.032115 -0.157527 1.23452
-0.0332229 -0.158635 1.23423
-0.0343383 -0.159776 1.2342
-0.0354482 -0.160893 1.23399
-0.0365619 -0.162026 1.23391
-0.0376792 -0.163171 1.23393
-0.038796 -0.164315 1.23394
-0.0398932 -0.165396 1.23346
-0.0410036 -0.166521 1.23332
-0.0421141 -0.167649 1.23321
-0.0432241 -0.168772 1.23307
-0.0443596 -0.169974 1.23352
-0.045496 -0.171177 1.23397
-0.0466277 -0.172366 1.23431
-0.0477707 -0.173582 1.23485
-0.0489194 -0.174815 1.23549
-0.050067 -0.17604 1.23607
-0.0512149 -0.177265 1.23664
-0.052362 -0.178487 1.23718
-0.0534937 -0.179664 1.2374
-0.054642 -0.180884 1.2379
-0.0557871 -0.182095 1.23835
0.0582855 -0.0652737 1.21274
0.057171 -0.0663871 1.21243
0.0560385 -0.0674906 1.21183
0.0548953 -0.0685867 1.211
0.0537144 -0.0696597 1.20949
0.0525036 -0.07071 1.2074
0.0512846 -0.0717478 1.20505
0.0501005 -0.0727985 1.20326
0.0489113 -0.0738387 1.20129
0.0477689 -0.0749041 1.20014
0.0466534 -0.0759847 1.19946
0.0455482 -0.0770707 1.19896
0.0444321 -0.0781454 1.19821
0.0433399 -0.0792376 1.19791
0.0422318 -0.0803138 1.19727
0.0411204 -0.0813837 1.19652
0.0400253 -0.0824668 1.1961
0.0389288 -0.083546 1.19561
0.0378457 -0.0846384 1.19543
0.0367799 -0.0857502 1.19566
0.035717 -0.086867 1.19599
0.0346464 -0.087975 1.19612
0.0335833 -0.0890945 1.19647
0.0325113 -0.0902023 1.19658
0.0314272 -0.0912921 1.19636
0.0303459 -0.0923847 1.19619
0.0292597 -0.0934681 1.19589
0.0281639 -0.0945309 1.19523
0.0270666 -0.0955867 1.19448
0.0259765 -0.0966515 1.19391
0.0248926 -0.097726 1.19352
0.0238058 -0.0987905 1.19299
0.0227338 -0.0998875 1.19298
0.0216618 -0.100985 1.19299
0.0205864 -0.102072 1.19284
0.0195072 -0.103145 1.19248
0.0184254 -0.104207 1.19197
0.0173372 -0.105241 1.19109
0.0162496 -0.106267 1.19011
0.0151678 -0.107304 1.18934
0.0140867 -0.108335 1.18849
0.0130111 -0.109383 1.18792
0.0119375 -0.110432 1.18736
0.0108693 -0.111501 1.18708
0.00980455 -0.112591 1.18708
0.00874563 -0.113726 1.18766
0.00769499 -0.11494 1.18919
0.00239719 -0.1213 1.19961
0.00131846 -0.122393 1.19948
0.00023907 -0.123485 1.19935
-0.000839262 -0.124603 1.1995
-0.00191709 -0.125693 1.19934
-0.00299716 -0.126849 1.19991
-0.00407795 -0.12801 1.20051
-0.00516095 -0.129182 1.20122
-0.00624593 -0.130365 1.20202
-0.00733639 -0.131603 1.20338
-0.00842596 -0.132796 1.20424
-0.00951981 -0.134009 1.20529
-0.0106161 -0.135231 1.20639
-0.0117082 -0.136399 1.20694
-0.0128062 -0.137602 1.20783
-0.0139228 -0.138938 1.20996
-0.01505 -0.140315 1.21244
-0.0162045 -0.14184 1.21627
-0.0208843 -0.147898 1.23036
-0.0220118 -0.149111 1.23101
-0.0231545 -0.150395 1.23229
-0.0243001 -0.151683 1.23355
-0.0254451 -0.152954 1.23466
-0.0265879 -0.154206 1.23558
-0.027734 -0.155467 1.23656
-0.0288505 -0.156599 1.23642
-0.0299585 -0.157696 1.23602
-0.0310691 -0.158806 1.23572
-0.0321724 -0.15989 1.23521
-0.0332801 -0.160994 1.23488
-0.0343833 -0.162085 1.23446
-0.0354911 -0.163194 1.23417
-0.0366055 -0.164325 1.23408
-0.0377155 -0.165447 1.2339
-0.0388058 -0.1665 1.23321
-0.039908 -0.167596 1.23286
-0.0410097 -0.168694 1.23253
-0.0421099 -0.169788 1.23216
-0.0432398 -0.170976 1.23251
-0.0443749 -0.172179 1.23296
-0.0455072 -0.173371 1.23333
-0.046649 -0.174587 1.23387
-0.0477964 -0.17582 1.23451
-0.0489421 -0.177043 1.23507
-0.050094 -0.178283 1.23575
-0.0512457 -0.17952 1.23639
-0.0523831 -0.180715 1.23673
-0.0535364 -0.181951 1.23735
-0.0546767 -0.18315 1.23771
0.0593606 -0.0663285 1.21231
0.0582504 -0.0674437 1.21208
0.0571147 -0.0685457 1.21141
0.0559759 -0.0696435 1.21069
0.054802 -0.0707199 1.20933
0.0535996 -0.0717748 1.20742
0.0523878 -0.0728166 1.20527
0.0512179 -0.073877 1.20378
0.0500372 -0.0749243 1.20203
0.0489037 -0.075998 1.20109
0.0477863 -0.0770799 1.20043
0.0466798 -0.0781678 1.19994
0.0455599 -0.0792421 1.19917
0.0444688 -0.0803383 1.19894
0.0433541 -0.0814118 1.1982
0.0422438 -0.0824859 1.19753
0.0411426 -0.083566 1.19702
0.0400426 -0.0846451 1.19651
0.038958 -0.0857391 1.19634
0.0378988 -0.0868621 1.19675
0.036836 -0.087983 1.19711
0.0357675 -0.089098 1.19734
0.0347032 -0.0902202 1.19771
0.0336253 -0.0913244 1.19771
0.0325358 -0.0924103 1.19739
0.0314484 -0.093498 1.19712
0.0303574 -0.0945774 1.19672
0.0292587 -0.0956399 1.19603
0.0281588 -0.0966954 1.19527
0.0270688 -0.0977664 1.1948
0.0259862 -0.0988485 1.19451
0.0249023 -0.099926 1.19416
0.0238283 -0.101025 1.19417
0.0227554 -0.102126 1.19418
0.0216727 -0.103201 1.19383
0.0205887 -0.104268 1.19336
0.0195002 -0.105316 1.19266
0.0184064 -0.106338 1.19159
0.0173129 -0.107351 1.19044
0.0162257 -0.108375 1.18948
0.0151413 -0.109398 1.18853
0.0140628 -0.110439 1.18786
0.0129895 -0.111494 1.18739
0.0119201 -0.112564 1.18712
0.0108574 -0.11367 1.18732
0.00980095 -0.114822 1.18809
0.00875246 -0.116051 1.18977
0.00770618 -0.117341 1.19215
0.00559952 -0.117583 1.19474
0.00665902 -0.11868 1.19505
0.00560306 -0.120001 1.19764
0.00347335 -0.120148 1.19905
0.00453384 -0.121217 1.19896
0.00345951 -0.122395 1.19979
0.00237952 -0.123501 1.19981
0.00130063 -0.124615 1.1999
0.000220926 -0.125745 1.20018
-0.000859143 -0.12683 1.19996
-0.00193926 -0.127972 1.20036
-0.00301985 -0.129115 1.20075
-0.00410235 -0.130269 1.20126
-0.00518586 -0.131438 1.2019
-0.00627621 -0.132688 1.20336
-0.00736656 -0.133903 1.20443
-0.00846169 -0.135147 1.20576
-0.00956069 -0.136402 1.20717
-0.0106577 -0.137611 1.2081
-0.0117618 -0.138862 1.20941
-0.0128842 -0.140249 1.212
-0.0140155 -0.141662 1.21477
-0.0151639 -0.143167 1.21832
-0.0163219 -0.144684 1.22192
-0.0185831 -0.145183 1.22636
-0.0174933 -0.146244 1.22583
-0.0186364 -0.147587 1.2277
-0.0197775 -0.148896 1.22923
-0.0209264 -0.150235 1.231
-0.0220711 -0.151534 1.23238
-0.0232213 -0.152846 1.23384
-0.0243828 -0.154203 1.23566
-0.025541 -0.155529 1.23718
-0.0266761 -0.156737 1.23768
-0.0277959 -0.157876 1.2376
-0.0289072 -0.15898 1.23723
-0.0300128 -0.160062 1.2367
-0.031115 -0.161131 1.23607
-0.0322205 -0.162223 1.23563
-0.0333238 -0.163304 1.23511
-0.034426 -0.164387 1.23463
-0.0355368 -0.165504 1.23441
-0.0366399 -0.166598 1.23401
-0.037724 -0.167624 1.23311
-0.0388184 -0.168692 1.23255
-0.039915 -0.169772 1.23208
-0.0410021 -0.170821 1.23139
-0.0421219 -0.171979 1.23152
-0.043251 -0.173166 1.23186
-0.0443787 -0.174345 1.23213
-0.0455139 -0.175548 1.23257
-0.0466595 -0.176778 1.2332
-0.0478027 -0.178 1.23375
-0.048953 -0.179239 1.23443
-0.0501145 -0.180508 1.23529
-0.0512613 -0.181734 1.23585
-0.0524206 -0.182989 1.2366
-0.0535652 -0.184203 1.23706
0.0593045 -0.0684888 1.2113
0.0581705 -0.0695908 1.21068
0.0570392 -0.0706916 1.21008
0.0558843 -0.0717776 1.20906
0.0546971 -0.0728405 1.20746
0.0535019 -0.0738927 1.20564
0.0523524 -0.0749674 1.20456
0.0511851 -0.0760254 1.20312
0.0500548 -0.0771044 1.2023
0.0489349 -0.0781877 1.20163
0.047825 -0.079276 1.20113
0.0466978 -0.0803478 1.20026
0.0456047 -0.0814456 1.20004
0.0444863 -0.082519 1.19929
0.0433744 -0.083595 1.19862
0.0422732 -0.0846789 1.19817
0.041175 -0.0857639 1.19775
0.0400927 -0.0868645 1.19767
0.0390361 -0.0879952 1.1982
0.0379764 -0.0891247 1.19867
0.0369059 -0.0902427 1.19891
0.0358366 -0.0913633 1.19918
0.0347491 -0.0924589 1.199
0.0336493 -0.0935344 1.19846
0.0325488 -0.0946058 1.19789
0.0314458 -0.0956689 1.19718
0.0303411 -0.0967243 1.19639
0.0292391 -0.0977794 1.19562
0.0281506 -0.098856 1.19523
0.0270689 -0.0999448 1.19504
0.0259885 -0.101035 1.19487
0.0249139 -0.102136 1.19488
0.0238395 -0.103238 1.19489
0.0227525 -0.104307 1.19445
0.0216666 -0.105374 1.19397
0.0205741 -0.106417 1.19317
0.0194777 -0.107438 1.1921
0.0183814 -0.108449 1.19094
0.0172901 -0.109466 1.18988
0.0162017 -0.110481 1.18883
0.0151217 -0.111521 1.18815
0.0140467 -0.112576 1.18767
0.0129756 -0.113641 1.18732
0.0119119 -0.114747 1.18752
0.0108574 -0.115914 1.18844
0.0098082 -0.117135 1.18999
0.00876398 -0.118427 1.19235
0.00771652 -0.119747 1.19498
0.0066634 -0.121068 1.19753
0.00559469 -0.122287 1.19887
0.00452149 -0.123479 1.19985
0.00344171 -0.124593 1.19994
0.00236209 -0.125716 1.20014
0.00128246 -0.12685 1.20044
0.000201671 -0.127953 1.2004
-0.000878885 -0.129097 1.20081
-0.0019607 -0.130232 1.2011
-0.00304282 -0.131388 1.20161
-0.00412741 -0.132568 1.20235
-0.0052169 -0.133815 1.20375
-0.00630776 -0.135044 1.20493
-0.00740358 -0.13631 1.20645
-0.00850382 -0.137587 1.20806
-0.00960393 -0.138832 1.2093
-0.0107129 -0.140131 1.21104
-0.0118378 -0.141548 1.21386
-0.0129666 -0.142956 1.21652
-0.0141097 -0.144427 1.21971
-0.0152568 -0.145891 1.22276
-0.0164086 -0.147339 1.22561
-0.0175456 -0.148654 1.22721
-0.0186765 -0.149919 1.22834
-0.0198283 -0.151286 1.23034
-0.0209963 -0.152727 1.23293
-0.022171 -0.154176 1.23554
-0.0233495 -0.155623 1.23808
-0.0245199 -0.157007 1.24005
-0.0256637 -0.158243 1.24074
-0.0267765 -0.159335 1.24025
-0.0278863 -0.160415 1.23966
-0.0289867 -0.161461 1.2388
-0.0300815 -0.162492 1.23785
-0.0311777 -0.163533 1.23699
-0.0322737 -0.164578 1.23618
-0.0333707 -0.165633 1.23547
-0.0344763 -0.166724 1.23505
-0.0355736 -0.16779 1.23443
-0.0366521 -0.168788 1.23332
-0.0377389 -0.169826 1.23253
-0.0388252 -0.170863 1.23174
-0.0399 -0.171869 1.23074
-0.0410061 -0.172982 1.23054
-0.0421253 -0.174139 1.23066
-0.0432412 -0.175285 1.2307
-0.0443706 -0.176473 1.23104
-0.045513 -0.177701 1.23166
-0.0466591 -0.178936 1.23231
-0.0478131 -0.180191 1.23309
-0.0489831 -0.181489 1.23416
-0.0501401 -0.182748 1.23495
-0.051309 -0.184035 1.23591
-0.0524587 -0.185266 1.23647
0.0592159 -0.0706301 1.20979
0.0580923 -0.071734 1.20932
0.0569535 -0.0728279 1.20857
0.0557883 -0.0739031 1.20737
0.0546142 -0.0749683 1.20596
0.0534925 -0.0760623 1.20539
0.0523397 -0.0771325 1.20426
0.0512153 -0.0782185 1.20359
0.0500958 -0.0793056 1.20299
0.048987 -0.0803986 1.20256
0.0478522 -0.0814678 1.20161
0.046757 -0.0825677 1.2014
0.0456367 -0.0836433 1.20065
0.0445213 -0.0847202 1.19999
0.0434181 -0.0858063 1.19955
0.0423218 -0.0868977 1.19923
0.0412381 -0.0880015 1.19917
0.0401768 -0.0891314 1.19962
0.039115 -0.0902631 1.20008
0.0380422 -0.0913831 1.20032
0.0369632 -0.0924955 1.2004
0.0358695 -0.0935869 1.20011
0.0347621 -0.0946558 1.19944
0.0336483 -0.0957105 1.19856
0.0325321 -0.0967555 1.19755
0.0314212 -0.0978034 1.19664
0.0303144 -0.0988524 1.19577
0.0292221 -0.0999245 1.1953
0.0281407 -0.101015 1.19513
0.0270624 -0.102111 1.19505
0.0259869 -0.103214 1.19506
0.0249115 -0.104316 1.19508
0.0238259 -0.105392 1.19473
0.0227383 -0.106459 1.19424
0.0216444 -0.107502 1.19345
0.0205457 -0.108523 1.19238
0.0194491 -0.10954 1.1913
0.0183537 -0.110549 1.19014
0.0172628 -0.111563 1.18908
0.01618 -0.112595 1.18829
0.0151039 -0.11365 1.18781
0.0140308 -0.114714 1.18746
0.0129683 -0.115829 1.18775
0.0119159 -0.117008 1.18879
0.010867 -0.118227 1.19029
0.00982364 -0.119518 1.19259
0.00877692 -0.120825 1.19503
0.00772362 -0.122136 1.19743
0.00665877 -0.123381 1.19904
0.00558602 -0.124575 1.20002
0.00450672 -0.125708 1.20031
0.00342696 -0.12684 1.20058
0.00234628 -0.127976 1.2009
0.00126451 -0.12909 1.20097
0.000183307 -0.130244 1.20146
-0.000898846 -0.131389 1.20184
-0.00198233 -0.132546 1.20234
-0.00306759 -0.133728 1.20308
-0.00415617 -0.134972 1.20442
-0.00524768 -0.136221 1.20578
-0.00634442 -0.137502 1.20742
-0.00744498 -0.138796 1.20914
-0.008548 -0.140066 1.2106
-0.00966092 -0.14142 1.21282
-0.0107831 -0.142828 1.21548
-0.0119118 -0.14424 1.21814
-0.0130462 -0.145657 1.22078
-0.0141855 -0.147065 1.22329
-0.0153207 -0.148414 1.22521
-0.0164489 -0.149682 1.22638
-0.0175787 -0.150946 1.22749
-0.0187312 -0.152341 1.22972
-0.0199052 -0.15384 1.23278
-0.0211207 -0.15554 1.23748
-0.0246449 -0.159767 1.24388
-0.0257646 -0.160875 1.24348
-0.0268697 -0.161914 1.24254
-0.0279686 -0.162934 1.24145
-0.0290594 -0.163923 1.24015
-0.0301469 -0.164913 1.23887
-0.0312353 -0.165917 1.23773
-0.0323225 -0.166919 1.2366
-0.0334189 -0.167968 1.23584
-0.0345076 -0.168992 1.2349
-0.0355765 -0.169948 1.23348
-0.0366549 -0.170947 1.2324
-0.0377383 -0.171968 1.2315
-0.0388057 -0.172943 1.23028
-0.0398995 -0.174012 1.22976
-0.0410085 -0.175135 1.22964
-0.0421138 -0.17625 1.22946
-0.043232 -0.177407 1.22959
-0.0443652 -0.178606 1.23001
-0.0455094 -0.179842 1.23067
-0.0466652 -0.181111 1.23155
-0.0478386 -0.182428 1.23275
-0.0490001 -0.183704 1.23365
-0.050177 -0.185022 1.23482
-0.0513301 -0.186266 1.23548
-0.0540273 -0.187657 1.24478
-0.0524837 -0.187509 1.23612
0.0602797 -0.0716785 1.20921
0.0591541 -0.072781 1.2087
0.0580282 -0.0738814 1.20818
0.0568829 -0.0749681 1.20732
0.055731 -0.0760474 1.20632
0.0546275 -0.0771547 1.20609
0.0534881 -0.0782361 1.20523
0.0523659 -0.0793265 1.20466
0.0512431 -0.0804139 1.20403
0.0501367 -0.0815119 1.20369
0.049005 -0.082587 1.20284
0.0479081 -0.0836891 1.20264
0.0467853 -0.0847661 1.2019
0.0456706 -0.0858477 1.20132
0.0445667 -0.0869373 1.2009
0.0434735 -0.0880364 1.20071
0.0423923 -0.0891479 1.20076
0.0413327 -0.0902849 1.20129
0.0402635 -0.0914128 1.20163
0.0391841 -0.0925293 1.20175
0.0380951 -0.0936331 1.20164
0.0369942 -0.0947194 1.20123
0.0358765 -0.0957778 1.20036
0.0347522 -0.0968207 1.19928
0.0336287 -0.0978581 1.19815
0.032512 -0.0988998 1.19713
0.0314003 -0.0999437 1.19617
0.0303074 -0.101017 1.19572
0.029227 -0.102114 1.19564
0.0281452 -0.103206 1.19548
0.027066 -0.104303 1.1954
0.0259892 -0.105406 1.19541
0.024903 -0.106483 1.19506
0.0238139 -0.107551 1.19459
0.0227205 -0.108601 1.1939
0.0216219 -0.109629 1.19293
0.0205233 -0.110647 1.19186
0.0194252 -0.111656 1.1907
0.0183318 -0.112669 1.18963
0.0172449 -0.113694 1.18875
0.0161654 -0.114742 1.18817
0.0150914 -0.115807 1.18782
0.0140283 -0.116924 1.18812
0.0129762 -0.118105 1.18917
0.0119275 -0.119325 1.19065
0.0108856 -0.120617 1.19293
0.00984016 -0.121926 1.19533
0.00878966 -0.123242 1.19775
0.00772558 -0.124493 1.19939
0.00665299 -0.12569 1.2004
0.00557323 -0.126825 1.20069
0.00449249 -0.127958 1.20096
0.0034113 -0.129087 1.20118
0.00232909 -0.130203 1.20127
0.0012474 -0.13136 1.20177
0.000164667 -0.132515 1.20225
-0.000919362 -0.133674 1.20274
-0.00200421 -0.134857 1.20347
-0.00309274 -0.13611 1.20488
-0.00418481 -0.137381 1.20642
-0.00528113 -0.138686 1.20826
-0.00638326 -0.140005 1.21019
-0.00748848 -0.141321 1.21205
-0.00860198 -0.142693 1.21439
-0.00972268 -0.144086 1.21688
-0.0108482 -0.14548 1.21932
-0.0119766 -0.146857 1.22155
-0.0131062 -0.148203 1.22346
-0.0142329 -0.149492 1.22483
-0.0153571 -0.150738 1.22579
-0.0164805 -0.151968 1.2266
-0.0224864 -0.160154 1.24716
-0.0236246 -0.161337 1.24733
-0.0247369 -0.162384 1.24641
-0.0258381 -0.163382 1.24511
-0.0269329 -0.164361 1.24368
-0.0280178 -0.165307 1.24203
-0.0291001 -0.166253 1.2404
-0.0301814 -0.167211 1.2389
-0.0312607 -0.16817 1.23743
-0.0323519 -0.169187 1.23642
-0.0334322 -0.170168 1.23517
-0.0344963 -0.171095 1.23353
-0.0355695 -0.172064 1.23224
-0.0366498 -0.17307 1.23123
-0.0377114 -0.174016 1.22981
-0.0387937 -0.175042 1.22899
-0.0398933 -0.176134 1.22865
-0.0409895 -0.177215 1.22824
-0.042098 -0.178342 1.22816
-0.0432253 -0.179528 1.22849
-0.0443665 -0.180762 1.22914
-0.0455212 -0.18203 1.23003
-0.0466966 -0.183362 1.23133
-0.0478616 -0.184655 1.23234
-0.0490367 -0.185976 1.23352
-0.0501879 -0.18722 1.23418
-0.0513454 -0.188477 1.23491
0.0579737 -0.0760311 1.2072
0.0568351 -0.0771192 1.20643
0.0557418 -0.0782341 1.2064
0.0546133 -0.0793244 1.20576
0.0534895 -0.0804155 1.20519
0.052361 -0.0815004 1.20449
0.0512545 -0.0826001 1.20417
0.0501263 -0.0836801 1.20343
0.0490285 -0.0847837 1.20323
0.0479162 -0.0858728 1.20275
0.0468047 -0.0869604 1.20225
0.0457124 -0.0880651 1.20213
0.0446279 -0.0891775 1.20214
0.0435494 -0.0902968 1.2023
0.042483 -0.0914308 1.20272
0.0414063 -0.0925542 1.20293
0.0403111 -0.093655 1.20274
0.0392078 -0.0947437 1.20235
0.0381017 -0.0958258 1.20185
0.0369779 -0.0968788 1.20089
0.0358479 -0.0979164 1.19972
0.0347185 -0.0989477 1.19849
0.0335993 -0.0999883 1.19746
0.0324849 -0.101031 1.1965
0.0313912 -0.102106 1.19606
0.0303136 -0.103211 1.19607
0.0292295 -0.104303 1.19591
0.0281461 -0.105393 1.19572
0.0270683 -0.106496 1.19571
0.0259803 -0.107574 1.19537
0.0248907 -0.108643 1.19492
0.0238014 -0.109709 1.19443
0.0227026 -0.110744 1.19355
0.0216018 -0.111762 1.19249
0.0205031 -0.112778 1.19142
0.0194077 -0.113792 1.19036
0.0183165 -0.114811 1.18939
0.0172342 -0.115858 1.1888
0.0161585 -0.116923 1.18844
0.0150948 -0.118042 1.18874
0.0140419 -0.119221 1.18973
0.0129908 -0.120429 1.19105
0.0119493 -0.121714 1.1932
0.0109039 -0.123017 1.1955
0.00985377 -0.124325 1.1978
0.00879257 -0.12559 1.19956
0.00772164 -0.1268 1.20068
0.00664109 -0.127935 1.20096
0.00556015 -0.129074 1.20129
0.0044774 -0.130195 1.20142
0.00339471 -0.131313 1.20152
0.00231328 -0.132473 1.20203
0.00123009 -0.133639 1.2026
0.00014589 -0.134809 1.2032
-0.000939582 -0.135993 1.20393
-0.00202708 -0.137259 1.20542
-0.00311854 -0.138542 1.20706
-0.00421492 -0.139853 1.20891
-0.00531498 -0.141171 1.2108
-0.00642049 -0.142499 1.21275
-0.0075307 -0.143847 1.21482
-0.00864871 -0.145231 1.2172
-0.00977223 -0.146629 1.21963
-0.0108987 -0.147997 1.22176
-0.0120235 -0.149315 1.2234
-0.0131475 -0.15059 1.22463
-0.0153829 -0.152986 1.2257
-0.0213076 -0.15874 1.24506
-0.0214533 -0.161729 1.25061
-0.0225761 -0.162801 1.24985
-0.0236865 -0.163815 1.24864
-0.0247871 -0.164787 1.24712
-0.0258826 -0.165749 1.24556
-0.0269683 -0.166678 1.24377
-0.028051 -0.167607 1.242
-0.0291278 -0.168524 1.24018
-0.0301977 -0.169426 1.23827
-0.0312749 -0.170372 1.23674
-0.0323397 -0.171279 1.23494
-0.0333953 -0.17216 1.23298
-0.0344622 -0.173101 1.23148
-0.0355398 -0.174092 1.23038
-0.0366027 -0.175036 1.22896
-0.037685 -0.176059 1.22813
-0.0387805 -0.177134 1.22768
-0.0398762 -0.178214 1.22727
-0.0409799 -0.179325 1.22708
-0.0421048 -0.180508 1.22739
-0.0432445 -0.181738 1.22802
-0.0443966 -0.183006 1.2289
-0.0455656 -0.184325 1.23011
-0.0467329 -0.185632 1.23121
-0.0479017 -0.186937 1.23229
-0.0490512 -0.188182 1.23295
-0.0502021 -0.189426 1.2336
-0.0528801 -0.190826 1.24275
-0.0513388 -0.190624 1.23395
0.0590445 -0.0770821 1.20675
0.0579049 -0.0781691 1.20599
0.0568197 -0.0792896 1.20609
0.0556963 -0.0803835 1.20555
0.0545759 -0.0814775 1.20504
0.0534571 -0.0825704 1.20454
0.0523612 -0.0836798 1.20441
0.0512362 -0.0847638 1.20378
0.0501433 -0.0858734 1.20368
0.0490395 -0.0869724 1.20339
0.0479309 -0.0880654 1.20298
0.0468469 -0.0891814 1.20305
0.0457708 -0.090306 1.20327
0.0446918 -0.0914287 1.20345
0.0436154 -0.092555 1.20369
0.0425314 -0.0936732 1.20378
0.0414213 -0.0947581 1.20328
0.0403031 -0.0958298 1.20259
0.0391911 -0.0969061 1.202
0.038066 -0.0979594 1.20105
0.0369317 -0.0989924 1.1998
0.0358005 -0.100023 1.19859
0.0346791 -0.101063 1.19755
0.0335631 -0.102106 1.1966
0.032468 -0.103181 1.19615
0.0313897 -0.104286 1.19617
0.0303016 -0.105371 1.1959
0.0292143 -0.106455 1.19561
0.0281346 -0.107555 1.19557
0.0270463 -0.108633 1.19522
0.025956 -0.109704 1.1948
0.0248706 -0.110783 1.19449
0.0237778 -0.111839 1.19389
0.0226798 -0.112872 1.19302
0.0215842 -0.113904 1.19215
0.0204898 -0.114933 1.19128
0.019398 -0.11596 1.1904
0.0183138 -0.117007 1.1898
0.0172352 -0.118071 1.18942
0.0161703 -0.119192 1.18972
0.0151151 -0.120366 1.19063
0.0140629 -0.121571 1.19187
0.0130193 -0.122844 1.19384
0.011973 -0.124133 1.19594
0.010921 -0.125421 1.19797
0.00985992 -0.126679 1.19962
0.00878824 -0.12788 1.20063
0.00770755 -0.129015 1.20091
0.00662682 -0.130155 1.20124
0.00554402 -0.131284 1.20144
0.00446162 -0.132412 1.20162
0.00337926 -0.133572 1.20214
0.00229725 -0.134751 1.20282
0.00121336 -0.135932 1.20351
0.000127435 -0.137131 1.20436
-0.000959039 -0.138401 1.20588
-0.00205058 -0.139688 1.20752
-0.0031449 -0.140994 1.2093
-0.00424388 -0.142293 1.21099
-0.00534709 -0.143614 1.21283
-0.00645405 -0.144927 1.21457
-0.00756776 -0.146298 1.21679
-0.00868854 -0.147689 1.21915
-0.00981359 -0.149082 1.22147
-0.0109394 -0.150428 1.22333
-0.0120625 -0.151698 1.2245
-0.0202313 -0.162173 1.24487
-0.0214386 -0.16378 1.24843
-0.0226125 -0.165153 1.25009
-0.0237189 -0.166139 1.24867
-0.024816 -0.167087 1.247
-0.0259011 -0.167991 1.24501
-0.0269824 -0.168895 1.24306
-0.0280549 -0.169774 1.24095
-0.029122 -0.170642 1.2388
-0.030189 -0.171531 1.23684
-0.0312453 -0.172388 1.23469
-0.0322964 -0.173235 1.23249
-0.0333579 -0.174145 1.23079
-0.0344301 -0.175108 1.22949
-0.0354968 -0.176063 1.22817
-0.0365804 -0.177086 1.22735
-0.0376727 -0.178149 1.22682
-0.0387721 -0.179242 1.2265
-0.0398765 -0.180352 1.22632
-0.0409968 -0.181521 1.22653
-0.0421304 -0.182737 1.22706
-0.0432803 -0.184002 1.22792
-0.0444381 -0.185291 1.22891
-0.0455977 -0.186581 1.22991
-0.0467585 -0.18787 1.23088
-0.0479064 -0.189112 1.23153
-0.0490457 -0.190324 1.23197
-0.0501855 -0.191537 1.23242
0.0589535 -0.0792055 1.20521
0.0578769 -0.0803313 1.20543
0.0567614 -0.0814302 1.20503
0.0556501 -0.0825307 1.20467
0.0545422 -0.0836321 1.20437
0.0534505 -0.0847454 1.20434
0.0523304 -0.0858343 1.2038
0.0512418 -0.0869489 1.20381
0.0501441 -0.0880548 1.20364
0.0490403 -0.089154 1.20336
0.0479616 -0.0902775 1.20354
0.0468936 -0.0914129 1.20393
0.0458152 -0.0925387 1.20414
0.044733 -0.0936613 1.20429
0.0436428 -0.0947745 1.20426
0.0425245 -0.095852 1.20363
0.0413961 -0.0969121 1.20274
0.0402783 -0.0979823 1.20205
0.0391514 -0.0990351 1.2011
0.0380183 -0.100072 1.19995
0.0368889 -0.101109 1.19883
0.0357663 -0.102149 1.19781
0.0346486 -0.103192 1.19685
0.0335515 -0.104266 1.19639
0.0324688 -0.105366 1.19631
0.0313771 -0.106445 1.19596
0.030288 -0.107528 1.19565
0.029208 -0.108629 1.19561
0.0281204 -0.109712 1.19534
0.0270322 -0.110791 1.19501
0.0259494 -0.111879 1.19481
0.0248582 -0.112944 1.19433
0.0237602 -0.113985 1.19356
0.0226648 -0.115025 1.19279
0.0215715 -0.116063 1.19202
0.020477 -0.117091 1.19117
0.0193906 -0.118139 1.19056
0.0183121 -0.119211 1.19026
0.0172457 -0.120333 1.19055
0.0161869 -0.121494 1.19128
0.0151347 -0.1227 1.1925
0.0140888 -0.12396 1.19428
0.0130399 -0.125226 1.19609
0.0119866 -0.126498 1.19792
0.0109263 -0.127754 1.19953
0.00985402 -0.128949 1.20046
0.00877428 -0.130094 1.20083
0.00769379 -0.131236 1.20117
0.00661037 -0.132357 1.20129
0.0055263 -0.133475 1.20137
0.00444489 -0.134636 1.20188
0.0033632 -0.135816 1.20256
0.00228044 -0.13701 1.20337
0.00119591 -0.138232 1.20443
0.000109962 -0.139518 1.20607
-0.000979992 -0.140818 1.20781
-0.00207338 -0.142134 1.20966
-0.00317121 -0.14343 1.2113
-0.0042728 -0.144731 1.21293
-0.00537722 -0.14602 1.21443
-0.00648707 -0.14736 1.21635
-0.00760358 -0.148728 1.21848
-0.00872728 -0.150147 1.22099
-0.00985507 -0.151542 1.22327
-0.0109761 -0.152808 1.22439
-0.0189857 -0.160269 1.23879
-0.0189382 -0.162045 1.23463
-0.0202144 -0.164186 1.2425
-0.0214513 -0.16599 1.24758
-0.0226134 -0.167299 1.24871
-0.0237154 -0.168262 1.24715
-0.0248067 -0.169184 1.2453
-0.0258942 -0.170102 1.24347
-0.0269707 -0.170978 1.24136
-0.0280341 -0.171817 1.239
-0.0290949 -0.172657 1.23669
-0.0301447 -0.173468 1.23421
-0.0311927 -0.174292 1.23187
-0.03225 -0.175172 1.22997
-0.0333196 -0.17612 1.22859
-0.0343914 -0.177086 1.22736
-0.0354788 -0.178122 1.22664
-0.0365727 -0.179188 1.22614
-0.0376766 -0.180298 1.22594
-0.0387812 -0.181409 1.22576
-0.0398976 -0.182564 1.22588
-0.0410225 -0.18375 1.22621
-0.0421702 -0.185015 1.22705
-0.0433171 -0.186272 1.22784
-0.0444701 -0.187547 1.22873
-0.0456277 -0.18883 1.22966
-0.0467733 -0.19007 1.23029
-0.0479055 -0.191264 1.23063
-0.0490444 -0.192476 1.23107
-0.0517009 -0.193882 1.24007
-0.0501581 -0.193609 1.23101
0.0589335 -0.0813723 1.20478
0.0578287 -0.0824785 1.20455
0.05672 -0.0835805 1.20425
0.0556164 -0.0846854 1.20402
0.0545248 -0.085799 1.20399
0.0534084 -0.0868912 1.20353
0.0523217 -0.0880078 1.20356
0.0512291 -0.089119 1.2035
0.0501364 -0.0902298 1.20344
0.0490718 -0.0913688 1.20389
0.0480141 -0.0925171 1.2045
0.0469434 -0.093654 1.20489
0.0458696 -0.0947893 1.20522
0.0447733 -0.0958987 1.2051
0.0436438 -0.0969654 1.20427
0.0425069 -0.098018 1.20326
0.0413787 -0.0990764 1.20237
0.0402414 -0.100117 1.20124
0.0391094 -0.101159 1.20016
0.0379823 -0.102201 1.19913
0.0368579 -0.103242 1.19812
0.0357418 -0.104291 1.19726
0.0346426 -0.105365 1.1968
0.0335554 -0.106458 1.19661
0.0324587 -0.107531 1.19616
0.0313657 -0.108608 1.19577
0.0302819 -0.109703 1.19565
0.0291944 -0.110788 1.19539
0.0281081 -0.111873 1.19515
0.0270264 -0.112969 1.19505
0.0259395 -0.11405 1.19476
0.0248435 -0.115101 1.1941
0.0237512 -0.116156 1.19353
0.0226577 -0.117203 1.19286
0.0215631 -0.118239 1.19209
0.020475 -0.11929 1.19151
0.0193947 -0.120364 1.19121
0.0183253 -0.12148 1.19141
0.0172631 -0.122633 1.19203
0.0162091 -0.123832 1.19314
0.0151624 -0.125085 1.1948
0.0141106 -0.126336 1.19642
0.0130553 -0.127591 1.19803
0.0119928 -0.12883 1.19944
0.0109202 -0.130016 1.20026
0.00984067 -0.131157 1.20058
0.00876036 -0.132302 1.20094
0.0076764 -0.133424 1.20107
0.00659236 -0.13454 1.20112
0.00551081 -0.1357 1.20162
0.00442987 -0.136881 1.20231
0.00334798 -0.138088 1.20322
0.002265 -0.139332 1.20448
0.00118073 -0.140632 1.20623
9.23872e-05 -0.141927 1.20789
-0.00100025 -0.143232 1.20963
-0.0020964 -0.144518 1.21113
-0.00319554 -0.145797 1.21256
-0.00429699 -0.147036 1.21359
-0.00540322 -0.148342 1.21519
-0.0190954 -0.165214 1.24155
-0.0203283 -0.16704 1.24675
-0.0214951 -0.168391 1.2482
-0.0226015 -0.169368 1.24676
-0.0236984 -0.170302 1.24503
-0.0247882 -0.171222 1.24323
-0.0258661 -0.172095 1.2411
-0.0269341 -0.17293 1.23874
-0.0279917 -0.173739 1.23622
-0.0290403 -0.174531 1.23362
-0.0300904 -0.175352 1.23128
-0.031149 -0.176229 1.22938
-0.0322189 -0.177163 1.22791
-0.0332943 -0.178141 1.22676
-0.0343822 -0.179177 1.22605
-0.0354768 -0.180244 1.22556
-0.0365818 -0.181354 1.22538
-0.0376942 -0.182495 1.2254
-0.0388098 -0.18365 1.22552
-0.0399303 -0.184821 1.22574
-0.0410762 -0.186082 1.22657
-0.042218 -0.187324 1.22724
-0.0433613 -0.18857 1.22793
-0.0445089 -0.189823 1.22867
-0.0456522 -0.191059 1.22928
-0.0467778 -0.192236 1.22951
-0.0479143 -0.193446 1.22994
-0.0490223 -0.194561 1.22977
0.059972 -0.0824007 1.20385
0.0588854 -0.0835189 1.20391
0.0577896 -0.0846303 1.20381
0.0567031 -0.0857486 1.20387
0.0556113 -0.0868627 1.20384
0.054499 -0.087959 1.20346
0.0534209 -0.0890841 1.20366
0.0523339 -0.0902018 1.20371
0.0512523 -0.0913248 1.20385
0.0501983 -0.0924765 1.20451
0.0491456 -0.0936329 1.20522
0.0480698 -0.0947669 1.20553
0.0469962 -0.095905 1.20589
0.0458933 -0.0970095 1.20567
0.0447568 -0.0980703 1.20475
0.0436133 -0.099117 1.20363
0.0424742 -0.100163 1.20254
0.0413292 -0.101195 1.20129
0.0401906 -0.102229 1.20011
0.039062 -0.103271 1.19909
0.0379368 -0.104313 1.1981
0.0368234 -0.105368 1.19733
0.0357227 -0.106441 1.19686
0.0346307 -0.107527 1.19657
0.0335293 -0.108593 1.19602
0.0324353 -0.10967 1.19563
0.0313511 -0.110765 1.19551
0.0302639 -0.111852 1.19527
0.0291792 -0.112944 1.19512
0.0281034 -0.114056 1.19521
0.0270183 -0.115145 1.19502
0.0259236 -0.116204 1.19447
0.0248348 -0.117275 1.19407
0.0237439 -0.118336 1.19358
0.0226504 -0.119383 1.19293
0.0215623 -0.120443 1.19244
0.0204815 -0.121525 1.19224
0.0194084 -0.122635 1.19235
0.0183422 -0.123775 1.19277
0.0172855 -0.124966 1.19377
0.0162337 -0.126195 1.19515
0.0151771 -0.127414 1.19639
0.0141193 -0.128652 1.1978
0.0130575 -0.129883 1.19909
0.0119845 -0.131062 1.19983
0.010906 -0.132213 1.20025
0.00982695 -0.13337 1.20073
0.00874297 -0.134491 1.20084
0.00765925 -0.135614 1.20097
0.0065785 -0.136776 1.20146
0.00549717 -0.13795 1.20207
0.00441627 -0.139168 1.20309
0.00333537 -0.140432 1.20452
0.00225251 -0.141725 1.20617
0.00116446 -0.143002 1.20765
7.34841e-05 -0.144287 1.20918
-0.00102074 -0.145554 1.2105
-0.00211794 -0.146782 1.21146
-0.00321571 -0.147968 1.21202
-0.00431708 -0.149218 1.21312
-0.0138841 -0.1545 1.19196
-0.0127008 -0.152354 1.18334
-0.0116613 -0.153431 1.18332
-0.0127673 -0.154926 1.1866
-0.0179336 -0.16592 1.2381
-0.0192065 -0.168091 1.24595
-0.0203765 -0.169482 1.24768
-0.0214902 -0.170489 1.24649
-0.0225927 -0.171449 1.24497
-0.0236878 -0.172378 1.24324
-0.0247665 -0.173235 1.24101
-0.0258338 -0.174053 1.23853
-0.0268897 -0.174834 1.23583
-0.0279389 -0.175611 1.23315
-0.0289901 -0.176416 1.23072
-0.0300516 -0.177293 1.22883
-0.0311183 -0.178214 1.22728
-0.0321988 -0.179202 1.22622
-0.0332874 -0.180234 1.2255
-0.0343826 -0.181301 1.22501
-0.0354872 -0.182412 1.22483
-0.0366067 -0.18358 1.22504
-0.0377265 -0.184751 1.22526
-0.038847 -0.185922 1.22548
-0.0399955 -0.187199 1.22639
-0.0411327 -0.188426 1.22697
-0.0422672 -0.189642 1.22746
-0.0434047 -0.190865 1.228
-0.0445413 -0.192084 1.2285
-0.0456585 -0.193233 1.22855
-0.0467898 -0.194427 1.22888
-0.047893 -0.195528 1.22862
0.0599331 -0.0845528 1.20313
0.0588542 -0.0856763 1.20329
0.0577871 -0.0868097 1.20366
0.0567059 -0.087933 1.20381
0.055603 -0.0890382 1.20361
0.0545298 -0.0901691 1.20389
0.0534479 -0.0912931 1.20404
0.0523761 -0.0924276 1.20438
0.0513283 -0.093588 1.20515
0.050276 -0.0947472 1.20589
0.0492051 -0.0958894 1.20629
0.0481349 -0.0970343 1.20673
0.0470264 -0.0981355 1.20644
0.0458832 -0.0991916 1.20544
0.0447314 -0.100231 1.2042
0.0435748 -0.101256 1.20281
0.0424185 -0.102275 1.20135
0.0412738 -0.103301 1.20007
0.0401428 -0.104342 1.19905
0.039017 -0.105384 1.19807
0.0379061 -0.106446 1.19741
0.0368046 -0.10752 1.19694
0.0357076 -0.108599 1.19656
0.034604 -0.109663 1.19598
0.0335088 -0.110739 1.19557
0.0324242 -0.111835 1.19546
0.0313394 -0.112929 1.19531
0.0302611 -0.114037 1.19536
0.0291845 -0.115151 1.19547
0.0281013 -0.116248 1.19536
0.0270078 -0.117315 1.1949
0.0259176 -0.118387 1.19452
0.0248276 -0.119457 1.19412
0.0237347 -0.120512 1.19356
0.0226449 -0.121573 1.19309
0.0215652 -0.122665 1.19298
0.0204909 -0.123777 1.19308
0.0194194 -0.124901 1.19332
0.0183629 -0.126094 1.19431
0.0173078 -0.127308 1.1955
0.0162455 -0.128502 1.19645
0.015186 -0.129723 1.19766
0.014123 -0.130944 1.19884
0.0130494 -0.132117 1.19949
0.0119729 -0.133278 1.20001
0.0108939 -0.134436 1.20049
0.00981018 -0.135557 1.2006
0.00872738 -0.136689 1.2008
0.00764604 -0.137851 1.2013
0.00656453 -0.139018 1.20183
0.00548541 -0.140239 1.20285
0.00440584 -0.141503 1.20427
0.00332221 -0.142766 1.20563
0.00223578 -0.144022 1.20691
0.00114639 -0.145286 1.20823
5.42587e-05 -0.146522 1.20927
-0.00104138 -0.147706 1.20983
-0.00213696 -0.148874 1.21024
-0.00323371 -0.15004 1.21063
-0.0106194 -0.154482 1.18309
-0.0117173 -0.155932 1.18598
-0.0179818 -0.168363 1.23919
-0.0191837 -0.170039 1.24313
-0.0203388 -0.171344 1.24422
-0.0214836 -0.172574 1.24473
-0.0225808 -0.1735 1.243
-0.0236595 -0.174341 1.24066
-0.0247305 -0.175154 1.23818
-0.0257883 -0.175932 1.23547
-0.0268435 -0.17672 1.23289
-0.0279007 -0.177538 1.23058
-0.0289682 -0.178432 1.22881
-0.0300375 -0.17935 1.22725
-0.0311171 -0.180323 1.2261
-0.0322024 -0.181337 1.22525
-0.0332945 -0.182387 1.22465
-0.0343964 -0.183483 1.22437
-0.0355193 -0.184667 1.22468
-0.0366394 -0.185841 1.22492
-0.0377608 -0.187017 1.22517
-0.0389091 -0.188294 1.22608
-0.0400441 -0.18952 1.22665
-0.0411738 -0.190721 1.22704
-0.0423068 -0.191927 1.22746
-0.0434418 -0.193144 1.22794
-0.0445595 -0.194291 1.22798
-0.0456903 -0.195489 1.22833
-0.0471761 -0.197892 1.23614
0.0620393 -0.08445 1.2019
0.0609974 -0.0855986 1.20261
0.0599352 -0.0867345 1.20304
0.058888 -0.0878844 1.20371
0.0578145 -0.0890151 1.20399
0.0567283 -0.0901361 1.20407
0.0556549 -0.0912689 1.20437
0.0545787 -0.0924003 1.20464
0.053513 -0.093543 1.20508
0.0524698 -0.0947107 1.20595
0.0514115 -0.0958667 1.20659
0.0503387 -0.0970094 1.20697
0.0492721 -0.0981615 1.2075
0.0481574 -0.0992585 1.20712
0.0470117 -0.100314 1.20611
0.0458518 -0.101347 1.20477
0.0446815 -0.102357 1.20316
0.0435125 -0.103361 1.20149
0.0423649 -0.104386 1.20019
0.0412291 -0.105421 1.1991
0.0401008 -0.106462 1.19812
0.0389929 -0.10753 1.19754
0.0378899 -0.108604 1.19708
0.036785 -0.109671 1.19653
0.03568 -0.110734 1.19594
0.0345862 -0.111814 1.19559
0.0335042 -0.112918 1.19556
0.0324225 -0.114021 1.19554
0.0313501 -0.115147 1.19579
0.0302759 -0.116269 1.19598
0.0291918 -0.117367 1.19588
0.0280958 -0.118433 1.19541
0.0270074 -0.119515 1.19512
0.0259166 -0.120588 1.19475
0.0248217 -0.121645 1.1942
0.0237303 -0.122706 1.19372
0.0226488 -0.123798 1.19359
0.0215687 -0.124894 1.19352
0.0204949 -0.126012 1.19368
0.0194359 -0.127198 1.19457
0.018378 -0.128396 1.19557
0.017312 -0.129573 1.19632
0.016253 -0.130793 1.1975
0.0151895 -0.132007 1.19858
0.0141161 -0.133179 1.19922
0.0130398 -0.134341 1.19975
0.011963 -0.135509 1.20032
0.0108789 -0.136631 1.20043
0.00979642 -0.137774 1.20074
0.00871624 -0.138939 1.20125
0.00763451 -0.140108 1.20179
0.00655371 -0.141308 1.20261
0.00547385 -0.142543 1.20373
0.00438983 -0.143763 1.20469
0.00330398 -0.144985 1.20566
0.00221616 -0.146215 1.20666
0.00112528 -0.147414 1.20738
3.20814e-05 -0.148551 1.20754
-0.00106135 -0.149642 1.2073
-0.00215326 -0.150673 1.20655
-0.0085201 -0.154572 1.18389
-0.00957756 -0.155546 1.18297
-0.0106737 -0.157013 1.18595
-0.0128852 -0.158013 1.19381
-0.0118107 -0.158858 1.19185
-0.0179608 -0.170292 1.23637
-0.0191542 -0.171927 1.23995
-0.0203406 -0.17347 1.2428
-0.0214782 -0.174657 1.243
-0.0225603 -0.175494 1.24066
-0.0236333 -0.176303 1.23816
-0.0246951 -0.177075 1.23544
-0.0257565 -0.177874 1.23296
-0.0268196 -0.178707 1.23074
-0.0278902 -0.1796 1.22899
-0.0289619 -0.180517 1.22743
-0.0300394 -0.181473 1.22616
-0.0311197 -0.182456 1.2251
-0.0322096 -0.183488 1.22439
-0.0333081 -0.184568 1.224
-0.0344277 -0.18574 1.22423
-0.0355519 -0.18693 1.22458
-0.036681 -0.188139 1.22504
-0.0378326 -0.189437 1.22607
-0.038973 -0.19068 1.22674
-0.040106 -0.191893 1.2272
-0.0412374 -0.193096 1.2276
-0.0423684 -0.194298 1.22798
-0.0434858 -0.195446 1.22801
-0.0446134 -0.196629 1.22827
0.0631139 -0.0855029 1.20155
0.0620924 -0.0866668 1.20256
0.0610448 -0.0878151 1.2032
0.0600149 -0.0889799 1.20414
0.0589482 -0.0901183 1.20454
0.0578734 -0.0912512 1.20483
0.0568012 -0.0923877 1.20517
0.0557304 -0.0935271 1.20554
0.0546634 -0.0946718 1.20598
0.0536201 -0.0958426 1.20685
0.0525495 -0.0969887 1.20729
0.0514789 -0.0981368 1.20774
0.0504111 -0.0992901 1.20825
0.0492905 -0.100383 1.2078
0.0481377 -0.101434 1.2067
0.0469734 -0.102464 1.20533
0.0457847 -0.103453 1.20341
0.0446028 -0.104441 1.20153
0.0434485 -0.105458 1.20013
0.0423071 -0.106487 1.19895
0.0411773 -0.107527 1.19797
0.0400715 -0.1086 1.19748
0.0389678 -0.109675 1.19701
0.0378585 -0.110735 1.19638
0.036756 -0.111804 1.19588
0.0356611 -0.112885 1.19553
0.0345828 -0.113997 1.19562
0.0335043 -0.11511 1.1957
0.0324391 -0.116253 1.19615
0.0313681 -0.117385 1.19645
0.0302884 -0.118498 1.19652
0.029191 -0.119566 1.19604
0.0281004 -0.120648 1.19576
0.0270082 -0.121722 1.19539
0.0259113 -0.122779 1.19484
0.0248153 -0.123832 1.19426
0.0237297 -0.124916 1.19403
0.022646 -0.126004 1.19386
0.0215709 -0.127121 1.194
0.02051 -0.1283 1.19479
0.0194484 -0.129483 1.19561
0.0183808 -0.130651 1.19625
0.0173205 -0.131862 1.19732
0.016254 -0.133059 1.19822
0.0151802 -0.134224 1.19878
0.0141057 -0.135395 1.19939
0.0130305 -0.136574 1.20006
0.011948 -0.137708 1.20028
0.0108672 -0.138862 1.2007
0.00978695 -0.140029 1.20121
0.00870419 -0.141188 1.20165
0.00762242 -0.142368 1.20227
0.00654113 -0.143569 1.20307
0.00545681 -0.144755 1.20372
0.00437019 -0.145941 1.20435
0.00328245 -0.147115 1.20486
0.00219234 -0.148265 1.20516
0.00110016 -0.14935 1.20489
8.4032e-06 -0.150377 1.20413
-0.00108067 -0.151337 1.2028
-0.00853892 -0.156673 1.18333
-0.00963522 -0.158181 1.1866
-0.0107682 -0.160049 1.19262
-0.0130084 -0.161195 1.20148
-0.0142357 -0.163615 1.21156
-0.013108 -0.164157 1.20717
-0.0179392 -0.172194 1.23343
-0.0191623 -0.174082 1.23883
-0.0203422 -0.17559 1.24137
-0.0214664 -0.176691 1.24096
-0.0225425 -0.177498 1.23846
-0.0236103 -0.178279 1.23582
-0.0246751 -0.179076 1.23334
-0.02574 -0.179896 1.23105
-0.0268159 -0.180799 1.22937
-0.0278901 -0.181715 1.22781
-0.0289669 -0.182653 1.22642
-0.0300465 -0.183619 1.22526
-0.0311338 -0.184635 1.22443
-0.0322272 -0.185685 1.22385
-0.0333451 -0.186853 1.22405
-0.0344698 -0.188045 1.2244
-0.0356025 -0.189274 1.22498
-0.0367552 -0.190578 1.22604
-0.0378983 -0.191838 1.22681
-0.0390321 -0.193053 1.22728
-0.0401592 -0.194242 1.22758
-0.0412878 -0.195429 1.22787
-0.0424047 -0.196575 1.22789
-0.0435312 -0.197758 1.22814
0.0651398 -0.0853476 1.19924
0.0642098 -0.086571 1.2015
0.0632068 -0.0877496 1.20278
0.0621695 -0.0889073 1.20357
0.061158 -0.0900888 1.20479
0.0600969 -0.0912342 1.20529
0.0590292 -0.092376 1.2057
0.0579675 -0.0935251 1.20622
0.0569021 -0.0946729 1.2067
0.0558276 -0.0958139 1.20705
0.0547715 -0.0969754 1.20772
0.053688 -0.0981109 1.20794
0.0526001 -0.0992427 1.2081
0.0515208 -0.100385 1.20842
0.0503995 -0.101479 1.20797
0.0492448 -0.102529 1.20688
0.0480735 -0.103552 1.20542
0.0468808 -0.104538 1.20348
0.0456945 -0.105523 1.20156
0.0445334 -0.106532 1.20007
0.0433863 -0.107554 1.19881
0.0422551 -0.108593 1.19783
0.0411433 -0.109658 1.19723
0.0400344 -0.110725 1.19666
0.0389238 -0.111784 1.19602
0.0378252 -0.112861 1.19562
0.0367343 -0.11395 1.19539
0.0356638 -0.11508 1.19568
0.0345927 -0.11621 1.19597
0.0335316 -0.117364 1.19653
0.0324627 -0.118504 1.19692
0.0313854 -0.119627 1.19709
0.0302862 -0.120695 1.19663
0.0291942 -0.121778 1.19634
0.0280999 -0.122852 1.19596
0.026998 -0.1239 1.1953
0.025897 -0.124944 1.19461
0.0248102 -0.126028 1.19437
0.0237254 -0.127115 1.19419
0.022647 -0.128225 1.19424
0.021584 -0.129396 1.19493
0.0205215 -0.130578 1.19572
0.0194499 -0.131729 1.19618
0.0183863 -0.132923 1.19706
0.017319 -0.134112 1.19786
0.0162453 -0.135276 1.19842
0.0151721 -0.13645 1.19904
0.0140993 -0.137641 1.19981
0.0130181 -0.138787 1.20015
0.0119389 -0.139954 1.20068
0.0108597 -0.141131 1.20128
0.00977594 -0.142279 1.20161
0.00869249 -0.143437 1.20201
0.00760864 -0.144605 1.2025
0.00652233 -0.145754 1.20282
0.00543464 -0.146895 1.20304
0.00434547 -0.148022 1.20316
0.0032557 -0.149115 1.20296
0.00216386 -0.15015 1.20228
0.00107301 -0.151127 1.20113
-1.56524e-05 -0.152057 1.1996
-0.00110043 -0.152945 1.19775
-0.0075019 -0.157849 1.18406
-0.00857328 -0.159014 1.18463
-0.00967551 -0.160581 1.18828
-0.0191309 -0.175937 1.23556
-0.0202948 -0.177356 1.23746
-0.0214145 -0.178451 1.23704
-0.0225289 -0.179519 1.23644
-0.0235958 -0.180301 1.23386
-0.0246639 -0.181117 1.23156
-0.0257406 -0.182005 1.22978
-0.026817 -0.182916 1.2282
-0.0278931 -0.183839 1.22671
-0.0289752 -0.184806 1.22555
-0.0300609 -0.185804 1.22461
-0.0311548 -0.186851 1.224
-0.0322672 -0.187988 1.224
-0.0333908 -0.189177 1.22433
-0.0345234 -0.190406 1.2249
-0.0356722 -0.191699 1.22589
-0.0368161 -0.192966 1.22668
-0.0379529 -0.194196 1.22724
-0.039082 -0.195389 1.22757
-0.0402063 -0.196564 1.22776
-0.0413278 -0.197725 1.22788
-0.0424541 -0.198906 1.22811
0.0633107 -0.0900126 1.20416
0.0622968 -0.0911946 1.20533
0.0612388 -0.0923449 1.2059
0.0601818 -0.0934984 1.20649
0.0591197 -0.0946499 1.20701
0.0580582 -0.0958041 1.20757
0.0569822 -0.0969468 1.2079
0.0559185 -0.0981035 1.20847
0.0548269 -0.0992334 1.20858
0.0537365 -0.100365 1.2087
0.052646 -0.101497 1.20884
0.0515232 -0.102592 1.20839
0.0503615 -0.103636 1.20721
0.0491825 -0.104652 1.20566
0.0479824 -0.105631 1.20362
0.046788 -0.106606 1.20161
0.0456191 -0.107607 1.20002
0.0444696 -0.108627 1.19875
0.0433333 -0.10966 1.19768
0.0422159 -0.110717 1.19698
0.041105 -0.111781 1.1964
0.039993 -0.112839 1.19574
0.038898 -0.113924 1.19545
0.0378151 -0.11503 1.19543
0.03675 -0.116171 1.19585
0.035685 -0.117317 1.19632
0.034627 -0.11848 1.19697
0.0335586 -0.119624 1.19738
0.0324811 -0.12075 1.19757
0.0313839 -0.121827 1.19721
0.0302874 -0.122903 1.19682
0.0291876 -0.123967 1.19633
0.0280832 -0.125013 1.19565
0.0269805 -0.126057 1.19496
0.0258902 -0.127133 1.19463
0.0248042 -0.128221 1.19444
0.023724 -0.12933 1.19448
0.0226567 -0.130485 1.19499
0.0215922 -0.13166 1.19569
0.0205201 -0.13281 1.19613
0.0194551 -0.133996 1.19692
0.0183866 -0.135176 1.19762
0.0173131 -0.13634 1.19816
0.0162397 -0.137514 1.19877
0.0151681 -0.138708 1.19957
0.0140897 -0.139868 1.20003
0.0130102 -0.141036 1.20056
0.0119312 -0.142213 1.20115
0.0108464 -0.143351 1.20137
0.00976072 -0.144487 1.20158
0.00867407 -0.145622 1.20177
0.00758672 -0.146748 1.20187
0.00649728 -0.147853 1.2018
0.00540751 -0.148946 1.20162
0.00431604 -0.149992 1.20104
0.0032241 -0.150988 1.20005
0.00213336 -0.151944 1.19875
0.00104515 -0.152881 1.19731
-3.95396e-05 -0.153792 1.19568
-0.00218069 -0.153768 1.1954
-0.0011207 -0.154681 1.19392
-0.00325593 -0.154619 1.19333
-0.00219752 -0.15563 1.19266
-0.00432758 -0.1555 1.19154
-0.00327297 -0.156595 1.19157
-0.00540312 -0.158201 1.18688
-0.00646429 -0.159098 1.18534
-0.00753746 -0.160264 1.18589
-0.00861658 -0.161508 1.18703
-0.00970823 -0.162898 1.18926
-0.0119288 -0.164014 1.19767
-0.0108034 -0.164265 1.19128
-0.0190433 -0.177354 1.2293
-0.0202042 -0.178798 1.2314
-0.0213625 -0.180191 1.23309
-0.0224771 -0.18128 1.23268
-0.0235931 -0.182384 1.23237
-0.0246689 -0.183253 1.23047
-0.0257473 -0.18415 1.22879
-0.0268266 -0.185073 1.22732
-0.027908 -0.186026 1.22605
-0.0289955 -0.187023 1.22511
-0.0300884 -0.188054 1.2244
-0.0311953 -0.18916 1.22419
-0.0323122 -0.190318 1.22431
-0.0334406 -0.191529 1.22476
-0.034582 -0.19279 1.22553
-0.035725 -0.194058 1.22633
-0.0368649 -0.195304 1.22699
-0.0379981 -0.196517 1.22742
-0.0391266 -0.197709 1.22772
-0.0402521 -0.198887 1.22794
-0.0413834 -0.200084 1.22826
0.06449 -0.091148 1.20525
0.0634572 -0.0923183 1.20616
0.0623808 -0.093456 1.20646
0.0613238 -0.0946118 1.20705
0.0602619 -0.0957658 1.20759
0.0591986 -0.0969208 1.20814
0.0581226 -0.0980659 1.20848
0.0570522 -0.0992182 1.20894
0.0559535 -0.100343 1.20895
0.0548556 -0.101468 1.20897
0.0537527 -0.102588 1.20889
0.0526272 -0.103681 1.20842
0.0514684 -0.10473 1.20734
0.0502879 -0.105746 1.2058
0.0490851 -0.106724 1.20377
0.0478879 -0.107698 1.20176
0.046711 -0.10869 1.20007
0.0455547 -0.109702 1.19869
0.0444159 -0.110733 1.19763
0.0432929 -0.111783 1.19683
0.0421809 -0.112847 1.19624
0.0410673 -0.113903 1.19558
0.0399715 -0.114988 1.19528
