ply
format ascii 1.0
element vertex 1672
property float x
property float y
property float z
end_header
-0.0780598 -0.208742 1.15528
-0.0769234 -0.209254 1.1601
-0.0758997 -0.209957 1.16648
-0.0747794 -0.210544 1.17193
-0.073558 -0.211001 1.17632
-0.0722267 -0.211306 1.17947
-0.0707636 -0.211412 1.18101
-0.0691873 -0.211339 1.18107
-0.0675749 -0.211204 1.18063
-0.0659436 -0.211034 1.1799
-0.0643138 -0.210862 1.17915
-0.062719 -0.210748 1.17888
-0.0611235 -0.21063 1.17858
-0.0595433 -0.210541 1.1785
-0.0579734 -0.210469 1.17858
-0.0563897 -0.21037 1.17843
-0.0548014 -0.210261 1.17819
-0.0532152 -0.210153 1.17796
-0.0516362 -0.210058 1.17785
-0.0500282 -0.209897 1.17718
-0.0484251 -0.209741 1.17656
-0.0468131 -0.209559 1.17571
-0.0451965 -0.209357 1.1747
-0.043584 -0.209156 1.17371
-0.0419869 -0.208987 1.17297
-0.0403957 -0.208828 1.17231
-0.0388198 -0.208704 1.17195
-0.0372545 -0.208609 1.17183
-0.035681 -0.208486 1.17147
-0.0341171 -0.20839 1.17133
-0.0325558 -0.2083 1.17125
-0.0309875 -0.208183 1.17094
-0.029425 -0.208084 1.17078
-0.0278687 -0.208006 1.17079
-0.0263066 -0.207901 1.17058
-0.0247497 -0.207817 1.17054
-0.023189 -0.207712 1.17033
-0.0216322 -0.207622 1.17024
-0.0200798 -0.207553 1.17034
-0.0185347 -0.207529 1.1708
-0.0170006 -0.207585 1.17194
-0.0154754 -0.20773 1.17383
-0.0139464 -0.207894 1.17587
-0.0124154 -0.2081 1.17827
-0.0108739 -0.208274 1.18042
-0.00931897 -0.208371 1.18191
-0.00775764 -0.208443 1.18319
-0.00619113 -0.208493 1.1843
-0.00461938 -0.208497 1.185
-0.00304577 -0.208507 1.18578
-0.00147028 -0.208563 1.18693
0.000108938 -0.20873 1.18903
0.00169701 -0.209034 1.19228
-0.12521 -0.210284 1.16093
-0.123611 -0.210166 1.16062
-0.121979 -0.210017 1.16005
-0.120297 -0.209817 1.15909
-0.118578 -0.20958 1.1578
-0.116873 -0.209351 1.15659
-0.115141 -0.209094 1.15514
-0.113449 -0.208869 1.15396
-0.111773 -0.208658 1.15287
-0.110126 -0.20847 1.152
-0.108484 -0.208287 1.15114
-0.106865 -0.208123 1.15045
-0.105249 -0.20796 1.14976
-0.103634 -0.207796 1.14906
-0.102044 -0.207656 1.14856
-0.10044 -0.207499 1.14791
-0.0988554 -0.20736 1.14742
-0.0972712 -0.20722 1.14691
-0.0956994 -0.207093 1.14651
-0.094123 -0.206957 1.14604
-0.0925847 -0.206865 1.14593
-0.0910482 -0.206775 1.14583
-0.0895217 -0.206697 1.14582
-0.0880038 -0.206629 1.1459
-0.0864858 -0.20656 1.14598
-0.0850093 -0.206545 1.1465
-0.0835353 -0.206536 1.14707
-0.0820624 -0.20653 1.14766
-0.0805932 -0.20653 1.14831
-0.0792022 -0.206643 1.14989
-0.0778635 -0.206837 1.15214
-0.0766345 -0.207199 1.15578
-0.0745306 -0.208508 1.16793
-0.0734337 -0.209138 1.17381
-0.0722104 -0.209601 1.17831
-0.0708459 -0.209859 1.18113
-0.0693507 -0.209919 1.1823
-0.0677142 -0.209748 1.18156
-0.0660667 -0.209555 1.18062
-0.0644275 -0.20937 1.17975
-0.0628321 -0.209257 1.17949
-0.0612434 -0.209156 1.17931
-0.0596766 -0.209093 1.17946
-0.0581239 -0.209059 1.17985
-0.0565565 -0.208997 1.18001
-0.0549769 -0.208912 1.17997
-0.0533925 -0.208814 1.17983
-0.0518159 -0.208733 1.17982
-0.0502088 -0.208582 1.17923
-0.0486064 -0.208438 1.17869
-0.0469946 -0.208266 1.17793
-0.0453737 -0.208065 1.17692
-0.043757 -0.207865 1.17591
-0.0421519 -0.207687 1.17509
-0.040558 -0.207531 1.17445
-0.0389794 -0.207412 1.17412
-0.0374151 -0.207331 1.17411
-0.0358374 -0.207208 1.17375
-0.0342691 -0.20711 1.1736
-0.0326994 -0.207007 1.17339
-0.0311207 -0.206866 1.17288
-0.0295443 -0.206727 1.17239
-0.0279757 -0.206612 1.17208
-0.0264024 -0.206471 1.17157
-0.0248358 -0.206351 1.17123
-0.023267 -0.206215 1.17075
-0.0217047 -0.206102 1.17046
-0.0201747 -0.206158 1.17161
-0.0186412 -0.206215 1.17278
-0.0171156 -0.206346 1.17457
-0.015596 -0.206559 1.17706
-0.0140668 -0.20676 1.17946
-0.012519 -0.206865 1.18103
-0.0109674 -0.206981 1.18271
-0.00940299 -0.207008 1.18362
-0.00783542 -0.207031 1.18451
-0.0062647 -0.207045 1.18532
-0.00468983 -0.207015 1.18575
-0.00311452 -0.207015 1.18644
-0.00153808 -0.20708 1.1877
4.35966e-05 -0.208158 1.19763
-0.125342 -0.208794 1.16133
-0.123735 -0.208671 1.16097
-0.122103 -0.208521 1.1604
-0.120417 -0.208322 1.15941
-0.118703 -0.208092 1.15817
-0.117005 -0.207873 1.15703
-0.115291 -0.207635 1.15572
-0.113573 -0.207389 1.15435
-0.111895 -0.207178 1.15325
-0.110236 -0.206983 1.15229
-0.108606 -0.206813 1.15153
-0.107 -0.206664 1.15096
-0.105394 -0.206515 1.15036
-0.103789 -0.206364 1.14976
-0.102196 -0.206224 1.14925
-0.100579 -0.206055 1.1485
-0.0989833 -0.205906 1.14792
-0.0973894 -0.205757 1.14733
-0.0957977 -0.205608 1.14674
-0.0942088 -0.205461 1.14616
-0.092659 -0.205356 1.14594
-0.0911126 -0.205255 1.14574
-0.0895856 -0.205175 1.14573
-0.0880677 -0.205107 1.14581
-0.0865497 -0.205038 1.14589
-0.0850654 -0.205012 1.14633
-0.0835832 -0.204991 1.1468
-0.0821023 -0.204973 1.1473
-0.0806249 -0.204962 1.14786
-0.0791511 -0.204958 1.14848
-0.0777277 -0.205027 1.14971
-0.0764012 -0.205238 1.15214
-0.0755303 -0.207763 1.1611
-0.0751966 -0.205638 1.15615
-0.0719192 -0.207474 1.17358
-0.0706745 -0.207905 1.17788
-0.0692975 -0.208146 1.18058
-0.0677573 -0.208131 1.18114
-0.0661941 -0.20808 1.18139
-0.0645404 -0.207875 1.18034
-0.0629434 -0.207762 1.18007
-0.0613602 -0.207673 1.17999
-0.0598113 -0.207646 1.18045
-0.0582708 -0.207638 1.18106
-0.0567199 -0.207612 1.18153
-0.0551501 -0.207551 1.1817
-0.05357 -0.20747 1.18169
-0.0519898 -0.207388 1.18168
-0.0503843 -0.20725 1.18119
-0.0487823 -0.207114 1.18072
-0.0471666 -0.206942 1.17995
-0.045541 -0.206741 1.17891
-0.0439205 -0.206543 1.17791
-0.0423159 -0.206376 1.17717
-0.0407195 -0.206224 1.17656
-0.0391418 -0.206118 1.17634
-0.0375786 -0.206053 1.17646
-0.0360008 -0.205942 1.1762
-0.0344253 -0.205835 1.17597
-0.0328483 -0.20572 1.17568
-0.0312584 -0.205556 1.17495
-0.0296717 -0.205393 1.17424
-0.028117 -0.205345 1.17451
-0.0265631 -0.205303 1.17483
-0.0250118 -0.205276 1.17528
-0.0234597 -0.205249 1.17575
-0.0219097 -0.205239 1.17635
-0.0203713 -0.205301 1.17758
-0.0188257 -0.205345 1.17864
-0.0172866 -0.20545 1.18023
-0.0157503 -0.205608 1.18229
-0.0142041 -0.205742 1.18414
-0.0126364 -0.205737 1.1848
-0.0110691 -0.205758 1.18567
-0.00949149 -0.205689 1.18577
-0.00791526 -0.20564 1.18605
-0.00639049 -0.206501 1.19422
-0.12386 -0.207173 1.16132
-0.122226 -0.207024 1.16075
-0.120531 -0.206819 1.15969
-0.11882 -0.206596 1.15849
-0.117116 -0.206374 1.1573
-0.115406 -0.206143 1.15603
-0.113694 -0.205905 1.1547
-0.112031 -0.205712 1.15375
-0.110358 -0.205505 1.15267
-0.108726 -0.205336 1.15191
-0.107131 -0.205201 1.15144
-0.105528 -0.205055 1.15088
-0.103923 -0.204907 1.15029
-0.102319 -0.204757 1.14968
-0.1007 -0.204588 1.14892
-0.0990924 -0.204429 1.14824
-0.0974873 -0.204269 1.14755
-0.0958848 -0.20411 1.14687
-0.0942939 -0.203962 1.14627
-0.0927326 -0.203845 1.14594
-0.0911768 -0.203732 1.14566
-0.0896494 -0.203653 1.14564
-0.0881315 -0.203585 1.14572
-0.0866135 -0.203516 1.1458
-0.0851207 -0.203479 1.14615
-0.0836295 -0.203447 1.14652
-0.0821395 -0.203415 1.14692
-0.0806462 -0.203382 1.14729
-0.0791569 -0.203354 1.14772
-0.0776442 -0.203297 1.14789
-0.0762191 -0.203362 1.14911
-0.0749044 -0.20359 1.15172
-0.0741105 -0.206232 1.1618
-0.073719 -0.20402 1.15604
-0.0702102 -0.205508 1.17076
-0.0688621 -0.205772 1.17369
-0.0674403 -0.20593 1.17573
-0.0659988 -0.206067 1.17759
-0.0644558 -0.20604 1.17805
-0.0629551 -0.20609 1.17916
-0.061464 -0.206163 1.18048
-0.0599262 -0.206158 1.18112
-0.0584034 -0.206184 1.18204
-0.0568701 -0.206196 1.18283
-0.0553112 -0.206161 1.18322
-0.0537345 -0.206092 1.18332
-0.0521561 -0.20602 1.1834
-0.0505575 -0.205903 1.18309
-0.0489624 -0.205791 1.18282
-0.0473497 -0.205637 1.18218
-0.0457288 -0.205458 1.18133
-0.0441029 -0.205258 1.1803
-0.0424845 -0.205068 1.17935
-0.0408793 -0.204904 1.17863
-0.0393098 -0.204832 1.17869
-0.037747 -0.204778 1.17892
-0.036177 -0.204705 1.17898
-0.0346072 -0.204632 1.17904
-0.0330351 -0.20455 1.17903
-0.0314428 -0.204399 1.17841
-0.0298652 -0.204292 1.17817
-0.0283172 -0.204294 1.17889
-0.0267748 -0.204328 1.17988
-0.0252313 -0.204368 1.18094
-0.0236843 -0.204408 1.18198
-0.0221276 -0.204417 1.18276
-0.0205812 -0.204492 1.18411
-0.0190216 -0.204515 1.18502
-0.0174687 -0.204597 1.18645
-0.015914 -0.204697 1.18803
-0.0143533 -0.204791 1.18955
-0.0127696 -0.204728 1.18971
-0.0111897 -0.204705 1.19022
-0.118925 -0.205086 1.1587
-0.117248 -0.204893 1.15773
-0.115532 -0.204658 1.15642
-0.113826 -0.204431 1.15516
-0.11217 -0.204247 1.15426
-0.110511 -0.204057 1.15331
-0.108868 -0.203879 1.15247
-0.107282 -0.203755 1.15208
-0.105688 -0.203621 1.15161
-0.104083 -0.203474 1.15103
-0.102467 -0.203314 1.15033
-0.100834 -0.203134 1.14946
-0.099215 -0.202964 1.14868
-0.0975902 -0.202786 1.14782
-0.0959765 -0.202617 1.14704
-0.0943744 -0.202457 1.14634
-0.0928046 -0.202331 1.14593
-0.0912403 -0.202211 1.14556
-0.0897132 -0.202132 1.14555
-0.0881953 -0.202064 1.14563
-0.0866774 -0.201995 1.14571
-0.0851759 -0.201946 1.14596
-0.0836751 -0.2019 1.14623
-0.0821745 -0.201855 1.14651
-0.0806726 -0.201808 1.14678
-0.0791686 -0.20176 1.14703
-0.0776491 -0.201692 1.14711
-0.0761296 -0.201623 1.14719
-0.0747103 -0.201696 1.14849
-0.0734082 -0.201943 1.15129
-0.072532 -0.204467 1.16052
-0.0721122 -0.202211 1.15429
-0.068375 -0.203341 1.16611
-0.0669944 -0.203543 1.16855
-0.065679 -0.203863 1.17202
-0.064262 -0.204032 1.17418
-0.0628735 -0.204261 1.17687
-0.0614897 -0.204514 1.17976
-0.0600368 -0.204659 1.18172
-0.0585206 -0.204699 1.18277
-0.0570095 -0.204754 1.18395
-0.0554552 -0.204731 1.18445
-0.0538816 -0.204672 1.18465
-0.0523058 -0.204611 1.18481
-0.0507194 -0.204526 1.18477
-0.0491249 -0.204423 1.18458
-0.0475207 -0.204296 1.18417
-0.045903 -0.204133 1.18346
-0.0442758 -0.203942 1.18248
-0.0426476 -0.203739 1.1814
-0.041033 -0.203561 1.18055
-0.0394678 -0.203509 1.18079
-0.0379058 -0.203468 1.18113
-0.0363439 -0.203429 1.1815
-0.0347807 -0.203389 1.18186
-0.0332182 -0.203354 1.18226
-0.0316276 -0.203229 1.18186
-0.030064 -0.203193 1.18225
-0.0285273 -0.203262 1.18357
-0.0269956 -0.203368 1.18521
-0.0254599 -0.203477 1.1869
-0.0239156 -0.203573 1.18846
-0.0223518 -0.203598 1.18939
-0.0207941 -0.20367 1.19074
-0.0192203 -0.203674 1.1915
-0.0176477 -0.203699 1.19244
-0.0160765 -0.203755 1.19366
-0.0145009 -0.203804 1.19481
-0.0129013 -0.203682 1.19446
-0.0113084 -0.203611 1.19455
-0.0096775 -0.205466 1.19762
-0.115624 -0.203142 1.15654
-0.11392 -0.202919 1.1553
-0.112269 -0.202741 1.15445
-0.110626 -0.202568 1.15364
-0.109001 -0.20241 1.15295
-0.107425 -0.202298 1.15266
-0.105829 -0.202164 1.15219
-0.104232 -0.202028 1.15168
-0.102613 -0.201867 1.15097
-0.100968 -0.201677 1.15
-0.0993274 -0.201488 1.14903
-0.0976999 -0.201309 1.14816
-0.0960672 -0.201121 1.1472
-0.0944555 -0.200953 1.14642
-0.0928767 -0.200818 1.14592
-0.091312 -0.200697 1.14555
-0.0897771 -0.20061 1.14546
-0.0882592 -0.200542 1.14554
-0.0867412 -0.200473 1.14562
-0.0852312 -0.200414 1.14578
-0.0837214 -0.200356 1.14595
-0.0822116 -0.200298 1.14612
-0.0807013 -0.20024 1.14629
-0.07919 -0.200182 1.14646
-0.0776714 -0.200114 1.14654
-0.0761527 -0.200045 1.14661
-0.074634 -0.199977 1.14669
-0.0732211 -0.200058 1.14808
-0.0718182 -0.200159 1.14966
-0.0709139 -0.20264 1.15867
-0.0705155 -0.200416 1.15259
-0.0678952 -0.200949 1.15865
-0.0665458 -0.201176 1.16134
-0.0652917 -0.20157 1.16551
-0.0639565 -0.201853 1.1687
-0.0626289 -0.202166 1.17215
-0.0612899 -0.202478 1.17561
-0.0598658 -0.202659 1.17791
-0.0583445 -0.202676 1.17877
-0.0568991 -0.20284 1.18093
-0.0554182 -0.202948 1.1826
-0.0539203 -0.203034 1.18407
-0.0524038 -0.203091 1.18528
-0.0508784 -0.203135 1.1864
-0.0492824 -0.203036 1.18623
-0.0476554 -0.202866 1.18543
-0.0460132 -0.202653 1.18426
-0.0443692 -0.202427 1.18296
-0.0427177 -0.202171 1.18139
-0.0410972 -0.20198 1.18041
-0.0395521 -0.201981 1.18113
-0.0380099 -0.201996 1.18198
-0.0364704 -0.202027 1.18297
-0.0349327 -0.202072 1.18409
-0.0333778 -0.202072 1.18481
-0.0318033 -0.202016 1.18503
-0.030256 -0.202055 1.1861
-0.0287332 -0.202196 1.18809
-0.027213 -0.202374 1.1904
-0.025683 -0.202541 1.19263
-0.024137 -0.202668 1.1945
-0.0225679 -0.202714 1.19564
-0.0210041 -0.202805 1.19719
-0.0194195 -0.202809 1.19796
-0.0178292 -0.202791 1.19854
-0.0162408 -0.202799 1.19934
-0.0146538 -0.202833 1.20038
-0.0130396 -0.202669 1.19963
-0.0114341 -0.202563 1.19941
-0.114026 -0.201416 1.15554
-0.112379 -0.201245 1.15473
-0.110754 -0.201091 1.15407
-0.109145 -0.20095 1.15352
-0.10759 -0.20086 1.15342
-0.106006 -0.20074 1.15306
-0.104395 -0.200593 1.15246
-0.102764 -0.200423 1.15165
-0.101106 -0.200223 1.15057
-0.0994449 -0.200015 1.14943
-0.0977961 -0.199816 1.14837
-0.096152 -0.199619 1.14731
-0.0945302 -0.199441 1.14643
-0.0929415 -0.199297 1.14584
-0.0913765 -0.199176 1.14546
-0.089841 -0.199088 1.14537
-0.0883231 -0.19902 1.14545
-0.0868051 -0.198951 1.14553
-0.0852872 -0.198883 1.14561
-0.0837693 -0.198815 1.14569
-0.0822513 -0.198746 1.14577
-0.0807333 -0.198678 1.14585
-0.0792154 -0.198609 1.14592
-0.0776975 -0.198541 1.146
-0.0761795 -0.198473 1.14608
-0.0746616 -0.198404 1.14616
-0.0731437 -0.198336 1.14624
-0.0716395 -0.198287 1.14649
-0.0702368 -0.198386 1.14807
-0.0692112 -0.200684 1.15563
-0.0688372 -0.198497 1.14975
-0.0674348 -0.198612 1.15146
-0.0661291 -0.198884 1.15459
-0.0649252 -0.199334 1.1593
-0.0636422 -0.19968 1.1631
-0.0623762 -0.200074 1.16733
-0.0610805 -0.200441 1.17132
-0.0596662 -0.200622 1.17366
-0.0581321 -0.200603 1.1742
-0.0566752 -0.200728 1.17604
-0.0551923 -0.200815 1.17754
-0.0537124 -0.200916 1.17917
-0.0522163 -0.200997 1.18061
-0.0507183 -0.201081 1.1821
-0.0491857 -0.201102 1.18301
-0.0476211 -0.20106 1.18334
-0.0460165 -0.200927 1.18287
-0.0444014 -0.200766 1.18214
-0.0427634 -0.200543 1.18085
-0.0411525 -0.200377 1.18007
-0.0396181 -0.200403 1.18103
-0.0380946 -0.200469 1.18235
-0.0365751 -0.200556 1.18387
-0.0350651 -0.200686 1.18577
-0.0335155 -0.200712 1.18674
-0.0319586 -0.200722 1.18757
-0.0304261 -0.200825 1.18924
-0.028918 -0.201038 1.19189
-0.0274068 -0.201268 1.19474
-0.0258853 -0.201495 1.19755
-0.0243403 -0.201659 1.19979
-0.0227694 -0.201738 1.20124
-0.021177 -0.201729 1.20191
-0.0195745 -0.201678 1.20219
-0.0179679 -0.201607 1.20229
-0.0163664 -0.201569 1.20268
-0.0147689 -0.201565 1.2034
-0.0131592 -0.201482 1.20339
-0.0115502 -0.201403 1.2034
-0.112463 -0.199722 1.15479
-0.110876 -0.199606 1.15445
-0.10929 -0.199489 1.15411
-0.107755 -0.19942 1.15418
-0.106186 -0.199316 1.15396
-0.104584 -0.199182 1.15345
-0.102941 -0.199002 1.15255
-0.10128 -0.198802 1.15146
-0.0996037 -0.198583 1.1502
-0.0979342 -0.198365 1.14896
-0.0962772 -0.198157 1.1478
-0.0946527 -0.19798 1.1469
-0.0930523 -0.197825 1.14621
-0.0914858 -0.197704 1.14582
-0.0899403 -0.197607 1.14564
-0.0884129 -0.197528 1.14563
-0.0868856 -0.197449 1.14561
-0.0853589 -0.19737 1.1456
-0.0838331 -0.197294 1.1456
-0.0823151 -0.197225 1.14568
-0.0807971 -0.197157 1.14576
-0.0792792 -0.197088 1.14583
-0.0777613 -0.19702 1.14591
-0.0762433 -0.196952 1.14599
-0.0747254 -0.196883 1.14607
-0.0732142 -0.196823 1.14624
-0.0717178 -0.196786 1.14659
-0.0702223 -0.19675 1.14696
-0.0687271 -0.196717 1.14736
-0.0672352 -0.196689 1.14781
-0.0658547 -0.196834 1.14982
-0.0645902 -0.197168 1.15356
-0.0633439 -0.197551 1.15774
-0.0621029 -0.197964 1.16221
-0.0608203 -0.198332 1.16627
-0.0594094 -0.198502 1.16853
-0.0578669 -0.198453 1.1688
-0.0564006 -0.198542 1.17033
-0.0549229 -0.198619 1.17176
-0.0534737 -0.198759 1.17376
-0.0519975 -0.198858 1.17539
-0.0505256 -0.198976 1.1772
-0.0490073 -0.199009 1.17823
-0.0474576 -0.198982 1.1787
-0.0458956 -0.198929 1.17895
-0.0443222 -0.19885 1.17896
-0.0427113 -0.198683 1.17815
-0.0411284 -0.198576 1.17791
-0.0396308 -0.198689 1.17967
-0.0381301 -0.198806 1.18149
-0.0366334 -0.198952 1.18357
-0.0351549 -0.19917 1.18631
-0.0336338 -0.199284 1.1881
-0.0320916 -0.199348 1.18944
-0.030568 -0.19949 1.19149
-0.0290462 -0.199661 1.19381
-0.0275131 -0.199818 1.19601
-0.0259717 -0.199968 1.19816
-0.0244077 -0.200052 1.19969
-0.0228244 -0.20007 1.20061
-0.0212375 -0.200085 1.2015
-0.0196442 -0.200078 1.2022
-0.0180475 -0.200066 1.20283
-0.0164558 -0.200095 1.20387
-0.0148657 -0.200158 1.20521
-0.0132639 -0.200162 1.20601
-0.0116591 -0.20016 1.20675
-0.109437 -0.198027 1.1547
-0.10793 -0.197985 1.15503
-0.106389 -0.197911 1.15506
-0.104788 -0.197778 1.15457
-0.10315 -0.197608 1.15374
-0.101484 -0.197408 1.15263
-0.0997845 -0.197169 1.15118
-0.0980917 -0.196932 1.14974
-0.0964224 -0.196716 1.14847
-0.0947868 -0.196528 1.14748
-0.0931754 -0.196365 1.14669
-0.0916072 -0.196244 1.1463
-0.0900434 -0.196128 1.14594
-0.0885057 -0.196038 1.14583
-0.0869678 -0.195948 1.14571
-0.0854312 -0.195859 1.1456
-0.0838969 -0.195772 1.14551
-0.0823789 -0.195703 1.14559
-0.0808609 -0.195635 1.14566
-0.0793431 -0.195566 1.14574
-0.0778252 -0.195498 1.14582
-0.0763142 -0.195439 1.14599
-0.0748036 -0.195381 1.14616
-0.073307 -0.19534 1.1465
-0.0718183 -0.195314 1.14696
-0.0703299 -0.195288 1.14744
-0.0688343 -0.195255 1.14784
-0.0673482 -0.195236 1.14838
-0.0658938 -0.195268 1.14938
-0.0645534 -0.195479 1.15204
-0.0632431 -0.195752 1.15526
-0.061931 -0.196036 1.15861
-0.0605711 -0.196261 1.16139
-0.05916 -0.196413 1.16352
-0.0576116 -0.196338 1.16356
-0.0561269 -0.196378 1.16465
-0.0546473 -0.196432 1.16588
-0.0532066 -0.196567 1.16786
-0.0517391 -0.196661 1.16947
-0.0502834 -0.19679 1.1714
-0.0487755 -0.196823 1.17244
-0.0472347 -0.196793 1.1729
-0.0426332 -0.196771 1.1749
-0.0410899 -0.19675 1.17544
-0.0396276 -0.196938 1.17794
-0.0381455 -0.197095 1.18015
-0.0366507 -0.197236 1.18221
-0.0351905 -0.197495 1.18538
-0.0336788 -0.19763 1.1874
-0.0321413 -0.197704 1.18884
-0.0306101 -0.197814 1.19063
-0.029091 -0.197986 1.19299
-0.0275502 -0.198105 1.19487
-0.0260099 -0.19825 1.19699
-0.0244427 -0.19831 1.19832
-0.0228667 -0.198349 1.19946
-0.0212869 -0.198388 1.20058
-0.0197036 -0.198426 1.20171
-0.0181159 -0.198458 1.20278
-0.0165332 -0.198542 1.20434
-0.0149491 -0.19865 1.20613
-0.0133516 -0.198697 1.20735
-0.0117482 -0.198728 1.20842
-0.108065 -0.196511 1.15553
-0.10656 -0.196471 1.15589
-0.10498 -0.196362 1.1556
-0.103346 -0.196198 1.15481
-0.101689 -0.19601 1.1538
-0.0999936 -0.19578 1.15241
-0.0982774 -0.195525 1.15077
-0.0965878 -0.195291 1.14933
-0.0949407 -0.195096 1.14825
-0.0933193 -0.194925 1.14738
-0.0917405 -0.194796 1.1469
-0.0901576 -0.194659 1.14636
-0.0886006 -0.19455 1.14606
-0.0870506 -0.194448 1.14582
-0.0855038 -0.194347 1.1456
-0.0839608 -0.19425 1.14542
-0.0824428 -0.194181 1.1455
-0.0809248 -0.194113 1.14557
-0.0794069 -0.194045 1.14565
-0.077889 -0.193976 1.14573
-0.0763856 -0.193927 1.14599
-0.0748832 -0.193878 1.14626
-0.0734024 -0.19386 1.1468
-0.0719215 -0.193843 1.14736
-0.0704395 -0.193828 1.14793
-0.0689409 -0.193792 1.14831
-0.0674591 -0.19378 1.14892
-0.0660112 -0.19382 1.15003
-0.0645975 -0.193919 1.15167
-0.063215 -0.194073 1.15383
-0.0618237 -0.194223 1.15597
-0.0603795 -0.194299 1.15741
-0.0588892 -0.194304 1.1582
-0.0573435 -0.194221 1.15814
-0.0558466 -0.194223 1.15888
-0.0543689 -0.194261 1.15998
-0.0529344 -0.194387 1.16189
-0.0514768 -0.194479 1.1635
-0.0500329 -0.194609 1.16546
-0.0485388 -0.194648 1.16658
-0.0470069 -0.194616 1.16702
-0.0455157 -0.194675 1.16832
-0.0440383 -0.194774 1.16999
-0.0425116 -0.19477 1.1707
-0.040998 -0.194803 1.17176
-0.0395508 -0.19501 1.17447
-0.0380703 -0.195153 1.17657
-0.0365896 -0.195313 1.17884
-0.0351523 -0.195615 1.18248
-0.0336641 -0.195803 1.18502
-0.0321555 -0.195952 1.1872
-0.0306389 -0.196098 1.18935
-0.0291242 -0.196274 1.19179
-0.0275819 -0.196377 1.19355
-0.0260458 -0.196526 1.19574
-0.0244791 -0.196578 1.19701
-0.0229107 -0.19664 1.19838
-0.0213396 -0.196709 1.19981
-0.019766 -0.196789 1.20135
-0.0181848 -0.196852 1.20275
-0.0166079 -0.196969 1.20464
-0.0150283 -0.197108 1.20676
-0.0134339 -0.197188 1.20831
-0.0118317 -0.19724 1.2096
-0.106733 -0.195031 1.15673
-0.10517 -0.194939 1.1566
-0.103548 -0.194789 1.15594
-0.101878 -0.194592 1.15482
-0.100185 -0.19437 1.15347
-0.0984646 -0.194115 1.15182
-0.0967525 -0.193863 1.15019
-0.0950783 -0.193644 1.14886
-0.0934542 -0.193472 1.14798
-0.0918641 -0.193334 1.1474
-0.0902699 -0.193188 1.14675
-0.0886933 -0.193058 1.14626
-0.0871327 -0.192945 1.14592
-0.0855763 -0.192834 1.1456
-0.0840246 -0.192729 1.14533
-0.0825066 -0.19266 1.1454
-0.0809886 -0.192592 1.14548
-0.0794707 -0.192524 1.14556
-0.0779528 -0.192455 1.14564
-0.0764574 -0.192415 1.14599
-0.0749635 -0.192377 1.14636
-0.0734857 -0.192362 1.14695
-0.0720052 -0.192347 1.14752
-0.0705153 -0.192319 1.148
-0.069007 -0.192269 1.14825
-0.0675241 -0.192255 1.14885
-0.0660878 -0.192311 1.15011
-0.0646625 -0.19239 1.15159
-0.0632715 -0.192526 1.15363
-0.0618594 -0.192641 1.15545
-0.0604016 -0.192691 1.15667
-0.0588965 -0.192671 1.15721
-0.0573649 -0.192608 1.15736
-0.0558068 -0.192501 1.15707
-0.0542703 -0.192429 1.15713
-0.0527721 -0.192427 1.15785
-0.0512668 -0.192415 1.15848
-0.0497841 -0.19245 1.15957
-0.0483092 -0.192508 1.16086
-0.0468244 -0.192554 1.16205
-0.0453842 -0.192702 1.16421
-0.0439513 -0.19288 1.16668
-0.0424719 -0.192971 1.16831
-0.0409781 -0.19304 1.16973
-0.0395273 -0.193226 1.17227
-0.038039 -0.193336 1.17409
-0.0365487 -0.193456 1.17601
-0.0351057 -0.193724 1.17936
-0.0336329 -0.193936 1.18219
-0.0321347 -0.194099 1.18453
-0.0306295 -0.194263 1.1869
-0.0291277 -0.194465 1.18963
-0.0275891 -0.194567 1.19139
-0.026057 -0.194714 1.19359
-0.0244963 -0.194774 1.19496
-0.0229362 -0.194855 1.19653
-0.0213685 -0.194924 1.19799
-0.019804 -0.195032 1.19982
-0.0182347 -0.195144 1.20171
-0.0166682 -0.195311 1.20412
-0.0150933 -0.195471 1.20648
-0.0135049 -0.195588 1.20842
-0.0119047 -0.195658 1.2099
-0.103736 -0.193364 1.15694
-0.102066 -0.19317 1.15584
-0.100377 -0.192955 1.15454
-0.0986629 -0.192712 1.15296
-0.0969277 -0.192442 1.15114
-0.0952397 -0.192214 1.1497
-0.0936141 -0.192043 1.14881
-0.0920113 -0.191894 1.14813
-0.0904053 -0.191739 1.14738
-0.0888093 -0.19159 1.1467
-0.0872304 -0.191459 1.14618
-0.0856565 -0.191331 1.14569
-0.0840963 -0.191215 1.14532
-0.0825705 -0.191138 1.14531
-0.0810525 -0.19107 1.14539
-0.0795346 -0.191002 1.14547
-0.0780167 -0.190933 1.14555
-0.0765218 -0.190893 1.1459
-0.0750356 -0.190865 1.14637
-0.073565 -0.190859 1.14705
-0.0720847 -0.190843 1.14763
-0.0705933 -0.190813 1.14809
-0.0690833 -0.19076 1.14832
-0.0675993 -0.190744 1.14891
-0.0661447 -0.190773 1.14992
-0.064706 -0.190829 1.15121
-0.063295 -0.190932 1.15295
-0.0618634 -0.191011 1.15446
-0.0603951 -0.191042 1.1555
-0.0588978 -0.19103 1.15614
-0.0573813 -0.190989 1.1565
-0.0558417 -0.190911 1.15649
-0.054323 -0.190869 1.15683
-0.0528203 -0.190857 1.15747
-0.0513094 -0.190834 1.15799
-0.0498211 -0.190856 1.15896
-0.048348 -0.190913 1.16028
-0.0468633 -0.190955 1.16144
-0.045407 -0.191064 1.16326
-0.0439599 -0.191204 1.1654
-0.04247 -0.191265 1.16675
-0.0409596 -0.191287 1.16774
-0.0394993 -0.191438 1.16997
-0.0380008 -0.19151 1.17145
-0.0364991 -0.191585 1.17296
-0.0350467 -0.191809 1.17593
-0.0335817 -0.192022 1.1788
-0.0320878 -0.192178 1.18111
-0.0305977 -0.192369 1.18377
-0.0291049 -0.192579 1.18662
-0.0275776 -0.192698 1.18859
-0.0260554 -0.192862 1.19099
-0.0245034 -0.192938 1.19253
-0.0229447 -0.193005 1.19399
-0.0213808 -0.19307 1.19543
-0.0198206 -0.193176 1.19727
-0.0182631 -0.193326 1.19955
-0.0167078 -0.193533 1.2024
-0.0151423 -0.193731 1.20517
-0.013563 -0.193895 1.20761
-0.0119684 -0.193998 1.20945
-0.102235 -0.191726 1.15668
-0.100548 -0.191517 1.15542
-0.0988431 -0.191286 1.15394
-0.0970931 -0.191007 1.15199
-0.095384 -0.190762 1.15037
-0.0937563 -0.190593 1.14948
-0.0921335 -0.190426 1.14861
-0.0905164 -0.190261 1.14776
-0.0889099 -0.190105 1.14699
-0.0873299 -0.189974 1.14646
-0.0857471 -0.189837 1.14588
-0.0841855 -0.189721 1.1455
-0.0826502 -0.189635 1.1454
-0.081124 -0.189556 1.14539
-0.0795984 -0.18948 1.14538
-0.0780805 -0.189411 1.14546
-0.0765852 -0.18937 1.14581
-0.0750987 -0.189341 1.14627
-0.073627 -0.189332 1.14693
-0.0721462 -0.189314 1.14751
-0.0706534 -0.189283 1.14795
-0.0691452 -0.189232 1.1482
-0.0676551 -0.189207 1.1487
-0.0661885 -0.189217 1.14955
-0.0647365 -0.189251 1.15064
-0.0633121 -0.18933 1.15217
-0.0618684 -0.189388 1.1535
-0.0604012 -0.189415 1.15453
-0.058906 -0.189403 1.15517
-0.0573978 -0.189374 1.15564
-0.0558661 -0.189307 1.15574
-0.0543544 -0.189275 1.15618
-0.0528471 -0.189252 1.15672
-0.0513355 -0.189224 1.15722
-0.0498474 -0.189243 1.15816
-0.0483707 -0.189289 1.15938
-0.0468878 -0.189329 1.16056
-0.0454232 -0.189416 1.16218
-0.0439721 -0.18954 1.16419
-0.0424819 -0.189594 1.1655
-0.0409775 -0.189624 1.16657
-0.039501 -0.189728 1.16838
-0.0379963 -0.189776 1.16964
-0.0364844 -0.189816 1.17082
-0.0350198 -0.189992 1.17336
-0.0335381 -0.190143 1.17565
-0.0320455 -0.190283 1.17784
-0.0305663 -0.190486 1.18066
-0.0290845 -0.19071 1.18369
-0.0275664 -0.190843 1.18582
-0.0260545 -0.191023 1.18843
-0.0245108 -0.191112 1.19012
-0.0229523 -0.191162 1.19143
-0.0213878 -0.191204 1.19265
-0.0198303 -0.191297 1.19439
-0.0182814 -0.191463 1.19688
-0.0167366 -0.191698 1.20006
-0.0151805 -0.191928 1.20319
-0.0136105 -0.192131 1.20605
-0.0120234 -0.19227 1.20829
-0.0104366 -0.194753 1.21777
-0.010416 -0.192288 1.20929
-0.102355 -0.190234 1.15709
-0.100669 -0.19003 1.15584
-0.0989688 -0.189807 1.15442
-0.0972253 -0.189538 1.15254
-0.0955296 -0.18931 1.15106
-0.0939 -0.189142 1.15016
-0.0922674 -0.188967 1.1492
-0.0906562 -0.188811 1.14843
-0.0890389 -0.188647 1.14756
-0.0874504 -0.188509 1.14695
-0.085865 -0.188371 1.14636
-0.0842933 -0.188247 1.14588
-0.0827399 -0.188141 1.14559
-0.0812039 -0.188053 1.14548
-0.0796697 -0.187967 1.14538
-0.0781444 -0.187889 1.14537
-0.076641 -0.187839 1.14562
-0.0751464 -0.187799 1.14599
-0.073666 -0.187777 1.14654
-0.0721859 -0.187759 1.14711
-0.0706956 -0.187729 1.14758
-0.0691955 -0.187689 1.14793
-0.0677069 -0.187664 1.14845
-0.0662265 -0.187653 1.1491
-0.0647603 -0.187664 1.14998
-0.0633162 -0.187712 1.15122
-0.0618618 -0.187748 1.15236
-0.0603962 -0.187774 1.15339
-0.0589094 -0.187772 1.15413
-0.0574089 -0.187752 1.1547
-0.0558895 -0.187703 1.15498
-0.0543841 -0.187679 1.15551
-0.0528731 -0.187646 1.15596
-0.0513619 -0.187618 1.15644
-0.0498737 -0.187632 1.15737
-0.0483931 -0.187666 1.15849
-0.0469115 -0.187705 1.15966
-0.0454403 -0.187772 1.16112
-0.0439814 -0.187875 1.16293
-0.0424931 -0.187926 1.16423
-0.0409953 -0.187964 1.16541
-0.039503 -0.188024 1.1668
-0.0379933 -0.188053 1.16788
-0.0364851 -0.188093 1.16908
-0.035008 -0.188224 1.1712
-0.0335155 -0.188332 1.1731
-0.0320238 -0.188459 1.17518
-0.0305523 -0.188667 1.1781
-0.0290716 -0.188876 1.18103
-0.0275646 -0.189028 1.18339
-0.0260573 -0.189206 1.18601
-0.02452 -0.189301 1.1878
-0.0229644 -0.189346 1.18906
-0.0214009 -0.189372 1.19015
-0.0198409 -0.189432 1.19158
-0.0182966 -0.189594 1.19406
-0.0167597 -0.189843 1.19743
-0.0152108 -0.190084 1.20072
-0.0136499 -0.190317 1.20394
-0.012073 -0.190505 1.20671
-0.0104727 -0.190563 1.20814
-0.00886548 -0.192965 1.21697
-0.00886053 -0.190542 1.20876
-0.102449 -0.188717 1.15726
-0.100739 -0.188493 1.1558
-0.0990547 -0.188288 1.15452
-0.0973253 -0.188036 1.15278
-0.0956469 -0.187827 1.15147
-0.0940358 -0.187679 1.15076
-0.0924017 -0.187507 1.1498
-0.0907977 -0.187361 1.14911
-0.0891869 -0.187206 1.14832
-0.0875972 -0.187069 1.14772
-0.0860037 -0.186926 1.14705
-0.0844213 -0.186792 1.14648
-0.0828475 -0.186666 1.14598
-0.0812926 -0.186558 1.14566
-0.0797488 -0.186462 1.14546
-0.078216 -0.186377 1.14537
-0.0767052 -0.186317 1.14554
-0.0752017 -0.186266 1.14579
-0.0737064 -0.186226 1.14616
-0.0722121 -0.186189 1.14655
-0.0707176 -0.186151 1.14695
-0.0692199 -0.186112 1.14732
-0.0677324 -0.186087 1.14784
-0.0662509 -0.186072 1.14847
-0.0647769 -0.186071 1.14922
-0.0633261 -0.186105 1.15035
-0.0618663 -0.18613 1.15139
-0.060403 -0.186155 1.15242
-0.0589242 -0.186162 1.15327
-0.0574301 -0.186148 1.15392
-0.0559173 -0.186108 1.15429
-0.0544129 -0.186083 1.15482
-0.052898 -0.186043 1.15519
-0.0513885 -0.186013 1.15567
-0.0498968 -0.186019 1.15651
-0.048413 -0.186043 1.15755
-0.0469366 -0.186087 1.15879
-0.0454665 -0.186151 1.16025
-0.0440056 -0.186243 1.16199
-0.0425232 -0.186301 1.16338
-0.0410311 -0.186348 1.16466
-0.0395446 -0.186416 1.16616
-0.0380429 -0.18646 1.1674
-0.0365319 -0.186489 1.16851
-0.0350407 -0.186579 1.17024
-0.0335343 -0.186642 1.1717
-0.0320238 -0.186706 1.17317
-0.0305393 -0.186861 1.17559
-0.029056 -0.187043 1.17829
-0.0275564 -0.187201 1.18074
-0.0260542 -0.187377 1.18338
-0.0245236 -0.187479 1.18526
-0.0229718 -0.187521 1.18652
-0.0214121 -0.187545 1.18759
-0.019852 -0.187582 1.18881
-0.0183093 -0.187726 1.19113
-0.0167783 -0.187973 1.19455
-0.0152371 -0.188226 1.19803
-0.013687 -0.188495 1.20168
-0.0121209 -0.188734 1.20502
-0.0105303 -0.18885 1.20708
-0.00892455 -0.188878 1.20822
-0.00724329 -0.190478 1.20893
-0.00731047 -0.188844 1.20871
-0.00566983 -0.191161 1.21681
-0.0056923 -0.188766 1.20874
-0.099113 -0.186743 1.15437
-0.0974267 -0.186534 1.15304
-0.095785 -0.186363 1.15208
-0.0941873 -0.186231 1.15152
-0.0925619 -0.18607 1.15066
-0.0909563 -0.185924 1.14996
-0.0893453 -0.185772 1.14919
-0.0877545 -0.185637 1.14859
-0.086151 -0.185487 1.14784
-0.0845498 -0.185336 1.14708
-0.0829572 -0.185191 1.14639
-0.0813822 -0.185063 1.14586
-0.0798215 -0.18495 1.14547
-0.078288 -0.184864 1.14537
-0.0767707 -0.184797 1.14547
-0.0752591 -0.184736 1.14563
-0.073762 -0.184693 1.14597
-0.0722591 -0.184645 1.14625
-0.070758 -0.184598 1.14656
-0.0692605 -0.184558 1.14692
-0.0677671 -0.184524 1.14736
-0.0662731 -0.184491 1.1478
-0.0647923 -0.184477 1.14845
-0.0633294 -0.184491 1.14938
-0.0618713 -0.184516 1.15042
-0.0604151 -0.184548 1.15155
-0.0589446 -0.184564 1.1525
-0.0574581 -0.184558 1.15325
-0.0559516 -0.184526 1.1537
-0.0544479 -0.1845 1.15423
-0.052929 -0.184451 1.15452
-0.0514204 -0.184421 1.155
-0.0499251 -0.184417 1.15576
-0.0484423 -0.184439 1.15679
-0.0469675 -0.184482 1.15804
-0.0455028 -0.184553 1.15958
-0.0440429 -0.184642 1.16132
-0.0425656 -0.184705 1.1628
-0.0410739 -0.184749 1.16406
-0.0395888 -0.184816 1.16557
-0.0380884 -0.184859 1.16683
-0.0365783 -0.184887 1.16794
-0.0350775 -0.184946 1.16939
-0.033565 -0.184987 1.17064
-0.0320428 -0.185012 1.17172
-0.0305507 -0.185135 1.17383
-0.0290612 -0.185285 1.17624
-0.0275638 -0.185435 1.17864
-0.0260649 -0.185605 1.18128
-0.0245453 -0.185733 1.18345
-0.0229975 -0.185775 1.18474
-0.021443 -0.185808 1.18592
-0.0198832 -0.185833 1.18702
-0.018337 -0.18594 1.189
-0.0168016 -0.18614 1.19197
-0.0152636 -0.186381 1.19537
-0.0137195 -0.186654 1.19913
-0.0121633 -0.186928 1.2029
-0.0105835 -0.187104 1.20563
-0.00898687 -0.1872 1.20751
-0.00737655 -0.187198 1.20836
-0.00576055 -0.187147 1.20867
-0.0975099 -0.185015 1.15312
-0.0958981 -0.184874 1.15245
-0.0943118 -0.184753 1.152
-0.0926951 -0.184603 1.15124
-0.0910978 -0.184469 1.15064
-0.0894859 -0.184318 1.14987
-0.0879024 -0.184192 1.14937
-0.0863057 -0.184052 1.1487
-0.0846938 -0.183893 1.14785
-0.0830892 -0.183739 1.14704
-0.0815031 -0.183601 1.1464
-0.0799324 -0.183478 1.14591
-0.0783909 -0.183386 1.14574
-0.0768669 -0.183311 1.14576
-0.0753397 -0.183234 1.14574
-0.0738261 -0.183171 1.14588
-0.072307 -0.183103 1.14595
-0.0707901 -0.183036 1.14606
-0.0692857 -0.182986 1.14633
-0.0677865 -0.182943 1.14667
-0.0662871 -0.182902 1.14703
-0.0648017 -0.182879 1.1476
-0.063334 -0.182883 1.14844
-0.0618766 -0.182904 1.14947
-0.0604232 -0.182936 1.15061
-0.0589544 -0.182951 1.15157
-0.0574759 -0.182956 1.15242
-0.0559767 -0.182931 1.15297
-0.0544746 -0.182906 1.15351
-0.0529612 -0.182864 1.15387
-0.0514573 -0.182839 1.15442
-0.0499623 -0.182833 1.15517
-0.0484765 -0.182846 1.15612
-0.0470025 -0.182887 1.15737
-0.0455393 -0.182955 1.15892
-0.044076 -0.183034 1.16056
-0.0426031 -0.183102 1.16211
-0.0411161 -0.183152 1.16346
-0.0396318 -0.183215 1.16497
-0.038133 -0.183257 1.16624
-0.0366277 -0.183292 1.16744
-0.0351208 -0.183334 1.16871
-0.0336123 -0.18338 1.17004
-0.0320878 -0.183395 1.17103
-0.0305906 -0.183495 1.17294
-0.0290959 -0.183623 1.17514
-0.0275961 -0.183755 1.17741
-0.0260938 -0.183903 1.17984
-0.0245771 -0.184028 1.18203
-0.0230368 -0.184089 1.18353
-0.0214891 -0.184139 1.18492
-0.0199331 -0.184172 1.18613
-0.0183827 -0.184249 1.18782
-0.016843 -0.184411 1.19042
-0.0153031 -0.184621 1.19355
-0.0137591 -0.184868 1.19708
-0.012208 -0.185147 1.20097
-0.0106363 -0.185361 1.20416
-0.00904731 -0.185503 1.20659
-0.00744023 -0.185524 1.20769
-0.00582718 -0.185505 1.20835
-0.00418233 -0.187957 1.2182
-0.00420983 -0.185431 1.20843
-0.0975682 -0.183472 1.15297
-0.0959903 -0.183362 1.15262
-0.0944132 -0.183253 1.15227
-0.0928178 -0.183124 1.15172
-0.0912285 -0.183 1.15122
-0.0896171 -0.182851 1.15046
-0.0880403 -0.182735 1.15004
-0.0864497 -0.182603 1.14945
-0.0848362 -0.182446 1.1486
-0.0832307 -0.182294 1.14779
-0.0816431 -0.182157 1.14715
-0.0800625 -0.182026 1.14657
-0.0785117 -0.181925 1.1463
-0.0769777 -0.181841 1.14622
-0.0754363 -0.181748 1.14604
-0.0739059 -0.181667 1.14598
-0.0723704 -0.181579 1.14586
-0.0708374 -0.181494 1.14576
-0.0693258 -0.181434 1.14593
-0.0678269 -0.18139 1.14627
-0.0663286 -0.181349 1.14663
-0.0648429 -0.181325 1.14719
-0.0633698 -0.181319 1.14794
-0.0619068 -0.18133 1.14888
-0.0604487 -0.181353 1.14994
-0.058981 -0.181367 1.1509
-0.0575044 -0.181371 1.15176
-0.0560171 -0.181362 1.15249
-0.0545165 -0.181337 1.15304
-0.0530037 -0.181295 1.1534
-0.0515 -0.181269 1.15395
-0.0500049 -0.181259 1.15467
-0.0485148 -0.181263 1.15554
-0.0470417 -0.181302 1.15679
-0.0455751 -0.18136 1.15824
-0.0441084 -0.181426 1.15979
-0.0426322 -0.181484 1.16125
-0.0411463 -0.181529 1.16258
-0.0396635 -0.181592 1.16409
-0.03817 -0.181641 1.16546
-0.0366698 -0.181683 1.16677
-0.0351639 -0.181722 1.16803
-0.0336595 -0.181775 1.16945
-0.0321357 -0.181787 1.17043
-0.0306339 -0.181869 1.17217
-0.0291339 -0.181973 1.17416
-0.0276346 -0.182099 1.17638
-0.0261309 -0.182232 1.1787
-0.0246162 -0.182354 1.18089
-0.0230826 -0.182431 1.1826
-0.0215434 -0.182507 1.1843
-0.0199908 -0.182549 1.18562
-0.0184379 -0.182607 1.18714
-0.0168921 -0.182728 1.18933
-0.0153485 -0.182901 1.1921
-0.0138018 -0.183109 1.19527
-0.0122501 -0.183356 1.19888
-0.0106832 -0.183574 1.20218
-0.00910143 -0.183753 1.20503
-0.00749931 -0.183799 1.20644
-0.00588889 -0.183789 1.2072
-0.00427463 -0.183742 1.20759
-0.0976589 -0.181959 1.15313
-0.0960807 -0.18185 1.15278
-0.0945093 -0.181746 1.15249
-0.0929238 -0.181628 1.15204
-0.09134 -0.18151 1.15159
-0.0897362 -0.181372 1.15093
-0.0881686 -0.181266 1.15061
-0.0865855 -0.181143 1.15011
-0.0849801 -0.180997 1.14936
-0.0833831 -0.180856 1.14866
-0.0817951 -0.180722 1.14804
-0.0802126 -0.180592 1.14745
-0.0786517 -0.180482 1.14709
-0.077107 -0.180389 1.1469
-0.0755546 -0.180285 1.1466
-0.0740077 -0.180187 1.14636
-0.0724568 -0.180082 1.14605
-0.0709155 -0.179988 1.14585
-0.0693966 -0.179919 1.14593
-0.0678914 -0.179869 1.14619
-0.0663933 -0.179826 1.14655
-0.0649012 -0.179793 1.14702
-0.0634204 -0.179776 1.14766
-0.0619511 -0.179778 1.1485
-0.0604863 -0.179788 1.14945
-0.0590139 -0.179792 1.15032
-0.0575369 -0.179793 1.15117
-0.0560559 -0.179792 1.15199
-0.0545573 -0.179768 1.15256
-0.0530465 -0.179727 1.15294
-0.0515434 -0.179701 1.15349
-0.0500485 -0.17969 1.1542
-0.0485535 -0.179682 1.15496
-0.0470811 -0.179719 1.1562
-0.0456102 -0.179764 1.15756
-0.0441439 -0.179828 1.15909
-0.0426648 -0.179875 1.16046
-0.0411801 -0.179918 1.16179
-0.0396992 -0.17998 1.16332
-0.0382106 -0.180034 1.16477
-0.0367149 -0.180083 1.16617
-0.0352135 -0.180128 1.16752
-0.0337105 -0.18018 1.16896
-0.0321874 -0.180191 1.16994
-0.0306833 -0.180262 1.17159
-0.0291752 -0.180336 1.17328
-0.0276715 -0.18044 1.17531
-0.026166 -0.180559 1.1775
-0.0246534 -0.180678 1.17969
-0.0231245 -0.180763 1.18151
-0.0215916 -0.180854 1.18341
-0.0200467 -0.18092 1.18503
-0.0184951 -0.180978 1.18656
-0.016945 -0.181069 1.18846
-0.0153975 -0.181207 1.19089
-0.013849 -0.181386 1.1938
-0.0122946 -0.181591 1.19699
-0.0107295 -0.181792 1.20015
-0.00915287 -0.181981 1.20319
-0.00755515 -0.182042 1.20478
-0.00594748 -0.182031 1.20556
-0.00433669 -0.182003 1.20615
-0.0961746 -0.180339 1.15297
-0.0945883 -0.180223 1.15253
-0.093009 -0.180112 1.15215
-0.0914266 -0.179997 1.15173
-0.0898283 -0.179864 1.15112
-0.0882708 -0.179769 1.15091
-0.0867048 -0.179665 1.1506
-0.0851174 -0.179538 1.15005
-0.0835365 -0.179416 1.14955
-0.0819575 -0.179295 1.14904
-0.0803734 -0.179165 1.14846
-0.0788071 -0.179052 1.14805
-0.0772513 -0.178949 1.14775
-0.0756822 -0.17883 1.14727
-0.0741273 -0.178725 1.14695
-0.0725735 -0.178619 1.14662
-0.0710242 -0.178517 1.14633
-0.0694979 -0.178441 1.14632
-0.0679861 -0.178382 1.14651
-0.0664812 -0.178332 1.14679
-0.0649874 -0.178297 1.14724
-0.0634988 -0.178269 1.14778
-0.0620219 -0.17826 1.14851
-0.0605498 -0.17826 1.14935
-0.0590704 -0.178253 1.15011
-0.0575871 -0.178243 1.15085
-0.0561065 -0.178241 1.15168
-0.0546085 -0.178216 1.15225
-0.0531046 -0.178185 1.15275
-0.0516021 -0.178158 1.15329
-0.0501074 -0.178145 1.15401
-0.0486075 -0.178128 1.15467
-0.0471303 -0.178155 1.15582
-0.045655 -0.178189 1.15707
-0.0441889 -0.178249 1.15859
-0.0427097 -0.178292 1.15994
-0.0412304 -0.178343 1.16138
-0.0397504 -0.178403 1.16291
-0.0382666 -0.178464 1.16446
-0.036775 -0.178518 1.16594
-0.035271 -0.178555 1.16723
-0.0337684 -0.178604 1.16866
-0.0322458 -0.178614 1.16964
-0.0307389 -0.178673 1.17119
-0.0292252 -0.178727 1.17269
-0.0277188 -0.178817 1.17459
-0.0262092 -0.178917 1.17659
-0.0246979 -0.17903 1.17878
-0.0231709 -0.179114 1.18061
-0.0216419 -0.179211 1.18262
-0.0201026 -0.179292 1.18443
-0.0185537 -0.179357 1.18606
-0.0169994 -0.17942 1.18768
-0.015448 -0.179525 1.18979
-0.0138963 -0.179669 1.19234
-0.0123399 -0.179839 1.19519
-0.0107754 -0.180016 1.19813
-0.00920268 -0.180205 1.20121
-0.00760985 -0.180282 1.20301
-0.0060069 -0.180295 1.20409
-0.00439898 -0.180278 1.20482
-0.00278807 -0.180234 1.20523
-0.0946493 -0.178684 1.15241
-0.0930814 -0.178584 1.15214
-0.0915083 -0.178477 1.15181
-0.0899216 -0.178357 1.15132
-0.0883716 -0.17827 1.15119
-0.0868239 -0.178184 1.15108
-0.0852526 -0.178075 1.15072
-0.0836893 -0.177972 1.15042
-0.0821249 -0.177868 1.15009
-0.0805545 -0.177755 1.14969
-0.0789861 -0.177644 1.14928
-0.0774201 -0.177532 1.14889
-0.07584 -0.177404 1.1483
-0.0742761 -0.177292 1.14789
-0.0727144 -0.17718 1.14749
-0.0711567 -0.177072 1.14711
-0.0696217 -0.176987 1.14701
-0.0681075 -0.176927 1.14718
-0.0665879 -0.17686 1.14728
-0.0650866 -0.176816 1.14764
-0.0635908 -0.17678 1.14809
-0.0621064 -0.17676 1.14872
-0.0606218 -0.176742 1.14938
-0.0591411 -0.176733 1.15012
-0.0576517 -0.176713 1.15077
-0.0561708 -0.17671 1.15158
-0.0546728 -0.176684 1.15216
-0.0531689 -0.176652 1.15265
-0.0516664 -0.176625 1.1532
-0.0501718 -0.176611 1.15392
-0.0486674 -0.176585 1.1545
-0.0471857 -0.176601 1.15555
-0.0457099 -0.176633 1.15678
-0.04424 -0.176682 1.15822
-0.0427612 -0.176723 1.15956
-0.0412867 -0.17678 1.16109
-0.0398111 -0.176845 1.16272
-0.0383283 -0.176905 1.16429
-0.0368405 -0.176965 1.16586
-0.0353367 -0.177 1.16715
-0.033834 -0.177047 1.16857
-0.0323114 -0.177054 1.16955
-0.0308007 -0.177102 1.17099
-0.0292815 -0.177138 1.1723
-0.027772 -0.177214 1.17407
-0.0262599 -0.177299 1.17596
-0.0247448 -0.177394 1.17796
-0.0232172 -0.177467 1.17971
-0.0216897 -0.177561 1.18171
-0.0201517 -0.17764 1.18353
-0.0186043 -0.177701 1.18515
-0.0170515 -0.177761 1.18677
-0.0154995 -0.177853 1.18876
-0.0139476 -0.177982 1.19118
-0.0123901 -0.178127 1.19379
-0.0108259 -0.178282 1.19653
-0.00925494 -0.178457 1.19951
-0.007668 -0.178566 1.20171
-0.00606859 -0.178597 1.20302
-0.00446343 -0.1786 1.20398
-0.0915839 -0.176952 1.15183
-0.0900098 -0.176845 1.15147
-0.0884652 -0.176763 1.15141
-0.0869243 -0.176684 1.15137
-0.0853612 -0.176584 1.1511
-0.0838146 -0.176499 1.15099
-0.0822594 -0.176405 1.15078
-0.080697 -0.176302 1.15048
-0.0791347 -0.176199 1.15016
-0.0775745 -0.176097 1.14985
-0.0759939 -0.175971 1.14929
-0.0744281 -0.175859 1.14887
-0.0728635 -0.175747 1.14846
-0.071303 -0.175638 1.14807
-0.0697586 -0.175545 1.14787
-0.0682416 -0.175483 1.14802
-0.0667191 -0.175414 1.14811
-0.06521 -0.175362 1.14837
-0.0637069 -0.175318 1.14874
-0.062216 -0.175291 1.14929
-0.0607243 -0.175264 1.14986
-0.0592367 -0.175246 1.15052
-0.0577412 -0.175219 1.15108
-0.056254 -0.175205 1.1518
-0.0547502 -0.175171 1.15228
-0.0532395 -0.175128 1.15267
-0.0517365 -0.175099 1.15321
-0.0502417 -0.175086 1.15393
-0.0487374 -0.175059 1.15451
-0.0472554 -0.175073 1.15556
-0.0457794 -0.175103 1.15679
-0.0443051 -0.175141 1.15813
-0.042827 -0.175182 1.15949
-0.0413527 -0.175237 1.16103
-0.0398816 -0.175307 1.16275
-0.0384024 -0.175373 1.16441
-0.0369149 -0.175431 1.166
-0.0354141 -0.175471 1.16737
-0.0339136 -0.175523 1.16887
-0.03239 -0.175528 1.16984
-0.0308733 -0.175559 1.17111
-0.0293501 -0.175582 1.1723
-0.0278343 -0.175638 1.17386
-0.0263167 -0.175702 1.17554
-0.0247974 -0.175778 1.17736
-0.023268 -0.17584 1.179
-0.0217391 -0.175921 1.18089
-0.0202019 -0.175994 1.18268
-0.0186559 -0.176053 1.18431
-0.0171031 -0.176105 1.18585
-0.0155511 -0.176185 1.18774
-0.0139991 -0.1763 1.19004
-0.0124397 -0.176415 1.19234
-0.0108757 -0.17655 1.1949
-0.00930781 -0.176723 1.1979
-0.00772681 -0.176862 1.20051
-0.00613081 -0.176911 1.20206
-0.0045288 -0.176942 1.20336
-0.00292218 -0.176959 1.20453
-0.0901094 -0.175342 1.15174
-0.0885547 -0.175252 1.15157
-0.0870178 -0.175177 1.15159
-0.0854596 -0.175083 1.15137
-0.0839208 -0.175006 1.15135
-0.0823666 -0.174914 1.15116
-0.0808203 -0.174828 1.15105
-0.0792674 -0.174736 1.15086
-0.0777146 -0.174642 1.15065
-0.076147 -0.174533 1.15026
-0.074579 -0.174422 1.14984
-0.0730131 -0.17431 1.14943
-0.0714496 -0.1742 1.14903
-0.0698957 -0.1741 1.14873
-0.0683633 -0.174021 1.1487
-0.0668324 -0.173945 1.14868
-0.0653222 -0.173893 1.14895
-0.063818 -0.173848 1.14932
-0.0623264 -0.17382 1.14988
-0.0608335 -0.173793 1.15045
-0.0593448 -0.173773 1.1511
-0.0578432 -0.173738 1.15158
-0.0563441 -0.173708 1.15213
-0.0548381 -0.173671 1.15258
-0.0533254 -0.173627 1.15295
-0.0518219 -0.173597 1.15349
-0.0503223 -0.173575 1.15413
-0.0488223 -0.173556 1.1548
-0.0473346 -0.17356 1.15575
-0.0458582 -0.173588 1.15698
-0.0443794 -0.173617 1.15824
-0.0429058 -0.173664 1.1597
-0.041427 -0.173709 1.16115
-0.0399558 -0.173777 1.16287
-0.0384763 -0.17384 1.16453
-0.036989 -0.173896 1.16613
-0.0354844 -0.173927 1.16741
-0.033984 -0.173975 1.16891
-0.0324602 -0.17398 1.16988
-0.0309404 -0.174 1.17106
-0.0294142 -0.174014 1.17216
-0.0278952 -0.174058 1.17361
-0.0263747 -0.17411 1.17517
-0.024853 -0.174174 1.17687
-0.0233193 -0.174215 1.17831
-0.0217885 -0.174283 1.18007
-0.020252 -0.174351 1.18183
-0.0187074 -0.174408 1.18346
-0.0171564 -0.17446 1.18502
-0.0156061 -0.174539 1.18693
-0.0140553 -0.174648 1.18922
-0.012497 -0.174758 1.19151
-0.0109343 -0.174888 1.19405
-0.00936888 -0.175066 1.19717
-0.00779005 -0.175208 1.19987
-0.006196 -0.175268 1.20157
-0.00459571 -0.175314 1.2031
-0.0901958 -0.173826 1.15187
-0.0886521 -0.173747 1.15182
-0.0871167 -0.173674 1.15186
-0.0855703 -0.173591 1.15177
-0.0840429 -0.173525 1.15189
-0.0824887 -0.173434 1.15171
-0.0809421 -0.173349 1.15161
-0.0793956 -0.173265 1.1515
-0.0778425 -0.173173 1.15131
-0.0762757 -0.173066 1.15094
-0.0747149 -0.172964 1.15062
-0.0731467 -0.172854 1.1502
-0.0715745 -0.172736 1.14971
-0.070012 -0.172629 1.14932
-0.0684718 -0.172543 1.1492
-0.066934 -0.17246 1.1491
-0.0654284 -0.172414 1.14945
-0.0639298 -0.172376 1.1499
-0.0624372 -0.172348 1.15047
-0.0609434 -0.17232 1.15104
-0.0594532 -0.172298 1.15169
-0.0579438 -0.172254 1.15206
-0.0564378 -0.172215 1.15251
-0.0549306 -0.172178 1.15296
-0.0534172 -0.172133 1.15333
-0.0519133 -0.172102 1.15388
-0.0504084 -0.172073 1.15444
-0.0489077 -0.172052 1.1551
-0.0474143 -0.172047 1.15595
-0.0459374 -0.172072 1.15718
-0.044454 -0.172093 1.15836
-0.042984 -0.172143 1.1599
-0.0415007 -0.172179 1.16125
-0.0400289 -0.172243 1.16297
-0.0385489 -0.172303 1.16462
-0.0370579 -0.17235 1.16613
-0.0355499 -0.17237 1.16732
-0.0340528 -0.172425 1.16891
-0.0325295 -0.172428 1.1699
-0.0310071 -0.172441 1.17101
-0.0294863 -0.172468 1.17227
-0.0279666 -0.172508 1.17371
-0.0264434 -0.17255 1.17518
-0.0249189 -0.172603 1.17678
-0.0233803 -0.172625 1.17801
-0.0218451 -0.172673 1.17956
-0.0203069 -0.17273 1.18121
-0.0187634 -0.172785 1.18284
-0.0172138 -0.172835 1.18443
-0.0156662 -0.17292 1.18645
-0.0141147 -0.173018 1.18863
-0.0125572 -0.173122 1.19089
-0.0109939 -0.173238 1.19331
-0.00942986 -0.173409 1.19642
-0.00785283 -0.173554 1.1992
-0.00626086 -0.173624 1.20105
-0.0046616 -0.173671 1.20263
-0.0872126 -0.172166 1.15209
-0.085667 -0.172084 1.15202
-0.0841431 -0.172023 1.15219
-0.0825994 -0.171942 1.15213
-0.0810643 -0.17187 1.15217
-0.0795238 -0.171791 1.15214
-0.0779697 -0.1717 1.15195
-0.0764085 -0.171602 1.15166
-0.0748472 -0.171501 1.15136
-0.0732789 -0.171392 1.15096
-0.071705 -0.171276 1.15046
-0.0701472 -0.171176 1.15015
-0.068605 -0.17109 1.15002
-0.0670656 -0.171006 1.14993
-0.065553 -0.170953 1.1502
-0.0640472 -0.170909 1.15057
-0.0625479 -0.170873 1.15105
-0.0610527 -0.170843 1.15162
-0.0595605 -0.17082 1.15225
-0.0580495 -0.170775 1.15262
-0.0565421 -0.170735 1.15307
-0.0550336 -0.170695 1.15351
-0.0535149 -0.170644 1.15381
-0.052011 -0.170614 1.15437
-0.0505053 -0.170584 1.15493
-0.049003 -0.170562 1.15559
-0.0475082 -0.170554 1.15643
-0.0460302 -0.170577 1.15765
-0.0445413 -0.170588 1.15873
-0.0430663 -0.17063 1.16018
-0.0415819 -0.170661 1.16152
-0.0401092 -0.170722 1.16323
-0.0386249 -0.170772 1.16479
-0.0371293 -0.170808 1.1662
-0.035621 -0.170827 1.16738
-0.0341203 -0.17087 1.16888
-0.0325969 -0.170872 1.16986
-0.0310748 -0.170885 1.17098
-0.0295573 -0.170917 1.17235
-0.0280381 -0.170957 1.17381
-0.0265148 -0.170997 1.17528
-0.0249853 -0.171033 1.1767
-0.0234462 -0.171053 1.17792
-0.0219067 -0.171084 1.17928
-0.020367 -0.171129 1.18083
-0.018824 -0.17118 1.18246
-0.0172766 -0.171236 1.18414
-0.0157297 -0.171318 1.18616
-0.0141787 -0.171413 1.18835
-0.0126212 -0.171511 1.19059
-0.0110572 -0.171615 1.19289
-0.00949268 -0.171772 1.19589
-0.0079156 -0.171902 1.19853
-0.00632306 -0.171948 1.20014
-0.0873018 -0.170652 1.15226
-0.0857631 -0.170577 1.15227
-0.084242 -0.170517 1.15247
-0.0826995 -0.170439 1.15243
-0.0811663 -0.170369 1.1525
-0.0796278 -0.170293 1.1525
-0.0780758 -0.170206 1.15235
-0.0765133 -0.170106 1.15205
-0.0749511 -0.170006 1.15175
-0.0733822 -0.169899 1.15135
-0.0718152 -0.169792 1.15095
-0.0702631 -0.169698 1.15073
-0.0687203 -0.169613 1.15061
-0.0671857 -0.169538 1.15059
-0.0656715 -0.169484 1.15086
-0.0641583 -0.169431 1.15115
-0.0626516 -0.169387 1.15154
-0.0611548 -0.169356 1.15209
-0.0596561 -0.169325 1.15264
-0.0581445 -0.169279 1.15301
-0.056642 -0.169247 1.15355
-0.0551388 -0.169214 1.1541
-0.053625 -0.16917 1.15449
-0.0521197 -0.16914 1.15506
-0.0506171 -0.169115 1.1557
-0.0491131 -0.169091 1.15635
-0.0476127 -0.169076 1.15711
-0.0461289 -0.16909 1.15824
-0.0446384 -0.169098 1.15931
-0.0431577 -0.169128 1.16065
-0.0416686 -0.169152 1.16191
-0.0401911 -0.169203 1.16352
-0.0387025 -0.169242 1.16499
-0.0372021 -0.169268 1.16629
-0.0356962 -0.16929 1.16755
-0.0341947 -0.16933 1.16903
-0.0326746 -0.169339 1.17012
-0.0311551 -0.169357 1.17133
-0.0296402 -0.169396 1.1728
-0.0281182 -0.169427 1.17419
-0.0265921 -0.16946 1.17559
-0.0250591 -0.169485 1.17691
-0.0235195 -0.169502 1.17812
-0.0219795 -0.16953 1.17947
-0.0204378 -0.169567 1.18095
-0.0188944 -0.169617 1.18257
-0.0173467 -0.169667 1.18424
-0.0157978 -0.169739 1.18616
-0.0142426 -0.169809 1.18807
-0.0126842 -0.169895 1.1902
-0.0111197 -0.169987 1.1924
-0.00955498 -0.170131 1.19529
-0.00797697 -0.170239 1.19771
-0.00638704 -0.170299 1.19951
-0.00479034 -0.170342 1.20109
-0.0843489 -0.169018 1.15284
-0.0828143 -0.168948 1.1529
-0.0812799 -0.168877 1.15296
-0.0797422 -0.168804 1.15298
-0.0781888 -0.168715 1.15282
-0.0766266 -0.168618 1.15255
-0.0750546 -0.168511 1.15214
-0.0734848 -0.168404 1.15173
-0.0719175 -0.168297 1.15134
-0.0703664 -0.168206 1.15114
-0.0688236 -0.168123 1.15103
-0.0672884 -0.168047 1.15102
-0.0657726 -0.167992 1.15128
-0.0642575 -0.167937 1.15155
-0.0627423 -0.167884 1.15183
-0.0612442 -0.167851 1.15237
-0.0597451 -0.16782 1.15293
