ply
format ascii 1.0
element vertex 1465
property float x
property float y
property float z
end_header
-0.038065 -0.0179095 -0.0862889
-0.0380084 -0.0179931 -0.0863294
-0.0379456 -0.0180782 -0.0863853
-0.037883 -0.018163 -0.0864412
-0.0378253 -0.0182463 -0.0864851
-0.0377778 -0.0183266 -0.0865044
-0.037739 -0.0184046 -0.0865025
-0.0377063 -0.0184811 -0.0864857
-0.0376777 -0.0185564 -0.0864588
-0.037651 -0.0186313 -0.0864274
-0.0376242 -0.0187061 -0.0863961
-0.0375974 -0.018781 -0.0863647
-0.0375724 -0.0188555 -0.0863289
-0.0375494 -0.0189295 -0.0862879
-0.0375268 -0.0190034 -0.086246
-0.0375042 -0.0190774 -0.086204
-0.0374836 -0.019151 -0.0861572
-0.0374628 -0.0192246 -0.0861105
-0.0374439 -0.0192979 -0.0860591
-0.0374252 -0.0193712 -0.0860069
-0.0374083 -0.0194442 -0.0859505
-0.0374006 -0.0195153 -0.0858703
-0.0373975 -0.0195858 -0.0857783
-0.0408654 -0.0115334 -0.0874914
-0.0408606 -0.0113966 -0.0874124
-0.0408084 -0.0114873 -0.0874307
-0.0407495 -0.0115813 -0.087463
-0.0406883 -0.0116764 -0.0875005
-0.0406182 -0.0117759 -0.087557
-0.0405502 -0.011874 -0.0876094
-0.0404961 -0.0119649 -0.0876329
-0.0404544 -0.0120492 -0.0876302
-0.0404159 -0.0121319 -0.087621
-0.0403773 -0.0122146 -0.0876121
-0.0403352 -0.0122989 -0.0876105
-0.040275 -0.0123922 -0.0876478
-0.0402074 -0.0124889 -0.087701
-0.0401306 -0.01259 -0.0877745
-0.0400582 -0.0126886 -0.0878388
-0.039989 -0.0127854 -0.0878966
-0.0399296 -0.0128772 -0.0879336
-0.039875 -0.0129665 -0.0879605
-0.0398225 -0.0130547 -0.0879831
-0.0397699 -0.0131427 -0.0880063
-0.0397173 -0.0132306 -0.0880296
-0.0396718 -0.0133151 -0.0880379
-0.0396252 -0.0133999 -0.0880485
-0.0395872 -0.0134807 -0.0880405
-0.0395533 -0.0135595 -0.0880237
-0.0395196 -0.0136381 -0.0880065
-0.039483 -0.0137181 -0.0879958
-0.0394551 -0.0137941 -0.0879662
-0.0394225 -0.0138721 -0.0879466
-0.0393873 -0.0139513 -0.087933
-0.0390348 -0.0146129 -0.0879853
-0.0390091 -0.0146875 -0.0879514
-0.0389849 -0.0147614 -0.0879138
-0.0389633 -0.0148343 -0.0878706
-0.0389498 -0.0149039 -0.087809
-0.0389389 -0.0149725 -0.0877414
-0.0389357 -0.0150381 -0.0876562
-0.0389285 -0.0151055 -0.0875801
-0.0389188 -0.015174 -0.0875092
-0.0389025 -0.0152452 -0.0874532
-0.0388795 -0.015319 -0.0874125
-0.0388501 -0.0153954 -0.0873865
-0.0388187 -0.0154725 -0.0873649
-0.0387876 -0.0155495 -0.0873428
-0.0387566 -0.0156264 -0.0873203
-0.0387373 -0.015699 -0.0872713
-0.0387166 -0.015772 -0.087225
-0.0387025 -0.0158427 -0.0871635
-0.0386988 -0.0159097 -0.0870779
-0.0386958 -0.0159766 -0.0869904
-0.0386993 -0.0160413 -0.0868874
-0.038703 -0.0161061 -0.0867839
-0.0387082 -0.0161706 -0.0866763
-0.0387047 -0.0162383 -0.0865891
-0.0387066 -0.0163043 -0.0864888
-0.0387687 -0.0164098 -0.0864445
-0.0386966 -0.0163746 -0.0864161
-0.0387754 -0.0164746 -0.0863329
-0.0386904 -0.0164437 -0.0863346
-0.038756 -0.0165483 -0.086282
-0.0386717 -0.0165172 -0.0862823
-0.03873 -0.0166243 -0.086247
-0.038648 -0.0165924 -0.0862417
-0.0386254 -0.0166672 -0.0861984
-0.0386003 -0.0167428 -0.0861611
-0.0385656 -0.0168216 -0.0861465
-0.0385167 -0.016905 -0.0861662
-0.0384626 -0.0169897 -0.0861982
-0.0383975 -0.0170778 -0.0862568
-0.0383318 -0.0171658 -0.0863175
-0.0382753 -0.0172507 -0.086356
-0.0382334 -0.0173309 -0.0863599
-0.038198 -0.0174092 -0.0863483
-0.0381667 -0.0174862 -0.0863267
-0.0381394 -0.0175619 -0.0862955
-0.0381084 -0.0176387 -0.0862732
-0.0380775 -0.0177155 -0.0862508
-0.0380426 -0.0177935 -0.0862383
-0.0379977 -0.0178741 -0.0862502
-0.0379421 -0.0179576 -0.0862885
-0.0378813 -0.0180422 -0.0863397
-0.0378182 -0.0181273 -0.086397
-0.0377564 -0.0182118 -0.0864515
-0.0377048 -0.0182933 -0.086481
-0.0376638 -0.018372 -0.0864847
-0.037629 -0.018449 -0.0864731
-0.0375984 -0.0185248 -0.0864511
-0.0375716 -0.0185997 -0.0864197
-0.0375449 -0.0186745 -0.0863883
-0.0375181 -0.0187494 -0.086357
-0.0374932 -0.0188238 -0.0863208
-0.0374723 -0.0188973 -0.0862746
-0.0374518 -0.0189708 -0.0862274
-0.0374314 -0.0190443 -0.0861796
-0.0374123 -0.0191175 -0.0861288
-0.037395 -0.0191904 -0.0860736
-0.0373763 -0.0192637 -0.0860214
-0.0373577 -0.0193369 -0.085969
-0.0373408 -0.01941 -0.0859122
-0.037333 -0.0194812 -0.085832
-0.0373266 -0.0195522 -0.0857481
-0.0407869 -0.0113591 -0.087386
-0.0407416 -0.0114462 -0.0873899
-0.0406895 -0.0115368 -0.0874082
-0.0406371 -0.0116274 -0.0874272
-0.0405718 -0.0117246 -0.0874739
-0.0405027 -0.0118236 -0.0875289
-0.0404479 -0.011915 -0.0875538
-0.0404012 -0.0120021 -0.0875619
-0.040358 -0.0120873 -0.0875626
-0.0403167 -0.0121714 -0.0875593
-0.0402726 -0.0122568 -0.0875621
-0.0402127 -0.0123501 -0.0875988
-0.0401474 -0.0124459 -0.0876476
-0.0400709 -0.012547 -0.0877206
-0.0400027 -0.0126438 -0.087776
-0.0399361 -0.0127395 -0.0878286
-0.0398774 -0.0128312 -0.0878643
-0.0398253 -0.0129195 -0.0878859
-0.039775 -0.0130067 -0.0879039
-0.0397222 -0.013095 -0.0879274
-0.0396696 -0.0131831 -0.0879508
-0.0396261 -0.0132668 -0.0879546
-0.0395814 -0.0133509 -0.0879612
-0.0395436 -0.0134317 -0.0879528
-0.0395073 -0.0135117 -0.0879411
-0.0394711 -0.0135917 -0.0879295
-0.0394289 -0.0136744 -0.0879311
-0.0393943 -0.0137534 -0.087916
-0.039357 -0.0138336 -0.0879067
-0.0393181 -0.0139146 -0.0879013
-0.039353 -0.0140301 -0.0879175
-0.0392773 -0.0139963 -0.0879003
-0.0392339 -0.0140791 -0.0879051
-0.0390658 -0.0145361 -0.0880074
-0.0390219 -0.0144256 -0.0880115
-0.0389929 -0.0145016 -0.0879849
-0.0389665 -0.0145765 -0.0879524
-0.0389441 -0.0146497 -0.0879109
-0.0389255 -0.0147213 -0.0878609
-0.0389075 -0.0147928 -0.0878094
-0.0388964 -0.0148613 -0.0877419
-0.0388835 -0.0149308 -0.0876785
-0.0388755 -0.0149984 -0.0876042
-0.0388615 -0.0150686 -0.0875432
-0.0388452 -0.0151397 -0.0874872
-0.0388247 -0.0152125 -0.0874407
-0.0387996 -0.0152872 -0.0874047
-0.0387721 -0.0153629 -0.0873744
-0.038743 -0.0154391 -0.0873477
-0.0387141 -0.0155152 -0.0873203
-0.0386856 -0.0155913 -0.0872923
-0.0386682 -0.0156631 -0.0872384
-0.0386497 -0.0157353 -0.0871871
-0.0386398 -0.0158045 -0.0871159
-0.0386386 -0.0158705 -0.0870239
-0.0386377 -0.0159366 -0.0869312
-0.038645 -0.0159999 -0.0868189
-0.0386486 -0.0160647 -0.086715
-0.0386503 -0.0161305 -0.0866156
-0.0386429 -0.0161996 -0.086537
-0.03864 -0.0162673 -0.0864477
-0.0386232 -0.0163399 -0.0863909
-0.0386106 -0.0164111 -0.0863243
-0.0385922 -0.0164844 -0.086271
-0.0385695 -0.0165593 -0.086228
-0.0385459 -0.0166345 -0.0861872
-0.0385246 -0.0167089 -0.0861407
-0.0384922 -0.0167869 -0.0861208
-0.0384491 -0.0168685 -0.0861267
-0.0383955 -0.0169532 -0.0861578
-0.0383325 -0.0170408 -0.0862116
-0.0382642 -0.0171297 -0.0862786
-0.0382077 -0.0172147 -0.0863177
-0.0381621 -0.0172963 -0.0863306
-0.0381289 -0.0173739 -0.0863136
-0.0380974 -0.0174509 -0.0862925
-0.03807 -0.0175268 -0.0862615
-0.0380388 -0.0176037 -0.0862396
-0.0380095 -0.0176801 -0.0862133
-0.0379765 -0.0177576 -0.0861962
-0.0379354 -0.0178372 -0.0861987
-0.0378822 -0.0179201 -0.0862315
-0.0378235 -0.0180044 -0.0862778
-0.0377589 -0.01809 -0.0863391
-0.0376929 -0.0181758 -0.086404
-0.0376356 -0.018259 -0.0864479
-0.0375902 -0.0183388 -0.0864625
-0.0375516 -0.0184168 -0.0864605
-0.0375191 -0.0184932 -0.0864433
-0.0374923 -0.0185681 -0.086412
-0.0374655 -0.0186429 -0.0863806
-0.0374387 -0.0187178 -0.0863492
-0.0374139 -0.0187922 -0.0863129
-0.037395 -0.0188652 -0.0862619
-0.0373767 -0.0189382 -0.086209
-0.0373583 -0.0190112 -0.0861563
-0.0373411 -0.019084 -0.0861003
-0.0373255 -0.0191565 -0.0860405
-0.0373067 -0.0192298 -0.0859886
-0.03729 -0.0193027 -0.085931
-0.0372754 -0.0193753 -0.0858683
-0.0372677 -0.0194465 -0.0857875
-0.0372609 -0.0195176 -0.0857045
-0.0406866 -0.0113987 -0.0873239
-0.0406384 -0.0114874 -0.0873344
-0.0405917 -0.0115752 -0.0873414
-0.0405292 -0.0116712 -0.0873823
-0.0404607 -0.0117701 -0.087436
-0.0404076 -0.0118608 -0.0874575
-0.0403557 -0.0119507 -0.0874765
-0.0403073 -0.0120387 -0.0874882
-0.0402635 -0.0121243 -0.0874905
-0.0402169 -0.0122111 -0.0874987
-0.0401545 -0.0123058 -0.0875409
-0.0400914 -0.0124007 -0.0875851
-0.0400149 -0.0125021 -0.0876583
-0.0399471 -0.0125988 -0.0877132
-0.0398827 -0.0126937 -0.0877612
-0.0398262 -0.0127844 -0.0877922
-0.0397746 -0.0128726 -0.0878128
-0.0397267 -0.012959 -0.0878258
-0.0396763 -0.0130463 -0.0878441
-0.0396259 -0.0131335 -0.0878628
-0.0395846 -0.0132163 -0.0878618
-0.0395402 -0.0133004 -0.0878677
-0.0395018 -0.0133817 -0.0878605
-0.039463 -0.013463 -0.0878544
-0.0394222 -0.0135452 -0.0878527
-0.0393755 -0.0136301 -0.0878642
-0.0393346 -0.0137121 -0.0878629
-0.039292 -0.0137949 -0.0878655
-0.0392488 -0.0138778 -0.0878696
-0.0392026 -0.0139621 -0.0878808
-0.0391546 -0.0140469 -0.087896
-0.0390925 -0.0141379 -0.0879428
-0.0390536 -0.0143484 -0.0880322
-0.0390298 -0.0142289 -0.0879912
-0.0389782 -0.0143149 -0.0880151
-0.0389473 -0.0143918 -0.0879929
-0.0389181 -0.0144679 -0.0879664
-0.0388958 -0.014541 -0.0879248
-0.0388789 -0.0146119 -0.0878707
-0.0388647 -0.0146817 -0.0878105
-0.0388514 -0.0147512 -0.0877481
-0.0388421 -0.0148191 -0.0876766
-0.0388282 -0.014889 -0.0876153
-0.0388137 -0.0149593 -0.0875553
-0.038795 -0.0150313 -0.0875048
-0.0387727 -0.0151048 -0.0874623
-0.0387484 -0.0151792 -0.0874247
-0.0387214 -0.0152547 -0.0873931
-0.0386939 -0.0153303 -0.0873627
-0.0386664 -0.0154059 -0.0873321
-0.0386399 -0.0154812 -0.0872995
-0.0386153 -0.0155557 -0.0872623
-0.0386005 -0.0156266 -0.0872023
-0.0385864 -0.0156972 -0.0871406
-0.0385811 -0.0157646 -0.0870582
-0.0385841 -0.0158291 -0.0869562
-0.0385856 -0.0158943 -0.0868574
-0.0385927 -0.0159577 -0.0867453
-0.0385956 -0.0160228 -0.0866428
-0.0385904 -0.016091 -0.0865589
-0.0385783 -0.0161617 -0.086491
-0.0385691 -0.0162316 -0.0864163
-0.0385483 -0.0163056 -0.086369
-0.0385318 -0.0163782 -0.0863115
-0.0385133 -0.0164515 -0.0862585
-0.0384928 -0.0165256 -0.0862102
-0.0384717 -0.0166 -0.0861634
-0.0384566 -0.0166723 -0.0861019
-0.0384284 -0.0167491 -0.0860718
-0.0383937 -0.0168279 -0.0860575
-0.0383387 -0.0169133 -0.0860921
-0.0382774 -0.0170005 -0.0861421
-0.0382048 -0.017091 -0.0862199
-0.0381477 -0.0171764 -0.0862606
-0.0380984 -0.0172591 -0.0862824
-0.0380673 -0.0173362 -0.0862604
-0.0380363 -0.0174132 -0.0862379
-0.0380108 -0.0174885 -0.0862022
-0.0379778 -0.0175661 -0.0861848
-0.0379464 -0.0176432 -0.0861636
-0.0379126 -0.0177209 -0.0861482
-0.0378714 -0.0178006 -0.0861513
-0.0378166 -0.0178842 -0.0861881
-0.0377581 -0.0179685 -0.0862341
-0.0376935 -0.0180543 -0.0862957
-0.0376239 -0.0181412 -0.0863702
-0.0375627 -0.0182255 -0.0864241
-0.037515 -0.0183061 -0.0864446
-0.0374742 -0.0183847 -0.086448
-0.0374398 -0.0184616 -0.0864356
-0.037413 -0.0185365 -0.0864042
-0.0373862 -0.0186113 -0.0863729
-0.0373594 -0.0186862 -0.0863415
-0.0373346 -0.0187606 -0.0863053
-0.0373155 -0.0188336 -0.0862544
-0.0372971 -0.0189066 -0.0862016
-0.0372791 -0.0189795 -0.086148
-0.0372621 -0.0190522 -0.0860915
-0.0372484 -0.0191243 -0.0860266
-0.0372333 -0.0191967 -0.085965
-0.0372209 -0.0192687 -0.0858964
-0.03721 -0.0193405 -0.085824
-0.0372024 -0.0194116 -0.0857428
-0.0371931 -0.0194833 -0.0856656
-0.0374462 -0.0195503 -0.0851272
-0.0371789 -0.0195561 -0.0856011
-0.0405742 -0.0114448 -0.0872875
-0.0405327 -0.0115299 -0.0872837
-0.0404766 -0.0116227 -0.0873112
-0.0404132 -0.0117192 -0.0873544
-0.0403644 -0.0118078 -0.0873666
-0.0403127 -0.0118978 -0.0873852
-0.0402619 -0.0119873 -0.0874022
-0.040215 -0.0120745 -0.0874109
-0.0401654 -0.0121631 -0.0874257
-0.0400984 -0.0122604 -0.087478
-0.0400332 -0.0123565 -0.0875269
-0.039959 -0.012457 -0.0875956
-0.0398913 -0.0125539 -0.0876506
-0.0398267 -0.012649 -0.0876989
-0.039772 -0.012739 -0.0877261
-0.0397225 -0.0128264 -0.0877425
-0.039677 -0.0129116 -0.0877501
-0.0396293 -0.0129978 -0.0877627
-0.0395816 -0.013084 -0.0877756
-0.0395402 -0.0131669 -0.0877747
-0.0394956 -0.0132513 -0.0877809
-0.0394552 -0.0133336 -0.0877782
-0.0394143 -0.0134161 -0.0877765
-0.0393709 -0.0134997 -0.0877807
-0.0393195 -0.0135868 -0.0878024
-0.0392741 -0.0136711 -0.0878112
-0.039227 -0.013756 -0.0878241
-0.0391783 -0.0138416 -0.0878406
-0.039128 -0.0139277 -0.0878608
-0.0390774 -0.0140139 -0.0878821
-0.0390169 -0.0141043 -0.0879257
-0.0389591 -0.0141933 -0.0879636
-0.0389106 -0.014278 -0.0879805
-0.0388781 -0.0143556 -0.0879617
-0.038851 -0.0144308 -0.0879307
-0.0388312 -0.0145029 -0.0878833
-0.0388167 -0.0145727 -0.0878235
-0.038805 -0.0146415 -0.0877576
-0.0387913 -0.0147111 -0.0876956
-0.038778 -0.0147808 -0.0876332
-0.0387595 -0.0148526 -0.0875821
-0.0387403 -0.0149248 -0.0875326
-0.0387172 -0.0149986 -0.0874922
-0.0386929 -0.015073 -0.0874544
-0.0386684 -0.0151474 -0.0874169
-0.0386414 -0.0152228 -0.0873853
-0.038614 -0.0152985 -0.0873549
-0.0385865 -0.0153741 -0.0873243
-0.03856 -0.0154494 -0.0872917
-0.0385374 -0.0155231 -0.0872498
-0.0385269 -0.0155923 -0.0871797
-0.0385172 -0.0156611 -0.0871073
-0.0385166 -0.0157268 -0.087014
-0.0385239 -0.0157896 -0.0869013
-0.0385274 -0.015854 -0.0867974
-0.0385302 -0.015919 -0.0866951
-0.0385284 -0.0159858 -0.0866032
-0.0385183 -0.0160557 -0.0865307
-0.0385019 -0.016128 -0.0864732
-0.0384888 -0.0161992 -0.0864074
-0.0384684 -0.0162731 -0.0863592
-0.038454 -0.0163449 -0.0862963
-0.0384376 -0.0164175 -0.0862381
-0.0384209 -0.0164903 -0.0861807
-0.0384038 -0.0165632 -0.0861239
-0.038393 -0.0166342 -0.0860522
-0.038369 -0.0167096 -0.0860119
-0.0383443 -0.0167853 -0.0859734
-0.0382976 -0.0168681 -0.085988
-0.0382336 -0.0169564 -0.0860448
-0.0381582 -0.0170481 -0.0861297
-0.0380977 -0.0171347 -0.0861785
-0.0380402 -0.0172202 -0.0862206
-0.038002 -0.0172996 -0.0862157
-0.0379752 -0.0173753 -0.0861832
-0.0379517 -0.0174501 -0.0861423
-0.0379169 -0.0175283 -0.0861293
-0.0378852 -0.0176055 -0.0861087
-0.0378496 -0.0176839 -0.086098
-0.0378045 -0.0177648 -0.0861107
-0.0377473 -0.0178492 -0.0861536
-0.037687 -0.0179341 -0.0862044
-0.0376204 -0.0180207 -0.0862713
-0.037549 -0.0181082 -0.0863507
-0.0374873 -0.0181927 -0.086406
-0.0374376 -0.0182739 -0.0864316
-0.0373949 -0.018353 -0.0864402
-0.0373586 -0.0184304 -0.0864327
-0.0373318 -0.0185053 -0.0864014
-0.0373033 -0.0185806 -0.0863744
-0.0372748 -0.0186559 -0.0863475
-0.0372513 -0.01873 -0.0863077
-0.0372302 -0.0188035 -0.0862617
-0.0372118 -0.0188763 -0.0862092
-0.0371973 -0.0189484 -0.0861464
-0.0371823 -0.0190206 -0.0860846
-0.0371708 -0.0190921 -0.0860139
-0.0371614 -0.0191633 -0.0859377
-0.037153 -0.0192344 -0.0858588
-0.0371426 -0.019306 -0.0857846
-0.0371351 -0.0193771 -0.0857027
-0.0371234 -0.0194493 -0.0856316
-0.0371049 -0.019523 -0.0855782
-0.040511 -0.0114015 -0.0872382
-0.040472 -0.0114854 -0.0872292
-0.0404217 -0.0115753 -0.0872445
-0.0403678 -0.0116669 -0.0872675
-0.0403223 -0.011754 -0.0872728
-0.0402732 -0.0118429 -0.0872859
-0.0402225 -0.0119324 -0.0873025
-0.0401712 -0.0120222 -0.0873208
-0.0401167 -0.0121134 -0.0873461
-0.0400469 -0.0122124 -0.0874048
-0.0399791 -0.01231 -0.0874595
-0.0399051 -0.0124106 -0.0875278
-0.0398378 -0.0125075 -0.0875821
-0.0397729 -0.012603 -0.0876314
-0.0397178 -0.0126934 -0.0876598
-0.0396659 -0.0127821 -0.0876813
-0.0396208 -0.0128673 -0.0876883
-0.0395755 -0.0129525 -0.0876957
-0.03953 -0.0130377 -0.0877037
-0.0394888 -0.0131207 -0.0877023
-0.0394462 -0.0132043 -0.0877043
-0.0394038 -0.0132877 -0.087706
-0.0393587 -0.0133723 -0.0877135
-0.0393092 -0.0134588 -0.0877312
-0.0392529 -0.0135484 -0.0877641
-0.0392008 -0.0136359 -0.087788
-0.0391512 -0.013722 -0.0878064
-0.0391006 -0.0138085 -0.0878273
-0.0390498 -0.013895 -0.087849
-0.0390001 -0.0139808 -0.0878683
-0.0389463 -0.0140683 -0.0878972
-0.0388931 -0.0141554 -0.0879247
-0.0388505 -0.0142376 -0.0879287
-0.0388191 -0.0143148 -0.0879074
-0.0387927 -0.0143898 -0.0878746
-0.0387731 -0.0144618 -0.0878266
-0.038759 -0.0145315 -0.0877658
-0.038747 -0.0146004 -0.0877001
-0.0387295 -0.0146717 -0.0876468
-0.0387115 -0.0147434 -0.0875948
-0.0386887 -0.014817 -0.0875536
-0.0386653 -0.014891 -0.0875138
-0.0386383 -0.0149664 -0.0874822
-0.0386135 -0.0150409 -0.0874455
-0.0385888 -0.0151154 -0.0874087
-0.0385618 -0.0151909 -0.0873771
-0.0385344 -0.0152665 -0.0873463
-0.0385091 -0.0153412 -0.0873107
-0.0384843 -0.0154159 -0.087274
-0.0384639 -0.0154887 -0.0872269
-0.0384574 -0.0155563 -0.0871474
-0.0384521 -0.0156235 -0.0870645
-0.0384536 -0.0156883 -0.0869656
-0.0384629 -0.0157503 -0.0868481
-0.0384682 -0.0158141 -0.0867396
-0.0384671 -0.0158804 -0.0866461
-0.0384609 -0.0159488 -0.0865643
-0.0384479 -0.0160198 -0.0864984
-0.0384291 -0.016093 -0.0864463
-0.0384143 -0.0161648 -0.0863845
-0.0383982 -0.0162371 -0.0863258
-0.0383859 -0.0163082 -0.0862578
-0.0383716 -0.0163801 -0.0861945
-0.0383589 -0.0164515 -0.0861273
-0.0383461 -0.016523 -0.0860601
-0.0383377 -0.0165931 -0.0859819
-0.038318 -0.0166672 -0.0859312
-0.0382994 -0.016741 -0.0858776
-0.0382596 -0.0168217 -0.0858755
-0.038202 -0.0169082 -0.0859169
-0.0381269 -0.0170001 -0.0860013
-0.0380634 -0.0170879 -0.0860577
-0.0380004 -0.0171754 -0.0861134
-0.0379556 -0.0172569 -0.0861245
-0.0379215 -0.0173351 -0.0861097
-0.0378964 -0.0174105 -0.0860728
-0.0378594 -0.0174894 -0.086065
-0.0378238 -0.0175679 -0.0860541
-0.0377841 -0.0176475 -0.0860534
-0.0377351 -0.0177297 -0.0860759
-0.037674 -0.0178153 -0.0861287
-0.0376113 -0.017901 -0.086186
-0.0375405 -0.0179888 -0.0862637
-0.0374673 -0.018077 -0.086348
-0.0374057 -0.0181616 -0.0864034
-0.0373564 -0.0182428 -0.0864287
-0.0373119 -0.0183224 -0.0864417
-0.0372772 -0.0183994 -0.0864302
-0.0372503 -0.0184743 -0.0863993
-0.0372201 -0.01855 -0.0863767
-0.0371896 -0.0186258 -0.0863546
-0.0371659 -0.0186998 -0.0863153
-0.0371428 -0.0187738 -0.0862747
-0.0371224 -0.0188472 -0.0862269
-0.0371096 -0.0189187 -0.08616
-0.037095 -0.0189908 -0.0860971
-0.0370854 -0.0190618 -0.0860213
-0.0370782 -0.0191324 -0.0859392
-0.0370736 -0.0192026 -0.0858502
-0.0370656 -0.0192736 -0.0857696
-0.0370599 -0.0193444 -0.085683
-0.0370462 -0.0194169 -0.0856169
-0.0370251 -0.0194911 -0.0855699
-0.0404463 -0.0113589 -0.087192
-0.0404088 -0.0114421 -0.0871799
-0.0403656 -0.0115283 -0.0871799
-0.0403155 -0.0116181 -0.0871948
-0.0402747 -0.0117028 -0.0871901
-0.0402265 -0.0117914 -0.0872012
-0.0401787 -0.0118796 -0.0872117
-0.0401274 -0.0119696 -0.0872301
-0.0400681 -0.0120635 -0.0872658
-0.0399956 -0.0121641 -0.0873306
-0.0399254 -0.0122631 -0.0873905
-0.0398516 -0.0123639 -0.0874589
-0.0397824 -0.012462 -0.0875176
-0.0397199 -0.0125565 -0.0875619
-0.0396624 -0.0126483 -0.0875956
-0.0396099 -0.0127374 -0.0876186
-0.0395624 -0.0128239 -0.0876306
-0.0395173 -0.0129091 -0.0876378
-0.039472 -0.0129944 -0.0876455
-0.0394305 -0.0130776 -0.0876447
-0.0393878 -0.0131614 -0.0876469
-0.0393453 -0.0132449 -0.0876487
-0.0392983 -0.0133305 -0.0876606
-0.0392445 -0.0134193 -0.0876882
-0.0391835 -0.0135112 -0.0877317
-0.0391285 -0.0136001 -0.0877622
-0.0390768 -0.0136874 -0.0877856
-0.0390246 -0.0137747 -0.0878103
-0.0389761 -0.0138602 -0.0878269
-0.0389306 -0.0139442 -0.087837
-0.0388796 -0.0140306 -0.0878597
-0.0388291 -0.0141166 -0.0878815
-0.038791 -0.0141969 -0.0878751
-0.0387614 -0.0142733 -0.0878495
-0.0387352 -0.0143483 -0.0878164
-0.0387152 -0.0144205 -0.087769
-0.0386993 -0.0144911 -0.0877122
-0.0386868 -0.0145602 -0.0876474
-0.0386669 -0.0146326 -0.0875996
-0.0386463 -0.0147053 -0.0875532
-0.0386232 -0.0147791 -0.0875126
-0.0385996 -0.0148532 -0.0874731
-0.0385688 -0.0149302 -0.0874502
-0.0385419 -0.0150057 -0.0874185
-0.0385167 -0.0150804 -0.0873826
-0.0384878 -0.0151566 -0.0873554
-0.0384588 -0.0152329 -0.0873284
-0.0384356 -0.0153068 -0.087288
-0.0384128 -0.0153807 -0.0872465
-0.0383926 -0.0154535 -0.0871989
-0.0383843 -0.0155217 -0.0871232
-0.0383809 -0.0155882 -0.0870359
-0.0383802 -0.0156537 -0.0869418
-0.0383891 -0.0157158 -0.0868246
-0.0383944 -0.0157795 -0.086716
-0.0383931 -0.0158458 -0.0866224
-0.0383848 -0.0159149 -0.0865454
-0.0383716 -0.0159859 -0.0864799
-0.0383507 -0.0160599 -0.0864328
-0.0383358 -0.0161317 -0.0863712
-0.0383235 -0.0162027 -0.0863032
-0.0383137 -0.0162728 -0.0862289
-0.0383036 -0.0163432 -0.0861554
-0.0382951 -0.0164131 -0.0860774
-0.0382867 -0.0164832 -0.0859994
-0.0382788 -0.0165532 -0.0859199
-0.0382614 -0.0166266 -0.0858635
-0.0382466 -0.0166991 -0.0858005
-0.0382156 -0.0167771 -0.085777
-0.0381655 -0.0168613 -0.0858001
-0.0380995 -0.0169505 -0.0858624
-0.0380365 -0.0170385 -0.0859177
-0.0379667 -0.0171284 -0.08599
-0.0379134 -0.0172128 -0.0860222
-0.0378683 -0.0172945 -0.0860346
-0.0378333 -0.017373 -0.0860218
-0.0377938 -0.0174528 -0.0860205
-0.0377555 -0.0175322 -0.0860161
-0.03771 -0.0176136 -0.0860298
-0.0376591 -0.0176964 -0.0860574
-0.0375939 -0.0177833 -0.0861207
-0.0375305 -0.0178694 -0.0861802
-0.037456 -0.0179584 -0.0862676
-0.0373827 -0.0180466 -0.0863528
-0.0373218 -0.0181312 -0.0864068
-0.0372747 -0.0182117 -0.0864268
-0.0372287 -0.0182918 -0.0864437
-0.037194 -0.0183688 -0.0864325
-0.0371649 -0.0184443 -0.0864071
-0.0371328 -0.0185205 -0.0863892
-0.0371005 -0.0185967 -0.086372
-0.0370784 -0.0186703 -0.0863287
-0.0370553 -0.0187443 -0.0862881
-0.037035 -0.0188175 -0.0862401
-0.0370221 -0.018889 -0.0861729
-0.0370073 -0.0189611 -0.0861107
-0.036996 -0.0190324 -0.0860392
-0.0369906 -0.0191025 -0.0859523
-0.036988 -0.0191721 -0.0858579
-0.036982 -0.0192427 -0.085772
-0.0369764 -0.0193133 -0.0856847
-0.0369626 -0.0193859 -0.0856189
-0.0371388 -0.0194185 -0.0850556
-0.0403526 -0.0113949 -0.0871151
-0.0403109 -0.0114804 -0.0871119
-0.0402616 -0.0115699 -0.0871252
-0.0402211 -0.0116546 -0.0871196
-0.0401775 -0.0117409 -0.0871211
-0.0401341 -0.0118269 -0.0871221
-0.0400831 -0.0119169 -0.0871398
-0.0400216 -0.0120122 -0.0871803
-0.0399466 -0.0121143 -0.0872508
-0.0398716 -0.0122162 -0.0873216
-0.0397977 -0.0123172 -0.0873905
-0.0397268 -0.0124163 -0.0874529
-0.0396646 -0.0125109 -0.0874969
-0.0396069 -0.012603 -0.0875311
-0.0395543 -0.0126923 -0.0875544
-0.0395024 -0.0127811 -0.0875763
-0.0394566 -0.0128668 -0.0875849
-0.039411 -0.0129523 -0.0875932
-0.0393698 -0.0130355 -0.0875921
-0.039325 -0.0131204 -0.0875989
-0.0392843 -0.0132032 -0.0875968
-0.0392371 -0.0132891 -0.0876094
-0.0391807 -0.0133791 -0.0876426
-0.0391156 -0.0134732 -0.0876958
-0.0390602 -0.0135625 -0.0877275
-0.0390047 -0.0136516 -0.0877596
-0.0389506 -0.01374 -0.0877888
-0.0389045 -0.0138244 -0.0878002
-0.0388632 -0.0139065 -0.0878007
-0.0388149 -0.0139918 -0.0878173
-0.0387691 -0.0140758 -0.0878286
-0.0387353 -0.0141542 -0.0878124
-0.0387039 -0.0142316 -0.087791
-0.0386776 -0.0143067 -0.0877579
-0.0386552 -0.01438 -0.0877158
-0.0386365 -0.0144518 -0.0876653
-0.0386198 -0.0145227 -0.0876099
-0.0385976 -0.0145961 -0.0875673
-0.0385731 -0.0146705 -0.0875298
-0.0385515 -0.0147438 -0.0874859
-0.0385281 -0.0148177 -0.0874458
-0.0384975 -0.0148947 -0.0874225
-0.0384725 -0.0149694 -0.0873861
-0.038449 -0.0150435 -0.0873461
-0.03842 -0.0151198 -0.0873193
-0.0383911 -0.0151961 -0.0872921
-0.038368 -0.01527 -0.0872511
-0.0383454 -0.0153438 -0.0872092
-0.0383252 -0.0154166 -0.0871613
-0.0383148 -0.0154856 -0.0870902
-0.038309 -0.015553 -0.0870083
-0.0383057 -0.0156195 -0.0869201
-0.0383144 -0.0156816 -0.0868033
-0.0383193 -0.0157453 -0.086695
-0.0383164 -0.0158122 -0.0866052
-0.03831 -0.0158806 -0.0865235
-0.0382987 -0.0159508 -0.0864531
-0.0382797 -0.0160241 -0.0864014
-0.0382652 -0.0160957 -0.0863385
-0.0382549 -0.016166 -0.0862654
-0.0382451 -0.0162361 -0.0861911
-0.0382372 -0.0163057 -0.0861118
-0.0382291 -0.0163755 -0.0860329
-0.038225 -0.0164441 -0.0859441
-0.0382195 -0.0165133 -0.0858586
-0.0382059 -0.0165853 -0.0857926
-0.0381929 -0.0166573 -0.085725
-0.0381695 -0.0167329 -0.0856824
-0.0381248 -0.0168155 -0.0856925
-0.0380641 -0.0169032 -0.085742
-0.0380036 -0.0169907 -0.0857912
-0.0379288 -0.0170825 -0.0858762
-0.0378639 -0.0171708 -0.0859372
-0.0378154 -0.0172537 -0.0859577
-0.0377775 -0.0173332 -0.0859524
-0.0377331 -0.0174147 -0.0859631
-0.0376883 -0.0174961 -0.085975
-0.0376385 -0.0175789 -0.0859998
-0.0375819 -0.0176635 -0.0860418
-0.0375114 -0.0177521 -0.0861189
-0.0374458 -0.0178389 -0.0861843
-0.0373675 -0.017929 -0.0862819
-0.0372927 -0.0180178 -0.0863712
-0.037234 -0.0181018 -0.0864201
-0.0371911 -0.0181812 -0.0864295
-0.0371456 -0.0182613 -0.0864457
-0.0371108 -0.0183383 -0.0864348
-0.0370795 -0.0184143 -0.086415
-0.0370454 -0.018491 -0.0864024
-0.0370113 -0.0185677 -0.0863901
-0.036991 -0.0186408 -0.086342
-0.0369682 -0.0187146 -0.0863006
-0.0369481 -0.0187878 -0.0862521
-0.0369351 -0.0188592 -0.0861851
-0.0369199 -0.0189314 -0.0861238
-0.0369065 -0.0190031 -0.0860576
-0.0369023 -0.0190728 -0.0859672
-0.0368996 -0.0191424 -0.0858727
-0.0368937 -0.0192129 -0.0857866
-0.0368883 -0.0192833 -0.0856988
-0.0368709 -0.0193566 -0.0856422
-0.0403434 -0.0112588 -0.0870416
-0.0402999 -0.0113455 -0.0870422
-0.0402591 -0.0114307 -0.0870371
-0.0402084 -0.0115212 -0.0870537
-0.0401655 -0.0116072 -0.0870533
-0.0401236 -0.0116928 -0.0870509
-0.0400804 -0.0117788 -0.0870515
-0.0400293 -0.011869 -0.0870693
-0.0399682 -0.0119643 -0.0871094
-0.039893 -0.0120668 -0.0871806
-0.0398153 -0.0121702 -0.0872574
-0.0397432 -0.0122706 -0.0873226
-0.0396702 -0.012371 -0.0873901
-0.0396085 -0.0124656 -0.0874332
-0.0395508 -0.0125577 -0.0874674
-0.0394962 -0.0126483 -0.0874954
-0.0394417 -0.0127386 -0.0875232
-0.0393937 -0.0128255 -0.0875366
-0.0393457 -0.0129123 -0.0875506
-0.0393025 -0.0129966 -0.0875538
-0.0392598 -0.0130805 -0.0875562
-0.0392172 -0.0131644 -0.0875584
-0.0391717 -0.0132494 -0.087567
-0.0391176 -0.0133386 -0.0875954
-0.0390526 -0.0134328 -0.0876486
-0.0389933 -0.0135241 -0.0876893
-0.0389354 -0.0136144 -0.0877269
-0.0388792 -0.0137039 -0.087761
-0.0388329 -0.0137885 -0.0877731
-0.0387943 -0.0138695 -0.0877677
-0.0387521 -0.013952 -0.0877704
-0.0387126 -0.0140333 -0.0877673
-0.038683 -0.01411 -0.0877417
-0.038652 -0.0141873 -0.0877193
-0.038625 -0.0142627 -0.0876876
-0.0385983 -0.0143381 -0.0876554
-0.0385731 -0.0144127 -0.0876195
-0.038552 -0.0144856 -0.0875741
-0.0385276 -0.01456 -0.0875365
-0.0385013 -0.0146351 -0.087503
-0.03848 -0.0147083 -0.0874584
-0.0384587 -0.0147814 -0.0874133
-0.0384285 -0.0148582 -0.0873891
-0.0384037 -0.0149329 -0.0873522
-0.0383801 -0.015007 -0.0873123
-0.0383511 -0.0150834 -0.0872855
-0.0383222 -0.0151597 -0.0872581
-0.038299 -0.0152337 -0.0872175
-0.0382762 -0.0153075 -0.0871757
-0.038254 -0.0153812 -0.0871327
-0.0382413 -0.0154511 -0.087067
-0.0382329 -0.0155194 -0.0869909
-0.0382251 -0.0155876 -0.0869132
-0.0382295 -0.0156512 -0.0868061
-0.0382342 -0.0157149 -0.0866982
-0.0382315 -0.0157817 -0.0866075
-0.0382273 -0.0158491 -0.0865202
-0.0382203 -0.0159178 -0.0864396
-0.0382036 -0.0159901 -0.0863822
-0.038191 -0.0160611 -0.0863146
-0.0381846 -0.0161299 -0.086232
-0.0381768 -0.0161993 -0.0861524
-0.038173 -0.0162674 -0.086063
-0.0381688 -0.0163358 -0.0859743
-0.0381668 -0.0164036 -0.08588
-0.0381591 -0.0164736 -0.0857995
-0.0381452 -0.0165458 -0.0857339
-0.0381319 -0.0166179 -0.0856668
-0.0381137 -0.0166917 -0.0856114
-0.0380757 -0.0167722 -0.0856048
-0.0380245 -0.0168571 -0.0856312
-0.0379695 -0.016943 -0.085667
-0.0378848 -0.0170383 -0.0857767
-0.0377582 -0.0172141 -0.0858915
-0.0377131 -0.017296 -0.0859039
-0.0376664 -0.0173782 -0.0859207
-0.0376214 -0.0174598 -0.085933
-0.0375636 -0.0175451 -0.085978
-0.0375016 -0.0176315 -0.0860339
-0.0374288 -0.0177208 -0.0861174
-0.0373596 -0.0178088 -0.0861922
-0.0372777 -0.0179002 -0.0862996
-0.0372051 -0.0179884 -0.0863839
-0.0371486 -0.0180719 -0.0864277
-0.0371062 -0.0181512 -0.0864359
-0.0370608 -0.0182312 -0.086452
-0.0370258 -0.0183082 -0.0864417
-0.0369924 -0.0183848 -0.0864275
-0.0369562 -0.0184621 -0.0864203
-0.0369221 -0.0185388 -0.0864079
-0.0369023 -0.0186117 -0.0863589
-0.0368814 -0.018685 -0.0863123
-0.0368616 -0.018758 -0.086263
-0.0368485 -0.0188294 -0.0861964
-0.0368329 -0.0189016 -0.0861359
-0.0368171 -0.0189738 -0.0860757
-0.0368092 -0.0190443 -0.0859949
-0.0368062 -0.0191139 -0.0859013
-0.0368001 -0.0191843 -0.0858154
-0.0367945 -0.0192547 -0.0857278
-0.0367786 -0.0193275 -0.085667
-0.0402946 -0.0112069 -0.0869599
-0.0402489 -0.0112951 -0.0869653
-0.0402084 -0.0113802 -0.0869594
-0.0401564 -0.0114715 -0.0869788
-0.0401112 -0.011559 -0.0869836
-0.0400672 -0.0116458 -0.0869857
-0.0400234 -0.0117323 -0.0869876
-0.0399704 -0.0118236 -0.0870097
-0.0399071 -0.0119203 -0.0870548
-0.0398319 -0.012023 -0.0871263
-0.0397543 -0.0121266 -0.0872033
-0.03968 -0.0122283 -0.0872736
-0.0396068 -0.0123291 -0.0873418
-0.039547 -0.0124228 -0.0873808
-0.0394895 -0.0125151 -0.0874149
-0.039433 -0.0126067 -0.0874472
-0.0393784 -0.0126972 -0.0874754
-0.0393281 -0.0127854 -0.0874942
-0.0392779 -0.0128734 -0.0875131
-0.0392327 -0.0129587 -0.0875209
-0.0391881 -0.0130438 -0.0875276
-0.0391435 -0.0131286 -0.0875344
-0.0390983 -0.0132137 -0.0875427
-0.0390467 -0.0133017 -0.0875655
-0.0389827 -0.0133956 -0.0876167
-0.0389257 -0.0134859 -0.0876523
-0.038869 -0.0135759 -0.0876877
-0.038814 -0.0136649 -0.0877192
-0.0387656 -0.0137506 -0.087736
-0.0387294 -0.0138305 -0.0877252
-0.0386896 -0.0139121 -0.0877226
-0.0386522 -0.0139924 -0.0877146
-0.0386226 -0.0140692 -0.087689
-0.0385934 -0.0141457 -0.0876623
-0.0385646 -0.014222 -0.0876347
-0.0385354 -0.0142986 -0.0876081
-0.0385077 -0.0143744 -0.087578
-0.0384842 -0.0144484 -0.0875381
-0.0384578 -0.0145236 -0.087505
-0.0384316 -0.0145988 -0.0874714
-0.0384105 -0.0146718 -0.087426
-0.0383894 -0.0147449 -0.0873804
-0.0383594 -0.0148217 -0.0873557
-0.0383347 -0.0148963 -0.0873185
-0.0383114 -0.0149704 -0.087278
-0.0382823 -0.0150468 -0.0872511
-0.0382534 -0.0151232 -0.0872239
-0.0382301 -0.0151972 -0.0871833
-0.038207 -0.0152712 -0.0871422
-0.0381824 -0.0153459 -0.0871048
-0.0381673 -0.0154167 -0.0870445
-0.0381565 -0.0154859 -0.086974
-0.0381467 -0.0155549 -0.0869009
-0.0381487 -0.0156193 -0.0867992
-0.0381533 -0.015683 -0.0866912
-0.0381522 -0.015749 -0.0865964
-0.0381504 -0.0158155 -0.0865032
-0.0381457 -0.0158832 -0.0864167
-0.0381334 -0.0159539 -0.0863484
-0.0381231 -0.016024 -0.0862753
-0.0381169 -0.0160927 -0.0861916
-0.0381089 -0.0161622 -0.0861125
-0.0381067 -0.0162297 -0.0860188
-0.0381026 -0.0162981 -0.0859295
-0.0381025 -0.0163652 -0.0858304
-0.0380964 -0.0164346 -0.0857454
-0.0380861 -0.0165055 -0.0856707
-0.0380728 -0.0165777 -0.0856034
-0.0380522 -0.0166524 -0.0855538
-0.0380241 -0.0167297 -0.0855228
-0.0379845 -0.0168108 -0.0855204
-0.0377081 -0.0171721 -0.0858066
-0.0376536 -0.0172571 -0.0858429
-0.037605 -0.0173401 -0.0858643
-0.0375557 -0.0174231 -0.0858878
-0.0374902 -0.0175109 -0.0859524
-0.0374221 -0.0175993 -0.0860241
-0.0373451 -0.01769 -0.0861186
-0.0372702 -0.0177797 -0.0862083
-0.0371883 -0.0178712 -0.0863162
-0.0371179 -0.0179589 -0.0863957
-0.0370635 -0.0180418 -0.0864345
-0.0370214 -0.0181211 -0.0864422
-0.0369778 -0.0182006 -0.086454
-0.0369426 -0.0182778 -0.0864444
-0.0369072 -0.0183548 -0.0864352
-0.036871 -0.0184321 -0.0864283
-0.0368388 -0.0185083 -0.0864111
-0.0368174 -0.0185817 -0.0863662
-0.0367983 -0.0186544 -0.0863147
-0.0367803 -0.018727 -0.0862609
-0.0367653 -0.0187988 -0.0861988
-0.0367479 -0.0188714 -0.0861428
-0.0367302 -0.018944 -0.0860878
-0.0367184 -0.0190154 -0.086017
-0.0367131 -0.0190853 -0.085929
-0.0367069 -0.0191556 -0.0858433
-0.0367012 -0.019226 -0.0857557
-0.0366871 -0.0192983 -0.0856903
-0.0402333 -0.0111618 -0.0869047
-0.0401917 -0.0112477 -0.0869012
-0.0401538 -0.0113316 -0.0868898
-0.0401061 -0.0114207 -0.0868998
-0.040061 -0.0115083 -0.0869042
-0.0400189 -0.0115942 -0.0869024
-0.0399727 -0.0116822 -0.0869094
-0.0399172 -0.0117751 -0.0869372
-0.0398515 -0.0118732 -0.0869877
-0.0397742 -0.0119772 -0.0870639
-0.0396927 -0.0120832 -0.0871502
-0.0396163 -0.0121862 -0.0872254
-0.0395412 -0.0122882 -0.0872983
-0.0394788 -0.0123833 -0.0873432
-0.0394193 -0.0124768 -0.0873819
-0.0393627 -0.0125686 -0.0874145
-0.0393086 -0.012659 -0.0874419
-0.0392561 -0.0127484 -0.0874657
-0.0392059 -0.0128365 -0.0874847
-0.0391602 -0.0129222 -0.0874938
-0.0391137 -0.0130082 -0.087505
-0.0390689 -0.0130932 -0.0875121
-0.039028 -0.0131763 -0.0875111
-0.038981 -0.0132623 -0.0875237
-0.038918 -0.0133558 -0.0875728
-0.0388634 -0.0134451 -0.0876031
-0.0388044 -0.0135363 -0.0876438
-0.0387467 -0.0136267 -0.0876819
-0.0386943 -0.0137144 -0.0877078
-0.0386583 -0.0137944 -0.0876966
-0.0386189 -0.0138758 -0.0876933
-0.0385854 -0.0139544 -0.0876764
-0.038556 -0.0140311 -0.0876502
-0.0385269 -0.0141077 -0.0876233
-0.0384979 -0.0141841 -0.087596
-0.0384686 -0.0142607 -0.0875695
-0.038439 -0.0143374 -0.0875439
-0.0384133 -0.0144125 -0.0875092
-0.0383885 -0.0144871 -0.0874723
-0.0383642 -0.0145614 -0.0874341
-0.0383453 -0.0146335 -0.0873833
-0.0383262 -0.0147057 -0.0873329
-0.0382978 -0.0147819 -0.0873043
-0.038271 -0.0148575 -0.0872722
-0.0382455 -0.0149324 -0.0872367
-0.0382145 -0.0150097 -0.0872142
-0.0381838 -0.0150869 -0.0871912
-0.0381585 -0.0151618 -0.0871553
-0.0381333 -0.0152367 -0.0871192
-0.0381065 -0.0153122 -0.087087
-0.0380893 -0.0153839 -0.0870316
-0.0380747 -0.0154546 -0.0869701
-0.0380648 -0.0155236 -0.0868971
-0.0380665 -0.015588 -0.0867958
-0.0380708 -0.0156517 -0.0866882
-0.0380697 -0.0157176 -0.0865932
-0.0380719 -0.0157825 -0.08649
-0.0380675 -0.01585 -0.0864026
-0.0380555 -0.0159206 -0.0863332
-0.038047 -0.0159899 -0.0862553
-0.0380406 -0.0160586 -0.0861722
-0.0380328 -0.016128 -0.0860923
-0.0380345 -0.016194 -0.0859886
-0.0380325 -0.0162616 -0.085894
-0.0380326 -0.0163286 -0.085794
-0.0380283 -0.0163973 -0.0857044
-0.0380234 -0.0164664 -0.0856161
-0.0380126 -0.0165377 -0.0855423
-0.0379985 -0.0166103 -0.0854764
-0.0379745 -0.0166863 -0.0854351
-0.0375856 -0.0172208 -0.0858027
-0.0375301 -0.017306 -0.0858418
-0.0374757 -0.0173907 -0.0858784
-0.0374042 -0.0174806 -0.0859587
-0.0373306 -0.0175706 -0.0860445
-0.0372536 -0.0176615 -0.0861399
-0.0371767 -0.0177519 -0.0862352
-0.0370971 -0.0178428 -0.0863381
-0.0370307 -0.0179295 -0.0864077
-0.0369786 -0.0180117 -0.086441
-0.0369364 -0.018091 -0.086449
-0.0368945 -0.0181702 -0.0864568
-0.0368573 -0.0182479 -0.0864522
-0.0368206 -0.0183253 -0.0864467
-0.0367862 -0.0184021 -0.0864352
-0.036756 -0.0184778 -0.0864131
-0.0367328 -0.0185515 -0.0863726
-0.0367154 -0.0186238 -0.086317
-0.0366986 -0.018696 -0.0862595
-0.0366822 -0.0187682 -0.0862012
-0.0366649 -0.0188406 -0.0861449
-0.0366471 -0.0189133 -0.08609
-0.0366314 -0.0189856 -0.0860293
-0.0366221 -0.0190563 -0.0859517
-0.0366154 -0.0191267 -0.085867
-0.0366067 -0.0191976 -0.0857875
-0.0365929 -0.0192698 -0.085721
-0.0401696 -0.0111179 -0.0868544
-0.0401316 -0.0112019 -0.0868431
-0.0400965 -0.0112843 -0.0868255
-0.040054 -0.0113707 -0.0868242
-0.0400114 -0.0114571 -0.0868232
-0.0399736 -0.0115408 -0.0868119
-0.0399276 -0.0116288 -0.0868184
-0.0398675 -0.0117244 -0.0868565
-0.0397989 -0.0118243 -0.0869135
-0.0397166 -0.0119312 -0.0870012
-0.0396288 -0.0120408 -0.0871018
-0.0395463 -0.0121471 -0.0871907
-0.0394688 -0.0122507 -0.0872694
-0.0394019 -0.0123483 -0.0873246
-0.0393424 -0.0124419 -0.0873636
-0.0392838 -0.0125349 -0.087401
-0.039232 -0.0126242 -0.0874234
-0.0391796 -0.0127136 -0.0874472
-0.0391294 -0.0128018 -0.0874665
-0.0390815 -0.0128887 -0.0874806
-0.0390367 -0.012974 -0.0874881
-0.03899 -0.01306 -0.0874998
-0.0389509 -0.0131422 -0.0874946
-0.0389102 -0.0132252 -0.0874932
-0.0388518 -0.0133166 -0.087532
-0.0387961 -0.0134066 -0.0875652
-0.038739 -0.0134971 -0.0876017
-0.038683 -0.0135868 -0.087636
-0.0386267 -0.0136765 -0.0876711
-0.0385889 -0.0137574 -0.0876642
-0.0385511 -0.0138381 -0.087657
-0.0385176 -0.0139168 -0.0876403
-0.0384863 -0.0139944 -0.0876183
-0.0384574 -0.0140709 -0.087591
-0.0384285 -0.0141474 -0.0875635
-0.0383993 -0.0142239 -0.0875367
-0.0383718 -0.0142998 -0.0875062
-0.0383445 -0.0143755 -0.087475
-0.0383216 -0.0144493 -0.0874337
-0.038301 -0.0145221 -0.0873868
-0.0382842 -0.0145932 -0.0873307
-0.0382636 -0.0146661 -0.0872838
-0.0382367 -0.0147418 -0.0872516
-0.0382072 -0.0148185 -0.0872257
-0.0381755 -0.0148962 -0.0872048
-0.0381423 -0.0149745 -0.0871876
-0.0381114 -0.0150517 -0.0871651
-0.0380843 -0.0151274 -0.0871334
-0.0380572 -0.0152031 -0.0871017
-0.0380301 -0.0152787 -0.08707
-0.0380128 -0.0153505 -0.087015
-0.0379964 -0.0154219 -0.0869575
-0.0379866 -0.0154907 -0.0868842
-0.0379864 -0.0155558 -0.0867873
-0.0379905 -0.0156195 -0.0866797
-0.0379875 -0.0156861 -0.0865892
-0.0379894 -0.0157509 -0.0864863
-0.037987 -0.0158177 -0.0863938
-0.0379785 -0.0158868 -0.0863158
-0.0379719 -0.0159554 -0.086233
-0.0379693 -0.0160227 -0.0861403
-0.0379652 -0.0160907 -0.0860511
-0.0379671 -0.0161566 -0.0859466
-0.0379675 -0.0162232 -0.0858458
-0.0379677 -0.0162902 -0.0857451
-0.0379636 -0.0163588 -0.0856548
-0.0379631 -0.0164264 -0.0855551
-0.0379589 -0.0164954 -0.0854646
-0.0379526 -0.0165652 -0.0853791
-0.0379376 -0.0166383 -0.085315
-0.0375184 -0.0171841 -0.0857601
-0.0374519 -0.017273 -0.0858273
-0.0373887 -0.0173606 -0.0858866
-0.0373123 -0.017452 -0.0859798
-0.037234 -0.0175437 -0.0860786
-0.0371605 -0.0176335 -0.0861653
-0.0370822 -0.0177245 -0.086265
-0.0370072 -0.0178141 -0.0863566
-0.0369449 -0.0178996 -0.086416
-0.0368952 -0.0179813 -0.0864436
-0.0368514 -0.0180611 -0.0864562
-0.036811 -0.0181398 -0.0864599
-0.036774 -0.0182175 -0.0864553
-0.0367375 -0.0182948 -0.086449
-0.0367052 -0.0183711 -0.0864322
-0.0366769 -0.0184463 -0.0864054
-0.0366518 -0.0185205 -0.0863696
-0.0366341 -0.0185928 -0.0863147
-0.0366173 -0.018665 -0.0862574
-0.0366009 -0.0187371 -0.0861988
-0.0365838 -0.0188095 -0.086142
-0.0365659 -0.0188821 -0.0860872
-0.0365464 -0.0189553 -0.0860366
-0.0365346 -0.0190266 -0.0859652
-0.0365259 -0.0190973 -0.0858858
-0.0365154 -0.0191686 -0.0858107
-0.0365021 -0.0192406 -0.085743
-0.0401005 -0.0110768 -0.0868156
-0.0400682 -0.0111577 -0.0867917
-0.0400367 -0.0112382 -0.0867663
-0.0400003 -0.0113213 -0.0867515
-0.0399646 -0.011404 -0.0867352
-0.0399297 -0.0114863 -0.0867175
-0.039884 -0.0115744 -0.0867237
-0.0398216 -0.0116714 -0.0867668
-0.0397499 -0.0117732 -0.0868309
-0.0396625 -0.0118832 -0.0869303
-0.0395696 -0.0119958 -0.0870424
-0.0394822 -0.012105 -0.0871427
-0.0394021 -0.0122101 -0.0872275
-0.0393309 -0.0123102 -0.0872929
-0.0392689 -0.0124052 -0.0873377
-0.0392086 -0.0124993 -0.0873793
-0.0391567 -0.0125886 -0.0874018
-0.0391027 -0.0126791 -0.0874297
-0.0390524 -0.0127674 -0.0874492
-0.0390026 -0.0128553 -0.0874679
-0.0389576 -0.0129407 -0.0874757
-0.0389091 -0.0130278 -0.0874919
-0.038868 -0.013111 -0.0874912
-0.0388272 -0.013194 -0.08749
-0.038773 -0.0132836 -0.08752
-0.0387179 -0.0133733 -0.0875518
-0.0386633 -0.0134626 -0.0875828
-0.0386113 -0.0135506 -0.0876081
-0.0385568 -0.0136396 -0.0876395
-0.0385169 -0.0137215 -0.0876372
-0.0384811 -0.0138013 -0.0876257
-0.0384474 -0.0138801 -0.0876092
-0.0384142 -0.0139587 -0.0875919
-0.0383851 -0.0140353 -0.0875649
-0.0383561 -0.0141119 -0.0875376
-0.0383272 -0.0141884 -0.0875103
-0.038302 -0.0142632 -0.0874742
-0.038277 -0.0143379 -0.0874377
-0.0382581 -0.0144099 -0.0873868
-0.0382417 -0.0144809 -0.0873298
-0.0382275 -0.0145509 -0.0872674
-0.0382072 -0.0146237 -0.0872196
-0.0381801 -0.0146995 -0.0871878
-0.038146 -0.0147783 -0.0871725
-0.0381078 -0.0148589 -0.0871673
-0.0380701 -0.0149391 -0.0871608
-0.0380351 -0.0150182 -0.0871481
-0.038006 -0.0150947 -0.0871212
-0.0379771 -0.0151711 -0.0870939
-0.03795 -0.0152468 -0.0870622
-0.0379326 -0.0153185 -0.0870072
-0.037918 -0.0153891 -0.0869452
-0.0379083 -0.0154579 -0.0868715
-0.0379081 -0.015523 -0.0867745
-0.0379101 -0.0155873 -0.0866715
-0.0379066 -0.015654 -0.0865818
-0.0379045 -0.0157204 -0.0864886
-0.0378998 -0.0157879 -0.0864015
-0.0378894 -0.0158577 -0.0863281
-0.0378845 -0.0159256 -0.086241
-0.0378858 -0.0159913 -0.0861384
-0.0378882 -0.0160567 -0.0860329
-0.0378963 -0.0161203 -0.0859128
-0.0379045 -0.0161841 -0.0857923
-0.0379085 -0.0162496 -0.0856816
-0.0379065 -0.0163175 -0.0855858
-0.0379084 -0.0163841 -0.0854798
-0.0379086 -0.0164516 -0.0853777
-0.0379079 -0.0165196 -0.0852777
-0.0378977 -0.016591 -0.0852014
-0.0378899 -0.0166618 -0.0851187
-0.0372102 -0.0174268 -0.0860275
-0.0371298 -0.0175192 -0.0861321
-0.0370611 -0.0176076 -0.0862072
-0.0369857 -0.0176978 -0.0863002
-0.0369157 -0.0177859 -0.0863795
-0.0368578 -0.0178702 -0.0864281
-0.0368101 -0.0179514 -0.0864509
-0.0367645 -0.0180317 -0.0864682
-0.0367257 -0.0181099 -0.0864681
-0.036689 -0.0181875 -0.0864626
-0.0366547 -0.0182644 -0.0864511
-0.0366245 -0.01834 -0.086429
-0.0365977 -0.0184147 -0.0863977
-0.0365727 -0.0184889 -0.086362
-0.036555 -0.0185613 -0.086307
-0.0365381 -0.0186334 -0.0862497
-0.0365217 -0.0187056 -0.0861911
-0.0365046 -0.0187779 -0.0861343
-0.0364849 -0.018851 -0.0860839
-0.0364617 -0.018925 -0.0860432
-0.0364475 -0.0189968 -0.0859779
-0.0364364 -0.019068 -0.0859048
-0.036424 -0.0191397 -0.0858348
-0.0364142 -0.0192108 -0.0857576
-0.0400035 -0.0111141 -0.0867429
-0.0399737 -0.0111937 -0.0867136
-0.0399418 -0.0112745 -0.0866891
-0.0399131 -0.0113534 -0.0866574
-0.0398807 -0.0114343 -0.0866337
-0.0398399 -0.0115199 -0.086629
-0.0397777 -0.0116171 -0.0866718
-0.0397036 -0.0117205 -0.0867415
-0.0396108 -0.0118337 -0.0868534
-0.0395108 -0.0119504 -0.0869819
-0.0394164 -0.0120636 -0.0870985
-0.0393316 -0.0121714 -0.0871941
-0.0392559 -0.0122741 -0.0872699
-0.0391897 -0.0123715 -0.0873244
-0.0391292 -0.0124657 -0.0873665
-0.0390734 -0.0125572 -0.0873983
-0.0390193 -0.0126478 -0.0874266
-0.0389691 -0.0127361 -0.0874462
-0.0389175 -0.0128251 -0.0874693
-0.0388707 -0.0129114 -0.0874814
-0.0388241 -0.0129976 -0.0874934
-0.0387832 -0.0130808 -0.0874926
-0.0387422 -0.0131639 -0.087492
-0.038692 -0.0132515 -0.0875127
-0.038643 -0.0133384 -0.0875309
-0.0385912 -0.0134265 -0.0875556
-0.0385415 -0.0135134 -0.0875758
-0.0384893 -0.0136014 -0.0876021
-0.0384493 -0.0136834 -0.0876001
-0.0384114 -0.0137643 -0.0875933
-0.0383777 -0.0138432 -0.0875771
-0.0383443 -0.0139219 -0.0875601
-0.038315 -0.0139987 -0.0875337
-0.0382859 -0.0140754 -0.0875067
-0.0382588 -0.0141511 -0.087475
-0.0382376 -0.014224 -0.0874292
-0.0382132 -0.0142985 -0.0873912
-0.0381967 -0.0143695 -0.0873343
-0.0381842 -0.0144387 -0.0872679
-0.0381725 -0.0145077 -0.0871997
-0.038151 -0.0145811 -0.0871545
-0.0381238 -0.014657 -0.0871227
-0.0380871 -0.0147371 -0.0871137
-0.0380424 -0.0148205 -0.0871239
-0.0379984 -0.0149035 -0.0871326
-0.0379591 -0.0149845 -0.0871302
-0.0379278 -0.0150619 -0.0871086
-0.0378951 -0.01514 -0.0870906
-0.0378679 -0.0152157 -0.0870592
-0.0378486 -0.0152881 -0.0870087
-0.037834 -0.0153587 -0.0869467
-0.0378224 -0.0154281 -0.0868772
-0.0378201 -0.0154939 -0.0867849
-0.0378178 -0.0155599 -0.0866925
-0.0378155 -0.0156261 -0.0865999
-0.0378095 -0.0156938 -0.086516
-0.0378028 -0.015762 -0.0864335
-0.0377993 -0.0158291 -0.086343
-0.0378004 -0.0158945 -0.0862408
-0.0378066 -0.0159582 -0.0861257
-0.0378195 -0.0160197 -0.0859939
-0.0378361 -0.01608 -0.0858524
-0.0378446 -0.0161436 -0.0857304
-0.0378522 -0.0162078 -0.0856107
-0.037852 -0.016275 -0.0855097
-0.0378557 -0.0163411 -0.0853988
-0.0378583 -0.0164077 -0.0852903
-0.0378558 -0.0164763 -0.0851945
-0.037845 -0.016548 -0.0851191
-0.0378356 -0.0166194 -0.0850401
-0.0370975 -0.0174051 -0.0861028
-0.0370218 -0.017496 -0.0861961
-0.0369611 -0.017582 -0.0862512
-0.0368921 -0.0176703 -0.0863281
-0.0368266 -0.0177571 -0.0863966
-0.0367728 -0.0178403 -0.086435
-0.0367269 -0.0179209 -0.0864532
-0.0366812 -0.0180013 -0.086471
-0.0366442 -0.018079 -0.0864665
-0.0366077 -0.0181566 -0.0864605
-0.0365738 -0.0182333 -0.0864481
-0.0365454 -0.0183085 -0.0864213
-0.0365203 -0.0183827 -0.0863855
-0.0364972 -0.0184565 -0.0863447
-0.0364797 -0.0185287 -0.086289
-0.0364629 -0.0186008 -0.0862316
-0.0364462 -0.018673 -0.0861736
-0.0364271 -0.0187458 -0.0861218
-0.0364056 -0.0188194 -0.0860762
-0.0363805 -0.0188938 -0.0860404
-0.0363627 -0.0189665 -0.085985
-0.0363492 -0.0190382 -0.085918
-0.0363346 -0.0191103 -0.0858537
-0.0363245 -0.0191814 -0.0857769
-0.0399371 -0.0110713 -0.0866975
-0.039911 -0.0111489 -0.0866599
-0.0398836 -0.0112272 -0.0866254
-0.03986 -0.0113034 -0.0865822
-0.0398345 -0.0113806 -0.0865433
-0.0397983 -0.0114638 -0.0865283
-0.0397361 -0.0115612 -0.086571
-0.0396601 -0.0116659 -0.0866453
-0.039563 -0.0117818 -0.086767
-0.0394542 -0.0119036 -0.0869159
-0.0393527 -0.012021 -0.0870489
-0.0392591 -0.0121338 -0.0871649
-0.0391772 -0.0122399 -0.087255
-0.0391088 -0.0123386 -0.087315
-0.039048 -0.0124331 -0.0873581
-0.0389881 -0.0125269 -0.0873995
-0.0389357 -0.0126166 -0.087424
-0.0388835 -0.012706 -0.0874483
-0.0388319 -0.0127951 -0.0874718
-0.0387853 -0.0128815 -0.0874838
-0.0387407 -0.0129666 -0.0874913
-0.0386997 -0.0130498 -0.0874905
-0.0386609 -0.0131319 -0.0874851
-0.0386128 -0.0132186 -0.0875013
-0.0385662 -0.0133043 -0.087514
-0.0385153 -0.0133921 -0.0875371
-0.038466 -0.0134789 -0.0875566
-0.0384158 -0.0135661 -0.0875782
-0.038376 -0.0136481 -0.087576
-0.0383386 -0.0137288 -0.0875682
-0.0383069 -0.0138068 -0.0875472
-0.0382751 -0.0138848 -0.0875264
-0.0382456 -0.0139616 -0.0875002
-0.0382165 -0.0140384 -0.0874734
-0.0381894 -0.0141141 -0.0874417
-0.0381703 -0.0141862 -0.0873911
-0.0381479 -0.0142598 -0.087348
-0.0381337 -0.0143297 -0.0872857
-0.0381234 -0.0143979 -0.0872138
-0.0381154 -0.0144652 -0.0871363
-0.0380938 -0.0145387 -0.0870911
-0.0380649 -0.0146155 -0.0870636
-0.0380243 -0.0146973 -0.0870637
-0.0379753 -0.0147828 -0.0870846
-0.037925 -0.0148686 -0.0871084
-0.0378813 -0.0149515 -0.0871168
-0.0378461 -0.0150307 -0.0871048
-0.0378111 -0.0151097 -0.0870922
-0.0377818 -0.0151863 -0.087066
-0.0377603 -0.0152596 -0.0870208
-0.0377457 -0.0153301 -0.0869586
-0.037734 -0.0153995 -0.0868892
-0.0377298 -0.015466 -0.0868015
-0.0377087 -0.0155394 -0.0867548
-0.0376849 -0.0156139 -0.0867149
-0.0376548 -0.0156909 -0.0866903
-0.0376273 -0.015767 -0.0866594
-0.0376335 -0.0158299 -0.0865452
-0.0376622 -0.0158843 -0.0863747
-0.0376993 -0.0159359 -0.0861829
-0.037744 -0.0159851 -0.0859717
-0.0377883 -0.0160349 -0.0857605
-0.037797 -0.0160984 -0.0856377
-0.0378028 -0.0161633 -0.0855216
-0.0378003 -0.0162314 -0.0854261
-0.0377997 -0.0162989 -0.0853255
-0.0377972 -0.0163674 -0.0852294
-0.03779 -0.0164377 -0.085145
-0.037778 -0.0165098 -0.0850724
-0.0377674 -0.0165816 -0.0849962
-0.0369191 -0.0174713 -0.086247
-0.0368699 -0.0175537 -0.0862729
-0.0368121 -0.0176386 -0.0863213
-0.036747 -0.0177255 -0.0863892
-0.0366935 -0.0178086 -0.0864269
-0.0366493 -0.0178888 -0.086441
-0.0366034 -0.0179693 -0.0864595
-0.0365649 -0.0180475 -0.0864591
-0.0365286 -0.018125 -0.0864529
-0.0364947 -0.0182018 -0.0864404
-0.0364663 -0.018277 -0.0864136
-0.0364414 -0.0183512 -0.0863775
-0.0364185 -0.0184248 -0.086336
-0.0364011 -0.018497 -0.0862798
-0.0363843 -0.0185691 -0.0862219
-0.0363673 -0.0186413 -0.0861647
-0.036348 -0.0187142 -0.0861135
-0.0363263 -0.0187877 -0.0860685
-0.0362995 -0.0188626 -0.0860371
-0.0362781 -0.0189362 -0.0859914
-0.0362623 -0.0190084 -0.0859303
-0.0362457 -0.0190809 -0.0858713
-0.0362357 -0.0191519 -0.0857943
-0.0398666 -0.0110308 -0.086661
-0.0398429 -0.011107 -0.0866179
-0.0398163 -0.0111849 -0.0865814
-0.0397995 -0.0112573 -0.086523
-0.0397765 -0.0113332 -0.0864783
-0.0397446 -0.0114141 -0.0864536
-0.0396851 -0.0115102 -0.0864908
-0.0396137 -0.0116127 -0.0865549
-0.039513 -0.0117309 -0.0866853
-0.0394014 -0.0118546 -0.0868409
-0.0392931 -0.0119761 -0.08699
-0.0391945 -0.0120918 -0.0871177
-0.0391062 -0.0122016 -0.0872226
-0.0390356 -0.0123017 -0.0872882
-0.0389729 -0.0123973 -0.0873358
-0.0389106 -0.0124925 -0.0873829
-0.0388561 -0.0125834 -0.0874124
-0.0388017 -0.0126741 -0.0874422
-0.0387502 -0.0127631 -0.0874653
-0.0387035 -0.0128496 -0.0874777
-0.038659 -0.0129347 -0.0874852
-0.0386185 -0.0130179 -0.0874838
-0.0385801 -0.0130998 -0.0874775
-0.0385343 -0.0131853 -0.0874883
-0.0384902 -0.0132699 -0.0874956
-0.0384432 -0.0133558 -0.0875097
-0.0383963 -0.0134416 -0.0875237
-0.0383479 -0.013528 -0.0875413
-0.0383081 -0.01361 -0.0875391
-0.0382708 -0.0136908 -0.0875313
-0.0382356 -0.0137705 -0.0875183
-0.0382023 -0.0138493 -0.0875011
-0.0381728 -0.0139262 -0.0874751
-0.0381436 -0.0140029 -0.0874481
-0.0381167 -0.0140786 -0.0874159
-0.0381014 -0.0141489 -0.0873562
-0.038083 -0.0142207 -0.0873037
-0.0380688 -0.0142906 -0.087241
-0.0380582 -0.014359 -0.0871697
-0.0380498 -0.0144265 -0.087093
-0.0380262 -0.0145009 -0.0870524
-0.0379952 -0.0145786 -0.0870295
-0.0379527 -0.0146614 -0.0870348
-0.0378996 -0.0147487 -0.0870654
-0.0378452 -0.0148365 -0.0870997
