ply
format ascii 1.0
element vertex 1720
property float x
property float y
property float z
end_header
0.144406 -0.200156 0.852602
0.144987 -0.201464 0.852164
0.145598 -0.202834 0.851989
0.146209 -0.204202 0.851814
0.146821 -0.205572 0.851639
0.147444 -0.206963 0.851555
0.148098 -0.208421 0.851742
0.148758 -0.209888 0.851963
0.149418 -0.211355 0.852179
0.150086 -0.212837 0.852455
0.150763 -0.214339 0.852799
0.151422 -0.215807 0.852999
0.152096 -0.2173 0.853303
0.15278 -0.21882 0.853699
0.153509 -0.220426 0.854424
0.154243 -0.222044 0.855188
0.0946646 -0.084009 0.904509
0.0952503 -0.0853488 0.903469
0.0958401 -0.0866923 0.902498
0.0963877 -0.0879648 0.900856
0.0969183 -0.0892063 0.898962
0.0974859 -0.0905108 0.897711
0.0980553 -0.0918173 0.896509
0.0986327 -0.0931366 0.895454
0.0992207 -0.0944742 0.894588
0.0997998 -0.0957969 0.893605
0.100335 -0.0970407 0.891952
0.100866 -0.0982759 0.890264
0.101357 -0.0994393 0.888004
0.10187 -0.10064 0.886111
0.10239 -0.101852 0.884355
0.10293 -0.1031 0.882936
0.103482 -0.10437 0.881723
0.104044 -0.105656 0.880663
0.104598 -0.106925 0.879499
0.105149 -0.108191 0.87833
0.105726 -0.109505 0.877547
0.106294 -0.110798 0.876631
0.106879 -0.112124 0.875973
0.107463 -0.113445 0.875293
0.108039 -0.114753 0.874528
0.108594 -0.116024 0.873507
0.109168 -0.117328 0.872739
0.109736 -0.118618 0.871893
0.1103 -0.119903 0.871019
0.110852 -0.121167 0.87001
0.111398 -0.122417 0.868926
0.111893 -0.123575 0.867229
0.111569 -0.126551 0.864431
0.112385 -0.124723 0.865502
0.112913 -0.125938 0.864254
0.113511 -0.127285 0.8639
0.114117 -0.128643 0.863627
0.114747 -0.130047 0.863649
0.115396 -0.131488 0.863909
0.116056 -0.132949 0.864287
0.11672 -0.134418 0.864707
0.1174 -0.135917 0.8653
0.118064 -0.137386 0.865697
0.118727 -0.138853 0.866067
0.119373 -0.140292 0.866254
0.120009 -0.141705 0.866287
0.120634 -0.143104 0.866225
0.12125 -0.144484 0.866049
0.121864 -0.14586 0.86585
0.122479 -0.147236 0.865654
0.123096 -0.148619 0.865497
0.123722 -0.150017 0.865428
0.124389 -0.151493 0.865792
0.125059 -0.152976 0.866188
0.125766 -0.154531 0.866977
0.126511 -0.156157 0.868137
0.127251 -0.157775 0.869234
0.128018 -0.159444 0.870582
0.128768 -0.161083 0.871745
0.129486 -0.16266 0.872552
0.130175 -0.164181 0.873056
0.130878 -0.16573 0.873687
0.131529 -0.167181 0.873799
0.132201 -0.16867 0.874102
0.132865 -0.170144 0.874321
0.133519 -0.171601 0.874449
0.134172 -0.173054 0.87455
0.134853 -0.174563 0.874926
0.135474 -0.175954 0.87471
0.136064 -0.177285 0.874198
0.136556 -0.178426 0.872768
0.137016 -0.179505 0.871053
0.137419 -0.18047 0.868818
0.137893 -0.181577 0.867282
0.138405 -0.182753 0.866101
0.139004 -0.184101 0.865741
0.139604 -0.185451 0.86539
0.140232 -0.186854 0.865288
0.140822 -0.188182 0.864842
0.141418 -0.189525 0.864468
0.142003 -0.190844 0.863986
0.142548 -0.192085 0.863162
0.143021 -0.193184 0.861712
0.143473 -0.194242 0.860092
0.14389 -0.19523 0.858187
0.144277 -0.196158 0.856045
0.144706 -0.197169 0.854288
0.145206 -0.198318 0.853151
0.145743 -0.199539 0.852333
0.146313 -0.200827 0.851806
0.146924 -0.202196 0.851631
0.147535 -0.203565 0.851456
0.148147 -0.204934 0.851281
0.148769 -0.206325 0.851195
0.149424 -0.207781 0.85138
0.150084 -0.209248 0.851598
0.150747 -0.210718 0.851831
0.151416 -0.212203 0.852116
0.152105 -0.213728 0.852554
0.152788 -0.21524 0.852932
0.153488 -0.216785 0.853435
0.154197 -0.21835 0.854008
0.154928 -0.219956 0.85474
0.15565 -0.221548 0.855397
0.156132 -0.226002 0.864973
0.156343 -0.223083 0.855821
0.0966753 -0.0847625 0.903871
0.0972772 -0.0861296 0.903114
0.09784 -0.0874316 0.901739
0.0983818 -0.0886979 0.900053
0.0989608 -0.0900242 0.898983
0.0995299 -0.091335 0.89779
0.1001 -0.0926461 0.89663
0.10068 -0.0939723 0.895636
0.10125 -0.0952831 0.894523
0.101771 -0.0965071 0.892669
0.102294 -0.0977341 0.890888
0.102789 -0.0989115 0.888718
0.103299 -0.100115 0.886822
0.103817 -0.101329 0.88506
0.104362 -0.102588 0.883715
0.104919 -0.10387 0.882585
0.105488 -0.105172 0.88163
0.106049 -0.106458 0.880578
0.106608 -0.107741 0.879521
0.107185 -0.109057 0.878735
0.107753 -0.110352 0.877812
0.108332 -0.111668 0.877065
0.108909 -0.112981 0.876299
0.109476 -0.114276 0.875419
0.110016 -0.115522 0.874198
0.110575 -0.1168 0.87323
0.111125 -0.118065 0.872185
0.111671 -0.119318 0.871071
0.112208 -0.120557 0.869888
0.112743 -0.121791 0.868683
0.113241 -0.122959 0.86705
0.113748 -0.12414 0.865529
0.114285 -0.125376 0.864415
0.114879 -0.126713 0.863995
0.115491 -0.128086 0.863809
0.116131 -0.129507 0.863941
0.116791 -0.130966 0.864312
0.117461 -0.132445 0.864799
0.118127 -0.133913 0.865209
0.118792 -0.135385 0.865627
0.11944 -0.136823 0.865825
0.120087 -0.138258 0.865993
0.120717 -0.139665 0.865986
0.121344 -0.141064 0.865929
0.12197 -0.142462 0.865865
0.122586 -0.143841 0.865688
0.1232 -0.145217 0.86549
0.123814 -0.146594 0.865294
0.124432 -0.147977 0.865137
0.125067 -0.149391 0.865157
0.125752 -0.1509 0.865714
0.126443 -0.152419 0.866312
0.127172 -0.154012 0.867309
0.127939 -0.155674 0.868671
0.128691 -0.15731 0.869863
0.129441 -0.158945 0.871022
0.130174 -0.160547 0.871983
0.130873 -0.162083 0.872575
0.131543 -0.163568 0.872881
0.13223 -0.165084 0.873342
0.132884 -0.166538 0.873472
0.133567 -0.168047 0.873877
0.134241 -0.169539 0.874191
0.134914 -0.171031 0.874492
0.135588 -0.172521 0.87478
0.13629 -0.174069 0.875347
0.136932 -0.1755 0.875323
0.137569 -0.176924 0.875265
0.138101 -0.178145 0.874211
0.138546 -0.179201 0.872366
0.138932 -0.180143 0.869999
0.139389 -0.18122 0.868308
0.139859 -0.182319 0.86675
0.140424 -0.183602 0.866068
0.141045 -0.184992 0.865905
0.141683 -0.186417 0.865897
0.142263 -0.187729 0.865369
0.14286 -0.18907 0.864984
0.143434 -0.190372 0.864414
0.143959 -0.191575 0.86341
0.144417 -0.192651 0.861847
0.144857 -0.19369 0.860139
0.14526 -0.194658 0.858135
0.145634 -0.195568 0.855905
0.146058 -0.196573 0.854121
0.146545 -0.197702 0.85289
0.147069 -0.198901 0.851976
0.147628 -0.200168 0.851361
0.148238 -0.201537 0.851184
0.148841 -0.202887 0.850929
0.149441 -0.204236 0.850672
0.150072 -0.205642 0.850652
0.150716 -0.207077 0.850746
0.151376 -0.208541 0.85096
0.15206 -0.210053 0.851361
0.152742 -0.211561 0.851742
0.153446 -0.213112 0.852287
0.154164 -0.214689 0.852931
0.154888 -0.216282 0.853623
0.155603 -0.217855 0.854228
0.156337 -0.219465 0.85497
0.157047 -0.221029 0.855516
0.157715 -0.222511 0.855738
0.0981061 -0.0841795 0.904318
0.0987137 -0.0855588 0.903666
0.0992905 -0.0868877 0.902532
0.0998562 -0.0881981 0.901247
0.100443 -0.089542 0.900313
0.10102 -0.0908672 0.899229
0.10159 -0.0921824 0.898074
0.102157 -0.0934912 0.896889
0.102714 -0.0947817 0.895568
0.103224 -0.095995 0.89359
0.103738 -0.097212 0.891692
0.104231 -0.098393 0.88953
0.104741 -0.0996008 0.887647
0.105256 -0.100815 0.885866
0.105797 -0.102075 0.884498
0.106347 -0.103347 0.883267
0.106916 -0.104652 0.882323
0.107484 -0.105953 0.881373
0.10805 -0.10725 0.880411
0.108628 -0.108569 0.879635
0.109201 -0.109878 0.878794
0.109773 -0.111186 0.877959
0.110336 -0.112476 0.877011
0.110883 -0.113738 0.875868
0.111405 -0.114957 0.87443
0.11194 -0.116196 0.873169
0.112482 -0.117447 0.872016
0.113018 -0.118689 0.870817
0.113552 -0.119925 0.869604
0.114089 -0.121165 0.868441
0.114608 -0.122376 0.867091
0.11513 -0.123587 0.865772
0.115687 -0.124862 0.864909
0.116284 -0.126208 0.864534
0.116901 -0.127587 0.864384
0.117542 -0.129011 0.864528
0.118205 -0.130474 0.864916
0.118877 -0.131953 0.865398
0.119529 -0.133396 0.86564
0.120179 -0.134837 0.865856
0.120811 -0.136245 0.865864
0.121441 -0.13765 0.865845
0.122057 -0.139029 0.865669
0.122682 -0.140424 0.865591
0.123307 -0.141821 0.865514
0.123923 -0.1432 0.865337
0.124537 -0.144577 0.865145
0.125161 -0.14597 0.865045
0.125786 -0.147367 0.864967
0.12643 -0.148798 0.865084
0.127133 -0.150339 0.86582
0.127845 -0.151893 0.866618
0.128587 -0.153505 0.867719
0.129365 -0.155184 0.86917
0.130128 -0.156836 0.870449
0.130865 -0.158441 0.871441
0.131581 -0.160008 0.872209
0.132268 -0.161521 0.872675
0.132929 -0.162987 0.872877
0.133609 -0.164488 0.873263
0.134285 -0.16598 0.873589
0.134978 -0.167508 0.87409
0.135664 -0.16902 0.874501
0.136358 -0.170548 0.874985
0.137052 -0.172078 0.875468
0.13777 -0.17365 0.876156
0.138434 -0.175121 0.876326
0.139103 -0.176606 0.876549
0.139668 -0.177893 0.875806
0.140143 -0.179013 0.874251
0.140529 -0.179961 0.871891
0.14097 -0.181013 0.870059
0.141409 -0.182063 0.868244
0.141941 -0.183284 0.867262
0.142526 -0.184607 0.866768
0.143157 -0.186017 0.866684
0.143727 -0.18731 0.866058
0.144303 -0.188615 0.865492
0.144856 -0.189876 0.864735
0.145358 -0.191041 0.863551
0.145793 -0.192077 0.861803
0.146217 -0.193091 0.859977
0.146594 -0.194015 0.857772
0.146954 -0.194906 0.855452
0.147376 -0.195913 0.853669
0.147861 -0.197043 0.852444
0.148374 -0.198224 0.851448
0.148942 -0.199508 0.850906
0.149551 -0.200875 0.850724
0.150142 -0.202205 0.850387
0.150733 -0.203534 0.850042
0.151362 -0.204937 0.850013
0.151994 -0.206347 0.850008
0.152644 -0.20779 0.850134
0.153338 -0.209318 0.850612
0.154024 -0.210831 0.851014
0.15474 -0.212403 0.851652
0.155473 -0.214007 0.852403
0.156222 -0.215645 0.85328
0.156954 -0.217247 0.854
0.157701 -0.218879 0.854828
0.158399 -0.220418 0.855281
0.159052 -0.22187 0.855386
0.0995348 -0.0835898 0.904705
0.100146 -0.0849765 0.904114
0.100741 -0.086338 0.903283
0.101317 -0.0876671 0.902158
0.101917 -0.089034 0.901423
0.102495 -0.0903665 0.900376
0.103073 -0.0916973 0.899342
0.10364 -0.093009 0.898154
0.104182 -0.09428 0.896626
0.104682 -0.0954832 0.894525
0.105187 -0.0966917 0.892526
0.105678 -0.0978758 0.890363
0.10618 -0.0990763 0.888394
0.1067 -0.100305 0.886711
0.107233 -0.101555 0.885238
0.10778 -0.102826 0.883978
0.108342 -0.10412 0.882935
0.108908 -0.105424 0.881987
0.109474 -0.106725 0.881032
0.110052 -0.108044 0.880242
0.110624 -0.109353 0.879396
0.111196 -0.110663 0.87856
0.111752 -0.111944 0.877527
0.112282 -0.113182 0.876191
0.112787 -0.114375 0.874546
0.11331 -0.115598 0.873157
0.113843 -0.116837 0.871908
0.114372 -0.118069 0.870635
0.114912 -0.119321 0.869521
0.115462 -0.120588 0.868535
0.115991 -0.121817 0.867307
0.11652 -0.123046 0.866098
0.117094 -0.124352 0.865435
0.117699 -0.125711 0.865144
0.118316 -0.127093 0.864999
0.118958 -0.128516 0.865129
0.119616 -0.129968 0.86544
0.120287 -0.131445 0.865903
0.120931 -0.132872 0.866038
0.121572 -0.134297 0.866145
0.122203 -0.135705 0.866142
0.122833 -0.137109 0.866117
0.123435 -0.138462 0.865772
0.124051 -0.139843 0.865598
0.124675 -0.141236 0.865503
0.125283 -0.142602 0.865243
0.125892 -0.143967 0.864978
0.126524 -0.145376 0.864971
0.127158 -0.146789 0.864982
0.127803 -0.148222 0.86511
0.128502 -0.14975 0.865772
0.129223 -0.151319 0.866653
0.129958 -0.152914 0.867661
0.130738 -0.154591 0.869107
0.131504 -0.156244 0.870387
0.132243 -0.157847 0.871378
0.132951 -0.159398 0.872055
0.133639 -0.160909 0.872511
0.13429 -0.162357 0.872619
0.134971 -0.163858 0.873001
0.135666 -0.165383 0.873503
0.136373 -0.166933 0.874122
0.13708 -0.168482 0.874725
0.137797 -0.17005 0.875409
0.138515 -0.171621 0.876094
0.139237 -0.173199 0.876805
0.139913 -0.174693 0.877082
0.140602 -0.176214 0.877481
0.141212 -0.177586 0.877139
0.141724 -0.178779 0.875924
0.142154 -0.179817 0.873979
0.142596 -0.180877 0.872166
0.143001 -0.181868 0.870039
0.143487 -0.183009 0.868663
0.144014 -0.184226 0.867659
0.144595 -0.185542 0.867125
0.145151 -0.18681 0.866379
0.145712 -0.18809 0.86569
0.146234 -0.189294 0.864667
0.146723 -0.190439 0.863387
0.147133 -0.191434 0.861445
0.14755 -0.19244 0.859578
0.147902 -0.193325 0.857197
0.148257 -0.194213 0.854861
0.148679 -0.195226 0.853103
0.149176 -0.19638 0.851979
0.149678 -0.197544 0.850912
0.150244 -0.198827 0.850365
0.150842 -0.20017 0.850081
0.151422 -0.20148 0.849657
0.152 -0.202787 0.849222
0.152638 -0.204207 0.849267
0.153271 -0.205616 0.849263
0.153921 -0.207059 0.849395
0.154616 -0.208588 0.849876
0.155301 -0.210097 0.850265
0.156008 -0.211648 0.850825
0.156753 -0.213272 0.851664
0.157517 -0.214934 0.852638
0.158262 -0.216559 0.853455
0.159012 -0.218194 0.854297
0.15971 -0.219731 0.854744
0.161624 -0.223596 0.86425
0.1016 -0.0844239 0.904868
0.1022 -0.0857934 0.9041
0.102777 -0.0871283 0.903005
0.103378 -0.0884989 0.902286
0.103969 -0.0898537 0.90143
0.10456 -0.0912073 0.900583
0.105126 -0.0925237 0.899408
0.105661 -0.0937876 0.897785
0.106151 -0.0949817 0.895572
0.10664 -0.0961693 0.893358
0.107127 -0.0973558 0.891186
0.107622 -0.0985505 0.889142
0.108141 -0.0997829 0.887464
0.108672 -0.101034 0.885983
0.109218 -0.102307 0.884716
0.109764 -0.10358 0.883479
0.110329 -0.104882 0.882503
0.110894 -0.106182 0.881534
0.111471 -0.107504 0.880753
0.112036 -0.108804 0.879817
0.112613 -0.110124 0.879054
0.113167 -0.111406 0.878008
0.113688 -0.112632 0.876562
0.114175 -0.113802 0.87473
0.114695 -0.115023 0.873317
0.115212 -0.116241 0.871899
0.115733 -0.117462 0.87054
0.116281 -0.118729 0.869528
0.116846 -0.120023 0.868728
0.117384 -0.12127 0.867616
0.117929 -0.12253 0.866611
0.118519 -0.123866 0.866137
0.119117 -0.125216 0.865766
0.119736 -0.126598 0.865619
0.120369 -0.128007 0.865645
0.121017 -0.129441 0.865833
0.121674 -0.130891 0.866115
0.122309 -0.132304 0.86615
0.122935 -0.133702 0.866085
0.123573 -0.13512 0.866145
0.124205 -0.136526 0.866131
0.124807 -0.137881 0.865795
0.125432 -0.139277 0.865709
0.126063 -0.140684 0.865692
0.126671 -0.14205 0.865425
0.127279 -0.143417 0.865162
0.127913 -0.144828 0.865164
0.12855 -0.146242 0.865184
0.129197 -0.147677 0.865316
0.129888 -0.149189 0.865889
0.130601 -0.150741 0.866668
0.131327 -0.152315 0.867563
0.132108 -0.15399 0.868999
0.132875 -0.155641 0.870272
0.133609 -0.157232 0.871193
0.134328 -0.158797 0.871956
0.135026 -0.160326 0.872505
0.135688 -0.161791 0.872701
0.136372 -0.163296 0.873105
0.137078 -0.16484 0.873702
0.137786 -0.16639 0.874321
0.138507 -0.16796 0.875031
0.139227 -0.169532 0.875732
0.139969 -0.171143 0.876619
0.140705 -0.172744 0.877442
0.141402 -0.174275 0.877897
0.142103 -0.175815 0.878382
0.142753 -0.17726 0.878395
0.143292 -0.178505 0.877423
0.143748 -0.179597 0.875716
0.144201 -0.180686 0.874017
0.144576 -0.18163 0.871652
0.145001 -0.182663 0.869737
0.145512 -0.183851 0.868582
0.146076 -0.185138 0.867909
0.146604 -0.186362 0.866937
0.147131 -0.187577 0.865947
0.147626 -0.188737 0.864716
0.148083 -0.189825 0.86317
0.14846 -0.190765 0.860973
0.14886 -0.191748 0.858998
0.149187 -0.192592 0.85643
0.149529 -0.193463 0.854018
0.14996 -0.1945 0.852358
0.150479 -0.195698 0.851429
0.150982 -0.196866 0.850375
0.151546 -0.198147 0.849822
0.15213 -0.199466 0.849435
0.152698 -0.200753 0.848915
0.153264 -0.202037 0.848392
0.153914 -0.203478 0.848525
0.154548 -0.20489 0.848535
0.155199 -0.206334 0.848675
0.155895 -0.207861 0.849153
0.156578 -0.209365 0.849527
0.157274 -0.210892 0.849989
0.158028 -0.21253 0.85089
0.158794 -0.21419 0.851866
0.15954 -0.215816 0.852687
0.160293 -0.217451 0.853539
0.160969 -0.218945 0.853819
0.102474 -0.0825183 0.906626
0.103069 -0.0838848 0.90578
0.103672 -0.0852604 0.905049
0.104243 -0.0865916 0.903891
0.104838 -0.0879538 0.903068
0.105433 -0.0893187 0.902286
0.106024 -0.0906756 0.901448
0.10659 -0.0919938 0.900269
0.107124 -0.0932613 0.898653
0.107611 -0.0944576 0.896428
0.108089 -0.0956349 0.894095
0.108579 -0.0968326 0.891995
0.109065 -0.0980192 0.889853
0.109583 -0.0992563 0.888193
0.110114 -0.100509 0.886711
0.110652 -0.101774 0.885352
0.111188 -0.103035 0.883997
0.111745 -0.104327 0.882928
0.1123 -0.105616 0.881849
0.11287 -0.106928 0.880983
0.113441 -0.108241 0.880132
0.114011 -0.109552 0.879287
0.114571 -0.110845 0.878317
0.115098 -0.112085 0.876966
0.115584 -0.113257 0.875132
0.116088 -0.114457 0.873546
0.116595 -0.115661 0.87202
0.117105 -0.116871 0.870566
0.117652 -0.118137 0.869541
0.118225 -0.119448 0.868855
0.118786 -0.120736 0.868014
0.119354 -0.122038 0.867285
0.11996 -0.123401 0.866993
0.12056 -0.124755 0.866638
0.121178 -0.126136 0.866464
0.121794 -0.127518 0.866299
0.122418 -0.12891 0.866204
0.123059 -0.130331 0.866293
0.123686 -0.13173 0.866232
0.124306 -0.133116 0.866089
0.124945 -0.134536 0.866162
0.125586 -0.135959 0.866244
0.12619 -0.137317 0.865925
0.126817 -0.138715 0.865848
0.127448 -0.140123 0.865829
0.128056 -0.141489 0.86556
0.128665 -0.142857 0.865303
0.129299 -0.144268 0.865296
0.129935 -0.145682 0.865313
0.130574 -0.147102 0.865351
0.131256 -0.148596 0.865822
0.131959 -0.150128 0.866489
0.132667 -0.151667 0.867184
0.133431 -0.153308 0.868436
0.1342 -0.154956 0.8697
0.134937 -0.156548 0.870636
0.135668 -0.158132 0.871506
0.136387 -0.159696 0.872247
0.137061 -0.161181 0.872551
0.137757 -0.162702 0.873043
0.138483 -0.16428 0.873819
0.139204 -0.16585 0.874537
0.139946 -0.167457 0.875436
0.140689 -0.169065 0.876321
0.141444 -0.170696 0.877308
0.142171 -0.17228 0.878037
0.142869 -0.173811 0.878483
0.143571 -0.175348 0.878956
0.144249 -0.176843 0.87921
0.144823 -0.178154 0.878549
0.145326 -0.179338 0.877273
0.145807 -0.180482 0.875823
0.146129 -0.181335 0.872997
0.146988 -0.183431 0.869306
0.147513 -0.184652 0.868302
0.148028 -0.185851 0.867218
0.148552 -0.187066 0.866217
0.149002 -0.188147 0.864613
0.149425 -0.18918 0.862808
0.149785 -0.190095 0.860495
0.150162 -0.19104 0.858347
0.150462 -0.191845 0.855599
0.150812 -0.192739 0.853282
0.151252 -0.193797 0.851716
0.151773 -0.195 0.850809
0.152275 -0.196169 0.849759
0.152837 -0.197447 0.849196
0.153408 -0.198742 0.848706
0.153962 -0.200005 0.848088
0.154527 -0.20129 0.847565
0.155179 -0.202733 0.847715
0.155826 -0.204168 0.847822
0.156479 -0.205615 0.847977
0.157174 -0.207139 0.848447
0.157856 -0.208638 0.848805
0.158538 -0.210137 0.849158
0.159271 -0.211731 0.849886
0.160035 -0.213386 0.850845
0.160782 -0.215008 0.851662
0.161536 -0.216641 0.852508
0.162223 -0.218152 0.852864
0.103959 -0.0819919 0.907714
0.104547 -0.0833517 0.906771
0.10515 -0.0847315 0.906055
0.105718 -0.0860593 0.904839
0.106304 -0.087414 0.903915
0.106894 -0.0887716 0.903043
0.107483 -0.0901278 0.902178
0.108042 -0.0914392 0.900914
0.108567 -0.0926991 0.899201
0.109052 -0.0938969 0.896969
0.109526 -0.0950769 0.894634
0.110007 -0.0962658 0.892433
0.11049 -0.0974533 0.890278
0.111013 -0.0987019 0.888698
0.111542 -0.0999576 0.887216
0.112072 -0.101214 0.885774
0.112606 -0.102476 0.884414
0.113155 -0.103758 0.883238
0.1137 -0.105036 0.882063
0.114263 -0.106339 0.881106
0.114826 -0.107642 0.88017
0.115388 -0.108942 0.879237
0.115948 -0.110237 0.878273
0.116482 -0.111493 0.877031
0.116969 -0.112671 0.875236
0.117479 -0.113887 0.873749
0.117988 -0.115099 0.872268
0.118502 -0.116317 0.870864
0.11904 -0.117572 0.869748
0.119622 -0.118899 0.869166
0.120191 -0.120202 0.868426
0.120768 -0.121519 0.867793
0.121374 -0.122884 0.867499
0.121982 -0.124252 0.867227
0.122592 -0.125622 0.866973
0.123201 -0.126989 0.866698
0.123814 -0.128366 0.866492
0.124446 -0.129771 0.866475
0.125065 -0.131157 0.866327
0.125686 -0.132544 0.866187
0.126327 -0.133967 0.866273
0.12697 -0.135392 0.866364
0.127575 -0.136753 0.866054
0.128202 -0.138152 0.865983
0.128835 -0.139562 0.865975
0.129444 -0.14093 0.865707
0.130053 -0.142298 0.865446
0.130687 -0.143709 0.865438
0.131322 -0.145122 0.865442
0.131951 -0.146524 0.865374
0.132624 -0.148001 0.86574
0.133318 -0.149513 0.866301
0.134017 -0.151037 0.866907
0.134774 -0.152658 0.868055
0.135544 -0.154306 0.869322
0.136292 -0.155911 0.870335
0.137036 -0.157515 0.871315
0.137768 -0.159099 0.872167
0.138465 -0.160621 0.872675
0.139173 -0.162163 0.873272
0.139903 -0.163745 0.874066
0.140625 -0.165312 0.874772
0.141378 -0.166935 0.875753
0.142123 -0.168545 0.876647
0.142891 -0.170194 0.877725
0.14363 -0.171795 0.878535
0.144349 -0.17336 0.87915
0.145052 -0.1749 0.879627
0.145718 -0.176375 0.879771
0.146346 -0.17778 0.879565
0.146911 -0.179076 0.878828
0.148509 -0.183084 0.870375
0.148981 -0.184212 0.868927
0.149484 -0.185395 0.867755
0.149983 -0.186567 0.866548
0.150387 -0.187572 0.864579
0.150772 -0.188542 0.862483
0.151104 -0.189414 0.859967
0.151444 -0.1903 0.857544
0.151739 -0.191103 0.854789
0.152096 -0.192019 0.852563
0.152546 -0.193097 0.85109
0.153067 -0.194303 0.850194
0.153577 -0.19549 0.849223
0.154136 -0.196766 0.848648
0.154695 -0.198039 0.848067
0.155248 -0.199301 0.847443
0.155823 -0.200606 0.847009
0.156466 -0.202032 0.847085
0.157125 -0.203486 0.84728
0.15779 -0.204953 0.847518
0.158476 -0.206456 0.847905
0.159147 -0.207935 0.84818
0.159817 -0.20941 0.848438
0.160525 -0.210957 0.848982
0.161277 -0.212585 0.84984
0.162025 -0.214205 0.850653
0.162779 -0.215836 0.8515
0.163478 -0.217368 0.85194
0.105411 -0.0814136 0.908274
0.106012 -0.0827922 0.907509
0.106622 -0.0841846 0.9069
0.107202 -0.0855336 0.905869
0.107789 -0.0868913 0.904951
0.108384 -0.0882596 0.904156
0.108966 -0.0896077 0.903188
0.109516 -0.0909103 0.901812
0.110031 -0.0921615 0.899992
0.110507 -0.0933522 0.897668
0.110965 -0.0945155 0.89515
0.111437 -0.0956961 0.892854
0.111909 -0.0968761 0.890608
0.112422 -0.0981132 0.888913
0.112942 -0.0993599 0.887341
0.11347 -0.100617 0.885891
0.114005 -0.101883 0.884548
0.114543 -0.103154 0.883274
0.115089 -0.104433 0.882096
0.115649 -0.105734 0.881115
0.116203 -0.107027 0.880093
0.116764 -0.108327 0.879152
0.117337 -0.109647 0.878372
0.117887 -0.11093 0.877326
0.118376 -0.112116 0.875574
0.118894 -0.113347 0.874189
0.119393 -0.114547 0.872606
0.119894 -0.11575 0.871074
0.120415 -0.116982 0.86978
0.120998 -0.118311 0.869207
0.121567 -0.119618 0.868482
0.122158 -0.12096 0.868019
0.122766 -0.122327 0.867736
0.123375 -0.123696 0.867468
0.123984 -0.125067 0.867206
0.124593 -0.126434 0.866931
0.125199 -0.127799 0.866639
0.125821 -0.12919 0.86652
0.126448 -0.130587 0.866444
0.127077 -0.131989 0.866392
0.12773 -0.133429 0.866582
0.128382 -0.134869 0.866763
0.128994 -0.136243 0.866526
0.129613 -0.137628 0.866358
0.130238 -0.139023 0.866253
0.130838 -0.140377 0.865902
0.131439 -0.141733 0.865559
0.132065 -0.14313 0.865463
0.132691 -0.144527 0.86537
0.13331 -0.145912 0.865203
0.133974 -0.147373 0.865475
0.13465 -0.148856 0.865864
0.135351 -0.150378 0.86647
0.136109 -0.151997 0.86761
0.136882 -0.153642 0.868867
0.13763 -0.155247 0.869883
0.138396 -0.156884 0.871052
0.139132 -0.15847 0.871921
0.139833 -0.159997 0.872449
0.140551 -0.161555 0.873135
0.141282 -0.163134 0.873918
0.142006 -0.164704 0.874638
0.142783 -0.166362 0.875805
0.143541 -0.167992 0.8768
0.144313 -0.169643 0.877891
0.145064 -0.171261 0.878787
0.145813 -0.172877 0.879657
0.146532 -0.174441 0.880254
0.147235 -0.175979 0.880701
0.147885 -0.177424 0.880687
0.150404 -0.183689 0.869163
0.150868 -0.184804 0.867665
0.151335 -0.185925 0.866214
0.1517 -0.186868 0.863956
0.15205 -0.187782 0.861599
0.152376 -0.188652 0.859069
0.152699 -0.189515 0.856542
0.153002 -0.190341 0.853882
0.153379 -0.191297 0.85184
0.153839 -0.192399 0.850471
0.154359 -0.193605 0.849569
0.154877 -0.194809 0.848673
0.155424 -0.196064 0.848006
0.155972 -0.19732 0.847357
0.156535 -0.198602 0.846818
0.157122 -0.199929 0.846474
0.157755 -0.201334 0.846469
0.158424 -0.202806 0.846739
0.159099 -0.204288 0.847045
0.159775 -0.205775 0.847363
0.160448 -0.207253 0.847644
0.161118 -0.208728 0.847899
0.161802 -0.210229 0.84826
0.16253 -0.211808 0.848927
0.163277 -0.213422 0.849723
0.164011 -0.215015 0.850422
0.164713 -0.21655 0.850882
0.10686 -0.0808242 0.908735
0.10747 -0.0822198 0.908124
0.10809 -0.083626 0.907639
0.108685 -0.0849993 0.906829
0.10928 -0.0863702 0.906017
0.109889 -0.0877602 0.905411
0.110471 -0.0891122 0.904451
0.111005 -0.0903969 0.902872
0.11151 -0.0916372 0.900922
0.111966 -0.0928073 0.898373
0.112399 -0.0939426 0.895575
0.112848 -0.0950957 0.89301
0.113308 -0.096265 0.890649
0.113803 -0.0974805 0.888753
0.114321 -0.0987282 0.887176
0.11484 -0.0999755 0.885634
0.115381 -0.101254 0.884387
0.115918 -0.102526 0.883115
0.116461 -0.103806 0.881934
0.117011 -0.105095 0.880853
0.117572 -0.106398 0.879905
0.118124 -0.107688 0.878874
0.118704 -0.109018 0.878174
0.119275 -0.110337 0.877403
0.119779 -0.111552 0.875851
0.120291 -0.112777 0.87441
0.120795 -0.11399 0.872907
0.121302 -0.115205 0.871448
0.121806 -0.116414 0.869979
0.12238 -0.117733 0.869321
0.122956 -0.119051 0.868669
0.123547 -0.120394 0.868204
0.124147 -0.12175 0.86784
0.124757 -0.123122 0.867579
0.125368 -0.124493 0.867321
0.125976 -0.125862 0.86705
0.126592 -0.127241 0.866851
0.127209 -0.128623 0.866666
0.127844 -0.130034 0.866674
0.12849 -0.131462 0.866789
0.129153 -0.132919 0.867078
0.1298 -0.134349 0.867192
0.130419 -0.135735 0.867024
0.131026 -0.137102 0.866736
0.131624 -0.138453 0.866352
0.132214 -0.139792 0.865898
0.132814 -0.141147 0.865547
0.133432 -0.14253 0.86537
0.13405 -0.143914 0.865193
0.134668 -0.145297 0.865016
0.135332 -0.146757 0.865282
0.136001 -0.148226 0.865593
0.136703 -0.149749 0.866205
0.137455 -0.151353 0.867261
0.138229 -0.152996 0.868517
0.13897 -0.154586 0.869448
0.139737 -0.156221 0.870609
0.140485 -0.157824 0.871574
0.141204 -0.159379 0.872263
0.141935 -0.160954 0.873041
0.142687 -0.162567 0.874004
0.143434 -0.16417 0.8749
0.144214 -0.165831 0.87608
0.144987 -0.167482 0.877188
0.145763 -0.169137 0.878293
0.146517 -0.170758 0.879201
0.147293 -0.172416 0.880282
0.148051 -0.174043 0.881189
0.148799 -0.175654 0.882003
0.1495 -0.177189 0.882412
0.151836 -0.183175 0.869444
0.152233 -0.184181 0.867423
0.152646 -0.185214 0.865553
0.152978 -0.186105 0.863056
0.153295 -0.186968 0.860462
0.153636 -0.187874 0.858093
0.153945 -0.18872 0.855488
0.154271 -0.189593 0.853038
0.15467 -0.190592 0.851185
0.155142 -0.191719 0.849922
0.155648 -0.192905 0.848936
0.156175 -0.194126 0.848116
0.156721 -0.195381 0.847449
0.157272 -0.196641 0.846815
0.157846 -0.197946 0.846374
0.158445 -0.199293 0.846118
0.159066 -0.200677 0.846025
0.159734 -0.202147 0.846285
0.160409 -0.203627 0.846585
0.161087 -0.205114 0.846909
0.161761 -0.206595 0.847199
0.162432 -0.208068 0.847453
0.163091 -0.209524 0.847628
0.163805 -0.211074 0.848182
0.164539 -0.212663 0.848881
0.165262 -0.214233 0.849499
0.165969 -0.215774 0.849983
0.108294 -0.0802128 0.908969
0.108922 -0.0816331 0.908606
0.109553 -0.0830556 0.908274
0.110169 -0.0844573 0.907732
0.110786 -0.0858606 0.907221
0.111404 -0.0872659 0.906738
0.111986 -0.0886222 0.905785
0.112512 -0.0898996 0.904106
0.113004 -0.091129 0.902018
0.11344 -0.0922778 0.899237
0.113852 -0.093392 0.896214
0.114281 -0.0945233 0.893424
0.114729 -0.0956818 0.890946
0.115205 -0.0968773 0.888851
0.115712 -0.0981135 0.887162
0.116222 -0.0993528 0.885538
0.116762 -0.100632 0.884288
0.117291 -0.101895 0.882936
0.117833 -0.103176 0.88175
0.118375 -0.104455 0.880581
0.118933 -0.105757 0.879626
0.119477 -0.107037 0.87851
0.120048 -0.108357 0.877724
0.120619 -0.109676 0.876947
0.121135 -0.110914 0.875568
0.121648 -0.112143 0.874154
0.122159 -0.113372 0.872759
0.12268 -0.114611 0.871475
0.123188 -0.115832 0.870076
0.123755 -0.117139 0.86933
0.124338 -0.11847 0.868762
0.124929 -0.119813 0.868292
0.125521 -0.121158 0.867838
0.12613 -0.122528 0.86757
0.12674 -0.1239 0.867309
0.127349 -0.125271 0.867048
0.127975 -0.126667 0.866956
0.128602 -0.128065 0.86687
0.129256 -0.129504 0.867063
0.129923 -0.130963 0.867369
0.130599 -0.132439 0.867779
0.131249 -0.133874 0.867908
0.131868 -0.13526 0.867731
0.132455 -0.136596 0.86724
0.133022 -0.1379 0.866557
0.133591 -0.139207 0.8659
0.134172 -0.140531 0.86536
0.13478 -0.1419 0.865093
0.135389 -0.14327 0.864832
0.136006 -0.144653 0.864655
0.136672 -0.146113 0.864921
0.137351 -0.147596 0.865317
0.138055 -0.14912 0.865935
0.138808 -0.150723 0.866993
0.139575 -0.15235 0.86816
0.140316 -0.153936 0.869075
0.141066 -0.155537 0.870055
0.141805 -0.15712 0.870917
0.142514 -0.158659 0.87152
0.143255 -0.160248 0.872379
0.14403 -0.161893 0.873525
0.144813 -0.163554 0.874727
0.145629 -0.16527 0.8762
0.146448 -0.166992 0.877677
0.147247 -0.168683 0.878967
0.148016 -0.170324 0.879977
0.148809 -0.172006 0.881175
0.149594 -0.173676 0.882297
0.150377 -0.175344 0.883378
0.151107 -0.176925 0.884015
0.151853 -0.178533 0.88477
0.154193 -0.185238 0.861667
0.154492 -0.186079 0.858966
0.154857 -0.187031 0.856813
0.155178 -0.187904 0.854336
0.155529 -0.188827 0.852114
0.15595 -0.189871 0.850461
0.156432 -0.191019 0.849288
0.156925 -0.192185 0.848216
0.157461 -0.193423 0.847467
0.158009 -0.194682 0.846818
0.15857 -0.195964 0.84628
0.159157 -0.197291 0.845936
0.159767 -0.198657 0.845761
0.160389 -0.200041 0.845669
0.161057 -0.201511 0.845928
0.161733 -0.20299 0.846228
0.162411 -0.204478 0.846552
0.163086 -0.205958 0.846842
0.163745 -0.207411 0.847014
0.164381 -0.208822 0.847009
0.16508 -0.210343 0.847451
0.165799 -0.211903 0.848035
0.16651 -0.21345 0.848561
0.167242 -0.215031 0.849218
0.110373 -0.0810402 0.909036
0.11101 -0.0824717 0.90878
0.11164 -0.0838936 0.908431
0.11228 -0.0853292 0.908221
0.112908 -0.0867485 0.907856
0.113507 -0.0881293 0.907116
0.114033 -0.0894106 0.905442
0.114514 -0.0906323 0.903244
0.114928 -0.0917589 0.900219
0.115311 -0.0928424 0.896873
0.11571 -0.0939419 0.893766
0.116138 -0.0950794 0.891075
0.116595 -0.0962538 0.888777
0.117085 -0.0974696 0.886898
0.117592 -0.0987088 0.885266
0.118115 -0.0999674 0.883836
0.118642 -0.101231 0.882477
0.119182 -0.102511 0.881289
0.119714 -0.103781 0.880037
0.120264 -0.105074 0.878999
0.120813 -0.106364 0.877963
0.121383 -0.107684 0.87718
0.121953 -0.109001 0.876392
0.122483 -0.110263 0.875193
0.123017 -0.111529 0.874044
0.123539 -0.112775 0.87277
0.124068 -0.114029 0.871586
0.124584 -0.115265 0.870287
0.125149 -0.116572 0.869534
0.125723 -0.117891 0.868875
0.126313 -0.119235 0.8684
0.126905 -0.120579 0.867938
0.127513 -0.121949 0.86766
0.128122 -0.12332 0.867392
0.12874 -0.124705 0.867215
0.129385 -0.126129 0.867307
0.130016 -0.127531 0.86725
0.130682 -0.12899 0.867557
0.131367 -0.130477 0.868042
0.132056 -0.131972 0.868562
0.132702 -0.1334 0.868642
0.133322 -0.134788 0.868464
0.133897 -0.136106 0.867851
0.134433 -0.137364 0.866873
0.134972 -0.138625 0.865927
0.135532 -0.139918 0.865191
0.136129 -0.141271 0.864822
0.136719 -0.142611 0.864386
0.137336 -0.143994 0.864203
0.137992 -0.145438 0.864383
0.138673 -0.146921 0.864781
0.13937 -0.14843 0.865318
0.140115 -0.150016 0.866285
0.140861 -0.151606 0.867252
0.141609 -0.153201 0.868222
0.14234 -0.154769 0.869027
0.14307 -0.156334 0.869801
0.143818 -0.15793 0.870725
0.144592 -0.15957 0.871868
0.145396 -0.161258 0.87325
0.146238 -0.16301 0.874944
0.147104 -0.164802 0.876818
0.147929 -0.166529 0.87832
0.148751 -0.168253 0.879779
0.149533 -0.169914 0.880883
0.15034 -0.171615 0.882171
0.151142 -0.17331 0.883411
0.151918 -0.174962 0.884412
0.152649 -0.176542 0.88503
0.153389 -0.178138 0.885714
0.155339 -0.184262 0.859765
0.15566 -0.185147 0.857277
0.156069 -0.18618 0.855497
0.156425 -0.187119 0.853317
0.156798 -0.188087 0.851298
0.157242 -0.189173 0.849835
0.157733 -0.19034 0.848745
0.158225 -0.191505 0.847667
0.15877 -0.192761 0.846999
0.159318 -0.194022 0.846357
0.159881 -0.195308 0.845836
0.16048 -0.196655 0.84558
0.161101 -0.198039 0.845487
0.161735 -0.199447 0.845487
0.162406 -0.200918 0.845759
0.163082 -0.202398 0.846061
0.16376 -0.203883 0.846374
0.164424 -0.205341 0.846573
0.165071 -0.206773 0.846657
0.165694 -0.208162 0.846563
0.166368 -0.209639 0.846826
0.167072 -0.211169 0.847298
0.16777 -0.21269 0.84772
0.168501 -0.214268 0.848367
0.111822 -0.0804398 0.909397
0.112471 -0.0818883 0.909306
0.113117 -0.0833307 0.909152
0.113775 -0.0847901 0.909169
0.114427 -0.0862419 0.909102
0.115042 -0.0876461 0.908564
0.115566 -0.0889313 0.906891
0.116039 -0.0901476 0.904601
0.116434 -0.091258 0.901383
0.116781 -0.0923028 0.897638
0.11715 -0.0933711 0.89421
0.117542 -0.0944672 0.891122
0.117973 -0.0956118 0.888544
0.11845 -0.096817 0.886559
0.118954 -0.0980549 0.884907
0.119459 -0.0992927 0.883291
0.11999 -0.100566 0.882007
0.120521 -0.101835 0.880728
0.121051 -0.103105 0.879469
0.121599 -0.104398 0.878433
0.122156 -0.1057 0.877487
0.122725 -0.107019 0.876702
0.123301 -0.108349 0.876008
0.123838 -0.109624 0.874898
0.124382 -0.110903 0.873855
0.124905 -0.112154 0.872614
0.125433 -0.113412 0.871444
0.125956 -0.114661 0.870234
0.126521 -0.11597 0.869486
0.127096 -0.117292 0.868847
0.127695 -0.118649 0.868463
0.128293 -0.120005 0.868075
0.128902 -0.121375 0.867791
0.12951 -0.122747 0.86752
0.130129 -0.124132 0.867343
0.130783 -0.12557 0.867527
0.131424 -0.126988 0.867567
0.132102 -0.128462 0.867975
0.132799 -0.129967 0.868567
0.133509 -0.131489 0.869263
0.134155 -0.132918 0.869339
0.134767 -0.134295 0.86908
0.135324 -0.135588 0.868294
0.135838 -0.136815 0.867112
0.136346 -0.138031 0.865876
0.136883 -0.139292 0.864938
0.13746 -0.140614 0.864386
0.13804 -0.141937 0.863845
0.138646 -0.143303 0.863566
0.139291 -0.144729 0.863645
0.139973 -0.146212 0.864045
0.14067 -0.147719 0.864581
0.141407 -0.149289 0.865462
0.142057 -0.150726 0.865566
0.142694 -0.152141 0.865542
0.143299 -0.153504 0.86523
0.143916 -0.154888 0.865035
0.144714 -0.156559 0.866409
0.145637 -0.158428 0.868838
0.14661 -0.160379 0.871662
0.147628 -0.162407 0.874848
0.148651 -0.164444 0.878026
0.149481 -0.166176 0.879542
0.150298 -0.167887 0.880929
0.151071 -0.16953 0.88193
0.151857 -0.171193 0.883022
0.152635 -0.172844 0.884029
0.153387 -0.174455 0.884815
0.154113 -0.176025 0.885382
0.154848 -0.177611 0.886011
0.156856 -0.18427 0.855831
0.157333 -0.185419 0.854593
0.157754 -0.186475 0.852943
0.158126 -0.187446 0.850933
0.15857 -0.188537 0.849483
0.15907 -0.18972 0.848471
0.159559 -0.190883 0.847379
0.160093 -0.192122 0.846636
0.16064 -0.193384 0.845999
0.161204 -0.194672 0.84548
0.161802 -0.196019 0.845223
0.162424 -0.197405 0.845136
0.163059 -0.198814 0.845149
0.163733 -0.200288 0.845429
0.164412 -0.20177 0.84574
0.165089 -0.20325 0.846037
0.16575 -0.204707 0.846224
0.166397 -0.206135 0.846299
0.167009 -0.207505 0.846124
0.167657 -0.208938 0.84621
0.168347 -0.210441 0.846574
0.169032 -0.211936 0.846901
0.169765 -0.213515 0.847553
0.113258 -0.0798223 0.909584
0.113917 -0.0812813 0.909598
0.114566 -0.0827288 0.909484
0.115248 -0.0842185 0.9098
0.11591 -0.085683 0.909846
0.116541 -0.0871082 0.909498
0.117073 -0.0884076 0.907932
0.11756 -0.0896483 0.905843
0.117937 -0.0907455 0.902455
0.118269 -0.0917805 0.898579
0.118607 -0.0928189 0.894837
0.118976 -0.0938931 0.89152
0.11938 -0.0950079 0.888653
0.119846 -0.0962031 0.886561
0.12034 -0.0974324 0.88482
0.120833 -0.0986585 0.883093
0.121355 -0.0999208 0.881713
0.121874 -0.101179 0.880329
0.122403 -0.102449 0.879075
0.12295 -0.103743 0.878033
0.123504 -0.105045 0.877088
0.124074 -0.106367 0.876316
0.124651 -0.107699 0.87564
0.125198 -0.108987 0.874633
0.125748 -0.110282 0.873696
0.126287 -0.111557 0.87263
0.126823 -0.11283 0.871565
0.127353 -0.11409 0.870433
0.127918 -0.115401 0.869686
0.128493 -0.116725 0.869047
0.129077 -0.118061 0.868508
0.129667 -0.119408 0.86805
0.130275 -0.120778 0.867762
0.130886 -0.12215 0.867494
0.131505 -0.123537 0.867326
0.132177 -0.125002 0.867685
0.132837 -0.126447 0.867905
0.133517 -0.127923 0.86832
0.134215 -0.129426 0.868897
0.134925 -0.130947 0.869577
0.135563 -0.132363 0.869565
0.136166 -0.133726 0.869217
0.136711 -0.135005 0.868332
0.137204 -0.136204 0.866967
0.137689 -0.137388 0.865532
0.138204 -0.138618 0.8644
0.138752 -0.139896 0.863579
0.1393 -0.141174 0.862768
0.139893 -0.14252 0.862376
0.140516 -0.143911 0.862257
0.141179 -0.145363 0.86249
0.141811 -0.146767 0.86244
0.142468 -0.14821 0.862609
0.143016 -0.149486 0.861823
0.143556 -0.15075 0.860976
0.144058 -0.151952 0.859797
0.144631 -0.153266 0.859253
0.14542 -0.154916 0.860567
0.14634 -0.15677 0.862968
0.147315 -0.158714 0.865814
0.14833 -0.160722 0.868952
0.149514 -0.163 0.873468
0.150507 -0.16498 0.876338
0.151492 -0.166953 0.879114
0.152429 -0.16885 0.881453
0.15335 -0.170725 0.883642
0.154096 -0.172322 0.884368
0.154825 -0.173895 0.884958
0.155546 -0.175454 0.885468
0.158229 -0.183689 0.855754
0.158707 -0.184842 0.854534
0.159161 -0.185958 0.853149
0.159517 -0.186909 0.851038
0.159945 -0.187978 0.849485
0.160433 -0.189144 0.848387
0.160921 -0.190309 0.847302
0.161443 -0.19153 0.846475
0.161989 -0.192791 0.845832
0.16255 -0.194076 0.845298
0.163136 -0.195401 0.844948
0.163746 -0.196769 0.844782
0.164383 -0.198179 0.844797
0.165047 -0.199635 0.845005
0.165724 -0.201114 0.8453
0.1664 -0.202592 0.845593
0.167063 -0.204048 0.845779
0.167711 -0.205478 0.845861
0.168334 -0.206867 0.845767
0.168971 -0.208278 0.845762
0.169646 -0.209757 0.846032
0.170329 -0.211247 0.846338
0.171078 -0.212849 0.84709
0.113999 -0.0776982 0.90925
0.114676 -0.0791787 0.9095
0.11534 -0.0806451 0.909587
0.11601 -0.0821173 0.909727
0.116712 -0.0836297 0.910268
0.117391 -0.0851151 0.910513
0.118022 -0.0865419 0.910166
0.118576 -0.0878724 0.908879
0.119069 -0.0891278 0.906899
0.119451 -0.0902404 0.903616
0.119772 -0.0912709 0.899653
0.120093 -0.0922969 0.895758
0.12043 -0.0933396 0.892115
0.120804 -0.0944241 0.888943
0.121252 -0.0956009 0.886672
0.121736 -0.0968216 0.884839
0.122218 -0.098038 0.883015
0.122729 -0.0992901 0.881535
0.123237 -0.100537 0.880048
0.123757 -0.101798 0.878707
0.124295 -0.10308 0.877574
0.124849 -0.104384 0.87664
0.125417 -0.105706 0.875865
0.125995 -0.10704 0.875202
0.12654 -0.10833 0.874206
0.127108 -0.109648 0.873447
0.127654 -0.110936 0.872476
0.12819 -0.112211 0.871417
0.128725 -0.113483 0.870363
0.129297 -0.114805 0.869692
0.129871 -0.116129 0.869052
0.130447 -0.117455 0.868432
0.131037 -0.118802 0.867969
0.131645 -0.120172 0.867677
0.132255 -0.121545 0.867415
0.132885 -0.122947 0.867346
0.13357 -0.124428 0.867813
0.134249 -0.125901 0.868214
0.134931 -0.127377 0.868629
0.135629 -0.12888 0.869199
0.136328 -0.130384 0.869769
0.136965 -0.131796 0.869729
0.137549 -0.133135 0.869211
0.138074 -0.134386 0.868145
0.138537 -0.135541 0.866502
0.138987 -0.136679 0.864773
0.139471 -0.137865 0.863373
0.139988 -0.139099 0.862283
0.140513 -0.140345 0.861284
0.14111 -0.141697 0.860939
0.141705 -0.143043 0.860565
0.142335 -0.144445 0.860515
0.142912 -0.145765 0.859994
0.143489 -0.147085 0.859474
0.143922 -0.148189 0.857724
0.144382 -0.14933 0.856211
0.144796 -0.1504 0.854326
0.145315 -0.151628 0.853352
0.146082 -0.153237 0.854488
0.146985 -0.155054 0.856749
0.147933 -0.156946 0.859367
0.148906 -0.158876 0.86215
0.150067 -0.161102 0.866459
0.151033 -0.163028 0.869107
0.151998 -0.164957 0.871721
0.153074 -0.167059 0.875195
0.154136 -0.169145 0.878523
0.155004 -0.170927 0.880244
0.155902 -0.172761 0.882192
0.159675 -0.183223 0.856219
0.160138 -0.184357 0.854901
0.160599 -0.185486 0.853571
0.160938 -0.186416 0.851349
0.161339 -0.187446 0.849614
0.161811 -0.188591 0.848411
0.162298 -0.189757 0.847325
0.162808 -0.190962 0.846422
0.163341 -0.192203 0.845686
0.163899 -0.193482 0.845129
0.16447 -0.194786 0.844679
0.165069 -0.196133 0.844423
0.165704 -0.19754 0.844427
0.166354 -0.198972 0.844532
0.167029 -0.200447 0.844816
0.167708 -0.201927 0.845116
0.168373 -0.203385 0.845316
0.169024 -0.20482 0.845416
0.16966 -0.206229 0.845409
0.170283 -0.207619 0.845316
0.17096 -0.209095 0.845577
0.171641 -0.210583 0.845878
0.172405 -0.212207 0.846722
0.116112 -0.0785559 0.909644
0.11679 -0.0800368 0.909881
0.117472 -0.081524 0.910168
0.118178 -0.083041 0.910748
0.118867 -0.0845369 0.911092
0.119506 -0.0859748 0.910836
0.120075 -0.087327 0.909741
0.120587 -0.0886082 0.907986
0.120991 -0.0897568 0.905004
0.121323 -0.0908126 0.901229
0.12162 -0.0918204 0.897113
0.121926 -0.0928337 0.893157
0.122275 -0.093895 0.88974
0.122695 -0.0950436 0.887188
0.123145 -0.0962259 0.884996
0.123616 -0.0974326 0.883069
0.124115 -0.0986721 0.881473
0.124605 -0.0998991 0.879806
0.125114 -0.10115 0.87837
0.125651 -0.102434 0.877243
0.126203 -0.103736 0.876294
0.126778 -0.105068 0.875599
0.127363 -0.106414 0.875022
0.127908 -0.107705 0.874029
0.128474 -0.109024 0.87327
0.129018 -0.110313 0.872299
0.129546 -0.111577 0.871154
0.130072 -0.11284 0.870027
0.130642 -0.114161 0.869345
0.131223 -0.115496 0.868784
0.131806 -0.116832 0.868236
0.132404 -0.11819 0.867852
0.133019 -0.119571 0.867632
0.133638 -0.120957 0.867455
0.13428 -0.122376 0.867495
0.134969 -0.12386 0.867988
0.135651 -0.125337 0.868408
0.136325 -0.126801 0.868738
0.137015 -0.128288 0.869208
0.137704 -0.129777 0.869673
0.13833 -0.131176 0.869543
0.138895 -0.132486 0.868838
0.13939 -0.133695 0.867503
0.139825 -0.134817 0.865643
0.140231 -0.135894 0.863537
0.140671 -0.13702 0.861766
0.141146 -0.138194 0.860319
0.141638 -0.139392 0.859047
0.142195 -0.140683 0.858353
0.142736 -0.141952 0.857536
0.143304 -0.143259 0.856953
0.143809 -0.144473 0.855838
0.144308 -0.145678 0.854682
0.144671 -0.146677 0.852368
0.145079 -0.147742 0.850463
0.145474 -0.148786 0.84847
0.145979 -0.149993 0.847422
0.146725 -0.151565 0.848408
0.147582 -0.153301 0.850278
0.148462 -0.155078 0.852335
0.149371 -0.156899 0.854595
0.154627 -0.16714 0.871173
0.155577 -0.169041 0.873562
0.161139 -0.182783 0.856811
0.161604 -0.183922 0.8555
0.162064 -0.185055 0.854181
0.162387 -0.185965 0.851859
0.16277 -0.186972 0.850004
0.163226 -0.188093 0.848691
0.163687 -0.189223 0.847433
0.164174 -0.190391 0.846358
0.164693 -0.191612 0.845533
0.165236 -0.19287 0.844875
0.165794 -0.194151 0.844331
0.16639 -0.195495 0.844061
0.167012 -0.196881 0.843973
0.167648 -0.198289 0.843976
0.168322 -0.199759 0.844245
0.169001 -0.201238 0.84454
0.16967 -0.202702 0.84477
0.170336 -0.204161 0.844968
0.170985 -0.205592 0.845052
0.171609 -0.206981 0.844958
0.172285 -0.208458 0.84522
0.172968 -0.209944 0.84552
0.173734 -0.21157 0.846367
0.117573 -0.0779589 0.910078
0.11826 -0.0794497 0.91041
0.118951 -0.0809472 0.910794
0.119656 -0.0824597 0.911319
0.120338 -0.0839478 0.911569
0.120976 -0.0853847 0.911294
0.121554 -0.0867509 0.910316
0.122081 -0.0880564 0.908771
0.122512 -0.089243 0.906123
0.122873 -0.090345 0.902742
0.123168 -0.0913607 0.898647
0.123465 -0.0923731 0.894634
0.123789 -0.0934143 0.890987
0.124179 -0.0945311 0.888116
0.124591 -0.0956723 0.885533
0.12505 -0.0968692 0.883498
0.12552 -0.0980764 0.881604
0.12599 -0.0992829 0.879746
0.126496 -0.100532 0.87829
0.127023 -0.101806 0.877076
0.127565 -0.103099 0.876035
0.128139 -0.104431 0.875335
0.128722 -0.105775 0.874744
0.129257 -0.107056 0.873665
0.129814 -0.108363 0.872816
0.130356 -0.109652 0.871835
0.130881 -0.110915 0.870685
0.131399 -0.112168 0.869479
0.131968 -0.11349 0.8688
0.132558 -0.114837 0.868327
0.13314 -0.116174 0.867783
0.133738 -0.117533 0.867405
0.134362 -0.118925 0.867271
0.13499 -0.120324 0.867178
0.135642 -0.121757 0.867319
0.136334 -0.123243 0.867826
0.137028 -0.124734 0.868342
0.1377 -0.126196 0.868657
0.138373 -0.127657 0.868951
0.139044 -0.129117 0.869232
0.13966 -0.130502 0.869013
0.140203 -0.131783 0.868124
0.140664 -0.132949 0.866506
0.141073 -0.134036 0.864428
0.141441 -0.135066 0.862022
0.141835 -0.136129 0.859868
0.142245 -0.137214 0.857885
0.142701 -0.138361 0.856319
0.143204 -0.139576 0.855183
0.143702 -0.140781 0.854006
0.144222 -0.14202 0.853048
0.144693 -0.143184 0.851669
0.145152 -0.14433 0.850205
0.145493 -0.145301 0.847755
0.145863 -0.146315 0.845588
0.146243 -0.147339 0.843518
0.146731 -0.148522 0.842371
0.147409 -0.149984 0.842797
0.14819 -0.151602 0.844067
0.14899 -0.153248 0.845464
0.149797 -0.154908 0.846916
0.162584 -0.182304 0.857224
0.163037 -0.183431 0.855848
0.163491 -0.184556 0.854485
0.163799 -0.18545 0.852078
0.164156 -0.186422 0.850055
0.164608 -0.187541 0.848724
0.165064 -0.188665 0.847435
0.165548 -0.189832 0.846351
0.166066 -0.191054 0.845523
0.16662 -0.192331 0.844946
0.167166 -0.193595 0.844321
0.167738 -0.1949 0.843882
0.168335 -0.196245 0.843616
0.168944 -0.19761 0.843436
0.169605 -0.199059 0.843613
0.170285 -0.200537 0.843912
0.170969 -0.202023 0.844235
0.171648 -0.203502 0.844524
0.172311 -0.204954 0.844695
0.172948 -0.206365 0.844689
0.173639 -0.207863 0.845041
0.174337 -0.209373 0.845435
0.175117 -0.211018 0.846364
0.119737 -0.0788641 0.910972
0.120405 -0.0803356 0.911069
0.121102 -0.0818382 0.911483
0.121766 -0.0833051 0.911512
0.122396 -0.0847336 0.911142
0.122997 -0.0861293 0.910452
0.123551 -0.0874686 0.909221
0.124008 -0.0886929 0.906911
0.124412 -0.0898527 0.904044
0.124723 -0.0908976 0.900177
0.125023 -0.091926 0.896259
0.125331 -0.0929572 0.892474
0.125695 -0.0940518 0.889359
0.126067 -0.0951511 0.886365
0.126503 -0.0963246 0.884101
0.126934 -0.0974901 0.881822
0.127391 -0.0986849 0.879847
0.127878 -0.0999132 0.878204
0.128394 -0.101177 0.876893
0.128925 -0.10246 0.875763
0.129499 -0.103791 0.875056
0.130072 -0.105125 0.87438
0.130607 -0.106407 0.873301
0.131153 -0.107703 0.872358
0.131692 -0.108989 0.871356
0.132204 -0.110239 0.870101
0.132711 -0.11148 0.868802
0.13328 -0.112803 0.868135
0.133879 -0.114163 0.867759
0.134464 -0.115504 0.867245
0.135083 -0.11689 0.867062
0.135718 -0.118298 0.867041
0.136357 -0.11971 0.867043
0.137027 -0.121167 0.86735
0.13772 -0.122654 0.867856
0.138406 -0.124131 0.868282
0.139077 -0.125591 0.868579
0.139738 -0.127035 0.868762
0.14038 -0.128456 0.868779
0.140994 -0.129837 0.868538
0.141545 -0.131131 0.86773
0.141967 -0.132244 0.865771
0.14233 -0.133275 0.863325
0.14263 -0.134214 0.860353
0.142936 -0.13516 0.857467
0.143258 -0.136122 0.854745
0.143674 -0.137217 0.852873
0.14414 -0.13838 0.851451
0.14461 -0.139547 0.850077
0.145101 -0.140744 0.848897
0.145538 -0.141862 0.847275
0.145965 -0.142963 0.845581
0.146368 -0.144029 0.843709
0.146819 -0.14516 0.842248
0.147289 -0.146319 0.840959
0.147871 -0.147641 0.840609
0.148475 -0.148994 0.840436
0.149081 -0.150348 0.840272
0.149706 -0.151732 0.840274
0.150322 -0.153103 0.840193
0.150819 -0.156891 0.850071
0.15115 -0.154786 0.841801
0.151692 -0.158651 0.851988
0.151984 -0.156481 0.843438
0.163965 -0.181725 0.857168
0.164421 -0.182858 0.855816
0.164865 -0.183973 0.854401
0.165182 -0.184889 0.852085
0.165538 -0.185862 0.850059
0.165964 -0.186945 0.848558
0.166416 -0.188067 0.847256
0.16691 -0.189252 0.846252
0.167428 -0.190475 0.845427
0.167997 -0.191777 0.844958
0.168555 -0.193062 0.844421
0.169115 -0.194349 0.843899
0.169698 -0.195672 0.843534
0.17028 -0.196996 0.843173
0.170927 -0.198421 0.843251
0.171595 -0.199879 0.843465
0.172281 -0.201365 0.84379
0.172962 -0.202845 0.844086
0.173649 -0.204336 0.844419
0.174301 -0.20577 0.84451
0.175008 -0.207293 0.844965
0.175724 -0.20883 0.845467
0.176505 -0.210474 0.846391
0.121199 -0.0782597 0.91134
0.121851 -0.0797123 0.911226
0.122527 -0.0811921 0.911395
0.123172 -0.0826383 0.911203
0.123794 -0.0840572 0.910737
0.124403 -0.0854622 0.910136
0.124966 -0.086815 0.909034
0.125455 -0.0880823 0.907121
0.125887 -0.0892804 0.904598
0.126223 -0.090364 0.90106
0.126532 -0.0914113 0.897279
0.126841 -0.0924556 0.89357
0.127183 -0.0935305 0.89024
0.127529 -0.0946077 0.887015
0.127933 -0.09575 0.884447
0.128342 -0.0968942 0.881961
0.128776 -0.0980658 0.879771
0.129242 -0.0992729 0.877935
0.129748 -0.100526 0.876528
0.130278 -0.101809 0.875398
0.130841 -0.103131 0.874606
0.131405 -0.104454 0.873839
0.131928 -0.105724 0.872666
0.132455 -0.106996 0.87154
0.132974 -0.108258 0.870354
0.133482 -0.109506 0.869079
0.133985 -0.110746 0.867769
0.134564 -0.112079 0.867193
0.135181 -0.113464 0.867001
0.135795 -0.114844 0.866778
0.136445 -0.11627 0.866889
0.137102 -0.117707 0.867072
0.137753 -0.119135 0.867179
0.138434 -0.120604 0.867571
0.139118 -0.122078 0.867988
0.139783 -0.123527 0.868217
0.140445 -0.124972 0.86841
0.141085 -0.126387 0.868399
0.141706 -0.127778 0.868221
0.142308 -0.129144 0.867875
0.142791 -0.130348 0.866482
0.143148 -0.131377 0.863984
0.143464 -0.132348 0.861167
0.143695 -0.133199 0.85764
0.143932 -0.134054 0.8542
0.144248 -0.135016 0.851488
0.144656 -0.136102 0.84959
0.145096 -0.137231 0.847979
0.145563 -0.138395 0.846612
0.14605 -0.139586 0.845426
0.146527 -0.140762 0.844168
0.146999 -0.141931 0.842891
0.147462 -0.143084 0.841542
0.147968 -0.144297 0.840559
0.148487 -0.14553 0.839699
0.149069 -0.14685 0.839352
0.149683 -0.148216 0.839259
0.150289 -0.149571 0.839106
0.150926 -0.150971 0.839197
0.151552 -0.152355 0.839202
0.15221 -0.153787 0.839457
0.152851 -0.155195 0.839577
0.152817 -0.158175 0.845046
0.153494 -0.156604 0.839702
0.153727 -0.159987 0.847239
0.154139 -0.158017 0.839844
0.154605 -0.161753 0.849153
0.154786 -0.159433 0.839993
0.155383 -0.160776 0.83976
0.165285 -0.181049 0.856663
0.165735 -0.182178 0.855289
