ply
format ascii 1.0
element vertex 1794
property float x
property float y
property float z
end_header
0.403014 -0.301898 1.11769
0.304222 -0.304838 1.14571
0.305603 -0.304669 1.14488
0.306834 -0.3044 1.14365
0.307921 -0.304038 1.14203
0.308923 -0.303621 1.14021
0.309749 -0.30309 1.13792
0.310614 -0.302591 1.13576
0.311647 -0.302204 1.13405
0.312829 -0.301918 1.13275
0.314089 -0.301683 1.13166
0.31538 -0.30147 1.13065
0.316623 -0.301227 1.12953
0.317857 -0.30098 1.12839
0.319115 -0.30075 1.12731
0.321818 -0.298388 1.11723
0.323776 -0.297609 1.1138
0.325017 -0.297385 1.11275
0.326395 -0.297245 1.11204
0.327913 -0.297191 1.11168
0.329425 -0.297132 1.1113
0.330881 -0.297041 1.11078
0.332295 -0.296923 1.11016
0.333825 -0.296875 1.10982
0.335199 -0.296734 1.10911
0.336694 -0.296664 1.10868
0.338296 -0.296658 1.10851
0.340107 -0.296773 1.10882
0.341793 -0.296813 1.10884
0.343582 -0.296913 1.10908
0.345441 -0.29705 1.10949
0.347346 -0.297211 1.10999
0.349239 -0.297364 1.11045
0.351281 -0.2976 1.11124
0.353402 -0.297878 1.11221
0.35539 -0.298077 1.11285
0.357264 -0.298209 1.11323
0.359002 -0.298262 1.1133
0.360531 -0.298198 1.11289
0.361976 -0.298087 1.11229
0.363434 -0.297982 1.11172
0.364792 -0.297822 1.11093
0.36621 -0.297696 1.11028
0.36765 -0.297583 1.10967
0.36906 -0.297453 1.109
0.370604 -0.297395 1.10862
0.372278 -0.297408 1.10852
0.373962 -0.297425 1.10844
0.375636 -0.297436 1.10833
0.37742 -0.297505 1.10845
0.379103 -0.297518 1.10835
0.380797 -0.297536 1.10827
0.382442 -0.297528 1.10809
0.384192 -0.297574 1.10812
0.386206 -0.297755 1.10869
0.388395 -0.298027 1.10962
0.390753 -0.298382 1.11088
0.393257 -0.298809 1.11243
0.395831 -0.299267 1.11411
0.398392 -0.299715 1.11574
0.400907 -0.300135 1.11726
0.403305 -0.300491 1.11852
0.408732 -0.303946 1.12563
0.407784 -0.301895 1.12396
0.305796 -0.303273 1.1457
0.306986 -0.302978 1.14436
0.308066 -0.302612 1.14272
0.309086 -0.302208 1.14094
0.309841 -0.301634 1.13846
0.310662 -0.301107 1.13618
0.311688 -0.300718 1.13446
0.312869 -0.300431 1.13315
0.314133 -0.3002 1.13206
0.315493 -0.300031 1.13123
0.316841 -0.299856 1.13038
0.318204 -0.29969 1.12956
0.319613 -0.299554 1.12887
0.32102 -0.299418 1.12817
0.323382 -0.296862 1.11724
0.324771 -0.296726 1.11654
0.325838 -0.296394 1.11505
0.327217 -0.296252 1.11433
0.328695 -0.29617 1.11386
0.33013 -0.296063 1.11328
0.33149 -0.295912 1.11252
0.332802 -0.295732 1.11165
0.334329 -0.29568 1.1113
0.335722 -0.295548 1.11062
0.337135 -0.295428 1.10999
0.338695 -0.295396 1.10972
0.340431 -0.295464 1.10985
0.342042 -0.295459 1.10968
0.343754 -0.295511 1.10975
0.345572 -0.295623 1.11005
0.347444 -0.295764 1.11047
0.349338 -0.295915 1.11094
0.351345 -0.296127 1.11165
0.353462 -0.296399 1.1126
0.355449 -0.296595 1.11324
0.357332 -0.29673 1.11364
0.359079 -0.296788 1.11372
0.36065 -0.296746 1.11341
0.362099 -0.296636 1.11282
0.363555 -0.296529 1.11224
0.364909 -0.296368 1.11144
0.366325 -0.296241 1.11078
0.367765 -0.296126 1.11017
0.369179 -0.295998 1.10951
0.370723 -0.295941 1.10913
0.372363 -0.295933 1.10895
0.374039 -0.295945 1.10885
0.375711 -0.295954 1.10873
0.377458 -0.296001 1.10878
0.379103 -0.295993 1.1086
0.380791 -0.296007 1.1085
0.382391 -0.295974 1.10822
0.384178 -0.296038 1.10833
0.386277 -0.296262 1.10908
0.388562 -0.296579 1.11021
0.390965 -0.296954 1.11156
0.393517 -0.297401 1.11321
0.396131 -0.297876 1.11496
0.398704 -0.298324 1.11661
0.401184 -0.298721 1.11806
0.403712 -0.299139 1.11958
0.407234 -0.300051 1.12309
0.307033 -0.301485 1.14478
0.308122 -0.301125 1.14317
0.309051 -0.300663 1.14114
0.309729 -0.300043 1.13846
0.310573 -0.299533 1.13624
0.311619 -0.299158 1.13456
0.31279 -0.298868 1.13323
0.314107 -0.298671 1.13229
0.315536 -0.298546 1.13163
0.316961 -0.298419 1.13097
0.318416 -0.298312 1.13039
0.31987 -0.298203 1.12981
0.321432 -0.298162 1.1295
0.32225 -0.299171 1.12702
0.323072 -0.298169 1.12938
0.327489 -0.295896 1.1194
0.328434 -0.295489 1.1176
0.329586 -0.295208 1.11631
0.330876 -0.295012 1.11537
0.332083 -0.294768 1.11423
0.333292 -0.294524 1.1131
0.334746 -0.294428 1.11256
0.336097 -0.29427 1.11178
0.337469 -0.294126 1.11105
0.338984 -0.294065 1.11066
0.340647 -0.29409 1.11062
0.342213 -0.294056 1.11034
0.343922 -0.294105 1.1104
0.345744 -0.294217 1.11071
0.34766 -0.29438 1.11123
0.349557 -0.29453 1.1117
0.351527 -0.294719 1.11232
0.353601 -0.294964 1.11317
0.35555 -0.295136 1.11373
0.357394 -0.295247 1.11404
0.359144 -0.295305 1.11413
0.360755 -0.295285 1.1139
0.362246 -0.295197 1.1134
0.363708 -0.295094 1.11283
0.365062 -0.294931 1.11203
0.366478 -0.294804 1.11137
0.367919 -0.294689 1.11076
0.369306 -0.294546 1.11003
0.370854 -0.29449 1.10966
0.372488 -0.294479 1.10947
0.374161 -0.294488 1.10936
0.375834 -0.294495 1.10924
0.377548 -0.294523 1.10921
0.379151 -0.294492 1.10894
0.380827 -0.294498 1.10882
0.382459 -0.294481 1.10861
0.384295 -0.29457 1.10882
0.386444 -0.294816 1.10967
0.388774 -0.295153 1.11089
0.391174 -0.295522 1.11224
0.393722 -0.295963 1.11387
0.396384 -0.296457 1.11572
0.398973 -0.296908 1.1174
0.401586 -0.297368 1.11912
0.404243 -0.297845 1.1209
0.406885 -0.29831 1.12263
0.307015 -0.299946 1.14503
0.308138 -0.299611 1.14351
0.30904 -0.299133 1.14141
0.309691 -0.298499 1.13865
0.31052 -0.297983 1.13639
0.311558 -0.297605 1.1347
0.312703 -0.297299 1.13329
0.314028 -0.297107 1.13237
0.315499 -0.297009 1.13183
0.31697 -0.296912 1.13128
0.318605 -0.296916 1.13116
0.32028 -0.296944 1.13114
0.322085 -0.297051 1.13144
0.32893 -0.295258 1.12323
0.329679 -0.294731 1.12093
0.3306 -0.294311 1.11906
0.331729 -0.294017 1.11772
0.332814 -0.293699 1.11627
0.333908 -0.293387 1.11485
0.335225 -0.293208 1.11398
0.336445 -0.292974 1.11288
0.337711 -0.292767 1.11189
0.339193 -0.292685 1.11142
0.340786 -0.292668 1.11121
0.342387 -0.292654 1.11101
0.34417 -0.292743 1.11124
0.346039 -0.292879 1.11165
0.347932 -0.293026 1.11212
0.349832 -0.293175 1.11259
0.351722 -0.293316 1.11303
0.353682 -0.293495 1.11362
0.355546 -0.293617 1.11398
0.357346 -0.293702 1.11418
0.35909 -0.293755 1.11426
0.360741 -0.293755 1.11412
0.362276 -0.293692 1.11372
0.363781 -0.293612 1.11325
0.365212 -0.293492 1.11261
0.366671 -0.293386 1.11204
0.36816 -0.293297 1.11154
0.369582 -0.293173 1.11089
0.371133 -0.293116 1.11051
0.372727 -0.293082 1.11023
0.374365 -0.293071 1.11004
0.375997 -0.293055 1.10984
0.377635 -0.293043 1.10964
0.379192 -0.292987 1.10927
0.3809 -0.293009 1.10922
0.382577 -0.293014 1.1091
0.384509 -0.293148 1.10951
0.386716 -0.293422 1.11048
0.389089 -0.293777 1.11178
0.391398 -0.294095 1.11294
0.39381 -0.294463 1.1143
0.396471 -0.294951 1.11614
0.399061 -0.2954 1.11783
0.40179 -0.295912 1.11977
0.404591 -0.296456 1.12184
0.407571 -0.297083 1.12425
0.411695 -0.299845 1.12869
0.411307 -0.298077 1.12815
0.41501 -0.299045 1.13195
0.310371 -0.296371 1.13629
0.311461 -0.296028 1.13473
0.315495 -0.295492 1.1321
0.317311 -0.295609 1.13245
0.319273 -0.295815 1.13317
0.327369 -0.297282 1.13197
0.327033 -0.296552 1.13567
0.328622 -0.296517 1.13539
0.32925 -0.295903 1.13271
0.329746 -0.295214 1.12972
0.330174 -0.29449 1.12658
0.330643 -0.293796 1.12357
0.331302 -0.29322 1.12105
0.332246 -0.292816 1.11925
0.333175 -0.292406 1.11741
0.334111 -0.292002 1.11561
0.335316 -0.291759 1.11447
0.336535 -0.291523 1.11336
0.33784 -0.29134 1.11246
0.339396 -0.2913 1.11216
0.341029 -0.291304 1.11204
0.342709 -0.291333 1.11203
0.344577 -0.291468 1.11245
0.346499 -0.291631 1.11298
0.348402 -0.29178 1.11347
0.350298 -0.291924 1.11392
0.352139 -0.292035 1.11424
0.35398 -0.292144 1.11456
0.355726 -0.292199 1.11464
0.357444 -0.292237 1.11466
0.359109 -0.292245 1.11456
0.360721 -0.292223 1.11433
0.362263 -0.292163 1.11394
0.363814 -0.292107 1.11358
0.365333 -0.292034 1.11314
0.366834 -0.291951 1.11265
0.368328 -0.291864 1.11216
0.369711 -0.291717 1.11142
0.371255 -0.291657 1.11103
0.37281 -0.291602 1.11066
0.374449 -0.29159 1.11047
0.376122 -0.291595 1.11035
0.377792 -0.291597 1.11022
0.379383 -0.291559 1.10993
0.381136 -0.291601 1.10996
0.382867 -0.291633 1.10995
0.384823 -0.291777 1.11041
0.387044 -0.292054 1.11141
0.389333 -0.292362 1.11253
0.391545 -0.292629 1.11349
0.393852 -0.292939 1.11462
0.396593 -0.293462 1.11663
0.399201 -0.293915 1.11835
0.402032 -0.294473 1.1205
0.404977 -0.295082 1.12286
0.408086 -0.295766 1.12553
0.410647 -0.296175 1.12707
0.41317 -0.296563 1.12852
0.418573 -0.299936 1.13543
0.41535 -0.296779 1.12926
0.326242 -0.295543 1.13826
0.327606 -0.29537 1.1374
0.328892 -0.29515 1.13635
0.329713 -0.294654 1.13414
0.330417 -0.294091 1.13166
0.331037 -0.293483 1.12899
0.331506 -0.292791 1.12597
0.332125 -0.292191 1.12334
0.332865 -0.291668 1.12103
0.333647 -0.291173 1.11883
0.334459 -0.290699 1.11672
0.335546 -0.290386 1.11528
0.336693 -0.290111 1.114
0.338004 -0.289931 1.11312
0.339602 -0.289914 1.11292
0.341282 -0.289942 1.1129
0.343084 -0.290039 1.11317
0.34504 -0.29022 1.11379
0.34705 -0.290429 1.11453
0.34899 -0.290595 1.11509
0.350877 -0.29073 1.11551
0.352638 -0.290794 1.11565
0.354364 -0.290837 1.11569
0.356028 -0.290845 1.11559
0.357663 -0.290836 1.11541
0.359249 -0.290799 1.11513
0.360786 -0.290736 1.11473
0.362289 -0.290654 1.11426
0.363806 -0.290579 1.11381
0.36533 -0.290509 1.11338
0.366805 -0.290412 1.11284
0.368301 -0.290325 1.11235
0.369679 -0.290177 1.1116
0.371215 -0.290111 1.11119
0.372768 -0.290055 1.11082
0.374405 -0.290041 1.11062
0.376118 -0.290066 1.11059
0.377869 -0.290109 1.11063
0.379548 -0.290114 1.11052
0.381355 -0.290183 1.11067
0.383215 -0.290278 1.11093
0.38522 -0.290444 1.11148
0.387361 -0.290677 1.11231
0.389517 -0.290915 1.11316
0.391626 -0.291126 1.1139
0.393839 -0.291387 1.11484
0.396541 -0.291886 1.11677
0.39924 -0.292379 1.11867
0.402223 -0.293007 1.12114
0.405303 -0.293676 1.12377
0.408419 -0.294356 1.12645
0.41094 -0.294742 1.1279
0.413286 -0.295039 1.12899
0.415362 -0.295203 1.12952
0.417257 -0.296861 1.12945
0.417102 -0.295203 1.12938
0.418629 -0.296685 1.12858
0.418557 -0.295067 1.12868
0.419973 -0.296495 1.12766
0.41992 -0.294887 1.12779
0.42153 -0.296407 1.12715
0.421422 -0.294773 1.12718
0.423094 -0.296324 1.12666
0.422893 -0.294645 1.12651
0.425255 -0.296522 1.12733
0.424274 -0.294474 1.12566
0.427461 -0.296739 1.12808
0.425633 -0.294294 1.12477
0.42963 -0.296937 1.12874
0.426924 -0.294084 1.12376
0.43164 -0.297057 1.12909
0.428135 -0.293835 1.12259
0.324504 -0.295489 1.13817
0.324001 -0.294655 1.14152
0.325462 -0.294538 1.14089
0.326809 -0.294352 1.13998
0.327944 -0.29404 1.13854
0.329061 -0.293719 1.13706
0.329968 -0.293276 1.13506
0.330764 -0.29277 1.1328
0.331459 -0.292209 1.13032
0.332042 -0.291586 1.12757
0.332715 -0.291021 1.12506
0.333461 -0.290502 1.12275
0.334176 -0.289969 1.12038
0.334931 -0.289464 1.11813
0.335862 -0.289062 1.11631
0.336865 -0.288704 1.11468
0.338145 -0.288506 1.11372
0.339823 -0.288533 1.1137
0.341619 -0.288626 1.11396
0.343578 -0.288807 1.11459
0.345658 -0.289053 1.1155
0.347713 -0.289282 1.11633
0.349652 -0.289445 1.11688
0.351462 -0.289534 1.11712
0.353114 -0.289536 1.11699
0.354728 -0.289515 1.11678
0.356315 -0.289479 1.1165
0.357868 -0.289425 1.11614
0.359408 -0.289362 1.11574
0.360901 -0.289275 1.11525
0.362361 -0.28917 1.11467
0.363832 -0.28907 1.11412
0.365311 -0.288974 1.11359
0.366744 -0.288855 1.11296
0.368202 -0.288749 1.11238
0.369577 -0.288599 1.11162
0.371109 -0.288531 1.11121
0.372699 -0.288493 1.11092
0.374381 -0.288502 1.11082
0.376182 -0.288571 1.11098
0.378066 -0.28868 1.1113
0.379889 -0.288756 1.11149
0.38179 -0.288871 1.11184
0.383738 -0.289008 1.11228
0.385691 -0.289145 1.11271
0.387696 -0.289307 1.11325
0.38967 -0.28945 1.11372
0.391639 -0.28959 1.11417
0.39381 -0.289826 1.11502
0.396444 -0.290287 1.11681
0.399204 -0.290805 1.11884
0.402306 -0.291485 1.12155
0.40539 -0.29215 1.12418
0.408323 -0.292736 1.12649
0.410779 -0.293086 1.12782
0.413006 -0.293323 1.12867
0.415005 -0.293448 1.12905
0.416759 -0.293455 1.12894
0.418278 -0.293349 1.12837
0.419737 -0.293216 1.12767
0.421237 -0.293102 1.12705
0.42266 -0.292952 1.12629
0.423993 -0.29276 1.12535
0.425303 -0.292557 1.12437
0.426501 -0.292305 1.12318
0.427754 -0.292078 1.12209
0.430136 -0.293954 1.12294
0.429028 -0.291862 1.12106
0.433583 -0.294739 1.12604
0.431662 -0.292269 1.12261
0.437197 -0.295592 1.12942
0.434446 -0.29274 1.12444
0.324832 -0.293621 1.14393
0.326047 -0.293353 1.14267
0.327191 -0.293045 1.14123
0.32829 -0.292712 1.13969
0.329349 -0.292357 1.13806
0.330273 -0.291925 1.13611
0.331073 -0.291423 1.13385
0.331819 -0.290894 1.13148
0.332517 -0.290341 1.12901
0.333335 -0.289862 1.12685
0.334065 -0.289335 1.1245
0.334681 -0.288746 1.12188
0.335353 -0.288194 1.11942
0.33616 -0.287724 1.1173
0.337049 -0.287302 1.11539
0.338296 -0.287085 1.11434
0.340113 -0.287189 1.11466
0.342029 -0.287345 1.11519
0.344145 -0.287611 1.11619
0.346317 -0.287904 1.1173
0.348378 -0.288132 1.11814
0.350243 -0.28825 1.11851
0.351969 -0.28829 1.11855
0.353512 -0.28823 1.11817
0.355019 -0.28815 1.1177
0.356566 -0.288091 1.11732
0.358072 -0.28801 1.11685
0.359573 -0.287926 1.11637
0.361029 -0.287818 1.11579
0.362409 -0.287671 1.11503
0.363822 -0.28754 1.11435
0.365277 -0.287431 1.11377
0.366701 -0.287308 1.11312
0.368125 -0.287183 1.11246
0.369542 -0.287056 1.1118
0.371075 -0.286987 1.11138
0.372629 -0.286931 1.11101
0.374354 -0.28696 1.11101
0.376252 -0.287077 1.11137
0.378276 -0.287256 1.112
0.380241 -0.287402 1.11248
0.382236 -0.287561 1.11303
0.384144 -0.287675 1.11337
0.386003 -0.287763 1.11361
0.387829 -0.287832 1.11378
0.389615 -0.28788 1.11385
0.391444 -0.287948 1.11401
0.393577 -0.288164 1.11478
0.396178 -0.288606 1.11651
0.399034 -0.289166 1.11874
0.402124 -0.289834 1.12142
0.405251 -0.290515 1.12414
0.408083 -0.291047 1.12625
0.410485 -0.291368 1.12747
0.412608 -0.291553 1.12811
0.4146 -0.291673 1.12849
0.416319 -0.291663 1.12831
0.417895 -0.291586 1.12785
0.419401 -0.291475 1.12725
0.420906 -0.291363 1.12664
0.422375 -0.291235 1.12597
0.423713 -0.291047 1.12504
0.425069 -0.290867 1.12415
0.426318 -0.290639 1.12306
0.42766 -0.290454 1.12215
0.429039 -0.290287 1.12131
0.430939 -0.290356 1.12147
0.432878 -0.290443 1.12169
0.438342 -0.293712 1.12834
0.43576 -0.290951 1.1237
0.324004 -0.292581 1.14649
0.325327 -0.292376 1.14549
0.326562 -0.292121 1.14427
0.327628 -0.291766 1.14263
0.328684 -0.291407 1.14097
0.329636 -0.29099 1.13907
0.330513 -0.290532 1.13699
0.331318 -0.290036 1.13474
0.332133 -0.289548 1.13254
0.332918 -0.289048 1.13028
0.333848 -0.288634 1.12839
0.334663 -0.288158 1.12623
0.335214 -0.287534 1.12344
0.335808 -0.28694 1.12079
0.336488 -0.286399 1.11835
0.337291 -0.28593 1.11623
0.338571 -0.285732 1.11526
0.340477 -0.285882 1.11578
0.342553 -0.286124 1.11669
0.344829 -0.286473 1.11806
0.347049 -0.286788 1.11927
0.349044 -0.286976 1.11995
0.350894 -0.287082 1.12028
0.352539 -0.287076 1.12013
0.354003 -0.286971 1.11955
0.35547 -0.286868 1.11899
0.356978 -0.286786 1.11852
0.35841 -0.286664 1.11788
0.359836 -0.28654 1.11722
0.36122 -0.286394 1.11647
0.362524 -0.286206 1.11555
0.363858 -0.286033 1.11469
0.365261 -0.285898 1.11399
0.366642 -0.285751 1.11324
0.36803 -0.285608 1.11251
0.369416 -0.285465 1.11177
0.370948 -0.285396 1.11136
0.3725 -0.285339 1.11098
0.37431 -0.28541 1.11116
0.376335 -0.285589 1.1118
0.378538 -0.285855 1.1128
0.380634 -0.286064 1.11356
0.382715 -0.286263 1.11428
0.384579 -0.286353 1.11454
0.386309 -0.286374 1.1145
0.387954 -0.286352 1.11428
0.389561 -0.286311 1.11398
0.391257 -0.286313 1.11386
0.393425 -0.286543 1.11471
0.39595 -0.286943 1.11628
0.3988 -0.287497 1.1185
0.40188 -0.288155 1.12116
0.40504 -0.288845 1.12396
0.407719 -0.289299 1.12576
0.410121 -0.289618 1.12698
0.412188 -0.289774 1.12751
0.414115 -0.289863 1.12776
0.415783 -0.28983 1.12749
0.417402 -0.289772 1.12711
0.41896 -0.289686 1.12662
0.420509 -0.289596 1.1261
0.422073 -0.289512 1.12562
0.423463 -0.289349 1.12479
0.424919 -0.289216 1.1241
0.426266 -0.289033 1.12319
0.427664 -0.288875 1.12239
0.429136 -0.288749 1.12173
0.431089 -0.288841 1.12199
0.433037 -0.28893 1.12223
0.435032 -0.289036 1.12255
0.438555 -0.291416 1.12551
0.436902 -0.289088 1.12263
0.441251 -0.291833 1.12712
0.438603 -0.289062 1.12239
0.443862 -0.292208 1.12856
0.440053 -0.288923 1.12168
0.32472 -0.291465 1.14862
0.325998 -0.291232 1.1475
0.327201 -0.290956 1.14619
0.328106 -0.290507 1.14413
0.329048 -0.290081 1.14218
0.329882 -0.289597 1.13997
0.330717 -0.289116 1.13778
0.331527 -0.288624 1.13554
0.332388 -0.288166 1.13345
0.333245 -0.287709 1.13136
0.334285 -0.287358 1.12973
0.335207 -0.286944 1.12783
0.3357 -0.28629 1.1249
0.336282 -0.285691 1.1222
0.336869 -0.2851 1.11954
0.337559 -0.28457 1.11714
0.338742 -0.284318 1.11594
0.340701 -0.284494 1.11658
0.342795 -0.284743 1.11753
0.345159 -0.285136 1.1191
0.34742 -0.285469 1.1204
0.349412 -0.285652 1.12107
0.351254 -0.285751 1.12137
0.352887 -0.285737 1.12119
0.354309 -0.285608 1.12052
0.355776 -0.285504 1.11995
0.357282 -0.285421 1.11947
0.358676 -0.285278 1.11874
0.360061 -0.285131 1.11798
0.361403 -0.284962 1.11714
0.362633 -0.284735 1.11604
0.363893 -0.284526 1.11502
0.365262 -0.284372 1.11424
0.366646 -0.284227 1.1135
0.368042 -0.284089 1.11278
0.369467 -0.283965 1.11213
0.370996 -0.283894 1.11171
0.372577 -0.28385 1.1114
0.374426 -0.28394 1.11166
0.376501 -0.284142 1.1124
0.378761 -0.284432 1.11352
0.380897 -0.284659 1.11437
0.383018 -0.284874 1.11517
0.384836 -0.284939 1.11532
0.386483 -0.284917 1.11511
0.388 -0.284832 1.11462
0.389513 -0.284745 1.11412
0.391114 -0.284699 1.11381
0.393238 -0.284906 1.11457
0.395638 -0.285243 1.11588
0.398472 -0.285783 1.11807
0.401542 -0.286431 1.12071
0.404661 -0.287096 1.12343
0.407353 -0.287552 1.12526
0.409841 -0.287909 1.12666
0.411867 -0.288045 1.12711
0.413777 -0.288125 1.12733
0.415431 -0.288084 1.12703
0.416996 -0.288002 1.12655
0.418556 -0.287918 1.12606
0.420152 -0.287849 1.12564
0.421719 -0.287767 1.12516
0.423158 -0.287627 1.12443
0.424719 -0.287542 1.12395
0.426171 -0.287407 1.12324
0.427672 -0.287295 1.12264
0.429236 -0.287212 1.12215
0.431237 -0.287324 1.1225
0.433179 -0.287407 1.12273
0.435173 -0.287511 1.12305
0.437046 -0.287561 1.12313
0.438754 -0.287537 1.1229
0.440214 -0.287404 1.1222
0.325812 -0.290565 1.15173
0.326783 -0.290148 1.1498
0.327768 -0.289742 1.14792
0.328547 -0.289221 1.14554
0.329375 -0.288729 1.14329
0.330159 -0.288218 1.14095
0.330929 -0.287702 1.13859
0.331768 -0.287228 1.13642
0.332642 -0.286779 1.13435
0.33357 -0.286363 1.13244
0.334648 -0.286036 1.1309
0.335644 -0.285664 1.12917
0.336069 -0.284976 1.12607
0.336615 -0.284359 1.12328
0.337121 -0.283725 1.12041
0.337728 -0.283153 1.11781
0.338843 -0.282863 1.11645
0.340843 -0.28306 1.11718
0.342986 -0.283332 1.11824
0.345382 -0.283738 1.11988
0.347649 -0.284069 1.1212
0.349674 -0.284267 1.12194
0.351481 -0.284345 1.12216
0.353085 -0.284314 1.12191
0.354472 -0.284167 1.12115
0.355977 -0.284082 1.12067
0.357489 -0.284 1.1202
0.358886 -0.283859 1.11947
0.360264 -0.283708 1.1187
0.361627 -0.28355 1.1179
0.362816 -0.283301 1.11671
0.364044 -0.283076 1.11561
0.365422 -0.282927 1.11485
0.366809 -0.282783 1.11411
0.368168 -0.282626 1.11331
0.369592 -0.282502 1.11266
0.371159 -0.282449 1.11231
0.372739 -0.282403 1.112
0.374626 -0.282511 1.11234
0.376743 -0.282729 1.11317
0.379006 -0.283018 1.11429
0.381108 -0.283224 1.11507
0.383221 -0.283433 1.11585
0.384958 -0.283455 1.11582
0.386526 -0.283394 1.11544
0.387995 -0.283286 1.11485
0.389463 -0.283177 1.11426
0.39102 -0.28311 1.11385
0.393059 -0.283273 1.11444
0.395363 -0.283561 1.11556
0.398061 -0.284033 1.11747
0.400991 -0.284609 1.11983
0.404056 -0.285243 1.12245
0.406796 -0.285719 1.12438
0.409338 -0.286097 1.12589
0.411413 -0.286255 1.12644
0.41336 -0.286351 1.12673
0.415003 -0.286306 1.12642
0.416566 -0.286223 1.12594
0.418128 -0.28614 1.12545
0.41977 -0.286093 1.12513
0.421421 -0.28605 1.12482
0.422908 -0.285931 1.12418
0.424567 -0.28589 1.12389
0.426126 -0.285804 1.12339
0.427734 -0.28574 1.12299
0.429301 -0.285658 1.12251
0.431292 -0.285763 1.12284
0.433181 -0.28582 1.12296
0.435124 -0.285901 1.12319
0.436995 -0.285949 1.12327
0.438751 -0.285945 1.12313
0.443737 -0.287344 1.12902
0.326515 -0.289424 1.15383
0.327406 -0.288962 1.15169
0.328331 -0.288521 1.14965
0.328986 -0.287928 1.14694
0.329699 -0.287373 1.14439
0.330372 -0.286799 1.14177
0.331169 -0.2863 1.13947
0.332012 -0.285831 1.13731
0.332892 -0.285387 1.13525
0.33386 -0.284996 1.13343
0.334972 -0.284688 1.13197
0.335936 -0.2843 1.13016
0.336399 -0.283635 1.12714
0.336982 -0.283042 1.12444
0.337453 -0.282392 1.12148
0.338022 -0.281801 1.11879
0.339051 -0.281465 1.11721
0.340965 -0.281612 1.11774
0.343025 -0.281835 1.1186
0.345425 -0.282239 1.12025
0.347689 -0.282565 1.12156
0.349758 -0.282784 1.1224
0.351612 -0.282885 1.12273
0.353264 -0.282878 1.12258
0.354697 -0.282755 1.12193
0.356249 -0.282694 1.12155
0.357804 -0.282634 1.12118
0.359172 -0.282477 1.12038
0.360509 -0.282304 1.11951
0.361829 -0.282123 1.11861
0.36301 -0.281872 1.1174
0.364239 -0.281647 1.1163
0.365656 -0.281518 1.11562
0.367079 -0.281392 1.11496
0.368474 -0.281251 1.11423
0.369901 -0.281128 1.11358
0.371473 -0.281078 1.11325
0.373027 -0.281017 1.11287
0.374872 -0.281101 1.11312
0.376951 -0.281298 1.11386
0.379127 -0.281541 1.1148
0.381147 -0.281704 1.11539
0.383212 -0.281886 1.11607
0.384906 -0.281887 1.11596
0.386472 -0.281824 1.11557
0.387944 -0.281717 1.11499
0.389414 -0.281608 1.1144
0.39097 -0.281542 1.11399
0.392924 -0.281661 1.1144
0.395098 -0.281885 1.11525
0.397686 -0.2823 1.11694
0.400469 -0.282803 1.11901
0.40344 -0.283389 1.12144
0.406211 -0.283875 1.12344
0.408804 -0.284274 1.12505
0.410939 -0.284459 1.12573
0.412983 -0.284598 1.12622
0.414668 -0.284572 1.12599
0.416281 -0.284512 1.12561
0.417891 -0.284451 1.12523
0.419585 -0.284428 1.125
0.421281 -0.284404 1.12478
0.42281 -0.284304 1.12423
0.424512 -0.284282 1.12401
0.426128 -0.284222 1.12363
0.427793 -0.284182 1.12334
0.429371 -0.284104 1.12288
0.431311 -0.284184 1.12311
0.433137 -0.284214 1.12311
0.435025 -0.284268 1.12323
0.436852 -0.284297 1.12323
0.442248 -0.285867 1.12992
0.32593 -0.28851 1.15708
0.32697 -0.288132 1.1553
0.327782 -0.287625 1.15294
0.328615 -0.287132 1.15066
0.329236 -0.286522 1.14786
0.329981 -0.285987 1.14539
0.330589 -0.28538 1.1426
0.331382 -0.284881 1.14029
0.332261 -0.284435 1.13821
0.333105 -0.283972 1.13606
0.33408 -0.283586 1.13425
0.335192 -0.283279 1.13279
0.336187 -0.282908 1.13104
0.336787 -0.282323 1.12836
0.337488 -0.281797 1.12593
0.338017 -0.281182 1.12311
0.338616 -0.280609 1.12048
0.339518 -0.280204 1.11859
0.341195 -0.28022 1.11855
0.343091 -0.280352 1.11902
0.345383 -0.280695 1.12042
0.347584 -0.280984 1.12158
0.349659 -0.281203 1.12243
0.351587 -0.281341 1.12294
0.353323 -0.281378 1.12298
0.354844 -0.281299 1.12253
0.356442 -0.281262 1.12225
0.358071 -0.28124 1.12204
0.359406 -0.281065 1.12117
0.360712 -0.280876 1.12022
0.361998 -0.280678 1.11924
0.363213 -0.280444 1.1181
0.36448 -0.280238 1.11709
0.365937 -0.280128 1.1165
0.3674 -0.280023 1.11592
0.368867 -0.279918 1.11535
0.370336 -0.279814 1.11478
0.371883 -0.279751 1.11439
0.373443 -0.279691 1.11402
0.375212 -0.279735 1.1141
0.377197 -0.279883 1.11464
0.379206 -0.280041 1.11522
0.381134 -0.280157 1.11562
0.383113 -0.280296 1.11611
0.384803 -0.280293 1.11599
0.386369 -0.280231 1.1156
0.387891 -0.280147 1.11512
0.389366 -0.280041 1.11455
0.390927 -0.279975 1.11415
0.392792 -0.280053 1.11437
0.394828 -0.280209 1.11494
0.397233 -0.280535 1.11626
0.399815 -0.280939 1.11792
0.402644 -0.281454 1.12006
0.405466 -0.281962 1.12217
0.408262 -0.282451 1.1242
0.410618 -0.282735 1.12533
0.412678 -0.282881 1.12585
0.414402 -0.282872 1.1257
0.416042 -0.282824 1.12538
0.417751 -0.282807 1.12519
0.419545 -0.282828 1.12516
0.421293 -0.282827 1.12504
0.422867 -0.282747 1.12458
0.424613 -0.282744 1.12444
0.426225 -0.282681 1.12405
0.427851 -0.282623 1.12368
0.429428 -0.282543 1.12322
0.431316 -0.2826 1.12335
0.433089 -0.282605 1.12325
0.434926 -0.282637 1.12327
0.436751 -0.282662 1.12327
0.327341 -0.286787 1.15655
0.327984 -0.286183 1.15376
0.328714 -0.285634 1.15121
0.329302 -0.285008 1.14832
0.33006 -0.284485 1.14588
0.330768 -0.283936 1.14333
0.331595 -0.283458 1.14111
0.332511 -0.283035 1.13912
0.333392 -0.282595 1.13705
0.334401 -0.282228 1.13532
0.335511 -0.281921 1.13385
0.336504 -0.281551 1.13209
0.337249 -0.281047 1.12975
0.338047 -0.280577 1.12756
0.338676 -0.280017 1.12497
0.339285 -0.279452 1.12235
0.340022 -0.278959 1.12006
0.341417 -0.278822 1.11934
0.343006 -0.278788 1.11909
0.345036 -0.278988 1.11987
0.347123 -0.279214 1.12077
0.34923 -0.279449 1.1217
0.351201 -0.279609 1.1223
0.353052 -0.279703 1.12262
0.354695 -0.27969 1.12245
0.356332 -0.279672 1.12226
0.357998 -0.279668 1.12214
0.359361 -0.279508 1.12132
0.360706 -0.27934 1.12047
0.362034 -0.279163 1.11958
0.363297 -0.278955 1.11855
0.364643 -0.278789 1.11771
0.36615 -0.278703 1.11722
0.3677 -0.27864 1.11683
0.369218 -0.27856 1.11637
0.370804 -0.278514 1.11606
0.372396 -0.278469 1.11575
0.373993 -0.278428 1.11546
0.375682 -0.278429 1.11536
0.377568 -0.278526 1.11568
0.379363 -0.278577 1.1158
0.381116 -0.278607 1.11582
0.382928 -0.278663 1.11597
0.384575 -0.27864 1.11575
0.386148 -0.278581 1.11538
0.387719 -0.278521 1.11501
0.389243 -0.278437 1.11453
0.390881 -0.278407 1.11429
0.392661 -0.278444 1.11434
0.394601 -0.278552 1.11472
0.396855 -0.278806 1.11573
0.399202 -0.279099 1.11691
0.401779 -0.279494 1.11855
0.404598 -0.279996 1.12066
0.407579 -0.280567 1.12307
0.410232 -0.280984 1.1248
0.412384 -0.28117 1.12551
0.414178 -0.281191 1.12549
0.415925 -0.281192 1.12538
0.417738 -0.28122 1.1254
0.41962 -0.281279 1.12554
0.421429 -0.281304 1.12554
0.423118 -0.281275 1.1253
0.424866 -0.281271 1.12517
0.426474 -0.281205 1.12477
0.428134 -0.281162 1.12446
0.42966 -0.281059 1.1239
0.431409 -0.281053 1.12376
0.433131 -0.281034 1.12357
0.434912 -0.281041 1.12348
0.436653 -0.281029 1.12331
0.328537 -0.283977 1.15104
0.329243 -0.283422 1.14846
0.330097 -0.282956 1.14626
0.33094 -0.282486 1.14405
0.331847 -0.282055 1.14202
0.332832 -0.281672 1.1402
0.333752 -0.281255 1.13823
0.334765 -0.280892 1.1365
0.335842 -0.280566 1.13494
0.336796 -0.280175 1.13308
0.337648 -0.279733 1.131
0.338543 -0.279316 1.12903
0.339275 -0.278815 1.12668
0.33993 -0.278275 1.12416
0.340618 -0.277758 1.12175
0.341702 -0.277454 1.12029
0.343035 -0.277284 1.11942
0.344788 -0.277335 1.11955
0.346714 -0.277475 1.12007
0.348776 -0.277684 1.1209
0.350819 -0.277881 1.12168
0.352718 -0.277999 1.12211
0.354484 -0.278048 1.12223
0.35616 -0.27805 1.12213
0.357858 -0.278061 1.12208
0.359249 -0.277916 1.12133
0.360638 -0.27777 1.12057
0.362049 -0.277637 1.11987
0.363398 -0.277472 1.11903
0.364868 -0.277368 1.11846
0.366467 -0.277327 1.11818
0.368117 -0.277312 1.11801
0.369691 -0.277258 1.11766
0.371362 -0.277251 1.11753
0.372955 -0.277206 1.11722
0.374516 -0.277144 1.11684
0.376117 -0.277101 1.11655
0.377877 -0.277135 1.1166
0.379489 -0.277096 1.11632
0.381063 -0.277039 1.11596
0.382736 -0.277029 1.11581
0.384343 -0.276986 1.11551
0.385923 -0.27693 1.11516
0.387542 -0.276892 1.11488
0.389111 -0.27683 1.1145
0.390748 -0.276799 1.11426
0.392483 -0.276814 1.11422
0.394333 -0.27688 1.11441
0.396407 -0.277048 1.11505
0.398514 -0.277228 1.11575
0.400859 -0.277515 1.11692
0.412142 -0.279482 1.12526
0.413965 -0.279517 1.12531
0.41579 -0.279551 1.12535
0.417702 -0.279623 1.12557
0.419625 -0.279698 1.12579
0.421635 -0.27981 1.12618
0.423465 -0.279841 1.12621
0.425248 -0.279851 1.12615
0.426855 -0.279784 1.12574
0.428485 -0.279726 1.12537
0.429907 -0.279578 1.12461
0.431514 -0.279509 1.12419
0.433185 -0.279468 1.1239
0.43492 -0.279453 1.12373
0.436604 -0.279416 1.12346
0.329078 -0.281776 1.14833
0.330097 -0.281404 1.14655
0.331041 -0.280994 1.14459
0.332025 -0.280608 1.14275
0.33302 -0.280232 1.14095
0.333982 -0.279839 1.13908
0.334965 -0.279462 1.13727
0.33608 -0.279157 1.1358
0.337096 -0.278802 1.13409
0.338124 -0.278455 1.13243
0.339171 -0.278121 1.13082
0.34 -0.277672 1.1287
0.340658 -0.277137 1.12618
0.341264 -0.276577 1.12356
0.342076 -0.27613 1.12144
0.3431 -0.275797 1.11984
0.34463 -0.27573 1.11944
0.34638 -0.275778 1.11956
0.348326 -0.275925 1.12012
0.350381 -0.276125 1.12093
0.352365 -0.276287 1.12156
0.354246 -0.276394 1.12194
0.355966 -0.276417 1.12195
0.357665 -0.276428 1.1219
0.35913 -0.276321 1.12132
0.360521 -0.276178 1.12057
0.361951 -0.276053 1.11991
0.363421 -0.275948 1.11934
0.365053 -0.275924 1.11913
0.366744 -0.275928 1.11905
0.368524 -0.275975 1.11916
0.370183 -0.275961 1.119
0.371905 -0.275977 1.11897
0.373459 -0.275911 1.11857
0.374986 -0.275831 1.11811
0.376506 -0.275748 1.11764
0.378143 -0.275721 1.11741
0.379621 -0.275618 1.11685
0.381093 -0.275511 1.11627
0.382674 -0.275456 1.11592
0.384233 -0.27539 1.11553
0.385815 -0.275335 1.11518
0.387438 -0.275298 1.11491
0.389005 -0.275235 1.11452
0.390606 -0.275187 1.11421
0.392299 -0.275181 1.11408
0.394064 -0.275207 1.11409
0.396001 -0.27531 1.11446
0.397927 -0.275407 1.11479
0.399971 -0.275556 1.11536
0.419695 -0.278145 1.12617
0.421981 -0.278375 1.1271
0.424006 -0.278489 1.1275
0.425892 -0.278541 1.12763
0.427451 -0.278451 1.12712
0.429005 -0.278359 1.12661
0.430312 -0.278161 1.12562
0.43173 -0.278011 1.12484
0.433255 -0.277907 1.12426
0.434979 -0.277887 1.12407
0.436656 -0.277846 1.12378
0.328807 -0.280072 1.14792
0.330029 -0.279815 1.14666
0.331102 -0.279478 1.14503
0.332131 -0.27912 1.1433
0.33316 -0.278762 1.14158
0.334196 -0.278413 1.13989
0.335187 -0.27804 1.1381
0.336339 -0.277757 1.13671
0.337393 -0.277423 1.1351
0.338491 -0.277115 1.1336
0.339584 -0.276805 1.1321
0.340454 -0.276381 1.13006
0.341112 -0.275847 1.12754
0.341705 -0.275282 1.12488
0.342364 -0.274757 1.12239
0.343228 -0.274342 1.12041
0.344557 -0.27417 1.11953
0.346146 -0.274134 1.11927
0.34797 -0.274216 1.11955
0.349954 -0.274379 1.1202
0.351947 -0.274544 1.12085
0.35387 -0.274671 1.12134
0.355633 -0.274716 1.12145
0.357334 -0.274728 1.12141
0.358915 -0.274679 1.12109
0.360387 -0.274576 1.12052
0.361904 -0.274494 1.12006
0.363459 -0.274431 1.11968
0.365213 -0.274466 1.11974
0.366944 -0.274489 1.11975
0.368774 -0.274557 1.11996
0.370475 -0.274562 1.11989
0.372231 -0.274593 1.11993
0.373751 -0.274509 1.11946
0.375271 -0.274426 1.11898
0.376753 -0.274324 1.11842
0.378309 -0.274257 1.11802
0.379706 -0.274115 1.11728
0.38113 -0.273985 1.11659
0.382628 -0.273891 1.11607
0.384145 -0.273805 1.11558
0.385683 -0.273729 1.11514
0.387298 -0.273688 1.11486
0.388863 -0.273623 1.11447
0.390461 -0.273574 1.11415
0.392156 -0.273568 1.11402
0.393913 -0.273589 1.11403
0.395725 -0.273635 1.11413
0.397462 -0.273645 1.11408
0.39913 -0.273623 1.11389
0.426468 -0.277197 1.12899
0.427998 -0.277093 1.12842
0.42948 -0.276969 1.12776
0.430685 -0.276728 1.12656
0.431993 -0.276531 1.12557
0.433418 -0.276385 1.12481
0.438583 -0.277804 1.13113
0.328583 -0.278394 1.14765
0.329882 -0.278182 1.14658
0.331088 -0.277921 1.14528
0.332187 -0.277601 1.14372
0.33325 -0.277265 1.14209
0.334356 -0.276953 1.14057
0.335383 -0.276601 1.13886
0.33658 -0.276344 1.13758
0.337677 -0.276033 1.13607
0.338786 -0.275732 1.13459
0.339922 -0.275447 1.13319
0.340823 -0.275039 1.13123
0.341445 -0.274488 1.12861
0.342026 -0.273921 1.12591
0.342612 -0.27336 1.12325
0.343338 -0.272876 1.12094
0.344489 -0.272613 1.11964
0.345989 -0.272529 1.11917
0.347734 -0.272572 1.11927
0.349638 -0.272691 1.11973
0.351624 -0.272851 1.12037
0.353612 -0.27301 1.12101
0.35542 -0.273076 1.12122
0.357133 -0.273094 1.12121
0.358828 -0.273101 1.12115
0.360381 -0.273037 1.12077
0.361946 -0.272979 1.12041
0.363542 -0.272936 1.12012
0.3653 -0.27297 1.12019
0.367032 -0.272992 1.12019
0.368854 -0.273055 1.12039
0.370554 -0.27306 1.12032
0.37231 -0.273088 1.12036
0.373864 -0.27302 1.11996
0.375381 -0.272935 1.11947
0.376862 -0.272832 1.11891
0.378378 -0.272745 1.11842
0.379777 -0.272604 1.11768
0.381168 -0.272459 1.11692
0.382635 -0.272349 1.11633
0.384113 -0.272245 1.11576
0.385601 -0.272146 1.11522
0.387167 -0.272082 1.11483
0.388766 -0.272033 1.11451
0.390368 -0.271984 1.1142
0.392067 -0.271979 1.11408
0.39386 -0.272016 1.11416
0.395664 -0.272056 1.11425
0.397355 -0.272046 1.11411
0.399019 -0.272021 1.1139
0.426994 -0.275827 1.13025
0.32867 -0.276889 1.14815
0.329875 -0.276626 1.14685
0.331067 -0.276358 1.14552
0.332165 -0.276039 1.14395
0.333195 -0.275687 1.14223
0.334299 -0.275376 1.14071
0.335299 -0.275012 1.13893
0.336532 -0.274775 1.13774
0.337709 -0.274508 1.13642
0.338858 -0.274229 1.13504
0.340066 -0.273981 1.13381
0.341075 -0.273633 1.13211
0.341733 -0.273103 1.12957
0.342322 -0.272542 1.12689
0.342946 -0.272005 1.12431
0.343673 -0.271522 1.122
0.344723 -0.271209 1.12046
0.346149 -0.271087 1.11981
0.347809 -0.271084 1.11971
0.34959 -0.271141 1.11988
0.351497 -0.271258 1.12034
0.353515 -0.271429 1.12105
0.355361 -0.271514 1.12135
0.357119 -0.271552 1.12144
0.358899 -0.271599 1.12157
0.360494 -0.271556 1.12128
0.362061 -0.271498 1.12093
0.363663 -0.271457 1.12065
0.365374 -0.271468 1.12061
0.367061 -0.271466 1.12052
0.368837 -0.271506 1.12061
0.370534 -0.271507 1.12053
0.372254 -0.271518 1.12049
0.373813 -0.271452 1.1201
0.375329 -0.271365 1.11961
0.376807 -0.27126 1.11904
0.378323 -0.271174 1.11855
0.379805 -0.271071 1.11799
0.381285 -0.270968 1.11742
0.382801 -0.270881 1.11693
0.384318 -0.270794 1.11644
0.385801 -0.270692 1.11588
0.387322 -0.270606 1.1154
0.388882 -0.270539 1.115
0.390452 -0.270475 1.11461
0.392152 -0.27047 1.1145
0.393912 -0.27049 1.11451
0.395672 -0.27051 1.11451
0.397334 -0.270484 1.1143
0.399009 -0.270464 1.11412
0.433116 -0.277667 1.13855
0.427543 -0.274461 1.13155
0.437926 -0.278938 1.14426
0.435672 -0.277127 1.14373
0.328796 -0.275404 1.14877
0.32988 -0.275076 1.14715
0.330973 -0.274755 1.14557
0.332071 -0.274439 1.144
0.333067 -0.27407 1.1422
0.334169 -0.27376 1.14067
0.335167 -0.273398 1.13889
0.336436 -0.273179 1.13779
0.337687 -0.272953 1.13665
0.338913 -0.272715 1.13545
0.340164 -0.272491 1.13433
0.341284 -0.272201 1.13289
0.342064 -0.271737 1.13064
0.342744 -0.271227 1.12817
0.343482 -0.270749 1.12586
0.344244 -0.270285 1.12361
0.345245 -0.269948 1.12195
0.346556 -0.269767 1.12103
0.348065 -0.269686 1.12057
0.349699 -0.269667 1.1204
0.351519 -0.26974 1.12065
0.353499 -0.26989 1.12127
0.355348 -0.269974 1.12158
0.357155 -0.270034 1.12178
0.35901 -0.270118 1.12208
0.360687 -0.270112 1.12198
0.362254 -0.270053 1.12162
0.36389 -0.270027 1.12141
0.365555 -0.270015 1.12127
0.367158 -0.269971 1.12098
0.368845 -0.269967 1.12088
0.370503 -0.269949 1.12071
0.372153 -0.269926 1.12052
0.373717 -0.269862 1.12014
0.375235 -0.269776 1.11966
0.376714 -0.269672 1.11909
0.378272 -0.269604 1.11869
0.379837 -0.26954 1.1183
0.381407 -0.269477 1.11793
0.382974 -0.269413 1.11754
0.384534 -0.269345 1.11714
0.386014 -0.26924 1.11657
0.387494 -0.269136 1.116
0.389017 -0.269051 1.11552
0.390589 -0.268988 1.11514
0.392295 -0.268983 1.11504
0.394053 -0.269001 1.11504
0.395816 -0.26902 1.11504
0.397484 -0.268997 1.11485
0.399164 -0.268978 1.11468
0.327404 -0.279324 1.16751
0.327179 -0.277617 1.16723
0.327864 -0.277049 1.16447
0.32907 -0.273996 1.14975
0.329964 -0.273567 1.14765
0.330913 -0.27317 1.1457
0.331977 -0.272837 1.14405
0.33297 -0.272469 1.14224
0.334035 -0.272142 1.14062
0.335023 -0.271776 1.13881
0.336292 -0.27156 1.13771
0.337545 -0.271336 1.13658
0.338818 -0.271122 1.1355
0.340112 -0.270922 1.13447
0.341349 -0.270693 1.13332
0.34229 -0.270314 1.13146
0.343105 -0.269874 1.1293
0.343933 -0.269444 1.1272
0.344798 -0.269035 1.12519
0.345718 -0.268656 1.12333
0.346906 -0.268414 1.12211
0.348324 -0.268287 1.12144
0.349877 -0.268227 1.12107
0.351623 -0.268261 1.12116
0.353604 -0.268408 1.12177
0.355492 -0.268509 1.12217
0.357344 -0.26859 1.12247
0.35921 -0.268676 1.1228
0.360923 -0.268687 1.12277
0.362489 -0.268626 1.12241
0.364086 -0.26858 1.12211
0.365675 -0.268531 1.12179
0.367231 -0.268463 1.1214
0.368834 -0.268419 1.12111
0.370482 -0.268395 1.12092
0.372098 -0.268355 1.12065
0.373664 -0.268292 1.12028
0.375183 -0.268206 1.1198
0.376697 -0.268118 1.1193
0.378262 -0.268054 1.11892
0.379877 -0.268011 1.11864
0.381501 -0.267972 1.11838
0.383115 -0.267928 1.11809
0.38468 -0.267862 1.1177
0.3862 -0.267775 1.11721
0.387723 -0.26769 1.11673
0.38929 -0.267623 1.11634
0.39086 -0.267558 1.11595
0.392557 -0.267549 1.11582
0.394311 -0.267563 1.11581
0.396079 -0.267582 1.11582
0.397731 -0.26755 1.11559
0.399451 -0.267548 1.1155
0.326965 -0.275918 1.16697
0.327673 -0.275367 1.16427
0.328603 -0.274941 1.16217
0.328275 -0.275405 1.15656
0.328538 -0.273981 1.15753
0.328795 -0.273201 1.15374
0.329373 -0.272601 1.15081
0.330119 -0.272094 1.14833
0.330894 -0.271607 1.14594
0.331853 -0.27122 1.14403
0.332768 -0.270813 1.14202
0.333753 -0.270447 1.1402
0.334699 -0.270061 1.13829
0.33597 -0.269848 1.1372
0.337331 -0.269681 1.13633
0.338686 -0.269511 1.13545
0.340059 -0.269352 1.13462
0.341441 -0.269197 1.13381
0.342537 -0.268899 1.13232
0.34345 -0.268511 1.1304
0.34441 -0.268148 1.1286
0.345318 -0.267762 1.12669
0.346192 -0.26736 1.12472
0.34729 -0.267074 1.12328
0.348663 -0.266924 1.12249
0.35021 -0.26686 1.12211
0.35196 -0.266893 1.1222
0.353985 -0.267059 1.12291
0.355915 -0.267177 1.1234
0.357807 -0.267275 1.12379
0.359644 -0.267344 1.12404
0.361358 -0.267353 1.12401
0.362889 -0.267276 1.12357
0.364449 -0.26721 1.12318
0.365967 -0.267125 1.1227
0.367482 -0.267038 1.12222
0.369039 -0.266971 1.12182
0.370643 -0.266925 1.12153
0.372214 -0.266863 1.12116
0.373777 -0.266798 1.12078
0.375294 -0.266711 1.12029
0.37681 -0.266624 1.1198
0.378377 -0.266559 1.11942
0.379999 -0.266519 1.11915
0.381628 -0.266482 1.1189
0.383245 -0.266437 1.11862
0.384811 -0.266372 1.11822
0.386413 -0.26632 1.11791
0.387987 -0.266256 1.11753
0.389603 -0.26621 1.11724
0.391174 -0.266144 1.11685
0.392943 -0.266165 1.11687
0.394694 -0.266176 1.11684
0.396509 -0.266214 1.11695
0.398191 -0.266193 1.11677
0.400016 -0.266234 1.11689
0.325693 -0.274579 1.16851
0.326794 -0.274243 1.16682
0.327597 -0.273747 1.16438
0.328506 -0.273313 1.16222
0.32884 -0.272573 1.1586
0.329155 -0.271829 1.15496
0.329661 -0.271194 1.15184
0.330263 -0.270614 1.14898
0.330877 -0.270045 1.14618
0.331758 -0.26962 1.14407
0.332632 -0.269194 1.14196
0.333572 -0.268805 1.14003
0.334512 -0.26842 1.13811
0.335782 -0.268206 1.13701
0.337158 -0.268048 1.13619
0.33859 -0.267918 1.1355
0.340039 -0.267798 1.13485
0.341498 -0.267683 1.13423
0.342705 -0.267441 1.133
0.343771 -0.267131 1.13144
0.344854 -0.26683 1.12993
0.345881 -0.266504 1.12829
0.346834 -0.266144 1.1265
0.347865 -0.265824 1.1249
0.34916 -0.265634 1.12392
0.350668 -0.265549 1.12344
0.352393 -0.265568 1.12346
0.354357 -0.265702 1.12403
0.356368 -0.265856 1.1247
0.358261 -0.265951 1.12509
0.360097 -0.266017 1.12533
0.361813 -0.266026 1.1253
0.363379 -0.265962 1.12493
0.364905 -0.26588 1.12446
0.366421 -0.265793 1.12397
0.367859 -0.265669 1.12331
0.369335 -0.265562 1.12273
0.370859 -0.265478 1.12226
0.372385 -0.265395 1.12179
0.373912 -0.265312 1.12132
0.375423 -0.265222 1.12082
0.37694 -0.265134 1.12033
0.378505 -0.265069 1.11994
0.380166 -0.265045 1.11976
0.381828 -0.265021 1.11957
0.383483 -0.264993 1.11937
0.385088 -0.264943 1.11906
0.386817 -0.264946 1.119
0.388447 -0.264906 1.11874
0.390124 -0.264885 1.11857
0.391785 -0.264857 1.11836
0.39364 -0.264912 1.11855
0.395356 -0.264906 1.11845
0.397181 -0.264945 1.11857
0.398889 -0.264934 1.11844
0.400688 -0.264961 1.1185
0.324517 -0.274876 1.17001
0.324444 -0.273252 1.17012
0.325582 -0.272936 1.16852
0.326694 -0.272607 1.16687
0.327697 -0.272222 1.16493
0.328597 -0.271785 1.16275
0.329139 -0.271161 1.15966
0.329582 -0.27049 1.15634
0.330018 -0.26982 1.15304
0.330492 -0.269175 1.14985
0.330934 -0.26852 1.14661
0.331701 -0.268038 1.14421
0.332569 -0.267611 1.14209
0.333462 -0.267202 1.14004
0.334442 -0.266839 1.13822
0.335754 -0.266648 1.13723
0.337174 -0.266511 1.1365
0.338681 -0.26642 1.136
0.340172 -0.266321 1.13545
0.341632 -0.266205 1.13482
0.342913 -0.266001 1.13377
0.344088 -0.265745 1.13247
0.345256 -0.265488 1.13116
0.346407 -0.265223 1.12981
0.34752 -0.264941 1.12838
0.348562 -0.264627 1.1268
0.349864 -0.26444 1.12583
0.351408 -0.26437 1.12543
0.353176 -0.264407 1.12554
0.355121 -0.264528 1.12606
0.357137 -0.264679 1.12672
0.359026 -0.264769 1.12709
0.360823 -0.264814 1.12724
0.362505 -0.264804 1.12713
0.36404 -0.264724 1.12667
0.365563 -0.264638 1.12619
0.366999 -0.264512 1.12552
0.368353 -0.264349 1.12466
0.369749 -0.264204 1.1239
0.371192 -0.264082 1.12325
0.372641 -0.263964 1.12261
0.374123 -0.26386 1.12204
0.375599 -0.263753 1.12145
0.377078 -0.263648 1.12088
0.37864 -0.263579 1.12048
0.380294 -0.263551 1.12028
0.381954 -0.263525 1.12009
0.383649 -0.263514 1.11997
0.385338 -0.263499 1.11983
0.387165 -0.263544 1.11998
0.38889 -0.263544 1.11991
0.390706 -0.263582 1.12003
0.39246 -0.263592 1.12001
0.394335 -0.263652 1.12024
0.396064 -0.26365 1.12015
0.32566 -0.271393 1.16903
0.326848 -0.271107 1.16757
0.328029 -0.270819 1.1661
0.32904 -0.270442 1.16419
0.329667 -0.269865 1.16132
0.330107 -0.269196 1.15798
0.330529 -0.268522 1.15463
0.330845 -0.267799 1.15104
0.331168 -0.267085 1.14749
0.331861 -0.266568 1.1449
0.332695 -0.266126 1.14269
0.333564 -0.265706 1.14057
0.334579 -0.265363 1.13884
0.335896 -0.265174 1.13785
0.337322 -0.265041 1.13714
0.338862 -0.264966 1.13671
0.34039 -0.264883 1.13625
0.34186 -0.264772 1.13565
0.34318 -0.264588 1.13469
0.344429 -0.264368 1.13356
0.345674 -0.264149 1.13242
0.346952 -0.263946 1.13137
0.348198 -0.263729 1.13025
0.349367 -0.263476 1.12896
0.350747 -0.263325 1.12816
0.352286 -0.26325 1.12773
0.354092 -0.263302 1.12793
0.356007 -0.263404 1.12836
0.357992 -0.263538 1.12895
0.35984 -0.263604 1.12922
0.361632 -0.263643 1.12934
0.363207 -0.26358 1.12898
0.36471 -0.263484 1.12844
0.366195 -0.263379 1.12787
0.367547 -0.263213 1.127
0.368811 -0.263008 1.12594
0.370159 -0.262842 1.12506
0.371556 -0.262698 1.1243
0.372966 -0.262561 1.12357
0.374447 -0.262455 1.123
0.375924 -0.262348 1.12241
0.377401 -0.26224 1.12183
0.378966 -0.262173 1.12144
0.380622 -0.262144 1.12123
0.382287 -0.262119 1.12105
0.384035 -0.262129 1.12104
0.385782 -0.262138 1.12102
0.387702 -0.262221 1.12136
0.389521 -0.262259 1.12148
0.391431 -0.262334 1.12179
0.393281 -0.262383 1.12196
0.395215 -0.262466 1.1223
0.325594 -0.269773 1.16916
0.326891 -0.269546 1.16798
0.328198 -0.269324 1.16684
0.32936 -0.269029 1.16532
0.3301 -0.268515 1.16273
0.330641 -0.267901 1.15964
0.331092 -0.267246 1.15636
0.331366 -0.266505 1.15265
0.331614 -0.265757 1.14891
0.332226 -0.2652 1.14611
0.332951 -0.264705 1.14361
0.333788 -0.26427 1.14141
0.334813 -0.263933 1.1397
0.336173 -0.263766 1.13882
0.337628 -0.263646 1.13817
0.339205 -0.263588 1.13783
0.340734 -0.263505 1.13736
0.342245 -0.263413 1.13685
0.34357 -0.263231 1.1359
0.344861 -0.263032 1.13486
0.34622 -0.262867 1.134
0.347587 -0.262707 1.13315
0.34896 -0.26255 1.13232
0.350291 -0.262373 1.13139
0.351754 -0.26226 1.13078
0.353335 -0.262203 1.13044
0.355145 -0.262252 1.13063
0.356986 -0.262316 1.13088
0.358896 -0.26241 1.13129
0.3607 -0.262452 1.13144
0.362415 -0.262452 1.13139
0.363954 -0.262371 1.13093
0.365456 -0.262272 1.13038
0.366903 -0.262149 1.12972
0.368207 -0.261959 1.12873
0.369426 -0.261733 1.12756
0.370688 -0.261528 1.12649
0.371968 -0.261331 1.12547
0.373334 -0.261173 1.12463
0.374771 -0.261047 1.12396
0.376212 -0.260922 1.12329
0.377691 -0.260817 1.12271
0.379301 -0.260766 1.12241
0.381004 -0.260757 1.1223
0.382723 -0.260754 1.12223
0.384521 -0.260784 1.12232
0.386362 -0.260831 1.12249
0.388336 -0.260934 1.12294
0.390169 -0.260976 1.12309
0.392115 -0.261064 1.12346
0.394096 -0.261165 1.1239
0.331355 -0.266693 1.16177
0.331816 -0.266046 1.1585
0.332071 -0.265298 1.15473
0.332273 -0.264531 1.15086
0.332831 -0.263949 1.14791
0.333471 -0.263413 1.14519
0.334272 -0.262962 1.1429
0.335299 -0.262627 1.14118
0.336697 -0.262477 1.14039
0.33812 -0.262341 1.13966
0.339731 -0.262297 1.13939
0.341298 -0.262231 1.13901
0.342854 -0.26216 1.1386
0.344225 -0.261998 1.13775
0.345591 -0.261835 1.13688
0.347103 -0.261742 1.13637
0.348596 -0.26164 1.13581
0.35006 -0.261524 1.13519
0.351479 -0.261387 1.13445
0.353059 -0.261327 1.1341
0.354585 -0.26124 1.13362
0.356327 -0.261253 1.13363
0.358089 -0.261276 1.13369
0.359913 -0.261326 1.13389
0.36156 -0.261293 1.13367
0.3632 -0.261257 1.13344
0.36466 -0.261137 1.13279
0.366123 -0.261018 1.13215
0.367524 -0.260872 1.13137
0.368793 -0.260667 1.1303
0.369978 -0.260425 1.12905
0.371202 -0.260201 1.12789
0.372399 -0.259968 1.12667
0.373713 -0.259786 1.12572
0.375108 -0.259642 1.12495
0.376511 -0.2595 1.12419
0.378039 -0.259414 1.12371
0.379735 -0.259401 1.12359
0.381488 -0.259411 1.12359
0.383256 -0.259427 1.12362
0.385138 -0.25949 1.12388
0.387026 -0.259555 1.12415
0.389006 -0.259658 1.12461
0.390878 -0.259712 1.12482
0.392907 -0.259833 1.12537
0.395019 -0.259984 1.12607
0.399554 -0.262731 1.13154
0.332637 -0.264015 1.15646
0.332646 -0.263154 1.15209
0.333147 -0.262547 1.14899
0.333698 -0.26197 1.14605
0.334463 -0.261503 1.14366
0.335474 -0.26116 1.1419
0.336904 -0.261027 1.14118
0.338503 -0.260976 1.14088
0.340281 -0.261013 1.14101
0.341958 -0.260998 1.14089
0.343643 -0.260986 1.14079
0.345228 -0.260926 1.14044
0.346715 -0.260819 1.13985
0.348357 -0.260785 1.13963
0.349942 -0.260724 1.13928
0.351528 -0.260662 1.13892
0.353025 -0.260558 1.13836
0.354659 -0.260519 1.13811
0.356162 -0.260418 1.13756
0.357832 -0.260394 1.13739
0.359431 -0.260337 1.13706
0.361044 -0.260285 1.13675
0.36253 -0.260176 1.13615
0.364022 -0.260069 1.13557
0.365405 -0.259913 1.13474
0.366819 -0.259771 1.13398
0.368178 -0.259605 1.1331
0.369419 -0.259386 1.13196
0.370651 -0.259166 1.1308
0.371886 -0.258947 1.12966
0.373038 -0.258693 1.12834
0.374261 -0.25847 1.12718
0.375606 -0.258302 1.12629
0.376971 -0.258144 1.12545
0.378513 -0.258063 1.12499
0.380259 -0.258069 1.12497
0.382061 -0.258098 1.12507
0.383829 -0.258111 1.12509
0.385717 -0.258175 1.12536
0.387642 -0.258252 1.1257
0.389584 -0.258336 1.12607
0.391538 -0.258423 1.12646
0.393654 -0.258575 1.12718
0.395869 -0.258767 1.12809
0.333132 -0.26269 1.158
0.333106 -0.261817 1.15354
0.333588 -0.261203 1.15039
0.334023 -0.260572 1.14715
0.334736 -0.260082 1.14462
0.335717 -0.259725 1.14278
0.337364 -0.259697 1.14259
0.339184 -0.259752 1.14283
0.34115 -0.259876 1.14341
0.34299 -0.259937 1.14368
0.344793 -0.259979 1.14385
0.346427 -0.259938 1.1436
0.348004 -0.25987 1.14322
0.349706 -0.259861 1.14312
0.351271 -0.259786 1.14271
0.352871 -0.259728 1.14237
0.354397 -0.259635 1.14185
0.356037 -0.259595 1.14161
0.357513 -0.259478 1.14097
0.359114 -0.259419 1.14063
0.360533 -0.259276 1.13987
0.361964 -0.259139 1.13913
0.36332 -0.258969 1.13823
0.364695 -0.258807 1.13737
0.366002 -0.258617 1.13636
0.367406 -0.258469 1.13557
0.368717 -0.258281 1.13457
0.369961 -0.258063 1.13343
0.371251 -0.257867 1.1324
0.372496 -0.257653 1.13127
0.373646 -0.257397 1.12993
0.374856 -0.25717 1.12874
0.376153 -0.25698 1.12774
0.377486 -0.256808 1.12682
0.379072 -0.256743 1.12646
0.380785 -0.256733 1.12636
0.382587 -0.25676 1.12645
0.384353 -0.25677 1.12646
0.386238 -0.25683 1.12672
0.388129 -0.256891 1.12699
0.390114 -0.256989 1.12744
0.392112 -0.257091 1.12791
0.394292 -0.257267 1.12876
0.396619 -0.2575 1.1299
0.344145 -0.258924 1.14676
0.345976 -0.258975 1.14699
0.347654 -0.258952 1.14683
0.349209 -0.258871 1.14638
0.35089 -0.258848 1.14622
0.352456 -0.258772 1.14579
0.354046 -0.258705 1.14542
0.355576 -0.25861 1.1449
0.357227 -0.258572 1.14466
0.358706 -0.258454 1.14402
0.360219 -0.258352 1.14346
0.36158 -0.25818 1.14255
0.362917 -0.257999 1.14159
0.364223 -0.257804 1.14056
0.365488 -0.257593 1.13944
0.366752 -0.257381 1.13832
0.368068 -0.257194 1.13732
0.369339 -0.256987 1.13623
0.370544 -0.256753 1.13499
0.37188 -0.256576 1.13406
0.373137 -0.256366 1.13295
0.374291 -0.256112 1.13161
0.375498 -0.255884 1.1304
0.376716 -0.25566 1.12923
0.377967 -0.255451 1.12812
0.379551 -0.255385 1.12775
0.381222 -0.255355 1.12756
0.382978 -0.255361 1.12755
0.384741 -0.255368 1.12755
0.38663 -0.255427 1.12781
0.388487 -0.255471 1.12799
0.390475 -0.255567 1.12845
0.392567 -0.255706 1.12912
0.394846 -0.255919 1.13017
0.397328 -0.256211 1.13162
0.343809 -0.258013 1.15047
0.345608 -0.258046 1.1506
