ply
format ascii 1.0
element vertex 1712
property float x
property float y
property float z
end_header
0.259019 0.0614188 0.889941
0.257433 0.0602267 0.888661
0.255722 0.0590149 0.886922
0.254037 0.0578116 0.885252
0.252331 0.0566084 0.883488
0.250608 0.0554061 0.881639
0.24892 0.0542145 0.879898
0.247318 0.0530419 0.878452
0.245706 0.0518715 0.876952
0.24418 0.0507189 0.87575
0.242657 0.0495701 0.874547
0.241166 0.0484299 0.873449
0.23968 0.0472924 0.872351
0.23832 0.0461774 0.871717
0.237019 0.0450737 0.871298
0.235709 0.0439696 0.870836
0.234398 0.0428672 0.870362
0.233052 0.0417624 0.869747
0.231661 0.0406535 0.868943
0.230229 0.039541 0.867967
0.228897 0.0384449 0.867371
0.227615 0.0373561 0.866962
0.226434 0.0362802 0.866942
0.225283 0.0352089 0.867038
0.22416 0.0341412 0.867245
0.223058 0.0330768 0.867539
0.221979 0.0320134 0.867916
0.220924 0.0309532 0.868396
0.219897 0.0298957 0.868991
0.218894 0.0288392 0.869689
0.217892 0.0277818 0.87039
0.216839 0.02672 0.870883
0.215734 0.0256547 0.871164
0.21458 0.0245863 0.871237
0.213449 0.0235199 0.871399
0.212408 0.0224588 0.871944
0.211444 0.0214014 0.872818
0.210532 0.0203459 0.873922
0.209725 0.0192936 0.875489
0.209024 0.0182426 0.877528
0.208292 0.017187 0.879452
0.207606 0.0161287 0.881591
0.206906 0.0150666 0.883692
0.206197 0.0139996 0.88577
0.205378 0.012928 0.887378
0.204556 0.0118532 0.888985
0.203687 0.0107758 0.890397
0.202772 0.00969587 0.891605
0.20177 0.00861429 0.892427
0.200819 0.0075312 0.893491
0.199829 0.00644761 0.894385
0.198844 0.00536229 0.895302
0.197859 0.00427649 0.896229
0.196889 0.00318819 0.897233
0.195836 0.00210204 0.897853
0.282886 0.0879454 0.855806
0.281713 0.0868495 0.855931
0.280554 0.0857573 0.856094
0.279197 0.0846134 0.855631
0.277836 0.0834702 0.855145
0.276505 0.082336 0.854748
0.275237 0.0812195 0.854549
0.273983 0.0801069 0.854386
0.272811 0.079017 0.854489
0.271694 0.0779408 0.854766
0.270609 0.0768725 0.855149
0.269614 0.0758265 0.855825
0.268679 0.0747939 0.856704
0.267749 0.0737614 0.857604
0.266782 0.0727199 0.858385
0.265859 0.0716875 0.859317
0.264858 0.0706371 0.859993
0.263863 0.0695864 0.860687
0.262933 0.0685501 0.86161
0.263279 0.0669492 0.871029
0.264088 0.0662711 0.877987
0.264494 0.065497 0.883613
0.26471 0.0646738 0.888626
0.264079 0.0636699 0.890722
0.262979 0.0625703 0.891192
0.261476 0.0613917 0.890241
0.259865 0.0601954 0.888896
0.258282 0.0590078 0.887636
0.256625 0.0578086 0.886092
0.254942 0.0566096 0.884438
0.253261 0.0554145 0.882771
0.251562 0.05422 0.881019
0.249899 0.053036 0.879375
0.248297 0.0518669 0.87794
0.246708 0.0507031 0.876533
0.245177 0.0495518 0.875318
0.243653 0.0484051 0.874117
0.242136 0.0472623 0.872927
0.240646 0.0461275 0.871823
0.239261 0.0450103 0.871098
0.23794 0.0439044 0.870606
0.236607 0.0427994 0.870061
0.235318 0.0417015 0.869671
0.233972 0.0405982 0.86906
0.232627 0.0394965 0.868436
0.231245 0.0383926 0.867659
0.229963 0.0373033 0.867264
0.228711 0.0362184 0.866976
0.22755 0.0351458 0.867045
0.226399 0.0340744 0.867144
0.225273 0.033006 0.867342
0.22419 0.0319423 0.867713
0.22311 0.0308789 0.868091
0.222055 0.0298184 0.868577
0.221051 0.028761 0.869265
0.220074 0.0277056 0.870069
0.219072 0.0266476 0.870776
0.21802 0.0255844 0.871277
0.216934 0.02452 0.871638
0.215779 0.0234508 0.871712
0.214643 0.0223832 0.871865
0.213583 0.0213197 0.872328
0.212596 0.0202606 0.873111
0.211641 0.019201 0.87403
0.210766 0.018144 0.8753
0.209995 0.017088 0.877032
0.209238 0.0160299 0.878838
0.208549 0.0149698 0.880956
0.207857 0.0139055 0.883079
0.207193 0.0128375 0.885344
0.206421 0.0117647 0.887156
0.205625 0.0106885 0.888875
0.204781 0.00960922 0.890393
0.20389 0.00852757 0.89171
0.202888 0.00744475 0.892531
0.201939 0.0063609 0.893606
0.200952 0.00527537 0.894507
0.199991 0.00418845 0.895541
0.199028 0.00309997 0.89657
0.198057 0.00201022 0.897573
0.197001 0.000922696 0.898179
0.284625 0.0877644 0.85393
0.283459 0.0866711 0.854072
0.282314 0.0855842 0.85428
0.281153 0.0844941 0.854437
0.27983 0.0833611 0.854076
0.278499 0.0822277 0.853686
0.277196 0.0811025 0.853375
0.275931 0.0799885 0.853182
0.274706 0.0788852 0.853112
0.273565 0.0778043 0.853314
0.272453 0.0767305 0.853603
0.271366 0.0756624 0.853977
0.270371 0.0746166 0.85465
0.269409 0.0735774 0.855433
0.268423 0.0725325 0.856141
0.267427 0.0714844 0.85682
0.266473 0.0704456 0.857642
0.265444 0.0693891 0.858215
0.264392 0.0683268 0.858712
0.263419 0.0672818 0.859476
0.263447 0.0664497 0.86365
0.263648 0.0656467 0.868445
0.264686 0.0650077 0.876151
0.265166 0.0642422 0.882002
0.265451 0.0634265 0.887228
0.264871 0.0624323 0.889494
0.263839 0.0613462 0.890196
0.262302 0.0601636 0.88913
0.260717 0.0589755 0.88788
0.259144 0.0577919 0.886656
0.257513 0.0566017 0.885213
0.255832 0.0554059 0.88357
0.254178 0.0542186 0.882006
0.25246 0.0530251 0.880197
0.250827 0.0518496 0.878671
0.249254 0.0506877 0.877344
0.247689 0.0495307 0.876032
0.246158 0.0483819 0.874828
0.244656 0.0472405 0.873712
0.243131 0.0460993 0.872503
0.241642 0.0449664 0.871406
0.240255 0.0438506 0.870681
0.238934 0.0427467 0.870195
0.237625 0.0416455 0.869741
0.236337 0.0405491 0.869363
0.235014 0.0394494 0.868838
0.233688 0.038352 0.868297
0.232353 0.0372546 0.867711
0.231099 0.0361694 0.86743
0.229898 0.0350903 0.867346
0.228766 0.0340205 0.867532
0.227616 0.0329481 0.867644
0.226466 0.0318768 0.867749
0.22538 0.0308126 0.868113
0.224296 0.0297481 0.868483
0.223244 0.028686 0.868978
0.222262 0.0276296 0.869763
0.221303 0.0265735 0.870643
0.220299 0.0255135 0.871341
0.219244 0.02445 0.871839
0.218159 0.023384 0.87221
0.217006 0.022314 0.872297
0.215875 0.0212458 0.872475
0.214793 0.020181 0.872858
0.213788 0.0191187 0.873561
0.212808 0.0180569 0.874376
0.211886 0.0169964 0.875446
0.211046 0.0159362 0.876877
0.210258 0.0148749 0.87854
0.209565 0.0138129 0.880635
0.208876 0.0127464 0.882764
0.20822 0.011676 0.885057
0.207491 0.0106014 0.887052
0.206718 0.00952289 0.888865
0.205856 0.00844205 0.8903
0.204966 0.00735852 0.891617
0.203981 0.00627499 0.892518
0.203033 0.00518921 0.893592
0.202067 0.00410227 0.894596
0.201172 0.00301175 0.895927
0.200254 0.00191977 0.89717
0.199347 0.000824609 0.898467
0.285381 0.086542 0.85278
0.284189 0.0854436 0.85284
0.283018 0.0843511 0.852964
0.281816 0.0832506 0.852986
0.280463 0.0821123 0.852531
0.279132 0.0809811 0.852139
0.277826 0.0798573 0.851817
0.276562 0.0787461 0.851626
0.275341 0.0776457 0.851566
0.274232 0.0765727 0.851862
0.273174 0.0755131 0.852324
0.272119 0.0744539 0.852799
0.271124 0.0734075 0.853466
0.270162 0.0723694 0.854246
0.269174 0.0713241 0.854944
0.268151 0.0702696 0.855525
0.267169 0.0692255 0.856251
0.266146 0.0681706 0.856837
0.265131 0.0671175 0.857454
0.2642 0.0660816 0.858356
0.263836 0.0651626 0.861181
0.26382 0.0643104 0.865211
0.264583 0.0636079 0.871935
0.265199 0.0628642 0.87821
0.265643 0.0620758 0.883951
0.26536 0.0611382 0.887222
0.264593 0.0601031 0.888835
0.263026 0.0589189 0.887666
0.261447 0.0577342 0.886438
0.259926 0.0565642 0.885403
0.258355 0.0553876 0.884174
0.256727 0.0542049 0.882728
0.255127 0.0530301 0.881364
0.253435 0.0518443 0.879655
0.251856 0.0506802 0.878334
0.250288 0.049521 0.877031
0.248753 0.0483709 0.875835
0.24722 0.047224 0.874633
0.245715 0.0460846 0.873517
0.244167 0.0449423 0.872228
0.242671 0.0438107 0.871115
0.241258 0.0426925 0.870296
0.239935 0.0415895 0.869805
0.238625 0.0404896 0.869354
0.237336 0.0393939 0.868976
0.236037 0.0382988 0.868549
0.234716 0.037203 0.868032
0.233426 0.0361122 0.867623
0.232221 0.0350318 0.867533
0.231069 0.0339586 0.867649
0.229965 0.0328904 0.867948
0.228859 0.0318223 0.868236
0.227707 0.0307499 0.868341
0.22662 0.0296844 0.868707
0.225561 0.0286206 0.869178
0.224532 0.0275597 0.869777
0.223549 0.0265008 0.870556
0.222587 0.0254432 0.871427
0.221579 0.024381 0.872116
0.220521 0.0233153 0.872604
0.219416 0.022247 0.872902
0.218262 0.021177 0.872995
0.217135 0.0201081 0.873194
0.216074 0.019042 0.87367
0.215044 0.0179779 0.874278
0.214059 0.0169141 0.875074
0.213112 0.0158505 0.87604
0.212225 0.0147869 0.877269
0.211369 0.0137221 0.878641
0.210655 0.012656 0.880631
0.209946 0.0115873 0.88267
0.209274 0.0105139 0.884887
0.208569 0.00943704 0.886978
0.207816 0.00835634 0.888874
0.206934 0.0072739 0.890217
0.20602 0.00618965 0.891426
0.205052 0.00510462 0.892401
0.204102 0.00401791 0.893466
0.203161 0.00292915 0.894577
0.202313 0.00183441 0.896123
0.201464 0.000737674 0.897677
0.200586 -0.000360864 0.899117
0.200178 -0.000361616 0.907918
0.287382 0.0864344 0.851736
0.286203 0.0853398 0.851841
0.284997 0.0842383 0.851857
0.283803 0.0831408 0.851907
0.282534 0.0820244 0.851719
0.28115 0.0808806 0.851166
0.279815 0.0797506 0.850759
0.278481 0.0786223 0.850349
0.277219 0.0775127 0.850159
0.276025 0.0764206 0.850184
0.274919 0.0753499 0.850486
0.273865 0.0742917 0.850958
0.272842 0.0732403 0.851529
0.271852 0.072196 0.852208
0.270894 0.0711584 0.852994
0.269903 0.0701127 0.853678
0.26888 0.0690595 0.854257
0.267903 0.0680159 0.854989
0.266884 0.0669627 0.855586
0.265899 0.0659163 0.8563
0.264964 0.0648794 0.857182
0.264257 0.063888 0.858839
0.263824 0.0629488 0.861432
0.264553 0.0622337 0.867998
0.265314 0.0615128 0.874731
0.265909 0.0607479 0.880949
0.266034 0.0598842 0.885602
0.265659 0.0589207 0.888565
0.264067 0.0577336 0.887315
0.262464 0.0565475 0.886011
0.260916 0.0553745 0.884884
0.259342 0.0542004 0.883655
0.257689 0.0530162 0.882127
0.256092 0.0518446 0.880782
0.25445 0.0506699 0.879257
0.252897 0.0495122 0.878037
0.251351 0.0483589 0.876823
0.249843 0.0472146 0.875732
0.248311 0.0460706 0.874544
0.246783 0.0449296 0.873352
0.245252 0.043792 0.872135
0.24373 0.0426579 0.870931
0.242291 0.0415385 0.870026
0.240962 0.0404354 0.869514
0.239648 0.0393361 0.869054
0.238336 0.0382387 0.868588
0.237064 0.0371478 0.868271
0.235767 0.0360555 0.867849
0.234506 0.0349687 0.867555
0.233348 0.0338939 0.867652
0.232243 0.0328249 0.867952
0.231163 0.0317584 0.86835
0.230081 0.0306917 0.868736
0.228949 0.0296207 0.868929
0.22786 0.0285537 0.86929
0.226802 0.0274891 0.869773
0.225777 0.0264267 0.870385
0.224797 0.0253667 0.871184
0.223834 0.024307 0.872056
0.222823 0.0232434 0.872735
0.221763 0.0221765 0.873222
0.220677 0.021108 0.8736
0.219524 0.0200367 0.873704
0.218391 0.0189666 0.873888
0.217326 0.0178995 0.874351
0.216291 0.0168332 0.87494
0.215284 0.0157672 0.875649
0.214316 0.0147012 0.876529
0.21341 0.0136352 0.877677
0.21251 0.0125675 0.878858
0.21179 0.0114992 0.880824
0.211064 0.0104272 0.882778
0.210375 0.00935171 0.884918
0.209672 0.00827155 0.887007
0.208914 0.00718871 0.888878
0.207988 0.0061054 0.890025
0.207071 0.00501992 0.891219
0.206125 0.00393324 0.892288
0.205157 0.0028461 0.893269
0.204259 0.00175449 0.894576
0.203476 0.000655066 0.896413
0.202681 -0.000446918 0.898212
0.201857 -0.00155145 0.899896
0.288509 0.0875163 0.851475
0.289396 0.0863306 0.850738
0.288262 0.0852478 0.85098
0.287043 0.0841434 0.850959
0.28578 0.0830285 0.850799
0.284553 0.0819236 0.850744
0.283224 0.0807942 0.85037
0.281781 0.0796384 0.849633
0.280412 0.0785023 0.849118
0.27905 0.0773695 0.848615
0.277763 0.0762561 0.848343
0.276573 0.0751668 0.848375
0.275495 0.0741041 0.848762
0.274446 0.073048 0.849243
0.273455 0.0720048 0.849912
0.2725 0.0709689 0.850696
0.271571 0.0699383 0.851573
0.270585 0.0688942 0.852266
0.269612 0.0678524 0.853004
0.268668 0.0668158 0.85384
0.267679 0.0657694 0.854533
0.266696 0.0647234 0.855247
0.265754 0.0636851 0.856102
0.264702 0.0626242 0.856592
0.263855 0.061603 0.857775
0.264607 0.0608859 0.864377
0.265435 0.0601711 0.871295
0.266178 0.0594278 0.87798
0.266746 0.058641 0.884125
0.266813 0.0577532 0.888595
0.265196 0.0565641 0.887269
0.263588 0.0553788 0.885954
0.262004 0.0542024 0.884713
0.260422 0.0530287 0.883461
0.258742 0.0518424 0.881848
0.257147 0.0506739 0.880518
0.255529 0.0495051 0.879088
0.253994 0.0483527 0.877942
0.252446 0.0472013 0.87673
0.250961 0.0460623 0.875732
0.249453 0.0449226 0.874635
0.247896 0.0437798 0.873348
0.246361 0.042643 0.872124
0.244833 0.0415107 0.87091
0.243369 0.0403894 0.869916
0.242013 0.0392842 0.869314
0.240718 0.0381879 0.868925
0.239401 0.037091 0.86845
0.23813 0.0360008 0.868139
0.236861 0.0349123 0.867827
0.235624 0.0338285 0.867633
0.234466 0.0327536 0.867733
0.233364 0.0316845 0.86805
0.232285 0.0306175 0.868451
0.231203 0.0295502 0.868842
0.230094 0.0284808 0.869127
0.22903 0.027415 0.869586
0.227973 0.0263497 0.870078
0.226969 0.0252875 0.870776
0.226013 0.0242277 0.871675
0.225053 0.0231665 0.872561
0.224045 0.0221016 0.873254
0.223006 0.0210347 0.873831
0.221918 0.019965 0.874204
0.220761 0.0188926 0.874298
0.21962 0.0178214 0.874455
0.21853 0.0167524 0.874819
0.21747 0.0156842 0.875311
0.216465 0.0146169 0.87603
0.215499 0.0135495 0.876921
0.214574 0.0124814 0.87799
0.213651 0.0114117 0.879074
0.212909 0.0103406 0.880938
0.212157 0.00926616 0.882777
0.211428 0.00818805 0.884733
0.210704 0.00710623 0.886727
0.209945 0.00602119 0.888588
0.209017 0.00493675 0.889718
0.208101 0.0038501 0.890912
0.20718 0.00276178 0.892091
0.206216 0.00167329 0.893092
0.205345 0.000579011 0.894512
0.204584 -0.000523341 0.896444
0.203834 -0.00163018 0.898445
0.203061 -0.00273916 0.900356
0.290271 0.0851432 0.84997
0.289096 0.0840505 0.850086
0.287836 0.082937 0.849939
0.28651 0.0818077 0.849584
0.285238 0.0806931 0.849388
0.283852 0.0795521 0.848838
0.282403 0.0783974 0.84808
0.281033 0.0772634 0.847558
0.2797 0.07614 0.847147
0.278415 0.0750292 0.84688
0.277254 0.0739481 0.847
0.276177 0.0728864 0.847387
0.275128 0.0718312 0.847864
0.27414 0.0707891 0.848536
0.27316 0.0697482 0.849236
0.272236 0.0687187 0.85012
0.271279 0.0676814 0.850903
0.270315 0.0666416 0.851663
0.269402 0.0656118 0.852595
0.268468 0.0645768 0.853465
0.267486 0.0635312 0.854179
0.266515 0.062487 0.85493
0.265455 0.0614252 0.855391
0.264236 0.060333 0.855316
0.264636 0.0595432 0.860697
0.265529 0.0588337 0.867792
0.266389 0.0581053 0.874837
0.267102 0.0573378 0.881438
0.26763 0.0565261 0.887463
0.266395 0.0554047 0.887459
0.264778 0.0542206 0.886128
0.263182 0.0530432 0.884851
0.261587 0.0518695 0.883564
0.259901 0.050685 0.88194
0.258277 0.049514 0.880517
0.256656 0.0483471 0.879089
0.255094 0.0471924 0.87785
0.253545 0.0460429 0.876645
0.252055 0.0449049 0.875638
0.250547 0.0437672 0.87455
0.248982 0.0426252 0.873242
0.247466 0.0414929 0.872095
0.245935 0.0403621 0.870881
0.244448 0.0392396 0.86981
0.24309 0.0381351 0.869205
0.241789 0.0370392 0.868803
0.240447 0.0359404 0.868238
0.239174 0.0348507 0.867922
0.237928 0.0337654 0.867703
0.236715 0.0326843 0.867601
0.235583 0.0316118 0.867804
0.234503 0.0305441 0.868205
0.233445 0.0294783 0.868694
0.232387 0.0284123 0.86918
0.23128 0.0273424 0.869478
0.230172 0.0262726 0.86977
0.229133 0.0252075 0.87033
0.228126 0.024144 0.871024
0.227128 0.0230805 0.871752
0.226171 0.0220183 0.872652
0.225184 0.0209535 0.873434
0.224147 0.0198857 0.874017
0.22304 0.0188147 0.87432
0.221904 0.0177428 0.874501
0.220762 0.0166712 0.87466
0.219667 0.0156014 0.875006
0.218607 0.0145324 0.875499
0.217624 0.0134643 0.876313
0.216683 0.0123957 0.87731
0.21576 0.0113258 0.878386
0.214813 0.0102544 0.879368
0.214022 0.00918078 0.881023
0.213243 0.00810415 0.882742
0.212472 0.00702426 0.884508
0.211706 0.00594102 0.886315
0.210947 0.00485422 0.888166
0.210018 0.00376885 0.889289
0.209107 0.00268115 0.890501
0.208214 0.00159074 0.891801
0.207278 0.000500077 0.892923
0.206447 -0.000597751 0.89452
0.205728 -0.00170486 0.896635
0.205025 -0.00281721 0.898841
0.204336 -0.00393507 0.901138
0.292105 0.0849943 0.848437
0.290943 0.0839057 0.84859
0.289741 0.0828076 0.848621
0.288462 0.081691 0.848413
0.287132 0.080563 0.848043
0.285826 0.0794423 0.847742
0.28441 0.0782966 0.847096
0.282965 0.0771457 0.846348
0.281569 0.0760086 0.845746
0.280238 0.0748881 0.845337
0.278956 0.0737803 0.845077
0.277798 0.0727015 0.845201
0.276749 0.0716475 0.84567
0.275728 0.0705995 0.846231
0.274768 0.0695641 0.846986
0.273814 0.0685292 0.847762
0.27289 0.0675001 0.848641
0.271934 0.0664634 0.84942
0.270975 0.0654252 0.850191
0.270069 0.0643969 0.851137
0.269144 0.0633639 0.85203
0.268188 0.0623239 0.852825
0.267221 0.061281 0.853584
0.266161 0.0602198 0.854038
0.26491 0.0591235 0.853856
0.264966 0.0582648 0.858055
0.265516 0.0574865 0.863955
0.267242 0.0560046 0.878039
0.267921 0.055213 0.884541
0.267105 0.0541636 0.885966
0.265841 0.0530399 0.885855
0.264241 0.0518643 0.884574
0.262617 0.0506884 0.883193
0.260952 0.0495098 0.881652
0.259324 0.0483408 0.880224
0.257701 0.0471761 0.878794
0.256135 0.0460231 0.877551
0.254609 0.044879 0.876437
0.253095 0.0437395 0.875349
0.25161 0.0426069 0.874352
0.250067 0.0414698 0.873132
0.248574 0.0403421 0.872078
0.247044 0.0392132 0.870874
0.245579 0.038095 0.869895
0.244198 0.0369888 0.86921
0.242869 0.0358905 0.868706
0.241522 0.0347923 0.86813
0.240248 0.0337032 0.867818
0.239002 0.0326184 0.867603
0.237812 0.0315398 0.867593
0.236702 0.0304689 0.867882
0.235622 0.0294007 0.868284
0.234566 0.0283344 0.868779
0.233529 0.0272693 0.869352
0.232447 0.0262005 0.869747
0.231339 0.0251301 0.870042
0.230297 0.0240639 0.870596
0.229285 0.0229991 0.87127
0.228237 0.0219317 0.871803
0.227256 0.0208672 0.872608
0.226268 0.0198015 0.873384
0.225232 0.018733 0.873973
0.224128 0.0176617 0.874292
0.223017 0.0165905 0.874578
0.221879 0.0155188 0.874754
0.220784 0.0144485 0.875105
0.219748 0.0133791 0.8757
0.218765 0.0123098 0.876512
0.217826 0.0112397 0.877517
0.216925 0.0101683 0.878686
0.215977 0.00909524 0.879665
0.215116 0.00801991 0.881023
0.214309 0.00694157 0.882615
0.213508 0.0058602 0.884251
0.212681 0.00477647 0.885789
0.211904 0.00368859 0.887551
0.210995 0.00260195 0.888757
0.21009 0.00151316 0.88999
0.209222 0.000420659 0.891397
0.208313 -0.000672232 0.892629
0.207504 -0.00177293 0.89432
0.206808 -0.00288386 0.896532
0.206146 -0.00400152 0.898919
0.205488 -0.0051246 0.901343
0.29275 0.083752 0.846987
0.291559 0.0826573 0.847048
0.290342 0.0815572 0.847031
0.28902 0.0804321 0.846688
0.287656 0.0792985 0.846213
0.286321 0.0781733 0.84582
0.284901 0.0770295 0.845157
0.283458 0.0758825 0.844416
0.282095 0.0747557 0.843912
0.280775 0.0736404 0.843536
0.279523 0.0725417 0.843366
0.278391 0.0714702 0.843569
0.277372 0.0704236 0.844127
0.276333 0.0693723 0.844622
0.275375 0.0683381 0.845377
0.274418 0.0673032 0.846136
0.273462 0.066268 0.846906
0.272479 0.0652264 0.847589
0.271523 0.0641896 0.848362
0.270619 0.0631624 0.849309
0.269696 0.0621304 0.850199
0.268748 0.0610926 0.851011
0.267813 0.0600564 0.851868
0.266785 0.0590023 0.852423
0.265538 0.0579086 0.85225
0.265262 0.0569871 0.855318
0.265446 0.0561398 0.859957
0.267717 0.0538267 0.879956
0.267332 0.0528485 0.88283
0.266458 0.0517891 0.884046
0.265167 0.0506644 0.883834
0.263525 0.0494888 0.882397
0.261889 0.0483178 0.880963
0.260284 0.0471548 0.879622
0.258683 0.045996 0.878277
0.257116 0.0448453 0.877037
0.255641 0.04371 0.876108
0.254127 0.0425728 0.875029
0.252669 0.0414453 0.874133
0.251179 0.0403167 0.873114
0.249739 0.0391969 0.87226
0.248241 0.038073 0.871181
0.246798 0.0369585 0.870293
0.24541 0.0358523 0.869591
0.244074 0.0347537 0.86907
0.2427 0.0336533 0.868403
0.241403 0.0325624 0.868008
0.240179 0.0314796 0.86788
0.238989 0.0304008 0.867877
0.237856 0.0293276 0.868084
0.236752 0.0282569 0.8684
0.235695 0.0271897 0.868894
0.234634 0.0261222 0.869374
0.233554 0.0250531 0.869781
0.232446 0.0239824 0.87008
0.231402 0.0229154 0.870625
0.230363 0.0218483 0.871196
0.229287 0.020779 0.87162
0.228276 0.0197124 0.872302
0.22726 0.018645 0.872966
0.226225 0.0175763 0.873557
0.225144 0.0165059 0.873969
0.224061 0.0154353 0.874369
0.222949 0.0143643 0.874654
0.221881 0.013294 0.875117
0.220866 0.012224 0.875799
0.219883 0.0111537 0.876616
0.218969 0.0100822 0.877719
0.218068 0.00900912 0.87889
0.217122 0.00793458 0.879876
0.216215 0.00685794 0.881038
0.21538 0.00577818 0.882507
0.214532 0.00469606 0.883938
0.21366 0.00361214 0.885279
0.212862 0.0025235 0.886943
0.211975 0.00143515 0.88824
0.211071 0.000345474 0.889471
0.210206 -0.000748354 0.890885
0.209339 -0.00184443 0.892301
0.208556 -0.00294828 0.894096
0.207886 -0.00406339 0.896418
0.207255 -0.00518603 0.898933
0.206646 -0.00631588 0.90157
0.293314 0.0824929 0.845302
0.292148 0.0814062 0.845436
0.290923 0.0803058 0.84539
0.289564 0.0791741 0.844932
0.288173 0.0780368 0.844372
0.286833 0.076913 0.843962
0.285386 0.075766 0.843215
0.283919 0.0746168 0.842397
0.282563 0.0734946 0.841913
0.281271 0.072388 0.841619
0.280024 0.0712925 0.841459
0.278896 0.0702237 0.841668
0.277908 0.0691849 0.842318
0.276874 0.0681359 0.842823
0.275923 0.0671038 0.843593
0.274942 0.0660648 0.84427
0.273957 0.0650244 0.844934
0.272942 0.0639777 0.845508
0.271951 0.0629353 0.846161
0.271022 0.061904 0.847014
0.270125 0.0608781 0.84798
0.269208 0.0598472 0.848883
0.268332 0.0588227 0.849926
0.267369 0.0577814 0.850686
0.26616 0.0566965 0.850635
0.265517 0.0557094 0.852467
0.265307 0.0547919 0.855755
0.265988 0.0553447 0.865842
0.265438 0.053925 0.86022
0.267209 0.0524045 0.874371
0.267296 0.0515008 0.87882
0.266861 0.0505102 0.881521
0.265962 0.0494464 0.882647
0.264354 0.0482792 0.881334
0.262754 0.0471163 0.880028
0.261204 0.0459641 0.878885
0.259606 0.0448084 0.877557
0.25804 0.0436606 0.876325
0.256589 0.0425306 0.875486
0.255104 0.0413989 0.874513
0.253675 0.040277 0.873728
0.252268 0.0391598 0.87301
0.250865 0.0380455 0.872296
0.249417 0.0369288 0.87141
0.248026 0.0358206 0.870717
0.246632 0.0347144 0.870004
0.245292 0.0336159 0.869477
0.243911 0.0325155 0.868791
0.242588 0.0314225 0.868307
0.241341 0.0303378 0.868101
0.240149 0.0292588 0.868095
0.238993 0.0281833 0.868217
0.237862 0.0271103 0.868436
0.236776 0.0260405 0.868821
0.235691 0.0249708 0.869206
0.234584 0.0239 0.869513
0.233455 0.022828 0.869732
0.232437 0.0217621 0.870379
0.231376 0.0206936 0.870863
0.230271 0.019623 0.871174
0.229253 0.0185558 0.871825
0.228232 0.017488 0.872469
0.227176 0.0164185 0.872976
0.226119 0.0153488 0.873482
0.225081 0.0142792 0.874062
0.223993 0.0132085 0.874445
0.222951 0.0121381 0.875015
0.221961 0.0110676 0.875799
0.221022 0.00999617 0.876796
0.220131 0.0089231 0.877994
0.219234 0.00784815 0.879182
0.21829 0.00677188 0.880179
0.217362 0.00569397 0.881251
0.216481 0.00461328 0.882526
0.215584 0.00353085 0.883746
0.214666 0.00244719 0.884885
0.213844 0.00135785 0.886443
0.212958 0.00026858 0.887737
0.212053 -0.000822021 0.888961
0.21119 -0.00191697 0.890375
0.210365 -0.00301675 0.891965
0.209589 -0.00412288 0.893789
0.208927 -0.00524084 0.896134
0.208323 -0.00636828 0.898758
0.293729 0.081202 0.843183
0.292598 0.0801256 0.843416
0.291429 0.0790404 0.843531
0.290074 0.0779125 0.843084
0.288661 0.0767729 0.842457
0.287294 0.0756456 0.841959
0.28582 0.074496 0.841129
0.284348 0.0733489 0.840291
0.282995 0.0722303 0.839814
0.281734 0.0711332 0.839612
0.280522 0.0700474 0.839555
0.279421 0.0689861 0.839844
0.278438 0.0679491 0.8405
0.277407 0.0669021 0.841009
0.276432 0.0658657 0.841693
0.27545 0.0648277 0.842362
0.274438 0.063783 0.842932
0.27342 0.062737 0.843487
0.272375 0.0616856 0.843959
0.271413 0.0606494 0.844699
0.270489 0.0596193 0.845562
0.269572 0.0585895 0.846454
0.268704 0.0575676 0.847513
0.267831 0.0565433 0.848558
0.266741 0.0554809 0.848894
0.265793 0.0544423 0.849703
0.265245 0.053468 0.851844
0.265003 0.0525391 0.855029
0.266904 0.0501104 0.873634
0.266921 0.0491872 0.877843
0.266422 0.0481827 0.880319
0.265153 0.047067 0.880169
0.263586 0.0459121 0.878984
0.262094 0.0447702 0.878045
0.260501 0.0436182 0.87674
0.258963 0.0424765 0.87561
0.25754 0.0413519 0.874873
0.256107 0.0402286 0.874091
0.254708 0.0391117 0.873418
0.253382 0.0380049 0.872993
0.25201 0.0368951 0.872399
0.250593 0.0357827 0.87163
0.249227 0.0346779 0.871037
0.247832 0.0335724 0.870326
0.246441 0.0324696 0.869621
0.245056 0.0313698 0.868929
0.243726 0.0302769 0.868429
0.242427 0.0291883 0.868033
0.24121 0.0281075 0.867934
0.240047 0.0270317 0.868037
0.238888 0.0259568 0.868149
0.237773 0.0248852 0.868425
0.23668 0.023815 0.868782
0.235572 0.0227442 0.869085
0.234444 0.0216726 0.869306
0.233428 0.0206064 0.869963
0.232346 0.0195369 0.870363
0.231218 0.0184658 0.870586
0.230198 0.0173984 0.871227
0.229158 0.0163299 0.871796
0.228102 0.0152607 0.872299
0.22707 0.0141916 0.872901
0.226076 0.0131225 0.873655
0.224991 0.0120518 0.874052
0.223974 0.0109813 0.874721
0.223007 0.00991022 0.875597
0.222073 0.00883772 0.876612
0.221183 0.00776337 0.877814
0.220313 0.00668672 0.879105
0.219393 0.00560887 0.880202
0.218467 0.0045296 0.881279
0.217584 0.00344726 0.882545
0.216682 0.00236349 0.883745
0.21574 0.00127938 0.884779
0.214896 0.000189323 0.886235
0.213987 -0.000900152 0.88743
0.213081 -0.0019918 0.888646
0.212219 -0.00308813 0.89006
0.211419 -0.00419119 0.891758
0.21067 -0.00530109 0.893689
0.210035 -0.00642387 0.896145
0.20943 -0.00755437 0.898756
0.294053 0.0798948 0.840805
0.292995 0.0788376 0.841249
0.291854 0.0777611 0.841444
0.290505 0.0766375 0.841012
0.289065 0.0754948 0.840298
0.287702 0.0743713 0.839807
0.286249 0.0732299 0.839039
0.284752 0.0720811 0.838125
0.283425 0.070971 0.837722
0.282169 0.0698772 0.837528
0.280959 0.0687944 0.837474
0.279839 0.0677307 0.837696
0.27888 0.0667 0.83842
0.277847 0.0656539 0.838915
0.276898 0.064624 0.839673
0.275946 0.0635928 0.840426
0.274937 0.0625499 0.841
0.273892 0.0615002 0.841464
0.27282 0.0604452 0.841839
0.271803 0.0594002 0.842393
0.270823 0.0583614 0.843068
0.269879 0.0573282 0.843859
0.269013 0.0563077 0.84491
0.268199 0.0552947 0.846139
0.267228 0.054254 0.846858
0.266403 0.0532362 0.848061
0.265603 0.0522206 0.849354
0.265057 0.0512427 0.851503
0.265488 0.0517179 0.860677
0.265502 0.0504111 0.856985
0.266362 0.0509458 0.867689
0.266364 0.0496308 0.863913
0.266978 0.0488012 0.870063
0.267418 0.0479354 0.875676
0.267267 0.0469776 0.879322
0.266021 0.0458663 0.879248
0.26445 0.0447136 0.878054
0.26296 0.0435746 0.877127
0.261395 0.0424289 0.875924
0.259915 0.0412968 0.875003
0.258521 0.0401775 0.874369
0.257142 0.039062 0.873781
0.25577 0.0379493 0.873207
0.254472 0.0368465 0.87289
0.253149 0.0357427 0.872475
0.251757 0.0346338 0.871804
0.250413 0.0335317 0.871295
0.249022 0.0324274 0.870609
0.24763 0.0313254 0.869908
0.24624 0.0302258 0.869203
0.244904 0.0291328 0.868687
0.243574 0.0280424 0.868185
0.24235 0.0269612 0.868068
0.241158 0.0258832 0.868064
0.239947 0.024805 0.867987
0.238781 0.0237304 0.86807
0.237636 0.0226576 0.868233
0.2365 0.0215856 0.868426
0.235369 0.0205145 0.868641
0.234335 0.0194474 0.86922
0.233254 0.0183784 0.869623
0.23215 0.0173085 0.86994
0.231132 0.0162412 0.870585
0.230097 0.0151729 0.871171
0.22907 0.0141043 0.871787
0.228062 0.0130353 0.872485
0.22707 0.0119658 0.873246
0.225986 0.0108951 0.873645
0.224993 0.00982426 0.874409
0.224028 0.00875247 0.875291
0.223096 0.00767904 0.876311
0.22223 0.00660306 0.877609
0.221385 0.00552461 0.879
0.220467 0.00444561 0.880101
0.219565 0.00336428 0.881278
0.218682 0.00228046 0.882543
0.217783 0.00119511 0.883749
0.216839 0.000109806 0.884773
0.215973 -0.000980994 0.886139
0.215042 -0.00207055 0.887232
0.214136 -0.00316336 0.888444
0.213275 -0.00426128 0.889859
0.212483 -0.00536671 0.891587
0.211736 -0.00647898 0.893522
0.211101 -0.00760447 0.89597
0.210491 -0.00873734 0.898547
0.295847 0.0797462 0.839225
0.294699 0.0786686 0.839397
0.293634 0.0776106 0.839815
0.292487 0.0765341 0.839987
0.291135 0.075412 0.839546
0.289666 0.0742656 0.838744
0.288241 0.0731312 0.838066
0.28673 0.0719802 0.837119
0.285205 0.0708289 0.836119
0.283882 0.0697224 0.835724
0.282635 0.068633 0.835555
0.281453 0.067558 0.835582
0.280358 0.0665012 0.835878
0.279373 0.0654661 0.836512
0.278313 0.0644158 0.836912
0.277336 0.0633817 0.837577
0.276359 0.0623468 0.838243
0.275326 0.0613011 0.838732
0.27429 0.0602546 0.839215
0.273219 0.0592017 0.839587
0.272178 0.0581541 0.840055
0.271166 0.0571111 0.840615
0.270187 0.0560737 0.841287
0.269321 0.0550543 0.842325
0.268539 0.0540473 0.843643
0.267658 0.0530227 0.844647
0.266927 0.0520202 0.846147
0.266248 0.0510234 0.847831
0.26545 0.0500064 0.849132
0.265899 0.0491698 0.854593
0.266776 0.0483843 0.861538
0.267433 0.0475544 0.867799
0.267969 0.0466961 0.873706
0.268175 0.0457826 0.878544
0.266989 0.0446801 0.878676
0.265433 0.0435317 0.877538
0.26394 0.0423942 0.876604
0.262402 0.0412543 0.875501
0.260979 0.0401305 0.874782
0.259587 0.0390126 0.874164
0.258236 0.0379013 0.873678
0.256887 0.0367921 0.873193
0.255616 0.0356925 0.872971
0.254292 0.0345891 0.872558
0.252921 0.0334832 0.871972
0.251573 0.0323815 0.871456
0.250203 0.0312798 0.870853
0.248786 0.0301766 0.87007
0.247395 0.0290777 0.869368
0.246054 0.0279851 0.868841
0.244698 0.0268934 0.868248
0.243422 0.025809 0.867945
0.242199 0.0247295 0.86783
0.24096 0.0236501 0.867648
0.239769 0.0225744 0.867641
0.238625 0.021502 0.867809
0.237463 0.0204293 0.867907
0.236307 0.0193574 0.868022
0.235245 0.0182895 0.868495
0.234139 0.01722 0.8688
0.233034 0.0161508 0.869107
0.232044 0.0150842 0.869862
0.231038 0.0140164 0.870556
0.230038 0.0129481 0.871278
0.229053 0.0118791 0.872064
0.228065 0.0108093 0.87284
0.227004 0.00973848 0.87333
0.226035 0.00866691 0.874188
0.225094 0.00759393 0.875165
0.224183 0.00651914 0.876268
0.223363 0.00544071 0.877749
0.222518 0.00436031 0.879142
0.221604 0.00327955 0.880258
0.220726 0.00219585 0.881532
0.219845 0.00111002 0.882804
0.218929 2.37146e-05 0.883938
0.217986 -0.00106323 0.88497
0.217101 -0.0021549 0.886252
0.216143 -0.00324431 0.887233
0.215237 -0.00433855 0.888441
0.214377 -0.00543823 0.889859
0.21361 -0.00654769 0.891688
0.212847 -0.00766108 0.893548
0.212166 -0.00878546 0.895786
0.29757 0.0795818 0.837449
0.296545 0.0785336 0.837978
0.295391 0.077456 0.83813
0.294308 0.0763947 0.838491
0.293099 0.0753057 0.838478
0.291718 0.0741797 0.837948
0.290242 0.0730348 0.837126
0.288781 0.0718954 0.836338
0.28724 0.0707415 0.8353
0.285744 0.0695995 0.834386
0.28443 0.0684974 0.834016
0.283212 0.067416 0.833934
0.282063 0.0663492 0.834057
0.280966 0.0652931 0.834341
0.279953 0.0642535 0.834884
0.278866 0.0631994 0.835197
0.277837 0.0621563 0.835691
0.276833 0.0611175 0.836263
0.275774 0.0600686 0.836667
0.274739 0.0590236 0.837144
0.273674 0.0579735 0.837527
0.272632 0.0569271 0.837983
0.271594 0.0558814 0.838454
0.270611 0.0548445 0.839102
0.269689 0.053817 0.83995
0.268906 0.0528105 0.841254
0.268059 0.0517921 0.842355
0.267367 0.0507959 0.843972
0.266753 0.0498087 0.845854
0.26604 0.0488041 0.847424
0.266587 0.0479756 0.853187
0.267564 0.0471955 0.860433
0.268377 0.0463788 0.867188
0.268982 0.0455219 0.873304
0.269246 0.0446094 0.878316
0.268074 0.0435089 0.878499
0.266509 0.0423613 0.877339
0.264983 0.0412216 0.876296
0.263445 0.0400835 0.8752
0.262052 0.0389647 0.874592
0.260691 0.0378513 0.874086
0.259363 0.0367432 0.873687
0.258038 0.0356371 0.873291
0.256765 0.0345377 0.873068
0.255416 0.0334327 0.872575
0.254043 0.0323274 0.871983
0.252716 0.0312283 0.871551
0.251343 0.0301271 0.870942
0.249925 0.0290248 0.870162
0.24858 0.0279303 0.869637
0.247242 0.0268383 0.869128
0.245838 0.0257442 0.86837
0.244531 0.0246584 0.867956
0.24328 0.0235774 0.86774
0.242013 0.022497 0.867461
0.2408 0.0214206 0.867374
0.239656 0.0203484 0.867544
0.238493 0.0192758 0.867636
0.23731 0.0182033 0.867652
0.236195 0.0171335 0.867925
0.235083 0.0160642 0.868207
0.233953 0.0149948 0.868418
0.232965 0.0139281 0.869178
0.231985 0.0128606 0.869968
0.231011 0.0117923 0.87079
0.230054 0.010723 0.871679
0.229109 0.00965247 0.872627
0.228074 0.00858126 0.873218
0.227107 0.00750869 0.874086
0.22619 0.00643427 0.875157
0.225281 0.00535808 0.876268
0.224462 0.00427781 0.877749
0.223619 0.00319554 0.879147
0.222751 0.00211189 0.880449
0.221897 0.00102527 0.881823
0.221021 -6.26292e-05 0.883113
0.220105 -0.00115076 0.884247
0.21916 -0.00223917 0.885273
0.218231 -0.00333007 0.886365
0.217251 -0.00441939 0.887256
0.216362 -0.00551639 0.888534
0.215526 -0.00661977 0.89005
0.214763 -0.00773203 0.891895
0.214 -0.00884791 0.89375
0.21327 -0.00997062 0.895771
0.297359 0.0773501 0.837078
0.296203 0.076273 0.837225
0.295041 0.0751949 0.83735
0.293773 0.0740943 0.83716
0.292334 0.072958 0.836458
0.290826 0.0718094 0.835541
0.289333 0.0706661 0.834656
0.287789 0.0695152 0.833611
0.286293 0.0683764 0.832696
0.284985 0.0672779 0.832341
0.283774 0.0661997 0.832274
0.282626 0.0651348 0.832399
0.281532 0.0640806 0.832687
0.280494 0.0630374 0.833147
0.279406 0.0619844 0.83345
0.278344 0.0609365 0.833837
0.277334 0.0598979 0.834385
0.276273 0.0588499 0.834773
0.275238 0.0578065 0.835245
0.274177 0.0567585 0.835635
0.273139 0.0557142 0.836096
0.272102 0.0546699 0.836562
0.27112 0.0536344 0.837208
0.270173 0.0526036 0.837964
0.269364 0.0515935 0.839174
0.268539 0.0505792 0.840338
0.267849 0.049583 0.841946
0.26724 0.0485961 0.843833
0.266558 0.0475958 0.845493
0.266847 0.0467256 0.850374
0.267877 0.0459452 0.857755
0.268815 0.0451383 0.864893
0.269525 0.0442882 0.871326
0.269874 0.0433812 0.876599
0.269072 0.0423265 0.878027
0.267559 0.0411873 0.877048
0.266006 0.0400465 0.875922
0.264497 0.0389137 0.874932
0.263154 0.0378013 0.874502
0.261821 0.0366917 0.874097
0.26052 0.0355868 0.873795
0.25922 0.0344837 0.873492
0.257946 0.0333843 0.873273
0.256597 0.0322799 0.872787
0.255221 0.0311751 0.872192
0.253866 0.0300741 0.871666
0.25249 0.0289736 0.871054
0.251072 0.0278723 0.87028
0.249754 0.0267804 0.869861
0.248416 0.0256889 0.869359
0.247011 0.0245955 0.868603
0.245701 0.0235099 0.868186
0.244442 0.0224286 0.867945
0.243148 0.0213472 0.867571
0.241934 0.0202708 0.867486
0.240793 0.0191983 0.867671
0.239629 0.0181255 0.867766
0.238442 0.0170527 0.867772
0.237275 0.0159814 0.867847
0.236156 0.0149116 0.868105
0.235021 0.0138419 0.868301
0.234011 0.0127742 0.868975
0.233011 0.0117058 0.869689
0.232058 0.0106369 0.870587
0.2311 0.00956668 0.871474
0.23016 0.00849521 0.872436
0.229152 0.00742315 0.873137
0.228189 0.00634962 0.874018
0.227297 0.00527344 0.875188
0.226365 0.00419637 0.876205
0.225571 0.00311364 0.877785
0.224754 0.00202867 0.879286
0.223935 0.000941147 0.880787
0.223086 -0.000147716 0.88218
0.222231 -0.00123869 0.883556
0.221309 -0.00232854 0.884669
0.220362 -0.0034186 0.885683
0.219406 -0.00450955 0.886666
0.218426 -0.00560029 0.887554
0.217534 -0.00669906 0.888822
0.216723 -0.00780668 0.890444
0.215987 -0.00892387 0.892395
0.215249 -0.010045 0.894361
0.214519 -0.0111709 0.896375
0.299398 0.0772605 0.836237
0.298246 0.0761843 0.836394
0.297033 0.0750954 0.836374
0.295799 0.0740025 0.836286
0.29444 0.0728841 0.835828
0.292941 0.0717378 0.834947
0.291432 0.070592 0.834027
0.289941 0.0694523 0.83315
0.288404 0.0683058 0.832125
0.286938 0.0671762 0.831303
0.285656 0.0660849 0.831025
0.284445 0.0650083 0.830958
0.283299 0.063945 0.831085
0.282209 0.0628928 0.831381
0.281172 0.0618502 0.831837
0.280056 0.0607933 0.832053
0.278988 0.0597454 0.832416
0.277945 0.0587018 0.832858
0.276882 0.0576545 0.833233
0.275826 0.0566086 0.833634
0.274789 0.0555657 0.834095
0.273756 0.0545234 0.834568
0.272747 0.0534846 0.835118
0.271775 0.0524512 0.835789
0.27083 0.0514215 0.836548
0.269994 0.0504069 0.837659
0.269133 0.0493873 0.838699
0.268385 0.0483825 0.84011
0.267721 0.0473872 0.841804
0.267037 0.0463866 0.843446
0.267308 0.0455092 0.84824
0.268026 0.0446805 0.854555
0.269052 0.0438777 0.861944
0.269886 0.0430369 0.868756
0.270358 0.0421398 0.874412
0.269696 0.0411016 0.876297
0.268602 0.0400122 0.876734
0.267076 0.0388764 0.875709
0.265597 0.0377483 0.874824
0.264281 0.0366395 0.874491
0.262974 0.0355332 0.874184
0.261674 0.0344289 0.873892
0.260404 0.0333288 0.873697
0.259129 0.0322295 0.873482
0.257802 0.0311274 0.873076
0.256424 0.0300229 0.872482
0.255067 0.0289224 0.871955
0.253666 0.0278207 0.871264
0.25227 0.0267218 0.870577
0.250952 0.0256302 0.870164
0.249641 0.0245406 0.869764
0.248258 0.023449 0.869098
0.246966 0.0223644 0.868756
0.245703 0.0212827 0.868509
0.244406 0.0202011 0.868133
0.24319 0.0191242 0.868047
0.242048 0.0180508 0.868232
0.24086 0.0169766 0.868244
0.239647 0.0159027 0.868158
0.238476 0.0148307 0.868227
0.237331 0.0137598 0.868388
0.236172 0.0126894 0.868497
0.235162 0.0116206 0.869171
0.234156 0.0105511 0.869863
0.233155 0.00948089 0.870579
0.232194 0.00840959 0.871454
0.231256 0.00733695 0.872424
0.230255 0.00626394 0.873152
0.229317 0.00518874 0.874132
0.22847 0.00410976 0.875477
0.22756 0.00303039 0.876585
0.226793 0.00194431 0.878268
0.226002 0.000855912 0.879874
0.225189 -0.000234426 0.881401
0.224343 -0.00132594 0.882802
0.223489 -0.00241945 0.884185
0.22254 -0.00350981 0.885187
0.221588 -0.00460134 0.886183
0.220629 -0.00569395 0.887155
0.219649 -0.00678655 0.888047
0.218781 -0.00788943 0.889419
0.218019 -0.00900401 0.891246
0.217315 -0.0101275 0.893332
0.216585 -0.011253 0.895328
0.215832 -0.0123801 0.897243
0.301477 0.0771796 0.835509
0.300434 0.0761276 0.835986
0.299207 0.0750353 0.835929
0.297918 0.0739308 0.835686
0.296586 0.0728184 0.835314
0.295155 0.0716869 0.834646
0.293594 0.0705308 0.833585
0.292117 0.0693942 0.832759
0.290634 0.068259 0.831907
0.289101 0.0671161 0.830895
0.287667 0.0659954 0.830169
0.286383 0.0649054 0.829886
0.285172 0.0638302 0.829816
0.284051 0.0627728 0.830018
0.282963 0.0617216 0.830318
0.281874 0.0606703 0.830612
0.280726 0.0596089 0.830727
0.279602 0.0585522 0.830913
0.278509 0.0575011 0.831192
0.277422 0.0564512 0.83149
0.276366 0.0554066 0.831885
0.275335 0.054366 0.832357
0.274327 0.0533287 0.832904
0.273352 0.0522961 0.833555
0.272412 0.0512684 0.83432
0.271475 0.0502403 0.8351
0.270636 0.0492254 0.836194
0.269743 0.0482014 0.837123
0.268958 0.0471913 0.838407
0.268237 0.0461879 0.839904
0.267527 0.0451835 0.841449
0.267417 0.0442531 0.844969
0.267725 0.043368 0.849896
0.26998 0.0408057 0.86936
0.269862 0.03983 0.873043
0.269274 0.0387974 0.875172
0.268147 0.0377058 0.875494
0.266695 0.0365821 0.874709
0.265376 0.0354737 0.874372
0.26407 0.0343679 0.874069
0.262774 0.0332647 0.873795
0.261558 0.0321696 0.873792
0.260313 0.0310731 0.873685
0.258984 0.0299711 0.873278
0.2576 0.0288671 0.872674
0.256239 0.0277668 0.872139
0.254836 0.0266658 0.871445
0.253439 0.0255677 0.870767
0.25212 0.0244764 0.870354
0.250831 0.0233883 0.870041
0.249471 0.0222986 0.869468
0.248184 0.0212143 0.869147
0.246949 0.0201336 0.869008
0.245675 0.0190529 0.868722
0.24448 0.0179761 0.868722
0.243333 0.0169017 0.868898
0.242119 0.0158261 0.868818
0.240878 0.014751 0.868636
0.239705 0.0136784 0.868699
0.238514 0.0126064 0.868697
0.237331 0.0115353 0.868719
0.23632 0.0104653 0.869389
0.23531 0.00939483 0.870071
0.234257 0.00832385 0.870586
0.233315 0.00725125 0.871535
0.232423 0.00617654 0.872681
0.231449 0.00510173 0.873517
0.230539 0.00402412 0.874609
0.22976 0.0029408 0.876221
0.228851 0.00185913 0.877333
0.228063 0.000770823 0.878939
0.227276 -0.000320479 0.880556
0.226465 -0.00141359 0.882089
0.225596 -0.00250647 0.883403
0.22474 -0.00360231 0.884776
0.223768 -0.0046931 0.885688
0.222815 -0.00578656 0.886682
0.221883 -0.00688298 0.887766
0.22095 -0.00798111 0.888857
0.220136 -0.00909135 0.890453
0.219423 -0.010214 0.892488
0.218745 -0.0113442 0.894688
0.217999 -0.012472 0.896616
0.217184 -0.0135965 0.898271
0.302327 0.0760063 0.834726
0.30127 0.0749512 0.835159
0.299989 0.0738487 0.834944
0.298611 0.0727272 0.834446
0.297169 0.071594 0.833751
0.295698 0.0704572 0.832965
0.294105 0.0692979 0.83181
0.292658 0.0681706 0.831072
0.29124 0.0670511 0.830412
0.2898 0.0659294 0.829679
0.288426 0.0648226 0.829132
0.287173 0.0637398 0.828941
0.285989 0.062671 0.828952
0.284842 0.0616095 0.829073
0.283724 0.0605536 0.82928
0.282602 0.0594975 0.829474
0.281398 0.0584276 0.829412
0.28022 0.0573629 0.829428
0.279122 0.0563123 0.829689
0.278015 0.0552604 0.82992
0.276935 0.0542132 0.830236
0.275931 0.0531779 0.830788
0.274977 0.0521497 0.831497
0.274037 0.0511231 0.832253
0.273155 0.0501042 0.833198
0.272249 0.0490807 0.83407
0.271383 0.0480616 0.835074
0.27046 0.0470338 0.835902
0.269648 0.0460195 0.83709
0.268875 0.0450086 0.838411
0.268134 0.0439999 0.839846
0.267676 0.0430235 0.842211
0.267595 0.0420881 0.845834
0.268357 0.0425122 0.855933
0.267826 0.0411818 0.85051
0.269639 0.0394886 0.864468
0.270058 0.0385696 0.86991
0.269927 0.0375839 0.873554
0.269195 0.0365324 0.875202
0.267767 0.0354124 0.874504
0.266421 0.0343024 0.874076
0.265108 0.0331969 0.873756
0.263841 0.0320969 0.873582
0.262655 0.0310046 0.873688
0.26144 0.0299106 0.873686
0.26014 0.0288114 0.873386
0.258777 0.0277096 0.872861
0.257441 0.0266115 0.872419
0.256033 0.0255109 0.871719
0.254658 0.0244147 0.871125
0.253359 0.0233246 0.870791
0.25207 0.0222367 0.870487
0.250715 0.0211474 0.869936
0.249457 0.0200642 0.869728
0.248223 0.0189832 0.869603
0.246949 0.0179021 0.869325
0.245754 0.0168248 0.869331
0.244584 0.0157489 0.869425
0.243363 0.0146727 0.869328
0.242115 0.0135973 0.869127
0.240938 0.012524 0.869183
0.239746 0.0114514 0.869181
0.23859 0.0103798 0.869307
0.23755 0.00930841 0.869876
0.236514 0.00823661 0.870461
0.235433 0.00716481 0.870874
0.234512 0.00609042 0.8719
0.233646 0.00501324 0.873151
0.232701 0.00393609 0.874099
0.231842 0.00285482 0.875391
0.231089 0.00176767 0.87711
0.230161 0.000684308 0.87815
0.229351 -0.000405954 0.879663
0.22856 -0.00149999 0.881266
0.227718 -0.0025943 0.88268
0.226824 -0.00368797 0.883893
0.225945 -0.0047846 0.885171
0.224974 -0.00587707 0.886089
0.224024 -0.00697237 0.887095
0.223119 -0.00807297 0.888295
0.22224 -0.0091777 0.889608
0.221526 -0.0102999 0.89162
0.220867 -0.0114317 0.893882
0.220216 -0.0125691 0.896197
0.219484 -0.0137028 0.89819
0.218661 -0.0148302 0.89981
0.303122 0.0748222 0.833786
0.301994 0.0737527 0.834012
0.300697 0.0726486 0.833753
0.299239 0.0715128 0.833022
0.297733 0.0703693 0.832142
0.296261 0.0692352 0.831352
0.294697 0.0680853 0.830282
0.29326 0.0669628 0.829574
0.291904 0.0658577 0.829095
0.290527 0.0647504 0.828549
0.289186 0.0636517 0.828102
0.287969 0.0625771 0.828019
0.286817 0.061515 0.828124
0.285644 0.0604499 0.828167
0.284494 0.0593891 0.828274
0.283311 0.0583236 0.828279
0.282067 0.0572486 0.828098
0.280857 0.0561801 0.828013
0.279735 0.0551268 0.828196
0.278624 0.0540757 0.828413
0.277543 0.0530295 0.828719
0.276541 0.0519952 0.829269
0.275594 0.0509688 0.829994
0.274711 0.0499512 0.830926
0.273868 0.0489378 0.831984
0.273016 0.0479219 0.833022
0.272151 0.0469029 0.834026
0.271254 0.0458783 0.834932
0.270448 0.0448643 0.836132
0.269653 0.04385 0.837377
0.268888 0.0428374 0.838725
0.26808 0.0418179 0.839945
0.267575 0.0408311 0.842158
0.267382 0.0398752 0.845414
0.269797 0.0372709 0.865283
0.270134 0.0363307 0.870457
0.269832 0.0353203 0.873528
0.268756 0.034235 0.874019
0.267403 0.0331254 0.873569
0.266092 0.0320212 0.873256
0.264876 0.0309261 0.873263
0.263721 0.0298363 0.873473
0.262536 0.0287449 0.87358
0.261266 0.0276484 0.873388
0.25993 0.026549 0.872961
0.258594 0.0254514 0.872527
0.25721 0.0243531 0.871918
0.255836 0.0232576 0.871333
0.254539 0.0221678 0.87101
0.253271 0.0210811 0.870788
0.251963 0.0199942 0.870415
0.250733 0.0189117 0.870315
0.249554 0.017832 0.870393
0.248329 0.0167517 0.870304
0.247157 0.0156737 0.870399
0.245959 0.014596 0.870401
0.244687 0.0135181 0.870126
0.243404 0.0124417 0.869802
0.242221 0.0113676 0.869841
0.240981 0.0102942 0.869667
0.239848 0.00922172 0.869887
0.23883 0.00814881 0.870542
0.23777 0.0070757 0.871039
0.236663 0.00600328 0.871359
0.235766 0.00492638 0.872482
0.234905 0.00384686 0.873749
0.23397 0.00276743 0.874739
0.233165 0.00168199 0.876242
0.232414 0.000591473 0.877971
0.231484 -0.000494091 0.879005
0.230646 -0.00158599 0.880411
0.229847 -0.00268242 0.881981
0.228955 -0.00377631 0.883194
0.228034 -0.00487028 0.884298
0.22715 -0.00596881 0.885562
0.226202 -0.00706456 0.886572
0.225279 -0.00816389 0.887688
0.224448 -0.00927296 0.889192
0.223646 -0.0103876 0.890829
0.222967 -0.0115171 0.892985
0.222316 -0.0126541 0.895281
0.221661 -0.0137956 0.897579
0.220898 -0.0149299 0.89944
0.304035 0.0736645 0.833186
0.302795 0.0725725 0.833094
0.301454 0.071461 0.832707
0.299905 0.0703092 0.831715
0.29837 0.0691629 0.830753
0.29688 0.0680279 0.82991
0.295348 0.0668874 0.828935
0.293944 0.0657736 0.828324
0.292624 0.0646775 0.827951
0.291281 0.0635786 0.827506
0.290005 0.0624935 0.82725
0.28885 0.061431 0.827351
0.287732 0.0603754 0.827559
0.28656 0.0593112 0.827606
0.285404 0.05825 0.827695
0.284155 0.0571743 0.827503
0.282852 0.056091 0.827141
0.28158 0.055014 0.826867
0.280426 0.0539567 0.826948
0.279286 0.0529023 0.827072
0.278181 0.0518535 0.827301
0.277148 0.0508156 0.827751
0.276202 0.0497902 0.828475
0.275328 0.0487739 0.829426
0.27452 0.0477656 0.83059
0.273729 0.0467579 0.831813
0.272921 0.0457462 0.83299
0.272054 0.0447255 0.833985
0.271275 0.0437141 0.835267
0.270462 0.0426969 0.836449
0.269698 0.0416837 0.837794
0.268891 0.0406635 0.839008
0.268016 0.0396341 0.840011
0.267407 0.0386317 0.841886
0.267957 0.0389956 0.851222
0.267599 0.0377085 0.846404
0.269902 0.0350444 0.865923
0.270067 0.0340762 0.870524
0.269402 0.0330284 0.872381
0.268379 0.0319483 0.873044
0.267072 0.0308454 0.872744
0.265885 0.0297531 0.872849
0.264757 0.0286656 0.873155
0.263577 0.0275747 0.873279
0.262334 0.0264806 0.873185
0.26103 0.0253839 0.872872
0.25972 0.0242885 0.872533
0.258369 0.0231927 0.872044
0.257047 0.0221003 0.871649
0.255776 0.021012 0.871427
0.25456 0.019927 0.871394
0.253301 0.0188416 0.871206
0.252072 0.0177584 0.871116
0.25089 0.0166777 0.871192
0.249687 0.0155971 0.871187
0.248514 0.0145181 0.871289
0.247317 0.0134393 0.871302
0.24604 0.0123607 0.871016
0.244726 0.0112836 0.870588
0.243535 0.0102084 0.870608
0.242268 0.00913446 0.87034
0.241111 0.00806107 0.870479
0.240096 0.00698665 0.871148
0.239057 0.00591196 0.871725
0.237948 0.00483822 0.872042
0.237077 0.00375847 0.873269
0.236247 0.00267545 0.874658
0.23534 0.0015926 0.875762
0.234582 0.000502105 0.877448
0.233834 -0.000591998 0.879185
0.232899 -0.00168025 0.880209
0.232009 -0.00277238 0.881411
0.231159 -0.00386905 0.882783
0.230216 -0.00496217 0.883797
0.22927 -0.00605648 0.8848
0.228364 -0.00715542 0.885977
0.227438 -0.00825476 0.887076
0.226562 -0.00936011 0.888387
0.22576 -0.0104747 0.890012
0.22501 -0.0115971 0.891859
0.224358 -0.0127333 0.894126
0.223708 -0.0138747 0.896425
0.223008 -0.0150153 0.898532
0.222194 -0.0161471 0.90018
0.304608 0.072438 0.831623
0.303306 0.0713354 0.831352
0.301953 0.0702238 0.830927
0.300339 0.0690629 0.829749
0.298846 0.0679283 0.828906
0.297418 0.0668085 0.828242
0.29598 0.065689 0.827542
0.294636 0.0645887 0.827104
0.29335 0.0635007 0.82683
0.292069 0.0624148 0.826567
0.290824 0.0613367 0.826405
0.289673 0.0602757 0.826515
0.288558 0.0592215 0.826732
0.287386 0.0581581 0.826777
0.28623 0.057098 0.826868
0.284952 0.0560187 0.826585
0.283644 0.0549361 0.826209
0.282338 0.0538555 0.825834
0.281157 0.0527953 0.825833
0.279989 0.0517378 0.825868
0.278853 0.0506856 0.825997
0.277765 0.0496409 0.826275
0.276814 0.0486152 0.826976
0.275912 0.0475956 0.827833
0.27511 0.0465882 0.829006
0.274358 0.0455855 0.830344
0.273611 0.0445814 0.831704
0.272778 0.0435647 0.832801
0.272054 0.0425596 0.834252
0.271269 0.041545 0.835516
0.270506 0.0405313 0.836861
0.269701 0.0395107 0.838075
0.268853 0.0384839 0.839161
0.267903 0.0374452 0.839919
0.267695 0.0364785 0.843104
0.268171 0.0368142 0.852212
0.267898 0.0355448 0.847665
0.269777 0.0327952 0.865795
0.269563 0.0317863 0.869133
0.268936 0.0307392 0.871109
0.267971 0.029664 0.87196
0.266843 0.0285767 0.872267
0.265768 0.0274928 0.87275
0.264613 0.0264039 0.872961
0.263398 0.025312 0.872963
0.262148 0.024219 0.872844
0.260894 0.023127 0.872706
0.259599 0.0220343 0.872418
0.258308 0.0209434 0.872137
0.257067 0.0198559 0.872028
0.25585 0.0187703 0.871999
0.254618 0.0176853 0.871909
0.253389 0.0166015 0.871828
0.252231 0.0155203 0.871998
0.251027 0.0144389 0.871997
0.24985 0.0133586 0.872091
0.248627 0.0122788 0.872015
0.247371 0.0111999 0.871816
0.246031 0.0101224 0.871302
0.244811 0.00904644 0.87122
0.243538 0.00797212 0.870939
0.242379 0.00689798 0.871076
0.24134 0.00582242 0.871657
0.240327 0.00474575 0.87234
0.239266 0.00366962 0.872846
