ply
format ascii 1.0
element vertex 1730
property float x
property float y
property float z
end_header
-0.189998 -0.340492 1.16611
-0.190031 -0.339316 1.16776
-0.190127 -0.33821 1.1697
-0.190263 -0.337146 1.17182
-0.190296 -0.335962 1.17349
-0.190369 -0.334819 1.17534
-0.190399 -0.333625 1.177
-0.190474 -0.332478 1.17887
-0.19051 -0.331284 1.18055
-0.190584 -0.33013 1.18242
-0.190528 -0.328829 1.1837
-0.19044 -0.327491 1.18484
-0.190281 -0.326075 1.18566
-0.190125 -0.324659 1.18648
-0.190029 -0.325322 1.19476
-0.189954 -0.323229 1.18724
-0.202872 -0.456971 1.09803
-0.204629 -0.458246 1.09754
-0.204272 -0.456559 1.09752
-0.202457 -0.45519 1.09778
-0.203857 -0.454782 1.09728
-0.203403 -0.452943 1.09687
-0.202868 -0.450977 1.09615
-0.20233 -0.449012 1.09542
-0.201779 -0.447026 1.09463
-0.201244 -0.445071 1.0939
-0.200734 -0.44316 1.09326
-0.200293 -0.44136 1.09289
-0.199814 -0.439502 1.09236
-0.199459 -0.437843 1.09232
-0.199093 -0.436167 1.09224
-0.198689 -0.434435 1.092
-0.19836 -0.432821 1.09206
-0.198009 -0.431175 1.09203
-0.197643 -0.429507 1.09193
-0.197341 -0.42794 1.09209
-0.197104 -0.426474 1.09251
-0.196833 -0.424955 1.09279
-0.196538 -0.423401 1.09297
-0.196236 -0.421835 1.09312
-0.19591 -0.420237 1.09318
-0.195529 -0.418559 1.09301
-0.195212 -0.416977 1.0931
-0.194976 -0.415517 1.09351
-0.194728 -0.414041 1.09388
-0.194463 -0.412539 1.09417
-0.194311 -0.411207 1.09492
-0.19414 -0.409844 1.09559
-0.19394 -0.40844 1.09615
-0.193758 -0.407061 1.09678
-0.193567 -0.405671 1.09737
-0.193272 -0.404128 1.09754
-0.19297 -0.402578 1.09768
-0.192652 -0.401003 1.09775
-0.192293 -0.399374 1.09765
-0.191774 -0.397516 1.09689
-0.191331 -0.39577 1.09644
-0.190833 -0.393949 1.09576
-0.190349 -0.392151 1.09514
-0.189857 -0.390347 1.09448
-0.189515 -0.388754 1.09443
-0.189143 -0.387121 1.09425
-0.188743 -0.385452 1.09396
-0.188409 -0.383876 1.09394
-0.188132 -0.382383 1.09416
-0.187639 -0.378366 1.09621
-0.187572 -0.377159 1.09731
-0.187425 -0.375842 1.09807
-0.187269 -0.374513 1.09879
-0.186949 -0.372962 1.09882
-0.186592 -0.371365 1.09869
-0.186168 -0.36968 1.09828
-0.185804 -0.368077 1.09812
-0.185432 -0.366464 1.09792
-0.185944 -0.366019 1.10147
-0.191634 -0.355717 1.15693
-0.195039 -0.357713 1.16509
-0.194842 -0.356261 1.16572
-0.194638 -0.354802 1.16633
-0.194327 -0.353213 1.16646
-0.194034 -0.351646 1.16667
-0.193641 -0.349962 1.16644
-0.193322 -0.348367 1.16653
-0.192886 -0.346637 1.1661
-0.192498 -0.344965 1.16588
-0.192116 -0.343303 1.16569
-0.191933 -0.341875 1.16638
-0.191764 -0.340461 1.16712
-0.191746 -0.339221 1.16854
-0.191799 -0.33806 1.17028
-0.191892 -0.336944 1.17221
-0.19193 -0.335761 1.17389
-0.192003 -0.334613 1.17573
-0.192013 -0.333392 1.17729
-0.192064 -0.332217 1.17905
-0.192056 -0.330971 1.18053
-0.192066 -0.329743 1.1821
-0.191966 -0.328392 1.18318
-0.191855 -0.327028 1.18421
-0.1917 -0.325615 1.18504
-0.19157 -0.324228 1.18599
-0.191448 -0.322849 1.18697
-0.206385 -0.459514 1.09703
-0.206099 -0.457943 1.09729
-0.205712 -0.456211 1.09716
-0.205288 -0.454421 1.09689
-0.204838 -0.452591 1.09651
-0.204296 -0.450618 1.09577
-0.203746 -0.448636 1.095
-0.203134 -0.446559 1.09398
-0.202592 -0.444599 1.09324
-0.202056 -0.44265 1.09251
-0.201611 -0.440847 1.09212
-0.201149 -0.439021 1.09168
-0.20082 -0.437403 1.09174
-0.200455 -0.435731 1.09167
-0.20009 -0.434062 1.09159
-0.199781 -0.432479 1.09172
-0.199433 -0.43084 1.09171
-0.19909 -0.42921 1.09172
-0.198814 -0.427681 1.09198
-0.198581 -0.426221 1.09241
-0.198329 -0.424733 1.09277
-0.198054 -0.42321 1.09304
-0.19777 -0.421674 1.09327
-0.197467 -0.420109 1.09342
-0.197085 -0.41843 1.09325
-0.196743 -0.416811 1.09325
-0.19646 -0.41528 1.09347
-0.196184 -0.413763 1.09373
-0.195894 -0.412225 1.09392
-0.195722 -0.410862 1.09459
-0.195532 -0.409473 1.09519
-0.195349 -0.408091 1.09581
-0.195166 -0.406713 1.09644
-0.194981 -0.405329 1.09706
-0.194707 -0.403819 1.09732
-0.194426 -0.4023 1.09755
-0.194125 -0.400751 1.09769
-0.193769 -0.399126 1.09761
-0.193268 -0.397296 1.09693
-0.192825 -0.395553 1.09649
-0.192258 -0.393638 1.09554
-0.191664 -0.391688 1.09447
-0.191101 -0.389786 1.09353
-0.190693 -0.388105 1.09322
-0.190278 -0.386415 1.09287
-0.189895 -0.384774 1.09265
-0.189585 -0.383233 1.09273
-0.189306 -0.381739 1.09295
-0.189021 -0.380235 1.09313
-0.189183 -0.377105 1.0979
-0.189195 -0.376002 1.09933
-0.188965 -0.37457 1.09974
-0.188599 -0.37296 1.09959
-0.188192 -0.371295 1.09926
-0.187544 -0.369313 1.09791
-0.186977 -0.367445 1.0969
-0.186642 -0.365885 1.09686
-0.187314 -0.365642 1.10107
-0.196664 -0.358729 1.16392
-0.196491 -0.357306 1.16466
-0.196288 -0.355847 1.16527
-0.196084 -0.354385 1.16587
-0.195776 -0.352802 1.16602
-0.195513 -0.351271 1.16636
-0.19514 -0.349612 1.16622
-0.194845 -0.348048 1.16643
-0.194507 -0.346433 1.16644
-0.194219 -0.34488 1.16667
-0.193938 -0.343333 1.16693
-0.19376 -0.341907 1.16764
-0.193591 -0.340492 1.16839
-0.193508 -0.339174 1.16952
-0.1935 -0.33794 1.17098
-0.193515 -0.33673 1.17256
-0.193533 -0.33552 1.17414
-0.193564 -0.334323 1.17579
-0.19355 -0.333073 1.17724
-0.193557 -0.331844 1.17878
-0.193525 -0.33057 1.18016
-0.193491 -0.329292 1.18152
-0.193387 -0.327934 1.18258
-0.193254 -0.326547 1.18351
-0.193122 -0.325159 1.18444
-0.19302 -0.3238 1.18551
-0.192944 -0.32247 1.1867
-0.208255 -0.460966 1.09695
-0.207883 -0.459255 1.09688
-0.207603 -0.457693 1.09717
-0.207211 -0.455955 1.09703
-0.206752 -0.454111 1.09663
-0.206279 -0.452248 1.09617
-0.20571 -0.450238 1.09534
-0.205118 -0.448193 1.09442
-0.204463 -0.446055 1.09325
-0.203919 -0.444094 1.0925
-0.203378 -0.442142 1.09176
-0.202932 -0.440341 1.09138
-0.202492 -0.438551 1.09102
-0.202181 -0.436964 1.09116
-0.201816 -0.435293 1.09109
-0.201451 -0.433627 1.09102
-0.201143 -0.432047 1.09116
-0.200814 -0.430438 1.09122
-0.200494 -0.428843 1.09132
-0.200241 -0.427352 1.09168
-0.200032 -0.425927 1.09221
-0.199803 -0.424472 1.09266
-0.199549 -0.422982 1.09301
-0.19929 -0.421483 1.09334
-0.199006 -0.41995 1.09358
-0.198642 -0.418298 1.09349
-0.198294 -0.416671 1.09347
-0.197984 -0.4151 1.09359
-0.197661 -0.413515 1.09366
-0.197327 -0.411913 1.09368
-0.197114 -0.410489 1.09419
-0.196902 -0.409067 1.0947
-0.196699 -0.407659 1.09525
-0.196517 -0.40628 1.09587
-0.196352 -0.404925 1.09657
-0.196101 -0.403449 1.09692
-0.195845 -0.401964 1.09725
-0.195585 -0.400476 1.09757
-0.195271 -0.398912 1.09766
-0.194812 -0.397144 1.09717
-0.194375 -0.395411 1.09676
-0.193823 -0.39352 1.09588
-0.193183 -0.39151 1.09464
-0.192584 -0.389561 1.09356
-0.192123 -0.387808 1.09304
-0.191656 -0.386048 1.09249
-0.191226 -0.384344 1.09208
-0.191122 -0.377487 1.09984
-0.191253 -0.376535 1.10175
-0.19107 -0.375164 1.10237
-0.190845 -0.373735 1.10281
-0.190578 -0.372253 1.10307
-0.189987 -0.370347 1.10199
-0.189274 -0.368285 1.10039
-0.188933 -0.366714 1.10034
-0.189793 -0.366699 1.10531
-0.196826 -0.360139 1.16314
-0.197964 -0.358139 1.16284
-0.197808 -0.356736 1.16365
-0.197634 -0.355312 1.16438
-0.197434 -0.353856 1.165
-0.197172 -0.352328 1.16535
-0.196953 -0.35085 1.16589
-0.196649 -0.349274 1.16605
-0.196401 -0.347764 1.16646
-0.196131 -0.346228 1.16678
-0.195888 -0.344726 1.16721
-0.19565 -0.34323 1.16766
-0.195497 -0.34183 1.16848
-0.195347 -0.340433 1.16931
-0.195248 -0.339095 1.17037
-0.195216 -0.33783 1.17173
-0.19519 -0.33657 1.17311
-0.195159 -0.335302 1.17448
-0.195123 -0.334027 1.17582
-0.195063 -0.332724 1.17706
-0.195028 -0.331447 1.17841
-0.194974 -0.330146 1.17968
-0.194916 -0.32884 1.18094
-0.194809 -0.327481 1.18199
-0.194676 -0.32609 1.18291
-0.194546 -0.324703 1.18385
-0.194465 -0.323367 1.18501
-0.194413 -0.322061 1.1863
-0.209733 -0.460669 1.09671
-0.20939 -0.459006 1.09676
-0.20909 -0.457414 1.09698
-0.208677 -0.455644 1.09676
-0.20818 -0.453743 1.09622
-0.207657 -0.451805 1.09558
-0.20706 -0.449753 1.09465
-0.20646 -0.447702 1.09371
-0.205803 -0.445566 1.09255
-0.205259 -0.44361 1.09181
-0.204744 -0.441701 1.09117
-0.204297 -0.439903 1.0908
-0.203855 -0.438112 1.09044
-0.203544 -0.436527 1.09059
-0.203199 -0.434889 1.0906
-0.202834 -0.433224 1.09053
-0.202545 -0.431675 1.09075
-0.202237 -0.430099 1.0909
-0.201957 -0.428566 1.09116
-0.201727 -0.427108 1.0916
-0.201559 -0.425746 1.0923
-0.201353 -0.424325 1.09284
-0.201141 -0.422898 1.09336
-0.200908 -0.421436 1.09379
-0.200631 -0.419911 1.09406
-0.200266 -0.418259 1.09398
-0.199912 -0.416624 1.09393
-0.199557 -0.414989 1.09389
-0.19919 -0.413339 1.09379
-0.198831 -0.411702 1.09372
-0.198594 -0.410242 1.09413
-0.198342 -0.408761 1.09448
-0.198133 -0.407345 1.09501
-0.19795 -0.405964 1.09563
-0.197805 -0.404637 1.09641
-0.197578 -0.403195 1.09686
-0.197347 -0.401746 1.09729
-0.197092 -0.400265 1.09763
-0.196817 -0.398756 1.09789
-0.196402 -0.397052 1.09758
-0.195992 -0.395359 1.09729
-0.195492 -0.393541 1.09663
-0.194887 -0.391582 1.09554
-0.194295 -0.389646 1.09451
-0.193838 -0.3879 1.09401
-0.193372 -0.386143 1.09347
-0.192944 -0.384442 1.09309
-0.193594 -0.376292 1.10667
-0.193288 -0.374751 1.10679
-0.193008 -0.373248 1.10701
-0.192505 -0.371453 1.10631
-0.191937 -0.36958 1.10534
-0.191932 -0.368435 1.10669
-0.192808 -0.368422 1.11171
-0.194963 -0.369897 1.13122
-0.192918 -0.36844 1.12121
-0.196278 -0.369377 1.13038
-0.194704 -0.368398 1.13155
-0.196022 -0.367882 1.13073
-0.194434 -0.366886 1.13184
-0.195772 -0.366395 1.1311
-0.194236 -0.365464 1.13243
-0.195567 -0.364966 1.13166
-0.193972 -0.36396 1.13274
-0.199625 -0.359198 1.16183
-0.199446 -0.357767 1.16254
-0.199278 -0.356349 1.16329
-0.199117 -0.354939 1.16408
-0.198914 -0.35348 1.16469
-0.198677 -0.35198 1.16514
-0.198502 -0.350555 1.16587
-0.198244 -0.349032 1.16624
-0.198042 -0.347576 1.16685
-0.197823 -0.346098 1.16739
-0.197608 -0.344625 1.16795
-0.197396 -0.343158 1.16851
-0.197245 -0.341758 1.16934
-0.19705 -0.34031 1.16998
-0.196924 -0.338938 1.17093
-0.196845 -0.337617 1.17207
-0.196773 -0.336303 1.17325
-0.196715 -0.335003 1.17449
-0.196651 -0.333695 1.17571
-0.196546 -0.33234 1.17675
-0.196485 -0.331033 1.17799
-0.196411 -0.32971 1.17917
-0.196335 -0.328382 1.18034
-0.19623 -0.327024 1.18138
-0.196097 -0.325633 1.1823
-0.195965 -0.324244 1.18324
-0.195884 -0.322908 1.18439
-0.195814 -0.32158 1.1856
-0.211292 -0.460499 1.09678
-0.21097 -0.458871 1.09691
-0.210639 -0.457231 1.09702
-0.210205 -0.455429 1.09673
-0.20966 -0.453458 1.09602
-0.209085 -0.451439 1.09519
-0.208434 -0.449308 1.09407
-0.207823 -0.447246 1.09309
-0.207143 -0.445078 1.09185
-0.206599 -0.443127 1.09112
-0.206127 -0.441288 1.09066
-0.205705 -0.439529 1.09039
-0.205287 -0.43778 1.09013
-0.204996 -0.436224 1.09035
-0.204669 -0.434618 1.09044
-0.204304 -0.432952 1.09037
-0.204017 -0.431407 1.09061
-0.203707 -0.429829 1.09075
-0.203428 -0.428298 1.09102
-0.203197 -0.426841 1.09147
-0.203033 -0.425482 1.09217
-0.202847 -0.424091 1.09279
-0.202661 -0.422699 1.09342
-0.202472 -0.421303 1.09402
-0.202219 -0.419814 1.09439
-0.201897 -0.418226 1.09448
-0.201567 -0.416625 1.09453
-0.201211 -0.41499 1.09449
-0.200821 -0.413306 1.09431
-0.200436 -0.411631 1.09414
-0.200169 -0.410128 1.09444
-0.199871 -0.408582 1.09461
-0.19966 -0.407161 1.09513
-0.199476 -0.405779 1.09575
-0.199333 -0.404453 1.09654
-0.199108 -0.403013 1.097
-0.198897 -0.401593 1.09752
-0.198623 -0.400085 1.09778
-0.198328 -0.398546 1.09796
-0.197971 -0.396925 1.09789
-0.197608 -0.395297 1.09779
-0.197137 -0.393523 1.09727
-0.196596 -0.391655 1.09645
-0.196089 -0.389836 1.09577
-0.195635 -0.388094 1.09529
-0.195234 -0.386427 1.09503
-0.196267 -0.377591 1.11152
-0.195854 -0.375905 1.11121
-0.195585 -0.37441 1.11149
-0.195193 -0.372756 1.11126
-0.194768 -0.371062 1.11089
-0.194906 -0.37009 1.11284
-0.196981 -0.369256 1.1256
-0.197582 -0.368844 1.1295
-0.197364 -0.367397 1.13
-0.197146 -0.365952 1.13051
-0.196941 -0.364522 1.13107
-0.201259 -0.360224 1.1607
-0.201187 -0.35892 1.16186
-0.20101 -0.357492 1.16258
-0.200853 -0.356086 1.16338
-0.200709 -0.354694 1.16424
-0.200486 -0.353212 1.16476
-0.200251 -0.351714 1.16523
-0.20008 -0.350291 1.16598
-0.199843 -0.348792 1.16644
-0.199644 -0.347336 1.16706
-0.199428 -0.345863 1.16762
-0.19922 -0.344397 1.1682
-0.199031 -0.342955 1.16887
-0.198879 -0.341553 1.1697
-0.19866 -0.340076 1.17024
-0.198526 -0.338693 1.17114
-0.198419 -0.337339 1.17217
-0.198298 -0.335969 1.17313
-0.198197 -0.33462 1.17418
-0.198109 -0.333285 1.17529
-0.197978 -0.331902 1.17622
-0.197896 -0.33057 1.17735
-0.197821 -0.329244 1.17853
-0.197749 -0.32792 1.17971
-0.197648 -0.326564 1.18077
-0.197517 -0.325176 1.1817
-0.197363 -0.323763 1.18253
-0.197259 -0.322401 1.18358
-0.197163 -0.321046 1.18467
-0.212878 -0.46037 1.09694
-0.212567 -0.458758 1.09712
-0.212223 -0.457098 1.09718
-0.211783 -0.455288 1.09687
-0.211189 -0.453242 1.09599
-0.210539 -0.451113 1.09489
-0.209814 -0.448873 1.0935
-0.209152 -0.446736 1.09235
-0.208465 -0.444564 1.09109
-0.207922 -0.442618 1.09037
-0.207474 -0.44082 1.09001
-0.207096 -0.43913 1.08991
-0.206721 -0.437449 1.08982
-0.206434 -0.4359 1.09006
-0.20611 -0.434298 1.09016
-0.205762 -0.432661 1.09017
-0.205474 -0.431116 1.0904
-0.205165 -0.429539 1.09055
-0.20491 -0.428044 1.09091
-0.204721 -0.426649 1.09153
-0.204562 -0.425295 1.09225
-0.204377 -0.423904 1.09287
-0.204229 -0.422569 1.09365
-0.204064 -0.421206 1.09435
-0.203817 -0.419725 1.09473
-0.20354 -0.418201 1.09501
-0.20325 -0.416661 1.09523
-0.202898 -0.41503 1.0952
-0.202508 -0.413346 1.09503
-0.202156 -0.41172 1.095
-0.201888 -0.410215 1.0953
-0.201563 -0.40863 1.09537
-0.201351 -0.407207 1.09589
-0.201164 -0.405818 1.0965
-0.200984 -0.404439 1.09714
-0.200758 -0.402995 1.0976
-0.200544 -0.40157 1.09811
-0.200243 -0.400023 1.09827
-0.199899 -0.398419 1.09826
-0.199576 -0.396844 1.09833
-0.199234 -0.395245 1.09833
-0.198831 -0.393565 1.09808
-0.198359 -0.391793 1.09755
-0.197963 -0.390126 1.09732
-0.197606 -0.388515 1.09725
-0.197268 -0.386931 1.09725
-0.197195 -0.385703 1.0983
-0.199214 -0.380373 1.11602
-0.198746 -0.37861 1.1155
-0.198274 -0.376845 1.11497
-0.198015 -0.375357 1.1153
-0.197732 -0.373839 1.11552
-0.19746 -0.372337 1.1158
-0.19761 -0.37137 1.11779
-0.197979 -0.370676 1.12069
-0.198268 -0.369878 1.12328
-0.198621 -0.369152 1.12612
-0.198909 -0.36834 1.12871
-0.198742 -0.366958 1.12943
-0.198571 -0.365571 1.13013
-0.198564 -0.364385 1.13151
-0.198637 -0.363295 1.13323
-0.202738 -0.359847 1.16037
-0.202695 -0.358576 1.16165
-0.202563 -0.3572 1.16256
-0.202432 -0.355823 1.16347
-0.202314 -0.354462 1.16444
-0.20207 -0.352952 1.16487
-0.201814 -0.35143 1.16526
-0.201623 -0.349984 1.16592
-0.201384 -0.348482 1.16638
-0.201203 -0.347048 1.16708
-0.200983 -0.345568 1.16762
-0.200793 -0.344122 1.16828
-0.200624 -0.3427 1.16904
-0.200452 -0.341274 1.16978
-0.200188 -0.339746 1.17012
-0.200003 -0.338306 1.17081
-0.199827 -0.336876 1.17153
-0.199642 -0.335436 1.17222
-0.199542 -0.334088 1.17327
-0.199437 -0.332734 1.17431
-0.199308 -0.33135 1.17523
-0.199224 -0.330017 1.17636
-0.199169 -0.328712 1.17762
-0.1991 -0.327391 1.17881
-0.199023 -0.32606 1.17997
-0.198917 -0.324697 1.18101
-0.198762 -0.323282 1.18183
-0.198655 -0.321916 1.18286
-0.198554 -0.320556 1.18393
-0.214325 -0.460016 1.09657
-0.214031 -0.458434 1.09682
-0.213696 -0.456786 1.09691
-0.213276 -0.455012 1.09669
-0.212674 -0.452957 1.09578
-0.211995 -0.450789 1.09459
-0.211239 -0.448505 1.0931
-0.21057 -0.446364 1.09193
-0.20988 -0.444192 1.09068
-0.20936 -0.442284 1.09005
-0.208954 -0.440553 1.08986
-0.208598 -0.438899 1.08985
-0.208226 -0.437222 1.08977
-0.207942 -0.435679 1.09003
-0.207638 -0.434107 1.09021
-0.20727 -0.432442 1.09015
-0.207 -0.430922 1.09045
-0.206692 -0.429349 1.09061
-0.206456 -0.427882 1.09105
-0.206274 -0.426495 1.09169
-0.206135 -0.42517 1.09249
-0.205951 -0.423779 1.09312
-0.205823 -0.422472 1.09397
-0.205657 -0.421108 1.09467
-0.205432 -0.419657 1.09514
-0.205202 -0.4182 1.0956
-0.204938 -0.416695 1.09592
-0.204608 -0.415097 1.09599
-0.204237 -0.413442 1.0959
-0.203886 -0.411816 1.09588
-0.2036 -0.410284 1.09611
-0.203275 -0.408698 1.09619
-0.203063 -0.407274 1.09671
-0.202875 -0.405881 1.09732
-0.202673 -0.40447 1.09788
-0.202422 -0.402989 1.09824
-0.20216 -0.401495 1.09856
-0.201808 -0.399879 1.09853
-0.201436 -0.398237 1.09841
-0.201085 -0.396626 1.09838
-0.20072 -0.394996 1.09829
-0.200377 -0.393398 1.09828
-0.199994 -0.391747 1.09812
-0.19967 -0.39018 1.09818
-0.199462 -0.388768 1.09871
-0.199306 -0.387426 1.09944
-0.199522 -0.381929 1.11588
-0.201013 -0.381652 1.11581
-0.200747 -0.380149 1.11611
-0.20054 -0.378726 1.11666
-0.2003 -0.377258 1.11707
-0.200256 -0.376041 1.11827
-0.200228 -0.374843 1.11954
-0.200237 -0.373691 1.12097
-0.200252 -0.372545 1.12242
-0.200393 -0.371553 1.12438
-0.200383 -0.370369 1.12574
-0.200399 -0.369214 1.12719
-0.200378 -0.368015 1.12851
-0.200235 -0.366661 1.12933
-0.200155 -0.365384 1.1304
-0.200302 -0.364384 1.13241
-0.200574 -0.363531 1.13494
-0.20416 -0.360621 1.15836
-0.204177 -0.359421 1.15988
-0.204176 -0.3582 1.16133
-0.204122 -0.356912 1.16256
-0.204055 -0.355609 1.16374
-0.204004 -0.354322 1.16498
-0.203776 -0.352832 1.1655
-0.203513 -0.3513 1.16585
-0.203297 -0.349823 1.16641
-0.203032 -0.348291 1.16676
-0.202827 -0.346826 1.16736
-0.202578 -0.345314 1.16778
-0.202361 -0.343837 1.16833
-0.202166 -0.342385 1.16897
-0.201969 -0.340932 1.16961
-0.201662 -0.339357 1.16978
-0.201432 -0.337867 1.17027
-0.201209 -0.336385 1.17079
-0.200976 -0.334893 1.17127
-0.200878 -0.333547 1.17233
-0.200779 -0.332198 1.17339
-0.200657 -0.330822 1.17434
-0.200575 -0.329489 1.17547
-0.200519 -0.328183 1.17672
-0.200448 -0.326859 1.1779
-0.200374 -0.325532 1.17907
-0.200293 -0.324194 1.18021
-0.200141 -0.322783 1.18105
-0.200053 -0.321435 1.18216
-0.19995 -0.320072 1.18321
-0.215725 -0.459587 1.09602
-0.215455 -0.458042 1.09636
-0.21511 -0.456385 1.09643
-0.214715 -0.454649 1.0963
-0.214152 -0.45266 1.09555
-0.213449 -0.450459 1.09428
-0.212686 -0.448171 1.09278
-0.212058 -0.446095 1.09177
-0.211389 -0.443961 1.09061
-0.210916 -0.442129 1.09018
-0.210559 -0.440472 1.09017
-0.210244 -0.43888 1.09032
-0.20987 -0.437202 1.09025
-0.209606 -0.435686 1.09058
-0.209259 -0.43405 1.0906
-0.208886 -0.432379 1.09053
-0.208592 -0.430824 1.09074
-0.208283 -0.429248 1.0909
-0.208048 -0.427783 1.09135
-0.207911 -0.42646 1.09215
-0.207797 -0.425171 1.09306
-0.207635 -0.423811 1.09377
-0.207527 -0.422529 1.0947
-0.207361 -0.421162 1.0954
-0.207117 -0.419682 1.0958
-0.206885 -0.418221 1.09625
-0.20662 -0.416714 1.09657
-0.20627 -0.415087 1.09657
-0.2059 -0.413433 1.09649
-0.205573 -0.411842 1.09657
-0.205289 -0.410313 1.09681
-0.204971 -0.408737 1.09693
-0.204778 -0.407336 1.09752
-0.204588 -0.40594 1.09813
-0.204361 -0.404492 1.09859
-0.204084 -0.402975 1.09885
-0.203772 -0.401412 1.09899
-0.203372 -0.399731 1.09877
-0.202952 -0.398023 1.09847
-0.202578 -0.396381 1.09836
-0.202187 -0.394718 1.09817
-0.201862 -0.393146 1.09824
-0.20154 -0.39158 1.09832
-0.201285 -0.390103 1.09866
-0.201094 -0.388712 1.09925
-0.201039 -0.387502 1.10039
-0.201207 -0.386584 1.1024
-0.202682 -0.382762 1.11506
-0.20246 -0.381316 1.11555
-0.202235 -0.379867 1.11602
-0.202079 -0.378507 1.11677
-0.201849 -0.377051 1.11723
-0.201788 -0.375812 1.11836
-0.201733 -0.374577 1.11952
-0.201705 -0.373376 1.12079
-0.201698 -0.372198 1.12214
-0.201818 -0.371177 1.12401
-0.201824 -0.37001 1.12542
-0.201872 -0.368895 1.12701
-0.201932 -0.367791 1.12865
-0.201865 -0.366528 1.12978
-0.201874 -0.365358 1.13121
-0.202171 -0.364533 1.13382
-0.202546 -0.363798 1.13676
-0.203229 -0.363426 1.14097
-0.205667 -0.361498 1.15671
-0.205617 -0.360219 1.15794
-0.205708 -0.359104 1.15976
-0.205798 -0.357983 1.16158
-0.205851 -0.356818 1.16325
-0.20586 -0.3556 1.16475
-0.205882 -0.354394 1.1663
-0.205651 -0.352896 1.1668
-0.205359 -0.351331 1.16704
-0.205091 -0.349794 1.16739
-0.204776 -0.348204 1.16753
-0.204502 -0.34666 1.16784
-0.204206 -0.345095 1.16807
-0.203942 -0.343564 1.16842
-0.20372 -0.342083 1.16896
-0.203482 -0.340582 1.16941
-0.203125 -0.338954 1.16938
-0.202846 -0.33741 1.16967
-0.202573 -0.335874 1.16997
-0.202291 -0.334331 1.17025
-0.20217 -0.332959 1.17121
-0.202073 -0.331612 1.17226
-0.201956 -0.330244 1.17324
-0.201876 -0.328914 1.17438
-0.20182 -0.327606 1.17562
-0.201746 -0.326279 1.17678
-0.201697 -0.324975 1.17805
-0.201641 -0.323663 1.1793
-0.201517 -0.322279 1.18025
-0.201454 -0.320957 1.18147
-0.201333 -0.319576 1.18244
-0.217117 -0.459148 1.09545
-0.216865 -0.457632 1.09586
-0.216507 -0.455954 1.09588
-0.216133 -0.454255 1.09584
-0.215605 -0.452321 1.09522
-0.214944 -0.45019 1.09412
-0.214225 -0.447976 1.0928
-0.213668 -0.446009 1.09206
-0.213048 -0.443953 1.0911
-0.212626 -0.442198 1.09086
-0.212271 -0.440545 1.09087
-0.211958 -0.438954 1.09102
-0.211578 -0.437268 1.09094
-0.211329 -0.435776 1.09133
-0.210958 -0.434104 1.09127
-0.210603 -0.432457 1.09127
-0.210286 -0.430869 1.0914
-0.20997 -0.429283 1.09154
-0.209737 -0.42782 1.092
-0.209644 -0.426558 1.09297
-0.209538 -0.425277 1.0939
-0.209401 -0.42395 1.09471
-0.209295 -0.422669 1.09565
-0.209104 -0.421264 1.09626
-0.208834 -0.419745 1.09656
-0.208576 -0.418247 1.09692
-0.208287 -0.416706 1.09715
-0.207932 -0.415071 1.09713
-0.207556 -0.41341 1.09704
-0.20725 -0.411849 1.09721
-0.20699 -0.410352 1.09755
-0.206715 -0.408835 1.09783
-0.206523 -0.407434 1.09843
-0.206335 -0.406038 1.09905
-0.20606 -0.404523 1.09933
-0.205757 -0.40297 1.0995
-0.205397 -0.401342 1.09945
-0.204952 -0.399599 1.09907
-0.204487 -0.397832 1.0986
-0.204068 -0.396131 1.09832
-0.203653 -0.394436 1.09804
-0.203303 -0.392833 1.09802
-0.203001 -0.391293 1.09818
-0.202747 -0.389819 1.09853
-0.202603 -0.38849 1.09931
-0.202594 -0.387337 1.10062
-0.2028 -0.386464 1.10277
-0.20317 -0.385803 1.10558
-0.202122 -0.385496 1.10873
-0.203659 -0.385288 1.10886
-0.204077 -0.384674 1.11186
-0.202744 -0.384 1.11394
-0.204194 -0.383667 1.11368
-0.204198 -0.382511 1.11506
-0.204008 -0.381108 1.11569
-0.203838 -0.379726 1.11638
-0.20371 -0.3784 1.11724
-0.203465 -0.376926 1.11764
-0.203364 -0.375633 1.11861
-0.203262 -0.374338 1.11958
-0.203189 -0.373077 1.12066
-0.203144 -0.37185 1.12186
-0.203291 -0.370859 1.12383
-0.203345 -0.36975 1.12544
-0.203461 -0.368713 1.12729
-0.203594 -0.367694 1.12921
-0.203615 -0.366536 1.13069
-0.203724 -0.365483 1.13254
-0.204128 -0.36478 1.13557
-0.204573 -0.36412 1.13878
-0.205199 -0.363667 1.14273
-0.205834 -0.363218 1.14673
-0.205148 -0.363311 1.15169
-0.206538 -0.362841 1.15103
-0.20677 -0.361899 1.15341
-0.206925 -0.360863 1.15547
-0.207132 -0.359884 1.15776
-0.20725 -0.358796 1.15968
-0.207385 -0.357726 1.16169
-0.207604 -0.356747 1.16403
-0.207752 -0.355683 1.1661
-0.207666 -0.354349 1.16719
-0.207448 -0.352865 1.16775
-0.207163 -0.351306 1.16803
-0.20684 -0.349706 1.16815
-0.206496 -0.348083 1.16818
-0.206196 -0.346511 1.16839
-0.205878 -0.344919 1.16853
-0.205567 -0.343337 1.16869
-0.205318 -0.341824 1.16911
-0.205028 -0.340267 1.16936
-0.204624 -0.338588 1.16913
-0.204296 -0.336992 1.16921
-0.20399 -0.335422 1.16939
-0.203635 -0.333802 1.16936
-0.203464 -0.332377 1.1701
-0.203343 -0.331005 1.17105
-0.203205 -0.329613 1.17193
-0.203105 -0.328262 1.17298
-0.203047 -0.326952 1.1742
-0.202972 -0.325623 1.17536
-0.202924 -0.324322 1.17663
-0.202918 -0.323061 1.17809
-0.202844 -0.321728 1.17925
-0.20281 -0.320434 1.18059
-0.202714 -0.319077 1.18166
-0.218174 -0.457066 1.09498
-0.217823 -0.455401 1.09503
-0.217481 -0.453752 1.09511
-0.217034 -0.451943 1.0948
-0.216445 -0.449926 1.09397
-0.215805 -0.447835 1.09295
-0.215345 -0.446018 1.09259
-0.214798 -0.444075 1.0919
-0.214401 -0.442357 1.09176
-0.214044 -0.4407 1.09177
-0.213728 -0.439106 1.09193
-0.213322 -0.437379 1.09174
-0.213075 -0.435889 1.09215
-0.212698 -0.43421 1.09208
-0.212343 -0.432563 1.09208
-0.212039 -0.430993 1.09227
-0.211745 -0.429438 1.0925
-0.211534 -0.428003 1.09303
-0.211469 -0.42678 1.09411
-0.211389 -0.425532 1.09514
-0.211254 -0.424207 1.09596
-0.211127 -0.422891 1.09682
-0.210889 -0.421418 1.09725
-0.210567 -0.419826 1.09737
-0.210235 -0.418223 1.09745
-0.209872 -0.416576 1.09741
-0.209488 -0.414901 1.09729
-0.20911 -0.413238 1.09719
-0.208822 -0.411702 1.09743
-0.208584 -0.410236 1.09786
-0.208352 -0.408778 1.09831
-0.208162 -0.407377 1.09891
-0.207973 -0.405978 1.09953
-0.207675 -0.404433 1.09973
-0.207368 -0.402874 1.09989
-0.206984 -0.401214 1.09975
-0.206536 -0.399468 1.09936
-0.206067 -0.397699 1.0989
-0.205624 -0.395966 1.09852
-0.205183 -0.394238 1.09816
-0.204827 -0.392627 1.09812
-0.204523 -0.391085 1.09828
-0.20425 -0.389584 1.09855
-0.204106 -0.388255 1.09933
-0.204134 -0.387148 1.10078
-0.204311 -0.386234 1.10281
-0.204679 -0.385561 1.10559
-0.205109 -0.384965 1.10863
-0.205523 -0.384338 1.1116
-0.205646 -0.383336 1.11344
-0.205684 -0.382222 1.11495
-0.205514 -0.380841 1.11564
-0.205366 -0.379489 1.11643
-0.205244 -0.378168 1.11731
-0.205042 -0.376747 1.11788
-0.204944 -0.375455 1.11886
-0.20482 -0.374131 1.11975
-0.204747 -0.372867 1.12082
-0.204725 -0.371667 1.12211
-0.20486 -0.370657 1.12403
-0.204943 -0.36958 1.12575
-0.205105 -0.368595 1.12777
-0.205285 -0.367628 1.12988
-0.205381 -0.366557 1.13166
-0.205592 -0.365621 1.1339
-0.206053 -0.364977 1.13715
-0.206477 -0.364282 1.14026
-0.207023 -0.363727 1.14388
-0.207535 -0.363121 1.14735
-0.207999 -0.362453 1.15065
-0.208172 -0.361438 1.15278
-0.208236 -0.360293 1.15447
-0.208499 -0.359375 1.15697
-0.208901 -0.358612 1.16004
-0.209304 -0.357843 1.16313
-0.209691 -0.35705 1.16616
-0.209945 -0.356098 1.16865
-0.209903 -0.354809 1.16993
-0.209588 -0.353213 1.17009
-0.20925 -0.35159 1.17016
-0.208852 -0.349904 1.16998
-0.208433 -0.348196 1.16971
-0.208035 -0.346514 1.16952
-0.207649 -0.344847 1.16938
-0.207284 -0.343206 1.16932
-0.206988 -0.341641 1.16955
-0.206648 -0.340028 1.16959
-0.206192 -0.338295 1.16916
-0.205813 -0.336645 1.16903
-0.205433 -0.334999 1.16891
-0.205005 -0.333302 1.16857
-0.204761 -0.3318 1.16901
-0.204589 -0.330375 1.16974
-0.204399 -0.328931 1.17041
-0.204276 -0.327555 1.17135
-0.204217 -0.326245 1.17257
-0.204167 -0.324942 1.17382
-0.204144 -0.323664 1.17519
-0.204186 -0.322452 1.17684
-0.204164 -0.321172 1.17822
-0.20418 -0.319927 1.17977
-0.204108 -0.318592 1.18094
-0.219102 -0.454794 1.09406
-0.21879 -0.453192 1.09425
-0.218409 -0.451487 1.09419
-0.217915 -0.449616 1.09371
-0.217373 -0.447675 1.09306
-0.217038 -0.446045 1.09316
-0.216564 -0.444211 1.09275
-0.216205 -0.442549 1.09275
-0.215863 -0.440914 1.09282
-0.215563 -0.439343 1.09304
-0.215134 -0.437583 1.09278
-0.214888 -0.436093 1.0932
-0.214512 -0.434414 1.09313
-0.214156 -0.432767 1.09314
-0.213854 -0.431198 1.09334
-0.213583 -0.429676 1.09366
-0.213374 -0.428242 1.09421
-0.213291 -0.426988 1.09522
-0.213211 -0.425738 1.09625
-0.213075 -0.424408 1.09707
-0.212901 -0.423024 1.09775
-0.212636 -0.42151 1.09809
-0.21228 -0.419871 1.09808
-0.211873 -0.418162 1.09789
-0.211436 -0.416412 1.09757
-0.21102 -0.414695 1.09734
-0.210617 -0.412998 1.09715
-0.210311 -0.411438 1.09733
-0.210076 -0.409975 1.09777
-0.209865 -0.408545 1.0983
-0.209676 -0.407146 1.09891
-0.209488 -0.405747 1.09953
-0.209209 -0.404228 1.09981
-0.208901 -0.402668 1.09997
-0.208518 -0.40101 1.09984
-0.208069 -0.399265 1.09946
-0.207617 -0.39752 1.09906
-0.207147 -0.395754 1.0986
-0.206701 -0.394022 1.09822
-0.206321 -0.392378 1.09809
-0.206015 -0.390833 1.09824
-0.20574 -0.389332 1.09851
-0.205618 -0.388029 1.09938
-0.205677 -0.38696 1.10094
-0.205844 -0.386027 1.10292
-0.206202 -0.385336 1.10565
-0.20659 -0.384677 1.1085
-0.20697 -0.384003 1.11134
-0.207159 -0.383081 1.11343
-0.207201 -0.381968 1.11495
-0.207076 -0.380644 1.11582
-0.206948 -0.379314 1.11668
-0.20683 -0.377997 1.11758
-0.206652 -0.376605 1.11825
-0.206576 -0.375338 1.11931
-0.206471 -0.374035 1.12027
-0.206397 -0.372768 1.12134
-0.206376 -0.371566 1.12264
-0.206498 -0.370535 1.12449
-0.206625 -0.369505 1.12637
-0.206816 -0.368552 1.12851
-0.207026 -0.367616 1.13073
-0.207176 -0.366604 1.13271
-0.207501 -0.365797 1.1354
-0.20793 -0.365107 1.13851
-0.208356 -0.364407 1.14162
-0.208777 -0.363694 1.14471
-0.209168 -0.36294 1.14769
-0.209419 -0.362016 1.15011
-0.209494 -0.360885 1.15183
-0.209554 -0.359734 1.1535
-0.209875 -0.358879 1.15622
-0.210389 -0.358238 1.15973
-0.211285 -0.358022 1.1648
-0.212168 -0.355285 1.17273
-0.211874 -0.353708 1.17299
-0.211453 -0.351991 1.17273
-0.210999 -0.35024 1.17233
-0.210496 -0.348439 1.17173
-0.21 -0.346647 1.17114
-0.209535 -0.344894 1.17069
-0.209072 -0.343146 1.17024
-0.208697 -0.341495 1.17015
-0.20828 -0.339799 1.16987
-0.207754 -0.337994 1.16916
-0.207304 -0.336269 1.16874
-0.206897 -0.334595 1.16851
-0.206418 -0.332846 1.16797
-0.206101 -0.331269 1.1681
-0.205874 -0.329787 1.16861
-0.205634 -0.328292 1.16906
-0.205464 -0.326869 1.16981
-0.20536 -0.325514 1.17083
-0.205312 -0.324213 1.17209
-0.205313 -0.32296 1.17355
-0.205387 -0.321779 1.17533
-0.205394 -0.320525 1.17682
-0.205459 -0.319329 1.17857
-0.205408 -0.318016 1.17982
-0.205781 -0.318979 1.18956
-0.205355 -0.316698 1.18107
-0.220454 -0.454299 1.09335
-0.220133 -0.452684 1.09351
-0.219808 -0.451064 1.09365
-0.219398 -0.449321 1.09349
-0.218953 -0.447527 1.0932
-0.218702 -0.446021 1.0936
-0.218295 -0.444287 1.09344
-0.217956 -0.442656 1.09353
-0.217607 -0.441011 1.09358
-0.217328 -0.439468 1.09388
-0.216924 -0.437745 1.09372
-0.216679 -0.436256 1.09415
-0.216304 -0.434577 1.09409
-0.215965 -0.432954 1.09417
-0.215668 -0.431392 1.09439
-0.215426 -0.42991 1.09482
-0.215246 -0.428515 1.09548
-0.215182 -0.427285 1.09656
-0.215071 -0.425987 1.09747
-0.214906 -0.424613 1.09819
-0.214685 -0.42316 1.0987
-0.214392 -0.421607 1.09894
-0.213986 -0.419897 1.09875
-0.213527 -0.418117 1.09837
-0.213057 -0.416324 1.09794
-0.212614 -0.41457 1.09761
-0.212189 -0.412843 1.09735
-0.211885 -0.411286 1.09753
-0.211673 -0.409854 1.09807
-0.211442 -0.408396 1.09852
-0.21123 -0.406965 1.09905
-0.211039 -0.405562 1.09966
-0.210762 -0.404043 1.09994
-0.210455 -0.402487 1.10011
-0.210096 -0.400862 1.10009
-0.209667 -0.399145 1.09979
-0.209216 -0.397402 1.0994
-0.208743 -0.395634 1.09894
-0.208294 -0.393899 1.09856
-0.207891 -0.392225 1.09834
-0.207561 -0.39065 1.09841
-0.207284 -0.389146 1.09868
-0.207165 -0.387845 1.09955
-0.207227 -0.386776 1.10112
-0.207392 -0.385837 1.10309
-0.207748 -0.385137 1.1058
-0.208132 -0.384467 1.10862
-0.20852 -0.383795 1.11146
-0.20872 -0.382882 1.11359
-0.208767 -0.381773 1.11513
-0.208643 -0.380449 1.116
-0.208515 -0.379117 1.11686
-0.208374 -0.37777 1.11767
-0.208202 -0.376383 1.11836
-0.208128 -0.375117 1.11943
-0.208047 -0.373841 1.12048
-0.207971 -0.372571 1.12155
-0.20795 -0.371365 1.12283
-0.208091 -0.370353 1.12476
-0.208262 -0.369374 1.1268
-0.208504 -0.368475 1.12913
-0.208766 -0.367597 1.13155
-0.209011 -0.366691 1.1339
-0.209369 -0.365915 1.13671
-0.209759 -0.365172 1.13965
-0.210138 -0.364409 1.14256
-0.210467 -0.363581 1.14527
-0.21072 -0.36266 1.14768
-0.210845 -0.361586 1.14959
-0.210872 -0.360399 1.15112
-0.210864 -0.359166 1.1525
-0.21468 -0.357276 1.17503
-0.214518 -0.35584 1.17583
-0.2141 -0.354122 1.17559
-0.213593 -0.352309 1.17499
-0.213058 -0.350468 1.17428
-0.21247 -0.348573 1.17334
-0.211888 -0.346689 1.17242
-0.211339 -0.344844 1.17163
-0.210796 -0.34301 1.17086
-0.210362 -0.341297 1.17054
-0.20987 -0.339524 1.16997
-0.209291 -0.337662 1.16904
-0.20879 -0.335888 1.16843
-0.208357 -0.334187 1.1681
-0.20783 -0.33239 1.16737
-0.207441 -0.330742 1.16721
-0.207163 -0.329207 1.1675
-0.20687 -0.32766 1.16774
-0.206653 -0.326188 1.16828
-0.206529 -0.324813 1.16922
-0.206482 -0.323513 1.17047
-0.206484 -0.322262 1.17194
-0.206583 -0.321104 1.17381
-0.206615 -0.319877 1.1754
-0.206687 -0.318684 1.17716
-0.206639 -0.317374 1.17842
-0.206605 -0.316075 1.17975
-0.220863 -0.448998 1.0932
-0.220476 -0.447291 1.09312
-0.220272 -0.445856 1.0937
-0.219918 -0.4442 1.09374
-0.219578 -0.442568 1.09383
-0.219211 -0.440896 1.09381
-0.218936 -0.439359 1.09413
-0.218557 -0.437672 1.09407
-0.218313 -0.436183 1.0945
-0.217999 -0.434593 1.09467
-0.217682 -0.433001 1.09483
-0.217456 -0.43154 1.09532
-0.217267 -0.430129 1.09595
-0.217111 -0.428767 1.0967
-0.217021 -0.427498 1.09769
-0.216878 -0.426152 1.09848
-0.216637 -0.42467 1.09892
-0.216344 -0.423116 1.09917
-0.216028 -0.421529 1.09932
-0.215598 -0.419787 1.09906
-0.215115 -0.417976 1.0986
-0.21462 -0.41615 1.09808
-0.214172 -0.414392 1.09774
-0.213744 -0.412663 1.09748
-0.213442 -0.411107 1.09767
-0.213253 -0.409706 1.09829
-0.213019 -0.408244 1.09874
-0.212782 -0.406778 1.09918
-0.212587 -0.405368 1.09977
-0.212309 -0.403849 1.10005
-0.212006 -0.402297 1.10024
-0.211695 -0.400735 1.1004
-0.211287 -0.399048 1.10019
-0.210837 -0.397308 1.09982
-0.210384 -0.395567 1.09943
-0.209936 -0.393833 1.09906
-0.20951 -0.392132 1.09877
-0.209174 -0.390551 1.09882
-0.208895 -0.389042 1.09908
-0.208777 -0.387741 1.09996
-0.208826 -0.386651 1.10147
-0.208952 -0.385658 1.10329
-0.209282 -0.384919 1.10588
-0.209644 -0.384214 1.10861
-0.210007 -0.383507 1.11135
-0.210238 -0.382628 1.11358
-0.210314 -0.38155 1.11522
-0.210189 -0.380223 1.11609
-0.210074 -0.378907 1.117
-0.20991 -0.37753 1.11772
-0.209741 -0.376146 1.11842
-0.20967 -0.374882 1.11951
-0.209613 -0.373634 1.12065
-0.209561 -0.37239 1.12181
-0.209542 -0.371183 1.1231
-0.209705 -0.370193 1.1251
-0.209901 -0.369239 1.12723
-0.210149 -0.368343 1.12958
-0.210404 -0.367448 1.13195
-0.210672 -0.366566 1.13439
-0.210971 -0.365714 1.13695
-0.211338 -0.364937 1.13979
-0.211721 -0.364172 1.14269
-0.212027 -0.363314 1.1453
-0.212218 -0.362316 1.14746
-0.212311 -0.361203 1.14924
-0.212167 -0.358594 1.15148
-0.21439 -0.358205 1.17241
-0.217042 -0.357834 1.17812
-0.21666 -0.356151 1.17804
-0.216172 -0.354353 1.17753
-0.215612 -0.352482 1.17673
-0.215042 -0.350603 1.17589
-0.214419 -0.348671 1.17482
-0.213803 -0.346751 1.17378
-0.213174 -0.344822 1.17268
-0.212526 -0.342878 1.1715
-0.211966 -0.341031 1.17067
-0.211346 -0.339125 1.16959
-0.210687 -0.337184 1.16835
-0.210139 -0.335362 1.16755
-0.209683 -0.333638 1.16713
-0.209152 -0.331842 1.16639
-0.20876 -0.330191 1.16623
-0.208457 -0.328634 1.16642
-0.208162 -0.327084 1.16665
-0.20792 -0.32559 1.16709
-0.207793 -0.324212 1.16801
-0.207741 -0.322907 1.16924
-0.207745 -0.321656 1.1707
-0.207823 -0.320477 1.17248
-0.207879 -0.319271 1.17416
-0.207928 -0.318056 1.17582
-0.207881 -0.316745 1.17708
-0.207831 -0.31543 1.17833
-0.208196 -0.316341 1.18792
-0.207711 -0.314047 1.17929
-0.222246 -0.448553 1.09261
-0.221859 -0.44685 1.09254
-0.221688 -0.445462 1.09324
-0.221358 -0.443842 1.09337
-0.221034 -0.442233 1.09351
-0.220714 -0.440632 1.09368
-0.220488 -0.439165 1.09417
-0.220133 -0.437515 1.0942
-0.219914 -0.43606 1.09472
-0.219647 -0.434538 1.09507
-0.219352 -0.432975 1.09531
-0.219174 -0.431581 1.09598
-0.219035 -0.430239 1.09679
-0.218885 -0.428884 1.09757
-0.21875 -0.427548 1.09839
-0.218576 -0.426156 1.09907
-0.218258 -0.424566 1.09923
-0.217891 -0.42291 1.09921
-0.21755 -0.42129 1.09928
-0.217121 -0.419552 1.09903
-0.216619 -0.417715 1.0985
-0.216124 -0.415891 1.09799
-0.215674 -0.414133 1.09766
-0.215244 -0.412403 1.09739
-0.214941 -0.410847 1.09758
-0.214752 -0.409444 1.0982
-0.214494 -0.40795 1.09856
-0.21423 -0.406447 1.0989
-0.214027 -0.405028 1.09947
-0.213748 -0.403508 1.09975
-0.21345 -0.401964 1.09996
-0.213183 -0.400461 1.10029
-0.212843 -0.398864 1.10034
-0.212436 -0.39718 1.10013
-0.212032 -0.395504 1.09994
-0.211626 -0.393827 1.09974
-0.21122 -0.392151 1.09953
-0.210881 -0.390565 1.09957
-0.210596 -0.389048 1.09982
-0.210478 -0.387744 1.1007
-0.210509 -0.386628 1.10214
-0.210618 -0.385609 1.10388
-0.210906 -0.384811 1.10631
-0.211223 -0.384043 1.10885
-0.211525 -0.383252 1.11134
-0.211732 -0.382338 1.11347
-0.211783 -0.381229 1.11501
-0.211657 -0.379899 1.11588
-0.211543 -0.378582 1.11679
-0.211398 -0.377228 1.11758
-0.211248 -0.375866 1.11835
-0.211179 -0.374603 1.11945
-0.211148 -0.373383 1.12068
-0.211123 -0.372168 1.12194
-0.211131 -0.370994 1.12334
-0.211302 -0.370008 1.12536
-0.211503 -0.369055 1.12751
-0.211735 -0.368134 1.12978
-0.211944 -0.367182 1.13196
-0.212191 -0.36627 1.1343
-0.212411 -0.365322 1.13655
-0.212745 -0.364501 1.13924
-0.213113 -0.363714 1.14207
-0.21347 -0.362908 1.14486
-0.213717 -0.36197 1.14723
-0.213798 -0.360842 1.14896
-0.217236 -0.355998 1.17253
-0.217879 -0.355442 1.17654
-0.218068 -0.354384 1.17874
-0.217529 -0.352535 1.17803
-0.216929 -0.350624 1.17708
-0.216258 -0.348642 1.17584
-0.215594 -0.346672 1.17462
-0.214894 -0.34467 1.17325
-0.214187 -0.342666 1.17184
-0.213523 -0.340711 1.1706
-0.212817 -0.338719 1.16919
-0.2121 -0.336721 1.16773
-0.2115 -0.334849 1.16673
-0.210997 -0.333081 1.16612
-0.210488 -0.33131 1.16548
-0.210096 -0.329661 1.16532
-0.209773 -0.328084 1.16544
-0.209502 -0.32656 1.16576
-0.209259 -0.325066 1.1662
-0.20911 -0.323666 1.16703
-0.209035 -0.322337 1.16816
-0.209035 -0.321082 1.1696
-0.209068 -0.319855 1.17118
-0.209099 -0.318626 1.17275
-0.209125 -0.317388 1.17431
-0.209076 -0.316076 1.17556
-0.20898 -0.314717 1.17661
-0.208882 -0.313356 1.17766
-0.223156 -0.446282 1.09166
-0.223018 -0.444941 1.09247
-0.222721 -0.443372 1.09272
-0.222437 -0.441821 1.09301
-0.222166 -0.44029 1.09335
-0.221962 -0.438857 1.09393
-0.221631 -0.437242 1.09405
-0.221438 -0.435824 1.09467
-0.221201 -0.434343 1.09512
-0.220935 -0.432823 1.09547
-0.220786 -0.431466 1.09624
-0.220691 -0.430186 1.09721
-0.220548 -0.428835 1.09801
-0.220391 -0.427468 1.09876
-0.220188 -0.426036 1.09934
-0.219836 -0.424399 1.09938
-0.219418 -0.422672 1.09917
-0.219051 -0.421019 1.09915
-0.21862 -0.41928 1.0989
-0.218138 -0.417474 1.09845
-0.217666 -0.415683 1.09804
-0.217217 -0.413927 1.09771
-0.216786 -0.412197 1.09744
-0.216479 -0.410636 1.09763
-0.216266 -0.409201 1.09816
-0.215984 -0.407675 1.09844
-0.215717 -0.406168 1.09877
-0.215513 -0.404746 1.09933
-0.215252 -0.403252 1.09969
-0.214978 -0.401738 1.09999
-0.214737 -0.400268 1.10041
-0.214424 -0.398706 1.10056
-0.214041 -0.397056 1.10046
-0.21366 -0.39541 1.10036
-0.213278 -0.393764 1.10025
-0.212875 -0.392093 1.10006
-0.212534 -0.390505 1.10011
-0.212268 -0.38901 1.10043
-0.212148 -0.387703 1.1013
-0.212135 -0.386528 1.10257
-0.212242 -0.385501 1.1043
-0.212486 -0.384643 1.10655
-0.212736 -0.383786 1.10882
-0.21299 -0.382931 1.11112
-0.213191 -0.382005 1.11322
-0.213223 -0.38087 1.11468
-0.213121 -0.379568 1.11564
-0.213009 -0.378253 1.11656
-0.212843 -0.376872 1.11727
-0.212668 -0.37548 1.11795
-0.212599 -0.374214 1.11903
-0.21257 -0.372996 1.12027
-0.212573 -0.371813 1.12164
-0.212635 -0.370699 1.12323
-0.212839 -0.369749 1.12538
-0.213065 -0.368821 1.12761
-0.213317 -0.367918 1.12995
-0.213516 -0.36695 1.13209
-0.213714 -0.365977 1.13423
-0.213879 -0.364961 1.13625
-0.214145 -0.364056 1.13866
-0.21446 -0.363204 1.14127
-0.214869 -0.362452 1.14425
-0.215218 -0.361627 1.14701
-0.215289 -0.360482 1.14868
-0.215999 -0.355889 1.16617
-0.216343 -0.353 1.1627
-0.218019 -0.353568 1.17076
-0.219025 -0.353394 1.17619
-0.219091 -0.352199 1.1779
-0.218517 -0.350319 1.17706
-0.217876 -0.348371 1.17595
-0.217238 -0.346432 1.17485
-0.216533 -0.344428 1.17347
-0.215773 -0.342371 1.17187
-0.215024 -0.340332 1.1703
-0.214235 -0.338257 1.16857
-0.213482 -0.336227 1.16697
-0.212832 -0.334308 1.16579
-0.212308 -0.332521 1.1651
-0.211817 -0.330771 1.16455
-0.211448 -0.329149 1.16448
-0.211131 -0.327579 1.16463
-0.210887 -0.326083 1.16506
-0.210646 -0.324591 1.16551
-0.210475 -0.323169 1.16625
-0.210353 -0.321793 1.16718
-0.210352 -0.320535 1.16861
-0.210338 -0.319262 1.16999
-0.210346 -0.31801 1.17147
-0.210364 -0.316763 1.17298
-0.210313 -0.315448 1.17421
-0.210192 -0.314068 1.17516
-0.210095 -0.312707 1.17621
-0.210453 -0.313566 1.18565
-0.20988 -0.311236 1.17678
-0.224348 -0.444423 1.0917
-0.224094 -0.442916 1.0921
-0.223824 -0.441387 1.09245
-0.223571 -0.439882 1.09285
-0.223367 -0.438448 1.09343
-0.223055 -0.436862 1.09362
-0.222869 -0.435452 1.09426
-0.22266 -0.434011 1.09482
-0.222447 -0.432566 1.09537
-0.222368 -0.431305 1.09639
-0.222327 -0.430097 1.09755
-0.222229 -0.428809 1.09851
-0.222118 -0.427503 1.09942
-0.221894 -0.426039 1.09992
-0.22149 -0.42433 1.09978
-0.22104 -0.422563 1.09947
-0.220621 -0.420838 1.09927
-0.220142 -0.419036 1.09885
-0.219677 -0.417255 1.09847
-0.219226 -0.415494 1.09814
-0.218778 -0.413742 1.09783
-0.218369 -0.412042 1.09765
-0.218059 -0.410479 1.09783
-0.21782 -0.409008 1.09827
-0.217513 -0.407449 1.09845
-0.217224 -0.405913 1.0987
-0.216999 -0.404464 1.09919
-0.216741 -0.402971 1.09956
-0.216488 -0.401486 1.09994
-0.216272 -0.400049 1.10046
-0.216005 -0.398547 1.10079
-0.21565 -0.396932 1.10079
-0.215315 -0.395345 1.10087
-0.214956 -0.393729 1.10085
-0.214573 -0.392084 1.10074
-0.214238 -0.390501 1.10081
-0.213973 -0.389008 1.10114
-0.21383 -0.387668 1.10192
-0.213789 -0.386456 1.10309
-0.21387 -0.385393 1.10472
-0.214089 -0.384498 1.10686
-0.214293 -0.383581 1.10896
-0.214498 -0.382659 1.11106
-0.214649 -0.381671 1.11297
-0.214656 -0.380501 1.11433
-0.214542 -0.379182 1.11523
-0.214438 -0.377875 1.11618
-0.214274 -0.376498 1.1169
-0.214094 -0.375099 1.11756
-0.214021 -0.373828 1.11863
-0.213994 -0.37261 1.11987
-0.214024 -0.371457 1.12134
-0.214137 -0.3704 1.12312
-0.214369 -0.369479 1.12536
-0.214579 -0.368526 1.12752
-0.214804 -0.367589 1.12975
-0.214975 -0.366584 1.13177
-0.215125 -0.365551 1.13371
-0.21518 -0.364407 1.1353
-0.215372 -0.363415 1.13741
-0.219337 -0.352981 1.1697
-0.220382 -0.35284 1.17525
-0.220525 -0.351725 1.17725
-0.219979 -0.349877 1.17653
-0.219361 -0.347958 1.17553
-0.218726 -0.346027 1.17445
-0.218016 -0.34402 1.17306
-0.217249 -0.34196 1.17145
-0.216447 -0.339871 1.16969
-0.215628 -0.337771 1.16785
-0.214869 -0.335739 1.16625
-0.214217 -0.33382 1.16506
-0.213668 -0.332012 1.16429
-0.213197 -0.330285 1.16382
-0.212829 -0.328664 1.16376
-0.212514 -0.327097 1.16392
-0.212272 -0.325606 1.16437
-0.212077 -0.324159 1.16501
-0.211908 -0.322738 1.16575
-0.211762 -0.321339 1.16658
-0.211756 -0.320076 1.16799
-0.211716 -0.318776 1.16926
-0.211681 -0.317479 1.17054
-0.211655 -0.316191 1.17188
-0.211598 -0.314871 1.17308
-0.211452 -0.313465 1.17393
-0.211354 -0.312104 1.17496
-0.211114 -0.310612 1.17543
-0.225606 -0.443805 1.09068
-0.225426 -0.442403 1.09135
-0.225208 -0.440948 1.09187
-0.225027 -0.439545 1.09253
-0.224824 -0.438112 1.09311
-0.224532 -0.436553 1.09338
-0.224388 -0.435204 1.09417
-0.224205 -0.433799 1.09482
-0.224047 -0.432427 1.09556
-0.224019 -0.431236 1.09677
-0.224006 -0.430063 1.09802
-0.223889 -0.428747 1.09892
-0.223783 -0.427445 1.09985
-0.223533 -0.425945 1.10026
-0.223104 -0.424204 1.10003
-0.222626 -0.422401 1.09963
-0.222157 -0.420608 1.09925
-0.221643 -0.418761 1.09871
-0.221151 -0.416947 1.09825
-0.220699 -0.415188 1.09793
-0.220256 -0.413443 1.09763
-0.21987 -0.411776 1.09754
-0.219557 -0.410207 1.09771
-0.219291 -0.408702 1.09806
-0.218958 -0.407109 1.09815
-0.218667 -0.405572 1.0984
-0.218445 -0.404126 1.0989
-0.218191 -0.402638 1.09928
-0.21796 -0.401183 1.09975
-0.21779 -0.399804 1.10044
-0.217549 -0.398335 1.10086
-0.217218 -0.396752 1.10096
-0.216926 -0.395218 1.10119
-0.216611 -0.393659 1.10135
-0.216255 -0.392047 1.10135
-0.215942 -0.390493 1.1015
-0.215697 -0.389025 1.10191
-0.215532 -0.387656 1.10262
-0.215447 -0.386384 1.10361
-0.215501 -0.385284 1.10513
-0.21565 -0.3843 1.10701
-0.215765 -0.383267 1.10876
-0.21592 -0.382282 1.11067
-0.216047 -0.381258 1.11247
-0.216035 -0.380065 1.11376
-0.215946 -0.378777 1.11476
-0.215869 -0.377502 1.11581
-0.215704 -0.376121 1.11653
-0.21554 -0.374742 1.11725
-0.215468 -0.37347 1.11832
-0.215423 -0.372228 1.11948
-0.215478 -0.371104 1.12104
-0.215635 -0.370094 1.12298
-0.215847 -0.369145 1.12514
-0.216014 -0.368141 1.12713
-0.216192 -0.367145 1.12916
-0.216321 -0.366088 1.13101
-0.216359 -0.364926 1.13253
-0.216299 -0.363647 1.13366
-0.216373 -0.362521 1.13531
-0.208199 -0.345796 1.12045
-0.206313 -0.34491 1.11173
-0.207764 -0.344588 1.11156
-0.20837 -0.344065 1.11524
-0.220049 -0.351752 1.16627
-0.221742 -0.352291 1.17432
-0.221958 -0.351251 1.1766
-0.221466 -0.349462 1.1761
-0.220897 -0.347598 1.1753
-0.220277 -0.345685 1.17429
-0.219538 -0.343652 1.17281
-0.218742 -0.341566 1.1711
-0.217892 -0.339433 1.16916
-0.217049 -0.337312 1.16724
-0.216265 -0.33526 1.16556
-0.215613 -0.333345 1.16439
-0.215042 -0.331518 1.16353
-0.21459 -0.329812 1.16315
-0.214217 -0.328189 1.16308
-0.2139 -0.326622 1.16323
-0.21366 -0.325131 1.16368
-0.21351 -0.323729 1.1645
-0.213364 -0.322329 1.16534
-0.213218 -0.320931 1.16617
-0.213236 -0.319687 1.16767
-0.213173 -0.318365 1.16884
-0.213092 -0.317023 1.16994
-0.213018 -0.315688 1.17107
-0.212937 -0.314345 1.17217
-0.21275 -0.312901 1.17285
-0.212629 -0.311519 1.17379
-0.212369 -0.310008 1.17417
-0.226722 -0.44184 1.09046
-0.22657 -0.440477 1.09122
-0.226469 -0.439188 1.09216
-0.226312 -0.437818 1.09291
-0.226065 -0.436323 1.09333
-0.225944 -0.435003 1.0942
-0.225787 -0.433633 1.09495
-0.225677 -0.432327 1.09586
-0.225681 -0.431177 1.09717
-0.225673 -0.430009 1.09845
-0.225581 -0.428723 1.09942
-0.225498 -0.42745 1.10044
-0.225228 -0.425923 1.10078
-0.224777 -0.424152 1.10048
-0.224266 -0.422303 1.09997
-0.223716 -0.420407 1.09931
-0.22315 -0.418492 1.0986
-0.22263 -0.416642 1.09804
-0.222176 -0.414883 1.09772
-0.221734 -0.413141 1.09743
-0.221372 -0.411507 1.09743
-0.22106 -0.409941 1.09762
-0.22077 -0.408404 1.09787
-0.220429 -0.406802 1.09794
-0.220134 -0.405259 1.09818
-0.219911 -0.403813 1.09868
-0.219682 -0.402357 1.09915
-0.2195 -0.400962 1.09979
-0.219334 -0.399588 1.1005
-0.219114 -0.398146 1.10101
-0.218805 -0.39659 1.10118
-0.218515 -0.395061 1.10143
-0.218223 -0.39353 1.10168
-0.21789 -0.391948 1.10176
-0.217577 -0.390394 1.10193
-0.217356 -0.388954 1.10243
-0.21719 -0.38758 1.10312
-0.217058 -0.386251 1.10395
-0.217112 -0.385146 1.10546
-0.217217 -0.384103 1.10717
-0.217261 -0.382982 1.10866
-0.217367 -0.381933 1.11037
-0.217467 -0.380875 1.11207
-0.217435 -0.379655 1.11328
-0.217371 -0.378395 1.11437
-0.217297 -0.377123 1.11543
-0.217129 -0.375738 1.11613
-0.216987 -0.374383 1.11693
-0.216915 -0.373111 1.118
-0.216853 -0.371848 1.1191
-0.216911 -0.370723 1.12066
-0.217066 -0.369708 1.12258
-0.217207 -0.368675 1.12447
-0.217327 -0.367613 1.12627
-0.217457 -0.366558 1.12811
-0.217517 -0.365422 1.12969
-0.21746 -0.364152 1.13084
-0.217365 -0.362834 1.13183
-0.217263 -0.36151 1.1328
-0.209164 -0.344211 1.11118
-0.209679 -0.343583 1.1145
-0.221654 -0.35022 1.16776
-0.22241 -0.349749 1.17213
-0.22247 -0.348544 1.17378
-0.222391 -0.347192 1.1749
-0.221769 -0.34528 1.1739
-0.221001 -0.343221 1.17232
-0.220197 -0.341133 1.17059
-0.219343 -0.338999 1.16865
-0.218519 -0.336905 1.16683
-0.217759 -0.334881 1.16526
-0.217134 -0.332996 1.1642
-0.216559 -0.331167 1.16334
-0.216082 -0.329438 1.16287
-0.215677 -0.327785 1.16268
-0.215335 -0.326194 1.16273
-0.215069 -0.324677 1.16308
-0.214945 -0.3233 1.16401
-0.214804 -0.321905 1.16486
-0.214665 -0.320512 1.16572
-0.214682 -0.319266 1.16721
-0.214619 -0.317942 1.16837
-0.214513 -0.316577 1.16937
-0.214413 -0.315216 1.1704
-0.214329 -0.313869 1.17148
-0.214138 -0.312422 1.17214
-0.214024 -0.311045 1.17311
-0.215678 -0.311279 1.18124
-0.228095 -0.442534 1.08857
-0.228085 -0.441372 1.08982
-0.228001 -0.440105 1.09082
-0.22798 -0.438925 1.09203
-0.227857 -0.437601 1.09289
-0.227682 -0.436205 1.09357
-0.227565 -0.434888 1.09445
-0.227437 -0.433557 1.0953
-0.227357 -0.43229 1.09632
-0.227386 -0.431169 1.09772
-0.227354 -0.429965 1.0989
-0.227257 -0.428671 1.09986
-0.227196 -0.427424 1.10095
-0.226904 -0.425867 1.10122
-0.226449 -0.424092 1.10092
-0.22591 -0.422209 1.10031
-0.2253 -0.420235 1.09946
-0.224678 -0.418248 1.09855
-0.224151 -0.416391 1.09797
-0.223677 -0.414607 1.09759
-0.223232 -0.412865 1.0973
-0.222892 -0.41126 1.09738
-0.222579 -0.409693 1.09757
-0.222245 -0.4081 1.09767
-0.221902 -0.406495 1.09774
-0.221621 -0.404971 1.09802
-0.22142 -0.403552 1.0986
-0.22122 -0.402133 1.09918
-0.221089 -0.400804 1.10002
-0.220945 -0.399456 1.1008
-0.220726 -0.398013 1.10131
-0.220414 -0.396454 1.10148
-0.220148 -0.394953 1.10182
-0.219861 -0.393428 1.10208
-0.219529 -0.391848 1.10218
-0.219215 -0.390291 1.10234
-0.218989 -0.388843 1.10283
-0.218777 -0.387415 1.10336
-0.218625 -0.386057 1.10411
