ply
format ascii 1.0
element vertex 1704
property float x
property float y
property float z
end_header
0.260399 -0.0971835 0.897211
0.259666 -0.0984405 0.898829
0.258925 -0.0996995 0.900432
0.258134 -0.100945 0.901864
0.257363 -0.102201 0.903381
0.25662 -0.103472 0.905011
0.281506 -0.0645672 0.854629
0.280493 -0.065661 0.855066
0.279345 -0.0667268 0.855076
0.278148 -0.0677809 0.854929
0.276995 -0.0688435 0.854917
0.275888 -0.0699155 0.855053
0.274658 -0.0709587 0.854788
0.273595 -0.07204 0.855061
0.272562 -0.0731286 0.855433
0.271641 -0.0742457 0.856165
0.270857 -0.0753989 0.857355
0.270087 -0.0765583 0.858598
0.269292 -0.077714 0.859767
0.26856 -0.0788895 0.861151
0.267876 -0.0800818 0.862705
0.267182 -0.0812755 0.864236
0.266608 -0.0825069 0.86618
0.26616 -0.0837806 0.868568
0.265851 -0.0851018 0.871444
0.265608 -0.0864512 0.874563
0.2654 -0.0878204 0.877832
0.265293 -0.0892307 0.881474
0.265155 -0.0906416 0.885036
0.2648 -0.0919937 0.887878
0.26426 -0.0932933 0.890098
0.263635 -0.0945701 0.892042
0.262869 -0.095805 0.893499
0.262061 -0.0970289 0.894824
0.26128 -0.0982656 0.896254
0.260549 -0.0995246 0.897872
0.259783 -0.100775 0.899376
0.258964 -0.10201 0.9007
0.25814 -0.103247 0.902018
0.257366 -0.104505 0.903526
0.281455 -0.0654349 0.850935
0.280582 -0.0665545 0.851796
0.27959 -0.0676499 0.852287
0.278427 -0.0687075 0.852244
0.277333 -0.0697803 0.852412
0.276258 -0.0708567 0.852642
0.275083 -0.0719096 0.85255
0.274051 -0.0729964 0.852915
0.273024 -0.0740838 0.853299
0.272107 -0.0751998 0.854038
0.271326 -0.0763521 0.855225
0.270563 -0.0775122 0.856477
0.269798 -0.0786746 0.857737
0.2691 -0.0798583 0.859219
0.268448 -0.0810586 0.860868
0.267786 -0.0822603 0.862497
0.267241 -0.0834997 0.86453
0.26683 -0.0847845 0.867025
0.266632 -0.0861398 0.87026
0.26645 -0.0875095 0.873572
0.266305 -0.0888997 0.877041
0.266255 -0.0903306 0.880859
0.266147 -0.0917547 0.884512
0.265769 -0.0931016 0.887266
0.265206 -0.0943943 0.889397
0.264553 -0.0956638 0.891234
0.263756 -0.0968882 0.89258
0.262918 -0.0981026 0.893793
0.262115 -0.0993321 0.895138
0.261359 -0.100582 0.896658
0.260567 -0.101823 0.89806
0.259743 -0.103055 0.899361
0.258896 -0.104283 0.900586
0.258071 -0.105522 0.901903
0.282747 -0.0652804 0.847881
0.281739 -0.0663678 0.848306
0.280884 -0.0674887 0.849218
0.279929 -0.0685889 0.849815
0.278826 -0.0696577 0.849949
0.277766 -0.0707353 0.85022
0.276719 -0.0718162 0.850533
0.275573 -0.0728729 0.850529
0.274542 -0.0739575 0.850891
0.273518 -0.0750445 0.851277
0.272577 -0.0761521 0.851934
0.271826 -0.0773107 0.853207
0.27109 -0.078477 0.854539
0.270363 -0.0796483 0.855908
0.269698 -0.0808403 0.857495
0.269102 -0.0820553 0.859315
0.268444 -0.0832579 0.860946
0.267928 -0.0845066 0.863063
0.267549 -0.0858013 0.865654
0.26744 -0.087185 0.869171
0.267352 -0.0885851 0.872788
0.267327 -0.0900156 0.876648
0.267315 -0.0914624 0.880583
0.267236 -0.092899 0.884321
0.266825 -0.0942375 0.886951
0.26623 -0.0955225 0.888967
0.265498 -0.096766 0.890521
0.264673 -0.0979817 0.891769
0.263808 -0.0991867 0.89288
0.263002 -0.100415 0.894207
0.262221 -0.101657 0.895634
0.261455 -0.102907 0.897124
0.260633 -0.104141 0.898423
0.259785 -0.105368 0.899639
0.258934 -0.106598 0.900854
0.257355 -0.106807 0.90362
0.258159 -0.10786 0.902353
0.284263 -0.0651739 0.84555
0.283286 -0.0662652 0.846068
0.282243 -0.0673435 0.846379
0.28137 -0.0684593 0.847224
0.280396 -0.0695535 0.847759
0.279319 -0.0706257 0.847968
0.278262 -0.0717019 0.848244
0.277224 -0.0727826 0.848577
0.276083 -0.0738386 0.848586
0.275078 -0.0749274 0.849023
0.274081 -0.0760194 0.849488
0.273138 -0.0771254 0.850132
0.272387 -0.0782827 0.851397
0.271677 -0.0794547 0.852806
0.270955 -0.0806267 0.854182
0.270323 -0.0818275 0.855864
0.269737 -0.0830457 0.857706
0.269101 -0.0842546 0.859402
0.268584 -0.0855022 0.861503
0.268258 -0.0868135 0.864257
0.268271 -0.0882355 0.868163
0.268341 -0.0896875 0.872295
0.268447 -0.0911627 0.876584
0.268524 -0.092642 0.880807
0.268439 -0.0940811 0.884514
0.267941 -0.0953938 0.886838
0.267284 -0.0966601 0.888636
0.266494 -0.0978855 0.889989
0.265645 -0.0990939 0.891144
0.264749 -0.100289 0.892145
0.263917 -0.101509 0.893377
0.263106 -0.10274 0.894692
0.262343 -0.103992 0.896187
0.261525 -0.105228 0.897496
0.260679 -0.106456 0.898714
0.259856 -0.107696 0.900021
0.259053 -0.108948 0.901413
0.2594 -0.109932 0.911178
0.258201 -0.110184 0.902637
0.286025 -0.0651187 0.843994
0.285052 -0.0662099 0.844517
0.284021 -0.0672897 0.844865
0.282934 -0.0683573 0.84504
0.28203 -0.0694652 0.845784
0.28103 -0.0705528 0.84623
0.279957 -0.0716247 0.846451
0.278902 -0.0726997 0.846726
0.277866 -0.0737802 0.847064
0.276728 -0.0748352 0.847077
0.275699 -0.0759166 0.847437
0.274727 -0.0770135 0.847978
0.273786 -0.078119 0.848621
0.273009 -0.0792688 0.849797
0.272298 -0.08044 0.851188
0.271601 -0.0816188 0.85264
0.270949 -0.0828132 0.854244
0.27034 -0.0840248 0.856005
0.269703 -0.0852324 0.857686
0.269234 -0.0864948 0.85993
0.269019 -0.0878399 0.863037
0.269214 -0.0893202 0.867533
0.269474 -0.0908352 0.872284
0.26976 -0.0923724 0.877163
0.269877 -0.0938695 0.88151
0.269734 -0.0952946 0.885013
0.269115 -0.0965708 0.886917
0.268367 -0.0978083 0.888401
0.26752 -0.0990158 0.889557
0.266645 -0.100216 0.890622
0.265723 -0.101402 0.891528
0.26486 -0.102612 0.892649
0.264044 -0.103842 0.89394
0.263258 -0.105086 0.895346
0.262447 -0.106325 0.896674
0.261635 -0.107566 0.898008
0.260838 -0.108817 0.899406
0.260011 -0.110061 0.900705
0.259131 -0.111286 0.901828
0.259447 -0.11228 0.911485
0.258276 -0.112524 0.903041
0.285865 -0.0672506 0.84356
0.284816 -0.0683261 0.843853
0.283692 -0.0693848 0.843913
0.282749 -0.0704834 0.844533
0.281727 -0.0715651 0.844909
0.280679 -0.0726414 0.845204
0.27962 -0.0737147 0.845466
0.278586 -0.0747944 0.845805
0.277474 -0.0758544 0.845897
0.276446 -0.0769356 0.84626
0.275451 -0.0780255 0.846723
0.274489 -0.079125 0.847291
0.27366 -0.0802609 0.848291
0.272894 -0.0814164 0.849504
0.27219 -0.0825922 0.850919
0.271539 -0.0837867 0.852518
0.27088 -0.0849834 0.854102
0.270219 -0.086183 0.855693
0.269771 -0.0874514 0.857993
0.269647 -0.0888247 0.861384
0.270059 -0.0903748 0.866579
0.270572 -0.0919727 0.872149
0.271049 -0.0935762 0.877648
0.271242 -0.0951036 0.882242
0.271059 -0.0965204 0.8856
0.270292 -0.0977499 0.887007
0.269427 -0.0989494 0.888087
0.268524 -0.100138 0.889046
0.267623 -0.101331 0.890019
0.266678 -0.102509 0.890846
0.265782 -0.103707 0.891847
0.264961 -0.104935 0.893115
0.264172 -0.10618 0.894506
0.263395 -0.107432 0.89595
0.262645 -0.108698 0.897496
0.261882 -0.109964 0.89901
0.261082 -0.111219 0.900404
0.260203 -0.112446 0.901523
0.259321 -0.113674 0.90264
0.259485 -0.114628 0.911759
0.258409 -0.114893 0.903655
0.287789 -0.0672286 0.842506
0.28671 -0.0682969 0.842708
0.285645 -0.0693685 0.842947
0.284502 -0.0704221 0.842951
0.283532 -0.0715148 0.843482
0.28251 -0.072596 0.843854
0.281461 -0.0736713 0.844147
0.280403 -0.0747442 0.844406
0.279341 -0.0758162 0.844656
0.2782 -0.0768682 0.84466
0.277171 -0.077948 0.845011
0.276176 -0.0790372 0.845471
0.275188 -0.0801289 0.845957
0.27436 -0.0812641 0.846955
0.273589 -0.0824185 0.848142
0.272826 -0.0835773 0.849361
0.272146 -0.0847631 0.85086
0.271459 -0.0859508 0.852341
0.270746 -0.0871347 0.85375
0.270299 -0.0884028 0.856043
0.270426 -0.0898545 0.860235
0.271049 -0.0914738 0.866103
0.271767 -0.0931421 0.872335
0.272449 -0.0948178 0.878501
0.272717 -0.0963762 0.883327
0.272364 -0.0977417 0.886111
0.27147 -0.0989304 0.887088
0.270538 -0.100109 0.887942
0.269581 -0.10128 0.888717
0.268656 -0.102465 0.889606
0.267713 -0.103644 0.890437
0.266785 -0.104832 0.891327
0.265932 -0.106049 0.892483
0.265142 -0.107294 0.893862
0.264398 -0.10856 0.895416
0.263685 -0.109841 0.897087
0.262981 -0.111133 0.898805
0.262213 -0.112402 0.900307
0.261334 -0.11363 0.901425
0.260427 -0.11485 0.902453
0.25949 -0.116059 0.903379
0.259627 -0.117023 0.912411
0.258543 -0.117266 0.904274
0.288665 -0.068282 0.841749
0.287568 -0.0693462 0.841894
0.28649 -0.0704141 0.842093
0.285348 -0.0714676 0.842098
0.284347 -0.0725526 0.842533
0.28327 -0.0736209 0.842736
0.28219 -0.0746874 0.84293
0.281107 -0.0757532 0.843109
0.279991 -0.0768105 0.84319
0.278824 -0.0778542 0.843107
0.277791 -0.0789315 0.843442
0.276819 -0.0800255 0.843974
0.275859 -0.0811233 0.844542
0.275032 -0.0822588 0.845534
0.274258 -0.0834117 0.846703
0.273466 -0.0845618 0.847823
0.272755 -0.0857385 0.84921
0.271993 -0.0869036 0.850443
0.271223 -0.0880691 0.851655
0.270744 -0.0893265 0.853829
0.270835 -0.0907679 0.85788
0.271666 -0.0924556 0.864403
0.272617 -0.0942016 0.871373
0.273525 -0.0959562 0.878259
0.273911 -0.0975585 0.883467
0.273688 -0.0989707 0.886677
0.272647 -0.100112 0.887161
0.271627 -0.101261 0.887719
0.270638 -0.102422 0.888384
0.269688 -0.103599 0.889186
0.268718 -0.104769 0.889927
0.267789 -0.105957 0.89081
0.266934 -0.107175 0.891952
0.266119 -0.10841 0.89324
0.265405 -0.109689 0.894895
0.264725 -0.110986 0.896676
0.26403 -0.112281 0.898421
0.263262 -0.113552 0.899921
0.262408 -0.114792 0.901125
0.261503 -0.116014 0.902156
0.260565 -0.117223 0.903076
0.259591 -0.11842 0.903875
0.257539 -0.118451 0.904972
0.258555 -0.119592 0.904453
0.289623 -0.0693521 0.841238
0.288525 -0.0704164 0.84138
0.287443 -0.0714838 0.841567
0.286249 -0.0725252 0.841418
0.285217 -0.0736031 0.841756
0.284107 -0.0746625 0.841857
0.282997 -0.0757216 0.841954
0.281884 -0.0767792 0.842046
0.28074 -0.0778285 0.842037
0.279568 -0.0788696 0.841939
0.278505 -0.0799385 0.842177
0.277509 -0.0810251 0.842625
0.276553 -0.0821233 0.843204
0.27573 -0.0832595 0.844204
0.274908 -0.0843981 0.845213
0.274114 -0.0855466 0.846318
0.273374 -0.0867147 0.847604
0.272556 -0.0878621 0.848648
0.271729 -0.0890093 0.84967
0.271192 -0.0902483 0.851637
0.271535 -0.0917699 0.856492
0.272558 -0.0935226 0.863613
0.273726 -0.0953451 0.871269
0.274817 -0.097166 0.878734
0.275362 -0.0988278 0.88445
0.274962 -0.100185 0.887066
0.273854 -0.101305 0.887328
0.272773 -0.102434 0.887686
0.271728 -0.103577 0.888163
0.270752 -0.104745 0.888874
0.269749 -0.105904 0.889498
0.268793 -0.107082 0.89029
0.267913 -0.108291 0.891341
0.267099 -0.109529 0.892632
0.266415 -0.11082 0.894382
0.265764 -0.11213 0.89626
0.265072 -0.113428 0.898009
0.264305 -0.114701 0.899506
0.263473 -0.115951 0.900788
0.262541 -0.117162 0.90172
0.261578 -0.118362 0.902551
0.260604 -0.119559 0.903347
0.259566 -0.12073 0.903918
0.259595 -0.121687 0.912569
0.258449 -0.121866 0.904205
0.290505 -0.0704061 0.840497
0.28942 -0.0714728 0.84068
0.288346 -0.0725418 0.840893
0.287151 -0.0735824 0.840737
0.286087 -0.074653 0.840979
0.284941 -0.0757029 0.840971
0.283801 -0.0767541 0.840977
0.28263 -0.0777963 0.840888
0.281455 -0.0788363 0.84078
0.280252 -0.0798683 0.840584
0.279161 -0.0809283 0.840734
0.278144 -0.0820083 0.841113
0.277192 -0.0831064 0.841697
0.276402 -0.0842504 0.842796
0.275583 -0.0853899 0.84381
0.274788 -0.0865379 0.844906
0.274023 -0.0876978 0.846104
0.273174 -0.0888349 0.847042
0.272266 -0.0899564 0.847793
0.271535 -0.0911349 0.849121
0.272116 -0.0927321 0.854722
0.273299 -0.0945411 0.862331
0.274624 -0.0964202 0.870467
0.27591 -0.0983124 0.878543
0.276717 -0.100068 0.885104
0.276151 -0.101372 0.887161
0.275012 -0.102482 0.887325
0.273905 -0.103603 0.887597
0.272827 -0.104735 0.887966
0.271815 -0.105891 0.888558
0.270781 -0.107039 0.889077
0.269822 -0.108218 0.889856
0.268917 -0.109418 0.890823
0.268108 -0.110658 0.892126
0.267449 -0.111961 0.893953
0.266799 -0.113272 0.895827
0.266082 -0.114562 0.897486
0.265312 -0.115834 0.898969
0.264452 -0.117074 0.900145
0.263489 -0.118272 0.900966
0.262529 -0.119474 0.901806
0.261559 -0.120673 0.902611
0.260526 -0.121846 0.903198
0.259435 -0.122994 0.903578
0.259462 -0.12397 0.912226
0.258318 -0.12413 0.903865
0.291394 -0.0714617 0.839779
0.290318 -0.0725303 0.839985
0.289251 -0.0736002 0.840221
0.288052 -0.0746393 0.840057
0.286985 -0.0757089 0.840291
0.285809 -0.0767518 0.84019
0.284639 -0.0777943 0.840104
0.28341 -0.0788214 0.839836
0.282201 -0.0798516 0.839628
0.280941 -0.0808669 0.839253
0.279821 -0.081918 0.839312
0.278805 -0.0829967 0.839688
0.277882 -0.0841013 0.84036
0.277121 -0.0852541 0.841541
0.276334 -0.0864019 0.84265
0.275542 -0.0875509 0.843751
0.27472 -0.0886933 0.844761
0.27384 -0.0898207 0.845596
0.272848 -0.0909154 0.846073
0.271927 -0.0920331 0.84678
0.272787 -0.0937217 0.853252
0.274112 -0.0955816 0.861288
0.275607 -0.097523 0.869943
0.277016 -0.099463 0.878392
0.278046 -0.101301 0.885663
0.277278 -0.102539 0.887052
0.276143 -0.103651 0.887231
0.275034 -0.104773 0.887497
0.273931 -0.105896 0.887782
0.272885 -0.10704 0.888261
0.271815 -0.108176 0.888658
0.270826 -0.109344 0.889332
0.269868 -0.110524 0.890117
0.269029 -0.111753 0.891315
0.268371 -0.113057 0.893138
0.267723 -0.11437 0.89501
0.26701 -0.115662 0.896673
0.26624 -0.116936 0.898155
0.265376 -0.118173 0.899311
0.264409 -0.11937 0.900115
0.263451 -0.120572 0.900955
0.262485 -0.121774 0.901776
0.261484 -0.12296 0.902472
0.260421 -0.124121 0.90295
0.259304 -0.125257 0.903238
0.292268 -0.0725135 0.839021
0.291208 -0.0735852 0.839276
0.290124 -0.0746514 0.839458
0.288899 -0.0756831 0.839216
0.28783 -0.0767516 0.839441
0.286625 -0.0777868 0.839253
0.285428 -0.0788217 0.839087
0.284169 -0.0798394 0.838728
0.282958 -0.0808684 0.838509
0.281689 -0.0818797 0.838112
0.280544 -0.0829227 0.83809
0.279523 -0.0839996 0.838449
0.278625 -0.0851105 0.839195
0.277843 -0.0862572 0.840304
0.277032 -0.0873975 0.84133
0.276268 -0.0885544 0.842512
0.275418 -0.0896884 0.843428
0.274483 -0.0907979 0.844083
0.273458 -0.0918811 0.844449
0.272393 -0.0929517 0.844689
0.273388 -0.0946868 0.851562
0.274826 -0.0965887 0.859926
0.276507 -0.0985986 0.869151
0.278015 -0.100579 0.877885
0.27925 -0.102493 0.885798
0.278398 -0.103704 0.88691
0.277264 -0.104817 0.887095
0.276104 -0.105921 0.887196
0.274999 -0.107044 0.887478
0.273922 -0.108178 0.88785
0.272821 -0.109302 0.888144
0.271801 -0.110458 0.888715
0.27084 -0.111638 0.889485
0.269975 -0.112857 0.890587
0.269285 -0.114149 0.892298
0.268636 -0.115464 0.89416
0.267928 -0.116758 0.895833
0.26714 -0.118025 0.897241
0.266275 -0.119262 0.898393
0.265331 -0.120469 0.899271
0.26437 -0.121669 0.900099
0.263412 -0.122874 0.900942
0.262441 -0.124075 0.901743
0.261459 -0.125272 0.902508
0.260371 -0.126423 0.902902
0.293187 -0.0735753 0.838394
0.29213 -0.0746477 0.838658
0.29102 -0.0757071 0.838763
0.289795 -0.0767387 0.838521
0.288697 -0.0777999 0.83866
0.28749 -0.0788334 0.838468
0.286267 -0.079861 0.838225
0.285009 -0.0808784 0.837867
0.28377 -0.0818985 0.837565
0.282498 -0.0829081 0.83716
0.281299 -0.0839351 0.836971
0.280249 -0.0850028 0.83724
0.279324 -0.0861065 0.837895
0.278513 -0.0872437 0.838911
0.277677 -0.0883764 0.839852
0.276914 -0.0895328 0.841028
0.276037 -0.0906574 0.841854
0.275101 -0.0917659 0.842495
0.274046 -0.0928379 0.842764
0.272871 -0.0938715 0.842648
0.274294 -0.095749 0.850864
0.275852 -0.0976978 0.859581
0.277631 -0.0997488 0.869083
0.27923 -0.101768 0.878082
0.280629 -0.103748 0.8865
0.279405 -0.10483 0.886396
0.278297 -0.105953 0.88667
0.277164 -0.107066 0.886858
0.276059 -0.10819 0.887142
0.274955 -0.109314 0.887426
0.27385 -0.110438 0.88771
0.272775 -0.111573 0.88809
0.271757 -0.112731 0.888669
0.270857 -0.113936 0.889648
0.270137 -0.115217 0.891247
0.269489 -0.116532 0.893104
0.268815 -0.117841 0.894887
0.268062 -0.119122 0.896408
0.267202 -0.120362 0.897571
0.266283 -0.12158 0.898536
0.265321 -0.122781 0.899357
0.264365 -0.123986 0.900205
0.263424 -0.125201 0.90111
0.262528 -0.126438 0.902179
0.261475 -0.127605 0.902697
0.294061 -0.0746265 0.837633
0.292981 -0.0756931 0.83783
0.291857 -0.0767489 0.837892
0.290632 -0.0777796 0.837654
0.2895 -0.0788315 0.837689
0.288295 -0.0798641 0.837503
0.287097 -0.0808975 0.837336
0.285846 -0.0819155 0.837004
0.284633 -0.0829416 0.836781
0.283363 -0.0839513 0.836382
0.282135 -0.0849696 0.836103
0.281057 -0.0860287 0.836288
0.280102 -0.0871235 0.836847
0.279235 -0.0882446 0.837682
0.278367 -0.0893671 0.838518
0.277572 -0.0905133 0.839591
0.276672 -0.0916303 0.840336
0.27574 -0.0927383 0.840988
0.274688 -0.09381 0.841258
0.273485 -0.0948324 0.841052
0.274441 -0.0965626 0.847738
0.281087 -0.104682 0.884199
0.280382 -0.105945 0.885781
0.279246 -0.107058 0.885963
0.278082 -0.10816 0.886051
0.276975 -0.109283 0.886326
0.275871 -0.110406 0.88661
0.274769 -0.111531 0.886903
0.27372 -0.112676 0.887374
0.272728 -0.113844 0.888034
0.271799 -0.115039 0.888911
0.271051 -0.116309 0.890407
0.270397 -0.117622 0.892242
0.269725 -0.118933 0.894022
0.268982 -0.120219 0.895571
0.268129 -0.121462 0.896753
0.267238 -0.122692 0.897811
0.266276 -0.123894 0.898629
0.265322 -0.1251 0.89948
0.264412 -0.126329 0.90049
0.263604 -0.127607 0.901867
0.262615 -0.128805 0.902612
0.294984 -0.0756887 0.837021
0.293866 -0.0767461 0.837103
0.292706 -0.077793 0.837059
0.291479 -0.0788221 0.836819
0.290331 -0.0798694 0.836804
0.289126 -0.0809012 0.83662
0.287959 -0.081942 0.836545
0.286765 -0.0829742 0.836386
0.285555 -0.0840008 0.836174
0.284316 -0.0850179 0.835872
0.283082 -0.0860341 0.835581
0.281977 -0.0870861 0.83568
0.280987 -0.0881703 0.836131
0.280087 -0.0892821 0.836862
0.27916 -0.0903869 0.837513
0.278335 -0.0915246 0.838485
0.277436 -0.0926413 0.839229
0.276455 -0.0937334 0.839721
0.275382 -0.0947969 0.839926
0.274185 -0.0958201 0.839736
0.274572 -0.0973658 0.844583
0.281462 -0.105584 0.881644
0.281355 -0.10706 0.885155
0.280218 -0.108172 0.885332
0.279051 -0.109273 0.885414
0.277942 -0.110395 0.885682
0.276865 -0.111529 0.886055
0.275795 -0.112666 0.886453
0.274725 -0.113803 0.886853
0.273734 -0.114972 0.887517
0.272775 -0.116155 0.888292
0.271967 -0.117401 0.889581
0.271263 -0.118695 0.891234
0.270616 -0.120017 0.893092
0.269876 -0.121305 0.894646
0.269054 -0.122561 0.895931
0.268195 -0.123805 0.897094
0.26726 -0.125018 0.898003
0.266333 -0.126238 0.898945
0.265481 -0.127494 0.900156
0.264737 -0.128803 0.901755
0.263815 -0.130033 0.902737
0.295793 -0.0780508 0.839436
0.293554 -0.0788358 0.836228
0.292338 -0.0798671 0.836018
0.291166 -0.0809079 0.835935
0.289962 -0.0819396 0.835752
0.288829 -0.0829877 0.835781
0.287693 -0.0840352 0.835798
0.286492 -0.0850636 0.835616
0.285279 -0.0860872 0.835393
0.284046 -0.0871038 0.835107
0.282907 -0.0881458 0.835101
0.28186 -0.0892137 0.835381
0.280902 -0.0903081 0.835927
0.279917 -0.0913956 0.836395
0.279034 -0.0925148 0.837185
0.278103 -0.0936208 0.837827
0.277097 -0.0947042 0.838237
0.276051 -0.0957747 0.838521
0.274884 -0.0968061 0.838424
0.274712 -0.0981679 0.841479
0.28125 -0.106276 0.877213
0.281803 -0.107985 0.882831
0.28119 -0.109286 0.884703
0.280051 -0.110397 0.884875
0.278967 -0.111528 0.885228
0.277923 -0.112675 0.885708
0.276888 -0.113826 0.886223
0.275849 -0.114977 0.886726
0.274859 -0.116147 0.887395
0.273872 -0.11732 0.888076
0.273008 -0.118545 0.889177
0.27224 -0.119813 0.890607
0.271562 -0.121123 0.892352
0.270795 -0.1224 0.893809
0.269979 -0.12366 0.895106
0.26915 -0.124917 0.896371
0.268271 -0.126156 0.897468
0.267375 -0.12739 0.898517
0.266611 -0.128688 0.900033
0.265956 -0.13004 0.901941
0.265122 -0.131314 0.903232
0.296107 -0.0803031 0.840398
0.293896 -0.081089 0.837282
0.292036 -0.081955 0.835172
0.290865 -0.0829944 0.835087
0.289761 -0.0840504 0.835201
0.288655 -0.0851054 0.835308
0.287459 -0.086135 0.835144
0.28625 -0.08716 0.834937
0.285014 -0.0881753 0.834643
0.283841 -0.0892067 0.834539
0.282738 -0.0902583 0.834646
0.28175 -0.0913438 0.835099
0.280737 -0.0924221 0.835481
0.279799 -0.0935242 0.836094
0.278833 -0.0946188 0.836626
0.277794 -0.0956903 0.836928
0.276718 -0.0967505 0.837118
0.275549 -0.0977791 0.837011
0.27483 -0.0989581 0.838323
0.275736 -0.099945 0.848361
0.275283 -0.100541 0.843358
0.28096 -0.106932 0.872561
0.282181 -0.108882 0.880293
0.282137 -0.11039 0.883996
0.281058 -0.111524 0.88436
0.280011 -0.112669 0.884831
0.279001 -0.11383 0.885426
0.277997 -0.114994 0.886042
0.276989 -0.116157 0.886648
0.275971 -0.117317 0.887225
0.274949 -0.118477 0.887791
0.274051 -0.11969 0.888775
0.27322 -0.120933 0.889991
0.272483 -0.122219 0.89153
0.271709 -0.123493 0.892958
0.270898 -0.124755 0.894267
0.270075 -0.126016 0.895546
0.269257 -0.127283 0.89685
0.268448 -0.128557 0.898193
0.267778 -0.129899 0.90003
0.267165 -0.131273 0.902081
0.26639 -0.132578 0.90358
0.296173 -0.0824985 0.840636
0.293546 -0.0831683 0.836291
0.291743 -0.0840425 0.834348
0.290722 -0.0851208 0.83471
0.289672 -0.0861908 0.834984
0.288528 -0.087235 0.83498
0.287297 -0.0882537 0.834707
0.286084 -0.0892758 0.834488
0.284881 -0.0902993 0.834295
0.283745 -0.091341 0.834303
0.282701 -0.0924107 0.834588
0.28163 -0.093471 0.834793
0.280608 -0.0945471 0.835143
0.279584 -0.0956226 0.835493
0.278482 -0.0966731 0.835598
0.277376 -0.0977218 0.835691
0.276235 -0.0987581 0.835671
0.27501 -0.0997651 0.835385
0.274895 -0.101152 0.838598
0.281386 -0.109346 0.874007
0.281994 -0.11109 0.879771
0.281516 -0.112443 0.882068
0.281031 -0.113801 0.884357
0.280086 -0.114988 0.885165
0.279113 -0.116165 0.885883
0.278128 -0.117338 0.886565
0.277104 -0.118497 0.887125
0.276054 -0.119647 0.887596
0.275094 -0.120835 0.888372
0.274199 -0.122052 0.88937
0.273398 -0.123311 0.890691
0.272595 -0.124574 0.892014
0.271788 -0.125838 0.893329
0.270997 -0.127113 0.894714
0.270242 -0.128409 0.896228
0.269525 -0.129725 0.897881
0.268925 -0.131102 0.899956
0.268349 -0.132496 0.90213
0.26766 -0.133843 0.903926
0.31608 -0.0819154 0.884808
0.321414 -0.082671 0.893167
0.318731 -0.0834427 0.888978
0.314497 -0.0838199 0.880275
0.298629 -0.0839624 0.844486
0.295188 -0.0844201 0.837789
0.292728 -0.0851188 0.833927
0.291712 -0.0861988 0.834301
0.290687 -0.0872766 0.83465
0.289543 -0.088321 0.834649
0.288285 -0.0893315 0.834303
0.287072 -0.0903535 0.834086
0.285866 -0.091376 0.833882
0.284671 -0.0924003 0.833713
0.283567 -0.0934505 0.833817
0.282464 -0.0945011 0.833921
0.281382 -0.0955577 0.834089
0.2803 -0.0966137 0.834256
0.279167 -0.0976528 0.834263
0.278033 -0.0986909 0.834266
0.276892 -0.0997256 0.834246
0.275726 -0.100751 0.834145
0.275102 -0.101964 0.835743
0.279816 -0.114073 0.876649
0.279479 -0.115485 0.8794
0.279143 -0.116906 0.882174
0.278744 -0.11831 0.884762
0.278257 -0.119687 0.887082
0.277178 -0.120825 0.887461
0.276187 -0.122001 0.888136
0.275235 -0.123195 0.88894
0.274397 -0.12444 0.890133
0.273565 -0.12569 0.891353
0.272757 -0.126955 0.892662
0.271978 -0.128236 0.89408
0.271309 -0.129571 0.895884
0.270656 -0.13092 0.897755
0.27012 -0.132328 0.900044
0.269583 -0.133743 0.902346
0.26895 -0.13512 0.904333
0.324018 -0.0827749 0.893615
0.322323 -0.0837877 0.892288
0.319882 -0.0846138 0.88881
0.296912 -0.0856973 0.839508
0.29369 -0.0861895 0.833433
0.292678 -0.0872708 0.833823
0.291649 -0.0883475 0.834161
0.290532 -0.0893996 0.834238
0.289247 -0.0904019 0.833813
0.288038 -0.091425 0.83361
0.286825 -0.0924454 0.833394
0.285571 -0.0934513 0.833047
0.284378 -0.0944738 0.832879
0.283238 -0.0955123 0.832871
0.282098 -0.096549 0.832859
0.280958 -0.0975855 0.832848
0.27985 -0.0986314 0.832931
0.278743 -0.099677 0.833016
0.277638 -0.100723 0.833104
0.276533 -0.101768 0.833191
0.27543 -0.102813 0.833285
0.275741 -0.103625 0.841339
0.275472 -0.104264 0.836972
0.278607 -0.11587 0.872818
0.278998 -0.117573 0.877921
0.27931 -0.11926 0.882806
0.27944 -0.120889 0.887133
0.278335 -0.122018 0.887429
0.277317 -0.123184 0.888014
0.276333 -0.124365 0.888712
0.275434 -0.125585 0.889699
0.274573 -0.126824 0.89082
0.273767 -0.12809 0.892133
0.272993 -0.129375 0.893563
0.272383 -0.130739 0.895563
0.271765 -0.132105 0.897545
0.27126 -0.13353 0.899934
0.270726 -0.134949 0.902241
0.270149 -0.136354 0.904414
0.327333 -0.0807173 0.896023
0.328724 -0.0796224 0.89646
0.329851 -0.0807947 0.896177
0.328426 -0.0818817 0.89565
0.325695 -0.0817527 0.894883
0.326729 -0.0829022 0.894349
0.32501 -0.0839131 0.89297
0.323228 -0.0849032 0.891402
0.321526 -0.0859072 0.890049
0.316773 -0.0852623 0.88338
0.319139 -0.0867344 0.886719
0.295289 -0.0874349 0.834806
0.293642 -0.0883423 0.833335
0.29261 -0.0894186 0.833666
0.291518 -0.0904778 0.83382
0.290233 -0.0914802 0.833398
0.289027 -0.0925038 0.833207
0.287814 -0.0935234 0.832989
0.286525 -0.0945186 0.832542
0.285267 -0.0955209 0.832182
0.284064 -0.0965384 0.831982
0.282892 -0.0975646 0.831874
0.281729 -0.0985923 0.831789
0.280624 -0.0996385 0.831882
0.279522 -0.100685 0.831979
0.278446 -0.10174 0.832159
0.277372 -0.102795 0.832342
0.276301 -0.10385 0.832532
0.275793 -0.105107 0.834486
0.275609 -0.105761 0.840993
0.275323 -0.106384 0.836573
0.279136 -0.119907 0.878454
0.279982 -0.121828 0.885088
0.279475 -0.123204 0.887337
0.278432 -0.124361 0.88784
0.277415 -0.125529 0.888433
0.276485 -0.126736 0.889314
0.275617 -0.127974 0.890409
0.274817 -0.129244 0.891739
0.274072 -0.130543 0.893262
0.273498 -0.131925 0.895375
0.27293 -0.133316 0.897525
0.272404 -0.134734 0.899835
0.271839 -0.13614 0.902026
0.27126 -0.137547 0.904189
0.332367 -0.0808707 0.89631
0.330787 -0.0819241 0.895363
0.329334 -0.0830037 0.894758
0.327651 -0.0840254 0.893501
0.325896 -0.0850259 0.892027
0.324045 -0.0859969 0.890267
0.322287 -0.0869847 0.888759
0.320506 -0.0879607 0.887169
0.315185 -0.0871497 0.878849
0.317396 -0.0885881 0.881756
0.297656 -0.0888962 0.838397
0.295269 -0.0896009 0.834789
0.293683 -0.0905218 0.833499
0.29259 -0.0915814 0.833652
0.291306 -0.0925839 0.833237
0.290073 -0.0935996 0.832969
0.28883 -0.0946104 0.832666
0.287481 -0.0955866 0.832043
0.286161 -0.096569 0.831498
0.284897 -0.0975667 0.831118
0.283697 -0.098583 0.830925
0.282509 -0.0996016 0.830764
0.281434 -0.100657 0.830947
0.280362 -0.101713 0.831137
0.279316 -0.102777 0.831406
0.27827 -0.103842 0.831675
0.277224 -0.104906 0.831944
0.276178 -0.10597 0.832213
0.275132 -0.107035 0.832482
0.275358 -0.107853 0.840269
0.274513 -0.108258 0.834095
0.275424 -0.109345 0.844092
0.273922 -0.109496 0.835806
0.280276 -0.122661 0.882246
0.280413 -0.124306 0.886584
0.279371 -0.125463 0.887085
0.278382 -0.126644 0.887768
0.277506 -0.127875 0.888826
0.276692 -0.129137 0.890098
0.275898 -0.130411 0.891441
0.275183 -0.131726 0.893065
0.27464 -0.133124 0.895277
0.274075 -0.134519 0.897429
0.273522 -0.135926 0.89964
0.272952 -0.137333 0.901811
0.272369 -0.13874 0.903955
0.333385 -0.0820195 0.89572
0.331821 -0.083076 0.894818
0.330332 -0.0841459 0.894119
0.328572 -0.0851483 0.892651
0.326742 -0.0861279 0.890973
0.324882 -0.0870941 0.889193
0.323091 -0.0880714 0.887596
0.321283 -0.0890377 0.885937
0.318926 -0.0898554 0.882693
0.297576 -0.091056 0.838205
0.29532 -0.0917887 0.834978
0.293674 -0.0926892 0.833516
0.29239 -0.0936919 0.833106
0.291127 -0.0946986 0.832752
0.289854 -0.0957004 0.832365
0.288441 -0.0966563 0.831555
0.28706 -0.0976188 0.830833
0.285763 -0.0986052 0.830355
0.284563 -0.0996206 0.830162
0.283378 -0.10064 0.830011
0.282332 -0.101704 0.83028
0.281285 -0.102768 0.830549
0.280239 -0.103833 0.830818
0.279193 -0.104897 0.831087
0.278147 -0.105962 0.831356
0.277075 -0.107017 0.831546
0.276002 -0.108071 0.831729
0.274844 -0.109094 0.831649
0.273654 -0.110103 0.831463
0.273336 -0.110741 0.837546
0.272457 -0.111108 0.831252
0.272765 -0.111997 0.839344
0.271293 -0.112124 0.831142
0.279832 -0.123183 0.877035
0.28013 -0.124891 0.881857
0.279657 -0.126285 0.884201
0.278752 -0.127499 0.885146
0.278017 -0.128789 0.886658
0.277365 -0.130121 0.888455
0.27717 -0.131666 0.891783
0.276468 -0.132989 0.893446
0.275954 -0.134404 0.895748
0.275366 -0.135791 0.897823
0.274779 -0.137186 0.899913
0.274155 -0.138569 0.901898
0.273512 -0.139949 0.903828
0.332817 -0.0842189 0.89417
0.331247 -0.0852685 0.893247
0.329419 -0.0862524 0.891597
0.327549 -0.0872197 0.889811
0.32568 -0.0881808 0.888013
0.323824 -0.0891387 0.886239
0.322019 -0.0901032 0.884591
0.32033 -0.091092 0.883258
0.315106 -0.090273 0.875226
0.317313 -0.0917199 0.87812
0.299986 -0.0925482 0.841889
0.297047 -0.0930855 0.836702
0.294801 -0.0938105 0.833502
0.293512 -0.0948121 0.833083
0.292186 -0.0957999 0.832548
0.290878 -0.0967908 0.832061
0.289429 -0.0977347 0.831148
0.288014 -0.0986858 0.83033
0.286688 -0.0996621 0.829767
0.285487 -0.100677 0.829574
0.284301 -0.101695 0.829423
0.283255 -0.10276 0.829692
0.282209 -0.103824 0.829961
0.281162 -0.104889 0.830231
0.280116 -0.105953 0.8305
0.279044 -0.107008 0.830689
0.277943 -0.108053 0.830787
0.276838 -0.109095 0.830873
0.275651 -0.110106 0.830702
0.274461 -0.111113 0.830515
0.273293 -0.112129 0.830396
0.27216 -0.113156 0.830384
0.27141 -0.113645 0.835105
0.27165 -0.11443 0.832342
0.276719 -0.128899 0.878566
0.276788 -0.130543 0.8827
0.277341 -0.132421 0.888467
0.277316 -0.134052 0.892361
0.277345 -0.135721 0.896469
0.276698 -0.137085 0.898343
0.276047 -0.138452 0.900218
0.275337 -0.139796 0.901904
0.274607 -0.141136 0.903539
0.27485 -0.142317 0.912568
0.276009 -0.143543 0.912459
0.335247 -0.084278 0.894055
0.333712 -0.0853382 0.893242
0.332016 -0.0863563 0.891975
0.330162 -0.0873305 0.890254
0.328254 -0.0882852 0.888369
0.326349 -0.0892339 0.886475
0.324488 -0.0901871 0.88469
0.322682 -0.0911482 0.883044
0.320988 -0.0921327 0.8817
0.318744 -0.092963 0.878777
0.313636 -0.0921502 0.871048
0.315926 -0.0936251 0.874191
0.299267 -0.0945317 0.839841
0.296391 -0.0950714 0.834833
0.294603 -0.0959238 0.832963
0.293272 -0.0969104 0.832421
0.291928 -0.0978902 0.831833
0.290444 -0.0988224 0.830823
0.288995 -0.099762 0.829908
0.287639 -0.100728 0.829259
0.28641 -0.101733 0.828986
0.285224 -0.102751 0.828836
0.284178 -0.103816 0.829105
0.283132 -0.10488 0.829374
0.28206 -0.105935 0.829563
0.280985 -0.10699 0.829747
0.279883 -0.108033 0.829842
0.27875 -0.109065 0.829843
0.277614 -0.110095 0.829832
0.276449 -0.111113 0.829727
0.275287 -0.112131 0.829629
0.274155 -0.113159 0.829622
0.273053 -0.114198 0.829709
0.271957 -0.115239 0.829812
0.272618 -0.116307 0.839023
0.272237 -0.116838 0.834275
0.276863 -0.132874 0.883037
0.277586 -0.134846 0.889371
0.278282 -0.136827 0.895668
0.278188 -0.138455 0.899382
0.277414 -0.139767 0.900845
0.276607 -0.141067 0.902205
0.275791 -0.142367 0.903545
0.337736 -0.0843501 0.894092
0.336182 -0.0854077 0.893236
0.334625 -0.0864612 0.892367
0.332785 -0.0874422 0.890705
0.330931 -0.0884136 0.888991
0.328987 -0.0893564 0.887012
0.327045 -0.0902924 0.885022
0.325148 -0.0912326 0.883137
0.323303 -0.0921799 0.881385
0.321608 -0.0931612 0.880041
0.32003 -0.0941691 0.879015
0.317932 -0.0950283 0.8765
0.298639 -0.0965337 0.838055
0.296207 -0.0971936 0.834336
0.294322 -0.0980102 0.832183
0.292949 -0.0989805 0.831514
0.291461 -0.0999112 0.8305
0.289981 -0.10084 0.8295
0.288622 -0.101804 0.828845
0.287363 -0.102799 0.828484
0.286174 -0.103816 0.828327
0.285101 -0.104871 0.828517
0.284055 -0.105936 0.828786
0.282954 -0.106981 0.82889
0.281849 -0.108024 0.828979
0.280713 -0.109055 0.828972
0.279549 -0.110074 0.828875
0.278383 -0.111092 0.828771
0.277248 -0.11212 0.82876
0.276117 -0.113149 0.828759
0.275018 -0.11419 0.828855
0.273947 -0.11524 0.829037
0.272878 -0.116292 0.829226
0.272529 -0.117637 0.831686
0.273155 -0.118714 0.840806
0.272745 -0.119224 0.835957
0.278443 -0.137567 0.892301
0.278981 -0.139494 0.89809
0.278758 -0.141073 0.901383
0.277878 -0.14234 0.902502
0.279257 -0.144732 0.911236
0.338829 -0.0855173 0.893699
0.337243 -0.0865668 0.892764
0.335657 -0.0876124 0.891819
0.33372 -0.0885679 0.889899
0.331764 -0.0895116 0.887909
0.329783 -0.0904417 0.885833
0.327805 -0.0913656 0.88375
0.325903 -0.0923016 0.881859
0.324056 -0.0932451 0.880104
0.322363 -0.0942244 0.87877
0.32082 -0.0952399 0.877847
0.319326 -0.096265 0.87705
0.314758 -0.0955742 0.87089
0.316849 -0.0970062 0.873451
0.300879 -0.0980009 0.841228
0.297793 -0.0984614 0.835641
0.295342 -0.0991014 0.831856
0.293999 -0.100081 0.831279
0.292542 -0.101021 0.830363
0.291031 -0.101939 0.829275
0.289639 -0.102893 0.828532
0.288346 -0.103876 0.828071
0.287126 -0.104882 0.827825
0.286024 -0.105927 0.827929
0.284978 -0.106992 0.828199
0.283848 -0.108026 0.828215
0.28271 -0.109057 0.828204
0.281538 -0.110074 0.828087
0.280344 -0.111082 0.827901
0.279157 -0.11209 0.827731
0.278053 -0.11313 0.827817
0.276955 -0.11417 0.827914
0.275886 -0.115222 0.828103
0.274842 -0.116284 0.828372
0.273799 -0.117345 0.82864
0.272889 -0.118462 0.829328
0.272496 -0.119795 0.831652
0.273087 -0.120878 0.840663
0.272225 -0.121187 0.834381
0.339776 -0.0866509 0.892911
0.338179 -0.0876963 0.89195
0.33658 -0.0887369 0.890971
0.334569 -0.0896715 0.888856
0.332574 -0.0906028 0.886767
0.330589 -0.0915289 0.884686
0.328579 -0.092441 0.88252
0.326672 -0.0933728 0.880623
0.324823 -0.0943131 0.87887
0.323131 -0.09529 0.877541
0.321624 -0.0963133 0.87672
0.320163 -0.0973461 0.876021
0.318297 -0.0982589 0.874166
0.313792 -0.0975668 0.868165
0.315956 -0.099026 0.870942
0.299944 -0.0999085 0.838564
0.296859 -0.10035 0.832969
0.294966 -0.101155 0.830801
0.29354 -0.102105 0.82998
0.292029 -0.103022 0.828899
0.290635 -0.103974 0.828152
0.289305 -0.104945 0.827589
0.288079 -0.105948 0.827326
0.286948 -0.106983 0.827342
0.285901 -0.108048 0.827611
0.284743 -0.109071 0.827542
0.283573 -0.11009 0.827437
0.28237 -0.111095 0.827226
0.281174 -0.112101 0.827034
0.27999 -0.113111 0.826877
0.278919 -0.114162 0.82706
0.27785 -0.115213 0.827249
0.276806 -0.116275 0.827517
0.275763 -0.117337 0.827786
0.27472 -0.118398 0.828054
0.27381 -0.119515 0.828741
0.272913 -0.120639 0.829471
0.272104 -0.121802 0.830483
0.271966 -0.122593 0.837169
0.271293 -0.122966 0.831496
0.271229 -0.123801 0.838447
0.270501 -0.124142 0.832574
0.270923 -0.125201 0.84112
0.269652 -0.125295 0.833477
0.270221 -0.126434 0.842537
0.268908 -0.126497 0.834724
0.340531 -0.0877385 0.891606
0.338948 -0.0887849 0.890684
0.337323 -0.0898171 0.889638
0.335313 -0.0907486 0.887532
0.333319 -0.0916765 0.885452
0.331402 -0.0926167 0.883563
0.329392 -0.0935257 0.881405
0.327555 -0.0944733 0.879705
0.325707 -0.0954115 0.877962
0.324013 -0.096386 0.876634
0.322504 -0.0974073 0.875811
0.321043 -0.0984385 0.875113
0.319718 -0.0995065 0.874795
0.318028 -0.100465 0.873436
0.299082 -0.101827 0.83611
0.296543 -0.102427 0.83209
0.294588 -0.103205 0.82974
0.293082 -0.104123 0.828682
0.291682 -0.105073 0.827922
0.290345 -0.106041 0.827344
0.289087 -0.107034 0.82699
0.287901 -0.10805 0.826843
0.286853 -0.109114 0.827109
0.285666 -0.110127 0.826955
0.284441 -0.111125 0.826685
0.283234 -0.112128 0.826466
0.282038 -0.113133 0.826275
0.280857 -0.114143 0.826126
0.279814 -0.115205 0.826394
0.27877 -0.116266 0.826663
0.277727 -0.117328 0.826931
0.276684 -0.11839 0.827199
0.275615 -0.119441 0.827388
0.274678 -0.120547 0.827989
0.273754 -0.121659 0.828631
0.272919 -0.122811 0.829558
0.272056 -0.123953 0.830402
0.271259 -0.125126 0.83146
0.270403 -0.126275 0.832336
0.269662 -0.127479 0.833584
0.268765 -0.127975 0.837918
0.268877 -0.128666 0.834703
0.269439 -0.129839 0.843784
0.268871 -0.130215 0.83834
0.341319 -0.0888325 0.890392
0.33974 -0.0898779 0.889485
0.338114 -0.0909075 0.888438
0.336145 -0.0918461 0.886449
0.334189 -0.0927808 0.88448
0.332349 -0.0937389 0.882812
0.330379 -0.094656 0.880772
0.328578 -0.0956113 0.879179
0.326727 -0.096547 0.877435
0.325031 -0.0975194 0.876106
0.323485 -0.0985295 0.875186
0.322023 -0.0995595 0.87449
0.320729 -0.100636 0.874259
0.319608 -0.101762 0.874513
0.315121 -0.101052 0.868599
0.317367 -0.102549 0.871593
0.298665 -0.10388 0.834941
0.296126 -0.104468 0.830918
0.294127 -0.105223 0.828437
0.292759 -0.106183 0.827778
0.291448 -0.10716 0.827279
0.290158 -0.108142 0.826836
0.288913 -0.109137 0.82652
0.287835 -0.110191 0.826695
0.286617 -0.111193 0.826454
0.285363 -0.11218 0.826098
0.284156 -0.113182 0.825879
0.28296 -0.114187 0.825689
0.281778 -0.115196 0.82554
0.280708 -0.116247 0.825729
0.279637 -0.117298 0.825912
0.278566 -0.118348 0.826093
0.277495 -0.119398 0.826276
0.276399 -0.120437 0.826381
0.27546 -0.121542 0.826972
0.274533 -0.122652 0.827601
0.273695 -0.123803 0.828515
0.272803 -0.124932 0.829263
0.271976 -0.126091 0.830219
0.271093 -0.127228 0.831003
0.270321 -0.128417 0.832149
0.26949 -0.129581 0.833108
0.268813 -0.130821 0.834573
0.269572 -0.132107 0.844294
0.268773 -0.132363 0.838101
0.342176 -0.0899423 0.88937
0.340578 -0.0909811 0.888411
0.338941 -0.0920061 0.88734
0.337004 -0.09295 0.885446
0.335022 -0.0938751 0.883412
0.333262 -0.0948517 0.881968
0.331336 -0.095778 0.880055
0.329576 -0.0967428 0.878583
0.32772 -0.0976751 0.876832
0.326049 -0.0986533 0.875581
0.324467 -0.0996516 0.874562
0.323003 -0.10068 0.873866
0.321709 -0.101756 0.873636
0.320556 -0.102873 0.873801
0.318922 -0.103842 0.872607
0.314409 -0.103106 0.866606
0.316619 -0.1046 0.869504
0.298276 -0.105938 0.833853
0.295702 -0.106502 0.829727
0.293817 -0.107287 0.827573
0.292532 -0.108273 0.827155
0.291213 -0.109245 0.82663
0.289936 -0.110229 0.826225
0.288822 -0.11127 0.826294
0.287597 -0.112269 0.826034
0.286314 -0.113245 0.825596
0.285107 -0.114247 0.82538
0.283909 -0.115251 0.825187
0.282725 -0.116259 0.825033
0.281601 -0.117289 0.825058
0.280499 -0.118327 0.825148
0.279395 -0.119364 0.825229
0.278294 -0.120401 0.825319
0.277145 -0.121417 0.825257
0.276203 -0.12252 0.825836
0.275246 -0.123617 0.826369
0.27438 -0.124755 0.82719
0.273462 -0.125871 0.82785
0.272635 -0.127029 0.828801
0.2717 -0.128142 0.829417
0.270903 -0.129319 0.830474
0.270042 -0.130468 0.831331
0.269337 -0.131692 0.832694
0.268652 -0.132931 0.834131
0.268699 -0.133901 0.841545
0.267915 -0.134148 0.835411
0.268631 -0.135454 0.84504
0.267199 -0.13538 0.836768
0.343004 -0.0910443 0.888272
0.341381 -0.0920748 0.887251
0.339765 -0.093103 0.886238
0.337919 -0.0940675 0.884595
0.33597 -0.0949988 0.882659
0.334284 -0.0959934 0.881422
0.33243 -0.0969374 0.879715
0.330674 -0.0979019 0.878261
0.328812 -0.0988311 0.876502
0.327102 -0.099797 0.875148
0.32548 -0.100783 0.874027
0.323983 -0.101801 0.873242
0.322688 -0.102877 0.873012
0.321501 -0.103983 0.873082
0.320399 -0.105114 0.87339
0.318706 -0.106061 0.872026
0.3137 -0.105152 0.86462
0.316447 -0.106823 0.869046
0.300459 -0.107426 0.836856
0.297293 -0.10779 0.831051
0.294875 -0.108392 0.827366
0.293626 -0.109391 0.827055
0.292302 -0.110361 0.826521
0.290986 -0.111331 0.826005
0.289807 -0.112349 0.825889
0.288577 -0.113346 0.825616
0.287268 -0.114312 0.825103
0.286062 -0.115314 0.824893
0.284862 -0.116317 0.824696
0.283648 -0.117313 0.824453
0.282465 -0.11832 0.8243
0.281329 -0.119344 0.824288
0.280189 -0.120365 0.82426
0.279033 -0.121378 0.824178
0.277852 -0.12238 0.82402
0.276858 -0.12346 0.824434
0.275849 -0.124534 0.824802
0.274931 -0.125647 0.825455
0.274013 -0.126762 0.826109
0.273164 -0.127909 0.826982
0.272232 -0.129021 0.827602
0.271433 -0.130194 0.828641
0.270568 -0.131341 0.829483
0.269832 -0.132549 0.830735
0.269148 -0.133786 0.832166
0.268441 -0.135016 0.833532
0.267763 -0.136264 0.834998
0.266508 -0.136627 0.838211
0.267105 -0.137527 0.836542
0.265765 -0.137853 0.8395
0.26637 -0.138756 0.837846
0.264891 -0.139017 0.840365
0.265493 -0.139917 0.838693
0.343949 -0.0921744 0.887489
0.342323 -0.0932026 0.886463
0.340702 -0.0942279 0.885442
0.338925 -0.0952085 0.883992
0.337007 -0.0961458 0.882146
0.335352 -0.0971474 0.880999
0.333534 -0.0980998 0.879399
0.331776 -0.0990626 0.877946
0.329908 -0.0999887 0.876181
0.328156 -0.100942 0.874719
0.326496 -0.101916 0.873498
0.324963 -0.102922 0.872618
0.323668 -0.103997 0.872389
0.322446 -0.105092 0.872361
0.321303 -0.106211 0.872553
0.32013 -0.10732 0.87266
0.318482 -0.108276 0.871425
0.313259 -0.107276 0.863399
0.31599 -0.108954 0.867784
0.298989 -0.109118 0.83266
0.296016 -0.109526 0.827394
0.294797 -0.110536 0.827177
0.293468 -0.111505 0.826635
0.292089 -0.112453 0.825942
0.290846 -0.113448 0.825639
0.289586 -0.114434 0.825281
0.288251 -0.11539 0.824695
0.287022 -0.116383 0.824419
0.285817 -0.117384 0.824209
0.284596 -0.118377 0.823949
0.283354 -0.11936 0.82362
0.282187 -0.120371 0.823512
0.280989 -0.121368 0.823309
0.279772 -0.122355 0.823046
0.278511 -0.123322 0.822639
0.277434 -0.124365 0.822794
0.276339 -0.1254 0.822893
0.275392 -0.126499 0.823449
0.274449 -0.1276 0.82402
0.273607 -0.128748 0.824907
0.272705 -0.129871 0.825611
0.271931 -0.131054 0.826723
0.271065 -0.132198 0.82755
0.270305 -0.133393 0.828717
0.269621 -0.134628 0.830136
0.268915 -0.135857 0.831496
0.268245 -0.137108 0.832979
0.267619 -0.138384 0.834612
0.266937 -0.139638 0.836079
0.266113 -0.140824 0.837092
0.264648 -0.141096 0.839653
0.265351 -0.142044 0.838313
0.343401 -0.0943649 0.886039
0.341793 -0.0953926 0.885058
0.340113 -0.0963976 0.883875
0.338195 -0.0973336 0.88204
0.336501 -0.098324 0.880794
0.334713 -0.0992836 0.879284
0.332915 -0.100234 0.87773
0.331013 -0.101149 0.87588
0.329215 -0.102088 0.874301
0.327546 -0.103058 0.873062
0.325944 -0.104043 0.871994
0.324647 -0.105117 0.871765
0.323391 -0.106201 0.871642
0.322177 -0.107298 0.871638
0.320898 -0.108372 0.871446
0.319743 -0.109486 0.871601
0.317867 -0.110362 0.869718
0.301029 -0.110568 0.835242
0.297474 -0.110773 0.828334
0.295741 -0.111603 0.826638
0.294439 -0.112581 0.826177
0.29308 -0.113535 0.825545
0.291804 -0.114517 0.825148
0.290542 -0.115503 0.824788
0.289208 -0.116458 0.824208
0.287978 -0.117451 0.823931
0.28677 -0.11845 0.823716
0.285518 -0.119431 0.823367
0.284218 -0.12039 0.822866
0.283019 -0.121387 0.822663
0.281768 -0.122361 0.8223
0.280469 -0.123313 0.821786
0.279171 -0.124263 0.82127
0.278029 -0.125276 0.821223
0.276849 -0.126272 0.821058
0.27584 -0.127342 0.821414
0.274894 -0.12844 0.821969
0.274005 -0.129565 0.822703
0.27311 -0.130688 0.823419
0.272368 -0.131884 0.82462
0.271532 -0.133039 0.825534
0.270777 -0.134235 0.82671
0.27012 -0.135481 0.828203
0.269442 -0.136722 0.829638
0.268792 -0.137981 0.831178
0.268172 -0.139259 0.83282
0.267494 -0.140513 0.834287
0.266748 -0.141737 0.835546
0.266073 -0.143001 0.837044
0.344489 -0.0955302 0.88564
0.342892 -0.0965601 0.884694
0.341306 -0.0975888 0.883767
0.339384 -0.0985228 0.881932
0.337686 -0.0995114 0.880683
0.335895 -0.100469 0.879173
0.334058 -0.101408 0.877524
0.332115 -0.10231 0.875572
0.330274 -0.103235 0.873883
0.328566 -0.104192 0.872541
0.326924 -0.105164 0.87137
0.325627 -0.106237 0.871142
0.324338 -0.107311 0.870931
0.323088 -0.108396 0.870824
0.321769 -0.109457 0.870525
0.320576 -0.110557 0.870572
0.319229 -0.111606 0.870184
0.31425 -0.110655 0.862881
0.316252 -0.112107 0.865184
0.299061 -0.112068 0.829629
0.296714 -0.112679 0.826181
0.29543 -0.113663 0.825775
0.294066 -0.114615 0.825132
0.292761 -0.115587 0.824655
0.291494 -0.11657 0.824284
0.29016 -0.117525 0.823708
0.288929 -0.118517 0.823432
0.28772 -0.119516 0.823215
0.286438 -0.120484 0.822778
0.285109 -0.12143 0.822192
0.283884 -0.122416 0.821914
0.282574 -0.123366 0.821377
0.281215 -0.124291 0.820683
0.279854 -0.125212 0.819975
0.278599 -0.126176 0.819583
0.277328 -0.12713 0.819138
0.276283 -0.128181 0.819377
0.275309 -0.129264 0.819839
0.274421 -0.130387 0.820566
0.273532 -0.13151 0.821294
0.272819 -0.132718 0.822578
0.271993 -0.133875 0.823512
0.271247 -0.135074 0.824706
0.270569 -0.136308 0.826122
0.269912 -0.137557 0.827614
0.269263 -0.138814 0.829144
0.268643 -0.140091 0.830774
0.267968 -0.141345 0.832241
0.267309 -0.142611 0.833769
0.266723 -0.14392 0.835544
0.265257 -0.144197 0.838092
0.266076 -0.145203 0.837135
0.345539 -0.0966859 0.885139
0.344004 -0.0977312 0.884361
0.342497 -0.0987806 0.883652
0.340607 -0.0997223 0.881912
0.338908 -0.10071 0.880668
0.33714 -0.101673 0.879227
0.335235 -0.102592 0.877403
0.333285 -0.103491 0.875444
0.331402 -0.104402 0.873648
0.32965 -0.105346 0.872196
0.327939 -0.106296 0.870842
0.326639 -0.107368 0.870607
0.325349 -0.108441 0.870396
0.324068 -0.109516 0.870208
0.322747 -0.110575 0.869902
0.321516 -0.111663 0.869844
0.320124 -0.112696 0.869333
0.317698 -0.113378 0.865905
0.300721 -0.113393 0.831121
0.297684 -0.113755 0.825714
0.296439 -0.114753 0.825423
0.295077 -0.115705 0.82479
0.29374 -0.116664 0.824224
0.292446 -0.117637 0.823776
0.291109 -0.11859 0.823198
0.289852 -0.119572 0.822845
0.288642 -0.12057 0.822628
0.287358 -0.121537 0.822189
0.286027 -0.122482 0.821601
0.28477 -0.123454 0.821231
0.283404 -0.124379 0.820527
0.281982 -0.125277 0.819647
0.280584 -0.126181 0.818831
0.27922 -0.127095 0.818106
0.277894 -0.128023 0.817493
0.276793 -0.129048 0.817557
0.275785 -0.130113 0.817908
0.274847 -0.131211 0.818475
0.273985 -0.132345 0.819279
0.273252 -0.133541 0.820488
0.27245 -0.134708 0.821491
0.271706 -0.135905 0.822681
0.270982 -0.137115 0.823941
0.270304 -0.138352 0.825353
0.269652 -0.139605 0.826861
0.269036 -0.140882 0.828491
0.268367 -0.142136 0.829967
0.26779 -0.143443 0.831746
0.267264 -0.144781 0.833703
0.266705 -0.146108 0.835567
0.265536 -0.146547 0.839085
0.266196 -0.147468 0.837609
0.346667 -0.0978625 0.884841
0.345153 -0.098913 0.884125
0.343653 -0.0999641 0.883439
0.34176 -0.100903 0.8817
0.340055 -0.101889 0.880448
0.338251 -0.102841 0.878919
0.336309 -0.103748 0.877005
0.334348 -0.104642 0.875024
0.332463 -0.10555 0.873232
0.330674 -0.106482 0.871686
0.32899 -0.107439 0.870412
0.327688 -0.10851 0.870174
0.326398 -0.109583 0.869965
0.325152 -0.110668 0.869874
0.323832 -0.111729 0.869577
0.322567 -0.112805 0.869424
0.321137 -0.113825 0.868811
0.31924 -0.114683 0.86688
0.314379 -0.113743 0.859924
0.316655 -0.115298 0.862997
0.300406 -0.115467 0.830253
0.298401 -0.116193 0.827803
0.296468 -0.116937 0.825542
0.294582 -0.11769 0.823396
0.293286 -0.118661 0.822945
0.291973 -0.119623 0.822438
0.290715 -0.120603 0.822085
0.289508 -0.121602 0.821877
0.288253 -0.122579 0.821524
0.286947 -0.123534 0.821016
0.285661 -0.124494 0.82056
0.284234 -0.125392 0.819679
0.282774 -0.126272 0.818687
0.281344 -0.127161 0.817779
0.27993 -0.128052 0.816905
0.278603 -0.128978 0.81629
0.2775 -0.13 0.816346
0.276467 -0.131054 0.816618
0.275503 -0.132139 0.817101
0.27464 -0.133271 0.817895
0.273852 -0.13444 0.818928
0.273018 -0.135591 0.819823
0.272218 -0.13676 0.820829
0.271463 -0.137953 0.821984
0.270735 -0.139164 0.823231
0.270061 -0.140404 0.824655
0.269446 -0.141679 0.826279
0.268832 -0.142959 0.827914
0.268289 -0.144281 0.82979
0.267797 -0.145636 0.831844
0.267287 -0.146988 0.833857
0.266781 -0.148349 0.835895
0.26586 -0.148928 0.840229
0.266424 -0.149796 0.838432
0.347796 -0.0990402 0.884547
0.3463 -0.100095 0.88388
0.344806 -0.101147 0.883216
0.342946 -0.102095 0.881574
0.341202 -0.103069 0.880225
0.339393 -0.104018 0.878689
0.337408 -0.104911 0.876671
0.335445 -0.105802 0.874693
0.333555 -0.106708 0.872897
0.331737 -0.107629 0.871278
0.330083 -0.108595 0.870093
0.328777 -0.109665 0.869849
0.327486 -0.110737 0.86964
0.326244 -0.111824 0.869561
0.324963 -0.112897 0.869375
0.323665 -0.113963 0.869136
0.32223 -0.114981 0.868514
0.320859 -0.116018 0.868062
0.318991 -0.11688 0.866211
0.298429 -0.119859 0.831226
0.296574 -0.120629 0.829194
0.294661 -0.121367 0.826974
0.292787 -0.122112 0.82485
0.290938 -0.122859 0.822779
0.28909 -0.123598 0.820692
0.287784 -0.124552 0.820186
0.286496 -0.12551 0.819726
0.285065 -0.126405 0.818835
0.283604 -0.127284 0.817845
0.282199 -0.128182 0.817016
0.28081 -0.129083 0.816221
0.27949 -0.130011 0.815629
0.278361 -0.131021 0.815609
0.277327 -0.132074 0.815875
0.276332 -0.133144 0.816261
0.275418 -0.134253 0.816898
0.274547 -0.135383 0.817668
0.273652 -0.136504 0.818371
0.272787 -0.13764 0.819167
0.271951 -0.138793 0.820063
0.271191 -0.139985 0.821198
0.270515 -0.141223 0.822605
0.269902 -0.142497 0.824224
0.269321 -0.143793 0.825954
0.26881 -0.14513 0.82792
0.268319 -0.146483 0.829962
0.267809 -0.147834 0.83196
0.267327 -0.149207 0.834064
0.266923 -0.150628 0.836433
0.348809 -0.100187 0.883944
0.347324 -0.101244 0.883313
0.345802 -0.102288 0.882576
0.344012 -0.103253 0.881125
0.342312 -0.104238 0.879898
0.340466 -0.105176 0.878274
0.338471 -0.106064 0.876236
0.336533 -0.106961 0.874336
0.334647 -0.107867 0.872558
0.332801 -0.108778 0.870873
0.331212 -0.109763 0.869872
0.329905 -0.110832 0.869626
0.328648 -0.111917 0.869515
0.327408 -0.113005 0.869446
0.326194 -0.1141 0.869447
0.324932 -0.115179 0.869313
0.323497 -0.116197 0.868694
0.322063 -0.117213 0.868073
0.320777 -0.118277 0.867858
0.315765 -0.117258 0.86052
0.318209 -0.118886 0.864045
0.315639 -0.119481 0.860194
0.291847 -0.125401 0.825481
0.289874 -0.126087 0.823037
0.287915 -0.12677 0.820615
