ply
format ascii 1.0
element vertex 1599
property float x
property float y
property float z
end_header
0.0480107 0.00674625 0.0279157
0.0480842 0.00665485 0.0276922
0.0481736 0.00656901 0.0275346
0.0482783 0.00648812 0.0274389
0.0483879 0.00640895 0.0273641
0.0485048 0.00633203 0.0273182
0.0486287 0.00625722 0.0272999
0.0487503 0.0061819 0.0272734
0.0488805 0.00610891 0.0272797
0.0386191 0.0136354 0.0339953
0.0387473 0.0135488 0.033935
0.0388717 0.0134581 0.0338465
0.0389938 0.0133653 0.0337435
0.03911 0.0132667 0.0335986
0.0392294 0.013172 0.0334801
0.0393459 0.0130749 0.0333426
0.0394649 0.0129809 0.033226
0.0395838 0.0128874 0.0331103
0.0397068 0.0127983 0.0330257
0.0398284 0.0127082 0.0329332
0.0399512 0.0126198 0.0328508
0.0400736 0.0125312 0.0327667
0.0401915 0.0124387 0.0326542
0.0403117 0.0123489 0.0325594
0.0404304 0.012258 0.0324555
0.040549 0.0121675 0.0323532
0.0406689 0.0120785 0.0322607
0.0407898 0.0119907 0.0321767
0.0409062 0.0118994 0.0320656
0.0410192 0.0118058 0.0319345
0.0411327 0.0117129 0.031809
0.0412382 0.0116142 0.0316362
0.041337 0.0115109 0.0314257
0.041433 0.0114061 0.0312016
0.0415266 0.0113004 0.0309669
0.0416215 0.0111966 0.030744
0.04172 0.0110962 0.0305461
0.0418265 0.0110025 0.0303983
0.0419328 0.0109091 0.0302518
0.0420417 0.0108181 0.0301225
0.0421452 0.0107238 0.029964
0.0422531 0.010633 0.0298332
0.0423575 0.0105403 0.0296847
0.0424654 0.0104505 0.0295586
0.0425797 0.0103653 0.0294689
0.0427012 0.0102851 0.0294202
0.0428249 0.0102064 0.0293843
0.0429507 0.0101291 0.0293594
0.043079 0.0100534 0.0293487
0.0432037 0.00997555 0.0293187
0.0433232 0.00989461 0.0292615
0.0434423 0.00981362 0.0292035
0.0435628 0.00973358 0.0291531
0.0436872 0.00965593 0.0291234
0.0438141 0.00957975 0.0291065
0.0439484 0.0095077 0.0291277
0.0440829 0.00943568 0.0291489
0.0442171 0.00936337 0.0291684
0.0443509 0.0092908 0.0291857
0.0444848 0.00921811 0.029203
0.0446156 0.00914381 0.0292043
0.0447499 0.00907122 0.0292227
0.0448842 0.00899854 0.0292406
0.0450166 0.00892482 0.0292493
0.045149 0.00885109 0.0292578
0.0452814 0.00877724 0.0292655
0.0454101 0.00870168 0.0292564
0.0455445 0.00862866 0.0292732
0.0456775 0.00855498 0.0292832
0.0458106 0.0084813 0.0292939
0.0459498 0.00841022 0.0293313
0.0460975 0.00834266 0.0294068
0.0462491 0.00827652 0.0294982
0.0464017 0.0082105 0.0295931
0.0465538 0.00814393 0.0296846
0.0466923 0.0080716 0.0297145
0.046823 0.00799601 0.0297103
0.046943 0.00791612 0.0296596
0.0470588 0.00783478 0.0295913
0.0471702 0.00775198 0.0295047
0.0472783 0.00766809 0.0294056
0.0473818 0.00758278 0.0292877
0.0474803 0.00749598 0.0291505
0.0475809 0.00741022 0.0290239
0.0476858 0.00732635 0.028916
0.0477912 0.0072429 0.0288116
0.0478858 0.00715606 0.0286644
0.0479743 0.00706751 0.0284939
0.0480589 0.00697814 0.0283095
0.0481367 0.00688698 0.0280999
0.0482174 0.00679738 0.0279045
0.0483092 0.00671172 0.0277551
0.0484136 0.00663033 0.0276575
0.0485232 0.00655073 0.027581
0.0486376 0.00647266 0.027524
0.0487568 0.00639617 0.0274859
0.0386902 0.0137636 0.0339345
0.038818 0.0136766 0.0338715
0.0389435 0.013587 0.0337922
0.0390635 0.0134919 0.0336738
0.0391792 0.0133927 0.0335262
0.0392986 0.0132981 0.0334087
0.0394149 0.0132008 0.0332712
0.0395339 0.0131067 0.0331547
0.0396537 0.0130141 0.0330473
0.0397768 0.0129251 0.0329639
0.0399 0.0128366 0.0328829
0.0400257 0.0127508 0.0328204
0.0401499 0.0126639 0.0327493
0.0402691 0.0125725 0.0326457
0.0403907 0.0124838 0.0325594
0.0405106 0.0123938 0.0324639
0.0406295 0.0123033 0.032363
0.0407479 0.0122129 0.0322616
0.0408671 0.0121234 0.0321665
0.0409816 0.0120304 0.0320432
0.0410926 0.0119349 0.0319002
0.0412048 0.0118409 0.0317672
0.0413106 0.0117422 0.0315969
0.0414079 0.0116375 0.0313778
0.0415019 0.0115311 0.0311434
0.041592 0.0114224 0.0308886
0.0416832 0.0113157 0.0306453
0.0417798 0.0112139 0.0304377
0.0418845 0.0111188 0.0302807
0.0419891 0.0110242 0.0301253
0.0420945 0.0109307 0.029977
0.0421971 0.0108358 0.0298157
0.0423024 0.0107433 0.0296718
0.0424051 0.0106496 0.0295155
0.0425144 0.0105609 0.0293983
0.042632 0.0104779 0.0293281
0.0427554 0.0103991 0.0292908
0.0428816 0.0103221 0.0292685
0.0430107 0.010247 0.0292622
0.0431389 0.0101714 0.0292512
0.0432647 0.0100942 0.0292278
0.0433857 0.0100142 0.0291793
0.0435051 0.00993341 0.0291228
0.0436259 0.00985359 0.0290745
0.04375 0.00977581 0.0290436
0.0438729 0.00969742 0.0290072
0.0440014 0.00962221 0.0289991
0.0441318 0.00954812 0.0290005
0.0442638 0.00947476 0.0290095
0.0443977 0.00940243 0.0290277
0.0445337 0.00933112 0.0290559
0.0446685 0.009259 0.0290776
0.0448048 0.00918763 0.0291064
0.0449411 0.00911611 0.0291342
0.0450719 0.00904168 0.0291351
0.0452043 0.00896808 0.0291443
0.0453368 0.00889444 0.029153
0.0454674 0.00881982 0.0291527
0.0455998 0.00874606 0.0291608
0.0457323 0.00867219 0.0291689
0.045863 0.00859755 0.0291688
0.0459977 0.00852459 0.0291862
0.0461428 0.00845618 0.0292501
0.0462956 0.00839079 0.0293477
0.0464501 0.00832588 0.0294514
0.0466066 0.00826139 0.029562
0.0467536 0.00819269 0.0296298
0.0468914 0.00812002 0.0296561
0.0470184 0.00804295 0.0296361
0.0471392 0.00796349 0.0295893
0.047253 0.00788144 0.0295131
0.0473615 0.0077975 0.0294151
0.0474623 0.007711 0.0292864
0.0475586 0.00762307 0.02914
0.0476589 0.0075371 0.0290122
0.0477617 0.00745228 0.028896
0.047867 0.00736867 0.0287913
0.0479701 0.00728451 0.0286788
0.048068 0.00719896 0.0285467
0.0481627 0.00711261 0.0284034
0.0482524 0.00702499 0.028241
0.0483443 0.00693847 0.0280896
0.0484382 0.00685299 0.0279479
0.0485409 0.0067707 0.0278424
0.0386273 0.013972 0.0338904
0.0387567 0.0138865 0.0338393
0.0388846 0.0137996 0.0337772
0.039011 0.0137112 0.0337061
0.0391307 0.0136159 0.0335868
0.039248 0.0135183 0.0334521
0.0393689 0.0134253 0.0333455
0.0394866 0.0133294 0.033219
0.0396054 0.0132351 0.0331026
0.0397269 0.0131441 0.0330061
0.0398512 0.0130562 0.0329323
0.039976 0.0129692 0.0328626
0.0401035 0.012885 0.0328122
0.0402304 0.0128005 0.0327591
0.0403498 0.0127092 0.0326566
0.0404715 0.0126203 0.0325707
0.0405928 0.0125314 0.0324843
0.0407118 0.0124408 0.032384
0.0408275 0.0123477 0.0322648
0.0409451 0.0122567 0.0321595
0.0410574 0.0121617 0.0320231
0.0411651 0.0120633 0.0318601
0.0412742 0.0119666 0.0317081
0.0413796 0.0118676 0.0315367
0.0414766 0.0117624 0.0313171
0.0415688 0.0116544 0.0310732
0.0416567 0.011544 0.030807
0.041746 0.0114356 0.0305541
0.0418388 0.0113308 0.030325
0.0419399 0.011233 0.0301485
0.0420427 0.0111371 0.0299844
0.0421461 0.0110424 0.0298264
0.0422488 0.0109476 0.0296669
0.0423542 0.0108553 0.0295252
0.0424572 0.0107618 0.0293718
0.0425678 0.010674 0.0292634
0.0426871 0.0105923 0.0292036
0.042812 0.0105145 0.0291747
0.0429395 0.0104385 0.0291602
0.0430701 0.0103644 0.0291627
0.0431983 0.0102889 0.029152
0.0433225 0.0102108 0.0291204
0.0434434 0.0101308 0.029072
0.0435627 0.01005 0.0290157
0.0436817 0.00996924 0.0289592
0.0438021 0.00988936 0.0289099
0.0439222 0.00980952 0.0288601
0.0440463 0.00973201 0.0288303
0.0441725 0.00965574 0.0288119
0.0443026 0.00958165 0.0288126
0.0444382 0.00951054 0.0288402
0.0445779 0.00944142 0.0288871
0.0447167 0.00937164 0.028929
0.0448572 0.00930259 0.0289781
0.0449973 0.00923316 0.0290245
0.0451301 0.00915991 0.0290355
0.0452628 0.00908646 0.0290458
0.0453973 0.0090139 0.0290643
0.0455301 0.00894045 0.0290746
0.0456629 0.00886691 0.0290846
0.0457955 0.00879318 0.0290933
0.045926 0.00871849 0.0290921
0.0460564 0.00864372 0.029091
0.0461973 0.00857354 0.0291358
0.0463476 0.00850735 0.0292224
0.0465018 0.00844249 0.0293243
0.0466583 0.00837826 0.0294353
0.0468119 0.00831249 0.0295316
0.0469566 0.00824276 0.0295886
0.0470908 0.00816857 0.0295991
0.0472186 0.00809185 0.0295821
0.0473365 0.00801124 0.0295237
0.047445 0.00792714 0.0294259
0.0475456 0.00784036 0.0292962
0.0476419 0.00775223 0.0291499
0.0477398 0.00766511 0.0290125
0.0478406 0.0075794 0.0288878
0.0479454 0.00749541 0.0287816
0.0480526 0.00741256 0.028686
0.0481574 0.00732912 0.0285816
0.0482593 0.00724492 0.0284668
0.0483562 0.0071594 0.0283333
0.0484522 0.00707389 0.0281981
0.048546 0.00698804 0.0280552
0.0486467 0.00690472 0.0279413
0.0488534 0.00675297 0.0285574
0.0386864 0.014086 0.0337378
0.0388192 0.0140047 0.033714
0.0389476 0.0139186 0.0336575
0.0390758 0.0138324 0.0336
0.0391969 0.0137386 0.0334926
0.039317 0.0136441 0.0333788
0.0394391 0.0135524 0.0332824
0.0395596 0.0134594 0.0331769
0.03968 0.0133666 0.0330713
0.0398016 0.0132756 0.0329767
0.0399275 0.0131894 0.0329137
0.040055 0.0131049 0.0328625
0.0401827 0.0130207 0.0328133
0.04031 0.0129364 0.032762
0.0404296 0.0128451 0.0326607
0.040551 0.0127558 0.0325733
0.0406712 0.0126657 0.0324793
0.0407901 0.0125749 0.0323792
0.0409043 0.0124803 0.0322505
0.0410215 0.0123888 0.0321428
0.0411335 0.0122932 0.0320042
0.0412395 0.0121932 0.0318316
0.0413451 0.0120936 0.0316591
0.0414487 0.0119929 0.0314769
0.0415432 0.0118856 0.0312439
0.0416321 0.0117748 0.030981
0.0417182 0.0116628 0.030706
0.041804 0.0115517 0.0304345
0.0418946 0.0114452 0.0301949
0.0419933 0.0113456 0.030006
0.042094 0.0112483 0.0298314
0.0421959 0.0111525 0.0296667
0.0423021 0.0110603 0.0295283
0.0424096 0.0109695 0.0293995
0.0425161 0.0108785 0.0292671
0.0426288 0.0107921 0.0291711
0.0427494 0.0107114 0.0291187
0.0428738 0.0106333 0.029088
0.0430008 0.010557 0.0290708
0.0431279 0.0104808 0.0290548
0.0432543 0.0104042 0.0290352
0.0433769 0.0103253 0.0289959
0.043496 0.0102443 0.028939
0.0436133 0.0101624 0.0288738
0.0437319 0.0100814 0.0288156
0.0438482 0.00999929 0.0287468
0.0439644 0.00991735 0.0286782
0.0440858 0.0098385 0.0286365
0.0442095 0.00976107 0.0286067
0.0443376 0.00968616 0.0285982
0.0444766 0.00961712 0.0286435
0.0446204 0.0095506 0.0287113
0.0447633 0.0094832 0.028773
0.0449077 0.00941644 0.0288419
0.0450517 0.00934917 0.0289067
0.0451862 0.00927688 0.0289261
0.0453205 0.00920442 0.0289446
0.0454552 0.00913203 0.028964
0.0455885 0.00905895 0.0289767
0.0457216 0.00898559 0.0289884
0.0458544 0.00891213 0.0289984
0.045985 0.00883754 0.0289979
0.0461135 0.00876199 0.0289882
0.0462522 0.00869097 0.0290236
0.0463982 0.00862307 0.0290912
0.046548 0.00855651 0.029174
0.0467043 0.00849252 0.0292839
0.0468641 0.00842963 0.029408
0.0470162 0.00836318 0.0294966
0.0471597 0.00829284 0.0295472
0.0472979 0.00822028 0.0295748
0.0474205 0.00814142 0.0295356
0.0475308 0.00805786 0.0294458
0.0476317 0.00797085 0.0293171
0.0477275 0.00788237 0.0291692
0.0478233 0.00779421 0.0290227
0.0479237 0.00770816 0.0288967
0.0480266 0.00762328 0.0287824
0.0481335 0.00754018 0.0286858
0.0482383 0.00745656 0.0285816
0.0483425 0.00737296 0.0284763
0.0484417 0.00728796 0.0283521
0.0487342 0.00726752 0.0289925
0.0387506 0.014206 0.0336253
0.0388844 0.014126 0.0336097
0.0390126 0.0140397 0.0335523
0.0391417 0.0139546 0.0335031
0.0392647 0.0138629 0.0334093
0.0393874 0.0137714 0.0333166
0.0395127 0.0136831 0.0332428
0.039636 0.0135929 0.0331573
0.0397579 0.0135016 0.0330628
0.039881 0.0134121 0.0329791
0.0400069 0.0133255 0.0329155
0.0401346 0.0132411 0.0328654
0.0402637 0.0131582 0.0328247
0.0403925 0.0130752 0.0327837
0.0405136 0.012985 0.0326926
0.0406367 0.0128971 0.0326157
0.0407568 0.0128066 0.0325203
0.0408741 0.0127141 0.0324094
0.0409851 0.0126164 0.0322603
0.0410992 0.012522 0.032133
0.0412064 0.0124222 0.0319659
0.0413092 0.0123193 0.0317734
0.0414113 0.0122165 0.0315808
0.0415125 0.0121139 0.0313859
0.041605 0.0120049 0.0311422
0.041695 0.0118948 0.0308873
0.0417797 0.0117817 0.0306066
0.0418623 0.0116679 0.0303176
0.0419491 0.0115585 0.0300581
0.0420439 0.0114561 0.0298481
0.0421408 0.011356 0.0296541
0.0422444 0.0112615 0.0295004
0.0423539 0.0111717 0.029382
0.042465 0.0110836 0.0292752
0.0425764 0.010996 0.0291705
0.0426925 0.010912 0.0290937
0.0428132 0.0108314 0.0290426
0.042936 0.0107523 0.0290034
0.0430624 0.0106757 0.0289836
0.0431874 0.0105982 0.0289569
0.0433104 0.0105194 0.0289196
0.043431 0.0104394 0.028871
0.043548 0.0103571 0.0288037
0.0436612 0.0102728 0.0287182
0.0437759 0.0101897 0.0286414
0.0438902 0.0101065 0.0285636
0.0440043 0.0100235 0.0284856
0.0441254 0.00994479 0.028444
0.0442491 0.00986752 0.028415
0.0443786 0.00979366 0.0284152
0.0445195 0.00972597 0.0284702
0.0446652 0.0096607 0.0285472
0.0448101 0.00959467 0.0286195
0.0449567 0.00952931 0.0286988
0.0451025 0.00946322 0.0287728
0.0452388 0.00939207 0.0288013
0.045375 0.00932065 0.0288286
0.0455114 0.00924927 0.0288563
0.0456462 0.00917701 0.0288765
0.0457777 0.00910301 0.0288807
0.0459084 0.00902863 0.0288818
0.0460387 0.00895402 0.0288806
0.0461672 0.00887852 0.0288709
0.046304 0.00880687 0.0288986
0.0464479 0.00873815 0.0289565
0.0465949 0.00867066 0.0290277
0.0467505 0.0086066 0.0291347
0.046915 0.00854603 0.029279
0.0470742 0.00848275 0.029398
0.0472294 0.00841743 0.0294989
0.0473769 0.00834869 0.0295656
0.0475061 0.00827231 0.0295541
0.047621 0.00819038 0.0294831
0.0477242 0.00810407 0.029364
0.04782 0.00801527 0.029216
0.0479158 0.00792685 0.0290696
0.0480135 0.00783951 0.0289323
0.0481117 0.00775269 0.028799
0.0482163 0.00766854 0.0286929
0.0483189 0.00758395 0.0285798
0.0484231 0.00750019 0.0284743
0.0487191 0.00748235 0.0291294
0.0386752 0.0143986 0.033484
0.038813 0.0143237 0.0335002
0.0389474 0.0142447 0.0334901
0.0390771 0.0141603 0.0334454
0.0392081 0.0140774 0.0334098
0.0393339 0.0139889 0.0333379
0.0394597 0.0139008 0.033267
0.0395878 0.0138154 0.0332142
0.0397126 0.0137267 0.0331396
0.039836 0.0136369 0.033056
0.0399607 0.0135488 0.0329823
0.0400866 0.0134621 0.0329187
0.0402141 0.0133773 0.0328669
0.0403447 0.0132958 0.0328368
0.0404753 0.0132144 0.0328068
0.0405994 0.0131268 0.0327348
0.0407257 0.0130416 0.0326778
0.0408471 0.0129521 0.0325903
0.0409615 0.0128565 0.0324605
0.0410689 0.0127553 0.0322887
0.0411779 0.0126562 0.0321296
0.0412788 0.0125507 0.0319231
0.0413766 0.0124433 0.0317017
0.0414754 0.0123377 0.0314901
0.0415744 0.0122332 0.0312834
0.0416652 0.0121228 0.0310313
0.0417536 0.0120114 0.0307691
0.0418367 0.0118969 0.0304807
0.0419173 0.0117815 0.0301826
0.0420004 0.0116692 0.0299033
0.0420928 0.011565 0.0296818
0.042191 0.011466 0.0294969
0.0422962 0.0113727 0.0293542
0.042409 0.0112855 0.0292552
0.0425249 0.0112008 0.0291753
0.0426392 0.0111152 0.029088
0.0427572 0.0110325 0.0290218
0.0428784 0.0109523 0.0289739
0.0429996 0.0108721 0.0289264
0.0431209 0.0107921 0.0288801
0.0432419 0.0107122 0.028833
0.0433609 0.010631 0.028776
0.0434777 0.0105486 0.0287077
0.0435923 0.010465 0.0286297
0.0437048 0.0103805 0.0285421
0.0438189 0.0102971 0.0284633
0.0439332 0.0102141 0.0283866
0.0440492 0.0101323 0.0283197
0.0441705 0.0100539 0.0282798
0.0442941 0.00997684 0.0282517
0.0444255 0.00990423 0.0282614
0.0445684 0.00983793 0.0283267
0.0447161 0.00977391 0.0284138
0.0448647 0.00971012 0.028504
0.0450129 0.00964582 0.0285906
0.045157 0.00957904 0.0286569
0.0452933 0.00950798 0.0286855
0.0454296 0.00943683 0.0287137
0.045566 0.00936554 0.0287419
0.0457007 0.00929337 0.0287617
0.0458312 0.009219 0.0287622
0.0459593 0.00914348 0.0287517
0.0460873 0.00906795 0.0287404
0.0462156 0.00899253 0.0287308
0.0463524 0.00892101 0.0287591
0.0464941 0.00885158 0.0288077
0.0466384 0.00878311 0.0288673
0.0467951 0.00871981 0.0289794
0.0469618 0.00866052 0.029133
0.0471267 0.00859992 0.0292766
0.0472938 0.00853982 0.0294279
0.047453 0.00847596 0.0295439
0.0475915 0.00840335 0.0295715
0.0477137 0.00832418 0.0295304
0.047826 0.00824118 0.0294488
0.0479225 0.00815227 0.0293035
0.0480158 0.00806252 0.0291462
0.0481085 0.007973 0.0289887
0.0481993 0.00788317 0.0288253
0.048297 0.00779625 0.0286913
0.0485877 0.00777882 0.029329
0.0385334 0.0144686 0.0334379
0.0383966 0.0145444 0.033428
0.0384667 0.0146711 0.0333621
0.0386018 0.0145932 0.0333583
0.0387403 0.0145194 0.0333799
0.0388773 0.0144436 0.0333897
0.0390113 0.0143643 0.0333778
0.0391422 0.0142814 0.0333422
0.0392745 0.0142001 0.0333176
0.0394044 0.0141163 0.0332756
0.0395331 0.0140314 0.0332265
0.0396642 0.0139491 0.0331946
0.0397909 0.0138624 0.0331327
0.0399157 0.0137739 0.0330591
0.0400401 0.0136853 0.0329837
0.0401661 0.0135986 0.0329201
0.0402936 0.0135137 0.0328683
0.0404257 0.0134334 0.0328473
0.0405582 0.0133537 0.032829
0.0406843 0.0132678 0.03277
0.0408126 0.0131843 0.0327254
0.0409357 0.0130961 0.0326486
0.0410484 0.0129987 0.0325071
0.0411551 0.0128965 0.032331
0.0412574 0.0127911 0.0321308
0.0413527 0.0126804 0.0318904
0.0414433 0.0125668 0.0316265
0.0415367 0.0124566 0.0313836
0.0416298 0.0123471 0.0311429
0.041722 0.0122377 0.0309007
0.0418088 0.0121251 0.0306317
0.0418916 0.0120102 0.0303433
0.0419717 0.0118944 0.0300441
0.0420539 0.0117814 0.0297623
0.0421445 0.0116759 0.0295329
0.0422426 0.0115768 0.0293489
0.0423494 0.0114848 0.0292164
0.042464 0.011399 0.0291288
0.0425813 0.0113154 0.0290578
0.0426991 0.0112324 0.02899
0.0428203 0.011152 0.0289422
0.0429419 0.011072 0.0288962
0.0430613 0.0109906 0.02884
0.0431788 0.0109081 0.0287739
0.0432939 0.0108244 0.0286963
0.0434073 0.0107397 0.0286112
0.0435201 0.010655 0.0285241
0.0436325 0.0105702 0.028436
0.0437464 0.0104866 0.0283565
0.043862 0.0104044 0.0282872
0.0439782 0.0103227 0.0282213
0.0440979 0.0102433 0.0281738
0.0442231 0.0101672 0.0281536
0.0443486 0.0100913 0.0281355
0.0444801 0.0100189 0.0281458
0.044623 0.00995277 0.0282111
0.044769 0.00988812 0.0282905
0.0449175 0.00982445 0.0283802
0.0450637 0.00975934 0.0284579
0.0452092 0.00969349 0.0285306
0.0453491 0.00962444 0.0285767
0.0454879 0.00955469 0.0286162
0.0456228 0.00948283 0.028638
0.0457571 0.00941055 0.0286563
0.045883 0.00933405 0.0286364
0.0460045 0.00925546 0.0285963
0.0461277 0.00917778 0.0285645
0.0462556 0.00910241 0.0285542
0.0463908 0.00903035 0.0285757
0.0465304 0.00896021 0.0286161
0.0466738 0.00889163 0.0286724
0.0468319 0.00882934 0.028791
0.0470027 0.00877221 0.0289625
0.0471748 0.00871508 0.0291372
0.0473538 0.00866026 0.0293385
0.0475248 0.0086015 0.0295039
0.0476752 0.00853381 0.029581
0.0478071 0.00845842 0.02958
0.0479294 0.00837913 0.0295393
0.048029 0.00829109 0.0294061
0.0481177 0.00819921 0.0292301
0.0483907 0.00817774 0.0298021
0.0383909 0.0148617 0.0332146
0.0385308 0.0147901 0.0332489
0.0386672 0.0147141 0.033256
0.0388056 0.0146404 0.0332776
0.0389426 0.0145648 0.0332884
0.0390781 0.0144873 0.0332873
0.0392098 0.0144054 0.0332581
0.0393436 0.0143259 0.0332453
0.0394749 0.0142438 0.0332142
0.0396065 0.0141619 0.0331851
0.0397392 0.0140815 0.0331649
0.039866 0.0139948 0.0331041
0.0399923 0.0139078 0.0330404
0.0401181 0.0138204 0.0329741
0.0402452 0.0137347 0.0329187
0.0403731 0.01365 0.0328687
0.0405071 0.0135716 0.0328595
0.0406394 0.0134915 0.0328403
0.0407675 0.0134074 0.0327931
0.0408977 0.0133254 0.0327604
0.0410247 0.0132406 0.0327077
0.041142 0.0131471 0.0325951
0.0412549 0.01305 0.0324569
0.0413494 0.0129372 0.0322077
0.0414357 0.0128183 0.0319131
0.0415154 0.0126949 0.0315835
0.0415967 0.0125741 0.031269
0.0416783 0.012455 0.0309618
0.0417717 0.0123468 0.03073
0.0418586 0.0122342 0.0304634
0.0419424 0.0121202 0.0301833
0.0420236 0.0120053 0.0298927
0.0421055 0.011892 0.0296116
0.042196 0.0117864 0.0293834
0.0422958 0.0116886 0.0292105
0.0424043 0.011598 0.0290885
0.0425206 0.0115135 0.0290117
0.0426397 0.0114313 0.0289514
0.0427593 0.0113496 0.0288943
0.0428822 0.0112705 0.028856
0.0430037 0.0111905 0.0288105
0.0431212 0.0111078 0.0287443
0.043236 0.0110236 0.0286645
0.0433485 0.0109381 0.0285746
0.0434577 0.0108508 0.0284681
0.0435688 0.010765 0.0283734
0.0436814 0.0106805 0.0282875
0.0437953 0.0105971 0.0282097
0.043913 0.0105163 0.0281515
0.044033 0.010437 0.028105
0.044155 0.010359 0.0280695
0.0442821 0.0102841 0.0280592
0.0444092 0.0102093 0.0280494
0.0445403 0.0101367 0.0280583
0.0446795 0.0100686 0.0281059
0.0448217 0.010002 0.028167
0.044968 0.00993738 0.0282464
0.0451103 0.00987037 0.0283057
0.0452518 0.00980267 0.0283604
0.0453933 0.00973474 0.0284146
0.0455358 0.00966712 0.028472
0.0456678 0.0095939 0.0284805
0.0458019 0.00952175 0.0284987
0.0459269 0.00944502 0.0284752
0.0460434 0.00936413 0.0284144
0.0461624 0.00928466 0.028365
0.0462939 0.00921112 0.0283712
0.0464269 0.00913832 0.0283839
0.0465665 0.00906852 0.0284248
0.0467097 0.00900007 0.0284808
0.0468697 0.00893905 0.0286082
0.047045 0.00888422 0.0287989
0.047226 0.00883135 0.0290114
0.0474141 0.00878081 0.029251
0.0475968 0.0087272 0.0294647
0.0477591 0.00866449 0.0295907
0.0479012 0.00859314 0.0296315
0.0480314 0.00851692 0.0296231
0.048136 0.00843051 0.0295099
0.0484058 0.00840885 0.0300683
0.0384554 0.0149811 0.0331051
0.0385932 0.0149072 0.0331249
0.0387305 0.0148325 0.0331393
0.0388691 0.0147591 0.0331627
0.0390074 0.0146852 0.0331834
0.0391444 0.0146097 0.0331942
0.0392786 0.0145307 0.033184
0.0394141 0.0144533 0.0331829
0.0395467 0.0143726 0.0331619
0.0396797 0.0142924 0.0331427
0.0398139 0.0142135 0.0331326
0.039941 0.014127 0.0330735
0.0400686 0.0140413 0.033019
0.040197 0.0139565 0.0329708
0.0403248 0.0138714 0.032919
0.0404529 0.0137868 0.0328709
0.0405899 0.0137112 0.0328807
0.0407222 0.0136309 0.0328606
0.0408518 0.013548 0.0328225
0.0409838 0.0134675 0.0328006
0.0411127 0.0133843 0.0327597
0.0412319 0.0132923 0.0326581
0.0413485 0.0131982 0.0325427
0.0414388 0.0130812 0.0322679
0.0415107 0.0129491 0.031886
0.0415728 0.0128102 0.0314522
0.0416363 0.0126743 0.031034
0.0417137 0.0125517 0.030705
0.0418083 0.0124448 0.0304828
0.0418993 0.0123358 0.0302435
0.0419863 0.0122245 0.0299848
0.0420705 0.0121121 0.0297143
0.0421543 0.0120003 0.0294462
0.0422464 0.0118959 0.0292288
0.0423492 0.0118005 0.029074
0.042459 0.011711 0.0289611
0.0425787 0.0116291 0.0289034
0.0427015 0.0115496 0.028864
0.0428245 0.0114704 0.0288258
0.0429492 0.0113926 0.0287973
0.0430705 0.0113123 0.0287509
0.043186 0.0112283 0.0286747
0.0432968 0.0111414 0.028575
0.043407 0.0110543 0.0284732
0.0435141 0.0109657 0.0283574
0.0436253 0.01088 0.0282636
0.0437382 0.0107957 0.0281802
0.0438543 0.0107137 0.0281138
0.0439721 0.010633 0.0280571
0.0440957 0.0105559 0.0280288
0.0442215 0.0104803 0.0280124
0.044349 0.0104057 0.0280043
0.0444761 0.0103308 0.0279941
0.0446066 0.0102579 0.028
0.0447396 0.0101864 0.0280182
0.0448774 0.0101175 0.0280582
0.0450214 0.0100518 0.0281269
0.0451596 0.00998267 0.0281675
0.0452972 0.00991308 0.0282045
0.0454383 0.0098452 0.0282568
0.0455773 0.00977603 0.0282987
0.0457072 0.00970199 0.0282986
0.045841 0.0096299 0.0283166
0.0459655 0.00955305 0.0282918
0.0460801 0.00947141 0.0282232
0.0461987 0.00939194 0.028173
0.0463321 0.00931961 0.0281886
0.0464649 0.00924692 0.0282013
0.0466063 0.00917817 0.0282507
0.0467536 0.00911194 0.0283248
0.046916 0.00905227 0.0284628
0.0470941 0.00899905 0.0286655
0.0472819 0.00894947 0.0289059
0.0474769 0.00890229 0.0291741
0.0476667 0.00885198 0.0294166
0.0478407 0.00879436 0.0295908
0.0479926 0.00872705 0.0296714
0.0481327 0.00865467 0.0297026
0.0482465 0.00857168 0.0296266
0.0383805 0.0151722 0.0329651
0.0385169 0.0150968 0.0329749
0.0386555 0.0150239 0.0330002
0.0387939 0.0149507 0.0330236
0.038931 0.0148758 0.033037
0.0390681 0.0148007 0.0330496
0.0392053 0.0147256 0.0330621
0.0393409 0.0146485 0.0330628
0.0394777 0.0145727 0.0330717
0.0396132 0.0144954 0.0330716
0.0397489 0.0144183 0.0330723
0.0398846 0.0143411 0.0330721
0.0400142 0.0142573 0.0330312
0.0401434 0.0141732 0.0329876
0.0402735 0.0140903 0.0329512
0.0404046 0.0140084 0.0329212
0.0405346 0.0139255 0.0328848
0.0406718 0.01385 0.0328955
0.0408039 0.0137693 0.0328727
0.0409331 0.0136859 0.0328318
0.0410643 0.0136046 0.0328045
0.0411952 0.013523 0.0327754
0.0413171 0.0134332 0.0326911
0.0414382 0.0133431 0.0326032
0.041512 0.0132108 0.0322281
0.0415691 0.0130654 0.031759
0.0416169 0.0129139 0.0312417
0.0416724 0.0127711 0.0307797
0.0417506 0.0126495 0.0304592
0.0418478 0.0125449 0.0302549
0.0419392 0.0124364 0.0300207
0.0420297 0.0123281 0.0297847
0.042119 0.0122198 0.029546
0.0422064 0.0121109 0.0292999
0.0423018 0.0120092 0.0291028
0.0424074 0.011916 0.0289657
0.0425204 0.0118288 0.028871
0.0426403 0.0117471 0.0288154
0.0427634 0.0116679 0.0287779
0.0428865 0.0115888 0.0287401
0.0430111 0.0115109 0.0287115
0.0431305 0.0114295 0.0286558
0.0432477 0.0113466 0.028589
0.043357 0.0112586 0.028482
0.0434671 0.0111716 0.0283807
0.0435742 0.0110829 0.028266
0.0436854 0.0109972 0.0281728
0.0437983 0.010913 0.0280903
0.0439176 0.010833 0.0280404
0.0440372 0.0107534 0.0279922
0.0441625 0.0106774 0.0279733
0.0442902 0.0106029 0.0279659
0.044418 0.0105285 0.0279592
0.0445449 0.0104535 0.0279481
0.0446733 0.0103794 0.0279442
0.044802 0.0103054 0.0279418
0.0449353 0.0102341 0.0279605
0.0450766 0.010167 0.0280165
0.0452108 0.0100959 0.0280388
0.0453445 0.0100244 0.0280579
0.0454832 0.00995541 0.0280999
0.0456193 0.00988494 0.0281293
0.045745 0.00980892 0.0281107
0.0458767 0.00973598 0.0281196
0.0460027 0.00966015 0.0281029
0.0461195 0.00957981 0.0280456
0.0462387 0.00950072 0.027999
0.0463742 0.00942967 0.0280244
0.0465068 0.00935708 0.0280367
0.0466499 0.00928942 0.0280945
0.0468014 0.00922534 0.0281871
0.0469688 0.00916826 0.0283458
0.0471497 0.00911662 0.02856
0.0473457 0.00907104 0.0288346
0.0475458 0.00902636 0.0291224
0.0477428 0.00897947 0.0293944
0.0479267 0.00892616 0.0296082
0.0480904 0.00886381 0.0297366
0.0482398 0.0087951 0.0298048
0.0485359 0.0087856 0.0304669
0.0384414 0.0152865 0.0328295
0.0385781 0.0152118 0.032842
0.0387167 0.0151393 0.0328682
0.0388558 0.0150672 0.032898
0.0389941 0.0149939 0.0329205
0.0391323 0.0149204 0.0329421
0.0392696 0.0148455 0.0329555
0.0394052 0.0147686 0.0329571
0.0395421 0.014693 0.0329669
0.0396778 0.0146162 0.0329686
0.0398136 0.0145392 0.0329702
0.0399505 0.0144635 0.03298
0.0400819 0.0143817 0.0329509
0.0402141 0.0143008 0.0329281
0.0403477 0.0142215 0.0329143
0.0404818 0.0141428 0.0329051
0.0406136 0.0140616 0.0328796
0.0407521 0.0139873 0.0328984
0.0408843 0.0139066 0.0328766
0.0410127 0.0138223 0.0328302
0.0411433 0.0137401 0.0327984
0.0412747 0.013659 0.032772
0.0415267 0.0134869 0.0326551
0.0415937 0.0133481 0.0322397
0.0417089 0.012868 0.0305305
0.0417906 0.0127495 0.0302337
0.0418924 0.012649 0.0300587
0.0419857 0.0125422 0.0298372
0.0420795 0.0124368 0.0296227
0.0421724 0.0123313 0.0294061
0.0422632 0.0122251 0.0291816
0.0423603 0.0121247 0.0289954
0.0424677 0.0120329 0.028869
0.0425808 0.0119459 0.0287757
0.0427006 0.0118641 0.02872
0.0428236 0.0117849 0.0286823
0.0429463 0.0117056 0.0286436
0.0430708 0.0116277 0.0286144
0.0431919 0.0115474 0.028568
0.0433109 0.0114659 0.0285114
0.0434223 0.0113794 0.0284162
0.0435346 0.0112937 0.028327
0.0436434 0.011206 0.0282208
0.043756 0.0111212 0.0281358
0.0438689 0.0110369 0.0280527
0.0439882 0.0109569 0.0280029
0.0441073 0.0108769 0.027953
0.0442325 0.0108008 0.0279331
0.0443584 0.0107252 0.0279173
0.0444863 0.0106508 0.027911
0.0446134 0.010576 0.0279008
0.0447399 0.0105008 0.0278876
0.0448648 0.0104246 0.0278668
0.0449939 0.0103509 0.0278662
0.045131 0.0102817 0.0279029
0.0452614 0.0102086 0.0279075
0.0453926 0.0101359 0.0279161
0.0455289 0.0100659 0.0279474
0.0456622 0.00999408 0.0279644
0.0457849 0.00991666 0.0279334
0.0459158 0.0098436 0.0279398
0.0460424 0.00976827 0.0279266
0.0461615 0.0096892 0.02788
0.046283 0.00961143 0.0278446
0.0464185 0.00954057 0.0278707
0.0465489 0.00946712 0.0278742
0.0466919 0.00939965 0.0279316
0.0468458 0.00933697 0.0280347
0.0470137 0.00928045 0.0281959
0.047201 0.00923211 0.0284364
0.0474057 0.00919083 0.0287469
0.0476125 0.0091495 0.0290621
0.0478175 0.00910635 0.0293656
0.0480109 0.00905732 0.0296179
0.0481821 0.00899821 0.0297761
0.0483368 0.00893167 0.029865
0.0383725 0.0154847 0.0327349
0.0385053 0.0154049 0.0327185
0.0386397 0.0153273 0.0327138
0.038776 0.0152521 0.0327237
0.0389141 0.015179 0.0327462
0.039052 0.0151055 0.0327669
0.0391914 0.0150337 0.0327975
0.0393295 0.0149601 0.0328181
0.0394665 0.014885 0.0328297
0.0396046 0.0148111 0.0328495
0.0397415 0.0147357 0.0328602
0.0398775 0.0146592 0.0328637
0.0400147 0.0145839 0.0328753
0.0401475 0.0145037 0.032857
0.0402816 0.014425 0.0328469
0.0404183 0.0143491 0.0328548
0.0405555 0.0142735 0.0328655
0.0406903 0.0141954 0.0328599
0.040829 0.0141212 0.0328796
0.0409629 0.0140421 0.0328677
0.0410911 0.0139575 0.0328205
0.0412221 0.0138756 0.0327905
0.0413526 0.0137936 0.0327586
0.0416815 0.0130998 0.0306871
0.0417392 0.0129592 0.0302468
0.0418351 0.0128532 0.0300361
0.0419389 0.0127545 0.0298746
0.042035 0.0126502 0.0296718
0.0421318 0.0125472 0.0294763
0.0422293 0.0124456 0.0292874
0.0423219 0.0123408 0.029074
0.042424 0.0122442 0.028917
0.042533 0.0121536 0.0288004
0.0426477 0.0120677 0.0287163
0.0427659 0.0119848 0.0286521
0.0428883 0.0119052 0.0286119
0.0430089 0.0118243 0.0285621
0.0431298 0.0117439 0.0285145
0.0432508 0.0116637 0.0284684
0.0433718 0.0115835 0.0284226
0.0434871 0.0114997 0.0283481
0.0436033 0.0114167 0.0282788
0.0437172 0.0113323 0.0281993
0.0438316 0.0112486 0.0281232
0.0439441 0.0111638 0.0280387
0.0440617 0.0110826 0.0279802
0.0441791 0.0110015 0.0279219
0.0443023 0.0109241 0.0278923
0.0444263 0.0108473 0.0278669
0.0445539 0.0107727 0.027859
0.044681 0.0106979 0.0278492
0.0448078 0.0106228 0.0278374
0.0449311 0.0105458 0.0278095
0.0450583 0.010471 0.0277999
0.0451896 0.0103986 0.0278095
0.0453156 0.0103232 0.0277943
0.045443 0.0102485 0.0277855
0.0455752 0.0101764 0.0277985
0.0457043 0.0101026 0.027797
0.0458281 0.0100259 0.0277721
0.0459589 0.00995297 0.0277786
0.0460876 0.00987894 0.0277752
0.0462108 0.00980207 0.0277478
0.0463363 0.0097264 0.0277304
0.0464716 0.00965552 0.0277559
0.0466016 0.00958208 0.0277581
0.0467442 0.00951452 0.0278141
0.0468999 0.00945296 0.0279249
0.0470665 0.00939605 0.02808
0.047254 0.00934822 0.0283212
0.0474651 0.00931025 0.0286575
0.0476749 0.00927068 0.0289841
0.0478837 0.00922959 0.0293024
0.0480826 0.00918327 0.0295758
0.0482609 0.00912731 0.0297621
0.0484207 0.00906296 0.0298712
0.0383134 0.0156957 0.0327165
0.0384412 0.0156092 0.0326611
0.0385706 0.0155251 0.0326184
0.0387018 0.0154434 0.0325898
0.0388363 0.0153662 0.0325875
0.0389731 0.0152917 0.0326008
0.0391096 0.0152168 0.0326124
0.0392487 0.0151448 0.0326422
0.0393867 0.0150714 0.0326628
0.0395248 0.0149979 0.0326835
0.0396644 0.014926 0.0327141
0.0398027 0.0148524 0.0327347
0.0399397 0.0147772 0.0327463
0.0400782 0.0147035 0.0327669
0.0402126 0.0146252 0.0327595
0.0403481 0.0145481 0.0327603
0.0404865 0.014474 0.0327791
0.0406256 0.0144006 0.0328024
0.0407635 0.0143257 0.0328167
0.040904 0.0142532 0.0328472
0.0410395 0.0141757 0.0328461
0.0411698 0.0140931 0.0328116
0.0413018 0.0140121 0.0327879
0.0417806 0.0130598 0.0300302
0.0418947 0.0129695 0.0299274
0.0419975 0.01287 0.0297613
0.0420932 0.0127653 0.0295575
0.0421894 0.0126619 0.0293604
0.0422868 0.0125601 0.0291722
0.0423808 0.0124564 0.0289687
0.0424861 0.0123624 0.0288307
0.0425986 0.0122745 0.0287333
0.0427149 0.0121899 0.0286587
0.0428328 0.0121066 0.0285932
0.0429532 0.0120255 0.0285422
0.0430734 0.0119444 0.0284911
0.0431907 0.0118614 0.0284251
0.0433116 0.0117811 0.0283786
0.0434359 0.0117034 0.0283499
0.0435532 0.0116209 0.0282864
0.0436698 0.0115381 0.0282198
0.0437873 0.0114561 0.0281588
0.0439034 0.0113734 0.0280914
0.0440164 0.0112889 0.0280092
0.0441358 0.0112088 0.0279601
0.0442532 0.0111275 0.0279013
0.0443742 0.0110487 0.0278615
0.0444959 0.0109705 0.0278249
0.0446214 0.0108947 0.0278072
0.0447451 0.0108177 0.0277809
0.0448702 0.0107417 0.0277613
0.0449935 0.0106647 0.0277336
0.0451188 0.0105889 0.027715
0.045246 0.0105141 0.0277061
0.0453714 0.0104385 0.0276885
0.0455001 0.0103646 0.0276862
0.0456308 0.0102918 0.0276925
0.0457582 0.0102172 0.0276843
0.0458858 0.0101427 0.0276764
0.0460168 0.0100699 0.0276839
0.0461438 0.00999505 0.0276736
0.0462691 0.00991934 0.0276556
0.0463963 0.00984457 0.027646
0.0465275 0.00977183 0.0276538
0.046657 0.00969817 0.0276542
0.046799 0.00963052 0.0277075
0.0469567 0.00957011 0.0278267
0.0471253 0.00951436 0.02799
0.0473131 0.009467 0.0282317
0.0475266 0.00943061 0.0285767
0.0477391 0.00939258 0.0289134
0.0479486 0.00935223 0.0292335
0.0481482 0.00930657 0.029509
0.0483333 0.00925377 0.0297223
0.0485001 0.0091925 0.0298593
0.038258 0.0159119 0.0327269
0.0383828 0.0158211 0.0326471
0.038508 0.0157311 0.0325719
0.0386329 0.0156412 0.0324965
0.0387593 0.0155535 0.0324327
0.0388912 0.0154732 0.0324116
0.0390274 0.0153983 0.0324225
0.0391627 0.0153223 0.032426
0.0393018 0.0152508 0.032457
0.0394409 0.015179 0.0324868
0.0395791 0.0151059 0.0325093
0.0397201 0.015036 0.0325507
0.0398614 0.0149661 0.032593
0.0400011 0.0148942 0.0326236
0.0401408 0.014822 0.0326533
0.0402777 0.0147467 0.032663
0.040413 0.0146695 0.0326629
0.0405532 0.0145974 0.0326934
0.0406938 0.0145256 0.0327267
0.0408334 0.0144526 0.0327527
0.040974 0.0143803 0.0327841
0.041113 0.0143063 0.0328047
0.0412453 0.0142255 0.0327819
0.0413784 0.0141456 0.0327654
0.0417488 0.0132867 0.0301571
0.041861 0.0131942 0.030042
0.0419713 0.0131004 0.0299172
0.0420686 0.0129961 0.0297204
0.0421607 0.0128882 0.0294973
0.0422548 0.0127829 0.0292885
0.0423519 0.0126808 0.0291
0.0424461 0.0125771 0.0288988
0.0425534 0.0124847 0.0287727
0.0426674 0.0123979 0.0286843
0.0427837 0.0123131 0.0286095
0.0428983 0.0122274 0.0285271
0.0430171 0.0121451 0.0284675
0.0431354 0.0120626 0.0284065
0.0432491 0.011977 0.0283224
0.0433712 0.0118976 0.028283
0.0434952 0.0118198 0.0282533
0.0436143 0.0117386 0.0281996
0.0437326 0.011657 0.0281424
0.043854 0.0115776 0.028101
0.0439704 0.0114951 0.0280354
0.044087 0.0114129 0.0279716
0.0442067 0.011333 0.0279241
0.0443241 0.0112516 0.0278656
0.0444432 0.0111716 0.0278162
0.0445626 0.0110919 0.0277688
0.044686 0.0110147 0.0277408
0.0448076 0.0109366 0.0277049
0.0449307 0.0108593 0.0276764
0.0450536 0.0107821 0.0276471
0.0451766 0.0107051 0.0276186
0.0453016 0.0106292 0.0275992
0.0454284 0.0105544 0.0275887
0.0455589 0.0104816 0.027595
0.0456902 0.0104092 0.027604
0.0458219 0.010337 0.0276151
0.0459517 0.0102637 0.0276176
0.0460811 0.0101901 0.0276179
0.0462081 0.0101153 0.0276076
0.0463352 0.0100406 0.0275977
0.0464624 0.00996578 0.0275884
0.0465917 0.00989209 0.0275878
0.046721 0.00981839 0.0275871
0.0468605 0.00974958 0.0276302
0.0470182 0.00968943 0.0277489
0.0471851 0.0096331 0.0279046
0.0473733 0.00958627 0.0281469
0.0475885 0.00955104 0.0284981
0.0478027 0.00951422 0.0288409
0.0480103 0.00947341 0.0291521
0.0482117 0.00942886 0.029434
0.0483989 0.00937723 0.0296551
0.0485706 0.0093183 0.0298106
0.0381317 0.016001 0.0327968
0.0382021 0.0161278 0.0327347
0.0383286 0.0160389 0.0326666
0.0384515 0.0159455 0.0325733
0.0385728 0.0158503 0.0324686
0.0386933 0.0157548 0.0323609
0.0388153 0.0156616 0.0322661
0.038944 0.0155775 0.0322225
0.0390773 0.0154994 0.0322136
0.0392125 0.0154236 0.032218
0.0393515 0.0153524 0.0322496
0.0394918 0.0152825 0.0322897
0.0396313 0.0152114 0.0323223
0.0397739 0.0151437 0.0323757
0.0399169 0.0150761 0.0324307
0.0400582 0.0150063 0.032473
0.0401977 0.0149343 0.0325027
0.040336 0.0148606 0.0325223
0.0404726 0.0147851 0.0325312
0.0406141 0.0147147 0.0325717
0.0407563 0.0146446 0.0326148
0.0408976 0.0145735 0.0326516
0.0410388 0.014502 0.0326876
0.0411791 0.0144294 0.0327163
0.0413141 0.0143514 0.0327115
0.0417104 0.0135088 0.0302475
0.0418224 0.0134154 0.030129
0.0419337 0.0133219 0.0300082
0.0420431 0.0132272 0.0298792
0.0421383 0.013121 0.0296713
0.04223 0.0130126 0.0294468
0.0423236 0.0129067 0.0292368
0.0424204 0.0128042 0.0290473
0.0425147 0.0127006 0.0288478
0.0426221 0.0126081 0.0287224
0.0427363 0.0125213 0.0286356
0.0428525 0.0124365 0.0285607
0.042967 0.0123506 0.028478
0.0430857 0.0122682 0.0284185
0.043204 0.0121856 0.0283575
0.0433159 0.0120986 0.0282644
0.0434378 0.0120191 0.0282239
0.0435599 0.0119399 0.0281849
0.043679 0.0118587 0.0281312
0.0437975 0.0117772 0.0280752
0.0439222 0.0117002 0.028051
0.0440405 0.0116189 0.0279952
0.0441609 0.0115392 0.0279504
0.0442827 0.0114605 0.0279128
0.0444004 0.0113792 0.0278557
0.0445176 0.0112978 0.027797
0.0446348 0.0112166 0.0277389
0.044756 0.0111381 0.0277008
0.0448756 0.0110587 0.0276553
0.0449984 0.0109813 0.0276253
0.0451207 0.0109037 0.0275934
0.0452434 0.0108264 0.0275634
0.0453664 0.0107494 0.0275357
0.0454935 0.0106747 0.0275261
0.0456245 0.0106023 0.0275346
0.0457561 0.0105301 0.0275454
0.0458882 0.0104582 0.0275581
0.0460199 0.010386 0.0275688
0.0461472 0.0103113 0.0275602
0.0462741 0.0102364 0.0275489
0.046401 0.0101615 0.0275385
0.0465283 0.0100869 0.0275297
0.0466558 0.0100123 0.0275218
0.046789 0.00994057 0.0275377
0.0469287 0.00987194 0.0275811
0.0470868 0.00981204 0.027701
0.047254 0.00975607 0.0278575
0.0474422 0.00970949 0.0280988
0.0476532 0.00967273 0.0284314
0.0478647 0.00963509 0.0287615
0.0480672 0.00959232 0.0290509
0.0482663 0.00954717 0.0293228
0.0484533 0.00949578 0.0295425
0.0486274 0.00943815 0.0297078
0.0382698 0.0162507 0.0326508
0.0383948 0.0161598 0.0325729
0.0385161 0.0160642 0.0324676
0.0386342 0.015965 0.0323401
0.0387518 0.0158658 0.0322122
0.0388696 0.0157674 0.0320885
0.0389966 0.0156814 0.0320338
0.0391282 0.0156015 0.0320135
0.0392618 0.0155242 0.0320084
0.0393993 0.0154516 0.0320307
0.0395407 0.0153835 0.0320797
0.03968 0.0153126 0.0321123
0.039824 0.015247 0.032177
0.0399684 0.0151814 0.0322426
0.0401115 0.0151141 0.0322984
0.0402527 0.0150442 0.0323398
0.0403938 0.0149739 0.032379
0.0405319 0.0149002 0.0323988
0.0406751 0.0148318 0.03245
0.0408187 0.0147635 0.0325031
0.0409618 0.0146944 0.0325516
0.0411036 0.0146237 0.0325911
0.0412448 0.0145521 0.0326261
0.04179 0.013643 0.030253
0.0419035 0.0135508 0.0301439
0.0420155 0.0134577 0.0300276
0.0421225 0.0133607 0.0298845
0.0422132 0.0132503 0.0296516
0.0423029 0.01314 0.0294168
0.0423948 0.0130325 0.0291976
0.0424913 0.0129297 0.0290077
0.0425872 0.0128271 0.0288174
0.0426963 0.0127357 0.0287017
0.0428104 0.0126489 0.0286147
0.042928 0.012565 0.0285473
0.0430407 0.0124776 0.0284552
0.0431576 0.0123937 0.0283859
0.0432742 0.0123099 0.028317
0.0433845 0.0122215 0.0282152
0.0435029 0.0121396 0.0281575
0.0436231 0.012059 0.0281089
0.0437419 0.0119776 0.0280543
0.0438587 0.0118949 0.0279898
0.0439835 0.011818 0.0279668
0.0441018 0.0117367 0.027911
0.0442239 0.0116581 0.0278749
0.0443458 0.0115796 0.0278386
0.0444655 0.0114996 0.0277912
0.0445843 0.0114192 0.0277407
0.0447032 0.0113391 0.0276912
0.0448243 0.0112604 0.0276524
0.0449438 0.0111809 0.0276066
0.0450665 0.0111035 0.0275766
0.0451888 0.0110259 0.0275447
0.0453115 0.0109485 0.0275147
0.0454348 0.0108716 0.0274879
0.0455621 0.0107972 0.0274798
0.0456936 0.010725 0.0274901
0.0458271 0.0106539 0.0275092
0.0459589 0.0105818 0.0275208
0.0460904 0.0105095 0.0275303
0.0462173 0.0104345 0.0275195
0.0463438 0.0103594 0.0275071
0.0464686 0.0102835 0.0274872
0.0465981 0.0102099 0.0274879
0.0467279 0.0101365 0.0274895
0.0468637 0.0100661 0.0275163
0.0470058 0.0099987 0.0275696
0.0471682 0.00994098 0.0277069
0.0473359 0.00988532 0.0278646
0.0475223 0.00983804 0.0280971
0.0477288 0.00979947 0.0284093
0.0479358 0.00976001 0.0287195
0.0481293 0.00971352 0.0289714
0.0483238 0.00966664 0.0292239
0.0485084 0.0096145 0.0294333
0.0486851 0.00955829 0.029609
0.0489704 0.00945206 0.0305426
0.0488541 0.00949819 0.0297514
0.0382012 0.0164485 0.0325582
0.03833 0.016363 0.0325101
0.0384555 0.016273 0.0324368
0.038574 0.0161739 0.0323123
0.0386916 0.0160742 0.0321832
0.0388078 0.0159734 0.0320467
0.038924 0.0158732 0.0319123
0.0390494 0.0157856 0.0318482
0.0391806 0.0157055 0.0318268
0.0393126 0.0156265 0.0318116
0.0394485 0.0155523 0.0318237
0.0395895 0.0154842 0.0318712
0.0397283 0.0154132 0.031902
0.0398721 0.0153478 0.0319665
0.0400178 0.0152842 0.032042
0.0401637 0.0152203 0.0321173
0.0403078 0.0151541 0.0321787
0.0404532 0.015089 0.0322479
0.0405948 0.0150192 0.0322907
0.0407401 0.0149532 0.0323555
0.0408852 0.0148867 0.0324184
0.041028 0.0148174 0.0324651
0.0411681 0.014745 0.0324938
0.0413073 0.0146715 0.0325161
0.0419862 0.0136877 0.0301673
0.042098 0.0135942 0.0300494
0.0422011 0.0134936 0.0298843
0.0422898 0.0133812 0.0296409
0.042378 0.0132693 0.0293983
0.0424698 0.0131615 0.0291796
0.0425647 0.0130571 0.0289818
0.0426618 0.0129553 0.0287989
0.0427709 0.0128639 0.0286832
0.0428849 0.0127768 0.0285959
0.0430009 0.0126916 0.0285199
0.0431132 0.0126037 0.0284259
0.0432283 0.0125184 0.0283473
0.043343 0.012433 0.0282685
0.0434531 0.0123445 0.0281665
0.0435697 0.0122611 0.0280995
0.0436895 0.0121803 0.0280494
0.0438064 0.0120975 0.0279854
0.0439212 0.0120134 0.0279116
0.0440442 0.0119353 0.0278795
0.0441622 0.0118538 0.027823
0.0442841 0.0117752 0.0277866
0.0444078 0.0116979 0.027759
0.0445294 0.0116192 0.0277218
0.0446505 0.0115403 0.0276822
0.0447712 0.0114613 0.0276414
0.0448924 0.0113827 0.0276033
0.0450121 0.0113033 0.0275588
0.0451352 0.0112261 0.0275303
0.0452581 0.0111487 0.0275011
0.045381 0.0110715 0.0274726
0.0455063 0.0109958 0.0274547
0.0456355 0.0109224 0.027455
0.0457668 0.01085 0.0274642
0.045902 0.0107799 0.0274907
0.0460336 0.0107077 0.0275009
0.046163 0.0106341 0.0275011
0.0462878 0.010558 0.0274808
0.0464141 0.0104828 0.0274674
0.0465367 0.0104057 0.0274385
0.0466684 0.0103333 0.0274482
0.0468005 0.0102611 0.0274598
0.0469389 0.0101919 0.0274972
0.0470837 0.0101259 0.0275611
0.0472487 0.0100695 0.0277085
0.0474166 0.0100141 0.0278659
0.047603 0.00996702 0.0280972
0.0478055 0.00992676 0.0283918
0.04801 0.00988646 0.0286903
0.0482009 0.009839 0.0289305
0.0483932 0.00979138 0.029173
0.0485758 0.00973865 0.0293737
0.048755 0.00968372 0.0295585
0.0489244 0.00962396 0.0297021
0.0382536 0.0165493 0.0323556
0.0383842 0.0164668 0.0323238
0.0385109 0.0163789 0.0322618
0.0386291 0.0162796 0.0321363
0.0387454 0.0161785 0.032
0.0388626 0.0160794 0.0318734
0.0389799 0.0159809 0.0317495
0.0391038 0.0158916 0.031676
0.0392334 0.0158098 0.0316445
0.0393651 0.0157308 0.0316282
0.0394993 0.015655 0.03163
0.0396387 0.0155853 0.0316674
0.0397758 0.0155126 0.0316879
0.039919 0.0154469 0.0317492
0.0400643 0.0153834 0.0318238
0.0402114 0.0153214 0.0319079
0.040357 0.0152573 0.0319806
0.040507 0.0151976 0.0320802
0.0406522 0.0151321 0.0321467
0.0408003 0.0150694 0.0322313
0.0409475 0.0150053 0.0323068
0.0410908 0.0149366 0.0323571
0.0412295 0.0148631 0.0323776
0.0419585 0.0139202 0.0303169
0.0420726 0.0138281 0.0302109
0.0421846 0.0137344 0.030094
0.0422868 0.0136327 0.029924
0.0423751 0.0135196 0.0296783
0.0424627 0.0134069 0.0294335
0.0425529 0.0132974 0.0292063
0.0426462 0.0131914 0.0289997
0.0427432 0.0130892 0.0288163
0.0428506 0.0129962 0.0286916
0.0429615 0.0129064 0.0285879
0.0430757 0.0128197 0.0285027
0.0431876 0.0127314 0.0284064
0.0433008 0.0126444 0.028318
0.0434136 0.0125576 0.0282298
0.0435236 0.0124689 0.0281273
0.0436381 0.0123839 0.0280496
0.0437542 0.0123003 0.0279814
0.0438689 0.0122159 0.0279065
0.0439817 0.0121305 0.0278236
0.0441027 0.012051 0.0277821
0.0442203 0.0119694 0.0277241
0.0443419 0.0118906 0.0276867
0.0444656 0.0118133 0.0276594
0.0445892 0.011736 0.0276318
0.0447124 0.0116586 0.027603
0.0448355 0.0115811 0.0275739
0.0449588 0.0115039 0.027546
0.0450823 0.0114267 0.027519
0.0452075 0.0113508 0.0275005
0.0453326 0.0112748 0.0274816
0.0454578 0.0111989 0.0274631
0.0455849 0.0111241 0.0274535
0.045714 0.0110506 0.0274528
0.0458451 0.0109781 0.0274608
0.0459804 0.010908 0.0274873
0.0461102 0.0108347 0.0274892
0.0462379 0.0107601 0.0274815
0.0463605 0.0106828 0.0274518
0.0464847 0.0106064 0.0274295
0.0466075 0.0105293 0.0274007
0.0467413 0.010458 0.0274192
0.0468758 0.010387 0.0274409
0.0470187 0.0103202 0.0274972
0.04717 0.0102574 0.0275878
0.0473377 0.0102024 0.0277452
0.0475082 0.0101484 0.0279119
0.0476972 0.0101026 0.0281527
0.0478956 0.0100606 0.0284285
0.0480938 0.0100175 0.0286999
0.0482799 0.00996795 0.0289193
0.0484698 0.00991944 0.0291512
0.0486485 0.00986507 0.0293352
0.048828 0.00981051 0.0295203
0.0489952 0.00974995 0.0296546
0.0381794 0.016738 0.0322179
0.0383087 0.0166539 0.0321766
0.0384386 0.0165707 0.0321405
0.0385641 0.0164815 0.0320714
0.0386809 0.0163808 0.0319384
0.0387987 0.016282 0.0318155
0.0389186 0.0161868 0.0317104
0.0390385 0.016092 0.0316073
0.0391635 0.0160043 0.0315427
0.039293 0.0159227 0.0315119
0.0394243 0.0158433 0.0314938
0.0395571 0.015766 0.0314864
0.0396935 0.0156929 0.0315038
0.0398289 0.0156186 0.0315136
0.039969 0.0155497 0.0315555
0.0401126 0.0154845 0.0316187
0.040258 0.0154211 0.0316934
0.0404051 0.015359 0.0317765
0.0405582 0.0153032 0.0318972
0.0407079 0.0152431 0.031994
0.0408596 0.0151846 0.0321011
0.0410097 0.0151237 0.0321952
0.0411532 0.0150555 0.0322473
0.0412915 0.0149817 0.032266
0.0420446 0.0140607 0.0303586
0.0421593 0.0139688 0.0302554
0.0422701 0.0138738 0.0301316
0.0423715 0.0137711 0.0299571
0.0424592 0.0136572 0.029709
0.0425465 0.0135438 0.0294625
0.042635 0.0134325 0.0292266
0.0427264 0.0133247 0.0290102
0.0428231 0.013222 0.0288257
0.0429285 0.0131271 0.0286901
0.0430362 0.0130346 0.0285689
0.0431502 0.0129475 0.0284828
0.0432636 0.0128603 0.0283947
0.043375 0.0127719 0.0282976
0.0434862 0.0126836 0.0282005
0.0435958 0.0125945 0.0280968
0.0437066 0.0125067 0.0280008
0.0438207 0.0124216 0.0279225
0.0439333 0.0123358 0.0278378
0.0440441 0.0122488 0.0277452
0.0441629 0.0121678 0.0276933
0.0442804 0.0120861 0.0276354
0.0444001 0.0120062 0.0275892
0.0445255 0.0119301 0.0275706
0.044651 0.0118541 0.0275526
0.0447763 0.011778 0.0275341
0.0449016 0.011702 0.0275152
0.0450269 0.011626 0.0274965
0.0451522 0.0115501 0.0274786
0.0452794 0.0114753 0.027469
0.0454066 0.0114005 0.0274594
0.0455337 0.0113258 0.0274498
0.0456609 0.011251 0.0274402
0.0457881 0.0111763 0.0274306
0.0459173 0.0111027 0.02743
0.0460509 0.0110316 0.0274485
0.0461789 0.0109573 0.0274426
0.0463066 0.0108828 0.027435
0.0464331 0.0108075 0.027422
0.0465594 0.0107322 0.0274086
0.0466845 0.0106563 0.0273897
0.0468225 0.0105872 0.0274259
0.0469614 0.0105184 0.0274651
0.0471068 0.0104528 0.0275311
0.047263 0.0103925 0.0276413
0.0474335 0.0103389 0.0278092
0.0476067 0.0102862 0.0279859
0.0477965 0.0102409 0.0282278
0.047991 0.0101971 0.0284859
0.0481826 0.010151 0.028729
0.048366 0.0101003 0.0289362
0.0485516 0.0100499 0.0291495
0.0487284 0.00999489 0.0293256
0.0489059 0.00993954 0.0295016
0.0490727 0.00987886 0.0296337
0.0380934 0.0169087 0.0319863
0.0382282 0.0168329 0.0319893
0.0383593 0.0167519 0.0319641
0.038489 0.0166688 0.0319281
0.0386145 0.0165801 0.0318613
0.0387338 0.0164832 0.0317495
0.0388542 0.0163884 0.0316482
0.0389757 0.0162955 0.0315566
0.0390969 0.0162027 0.0314645
0.0392219 0.0161153 0.0314021
0.0393513 0.0160338 0.031371
0.0394811 0.0159529 0.0313435
0.0396135 0.0158753 0.0313348
0.0397485 0.0158008 0.0313431
0.0398822 0.0157247 0.0313429
0.0400204 0.0156539 0.0313725
0.0401622 0.015587 0.0314248
0.0403075 0.0155238 0.031499
0.0404573 0.0154653 0.0316012
0.0406122 0.0154119 0.0317343
0.0407649 0.0153554 0.0318502
0.0409211 0.015302 0.0319859
0.0410742 0.0152446 0.0321001
0.0412185 0.0151774 0.0321564
0.0413604 0.0151073 0.0321967
0.0421326 0.0142031 0.0304101
0.0422504 0.0141138 0.0303239
0.0423631 0.0140202 0.0302107
0.042463 0.0139157 0.0300274
0.0425489 0.0137996 0.0297689
0.0426325 0.0136828 0.0295026
0.0427174 0.013568 0.0292473
0.0428037 0.0134555 0.0290037
0.0428996 0.013352 0.0288159
0.0430045 0.0132566 0.0286782
0.0431104 0.0131624 0.0285476
0.0432226 0.0130738 0.0284522
0.0433376 0.0129878 0.0283726
0.0434474 0.012898 0.0282677
0.0435572 0.0128085 0.0281635
0.0436681 0.0127204 0.0280668
0.0437788 0.0126323 0.0279702
0.0438911 0.0125458 0.0278829
0.0440018 0.0124584 0.027789
0.0441104 0.0123699 0.0276865
0.0442255 0.0122863 0.0276167
0.0443411 0.0122033 0.02755
0.0444591 0.0121221 0.0274958
0.0445845 0.0120461 0.0274779
0.0447117 0.0119714 0.0274683
0.0448389 0.0118966 0.0274587
0.0449661 0.0118219 0.0274491
0.0450932 0.0117471 0.0274395
0.0452204 0.0116723 0.0274299
0.0453476 0.0115976 0.0274203
0.0454748 0.0115228 0.0274107
0.0456019 0.011448 0.0274011
0.0457291 0.0113733 0.0273915
0.0458563 0.0112985 0.0273819
0.0459856 0.011225 0.0273816
0.0461191 0.0111539 0.0273997
0.0462473 0.0110796 0.0273943
0.0463766 0.011006 0.0273938
0.0465073 0.0109331 0.0273987
0.0466362 0.0108592 0.0273962
0.0467659 0.0107857 0.0273972
0.0469084 0.010719 0.0274516
0.0470518 0.0106525 0.0275094
0.0471978 0.0105871 0.0275769
