ply
format ascii 1.0
element vertex 1669
property float x
property float y
property float z
end_header
0.293355 -0.0216856 0.819445
0.375759 -0.0199646 0.736829
0.373966 -0.0199953 0.736616
0.372147 -0.0200246 0.736341
0.370122 -0.020049 0.735622
0.367994 -0.0200713 0.734676
0.365996 -0.0200957 0.73399
0.364125 -0.020124 0.733566
0.362308 -0.0201528 0.733247
0.360609 -0.0201845 0.733176
0.359062 -0.0202195 0.733426
0.357568 -0.0202566 0.733788
0.35612 -0.0202945 0.734249
0.355008 -0.0203406 0.735444
0.353879 -0.0203865 0.73661
0.352803 -0.0204338 0.737895
0.351746 -0.0204818 0.73923
0.350631 -0.0205288 0.740441
0.349291 -0.0205696 0.741152
0.348015 -0.0206122 0.742009
0.346674 -0.0206531 0.742722
0.345297 -0.020693 0.743353
0.344987 -0.0207625 0.746421
0.346522 -0.0208841 0.753745
0.347979 -0.0210039 0.760951
0.349452 -0.0211263 0.768254
0.35049 -0.0212368 0.774608
0.350185 -0.0213104 0.777876
0.34814 -0.021334 0.777082
0.346219 -0.0213605 0.776566
0.344317 -0.0213878 0.776085
0.342489 -0.0214169 0.775771
0.340851 -0.0214515 0.775901
0.339156 -0.0214849 0.775891
0.337483 -0.0215174 0.775924
0.335864 -0.0215522 0.776085
0.334137 -0.0215839 0.775978
0.332334 -0.0216131 0.775676
0.330638 -0.0216452 0.77563
0.329099 -0.0216821 0.775968
0.327409 -0.0217147 0.775925
0.325811 -0.0217494 0.776104
0.324225 -0.0217846 0.77631
0.322546 -0.0218157 0.776277
0.321023 -0.0218534 0.776633
0.319765 -0.021899 0.777662
0.318593 -0.0219475 0.778914
0.31746 -0.0219981 0.780271
0.316334 -0.0220486 0.781658
0.315027 -0.0220931 0.782577
0.313644 -0.0221346 0.783303
0.312289 -0.0221781 0.784104
0.310941 -0.0222212 0.784924
0.309632 -0.0222652 0.785847
0.308258 -0.0223074 0.786602
0.306872 -0.0223496 0.787327
0.305544 -0.0223939 0.788209
0.304195 -0.0224368 0.789035
0.302894 -0.0224821 0.789992
0.301751 -0.0225333 0.791387
0.300609 -0.0225846 0.792792
0.299397 -0.0226332 0.794013
0.298375 -0.02269 0.795765
0.297492 -0.0227513 0.797918
0.296769 -0.0228196 0.800535
0.296155 -0.0228919 0.803482
0.295696 -0.0229719 0.806892
0.295264 -0.0230531 0.81041
0.294741 -0.023131 0.813697
0.293979 -0.0231996 0.816324
0.293277 -0.0232721 0.819147
0.375635 -0.0214805 0.736469
0.37374 -0.0215068 0.736042
0.371891 -0.0215341 0.735702
0.369882 -0.0215564 0.735017
0.367718 -0.0215749 0.73399
0.365761 -0.0215981 0.733391
0.363929 -0.0216246 0.733048
0.362115 -0.0216522 0.732735
0.360413 -0.0216827 0.732654
0.358861 -0.021717 0.732892
0.357292 -0.021751 0.733092
0.355807 -0.0217873 0.733468
0.354652 -0.0218334 0.734568
0.353447 -0.0218778 0.735561
0.352292 -0.0219238 0.736668
0.351191 -0.0219719 0.737901
0.350039 -0.0220188 0.739023
0.348666 -0.0220581 0.739657
0.347435 -0.0221025 0.740607
0.346137 -0.0221452 0.741413
0.344848 -0.0221873 0.742237
0.344078 -0.0222465 0.744251
0.345139 -0.0223647 0.750478
0.34824 -0.0226363 0.765353
0.349397 -0.0227617 0.771971
0.3497 -0.0228596 0.776647
0.348173 -0.022897 0.777066
0.34618 -0.0229198 0.776383
0.344242 -0.0229434 0.775815
0.342418 -0.0229708 0.775509
0.340783 -0.0230043 0.775647
0.339098 -0.0230368 0.775659
0.337488 -0.0230714 0.775848
0.335874 -0.0231048 0.776021
0.334174 -0.0231363 0.775979
0.332369 -0.0231633 0.775675
0.330668 -0.0231938 0.775618
0.329092 -0.0232291 0.775862
0.327395 -0.0232595 0.775802
0.325795 -0.0232936 0.775977
0.324211 -0.0233285 0.776188
0.322535 -0.0233597 0.776162
0.320976 -0.0233943 0.776429
0.31974 -0.0234413 0.777513
0.318568 -0.0234919 0.778766
0.317396 -0.023541 0.780023
0.316268 -0.0235934 0.781401
0.314988 -0.0236397 0.782393
0.313572 -0.0236805 0.783033
0.312188 -0.0237225 0.783756
0.310876 -0.0237672 0.784669
0.309572 -0.0238122 0.785608
0.308274 -0.0238576 0.786564
0.306965 -0.0239034 0.787495
0.305715 -0.0239511 0.788588
0.304407 -0.0239961 0.789528
0.303171 -0.0240449 0.790667
0.301995 -0.0240964 0.791976
0.300815 -0.0241474 0.793283
0.299571 -0.0241961 0.794415
0.298513 -0.0242521 0.796072
0.297535 -0.0243122 0.797963
0.296739 -0.0243813 0.800377
0.296084 -0.0244559 0.803208
0.295593 -0.0245386 0.806526
0.29513 -0.0246237 0.809955
0.294633 -0.0247072 0.813313
0.293897 -0.0247816 0.816015
0.293196 -0.0248571 0.818838
0.373463 -0.0230156 0.735361
0.371605 -0.0230407 0.735
0.369676 -0.0230632 0.734481
0.367551 -0.0230794 0.733536
0.365638 -0.023102 0.733029
0.36381 -0.0231271 0.732693
0.362028 -0.0231537 0.73245
0.360287 -0.0231813 0.732284
0.358703 -0.0232139 0.732453
0.357064 -0.0232447 0.732497
0.355538 -0.0232791 0.732784
0.354302 -0.0233233 0.733704
0.353017 -0.0233659 0.734517
0.351816 -0.0234114 0.73552
0.350639 -0.0234578 0.736577
0.349484 -0.0235051 0.73769
0.348115 -0.023545 0.738326
0.346959 -0.0235923 0.739442
0.345709 -0.0236364 0.740349
0.344536 -0.0236834 0.741433
0.343314 -0.0237288 0.742412
0.343815 -0.0238367 0.747347
0.347017 -0.0241364 0.762428
0.348323 -0.0242776 0.769377
0.349211 -0.0244039 0.775411
0.348277 -0.0244635 0.777216
0.346282 -0.0244839 0.776529
0.34431 -0.0245041 0.775884
0.342497 -0.0245301 0.775605
0.340862 -0.0245627 0.775744
0.339211 -0.0245955 0.775839
0.337567 -0.024628 0.775946
0.335918 -0.0246592 0.776036
0.334182 -0.0246881 0.775909
0.332373 -0.0247129 0.775595
0.330671 -0.0247432 0.775536
0.329098 -0.0247776 0.775788
0.327406 -0.0248066 0.775741
0.325838 -0.0248408 0.775998
0.32429 -0.024876 0.776299
0.322614 -0.0249067 0.776278
0.321022 -0.0249398 0.77646
0.319776 -0.0249873 0.777518
0.318552 -0.0250361 0.778639
0.317341 -0.0250849 0.779797
0.316179 -0.0251365 0.781088
0.314898 -0.0251832 0.782076
0.313448 -0.0252229 0.782625
0.312063 -0.0252645 0.783345
0.310755 -0.0253105 0.784268
0.309491 -0.0253577 0.785313
0.308299 -0.0254089 0.786551
0.307096 -0.02546 0.787766
0.305888 -0.02551 0.788973
0.304613 -0.0255576 0.790007
0.303406 -0.0256083 0.791229
0.3022 -0.02566 0.792458
0.300992 -0.025711 0.793689
0.29978 -0.0257613 0.794916
0.298722 -0.0258204 0.796575
0.29771 -0.0258815 0.798376
0.296879 -0.0259515 0.800694
0.296217 -0.0260299 0.803508
0.295685 -0.0261151 0.806712
0.295184 -0.0262029 0.810034
0.29465 -0.0262903 0.813288
0.293911 -0.0263674 0.815981
0.293147 -0.0264438 0.818624
0.373174 -0.024522 0.734656
0.37133 -0.0245458 0.734322
0.369451 -0.0245681 0.733907
0.367383 -0.0245833 0.733082
0.365512 -0.0246053 0.732662
0.36369 -0.0246288 0.73234
0.361909 -0.0246537 0.732095
0.360203 -0.0246812 0.732005
0.358586 -0.0247117 0.732102
0.356874 -0.0247387 0.731988
0.355304 -0.0247708 0.732178
0.353947 -0.0248109 0.732828
0.352545 -0.0248493 0.733381
0.351268 -0.0248925 0.734211
0.350054 -0.0249382 0.735183
0.348863 -0.0249847 0.736208
0.347495 -0.0250245 0.736841
0.346378 -0.0250742 0.738038
0.345203 -0.0251217 0.73911
0.344144 -0.025174 0.74045
0.343046 -0.0252248 0.741706
0.343037 -0.0253199 0.745468
0.345317 -0.0239816 0.754627
0.344576 -0.0254787 0.752825
0.346233 -0.0256439 0.760518
0.347674 -0.0258023 0.767774
0.348685 -0.0259435 0.774088
0.348365 -0.026031 0.777329
0.346362 -0.026048 0.776624
0.344422 -0.0260676 0.776055
0.342606 -0.0260921 0.775773
0.340942 -0.0261224 0.775843
0.339321 -0.0261552 0.776012
0.337673 -0.0261868 0.776112
0.335988 -0.0262164 0.776117
0.334257 -0.0262429 0.776001
0.332478 -0.0262679 0.775762
0.330782 -0.0262966 0.775721
0.329212 -0.0263303 0.775983
0.327596 -0.0263619 0.776125
0.326034 -0.0263966 0.776401
0.324523 -0.0264326 0.776797
0.322849 -0.0264614 0.776784
0.32125 -0.0264937 0.776952
0.319898 -0.0265372 0.777744
0.318597 -0.0265836 0.77867
0.317279 -0.0266287 0.779556
0.316047 -0.0266777 0.780664
0.314702 -0.0267219 0.781485
0.313249 -0.0267612 0.782024
0.311864 -0.0268035 0.782741
0.310587 -0.0268511 0.783743
0.309362 -0.026901 0.784889
0.308237 -0.0269562 0.786305
0.307106 -0.0270122 0.787714
0.305966 -0.0270667 0.789105
0.304723 -0.0271162 0.790227
0.303542 -0.0271694 0.791519
0.302333 -0.0272217 0.792746
0.301129 -0.0272744 0.79399
0.299948 -0.0273283 0.795305
0.298893 -0.027388 0.796976
0.297884 -0.0274521 0.798785
0.297019 -0.0275229 0.801012
0.296319 -0.027604 0.80372
0.295685 -0.0276879 0.806638
0.295115 -0.0277772 0.809764
0.294544 -0.0278663 0.812911
0.293806 -0.0279468 0.815607
0.372604 -0.0260155 0.733364
0.37085 -0.0260409 0.733214
0.369108 -0.0260666 0.733083
0.367139 -0.0260829 0.732465
0.365357 -0.0261066 0.732234
0.363574 -0.02613 0.731993
0.361794 -0.0261533 0.731749
0.360088 -0.0261794 0.73166
0.358397 -0.026206 0.731597
0.356606 -0.0262282 0.731308
0.354952 -0.026256 0.731311
0.353476 -0.0262911 0.7317
0.351997 -0.026326 0.732079
0.350682 -0.0263678 0.73282
0.349432 -0.0264125 0.733706
0.348278 -0.0264612 0.734808
0.346945 -0.0265024 0.735514
0.34587 -0.0265548 0.736799
0.344738 -0.0266049 0.737965
0.34372 -0.0266601 0.739392
0.342695 -0.0267154 0.740812
0.342119 -0.0267907 0.743268
0.343752 -0.0269658 0.750834
0.345496 -0.0271476 0.758718
0.347105 -0.0273251 0.766358
0.348233 -0.0274823 0.772936
0.348538 -0.027603 0.777641
0.346489 -0.0276156 0.776829
0.344543 -0.0276328 0.77625
0.342692 -0.0276538 0.775885
0.34099 -0.0276818 0.775867
0.339359 -0.0277131 0.776013
0.337707 -0.0277431 0.776102
0.335986 -0.0277697 0.776021
0.334288 -0.0277973 0.775989
0.33255 -0.0278227 0.77585
0.330924 -0.0278533 0.775982
0.329364 -0.0278871 0.77627
0.327821 -0.0279217 0.776597
0.326296 -0.0279572 0.776966
0.32482 -0.0279949 0.777457
0.323181 -0.0280244 0.777535
0.321552 -0.0280543 0.777632
0.320161 -0.0280962 0.77833
0.318818 -0.0281407 0.779151
0.317457 -0.0281843 0.779929
0.316158 -0.0282311 0.780868
0.314842 -0.0282771 0.781764
0.313385 -0.0283158 0.782298
0.311994 -0.0283579 0.783001
0.310682 -0.0284043 0.783915
0.309423 -0.0284536 0.78497
0.308266 -0.0285086 0.786303
0.30714 -0.0285655 0.787724
0.305969 -0.0286202 0.789035
0.304727 -0.028671 0.790157
0.303574 -0.028727 0.791529
0.302394 -0.0287816 0.792834
0.301192 -0.0288352 0.794084
0.300046 -0.0288922 0.795498
0.298992 -0.0289546 0.797175
0.297984 -0.0290201 0.798989
0.297087 -0.0290923 0.801127
0.296352 -0.0291743 0.80374
0.295679 -0.0292613 0.806548
0.295106 -0.0293534 0.809664
0.294504 -0.0294457 0.812724
0.29377 -0.0295303 0.815428
0.370424 -0.027535 0.732219
0.368708 -0.0275603 0.732139
0.366879 -0.0275804 0.731813
0.365196 -0.0276068 0.731792
0.363494 -0.0276322 0.731722
0.361681 -0.0276524 0.73141
0.359937 -0.0276755 0.731238
0.358162 -0.027697 0.73099
0.356251 -0.027712 0.73044
0.354475 -0.027733 0.730174
0.35292 -0.0277638 0.730384
0.351436 -0.027798 0.730748
0.350091 -0.0278385 0.731416
0.348846 -0.0278836 0.732307
0.347692 -0.0279331 0.733404
0.346399 -0.0279762 0.734194
0.345293 -0.0280282 0.735406
0.344203 -0.0280812 0.736659
0.343222 -0.0281396 0.738167
0.342236 -0.0281979 0.739671
0.34113 -0.0282507 0.740908
0.346634 -0.0289602 0.769106
0.347648 -0.0291235 0.775458
0.346189 -0.0291631 0.776028
0.344776 -0.029205 0.77671
0.342846 -0.0292204 0.776158
0.34107 -0.0292434 0.775966
0.339402 -0.0292718 0.776023
0.337776 -0.0293024 0.776179
0.336053 -0.0293275 0.776094
0.334397 -0.029356 0.776164
0.332733 -0.0293839 0.776208
0.331185 -0.029418 0.776534
0.329661 -0.0294533 0.776916
0.328182 -0.029491 0.777407
0.326691 -0.0295279 0.777867
0.325255 -0.0295677 0.778461
0.323651 -0.0295983 0.778633
0.321993 -0.0296257 0.778663
0.320525 -0.0296636 0.779171
0.319103 -0.0297042 0.779797
0.317631 -0.0297417 0.780291
0.316227 -0.0297833 0.780963
0.314907 -0.0298295 0.78185
0.313452 -0.0298682 0.78239
0.312066 -0.0299106 0.783107
0.310753 -0.0299575 0.78402
0.309483 -0.0300069 0.785048
0.308319 -0.0300628 0.786362
0.307186 -0.0301207 0.787768
0.30599 -0.0301751 0.789011
0.304749 -0.0302269 0.790139
0.303626 -0.030286 0.791593
0.302418 -0.0303402 0.792821
0.301185 -0.030393 0.793989
0.300072 -0.0304533 0.795492
0.299018 -0.0305177 0.79717
0.29801 -0.0305852 0.798985
0.297109 -0.0306598 0.801112
0.296371 -0.0307454 0.803718
0.295668 -0.0308338 0.806442
0.295062 -0.0309289 0.809464
0.294427 -0.0310231 0.81243
0.293658 -0.031109 0.815032
0.368327 -0.0290521 0.731235
0.366636 -0.029077 0.7312
0.364998 -0.0291042 0.731271
0.3633 -0.0291284 0.731209
0.361449 -0.029145 0.730814
0.359592 -0.0291611 0.730397
0.357731 -0.0291766 0.729959
0.355766 -0.0291868 0.72929
0.35395 -0.029204 0.728931
0.3524 -0.0292343 0.729149
0.350954 -0.0292697 0.729592
0.349645 -0.0293121 0.730335
0.348403 -0.0293577 0.73123
0.347252 -0.0294082 0.732328
0.345965 -0.0294517 0.733127
0.344864 -0.0295049 0.734345
0.343775 -0.029559 0.735598
0.342759 -0.0296171 0.737022
0.341767 -0.0296766 0.738507
0.340627 -0.0297284 0.739661
0.342273 -0.0284141 0.747332
0.341208 -0.0298724 0.744786
0.343524 -0.0285844 0.754061
0.341839 -0.0300202 0.750068
0.345299 -0.0304391 0.765895
0.346613 -0.0306288 0.772934
0.345927 -0.0307103 0.775319
0.345167 -0.0307884 0.777541
0.34315 -0.0307969 0.776789
0.341258 -0.030812 0.776323
0.339511 -0.030835 0.776195
0.337814 -0.0308606 0.776179
0.33609 -0.0308845 0.776093
0.334442 -0.0309125 0.776182
0.332856 -0.0309438 0.776421
0.331353 -0.03098 0.776859
0.329864 -0.0310169 0.77733
0.32842 -0.0310565 0.777911
0.326959 -0.0310949 0.778449
0.325528 -0.031135 0.779059
0.323998 -0.0311693 0.779422
0.322401 -0.0311995 0.779613
0.320898 -0.0312352 0.780036
0.319427 -0.0312729 0.780541
0.317908 -0.0313075 0.780921
0.316426 -0.0313443 0.781392
0.315073 -0.0313891 0.782199
0.313624 -0.031428 0.782756
0.31221 -0.0314689 0.783404
0.310864 -0.0315143 0.784232
0.309584 -0.0315638 0.785233
0.308344 -0.0316161 0.786349
0.307174 -0.0316731 0.787656
0.305974 -0.0317282 0.788889
0.304767 -0.0317831 0.790108
0.303618 -0.0318421 0.791493
0.302412 -0.0318974 0.792726
0.301209 -0.0319532 0.793977
0.300126 -0.0320172 0.795566
0.299073 -0.0320835 0.797247
0.298097 -0.0321552 0.799152
0.297194 -0.0322325 0.801277
0.296424 -0.0323192 0.803791
0.295657 -0.0324068 0.806335
0.294982 -0.0325015 0.809162
0.29428 -0.032595 0.811934
0.293473 -0.0326816 0.814427
0.367765 -0.0305319 0.729951
0.366238 -0.0305639 0.730257
0.364643 -0.0305922 0.730417
0.362944 -0.0306151 0.730351
0.361053 -0.0306276 0.729867
0.35915 -0.0306392 0.729345
0.357206 -0.0306483 0.728726
0.355202 -0.0306539 0.727967
0.353357 -0.0306675 0.72754
0.35178 -0.0306954 0.727693
0.350382 -0.0307329 0.728236
0.349081 -0.0307757 0.728993
0.347878 -0.030824 0.729967
0.346762 -0.030877 0.73114
0.345511 -0.0309228 0.732015
0.344374 -0.030975 0.733149
0.343283 -0.0310299 0.734392
0.342223 -0.0310868 0.73571
0.341159 -0.0311437 0.737027
0.34002 -0.0311964 0.738177
0.340008 -0.0313142 0.741929
0.33998 -0.031432 0.745674
0.34413 -0.0320403 0.767013
0.344353 -0.0321781 0.771513
0.344345 -0.0323031 0.775501
0.342934 -0.0323453 0.776184
0.341562 -0.0323895 0.776957
0.339665 -0.0324022 0.776473
0.337889 -0.0324219 0.77627
0.3362 -0.0324466 0.776268
0.334588 -0.0324759 0.776449
0.333086 -0.0325119 0.776893
0.33166 -0.0325526 0.777526
0.330176 -0.0325896 0.778013
0.328757 -0.0326306 0.778661
0.327297 -0.0326692 0.779205
0.325867 -0.0327096 0.779824
0.324379 -0.0327461 0.780296
0.322819 -0.032778 0.780585
0.32128 -0.0328112 0.780923
0.319761 -0.0328457 0.78131
0.318163 -0.0328747 0.781492
0.316605 -0.0329063 0.781771
0.315247 -0.0329512 0.782568
0.313833 -0.0329923 0.783218
0.312395 -0.0330318 0.783807
0.311012 -0.033075 0.784539
0.30969 -0.0331226 0.785435
0.308377 -0.0331706 0.786357
0.307143 -0.0332244 0.787492
0.305943 -0.0332806 0.788724
0.304764 -0.0333385 0.790022
0.303616 -0.0333989 0.791408
0.302441 -0.0334574 0.792728
0.301272 -0.0335166 0.794072
0.30019 -0.0335825 0.795665
0.299107 -0.0336484 0.797263
0.29813 -0.0337225 0.799169
0.297227 -0.0338023 0.801293
0.296429 -0.0338905 0.803732
0.295624 -0.0339787 0.806168
0.294875 -0.0340716 0.808781
0.294156 -0.0341675 0.811504
0.29331 -0.0342545 0.813883
0.367458 -0.0320217 0.729204
0.365943 -0.0320538 0.729534
0.364426 -0.0320855 0.729857
0.362683 -0.0321045 0.729694
0.360711 -0.0321104 0.729035
0.358691 -0.0321132 0.72826
0.356674 -0.0321156 0.727478
0.354638 -0.0321167 0.726644
0.352804 -0.0321289 0.726238
0.351276 -0.0321586 0.726493
0.349923 -0.0321985 0.727131
0.348661 -0.0322436 0.727968
0.347461 -0.0322926 0.728946
0.346346 -0.0323466 0.730118
0.345095 -0.0323928 0.730989
0.343956 -0.0324457 0.732114
0.342824 -0.0324991 0.73326
0.341726 -0.0325549 0.734488
0.340619 -0.0326102 0.735703
0.33944 -0.0326613 0.736755
0.33879 -0.0327452 0.739031
0.338164 -0.0328312 0.741378
0.342712 -0.0336283 0.76755
0.342926 -0.033773 0.772047
0.342198 -0.0338586 0.774339
0.341399 -0.03394 0.776477
0.33932 -0.0339388 0.775553
0.337401 -0.0339473 0.774999
0.336274 -0.0340078 0.776358
0.334662 -0.0340362 0.776538
0.333167 -0.0340724 0.777004
0.331783 -0.0341159 0.77774
0.330336 -0.0341552 0.77832
0.328915 -0.0341963 0.778965
0.327486 -0.0342367 0.779589
0.326091 -0.0342795 0.7803
0.324676 -0.0343209 0.780958
0.32316 -0.0343555 0.781362
0.321656 -0.0343907 0.781795
0.320139 -0.0344249 0.782194
0.318527 -0.0344523 0.782342
0.316931 -0.0344808 0.782529
0.315572 -0.0345261 0.783328
0.314125 -0.034565 0.783898
0.312647 -0.0346017 0.784386
0.311219 -0.0346419 0.785004
0.309859 -0.0346872 0.785801
0.308482 -0.0347312 0.786555
0.307216 -0.0347834 0.787607
0.305977 -0.0348379 0.788737
0.304796 -0.0348969 0.79003
0.303617 -0.0349562 0.791331
0.302478 -0.0350188 0.792752
0.301342 -0.0350819 0.794187
0.300293 -0.0351519 0.795871
0.299246 -0.0352223 0.797572
0.298301 -0.0353013 0.799569
0.297402 -0.0353841 0.801708
0.296566 -0.0354725 0.804042
0.295719 -0.0355606 0.806363
0.294926 -0.0356537 0.808854
0.294197 -0.0357525 0.81155
0.293355 -0.0358429 0.813941
0.367335 -0.0335204 0.728846
0.365794 -0.0335503 0.729119
0.364253 -0.0335801 0.72939
0.362435 -0.0335931 0.729066
0.360379 -0.0335914 0.728225
0.35828 -0.0335867 0.727277
0.356227 -0.0335842 0.726416
0.354163 -0.0335806 0.725515
0.352371 -0.0335935 0.725196
0.350915 -0.0336268 0.725605
0.349567 -0.033667 0.72625
0.348306 -0.0337125 0.727089
0.347138 -0.0337641 0.728134
0.345991 -0.033817 0.729231
0.344708 -0.0338614 0.730027
0.343537 -0.033913 0.731077
0.342366 -0.0339649 0.732131
0.341192 -0.0340167 0.733183
0.340012 -0.0340682 0.734224
0.338828 -0.0341197 0.735261
0.337577 -0.0341667 0.736145
0.336359 -0.034216 0.73711
0.338847 -0.0329994 0.746785
0.336407 -0.0343499 0.741019
0.339808 -0.0351153 0.764572
0.339289 -0.035217 0.767326
0.33857 -0.0353054 0.769622
0.337002 -0.0353357 0.769894
0.335674 -0.0353825 0.770742
0.33521 -0.03549 0.773688
0.33417 -0.0355576 0.77525
0.333236 -0.0356331 0.777083
0.331856 -0.035677 0.77783
0.330445 -0.0357189 0.778499
0.329022 -0.0357599 0.779142
0.327622 -0.0358025 0.779842
0.326267 -0.0358484 0.780653
0.324926 -0.0358954 0.781501
0.323456 -0.035933 0.782026
0.321956 -0.0359683 0.782474
0.320372 -0.0359972 0.782703
0.318724 -0.0360212 0.782764
0.317094 -0.0360464 0.782867
0.315703 -0.0360895 0.783585
0.314222 -0.0361258 0.784069
0.312699 -0.0361588 0.78444
0.311228 -0.0361958 0.784945
0.309857 -0.0362405 0.785715
0.308482 -0.0362847 0.786475
0.307221 -0.0363382 0.78754
0.306043 -0.0363984 0.788834
0.304891 -0.036461 0.790205
0.30371 -0.0365213 0.791507
0.30261 -0.0365885 0.793033
0.301541 -0.0366585 0.794656
0.300501 -0.0367312 0.796369
0.299485 -0.0368064 0.79816
0.29857 -0.0368903 0.800245
0.29764 -0.0369734 0.8023
0.29677 -0.037062 0.804541
0.295918 -0.0371528 0.806853
0.295088 -0.0372462 0.809241
0.294332 -0.0373463 0.811863
0.293497 -0.0374405 0.814275
0.367243 -0.0350205 0.728552
0.365666 -0.0350474 0.728749
0.364109 -0.0350754 0.728984
0.362212 -0.0350815 0.728491
0.360115 -0.0350745 0.727559
0.357934 -0.0350613 0.726434
0.355838 -0.0350533 0.725476
0.353775 -0.0350469 0.724576
0.351984 -0.035058 0.724258
0.350534 -0.0350913 0.724677
0.349182 -0.035131 0.725309
0.347918 -0.0351767 0.726135
0.346714 -0.0352265 0.727098
0.345567 -0.0352802 0.728191
0.344285 -0.0353248 0.728985
0.343112 -0.0353771 0.730028
0.341941 -0.0354295 0.731076
0.340734 -0.0354797 0.732049
0.339514 -0.035529 0.732995
0.338294 -0.0355784 0.733943
0.337008 -0.0356233 0.734744
0.335794 -0.0356735 0.735712
0.335242 -0.0357706 0.738221
0.336453 -0.0344847 0.744956
0.334665 -0.0358667 0.740692
0.335262 -0.0366115 0.761622
0.333841 -0.0366506 0.762212
0.333138 -0.0367428 0.764532
0.333353 -0.0369041 0.769094
0.332998 -0.037024 0.772305
0.332705 -0.0371494 0.775693
0.331883 -0.0372359 0.777807
0.33047 -0.0372776 0.778474
0.329047 -0.0373186 0.779116
0.327684 -0.0373641 0.779909
0.326334 -0.0374108 0.780735
0.325002 -0.037459 0.781608
0.323635 -0.0375045 0.782393
0.322174 -0.0375426 0.782942
0.320554 -0.037568 0.783083
0.318965 -0.0375958 0.7833
0.317365 -0.0376225 0.783484
0.315915 -0.0376613 0.784053
0.314431 -0.0376971 0.78453
0.312895 -0.0377287 0.784872
0.311347 -0.0377591 0.785177
0.309944 -0.0378015 0.785864
0.308543 -0.037844 0.786556
0.307248 -0.0378954 0.787534
0.30607 -0.0379567 0.788829
0.304916 -0.0380203 0.790195
0.303742 -0.0380826 0.791513
0.302712 -0.0381573 0.793234
0.301715 -0.0382354 0.795056
0.300711 -0.0383133 0.796873
0.299729 -0.0383935 0.79876
0.298816 -0.0384803 0.800853
0.29785 -0.0385629 0.802814
0.296944 -0.0386513 0.804956
0.296091 -0.0387451 0.807268
0.295266 -0.0388421 0.809676
0.294524 -0.0389471 0.812338
0.293728 -0.0390481 0.814869
0.367199 -0.0365231 0.728358
0.365602 -0.036548 0.728514
0.364001 -0.0365723 0.728656
0.36203 -0.0365714 0.728004
0.359895 -0.0365587 0.726991
0.357666 -0.0365391 0.72576
0.355495 -0.0365229 0.724639
0.353397 -0.0365111 0.723659
0.351572 -0.036518 0.723262
0.350085 -0.0365481 0.723597
0.34866 -0.0365826 0.724064
0.347357 -0.0366257 0.724801
0.346114 -0.0366731 0.725671
0.344999 -0.0367298 0.726831
0.343759 -0.0367776 0.727712
0.342591 -0.0368308 0.72876
0.341421 -0.0368839 0.729807
0.340207 -0.036934 0.730759
0.338953 -0.0369813 0.731622
0.337732 -0.037031 0.732563
0.336482 -0.0370788 0.733441
0.335308 -0.0371322 0.734496
0.334131 -0.0371858 0.735549
0.332917 -0.0372365 0.736519
0.331788 -0.0378763 0.753228
0.33044 -0.0379194 0.753954
0.330596 -0.0383827 0.766366
0.330958 -0.0385645 0.771327
0.33076 -0.0387028 0.774956
0.32991 -0.0387896 0.777002
0.329006 -0.0388725 0.778926
0.327681 -0.0389215 0.779812
0.326369 -0.0389715 0.780734
0.325078 -0.0390236 0.781713
0.323744 -0.0390721 0.782583
0.322315 -0.0391128 0.783215
0.320687 -0.0391367 0.783339
0.319129 -0.0391665 0.783638
0.317527 -0.0391923 0.783817
0.316047 -0.0392284 0.784312
0.31456 -0.0392638 0.784784
0.313021 -0.0392947 0.78512
0.311439 -0.0393217 0.785339
0.310035 -0.0393641 0.786025
0.308666 -0.0394096 0.786805
0.307374 -0.0394619 0.787792
0.306197 -0.0395246 0.789091
0.305042 -0.0395895 0.790457
0.303906 -0.0396564 0.791881
0.302912 -0.0397365 0.793702
0.301957 -0.0398206 0.795644
0.300991 -0.0399042 0.797567
0.30004 -0.0399897 0.799547
0.29909 -0.0400757 0.801543
0.298118 -0.0401603 0.803491
0.297182 -0.0402487 0.805552
0.296328 -0.0403455 0.807863
0.295512 -0.0404466 0.810301
0.294803 -0.0405586 0.813065
0.367221 -0.0380306 0.728306
0.365519 -0.038047 0.728238
0.363858 -0.0380661 0.728252
0.361812 -0.0380575 0.727442
0.359659 -0.0380404 0.726386
0.357353 -0.0380117 0.724989
0.355142 -0.0379892 0.723778
0.353039 -0.0379741 0.722786
0.351184 -0.0379766 0.722321
0.349695 -0.0380061 0.722647
0.348262 -0.0380395 0.723093
0.346953 -0.0380822 0.723814
0.345678 -0.0381276 0.72461
0.344534 -0.0381829 0.725698
0.343259 -0.0382285 0.726499
0.342058 -0.0382796 0.727467
0.340857 -0.038331 0.728441
0.339612 -0.0383792 0.729316
0.33836 -0.0384268 0.730177
0.33714 -0.038477 0.731116
0.335895 -0.0385253 0.731997
0.334719 -0.0385793 0.733043
0.333543 -0.0386333 0.734091
0.33233 -0.0386846 0.735058
0.3331 -0.0373937 0.740768
0.331837 -0.0387939 0.737717
0.333328 -0.0375555 0.745159
0.331359 -0.0389051 0.740429
0.332623 -0.0376471 0.747377
0.330074 -0.0389515 0.741251
0.332288 -0.0377676 0.750487
0.329203 -0.0390318 0.74306
0.328245 -0.0391055 0.744672
0.327079 -0.0391623 0.745794
0.32846 -0.039901 0.765125
0.328892 -0.040097 0.770273
0.328686 -0.0402403 0.773887
0.328383 -0.0403765 0.77729
0.327609 -0.0404732 0.779546
0.326336 -0.0405271 0.780564
0.325079 -0.0405827 0.781628
0.323779 -0.0406347 0.782587
0.322384 -0.0406782 0.783305
0.320761 -0.0407019 0.783444
0.319238 -0.0407342 0.783832
0.317667 -0.040762 0.784096
0.316156 -0.040795 0.784509
0.314632 -0.0408269 0.784889
0.313092 -0.0408572 0.785224
0.311546 -0.0408868 0.785538
0.31015 -0.04093 0.786248
0.308817 -0.0409793 0.787124
0.307583 -0.0410377 0.788268
0.306434 -0.0411044 0.789649
0.305283 -0.0411711 0.791028
0.304178 -0.0412426 0.792542
0.303219 -0.0413282 0.794464
0.302268 -0.0414151 0.79642
0.301302 -0.0415012 0.798348
0.300351 -0.0415892 0.800331
0.299365 -0.0416745 0.802233
0.298358 -0.0417581 0.804087
0.297415 -0.0418485 0.806135
0.296561 -0.0419484 0.80845
0.295746 -0.0420529 0.810893
0.295067 -0.0421718 0.813745
0.363533 -0.0395455 0.727463
0.361369 -0.039525 0.726397
0.359172 -0.0395013 0.725245
0.356853 -0.0394678 0.723817
0.354667 -0.0394436 0.722655
0.352608 -0.0394287 0.721753
0.350716 -0.0394263 0.721204
0.349188 -0.039452 0.721442
0.347718 -0.039482 0.721803
0.346375 -0.039522 0.722442
0.345068 -0.039565 0.723161
0.343926 -0.039621 0.724249
0.342652 -0.0396669 0.725046
0.341418 -0.0397158 0.725936
0.340179 -0.0397644 0.726814
0.338897 -0.0398098 0.7276
0.337612 -0.0398548 0.728379
0.336397 -0.0399058 0.72932
0.335195 -0.0399579 0.730294
0.334025 -0.0400129 0.731347
0.332849 -0.0400675 0.73239
0.331629 -0.0401186 0.733332
0.330443 -0.0401726 0.734358
0.329264 -0.0402275 0.735405
0.328023 -0.040277 0.736308
0.326732 -0.0403226 0.737096
0.325387 -0.0403635 0.737754
0.324439 -0.0404389 0.739369
0.326635 -0.0392793 0.748664
0.324106 -0.0405683 0.742474
0.326435 -0.0414224 0.764143
0.326939 -0.0416337 0.769482
0.327329 -0.0418365 0.774586
0.327194 -0.0419935 0.778422
0.326437 -0.0420949 0.780729
0.325145 -0.0421481 0.781706
0.323843 -0.0422005 0.782662
0.322451 -0.0422448 0.78339
0.32084 -0.0422685 0.78356
0.319358 -0.0423041 0.784055
0.317826 -0.0423351 0.784421
0.316274 -0.042364 0.784732
0.314743 -0.0423948 0.785096
0.313201 -0.0424244 0.785426
0.31166 -0.042454 0.785758
0.310275 -0.0424986 0.786496
0.308973 -0.0425513 0.78746
0.307775 -0.0426142 0.788702
0.306691 -0.0426888 0.790258
0.305577 -0.0427607 0.791745
0.304538 -0.0428404 0.793443
0.30361 -0.0429317 0.795453
0.302652 -0.0430206 0.797397
0.301649 -0.0431054 0.799227
0.300664 -0.0431925 0.801122
0.299642 -0.0432764 0.802927
0.298632 -0.0433621 0.804778
0.297716 -0.0434581 0.806907
0.296866 -0.0435616 0.809239
0.296044 -0.0436687 0.811669
0.29533 -0.0437879 0.814424
0.362954 -0.0410023 0.726135
0.360658 -0.0409679 0.724782
0.358451 -0.04094 0.723604
0.356149 -0.0409037 0.722204
0.354042 -0.0408825 0.721208
0.35206 -0.0408708 0.720468
0.350178 -0.0408668 0.719935
0.348652 -0.0408918 0.720171
0.347213 -0.0409237 0.720595
0.345871 -0.0409637 0.721233
0.344535 -0.0410042 0.721885
0.343393 -0.0410609 0.722968
0.342112 -0.0411062 0.723744
0.340836 -0.0411519 0.724532
0.339524 -0.0411946 0.725243
0.338238 -0.0412395 0.726011
0.33695 -0.0412845 0.726778
0.335707 -0.0413334 0.727648
0.334474 -0.0413831 0.728545
0.333309 -0.0414389 0.7296
0.332134 -0.041494 0.730636
0.330917 -0.0415458 0.73158
0.329735 -0.0416006 0.732607
0.328626 -0.0416621 0.733812
0.327462 -0.041719 0.734891
0.326223 -0.0417691 0.735794
0.324963 -0.0418177 0.736652
0.323625 -0.0418591 0.737325
0.322757 -0.0419436 0.739133
0.323882 -0.0407082 0.745868
0.321964 -0.0420356 0.741133
0.324283 -0.0409045 0.750813
0.321779 -0.0421844 0.744627
0.324927 -0.0433342 0.77268
0.324772 -0.0434952 0.77647
0.324051 -0.043603 0.778863
0.32333 -0.0437115 0.781276
0.322482 -0.0438086 0.783384
0.320949 -0.0438392 0.783753
0.319511 -0.043879 0.784366
0.318017 -0.0439133 0.784832
0.316425 -0.0439378 0.785042
0.314886 -0.0439674 0.785386
0.313334 -0.0439955 0.785692
0.31183 -0.0440284 0.786124
0.310452 -0.0440739 0.786884
0.309188 -0.0441312 0.787951
0.30802 -0.0441985 0.789278
0.306943 -0.0442755 0.790857
0.305842 -0.0443505 0.792382
0.304843 -0.0444364 0.79419
0.303912 -0.0445301 0.7962
0.302942 -0.0446202 0.798115
0.301934 -0.0447068 0.799937
0.300942 -0.0447957 0.801819
0.29992 -0.0448819 0.803628
0.298973 -0.0449766 0.805659
0.298062 -0.045076 0.807808
0.297214 -0.0451829 0.810149
0.296394 -0.0452936 0.81259
0.357574 -0.04236 0.721628
0.355373 -0.0423282 0.720437
0.353354 -0.0423111 0.719624
0.351446 -0.0423031 0.719041
0.349636 -0.0423029 0.718659
0.34815 -0.0423303 0.718977
0.346717 -0.0423624 0.719411
0.345413 -0.0424054 0.720128
0.344079 -0.042446 0.720778
0.3429 -0.0425003 0.721775
0.341547 -0.0425392 0.722384
0.340196 -0.0425783 0.722999
0.33881 -0.0426143 0.723536
0.337487 -0.042656 0.724214
0.336165 -0.0426977 0.724895
0.334954 -0.0427496 0.725831
0.333755 -0.0428028 0.726799
0.332594 -0.0428595 0.727857
0.331421 -0.0429152 0.72889
0.330206 -0.0429673 0.729831
0.329025 -0.0430227 0.730854
0.327925 -0.0430858 0.732071
0.326805 -0.0431473 0.733246
0.325644 -0.0432052 0.73433
0.32446 -0.0432611 0.735364
0.3232 -0.0433099 0.736219
0.321879 -0.0433528 0.736929
0.320625 -0.0434024 0.737801
0.319893 -0.0435027 0.739949
0.32224 -0.0423947 0.749729
0.319755 -0.0436616 0.743562
0.32238 -0.0448078 0.770387
0.322353 -0.0449873 0.7745
0.32226 -0.0451619 0.778482
0.322005 -0.0453214 0.782085
0.321051 -0.0454105 0.783928
0.319619 -0.045451 0.784557
0.318127 -0.0454852 0.785031
0.316564 -0.0455121 0.785319
0.31502 -0.0455406 0.785652
0.313466 -0.0455681 0.785956
0.311998 -0.0456044 0.786483
0.310618 -0.0456501 0.787242
0.309353 -0.0457082 0.78831
0.308215 -0.0457802 0.78972
0.307178 -0.0458632 0.791408
0.30615 -0.0459479 0.793134
0.305196 -0.0460411 0.79507
0.304295 -0.0461407 0.797167
0.303322 -0.046233 0.79908
0.302305 -0.0463209 0.800884
0.301284 -0.0464091 0.80269
0.300268 -0.0464981 0.804521
0.299353 -0.0465993 0.806648
0.29845 -0.0467026 0.808826
0.297607 -0.0468134 0.811189
0.356458 -0.0437523 0.719139
0.354501 -0.0437384 0.718465
0.352702 -0.0437378 0.718118
0.350932 -0.0437397 0.717829
0.349204 -0.0437449 0.717621
0.347763 -0.0437757 0.718034
0.346406 -0.0438141 0.718633
0.34511 -0.043858 0.719364
0.343774 -0.0438984 0.720008
0.342522 -0.0439464 0.720838
0.341093 -0.0439781 0.721274
0.339669 -0.0440103 0.721722
0.338247 -0.0440426 0.72217
0.336891 -0.044081 0.722769
0.335535 -0.0441193 0.723366
0.334292 -0.0441686 0.724225
0.333091 -0.0442219 0.72518
0.331895 -0.0442758 0.72615
0.330724 -0.0443322 0.727181
0.329546 -0.0443881 0.728201
0.328372 -0.0444447 0.729234
0.327274 -0.0445087 0.730448
0.326214 -0.0445769 0.731759
0.325089 -0.0446389 0.732921
0.323943 -0.044699 0.73404
0.322754 -0.0447551 0.735061
0.321473 -0.044802 0.735861
0.320294 -0.0448595 0.736913
0.319116 -0.0449171 0.73797
0.318454 -0.0450277 0.740294
0.320234 -0.0438823 0.748722
0.318352 -0.0451964 0.744012
0.320585 -0.0465388 0.774157
0.32098 -0.0467718 0.779391
0.320648 -0.0469292 0.782814
0.319721 -0.0470237 0.784733
0.318223 -0.0470571 0.785195
0.31666 -0.0470834 0.785485
0.315121 -0.047112 0.785832
0.313573 -0.0471396 0.786155
0.312138 -0.0471795 0.78677
0.310756 -0.0472253 0.787527
0.309486 -0.0472837 0.788583
0.308344 -0.0473566 0.789984
0.307337 -0.0474452 0.791758
0.306316 -0.0475326 0.793502
0.305366 -0.0476287 0.795455
0.304499 -0.0477349 0.797646
0.303562 -0.0478337 0.799658
0.302551 -0.0479247 0.801484
0.301569 -0.0480195 0.803402
0.300586 -0.0481149 0.80533
0.299677 -0.0482195 0.807479
0.298774 -0.0483257 0.809663
0.353612 -0.0451401 0.716455
0.35206 -0.0451607 0.716637
0.350398 -0.0451705 0.716574
0.34878 -0.0451844 0.716601
0.347382 -0.0452187 0.717106
0.346041 -0.0452584 0.717734
0.344748 -0.0453027 0.718468
0.343409 -0.0453428 0.719104
0.342117 -0.0453872 0.719843
0.34068 -0.0454176 0.720258
0.339254 -0.0454491 0.720695
0.337832 -0.045481 0.721142
0.336479 -0.0455194 0.721743
0.335128 -0.0455582 0.722348
0.333849 -0.045604 0.723119
0.332614 -0.0456544 0.723992
0.331385 -0.0457053 0.724879
0.330181 -0.0457589 0.725829
0.329004 -0.0458156 0.726846
0.327863 -0.0458759 0.72795
0.326798 -0.0459443 0.729238
0.325773 -0.046017 0.730627
0.324673 -0.0460824 0.731845
0.323525 -0.046143 0.732954
0.322337 -0.0461998 0.733972
0.321057 -0.0462471 0.734771
0.319948 -0.0463124 0.735989
0.318817 -0.0463757 0.737155
0.317714 -0.0464422 0.738398
0.317087 -0.0465599 0.740816
0.318313 -0.0453729 0.747913
0.316513 -0.0466842 0.743382
0.318251 -0.0455484 0.75179
0.31586 -0.0468007 0.74577
0.318824 -0.0478912 0.769614
0.319856 -0.0482022 0.776446
0.320145 -0.0484333 0.781443
0.319755 -0.0485901 0.784738
0.318218 -0.0486188 0.785096
0.316656 -0.0486445 0.785389
0.315189 -0.0486809 0.785926
0.313722 -0.0487172 0.786461
0.312326 -0.0487618 0.787184
0.310976 -0.0488116 0.788027
0.309695 -0.0488696 0.789058
0.308514 -0.0489394 0.790358
0.307472 -0.049026 0.792039
0.306449 -0.0491153 0.793781
0.305528 -0.0492172 0.795814
0.3047 -0.0493311 0.798114
0.303832 -0.0494408 0.800322
0.302898 -0.0495434 0.802364
0.301954 -0.0496454 0.804392
0.301006 -0.0497476 0.806424
0.30009 -0.0498545 0.80856
0.299147 -0.0499587 0.810637
0.354551 -0.0465425 0.714862
0.353061 -0.046568 0.715173
0.35158 -0.0465943 0.715502
0.350011 -0.0466118 0.715638
0.348475 -0.0466324 0.715841
0.347117 -0.0466705 0.716431
0.345812 -0.0467137 0.717137
0.344518 -0.046758 0.717867
0.343177 -0.0467977 0.718495
0.341881 -0.0468419 0.719221
0.340448 -0.0468723 0.719644
0.339023 -0.0469035 0.720083
0.337573 -0.0469321 0.720464
0.336219 -0.0469705 0.721061
0.334869 -0.0470091 0.721666
0.333558 -0.0470518 0.72236
0.332288 -0.0470988 0.723151
0.331049 -0.0471491 0.724014
0.329812 -0.0471999 0.724883
0.3286 -0.0472533 0.725815
0.327465 -0.0473149 0.726929
0.326371 -0.0473813 0.728144
0.325312 -0.0474517 0.729449
0.324183 -0.0475148 0.730593
0.323002 -0.0475725 0.731617
0.321811 -0.0476293 0.732622
0.32056 -0.0476799 0.733488
0.319516 -0.0477531 0.734854
0.318454 -0.0478248 0.736185
0.317459 -0.0479042 0.737688
0.316353 -0.0479718 0.738926
0.315261 -0.0480411 0.740205
0.314072 -0.0480998 0.741249
0.31581 -0.0469837 0.749681
0.313468 -0.0482251 0.743758
0.318712 -0.0496204 0.773453
0.319629 -0.0499317 0.78004
0.319791 -0.0501575 0.784745
0.318213 -0.0501809 0.785
0.31665 -0.0502059 0.78529
0.315289 -0.0502547 0.786104
0.313936 -0.0503044 0.786939
0.312619 -0.0503588 0.787873
0.311338 -0.0504174 0.788903
0.310084 -0.0504797 0.790011
0.308836 -0.0505428 0.791138
0.307721 -0.0506226 0.792629
0.306655 -0.0507088 0.794261
0.305696 -0.0508087 0.796192
0.304899 -0.0509295 0.79858
0.304141 -0.051056 0.801093
0.303289 -0.0511715 0.803363
0.302419 -0.0512857 0.805604
0.301528 -0.051398 0.807803
0.300572 -0.0515027 0.809836
0.302376 -0.0519638 0.819659
0.35417 -0.047984 0.713949
0.352712 -0.0480121 0.714327
0.35126 -0.0480406 0.714715
0.349744 -0.0480626 0.714964
0.348248 -0.0480863 0.715251
0.346891 -0.0481243 0.71584
0.345549 -0.0481638 0.716462
0.344211 -0.0482037 0.717094
0.342835 -0.0482397 0.717641
0.341511 -0.0482811 0.718305
0.340087 -0.0483119 0.718743
0.33867 -0.0483435 0.719198
0.337256 -0.0483752 0.719655
0.335903 -0.0484136 0.720253
0.334584 -0.0484554 0.720925
0.333274 -0.0484982 0.721618
0.332035 -0.0485488 0.722478
0.330764 -0.048596 0.723264
0.329516 -0.0486458 0.724106
0.32827 -0.0486959 0.724955
0.327132 -0.0487581 0.726059
0.326014 -0.0488228 0.727215
0.324962 -0.0488949 0.728531
0.323829 -0.0489584 0.729664
0.322646 -0.0490165 0.73068
0.321423 -0.0490703 0.731605
0.320174 -0.0491213 0.732469
0.31913 -0.0491958 0.733834
0.318068 -0.0492686 0.73516
0.317138 -0.0493568 0.736818
0.3161 -0.0494332 0.73822
0.315118 -0.0495165 0.739767
0.314034 -0.0495882 0.74107
0.312985 -0.0496644 0.742468
0.313397 -0.0484118 0.747619
0.312319 -0.0497863 0.744833
0.317942 -0.0512842 0.775644
0.318707 -0.0515894 0.781876
0.317673 -0.0516779 0.783521
0.316674 -0.0517711 0.785268
0.315422 -0.0518337 0.786366
0.314184 -0.0518984 0.787507
0.312921 -0.0519601 0.788587
0.311709 -0.0520284 0.789805
0.310453 -0.0520915 0.790912
0.309132 -0.0521465 0.791848
0.30798 -0.0522232 0.793245
0.306941 -0.0523148 0.794952
0.305976 -0.0524165 0.796873
0.305217 -0.0525454 0.799367
0.304532 -0.0526852 0.802087
0.303722 -0.0528094 0.804481
0.302892 -0.0529321 0.806839
0.302001 -0.0530474 0.809043
0.354029 -0.0494478 0.71355
0.352552 -0.0494733 0.713886
0.351122 -0.0495038 0.714322
0.349591 -0.0495234 0.714535
0.348099 -0.049547 0.714831
0.34674 -0.0495847 0.715415
0.34535 -0.049619 0.715931
0.343939 -0.049651 0.7164
0.342524 -0.0496825 0.716859
0.341204 -0.0497242 0.717527
0.339788 -0.0497557 0.717982
0.338412 -0.0497913 0.718525
0.337031 -0.0498262 0.719056
0.335678 -0.0498643 0.719649
0.334356 -0.0499059 0.720315
0.333051 -0.0499494 0.721019
0.331784 -0.0499972 0.721811
0.33048 -0.0500409 0.722519
0.329195 -0.0500867 0.723272
0.327943 -0.0501365 0.724103
0.326775 -0.0501959 0.725133
0.325655 -0.0502611 0.72628
0.324633 -0.0503379 0.727665
0.323531 -0.0504058 0.728867
0.32235 -0.0504648 0.729886
0.321131 -0.0505194 0.730818
0.319917 -0.0505748 0.731764
0.318846 -0.0506474 0.733059
0.31778 -0.0507209 0.734374
0.316848 -0.0508106 0.736023
0.315877 -0.0508964 0.737587
0.314969 -0.0509901 0.739313
0.313961 -0.0510723 0.740805
0.312949 -0.0511544 0.742293
0.3118 -0.0512202 0.743448
0.313489 -0.0501276 0.751839
0.312342 -0.0514951 0.748867
0.317483 -0.0529942 0.778649
0.317089 -0.0531647 0.78193
0.316701 -0.0533375 0.785254
0.315526 -0.0534108 0.786555
0.31437 -0.053487 0.787912
0.313188 -0.0535601 0.789207
0.312043 -0.0536384 0.790607
0.310785 -0.0537022 0.791712
0.309457 -0.0537572 0.792637
0.308304 -0.0538353 0.794034
0.307231 -0.0539246 0.795655
0.306301 -0.0540335 0.797677
0.305576 -0.0541707 0.80027
0.304964 -0.0543241 0.803193
0.304197 -0.0544577 0.805712
0.303431 -0.0545925 0.808257
0.35383 -0.0509046 0.713027
0.352386 -0.0509331 0.713432
0.35098 -0.0509659 0.713919
0.349448 -0.0509845 0.714129
0.347953 -0.0510072 0.714419
0.346589 -0.0510442 0.714992
0.345126 -0.0510702 0.715345
0.343675 -0.0510973 0.715723
0.342218 -0.0511238 0.716087
0.340894 -0.0511649 0.716743
0.339478 -0.0511958 0.717195
0.338138 -0.0512353 0.717816
0.336733 -0.0512673 0.71829
0.335375 -0.0513047 0.718871
0.334055 -0.0513464 0.719536
0.332751 -0.05139 0.72024
0.331462 -0.0514355 0.720978
0.330192 -0.0514831 0.721761
0.328906 -0.051529 0.72251
0.327648 -0.0515784 0.723326
0.32648 -0.0516385 0.724353
0.325391 -0.0517081 0.72557
0.32437 -0.0517865 0.726956
0.323301 -0.0518592 0.728232
0.322123 -0.0519191 0.729256
0.320939 -0.0519786 0.73027
0.319764 -0.0520393 0.731308
0.318663 -0.0521092 0.73253
0.317595 -0.0521837 0.733838
0.316685 -0.0522781 0.735539
0.315719 -0.0523659 0.737112
0.314854 -0.0524672 0.738946
0.313922 -0.0525604 0.740624
0.312946 -0.0526487 0.742204
0.311796 -0.0527153 0.743354
0.311729 -0.0529209 0.747239
0.312951 -0.0517807 0.754501
0.311626 -0.0531236 0.751063
0.315647 -0.0543078 0.77385
0.315947 -0.0545731 0.7789
0.316262 -0.0548428 0.784032
0.315632 -0.0549895 0.786749
0.314557 -0.0550779 0.788319
0.313442 -0.0551613 0.789794
0.312328 -0.0552452 0.791277
0.311026 -0.0553043 0.792273
0.309698 -0.0553599 0.793199
0.308548 -0.0554402 0.794611
0.307483 -0.0555323 0.796255
0.306564 -0.0556454 0.79831
0.305903 -0.0557953 0.801084
0.305327 -0.0559581 0.804111
0.304592 -0.0560998 0.806724
0.353805 -0.0523795 0.712877
0.352355 -0.0524071 0.71327
0.350911 -0.0524351 0.713673
0.34937 -0.0524521 0.713865
0.347803 -0.052466 0.713997
0.346403 -0.0524987 0.714489
0.344905 -0.05252 0.714764
0.343419 -0.0525426 0.715064
0.341923 -0.052564 0.715337
0.340557 -0.0526003 0.715901
0.339103 -0.0526262 0.716263
0.337732 -0.0526618 0.71681
0.336325 -0.0526932 0.717278
0.334973 -0.052731 0.717866
0.333653 -0.0527726 0.718528
0.332381 -0.0528201 0.719302
0.331124 -0.0528695 0.720112
0.329894 -0.0529222 0.720985
0.328643 -0.0529724 0.72181
0.327423 -0.0530266 0.722712
0.326221 -0.0530832 0.723659
0.325136 -0.0531544 0.724882
0.324083 -0.0532299 0.726188
0.323017 -0.0533041 0.727469
0.321846 -0.0533656 0.728508
0.3207 -0.0534304 0.729608
0.319559 -0.053496 0.730727
0.318454 -0.0535666 0.731938
0.31742 -0.0536465 0.733326
0.316541 -0.0537468 0.735102
0.315613 -0.0538412 0.736767
0.314719 -0.0539408 0.738527
0.313852 -0.0540444 0.740365
0.312877 -0.0541346 0.741946
0.311727 -0.0542021 0.743098
0.311104 -0.0543399 0.745583
0.310415 -0.0544699 0.747919
0.312603 -0.0534677 0.757666
0.310789 -0.0547432 0.752972
0.313856 -0.0556108 0.769166
0.314798 -0.0559706 0.775852
0.315787 -0.0563396 0.782717
0.315737 -0.0565694 0.786938
0.314706 -0.0566657 0.788626
0.313621 -0.0567548 0.790181
0.312531 -0.0568439 0.791734
0.311224 -0.0569029 0.792718
0.309897 -0.0569595 0.793653
0.308787 -0.0570468 0.795171
0.307729 -0.0571421 0.796842
0.306774 -0.0572528 0.798802
0.306111 -0.0574062 0.80157
0.308405 -0.0579895 0.812474
0.352285 -0.0538766 0.713024
0.3508 -0.0538995 0.713339
0.349251 -0.0539146 0.713511
0.34768 -0.0539271 0.713633
0.34624 -0.0539548 0.714038
0.344715 -0.0539722 0.714252
0.343196 -0.0539902 0.714479
0.34163 -0.0540024 0.714594
0.340156 -0.0540254 0.714914
0.338625 -0.0540413 0.7151
0.337187 -0.0540685 0.715494
0.335782 -0.0540994 0.715959
0.334433 -0.0541374 0.716551
0.333111 -0.0541786 0.717203
0.331872 -0.0542301 0.718047
0.330651 -0.054284 0.718934
0.329428 -0.0543379 0.719817
0.328251 -0.0543976 0.720811
0.327105 -0.0544615 0.721882
0.325941 -0.0545234 0.722913
0.324925 -0.0546043 0.724296
0.323936 -0.0546893 0.725752
0.32291 -0.0547699 0.727129
0.321771 -0.0548362 0.728241
0.320657 -0.054906 0.729418
0.319516 -0.0549727 0.730537
0.318385 -0.0550407 0.731683
0.317348 -0.0551217 0.733065
0.316471 -0.0552244 0.734845
0.315547 -0.0553213 0.736519
0.314656 -0.0554234 0.738286
0.313813 -0.0555325 0.740185
0.312834 -0.0556238 0.741755
0.311684 -0.0556922 0.742907
0.31055 -0.0557633 0.744105
0.309317 -0.055821 0.745057
0.309112 -0.0560213 0.748626
0.314821 -0.0577629 0.780128
0.315373 -0.0580841 0.785906
0.31485 -0.0582545 0.788919
0.313799 -0.0583505 0.790568
0.312735 -0.058445 0.792192
0.311363 -0.0584954 0.793005
0.31007 -0.0585575 0.794034
0.308964 -0.0586471 0.795565
0.307905 -0.0587443 0.797236
0.30694 -0.0588561 0.799173
0.306204 -0.0590025 0.801745
0.352224 -0.0553468 0.712795
0.35067 -0.0553609 0.712962
0.349111 -0.055374 0.713113
0.347502 -0.0553806 0.713149
0.346044 -0.0554058 0.713514
0.344487 -0.0554185 0.713657
0.342966 -0.0554354 0.713877
0.341367 -0.0554424 0.713919
0.339849 -0.0554592 0.714136
0.338245 -0.0554652 0.714159
0.336761 -0.0554858 0.714444
0.335321 -0.0555119 0.714827
0.333977 -0.0555501 0.715425
0.33263 -0.055588 0.716017
0.331423 -0.0556438 0.716929
0.330172 -0.0556941 0.71774
0.328955 -0.055749 0.718636
0.327757 -0.0558064 0.719575
0.326681 -0.0558801 0.720803
0.325559 -0.0559481 0.72193
0.324616 -0.0560399 0.723482
0.323668 -0.0561317 0.725031
0.322738 -0.0562263 0.726631
0.321631 -0.0562977 0.727819
0.320555 -0.0563737 0.729087
0.319447 -0.0564456 0.730283
0.318345 -0.0565187 0.731501
0.317342 -0.0566057 0.732964
0.31647 -0.0567111 0.734755
0.315546 -0.0568101 0.736431
0.31462 -0.0569093 0.738112
0.313769 -0.0570197 0.739992
0.312753 -0.0571075 0.741469
0.311637 -0.0571819 0.742706
0.310544 -0.0572597 0.744006
0.309384 -0.0573284 0.745144
0.308673 -0.0574617 0.747428
0.310035 -0.0563805 0.755107
0.308998 -0.0577451 0.752374
0.314071 -0.0592091 0.778102
0.315265 -0.0596333 0.785542
0.315338 -0.0598959 0.790115
0.314221 -0.0599842 0.791596
0.313055 -0.0600657 0.792956
0.311646 -0.0601112 0.793678
0.310352 -0.0601741 0.794707
0.309183 -0.060256 0.796074
0.308054 -0.0603444 0.797558
0.307006 -0.0604459 0.799271
0.350503 -0.0568167 0.712504
0.348954 -0.0568303 0.712676
0.347318 -0.0568325 0.712654
0.345819 -0.0568518 0.712926
0.344223 -0.0568587 0.712984
0.342668 -0.0568703 0.713125
0.341032 -0.0568714 0.713083
0.339477 -0.0568826 0.713214
0.337863 -0.0568859 0.713211
0.33634 -0.0569007 0.713407
0.3349 -0.0569261 0.713785
0.333558 -0.0569644 0.714384
0.332216 -0.0570025 0.714981
0.331013 -0.0570592 0.715898
0.329792 -0.0571138 0.716778
0.328609 -0.0571735 0.717746
0.327477 -0.0572403 0.718836
0.326439 -0.0573201 0.720151
0.325391 -0.0573988 0.721446
0.324486 -0.0574975 0.723086
0.323548 -0.0575923 0.724659
0.322624 -0.0576896 0.726273
0.321554 -0.0577672 0.727548
0.320479 -0.0578445 0.728819
0.319346 -0.057914 0.729954
0.318278 -0.0579929 0.731252
0.31727 -0.0580807 0.732704
0.316398 -0.0581883 0.734495
0.315476 -0.0582894 0.736174
0.314547 -0.0583902 0.737848
0.313693 -0.0585024 0.739719
0.312675 -0.0585914 0.74119
0.311563 -0.0586675 0.742438
0.310508 -0.0587522 0.743834
0.309419 -0.0588321 0.745149
0.308204 -0.058894 0.746153
0.30793 -0.0590959 0.749565
0.313621 -0.0606938 0.776852
0.315574 -0.061245 0.786263
0.316323 -0.061618 0.792611
0.315019 -0.0616799 0.793613
0.313738 -0.0617458 0.794681
0.31232 -0.0617904 0.795386
0.310959 -0.0618441 0.796245
0.309717 -0.0619165 0.797427
0.308571 -0.0620044 0.798875
0.348772 -0.0582825 0.712187
0.347125 -0.058282 0.71214
0.345595 -0.0582966 0.712343
0.343956 -0.0582965 0.712301
0.342366 -0.0583026 0.712364
0.340725 -0.0583016 0.712308
0.339143 -0.0583082 0.712379
0.337499 -0.0583061 0.712304
0.33591 -0.0583111 0.712348
0.334498 -0.0583396 0.712785
0.33316 -0.0583782 0.713389
0.331825 -0.0584172 0.714001
0.33069 -0.0584835 0.715069
0.329532 -0.058547 0.71609
0.32838 -0.0586116 0.717128
0.327313 -0.0586882 0.718367
0.326313 -0.0587745 0.719768
0.325267 -0.0588547 0.721067
0.324365 -0.0589557 0.722713
0.323394 -0.0590476 0.724208
0.322437 -0.059142 0.725742
0.321405 -0.059226 0.727105
0.320339 -0.0593056 0.728395
0.319239 -0.0593808 0.729609
0.318201 -0.0594653 0.730979
0.317194 -0.0595547 0.732432
0.316322 -0.0596645 0.734224
0.315431 -0.059772 0.735978
0.314503 -0.0598749 0.737655
0.313651 -0.0599896 0.739528
0.312633 -0.0600804 0.741003
0.311525 -0.0601581 0.742258
0.310502 -0.060249 0.743734
0.309448 -0.0603356 0.745141
0.3082 -0.0603932 0.746061
0.307376 -0.060516 0.748069
0.313731 -0.0622619 0.777053
0.315971 -0.0628738 0.787214
0.31737 -0.0633595 0.795267
0.315897 -0.0633964 0.795842
0.314492 -0.0634439 0.796593
0.313025 -0.0634816 0.797178
0.311592 -0.0635248 0.797857
0.310216 -0.063577 0.798686
0.348519 -0.0597239 0.711542
0.346876 -0.0597226 0.711501
0.34536 -0.0597382 0.711734
0.343721 -0.0597368 0.711692
0.342094 -0.0597367 0.71167
0.340461 -0.0597355 0.71163
0.338915 -0.0597459 0.711777
0.337245 -0.0597389 0.711644
0.335624 -0.0597382 0.711613
0.33421 -0.0597661 0.712044
0.332873 -0.0598046 0.712648
0.331545 -0.0598445 0.713273
0.330449 -0.059917 0.714427
0.329327 -0.0599862 0.715528
0.328212 -0.0600566 0.716649
0.327221 -0.0601453 0.718064
0.326263 -0.060239 0.719561
0.325251 -0.0603255 0.720942
0.324365 -0.0604307 0.722625
0.323412 -0.0605269 0.724161
0.32242 -0.0606178 0.725614
0.32139 -0.0607036 0.726982
0.320324 -0.0607845 0.728272
0.319222 -0.0608605 0.729483
0.31815 -0.0609413 0.73077
0.317112 -0.0610276 0.732148
0.316212 -0.0611353 0.73387
0.315321 -0.0612448 0.735623
0.314425 -0.0613545 0.737377
0.313583 -0.0614729 0.739275
0.312632 -0.0615756 0.740916
0.311586 -0.061664 0.742326
0.310561 -0.0617562 0.743799
0.30944 -0.0618339 0.745037
0.308155 -0.0618863 0.745865
0.306804 -0.0619285 0.746526
0.316861 -0.0645861 0.789449
0.318317 -0.0650952 0.797665
0.316749 -0.0651172 0.797999
0.315287 -0.0651563 0.798612
0.313778 -0.0651877 0.799098
0.348226 -0.0611581 0.710811
0.346526 -0.0611476 0.710645
0.345062 -0.0611695 0.710988
0.343423 -0.0611669 0.710943
0.341795 -0.0611653 0.710917
0.340202 -0.0611684 0.710964
0.338729 -0.061188 0.711271
0.337067 -0.0611807 0.711153
0.335474 -0.0611828 0.711185
0.334085 -0.0612138 0.711671
0.332748 -0.0612523 0.712275
0.331431 -0.0612938 0.712923
0.330375 -0.061373 0.714168
0.329323 -0.0614533 0.715428
0.328249 -0.0615308 0.716646
0.327306 -0.0616281 0.718172
0.326393 -0.0617302 0.719776
0.32538 -0.0618181 0.721156
0.324451 -0.061919 0.722738
0.323451 -0.0620098 0.724166
0.322422 -0.0620967 0.725529
0.321359 -0.0621788 0.726819
0.320257 -0.0622557 0.728025
0.319118 -0.0623271 0.729145
0.31801 -0.0624034 0.730344
0.31694 -0.0624862 0.731644
0.316005 -0.0625903 0.733277
0.315145 -0.0627067 0.735107
0.314319 -0.0628293 0.737032
0.313515 -0.062956 0.739022
