ply
format ascii 1.0
element vertex 1730
property float x
property float y
property float z
end_header
0.246141 0.070368 0.75496
0.245029 0.070557 0.75615
0.243754 0.0706977 0.756726
0.242401 0.0708144 0.757003
0.240926 0.0708939 0.756803
0.239342 0.070939 0.756174
0.237746 0.0709786 0.755481
0.236222 0.0710388 0.755057
0.234771 0.0711217 0.754908
0.233323 0.0712048 0.754769
0.23197 0.0713179 0.755002
0.230677 0.07145 0.75548
0.229461 0.0716074 0.756273
0.228183 0.0717442 0.756812
0.226951 0.0718976 0.757548
0.225514 0.0719819 0.757428
0.224066 0.0720617 0.757252
0.222549 0.0721169 0.756779
0.221168 0.0722184 0.756874
0.220176 0.0724552 0.758639
0.219406 0.0727709 0.761384
0.218719 0.073121 0.764533
0.218084 0.0734928 0.76795
0.217719 0.0739672 0.772613
0.217009 0.0743213 0.775797
0.216271 0.07467 0.778901
0.215439 0.0749871 0.781613
0.21457 0.0752944 0.784192
0.213407 0.0754931 0.785451
0.212216 0.0756823 0.786588
0.211006 0.0758658 0.787653
0.192574 0.0750616 0.766573
0.191086 0.0751096 0.766044
0.189571 0.0751455 0.765364
0.187932 0.0751241 0.764018
0.186396 0.0751461 0.76318
0.184942 0.0752025 0.762757
0.183493 0.0752589 0.762346
0.18209 0.0753354 0.762168
0.18072 0.0754261 0.76216
0.179369 0.075525 0.762252
0.17805 0.0756381 0.762512
0.176761 0.0757656 0.76294
0.175502 0.0759069 0.763537
0.174273 0.0760635 0.764309
0.173056 0.0762274 0.765164
0.171838 0.0763908 0.766017
0.170602 0.0765465 0.766773
0.169349 0.0766932 0.767432
0.168068 0.0768265 0.767928
0.1668 0.0769669 0.768508
0.165573 0.0771297 0.769342
0.164351 0.0772948 0.770211
0.163193 0.0774959 0.771493
0.306897 0.0660826 0.767262
0.305661 0.0662437 0.76808
0.304378 0.0663943 0.768758
0.303109 0.0665483 0.769482
0.301953 0.0667278 0.770554
0.300711 0.0668889 0.771371
0.299302 0.067012 0.771675
0.297631 0.0670759 0.771164
0.29577 0.0670957 0.77005
0.293554 0.0670315 0.767804
0.291159 0.0669228 0.764962
0.288793 0.0668166 0.762176
0.286506 0.0667266 0.759603
0.284356 0.0666655 0.757437
0.282457 0.0666615 0.75605
0.280682 0.0666856 0.755044
0.278914 0.066709 0.754043
0.277242 0.0667551 0.753341
0.275571 0.0668 0.75263
0.273943 0.0668537 0.752047
0.272372 0.0669208 0.751643
0.270855 0.0670006 0.751412
0.269381 0.0670914 0.75132
0.267938 0.0671884 0.751325
0.266411 0.0672644 0.751037
0.264947 0.0673547 0.750957
0.263431 0.0674308 0.750689
0.261894 0.0675011 0.750343
0.260362 0.0675724 0.75
0.258927 0.0676677 0.749994
0.257502 0.0677655 0.750013
0.256082 0.0678644 0.750051
0.254702 0.0679741 0.750226
0.253365 0.0680948 0.750552
0.252035 0.0682172 0.750904
0.250752 0.0683535 0.751427
0.249596 0.0685259 0.752425
0.248423 0.0686937 0.753364
0.247252 0.0688625 0.754318
0.246116 0.0690429 0.755409
0.244978 0.0692234 0.756501
0.243696 0.0693613 0.757052
0.242303 0.0694676 0.757179
0.240785 0.0695352 0.756817
0.239138 0.0695619 0.755941
0.237476 0.0695832 0.754986
0.235892 0.0696265 0.754323
0.234381 0.0696914 0.753933
0.232893 0.0697625 0.753625
0.231552 0.0698789 0.7539
0.230205 0.0699923 0.754149
0.228929 0.0701296 0.754687
0.227551 0.0702332 0.754804
0.226174 0.0703366 0.754921
0.224534 0.0703536 0.753935
0.222949 0.0703865 0.753159
0.22129 0.0703924 0.752048
0.219826 0.0704625 0.751753
0.218804 0.0706834 0.753355
0.218012 0.0709849 0.755971
0.217287 0.071313 0.758911
0.216587 0.0716531 0.762005
0.216189 0.0721049 0.766478
0.215443 0.0724379 0.769459
0.214682 0.0727694 0.772412
0.214085 0.0731639 0.776146
0.213448 0.0735492 0.779753
0.212488 0.0738177 0.781909
0.211565 0.0741046 0.784273
0.192542 0.0737609 0.767186
0.191036 0.0738039 0.766568
0.189529 0.0738455 0.765938
0.18787 0.0738189 0.76449
0.186302 0.0738292 0.763486
0.184829 0.0738797 0.762967
0.18338 0.0739371 0.762555
0.181964 0.0740097 0.762308
0.180577 0.0740938 0.762215
0.179223 0.0741909 0.762285
0.177886 0.0742974 0.762453
0.176583 0.074417 0.762799
0.175321 0.0745578 0.763385
0.174075 0.0747061 0.764064
0.172858 0.0748677 0.764907
0.171641 0.0750311 0.765767
0.170407 0.075187 0.766536
0.169157 0.0753353 0.767211
0.16789 0.0754749 0.767789
0.166609 0.075609 0.768286
0.16538 0.0757691 0.769113
0.164158 0.0759339 0.769976
0.163013 0.0761401 0.771344
0.305624 0.0648537 0.768382
0.304382 0.0650128 0.769191
0.303154 0.0651759 0.770042
0.302008 0.065357 0.771148
0.300793 0.0655231 0.772051
0.299408 0.0656532 0.772435
0.297789 0.0657306 0.772091
0.295989 0.0657661 0.771173
0.293854 0.0657257 0.769188
0.291509 0.0656348 0.766511
0.28908 0.065521 0.763532
0.286706 0.0654163 0.760687
0.284488 0.0653441 0.758307
0.282512 0.0653259 0.756677
0.28064 0.0653298 0.755358
0.278844 0.0653498 0.754267
0.27714 0.0653893 0.753464
0.275422 0.0654246 0.752596
0.273768 0.0654747 0.751929
0.272198 0.0655438 0.75153
0.270678 0.0656236 0.751286
0.269225 0.0657201 0.751264
0.267804 0.0658239 0.751344
0.266278 0.0659004 0.751059
0.264814 0.0659925 0.750979
0.263297 0.0660705 0.750711
0.261739 0.0661359 0.750289
0.260188 0.0662034 0.749882
0.258751 0.0662992 0.749866
0.257344 0.0664029 0.749955
0.255942 0.0665066 0.750056
0.254582 0.0666221 0.750301
0.253261 0.0667477 0.750691
0.251952 0.0668763 0.751118
0.250694 0.0670194 0.751738
0.249544 0.0671924 0.752759
0.248375 0.0673614 0.753716
0.247183 0.0675234 0.754594
0.246023 0.0676958 0.755597
0.244859 0.0678681 0.756597
0.243556 0.0680006 0.757068
0.242119 0.068094 0.757028
0.24054 0.0681449 0.756427
0.238845 0.0681595 0.755357
0.237098 0.0681569 0.754065
0.235432 0.0681773 0.75307
0.233843 0.0682187 0.752361
0.232296 0.0682713 0.751808
0.23088 0.0683638 0.751769
0.229439 0.0684471 0.751621
0.228051 0.0685468 0.751681
0.226548 0.06861 0.751263
0.225039 0.0686697 0.750807
0.223285 0.0686487 0.749312
0.221625 0.0686558 0.748181
0.21995 0.0686558 0.746968
0.218479 0.0687213 0.746603
0.217434 0.0689292 0.748067
0.216568 0.0691981 0.750328
0.215736 0.0694818 0.75276
0.214938 0.0697802 0.755378
0.211888 0.0716593 0.773292
0.211068 0.0719722 0.776048
0.192533 0.0724681 0.767914
0.191025 0.0725124 0.767304
0.189521 0.0725572 0.766685
0.187843 0.0725269 0.765146
0.186253 0.0725304 0.764032
0.184761 0.0725735 0.763412
0.183281 0.072621 0.762842
0.181835 0.0726808 0.762438
0.180434 0.0727597 0.762263
0.179061 0.0728503 0.76224
0.17771 0.0729493 0.762322
0.176404 0.0730688 0.762655
0.175128 0.0732019 0.763155
0.173866 0.0733418 0.763741
0.172646 0.0735023 0.76457
0.171428 0.0736646 0.765426
0.1702 0.0738224 0.766221
0.168965 0.0739777 0.766988
0.167711 0.0741243 0.767649
0.166431 0.0742574 0.768147
0.165202 0.0744176 0.768973
0.163979 0.0745806 0.769836
0.162835 0.0747864 0.771207
0.305669 0.0634793 0.768934
0.304454 0.0636439 0.769826
0.303252 0.0638122 0.770762
0.302088 0.0639884 0.771821
0.300846 0.064149 0.772644
0.299454 0.0642771 0.773011
0.297867 0.0643637 0.772769
0.296124 0.0644151 0.772034
0.29408 0.0643987 0.770339
0.291842 0.0643375 0.768004
0.289416 0.0642312 0.765044
0.287024 0.0641284 0.762151
0.284742 0.0640476 0.759571
0.282678 0.0640128 0.757663
0.280699 0.0639954 0.756003
0.278873 0.0640114 0.754819
0.277089 0.0640352 0.753755
0.27532 0.0640614 0.75272
0.273661 0.0641113 0.752035
0.272068 0.0641766 0.751561
0.270524 0.0642522 0.751236
0.269069 0.0643486 0.751209
0.267645 0.0644522 0.751278
0.266096 0.0645247 0.750917
0.264609 0.0646116 0.750757
0.26309 0.0646899 0.750481
0.261531 0.0647568 0.750054
0.259961 0.0648203 0.749577
0.258525 0.0649175 0.749564
0.25714 0.0650267 0.749731
0.25574 0.0651318 0.749835
0.254381 0.0652476 0.750085
0.253081 0.0653792 0.75055
0.251792 0.065513 0.751052
0.250558 0.065663 0.751761
0.249411 0.065836 0.752795
0.248265 0.0660097 0.753838
0.247069 0.0661709 0.754702
0.245867 0.0663301 0.755549
0.24466 0.0664891 0.756386
0.243336 0.0666158 0.756779
0.241857 0.0666978 0.756574
0.240214 0.0667318 0.755721
0.23847 0.0667344 0.754456
0.236656 0.0667152 0.752895
0.234906 0.0667114 0.751557
0.2332 0.0667194 0.75037
0.23159 0.0667535 0.749551
0.230081 0.0668167 0.749117
0.228564 0.0668764 0.748643
0.227098 0.0669515 0.748365
0.225544 0.0669975 0.747709
0.223974 0.067037 0.746975
0.222197 0.067009 0.745354
0.220487 0.0670006 0.743984
0.218802 0.0669974 0.742699
0.217317 0.0670569 0.742242
0.216162 0.0672233 0.743199
0.215179 0.0674481 0.744916
0.214219 0.0676819 0.746751
0.213266 0.0679203 0.748637
0.192491 0.0711588 0.768481
0.190971 0.0712007 0.767811
0.189458 0.0712435 0.767151
0.187765 0.0712104 0.765534
0.186145 0.0712052 0.764266
0.18465 0.0712486 0.763631
0.183164 0.0712952 0.763032
0.181716 0.0713561 0.76262
0.180314 0.0714355 0.762442
0.178955 0.0715332 0.762494
0.17759 0.071627 0.762502
0.176255 0.0717341 0.762679
0.17495 0.0718539 0.763016
0.173659 0.0719803 0.763432
0.172424 0.0721331 0.764178
0.171208 0.0722948 0.765036
0.169994 0.0724585 0.765917
0.168774 0.0726197 0.766768
0.167533 0.0727727 0.76751
0.166265 0.0729122 0.768089
0.165051 0.0730784 0.769
0.163841 0.0732482 0.769949
0.162709 0.0734582 0.771397
0.304534 0.0622735 0.77049
0.303249 0.0624241 0.771179
0.302054 0.0625933 0.772143
0.300748 0.0627399 0.772774
0.299329 0.0628635 0.773059
0.297822 0.0629678 0.773067
0.296166 0.0630402 0.772604
0.294215 0.0630474 0.771203
0.292116 0.0630215 0.769315
0.289751 0.0629346 0.766554
0.287382 0.0628441 0.763743
0.28506 0.0627597 0.761044
0.282929 0.0627153 0.758925
0.280837 0.0626771 0.756907
0.278949 0.0626817 0.755523
0.277062 0.0626849 0.754123
0.275261 0.0627066 0.752985
0.273552 0.0627468 0.752137
0.271934 0.0628078 0.751577
0.270366 0.0628799 0.751175
0.26891 0.0629761 0.751142
0.267463 0.0630756 0.751136
0.265915 0.0631491 0.750775
0.264404 0.0632311 0.750532
0.26288 0.0633093 0.750237
0.261295 0.0633717 0.749718
0.259702 0.0634303 0.749159
0.258268 0.0635287 0.749155
0.256909 0.0636452 0.749407
0.255516 0.0637521 0.749538
0.254205 0.0638805 0.74996
0.252933 0.0640191 0.750526
0.251666 0.0641587 0.751112
0.250472 0.0643186 0.751968
0.249325 0.0644908 0.753001
0.248156 0.0646575 0.753964
0.246955 0.0648171 0.754813
0.245726 0.0649688 0.755562
0.244458 0.0651106 0.756164
0.243129 0.0652355 0.756537
0.241669 0.065324 0.756405
0.239948 0.0653373 0.755248
0.238121 0.0653196 0.753654
0.23618 0.0652664 0.751588
0.234268 0.0652185 0.749596
0.232399 0.0651795 0.747746
0.230726 0.0651963 0.746653
0.229157 0.0652416 0.74596
0.227602 0.065289 0.745308
0.226093 0.0653502 0.744829
0.224492 0.0653811 0.743952
0.222878 0.0654067 0.743008
0.221231 0.0654204 0.741903
0.219676 0.0654603 0.741165
0.218161 0.0655112 0.740579
0.216846 0.0656258 0.740838
0.215568 0.0657512 0.741255
0.214291 0.0658765 0.74168
0.213049 0.0660141 0.742254
0.21179 0.066146 0.742754
0.212653 0.0682764 0.752061
0.210872 0.066391 0.744779
0.211781 0.0685474 0.754372
0.209955 0.0666397 0.746832
0.192366 0.0698149 0.768618
0.19085 0.0698603 0.767971
0.189326 0.0699011 0.767263
0.18765 0.0698785 0.765729
0.186029 0.0698746 0.764459
0.184503 0.0699086 0.763668
0.183016 0.0699559 0.763057
0.181582 0.070023 0.762718
0.18018 0.0701038 0.762543
0.178838 0.0702099 0.762694
0.177487 0.0703103 0.762782
0.176139 0.0704122 0.762884
0.174817 0.0705253 0.76313
0.173496 0.070639 0.763379
0.172245 0.070784 0.764033
0.171016 0.070939 0.764814
0.169802 0.0711014 0.765697
0.168583 0.0712628 0.766554
0.167368 0.0714273 0.767446
0.166114 0.0715731 0.768114
0.164915 0.0717467 0.769121
0.163721 0.0719232 0.770172
0.162587 0.0721321 0.771615
0.304559 0.06089 0.770987
0.303213 0.061028 0.771494
0.301947 0.0611824 0.772246
0.300579 0.0613166 0.772686
0.299133 0.061434 0.772888
0.297651 0.0615444 0.772973
0.296031 0.0616254 0.772622
0.294189 0.0616597 0.771566
0.292184 0.0616576 0.769976
0.289909 0.0615954 0.767502
0.287576 0.0615182 0.76481
0.285273 0.0614447 0.762177
0.283081 0.0613916 0.759871
0.280927 0.061344 0.757652
0.278956 0.0613345 0.756003
0.277013 0.0613289 0.754421
0.275155 0.0613398 0.753097
0.273395 0.0613713 0.752079
0.271752 0.0614277 0.751435
0.270184 0.0615007 0.751032
0.268706 0.0615937 0.750925
0.267236 0.0616881 0.750838
0.265665 0.0617576 0.750395
0.264107 0.0618292 0.749991
0.262537 0.0618972 0.749533
0.260948 0.0619603 0.748996
0.259353 0.0620201 0.748426
0.257944 0.0621237 0.748502
0.256631 0.0622513 0.748917
0.255309 0.0623773 0.749303
0.25407 0.0625235 0.749986
0.252848 0.0626747 0.750732
0.251606 0.0628206 0.751411
0.250432 0.0629847 0.752343
0.249262 0.0631506 0.753298
0.248046 0.0633048 0.754086
0.24682 0.063457 0.754844
0.245545 0.0635959 0.755421
0.244231 0.0637249 0.755849
0.242878 0.0638432 0.756129
0.241285 0.0638959 0.755476
0.239441 0.0638785 0.753837
0.237531 0.0638399 0.751911
0.235468 0.063755 0.749349
0.233435 0.0636752 0.74686
0.231572 0.0636411 0.745017
0.229898 0.0636579 0.743899
0.228292 0.0636927 0.743034
0.226743 0.0637426 0.742387
0.225237 0.0638032 0.741899
0.223719 0.0638595 0.741347
0.222199 0.0639142 0.740775
0.220667 0.0639635 0.740138
0.219216 0.0640363 0.739828
0.217793 0.0641171 0.739627
0.21648 0.0642313 0.739886
0.21522 0.0643617 0.740375
0.213947 0.0644883 0.74081
0.212725 0.0646307 0.741463
0.211484 0.0647677 0.742041
0.210293 0.0649216 0.742844
0.209074 0.065067 0.743526
0.209028 0.0668865 0.748862
0.207855 0.065212 0.744213
0.208211 0.0671741 0.751423
0.206638 0.0653586 0.744915
0.207333 0.0674432 0.753734
0.205422 0.0655054 0.745624
0.204131 0.0656272 0.745987
0.19216 0.0684385 0.768346
0.190641 0.0684846 0.767678
0.18913 0.068532 0.767032
0.187496 0.0685292 0.765723
0.185892 0.0685353 0.764539
0.18437 0.0685716 0.763767
0.182882 0.0686206 0.763156
0.181447 0.0686901 0.762822
0.18005 0.0687737 0.762668
0.178712 0.0688816 0.762843
0.177376 0.0689898 0.76302
0.176026 0.0690925 0.763118
0.174687 0.0691981 0.763263
0.173348 0.0693041 0.763412
0.172082 0.0694415 0.763975
0.170838 0.0695893 0.764674
0.169624 0.0697517 0.765558
0.168405 0.0699121 0.766414
0.167191 0.0700759 0.767313
0.165951 0.0702287 0.768065
0.164754 0.0704026 0.769091
0.16355 0.0705738 0.770082
0.162381 0.0707627 0.771302
0.304477 0.0594836 0.771159
0.303057 0.0596068 0.771442
0.301708 0.0597448 0.771943
0.300267 0.0598638 0.772159
0.298848 0.0599872 0.772439
0.297368 0.0600986 0.77253
0.295801 0.0601921 0.772344
0.294043 0.0602454 0.771549
0.292171 0.0602742 0.77038
0.289984 0.060236 0.76819
0.287711 0.0601768 0.765692
0.285412 0.060109 0.763079
0.283192 0.0600555 0.760681
0.280957 0.0599952 0.758206
0.278911 0.0599732 0.756312
0.276913 0.0599593 0.754552
0.275025 0.0599668 0.753129
0.273237 0.0599952 0.752017
0.27157 0.0600485 0.751293
0.270002 0.0601223 0.75089
0.268523 0.0602153 0.750776
0.267029 0.060305 0.750607
0.265409 0.0603648 0.749998
0.263803 0.0604274 0.749424
0.262186 0.0604851 0.748797
0.260574 0.0605439 0.748178
0.258982 0.0606049 0.747612
0.257597 0.0607154 0.747769
0.256311 0.0608496 0.748279
0.255036 0.0609867 0.748828
0.253846 0.0611443 0.749685
0.252673 0.0613062 0.75061
0.25148 0.0614645 0.751471
0.250327 0.0616334 0.752481
0.249154 0.0617978 0.753427
0.247914 0.061945 0.754127
0.246642 0.0620844 0.754713
0.245302 0.0622066 0.755044
0.243941 0.0623238 0.755292
0.242504 0.0624199 0.755246
0.240785 0.0624405 0.754102
0.238855 0.0624023 0.752119
0.23688 0.0623486 0.749924
0.234732 0.0622444 0.747009
0.232661 0.0621581 0.744355
0.230818 0.0621308 0.742573
0.229134 0.0621463 0.741399
0.227488 0.06217 0.740355
0.225967 0.0622279 0.739799
0.22449 0.0622971 0.739414
0.223037 0.0623719 0.739114
0.221605 0.0624532 0.738893
0.220193 0.0625388 0.738747
0.218802 0.0626301 0.738679
0.217431 0.0627268 0.738693
0.216132 0.0628452 0.739009
0.214892 0.062981 0.739579
0.213642 0.0631144 0.740106
0.212439 0.063262 0.740844
0.211233 0.0634094 0.741571
0.210061 0.0635686 0.742458
0.208863 0.0637195 0.74323
0.207681 0.0638762 0.744084
0.206489 0.0640306 0.744901
0.205278 0.0641791 0.745633
0.203999 0.0643051 0.746055
0.192054 0.0671007 0.768585
0.190535 0.0671485 0.76792
0.189026 0.067199 0.767286
0.187377 0.0671925 0.765899
0.185788 0.0672075 0.764795
0.184251 0.0672412 0.76395
0.182751 0.0672868 0.763274
0.181316 0.0673576 0.762935
0.179919 0.0674421 0.76279
0.178583 0.0675514 0.762975
0.177262 0.0676668 0.763242
0.175912 0.067769 0.763336
0.174557 0.0678695 0.763399
0.173201 0.067968 0.763448
0.171918 0.0680987 0.763918
0.17066 0.0682404 0.764535
0.169446 0.0684019 0.765419
0.168227 0.0685615 0.766275
0.167012 0.068725 0.767175
0.165786 0.0688827 0.768006
0.164591 0.069056 0.769045
0.163385 0.0692258 0.770025
0.304242 0.0580467 0.77087
0.302782 0.0581636 0.771033
0.301448 0.0583037 0.771575
0.299968 0.0584156 0.77167
0.298542 0.0585377 0.771927
0.297062 0.0586493 0.772015
0.29552 0.0587485 0.771904
0.293763 0.0588038 0.771113
0.291974 0.0588511 0.770202
0.289921 0.058845 0.768437
0.28773 0.0588073 0.766204
0.285463 0.058752 0.763695
0.283262 0.0587074 0.761364
0.281002 0.0586471 0.758807
0.278854 0.0586088 0.756585
0.276807 0.0585879 0.754664
0.274892 0.0585928 0.753151
0.273078 0.0586181 0.751951
0.271388 0.0586683 0.75115
0.26982 0.058744 0.750748
0.268318 0.0588332 0.750557
0.266776 0.0589125 0.750221
0.265102 0.0589621 0.749424
0.263467 0.0590186 0.748743
0.261825 0.0590729 0.748029
0.260217 0.0591332 0.747417
0.258653 0.0592028 0.746945
0.257295 0.0593199 0.747198
0.256013 0.0594548 0.747716
0.254738 0.059591 0.748265
0.253549 0.0597482 0.749123
0.25238 0.0599103 0.75006
0.251233 0.0600786 0.751086
0.250108 0.0602525 0.752198
0.248957 0.0604215 0.753223
0.247693 0.0605631 0.753838
0.246396 0.0606959 0.754325
0.24499 0.0608013 0.754406
0.243526 0.0608916 0.754254
0.242 0.0609647 0.75386
0.240205 0.0609673 0.752418
0.238224 0.0609184 0.750221
0.236175 0.0608487 0.747724
0.234041 0.0607525 0.744847
0.231982 0.0606733 0.742225
0.230197 0.0606649 0.740657
0.228548 0.0606911 0.73961
0.226952 0.0607296 0.738759
0.225492 0.0608052 0.738442
0.224076 0.0608923 0.738296
0.222667 0.0609808 0.738172
0.221277 0.0610739 0.73812
0.219902 0.0611711 0.738125
0.218526 0.0612671 0.738118
0.217155 0.061364 0.738129
0.215876 0.0614883 0.738524
0.214657 0.0616297 0.739182
0.213425 0.0617686 0.739791
0.212227 0.0619173 0.740548
0.211037 0.0620698 0.741347
0.209868 0.0622286 0.742244
0.208687 0.0623845 0.743095
0.207523 0.0625459 0.744032
0.206351 0.062706 0.744938
0.205143 0.062855 0.745687
0.203872 0.0629841 0.746148
0.190466 0.0658254 0.768351
0.18895 0.0658751 0.76769
0.187296 0.0658709 0.766278
0.18568 0.0658778 0.765038
0.184155 0.0659178 0.764252
0.182653 0.065965 0.76357
0.181214 0.066035 0.76321
0.179813 0.0661202 0.763052
0.178475 0.0662298 0.763229
0.177155 0.0663453 0.763502
0.175805 0.0664491 0.763599
0.174436 0.0665442 0.76359
0.173079 0.0666428 0.763631
0.171782 0.066768 0.764021
0.170509 0.0669028 0.764555
0.169282 0.0670576 0.76536
0.168073 0.0672214 0.766286
0.16686 0.0673845 0.76719
0.165633 0.0675424 0.768026
0.164448 0.0677193 0.769125
0.302454 0.0567105 0.770459
0.301165 0.0568584 0.771136
0.299705 0.056975 0.771292
0.298274 0.0570965 0.771534
0.296792 0.0572077 0.771612
0.295247 0.0573072 0.771492
0.29349 0.0573651 0.770695
0.291731 0.0574205 0.76988
0.289789 0.057439 0.768464
0.287662 0.0574191 0.766438
0.285447 0.0573794 0.764095
0.283264 0.0573434 0.761826
0.280993 0.0572863 0.759234
0.278772 0.0572366 0.756773
0.276699 0.0572149 0.754767
0.274757 0.0572176 0.753166
0.272918 0.0572408 0.751885
0.271206 0.0572882 0.751008
0.269639 0.0573648 0.750605
0.268114 0.0574503 0.750337
0.266523 0.0575211 0.749834
0.264799 0.0575608 0.74886
0.263131 0.0576128 0.748067
0.261466 0.0576631 0.747263
0.259866 0.057727 0.746677
0.258352 0.0578085 0.74638
0.257021 0.0579321 0.746723
0.255739 0.0580663 0.747239
0.254459 0.0582006 0.747767
0.253264 0.0583558 0.7486
0.252072 0.058512 0.749454
0.250908 0.0586748 0.750413
0.249786 0.058848 0.751537
0.248639 0.0590161 0.752574
0.247358 0.0591527 0.753119
0.246038 0.0592799 0.753518
0.244607 0.0593793 0.753495
0.243074 0.0594528 0.753078
0.241481 0.0595104 0.75242
0.239619 0.0594982 0.750702
0.237592 0.059441 0.748315
0.235533 0.0593726 0.745765
0.233414 0.059285 0.742937
0.23139 0.0592185 0.740439
0.229699 0.0592367 0.739232
0.228099 0.0592776 0.738372
0.226567 0.0593352 0.73777
0.225164 0.0594274 0.737682
0.223784 0.0595247 0.737683
0.222395 0.0596191 0.737636
0.221041 0.0597232 0.737734
0.219668 0.0598209 0.737742
0.218292 0.059918 0.737732
0.216921 0.0600154 0.737739
0.215643 0.0601396 0.738141
0.214428 0.0602825 0.738816
0.213219 0.0604271 0.739519
0.212037 0.06058 0.740348
0.210865 0.0607366 0.741226
0.209694 0.0608947 0.742115
0.208514 0.0610499 0.742972
0.207348 0.0612099 0.743898
0.206174 0.0613692 0.744797
0.204965 0.0615164 0.745538
0.203692 0.0616445 0.745993
0.19201 0.0644825 0.76993
0.19047 0.0645274 0.769168
0.188949 0.0645771 0.768486
0.187284 0.0645717 0.76702
0.185648 0.0645752 0.765678
0.184107 0.0646122 0.764816
0.182572 0.0646484 0.763955
0.181113 0.0647131 0.763494
0.179694 0.0647914 0.76324
0.178327 0.0648894 0.763254
0.177005 0.0650053 0.763518
0.175668 0.0651146 0.763695
0.174302 0.0652118 0.763699
0.172972 0.065323 0.763903
0.171688 0.0654536 0.764375
0.170402 0.0655829 0.764835
0.169159 0.0657309 0.76555
0.167949 0.0658942 0.766465
0.166721 0.0660506 0.767292
0.165484 0.0662028 0.768063
0.300902 0.0554185 0.77076
0.299469 0.0555397 0.770998
0.298038 0.0556616 0.771236
0.296525 0.0557684 0.771219
0.294952 0.0558633 0.771009
0.293217 0.0559268 0.770281
0.291465 0.0559859 0.769483
0.289585 0.0560193 0.768263
0.287499 0.0560111 0.766364
0.28534 0.0559866 0.764202
0.283153 0.0559544 0.76192
0.280897 0.0559065 0.759379
0.278668 0.0558596 0.756892
0.276594 0.0558423 0.754881
0.274627 0.0558439 0.753198
0.272785 0.0558687 0.751906
0.271047 0.0559129 0.750941
0.269457 0.0559865 0.750463
0.26791 0.0560682 0.750118
0.266292 0.0561344 0.749524
0.264518 0.0561668 0.748374
0.262825 0.056214 0.747491
0.261141 0.0562625 0.74662
0.259568 0.0563333 0.746121
0.258082 0.0564231 0.745922
0.256775 0.0565514 0.746348
0.25549 0.056685 0.746855
0.254206 0.0568183 0.747364
0.252964 0.0569615 0.748026
0.251745 0.0571099 0.748777
0.250554 0.0572655 0.749635
0.249389 0.0574276 0.750593
0.248226 0.0575913 0.751568
0.246946 0.057727 0.752111
0.245588 0.0578443 0.752362
0.244132 0.0579379 0.752239
0.242557 0.0580017 0.75165
0.240898 0.0580445 0.750731
0.23894 0.058011 0.748631
0.236944 0.0579646 0.746348
0.234886 0.0579008 0.743788
0.232858 0.0578402 0.741302
0.230942 0.0578055 0.739222
0.229368 0.0578561 0.738475
0.227793 0.0579057 0.737712
0.226317 0.057979 0.737332
0.22493 0.058076 0.737309
0.223553 0.0581752 0.737316
0.222183 0.0582755 0.737348
0.220849 0.0583853 0.737525
0.219491 0.0584876 0.737601
0.218134 0.0585904 0.737672
0.216765 0.0586889 0.737684
0.215488 0.058814 0.738094
0.214272 0.0589557 0.738764
0.213064 0.0590999 0.73947
0.211865 0.0592477 0.740227
0.210693 0.0594038 0.741102
0.209519 0.0595596 0.741981
0.208336 0.0597136 0.742827
0.207171 0.0598732 0.743756
0.205982 0.0600262 0.744584
0.204767 0.0601725 0.745304
0.203487 0.0602982 0.745722
0.192158 0.0632288 0.771475
0.190623 0.0632785 0.77075
0.189076 0.0633221 0.769947
0.18738 0.0633103 0.768333
0.185706 0.0633027 0.766801
0.184116 0.0633246 0.765685
0.182531 0.0633451 0.764569
0.181043 0.0634005 0.76395
0.179593 0.0634687 0.763523
0.178194 0.0635556 0.763373
0.17687 0.0636701 0.763618
0.175534 0.0637806 0.763801
0.174168 0.0638791 0.763817
0.17287 0.0640039 0.764205
0.1716 0.0641411 0.764764
0.170303 0.0642658 0.765159
0.169042 0.0644058 0.76577
0.167827 0.0645664 0.766663
0.166561 0.0647056 0.767261
0.165312 0.0648529 0.767963
0.299269 0.0541121 0.770814
0.297824 0.0542318 0.77101
0.296303 0.054337 0.770965
0.294705 0.0544281 0.770675
0.292943 0.0544892 0.769861
0.291189 0.0545497 0.769053
0.289341 0.054592 0.767935
0.287263 0.0545896 0.76606
0.285114 0.0545709 0.763928
0.282952 0.0545477 0.761722
0.28072 0.0545095 0.75926
0.278518 0.0544734 0.756857
0.276449 0.0544607 0.754865
0.274502 0.0544696 0.753247
0.272655 0.0544958 0.751938
0.270889 0.0545377 0.75088
0.269275 0.0546081 0.750321
0.267748 0.0546956 0.750045
0.266154 0.0547682 0.749529
0.26436 0.0547983 0.748311
0.262666 0.0548487 0.747424
0.26098 0.0548983 0.746546
0.259386 0.0549663 0.745975
0.257861 0.0550486 0.745633
0.256531 0.0551715 0.74598
0.255201 0.0552949 0.746324
0.253873 0.0554186 0.746671
0.252566 0.0555468 0.747097
0.251323 0.055689 0.747753
0.250125 0.055842 0.748582
0.248955 0.0560018 0.749516
0.247786 0.0561624 0.750459
0.246527 0.0563023 0.751076
0.245152 0.0564154 0.751256
0.2437 0.0565105 0.75114
0.242085 0.0565656 0.750394
0.240367 0.0565957 0.749237
0.23847 0.0565801 0.747365
0.236543 0.0565555 0.745343
0.234526 0.0565052 0.74293
0.232585 0.0564713 0.740785
0.230762 0.0564636 0.739071
0.229168 0.0565112 0.738245
0.227595 0.0565628 0.737487
0.226138 0.0566422 0.737183
0.224752 0.0567406 0.737164
0.223376 0.0568404 0.737173
0.222007 0.0569416 0.737212
0.220693 0.0570568 0.737472
0.219358 0.0571666 0.737642
0.218022 0.0572757 0.737803
0.216668 0.0573795 0.737886
0.215423 0.0575129 0.738433
0.214204 0.0576539 0.739095
0.212994 0.0577971 0.739796
0.211793 0.0579442 0.740545
0.210617 0.058099 0.74141
0.20941 0.058244 0.742143
0.208209 0.0583922 0.742908
0.207026 0.0585465 0.74376
0.205818 0.0586931 0.744505
0.204591 0.0588352 0.745166
0.203311 0.0589609 0.745584
0.19226 0.0619537 0.77279
0.19075 0.0620153 0.77221
0.189203 0.0620625 0.771416
0.187496 0.0620511 0.76976
0.185798 0.0620389 0.768107
0.184171 0.0620504 0.766802
0.182568 0.0620676 0.765597
0.181076 0.0621246 0.764968
0.17961 0.0621891 0.764465
0.178209 0.0622764 0.764306
0.176864 0.0623852 0.764454
0.175511 0.06249 0.764552
0.174133 0.0625847 0.764497
0.172836 0.0627111 0.764903
0.171556 0.0628431 0.76541
0.170243 0.0629628 0.765723
0.168952 0.0630914 0.766162
0.167718 0.0632437 0.766948
0.166437 0.0633761 0.767452
0.165175 0.0635167 0.768075
0.299131 0.0526943 0.77082
0.297641 0.0528069 0.770877
0.296087 0.0529073 0.770732
0.294434 0.05299 0.770266
0.292631 0.0530461 0.769321
0.290864 0.0531064 0.76847
0.289031 0.0531531 0.767396
0.286948 0.0531537 0.7655
0.284826 0.0531445 0.763453
0.282699 0.053132 0.761356
0.280527 0.0531095 0.759085
0.278382 0.0530891 0.756873
0.276322 0.0530819 0.754907
0.274379 0.0530953 0.753302
0.272503 0.0531195 0.751897
0.270708 0.0531571 0.750741
0.269069 0.0532251 0.750096
0.267545 0.0533132 0.749828
0.265979 0.053394 0.749409
0.264254 0.0534406 0.748431
0.262568 0.0534939 0.74757
0.260878 0.0535462 0.746679
0.259277 0.0536141 0.746083
0.2577 0.0536869 0.745561
0.256304 0.053797 0.745672
0.254949 0.053915 0.745922
0.253596 0.0540328 0.74618
0.252248 0.0541521 0.746453
0.250984 0.0542892 0.747032
0.249764 0.0544366 0.747776
0.248571 0.0545896 0.748619
0.247377 0.0547437 0.749468
0.246097 0.0548778 0.75
0.244722 0.0549908 0.750172
0.243257 0.0550832 0.750002
0.241605 0.0551318 0.749107
0.23989 0.0551644 0.74795
0.238069 0.0551699 0.746363
0.236194 0.0551607 0.744535
0.234227 0.0551268 0.742316
0.232367 0.0551161 0.740483
0.230581 0.0551208 0.738914
0.228971 0.0551662 0.738023
0.227417 0.0552247 0.737342
0.225978 0.0553107 0.737111
0.224595 0.0554096 0.737101
0.223218 0.0555104 0.73711
0.22185 0.0556122 0.737151
0.220538 0.0557281 0.73742
0.219224 0.0558442 0.73768
0.217909 0.0559592 0.737933
0.216593 0.0560741 0.738181
0.215366 0.056212 0.738805
0.214144 0.0563521 0.739461
0.21293 0.0564953 0.740149
0.211726 0.056641 0.740889
0.210516 0.056785 0.741608
0.209291 0.0569252 0.742259
0.20807 0.0570674 0.742939
0.206869 0.0572153 0.743708
0.205641 0.0573555 0.744362
0.204415 0.0574971 0.745028
0.203135 0.0576227 0.745446
0.192358 0.0606734 0.774088
0.190864 0.0607433 0.773602
0.189329 0.0607974 0.772887
0.187634 0.0607939 0.771299
0.185929 0.060784 0.769625
0.184292 0.0607961 0.768281
0.182685 0.0608165 0.767068
0.181178 0.0608696 0.766372
0.179711 0.0609365 0.765873
0.17829 0.0610196 0.76562
0.176928 0.0611221 0.765682
0.175557 0.0612223 0.765689
0.174176 0.0613174 0.765632
0.172875 0.0614424 0.766022
0.171578 0.0615699 0.766443
0.170235 0.0616787 0.766589
0.168913 0.0617952 0.766856
0.167648 0.061935 0.767463
0.166338 0.062056 0.767797
0.165049 0.0621856 0.768259
0.297417 0.0513755 0.770618
0.29585 0.051475 0.770429
0.294162 0.0515529 0.769856
0.292358 0.0516102 0.768903
0.290439 0.0516465 0.767569
0.288493 0.0516758 0.766126
0.28634 0.0516677 0.764001
0.284245 0.0516666 0.762029
0.28221 0.051675 0.760226
0.280176 0.0516806 0.758396
0.27817 0.0516901 0.756633
0.276166 0.0516974 0.754853
0.27425 0.0517185 0.753336
0.272347 0.051741 0.751841
0.270523 0.0517763 0.750591
0.268859 0.0518409 0.749859
0.267361 0.0519359 0.749679
0.265827 0.0520234 0.749368
0.26418 0.052088 0.748658
0.262538 0.0521526 0.747951
0.260831 0.0522031 0.747002
0.259186 0.0522654 0.746258
0.257543 0.0523261 0.745502
0.25607 0.0524207 0.745337
0.254691 0.0525341 0.745502
0.253313 0.0526474 0.745667
0.251943 0.0527616 0.745857
0.250682 0.0528993 0.746445
0.249426 0.053038 0.747052
0.248194 0.0531815 0.747751
0.246958 0.0533248 0.748439
0.245676 0.0534588 0.748956
0.244303 0.0535723 0.749131
0.242863 0.0536709 0.749046
0.241253 0.0537299 0.748307
0.239558 0.0537697 0.747223
0.237758 0.0537831 0.745711
0.235906 0.0537824 0.743967
0.233985 0.053763 0.741923
0.23215 0.0537621 0.740186
0.230404 0.0537797 0.738777
0.228794 0.0538274 0.737882
0.22726 0.0538923 0.737283
0.225826 0.0539804 0.737071
0.224442 0.0540798 0.737057
0.223063 0.0541805 0.73706
0.221727 0.0542918 0.737234
0.220433 0.0544122 0.737579
0.219157 0.0545383 0.738004
0.21788 0.0546636 0.738421
0.216602 0.054789 0.738831
0.215359 0.0549236 0.739399
0.214124 0.0550596 0.739998
0.21289 0.0551969 0.740607
0.211667 0.0553377 0.741268
0.210437 0.0554766 0.741902
0.209195 0.0556119 0.742481
0.207954 0.0557482 0.743073
0.20673 0.0558893 0.743742
0.205482 0.0560234 0.744304
0.204238 0.0561598 0.74489
0.192397 0.0593689 0.775082
0.190912 0.0594438 0.774652
0.189389 0.0595047 0.774007
0.187722 0.0595152 0.772585
0.18606 0.0595251 0.771152
0.184394 0.0595301 0.769658
0.182801 0.0595583 0.768531
0.181305 0.0596198 0.767915
0.179823 0.0596834 0.767343
0.178386 0.0597621 0.767012
0.177019 0.0598657 0.767061
0.175628 0.0599597 0.766974
0.174242 0.0600546 0.766901
0.172935 0.0601794 0.767272
0.17162 0.0603 0.767596
0.170243 0.0603967 0.767556
0.168889 0.0605024 0.76764
0.167557 0.0606151 0.767849
0.166203 0.0607196 0.767925
0.164885 0.0608379 0.768214
0.292081 0.050175 0.768473
0.290078 0.0501998 0.766869
0.287962 0.0502039 0.764882
0.285718 0.0501834 0.762452
0.283632 0.0501873 0.7605
0.281706 0.0502181 0.759042
0.279804 0.0502503 0.757639
0.277954 0.0502906 0.756384
0.27603 0.0503155 0.754866
0.274142 0.050346 0.753442
0.272213 0.0503669 0.751862
0.270383 0.0504039 0.750588
0.268668 0.0504607 0.749685
0.267153 0.0505537 0.749447
0.265646 0.0506477 0.749226
0.264073 0.0507284 0.748772
0.262488 0.0508055 0.748263
0.26079 0.0508603 0.747349
0.259135 0.0509222 0.746569
0.257457 0.0509794 0.745695
0.255907 0.0510591 0.745258
0.254461 0.0511594 0.745182
0.253059 0.0512686 0.745257
0.251685 0.0513826 0.745435
0.250407 0.0515159 0.745955
0.249152 0.0516543 0.746564
0.2479 0.0517937 0.747186
0.246642 0.0519314 0.747788
0.245338 0.0520598 0.748219
0.243967 0.0521744 0.748397
0.242528 0.0522736 0.748314
0.240944 0.0523406 0.747669
0.239268 0.0523862 0.746656
0.237512 0.0524119 0.745307
0.235701 0.0524239 0.743725
0.233789 0.0524109 0.741714
0.231974 0.0524177 0.740054
0.230245 0.0524422 0.738708
0.228618 0.0524887 0.737749
0.227089 0.0525561 0.737164
0.225674 0.0526497 0.737033
0.224292 0.0527505 0.73703
0.222928 0.0528554 0.73709
0.221607 0.0529706 0.737331
0.220314 0.0530927 0.737684
0.219077 0.0532277 0.738269
0.217836 0.0533623 0.738843
0.216578 0.0534928 0.739345
0.215354 0.0536319 0.739997
0.214136 0.0537735 0.740679
0.212883 0.0539059 0.74121
0.21164 0.054041 0.74179
0.210392 0.054175 0.742345
0.209111 0.0543 0.74276
0.207835 0.0544266 0.743191
0.206588 0.0545614 0.743762
0.205323 0.0546911 0.744246
0.204062 0.0548225 0.744752
0.192493 0.0580794 0.776374
0.190975 0.0581452 0.775783
0.189449 0.0582083 0.775136
0.18783 0.0582388 0.773975
0.186202 0.0582634 0.772731
0.184538 0.0582732 0.771267
0.182972 0.0583152 0.770307
0.181474 0.0583779 0.769684
0.179973 0.0584377 0.769031
0.17853 0.0585169 0.768684
0.177159 0.0586214 0.76873
0.175739 0.0587067 0.768489
0.174337 0.0587976 0.768333
0.172999 0.058912 0.768542
0.171651 0.0590219 0.768692
0.170243 0.0591088 0.768475
0.168857 0.0592033 0.768379
0.167466 0.0592949 0.768245
0.166071 0.0593837 0.768065
0.285078 0.0487009 0.760845
0.283026 0.0487139 0.758993
0.281231 0.0487688 0.757952
0.279444 0.0488239 0.756919
0.27772 0.0488884 0.756077
0.275898 0.0489343 0.754892
0.274039 0.0489729 0.753566
0.272087 0.048993 0.751908
0.27025 0.0490316 0.750609
0.268505 0.0490863 0.749605
0.266966 0.0491754 0.749285
0.265481 0.0492749 0.749141
0.263978 0.0493702 0.748929
0.262448 0.0494593 0.748614
0.260805 0.0495266 0.747893
0.257473 0.0496502 0.746247
0.255892 0.0497263 0.745705
0.254393 0.0498179 0.745444
0.252946 0.0499181 0.745361
0.251551 0.0500285 0.74546
0.250247 0.0501571 0.745889
0.248969 0.0502898 0.746413
0.24771 0.0504274 0.747009
0.246428 0.0505602 0.74752
0.2451 0.0506837 0.74786
0.24373 0.0507988 0.748041
0.242295 0.0508995 0.747973
0.240718 0.0509691 0.747349
0.239047 0.0510188 0.746352
0.237312 0.0510524 0.745086
0.235504 0.0510686 0.743512
0.233595 0.0510597 0.741511
0.231782 0.0510702 0.739857
0.230072 0.0511021 0.738585
0.22846 0.0511534 0.737684
0.22695 0.0512268 0.737177
0.225556 0.0513262 0.737132
0.224193 0.0514328 0.737208
0.222846 0.0515423 0.737343
0.221527 0.0516584 0.737592
0.220253 0.0517851 0.738028
0.219021 0.0519213 0.738639
0.217782 0.052057 0.739226
0.216556 0.0521953 0.73987
0.215348 0.0523384 0.740595
0.214128 0.0524796 0.741275
0.212873 0.0526114 0.741805
0.211626 0.0527454 0.742367
0.21034 0.0528697 0.742761
0.209007 0.0529824 0.742945
0.207677 0.0530945 0.743139
0.206409 0.0532234 0.743608
0.205119 0.0533466 0.743981
0.203824 0.0534678 0.744328
0.192517 0.0567623 0.777297
0.190963 0.0568195 0.776531
0.18943 0.056882 0.775848
0.187844 0.0569263 0.774866
0.186276 0.0569741 0.773959
0.184661 0.0570043 0.772769
0.183138 0.0570631 0.772047
0.181649 0.0571324 0.771499
0.180141 0.0571932 0.770826
0.17868 0.057269 0.770393
0.177276 0.0573638 0.770272
0.17584 0.0574453 0.769948
0.174434 0.0575376 0.769791
0.173084 0.0576487 0.769941
0.171722 0.0577551 0.770019
0.170309 0.0578417 0.769785
0.168903 0.057931 0.769586
0.28248 0.0472555 0.757681
0.280836 0.0473372 0.757122
0.279154 0.0474113 0.756428
0.277537 0.0474956 0.755934
0.275793 0.0475575 0.755009
0.273967 0.0476046 0.753792
0.272018 0.0476287 0.752144
0.270194 0.0476733 0.750894
0.26842 0.0477247 0.74979
0.26683 0.047807 0.749299
0.265322 0.0479023 0.749075
0.26388 0.04801 0.749074
0.262385 0.0481065 0.748883
0.260798 0.048187 0.748361
0.259204 0.0482647 0.747803
0.257587 0.0483369 0.747151
0.255986 0.0484117 0.746541
0.254475 0.0485021 0.746244
0.253002 0.0485994 0.746071
0.25158 0.0487054 0.746079
0.250208 0.0488205 0.746262
0.248884 0.0489454 0.74662
0.247577 0.0490732 0.747041
0.246249 0.0491967 0.747382
0.244877 0.0493117 0.747557
0.243505 0.0494264 0.747728
0.242072 0.049528 0.747667
0.240499 0.0496009 0.747058
0.238851 0.0496569 0.746148
0.237136 0.0496976 0.744957
0.235371 0.049726 0.743549
0.233423 0.0497126 0.741392
0.231587 0.0497217 0.739648
0.229856 0.0497515 0.738289
0.228235 0.0498033 0.737351
0.226773 0.049889 0.737036
0.225417 0.0499983 0.737148
0.224076 0.0501096 0.737312
0.22275 0.0502253 0.737538
0.221468 0.0503499 0.737942
0.220216 0.0504821 0.738473
0.219 0.050622 0.73916
0.217779 0.0507612 0.739825
0.216567 0.0509034 0.740538
0.215341 0.0510425 0.741191
0.214102 0.0511787 0.741793
0.212846 0.0513101 0.74232
0.211562 0.0514362 0.742729
0.210238 0.0515508 0.742955
0.208866 0.0516535 0.742965
0.207512 0.0517602 0.743048
0.206204 0.0518788 0.743338
0.204905 0.0519997 0.743666
0.194121 0.0553887 0.779096
0.192564 0.0554493 0.778338
0.190976 0.0554987 0.777405
0.189427 0.0555584 0.776645
0.187855 0.0556094 0.775749
0.186306 0.0556667 0.774949
0.184723 0.0557109 0.773938
0.183214 0.055776 0.773306
0.181723 0.0558473 0.772759
0.180211 0.05591 0.772073
0.178732 0.0559816 0.771552
0.177325 0.0560763 0.771419
0.175884 0.0561599 0.771088
0.174476 0.056252 0.770928
0.173136 0.0563688 0.771152
0.171774 0.0564767 0.771241
0.17036 0.056565 0.771019
0.168966 0.0566606 0.770904
0.169018 0.0585938 0.778587
0.280469 0.0459112 0.756381
0.278874 0.0460009 0.755967
0.277319 0.046097 0.755679
0.275663 0.0461754 0.755043
0.273902 0.0462355 0.754043
0.272023 0.0462755 0.752632
0.270219 0.046326 0.75145
0.268436 0.0463785 0.75032
0.266795 0.0464542 0.749656
0.265263 0.0465475 0.749356
0.263823 0.0466559 0.749364
0.262376 0.0467629 0.74934
0.260816 0.0468488 0.748917
0.259252 0.0469343 0.748468
0.257689 0.0470185 0.748013
0.256111 0.0470995 0.747492
0.25457 0.0471863 0.74709
0.253094 0.0472837 0.746913
0.251662 0.0473891 0.746892
0.250222 0.0474925 0.746832
0.248848 0.0476083 0.747011
0.247497 0.0477285 0.74727
0.246124 0.0478438 0.747446
0.244729 0.0479542 0.747535
0.243371 0.0480721 0.747762
0.241978 0.048183 0.747853
0.240464 0.0482695 0.747474
0.238899 0.048344 0.746884
0.23726 0.0484034 0.745993
0.235434 0.0484231 0.744355
0.233497 0.0484177 0.742249
0.231549 0.0484066 0.740061
0.229692 0.0484128 0.738203
0.227961 0.0484439 0.736822
0.226555 0.048543 0.736733
0.225224 0.0486576 0.736941
0.223924 0.0487782 0.737273
0.222639 0.0489031 0.737669
0.221377 0.0490326 0.738159
0.220175 0.0491754 0.738906
0.218995 0.0493243 0.739746
0.217811 0.0494726 0.740577
0.216616 0.0496181 0.741369
0.215404 0.0497604 0.74209
0.214146 0.049892 0.742618
0.212869 0.0500192 0.74306
0.211549 0.0501365 0.743317
0.210171 0.050239 0.74331
0.208762 0.0503335 0.743154
0.207365 0.0504307 0.743046
0.206007 0.0505365 0.743107
0.204668 0.0506468 0.74325
0.195653 0.0553186 0.779703
0.195714 0.0540007 0.7808
0.194206 0.0540803 0.780328
0.192579 0.0541221 0.779217
0.190962 0.0541665 0.77814
0.189399 0.0542248 0.777314
0.187824 0.0542774 0.776406
0.186259 0.054332 0.775528
0.184691 0.0543834 0.774606
0.183197 0.0544561 0.774067
0.18172 0.0545337 0.773601
0.180222 0.0546034 0.773
0.178741 0.0546766 0.772474
0.177344 0.0547763 0.772413
0.175915 0.0548644 0.772149
0.174517 0.054963 0.772063
0.173178 0.0550805 0.772307
0.171827 0.0551939 0.772479
0.170427 0.055289 0.772342
0.169026 0.0553843 0.772204
0.280182 0.0444997 0.755903
0.278652 0.0446012 0.7557
0.277131 0.0447029 0.75552
0.275537 0.0447932 0.755089
0.273854 0.0448684 0.75435
0.27207 0.0449262 0.753259
0.270367 0.0449963 0.752425
0.268605 0.0450555 0.751372
0.266959 0.0451331 0.750696
0.265399 0.0452229 0.750307
0.263914 0.0453253 0.750163
0.262403 0.0454224 0.749925
0.260848 0.0455111 0.749522
0.259269 0.0455955 0.749023
0.25776 0.0456909 0.748764
0.25624 0.0457837 0.748455
0.254723 0.0458765 0.74815
0.253285 0.0459833 0.748117
0.251892 0.046097 0.748244
0.250446 0.0462012 0.748173
0.249089 0.0463206 0.748421
0.247712 0.0464365 0.748595
0.246291 0.0465439 0.748604
0.24485 0.0466473 0.748528
0.243488 0.0467651 0.748744
0.242117 0.0468811 0.748926
0.240708 0.0469893 0.748958
0.239176 0.0470733 0.748509
0.237559 0.04714 0.747715
0.235684 0.047154 0.745893
0.233902 0.0471848 0.744411
0.229901 0.0471505 0.739611
0.228134 0.0471778 0.738091
0.227114 0.0473586 0.73958
0.225876 0.0474948 0.740189
0.224999 0.0477077 0.742289
0.22409 0.0479155 0.744282
0.222819 0.0480459 0.744784
0.221295 0.0481218 0.744226
0.219771 0.0481962 0.743647
0.218238 0.0482679 0.743017
0.216726 0.0483427 0.742463
0.215512 0.0484857 0.743188
0.214248 0.0486162 0.743697
0.212951 0.0487389 0.74406
0.211611 0.0488527 0.744233
0.210194 0.0489469 0.744063
0.208736 0.0490311 0.743695
0.207278 0.0491142 0.743312
0.205862 0.0492075 0.743114
0.197219 0.052579 0.782026
0.195687 0.0526541 0.78145
0.194197 0.0527396 0.781076
0.192594 0.0527924 0.780104
0.190951 0.0528326 0.778897
0.189368 0.0528872 0.777971
0.187788 0.0529416 0.777043
0.186237 0.0530023 0.776241
0.184682 0.0530598 0.775394
0.183216 0.0531443 0.775016
0.181752 0.0532279 0.774635
0.18027 0.0533043 0.774126
0.178788 0.05338 0.773614
0.177391 0.0534819 0.773565
0.175961 0.0535714 0.773308
0.174563 0.0536718 0.773231
0.173221 0.0537891 0.77347
0.171883 0.0539079 0.773726
0.170508 0.0540144 0.773758
0.16912 0.0541152 0.773709
0.275358 0.0434021 0.754961
0.273768 0.0434935 0.754532
0.272085 0.0435706 0.753783
0.270477 0.0436575 0.75327
0.268785 0.0437302 0.75246
0.267183 0.0438168 0.751943
0.265643 0.0439117 0.751629
0.264132 0.0440111 0.751405
0.262568 0.0441013 0.75099
0.260996 0.0441895 0.750534
0.259387 0.0442714 0.749938
0.257856 0.0443644 0.749605
0.256358 0.0444627 0.749383
0.254884 0.0445651 0.749234
0.253469 0.0446764 0.749296
0.252082 0.0447919 0.749451
0.250661 0.0449018 0.749481
0.249326 0.0450267 0.749824
0.247963 0.0451463 0.75006
0.246518 0.0452508 0.749986
0.24507 0.0453541 0.749893
0.243707 0.0454737 0.750119
0.242359 0.0455946 0.750395
0.241022 0.0457183 0.750717
0.239623 0.0458291 0.750791
0.238066 0.0459105 0.750249
0.236211 0.045933 0.748523
0.234441 0.0459703 0.747105
0.23207 0.0458887 0.743269
0.228071 0.0458599 0.738413
0.22723 0.0460752 0.740629
0.226037 0.0462208 0.741435
0.225338 0.0464684 0.744278
0.224896 0.0467712 0.74823
0.223912 0.0469645 0.749962
0.222635 0.0470963 0.750476
0.220997 0.0471514 0.749465
0.219348 0.0472025 0.748382
0.21747 0.0472032 0.746293
0.215911 0.0472701 0.745547
0.214326 0.0473304 0.744674
0.213023 0.0474537 0.74502
0.211659 0.0475624 0.745096
0.210214 0.0476518 0.744804
0.208731 0.0477318 0.74433
0.207218 0.047804 0.743706
0.197286 0.0512528 0.783151
0.195795 0.0513418 0.782797
0.194295 0.0514272 0.782382
0.192716 0.0514891 0.781541
0.191081 0.0515345 0.780389
0.189443 0.0515769 0.779189
0.187814 0.0516196 0.778003
0.186243 0.0516778 0.777107
0.184656 0.051729 0.776103
0.183191 0.0518157 0.77573
0.181728 0.0519006 0.775354
0.180258 0.0519828 0.774931
0.178793 0.0520657 0.774515
0.177413 0.0521749 0.774571
0.175995 0.0522704 0.774399
0.174624 0.0523806 0.774487
0.173295 0.0525029 0.774812
0.17197 0.0526279 0.775162
0.170616 0.0527426 0.775343
0.273667 0.0421156 0.754664
0.272107 0.0422128 0.754329
0.270605 0.0423174 0.754176
0.268993 0.0424053 0.753648
0.267461 0.0425042 0.753377
0.265918 0.0426007 0.753062
0.264401 0.0427016 0.752829
0.262804 0.0427883 0.752305
0.26122 0.0428768 0.751817
0.259601 0.0429591 0.751193
0.258043 0.0430498 0.750774
0.256501 0.043143 0.750401
0.255004 0.0432423 0.750178
0.25361 0.0433582 0.75032
0.25223 0.0434765 0.75051
0.250842 0.0435925 0.75067
0.249534 0.0437231 0.751119
0.248193 0.0438471 0.751444
0.246742 0.0439518 0.751359
0.245286 0.044056 0.751248
0.243963 0.0441832 0.751634
0.242638 0.044309 0.752011
0.241391 0.0444494 0.752688
0.240107 0.0445838 0.753222
0.238797 0.044713 0.753661
0.226508 0.0453867 0.749699
0.226486 0.0457718 0.755438
0.225653 0.0459968 0.757853
0.224311 0.0461192 0.758158
0.215909 0.0463661 0.752236
0.214592 0.0464897 0.752579
0.213302 0.046619 0.753045
0.21203 0.0467528 0.753587
0.195903 0.0500242 0.784142
0.194419 0.0501163 0.78382
0.19284 0.050182 0.782995
0.191188 0.0502261 0.781762
0.189529 0.0502659 0.780463
0.187862 0.0503008 0.779088
0.186259 0.0503527 0.778028
0.184669 0.0504071 0.777015
0.183187 0.0504898 0.776559
0.181721 0.0505763 0.77618
0.180264 0.0506644 0.775836
0.178813 0.0507535 0.775511
0.177446 0.050867 0.77565
0.176042 0.0509689 0.775568
0.17467 0.0510806 0.77566
0.173354 0.0512086 0.776074
0.172041 0.0513376 0.77651
0.273543 0.0407335 0.754717
0.272068 0.0408438 0.75467
0.27063 0.0409593 0.754739
0.269124 0.0410641 0.754571
0.267682 0.0411778 0.754617
0.266187 0.0412837 0.754478
0.264669 0.0413855 0.754248
0.26307 0.0414747 0.753729
0.261459 0.0415613 0.753152
0.259812 0.041641 0.752438
0.258209 0.0417269 0.751866
0.256638 0.0418179 0.751399
0.255109 0.0419133 0.751067
0.25373 0.042033 0.751269
0.252372 0.0421551 0.751546
0.251032 0.0422806 0.751889
0.249769 0.0424186 0.752513
0.248469 0.0425501 0.753006
0.247017 0.042657 0.752927
0.245584 0.0427659 0.752911
0.244279 0.042897 0.753378
0.242972 0.0430277 0.753836
0.241819 0.043185 0.754887
0.240703 0.0433489 0.756094
0.239634 0.0435228 0.757491
0.238224 0.0436359 0.757564
0.217594 0.0453976 0.76026
0.216284 0.0455272 0.760695
0.215116 0.0456863 0.761766
0.194654 0.0488289 0.785839
0.193059 0.0488937 0.784945
0.191385 0.0489361 0.783614
0.189703 0.0489734 0.782209
0.188013 0.0490074 0.780731
0.186405 0.0490604 0.779657
0.184796 0.0491123 0.77855
0.183277 0.0491876 0.777911
0.181777 0.0492669 0.777352
0.180286 0.0493467 0.77683
0.178805 0.049429 0.776342
0.177423 0.0495392 0.776407
0.176031 0.0496462 0.776402
0.174684 0.0497661 0.776649
0.173382 0.0498998 0.77716
0.172097 0.0500384 0.777778
0.172186 0.0519376 0.785655
0.273399 0.0393484 0.754707
0.271991 0.039469 0.754884
0.270615 0.0395928 0.755166
0.269183 0.0397091 0.755255
0.267813 0.0398344 0.755551
0.266374 0.0399496 0.755607
0.26486 0.0400539 0.755401
0.263262 0.0401453 0.754893
0.261657 0.0402344 0.754347
0.260033 0.0403201 0.753723
0.258426 0.040408 0.753146
0.256848 0.0404994 0.752658
0.255284 0.0405915 0.752208
0.253915 0.0407134 0.752456
0.25257 0.0408395 0.752791
0.251276 0.0409722 0.75331
0.250035 0.0411142 0.754026
0.248773 0.0412526 0.75467
0.247318 0.0413599 0.754591
0.245865 0.0414676 0.754515
0.244562 0.0415995 0.754999
0.243273 0.041734 0.755538
0.242135 0.0418931 0.75666
0.241096 0.0420698 0.758177
0.240168 0.0422673 0.760144
0.239181 0.0424549 0.761898
0.238448 0.0426887 0.764677
0.219285 0.0444035 0.768319
0.217984 0.0445386 0.768859
0.216912 0.0447207 0.77042
0.214046 0.0458679 0.763285
0.196798 0.0475438 0.790314
0.195028 0.0475698 0.788571
0.193293 0.0476024 0.786976
0.191615 0.0476474 0.785643
0.189927 0.0476879 0.784224
0.188253 0.0477299 0.782843
0.186653 0.0477896 0.781837
0.185037 0.0478435 0.78071
0.18351 0.0479197 0.780046
0.181957 0.0479868 0.77922
0.1804 0.0480513 0.778342
0.178879 0.0481251 0.777649
0.177449 0.0482234 0.777448
0.176041 0.0483269 0.777363
0.174708 0.0484518 0.777705
0.173436 0.0485942 0.778396
0.270484 0.0382098 0.7552
0.269104 0.0383333 0.755465
0.267784 0.0384661 0.755935
0.266415 0.0385914 0.756239
0.264969 0.0387062 0.756271
0.263444 0.0388096 0.756025
0.261906 0.0389106 0.755722
0.260351 0.0390091 0.75535
0.258745 0.039099 0.754787
0.257163 0.0391914 0.754295
0.255549 0.0392788 0.753678
0.254149 0.0393976 0.753825
0.252783 0.0395201 0.754091
0.251466 0.0396505 0.754536
0.250162 0.0397827 0.755028
0.248934 0.0399266 0.755806
0.247454 0.0400316 0.75564
0.246 0.0401407 0.755567
0.244697 0.0402725 0.756062
0.243428 0.0404105 0.756684
0.242265 0.0405652 0.75772
0.241229 0.0407412 0.759258
0.24029 0.0409347 0.761189
0.239321 0.0411238 0.763022
0.238461 0.0413327 0.765307
0.237518 0.0415285 0.76729
0.236859 0.0431394 0.769837
0.236726 0.0417528 0.769898
0.235754 0.041947 0.771811
0.233046 0.0439479 0.777909
0.233815 0.0423402 0.775716
0.232787 0.042528 0.777459
0.231558 0.0426816 0.778385
0.228476 0.0442436 0.776986
0.230283 0.0428273 0.779127
0.228972 0.0429656 0.77972
0.226516 0.0442563 0.774797
0.227312 0.0430399 0.778826
0.224549 0.0442646 0.772543
0.225602 0.0431033 0.777702
0.222553 0.0442656 0.770121
0.223944 0.0431757 0.776779
0.220905 0.0443321 0.769172
0.222344 0.0432571 0.776087
0.220759 0.0433409 0.775443
0.219486 0.0434849 0.776162
0.199509 0.0463707 0.797587
0.197431 0.0463318 0.794357
0.195482 0.0463213 0.791729
0.19362 0.0463278 0.789493
0.191872 0.0463597 0.787815
0.1902 0.0464078 0.786497
0.18854 0.0464577 0.785217
0.186941 0.046522 0.784236
0.185336 0.0465818 0.78319
0.183788 0.0466562 0.782437
0.18221 0.0467198 0.78149
0.180626 0.0467813 0.780481
0.179092 0.0468539 0.779736
0.177639 0.0469483 0.779424
0.176226 0.0470522 0.779332
0.174905 0.0471824 0.779767
0.173646 0.0473298 0.780561
0.173654 0.0491848 0.787938
0.270009 0.0370829 0.759034
0.268186 0.037151 0.757804
0.266472 0.0372327 0.756925
0.265071 0.0373544 0.757119
0.263617 0.0374684 0.757125
0.26215 0.0375807 0.757083
0.260669 0.0376912 0.75698
0.259129 0.037793 0.756663
0.257592 0.0378943 0.756346
0.255999 0.0379874 0.755817
0.254599 0.0381065 0.755979
