ply
format ascii 1.0
element vertex 1648
property float x
property float y
property float z
end_header
0.12223 -0.0718166 0.87778
0.12366 -0.0711241 0.878155
0.125028 -0.0704079 0.878138
0.126368 -0.069682 0.877956
0.127681 -0.0689467 0.877606
0.128976 -0.0682062 0.877157
0.130279 -0.0674693 0.876764
0.131598 -0.0667383 0.876467
0.132941 -0.0660155 0.876315
0.134319 -0.0653032 0.876359
0.135739 -0.0646037 0.87665
0.137176 -0.0639079 0.877026
0.138553 -0.0631941 0.877062
0.139914 -0.0624754 0.877003
0.141281 -0.0617585 0.876979
0.142635 -0.0610377 0.876878
0.143961 -0.06031 0.876634
0.145355 -0.0595997 0.876752
0.146752 -0.0588896 0.876884
0.148084 -0.0581635 0.87667
0.149393 -0.0574324 0.876337
0.150644 -0.0566885 0.875702
0.151802 -0.0559255 0.874601
0.152949 -0.0551621 0.873454
0.154176 -0.0544181 0.872734
0.15543 -0.0536812 0.872162
0.156767 -0.0529617 0.872011
0.158227 -0.0522662 0.872472
0.159692 -0.0515705 0.872953
0.161179 -0.0508776 0.873529
0.162744 -0.0501968 0.874472
0.164409 -0.0495317 0.875893
0.166114 -0.0488699 0.877475
0.167939 -0.048224 0.879606
0.169812 -0.0475809 0.881931
0.171791 -0.0469494 0.88472
0.173792 -0.0463151 0.88757
0.175811 -0.0456774 0.890461
0.177816 -0.0450319 0.89325
0.179783 -0.0443758 0.895824
0.181633 -0.0436986 0.897827
0.183424 -0.0430107 0.899543
0.0485446 -0.112261 0.90404
0.0499237 -0.111511 0.903825
0.0512979 -0.110755 0.903552
0.0526649 -0.109991 0.903196
0.0540531 -0.109253 0.903108
0.055465 -0.108544 0.903306
0.0568679 -0.107824 0.903387
0.0582698 -0.107101 0.903452
0.0596572 -0.106362 0.903347
0.0609916 -0.105566 0.90265
0.062273 -0.104719 0.901393
0.063539 -0.103861 0.900007
0.0647903 -0.102995 0.898507
0.0660201 -0.102115 0.896827
0.0672649 -0.101256 0.895351
0.0684896 -0.100384 0.893713
0.0697278 -0.0995308 0.892257
0.0709152 -0.0986393 0.890344
0.0721219 -0.0977718 0.88867
0.0732417 -0.0968384 0.886212
0.0743612 -0.0959142 0.883818
0.0754428 -0.0949692 0.881139
0.0766144 -0.0941043 0.879355
0.0777065 -0.0931857 0.876899
0.0788617 -0.092323 0.87507
0.080035 -0.09148 0.873445
0.0812539 -0.0906752 0.872259
0.0824507 -0.089859 0.87091
0.0837611 -0.0891246 0.870556
0.0851469 -0.0884412 0.870837
0.0865486 -0.0877668 0.87124
0.0880085 -0.0871276 0.872106
0.0895162 -0.0865147 0.873333
0.0910434 -0.0859093 0.874684
0.0925203 -0.0852693 0.875607
0.0940151 -0.0846363 0.876644
0.0954415 -0.0839607 0.87713
0.0968455 -0.0832709 0.877434
0.0982388 -0.0825741 0.877649
0.0996445 -0.081883 0.877949
0.101027 -0.0811787 0.878073
0.10242 -0.0804787 0.878262
0.103775 -0.0797597 0.878183
0.105141 -0.0790454 0.878171
0.106484 -0.0783202 0.878
0.107812 -0.0775887 0.877733
0.109101 -0.0768396 0.877195
0.110356 -0.076077 0.876438
0.11161 -0.0753155 0.875684
0.112915 -0.0745779 0.875287
0.114271 -0.0738624 0.875234
0.115671 -0.0731648 0.875468
0.117152 -0.0724981 0.876217
0.118635 -0.0718301 0.876965
0.120098 -0.0711522 0.87757
0.12152 -0.0704571 0.877901
0.122936 -0.0697591 0.878192
0.124323 -0.0690494 0.878291
0.125698 -0.0683355 0.878321
0.127032 -0.0676074 0.878097
0.128345 -0.0668725 0.877747
0.129663 -0.0661401 0.877432
0.13098 -0.0654082 0.877124
0.132291 -0.0646749 0.876778
0.13365 -0.0639563 0.876711
0.135068 -0.0632552 0.876988
0.136505 -0.0625588 0.877368
0.137871 -0.0618413 0.877335
0.139232 -0.0611224 0.877275
0.140598 -0.0604047 0.877244
0.141935 -0.0596795 0.877052
0.143263 -0.0589522 0.876809
0.14469 -0.0582497 0.877109
0.146105 -0.0575434 0.877339
0.147488 -0.0568288 0.877389
0.148846 -0.0561084 0.877307
0.150146 -0.0553751 0.87692
0.151325 -0.0546166 0.875915
0.152494 -0.053858 0.87487
0.153692 -0.0531074 0.873986
0.154915 -0.0523636 0.873243
0.156198 -0.0516328 0.872813
0.157623 -0.0509293 0.8731
0.159072 -0.0502293 0.873497
0.160544 -0.0495323 0.873999
0.162106 -0.0488494 0.87493
0.16375 -0.0481781 0.876248
0.165413 -0.047507 0.877636
0.167197 -0.0468513 0.879577
0.169046 -0.0462015 0.881798
0.171003 -0.0455631 0.884499
0.172985 -0.0449222 0.887272
0.175001 -0.0442803 0.890163
0.176999 -0.0436305 0.892935
0.178957 -0.0429695 0.895478
0.180762 -0.0422842 0.897287
0.182525 -0.0415906 0.898885
0.0491981 -0.110129 0.904028
0.0505778 -0.109379 0.903819
0.0519485 -0.10862 0.903506
0.0533469 -0.107894 0.903539
0.054792 -0.107223 0.904133
0.0562232 -0.106532 0.904538
0.0576252 -0.105807 0.904587
0.0590009 -0.105053 0.904328
0.0603133 -0.104232 0.903364
0.0615493 -0.103337 0.901581
0.0627716 -0.102437 0.899707
0.0640066 -0.101557 0.898026
0.0652307 -0.100673 0.89628
0.0664788 -0.0998191 0.894836
0.0677229 -0.0989675 0.893393
0.0689643 -0.0981194 0.891966
0.0701544 -0.0972324 0.890069
0.0713717 -0.0963759 0.88849
0.0725008 -0.0954526 0.886107
0.0736317 -0.09454 0.883808
0.0747348 -0.0936144 0.88131
0.0759001 -0.092746 0.879453
0.0769825 -0.0918222 0.876892
0.0781262 -0.0909528 0.874947
0.0792886 -0.0901037 0.873219
0.0804998 -0.0892952 0.871961
0.0817185 -0.088496 0.870798
0.0830304 -0.0877632 0.870455
0.0844247 -0.0870851 0.870813
0.0858257 -0.0864099 0.871215
0.0873061 -0.0857829 0.872257
0.0888165 -0.0851702 0.873512
0.0903548 -0.0845697 0.87496
0.0918308 -0.0839278 0.875879
0.0933237 -0.0832921 0.876907
0.0947369 -0.0826083 0.877292
0.0961523 -0.0819241 0.877684
0.097558 -0.0812334 0.877992
0.0989763 -0.080548 0.878386
0.10037 -0.0798488 0.878591
0.101763 -0.0791478 0.878776
0.103108 -0.0784227 0.878613
0.104451 -0.077697 0.878437
0.105793 -0.0769715 0.878263
0.107112 -0.0762353 0.877922
0.108402 -0.0754873 0.877391
0.109685 -0.0747373 0.876819
0.110975 -0.073992 0.876308
0.112271 -0.0732501 0.875842
0.113626 -0.0725332 0.875771
0.115012 -0.0718291 0.875914
0.116467 -0.0711507 0.87649
0.11791 -0.0704661 0.876983
0.119353 -0.0697803 0.877469
0.12077 -0.0690832 0.877773
0.122185 -0.0683842 0.878055
0.123574 -0.0676756 0.878175
0.124977 -0.0669712 0.878378
0.126344 -0.0662539 0.878349
0.127674 -0.0655249 0.878102
0.129009 -0.0647979 0.87789
0.130326 -0.0640656 0.877572
0.131621 -0.0633271 0.877124
0.132962 -0.0626034 0.876958
0.13438 -0.0619014 0.877231
0.135805 -0.0612007 0.877539
0.137173 -0.0604837 0.877522
0.138532 -0.059764 0.877447
0.139896 -0.0590457 0.877406
0.141218 -0.0583166 0.877126
0.142547 -0.0575898 0.876891
0.143989 -0.0568904 0.877275
0.145403 -0.0561834 0.877499
0.146783 -0.0554679 0.877534
0.148138 -0.0547468 0.877437
0.149455 -0.0540174 0.877137
0.150651 -0.0532636 0.876215
0.15186 -0.052514 0.875369
0.15308 -0.0517684 0.874593
0.154322 -0.0510287 0.873943
0.155604 -0.0502973 0.873501
0.157013 -0.0495898 0.873701
0.158464 -0.0488888 0.874104
0.159938 -0.0481909 0.874618
0.161483 -0.0475035 0.875469
0.163107 -0.0468263 0.876688
0.164728 -0.0461462 0.877873
0.16645 -0.0454786 0.879529
0.168237 -0.0448166 0.881464
0.170134 -0.0441663 0.883893
0.172089 -0.0435188 0.886558
0.1741 -0.0428729 0.889443
0.176097 -0.042219 0.89222
0.178069 -0.0415567 0.894842
0.179906 -0.0408739 0.896817
0.181646 -0.0401754 0.898317
0.0498516 -0.107996 0.904015
0.051229 -0.107244 0.903778
0.0526309 -0.106523 0.903854
0.0541329 -0.105917 0.905145
0.0556046 -0.105269 0.906023
0.0569995 -0.104533 0.905963
0.058347 -0.103745 0.905354
0.0596304 -0.102892 0.904035
0.0608208 -0.101951 0.901718
0.0619999 -0.101008 0.899352
0.063227 -0.100122 0.897578
0.064463 -0.0992525 0.895953
0.0657206 -0.0984095 0.894604
0.0669753 -0.0975692 0.893265
0.0682259 -0.0967305 0.891922
0.0694267 -0.0958544 0.890118
0.0706555 -0.0950088 0.888642
0.0718057 -0.0941048 0.886445
0.0729493 -0.0932036 0.884245
0.0740653 -0.0922894 0.881846
0.0752057 -0.0914028 0.879738
0.0762771 -0.0904727 0.877054
0.0774073 -0.0895949 0.874974
0.07856 -0.0887408 0.873147
0.0797653 -0.0879293 0.871829
0.0810158 -0.087153 0.870937
0.0823394 -0.0864282 0.870693
0.0837346 -0.0857501 0.87106
0.0851454 -0.0850804 0.871544
0.0866363 -0.0844581 0.872676
0.0881472 -0.0838438 0.873942
0.0896765 -0.0832358 0.875322
0.0911391 -0.0825845 0.876137
0.0926159 -0.0819383 0.877042
0.0940149 -0.0812461 0.87732
0.0954283 -0.0805604 0.8777
0.0968356 -0.0798702 0.878024
0.0982674 -0.0791912 0.878521
0.099663 -0.0784923 0.878737
0.101056 -0.077791 0.878926
0.102388 -0.07706 0.878673
0.103742 -0.0763397 0.878578
0.105098 -0.07562 0.878491
0.106418 -0.0748848 0.878162
0.10771 -0.0741376 0.877634
0.109006 -0.0733937 0.877149
0.110298 -0.072649 0.876642
0.111596 -0.0719082 0.876187
0.112964 -0.0711963 0.876204
0.114363 -0.0704963 0.876428
0.115804 -0.0698112 0.876915
0.11722 -0.0691155 0.877231
0.118635 -0.0684183 0.877534
0.120049 -0.0677196 0.877821
0.121462 -0.06702 0.878101
0.122865 -0.0663155 0.878302
0.124297 -0.0656205 0.878687
0.12569 -0.0649112 0.878817
0.127023 -0.0641828 0.878585
0.128346 -0.0634517 0.878293
0.12968 -0.0627243 0.87807
0.130962 -0.0619822 0.877544
0.13229 -0.0612542 0.877296
0.133708 -0.0605516 0.87757
0.135132 -0.0598496 0.877869
0.136471 -0.0591246 0.877684
0.137828 -0.0584044 0.877602
0.139191 -0.0576856 0.877551
0.140496 -0.0569527 0.877178
0.141808 -0.0562222 0.876852
0.143249 -0.0555217 0.877225
0.144645 -0.0548105 0.877357
0.146009 -0.0540916 0.877309
0.147362 -0.0533703 0.877201
0.148711 -0.0526483 0.877074
0.149931 -0.0519005 0.876274
0.151196 -0.0511629 0.875715
0.152453 -0.0504251 0.875129
0.153697 -0.0496859 0.874481
0.154979 -0.0489545 0.874029
0.156385 -0.0482456 0.874214
0.157837 -0.0475437 0.874623
0.159316 -0.0468453 0.875158
0.160862 -0.0461562 0.876014
0.162465 -0.0454737 0.877134
0.164044 -0.0447854 0.878122
0.165707 -0.0441062 0.87949
0.167429 -0.0434334 0.88113
0.16924 -0.0427679 0.88316
0.171146 -0.0421108 0.885608
0.17313 -0.0414585 0.888388
0.175126 -0.0408017 0.891181
0.177125 -0.0401397 0.893944
0.179022 -0.0394614 0.896207
0.180762 -0.0387618 0.897723
0.0564224 -0.10331 0.907941
0.0577324 -0.102478 0.906857
0.0589927 -0.101599 0.905238
0.0601472 -0.10062 0.902476
0.0612917 -0.099643 0.899694
0.0624956 -0.0987355 0.897648
0.063733 -0.0978682 0.896026
0.0649836 -0.0970195 0.894591
0.0662371 -0.0961794 0.89323
0.0674943 -0.0953478 0.891945
0.0687067 -0.0944831 0.890246
0.0699388 -0.0936413 0.888791
0.0711117 -0.0927572 0.886798
0.0722675 -0.0918671 0.884695
0.0733877 -0.0909574 0.882312
0.0745194 -0.0900653 0.880102
0.0756086 -0.0891501 0.87756
0.0767383 -0.0882731 0.875453
0.077894 -0.0874219 0.873635
0.0791015 -0.0866124 0.872323
0.0803645 -0.0858446 0.871529
0.0816804 -0.0851139 0.871211
0.083067 -0.084429 0.8715
0.0844779 -0.0837581 0.871985
0.0859687 -0.0831339 0.87312
0.0874689 -0.0825112 0.874301
0.0889754 -0.0818878 0.875502
0.0904232 -0.0812271 0.876203
0.0918627 -0.0805591 0.87682
0.0932358 -0.0798529 0.876901
0.0946369 -0.079161 0.877194
0.0960556 -0.0784771 0.877614
0.0975005 -0.077805 0.87822
0.0989092 -0.0771127 0.87854
0.100302 -0.0764116 0.878735
0.101643 -0.0756854 0.878547
0.102985 -0.0749596 0.878361
0.104327 -0.0742342 0.878182
0.105659 -0.073505 0.877937
0.106962 -0.0727637 0.877494
0.108284 -0.0720311 0.877182
0.109606 -0.0712994 0.87688
0.110933 -0.0705707 0.87662
0.112316 -0.0698641 0.876737
0.113727 -0.0691674 0.877032
0.11514 -0.0684706 0.877335
0.116541 -0.0677685 0.877553
0.117943 -0.0670656 0.877767
0.119343 -0.0663616 0.877968
0.120731 -0.0656528 0.87809
0.122133 -0.0649479 0.878287
0.123565 -0.0642521 0.878672
0.124971 -0.0635469 0.878886
0.126306 -0.0628193 0.878664
0.127642 -0.0620924 0.878452
0.128978 -0.0613656 0.87824
0.130261 -0.0606242 0.877715
0.13159 -0.0598967 0.877471
0.133023 -0.0591974 0.877832
0.134446 -0.0584946 0.87813
0.135798 -0.0577727 0.878013
0.137168 -0.0570555 0.878004
0.138532 -0.0563366 0.877958
0.139838 -0.0556038 0.877584
0.141149 -0.054873 0.877248
0.142573 -0.0541678 0.877528
0.143936 -0.0534488 0.877479
0.145298 -0.0527294 0.877421
0.146654 -0.0520087 0.877327
0.148008 -0.0512877 0.877228
0.14925 -0.050545 0.876538
0.150552 -0.0498149 0.876169
0.151815 -0.0490785 0.875609
0.153061 -0.0483398 0.874961
0.154357 -0.0476111 0.874582
0.155745 -0.0468982 0.874671
0.157197 -0.0461953 0.875082
0.158676 -0.0454954 0.875612
0.160207 -0.0448026 0.876399
0.161791 -0.0441153 0.877426
0.163348 -0.0434215 0.878303
0.164966 -0.0427349 0.879467
0.166626 -0.0420509 0.880813
0.16835 -0.0413727 0.882443
0.170184 -0.0407037 0.884565
0.172136 -0.0400443 0.887211
0.174135 -0.0393852 0.890039
0.176181 -0.0387256 0.893041
0.178145 -0.0380515 0.895627
0.179926 -0.0373545 0.897336
0.0558573 -0.102097 0.910101
0.0571368 -0.101229 0.90861
0.0583889 -0.100339 0.906853
0.0595184 -0.0993327 0.903756
0.0606388 -0.0983315 0.900659
0.0618193 -0.0974013 0.898325
0.0630396 -0.0965178 0.896493
0.0642647 -0.0956463 0.894769
0.0655082 -0.0947981 0.893291
0.0667488 -0.0939531 0.891824
0.0679623 -0.0930911 0.890127
0.0691969 -0.0922529 0.888688
0.0703918 -0.0913884 0.886898
0.0715595 -0.0905093 0.884896
0.0727 -0.089617 0.882687
0.0738328 -0.088727 0.880468
0.0749434 -0.087829 0.878101
0.076077 -0.0869559 0.876009
0.0772378 -0.086109 0.874218
0.0784558 -0.0853069 0.872985
0.0797384 -0.0845516 0.87235
0.081046 -0.0838143 0.871946
0.0824241 -0.0831226 0.872157
0.0838336 -0.0824493 0.872627
0.0853013 -0.081809 0.873569
0.0867801 -0.0811718 0.874577
0.0882618 -0.0805327 0.875582
0.0897051 -0.0798685 0.876252
0.0911196 -0.0791862 0.876674
0.0924796 -0.0784731 0.876656
0.0938804 -0.0777811 0.876953
0.0953107 -0.0771031 0.877468
0.0967462 -0.0764258 0.878009
0.0981544 -0.0757333 0.878331
0.0995446 -0.0750311 0.87851
0.100873 -0.0742996 0.878233
0.102202 -0.0735686 0.877957
0.103554 -0.0728486 0.877859
0.104898 -0.0721252 0.8777
0.106227 -0.0713956 0.877437
0.107576 -0.0706747 0.877316
0.108928 -0.0699552 0.877216
0.110273 -0.0692332 0.877074
0.11166 -0.0685273 0.877215
0.113058 -0.0678248 0.877422
0.114455 -0.0671214 0.87762
0.11584 -0.0664128 0.877731
0.117225 -0.0657039 0.877841
0.118612 -0.0649949 0.877956
0.119999 -0.0642857 0.878073
0.12139 -0.063577 0.878205
0.122808 -0.0628764 0.878507
0.124201 -0.0621671 0.878644
0.125547 -0.0614432 0.878489
0.126884 -0.0607172 0.878286
0.128233 -0.0599946 0.878152
0.129531 -0.059258 0.877717
0.130877 -0.0585353 0.877572
0.132307 -0.0578347 0.877918
0.13373 -0.0571314 0.878217
0.135097 -0.0564131 0.878186
0.136486 -0.0557004 0.878283
0.137851 -0.0549815 0.878242
0.139144 -0.0542458 0.877792
0.140437 -0.0535112 0.877353
0.141825 -0.0527978 0.877439
0.143154 -0.0520716 0.877203
0.144499 -0.0513492 0.877057
0.145871 -0.0506321 0.877054
0.147244 -0.0499151 0.877057
0.148523 -0.0491804 0.876562
0.14986 -0.0484572 0.876377
0.151157 -0.0477271 0.875988
0.152421 -0.046992 0.875431
0.153737 -0.0462665 0.875147
0.155106 -0.0455499 0.875138
0.156556 -0.0448456 0.875537
0.158033 -0.0441444 0.876059
0.159548 -0.0434472 0.876762
0.161113 -0.0427554 0.877698
0.162666 -0.04206 0.87856
0.164245 -0.0413661 0.879538
0.165847 -0.0406733 0.880611
0.167489 -0.0399825 0.881854
0.169252 -0.0393031 0.883655
0.17117 -0.0386375 0.886162
0.173186 -0.037977 0.889085
0.175314 -0.0373222 0.892488
0.177387 -0.0366552 0.895589
0.179232 -0.0359613 0.897599
0.0552956 -0.100886 0.912343
0.0565149 -0.09995 0.910083
0.0577418 -0.0990319 0.907991
0.0588572 -0.0980116 0.904686
0.0599649 -0.0969984 0.901404
0.0611525 -0.0960749 0.899116
0.0623649 -0.095184 0.897172
0.0635725 -0.0942968 0.895237
0.0647978 -0.0934329 0.893547
0.0660129 -0.0925669 0.891801
0.0672099 -0.0916927 0.889922
0.0684457 -0.0908573 0.888489
0.0696504 -0.0900026 0.886787
0.0708199 -0.0891269 0.884789
0.0719804 -0.088252 0.882761
0.0731169 -0.0873667 0.880559
0.0742509 -0.0864876 0.878394
0.0754012 -0.0856276 0.876438
0.0765762 -0.0847913 0.874759
0.0778142 -0.0840029 0.873691
0.0791156 -0.0832593 0.87321
0.0804238 -0.0825214 0.8728
0.0817918 -0.0818218 0.872916
0.0831988 -0.0811452 0.873358
0.0846323 -0.0804824 0.874011
0.0860769 -0.0798237 0.874737
0.0875345 -0.0791696 0.87555
0.0889759 -0.0785038 0.876211
0.0903788 -0.0778149 0.876544
0.091762 -0.0771143 0.876713
0.0931728 -0.076427 0.87709
0.0946041 -0.0757487 0.877616
0.0960374 -0.0750695 0.878143
0.0974333 -0.0743705 0.878374
0.0987979 -0.0736561 0.878363
0.100113 -0.0729187 0.877984
0.101428 -0.0721826 0.877614
0.102783 -0.0714645 0.877539
0.104139 -0.0707467 0.87747
0.105495 -0.0700291 0.877403
0.106874 -0.0693204 0.877491
0.108255 -0.0686122 0.877591
0.109616 -0.0678961 0.877557
0.111003 -0.0671891 0.877689
0.112387 -0.0664808 0.877804
0.113769 -0.0657712 0.877898
0.115139 -0.0650569 0.877909
0.116509 -0.0643426 0.877924
0.117894 -0.0636326 0.878026
0.119279 -0.0629225 0.878131
0.120681 -0.0622171 0.878336
0.122086 -0.0615118 0.878554
0.123479 -0.0608024 0.878695
0.124825 -0.0600785 0.878538
0.126162 -0.0593527 0.878337
0.127498 -0.0586266 0.878123
0.12881 -0.0578945 0.877772
0.130168 -0.057175 0.877698
0.131602 -0.0564748 0.87807
0.133015 -0.0557683 0.878309
0.134396 -0.0550534 0.878361
0.135787 -0.0543408 0.87847
0.137143 -0.0536195 0.878372
0.138437 -0.0528846 0.877931
0.139743 -0.0521532 0.87756
0.141096 -0.0514321 0.877454
0.142419 -0.050705 0.877183
0.143762 -0.0499822 0.877023
0.145134 -0.0492653 0.877025
0.14651 -0.0485488 0.877044
0.14782 -0.0478203 0.876712
0.149172 -0.0470997 0.876606
0.15049 -0.0463735 0.876323
0.151775 -0.0456421 0.87587
0.15311 -0.0449195 0.875681
0.154482 -0.0442027 0.875681
0.15593 -0.043497 0.876066
0.157404 -0.0427942 0.876576
0.1589 -0.0420929 0.877186
0.160446 -0.0413971 0.878033
0.16198 -0.0406974 0.878802
0.163541 -0.0399994 0.879689
0.165106 -0.0393006 0.880592
0.166691 -0.0386015 0.881566
0.168406 -0.037915 0.883151
0.170314 -0.0372449 0.885621
0.172344 -0.0365817 0.888627
0.174499 -0.0359249 0.89217
0.176653 -0.0352611 0.895661
0.178561 -0.0345698 0.89797
0.0545799 -0.0995069 0.912744
0.0558047 -0.0985771 0.910522
0.0570366 -0.0976646 0.908464
0.0581573 -0.0966509 0.905183
0.0592772 -0.0956509 0.902004
0.0604599 -0.0947235 0.899633
0.0616647 -0.0938261 0.897581
0.0628631 -0.0929314 0.895523
0.0640795 -0.0920606 0.893721
0.0652856 -0.0911882 0.891866
0.0664818 -0.0903148 0.889964
0.0677163 -0.0894796 0.888507
0.0689212 -0.0886265 0.886795
0.0700933 -0.0877548 0.884809
0.0712569 -0.086884 0.882796
0.0724147 -0.0860162 0.880783
0.0735716 -0.0851551 0.878816
0.0747458 -0.0843127 0.877063
0.0759434 -0.0834923 0.875572
0.0772033 -0.082718 0.874684
0.0785073 -0.0819747 0.874212
0.0798188 -0.0812376 0.873816
0.0811775 -0.0805304 0.873839
0.0825722 -0.0798445 0.874168
0.0839718 -0.07916 0.87453
0.0854014 -0.0784911 0.87513
0.086846 -0.0778284 0.875837
0.08828 -0.0771574 0.87644
0.089687 -0.07647 0.876808
0.091094 -0.0757811 0.877164
0.0924956 -0.0750881 0.877468
0.0939147 -0.0744025 0.877899
0.0953455 -0.073721 0.878407
0.0967153 -0.0730093 0.87844
0.098053 -0.0722825 0.878228
0.099366 -0.0715451 0.877836
0.100669 -0.0708042 0.877377
0.102024 -0.0700864 0.877303
0.103407 -0.0693804 0.877433
0.104793 -0.068675 0.877579
0.106189 -0.0679727 0.877787
0.107596 -0.067274 0.878069
0.108968 -0.0665612 0.878102
0.110352 -0.0658524 0.878216
0.111735 -0.0651429 0.878317
0.113104 -0.064428 0.878323
0.114461 -0.0637085 0.878244
0.115817 -0.0629892 0.878165
0.117187 -0.062274 0.87817
0.118571 -0.0615631 0.878266
0.119986 -0.0608611 0.878553
0.121377 -0.0601513 0.878684
0.122766 -0.0594403 0.8788
0.12411 -0.058716 0.878633
0.125435 -0.0579869 0.878353
0.126773 -0.0572614 0.878152
0.128116 -0.0565377 0.877985
0.129491 -0.0558225 0.878011
0.130927 -0.055122 0.878397
0.132352 -0.0544177 0.878706
0.133737 -0.0537032 0.878778
0.135129 -0.0529901 0.87889
0.136472 -0.0522655 0.878716
0.137765 -0.0515307 0.878266
0.139056 -0.050796 0.877803
0.140373 -0.0500676 0.877497
0.14168 -0.0493377 0.877138
0.14302 -0.0486147 0.876964
0.144393 -0.0478979 0.876971
0.145767 -0.047181 0.876982
0.147093 -0.0464558 0.876737
0.148447 -0.0457357 0.876643
0.149784 -0.0450127 0.876454
0.15109 -0.0442851 0.87611
0.152429 -0.0435631 0.875941
0.153819 -0.0428487 0.876034
0.155267 -0.0421419 0.876416
0.156724 -0.0414355 0.876839
0.158217 -0.0407329 0.877438
0.159762 -0.0400353 0.878281
0.161278 -0.0393322 0.878962
0.162836 -0.0386329 0.879847
0.164401 -0.0379322 0.880743
0.165967 -0.0372295 0.881632
0.167643 -0.0365366 0.883038
0.169565 -0.0358645 0.885587
0.171613 -0.0351987 0.888689
0.17379 -0.0345385 0.892347
0.175968 -0.0338716 0.895964
0.177937 -0.0331809 0.898559
0.0538181 -0.0980782 0.912581
0.055056 -0.0971641 0.910504
0.0563046 -0.0962697 0.908624
0.0574392 -0.095272 0.905476
0.0585882 -0.0943015 0.902599
0.059785 -0.0933876 0.900356
0.0609928 -0.0924932 0.89831
0.0621861 -0.0915942 0.896169
0.0633947 -0.0907169 0.894259
0.064584 -0.089831 0.892203
0.0657631 -0.0889448 0.890104
0.0669793 -0.088096 0.888447
0.0681674 -0.0872316 0.886554
0.0693401 -0.0863626 0.884563
0.0705057 -0.0854956 0.882558
0.0716933 -0.0846517 0.880822
0.0728795 -0.0838129 0.879121
0.074093 -0.0829986 0.877721
0.0753225 -0.0821997 0.876506
0.0766156 -0.0814462 0.875903
0.0779244 -0.0807044 0.875455
0.0792298 -0.0799618 0.874988
0.0805696 -0.0792413 0.874831
0.0819349 -0.078536 0.874897
0.0832918 -0.0778255 0.874888
0.0847078 -0.0771478 0.875375
0.0861517 -0.0764835 0.87608
0.0875977 -0.0758178 0.876782
0.0890213 -0.0751381 0.877284
0.0904521 -0.0744602 0.877829
0.0918439 -0.0737611 0.878051
0.0932501 -0.0730679 0.878379
0.0946557 -0.0723733 0.878691
0.0960006 -0.0716496 0.878531
0.0973147 -0.0709124 0.87814
0.0986237 -0.0701737 0.877717
0.0999145 -0.0694283 0.877168
0.10127 -0.0687111 0.877099
0.102678 -0.0680153 0.877413
0.10409 -0.0673202 0.877752
0.105501 -0.0666234 0.878069
0.106921 -0.0659286 0.878437
0.108291 -0.0652144 0.878452
0.109672 -0.0645043 0.878547
0.111042 -0.0637896 0.878559
0.1124 -0.0630703 0.878482
0.113756 -0.0623507 0.878401
0.115112 -0.0616308 0.878315
0.116455 -0.0609073 0.878152
0.117826 -0.0601923 0.878164
0.11924 -0.0594897 0.878447
0.120617 -0.0587757 0.878493
0.121992 -0.0580608 0.878525
0.123345 -0.0573398 0.87842
0.124696 -0.0566181 0.878299
0.126024 -0.0558905 0.87804
0.127399 -0.055175 0.878064
0.128805 -0.0544672 0.878275
0.130242 -0.0537662 0.878667
0.131654 -0.053058 0.8789
0.133048 -0.0523453 0.879026
0.134421 -0.0516275 0.879027
0.135748 -0.0508997 0.878763
0.137039 -0.0501647 0.878294
0.138329 -0.0494306 0.877828
0.139632 -0.0486998 0.877443
0.140924 -0.0479676 0.877002
0.142247 -0.0472419 0.876738
0.143603 -0.0465223 0.876653
0.14496 -0.0458029 0.876577
0.146303 -0.0450811 0.876423
0.147675 -0.0443642 0.876425
0.14903 -0.0436445 0.876339
0.150371 -0.0429226 0.876176
0.151744 -0.0422056 0.876181
0.153154 -0.0414935 0.876376
0.154604 -0.0407862 0.876772
0.156063 -0.0400788 0.8772
0.157554 -0.0393745 0.877785
0.159098 -0.0386755 0.878627
0.160614 -0.037971 0.879312
0.162173 -0.0372701 0.880201
0.163753 -0.036569 0.881173
0.165317 -0.0358652 0.882059
0.166959 -0.0351662 0.883301
0.16892 -0.0344931 0.886039
0.171007 -0.0338263 0.889343
0.173191 -0.0331604 0.893044
0.17537 -0.0324875 0.896673
0.177368 -0.0317948 0.89941
0.0530058 -0.0965963 0.911784
0.054252 -0.0956941 0.909805
0.0555174 -0.0948197 0.908125
0.0566969 -0.093869 0.905487
0.0578755 -0.0929288 0.902928
0.0591081 -0.0920491 0.901071
0.060337 -0.0911736 0.899231
0.0615334 -0.0902772 0.897092
0.0627369 -0.0893954 0.895097
0.0639112 -0.0884971 0.892852
0.0650741 -0.0875984 0.890556
0.0662742 -0.0867376 0.888714
0.0674528 -0.0858672 0.886706
0.068618 -0.0849942 0.884623
0.069793 -0.0841359 0.882696
0.0709918 -0.0833013 0.881056
0.07219 -0.082472 0.879454
0.0734265 -0.081674 0.878258
0.0746779 -0.0808898 0.877232
0.0759854 -0.0801449 0.876748
0.0773062 -0.0794096 0.876396
0.0786213 -0.0786719 0.876
0.0799612 -0.0779498 0.875832
0.0813167 -0.0772372 0.875802
0.0826546 -0.0765145 0.875618
0.0840584 -0.0758284 0.875997
0.0855022 -0.0751624 0.8767
0.0869524 -0.0744972 0.877436
0.088389 -0.0738225 0.87804
0.089831 -0.0731484 0.878671
0.0912329 -0.0724526 0.878966
0.0926158 -0.0717467 0.879101
0.0939873 -0.0710348 0.879144
0.0953075 -0.0702996 0.878789
0.0966086 -0.0695567 0.878295
0.0978845 -0.0688041 0.87762
0.0991749 -0.0680594 0.877066
0.10054 -0.0673463 0.877072
0.101959 -0.0666548 0.877474
0.103385 -0.0659643 0.877909
0.104809 -0.0652717 0.878319
0.106229 -0.0645762 0.878688
0.107597 -0.0638612 0.878693
0.10898 -0.0631511 0.878796
0.110352 -0.0624368 0.878821
0.111725 -0.0617222 0.878845
0.113082 -0.0610025 0.878766
0.114435 -0.0602814 0.878657
0.115764 -0.0595531 0.878394
0.117121 -0.0588337 0.878317
0.118523 -0.0581271 0.878525
0.119901 -0.0574134 0.878584
0.121276 -0.0566981 0.878609
0.122628 -0.0559769 0.878499
0.123993 -0.0552587 0.878463
0.125337 -0.0545353 0.8783
0.12673 -0.0538241 0.878435
0.128141 -0.0531166 0.878674
0.129577 -0.0524143 0.879061
0.13097 -0.0517013 0.879181
0.132331 -0.0509808 0.879111
0.133672 -0.0502561 0.878926
0.134979 -0.0495245 0.878543
0.136254 -0.0487873 0.877987
0.137542 -0.0480537 0.877512
0.138847 -0.0473243 0.877143
0.14014 -0.046593 0.876706
0.141447 -0.045865 0.876352
0.142798 -0.0451452 0.87625
0.144154 -0.0444261 0.876171
0.145515 -0.0437077 0.876115
0.146907 -0.0429941 0.876226
0.148312 -0.0422819 0.876406
0.149686 -0.0415649 0.876418
0.151078 -0.0408502 0.876522
0.152508 -0.04014 0.876817
0.153959 -0.0394318 0.877219
0.155416 -0.0387235 0.87764
0.156908 -0.0380178 0.878228
0.158453 -0.037317 0.879075
0.159973 -0.0366115 0.879783
0.161549 -0.0359106 0.880752
0.163129 -0.0352076 0.881725
0.164711 -0.034503 0.882697
0.16639 -0.033805 0.884118
0.168395 -0.0331312 0.887076
0.170507 -0.0324604 0.890501
0.172693 -0.0317883 0.89422
0.174846 -0.0311069 0.897732
0.1768 -0.0304068 0.900272
0.0522087 -0.0951316 0.911162
0.0534347 -0.0942118 0.908927
0.0547033 -0.0933439 0.907287
0.0559131 -0.0924262 0.905002
0.0571264 -0.0915216 0.902836
0.0584043 -0.090685 0.901486
0.059661 -0.0898348 0.89994
0.0608766 -0.0889554 0.897985
0.0620833 -0.0880761 0.895994
0.0632595 -0.0871797 0.893739
0.0644147 -0.086275 0.891328
0.0656066 -0.0854081 0.889375
0.0667697 -0.0845266 0.887184
0.0679267 -0.0836485 0.884996
0.0691018 -0.0827914 0.88305
0.0703029 -0.0819594 0.881415
0.0715058 -0.0811342 0.879843
0.0727728 -0.0803571 0.878924
0.0740572 -0.0795941 0.878192
0.0753779 -0.0788564 0.877815
0.0767003 -0.0781207 0.877462
0.078023 -0.0773861 0.877119
0.0793531 -0.0766566 0.876848
0.0806893 -0.0759313 0.876636
0.0820183 -0.0752026 0.876366
0.083422 -0.0745149 0.876738
0.0848556 -0.0738415 0.877351
0.086296 -0.0731694 0.878003
0.0877329 -0.0724934 0.878609
0.0891854 -0.0718229 0.879324
0.0905864 -0.0711254 0.879606
0.091969 -0.0704182 0.879734
0.0933388 -0.0697047 0.879757
0.0946467 -0.0689633 0.879298
0.0959252 -0.0682106 0.878623
0.0971889 -0.0674533 0.877851
0.0984795 -0.0667089 0.877295
0.0998341 -0.0659914 0.877222
0.101253 -0.0652991 0.877623
0.102678 -0.0646075 0.878053
0.104099 -0.0639131 0.878442
0.105508 -0.0632132 0.878741
0.106879 -0.0624988 0.878759
0.108268 -0.0617906 0.878908
0.109676 -0.0610881 0.879181
0.111068 -0.0603791 0.879332
0.112435 -0.0596621 0.879317
0.11378 -0.058938 0.879149
0.115114 -0.0582109 0.878915
0.116456 -0.0574867 0.878737
0.117857 -0.0567792 0.87894
0.119237 -0.0560652 0.879002
0.120628 -0.0553538 0.87913
0.121983 -0.0546325 0.879029
0.12335 -0.0539144 0.879004
0.124696 -0.0531911 0.878849
0.126092 -0.0524796 0.878995
0.127501 -0.0517707 0.879221
0.128923 -0.051064 0.879518
0.130299 -0.0503467 0.879539
0.131642 -0.049622 0.879359
0.132966 -0.0488938 0.879071
0.13424 -0.0481562 0.878504
0.135514 -0.0474196 0.877939
0.136804 -0.0466869 0.877471
0.138112 -0.0459584 0.877117
0.139405 -0.0452278 0.876679
0.140724 -0.0445024 0.876395
0.142072 -0.0437821 0.876275
0.143444 -0.0430655 0.87628
0.144824 -0.04235 0.876332
0.146237 -0.0416389 0.876552
0.147662 -0.0409289 0.876837
0.149054 -0.0402139 0.876943
0.150466 -0.0395009 0.877147
0.151915 -0.038792 0.87754
0.15337 -0.0380829 0.877956
0.154825 -0.037373 0.878364
0.156332 -0.0366671 0.879024
0.157862 -0.0359629 0.879795
0.159386 -0.0352563 0.880521
0.160966 -0.0345535 0.881514
0.162564 -0.0338502 0.882573
0.164183 -0.0331464 0.883721
0.165907 -0.0324487 0.885355
0.167936 -0.0317711 0.888432
0.170051 -0.031094 0.891873
0.172195 -0.0304129 0.895406
0.174264 -0.0297199 0.898526
0.177272 -0.0290765 0.905985
0.0526269 -0.0927404 0.908149
0.0539085 -0.0918881 0.906668
0.0551584 -0.091012 0.904856
0.0564089 -0.090144 0.903116
0.057709 -0.0893279 0.902007
0.0589913 -0.0885005 0.900732
0.0602277 -0.0876389 0.898982
0.0614465 -0.0867693 0.897092
0.0626333 -0.0858813 0.894915
0.0637904 -0.0849781 0.892489
0.0649583 -0.0840922 0.890249
0.0661051 -0.0831989 0.887859
0.067245 -0.0823093 0.885469
0.0684133 -0.0814483 0.883435
0.0696239 -0.0806238 0.881877
0.0708488 -0.0798142 0.880502
0.0721377 -0.0790511 0.879778
0.0734534 -0.0783074 0.879327
0.0747855 -0.0775752 0.879038
0.0761092 -0.0768386 0.87868
0.0774317 -0.0761023 0.878316
0.0787528 -0.0753659 0.877948
0.0800722 -0.0746298 0.877573
0.0813921 -0.0738948 0.877211
0.0827948 -0.0732047 0.877568
0.0842173 -0.0725237 0.878082
0.0856463 -0.071844 0.878634
0.0870921 -0.0711706 0.87931
0.088545 -0.0704985 0.880026
0.0899484 -0.0698007 0.880324
0.0913444 -0.0690985 0.880551
0.0927161 -0.0683846 0.880581
0.0940126 -0.0676378 0.880023
0.0952883 -0.0668836 0.879315
0.096541 -0.0661217 0.878447
0.0978218 -0.0653731 0.877807
0.0991661 -0.064651 0.877653
0.100573 -0.0639531 0.877964
0.101984 -0.0632551 0.87829
0.103391 -0.062555 0.878581
0.104788 -0.0618503 0.878795
0.10616 -0.0611363 0.878826
0.107592 -0.0604419 0.879272
0.110449 -0.0590471 0.880084
0.111823 -0.0583311 0.880105
0.113162 -0.0576044 0.879892
0.114477 -0.0568713 0.879523
0.115823 -0.0561474 0.879362
0.11721 -0.055435 0.87947
0.11859 -0.0547204 0.879532
0.119983 -0.0540087 0.879672
0.121342 -0.0532879 0.879588
0.122711 -0.0525697 0.879573
0.124056 -0.0518456 0.879405
0.125449 -0.0511328 0.879537
0.126843 -0.0504195 0.879664
0.128248 -0.0497083 0.87986
0.129622 -0.0489901 0.879865
0.130951 -0.0482625 0.879601
0.132276 -0.0475345 0.879316
0.133552 -0.0467977 0.878752
0.134826 -0.0460616 0.878184
0.136101 -0.0453266 0.877627
0.137408 -0.0445982 0.877267
0.138686 -0.0438657 0.876745
0.140006 -0.0431405 0.876462
0.141369 -0.0424227 0.876425
0.142759 -0.0417084 0.876527
0.144174 -0.0409976 0.876768
0.145623 -0.0402906 0.877182
0.147084 -0.0395843 0.877658
0.148497 -0.0388708 0.877866
0.149946 -0.0381612 0.878258
0.151382 -0.037449 0.878576
0.152819 -0.0367363 0.878896
0.154255 -0.0360228 0.879202
0.155759 -0.0353151 0.879847
0.157275 -0.0346075 0.880543
0.158818 -0.0339008 0.881364
0.160402 -0.0331958 0.882366
0.162034 -0.0324932 0.883601
0.163696 -0.0317898 0.884953
0.165446 -0.0310911 0.886718
0.167465 -0.0304066 0.889747
0.169559 -0.0297223 0.893092
0.17163 -0.0290297 0.896278
0.173609 -0.0283267 0.898987
0.176634 -0.0276729 0.906551
0.054416 -0.0896097 0.904857
0.0556979 -0.088772 0.903475
0.0570238 -0.0879792 0.902656
0.0583322 -0.0871742 0.90166
0.0595893 -0.0863297 0.900114
0.0608139 -0.0854644 0.898256
0.0620136 -0.0845862 0.896183
0.0631719 -0.0836837 0.893729
0.0643241 -0.0827856 0.891286
0.0654554 -0.0818811 0.8887
0.0665879 -0.080987 0.886204
0.0677485 -0.0801212 0.884065
0.0689521 -0.0792923 0.882418
0.0701879 -0.0784903 0.881131
0.071488 -0.0777342 0.880503
0.0728159 -0.0769973 0.880156
0.0741603 -0.0762715 0.87997
0.075495 -0.0755403 0.879698
0.0768196 -0.0748038 0.879339
0.0781409 -0.0740666 0.87896
0.0794618 -0.0733298 0.878582
0.0807731 -0.0725891 0.87813
0.0821555 -0.0718866 0.878303
0.0835553 -0.0711922 0.878617
0.0849712 -0.0705047 0.879058
0.0863964 -0.06982 0.879564
0.0878605 -0.069152 0.880375
0.0892889 -0.0684647 0.880873
0.0907224 -0.0677782 0.881399
0.0921095 -0.0670698 0.881542
0.0934416 -0.0663374 0.881249
0.0947297 -0.0655874 0.88062
0.0959823 -0.0648246 0.879731
0.0972527 -0.064071 0.878996
0.0985858 -0.0633432 0.878745
0.0999698 -0.0626347 0.878875
0.101355 -0.0619262 0.87901
0.102753 -0.0612215 0.879234
0.104132 -0.0605093 0.879308
0.11125 -0.0570098 0.881168
0.112569 -0.0562764 0.88081
0.113893 -0.0555452 0.880494
0.115221 -0.0548154 0.880205
0.116596 -0.0540987 0.880227
0.117977 -0.0533831 0.880284
0.119382 -0.0526734 0.880497
0.120729 -0.051949 0.880335
0.122112 -0.0512331 0.880398
0.123444 -0.0505052 0.880142
0.124805 -0.0497844 0.880072
0.126168 -0.0490636 0.880006
0.127556 -0.0483482 0.880095
0.128902 -0.047624 0.879932
0.130233 -0.046897 0.879677
0.13156 -0.0461698 0.879406
0.132839 -0.0454342 0.87886
0.134114 -0.0446988 0.878292
0.135386 -0.0439641 0.877719
0.136691 -0.0432357 0.877343
0.137969 -0.0425037 0.876821
0.139292 -0.0417793 0.876552
0.140675 -0.0410642 0.876623
0.142099 -0.0403543 0.876913
0.143549 -0.0396474 0.877346
0.145036 -0.0389443 0.877963
0.146533 -0.038241 0.878626
0.147965 -0.0375283 0.878926
0.14943 -0.0368188 0.879399
0.150867 -0.0361052 0.879718
0.152307 -0.0353912 0.880043
0.153742 -0.0346758 0.880337
0.155244 -0.0339661 0.880968
0.156741 -0.0332547 0.881562
0.158287 -0.0325458 0.88239
0.159869 -0.0318383 0.883386
0.161523 -0.0311345 0.884726
0.163207 -0.0304301 0.886186
0.165003 -0.0297304 0.888173
0.167008 -0.0290393 0.891136
0.169054 -0.0283457 0.894253
0.171034 -0.0276428 0.897009
0.17294 -0.0269313 0.899374
0.0536537 -0.088189 0.904612
0.0549587 -0.087374 0.903503
0.0563013 -0.0865966 0.902873
0.05763 -0.0858095 0.902102
0.0589068 -0.0849819 0.900762
0.0601533 -0.0841348 0.899124
0.0613739 -0.0832732 0.89725
0.0625437 -0.0823797 0.894885
0.0636887 -0.0814763 0.892328
0.0648197 -0.0805721 0.889701
0.0659369 -0.0796676 0.887012
0.067091 -0.0787981 0.884779
0.0682875 -0.0779648 0.883038
0.0695235 -0.0771632 0.881736
0.0708165 -0.076402 0.881026
0.0721455 -0.0756654 0.880681
0.073492 -0.0749402 0.880508
0.0748289 -0.0742096 0.880248
0.0761648 -0.0734792 0.879985
0.0774986 -0.0727481 0.879707
0.0788309 -0.072017 0.879422
0.080152 -0.0712804 0.879042
0.0815337 -0.0705761 0.8792
0.0829223 -0.0698743 0.87941
0.0843269 -0.0691795 0.879749
0.0857515 -0.068493 0.880246
0.0872187 -0.0678244 0.88108
0.0886725 -0.0671471 0.881783
0.0901326 -0.0664703 0.882517
0.0915486 -0.0657723 0.882879
0.0929088 -0.0650501 0.882792
0.0942131 -0.0643051 0.882268
0.0954588 -0.0635385 0.881302
0.0967177 -0.0627792 0.88046
0.0980372 -0.0620446 0.880089
0.0993753 -0.0613176 0.879864
0.100725 -0.0605951 0.87973
0.102108 -0.0598839 0.879834
0.10347 -0.0591653 0.879785
0.111992 -0.0549507 0.881847
0.113328 -0.0542217 0.881596
0.114662 -0.0534925 0.881335
0.116024 -0.0527713 0.881267
0.117405 -0.0520545 0.881316
0.118812 -0.0513436 0.881531
0.120144 -0.0506147 0.881264
0.121499 -0.0498913 0.881143
0.122801 -0.0491563 0.880691
0.124132 -0.0484284 0.880427
0.125464 -0.0477011 0.880174
0.126836 -0.0469822 0.880169
0.128181 -0.046258 0.879998
0.129527 -0.0455341 0.879835
0.130872 -0.0448101 0.879664
0.132169 -0.0440781 0.879217
0.13346 -0.0433458 0.87874
0.134732 -0.0426112 0.878161
0.136035 -0.0418826 0.877768
0.137329 -0.0411531 0.877328
0.13867 -0.0404313 0.877161
0.140075 -0.0397184 0.877348
0.141534 -0.0390122 0.877832
0.143007 -0.0383064 0.878377
0.144496 -0.0376016 0.879005
0.146013 -0.0368985 0.879769
0.147463 -0.0361864 0.88016
0.14893 -0.0354752 0.880638
0.150369 -0.0347601 0.880956
0.151809 -0.0340444 0.881273
0.153226 -0.0333259 0.881467
0.154712 -0.0326127 0.882012
0.156191 -0.0318981 0.882514
0.157719 -0.0311854 0.883245
0.1593 -0.0304757 0.884234
0.160954 -0.0297693 0.885573
0.162677 -0.029064 0.887224
0.164551 -0.0283649 0.889593
0.166539 -0.0276676 0.892479
0.168541 -0.0269657 0.895386
0.170465 -0.0262553 0.897881
0.173316 -0.025579 0.90474
0.0528716 -0.0867504 0.904116
0.0542191 -0.0859755 0.903522
0.0555712 -0.0852069 0.903002
0.0569117 -0.0844304 0.902362
0.0582138 -0.0836244 0.901299
0.0594807 -0.082794 0.899869
0.0607067 -0.081937 0.898031
0.0618962 -0.0810591 0.895848
0.0630518 -0.0801642 0.893369
0.0641695 -0.0792509 0.890565
0.0652885 -0.0783487 0.88786
0.0664436 -0.0774806 0.885607
0.0676331 -0.0766429 0.88377
0.0688604 -0.0758357 0.882361
0.0701613 -0.0750792 0.881716
0.0714912 -0.0743423 0.881368
0.0728485 -0.0736225 0.881289
0.0741967 -0.0728977 0.881125
0.0755442 -0.0721725 0.880955
0.0768811 -0.0714418 0.880692
0.0782166 -0.0707111 0.880422
0.0795413 -0.0699754 0.88006
0.0809245 -0.06927 0.88022
0.082313 -0.0685665 0.880419
0.0837182 -0.06787 0.880753
0.0851541 -0.0671868 0.881337
0.0866337 -0.0665212 0.882268
0.0880902 -0.0658426 0.882984
0.0895653 -0.0651695 0.883832
0.0910052 -0.0644793 0.884375
0.0923841 -0.0637626 0.884418
0.0937076 -0.0630235 0.884024
0.0949707 -0.0622623 0.883168
0.0962303 -0.0615018 0.882304
0.0975586 -0.0607684 0.881978
0.0989055 -0.0600422 0.881797
0.10023 -0.0593085 0.881451
0.101614 -0.0585955 0.881553
0.102992 -0.0578799 0.881598
0.104461 -0.0571928 0.882297
0.110237 -0.0543971 0.884245
0.111458 -0.0536343 0.883191
0.112805 -0.052907 0.883001
0.114141 -0.0521769 0.882734
0.115506 -0.0514547 0.882672
0.116862 -0.0507302 0.882545
0.11824 -0.0500109 0.882563
0.119532 -0.0492719 0.882025
0.120843 -0.0485384 0.881622
0.122113 -0.0477966 0.880964
0.123428 -0.0470656 0.880602
0.124744 -0.0463352 0.880245
0.126116 -0.0456161 0.880238
0.127461 -0.0448919 0.880065
0.128821 -0.0441706 0.879986
0.130195 -0.0434518 0.879991
0.131511 -0.0427231 0.87965
0.132821 -0.0419939 0.879276
0.134124 -0.0412643 0.878868
0.135444 -0.040538 0.878567
0.136741 -0.0398088 0.878139
0.138115 -0.0390908 0.878149
0.139554 -0.038381 0.878523
0.141034 -0.0376755 0.879114
0.14251 -0.036968 0.87967
0.144001 -0.0362612 0.880298
0.145501 -0.035554 0.880965
0.146935 -0.0348384 0.881266
0.148389 -0.0341242 0.881664
0.149829 -0.0334077 0.881985
0.15127 -0.0326906 0.882303
0.15269 -0.0319707 0.882501
0.154176 -0.0312563 0.883046
0.155658 -0.0305395 0.883549
0.157184 -0.0298254 0.884272
0.158763 -0.0291132 0.885248
0.160435 -0.0284042 0.886671
0.162178 -0.027697 0.888426
0.164056 -0.0269936 0.890815
0.166029 -0.0262898 0.893625
0.167992 -0.0255811 0.896354
0.169855 -0.0248636 0.898555
0.0534788 -0.0845767 0.903534
0.0548297 -0.0838075 0.902996
0.056181 -0.0830406 0.90248
0.0575043 -0.0822527 0.901654
0.0587979 -0.0814441 0.900513
0.0600444 -0.0806033 0.898878
0.0612633 -0.0797479 0.89699
0.0624313 -0.0788621 0.894606
0.0635526 -0.0779518 0.891798
0.064667 -0.0770468 0.889004
0.065825 -0.0761807 0.886747
0.0669988 -0.0753327 0.884718
0.0682179 -0.0745201 0.883203
0.0695101 -0.0737575 0.882456
0.0708311 -0.0730145 0.882009
0.0721804 -0.0722891 0.881845
0.0735385 -0.071569 0.881766
0.0748965 -0.0708488 0.881687
0.0762454 -0.0701239 0.881524
0.0775933 -0.0693985 0.881354
0.0789306 -0.0686682 0.881091
0.0803072 -0.0679578 0.881181
0.0816889 -0.0672493 0.88131
0.0830946 -0.0665514 0.881642
0.084542 -0.0658714 0.882318
0.0860244 -0.0652045 0.883267
0.0874929 -0.0645288 0.884077
0.0889754 -0.0638564 0.884979
0.0904259 -0.0631682 0.885597
0.0918283 -0.0624589 0.885815
0.0931813 -0.0617299 0.885636
0.0944729 -0.0609782 0.884979
0.0957577 -0.0602254 0.884284
0.0971 -0.0594947 0.884042
0.0984506 -0.0587673 0.883865
0.0998311 -0.0580501 0.883914
0.110897 -0.0523074 0.884359
0.112241 -0.051578 0.884134
0.113581 -0.0508481 0.88389
0.114947 -0.0501246 0.883817
0.116302 -0.0493988 0.883674
0.117654 -0.0486725 0.883516
0.118915 -0.0479265 0.882769
0.120208 -0.0471886 0.88224
0.121447 -0.046441 0.881381
0.122734 -0.0457042 0.88083
0.124036 -0.0449716 0.880391
0.125409 -0.0442524 0.880386
0.12674 -0.0435259 0.880131
0.128115 -0.042807 0.880136
0.129506 -0.0420906 0.88024
0.130854 -0.0413672 0.88009
0.132198 -0.0406434 0.879916
0.133538 -0.0399189 0.879713
0.134878 -0.0391949 0.879522
0.136207 -0.0384695 0.879263
0.137601 -0.0377529 0.879381
0.13906 -0.0370438 0.879854
0.140543 -0.0363364 0.880456
0.142017 -0.0356267 0.880992
0.143487 -0.0349153 0.881498
0.144967 -0.0342039 0.882053
0.146386 -0.0334854 0.882263
0.147825 -0.0327683 0.882581
0.149267 -0.0320506 0.882904
0.150707 -0.031332 0.883211
0.152129 -0.0306114 0.883417
0.15362 -0.0298949 0.883974
0.15512 -0.0291784 0.884574
0.156646 -0.0284621 0.885295
0.158228 -0.0277474 0.886277
0.159899 -0.0270356 0.887699
0.161627 -0.0263241 0.889377
0.163506 -0.0256161 0.891774
0.165463 -0.0249073 0.894517
0.167409 -0.0241929 0.89716
0.169233 -0.0234701 0.89918
0.0527366 -0.0831762 0.903519
0.0540862 -0.0824065 0.902964
0.0554425 -0.0816443 0.902504
0.0567788 -0.0808675 0.901825
0.0580906 -0.0800739 0.900882
0.0593652 -0.0792553 0.899547
0.0606129 -0.0784217 0.897954
0.0618105 -0.0775577 0.895861
0.0629536 -0.0766631 0.893245
0.0640715 -0.0757606 0.890444
0.0652237 -0.0748903 0.888085
0.0663748 -0.0740274 0.885787
0.0675769 -0.073204 0.884074
0.0688519 -0.0724303 0.883137
0.0701648 -0.0716818 0.882597
0.0715061 -0.0709511 0.882348
0.0728736 -0.0702356 0.882353
0.0742325 -0.069515 0.882274
0.0755913 -0.0687944 0.882195
0.0769501 -0.0680739 0.882116
0.0782996 -0.0673487 0.881953
0.0796879 -0.0666426 0.882137
0.0810806 -0.0659377 0.882354
0.0824979 -0.0652433 0.882776
0.083949 -0.0645623 0.883474
0.085433 -0.0638935 0.88443
0.0868922 -0.0632112 0.885155
0.0883713 -0.0625349 0.886023
0.0898189 -0.0618432 0.88661
0.091243 -0.0611408 0.886992
0.0926228 -0.0604204 0.887012
0.0939426 -0.0596779 0.886558
0.0952564 -0.0589342 0.886066
0.0966158 -0.0582073 0.885934
0.0979942 -0.0574869 0.885947
0.0994366 -0.0567871 0.886437
0.100894 -0.0560905 0.887026
0.109102 -0.051737 0.886538
0.110301 -0.0509687 0.8853
0.111636 -0.0502363 0.885004
0.112992 -0.0495093 0.884853
0.114358 -0.048785 0.884776
0.115712 -0.048058 0.884618
0.117062 -0.0473301 0.884431
0.118308 -0.0465812 0.883582
0.119587 -0.0458402 0.882951
0.12081 -0.0450898 0.881979
0.122068 -0.0443479 0.881247
0.123344 -0.0436103 0.880631
0.124716 -0.0428909 0.880622
0.126049 -0.0421646 0.880374
0.127454 -0.0414504 0.880565
0.128878 -0.0407386 0.880863
0.130275 -0.0400219 0.880998
0.131657 -0.0393026 0.881034
0.133031 -0.0385821 0.881027
0.134392 -0.0378597 0.880941
0.135743 -0.037136 0.880796
0.13714 -0.036418 0.880918
0.138585 -0.0357051 0.881305
0.140053 -0.0349938 0.881815
0.141493 -0.0342784 0.882157
0.142927 -0.0335616 0.882457
0.14437 -0.0328451 0.882803
0.14577 -0.0321239 0.88291
0.147193 -0.0314043 0.883135
0.14865 -0.0306868 0.88354
0.150108 -0.0299684 0.883937
0.151549 -0.0292483 0.884242
0.153059 -0.0285316 0.884899
0.154581 -0.0278145 0.885604
0.15611 -0.0270959 0.88633
0.157712 -0.0263802 0.887416
0.15937 -0.0256643 0.888767
0.16108 -0.0249485 0.890354
0.162937 -0.0242354 0.892646
0.16487 -0.0235205 0.895274
0.166779 -0.0228005 0.897745
0.169494 -0.0220965 0.90409
0.0533566 -0.0810173 0.903099
0.0547222 -0.080263 0.902749
0.0560709 -0.0794962 0.902207
0.0574056 -0.0787205 0.901517
0.0586927 -0.0779113 0.900304
0.0599541 -0.0770877 0.89884
0.0611648 -0.0762334 0.896861
0.062328 -0.0753533 0.894427
0.0634497 -0.074454 0.891624
0.0646045 -0.0735857 0.889256
0.0657556 -0.0727232 0.886922
0.0669591 -0.0719004 0.885193
0.0682169 -0.0711155 0.88406
0.0695217 -0.0703614 0.883425
0.0708541 -0.0696246 0.883075
0.0722137 -0.0689036 0.882995
0.0735644 -0.0681777 0.882831
0.0749422 -0.0674663 0.882923
0.0763218 -0.0667552 0.883026
0.0777027 -0.0660441 0.883136
0.0791133 -0.0653466 0.883508
0.0805268 -0.0646491 0.883893
0.081945 -0.0639523 0.884307
0.0833973 -0.0632688 0.885002
0.0848545 -0.0625854 0.885719
0.0862928 -0.0618918 0.886256
0.0877497 -0.061204 0.886934
0.0891851 -0.0605057 0.887415
0.090601 -0.0597985 0.887725
0.0919953 -0.0590825 0.887853
0.0933317 -0.0583453 0.887519
0.0946713 -0.0576099 0.887216
0.0960474 -0.0568872 0.887199
0.0974485 -0.0561725 0.887372
0.0989202 -0.0554795 0.888071
0.100426 -0.0547949 0.889007
0.101972 -0.0541196 0.890215
0.106675 -0.0532743 0.888892
0.104789 -0.0526834 0.890571
0.105979 -0.0519051 0.889176
0.107214 -0.051142 0.888132
0.10842 -0.0503737 0.886902
0.109659 -0.0496162 0.885929
0.110999 -0.0488847 0.885663
0.112354 -0.0481571 0.885502
0.113734 -0.0474351 0.885508
0.115102 -0.0467104 0.885435
0.116441 -0.0459797 0.885171
0.117704 -0.0452344 0.884422
0.118971 -0.0444911 0.883702
0.120182 -0.0437389 0.882642
0.121425 -0.0429945 0.881806
0.122697 -0.0422567 0.881162
0.124056 -0.0415343 0.881067
0.125403 -0.0408103 0.880903
0.126827 -0.040098 0.8812
0.12827 -0.0393878 0.881614
0.129703 -0.0386753 0.881957
0.131118 -0.0379594 0.882183
0.132528 -0.0372423 0.882375
0.133907 -0.0365208 0.882381
0.135288 -0.0357995 0.882403
0.136704 -0.0350818 0.882616
0.138154 -0.0343671 0.883021
0.139605 -0.0336517 0.883423
0.141025 -0.0329324 0.883642
0.142425 -0.0322107 0.883745
0.143837 -0.0314897 0.883912
0.145221 -0.030766 0.883923
0.146642 -0.030045 0.884132
0.148084 -0.0293249 0.884448
0.149543 -0.0286051 0.884848
0.150989 -0.0278839 0.885174
0.152502 -0.0271657 0.885845
0.15406 -0.026448 0.886729
0.15563 -0.0257294 0.887659
0.157235 -0.0250112 0.888762
0.158897 -0.0242924 0.890123
0.160582 -0.0235723 0.891588
0.162344 -0.0228515 0.893401
0.164177 -0.0221295 0.895542
0.166001 -0.0214041 0.897613
0.0526302 -0.0796308 0.903278
0.0540028 -0.0788821 0.903008
0.0553693 -0.0781293 0.90267
0.0567159 -0.0773623 0.902108
0.0580192 -0.0765652 0.901062
0.059299 -0.0757549 0.899783
0.0605301 -0.0749149 0.898
0.0616981 -0.0740385 0.89558
0.0628312 -0.0731474 0.892859
0.0639964 -0.0722861 0.890565
0.0651412 -0.0714196 0.888126
0.0663383 -0.0705929 0.8863
0.0675956 -0.069807 0.885137
0.0689015 -0.0690524 0.884493
0.0702173 -0.0683052 0.883963
0.0715768 -0.0675827 0.88387
0.0729277 -0.0668559 0.883696
0.0743083 -0.0661444 0.883803
0.0756919 -0.0654338 0.883933
0.0770858 -0.0647276 0.884153
0.0784995 -0.0640294 0.884542
0.079915 -0.0633309 0.884936
0.0813346 -0.0626327 0.885353
0.0827864 -0.0619467 0.886036
0.0842424 -0.0612604 0.886735
0.0856684 -0.0605599 0.887162
0.0871145 -0.0598657 0.887742
0.0885399 -0.059162 0.888136
0.0899482 -0.0584507 0.888378
0.0913448 -0.0577344 0.888519
0.0927042 -0.0570047 0.888359
0.0940701 -0.0562774 0.888252
0.0954587 -0.0555575 0.888322
0.0968573 -0.0548404 0.888464
0.0983082 -0.0541387 0.888999
0.0997704 -0.0534388 0.889603
0.10124 -0.0527392 0.890246
0.102644 -0.05202 0.890398
0.103962 -0.0512769 0.889917
0.10518 -0.0505087 0.888727
0.106451 -0.0497564 0.887936
0.107691 -0.0489982 0.88694
0.108963 -0.0482497 0.88619
0.110316 -0.0475212 0.886012
0.111683 -0.0467961 0.885932
0.113077 -0.0460766 0.88603
0.114461 -0.0453547 0.88606
0.115818 -0.0446271 0.885907
0.117103 -0.0438859 0.885283
0.118388 -0.0431462 0.884676
0.119615 -0.0423971 0.883702
0.120856 -0.0416524 0.882841
0.122114 -0.0409121 0.882099
0.123458 -0.0401865 0.881898
0.124806 -0.0394618 0.881731
0.126233 -0.0387488 0.882049
0.12768 -0.0380378 0.88248
0.129132 -0.0373262 0.882928
0.130563 -0.0366111 0.883246
0.132004 -0.0358962 0.883611
0.1334 -0.0351755 0.883708
0.134816 -0.0344566 0.883918
0.13625 -0.033739 0.884226
0.137699 -0.0330222 0.884616
0.139119 -0.0323017 0.884831
0.140522 -0.0315792 0.884944
0.14189 -0.0308536 0.884864
0.143273 -0.0301289 0.884859
0.144641 -0.0294032 0.88478
0.146062 -0.028681 0.884983
0.147488 -0.0279586 0.88521
0.148951 -0.0272378 0.885626
0.15043 -0.0265169 0.88612
0.15198 -0.0257984 0.886977
0.153593 -0.0250814 0.888147
0.155221 -0.0243625 0.889374
0.156851 -0.0236415 0.890591
0.158494 -0.0229187 0.891853
0.160123 -0.0221932 0.89302
0.161745 -0.0214657 0.894137
0.164176 -0.0207507 0.89925
0.166753 -0.0200291 0.905001
0.0533301 -0.0775381 0.903845
0.0546981 -0.0767853 0.90351
0.0560582 -0.0760274 0.903089
0.0573838 -0.0752457 0.902278
0.0586577 -0.0744302 0.900901
0.0598844 -0.0735869 0.899034
0.061071 -0.0727234 0.896784
0.0622082 -0.0718356 0.894067
0.0633769 -0.0709766 0.891772
0.0645265 -0.0701137 0.889346
0.0657261 -0.0692882 0.887512
0.0669788 -0.068499 0.886277
0.0682849 -0.0677434 0.885613
0.0695919 -0.0669901 0.884977
0.0709516 -0.0662664 0.884872
0.0723035 -0.0655387 0.884693
0.0736861 -0.0648265 0.884807
0.0750726 -0.0641156 0.884953
0.0764715 -0.0634099 0.885207
0.0778784 -0.0627068 0.885526
0.079286 -0.0620028 0.885838
0.0807043 -0.0613023 0.886236
0.0821457 -0.0606101 0.886823
0.0835801 -0.0599131 0.887332
0.0850037 -0.0592103 0.887735
0.0864479 -0.0585139 0.888297
0.0878636 -0.0578054 0.888608
0.0892722 -0.0570933 0.888851
0.0906794 -0.0563799 0.889074
0.09205 -0.0556533 0.888996
0.0934279 -0.0549293 0.888977
0.0948067 -0.0542052 0.888963
0.096193 -0.0534833 0.889005
0.0976271 -0.0527753 0.88941
0.099055 -0.0520643 0.889757
