ply
format ascii 1.0
element vertex 1615
property float x
property float y
property float z
end_header
-0.134072 -0.0700305 0.806874
-0.135457 -0.0699875 0.806102
-0.136892 -0.0699733 0.805697
-0.138357 -0.0699755 0.805503
-0.139936 -0.0700384 0.806096
-0.141499 -0.0700917 0.806566
-0.143079 -0.0701523 0.807126
-0.144641 -0.0702032 0.807558
-0.146201 -0.0702509 0.807958
-0.147701 -0.0702673 0.807952
-0.149162 -0.070265 0.807694
-0.150603 -0.0702521 0.807308
-0.15197 -0.0702036 0.806466
-0.153304 -0.0701398 0.805427
-0.154636 -0.0700757 0.804392
-0.156025 -0.0700407 0.803723
-0.157419 -0.0700096 0.803097
-0.158883 -0.0700111 0.802897
-0.160348 -0.0700125 0.802697
-0.161812 -0.070014 0.802497
-0.163276 -0.0700155 0.802297
-0.16474 -0.070017 0.802097
-0.166204 -0.0700184 0.801897
-0.167639 -0.070007 0.80153
-0.16907 -0.0699936 0.801148
-0.170499 -0.0699802 0.800758
-0.171945 -0.0699749 0.800462
-0.173332 -0.0699441 0.79985
-0.174743 -0.0699239 0.799373
-0.176147 -0.0699008 0.798865
-0.177553 -0.0698799 0.798373
-0.178948 -0.0698543 0.797832
-0.180409 -0.0698558 0.797632
-0.181901 -0.0698702 0.797599
-0.183398 -0.0698856 0.797581
-0.184947 -0.0699218 0.797826
-0.186501 -0.0699601 0.798089
-0.188059 -0.0699979 0.798359
-0.189579 -0.0700221 0.798441
-0.191147 -0.0700631 0.798749
-0.192705 -0.0700994 0.798997
-0.19427 -0.0701387 0.799275
-0.195838 -0.0701779 0.799557
-0.197398 -0.0702144 0.799797
-0.198976 -0.0702557 0.800109
-0.200544 -0.0702937 0.80037
-0.202084 -0.0703208 0.800496
-0.203617 -0.0703446 0.800582
-0.205104 -0.0703518 0.800453
-0.206567 -0.0703513 0.800221
-0.20804 -0.0703535 0.800031
-0.209634 -0.0703978 0.800377
-0.211221 -0.0704388 0.800683
-0.212841 -0.0704907 0.801123
-0.214495 -0.0705543 0.801704
-0.216175 -0.0706247 0.802381
-0.217832 -0.0706871 0.802949
-0.219551 -0.0707691 0.803769
-0.221291 -0.0708564 0.80466
-0.222969 -0.070922 0.805278
-0.22463 -0.0709822 0.805813
-0.226251 -0.0710284 0.806174
-0.227832 -0.0710607 0.806363
-0.229428 -0.0710973 0.80661
-0.231006 -0.0711279 0.806777
-0.232697 -0.0711938 0.807386
-0.234488 -0.07129 0.808384
-0.236453 -0.0714388 0.810048
-0.238481 -0.0716056 0.811935
-0.240567 -0.0717879 0.814014
-0.242561 -0.0719391 0.815711
-0.244552 -0.0720879 0.817372
-0.246457 -0.072209 0.818676
-0.248374 -0.0723321 0.82001
-0.250277 -0.0724505 0.821272
-0.252137 -0.072553 0.822345
-0.25394 -0.0726386 0.8232
-0.255691 -0.0727075 0.823849
-0.257425 -0.0727708 0.824421
-0.259015 -0.0712843 0.824643
-0.259141 -0.0728287 0.824916
-0.262771 -0.0719114 0.832502
-0.260857 -0.0728852 0.825409
-0.121004 -0.0715627 0.809691
-0.122467 -0.071562 0.809454
-0.123931 -0.0715617 0.809227
-0.125402 -0.0715649 0.809053
-0.126859 -0.0715595 0.808771
-0.128305 -0.0715485 0.808409
-0.129723 -0.0715214 0.807843
-0.131136 -0.0714914 0.807246
-0.132492 -0.0714289 0.806246
-0.133867 -0.0713791 0.805401
-0.135251 -0.0713359 0.804636
-0.136685 -0.0713218 0.804235
-0.138161 -0.0713314 0.804133
-0.139742 -0.0713969 0.804753
-0.141319 -0.0714599 0.805322
-0.142921 -0.071535 0.806045
-0.144495 -0.071593 0.806559
-0.146056 -0.0716436 0.806975
-0.14757 -0.0716682 0.807066
-0.149057 -0.0716789 0.806987
-0.1505 -0.0716672 0.806618
-0.15188 -0.0716242 0.805856
-0.153226 -0.071565 0.804897
-0.154571 -0.0715066 0.803943
-0.155961 -0.0714714 0.803281
-0.157368 -0.0714451 0.802736
-0.158833 -0.0714466 0.802536
-0.160297 -0.071448 0.802336
-0.161761 -0.0714495 0.802136
-0.163225 -0.071451 0.801935
-0.164689 -0.0714525 0.801735
-0.166153 -0.0714539 0.801535
-0.167586 -0.0714422 0.80116
-0.169001 -0.0714214 0.800683
-0.17041 -0.0713983 0.800182
-0.171837 -0.0713841 0.799786
-0.173222 -0.0713524 0.79917
-0.174638 -0.0713347 0.798722
-0.176061 -0.0713198 0.798319
-0.177486 -0.0713054 0.797926
-0.178898 -0.071287 0.797471
-0.180358 -0.0712885 0.797272
-0.181866 -0.0713093 0.797318
-0.18338 -0.0713321 0.797386
-0.184931 -0.0713696 0.79764
-0.186486 -0.0714088 0.797903
-0.188041 -0.0714472 0.798163
-0.189545 -0.0714643 0.798159
-0.191114 -0.071506 0.798471
-0.192673 -0.0715445 0.798726
-0.194224 -0.0715787 0.798935
-0.195788 -0.0716174 0.799199
-0.197346 -0.0716529 0.799428
-0.198906 -0.0716897 0.799661
-0.200458 -0.0717221 0.799846
-0.202014 -0.0717556 0.800043
-0.203526 -0.0717721 0.800035
-0.205007 -0.071778 0.799886
-0.206488 -0.071783 0.799733
-0.208 -0.0717989 0.799715
-0.209619 -0.0718537 0.800171
-0.211246 -0.0719105 0.800654
-0.21289 -0.0719716 0.801195
-0.214548 -0.0720372 0.801791
-0.216211 -0.0721032 0.802393
-0.217868 -0.072166 0.802955
-0.219545 -0.0722346 0.803597
-0.221259 -0.0723155 0.804378
-0.222893 -0.0723684 0.804812
-0.224531 -0.0724216 0.805251
-0.226107 -0.0724536 0.805427
-0.22768 -0.0724846 0.805588
-0.229252 -0.072514 0.805738
-0.230807 -0.0725383 0.805815
-0.232475 -0.0725986 0.806342
-0.234245 -0.0726905 0.807258
-0.236255 -0.0728577 0.809104
-0.238339 -0.0730448 0.811211
-0.240479 -0.0732477 0.813503
-0.242547 -0.0734265 0.815488
-0.244603 -0.073598 0.817392
-0.24651 -0.073722 0.818704
-0.248404 -0.0738405 0.819947
-0.250305 -0.0739597 0.821197
-0.25216 -0.0740643 0.822255
-0.253987 -0.0741583 0.823195
-0.255769 -0.0742378 0.823953
-0.257528 -0.0743092 0.824615
-0.259242 -0.0743678 0.825104
-0.260931 -0.0744173 0.825489
-0.264567 -0.0735081 0.833038
-0.262564 -0.0744504 0.825669
-0.120879 -0.0729539 0.808722
-0.122325 -0.0729423 0.808365
-0.123774 -0.0729326 0.808023
-0.12521 -0.0729152 0.807589
-0.126642 -0.0728957 0.807131
-0.128062 -0.0728694 0.806588
-0.129476 -0.0728404 0.806011
-0.130887 -0.0728099 0.805417
-0.132241 -0.0727462 0.804416
-0.133626 -0.0727029 0.803663
-0.135033 -0.0726738 0.803079
-0.13649 -0.0726733 0.802856
-0.13798 -0.0726916 0.802863
-0.139572 -0.0727667 0.80357
-0.141162 -0.0728383 0.804236
-0.142776 -0.072922 0.80505
-0.144351 -0.0729823 0.805581
-0.145925 -0.0730414 0.806089
-0.147452 -0.0730741 0.806271
-0.148952 -0.073092 0.806278
-0.150395 -0.0730803 0.805909
-0.151787 -0.0730422 0.805227
-0.153146 -0.0729891 0.804352
-0.154504 -0.0729363 0.803485
-0.155896 -0.0729014 0.802832
-0.157317 -0.0728815 0.802374
-0.158782 -0.072883 0.802174
-0.160246 -0.0728845 0.801974
-0.16171 -0.072886 0.801774
-0.163174 -0.0728874 0.801574
-0.164638 -0.0728889 0.801374
-0.166103 -0.0728904 0.801174
-0.167521 -0.072871 0.800718
-0.168919 -0.0728425 0.80015
-0.17031 -0.072812 0.79955
-0.171718 -0.0727889 0.799053
-0.173102 -0.0727557 0.798432
-0.174532 -0.072744 0.798065
-0.175975 -0.0727373 0.797772
-0.177418 -0.0727311 0.797476
-0.178847 -0.0727197 0.797111
-0.180307 -0.0727211 0.796911
-0.181817 -0.0727434 0.796966
-0.183334 -0.0727677 0.797049
-0.184888 -0.0728074 0.797318
-0.186443 -0.0728465 0.797581
-0.187995 -0.0728837 0.797825
-0.189496 -0.0729001 0.797807
-0.191047 -0.0729372 0.798035
-0.192589 -0.0729692 0.798207
-0.194121 -0.0729965 0.798323
-0.195665 -0.0730282 0.798495
-0.197221 -0.0730644 0.798719
-0.19878 -0.0731008 0.798947
-0.200348 -0.0731403 0.799209
-0.20192 -0.0731814 0.799486
-0.203449 -0.0732045 0.799554
-0.20495 -0.0732174 0.799493
-0.206449 -0.0732302 0.799425
-0.20798 -0.0732531 0.799492
-0.209601 -0.0733093 0.799957
-0.211248 -0.0733738 0.800523
-0.212914 -0.0734442 0.801158
-0.214594 -0.0735189 0.801847
-0.216243 -0.0735809 0.802383
-0.217917 -0.0736511 0.803019
-0.219555 -0.0737069 0.803489
-0.22123 -0.0737761 0.804105
-0.222823 -0.0738156 0.804368
-0.224435 -0.0738617 0.804699
-0.225967 -0.0738795 0.804698
-0.227536 -0.0739096 0.804843
-0.229063 -0.073925 0.804817
-0.230592 -0.0739414 0.804794
-0.232234 -0.0739947 0.805217
-0.234 -0.0740875 0.806126
-0.236057 -0.0742738 0.808161
-0.238214 -0.0744892 0.810557
-0.240407 -0.0747139 0.813056
-0.242546 -0.0749179 0.815313
-0.244628 -0.0751013 0.817314
-0.246513 -0.0752207 0.818542
-0.248384 -0.0753346 0.819695
-0.250256 -0.0754471 0.820834
-0.252081 -0.0755439 0.821782
-0.253905 -0.0756397 0.82271
-0.255686 -0.0757204 0.823465
-0.257447 -0.0757948 0.824138
-0.259182 -0.0758594 0.8247
-0.260863 -0.0759083 0.82506
-0.262492 -0.0759411 0.825228
-0.266208 -0.0750631 0.833009
-0.264099 -0.0759658 0.825307
-0.120731 -0.0743274 0.807575
-0.122158 -0.0743039 0.80707
-0.123589 -0.0742829 0.806606
-0.124984 -0.0742402 0.805862
-0.126382 -0.0741997 0.805158
-0.127797 -0.0741722 0.804603
-0.129196 -0.0741345 0.80393
-0.130593 -0.0740964 0.803256
-0.131946 -0.074033 0.802268
-0.13334 -0.0739959 0.801602
-0.134757 -0.0739722 0.801106
-0.136236 -0.0739865 0.801062
-0.137762 -0.0740278 0.801334
-0.139391 -0.0741258 0.80231
-0.141005 -0.0742141 0.803151
-0.142654 -0.0743193 0.804209
-0.144255 -0.0743958 0.804916
-0.145844 -0.0744641 0.805525
-0.147383 -0.0745052 0.805794
-0.148895 -0.0745299 0.805875
-0.150323 -0.0745092 0.805417
-0.151716 -0.0744713 0.80474
-0.153075 -0.0744178 0.803866
-0.154437 -0.0743655 0.803021
-0.15583 -0.0743306 0.80238
-0.157267 -0.074318 0.802013
-0.158731 -0.0743194 0.801813
-0.160195 -0.0743209 0.801612
-0.161659 -0.0743224 0.801412
-0.163123 -0.0743239 0.801212
-0.164588 -0.0743253 0.801012
-0.166052 -0.0743268 0.800812
-0.167457 -0.0743006 0.800279
-0.168839 -0.0742644 0.799627
-0.170215 -0.0742262 0.798947
-0.171604 -0.0741943 0.79835
-0.172987 -0.0741606 0.797723
-0.174431 -0.0741546 0.797437
-0.175892 -0.0741556 0.797235
-0.177351 -0.0741564 0.797029
-0.178796 -0.0741514 0.79675
-0.180256 -0.0741529 0.796551
-0.181783 -0.0741833 0.796692
-0.183318 -0.0742162 0.796869
-0.184876 -0.0742576 0.797153
-0.186431 -0.0742977 0.797416
-0.187981 -0.0743351 0.797645
-0.189462 -0.0743439 0.797532
-0.190995 -0.0743732 0.797667
-0.192519 -0.0743979 0.79775
-0.194029 -0.074418 0.797765
-0.195551 -0.0744415 0.797835
-0.197087 -0.074471 0.797963
-0.19863 -0.0745019 0.79812
-0.200198 -0.0745428 0.798388
-0.201788 -0.0745913 0.798748
-0.203338 -0.0746235 0.798916
-0.204862 -0.0746453 0.798964
-0.206404 -0.0746743 0.799085
-0.207955 -0.0747057 0.799247
-0.209576 -0.074763 0.799708
-0.21124 -0.0748341 0.800346
-0.212923 -0.0749119 0.801059
-0.214588 -0.0749827 0.801675
-0.216236 -0.0750457 0.802207
-0.217909 -0.0751168 0.80284
-0.219526 -0.0751671 0.803218
-0.22118 -0.0752302 0.803746
-0.222771 -0.0752696 0.803997
-0.224364 -0.0753091 0.804252
-0.225873 -0.07532 0.804159
-0.22742 -0.075343 0.804216
-0.228924 -0.0753517 0.804095
-0.23045 -0.0753675 0.804063
-0.232109 -0.0754271 0.804559
-0.233916 -0.0755361 0.805626
-0.235993 -0.0757319 0.807744
-0.238195 -0.0759673 0.810317
-0.240417 -0.0762058 0.812926
-0.242583 -0.0764222 0.815285
-0.244647 -0.0766039 0.817217
-0.246531 -0.0767254 0.818438
-0.248352 -0.076826 0.819402
-0.250172 -0.0769244 0.820345
-0.251967 -0.0770132 0.821178
-0.253767 -0.0771032 0.822019
-0.255549 -0.0771863 0.822779
-0.257312 -0.077262 0.823461
-0.259045 -0.0773289 0.82402
-0.260701 -0.0773699 0.824288
-0.262326 -0.0774022 0.824443
-0.263903 -0.0774201 0.824423
-0.267771 -0.0765957 0.832695
-0.265537 -0.0774533 0.824597
-0.119137 -0.0757087 0.806769
-0.120545 -0.0756719 0.806118
-0.121939 -0.0756263 0.805355
-0.123334 -0.0755833 0.804626
-0.12469 -0.0755153 0.803608
-0.126052 -0.0754528 0.802646
-0.127463 -0.0754241 0.802087
-0.12887 -0.0753934 0.801504
-0.130275 -0.0753615 0.800913
-0.131647 -0.0753103 0.800091
-0.133062 -0.0752878 0.799599
-0.13449 -0.0752722 0.799201
-0.135982 -0.0752961 0.799266
-0.137541 -0.0753584 0.799792
-0.139196 -0.0754747 0.800956
-0.140834 -0.075579 0.801972
-0.142522 -0.0757098 0.803301
-0.144161 -0.0758094 0.804267
-0.145764 -0.0758878 0.804974
-0.147317 -0.075936 0.805329
-0.148841 -0.0759686 0.805491
-0.150256 -0.0759407 0.804947
-0.151647 -0.0759018 0.804266
-0.153007 -0.0758462 0.803396
-0.154371 -0.0757943 0.802564
-0.155778 -0.0757665 0.802013
-0.15723 -0.0757609 0.801738
-0.158695 -0.0757631 0.801541
-0.160159 -0.0757638 0.801338
-0.161622 -0.0757657 0.801132
-0.163073 -0.0757594 0.800851
-0.164537 -0.0757608 0.800651
-0.166001 -0.0757623 0.800451
-0.167406 -0.0757356 0.799916
-0.168787 -0.0756987 0.799261
-0.170162 -0.0756584 0.798573
-0.171538 -0.0756207 0.797903
-0.17292 -0.0755854 0.797274
-0.174364 -0.0755797 0.796988
-0.175825 -0.0755811 0.796789
-0.177285 -0.0755826 0.796589
-0.178745 -0.0755841 0.79639
-0.180206 -0.0755855 0.79619
-0.181748 -0.0756226 0.796411
-0.1833 -0.0756637 0.796674
-0.18486 -0.0757072 0.796966
-0.186415 -0.0757473 0.797229
-0.187964 -0.0757844 0.79745
-0.189428 -0.0757859 0.79725
-0.190926 -0.0758024 0.797216
-0.192429 -0.0758192 0.797199
-0.193915 -0.0758294 0.797102
-0.195416 -0.0758455 0.797074
-0.196935 -0.0758687 0.797124
-0.198476 -0.0758996 0.797277
-0.200046 -0.0759427 0.797557
-0.201673 -0.0760065 0.798092
-0.203267 -0.0760568 0.798465
-0.204836 -0.0760973 0.798716
-0.206422 -0.0761431 0.799033
-0.208013 -0.0761896 0.799369
-0.209614 -0.0762401 0.799738
-0.211277 -0.0763126 0.80037
-0.212959 -0.0763913 0.801071
-0.214605 -0.0764557 0.801605
-0.216234 -0.0765133 0.802054
-0.217922 -0.0765906 0.802745
-0.219536 -0.0766408 0.803112
-0.221171 -0.076698 0.803559
-0.222762 -0.0767384 0.80381
-0.224353 -0.0767785 0.804056
-0.225841 -0.0767815 0.803874
-0.227369 -0.0767983 0.80385
-0.228872 -0.076807 0.803729
-0.23042 -0.0768307 0.803784
-0.232124 -0.076907 0.804457
-0.233978 -0.0770335 0.805714
-0.236083 -0.0772422 0.807931
-0.238307 -0.0774893 0.810587
-0.240527 -0.077731 0.813185
-0.24265 -0.0779382 0.81537
-0.244688 -0.0781143 0.8172
-0.246547 -0.07823 0.818326
-0.248317 -0.0783159 0.819095
-0.250087 -0.0783994 0.819851
-0.251854 -0.0784819 0.820579
-0.253603 -0.0785574 0.821234
-0.255386 -0.0786427 0.822003
-0.257151 -0.078721 0.82269
-0.25889 -0.0787906 0.823272
-0.260546 -0.0788335 0.823544
-0.262169 -0.0788655 0.823694
-0.263719 -0.0788752 0.823578
-0.265374 -0.0789163 0.823831
-0.117662 -0.0756995 0.806877
-0.117523 -0.0770728 0.805783
-0.11899 -0.0770772 0.805618
-0.120388 -0.0770328 0.804891
-0.121749 -0.0769651 0.803881
-0.123105 -0.076895 0.802854
-0.124433 -0.076809 0.801637
-0.125768 -0.0767292 0.800491
-0.127166 -0.0766934 0.799854
-0.128581 -0.0766694 0.799356
-0.129997 -0.0766461 0.79887
-0.13138 -0.0766029 0.798153
-0.132807 -0.0765876 0.79776
-0.134245 -0.0765797 0.797455
-0.135747 -0.0766113 0.797608
-0.13733 -0.0766906 0.798313
-0.138999 -0.0768195 0.79959
-0.140653 -0.0769356 0.800726
-0.142378 -0.0770914 0.802317
-0.144044 -0.077209 0.803466
-0.145663 -0.0772986 0.804283
-0.147243 -0.0773638 0.804821
-0.148806 -0.077417 0.805231
-0.150222 -0.0773898 0.804693
-0.151626 -0.0773569 0.80409
-0.152998 -0.0773068 0.803296
-0.154375 -0.0772606 0.80254
-0.155785 -0.0772331 0.802002
-0.157238 -0.0772282 0.80173
-0.158689 -0.0772227 0.801449
-0.160138 -0.0772158 0.801154
-0.161586 -0.0772084 0.800857
-0.163022 -0.0771958 0.800489
-0.164486 -0.0771973 0.800289
-0.16595 -0.0771987 0.800089
-0.167368 -0.077178 0.799628
-0.168765 -0.0771466 0.799056
-0.170155 -0.0771137 0.798455
-0.171548 -0.0770821 0.797875
-0.172946 -0.0770539 0.797327
-0.174377 -0.0770413 0.796969
-0.175822 -0.0770356 0.796683
-0.177266 -0.0770291 0.796395
-0.17871 -0.0770232 0.796108
-0.180155 -0.0770182 0.795829
-0.181697 -0.0770562 0.79605
-0.18325 -0.0770973 0.796314
-0.184809 -0.0771417 0.796605
-0.186364 -0.0771828 0.796868
-0.187913 -0.0772208 0.797088
-0.189377 -0.0772223 0.796888
-0.190858 -0.0772307 0.796769
-0.19234 -0.0772394 0.796654
-0.193806 -0.0772423 0.796464
-0.195288 -0.0772505 0.796344
-0.196787 -0.0772663 0.796307
-0.19831 -0.0772915 0.79638
-0.19986 -0.0773271 0.79657
-0.201488 -0.0773928 0.797112
-0.203119 -0.0774598 0.797658
-0.204734 -0.0775189 0.79812
-0.206381 -0.0775891 0.798717
-0.208032 -0.0776603 0.799317
-0.209652 -0.0777192 0.799768
-0.211312 -0.0777921 0.800386
-0.212994 -0.0778715 0.801082
-0.214623 -0.077931 0.801539
-0.21623 -0.077981 0.801894
-0.217914 -0.0780587 0.802567
-0.219507 -0.0781012 0.802842
-0.221123 -0.0781522 0.803207
-0.222717 -0.0781944 0.80347
-0.224305 -0.0782345 0.803704
-0.225792 -0.078237 0.803517
-0.227317 -0.0782536 0.803484
-0.228843 -0.0782692 0.803451
-0.230479 -0.0783253 0.803861
-0.232262 -0.0784302 0.804843
-0.234199 -0.0785872 0.806425
-0.236334 -0.0788106 0.808756
-0.238557 -0.0790612 0.811397
-0.240702 -0.0792813 0.813694
-0.242771 -0.0794742 0.81567
-0.24474 -0.0796299 0.81723
-0.246571 -0.0797382 0.818243
-0.248291 -0.0798083 0.818821
-0.250008 -0.0798771 0.819378
-0.251748 -0.0799521 0.820009
-0.253471 -0.0800206 0.820568
-0.255255 -0.0801073 0.821338
-0.257044 -0.0801961 0.822116
-0.258809 -0.0802748 0.822794
-0.260467 -0.0803192 0.823075
-0.262092 -0.0803529 0.823231
-0.263616 -0.0803544 0.823023
-0.265268 -0.080396 0.823267
-0.115889 -0.0784153 0.804594
-0.117382 -0.0784403 0.804662
-0.118842 -0.0784412 0.804457
-0.120225 -0.0783867 0.803616
-0.121538 -0.0782853 0.802236
-0.122846 -0.0781826 0.800848
-0.124135 -0.0780696 0.799346
-0.125443 -0.0779724 0.798019
-0.126839 -0.0779363 0.797393
-0.128266 -0.077922 0.797008
-0.129703 -0.0779136 0.796705
-0.131109 -0.0778862 0.796175
-0.132546 -0.0778797 0.795884
-0.133995 -0.0778807 0.795676
-0.135505 -0.0779187 0.795897
-0.137098 -0.0780072 0.796689
-0.13879 -0.0781531 0.798138
-0.140471 -0.078289 0.799473
-0.142235 -0.0784712 0.801333
-0.143939 -0.0786148 0.802747
-0.145598 -0.0787283 0.803829
-0.147209 -0.0788122 0.804565
-0.148802 -0.0788846 0.805173
-0.150234 -0.0788651 0.804731
-0.151651 -0.0788379 0.804205
-0.153023 -0.0787873 0.803405
-0.1544 -0.0787392 0.802646
-0.155811 -0.0787113 0.80211
-0.157264 -0.0787065 0.801835
-0.158716 -0.0786997 0.801551
-0.160149 -0.0786848 0.801156
-0.161581 -0.0786693 0.800761
-0.163 -0.0786463 0.800295
-0.164449 -0.0786406 0.800009
-0.165899 -0.0786352 0.799728
-0.167318 -0.078614 0.799273
-0.168731 -0.0785907 0.79879
-0.170139 -0.0785651 0.798287
-0.171551 -0.0785418 0.797806
-0.172981 -0.0785282 0.797431
-0.174428 -0.0785221 0.797151
-0.175872 -0.0785156 0.796859
-0.177314 -0.0785084 0.796556
-0.178756 -0.0785008 0.796255
-0.180186 -0.0784874 0.795889
-0.181713 -0.0785188 0.79603
-0.183249 -0.0785536 0.796207
-0.184791 -0.0785911 0.79641
-0.18633 -0.0786259 0.796587
-0.187862 -0.0786573 0.796726
-0.189326 -0.0786588 0.796526
-0.19079 -0.0786602 0.796326
-0.192254 -0.0786617 0.796126
-0.193719 -0.0786632 0.795926
-0.195183 -0.0786647 0.795726
-0.196664 -0.078673 0.795607
-0.198184 -0.0786982 0.795668
-0.199728 -0.0787313 0.795833
-0.201352 -0.0787978 0.796363
-0.203001 -0.0788733 0.796992
-0.204656 -0.0789494 0.797635
-0.206328 -0.0790319 0.798345
-0.20802 -0.0791201 0.799126
-0.209643 -0.0791811 0.79959
-0.211304 -0.079255 0.800207
-0.212985 -0.0793357 0.800901
-0.214613 -0.0793955 0.801355
-0.216202 -0.0794395 0.801629
-0.217885 -0.0795183 0.802294
-0.219496 -0.0795687 0.802646
-0.221095 -0.0796149 0.802939
-0.22269 -0.0796574 0.803206
-0.224277 -0.0796979 0.803435
-0.225762 -0.0797001 0.803239
-0.227285 -0.079716 0.803199
-0.228856 -0.0797484 0.803345
-0.230608 -0.0798457 0.804218
-0.232518 -0.0799982 0.805706
-0.234565 -0.0801961 0.807709
-0.236735 -0.0804344 0.810166
-0.238931 -0.0806795 0.812686
-0.240996 -0.0808762 0.814666
-0.242969 -0.0810373 0.816259
-0.244843 -0.0811641 0.81745
-0.246626 -0.0812578 0.818277
-0.248319 -0.0813197 0.81875
-0.249961 -0.0813649 0.819025
-0.251673 -0.0814319 0.819552
-0.253371 -0.081493 0.820014
-0.255129 -0.0815741 0.820694
-0.256917 -0.0816631 0.821469
-0.258705 -0.0817512 0.822232
-0.260365 -0.0817977 0.822522
-0.262015 -0.0818402 0.822769
-0.263587 -0.0818566 0.822733
-0.26524 -0.081899 0.822983
-0.268955 -0.0810655 0.830663
-0.26683 -0.0819208 0.823001
-0.115705 -0.0797486 0.803109
-0.117176 -0.0797592 0.803008
-0.118622 -0.0797499 0.802696
-0.119998 -0.0796922 0.801827
-0.121288 -0.0795728 0.800276
-0.122582 -0.0794609 0.798801
-0.123867 -0.0793438 0.797283
-0.12516 -0.0792375 0.795871
-0.126543 -0.0791932 0.795166
-0.127968 -0.0791795 0.794792
-0.129415 -0.0791803 0.794587
-0.130833 -0.079162 0.794168
-0.132281 -0.0791637 0.793971
-0.133727 -0.0791637 0.793764
-0.135232 -0.0792014 0.793969
-0.136832 -0.0792973 0.794829
-0.138535 -0.0794538 0.796366
-0.140251 -0.0796161 0.79796
-0.142063 -0.0798318 0.800158
-0.143818 -0.0800093 0.801918
-0.14552 -0.0801509 0.803284
-0.147172 -0.0802608 0.804297
-0.148796 -0.0803518 0.805099
-0.150244 -0.0803415 0.804759
-0.151678 -0.080322 0.804332
-0.153051 -0.0802707 0.803537
-0.154429 -0.0802221 0.80278
-0.155854 -0.0802004 0.802322
-0.157309 -0.080195 0.802049
-0.15876 -0.0801883 0.801754
-0.160177 -0.0801641 0.801264
-0.161592 -0.0801385 0.800764
-0.162981 -0.0801 0.800117
-0.164413 -0.0800842 0.799733
-0.165848 -0.0800707 0.799366
-0.167283 -0.0800573 0.799
-0.168714 -0.080043 0.798618
-0.170144 -0.0800277 0.798229
-0.171574 -0.0800124 0.797848
-0.173037 -0.0800141 0.797649
-0.174486 -0.0800087 0.797376
-0.175932 -0.0800023 0.797083
-0.177371 -0.0799924 0.796762
-0.178811 -0.079984 0.796446
-0.180224 -0.0799625 0.795991
-0.181736 -0.0799867 0.796046
-0.183254 -0.0800129 0.796127
-0.184776 -0.0800424 0.79623
-0.186296 -0.0800686 0.796311
-0.187811 -0.0800928 0.796365
-0.189275 -0.0800943 0.796165
-0.190739 -0.0800957 0.795965
-0.192204 -0.0800972 0.795765
-0.193668 -0.0800987 0.795565
-0.195132 -0.0801001 0.795365
-0.196596 -0.0801016 0.795165
-0.198096 -0.0801181 0.795131
-0.1996 -0.0801369 0.795113
-0.201198 -0.0801936 0.795524
-0.202825 -0.0802617 0.796059
-0.204497 -0.0803464 0.796785
-0.206193 -0.0804401 0.797604
-0.207925 -0.0805468 0.798568
-0.20957 -0.0806176 0.799128
-0.211249 -0.0807007 0.799827
-0.21293 -0.0807834 0.800521
-0.214559 -0.0808439 0.800978
-0.216167 -0.0808967 0.801335
-0.217852 -0.080977 0.80201
-0.219485 -0.0810376 0.802452
-0.221086 -0.0810838 0.802749
-0.2227 -0.0811347 0.803094
-0.224268 -0.081169 0.803245
-0.225772 -0.0811774 0.803126
-0.227319 -0.0812024 0.803179
-0.228957 -0.0812604 0.803597
-0.230829 -0.0814026 0.804946
-0.232866 -0.0816028 0.806932
-0.235021 -0.081842 0.809347
-0.237197 -0.0820869 0.811817
-0.239364 -0.0823242 0.814211
-0.241329 -0.0824886 0.81579
-0.243229 -0.0826267 0.81709
-0.245016 -0.0827245 0.81794
-0.246753 -0.0828035 0.818587
-0.248372 -0.0828411 0.818771
-0.249959 -0.0828676 0.81884
-0.25162 -0.0829185 0.819175
-0.253293 -0.0829724 0.819548
-0.255029 -0.0830472 0.820143
-0.256813 -0.0831371 0.820906
-0.258597 -0.0832258 0.821656
-0.260258 -0.0832733 0.821949
-0.261911 -0.083318 0.822209
-0.263512 -0.0833447 0.822277
-0.265166 -0.083388 0.822531
-0.266728 -0.0834016 0.822453
-0.115534 -0.0810873 0.801727
-0.116994 -0.0810895 0.801547
-0.118419 -0.0810676 0.801084
-0.11978 -0.0809981 0.800103
-0.121046 -0.0808609 0.798384
-0.12233 -0.0807409 0.796843
-0.123603 -0.0806163 0.795257
-0.124894 -0.0805077 0.793852
-0.126263 -0.0804554 0.793062
-0.127684 -0.0804404 0.792679
-0.129139 -0.0804482 0.792553
-0.130566 -0.0804371 0.792221
-0.132013 -0.0804408 0.792044
-0.133456 -0.08044 0.791826
-0.134956 -0.0804767 0.792015
-0.136539 -0.0805659 0.79278
-0.138227 -0.0807181 0.794234
-0.139941 -0.0808834 0.795832
-0.141789 -0.081127 0.798292
-0.143583 -0.081332 0.800331
-0.14535 -0.0815173 0.802144
-0.14707 -0.0816707 0.803603
-0.14876 -0.0818028 0.804833
-0.150237 -0.0818075 0.804676
-0.151712 -0.0818124 0.804504
-0.153089 -0.0817609 0.803723
-0.154469 -0.0817117 0.802975
-0.155908 -0.0816971 0.802596
-0.157364 -0.0816922 0.802324
-0.158803 -0.0816788 0.801957
-0.160209 -0.0816466 0.801388
-0.161607 -0.0816106 0.800786
-0.162963 -0.0815544 0.799946
-0.164378 -0.0815298 0.799462
-0.165798 -0.0815071 0.799005
-0.167248 -0.0815012 0.798726
-0.168696 -0.0814952 0.798438
-0.170144 -0.0814879 0.79815
-0.171592 -0.0814822 0.797864
-0.173088 -0.0815002 0.79784
-0.174541 -0.0814955 0.797581
-0.175991 -0.0814908 0.797307
-0.177431 -0.0814809 0.796986
-0.178871 -0.0814708 0.796663
-0.180269 -0.081441 0.796122
-0.181764 -0.0814582 0.796087
-0.183262 -0.0814755 0.796068
-0.184763 -0.0814947 0.796057
-0.186263 -0.0815129 0.796038
-0.18776 -0.0815292 0.796004
-0.189224 -0.0815307 0.795803
-0.190689 -0.0815322 0.795603
-0.192153 -0.0815336 0.795403
-0.193617 -0.0815351 0.795203
-0.195081 -0.0815366 0.795003
-0.196545 -0.0815381 0.794803
-0.198027 -0.0815474 0.794684
-0.19951 -0.0815561 0.794569
-0.201085 -0.0816049 0.79488
-0.20269 -0.0816652 0.795316
-0.204361 -0.0817523 0.79604
-0.206056 -0.081847 0.796854
-0.207809 -0.0819648 0.797916
-0.209472 -0.0820444 0.79856
-0.211172 -0.0821369 0.799353
-0.212854 -0.082222 0.800052
-0.214521 -0.0822992 0.800669
-0.216154 -0.0823621 0.801131
-0.217863 -0.0824533 0.801906
-0.219519 -0.0825236 0.802446
-0.221139 -0.0825784 0.802822
-0.222754 -0.0826309 0.80317
-0.224343 -0.0826721 0.803401
-0.225872 -0.0826909 0.80338
-0.227466 -0.0827331 0.803622
-0.229176 -0.0828179 0.804324
-0.231147 -0.0829995 0.806061
-0.233264 -0.0832315 0.80835
-0.235449 -0.0834856 0.810879
-0.237605 -0.0837261 0.813251
-0.23972 -0.0839489 0.815431
-0.241614 -0.0840888 0.816724
-0.243447 -0.0842055 0.817758
-0.245214 -0.084297 0.818522
-0.246903 -0.0843605 0.818982
-0.248467 -0.0843783 0.81896
-0.250001 -0.0843865 0.818821
-0.25161 -0.0844198 0.818958
-0.253238 -0.0844601 0.819164
-0.254948 -0.084527 0.819667
-0.256705 -0.0846101 0.820331
-0.258483 -0.0846985 0.821057
-0.260145 -0.0847469 0.821358
-0.261803 -0.0847936 0.821637
-0.263458 -0.0848388 0.821898
-0.265115 -0.084884 0.822159
-0.266652 -0.0848897 0.821998
-0.270511 -0.0841225 0.830132
-0.268283 -0.0849253 0.822161
-0.115392 -0.0824446 0.800586
-0.116833 -0.0824338 0.800265
-0.118232 -0.0823931 0.7996
-0.119578 -0.0823121 0.798512
-0.120842 -0.0821724 0.796791
-0.122119 -0.0820461 0.795214
-0.123392 -0.0819215 0.793653
-0.124692 -0.0818179 0.792326
-0.126046 -0.0817556 0.791438
-0.127451 -0.0817303 0.790952
-0.128903 -0.0817381 0.790819
-0.130316 -0.0817196 0.790403
-0.13175 -0.0817147 0.790146
-0.133177 -0.081706 0.78984
-0.134651 -0.0817284 0.789865
-0.136195 -0.0817953 0.790371
-0.137852 -0.0819327 0.791643
-0.139536 -0.082085 0.793062
-0.141392 -0.0823407 0.795605
-0.143237 -0.0825837 0.798007
-0.145085 -0.0828232 0.80037
-0.146886 -0.0830293 0.802377
-0.148668 -0.0832196 0.804208
-0.150211 -0.0832651 0.804474
-0.151729 -0.0832944 0.804572
-0.153136 -0.0832582 0.803972
-0.154545 -0.0832247 0.803394
-0.155986 -0.0832097 0.80302
-0.15743 -0.0831977 0.80267
-0.158859 -0.083177 0.802227
-0.160236 -0.0831282 0.801486
-0.161605 -0.0830758 0.80071
-0.162943 -0.0830078 0.799767
-0.164342 -0.0829746 0.799187
-0.165747 -0.0829435 0.798643
-0.167211 -0.082945 0.798443
-0.168675 -0.0829465 0.798243
-0.170139 -0.082948 0.798043
-0.171603 -0.0829494 0.797843
-0.173131 -0.0829834 0.797986
-0.174588 -0.0829807 0.797742
-0.176041 -0.0829758 0.797483
-0.177484 -0.0829667 0.797168
-0.178925 -0.0829573 0.796844
-0.180307 -0.0829189 0.796223
-0.181786 -0.082928 0.796103
-0.183267 -0.0829376 0.795988
-0.184748 -0.0829469 0.795877
-0.186229 -0.0829568 0.795763
-0.187709 -0.0829656 0.795642
-0.189174 -0.0829671 0.795442
-0.190638 -0.0829686 0.795242
-0.192102 -0.0829701 0.795042
-0.193566 -0.0829715 0.794842
-0.19503 -0.082973 0.794642
-0.196494 -0.0829745 0.794442
-0.197959 -0.082976 0.794241
-0.19944 -0.0829853 0.794122
-0.200998 -0.0830265 0.794349
-0.202582 -0.0830794 0.794695
-0.204252 -0.0831669 0.795413
-0.205943 -0.0832629 0.796217
-0.207696 -0.0833829 0.797279
-0.209378 -0.0834716 0.798008
-0.211099 -0.0835746 0.798892
-0.212783 -0.0836623 0.799601
-0.21449 -0.0837564 0.800392
-0.216146 -0.0838303 0.800954
-0.21788 -0.0839326 0.801833
-0.219562 -0.0840147 0.80248
-0.221202 -0.084078 0.802935
-0.222838 -0.0841391 0.803365
-0.224451 -0.0841899 0.803691
-0.226028 -0.0842271 0.803863
-0.227692 -0.0842959 0.80438
-0.229476 -0.0844105 0.805377
-0.231499 -0.0846138 0.807313
-0.233642 -0.0848595 0.809696
-0.235806 -0.0851087 0.812126
-0.23789 -0.0853263 0.814206
-0.239936 -0.085526 0.816105
-0.241783 -0.0856512 0.817206
-0.24362 -0.0857706 0.81825
-0.245368 -0.0858568 0.81894
-0.247059 -0.0859212 0.8194
-0.248592 -0.0859289 0.819255
-0.250093 -0.0859245 0.818986
-0.25165 -0.0859401 0.818929
-0.25328 -0.0859808 0.81914
-0.254968 -0.0860422 0.81956
-0.256721 -0.0861241 0.820209
-0.258471 -0.0862045 0.820831
-0.260106 -0.0862445 0.821031
-0.261744 -0.0862857 0.821239
-0.263428 -0.0863405 0.821602
-0.265087 -0.0863876 0.821871
-0.266646 -0.0864003 0.821785
-0.268275 -0.0864366 0.821939
-0.272071 -0.0856572 0.829802
-0.26993 -0.0864812 0.822182
-0.115261 -0.0838081 0.799544
-0.116681 -0.0837823 0.799055
-0.11805 -0.0837174 0.798158
-0.119381 -0.0836259 0.796963
-0.120643 -0.0834835 0.795244
-0.121909 -0.0833487 0.793595
-0.123183 -0.0832223 0.79205
-0.12448 -0.0831173 0.790718
-0.125808 -0.0830371 0.789655
-0.127188 -0.0829953 0.789
-0.128625 -0.0829942 0.788778
-0.130013 -0.0829598 0.788199
-0.131431 -0.0829465 0.787847
-0.132842 -0.0829287 0.787447
-0.134288 -0.0829341 0.787297
-0.13579 -0.0829779 0.787542
-0.137425 -0.083106 0.788689
-0.139074 -0.0832407 0.7899
-0.140876 -0.0834695 0.792108
-0.142749 -0.0837383 0.79474
-0.144688 -0.0840423 0.797737
-0.146577 -0.0843085 0.800336
-0.148461 -0.0845665 0.80284
-0.150135 -0.0846917 0.80395
-0.151708 -0.0847544 0.804396
-0.153131 -0.0847281 0.8039
-0.154558 -0.0847035 0.803427
-0.156013 -0.0846959 0.803132
-0.157456 -0.0846826 0.802773
-0.158883 -0.0846595 0.802317
-0.160245 -0.0846009 0.801483
-0.161599 -0.0845387 0.800611
-0.162921 -0.0844612 0.799572
-0.164306 -0.0844186 0.798905
-0.165696 -0.08438 0.798282
-0.167146 -0.0843741 0.798002
-0.168609 -0.0843748 0.797796
-0.170072 -0.0843758 0.797594
-0.171537 -0.0843778 0.797395
-0.17308 -0.0844198 0.797624
-0.174568 -0.0844329 0.797546
-0.176038 -0.0844368 0.797375
-0.177498 -0.0844358 0.797146
-0.178954 -0.0844334 0.796904
-0.180338 -0.0843947 0.796281
-0.181802 -0.0843962 0.796081
-0.183266 -0.0843977 0.795881
-0.18473 -0.0843991 0.795681
-0.186194 -0.0844006 0.79548
-0.187659 -0.0844021 0.79528
-0.189123 -0.0844036 0.79508
-0.190587 -0.084405 0.79488
-0.192051 -0.0844065 0.79468
-0.193515 -0.084408 0.79448
-0.194979 -0.0844095 0.79428
-0.196444 -0.0844109 0.79408
-0.197925 -0.0844193 0.793961
-0.199427 -0.0844373 0.793932
-0.200987 -0.0844813 0.79417
-0.202555 -0.0845271 0.794438
-0.20422 -0.084615 0.795138
-0.205874 -0.0846955 0.795771
-0.207588 -0.0848013 0.796663
-0.209269 -0.0848919 0.797388
-0.210991 -0.084998 0.79828
-0.212677 -0.0850867 0.798996
-0.214407 -0.0851937 0.799891
-0.216102 -0.0852836 0.800618
-0.217862 -0.0853998 0.801609
-0.219584 -0.0854985 0.802424
-0.22125 -0.0855732 0.802983
-0.222927 -0.0856515 0.803584
-0.224586 -0.0857209 0.804093
-0.226232 -0.085785 0.804541
-0.227993 -0.085893 0.805448
-0.22987 -0.086045 0.80681
-0.231921 -0.0862607 0.808844
-0.234041 -0.0865006 0.811123
-0.236152 -0.0867335 0.813332
-0.238166 -0.0869271 0.815124
-0.240142 -0.0871042 0.816744
-0.241991 -0.0872306 0.817846
-0.243835 -0.0873547 0.818907
-0.245591 -0.0874439 0.81962
-0.247285 -0.0875099 0.820082
-0.248796 -0.0875085 0.819844
-0.250246 -0.0874862 0.819384
-0.251779 -0.0874924 0.819229
-0.253383 -0.0875249 0.81934
-0.255026 -0.0875701 0.819591
-0.256754 -0.0876452 0.820144
-0.258475 -0.0877162 0.820661
-0.260081 -0.087747 0.820757
-0.261717 -0.0877877 0.820955
-0.263426 -0.0878526 0.821407
-0.265088 -0.0879019 0.821687
-0.266676 -0.0879248 0.821702
-0.268303 -0.0879604 0.821846
-0.269933 -0.0879969 0.821996
-0.273631 -0.0871925 0.829468
-0.271495 -0.0880095 0.82191
-0.113734 -0.0852155 0.799199
-0.115137 -0.0851749 0.798562
-0.116533 -0.085131 0.797884
-0.117885 -0.0850523 0.796848
-0.1192 -0.0849471 0.795541
-0.12047 -0.0848105 0.793904
-0.121736 -0.0846746 0.79227
-0.123019 -0.0845542 0.790807
-0.124312 -0.0844455 0.789457
-0.125627 -0.0843544 0.788297
-0.126984 -0.0842971 0.787484
-0.128396 -0.0842794 0.787096
-0.129758 -0.084228 0.786346
-0.131148 -0.0841967 0.785807
-0.132542 -0.0841687 0.785305
-0.133949 -0.0841497 0.784904
-0.135399 -0.0841608 0.784808
-0.136975 -0.0842556 0.78558
-0.138574 -0.0843632 0.786483
-0.14029 -0.0845441 0.788151
-0.142107 -0.0847849 0.79044
-0.14415 -0.0851637 0.794166
-0.146164 -0.0855171 0.797619
-0.14817 -0.085857 0.800933
-0.150012 -0.0860893 0.80313
-0.15174 -0.0862478 0.80456
-0.153183 -0.0862321 0.804179
-0.154627 -0.0862173 0.803805
-0.156111 -0.0862264 0.803681
-0.157541 -0.0862031 0.803228
-0.158937 -0.0861618 0.80258
-0.160282 -0.0860908 0.801636
-0.161605 -0.0860104 0.800585
-0.162886 -0.0859076 0.799299
-0.164241 -0.0858474 0.798464
-0.165614 -0.0857987 0.797747
-0.167033 -0.0857761 0.797294
-0.168481 -0.0857688 0.797005
-0.169958 -0.0857774 0.79688
-0.171438 -0.0857884 0.796771
-0.172998 -0.08584 0.797091
-0.174502 -0.0858617 0.797105
-0.176002 -0.0858818 0.797093
-0.177478 -0.0858882 0.796951
-0.178937 -0.085887 0.796717
-0.180321 -0.0858476 0.796095
-0.181783 -0.0858477 0.795886
-0.183231 -0.085841 0.7956
-0.184679 -0.0858346 0.795319
-0.186144 -0.0858361 0.795119
-0.187608 -0.0858376 0.794919
-0.189072 -0.085839 0.794719
-0.190536 -0.0858405 0.794519
-0.192 -0.085842 0.794319
-0.193464 -0.0858435 0.794119
-0.194929 -0.0858449 0.793919
-0.19641 -0.0858543 0.793799
-0.197911 -0.0858722 0.793771
-0.199435 -0.0859003 0.793843
-0.200998 -0.085946 0.794096
-0.202567 -0.0859935 0.794366
-0.204211 -0.0860727 0.794963
-0.205843 -0.0861457 0.795497
-0.207518 -0.0862358 0.796213
-0.209178 -0.0863191 0.796848
-0.210897 -0.0864252 0.797728
-0.212583 -0.0865162 0.798446
-0.214315 -0.0866264 0.799352
-0.21605 -0.0867351 0.800253
-0.217852 -0.0868699 0.801419
-0.219598 -0.0869794 0.802333
-0.221288 -0.0870651 0.802993
-0.223009 -0.0871623 0.80377
-0.224714 -0.0872525 0.80447
-0.226454 -0.0873544 0.805295
-0.22829 -0.0874932 0.8065
-0.230245 -0.087677 0.808161
-0.2323 -0.0878967 0.810202
-0.234394 -0.08813 0.812363
-0.236432 -0.0883377 0.814271
-0.238376 -0.0885065 0.815779
-0.240306 -0.0886682 0.817213
-0.24218 -0.0888065 0.818407
-0.244053 -0.0889424 0.819571
-0.245819 -0.0890374 0.820313
-0.247542 -0.0891147 0.82088
-0.249052 -0.0891121 0.820637
-0.250482 -0.0890809 0.820089
-0.251968 -0.0890691 0.819753
-0.253548 -0.0890935 0.819771
-0.255165 -0.08913 0.81992
-0.256845 -0.0891881 0.820293
-0.258515 -0.0892426 0.820624
-0.260091 -0.0892626 0.82061
-0.261697 -0.0892929 0.820695
-0.26338 -0.089351 0.821056
-0.265045 -0.089401 0.821343
-0.266662 -0.0894343 0.821459
-0.268294 -0.0894723 0.821623
-0.269923 -0.0895085 0.821769
-0.27148 -0.0895206 0.821665
-0.275263 -0.0887527 0.829381
-0.273119 -0.0895598 0.821837
-0.11505 -0.0865718 0.797901
-0.116433 -0.0865156 0.797113
-0.117779 -0.0864311 0.796031
-0.119073 -0.0863086 0.794558
-0.120333 -0.0861625 0.792848
-0.121588 -0.0860159 0.791138
-0.12286 -0.0858864 0.789597
-0.12414 -0.0857666 0.78816
-0.125452 -0.0856733 0.786992
-0.126795 -0.085605 0.786086
-0.128183 -0.0855723 0.785534
-0.12953 -0.0855096 0.784682
-0.130892 -0.085459 0.783959
-0.132259 -0.0854141 0.783285
-0.133627 -0.0853706 0.782633
-0.135025 -0.0853484 0.782193
-0.136543 -0.0854085 0.782593
-0.138071 -0.0854734 0.783046
-0.139688 -0.0855951 0.784078
-0.141424 -0.0857921 0.785879
-0.143416 -0.0861487 0.789312
-0.145398 -0.086492 0.792603
-0.147523 -0.0869181 0.79674
-0.149549 -0.0872735 0.800144
-0.151463 -0.0875518 0.802772
-0.153071 -0.0876385 0.803436
-0.154684 -0.0877255 0.804108
-0.156183 -0.0877429 0.80407
-0.157586 -0.0877036 0.803445
-0.158953 -0.0876425 0.802616
-0.16028 -0.0875604 0.801562
-0.161559 -0.0874524 0.800248
-0.162795 -0.0873219 0.798704
-0.164102 -0.0872349 0.797598
-0.165426 -0.0871585 0.796606
-0.166796 -0.0871082 0.795883
-0.168224 -0.0870913 0.7955
-0.169715 -0.0871084 0.795458
-0.171242 -0.0871462 0.79562
-0.172836 -0.0872175 0.796133
-0.174403 -0.0872737 0.796486
-0.175967 -0.0873271 0.796816
-0.177479 -0.0873526 0.796861
-0.178958 -0.0873605 0.796728
-0.180357 -0.0873281 0.796183
-0.181801 -0.087319 0.795876
-0.183214 -0.0872949 0.79541
-0.184644 -0.0872789 0.795038
-0.186093 -0.0872725 0.794758
-0.187557 -0.087274 0.794558
-0.189021 -0.0872755 0.794357
-0.190485 -0.087277 0.794157
-0.191949 -0.0872784 0.793957
-0.19343 -0.0872878 0.793838
-0.194896 -0.0872898 0.793644
-0.196396 -0.0873079 0.793612
-0.197918 -0.0873357 0.79368
-0.199463 -0.0873738 0.793849
-0.201014 -0.0874143 0.794038
-0.202597 -0.0874677 0.79437
-0.204219 -0.087539 0.794871
-0.20583 -0.0876041 0.795309
-0.207466 -0.0876781 0.795847
-0.209102 -0.0877521 0.796376
-0.210777 -0.087842 0.797063
-0.212443 -0.0879261 0.797697
-0.214172 -0.0880362 0.798592
-0.215912 -0.0881488 0.799515
-0.217732 -0.0882941 0.800764
-0.219522 -0.0884249 0.801863
-0.221254 -0.0885294 0.8027
-0.223002 -0.0886395 0.803588
-0.224792 -0.0887649 0.804635
-0.226603 -0.0888972 0.80575
-0.228495 -0.0890602 0.807174
-0.230502 -0.0892679 0.809043
-0.232562 -0.0894931 0.811089
-0.234632 -0.0897194 0.81315
-0.236644 -0.0899203 0.814947
-0.238565 -0.0900818 0.816354
-0.240479 -0.0902392 0.817717
-0.242402 -0.0903988 0.819092
-0.24428 -0.0905385 0.820274
-0.246073 -0.0906438 0.821109
-0.247821 -0.0907309 0.821763
-0.249361 -0.0907393 0.821619
-0.250772 -0.0906993 0.820995
-0.252256 -0.0906863 0.820648
-0.253785 -0.090691 0.820467
-0.255349 -0.0907081 0.820414
-0.256978 -0.090748 0.820594
-0.258621 -0.0907933 0.820822
-0.260148 -0.0907963 0.820627
-0.261749 -0.0908253 0.820697
-0.26343 -0.0908829 0.821047
-0.265098 -0.0909349 0.821346
-0.266719 -0.0909691 0.821469
-0.268355 -0.0910086 0.821642
-0.269957 -0.0910369 0.821696
-0.271487 -0.0910392 0.821494
-0.27307 -0.0910589 0.821474
-0.274735 -0.0895904 0.821931
-0.274655 -0.0910804 0.821459
-0.278482 -0.0903299 0.82923
-0.276212 -0.0910913 0.821351
-0.114992 -0.0879908 0.797475
-0.116356 -0.0879182 0.796533
-0.117672 -0.0878082 0.795206
-0.118956 -0.0876755 0.793662
-0.120216 -0.0875275 0.791954
-0.121461 -0.087372 0.790173
-0.122732 -0.0872397 0.788637
-0.124001 -0.0871101 0.787116
-0.1253 -0.0870068 0.785866
-0.126631 -0.0869288 0.784875
-0.128006 -0.0868865 0.784231
-0.129338 -0.0868131 0.783286
-0.130674 -0.0867451 0.78239
-0.132015 -0.086682 0.781545
-0.133345 -0.0866123 0.780639
-0.134703 -0.0865641 0.779942
-0.136165 -0.0865884 0.77998
-0.137647 -0.0866262 0.780145
-0.139169 -0.0866887 0.780569
-0.140826 -0.0868408 0.78188
-0.142722 -0.0871454 0.784726
-0.144603 -0.0874328 0.787403
-0.146691 -0.0878483 0.791355
-0.148748 -0.0882343 0.795012
-0.150818 -0.0886204 0.798672
-0.152617 -0.0888312 0.800562
-0.154431 -0.0890462 0.802503
-0.156069 -0.0891491 0.803322
-0.157587 -0.0891785 0.803397
-0.158924 -0.0890992 0.802388
-0.160207 -0.0889893 0.801074
-0.161425 -0.0888435 0.7994
-0.162598 -0.0886746 0.797497
-0.163837 -0.0885477 0.79601
-0.165107 -0.0884407 0.794722
-0.166439 -0.08837 0.793804
-0.167864 -0.0883518 0.793412
-0.169398 -0.0883957 0.793633
-0.17099 -0.0884696 0.794157
-0.172667 -0.0885889 0.795131
-0.174333 -0.0886994 0.796021
-0.175982 -0.0887998 0.796805
-0.177533 -0.0888457 0.797052
-0.179033 -0.0888649 0.797024
-0.180417 -0.0888224 0.796394
-0.181824 -0.0887937 0.795891
-0.1832 -0.08875 0.795233
-0.184611 -0.0887235 0.794762
-0.186042 -0.088709 0.794396
-0.187506 -0.0887105 0.794196
-0.18897 -0.0887119 0.793996
-0.190451 -0.0887213 0.793876
-0.191933 -0.0887309 0.793762
-0.193434 -0.0887507 0.793737
-0.194919 -0.0887618 0.793632
-0.196439 -0.0887886 0.793692
-0.197981 -0.0888264 0.793848
-0.199548 -0.0888745 0.794114
-0.201098 -0.0889148 0.794298
-0.202682 -0.0889698 0.794628
-0.204284 -0.0890317 0.795031
-0.205857 -0.0890801 0.795293
-0.207435 -0.0891302 0.795573
-0.209029 -0.0891862 0.795913
-0.21064 -0.0892493 0.796324
-0.212279 -0.0893228 0.796843
-0.213969 -0.0894186 0.797571
-0.215688 -0.0895252 0.798413
-0.217489 -0.0896647 0.799582
-0.219297 -0.0898064 0.800767
-0.221031 -0.0899138 0.801619
-0.222822 -0.0900442 0.802689
-0.224657 -0.0901912 0.803926
-0.226534 -0.0903531 0.805313
-0.228473 -0.0905381 0.806929
-0.230529 -0.0907685 0.808989
-0.23259 -0.0909978 0.811039
-0.234659 -0.0912282 0.813093
-0.236693 -0.0914407 0.814973
-0.238664 -0.0916246 0.816577
-0.240631 -0.0918054 0.818141
-0.242653 -0.0920052 0.819892
-0.244604 -0.0921753 0.821349
-0.246402 -0.0922839 0.822196
-0.24815 -0.0923712 0.822839
-0.249688 -0.0923774 0.822679
-0.251079 -0.0923283 0.821966
-0.252545 -0.0923077 0.821542
-0.25407 -0.09231 0.821337
-0.255579 -0.0923059 0.821072
-0.257176 -0.092334 0.821131
-0.25877 -0.0923613 0.821178
-0.260249 -0.0923468 0.820805
-0.261827 -0.0923668 0.820786
-0.263481 -0.0924153 0.821041
-0.265123 -0.0924584 0.82124
-0.266745 -0.0924945 0.821366
-0.268405 -0.0925438 0.821627
-0.269986 -0.0925635 0.821598
-0.271513 -0.092565 0.82139
-0.273066 -0.0925752 0.821267
-0.274622 -0.092586 0.821151
-0.276152 -0.0925888 0.820951
-0.279892 -0.0918171 0.828375
-0.2776 -0.0925621 0.82047
-0.113536 -0.0894554 0.797722
-0.114913 -0.0893909 0.79687
-0.116251 -0.0892958 0.79571
-0.117576 -0.089193 0.794479
-0.118861 -0.0890584 0.792935
-0.12012 -0.0889081 0.791233
-0.121364 -0.0887497 0.78945
-0.122633 -0.0886146 0.787898
-0.123891 -0.0884743 0.7863
-0.125189 -0.0883688 0.785046
-0.1265 -0.0882749 0.783911
-0.127851 -0.0882143 0.783098
-0.129157 -0.0881221 0.781975
-0.130457 -0.0880276 0.780831
-0.131762 -0.0879381 0.779743
-0.133078 -0.0878594 0.778751
-0.134407 -0.0877921 0.777875
-0.13584 -0.087798 0.777729
-0.137304 -0.0878252 0.77779
-0.138761 -0.0878477 0.777802
-0.140322 -0.0879399 0.778502
-0.142106 -0.0881782 0.780643
-0.143851 -0.0883859 0.782485
-0.145798 -0.0887214 0.785574
-0.147808 -0.0890898 0.789
-0.149875 -0.0894873 0.792702
-0.151845 -0.0898145 0.795715
-0.153856 -0.0901604 0.798912
-0.155712 -0.0904044 0.801093
-0.157383 -0.0905285 0.802108
-0.158833 -0.0905178 0.801786
-0.160053 -0.0903689 0.800099
-0.161203 -0.090181 0.79804
-0.162267 -0.089946 0.795516
-0.163441 -0.0897799 0.793668
-0.164686 -0.0896592 0.792261
-0.165996 -0.0895761 0.791237
-0.167417 -0.0895581 0.790846
-0.168996 -0.08963 0.791335
-0.170669 -0.0897526 0.792324
-0.172433 -0.0899222 0.79378
-0.174203 -0.0900927 0.795236
-0.175953 -0.0902492 0.796559
-0.177561 -0.0903267 0.797103
-0.17908 -0.0903554 0.797174
-0.180461 -0.0903111 0.796525
-0.181848 -0.0902703 0.795914
-0.183185 -0.0902055 0.795058
-0.184578 -0.090169 0.79449
-0.185991 -0.0901445 0.794035
-0.187455 -0.090146 0.793835
-0.188919 -0.0901474 0.793635
-0.190418 -0.0901658 0.7936
-0.19192 -0.0901864 0.793582
-0.193443 -0.0902157 0.79366
-0.194949 -0.090237 0.793652
-0.196489 -0.090275 0.793805
-0.198048 -0.0903206 0.794034
-0.199616 -0.0903697 0.794303
-0.201168 -0.0904112 0.794489
-0.202753 -0.0904662 0.794819
-0.204336 -0.0905207 0.795131
-0.205872 -0.0905521 0.795227
-0.207408 -0.0905838 0.795316
-0.208959 -0.0906213 0.795466
-0.210508 -0.090657 0.795604
-0.21212 -0.0907217 0.796013
-0.213767 -0.0907995 0.796556
-0.215462 -0.0908968 0.797297
-0.217239 -0.0910301 0.798377
-0.219061 -0.0911805 0.799622
-0.220815 -0.0912991 0.800563
-0.222651 -0.0914508 0.801828
-0.224532 -0.0916202 0.803255
-0.226451 -0.0918026 0.804817
-0.228409 -0.0919988 0.806511
-0.230442 -0.0922241 0.808478
-0.232482 -0.0924488 0.810445
-0.234551 -0.0926818 0.812497
-0.236654 -0.0929263 0.814654
-0.238706 -0.0931466 0.816574
-0.240803 -0.0933823 0.818644
-0.242954 -0.0936362 0.820887
-0.24496 -0.093829 0.822542
-0.246758 -0.0939383 0.823376
-0.248502 -0.0940248 0.823996
-0.250018 -0.0940224 0.823745
-0.251365 -0.0939542 0.822859
-0.252806 -0.0939231 0.822333
-0.254281 -0.0939055 0.821936
-0.255738 -0.093881 0.821479
-0.257283 -0.0938889 0.821337
-0.258853 -0.0939079 0.821291
-0.260331 -0.0938913 0.820914
-0.26191 -0.0939136 0.8209
-0.263538 -0.0939525 0.821056
-0.265153 -0.0939865 0.821159
-0.266743 -0.0940111 0.821173
-0.268378 -0.0940504 0.821338
-0.269933 -0.094062 0.821221
-0.27146 -0.0940636 0.821012
-0.272988 -0.0940651 0.820804
-0.274516 -0.0940666 0.820595
-0.276044 -0.0940682 0.820386
-0.27752 -0.0940513 0.82
-0.113562 -0.0909496 0.798021
-0.114874 -0.0908264 0.79661
-0.116172 -0.090695 0.795117
-0.117493 -0.0905874 0.793851
-0.118768 -0.0904422 0.792231
-0.120017 -0.0902819 0.790451
-0.121259 -0.0901187 0.788657
-0.122526 -0.0899803 0.787096
-0.123782 -0.0898371 0.785491
-0.125102 -0.0897479 0.784406
-0.126402 -0.0896445 0.783195
-0.12774 -0.0895734 0.782294
-0.129022 -0.0894616 0.780997
-0.130285 -0.089339 0.779592
-0.131553 -0.0892219 0.778248
-0.132853 -0.0891321 0.777163
-0.134158 -0.0890473 0.776133
-0.135567 -0.089038 0.775838
-0.137026 -0.0890647 0.775886
-0.138479 -0.0890872 0.77589
-0.13998 -0.089141 0.776204
-0.14165 -0.0893084 0.777621
-0.143267 -0.0894365 0.778655
-0.145071 -0.0896863 0.78087
-0.146959 -0.0899848 0.783558
-0.149017 -0.0903884 0.787261
-0.151059 -0.0907734 0.790777
-0.15318 -0.0912002 0.794698
-0.155128 -0.0915095 0.79748
-0.156878 -0.0916892 0.799011
-0.158337 -0.091686 0.798765
-0.159574 -0.0915482 0.797212
-0.160739 -0.0913688 0.795264
-0.161791 -0.0911247 0.792693
-0.162958 -0.0909548 0.790835
-0.164215 -0.0908408 0.789513
-0.165539 -0.090767 0.788591
-0.166974 -0.0907591 0.788303
-0.168597 -0.0908589 0.789056
-0.170334 -0.0910214 0.790409
-0.172168 -0.0912349 0.792257
-0.174009 -0.0914482 0.794108
-0.175847 -0.0916559 0.7959
-0.177518 -0.0917706 0.796786
-0.179055 -0.0918089 0.796945
-0.180449 -0.0917714 0.796365
-0.181833 -0.0917283 0.795736
-0.183152 -0.091652 0.794786
-0.184528 -0.0916069 0.794134
-0.18594 -0.0915809 0.793673
-0.187404 -0.0915824 0.793473
-0.188869 -0.0915839 0.793273
-0.190369 -0.0916037 0.793248
-0.19189 -0.0916334 0.793323
-0.193436 -0.0916748 0.79351
-0.194964 -0.0917072 0.793602
-0.196538 -0.0917621 0.793914
-0.198116 -0.0918176 0.79423
-0.199685 -0.0918664 0.794494
-0.20124 -0.0919096 0.79469
-0.202825 -0.091966 0.795018
-0.204391 -0.0920123 0.795248
-0.205905 -0.0920339 0.795241
-0.207418 -0.0920548 0.795226
-0.208928 -0.0920744 0.795195
-0.210435 -0.0920918 0.795148
-0.211988 -0.0921301 0.795296
-0.213609 -0.0921978 0.795732
-0.215259 -0.0922778 0.796287
-0.217009 -0.0924009 0.797251
-0.218826 -0.0925515 0.798481
-0.220598 -0.0926813 0.799504
-0.222438 -0.0928378 0.800791
-0.224342 -0.0930201 0.802318
-0.22626 -0.0932055 0.803876
-0.228192 -0.0933945 0.805469
-0.230174 -0.0936025 0.807239
-0.232164 -0.0938101 0.80901
-0.234186 -0.0940289 0.810881
-0.236378 -0.094314 0.813394
-0.238555 -0.0945899 0.815812
-0.240835 -0.0949053 0.818599
-0.243146 -0.0952275 0.821461
-0.245296 -0.0954815 0.823661
-0.247096 -0.0955925 0.824497
-0.248835 -0.0956767 0.825085
-0.250324 -0.0956625 0.82472
-0.251671 -0.0955922 0.823825
-0.253094 -0.095552 0.823222
-0.254544 -0.0955234 0.822726
-0.255948 -0.0954776 0.822063
-0.257443 -0.0954673 0.821741
-0.258963 -0.0954664 0.821507
-0.260421 -0.0954419 0.82105
-0.261974 -0.095453 0.820939
-0.263574 -0.0954823 0.820994
-0.265159 -0.0955052 0.820989
-0.26672 -0.0955192 0.820897
-0.268327 -0.0955497 0.820967
-0.269879 -0.0955606 0.820844
-0.271407 -0.0955621 0.820635
-0.272935 -0.0955637 0.820426
-0.274463 -0.0955652 0.820217
-0.275991 -0.0955667 0.820009
-0.277494 -0.095559 0.819715
-0.281205 -0.0947994 0.827
-0.278941 -0.0955323 0.819238
-0.112259 -0.09256 0.799633
-0.113601 -0.0924572 0.798435
-0.114886 -0.0923073 0.796783
-0.116154 -0.0921472 0.795032
-0.117463 -0.0920252 0.793655
-0.118727 -0.0918693 0.79195
-0.119966 -0.0916976 0.790087
-0.121187 -0.0915139 0.788123
-0.122442 -0.0913643 0.786476
-0.123697 -0.0912186 0.784868
-0.125009 -0.0911209 0.783726
-0.1263 -0.0910099 0.782447
-0.127625 -0.0909274 0.781455
-0.128888 -0.0908002 0.780028
-0.130125 -0.0906564 0.778439
-0.131367 -0.090519 0.776922
-0.132664 -0.0904274 0.77583
-0.133968 -0.0903412 0.774802
-0.135366 -0.0903252 0.774443
-0.136825 -0.0903533 0.7745
-0.138278 -0.0903773 0.774519
-0.139778 -0.0904316 0.774838
-0.141315 -0.0905121 0.775392
-0.142783 -0.090543 0.775483
-0.144471 -0.0907215 0.776978
-0.146228 -0.0909419 0.778872
-0.148168 -0.0912794 0.781879
-0.150256 -0.0917061 0.785733
-0.152426 -0.0921764 0.790011
-0.154422 -0.0925254 0.793128
-0.156244 -0.0927586 0.795135
-0.15775 -0.0927887 0.795202
-0.159009 -0.092665 0.793813
-0.160198 -0.0925004 0.792037
-0.161278 -0.0922738 0.789659
-0.162464 -0.0921141 0.787934
-0.163754 -0.0920205 0.786823
-0.16511 -0.0919673 0.786107
-0.166574 -0.0919778 0.786002
-0.168212 -0.0920898 0.78685
-0.170018 -0.0922963 0.788602
-0.171901 -0.092542 0.790727
-0.173808 -0.0927983 0.792942
