ply
format ascii 1.0
element vertex 1705
property float x
property float y
property float z
end_header
0.122731 -0.156978 0.794366
0.122837 -0.15869 0.795771
0.122972 -0.160447 0.797372
0.123063 -0.162153 0.798692
0.123108 -0.163804 0.799721
0.123093 -0.165381 0.800374
0.123119 -0.167014 0.801285
0.123191 -0.168714 0.802491
0.121899 -0.170356 0.804257
0.123501 -0.170741 0.805224
0.141935 -0.0436941 0.843543
0.141685 -0.0451381 0.842784
0.141445 -0.0465831 0.842077
0.141119 -0.0479944 0.840865
0.140736 -0.0493804 0.839316
0.140263 -0.0507264 0.837234
0.139815 -0.0520753 0.835298
0.139325 -0.0534006 0.83311
0.138869 -0.054733 0.831123
0.138447 -0.0560729 0.829328
0.13806 -0.0574223 0.82774
0.137705 -0.0587809 0.826339
0.137353 -0.0601365 0.824958
0.137029 -0.0615003 0.823734
0.13675 -0.0628819 0.822777
0.136492 -0.0642711 0.821946
0.136184 -0.0656319 0.820812
0.135939 -0.067022 0.820056
0.135692 -0.0684081 0.819281
0.135451 -0.0697953 0.818544
0.135189 -0.0711688 0.817683
0.134993 -0.0725761 0.81721
0.134779 -0.073972 0.816632
0.134568 -0.0753679 0.81607
0.134304 -0.0767313 0.815195
0.134079 -0.0781147 0.814546
0.133879 -0.0795114 0.814047
0.133643 -0.0808846 0.813334
0.133383 -0.0822401 0.812473
0.133075 -0.0835624 0.811325
0.13269 -0.0848299 0.809708
0.13227 -0.0860691 0.807881
0.131923 -0.0873512 0.806491
0.131633 -0.0886676 0.80544
0.131435 -0.0900449 0.804945
0.131182 -0.0913819 0.804117
0.130928 -0.0927149 0.803278
0.130651 -0.0940292 0.802304
0.13036 -0.0953294 0.801241
0.130092 -0.0966438 0.800318
0.129932 -0.0980376 0.800049
0.129757 -0.0994186 0.799684
0.129543 -0.100768 0.799082
0.129324 -0.102112 0.798453
0.129066 -0.103422 0.797582
0.128792 -0.104717 0.796615
0.128504 -0.105997 0.795562
0.128192 -0.107252 0.794357
0.127825 -0.108457 0.792819
0.12749 -0.109684 0.791468
0.127171 -0.11092 0.790215
0.126836 -0.112138 0.788863
0.126556 -0.113401 0.787851
0.12634 -0.114718 0.787221
0.126114 -0.116025 0.786536
0.125905 -0.117345 0.785949
0.125709 -0.118675 0.785443
0.125498 -0.11999 0.784847
0.125323 -0.121337 0.784464
0.125165 -0.122701 0.784194
0.125027 -0.124083 0.784041
0.124955 -0.12553 0.784297
0.12491 -0.127007 0.784719
0.124853 -0.128473 0.785071
0.124807 -0.129953 0.785492
0.12476 -0.131434 0.785908
0.124698 -0.1329 0.78623
0.124624 -0.134354 0.786475
0.124534 -0.135794 0.786628
0.124419 -0.137206 0.786621
0.124301 -0.138616 0.786596
0.124171 -0.140013 0.7865
0.124056 -0.141425 0.786489
0.123942 -0.14284 0.786491
0.123878 -0.144313 0.786807
0.123844 -0.145823 0.787309
0.123878 -0.147415 0.788239
0.123944 -0.149048 0.789366
0.124021 -0.150699 0.790565
0.124056 -0.152305 0.791509
0.124083 -0.153905 0.792401
0.124086 -0.155479 0.793145
0.124147 -0.157129 0.794253
0.12423 -0.158809 0.795501
0.124352 -0.160547 0.797
0.124444 -0.16225 0.79831
0.124491 -0.163902 0.799343
0.124483 -0.165486 0.800028
0.124592 -0.167227 0.801453
0.124756 -0.169047 0.803226
0.125136 -0.171167 0.806375
0.143072 -0.0452268 0.842069
0.142817 -0.0466664 0.841286
0.142529 -0.0480914 0.840304
0.142175 -0.0494886 0.838941
0.141745 -0.0508523 0.837131
0.141314 -0.0522092 0.835311
0.140853 -0.0535481 0.833315
0.140409 -0.0548872 0.831413
0.139985 -0.0562287 0.829629
0.139578 -0.0575715 0.827939
0.139218 -0.0589296 0.826522
0.138846 -0.0602775 0.825033
0.13849 -0.0616282 0.823637
0.138192 -0.0630017 0.822577
0.137904 -0.0643766 0.821574
0.137579 -0.0657298 0.820351
0.13732 -0.0671129 0.819518
0.137072 -0.0684992 0.81875
0.136832 -0.0698867 0.818023
0.136598 -0.0712758 0.817334
0.136419 -0.0726927 0.816966
0.136236 -0.0741069 0.816579
0.136038 -0.0755111 0.816099
0.135787 -0.0768829 0.815304
0.13556 -0.0782664 0.814649
0.135358 -0.0796635 0.814146
0.135107 -0.0810288 0.81335
0.134843 -0.082383 0.812473
0.134532 -0.0837047 0.811316
0.134155 -0.0849796 0.809763
0.133734 -0.086221 0.807953
0.133386 -0.0875044 0.806569
0.133081 -0.0888124 0.805439
0.132852 -0.0901694 0.804765
0.132569 -0.091486 0.803763
0.132298 -0.0928084 0.802835
0.132035 -0.0941331 0.80195
0.131771 -0.0954544 0.80106
0.131547 -0.0968022 0.800406
0.131404 -0.0982094 0.800237
0.131243 -0.0996029 0.799963
0.131013 -0.100942 0.799272
0.130779 -0.102276 0.798561
0.13049 -0.103563 0.79751
0.130199 -0.104845 0.796452
0.129882 -0.106102 0.795228
0.12955 -0.107342 0.793916
0.129153 -0.108524 0.792211
0.128803 -0.109739 0.790786
0.128483 -0.110976 0.78954
0.128148 -0.112195 0.788201
0.127869 -0.113459 0.787199
0.127663 -0.114786 0.786643
0.12745 -0.116105 0.786039
0.127243 -0.117427 0.785469
0.127048 -0.118758 0.784974
0.126848 -0.120084 0.784448
0.126645 -0.121405 0.783902
0.126471 -0.122752 0.783531
0.126317 -0.124118 0.78328
0.126242 -0.125562 0.783516
0.126158 -0.126998 0.783697
0.126099 -0.12846 0.784032
0.12604 -0.129923 0.78436
0.125992 -0.131401 0.784768
0.125936 -0.132871 0.785118
0.125904 -0.134369 0.785623
0.125845 -0.13584 0.785958
0.12577 -0.137295 0.786195
0.125679 -0.138734 0.786338
0.125563 -0.140146 0.786324
0.12546 -0.141572 0.786392
0.125359 -0.143002 0.786471
0.125297 -0.144478 0.786799
0.125253 -0.145975 0.787232
0.125275 -0.147551 0.788072
0.125328 -0.149167 0.789106
0.125395 -0.150805 0.790234
0.12542 -0.152397 0.791105
0.125438 -0.153983 0.791927
0.125466 -0.155586 0.792816
0.125515 -0.157218 0.793834
0.125585 -0.158882 0.794994
0.125696 -0.1606 0.796401
0.125802 -0.162318 0.797784
0.125838 -0.163953 0.798736
0.125873 -0.165591 0.799678
0.126094 -0.167475 0.801788
0.126368 -0.169438 0.80423
0.126832 -0.171665 0.807872
0.144174 -0.0467447 0.840413
0.143897 -0.0481732 0.839504
0.143572 -0.0495812 0.838322
0.143198 -0.0509663 0.83685
0.142815 -0.0523432 0.835324
0.142402 -0.0537032 0.833627
0.141971 -0.0550501 0.831823
0.141557 -0.056398 0.830112
0.141132 -0.0577354 0.828334
0.140757 -0.0590888 0.826841
0.140368 -0.0604313 0.82527
0.140009 -0.0617822 0.823868
0.13968 -0.0631427 0.822638
0.139385 -0.0645159 0.821608
0.139055 -0.0658681 0.820367
0.138793 -0.0672506 0.819522
0.138529 -0.0686299 0.818669
0.138286 -0.0700168 0.81793
0.138051 -0.0714059 0.817239
0.137873 -0.0728243 0.816881
0.137694 -0.0742412 0.816519
0.137513 -0.0756562 0.816146
0.137276 -0.0770375 0.81544
0.137047 -0.0784211 0.81478
0.136832 -0.0798114 0.814203
0.136565 -0.0811684 0.813321
0.13627 -0.082505 0.812273
0.135939 -0.0838149 0.811006
0.135557 -0.0850884 0.809442
0.13516 -0.0863466 0.807786
0.134812 -0.0876317 0.806416
0.134504 -0.0889393 0.805282
0.134257 -0.0902844 0.804502
0.133966 -0.0915971 0.803466
0.13368 -0.0929096 0.802457
0.133435 -0.0942477 0.801686
0.1332 -0.0955918 0.80098
0.133019 -0.0969727 0.800589
0.13289 -0.0983911 0.800501
0.132731 -0.0997876 0.800243
0.132484 -0.101115 0.799456
0.132245 -0.102447 0.798721
0.131925 -0.103711 0.797497
0.131592 -0.104962 0.796198
0.131255 -0.106204 0.794871
0.130907 -0.107433 0.793475
0.130492 -0.108601 0.79168
0.130142 -0.109817 0.790264
0.129835 -0.111066 0.789107
0.129513 -0.112298 0.787862
0.129246 -0.113574 0.786941
0.12904 -0.114902 0.786387
0.128838 -0.116231 0.785856
0.128642 -0.117565 0.785361
0.128436 -0.118887 0.7848
0.128235 -0.120212 0.784273
0.128017 -0.12152 0.78364
0.127815 -0.122841 0.783104
0.127633 -0.12418 0.782688
0.127532 -0.125597 0.78276
0.127407 -0.126991 0.782692
0.127318 -0.128422 0.782839
0.127242 -0.129865 0.783061
0.127195 -0.131341 0.783464
0.127168 -0.132839 0.783991
0.12718 -0.134381 0.784752
0.127178 -0.13591 0.785429
0.127133 -0.137396 0.785845
0.12707 -0.138866 0.786158
0.126969 -0.140293 0.786232
0.126879 -0.141736 0.786382
0.126779 -0.143167 0.786469
0.126718 -0.144643 0.786789
0.126671 -0.146137 0.787202
0.126681 -0.147698 0.787961
0.12672 -0.149296 0.788899
0.126777 -0.15092 0.78995
0.126819 -0.15253 0.790909
0.126829 -0.154106 0.791679
0.126872 -0.155726 0.792651
0.126922 -0.157357 0.793667
0.126994 -0.15902 0.794819
0.127093 -0.160721 0.796139
0.1272 -0.162438 0.797509
0.127239 -0.164075 0.798466
0.127302 -0.165746 0.799575
0.1276 -0.167726 0.802136
0.127958 -0.169795 0.805071
0.128413 -0.172005 0.808618
0.127315 -0.173932 0.811639
0.128869 -0.174228 0.812171
0.145543 -0.046828 0.839625
0.145295 -0.0482664 0.838888
0.144995 -0.0496834 0.837854
0.144666 -0.0510865 0.836659
0.144328 -0.0524818 0.835402
0.143984 -0.053871 0.834118
0.143569 -0.0552266 0.832418
0.143167 -0.0565821 0.830793
0.14274 -0.0579214 0.829021
0.14236 -0.0592757 0.827519
0.141957 -0.0606143 0.825878
0.141594 -0.0619662 0.824471
0.141248 -0.0633211 0.823154
0.140936 -0.0646881 0.822034
0.140586 -0.0660326 0.820689
0.140303 -0.0674067 0.819736
0.140021 -0.068778 0.818783
0.139774 -0.0701646 0.818032
0.13955 -0.0715606 0.817408
0.139386 -0.0729876 0.817135
0.139222 -0.0744143 0.816864
0.139045 -0.0758325 0.816512
0.138821 -0.0772232 0.81589
0.138592 -0.0786092 0.815241
0.138362 -0.079992 0.814578
0.138092 -0.081349 0.813686
0.137793 -0.0826854 0.812626
0.137443 -0.0839863 0.811265
0.137059 -0.0852607 0.809703
0.136659 -0.0865195 0.808044
0.136297 -0.0877979 0.806607
0.135971 -0.0890951 0.805376
0.135703 -0.0904282 0.804488
0.135394 -0.0917296 0.803354
0.135107 -0.0930425 0.802345
0.134864 -0.0943841 0.801599
0.134647 -0.0957412 0.800998
0.134494 -0.097144 0.800777
0.134367 -0.098565 0.800703
0.134206 -0.099961 0.800433
0.133942 -0.101277 0.799555
0.133685 -0.102596 0.798716
0.133333 -0.103838 0.79732
0.132983 -0.105076 0.79593
0.132617 -0.106297 0.794445
0.132277 -0.107534 0.79311
0.13186 -0.108702 0.791318
0.13151 -0.10992 0.789919
0.131215 -0.111181 0.788846
0.130905 -0.112425 0.787685
0.130625 -0.113691 0.786694
0.130419 -0.115019 0.786141
0.130215 -0.116347 0.785601
0.130005 -0.117669 0.785029
0.129809 -0.119001 0.784535
0.129621 -0.12034 0.78409
0.129403 -0.121648 0.783462
0.1292 -0.122969 0.782925
0.129002 -0.124293 0.782419
0.128874 -0.125685 0.782331
0.128722 -0.127051 0.782092
0.128604 -0.128452 0.782065
0.128498 -0.129865 0.782106
0.128451 -0.131338 0.782501
0.128426 -0.132836 0.78303
0.128457 -0.134395 0.783899
0.128486 -0.135954 0.784752
0.128471 -0.137472 0.785348
0.128438 -0.138972 0.785835
0.128365 -0.14043 0.786077
0.128292 -0.14189 0.786323
0.128217 -0.143349 0.786557
0.12817 -0.144841 0.786962
0.12811 -0.146321 0.78729
0.128116 -0.147877 0.78802
0.128154 -0.149474 0.788942
0.1282 -0.151083 0.789914
0.128245 -0.152695 0.790882
0.12827 -0.154287 0.791728
0.128317 -0.15591 0.792715
0.128358 -0.15753 0.793663
0.12842 -0.159178 0.794743
0.128506 -0.160862 0.795969
0.128601 -0.162562 0.797256
0.128641 -0.164198 0.798207
0.128814 -0.166006 0.799973
0.129195 -0.168089 0.803011
0.129646 -0.170275 0.806491
0.130098 -0.172477 0.809979
0.130522 -0.174653 0.813298
0.146643 -0.0483419 0.837992
0.146394 -0.0497772 0.837257
0.146126 -0.0512029 0.836411
0.145835 -0.0526174 0.835437
0.145544 -0.0540287 0.83446
0.145157 -0.0553981 0.832941
0.144767 -0.0567611 0.8314
0.14435 -0.0581075 0.829703
0.143969 -0.0594637 0.828208
0.143575 -0.0608092 0.826635
0.143212 -0.0621636 0.825237
0.142862 -0.0635198 0.823915
0.142533 -0.0648811 0.822705
0.142162 -0.0662186 0.821261
0.141849 -0.0675799 0.820143
0.141549 -0.0689437 0.819093
0.141285 -0.070323 0.818251
0.141057 -0.0717186 0.817613
0.140907 -0.0731543 0.817421
0.140758 -0.0745903 0.817237
0.140595 -0.076018 0.816971
0.140384 -0.0774179 0.816428
0.140154 -0.0788052 0.815777
0.139907 -0.0801805 0.815027
0.13962 -0.0815293 0.814045
0.139303 -0.0828568 0.81289
0.138936 -0.0841492 0.811443
0.138549 -0.0854242 0.80988
0.138164 -0.086695 0.808325
0.137802 -0.087976 0.806903
0.13746 -0.0892651 0.805592
0.137172 -0.0905861 0.804594
0.136856 -0.0918844 0.803427
0.136556 -0.0931906 0.802358
0.13633 -0.0945446 0.80171
0.136141 -0.0959235 0.80128
0.136012 -0.0973454 0.801204
0.135873 -0.0987587 0.801058
0.135696 -0.100145 0.800702
0.135403 -0.10144 0.799659
0.135125 -0.102745 0.798709
0.134756 -0.103975 0.797223
0.134416 -0.105224 0.795908
0.134063 -0.106458 0.794515
0.133736 -0.107707 0.793266
0.133304 -0.108866 0.791406
0.132936 -0.110072 0.789914
0.132612 -0.11131 0.788681
0.132287 -0.112542 0.787439
0.131992 -0.113797 0.786371
0.131785 -0.115125 0.785823
0.131579 -0.116452 0.785273
0.131367 -0.117772 0.784692
0.131184 -0.119117 0.784278
0.13101 -0.120469 0.783921
0.130806 -0.121792 0.783385
0.130604 -0.123115 0.782855
0.130405 -0.124439 0.782345
0.13026 -0.125814 0.782159
0.13008 -0.127154 0.781757
0.129935 -0.128529 0.78157
0.129814 -0.129926 0.781521
0.12974 -0.13137 0.781749
0.12969 -0.132841 0.782125
0.129722 -0.134399 0.782989
0.129767 -0.135973 0.78393
0.129769 -0.137506 0.784617
0.129793 -0.139064 0.785432
0.129749 -0.140553 0.785846
0.129704 -0.142044 0.786259
0.129646 -0.143521 0.78659
0.129612 -0.145028 0.787067
0.129542 -0.146495 0.787328
0.129549 -0.148052 0.788056
0.129589 -0.149649 0.788978
0.12962 -0.15124 0.789851
0.129665 -0.152851 0.790808
0.129704 -0.154459 0.79173
0.129782 -0.156117 0.792891
0.129827 -0.157741 0.793855
0.12989 -0.159389 0.794927
0.129976 -0.161072 0.796139
0.130057 -0.162752 0.797325
0.130101 -0.164391 0.798289
0.130365 -0.166312 0.80059
0.130817 -0.16848 0.804025
0.131282 -0.17068 0.807553
0.131722 -0.172861 0.810929
0.13211 -0.174987 0.813999
0.14759 -0.0513214 0.836193
0.14732 -0.0527445 0.835344
0.147059 -0.0541683 0.834542
0.146712 -0.0555552 0.833258
0.146338 -0.0569267 0.831821
0.145933 -0.0582807 0.830211
0.145562 -0.0596436 0.828785
0.14518 -0.0609969 0.827295
0.144828 -0.0623591 0.825975
0.144492 -0.0637242 0.824742
0.144161 -0.0650878 0.823537
0.143787 -0.0664265 0.822085
0.143455 -0.0677811 0.820869
0.143137 -0.0691387 0.819731
0.142857 -0.0705124 0.818808
0.14263 -0.0719106 0.818183
0.142467 -0.0733409 0.817918
0.142317 -0.0747783 0.817732
0.142152 -0.0762065 0.817457
0.14194 -0.0776075 0.816912
0.141693 -0.0789871 0.816172
0.141444 -0.0803629 0.815414
0.141139 -0.081703 0.814338
0.140816 -0.083029 0.813161
0.140448 -0.0843235 0.811725
0.140088 -0.0856178 0.81033
0.139732 -0.0869101 0.808958
0.139384 -0.0882028 0.807627
0.139039 -0.0894925 0.806309
0.138748 -0.0908144 0.805303
0.138414 -0.0921042 0.80405
0.138098 -0.0934018 0.802897
0.137856 -0.0947467 0.802163
0.137664 -0.0961258 0.801724
0.137522 -0.0975386 0.801563
0.137367 -0.0989423 0.801333
0.137176 -0.100319 0.800898
0.136877 -0.101613 0.799831
0.136583 -0.102907 0.798796
0.13621 -0.104137 0.797306
0.135871 -0.105388 0.796004
0.135519 -0.106625 0.794631
0.135193 -0.107877 0.793402
0.134743 -0.109025 0.791455
0.134356 -0.110218 0.789871
0.134011 -0.11144 0.788526
0.13368 -0.112669 0.78726
0.133371 -0.113913 0.786121
0.133162 -0.11524 0.78556
0.132955 -0.116567 0.785013
0.132741 -0.117887 0.784427
0.132559 -0.119233 0.784022
0.132401 -0.1206 0.783759
0.132215 -0.12194 0.783332
0.132027 -0.123277 0.782889
0.131838 -0.124612 0.782443
0.131691 -0.125987 0.782245
0.131497 -0.127314 0.781766
0.131338 -0.128675 0.781496
0.131192 -0.130048 0.7813
0.131089 -0.131464 0.781357
0.130995 -0.13289 0.781471
0.130998 -0.134415 0.78215
0.131028 -0.135971 0.782992
0.131046 -0.137517 0.783761
0.131126 -0.139134 0.784903
0.131142 -0.140686 0.78567
0.131169 -0.142254 0.7865
0.131167 -0.143792 0.787158
0.131162 -0.145331 0.787802
0.131083 -0.14679 0.788007
0.131079 -0.148335 0.788662
0.131093 -0.149903 0.789419
0.131073 -0.151435 0.78998
0.13109 -0.153013 0.790762
0.131103 -0.154589 0.79152
0.13117 -0.156231 0.792597
0.131207 -0.157844 0.793501
0.131283 -0.159507 0.794645
0.131369 -0.161185 0.795841
0.131476 -0.162896 0.797169
0.131604 -0.164636 0.798624
0.131981 -0.166696 0.801576
0.132481 -0.168921 0.805266
0.132977 -0.171156 0.808941
0.13339 -0.173297 0.81212
0.134433 -0.176268 0.819093
0.149084 -0.0514504 0.836133
0.148846 -0.0528866 0.835468
0.148618 -0.0543249 0.834862
0.148314 -0.0557304 0.833826
0.147996 -0.0571277 0.832718
0.147608 -0.0584914 0.831212
0.14725 -0.0598632 0.829875
0.14688 -0.0612255 0.82847
0.146526 -0.0625903 0.827152
0.146177 -0.0639526 0.825855
0.145842 -0.0653177 0.824641
0.14548 -0.0666655 0.823268
0.145129 -0.0680147 0.821962
0.144808 -0.0693739 0.820816
0.144525 -0.0707492 0.819885
0.144298 -0.0721502 0.819265
0.144106 -0.0735681 0.818842
0.143943 -0.0750004 0.818581
0.143759 -0.0764205 0.818201
0.143544 -0.0778224 0.817647
0.143282 -0.079196 0.81683
0.143016 -0.0805644 0.815986
0.142705 -0.0819037 0.814888
0.142365 -0.0832215 0.813621
0.14198 -0.0845082 0.812102
0.14162 -0.0858048 0.810719
0.141292 -0.0871173 0.809518
0.140945 -0.0884133 0.808206
0.140613 -0.0897153 0.806981
0.140333 -0.091047 0.806045
0.14001 -0.0923469 0.804864
0.139677 -0.0936363 0.803628
0.139419 -0.0949728 0.80281
0.139207 -0.0963398 0.802259
0.139034 -0.0977329 0.801929
0.138849 -0.099116 0.801528
0.138642 -0.100482 0.801003
0.138339 -0.101775 0.799928
0.138044 -0.10307 0.798893
0.13767 -0.104302 0.797411
0.137346 -0.105567 0.79621
0.137008 -0.106817 0.794925
0.136694 -0.108082 0.793782
0.136253 -0.10924 0.791902
0.135859 -0.11043 0.790292
0.135506 -0.111649 0.788917
0.135157 -0.112866 0.787558
0.134829 -0.114097 0.786324
0.134607 -0.115414 0.785693
0.134385 -0.11673 0.785067
0.134144 -0.118026 0.784327
0.133961 -0.119372 0.783919
0.133804 -0.120741 0.783665
0.133634 -0.122097 0.783333
0.133462 -0.12345 0.782988
0.133288 -0.1248 0.782632
0.13314 -0.126174 0.782426
0.132956 -0.127514 0.782015
0.132786 -0.128866 0.781683
0.132638 -0.130238 0.781475
0.132518 -0.131638 0.781436
0.132418 -0.133057 0.781507
0.132389 -0.13455 0.781994
0.132415 -0.136101 0.782805
0.132435 -0.137648 0.783577
0.13255 -0.139299 0.78491
0.132603 -0.140889 0.785879
0.132667 -0.142496 0.786921
0.132683 -0.144054 0.787677
0.132696 -0.145613 0.788421
0.132615 -0.147072 0.788613
0.132587 -0.14859 0.789115
0.132587 -0.150142 0.789786
0.13255 -0.151655 0.790239
0.132551 -0.153215 0.790919
0.132549 -0.154773 0.79158
0.132605 -0.156401 0.792581
0.132642 -0.158012 0.793476
0.132708 -0.15966 0.794542
0.132808 -0.161354 0.795812
0.132961 -0.16312 0.797402
0.133196 -0.16499 0.799475
0.133679 -0.167176 0.803021
0.134211 -0.169436 0.806862
0.134683 -0.171635 0.810351
0.135034 -0.173697 0.813138
0.150357 -0.0530224 0.835501
0.150148 -0.054469 0.835004
0.149886 -0.0558929 0.834211
0.14962 -0.0573131 0.8334
0.149264 -0.0586927 0.832084
0.148924 -0.060075 0.830858
0.148567 -0.0614463 0.82954
0.148213 -0.062814 0.828231
0.147861 -0.0641786 0.826934
0.147509 -0.065539 0.825636
0.147128 -0.0668812 0.824174
0.146756 -0.0682229 0.82276
0.146432 -0.0695837 0.821611
0.146147 -0.0709606 0.820678
0.145934 -0.0723714 0.820142
0.145754 -0.0737978 0.819788
0.145601 -0.0752381 0.819587
0.145415 -0.0766596 0.819199
0.1452 -0.0780645 0.818652
0.144921 -0.0794314 0.817747
0.144639 -0.0807936 0.816823
0.144322 -0.0821322 0.8157
0.143978 -0.0834512 0.814427
0.14359 -0.0847389 0.812901
0.14323 -0.086039 0.811534
0.142899 -0.0873531 0.810332
0.142535 -0.0886413 0.808934
0.142201 -0.0899451 0.807711
0.141908 -0.0912708 0.806708
0.141585 -0.0925739 0.805542
0.141248 -0.0938629 0.804289
0.140969 -0.0951885 0.80337
0.140726 -0.0965354 0.802644
0.140533 -0.0979157 0.802202
0.140315 -0.0992771 0.801622
0.140092 -0.100632 0.801006
0.139787 -0.101926 0.799933
0.13948 -0.103214 0.79884
0.139105 -0.104447 0.797365
0.138805 -0.105732 0.79631
0.138465 -0.106982 0.795028
0.138164 -0.10826 0.793966
0.137747 -0.109441 0.792247
0.137365 -0.110643 0.790718
0.137011 -0.111864 0.789349
0.136646 -0.113071 0.787914
0.136301 -0.11429 0.786592
0.136062 -0.115595 0.785876
0.135824 -0.116898 0.785157
0.135567 -0.118183 0.784335
0.135407 -0.11955 0.784064
0.135249 -0.120919 0.783806
0.135079 -0.122276 0.783476
0.134908 -0.123632 0.78314
0.134735 -0.124984 0.782794
0.134576 -0.12635 0.782531
0.134406 -0.127704 0.7822
0.134248 -0.129068 0.781937
0.1341 -0.130441 0.781733
0.133979 -0.131841 0.781687
0.133864 -0.133247 0.781672
0.13382 -0.134723 0.782063
0.133833 -0.136261 0.782793
0.133866 -0.137822 0.783634
0.133989 -0.139479 0.784996
0.134075 -0.141103 0.786148
0.134161 -0.142732 0.787305
0.134195 -0.14431 0.788158
0.134196 -0.145856 0.788823
0.134112 -0.147311 0.788993
0.134066 -0.148811 0.789391
0.134049 -0.150344 0.789953
0.133997 -0.15184 0.790313
0.133985 -0.153383 0.790907
0.133981 -0.154938 0.791548
0.134035 -0.156564 0.792533
0.134072 -0.158173 0.793416
0.134141 -0.159824 0.794489
0.134274 -0.161555 0.795937
0.134479 -0.16338 0.797812
0.134788 -0.165337 0.800295
0.135358 -0.167624 0.804314
0.135907 -0.169901 0.808216
0.136357 -0.172071 0.811548
0.136659 -0.174067 0.814011
0.151645 -0.0546 0.834956
0.151423 -0.0560409 0.834393
0.151202 -0.0574802 0.83383
0.150885 -0.0588785 0.832746
0.150562 -0.0602705 0.831624
0.150235 -0.0616569 0.830477
0.149892 -0.0630328 0.829242
0.149536 -0.0643987 0.827936
0.149194 -0.0657671 0.826707
0.148808 -0.0671104 0.825232
0.148418 -0.0684467 0.823731
0.148076 -0.0698019 0.822496
0.147787 -0.0711793 0.821547
0.147572 -0.0725918 0.821007
0.147377 -0.0740129 0.820575
0.147223 -0.0754545 0.820368
0.147049 -0.076885 0.820051
0.146817 -0.078283 0.819417
0.14651 -0.0796364 0.81836
0.146238 -0.0810069 0.817501
0.145918 -0.0823464 0.816372
0.145556 -0.0836579 0.815013
0.145181 -0.0849564 0.813575
0.14483 -0.0862654 0.812275
0.144482 -0.087571 0.810981
0.144111 -0.0888583 0.809562
0.143788 -0.0901715 0.808408
0.143478 -0.0914898 0.807328
0.143155 -0.0927954 0.806171
0.142817 -0.0940871 0.804927
0.142521 -0.0954031 0.803916
0.142243 -0.0967283 0.803004
0.142016 -0.0980864 0.802378
0.141765 -0.0994254 0.801614
0.14151 -0.100759 0.800828
0.141191 -0.102043 0.799681
0.140867 -0.10332 0.79851
0.140504 -0.104563 0.79711
0.140229 -0.105869 0.796207
0.139915 -0.107142 0.795084
0.139643 -0.108444 0.794196
0.13927 -0.109663 0.792738
0.138919 -0.110894 0.7914
0.13853 -0.112089 0.789846
0.138146 -0.113284 0.78832
0.137781 -0.114489 0.7869
0.137508 -0.115767 0.785995
0.137243 -0.117049 0.78513
0.137009 -0.118355 0.784448
0.136847 -0.119722 0.784167
0.136687 -0.12109 0.783898
0.136528 -0.122458 0.783632
0.136356 -0.123814 0.783294
0.136183 -0.125168 0.782951
0.136037 -0.126546 0.78276
0.135868 -0.127902 0.782437
0.135711 -0.129269 0.782185
0.135579 -0.130659 0.782073
0.135461 -0.132063 0.782043
0.135349 -0.133473 0.782047
0.135321 -0.134967 0.782528
0.135341 -0.136511 0.783284
0.135378 -0.138075 0.78414
0.135513 -0.139745 0.785562
0.135599 -0.141368 0.7867
0.135684 -0.142995 0.787835
0.135706 -0.144561 0.788612
0.13569 -0.146089 0.789174
0.135589 -0.147528 0.789247
0.135526 -0.149008 0.789539
0.135482 -0.150511 0.78994
0.135417 -0.151993 0.790221
0.135392 -0.153521 0.790736
0.135377 -0.155062 0.791306
0.135418 -0.156671 0.792204
0.135483 -0.158312 0.793242
0.135597 -0.160013 0.79456
0.135794 -0.161818 0.796364
0.136081 -0.163737 0.79869
0.136473 -0.165793 0.801635
0.137015 -0.168041 0.805451
0.137536 -0.170279 0.809151
0.137925 -0.172368 0.812089
0.138151 -0.174266 0.814087
0.153191 -0.0547497 0.835172
0.152978 -0.056195 0.834658
0.152788 -0.0576484 0.834271
0.152511 -0.0590647 0.833409
0.152224 -0.0604743 0.832493
0.151911 -0.0618697 0.831435
0.151581 -0.0632547 0.830287
0.15122 -0.0646215 0.828964
0.150862 -0.0659853 0.827655
0.150469 -0.0673286 0.826157
0.150074 -0.068666 0.824646
0.149727 -0.0700217 0.823393
0.149438 -0.0714022 0.822457
0.149223 -0.072817 0.821919
0.149013 -0.074233 0.821411
0.148844 -0.0756687 0.821122
0.148656 -0.077094 0.820733
0.148407 -0.0784849 0.82001
0.148081 -0.0798303 0.818861
0.147804 -0.0812 0.817981
0.147482 -0.0825409 0.816853
0.14712 -0.0838548 0.815505
0.146759 -0.0851647 0.814162
0.146422 -0.0864842 0.812943
0.146053 -0.0877806 0.811553
0.145673 -0.0890651 0.810099
0.145359 -0.0903861 0.809
0.145033 -0.0916966 0.807841
0.144695 -0.092995 0.806612
0.144367 -0.094296 0.805437
0.144054 -0.0956033 0.804343
0.143732 -0.0969001 0.803193
0.143471 -0.0982362 0.802384
0.143214 -0.0995724 0.801595
0.142941 -0.100894 0.800716
0.142619 -0.102179 0.799568
0.142293 -0.103455 0.798389
0.141925 -0.104696 0.796978
0.141647 -0.106002 0.796067
0.141336 -0.107278 0.794973
0.141083 -0.108596 0.794197
0.140757 -0.109854 0.79301
0.140465 -0.111135 0.792018
0.140105 -0.112358 0.790639
0.139733 -0.113566 0.789192
0.139358 -0.114767 0.787731
0.13905 -0.116019 0.78664
0.138739 -0.117264 0.785529
0.138478 -0.118549 0.7847
0.138305 -0.119907 0.784356
0.138131 -0.121265 0.784015
0.137971 -0.122633 0.783746
0.137795 -0.123987 0.783391
0.137619 -0.125339 0.783033
0.137459 -0.126705 0.78276
0.137301 -0.128072 0.782505
0.13716 -0.129455 0.782342
0.137046 -0.130863 0.782333
0.136947 -0.132286 0.782408
0.136878 -0.133739 0.782653
0.13687 -0.135254 0.783247
0.136895 -0.136804 0.784023
0.13695 -0.138387 0.784972
0.137071 -0.140042 0.786297
0.137152 -0.14166 0.787398
0.137203 -0.143253 0.788331
0.137222 -0.144815 0.789083
0.137178 -0.146314 0.789479
0.137062 -0.147737 0.789465
0.13697 -0.149187 0.78959
0.136914 -0.150677 0.789917
0.136851 -0.152161 0.790207
0.13683 -0.153692 0.790735
0.136831 -0.155252 0.791393
0.13689 -0.156879 0.792379
0.137002 -0.158573 0.793677
0.137152 -0.160315 0.795192
0.137417 -0.162198 0.797367
0.137757 -0.164177 0.799972
0.138169 -0.166254 0.802999
0.138654 -0.16843 0.80645
0.139096 -0.170568 0.809663
0.139409 -0.172559 0.812132
0.140208 -0.175162 0.817407
0.154572 -0.0563639 0.835122
0.154398 -0.0578252 0.834825
0.154144 -0.0592528 0.834092
0.15386 -0.0606662 0.833204
0.153564 -0.0620714 0.832247
0.153233 -0.063458 0.831098
0.15287 -0.064827 0.829779
0.152511 -0.0661934 0.828479
0.152131 -0.0675458 0.827065
0.151734 -0.0688856 0.82556
0.151368 -0.0702349 0.824214
0.151059 -0.0716082 0.823178
0.150827 -0.0730167 0.822553
0.150619 -0.0744355 0.822057
0.150435 -0.0758657 0.821693
0.150243 -0.077291 0.821289
0.149975 -0.0786734 0.820467
0.149628 -0.0800094 0.819213
0.149318 -0.0813629 0.818166
0.149008 -0.0827125 0.817114
0.148633 -0.0840206 0.815704
0.148287 -0.0853412 0.814451
0.14795 -0.0866632 0.813248
0.147579 -0.0879605 0.811858
0.147181 -0.0892362 0.810317
0.146861 -0.0905559 0.809201
0.146533 -0.0918666 0.808038
0.146207 -0.0931751 0.806887
0.145878 -0.0944777 0.805718
0.145561 -0.0957841 0.80461
0.145219 -0.0970703 0.803367
0.144926 -0.0983855 0.802386
0.144637 -0.0997011 0.801432
0.144346 -0.101012 0.800462
0.144007 -0.102284 0.799227
0.143677 -0.103559 0.798036
0.14332 -0.10481 0.796699
0.143058 -0.106128 0.795884
0.142779 -0.10743 0.794971
0.142559 -0.108775 0.794385
0.142289 -0.11008 0.793525
0.14203 -0.111389 0.792721
0.141683 -0.112625 0.791425
0.141292 -0.113822 0.789893
0.140905 -0.115017 0.788377
0.140566 -0.116246 0.787124
0.140237 -0.11748 0.785926
0.139963 -0.118756 0.78503
0.139788 -0.120114 0.784682
0.139601 -0.121461 0.784262
0.139427 -0.122819 0.783924
0.139225 -0.12415 0.783422
0.139032 -0.125488 0.782975
0.138853 -0.126837 0.782601
0.138706 -0.128216 0.782409
0.138582 -0.129615 0.782343
0.138499 -0.131053 0.782507
0.138445 -0.13252 0.782833
0.138419 -0.134016 0.783315
0.138441 -0.13556 0.784066
0.138498 -0.137142 0.785014
0.138571 -0.138744 0.786055
0.138652 -0.140359 0.787143
0.138715 -0.14196 0.788134
0.138722 -0.143507 0.78881
0.138699 -0.145026 0.789317
0.138615 -0.146482 0.789481
0.138511 -0.147919 0.789534
0.138408 -0.149357 0.789594
0.138352 -0.150847 0.789919
0.138305 -0.152349 0.790299
0.138312 -0.153912 0.790982
0.138332 -0.155491 0.791737
0.138424 -0.157156 0.7929
0.138572 -0.15889 0.794389
0.138775 -0.160691 0.796184
0.139096 -0.162637 0.798658
0.139461 -0.164644 0.801379
0.139816 -0.166652 0.804057
0.140204 -0.168708 0.806919
0.141143 -0.171438 0.812925
0.142007 -0.1741 0.81851
0.155887 -0.057953 0.834716
0.155661 -0.059393 0.834142
0.155392 -0.0608135 0.833338
0.155124 -0.0622318 0.832536
0.154826 -0.0636348 0.831578
0.154479 -0.0650133 0.830358
0.154134 -0.0663883 0.829143
0.153757 -0.0677447 0.827758
0.153357 -0.0690857 0.826248
0.152987 -0.0704361 0.824896
0.152675 -0.07181 0.823849
0.152408 -0.0732037 0.823049
0.152179 -0.0746138 0.822446
0.151976 -0.0760353 0.821979
0.151765 -0.0774516 0.821474
0.151463 -0.0788174 0.820476
0.151095 -0.080144 0.819126
0.15078 -0.0814957 0.818059
0.150468 -0.0828452 0.817005
0.15009 -0.0841535 0.815595
0.149776 -0.085494 0.814523
0.149455 -0.0868273 0.813416
0.149085 -0.0881272 0.812043
0.1487 -0.0894132 0.810588
0.148394 -0.0907437 0.809557
0.148052 -0.0920478 0.808328
0.147739 -0.0933669 0.807258
0.147421 -0.0946792 0.806161
0.147087 -0.0959769 0.804972
0.146727 -0.097253 0.80364
0.146415 -0.0985575 0.802567
0.146106 -0.0998604 0.801508
0.145784 -0.101151 0.800378
0.145443 -0.102424 0.799144
0.145098 -0.10369 0.797889
0.144769 -0.104963 0.796713
0.144522 -0.106294 0.79599
0.144286 -0.107631 0.79532
0.144069 -0.10898 0.794756
0.143813 -0.110296 0.793973
0.143551 -0.111606 0.79316
0.143186 -0.112831 0.791784
0.14278 -0.114019 0.790181
0.142394 -0.115217 0.788682
0.142048 -0.116443 0.787405
0.141716 -0.117676 0.786198
0.141451 -0.118962 0.785358
0.141274 -0.120321 0.785004
0.141085 -0.121668 0.784583
0.14091 -0.123026 0.784237
0.140678 -0.124332 0.783577
0.140469 -0.125658 0.783044
0.14026 -0.126981 0.782509
0.140099 -0.128347 0.782238
0.139974 -0.129745 0.782165
0.13991 -0.131201 0.782431
0.139872 -0.132684 0.782844
0.139877 -0.134208 0.783493
0.139942 -0.135795 0.784477
0.140016 -0.137394 0.785512
0.140106 -0.139012 0.786634
0.140162 -0.140601 0.787572
0.140198 -0.142175 0.788402
0.140175 -0.143691 0.788904
0.140138 -0.145196 0.78933
0.140042 -0.14664 0.789427
0.139955 -0.148095 0.78957
0.139864 -0.149547 0.789698
0.139808 -0.151037 0.79002
0.139763 -0.15254 0.790401
0.139773 -0.154106 0.791095
0.139811 -0.155705 0.791944
0.139936 -0.157406 0.793283
0.140134 -0.159193 0.795033
0.140418 -0.161087 0.79727
0.140793 -0.163091 0.800015
0.141151 -0.16509 0.802675
0.141446 -0.167023 0.804984
0.142266 -0.169588 0.810257
0.143735 -0.172945 0.819188
0.157213 -0.0595469 0.834369
0.156969 -0.060979 0.833702
0.156716 -0.0624052 0.832986
0.156443 -0.0638211 0.832169
0.156111 -0.0652084 0.831039
0.155799 -0.0666007 0.830008
0.15544 -0.0679684 0.828732
0.155055 -0.0693196 0.827314
0.154698 -0.0706793 0.826041
0.154377 -0.0720529 0.824964
0.154074 -0.0734314 0.823975
0.153823 -0.0748331 0.823262
0.153583 -0.0762379 0.822602
0.153321 -0.0776297 0.821832
0.15298 -0.0789769 0.820639
0.152593 -0.0802946 0.819195
0.15226 -0.0816377 0.81804
0.151931 -0.0829793 0.816907
0.151565 -0.0842956 0.815569
0.151248 -0.0856363 0.814496
0.150941 -0.0869795 0.813475
0.150588 -0.0882917 0.812207
0.150235 -0.0895989 0.810931
0.149946 -0.0909425 0.810004
0.149632 -0.0922667 0.808936
0.149321 -0.0935895 0.807886
0.149004 -0.0949048 0.8068
0.148668 -0.0962038 0.80561
0.148287 -0.097469 0.804179
0.147939 -0.0987524 0.802928
0.147609 -0.100043 0.801766
0.147269 -0.101323 0.800545
0.146911 -0.102586 0.799233
0.146582 -0.103865 0.798069
0.146269 -0.105152 0.796994
0.146038 -0.106497 0.796361
0.145819 -0.107848 0.795789
0.145612 -0.109207 0.795285
0.145353 -0.110524 0.794499
0.145084 -0.111831 0.793653
0.144704 -0.113047 0.792205
0.144305 -0.114244 0.790658
0.14392 -0.115445 0.789178
0.143576 -0.116676 0.787922
0.143243 -0.117912 0.786723
0.142989 -0.119209 0.78595
0.142782 -0.120545 0.785439
0.142575 -0.121878 0.78492
0.142381 -0.123222 0.784477
0.142117 -0.124502 0.783648
0.141892 -0.125814 0.78303
0.141667 -0.127124 0.782409
0.141504 -0.128489 0.782133
0.141379 -0.129888 0.78206
0.141343 -0.13137 0.782477
0.141323 -0.132869 0.782982
0.141361 -0.134425 0.783807
0.141446 -0.13603 0.784891
0.141524 -0.137632 0.785931
0.141601 -0.139238 0.786978
0.141644 -0.140814 0.787833
0.141664 -0.142371 0.788568
0.141628 -0.143874 0.788992
0.141594 -0.145381 0.789426
0.141513 -0.146842 0.789604
0.141427 -0.148298 0.789754
0.141351 -0.149766 0.789959
0.141297 -0.151259 0.79029
0.141264 -0.152776 0.790736
0.141279 -0.154346 0.791445
0.141332 -0.155962 0.792369
0.141478 -0.157684 0.793812
0.141737 -0.159539 0.795882
0.142075 -0.16149 0.798396
0.142474 -0.163522 0.801253
0.142823 -0.165508 0.803839
0.143055 -0.167367 0.805775
0.144365 -0.170497 0.813726
0.158724 -0.0612163 0.834983
0.158465 -0.0626434 0.834243
0.158135 -0.0640382 0.833136
0.157784 -0.0654197 0.831911
0.15747 -0.0668144 0.830886
0.157127 -0.0681919 0.829699
0.156759 -0.0695544 0.828386
0.156432 -0.0709318 0.827284
0.156095 -0.0723011 0.826131
0.15577 -0.0736722 0.825038
0.155497 -0.0750655 0.824211
0.155216 -0.0764527 0.823348
0.154901 -0.0778192 0.822303
0.15454 -0.0791579 0.821015
0.154147 -0.0804751 0.819556
0.153797 -0.0818107 0.818318
0.15345 -0.0831445 0.817102
0.153082 -0.0844614 0.815764
0.15276 -0.0858012 0.814675
0.152436 -0.0871358 0.813571
0.152097 -0.0884583 0.812388
0.15176 -0.0897776 0.811212
0.151489 -0.0911336 0.810384
0.151192 -0.0924711 0.80942
0.150911 -0.0938151 0.808535
0.150593 -0.0951325 0.807454
0.150256 -0.0964342 0.806273
0.149856 -0.09769 0.804755
0.149486 -0.0989607 0.803392
0.149121 -0.10023 0.802054
0.148773 -0.101507 0.800808
0.148415 -0.102773 0.799504
0.148098 -0.104063 0.79842
0.147802 -0.105365 0.797443
0.147571 -0.106711 0.796814
0.147337 -0.108053 0.796171
0.147099 -0.10939 0.795501
0.146821 -0.110695 0.794618
0.14653 -0.111986 0.793666
0.146172 -0.113222 0.792351
0.145805 -0.114446 0.790982
0.145465 -0.115687 0.789761
0.145138 -0.116935 0.788607
0.144816 -0.118183 0.787482
0.144547 -0.119471 0.786637
0.144325 -0.120796 0.786043
0.144075 -0.122095 0.785299
0.143847 -0.123411 0.784675
0.143545 -0.12466 0.783649
0.143287 -0.125944 0.782857
0.143018 -0.127217 0.782009
0.14287 -0.128595 0.78181
0.142743 -0.129992 0.781728
0.142721 -0.131487 0.782216
0.142734 -0.133016 0.782895
0.142807 -0.134603 0.783896
0.142899 -0.136214 0.785008
0.142994 -0.137832 0.786134
0.143071 -0.139437 0.787168
0.143083 -0.140982 0.787847
0.143102 -0.142537 0.788565
0.143065 -0.14404 0.788981
0.14303 -0.145546 0.789409
0.142954 -0.147012 0.78961
0.142898 -0.148499 0.789921
0.142839 -0.149986 0.790221
0.142801 -0.151496 0.790633
0.142799 -0.153046 0.791242
0.142857 -0.154663 0.792185
0.142943 -0.156315 0.793277
0.143135 -0.158088 0.794963
0.143433 -0.159985 0.797228
0.143781 -0.161945 0.799769
0.144145 -0.163935 0.802405
0.144435 -0.165853 0.804642
0.14513 -0.168243 0.809114
0.160376 -0.0614097 0.835697
0.160083 -0.0628252 0.83479
0.159749 -0.0642206 0.833672
0.159375 -0.0655946 0.832341
0.159077 -0.0669982 0.831406
0.158748 -0.0683845 0.830306
0.158398 -0.0697574 0.829093
0.158087 -0.0711449 0.828084
0.157737 -0.0725105 0.826872
0.157392 -0.0738748 0.825687
0.157098 -0.07526 0.824759
0.156812 -0.0766468 0.823878
0.156479 -0.0780063 0.822749
0.15613 -0.0793533 0.821531
0.155762 -0.080687 0.82022
0.155413 -0.0820257 0.818998
0.155049 -0.0833526 0.817701
0.15466 -0.084661 0.81627
0.154315 -0.0859897 0.815068
0.153971 -0.0873152 0.813872
0.153629 -0.0886376 0.812681
0.153309 -0.0899695 0.811606
0.153054 -0.0913373 0.810869
0.15277 -0.0926851 0.809982
0.152503 -0.0940401 0.809176
0.152201 -0.0953706 0.808191
0.151847 -0.0966642 0.806931
0.151443 -0.097921 0.805407
0.151053 -0.0991807 0.803947
0.15065 -0.100428 0.802424
0.15027 -0.101685 0.801016
0.149921 -0.102959 0.799775
0.149605 -0.104252 0.798703
0.149336 -0.105576 0.797881
0.149107 -0.106925 0.797268
0.148883 -0.108277 0.796679
0.148626 -0.109602 0.795915
0.148341 -0.110903 0.795004
0.148009 -0.112166 0.793842
0.147649 -0.113402 0.792526
0.147295 -0.11464 0.791246
0.146971 -0.115896 0.790117
0.146662 -0.117161 0.789073
0.146369 -0.118435 0.78811
0.146113 -0.119736 0.787339
0.145874 -0.12105 0.786663
0.145605 -0.122336 0.785826
0.145329 -0.123612 0.784948
0.144991 -0.124833 0.783736
0.144711 -0.1261 0.782836
0.144411 -0.127346 0.781826
0.144249 -0.128712 0.781556
0.144136 -0.130122 0.781549
0.144146 -0.131646 0.782204
0.144178 -0.133192 0.782978
0.144286 -0.134812 0.784162
0.144397 -0.136439 0.785361
0.144491 -0.138056 0.786472
0.144538 -0.139632 0.787333
0.144519 -0.141146 0.787836
0.144508 -0.142672 0.788388
0.144471 -0.144173 0.788795
0.144425 -0.145668 0.789161
0.144378 -0.147163 0.789515
0.144353 -0.148682 0.789994
0.144329 -0.150205 0.790475
0.144339 -0.151765 0.791145
0.144402 -0.153384 0.792101
0.144509 -0.155055 0.793299
0.144662 -0.156779 0.794751
0.144908 -0.158611 0.796707
0.145216 -0.16052 0.799011
0.145567 -0.162484 0.801549
0.145874 -0.164409 0.803845
0.146594 -0.16681 0.808407
0.147838 -0.169825 0.815833
0.162281 -0.0601662 0.837091
0.161936 -0.0615654 0.835925
0.161625 -0.0629749 0.834933
0.161271 -0.064363 0.833718
0.160892 -0.0657366 0.832375
0.160607 -0.0671467 0.831511
0.160293 -0.0685417 0.830502
0.159961 -0.0699244 0.829392
0.159702 -0.071338 0.828661
0.159351 -0.0727057 0.827455
0.158989 -0.0740638 0.826189
0.158688 -0.0754481 0.825238
0.158403 -0.076837 0.824365
0.158054 -0.0781908 0.823165
0.157724 -0.0795501 0.822057
0.157388 -0.0809029 0.82092
0.157052 -0.0822519 0.819781
0.156688 -0.0835817 0.818495
0.156294 -0.0848904 0.817051
0.155942 -0.0862181 0.815823
0.155591 -0.0875421 0.814597
0.155232 -0.0888574 0.813329
0.154924 -0.0901994 0.812329
0.154668 -0.0915692 0.811594
0.154383 -0.0929187 0.810707
0.154097 -0.0942648 0.809813
0.153807 -0.0956053 0.808896
0.153437 -0.0968919 0.807566
0.153029 -0.0981491 0.806034
0.152634 -0.0994091 0.804565
0.152226 -0.100656 0.803027
0.151827 -0.101903 0.801533
0.151476 -0.103178 0.80029
0.151159 -0.104473 0.799222
0.150889 -0.105798 0.798401
0.150628 -0.107128 0.79763
0.150384 -0.108466 0.796939
0.150106 -0.109778 0.796076
0.149805 -0.111068 0.795082
0.149457 -0.112321 0.793848
0.149127 -0.113583 0.792703
0.148803 -0.114846 0.791591
0.14851 -0.116129 0.790638
0.148218 -0.11741 0.789691
0.14794 -0.118699 0.788814
0.147678 -0.119998 0.788022
0.14742 -0.121299 0.787253
0.147134 -0.122573 0.786329
0.146827 -0.123826 0.785297
0.146453 -0.125019 0.783906
0.146151 -0.126269 0.782898
0.145818 -0.127487 0.781719
0.145626 -0.128828 0.781293
0.14553 -0.130254 0.781375
0.145573 -0.131806 0.782199
0.145612 -0.133358 0.783002
0.145754 -0.135008 0.784353
0.14588 -0.136649 0.785623
0.145959 -0.138251 0.786643
0.145975 -0.139796 0.787328
0.145938 -0.141293 0.787733
0.145898 -0.14279 0.788122
0.145847 -0.144277 0.788453
0.145803 -0.145772 0.788819
0.1458 -0.147311 0.789408
0.14581 -0.148866 0.790069
0.145823 -0.150426 0.790744
0.145915 -0.152072 0.791848
0.146076 -0.153794 0.793319
0.146242 -0.155528 0.794828
0.146485 -0.15735 0.796749
0.146804 -0.159261 0.79908
0.14712 -0.161178 0.801401
0.147426 -0.163094 0.803676
0.148146 -0.165478 0.808185
0.149364 -0.168437 0.815398
0.163355 -0.0616639 0.835423
0.163056 -0.0630787 0.834502
0.162708 -0.0644698 0.833328
0.162342 -0.0658498 0.832065
0.162075 -0.0672684 0.831299
0.161781 -0.0686728 0.830398
0.161464 -0.0700636 0.829375
0.161241 -0.0714946 0.82883
0.160886 -0.0728623 0.827617
0.160523 -0.0742214 0.826355
0.160249 -0.0756206 0.825551
0.159998 -0.0770281 0.824858
0.159672 -0.0783959 0.823785
0.15938 -0.0797774 0.822882
0.159095 -0.0811603 0.82202
0.158776 -0.0825215 0.820975
0.158412 -0.0838552 0.819703
0.158027 -0.0851729 0.818319
0.157672 -0.0865023 0.817083
0.157316 -0.0878278 0.815847
0.156939 -0.0891365 0.814498
0.156615 -0.090472 0.813419
0.156322 -0.0918227 0.812501
0.156014 -0.0931617 0.811507
0.155692 -0.0944881 0.810435
0.155384 -0.09582 0.809434
0.155011 -0.0971072 0.808099
0.154602 -0.0983667 0.806576
0.154203 -0.099627 0.805098
0.153778 -0.100865 0.803488
0.153373 -0.102112 0.801977
0.153021 -0.103389 0.800738
0.152701 -0.104684 0.799665
0.152403 -0.105991 0.798704
0.152122 -0.107308 0.797831
0.151841 -0.108622 0.796962
0.151556 -0.10993 0.796067
0.151257 -0.111224 0.795093
0.150939 -0.112501 0.794027
0.150627 -0.113778 0.792982
0.150328 -0.115063 0.792009
0.15005 -0.116361 0.791147
0.149774 -0.117657 0.790288
0.149496 -0.118949 0.789424
0.149246 -0.120261 0.788702
0.148983 -0.121559 0.787907
0.148679 -0.122821 0.7869
0.148355 -0.124063 0.785789
0.147979 -0.125257 0.784402
0.147659 -0.126494 0.783305
0.147291 -0.127686 0.781956
0.147081 -0.129012 0.781436
0.146969 -0.130424 0.781434
0.147017 -0.13198 0.782273
0.147062 -0.133537 0.7831
0.147222 -0.135203 0.784536
0.147334 -0.13683 0.785719
0.147398 -0.138416 0.786649
0.147396 -0.139944 0.787233
0.147359 -0.141441 0.787633
0.147319 -0.142938 0.788019
0.14727 -0.144426 0.788353
0.147238 -0.145934 0.788782
0.147269 -0.147506 0.789545
0.147317 -0.149098 0.790397
0.147369 -0.150699 0.791275
0.147544 -0.152429 0.792809
0.14779 -0.15424 0.794726
0.148036 -0.156058 0.79664
0.148356 -0.157963 0.798958
0.148734 -0.159937 0.801584
0.149038 -0.161844 0.803823
0.149294 -0.163707 0.805807
0.150459 -0.166577 0.812659
0.164636 -0.0617079 0.834231
0.164363 -0.0631322 0.833448
0.164032 -0.0645297 0.832367
0.163687 -0.065918 0.831218
0.16342 -0.0673363 0.83046
0.163147 -0.0687494 0.829669
0.162849 -0.0701488 0.828751
0.162659 -0.0715949 0.828379
0.162304 -0.0729631 0.827175
0.161969 -0.0743365 0.826067
0.161713 -0.0757446 0.825357
0.161497 -0.0771706 0.82485
0.161211 -0.0785597 0.823988
0.160987 -0.0799783 0.823443
0.160741 -0.0813831 0.822779
0.160454 -0.0827646 0.821912
0.160122 -0.0841187 0.820811
0.159756 -0.0854502 0.819534
0.159416 -0.0867924 0.818392
0.159061 -0.0881222 0.817171
0.15868 -0.0894327 0.815814
0.158334 -0.0907593 0.814634
0.158002 -0.0920903 0.813525
0.157656 -0.0934093 0.812344
0.157325 -0.0947331 0.811233
0.156998 -0.0960564 0.810148
0.156606 -0.0973344 0.808725
0.156195 -0.0985954 0.807202
0.155794 -0.0998575 0.805727
0.15535 -0.101086 0.804032
0.154927 -0.102324 0.802446
0.15457 -0.103601 0.801194
0.154248 -0.104897 0.800119
0.15393 -0.106193 0.799067
0.153629 -0.107498 0.7981
0.153359 -0.10882 0.797286
0.153071 -0.110128 0.796382
0.152789 -0.111437 0.795509
0.152474 -0.112719 0.794467
0.15216 -0.113998 0.793423
0.151842 -0.11527 0.792358
0.151559 -0.116567 0.791479
0.151269 -0.117854 0.790555
0.150994 -0.11915 0.789712
0.150742 -0.120462 0.788987
0.150491 -0.121772 0.788262
0.150198 -0.123046 0.787324
0.149876 -0.124292 0.786229
0.149531 -0.125516 0.785015
0.149209 -0.126755 0.783921
0.148836 -0.127945 0.782555
0.148605 -0.129255 0.781934
0.14849 -0.130666 0.781913
0.14851 -0.132197 0.782598
0.14854 -0.13374 0.783339
0.148687 -0.135393 0.784693
0.14877 -0.136993 0.785714
0.148805 -0.138552 0.786483
0.148804 -0.140079 0.787063
0.148783 -0.141592 0.787545
0.148732 -0.143077 0.787865
0.148684 -0.144566 0.788202
0.148667 -0.146088 0.788707
0.14873 -0.147691 0.78963
0.148816 -0.149321 0.790676
0.148923 -0.150976 0.791833
0.149181 -0.152791 0.793791
0.149496 -0.154672 0.796052
0.149801 -0.156551 0.798263
0.150179 -0.158516 0.800866
0.150596 -0.160533 0.803677
0.150871 -0.162409 0.80574
0.151094 -0.164237 0.807532
0.165595 -0.0600984 0.830868
0.165592 -0.0616249 0.831433
0.165431 -0.0630901 0.831211
0.165165 -0.0645117 0.830463
0.164873 -0.0659199 0.829585
0.164641 -0.0673515 0.829009
0.164387 -0.0687716 0.828321
0.164108 -0.0701784 0.827506
0.163935 -0.0716309 0.827221
0.163597 -0.0730058 0.826107
0.163281 -0.0743876 0.825102
0.16308 -0.0758221 0.824678
0.162919 -0.0772745 0.824448
0.162702 -0.078699 0.823943
0.16255 -0.0801549 0.823761
0.162373 -0.0815971 0.823449
0.162124 -0.0830009 0.822779
0.161842 -0.0843852 0.821944
0.161511 -0.0857397 0.820857
0.161174 -0.0870871 0.819736
0.16082 -0.0884212 0.81853
0.160449 -0.089742 0.817239
0.160082 -0.0910601 0.815961
0.15971 -0.0923718 0.814663
0.159354 -0.0936884 0.813441
0.158987 -0.0949937 0.812159
0.158637 -0.0963061 0.810967
0.158244 -0.0975867 0.80955
0.157843 -0.0988579 0.808095
0.15744 -0.100122 0.806622
0.157008 -0.101363 0.805003
0.15658 -0.102601 0.803404
0.156218 -0.103878 0.80214
0.155893 -0.105175 0.801059
0.155557 -0.106462 0.79992
0.155235 -0.107755 0.798856
0.154959 -0.109076 0.79802
0.154673 -0.110389 0.797139
0.154393 -0.111702 0.796281
0.154082 -0.11299 0.795266
0.153761 -0.114267 0.7942
0.153422 -0.115527 0.793038
0.153103 -0.116797 0.791974
0.152793 -0.118071 0.79096
0.152517 -0.119369 0.790118
0.152268 -0.120686 0.789414
0.152016 -0.121998 0.788696
0.151769 -0.123312 0.787998
0.151463 -0.124575 0.787
0.151136 -0.125816 0.785886
0.150832 -0.127073 0.784892
0.15047 -0.128278 0.783599
0.15022 -0.129575 0.782884
0.1501 -0.130983 0.782839
0.150087 -0.132487 0.78335
0.150085 -0.134002 0.783913
0.150199 -0.135624 0.785082
0.150235 -0.137181 0.78585
0.15024 -0.138712 0.786459
0.150241 -0.140242 0.787044
0.150225 -0.141758 0.787542
0.150165 -0.143234 0.787815
0.150131 -0.144738 0.788225
0.150129 -0.146274 0.788799
0.150241 -0.147924 0.789966
0.150368 -0.149594 0.791215
0.150528 -0.151302 0.79264
0.150853 -0.153183 0.794929
0.151234 -0.155131 0.797515
0.151561 -0.157033 0.799821
0.151976 -0.159035 0.802592
0.152412 -0.161071 0.805475
0.152674 -0.162933 0.807452
0.152869 -0.164732 0.809081
0.166563 -0.0600271 0.828178
0.166575 -0.0615547 0.828808
0.166475 -0.0630406 0.828889
0.166231 -0.064468 0.828254
0.165991 -0.0658951 0.82764
0.165796 -0.0673398 0.827249
0.165558 -0.0687649 0.826646
0.165298 -0.0701778 0.825927
0.165126 -0.071629 0.825651
0.16484 -0.0730266 0.824805
0.16458 -0.0744336 0.824086
0.164455 -0.0759032 0.824039
0.164356 -0.0773859 0.824122
0.164225 -0.0788534 0.824048
0.164127 -0.0803376 0.824138
0.163989 -0.0818016 0.824025
0.163797 -0.0832375 0.823644
0.163568 -0.0846526 0.823079
0.163288 -0.0860383 0.822258
0.162969 -0.0873999 0.821241
0.162612 -0.0887366 0.82003
0.162236 -0.0900588 0.818725
0.161845 -0.0913673 0.817338
0.161438 -0.0926623 0.815873
0.161078 -0.0939804 0.814643
0.160706 -0.0952868 0.813349
0.160339 -0.0965922 0.812081
0.159942 -0.0978745 0.810659
0.159521 -0.0991368 0.809115
0.159096 -0.100391 0.807548
0.158643 -0.101622 0.805835
0.158212 -0.102861 0.804234
0.157848 -0.10414 0.802967
0.157519 -0.105438 0.801879
0.157164 -0.106715 0.800654
0.156857 -0.108021 0.799672
0.156564 -0.109334 0.798762
0.156278 -0.110649 0.797888
0.155997 -0.111965 0.797035
0.155699 -0.113265 0.796094
0.15536 -0.114531 0.794943
0.155012 -0.115787 0.793747
0.15467 -0.117044 0.792576
0.154353 -0.118316 0.791537
0.154074 -0.119614 0.790685
0.153841 -0.120946 0.79007
0.153607 -0.122275 0.789448
0.153393 -0.123618 0.788926
0.15312 -0.124911 0.7881
0.152825 -0.126183 0.787167
0.152521 -0.127445 0.786182
0.152173 -0.128666 0.784973
0.151907 -0.129953 0.784179
0.151759 -0.13134 0.78399
0.151683 -0.13279 0.784175
0.151642 -0.134273 0.784538
0.151689 -0.135834 0.785347
0.15169 -0.137359 0.785926
0.151679 -0.138875 0.786446
0.151697 -0.140421 0.787117
0.1517 -0.141954 0.787708
0.151658 -0.143448 0.788068
0.151626 -0.144953 0.788481
0.151639 -0.146504 0.789127
0.15177 -0.148172 0.790383
0.151919 -0.149864 0.79174
0.15215 -0.151642 0.793516
0.152529 -0.153576 0.796066
0.152965 -0.155578 0.798912
0.153311 -0.157499 0.801295
0.153729 -0.159503 0.804058
0.154137 -0.161508 0.806768
0.154402 -0.163373 0.808743
0.154572 -0.165144 0.810225
0.166111 -0.0568226 0.824799
0.165885 -0.05523 0.823116
0.167245 -0.0553144 0.822433
0.167406 -0.0568819 0.823782
0.167541 -0.0584451 0.825009
0.167623 -0.0599927 0.825975
0.167611 -0.0615079 0.826486
0.167509 -0.062989 0.826551
0.167256 -0.0644099 0.82588
0.167039 -0.0658434 0.825382
0.166863 -0.0672928 0.825085
0.166627 -0.0687155 0.824492
0.166401 -0.0701409 0.823947
0.16623 -0.0715894 0.823674
0.165998 -0.0730095 0.8231
0.165812 -0.0744491 0.822751
0.165769 -0.075956 0.823106
0.165731 -0.0774673 0.823492
0.165693 -0.07898 0.823874
0.165669 -0.0805014 0.824325
0.165588 -0.0819962 0.824501
0.165455 -0.0834642 0.824413
0.165283 -0.0849122 0.824137
0.165053 -0.0863275 0.823567
0.16475 -0.0877017 0.822639
0.164388 -0.0890396 0.821414
0.164023 -0.0903721 0.820174
0.163611 -0.0916735 0.818701
0.163185 -0.0929616 0.817155
0.162826 -0.0942838 0.815936
0.162469 -0.0956034 0.814729
0.162085 -0.0969027 0.813388
0.161698 -0.0981954 0.812029
0.161273 -0.0994596 0.810478
0.160827 -0.100705 0.80882
0.160369 -0.101937 0.807098
0.159933 -0.103178 0.805489
0.159566 -0.104458 0.804219
0.159223 -0.105751 0.803067
0.158848 -0.107018 0.801755
0.158553 -0.108336 0.800844
0.158259 -0.109652 0.799938
0.157957 -0.110959 0.798987
0.157672 -0.112276 0.798122
0.157381 -0.113584 0.797224
0.157007 -0.114829 0.795909
0.156659 -0.116089 0.794722
0.156298 -0.117334 0.793468
0.155976 -0.118606 0.79241
0.155691 -0.119902 0.791538
0.155472 -0.121248 0.791
0.155258 -0.122596 0.79048
0.155063 -0.123957 0.79006
0.154819 -0.125278 0.789395
0.154554 -0.126579 0.788618
