ply
format ascii 1.0
element vertex 1783
property float x
property float y
property float z
end_header
0.211577 0.170663 0.758425
0.151829 0.076518 0.738811
0.152445 0.0774074 0.73746
0.153075 0.0783277 0.736214
0.153591 0.0790129 0.734256
0.154143 0.0797752 0.732546
0.154757 0.0806651 0.731236
0.155385 0.0815827 0.730018
0.156016 0.0825077 0.72883
0.156705 0.0835534 0.728007
0.157435 0.0846815 0.727435
0.158159 0.0857978 0.726829
0.158909 0.0869663 0.726376
0.159681 0.0881786 0.726054
0.160427 0.0893381 0.725576
0.161146 0.0904465 0.724948
0.16185 0.0915217 0.724226
0.162576 0.0926433 0.723638
0.163329 0.0938184 0.723207
0.164092 0.0950131 0.722831
0.164897 0.096291 0.72269
0.16574 0.0976468 0.722767
0.166556 0.0989482 0.722684
0.167374 0.100252 0.722604
0.168233 0.101638 0.72275
0.16949 0.103819 0.725096
0.171031 0.106565 0.728974
0.172655 0.109472 0.733258
0.174575 0.112966 0.739102
0.17645 0.116364 0.744628
0.177903 0.11892 0.747817
0.179088 0.12094 0.749529
0.18022 0.122852 0.750929
0.181042 0.124152 0.750674
0.181834 0.12539 0.750251
0.182612 0.126599 0.749752
0.183389 0.127808 0.749253
0.184135 0.128956 0.748595
0.184863 0.130066 0.747836
0.185554 0.131106 0.7469
0.186256 0.132167 0.74602
0.186947 0.133207 0.745091
0.187671 0.134315 0.744336
0.188431 0.135488 0.743754
0.189222 0.136726 0.743338
0.190031 0.138 0.74301
0.19091 0.139405 0.743015
0.191875 0.140982 0.743448
0.192905 0.142684 0.744185
0.193992 0.144498 0.745193
0.195102 0.146353 0.746288
0.196193 0.148172 0.74728
0.197214 0.149854 0.747924
0.198183 0.151432 0.748304
0.199111 0.152933 0.748483
0.200005 0.154363 0.74849
0.200935 0.155866 0.748667
0.201873 0.157382 0.748869
0.202853 0.15898 0.749264
0.20389 0.160687 0.749909
0.204988 0.162511 0.750827
0.206223 0.164599 0.752359
0.207569 0.1669 0.754377
0.20893 0.169224 0.756432
0.21021 0.171395 0.758103
0.150543 0.0772042 0.738473
0.151152 0.0780752 0.73707
0.151779 0.0789856 0.735796
0.152305 0.0796862 0.73389
0.15286 0.0804487 0.732185
0.153475 0.0813376 0.730876
0.154129 0.0823062 0.729813
0.154772 0.0832553 0.728699
0.155464 0.084303 0.727884
0.156193 0.0854285 0.727304
0.156916 0.0865432 0.726692
0.157652 0.0876825 0.726154
0.158421 0.088891 0.72582
0.159165 0.0900461 0.725328
0.159883 0.0911511 0.724692
0.160588 0.0922275 0.723974
0.161313 0.0933462 0.72338
0.162055 0.0944988 0.722884
0.162803 0.0956638 0.722423
0.163596 0.0969191 0.722218
0.164425 0.0982482 0.722218
0.165217 0.0995022 0.722004
0.166031 0.1008 0.721909
0.16686 0.102129 0.721897
0.168302 0.104695 0.725302
0.170037 0.10785 0.730295
0.171881 0.11122 0.735825
0.173808 0.114752 0.741745
0.175692 0.118191 0.747354
0.176916 0.120301 0.749315
0.177903 0.121931 0.74996
0.178865 0.12351 0.75046
0.179686 0.124807 0.750198
0.180478 0.126047 0.749782
0.181272 0.127288 0.749369
0.182065 0.128529 0.748953
0.182842 0.129738 0.748454
0.183587 0.130883 0.747789
0.184282 0.13193 0.746869
0.185003 0.133026 0.74608
0.185708 0.134091 0.745215
0.186417 0.135165 0.744377
0.187175 0.136337 0.743789
0.18798 0.137603 0.743442
0.188774 0.138845 0.743034
0.189633 0.140216 0.742949
0.19056 0.141721 0.743198
0.191547 0.143344 0.743735
0.192596 0.145087 0.744563
0.193684 0.146909 0.745572
0.194756 0.148695 0.746484
0.195811 0.150446 0.747296
0.196796 0.152061 0.747763
0.197731 0.153576 0.747981
0.198626 0.155013 0.748001
0.199536 0.156478 0.748086
0.200417 0.157885 0.748027
0.201353 0.159402 0.748227
0.202346 0.161027 0.74868
0.203381 0.162735 0.749322
0.204538 0.16468 0.750515
0.205944 0.167107 0.752832
0.207404 0.169636 0.755364
0.208813 0.172067 0.757644
0.149251 0.0778754 0.73809
0.149867 0.0787589 0.736728
0.150511 0.0797008 0.735555
0.151052 0.0804284 0.733735
0.15162 0.0812126 0.7321
0.152213 0.082051 0.730639
0.152868 0.0830201 0.72958
0.153501 0.0839432 0.72839
0.154193 0.0849914 0.727578
0.154909 0.0860906 0.72692
0.15563 0.087199 0.726292
0.156351 0.0883075 0.725665
0.157105 0.0894852 0.725241
0.157835 0.0906132 0.724673
0.158554 0.0917178 0.724037
0.159272 0.0928217 0.723401
0.160001 0.0939467 0.722828
0.160744 0.0951014 0.722339
0.16149 0.0962633 0.721872
0.162291 0.0975366 0.721718
0.163107 0.0988414 0.72165
0.1639 0.100098 0.721443
0.164714 0.101399 0.721357
0.165528 0.102698 0.721264
0.167149 0.105647 0.725715
0.169084 0.109231 0.731869
0.171109 0.112993 0.738447
0.173047 0.116573 0.744467
0.174913 0.12 0.750014
0.17591 0.121657 0.750731
0.176706 0.122905 0.750343
0.177502 0.124151 0.749947
0.178325 0.125452 0.749696
0.179134 0.126725 0.74937
0.179943 0.128001 0.749047
0.180739 0.129247 0.748646
0.181547 0.130516 0.748307
0.182309 0.131696 0.747732
0.183023 0.132776 0.746899
0.183762 0.133908 0.746203
0.184483 0.135007 0.745423
0.185196 0.136087 0.744596
0.185954 0.137256 0.744002
0.186745 0.138494 0.743582
0.187524 0.139709 0.743101
0.188366 0.141046 0.742931
0.189261 0.142492 0.743028
0.190212 0.144046 0.743391
0.19122 0.145715 0.74403
0.192283 0.14749 0.744923
0.193333 0.149237 0.745737
0.194384 0.150988 0.746548
0.19537 0.152608 0.747029
0.196318 0.154155 0.747322
0.197199 0.155564 0.747277
0.19809 0.156994 0.747278
0.198948 0.15836 0.74712
0.19986 0.159832 0.747213
0.200813 0.161383 0.74749
0.201806 0.163013 0.747947
0.202912 0.164863 0.748919
0.204374 0.167415 0.751525
0.205929 0.170144 0.754526
0.207492 0.172886 0.757527
0.210165 0.174382 0.759629
0.209018 0.175554 0.760325
0.154975 0.093173 0.816681
0.15287 0.0928986 0.817645
0.153584 0.0939443 0.816382
0.155737 0.0943245 0.81576
0.154304 0.0950051 0.815174
0.15653 0.0955429 0.815055
0.155083 0.0961918 0.814372
0.147915 0.0784509 0.737413
0.148524 0.0793154 0.735998
0.149184 0.0802898 0.734928
0.14974 0.0810428 0.733191
0.15031 0.0818277 0.731563
0.150893 0.0826408 0.730031
0.151558 0.0836298 0.729035
0.15218 0.0845266 0.72777
0.152872 0.0855733 0.726957
0.153587 0.0866689 0.726291
0.154306 0.0877729 0.725652
0.155026 0.0888796 0.725022
0.15578 0.0900584 0.724603
0.156511 0.0911869 0.724039
0.157231 0.0922938 0.723412
0.157962 0.0934246 0.722857
0.158693 0.0945548 0.722299
0.159449 0.095736 0.721888
0.160208 0.0969233 0.721492
0.161018 0.0982182 0.721399
0.161845 0.0995489 0.721403
0.162662 0.100857 0.721338
0.163467 0.102139 0.721199
0.164266 0.103409 0.721024
0.166076 0.106769 0.726594
0.168004 0.110366 0.73276
0.170015 0.114128 0.739313
0.171937 0.1177 0.74529
0.173789 0.121123 0.750803
0.174579 0.122357 0.750379
0.175373 0.123602 0.74998
0.176169 0.12485 0.749589
0.177007 0.126183 0.749424
0.177818 0.12746 0.749109
0.178631 0.128744 0.748808
0.179428 0.129993 0.748414
0.180237 0.131266 0.748083
0.181014 0.132475 0.747584
0.181745 0.13359 0.74684
0.182502 0.134759 0.746239
0.183244 0.135895 0.745555
0.183989 0.137039 0.744893
0.184766 0.138247 0.744395
0.185573 0.139518 0.744054
0.186354 0.140736 0.743579
0.187198 0.142078 0.743417
0.188046 0.14343 0.743275
0.188946 0.144887 0.743391
0.189884 0.146419 0.74369
0.190907 0.14812 0.744396
0.191905 0.149769 0.744967
0.192949 0.151511 0.745756
0.193931 0.153127 0.746226
0.194893 0.154704 0.746594
0.19577 0.156108 0.746536
0.196673 0.157566 0.746604
0.19753 0.15893 0.746444
0.198442 0.160403 0.746542
0.199377 0.161922 0.746742
0.200349 0.163514 0.74711
0.201409 0.165281 0.747881
0.20288 0.16786 0.750551
0.204499 0.170734 0.753883
0.20619 0.173742 0.757496
0.207859 0.176707 0.760975
0.150695 0.0924752 0.818134
0.151457 0.0936223 0.817193
0.152152 0.0946236 0.815791
0.152845 0.0956228 0.814392
0.153565 0.0966789 0.813182
0.154162 0.0974677 0.81114
0.146947 0.0798207 0.73918
0.147123 0.0797436 0.734878
0.14781 0.080775 0.733988
0.148393 0.0815819 0.732421
0.148978 0.082393 0.730878
0.149572 0.0832265 0.729413
0.150236 0.0842112 0.728408
0.150868 0.0851272 0.727204
0.151561 0.0861741 0.726394
0.152267 0.0872497 0.725672
0.152974 0.0883282 0.72496
0.153693 0.0894322 0.724325
0.154425 0.0905627 0.723768
0.155145 0.0916695 0.723144
0.155888 0.0928258 0.722664
0.156644 0.0940081 0.722257
0.15739 0.0951683 0.721787
0.158172 0.0964055 0.721535
0.158955 0.0976463 0.721292
0.159766 0.0989443 0.721206
0.160607 0.100304 0.72129
0.161438 0.101645 0.721315
0.162436 0.103332 0.722297
0.163445 0.105043 0.723328
0.165281 0.108479 0.72908
0.167189 0.112061 0.735174
0.16916 0.115768 0.741546
0.170847 0.118876 0.74624
0.172486 0.121881 0.750607
0.173259 0.123081 0.750088
0.174052 0.124323 0.749683
0.174848 0.125571 0.749293
0.1757 0.126937 0.749213
0.176509 0.128212 0.74889
0.177322 0.129494 0.748586
0.178118 0.130742 0.74819
0.178927 0.132016 0.747859
0.179719 0.133255 0.747438
0.180467 0.134405 0.746785
0.181257 0.135639 0.746351
0.182033 0.136846 0.745848
0.182812 0.138057 0.745354
0.183607 0.139304 0.744951
0.184433 0.140613 0.744702
0.185214 0.141829 0.74422
0.186057 0.14317 0.744051
0.186886 0.144486 0.743813
0.187737 0.145844 0.743681
0.188621 0.147268 0.743707
0.189572 0.14883 0.744068
0.190514 0.15037 0.74437
0.191511 0.152023 0.744938
0.192489 0.153635 0.745399
0.193447 0.155206 0.745753
0.194335 0.156637 0.745761
0.195239 0.158097 0.745838
0.196112 0.159496 0.745762
0.197044 0.161013 0.745962
0.197981 0.16254 0.746182
0.198971 0.164172 0.746643
0.200013 0.165906 0.747336
0.201493 0.168518 0.750078
0.203161 0.171503 0.753658
0.204938 0.174702 0.757705
0.2067 0.177868 0.761639
0.149949 0.0913631 0.819193
0.148535 0.0920881 0.818739
0.149264 0.0931604 0.817556
0.150011 0.0942717 0.816505
0.150677 0.0952043 0.81489
0.151324 0.0960964 0.813158
0.15194 0.096921 0.811228
0.152445 0.0975007 0.808546
0.145964 0.081175 0.740888
0.14576 0.0802472 0.733994
0.146459 0.0813028 0.733181
0.147078 0.0821836 0.731844
0.147666 0.0830002 0.730322
0.148263 0.0838344 0.728863
0.148926 0.0848149 0.727849
0.149571 0.0857558 0.726723
0.150243 0.0867565 0.725779
0.150938 0.0878083 0.724989
0.151644 0.0888831 0.72427
0.152362 0.0899846 0.72363
0.153082 0.09109 0.723003
0.153814 0.0922215 0.722454
0.154569 0.0934035 0.722048
0.155326 0.0945873 0.721648
0.156083 0.095774 0.721255
0.156892 0.0970693 0.721168
0.157704 0.0983721 0.721099
0.158533 0.0997099 0.721124
0.159399 0.101126 0.721363
0.160244 0.102496 0.721466
0.161447 0.104626 0.723664
0.162686 0.106828 0.726034
0.16456 0.11037 0.732045
0.16646 0.113962 0.738135
0.168375 0.117577 0.744226
0.169808 0.120171 0.747502
0.171202 0.122679 0.750514
0.171957 0.123843 0.749901
0.172738 0.125059 0.749426
0.173535 0.12631 0.749043
0.174386 0.127675 0.74896
0.175208 0.128977 0.748708
0.176017 0.130252 0.748383
0.17681 0.131495 0.747975
0.177631 0.132795 0.747713
0.17844 0.134069 0.74738
0.179221 0.135285 0.746898
0.180029 0.136559 0.746565
0.180838 0.137832 0.746227
0.181649 0.139112 0.745904
0.182463 0.140397 0.745594
0.183309 0.141747 0.745446
0.184092 0.142966 0.744966
0.184916 0.144271 0.7447
0.185707 0.145509 0.744266
0.186521 0.146792 0.743944
0.187351 0.148107 0.7437
0.188265 0.149595 0.743876
0.189153 0.151031 0.74392
0.190111 0.152606 0.744299
0.191054 0.154152 0.744598
0.191997 0.155697 0.744889
0.192887 0.157134 0.744913
0.193824 0.158664 0.745158
0.194717 0.160106 0.745186
0.195684 0.161696 0.74556
0.196639 0.163263 0.745872
0.197681 0.165004 0.746588
0.198729 0.166756 0.747321
0.200226 0.169415 0.750161
0.201869 0.172367 0.753654
0.203628 0.175547 0.757648
0.205384 0.17872 0.761587
0.146364 0.0916766 0.819269
0.147077 0.0927083 0.817953
0.147798 0.0937597 0.816708
0.148532 0.094842 0.815567
0.149161 0.095687 0.813682
0.149787 0.0965267 0.811795
0.150349 0.0972263 0.809482
0.150821 0.0977243 0.806559
0.144876 0.0823137 0.741926
0.144358 0.0806597 0.732836
0.145063 0.0817279 0.732067
0.145709 0.0826645 0.730905
0.146321 0.083527 0.729527
0.146921 0.0843671 0.728091
0.147575 0.0853251 0.727015
0.148232 0.0862898 0.725963
0.148915 0.0873134 0.725091
0.149612 0.0883672 0.72431
0.150328 0.089463 0.723655
0.151054 0.0905813 0.723066
0.151771 0.0916817 0.722427
0.152493 0.0927895 0.721811
0.153247 0.0939694 0.721402
0.154014 0.0951786 0.721076
0.154786 0.0963973 0.720775
0.155622 0.0977525 0.720857
0.156462 0.099118 0.720963
0.15733 0.100541 0.721225
0.158212 0.101994 0.72156
0.159271 0.103826 0.722941
0.160697 0.106445 0.726467
0.16218 0.109181 0.730282
0.164078 0.112801 0.736467
0.165956 0.116369 0.742453
0.167581 0.119392 0.746905
0.168764 0.121467 0.748762
0.169936 0.123518 0.750534
0.170708 0.124715 0.750006
0.17149 0.125935 0.74954
0.172302 0.127218 0.749241
0.17314 0.128555 0.749083
0.173946 0.129826 0.748747
0.174738 0.131065 0.748327
0.175516 0.132277 0.747835
0.176323 0.133547 0.747495
0.177147 0.134855 0.747251
0.17796 0.13614 0.746943
0.17879 0.137458 0.746719
0.179629 0.138796 0.746547
0.180488 0.140175 0.746472
0.18132 0.141498 0.746253
0.182168 0.142854 0.746115
0.182966 0.144104 0.74571
0.183773 0.145373 0.745351
0.184517 0.146514 0.744672
0.185278 0.147688 0.744078
0.186042 0.148867 0.743496
0.186884 0.150209 0.743313
0.187718 0.151535 0.743088
0.188635 0.153032 0.743277
0.18956 0.154543 0.743495
0.190517 0.156119 0.743863
0.191427 0.157601 0.743998
0.192399 0.159207 0.744424
0.193328 0.160724 0.744631
0.194328 0.162386 0.745173
0.195315 0.164021 0.745647
0.196408 0.165871 0.746616
0.197528 0.167776 0.747702
0.199029 0.170457 0.750582
0.200647 0.173374 0.753983
0.202369 0.176499 0.757834
0.204093 0.179624 0.761652
0.207257 0.182124 0.766019
0.205853 0.182819 0.765593
0.20871 0.184678 0.768467
0.207264 0.1853 0.767868
0.145608 0.0933025 0.817084
0.146302 0.0942892 0.815638
0.147011 0.095311 0.814313
0.147613 0.0960888 0.812225
0.148216 0.09687 0.810165
0.148748 0.0974931 0.807625
0.149227 0.0979984 0.80474
0.142984 0.0811241 0.731841
0.143683 0.0821785 0.731035
0.144352 0.0831655 0.730031
0.144977 0.0840544 0.728737
0.145591 0.0849208 0.727385
0.146247 0.0858798 0.726315
0.146915 0.0868692 0.725341
0.147599 0.0878919 0.724469
0.148295 0.0889431 0.723683
0.14901 0.0900366 0.723024
0.149736 0.0911556 0.722439
0.150453 0.0922539 0.721797
0.151173 0.0933574 0.721171
0.151927 0.0945383 0.720766
0.152706 0.0957736 0.720515
0.15349 0.0970194 0.720292
0.154351 0.0984321 0.720536
0.155218 0.0998593 0.720813
0.156112 0.101343 0.72124
0.157006 0.102825 0.721655
0.158275 0.105122 0.72431
0.159922 0.108237 0.729183
0.161641 0.1115 0.734411
0.163542 0.115152 0.740646
0.165378 0.118654 0.746417
0.166754 0.121159 0.749441
0.167705 0.122744 0.749963
0.168667 0.12435 0.750533
0.169455 0.125584 0.750103
0.170237 0.126803 0.749632
0.17105 0.12809 0.749341
0.171873 0.129396 0.749099
0.172666 0.130638 0.748685
0.173443 0.131847 0.748186
0.17422 0.133056 0.747687
0.175013 0.134298 0.747274
0.175853 0.13564 0.747115
0.176685 0.136964 0.74691
0.177531 0.138318 0.746777
0.178389 0.139699 0.746708
0.179277 0.14114 0.746788
0.180126 0.142499 0.746657
0.180992 0.143893 0.746612
0.181807 0.14518 0.746295
0.182613 0.146449 0.74593
0.183326 0.147521 0.74508
0.184053 0.148623 0.744304
0.184781 0.149728 0.74354
0.185557 0.150933 0.74302
0.186339 0.15215 0.742532
0.187232 0.1536 0.742607
0.188135 0.155069 0.742723
0.189092 0.156651 0.743105
0.190051 0.158236 0.743485
0.19106 0.159923 0.744102
0.192023 0.161513 0.744483
0.193039 0.163214 0.745115
0.194041 0.164885 0.745668
0.195167 0.166809 0.746808
0.196341 0.168832 0.748162
0.197812 0.171465 0.750921
0.199404 0.174343 0.754222
0.201092 0.177417 0.757942
0.202765 0.180455 0.761548
0.204432 0.183476 0.76508
0.205818 0.185918 0.767262
0.208621 0.187669 0.769869
0.207128 0.188202 0.769062
0.14408 0.093752 0.815759
0.144762 0.0947068 0.814219
0.145457 0.0956941 0.812793
0.146048 0.0964403 0.810618
0.146641 0.0971923 0.808477
0.147174 0.0978098 0.805934
0.147683 0.0983734 0.803243
0.14165 0.081675 0.731113
0.142339 0.0827049 0.730236
0.143021 0.08372 0.72932
0.143668 0.0846547 0.728168
0.144283 0.085521 0.72682
0.144941 0.0864822 0.72576
0.14562 0.0874934 0.724853
0.146303 0.0885141 0.723977
0.146989 0.089541 0.723123
0.147707 0.0906413 0.722485
0.148423 0.0917356 0.721832
0.149141 0.0928356 0.721196
0.14986 0.0939384 0.72057
0.150625 0.0951428 0.720234
0.151416 0.0964058 0.720062
0.152213 0.0976814 0.719924
0.153086 0.0991253 0.720253
0.153963 0.100577 0.720598
0.154857 0.102063 0.72103
0.155737 0.10352 0.721373
0.157207 0.106273 0.725273
0.159071 0.109887 0.731491
0.161029 0.113698 0.738188
0.162914 0.117341 0.744363
0.164728 0.120819 0.750033
0.165867 0.12282 0.751675
0.166616 0.123966 0.751009
0.167374 0.125136 0.750406
0.168166 0.126377 0.749995
0.168961 0.127623 0.749596
0.169772 0.128905 0.749291
0.170579 0.13018 0.748964
0.171371 0.131419 0.748545
0.172147 0.132626 0.74804
0.17291 0.133805 0.747463
0.173703 0.135047 0.747047
0.174542 0.136388 0.746886
0.175373 0.137712 0.746678
0.176234 0.139101 0.746634
0.177109 0.140517 0.746654
0.177998 0.141966 0.746751
0.178864 0.143362 0.746711
0.179743 0.144786 0.746738
0.18056 0.146078 0.746432
0.181355 0.147323 0.746006
0.182083 0.148426 0.74523
0.182794 0.149492 0.744366
0.183503 0.150555 0.743499
0.184246 0.151691 0.74281
0.185008 0.152865 0.742218
0.185868 0.154248 0.742128
0.186751 0.155679 0.742153
0.187707 0.157261 0.742533
0.188697 0.158916 0.743082
0.189724 0.160646 0.7438
0.190721 0.162311 0.744356
0.191769 0.164083 0.745152
0.192804 0.165826 0.745872
0.193947 0.167794 0.747106
0.195174 0.169933 0.748725
0.196643 0.172576 0.751496
0.198213 0.175424 0.754714
0.199853 0.178416 0.758236
0.201479 0.181374 0.761646
0.203085 0.184286 0.764918
0.20443 0.186654 0.766924
0.205697 0.18886 0.768544
0.208415 0.190437 0.770736
0.206958 0.191049 0.770109
0.142517 0.0941077 0.814141
0.143208 0.0950811 0.812671
0.143934 0.0961358 0.811466
0.144526 0.0968793 0.809292
0.145109 0.0976031 0.807074
0.145635 0.0981951 0.804464
0.14616 0.098788 0.801876
0.140699 0.0831067 0.733041
0.141078 0.0834173 0.729999
0.141761 0.084432 0.729082
0.142408 0.0853667 0.727933
0.143014 0.0862047 0.726503
0.143651 0.0871173 0.725303
0.144319 0.0881011 0.724317
0.14498 0.0890689 0.72329
0.145664 0.0900917 0.722427
0.146394 0.0912178 0.721867
0.147102 0.0922957 0.721169
0.147843 0.0934474 0.720684
0.148584 0.0945991 0.720199
0.14935 0.0958071 0.719873
0.150144 0.0970766 0.71972
0.150964 0.098405 0.719729
0.151836 0.0998495 0.720058
0.152711 0.1013 0.720397
0.15359 0.102758 0.720749
0.154454 0.104184 0.721004
0.156113 0.107376 0.726098
0.157989 0.111045 0.732443
0.159938 0.114865 0.739141
0.161814 0.118518 0.745318
0.16361 0.121984 0.750934
0.164547 0.123547 0.75139
0.165324 0.124754 0.750888
0.166101 0.125963 0.750391
0.166906 0.127233 0.750054
0.167714 0.12851 0.749734
0.168523 0.129787 0.749415
0.169302 0.131 0.748926
0.170091 0.132234 0.748491
0.170852 0.133408 0.747899
0.171601 0.134555 0.747239
0.172392 0.135795 0.746818
0.173215 0.137102 0.746571
0.174042 0.138419 0.746345
0.174888 0.139776 0.746218
0.175747 0.141161 0.746159
0.176635 0.14261 0.746256
0.177514 0.144036 0.746291
0.178395 0.145468 0.746338
0.179229 0.146796 0.746119
0.180039 0.148073 0.745775
0.180768 0.149178 0.745006
0.181479 0.150244 0.744141
0.182189 0.151307 0.743275
0.182933 0.152442 0.742586
0.183694 0.153617 0.741994
0.184554 0.155 0.741904
0.185436 0.156432 0.741929
0.18639 0.158014 0.742308
0.187396 0.159706 0.742942
0.188439 0.161475 0.74375
0.189471 0.16322 0.744489
0.190536 0.165031 0.745375
0.191606 0.166853 0.746274
0.192748 0.168825 0.747511
0.19399 0.171007 0.749221
0.19544 0.173623 0.75192
0.196968 0.1764 0.754963
0.198549 0.179283 0.758221
0.200129 0.182161 0.761438
0.201657 0.184927 0.764369
0.202941 0.187179 0.766109
0.204181 0.189336 0.767617
0.205433 0.191518 0.769161
0.140996 0.094552 0.812813
0.141685 0.0955158 0.811321
0.142413 0.0965756 0.81014
0.143035 0.0973832 0.808177
0.143609 0.0980769 0.805874
0.14416 0.0987199 0.803433
0.144686 0.0993073 0.800839
0.139753 0.0845676 0.735046
0.139837 0.0841768 0.729902
0.140531 0.0852167 0.729061
0.141201 0.0861985 0.728052
0.141806 0.0870333 0.726614
0.142422 0.0878927 0.725258
0.143056 0.0887956 0.724037
0.143692 0.0897029 0.722836
0.144352 0.0906675 0.721807
0.145081 0.0917923 0.721245
0.145791 0.0928729 0.720558
0.146555 0.0940778 0.720226
0.147309 0.0952586 0.719825
0.148098 0.0965212 0.719654
0.148905 0.0978231 0.719591
0.149739 0.0991853 0.719693
0.150597 0.100602 0.719941
0.151457 0.102021 0.720189
0.152319 0.103444 0.720442
0.153349 0.105247 0.721733
0.155182 0.108856 0.727949
0.157069 0.112576 0.734407
0.159007 0.116404 0.741095
0.160857 0.120024 0.747158
0.162447 0.123056 0.75158
0.163226 0.124268 0.751092
0.164032 0.125541 0.750766
0.164838 0.126815 0.750439
0.165657 0.128117 0.750185
0.166466 0.129397 0.749871
0.16726 0.130643 0.749467
0.168025 0.131825 0.748896
0.168797 0.133022 0.748364
0.169543 0.134161 0.747684
0.170291 0.135305 0.747016
0.171068 0.136514 0.746517
0.171874 0.137786 0.746178
0.172683 0.139064 0.745854
0.173509 0.14038 0.745622
0.17435 0.141728 0.745471
0.175223 0.143145 0.74549
0.176099 0.144568 0.745519
0.176978 0.145998 0.745559
0.177813 0.147329 0.745353
0.178638 0.148641 0.745094
0.179397 0.149809 0.744483
0.180127 0.150913 0.743714
0.180857 0.152018 0.742951
0.181617 0.153191 0.742353
0.182397 0.154403 0.741852
0.183257 0.15579 0.741771
0.184156 0.157259 0.741883
0.18511 0.158844 0.742268
0.18613 0.160571 0.742979
0.187172 0.162344 0.743793
0.188237 0.164164 0.744704
0.18932 0.16602 0.745689
0.19044 0.167954 0.746845
0.1916 0.169972 0.748183
0.192856 0.172193 0.749976
0.19425 0.174702 0.752415
0.195735 0.177403 0.755273
0.197254 0.180171 0.758255
0.198775 0.18294 0.761213
0.200241 0.185591 0.763875
0.201533 0.187869 0.765671
0.202749 0.189985 0.767081
0.203998 0.192168 0.768624
0.139545 0.0951581 0.812003
0.140222 0.0960892 0.810414
0.140944 0.0971296 0.809177
0.141572 0.0979471 0.807254
0.142114 0.0985556 0.804696
0.142676 0.0992181 0.802324
0.143202 0.0997963 0.799712
0.14419 0.097483 0.790874
0.143039 0.0987251 0.792081
0.138809 0.0860544 0.737115
0.138618 0.0849903 0.729965
0.139359 0.0861374 0.729443
0.140053 0.0871761 0.7286
0.140684 0.0880653 0.727322
0.141309 0.0889401 0.726008
0.141928 0.089805 0.724674
0.142516 0.0905976 0.723139
0.143151 0.0915004 0.721931
0.143857 0.092569 0.721207
0.144546 0.0936 0.720377
0.145311 0.0948087 0.720055
0.146077 0.0960171 0.719732
0.146881 0.0973152 0.71966
0.14769 0.0986228 0.71961
0.148524 0.0999875 0.719716
0.149356 0.101348 0.719806
0.150189 0.102709 0.71989
0.1512 0.104477 0.721091
0.152421 0.106723 0.723589
0.154259 0.110372 0.729887
0.156142 0.114113 0.736371
0.158044 0.117888 0.742888
0.159706 0.12111 0.747854
0.161105 0.123729 0.751154
0.161914 0.125011 0.750851
0.162736 0.126322 0.750625
0.163556 0.127628 0.750382
0.164377 0.128936 0.750143
0.165186 0.130215 0.749826
0.165969 0.131436 0.749357
0.166732 0.132612 0.748769
0.167502 0.133805 0.748226
0.168233 0.134911 0.74746
0.168981 0.136055 0.746792
0.169758 0.137264 0.746293
0.170549 0.138503 0.745872
0.171341 0.139745 0.745455
0.172149 0.141021 0.745125
0.172958 0.1423 0.7448
0.173797 0.143645 0.744637
0.174655 0.14503 0.744574
0.175518 0.146427 0.744535
0.176335 0.147723 0.744242
0.177174 0.149065 0.744063
0.177966 0.150306 0.743632
0.17873 0.151484 0.743047
0.179494 0.152664 0.74247
0.180303 0.15394 0.742123
0.18113 0.155257 0.741874
0.182009 0.156685 0.741889
0.182927 0.158199 0.742104
0.183894 0.159815 0.742558
0.184912 0.161543 0.74327
0.185936 0.163282 0.743996
0.187016 0.165141 0.744994
0.188118 0.167044 0.746085
0.189257 0.169027 0.747347
0.190433 0.171086 0.748772
0.191702 0.173343 0.750641
0.193056 0.17578 0.752903
0.194498 0.178402 0.755568
0.195969 0.181083 0.758343
0.197427 0.183732 0.761018
0.198833 0.186267 0.763412
0.200119 0.188544 0.765198
0.201332 0.190661 0.766606
0.202581 0.192855 0.768172
0.205243 0.194342 0.770133
0.203846 0.195079 0.76979
0.138816 0.0967941 0.809924
0.139505 0.0977531 0.808437
0.140149 0.0986019 0.806617
0.140682 0.0991803 0.803974
0.141245 0.0998373 0.801593
0.141736 0.100321 0.7987
0.141886 0.0999774 0.793311
0.13798 0.0872014 0.734183
0.138465 0.0877318 0.731814
0.138928 0.088214 0.729321
0.139632 0.0892723 0.728536
0.140325 0.0903049 0.727679
0.140956 0.0911918 0.726403
0.141508 0.0918929 0.724597
0.142095 0.0926777 0.723044
0.142741 0.0936049 0.721909
0.143374 0.094501 0.720691
0.144129 0.0956846 0.720296
0.144884 0.0968699 0.719905
0.14569 0.0981719 0.71984
0.146487 0.0994546 0.719718
0.147308 0.100791 0.719744
0.148114 0.102093 0.719666
0.149104 0.103822 0.720766
0.150303 0.106032 0.72317
0.151745 0.108801 0.72708
0.153598 0.112512 0.73351
0.155477 0.116273 0.740016
0.157124 0.11949 0.744991
0.158556 0.122207 0.748574
0.15975 0.124374 0.750651
0.160575 0.125693 0.750449
0.161412 0.127039 0.750315
0.162246 0.128376 0.750154
0.163066 0.129683 0.749912
0.163875 0.130963 0.749598
0.164657 0.132184 0.749127
0.165405 0.133327 0.748453
0.166176 0.13452 0.747911
0.166894 0.135595 0.747066
0.167643 0.13674 0.746403
0.16842 0.13795 0.745908
0.169211 0.13919 0.745488
0.16999 0.140402 0.744995
0.170794 0.141672 0.74465
0.171586 0.142914 0.744233
0.172394 0.144191 0.743903
0.173232 0.145536 0.74374
0.174075 0.146888 0.743593
0.174876 0.148149 0.743217
0.175714 0.149493 0.743044
0.176537 0.150802 0.742782
0.177336 0.152059 0.742393
0.17815 0.153347 0.742078
0.179021 0.154761 0.742064
0.179897 0.156186 0.742075
0.180795 0.15766 0.742196
0.181745 0.159244 0.742577
0.182726 0.160896 0.74311
0.183727 0.162592 0.743739
0.184748 0.16433 0.744457
0.185841 0.166223 0.745529
0.186943 0.168134 0.74663
0.188084 0.170127 0.747908
0.189261 0.172197 0.749353
0.190528 0.174459 0.751222
0.191844 0.176826 0.753314
0.193242 0.179365 0.75578
0.19465 0.181925 0.75827
0.196063 0.184491 0.760749
0.197411 0.186913 0.762878
0.198676 0.189155 0.764581
0.199872 0.191244 0.765925
0.20114 0.193486 0.767596
0.20242 0.195753 0.769304
0.136755 0.0966336 0.811223
0.137446 0.0975889 0.809717
0.13811 0.0984803 0.808022
0.138732 0.0992681 0.806018
0.139253 0.0998078 0.803263
0.139796 0.100405 0.800708
0.140256 0.100802 0.797561
0.14069 0.101139 0.794256
0.138183 0.0908357 0.738625
0.138436 0.0907923 0.734561
0.138975 0.0914468 0.732571
0.139445 0.0919378 0.730119
0.140235 0.0932016 0.729923
0.140956 0.0942984 0.729244
0.141478 0.0949202 0.727204
0.142029 0.0956128 0.725381
0.142621 0.0964052 0.723853
0.143133 0.0970096 0.721804
0.143666 0.0976638 0.719909
0.144481 0.0989918 0.719916
0.145288 0.100298 0.719858
0.146115 0.101651 0.719926
0.146896 0.102895 0.719687
0.148055 0.10503 0.721895
0.149452 0.107715 0.725588
0.151104 0.110995 0.730865
0.152966 0.114755 0.737393
0.154796 0.118429 0.743626
0.156194 0.121091 0.747075
0.157401 0.123301 0.74928
0.1584 0.125025 0.750167
0.159239 0.12638 0.75006
0.160089 0.127757 0.750009
0.160934 0.129122 0.749921
0.161753 0.130426 0.749671
0.162547 0.131675 0.749273
0.163328 0.132892 0.748794
0.164063 0.134004 0.748041
0.16482 0.135166 0.747421
0.165525 0.13621 0.746497
0.166274 0.137354 0.745834
0.167051 0.138564 0.74534
0.167844 0.13981 0.744935
0.168637 0.141053 0.744524
0.169442 0.142326 0.744188
0.170233 0.143567 0.743767
0.171025 0.144809 0.743351
0.171846 0.146116 0.743094
0.172655 0.147397 0.742772
0.173464 0.148677 0.742445
0.174317 0.150054 0.742355
0.17516 0.151408 0.742205
0.175992 0.15274 0.741998
0.176851 0.15413 0.741931
0.177755 0.155621 0.7421
0.178666 0.157125 0.742298
0.179586 0.158648 0.742534
0.180565 0.160302 0.743075
0.18156 0.16199 0.743686
0.182559 0.163684 0.744306
0.183597 0.165465 0.745118
0.184718 0.167425 0.74634
0.18582 0.169342 0.747447
0.186942 0.171301 0.748639
0.188099 0.173336 0.749992
0.189314 0.175494 0.751615
0.190577 0.177756 0.753457
0.191937 0.180227 0.75576
0.193306 0.182712 0.75807
0.194676 0.185198 0.760362
0.195999 0.187577 0.762388
0.197241 0.189779 0.763998
0.198451 0.191908 0.765428
0.199735 0.194195 0.767194
0.201033 0.19651 0.769005
0.134676 0.0964347 0.812404
0.135346 0.0973332 0.810714
0.136035 0.0982778 0.809179
0.136683 0.0991241 0.807349
0.137295 0.0998792 0.805251
0.137814 0.100405 0.802462
0.138347 0.100967 0.799809
0.138811 0.101364 0.796671
0.139251 0.101701 0.793379
0.140303 0.0994601 0.784887
0.139187 0.100787 0.786345
0.138176 0.0939956 0.7416
0.138522 0.0941627 0.738159
0.13881 0.0941946 0.734354
0.1394 0.0949691 0.732724
0.14034 0.0965955 0.733552
0.14104 0.0976363 0.732694
0.141764 0.0987387 0.732014
0.142514 0.0999015 0.731507
0.143476 0.100935 0.726868
0.144043 0.101663 0.725164
0.144579 0.102318 0.723267
0.145128 0.103007 0.721478
0.145839 0.104084 0.72077
0.147188 0.106681 0.724236
0.148796 0.109887 0.729326
0.15066 0.11369 0.735992
0.152483 0.117388 0.74231
0.154074 0.120526 0.747057
0.155245 0.122665 0.749079
0.156232 0.124371 0.74992
0.15704 0.125653 0.749623
0.157891 0.127036 0.749591
0.15874 0.128413 0.749539
0.159584 0.129779 0.749454
0.160402 0.131082 0.749199
0.161194 0.132326 0.748792
0.161973 0.133538 0.7483
0.162708 0.13465 0.747549
0.163452 0.135781 0.746849
0.164154 0.136817 0.74591
0.164901 0.137958 0.74524
0.165678 0.139165 0.744739
0.166487 0.140448 0.74443
0.167295 0.141729 0.744115
0.168116 0.143038 0.74387
0.168922 0.144313 0.743535
0.169701 0.145525 0.743045
0.170506 0.146799 0.742705
0.171299 0.148041 0.742288
0.172092 0.149288 0.74188
0.172945 0.150666 0.741793
0.173803 0.152057 0.741734
0.174651 0.153427 0.741618
0.175541 0.154888 0.741721
0.17649 0.156483 0.74214
0.177422 0.158037 0.742454
0.178359 0.159602 0.742786
0.17935 0.161288 0.743398
0.180358 0.16301 0.744085
0.181375 0.164749 0.744805
0.182433 0.166579 0.745726
0.183572 0.168585 0.747049
0.184686 0.170537 0.74823
0.185802 0.17249 0.749399
0.186936 0.174481 0.750642
0.188113 0.176563 0.752082
0.189321 0.178714 0.753663
0.190642 0.181111 0.755787
0.191973 0.183526 0.75793
0.193307 0.185945 0.760065
0.194626 0.188326 0.762091
0.195894 0.190595 0.763845
0.197135 0.192799 0.765437
0.198433 0.195128 0.767292
0.199748 0.19749 0.769199
0.133948 0.098057 0.810283
0.134649 0.0990303 0.808841
0.135297 0.0998689 0.806992
0.135877 0.100536 0.804628
0.136406 0.101077 0.801894
0.136928 0.101602 0.799134
0.1374 0.102005 0.796026
0.137847 0.102347 0.792761
0.138083 0.102162 0.787935
0.139153 0.0999606 0.779634
0.138343 0.102045 0.783358
0.137943 0.0966194 0.742961
0.138219 0.0966014 0.738997
0.138837 0.097435 0.737518
0.141081 0.101587 0.741672
0.143864 0.105017 0.732283
0.144122 0.104985 0.728451
0.144581 0.105447 0.726014
0.145245 0.106405 0.724957
0.146588 0.109002 0.728392
0.148387 0.112689 0.73476
0.150229 0.116467 0.741315
0.151808 0.119606 0.74608
0.153154 0.122181 0.749282
0.1541 0.123794 0.749878
0.154899 0.125058 0.749534
0.155705 0.126336 0.749225
0.156553 0.127714 0.749179
0.157401 0.129091 0.749127
0.158247 0.130462 0.749055
0.159052 0.131738 0.748732
0.159843 0.132979 0.748316
0.160606 0.134156 0.747734
0.161328 0.135234 0.7469
0.162058 0.136333 0.746122
0.162773 0.137396 0.745253
0.163516 0.138528 0.744562
0.164306 0.139767 0.744145
0.165129 0.141082 0.743919
0.165955 0.142405 0.743708
0.16679 0.143749 0.743548
0.167612 0.14506 0.743306
0.168391 0.146274 0.742819
0.169183 0.147517 0.742404
0.16996 0.148726 0.741905
0.170753 0.14997 0.741491
0.171604 0.15135 0.741406
0.172465 0.152748 0.741364
0.173326 0.154148 0.741322
0.174243 0.155675 0.741581
0.175222 0.157341 0.742167
0.176171 0.158937 0.742577
0.177137 0.160572 0.743072
0.178157 0.162326 0.743843
0.179193 0.164118 0.744688
0.18023 0.165908 0.745521
0.181324 0.167823 0.746635
0.182468 0.169851 0.747999
0.183582 0.171808 0.749181
0.184664 0.173691 0.750182
0.18576 0.175603 0.751235
0.186895 0.177601 0.752474
0.188062 0.179669 0.75386
0.189342 0.181986 0.755794
0.190652 0.184365 0.75785
0.191967 0.186755 0.759908
0.193283 0.189141 0.76194
0.194566 0.191452 0.763786
0.195857 0.193778 0.765642
0.197193 0.196199 0.767694
0.198528 0.198617 0.769718
0.202529 0.20305 0.778145
0.199782 0.200852 0.771318
0.132508 0.0986701 0.809508
0.133225 0.0996829 0.808194
0.133887 0.100552 0.806444
0.13447 0.101216 0.804078
0.135023 0.101809 0.801514
0.135548 0.102332 0.798753
0.136027 0.10274 0.795668
0.136481 0.103088 0.792428
0.136996 0.103599 0.789703
0.137513 0.104118 0.787022
0.138022 0.100047 0.746608
0.138677 0.100959 0.74532
0.144501 0.109073 0.733791
0.14513 0.109939 0.732447
0.146441 0.112468 0.735651
0.14804 0.115695 0.740718
0.149611 0.118842 0.745519
0.150929 0.12137 0.748605
0.152041 0.123393 0.750306
0.152791 0.124537 0.74964
0.153578 0.125772 0.749218
0.154369 0.127015 0.748819
0.155212 0.128384 0.748749
0.156059 0.129761 0.748697
0.156908 0.131142 0.74865
0.157715 0.132423 0.748339
0.158517 0.13369 0.747994
0.159279 0.134862 0.747398
0.16 0.135939 0.746563
0.160731 0.137039 0.745789
0.161461 0.138135 0.745005
0.162205 0.139267 0.744316
0.162995 0.140508 0.743903
0.163818 0.141825 0.74368
0.164645 0.143152 0.74348
0.165482 0.144501 0.743332
0.166303 0.145812 0.743088
0.167082 0.147024 0.742597
0.167873 0.148267 0.74218
0.168651 0.149476 0.741681
0.169442 0.150719 0.741265
0.170293 0.152098 0.741178
0.171165 0.153525 0.741204
0.172042 0.154963 0.741253
0.172988 0.15656 0.741677
0.173982 0.158265 0.742353
0.174944 0.159896 0.742842
0.17591 0.161535 0.743342
0.176943 0.163326 0.744193
0.177982 0.165128 0.745058
0.179052 0.166998 0.746073
0.180179 0.168997 0.747374
0.181356 0.171107 0.74892
0.182469 0.17307 0.750109
0.183534 0.17492 0.751023
0.184595 0.17676 0.751904
0.185679 0.17865 0.752888
0.186776 0.180567 0.753923
0.187996 0.182758 0.755566
0.189277 0.185087 0.7575
0.190572 0.18744 0.759473
0.191905 0.189878 0.761616
0.193242 0.192321 0.763749
0.194606 0.19482 0.765987
0.195985 0.197349 0.768267
0.197339 0.19982 0.7704
0.131011 0.0991274 0.808252
0.131745 0.100179 0.807065
0.132448 0.101152 0.805644
0.133035 0.101821 0.8033
0.133604 0.102443 0.800834
0.134133 0.102968 0.79809
0.134618 0.103379 0.795023
0.135076 0.103724 0.791784
0.135592 0.104227 0.789043
0.136077 0.104653 0.786095
0.137802 0.104058 0.782647
0.136618 0.10523 0.783616
0.138144 0.104142 0.778731
0.137241 0.106021 0.781786
0.138355 0.103899 0.773887
0.137751 0.106522 0.77912
0.142143 0.107445 0.752117
0.141098 0.109585 0.759751
0.142021 0.111162 0.760285
0.144401 0.112729 0.741608
0.145011 0.113533 0.740062
0.146119 0.115573 0.741888
0.147445 0.118147 0.745143
0.148743 0.120645 0.748157
0.149821 0.122595 0.749668
0.150722 0.124111 0.75
0.15146 0.125224 0.749256
0.152247 0.126459 0.748835
0.153035 0.127697 0.748421
0.153863 0.129031 0.74826
0.154708 0.130406 0.748202
0.155558 0.131791 0.748166
0.156367 0.133077 0.747871
0.157181 0.134375 0.747603
0.157952 0.13557 0.74707
0.158688 0.13668 0.746317
0.159423 0.137788 0.745565
0.160182 0.138955 0.744962
0.16093 0.140094 0.74429
0.16172 0.141335 0.743877
0.162529 0.14262 0.743571
0.163353 0.143941 0.743357
0.164202 0.145319 0.74328
0.165023 0.146632 0.743038
0.165802 0.147846 0.74255
0.166605 0.149116 0.742199
0.167395 0.150354 0.74177
0.168174 0.151567 0.741279
0.169052 0.153011 0.741349
0.169939 0.154475 0.741461
0.170832 0.155953 0.741601
0.17178 0.157559 0.742043
0.17276 0.159237 0.742648
0.173706 0.160835 0.743055
0.17467 0.162471 0.743546
0.175704 0.16427 0.744409
0.176761 0.16612 0.745382
0.177876 0.168101 0.746649
0.179018 0.170142 0.748042
0.180206 0.172287 0.749659
0.181334 0.17429 0.750933
0.182396 0.17614 0.751841
0.183428 0.177919 0.752573
0.184477 0.179735 0.753383
0.185535 0.181571 0.754227
0.1867 0.183646 0.755599
0.18794 0.18589 0.757339
0.189228 0.188241 0.759299
0.190576 0.190725 0.761538
0.191968 0.193304 0.763968
0.193393 0.195954 0.76653
0.194812 0.198585 0.769027
0.196167 0.201068 0.771178
0.129596 0.0997943 0.807651
0.13033 0.100843 0.806461
0.131043 0.101841 0.805119
0.131646 0.102542 0.80288
0.13223 0.103197 0.800519
0.132754 0.103695 0.797701
0.133232 0.104076 0.794552
0.13369 0.104408 0.791283
0.134195 0.104871 0.788432
0.134682 0.105291 0.785472
0.135239 0.1059 0.783097
0.135877 0.106723 0.781368
0.136563 0.107677 0.780031
0.137596 0.105323 0.771515
0.136634 0.107027 0.774037
0.137638 0.10464 0.765474
0.13692 0.106949 0.769752
0.138641 0.104878 0.75421
0.137971 0.103937 0.755455
0.13766 0.107246 0.762584
0.138193 0.107821 0.760262
0.140137 0.107913 0.758938
0.13938 0.110082 0.762748
0.140301 0.111657 0.763265
0.141242 0.113278 0.763901
0.142593 0.111851 0.758313
0.142 0.114432 0.76322
0.143175 0.11257 0.75644
0.142754 0.115578 0.762518
0.143521 0.112701 0.752941
0.143317 0.116239 0.760468
0.144203 0.116214 0.748912
0.144809 0.116998 0.747279
0.145673 0.118429 0.747414
0.146767 0.120437 0.749101
0.147837 0.122379 0.750593
0.148706 0.123817 0.750716
0.149416 0.124861 0.749783
0.150153 0.125972 0.749033
0.150928 0.127178 0.748536
0.151704 0.128384 0.748038
0.152529 0.129713 0.747862
0.153373 0.131087 0.747801
0.154222 0.132474 0.747772
0.155044 0.133792 0.747558
0.15587 0.135122 0.747372
0.156644 0.136323 0.746855
0.157395 0.137468 0.746193
0.158146 0.138615 0.745538
0.158923 0.139822 0.745037
0.159686 0.140997 0.744456
0.160476 0.142238 0.744039
0.161282 0.143515 0.743714
0.162102 0.144827 0.743474
0.162963 0.146238 0.743474
0.163773 0.147524 0.743166
0.164552 0.148739 0.742678
0.165354 0.150006 0.742318
0.16617 0.151306 0.74204
0.166953 0.152528 0.741569
0.167863 0.154051 0.741825
0.168779 0.155587 0.742105
0.169687 0.157102 0.74233
0.17061 0.158652 0.742631
0.171573 0.160295 0.743149
0.172502 0.161855 0.743459
0.173446 0.163452 0.743852
0.17448 0.165256 0.744723
0.175551 0.167145 0.745782
0.176682 0.169171 0.747146
0.177838 0.171251 0.748623
0.179038 0.173434 0.750318
0.180165 0.175441 0.751595
0.181227 0.177298 0.75251
0.182256 0.179074 0.753232
0.183303 0.180891 0.754036
0.184328 0.182657 0.754712
0.185454 0.184653 0.755901
0.186672 0.186855 0.757537
0.187938 0.189168 0.759405
0.189287 0.191665 0.761666
0.190746 0.19441 0.764456
0.192208 0.197158 0.767226
0.193646 0.199847 0.769841
0.194996 0.20233 0.771977
0.12817 0.100429 0.806953
0.128914 0.101503 0.805843
0.129633 0.102512 0.804541
0.130257 0.103262 0.802458
0.130854 0.103942 0.80018
0.131392 0.104467 0.797449
0.13186 0.104808 0.79419
0.132309 0.105103 0.790818
0.132806 0.105532 0.787873
0.133308 0.105981 0.785009
0.133872 0.1066 0.782668
0.134526 0.107459 0.781047
0.135213 0.108411 0.779708
0.135494 0.108289 0.775263
0.135993 0.108752 0.772543
0.137166 0.106773 0.765218
0.136476 0.109175 0.769728
0.137009 0.109735 0.767328
0.137582 0.110402 0.765248
0.138507 0.111989 0.765792
0.139201 0.112976 0.764631
0.139929 0.114051 0.763727
0.140647 0.115101 0.762752
0.141349 0.116112 0.761676
0.142096 0.117237 0.760923
0.143601 0.116195 0.756488
0.142594 0.117724 0.758409
0.143818 0.11599 0.752093
0.143077 0.118177 0.755824
0.143705 0.119006 0.754282
0.144354 0.119889 0.752896
0.145001 0.120767 0.751507
0.14587 0.122211 0.751649
0.146714 0.12359 0.751611
0.147397 0.124562 0.750484
0.148108 0.125606 0.749554
0.148847 0.12672 0.74881
0.149622 0.127926 0.748312
0.150397 0.129132 0.747815
0.151222 0.13046 0.747637
0.152052 0.131804 0.747496
0.152887 0.133157 0.747376
0.153697 0.134446 0.747089
0.154523 0.135777 0.746905
0.155311 0.137012 0.746477
0.156103 0.138259 0.746077
0.156884 0.139478 0.745604
0.157687 0.14075 0.745266
0.158463 0.141956 0.744759
0.159239 0.143162 0.744254
0.16003 0.144404 0.743838
0.160861 0.145745 0.743666
0.161751 0.147226 0.74384
0.162566 0.148526 0.74356
0.163363 0.149781 0.74317
0.164187 0.151101 0.742937
0.165018 0.152439 0.742745
0.165809 0.15368 0.742316
0.16674 0.155255 0.742693
0.167672 0.156831 0.743061
0.168565 0.158315 0.743207
0.169468 0.159819 0.743393
0.170401 0.161395 0.743743
0.17131 0.162912 0.743946
0.17225 0.164501 0.744315
0.173281 0.166304 0.745178
0.174353 0.168201 0.74625
0.175485 0.17024 0.747637
0.176653 0.172358 0.749193
0.177853 0.174549 0.750899
0.178977 0.176559 0.752173
0.18004 0.178423 0.7531
0.181069 0.180205 0.753828
0.182113 0.182021 0.754625
0.18312 0.183747 0.755206
0.184229 0.18571 0.756313
0.185414 0.187847 0.757795
0.186676 0.190159 0.759656
0.188019 0.192657 0.761909
0.189494 0.195454 0.764803
0.190952 0.198206 0.767574
0.192383 0.200894 0.770175
0.193688 0.203285 0.772104
0.126759 0.101098 0.806365
0.127508 0.102185 0.805299
0.128233 0.103206 0.804037
0.128877 0.104006 0.802111
0.129468 0.104659 0.799755
0.130018 0.105206 0.797098
0.130478 0.105511 0.79374
0.13093 0.105799 0.790356
0.131431 0.106228 0.78742
0.131961 0.106742 0.784755
0.132532 0.10737 0.782446
0.133199 0.108259 0.780918
0.133876 0.109178 0.779485
0.134363 0.109591 0.776597
0.135089 0.110648 0.775584
0.135807 0.111682 0.774512
0.136381 0.112337 0.772365
0.136962 0.113012 0.770288
0.137662 0.114005 0.769126
0.13813 0.114387 0.766251
0.138652 0.114919 0.763815
0.139336 0.115877 0.762587
0.140001 0.116785 0.761226
0.140717 0.11783 0.760251
0.141396 0.11878 0.759019
0.142085 0.119758 0.75787
0.142742 0.12065 0.756495
0.143421 0.121604 0.755293
0.144064 0.122468 0.753855
0.144717 0.123355 0.75249
0.145365 0.124235 0.751112
0.146063 0.125242 0.750078
0.146777 0.126291 0.749162
0.147517 0.12741 0.748433
0.148292 0.128613 0.747929
0.149066 0.129815 0.747423
0.149878 0.131115 0.747171
0.150708 0.132459 0.74703
0.151554 0.133842 0.746988
0.152384 0.135185 0.74684
0.153223 0.13655 0.746743
0.154051 0.137885 0.746567
0.154872 0.139202 0.746345
0.155681 0.14049 0.746045
0.156486 0.141768 0.745717
0.157261 0.14297 0.745198
0.15801 0.144108 0.744522
0.158799 0.145346 0.744094
0.159646 0.146728 0.744021
0.160569 0.148293 0.744396
0.161418 0.149675 0.744316
0.162229 0.150966 0.744008
0.163065 0.152316 0.743841
0.163884 0.153625 0.743575
0.164667 0.154844 0.743087
0.165577 0.156373 0.743346
0.166519 0.157978 0.74378
0.167392 0.159415 0.743806
0.168292 0.160913 0.743974
0.169207 0.162451 0.744228
0.170113 0.163962 0.744415
0.171037 0.165518 0.744701
0.17205 0.167284 0.745472
0.173107 0.169152 0.746468
0.174237 0.171194 0.747857
0.175404 0.173319 0.749423
0.176617 0.17555 0.751215
0.177757 0.177605 0.752586
0.178836 0.179514 0.753609
0.179864 0.1813 0.754339
0.180907 0.183117 0.755133
0.181897 0.184809 0.755632
0.182958 0.186668 0.756498
0.18412 0.18876 0.757875
0.185379 0.191077 0.759737
0.186719 0.193579 0.761993
0.188206 0.196418 0.764972
0.189673 0.199208 0.767816
0.191064 0.201814 0.77023
0.192339 0.204148 0.772026
0.126112 0.102891 0.804828
0.126829 0.103888 0.803496
0.127489 0.104724 0.801685
0.128062 0.10532 0.799165
0.128615 0.105863 0.796502
0.129079 0.106164 0.793142
0.129557 0.106513 0.78995
0.130076 0.106977 0.787125
0.130643 0.107581 0.784732
0.131228 0.108238 0.782512
0.131897 0.109128 0.780985
0.132552 0.109982 0.779365
0.133226 0.110893 0.77792
0.133957 0.111955 0.776918
0.134681 0.113002 0.775879
0.135284 0.113726 0.773921
0.135899 0.114482 0.772071
0.136438 0.11504 0.769677
0.136937 0.115493 0.767002
0.137475 0.116055 0.764654
0.138115 0.116891 0.763081
0.13872 0.117636 0.761271
0.139377 0.118522 0.759856
0.140008 0.119343 0.758273
0.140675 0.120259 0.75696
0.141334 0.121155 0.7556
0.142039 0.122174 0.754581
0.142696 0.123068 0.753227
0.14337 0.124009 0.752009
0.14403 0.124915 0.750704
0.14474 0.125951 0.749751
0.145445 0.126975 0.74877
0.146186 0.128092 0.748039
0.146947 0.129262 0.747448
0.147719 0.13046 0.746931
0.14852 0.131732 0.746607
0.149362 0.133107 0.746548
0.150219 0.134523 0.74659
0.151061 0.135896 0.746519
0.151912 0.137293 0.746505
0.152767 0.138697 0.746504
0.153604 0.140058 0.746391
0.15443 0.141389 0.746198
0.155235 0.142667 0.745868
0.156007 0.143862 0.74533
0.156741 0.144963 0.744558
0.157543 0.146232 0.744206
0.158421 0.147691 0.744321
0.159388 0.149371 0.744976
0.160245 0.150775 0.744943
0.16107 0.152099 0.744713
0.161916 0.153476 0.744607
0.162721 0.154749 0.744248
0.163506 0.155973 0.743771
0.164423 0.157521 0.744069
0.165361 0.15912 0.744482
0.166216 0.160515 0.744404
0.167101 0.161981 0.744491
0.168004 0.16349 0.744673
0.168899 0.164979 0.744803
0.169835 0.166567 0.745158
0.170848 0.168337 0.745932
0.171903 0.170208 0.74693
0.173014 0.172212 0.748226
0.174192 0.174373 0.749864
0.175388 0.176574 0.75158
0.176529 0.178639 0.752969
0.177624 0.180593 0.754087
0.178668 0.182422 0.754909
0.179697 0.184214 0.755638
0.180683 0.185899 0.756118
0.181723 0.187713 0.756877
0.182849 0.189727 0.758075
0.184086 0.192004 0.759841
0.185438 0.194546 0.762176
0.186925 0.197402 0.765183
0.188358 0.200129 0.767879
0.189737 0.202721 0.770255
0.190988 0.205009 0.771945
0.124685 0.103507 0.804082
0.1254 0.104494 0.802726
0.126071 0.105355 0.800997
0.126646 0.105946 0.79847
0.127212 0.106517 0.795901
0.127701 0.106876 0.792721
0.12821 0.107294 0.789743
0.128756 0.107825 0.78712
0.12935 0.108494 0.784921
0.129936 0.109143 0.782682
0.130594 0.109997 0.781055
0.131248 0.110843 0.779413
0.131913 0.111723 0.777879
0.132622 0.112725 0.776705
0.133336 0.113741 0.775576
0.133983 0.114577 0.773944
0.134639 0.115437 0.77239
0.135242 0.116158 0.770455
0.135792 0.116738 0.768137
0.136354 0.117354 0.765936
0.136948 0.118058 0.763998
0.137496 0.118643 0.761742
0.138083 0.119337 0.759801
0.138671 0.120035 0.757883
0.139328 0.120921 0.756492
0.13999 0.121822 0.755149
0.140708 0.122871 0.754212
0.141366 0.123764 0.75286
0.14205 0.124729 0.751706
0.14271 0.125629 0.75039
0.14342 0.126663 0.749432
0.144126 0.127689 0.748459
0.144866 0.128803 0.747719
0.145613 0.129936 0.747032
0.146382 0.131125 0.746493
0.147181 0.132395 0.746165
0.148038 0.13381 0.746209
0.148909 0.135264 0.746348
0.14979 0.136741 0.746542
0.150656 0.138179 0.746628
0.151525 0.139621 0.746723
0.152363 0.140984 0.746611
0.153201 0.142347 0.746495
0.153994 0.143595 0.746089
0.154755 0.144762 0.745479
0.155474 0.145823 0.744607
0.156288 0.147123 0.74433
0.157193 0.148653 0.744617
0.158167 0.150354 0.745318
0.159039 0.151798 0.745379
0.159874 0.153148 0.745208
0.160707 0.154493 0.745022
0.16148 0.155688 0.744474
0.162275 0.156937 0.744053
0.163174 0.158443 0.744246
0.164108 0.160037 0.744645
0.164962 0.161431 0.74456
0.165851 0.162909 0.744673
0.166758 0.16443 0.744879
0.167669 0.16596 0.745103
0.16862 0.16759 0.745552
0.169633 0.169365 0.746333
0.170685 0.171236 0.747325
0.171778 0.173204 0.748529
0.172965 0.175397 0.750235
0.174158 0.1776 0.751949
0.175313 0.179711 0.753432
0.176424 0.181709 0.754646
0.177485 0.183584 0.755566
0.178511 0.185374 0.756286
0.179481 0.187024 0.75668
0.180499 0.188792 0.757329
0.181602 0.19076 0.758417
0.182801 0.192953 0.75999
0.184153 0.195511 0.762355
0.185638 0.198378 0.765375
0.187056 0.201083 0.768013
0.1884 0.203605 0.77023
0.189641 0.205881 0.771888
0.123217 0.103997 0.802959
0.123941 0.105006 0.801674
0.12464 0.105944 0.800184
0.125218 0.106533 0.797661
0.125817 0.107189 0.795354
0.126333 0.107612 0.792374
0.12687 0.108099 0.789606
0.127445 0.1087 0.787197
0.128063 0.109426 0.785167
0.128642 0.110047 0.782847
0.129298 0.11089 0.781189
0.129953 0.111732 0.779539
0.130611 0.112584 0.777926
0.131301 0.11353 0.776591
0.132015 0.114543 0.775458
0.132685 0.115437 0.773991
0.13337 0.116374 0.772656
0.134029 0.117239 0.771125
0.134611 0.117896 0.769023
0.135184 0.118533 0.766881
0.135751 0.119155 0.764713
0.136282 0.119685 0.762306
0.136846 0.120308 0.76017
0.137457 0.12106 0.758403
0.138127 0.121976 0.757092
0.13878 0.122848 0.755666
0.139476 0.123836 0.754564
0.140122 0.124692 0.753112
0.140775 0.125568 0.751724
0.141415 0.126412 0.750257
0.142116 0.127418 0.749228
0.14282 0.128436 0.748233
0.143547 0.129515 0.747403
0.144292 0.13064 0.746699
0.145061 0.131833 0.746169
0.145872 0.133131 0.745913
0.146741 0.134583 0.746052
0.147615 0.136047 0.746215
0.148511 0.137568 0.746516
0.149391 0.139043 0.746697
0.150273 0.140521 0.746879
0.15111 0.141884 0.746763
0.151957 0.143272 0.746708
0.152749 0.144518 0.746294
0.153522 0.145715 0.745759
0.154256 0.146812 0.744974
0.155097 0.148182 0.744868
0.156015 0.149747 0.745235
0.156988 0.151451 0.745936
0.157845 0.152858 0.745903
0.158663 0.154168 0.745631
0.159478 0.155467 0.74533
0.160228 0.156602 0.744635
0.16101 0.157819 0.744135
0.161894 0.159293 0.744251
0.162829 0.16089 0.744653
0.163673 0.162263 0.744516
0.16459 0.163812 0.744793
0.165513 0.165378 0.745102
0.166437 0.166945 0.745409
0.167404 0.168616 0.745951
0.168416 0.170397 0.746739
0.169441 0.172207 0.747583
0.170516 0.174138 0.748697
0.171696 0.176323 0.750378
0.172886 0.17853 0.752094
0.174058 0.180691 0.753685
0.175198 0.182767 0.755069
0.176288 0.184719 0.756158
0.177313 0.186512 0.756875
0.178282 0.188165 0.75727
