ply
format ascii 1.0
element vertex 1796
property float x
property float y
property float z
end_header
0.235632 -0.375645 1.03544
0.236061 -0.377023 1.03496
0.23649 -0.378401 1.03448
0.236919 -0.379778 1.03399
0.237349 -0.381156 1.03351
0.237801 -0.382561 1.03311
0.238308 -0.384025 1.03288
0.238845 -0.385526 1.03274
0.23949 -0.387149 1.03296
0.240167 -0.388808 1.03327
0.240848 -0.390474 1.0336
0.24155 -0.392166 1.03399
0.242274 -0.393886 1.03444
0.242905 -0.395499 1.03459
0.243582 -0.397168 1.03489
0.244283 -0.398867 1.03526
0.244913 -0.400485 1.0354
0.245489 -0.402041 1.03537
0.246185 -0.403738 1.03572
0.246786 -0.405326 1.03576
0.247371 -0.406895 1.03574
0.247947 -0.408457 1.0357
0.248513 -0.410007 1.03563
0.24895 -0.411405 1.03514
0.249434 -0.41286 1.03481
0.249976 -0.414383 1.03466
0.25074 -0.416172 1.03519
0.251695 -0.41819 1.03631
0.25281 -0.420404 1.03792
0.254067 -0.422792 1.03996
0.255348 -0.425213 1.04206
0.256464 -0.427441 1.04365
0.257462 -0.429533 1.04486
0.258339 -0.431478 1.04569
0.259103 -0.433291 1.04618
0.259757 -0.434973 1.04632
0.260352 -0.436581 1.04628
0.261026 -0.438288 1.04648
0.261679 -0.439973 1.04662
0.262403 -0.441743 1.04696
0.263156 -0.443554 1.04739
0.263908 -0.445364 1.04781
0.264511 -0.446991 1.04778
0.265102 -0.448603 1.04771
0.265602 -0.450105 1.04737
0.266194 -0.451721 1.0473
0.267635 -0.456757 1.05441
0.266713 -0.453246 1.04702
0.21469 -0.305438 1.05606
0.215144 -0.306835 1.05568
0.215541 -0.308181 1.05509
0.21579 -0.309391 1.05396
0.215855 -0.310432 1.05216
0.21594 -0.311488 1.05043
0.216011 -0.312529 1.04867
0.21611 -0.313591 1.047
0.216397 -0.314828 1.04603
0.216775 -0.316146 1.04538
0.217197 -0.317508 1.0449
0.217561 -0.318814 1.04421
0.217986 -0.320176 1.04373
0.218407 -0.321537 1.04325
0.218942 -0.323004 1.04316
0.219656 -0.324645 1.04372
0.220557 -0.326469 1.04493
0.221476 -0.328313 1.04619
0.222563 -0.330325 1.04804
0.223532 -0.332227 1.04946
0.224394 -0.334029 1.0505
0.22516 -0.335739 1.0512
0.225869 -0.337396 1.05169
0.226261 -0.33874 1.05107
0.226628 -0.340061 1.05037
0.226893 -0.341277 1.04931
0.227168 -0.342503 1.04828
0.227525 -0.343811 1.04755
0.227934 -0.345171 1.047
0.228338 -0.346524 1.04642
0.228686 -0.34782 1.04566
0.229031 -0.349114 1.04489
0.229334 -0.350363 1.04397
0.229711 -0.351688 1.04331
0.230092 -0.353017 1.04267
0.230474 -0.354346 1.04203
0.230852 -0.355669 1.04137
0.231227 -0.35699 1.04071
0.231604 -0.358313 1.04005
0.232033 -0.35969 1.03957
0.23244 -0.361045 1.03902
0.232843 -0.362393 1.03845
0.233236 -0.363732 1.03785
0.233632 -0.365073 1.03726
0.233986 -0.366369 1.03653
0.234488 -0.367825 1.03629
0.234998 -0.369289 1.03608
0.235516 -0.370761 1.03589
0.236026 -0.372228 1.03568
0.236529 -0.373686 1.03544
0.236959 -0.375064 1.03496
0.237388 -0.376442 1.03448
0.237817 -0.37782 1.034
0.238246 -0.379198 1.03351
0.238675 -0.380576 1.03303
0.239104 -0.381954 1.03255
0.239583 -0.383387 1.03223
0.240067 -0.384825 1.03192
0.240678 -0.386408 1.03202
0.241328 -0.388034 1.03225
0.242034 -0.389727 1.03265
0.24277 -0.391455 1.03314
0.24355 -0.393236 1.03378
0.244211 -0.394881 1.03402
0.244915 -0.396578 1.0344
0.245617 -0.398275 1.03477
0.246249 -0.399894 1.03491
0.246852 -0.40148 1.03496
0.247551 -0.403179 1.03531
0.248181 -0.404799 1.03544
0.248767 -0.40637 1.03543
0.249368 -0.40796 1.03546
0.249912 -0.409481 1.03531
0.250372 -0.410908 1.0349
0.250885 -0.412397 1.03466
0.251511 -0.414018 1.03476
0.252425 -0.415981 1.03575
0.253536 -0.418182 1.03734
0.254783 -0.420549 1.03935
0.256051 -0.422944 1.0414
0.257297 -0.42532 1.04338
0.258293 -0.427401 1.04458
0.259204 -0.429384 1.04551
0.259977 -0.431203 1.04602
0.260687 -0.432949 1.04633
0.261254 -0.434522 1.0462
0.261784 -0.436052 1.04597
0.262399 -0.437686 1.04598
0.263025 -0.439335 1.04603
0.263723 -0.441073 1.0463
0.264475 -0.442879 1.04672
0.265224 -0.444682 1.04712
0.265829 -0.44631 1.0471
0.266425 -0.447926 1.04704
0.266959 -0.449469 1.0468
0.267552 -0.451086 1.04673
0.268041 -0.452573 1.04636
0.21574 -0.304617 1.05459
0.216171 -0.305993 1.05413
0.216528 -0.307301 1.05339
0.216745 -0.308482 1.05215
0.216762 -0.309481 1.05018
0.216826 -0.310518 1.0484
0.216876 -0.31154 1.04656
0.216973 -0.312603 1.04491
0.217236 -0.313816 1.04386
0.217609 -0.315129 1.0432
0.218053 -0.316507 1.04279
0.218439 -0.317833 1.04219
0.218868 -0.319198 1.04173
0.219286 -0.320553 1.04124
0.219816 -0.322014 1.04114
0.220505 -0.323627 1.0416
0.221385 -0.325425 1.04273
0.222307 -0.327266 1.04399
0.223469 -0.329344 1.0461
0.224518 -0.331317 1.04779
0.225506 -0.333237 1.04927
0.226398 -0.335066 1.0504
0.227228 -0.336839 1.0513
0.227671 -0.338235 1.05086
0.22811 -0.339626 1.0504
0.228378 -0.340848 1.04936
0.228654 -0.342077 1.04834
0.229034 -0.343408 1.04769
0.229444 -0.344769 1.04713
0.229828 -0.346103 1.04649
0.230153 -0.347378 1.04565
0.230468 -0.348643 1.04478
0.230716 -0.349837 1.04368
0.231065 -0.351133 1.04292
0.23142 -0.352436 1.04219
0.231826 -0.353791 1.04163
0.232231 -0.355143 1.04107
0.232634 -0.356494 1.0405
0.233039 -0.357846 1.03994
0.233519 -0.359276 1.03962
0.23393 -0.360636 1.03909
0.234338 -0.361991 1.03853
0.234732 -0.363331 1.03793
0.235125 -0.364671 1.03733
0.235454 -0.365942 1.03652
0.235932 -0.36737 1.0362
0.236413 -0.368804 1.03589
0.236897 -0.37024 1.03559
0.237379 -0.371675 1.03529
0.237857 -0.373105 1.03496
0.238286 -0.374483 1.03448
0.238715 -0.375861 1.034
0.239144 -0.377239 1.03352
0.239573 -0.378617 1.03304
0.240003 -0.379995 1.03255
0.240432 -0.381373 1.03207
0.240885 -0.382777 1.03167
0.241339 -0.384184 1.03127
0.241922 -0.385732 1.03128
0.242543 -0.387325 1.0314
0.243251 -0.389016 1.03181
0.243986 -0.390741 1.03229
0.244798 -0.392553 1.03302
0.245485 -0.394227 1.03334
0.246218 -0.395955 1.03381
0.246924 -0.397654 1.03418
0.247606 -0.399327 1.03448
0.248241 -0.40095 1.03463
0.248973 -0.402684 1.03508
0.249634 -0.404338 1.0353
0.250245 -0.405937 1.03536
0.250849 -0.407528 1.0354
0.251417 -0.40908 1.03532
0.251908 -0.410542 1.03501
0.25248 -0.412099 1.03494
0.253195 -0.413825 1.03532
0.254233 -0.41593 1.03667
0.255443 -0.418243 1.03856
0.256731 -0.420653 1.04067
0.257974 -0.423014 1.04262
0.259159 -0.425313 1.0444
0.260069 -0.427289 1.04533
0.2609 -0.429174 1.04601
0.261648 -0.430962 1.04643
0.262302 -0.432638 1.04657
0.262803 -0.434134 1.04624
0.263269 -0.435586 1.04581
0.263822 -0.437145 1.04564
0.264398 -0.43873 1.04553
0.265067 -0.440432 1.0457
0.26579 -0.442198 1.04603
0.266533 -0.443992 1.04641
0.267141 -0.445622 1.0464
0.267742 -0.447245 1.04636
0.268339 -0.448863 1.0463
0.268936 -0.450484 1.04624
0.269398 -0.451937 1.04578
0.271013 -0.45716 1.05331
0.269964 -0.45352 1.04563
0.216851 -0.303853 1.05335
0.217244 -0.305195 1.05275
0.217546 -0.306452 1.05182
0.217732 -0.307607 1.05047
0.217745 -0.308604 1.0485
0.217796 -0.309631 1.04668
0.217849 -0.310658 1.04487
0.217965 -0.311739 1.0433
0.2182 -0.312925 1.04215
0.218544 -0.314211 1.04139
0.218985 -0.315585 1.04098
0.219348 -0.316887 1.04029
0.219753 -0.31823 1.03976
0.220146 -0.319559 1.03918
0.22063 -0.320974 1.03892
0.221248 -0.322516 1.03913
0.222079 -0.324262 1.04008
0.222954 -0.326051 1.04118
0.224142 -0.328145 1.04336
0.225294 -0.330211 1.04541
0.226439 -0.332275 1.04742
0.227486 -0.33425 1.04908
0.228486 -0.336185 1.05057
0.229049 -0.337696 1.05054
0.229564 -0.339162 1.05034
0.229882 -0.340435 1.04947
0.230206 -0.341713 1.04862
0.230588 -0.343048 1.04797
0.230976 -0.344388 1.04734
0.231338 -0.345701 1.04662
0.231614 -0.346928 1.04562
0.23188 -0.348144 1.04458
0.232096 -0.349309 1.04338
0.232417 -0.350577 1.04253
0.232747 -0.351856 1.04171
0.233176 -0.353233 1.04123
0.233606 -0.354611 1.04075
0.234035 -0.355989 1.04027
0.234464 -0.357367 1.03979
0.234993 -0.358848 1.03963
0.23541 -0.360214 1.03911
0.235821 -0.361574 1.03857
0.236217 -0.362917 1.03798
0.23661 -0.364257 1.03738
0.236915 -0.365505 1.03649
0.237368 -0.366907 1.03609
0.237822 -0.368311 1.03569
0.238277 -0.369717 1.03529
0.238732 -0.371122 1.03489
0.239184 -0.372525 1.03448
0.239614 -0.373903 1.034
0.240043 -0.37528 1.03352
0.240472 -0.376658 1.03304
0.240901 -0.378036 1.03256
0.24133 -0.379414 1.03208
0.241759 -0.380792 1.03159
0.242188 -0.38217 1.03111
0.242642 -0.383575 1.03071
0.243199 -0.385095 1.03063
0.243794 -0.386656 1.03067
0.244501 -0.388345 1.03107
0.245236 -0.390065 1.03155
0.24605 -0.391877 1.03228
0.246763 -0.393579 1.03268
0.247525 -0.395337 1.03323
0.248236 -0.397038 1.03362
0.248972 -0.398772 1.03408
0.249639 -0.400428 1.03432
0.250404 -0.402199 1.03487
0.2511 -0.403891 1.03519
0.251737 -0.405518 1.03533
0.252367 -0.407139 1.03545
0.252965 -0.408725 1.03546
0.253517 -0.410257 1.03533
0.254176 -0.411915 1.03553
0.254985 -0.413749 1.03618
0.256088 -0.415927 1.03773
0.257333 -0.418276 1.0397
0.258595 -0.420651 1.04171
0.259752 -0.422905 1.04339
0.260853 -0.425102 1.0449
0.261707 -0.427008 1.04564
0.262544 -0.428897 1.04634
0.263271 -0.430658 1.04669
0.263925 -0.432336 1.04682
0.26439 -0.433786 1.04638
0.264815 -0.43519 1.04583
0.265307 -0.436675 1.04547
0.265884 -0.438263 1.04537
0.26653 -0.439933 1.04546
0.267248 -0.441693 1.04577
0.26796 -0.443446 1.04606
0.268536 -0.445037 1.04594
0.269116 -0.446632 1.04584
0.269745 -0.448291 1.04588
0.270346 -0.449913 1.04582
0.270832 -0.451397 1.04544
0.271397 -0.452977 1.04528
0.272942 -0.458102 1.05255
0.271991 -0.454593 1.0452
0.217986 -0.303114 1.05221
0.218334 -0.304414 1.05144
0.21857 -0.305616 1.05028
0.218725 -0.306743 1.04883
0.218736 -0.307739 1.04687
0.218765 -0.308748 1.04498
0.218819 -0.309778 1.04319
0.218931 -0.310855 1.0416
0.219116 -0.311997 1.04029
0.219412 -0.313238 1.03937
0.219827 -0.314587 1.03887
0.220144 -0.315845 1.03802
0.220523 -0.31716 1.0374
0.220888 -0.318462 1.03672
0.221323 -0.319828 1.0363
0.221868 -0.321298 1.03625
0.222665 -0.323006 1.03708
0.223482 -0.324735 1.03798
0.224579 -0.326734 1.03984
0.225799 -0.328855 1.04211
0.227125 -0.331083 1.04473
0.228341 -0.333214 1.04697
0.229535 -0.335328 1.04911
0.230336 -0.337068 1.0499
0.23095 -0.33863 1.05004
0.231298 -0.339933 1.04927
0.231651 -0.341241 1.04852
0.232055 -0.342598 1.04795
0.232441 -0.343937 1.04731
0.232798 -0.345248 1.04658
0.233047 -0.346449 1.04549
0.233284 -0.347638 1.04435
0.233473 -0.348776 1.04306
0.233768 -0.35002 1.04213
0.234075 -0.351275 1.04123
0.234481 -0.352629 1.04068
0.234908 -0.354005 1.04019
0.235336 -0.355382 1.0397
0.235766 -0.356761 1.03922
0.236321 -0.358268 1.03916
0.236786 -0.359683 1.03879
0.237223 -0.361071 1.03834
0.237644 -0.36244 1.03783
0.238061 -0.363806 1.0373
0.238366 -0.365054 1.03642
0.238795 -0.366432 1.03593
0.239224 -0.36781 1.03545
0.239654 -0.369188 1.03497
0.240083 -0.370566 1.03449
0.240512 -0.371944 1.03401
0.240941 -0.373322 1.03352
0.24137 -0.3747 1.03304
0.241799 -0.376078 1.03256
0.242228 -0.377455 1.03208
0.242657 -0.378833 1.0316
0.243087 -0.380211 1.03111
0.243539 -0.381616 1.03071
0.244021 -0.383051 1.03039
0.244583 -0.384575 1.03033
0.245154 -0.38611 1.0303
0.245858 -0.387792 1.03068
0.246542 -0.389455 1.03099
0.247305 -0.391207 1.03155
0.24802 -0.392907 1.03195
0.248787 -0.394667 1.03251
0.2495 -0.39637 1.03291
0.25027 -0.398138 1.03347
0.250989 -0.399852 1.03387
0.251791 -0.40166 1.03452
0.252539 -0.403411 1.035
0.25321 -0.405076 1.03524
0.253895 -0.406757 1.03552
0.254551 -0.408409 1.03571
0.25519 -0.410041 1.03584
0.255972 -0.41184 1.03641
0.256899 -0.413808 1.03741
0.258037 -0.416024 1.03905
0.259254 -0.418336 1.04092
0.260453 -0.420632 1.04272
0.261523 -0.422783 1.04413
0.262541 -0.424876 1.04537
0.263397 -0.426784 1.04611
0.264243 -0.428681 1.04682
0.264978 -0.430452 1.04719
0.265635 -0.432132 1.04733
0.266071 -0.433549 1.0468
0.266436 -0.434882 1.04606
0.266897 -0.436331 1.04561
0.267444 -0.437881 1.04541
0.268036 -0.439486 1.04535
0.268726 -0.44121 1.04557
0.269404 -0.442923 1.04576
0.269948 -0.444473 1.04554
0.270526 -0.446065 1.04543
0.271185 -0.447758 1.04555
0.271791 -0.449385 1.04551
0.27231 -0.450908 1.04522
0.272872 -0.452484 1.04505
0.273437 -0.454064 1.04489
0.274871 -0.459043 1.05178
0.273923 -0.455551 1.0445
0.218828 -0.301125 1.05203
0.219135 -0.302391 1.05112
0.219431 -0.303645 1.05017
0.219628 -0.304812 1.04888
0.21975 -0.305911 1.04732
0.21978 -0.306926 1.04544
0.21981 -0.307938 1.04356
0.219884 -0.308987 1.04185
0.21999 -0.310059 1.04025
0.220145 -0.311175 1.03884
0.220397 -0.312375 1.03776
0.220765 -0.313681 1.0371
0.221032 -0.314893 1.03609
0.221358 -0.316158 1.03529
0.221694 -0.317431 1.03451
0.222057 -0.31873 1.03384
0.222506 -0.320107 1.03347
0.223199 -0.321712 1.03394
0.22393 -0.323355 1.03453
0.224877 -0.325204 1.03587
0.226003 -0.327226 1.03781
0.227537 -0.329642 1.04114
0.229 -0.331996 1.04421
0.230426 -0.334325 1.04713
0.231538 -0.33636 1.04897
0.232434 -0.338192 1.05007
0.232814 -0.339527 1.04941
0.233196 -0.340864 1.04876
0.23365 -0.34227 1.04835
0.234008 -0.343584 1.04762
0.234311 -0.344842 1.04671
0.234526 -0.346014 1.0455
0.234711 -0.347152 1.0442
0.234827 -0.348221 1.04267
0.235072 -0.349416 1.04157
0.235351 -0.350644 1.04059
0.235707 -0.351947 1.03986
0.236109 -0.353298 1.0393
0.23656 -0.354697 1.03889
0.237016 -0.356102 1.03849
0.237598 -0.357635 1.03851
0.23809 -0.359078 1.03824
0.238575 -0.360514 1.03794
0.239021 -0.36191 1.03751
0.239441 -0.363279 1.03699
0.239745 -0.364528 1.03611
0.240171 -0.365903 1.03562
0.240575 -0.367255 1.03505
0.24098 -0.368607 1.03449
0.241409 -0.369985 1.03401
0.241838 -0.371363 1.03353
0.242268 -0.372741 1.03305
0.242697 -0.374119 1.03256
0.243126 -0.375497 1.03208
0.243555 -0.376875 1.0316
0.243984 -0.378253 1.03112
0.244438 -0.379657 1.03071
0.244919 -0.381092 1.0304
0.245431 -0.38256 1.03018
0.245998 -0.384089 1.03013
0.246572 -0.385625 1.03009
0.247246 -0.387273 1.03038
0.247901 -0.388902 1.0306
0.248612 -0.390595 1.03099
0.249301 -0.392263 1.0313
0.250065 -0.394018 1.03185
0.25078 -0.395721 1.03225
0.251556 -0.397492 1.03282
0.25233 -0.399265 1.03339
0.253188 -0.401134 1.0342
0.253969 -0.40292 1.03478
0.254672 -0.40462 1.03512
0.255413 -0.406364 1.03556
0.256132 -0.408084 1.03593
0.25689 -0.409851 1.03642
0.257768 -0.411758 1.03728
0.258792 -0.413835 1.03856
0.259937 -0.416056 1.04021
0.261123 -0.418327 1.04196
0.262231 -0.420514 1.04348
0.263215 -0.422562 1.04461
0.264177 -0.424587 1.04567
0.265066 -0.42653 1.04651
0.265946 -0.428467 1.04731
0.266694 -0.430249 1.04771
0.267387 -0.43197 1.04795
0.267821 -0.433387 1.04741
0.268158 -0.434689 1.04659
0.268561 -0.436071 1.04597
0.26908 -0.437587 1.04568
0.26964 -0.439154 1.04552
0.270273 -0.440809 1.04557
0.270894 -0.44245 1.04558
0.271402 -0.443958 1.04526
0.271944 -0.445507 1.04504
0.272576 -0.447163 1.04507
0.273184 -0.448793 1.04504
0.273737 -0.450357 1.04485
0.274305 -0.45194 1.0447
0.274869 -0.453518 1.04453
0.275351 -0.454997 1.04412
0.276882 -0.460084 1.05124
0.275924 -0.456588 1.04398
0.22037 -0.301743 1.05035
0.220634 -0.302971 1.0493
0.220817 -0.304127 1.04796
0.220892 -0.305186 1.04623
0.220899 -0.306183 1.04428
0.220905 -0.307176 1.04233
0.220956 -0.308205 1.04055
0.221034 -0.309256 1.03886
0.221186 -0.310369 1.03744
0.221409 -0.311544 1.03628
0.221731 -0.312807 1.03546
0.221969 -0.313992 1.03435
0.222241 -0.315208 1.03336
0.222528 -0.316435 1.03243
0.222819 -0.317666 1.03151
0.22317 -0.31895 1.0308
0.223758 -0.320453 1.03091
0.224362 -0.321973 1.03107
0.225131 -0.323648 1.03179
0.226119 -0.325531 1.03325
0.227574 -0.32786 1.0363
0.228994 -0.330161 1.03921
0.230658 -0.332704 1.04294
0.232119 -0.335061 1.04595
0.233359 -0.337217 1.04821
0.234039 -0.338839 1.04856
0.234721 -0.340466 1.04893
0.2352 -0.341897 1.0486
0.23551 -0.343164 1.0477
0.235759 -0.344372 1.04661
0.235942 -0.345514 1.0453
0.236049 -0.346578 1.04374
0.236088 -0.347572 1.04196
0.236253 -0.348689 1.0406
0.23645 -0.349836 1.03936
0.236725 -0.351059 1.03837
0.237099 -0.352381 1.03771
0.237574 -0.353803 1.03738
0.23811 -0.355286 1.03725
0.238749 -0.356876 1.03746
0.239342 -0.358419 1.03751
0.239928 -0.359958 1.03754
0.24043 -0.361412 1.03729
0.240879 -0.362812 1.03687
0.241206 -0.364085 1.03606
0.241604 -0.365431 1.03548
0.241954 -0.366727 1.03474
0.242332 -0.368052 1.03409
0.242737 -0.369404 1.03353
0.243166 -0.370782 1.03305
0.243595 -0.37216 1.03257
0.244024 -0.373538 1.03209
0.244453 -0.374916 1.0316
0.244907 -0.37632 1.0312
0.245338 -0.3777 1.03072
0.245818 -0.379133 1.0304
0.246329 -0.380599 1.03018
0.246871 -0.3821 1.03005
0.247421 -0.383608 1.02994
0.248013 -0.385166 1.02997
0.248659 -0.386781 1.03015
0.249286 -0.388378 1.03028
0.249944 -0.39001 1.0305
0.250601 -0.391642 1.03072
0.251308 -0.393331 1.03108
0.251999 -0.395004 1.0314
0.252772 -0.39677 1.03196
0.253555 -0.398549 1.03255
0.254441 -0.400446 1.03344
0.255282 -0.402295 1.0342
0.256042 -0.404056 1.0347
0.25682 -0.405839 1.03525
0.257648 -0.407682 1.03595
0.258499 -0.409553 1.03672
0.25945 -0.41154 1.03778
0.260543 -0.413692 1.03926
0.261694 -0.415916 1.04091
0.262852 -0.418151 1.04257
0.26393 -0.420298 1.04398
0.264885 -0.42231 1.04502
0.265828 -0.424311 1.04601
0.266778 -0.426321 1.04702
0.267667 -0.428264 1.04784
0.268447 -0.430084 1.04833
0.269169 -0.431839 1.04864
0.269636 -0.433296 1.0482
0.269948 -0.434572 1.04731
0.270349 -0.43595 1.04668
0.270804 -0.437393 1.0462
0.2713 -0.438884 1.04585
0.271872 -0.440467 1.04571
0.27246 -0.442068 1.04562
0.272911 -0.443507 1.04514
0.273448 -0.44505 1.0449
0.274078 -0.446703 1.04492
0.27469 -0.448337 1.0449
0.275246 -0.449904 1.04471
0.275819 -0.451493 1.04457
0.276353 -0.453034 1.04432
0.276803 -0.454475 1.04382
0.277313 -0.455988 1.04349
0.276471 -0.458148 1.04376
0.277825 -0.457504 1.04317
0.279395 -0.462635 1.05034
0.278306 -0.458983 1.04277
0.221669 -0.30115 1.04981
0.22189 -0.302342 1.04861
0.222004 -0.30344 1.04703
0.222055 -0.304482 1.04524
0.222061 -0.30548 1.04329
0.222045 -0.306455 1.04127
0.222094 -0.307486 1.03949
0.222147 -0.308515 1.03772
0.222273 -0.309607 1.03622
0.222471 -0.310761 1.03497
0.222767 -0.311999 1.03407
0.222976 -0.313159 1.03287
0.223199 -0.31433 1.03171
0.223435 -0.315511 1.03061
0.223653 -0.316675 1.02945
0.22393 -0.31789 1.02849
0.224415 -0.319296 1.02825
0.224936 -0.320735 1.02812
0.225532 -0.322244 1.02826
0.226382 -0.323991 1.02925
0.227674 -0.326155 1.03173
0.228919 -0.328282 1.03404
0.230536 -0.330764 1.03759
0.232072 -0.33318 1.04085
0.233612 -0.335609 1.04411
0.234646 -0.337563 1.04565
0.235697 -0.339537 1.04724
0.236423 -0.341206 1.04775
0.236936 -0.342669 1.04753
0.237132 -0.343827 1.04626
0.237238 -0.344895 1.0447
0.237237 -0.345857 1.04279
0.237168 -0.346748 1.04067
0.237219 -0.347754 1.03894
0.237328 -0.348813 1.03741
0.237543 -0.349977 1.03623
0.237914 -0.351293 1.03557
0.238466 -0.35279 1.03549
0.239108 -0.354378 1.03571
0.239885 -0.356104 1.03636
0.240638 -0.357808 1.03693
0.241361 -0.359483 1.0374
0.241924 -0.360998 1.03734
0.242406 -0.362431 1.03703
0.242706 -0.36368 1.03613
0.243045 -0.364967 1.03536
0.243338 -0.366204 1.03444
0.243684 -0.367498 1.03369
0.244064 -0.368824 1.03305
0.244493 -0.370202 1.03257
0.244922 -0.37158 1.03209
0.245376 -0.372983 1.03168
0.245831 -0.374389 1.03128
0.246314 -0.375823 1.03097
0.246772 -0.377233 1.03058
0.247281 -0.378696 1.03035
0.24782 -0.380192 1.03021
0.248392 -0.381725 1.03017
0.248941 -0.383232 1.03006
0.249535 -0.38479 1.03008
0.250151 -0.386373 1.03017
0.250725 -0.387911 1.03013
0.251306 -0.389457 1.03011
0.251905 -0.391025 1.03014
0.252527 -0.392618 1.03024
0.253183 -0.394251 1.03045
0.253906 -0.395958 1.03085
0.254665 -0.397708 1.03136
0.255527 -0.399575 1.03218
0.256397 -0.401452 1.03302
0.257163 -0.403217 1.03353
0.258 -0.405062 1.03426
0.25889 -0.406971 1.03514
0.259829 -0.408937 1.03617
0.260843 -0.410992 1.03741
0.262 -0.413212 1.03907
0.263157 -0.415436 1.04073
0.264318 -0.417668 1.04238
0.265425 -0.419846 1.04387
0.266446 -0.421929 1.04509
0.267457 -0.424004 1.04628
0.26853 -0.426153 1.04764
0.26951 -0.4282 1.04872
0.270296 -0.430025 1.04922
0.271017 -0.431778 1.04952
0.27148 -0.433232 1.04907
0.271764 -0.434476 1.04809
0.27214 -0.435829 1.04738
0.272588 -0.437264 1.04688
0.273017 -0.438677 1.04633
0.27355 -0.440214 1.04608
0.27408 -0.441747 1.04582
0.274474 -0.443118 1.04516
0.274982 -0.444627 1.04484
0.275581 -0.446242 1.04478
0.276162 -0.447839 1.04466
0.276721 -0.449407 1.04447
0.277323 -0.45103 1.04441
0.27783 -0.45254 1.04408
0.278278 -0.453977 1.04358
0.278754 -0.45545 1.04316
0.279233 -0.456926 1.04274
0.279684 -0.458367 1.04225
0.281156 -0.463368 1.04908
0.280041 -0.459695 1.04149
0.222673 -0.299301 1.05021
0.222918 -0.300516 1.04909
0.223077 -0.301657 1.04768
0.223215 -0.302777 1.04619
0.223265 -0.30382 1.0444
0.223269 -0.304819 1.04246
0.223249 -0.305794 1.04044
0.223293 -0.306821 1.03864
0.223321 -0.307831 1.0368
0.223445 -0.308922 1.0353
0.2236 -0.31004 1.03391
0.223847 -0.311235 1.03284
0.224004 -0.312349 1.03146
0.224155 -0.313456 1.03007
0.22432 -0.314574 1.02873
0.224512 -0.315713 1.02749
0.224736 -0.316879 1.02636
0.225167 -0.318234 1.02593
0.225659 -0.319643 1.02571
0.226136 -0.32104 1.02545
0.226812 -0.32262 1.02584
0.227903 -0.324589 1.02764
0.228911 -0.326484 1.02915
0.230283 -0.328723 1.03186
0.231754 -0.331065 1.03489
0.233311 -0.333494 1.0382
0.234671 -0.335746 1.04083
0.236088 -0.33806 1.04364
0.237214 -0.340102 1.04546
0.237999 -0.341826 1.04615
0.238395 -0.343176 1.04555
0.23839 -0.344139 1.04363
0.238273 -0.344991 1.04135
0.238017 -0.345703 1.03862
0.237959 -0.346602 1.03655
0.23803 -0.347624 1.0349
0.238211 -0.348754 1.03363
0.238581 -0.350067 1.03296
0.239212 -0.35164 1.03315
0.239993 -0.353362 1.03381
0.240915 -0.355228 1.03493
0.241839 -0.3571 1.03604
0.242724 -0.358937 1.03703
0.243378 -0.360542 1.03726
0.243889 -0.362006 1.03704
0.244184 -0.36325 1.03613
0.24449 -0.364504 1.03525
0.244722 -0.36568 1.03414
0.245039 -0.366945 1.0333
0.245391 -0.368243 1.03257
0.24582 -0.369621 1.03209
0.246249 -0.370999 1.03161
0.246729 -0.37243 1.03129
0.247214 -0.373866 1.03098
0.247728 -0.375334 1.03076
0.248217 -0.376775 1.03047
0.248756 -0.378269 1.03032
0.249318 -0.379789 1.03025
0.249893 -0.381324 1.03022
0.250443 -0.382833 1.0301
0.251037 -0.384391 1.03013
0.251627 -0.385945 1.03014
0.25215 -0.387428 1.02994
0.252672 -0.388909 1.02973
0.253213 -0.390412 1.02958
0.25375 -0.391913 1.02942
0.254373 -0.393507 1.02952
0.255039 -0.395149 1.02975
0.255767 -0.396863 1.03016
0.256604 -0.398697 1.0309
0.257495 -0.400592 1.03179
0.25829 -0.402387 1.03239
0.25919 -0.404299 1.0333
0.260143 -0.406273 1.03437
0.26114 -0.408301 1.03556
0.262182 -0.410382 1.03687
0.263314 -0.412567 1.03845
0.264448 -0.414759 1.04002
0.26561 -0.41699 1.04167
0.26681 -0.419266 1.04343
0.267936 -0.421465 1.04495
0.269113 -0.423725 1.04661
0.270349 -0.426056 1.04844
0.271396 -0.428178 1.04971
0.272181 -0.430001 1.0502
0.272897 -0.431747 1.05048
0.273332 -0.433169 1.04994
0.273559 -0.434351 1.04879
0.273903 -0.435668 1.04799
0.274289 -0.437032 1.04731
0.274654 -0.438372 1.04657
0.275123 -0.439833 1.04613
0.275624 -0.441331 1.04578
0.276014 -0.442702 1.04512
0.276526 -0.444212 1.0448
0.277093 -0.44579 1.04465
0.277644 -0.447349 1.04444
0.278165 -0.448873 1.04415
0.278736 -0.45046 1.044
0.279215 -0.451934 1.04358
0.279663 -0.453371 1.04308
0.280111 -0.454809 1.04257
0.280559 -0.456247 1.04207
0.281006 -0.457686 1.04157
0.281395 -0.459052 1.0409
0.224174 -0.298877 1.05038
0.224262 -0.299963 1.04872
0.224327 -0.301026 1.04697
0.224454 -0.302138 1.04545
0.224479 -0.303163 1.04359
0.22446 -0.304144 1.04157
0.224433 -0.305117 1.03954
0.224471 -0.306141 1.03774
0.224495 -0.30715 1.03589
0.224665 -0.308282 1.03455
0.224798 -0.309381 1.03309
0.225017 -0.310554 1.03193
0.225124 -0.311625 1.03039
0.225198 -0.312664 1.02874
0.225288 -0.313716 1.02715
0.225452 -0.31483 1.02582
0.225629 -0.315955 1.02454
0.226017 -0.317269 1.02397
0.226505 -0.318672 1.02374
0.22698 -0.320064 1.02346
0.227544 -0.321538 1.02349
0.228429 -0.323309 1.02458
0.229204 -0.324982 1.02531
0.230324 -0.326978 1.02717
0.231584 -0.329111 1.02949
0.233144 -0.33153 1.0328
0.234655 -0.33391 1.03592
0.236288 -0.336414 1.03943
0.237591 -0.338616 1.04183
0.238528 -0.340477 1.04303
0.238945 -0.341845 1.0425
0.238976 -0.342842 1.04071
0.238887 -0.343722 1.03854
0.238612 -0.344418 1.03577
0.238546 -0.345312 1.03368
0.238639 -0.346355 1.03212
0.238849 -0.347511 1.03095
0.239247 -0.348851 1.03038
0.239957 -0.350497 1.03082
0.240848 -0.352323 1.03184
0.24189 -0.354302 1.03333
0.242934 -0.356289 1.03483
0.243963 -0.358266 1.03626
0.244721 -0.359974 1.03683
0.24526 -0.361464 1.03669
0.245575 -0.36273 1.03584
0.245875 -0.363979 1.03495
0.246077 -0.365127 1.03374
0.246369 -0.366365 1.03283
0.246718 -0.367662 1.03209
0.247147 -0.36904 1.03161
0.247576 -0.370418 1.03113
0.24806 -0.371852 1.03082
0.248573 -0.373318 1.0306
0.249121 -0.374821 1.03049
0.249642 -0.376295 1.03029
0.25023 -0.37784 1.03029
0.250821 -0.37939 1.03031
0.251394 -0.380924 1.03027
0.251949 -0.382436 1.03016
0.252544 -0.383994 1.03019
0.25311 -0.385522 1.03012
0.253601 -0.38697 1.02982
0.254091 -0.388418 1.02951
0.254576 -0.38986 1.02919
0.255056 -0.391298 1.02885
0.255598 -0.392802 1.0287
0.25623 -0.394407 1.02882
0.256901 -0.396055 1.02906
0.257703 -0.397847 1.02969
0.25859 -0.399735 1.03057
0.259414 -0.401556 1.03125
0.260323 -0.403474 1.03218
0.26131 -0.405482 1.03334
0.262309 -0.407506 1.03453
0.263321 -0.409549 1.03575
0.264393 -0.411661 1.03713
0.265466 -0.413781 1.03852
0.266575 -0.415943 1.04
0.267892 -0.418346 1.04209
0.269182 -0.420723 1.04409
0.270596 -0.423243 1.04643
0.272036 -0.425802 1.04885
0.273265 -0.428127 1.05063
0.274053 -0.429952 1.05112
0.27476 -0.431688 1.05137
0.275158 -0.43307 1.05072
0.275382 -0.434251 1.04957
0.275701 -0.435541 1.04869
0.276054 -0.43687 1.04791
0.276353 -0.438134 1.04698
0.276762 -0.439527 1.04637
0.277202 -0.440954 1.04585
0.277567 -0.442295 1.04511
0.278046 -0.443769 1.0447
0.278581 -0.445308 1.04445
0.279096 -0.446825 1.04414
0.279583 -0.448308 1.04374
0.280123 -0.449856 1.0435
0.2806 -0.451328 1.04308
0.281048 -0.452765 1.04258
0.281496 -0.454203 1.04208
0.281943 -0.455641 1.04157
0.282391 -0.45708 1.04107
0.28281 -0.458483 1.04049
0.284265 -0.463431 1.04719
0.283167 -0.459812 1.03973
0.225561 -0.297338 1.05211
0.225709 -0.298479 1.05066
0.225729 -0.299511 1.04876
0.225719 -0.300515 1.04677
0.225813 -0.301602 1.04514
0.225812 -0.302607 1.04319
0.225767 -0.303569 1.04109
0.225689 -0.304502 1.03889
0.225701 -0.305506 1.03701
0.225721 -0.306515 1.03516
0.225873 -0.307633 1.03376
0.225985 -0.308715 1.03224
0.226177 -0.309865 1.03099
0.226244 -0.310903 1.02932
0.226263 -0.311895 1.0275
0.226301 -0.312902 1.02574
0.226461 -0.314013 1.0244
0.226637 -0.315138 1.02312
0.227006 -0.316433 1.02249
0.227496 -0.317837 1.02227
0.227975 -0.319231 1.02201
0.22854 -0.320706 1.02204
0.229176 -0.322244 1.0223
0.229676 -0.323661 1.02211
0.230588 -0.325457 1.02327
0.231619 -0.327367 1.02483
0.232979 -0.329587 1.02746
0.234592 -0.332049 1.03091
0.236334 -0.334643 1.03476
0.237738 -0.336928 1.03749
0.238818 -0.338915 1.03915
0.239326 -0.340364 1.03893
0.2394 -0.341403 1.03729
0.239358 -0.342328 1.03529
0.239136 -0.343076 1.03271
0.239105 -0.344004 1.03075
0.239258 -0.345105 1.0294
0.239527 -0.346317 1.02842
0.239979 -0.347707 1.02803
0.240718 -0.349377 1.02856
0.241731 -0.351318 1.02997
0.242858 -0.353376 1.03173
0.244016 -0.355469 1.03357
0.245151 -0.357545 1.03534
0.246011 -0.359352 1.03622
0.246556 -0.360847 1.0361
0.246897 -0.362139 1.03534
0.247199 -0.363391 1.03445
0.247402 -0.364543 1.03326
0.247718 -0.365808 1.03242
0.248096 -0.367134 1.03178
0.248553 -0.368539 1.03138
0.249009 -0.369945 1.03098
0.249517 -0.371404 1.03074
0.250033 -0.372873 1.03053
0.250608 -0.374403 1.0305
0.251159 -0.375908 1.03039
0.251752 -0.37746 1.03041
0.252347 -0.379012 1.03043
0.252921 -0.380546 1.03039
0.253451 -0.382033 1.03021
0.25402 -0.383563 1.03014
0.254586 -0.385089 1.03007
0.25505 -0.386509 1.02969
0.255511 -0.387926 1.02929
0.255965 -0.389336 1.02888
0.256392 -0.390716 1.02838
0.256852 -0.392132 1.02798
0.257452 -0.393699 1.028
0.258066 -0.395283 1.02806
0.258813 -0.397013 1.02852
0.2597 -0.398896 1.02939
0.26055 -0.400743 1.03015
0.261465 -0.402663 1.03109
0.262486 -0.404703 1.03234
0.263457 -0.406692 1.03344
0.264434 -0.408691 1.03455
0.265442 -0.410727 1.03574
0.266424 -0.41274 1.03685
0.267412 -0.41476 1.03796
0.26895 -0.417401 1.04069
0.270469 -0.420028 1.04335
0.272136 -0.422828 1.04642
0.273812 -0.425645 1.0495
0.275279 -0.428233 1.05196
0.276004 -0.429988 1.05226
0.276655 -0.431659 1.05234
0.277025 -0.433011 1.05161
0.277249 -0.434196 1.05045
0.277534 -0.435449 1.04948
0.277854 -0.436742 1.04861
0.278088 -0.437933 1.04749
0.278434 -0.439255 1.0467
0.278812 -0.440612 1.04599
0.279143 -0.441913 1.04516
0.279592 -0.443352 1.04466
0.280098 -0.444858 1.04432
0.280577 -0.446332 1.04391
0.28103 -0.447776 1.04342
0.281537 -0.449284 1.04308
0.281985 -0.450722 1.04258
0.282433 -0.452159 1.04208
0.28288 -0.453597 1.04158
0.283328 -0.455035 1.04107
0.283776 -0.456474 1.04057
0.284224 -0.457912 1.04007
0.284672 -0.459349 1.03957
0.226929 -0.295772 1.05377
0.226989 -0.296846 1.05201
0.227107 -0.297965 1.05045
0.227133 -0.299006 1.04858
0.227136 -0.300024 1.04664
0.227207 -0.301094 1.04494
0.227157 -0.302061 1.04283
0.227101 -0.303018 1.04071
0.226969 -0.303908 1.03833
0.226956 -0.304893 1.03637
0.226955 -0.305887 1.03446
0.227106 -0.307007 1.03307
0.227193 -0.308068 1.03146
0.227379 -0.309214 1.0302
0.227417 -0.310229 1.02844
0.227407 -0.311199 1.02653
0.227416 -0.312181 1.02468
0.227595 -0.313312 1.02341
0.227773 -0.314438 1.02215
0.228144 -0.315736 1.02153
0.228659 -0.31716 1.02139
0.229156 -0.31857 1.02119
0.229727 -0.320047 1.02123
0.230389 -0.321608 1.02157
0.23092 -0.323052 1.02148
0.231628 -0.324658 1.02197
0.232437 -0.32636 1.02279
0.233561 -0.328353 1.02463
0.234973 -0.33062 1.0274
0.236514 -0.333012 1.03058
0.237906 -0.335275 1.03326
0.239061 -0.337324 1.03516
0.239643 -0.338839 1.03519
0.239797 -0.33995 1.03382
0.239878 -0.340992 1.03223
0.239796 -0.341876 1.03012
0.239876 -0.34291 1.02853
0.240139 -0.344117 1.02754
0.240492 -0.34541 1.02684
0.240975 -0.346828 1.02655
0.241783 -0.34856 1.0273
0.242872 -0.350571 1.02893
0.244052 -0.352675 1.03085
0.245267 -0.354817 1.03286
0.246452 -0.356937 1.03477
0.247315 -0.358745 1.03566
0.247812 -0.360192 1.03539
0.248161 -0.361491 1.03465
0.248466 -0.362748 1.03378
0.248699 -0.363931 1.03268
0.249021 -0.365201 1.03186
0.249454 -0.366582 1.03139
0.24994 -0.368019 1.03109
0.250427 -0.369456 1.03078
0.250961 -0.370942 1.03062
0.251499 -0.372432 1.03047
0.252071 -0.373958 1.03043
0.25265 -0.375492 1.0304
0.25325 -0.37705 1.03044
0.25385 -0.378607 1.03047
0.254425 -0.380142 1.03043
0.254947 -0.381621 1.03022
0.255464 -0.383095 1.03
0.256028 -0.38462 1.02992
0.256469 -0.386015 1.02946
0.256907 -0.387407 1.029
0.257332 -0.388786 1.02849
0.257754 -0.390162 1.02798
0.258184 -0.391545 1.02749
0.258757 -0.393082 1.02743
0.259341 -0.394632 1.0274
0.260038 -0.396305 1.0277
0.260872 -0.398128 1.02841
0.261698 -0.399944 1.02909
0.262586 -0.401831 1.02994
0.263579 -0.403836 1.03111
0.264548 -0.405818 1.03219
0.265523 -0.407809 1.03328
0.266469 -0.409773 1.03429
0.267361 -0.41168 1.03512
0.26822 -0.413553 1.03586
0.269701 -0.416121 1.0384
0.271448 -0.418991 1.04171
0.273402 -0.422101 1.0456
0.275409 -0.425281 1.04962
0.277191 -0.428217 1.05298
0.277903 -0.429955 1.05323
0.278528 -0.431598 1.05323
0.278897 -0.432951 1.05249
0.279126 -0.434145 1.05136
0.279353 -0.435334 1.05021
0.279636 -0.436586 1.04923
0.279801 -0.437703 1.04792
0.280077 -0.438944 1.04693
0.28036 -0.440194 1.04596
0.280683 -0.441488 1.0451
0.281071 -0.442858 1.04443
0.281547 -0.444327 1.044
0.281995 -0.445766 1.0435
0.282445 -0.447206 1.04301
0.282922 -0.448678 1.04259
0.283341 -0.450082 1.042
0.283786 -0.451517 1.04149
0.284234 -0.452953 1.04099
0.284682 -0.454392 1.04049
0.285132 -0.455833 1.03999
0.285609 -0.457306 1.03957
0.286088 -0.458781 1.03915
0.228041 -0.295023 1.05256
0.228184 -0.296166 1.05109
0.228324 -0.297303 1.04962
0.22838 -0.29837 1.04786
0.22842 -0.299422 1.04606
0.228537 -0.300532 1.04452
0.22846 -0.30148 1.04233
0.228415 -0.30245 1.04025
0.228298 -0.303356 1.03794
0.228257 -0.304322 1.03589
0.228279 -0.305336 1.03406
0.228471 -0.306493 1.03282
0.228554 -0.307554 1.03121
0.228715 -0.30868 1.02986
0.228731 -0.309679 1.02804
0.228697 -0.310631 1.02605
0.228685 -0.311599 1.02415
0.228864 -0.312729 1.02288
0.229042 -0.313858 1.02162
0.229436 -0.315175 1.02107
0.229949 -0.316599 1.02093
0.230446 -0.318007 1.02073
0.231016 -0.319482 1.02076
0.231702 -0.321063 1.02118
0.232285 -0.322553 1.02125
0.233011 -0.324173 1.0218
0.233855 -0.325904 1.02272
0.234781 -0.327713 1.0239
0.235972 -0.329769 1.02594
0.237257 -0.331917 1.02827
0.238439 -0.333976 1.03025
0.239411 -0.335847 1.03155
0.240056 -0.337415 1.03178
0.240323 -0.338633 1.0308
0.240549 -0.33981 1.02969
0.240637 -0.340855 1.02813
0.240852 -0.342019 1.02699
0.241245 -0.343348 1.02641
0.241648 -0.344689 1.02587
0.242157 -0.34613 1.02567
0.243014 -0.347908 1.02657
0.244159 -0.349967 1.02837
0.245349 -0.352075 1.0303
0.246572 -0.35422 1.03233
0.247752 -0.356329 1.03421
0.248586 -0.358105 1.03499
0.249032 -0.359501 1.03456
0.249407 -0.360827 1.03391
0.249738 -0.362109 1.03312
0.249998 -0.363321 1.03211
0.250323 -0.364594 1.0313
0.250785 -0.366006 1.03092
0.25128 -0.367449 1.03064
0.251772 -0.368891 1.03035
0.252283 -0.370354 1.03012
0.252818 -0.37184 1.02996
0.253387 -0.373363 1.02991
0.253965 -0.374894 1.02987
0.254571 -0.376457 1.02993
0.255197 -0.37804 1.03004
0.255769 -0.37957 1.02998
0.256287 -0.381043 1.02976
0.2568 -0.382513 1.02952
0.25739 -0.384065 1.02952
0.257834 -0.385463 1.02907
0.258274 -0.386857 1.02861
0.258697 -0.388234 1.0281
0.259116 -0.389608 1.02758
0.259518 -0.390961 1.02701
0.260092 -0.392498 1.02694
0.260677 -0.394048 1.02691
0.261347 -0.39569 1.02714
0.262152 -0.397478 1.02775
0.262946 -0.399258 1.02833
0.263803 -0.401107 1.02909
0.264743 -0.40305 1.03009
0.265658 -0.404968 1.031
0.266603 -0.406923 1.032
0.267495 -0.408822 1.03284
0.268302 -0.410632 1.03343
0.269064 -0.412395 1.03388
0.270418 -0.414812 1.03604
0.272319 -0.417841 1.03978
0.274473 -0.421161 1.04422
0.276682 -0.424552 1.04881
0.278699 -0.427741 1.05282
0.279654 -0.429751 1.05376
0.280284 -0.431398 1.05377
0.280691 -0.432795 1.05314
0.280949 -0.434025 1.05209
0.281173 -0.435214 1.05094
0.281391 -0.436395 1.04977
0.281512 -0.437465 1.04834
0.281723 -0.438635 1.04716
0.281937 -0.439807 1.046
0.282223 -0.441059 1.04504
0.282576 -0.44239 1.04427
0.282992 -0.443791 1.04368
0.283411 -0.445196 1.04309
0.283859 -0.446634 1.04259
0.284307 -0.448072 1.04209
0.284723 -0.449473 1.0415
0.285168 -0.450907 1.04098
0.285614 -0.452342 1.04048
0.286064 -0.453783 1.03998
0.286515 -0.455225 1.03948
0.286994 -0.4567 1.03907
0.287475 -0.458176 1.03866
0.289238 -0.463446 1.04609
0.288052 -0.459768 1.03851
0.229611 -0.2967 1.04903
0.229677 -0.297777 1.04732
0.229776 -0.298879 1.04572
0.229901 -0.299998 1.04422
0.229822 -0.300948 1.04203
0.229773 -0.301917 1.03995
0.229649 -0.302822 1.03762
0.229587 -0.303773 1.03551
0.229607 -0.304789 1.03368
0.229796 -0.305946 1.03243
0.229897 -0.307024 1.03089
0.230061 -0.308154 1.02956
0.230081 -0.30916 1.02776
0.230071 -0.310135 1.02586
0.23008 -0.311124 1.02403
0.230259 -0.312257 1.02277
0.230439 -0.313389 1.02151
0.230835 -0.314709 1.02098
0.231345 -0.316128 1.02082
0.23184 -0.317537 1.02061
0.232407 -0.319009 1.02063
0.233098 -0.320593 1.02106
0.233755 -0.322148 1.02137
0.234537 -0.323816 1.02209
0.235415 -0.325576 1.02311
0.236425 -0.327459 1.02456
0.237409 -0.329322 1.02591
0.238413 -0.331207 1.02731
0.239259 -0.332952 1.0282
0.240013 -0.334616 1.02879
0.24047 -0.336007 1.02843
0.240891 -0.337365 1.02794
0.241281 -0.338693 1.02736
0.241625 -0.339978 1.02663
0.241995 -0.341288 1.02599
0.242466 -0.342692 1.02566
0.242943 -0.344102 1.02535
0.243521 -0.345608 1.02537
0.244436 -0.347439 1.02644
0.245622 -0.349532 1.02836
0.246832 -0.351654 1.03034
0.248029 -0.35377 1.03227
0.249153 -0.355821 1.03396
0.249929 -0.357536 1.03456
0.250315 -0.358874 1.03394
0.250685 -0.360195 1.03327
0.251014 -0.361476 1.03248
0.2513 -0.362713 1.03155
0.251625 -0.363988 1.03075
0.252111 -0.365423 1.03044
0.252603 -0.366864 1.03015
0.253123 -0.368334 1.02995
0.253613 -0.369773 1.02965
0.254148 -0.37126 1.02949
0.254716 -0.37278 1.02943
0.255294 -0.37431 1.02939
0.255877 -0.375847 1.02937
0.256501 -0.377428 1.02947
0.257072 -0.378954 1.02941
0.257589 -0.380428 1.02919
0.258104 -0.381899 1.02895
0.2587 -0.383454 1.02896
0.259194 -0.384906 1.02867
0.259637 -0.386302 1.02821
0.26006 -0.38768 1.0277
0.260505 -0.38908 1.02726
0.260909 -0.390437 1.02669
0.261461 -0.391949 1.02656
0.262049 -0.393501 1.02654
0.262712 -0.395135 1.02674
0.263459 -0.396859 1.02718
0.26419 -0.398569 1.02756
0.264987 -0.40035 1.02814
0.265869 -0.402226 1.02896
0.266699 -0.404048 1.02963
0.267588 -0.405938 1.03046
0.268482 -0.407834 1.0313
0.269263 -0.409611 1.0318
0.269942 -0.411281 1.03201
0.271133 -0.413511 1.03369
0.273192 -0.416701 1.03787
0.277841 -0.4237 1.04767
0.280105 -0.42715 1.05236
0.281304 -0.429427 1.054
0.28191 -0.431048 1.05393
0.282385 -0.432522 1.05349
0.282704 -0.433822 1.05261
0.282927 -0.435014 1.05146
0.283169 -0.436225 1.05037
0.283255 -0.437258 1.04884
0.283399 -0.438356 1.04748
0.283549 -0.439457 1.04613
0.283771 -0.440639 1.04499
0.284059 -0.441895 1.04404
0.28444 -0.443257 1.04335
0.284826 -0.444623 1.04267
0.285244 -0.446028 1.04209
0.285692 -0.447466 1.04159
0.286108 -0.448866 1.04099
0.286551 -0.4503 1.04048
0.286994 -0.451731 1.03996
0.287446 -0.453175 1.03947
0.287899 -0.454617 1.03898
0.288379 -0.456094 1.03857
0.288859 -0.457569 1.03815
0.289466 -0.459194 1.03808
0.23064 -0.29486 1.0495
0.230777 -0.295999 1.04803
0.230942 -0.297158 1.04666
0.23111 -0.298317 1.04531
0.231246 -0.299448 1.04385
0.231195 -0.300424 1.04176
0.231178 -0.301423 1.0398
0.231052 -0.30233 1.03747
0.230988 -0.303283 1.03537
0.23101 -0.304304 1.03355
0.231179 -0.305445 1.03224
0.231325 -0.306565 1.03085
0.231491 -0.307699 1.02953
0.231512 -0.308707 1.02774
0.2315 -0.309685 1.02584
0.231524 -0.31069 1.02407
0.231681 -0.311807 1.02274
0.23186 -0.312941 1.02149
0.232257 -0.314261 1.02095
0.232767 -0.315682 1.02079
0.233263 -0.31709 1.02058
0.233831 -0.318562 1.0206
0.234525 -0.320147 1.02103
0.235231 -0.321745 1.0215
0.236016 -0.323415 1.02222
0.236897 -0.325175 1.02324
0.237812 -0.326968 1.02437
0.238736 -0.328774 1.02552
0.239637 -0.330561 1.02658
0.240408 -0.332235 1.02722
0.241088 -0.333827 1.02757
0.241586 -0.335255 1.02733
0.242005 -0.336611 1.02685
0.242398 -0.337941 1.02627
0.242823 -0.339302 1.0258
0.243253 -0.340668 1.02535
0.243805 -0.342147 1.02528
0.244386 -0.343655 1.0253
0.245094 -0.345284 1.02572
0.246079 -0.347178 1.027
0.247304 -0.349305 1.02903
0.24847 -0.35138 1.03085
0.249585 -0.353413 1.03251
0.250578 -0.355333 1.03378
0.251241 -0.356938 1.03402
0.251596 -0.358245 1.03331
0.251961 -0.359563 1.03263
0.252291 -0.360844 1.03184
0.252603 -0.362107 1.03099
0.25295 -0.363405 1.03026
0.253458 -0.364861 1.03002
0.253947 -0.366299 1.02972
0.254488 -0.367789 1.02958
0.254977 -0.369228 1.02928
0.255514 -0.370715 1.02912
0.256058 -0.37221 1.02898
0.256637 -0.373741 1.02895
0.257164 -0.375221 1.02876
0.257761 -0.376772 1.02877
0.258305 -0.37827 1.02863
0.258802 -0.379721 1.02835
0.259323 -0.381197 1.02813
0.259923 -0.382755 1.02815
0.260446 -0.384236 1.02794
0.260942 -0.385688 1.02764
0.261396 -0.387097 1.02723
0.261871 -0.388529 1.02687
0.262333 -0.389946 1.02647
0.262886 -0.391459 1.02634
0.263449 -0.392984 1.02624
0.264082 -0.394584 1.02635
0.26477 -0.396243 1.02661
0.265441 -0.397886 1.02682
0.266206 -0.399631 1.0273
0.267027 -0.401438 1.02794
0.267824 -0.403222 1.0285
0.26865 -0.405039 1.02914
0.269508 -0.406895 1.02988
0.270266 -0.408643 1.03031
0.270953 -0.410317 1.03054
0.271978 -0.41236 1.03174
0.273873 -0.415359 1.03542
0.275855 -0.41846 1.03933
0.278351 -0.422138 1.04468
0.280747 -0.425718 1.04973
0.282262 -0.428336 1.05225
0.283148 -0.430264 1.05298
0.283939 -0.43209 1.05344
0.284292 -0.433429 1.05266
0.284524 -0.434632 1.05154
0.284795 -0.435878 1.05052
0.284912 -0.436951 1.04909
0.285085 -0.438081 1.0478
0.285209 -0.439157 1.04639
0.285424 -0.440335 1.04523
0.285672 -0.441547 1.04417
0.285986 -0.442833 1.0433
0.286306 -0.444127 1.04244
0.28669 -0.445492 1.04176
0.287107 -0.446893 1.04117
0.287493 -0.448261 1.0405
0.287938 -0.449695 1.03999
0.288354 -0.451097 1.0394
0.288802 -0.452534 1.03889
0.289251 -0.453974 1.0384
0.289732 -0.455451 1.03798
0.290211 -0.456925 1.03757
0.290848 -0.458584 1.03757
0.292862 -0.464121 1.0456
0.291597 -0.460377 1.03788
0.232073 -0.296432 1.04556
0.232355 -0.297684 1.04459
0.232533 -0.29885 1.04328
0.232545 -0.29988 1.04141
0.232573 -0.30092 1.03961
0.232539 -0.301905 1.0376
0.232494 -0.302878 1.03557
0.232517 -0.303903 1.03376
0.232685 -0.305045 1.03245
0.232878 -0.306207 1.03122
0.233045 -0.307345 1.02991
0.233041 -0.308337 1.02804
0.233089 -0.309369 1.02634
0.23311 -0.310376 1.02457
0.233243 -0.311474 1.02316
0.23342 -0.31261 1.02191
0.233835 -0.313947 1.02143
0.23428 -0.31531 1.02105
0.234776 -0.316719 1.02084
0.23535 -0.318197 1.02088
0.236046 -0.319783 1.02131
0.236778 -0.321402 1.02185
0.237541 -0.323051 1.02249
0.238422 -0.324809 1.0235
0.239285 -0.326553 1.02445
0.240134 -0.328289 1.02535
0.240933 -0.329982 1.02608
0.241647 -0.331601 1.02653
0.242249 -0.333122 1.02663
0.242722 -0.334526 1.02632
0.243167 -0.335903 1.02591
0.24359 -0.337261 1.02543
0.244089 -0.33869 1.0252
0.244598 -0.340128 1.02499
0.245262 -0.341711 1.02527
0.24596 -0.343327 1.02565
0.246839 -0.345117 1.0266
0.247921 -0.347099 1.02817
0.249106 -0.349184 1.03005
0.250179 -0.351169 1.03158
0.251171 -0.353081 1.03284
0.251974 -0.354816 1.03351
0.252509 -0.356297 1.03335
0.252861 -0.357602 1.03263
0.253227 -0.35892 1.03196
0.253562 -0.360207 1.03118
0.253903 -0.3615 1.03043
0.254278 -0.362825 1.02978
0.254785 -0.364281 1.02954
0.255248 -0.365692 1.02916
0.255763 -0.367154 1.02893
0.256221 -0.368562 1.02854
0.256734 -0.370025 1.02831
0.257223 -0.371464 1.02801
0.257773 -0.372965 1.02789
0.258269 -0.374411 1.0276
0.258837 -0.375931 1.02753
0.259377 -0.377424 1.02738
0.2599 -0.3789 1.02717
0.26048 -0.380435 1.02713
0.261111 -0.382022 1.02723
0.261691 -0.38356 1.02719
0.262215 -0.385041 1.02698
0.262731 -0.386514 1.02675
0.263241 -0.387979 1.02649
0.26376 -0.389457 1.02626
0.264317 -0.390974 1.02614
0.264873 -0.392491 1.02602
0.265478 -0.394061 1.02604
0.26611 -0.395659 1.02613
0.266727 -0.397244 1.02618
0.267461 -0.398953 1.02656
0.268224 -0.400696 1.02703
0.268961 -0.402413 1.02742
0.26975 -0.404186 1.02795
0.2706 -0.406029 1.02865
0.271356 -0.407772 1.02908
0.272109 -0.409515 1.0295
0.272909 -0.411309 1.03004
0.274535 -0.414004 1.03294
0.276303 -0.416861 1.03622
0.278766 -0.420484 1.04146
0.281168 -0.424053 1.0465
0.283063 -0.427078 1.05009
0.284307 -0.429396 1.05182
0.285296 -0.431437 1.05283
0.285688 -0.43282 1.05216
0.285983 -0.434095 1.05122
0.286324 -0.435419 1.0504
0.286478 -0.436535 1.04907
0.28672 -0.437748 1.04798
0.286903 -0.438893 1.04674
0.287147 -0.440105 1.04566
0.287365 -0.441286 1.04452
0.287609 -0.442495 1.04345
0.287858 -0.443709 1.0424
0.288172 -0.444995 1.04152
0.288524 -0.446323 1.04076
0.28888 -0.447658 1.04
0.289297 -0.44906 1.03941
0.28968 -0.450423 1.03874
0.290122 -0.451854 1.03822
0.29057 -0.453292 1.03772
0.291052 -0.45477 1.03731
0.291536 -0.456248 1.0369
0.292202 -0.45794 1.03699
0.292918 -0.459693 1.03721
0.292429 -0.462268 1.03842
0.293689 -0.46151 1.03757
0.233817 -0.298251 1.04271
0.233938 -0.299371 1.04121
0.234037 -0.300471 1.03965
0.234085 -0.301527 1.03792
0.234085 -0.30254 1.03605
0.234151 -0.303604 1.03439
0.234319 -0.304751 1.03308
0.234561 -0.305955 1.03201
0.234749 -0.307113 1.03077
0.234721 -0.308089 1.02882
0.234785 -0.30914 1.02719
0.234782 -0.310129 1.02534
0.234842 -0.31117 1.0237
0.234992 -0.312284 1.02236
0.235401 -0.313618 1.02186
0.235798 -0.314941 1.02132
0.236297 -0.316353 1.02111
0.236897 -0.317852 1.02123
0.237572 -0.319419 1.02159
0.238307 -0.32104 1.02213
0.239046 -0.322667 1.02269
0.239906 -0.324404 1.02362
0.240721 -0.326103 1.02441
0.241541 -0.32781 1.0252
0.242283 -0.329451 1.02575
0.242968 -0.331043 1.02611
0.243546 -0.33254 1.02613
0.243999 -0.333924 1.02574
0.244445 -0.335304 1.02534
0.244868 -0.336661 1.02487
0.245417 -0.338135 1.02479
0.246006 -0.339647 1.02483
0.246808 -0.341356 1.02554
0.247653 -0.343107 1.02637
0.248715 -0.345066 1.02787
0.24979 -0.347039 1.0294
0.250871 -0.349023 1.03095
0.251807 -0.350876 1.03203
0.252616 -0.352613 1.03273
0.25323 -0.354165 1.03281
0.253711 -0.355594 1.03249
0.254089 -0.356923 1.03184
0.25446 -0.358248 1.03119
0.25483 -0.359569 1.03052
0.255202 -0.360892 1.02987
0.255606 -0.362246 1.02931
0.256094 -0.363681 1.029
0.256532 -0.365067 1.02855
0.25702 -0.366504 1.02824
0.257448 -0.367881 1.02776
0.25793 -0.369312 1.02743
0.258387 -0.370719 1.02703
0.258907 -0.372187 1.02682
0.259371 -0.373601 1.02644
0.259907 -0.375088 1.02628
0.260446 -0.376578 1.02612
0.260994 -0.378077 1.02598
0.261628 -0.379665 1.0261
0.262291 -0.381284 1.0263
0.262932 -0.382881 1.02644
0.263513 -0.38442 1.02639
0.264089 -0.385952 1.02633
0.264638 -0.38746 1.02619
0.265188 -0.388969 1.02605
0.265745 -0.390484 1.02593
0.266296 -0.391996 1.02579
0.2669 -0.393563 1.0258
0.267508 -0.395135 1.02582
0.268098 -0.39669 1.02579
0.268829 -0.398395 1.02616
0.269538 -0.400078 1.02646
0.27022 -0.401735 1.02669
0.270952 -0.403445 1.02705
0.271797 -0.405278 1.02773
0.272548 -0.407014 1.02815
0.273363 -0.40882 1.02873
0.274229 -0.410684 1.02947
0.275596 -0.413089 1.0316
0.277108 -0.415659 1.03415
0.279222 -0.418889 1.03838
0.281501 -0.422307 1.04305
0.283645 -0.42559 1.04732
0.285183 -0.428221 1.04987
0.286379 -0.430484 1.05146
0.286978 -0.432095 1.05136
0.287333 -0.433437 1.05059
0.287777 -0.434876 1.05007
0.288061 -0.436138 1.0491
0.288409 -0.437471 1.04831
0.288694 -0.438732 1.04734
0.288975 -0.439988 1.04637
0.289187 -0.441166 1.04521
0.289369 -0.442307 1.04397
0.289517 -0.44341 1.04264
0.289724 -0.444577 1.04148
0.290003 -0.445824 1.04051
0.290324 -0.44712 1.03967
0.290711 -0.448487 1.039
0.291061 -0.449814 1.03823
0.291497 -0.451236 1.03769
0.291938 -0.452668 1.03717
0.292397 -0.454118 1.0367
0.292887 -0.455603 1.03631
0.293587 -0.457334 1.03649
0.294271 -0.459047 1.03662
0.295037 -0.460856 1.03696
0.297096 -0.466424 1.045
0.295835 -0.462704 1.03739
0.235416 -0.298928 1.04129
0.235555 -0.300063 1.03986
0.235649 -0.301159 1.03829
0.235761 -0.302268 1.03679
0.23585 -0.303355 1.03522
0.23602 -0.304504 1.03391
0.236261 -0.305711 1.03284
0.236474 -0.306893 1.03168
0.236418 -0.307851 1.02966
0.236484 -0.308906 1.02803
0.236477 -0.309897 1.02617
0.236514 -0.310922 1.02446
0.236628 -0.312009 1.023
0.237031 -0.31334 1.02248
0.237401 -0.314642 1.02186
0.237901 -0.316055 1.02165
0.2385 -0.317554 1.02176
0.239153 -0.319101 1.02204
0.239864 -0.3207 1.0225
0.240583 -0.322308 1.02298
0.241396 -0.324002 1.02376
0.242166 -0.32566 1.02439
0.242936 -0.32732 1.02502
0.243627 -0.328914 1.0254
0.244286 -0.33048 1.02567
0.244842 -0.331956 1.02561
0.245295 -0.333342 1.02524
0.245768 -0.334745 1.02492
0.246212 -0.336122 1.02451
0.246817 -0.337645 1.0246
0.247512 -0.339253 1.02497
0.248433 -0.34107 1.02603
0.249422 -0.342954 1.02731
0.250604 -0.345018 1.02916
0.251634 -0.346949 1.03054
0.252575 -0.3488 1.03164
0.253353 -0.350503 1.03224
0.253988 -0.352074 1.03238
0.254439 -0.353472 1.03197
0.254893 -0.354875 1.03156
0.255298 -0.356229 1.031
0.2557 -0.357581 1.03044
0.2561 -0.358933 1.02987
0.256503 -0.360285 1.02931
0.256935 -0.361666 1.02883
0.257448 -0.363126 1.02861
0.257891 -0.364517 1.02816
0.258375 -0.36595 1.02785
0.2588 -0.367323 1.02735
0.259247 -0.36872 1.02692
0.259651 -0.370073 1.02636
0.260136 -0.371507 1.02604
0.26057 -0.372891 1.02558
0.261053 -0.374323 1.02525
0.261591 -0.375811 1.02509
0.262139 -0.37731 1.02496
0.262807 -0.378929 1.02517
0.263479 -0.380555 1.0254
0.264176 -0.382207 1.02569
0.264815 -0.383803 1.02582
0.26545 -0.385396 1.02593
0.266033 -0.386936 1.02588
0.266618 -0.38848 1.02584
0.267171 -0.389992 1.02571
0.267719 -0.3915 1.02556
0.268324 -0.393066 1.02556
0.268911 -0.394616 1.02552
0.269503 -0.396173 1.02549
