ply
format ascii 1.0
element vertex 1631
property float x
property float y
property float z
end_header
0.0694112 -0.0718953 0.85399
0.0702552 -0.0706521 0.854133
0.0711022 -0.0694123 0.854316
0.0719599 -0.068185 0.854661
0.0728048 -0.0669422 0.854811
0.0736292 -0.065677 0.854671
0.0744585 -0.0644181 0.854603
0.0752701 -0.063142 0.854291
0.0760887 -0.061875 0.854085
0.0769047 -0.0606073 0.853856
0.0777449 -0.0593638 0.853966
0.0785944 -0.0581291 0.8542
0.0794944 -0.0569385 0.855099
0.080433 -0.0557776 0.85649
0.081384 -0.0546213 0.857998
0.0823281 -0.053454 0.859395
0.0832418 -0.0522579 0.860385
0.084126 -0.0510365 0.860984
0.0849823 -0.0497933 0.861225
0.0858312 -0.0485446 0.861377
0.0867095 -0.0473154 0.861884
0.0875991 -0.0460922 0.862513
0.0884996 -0.0448738 0.86326
0.0894374 -0.0436754 0.864432
0.0903852 -0.0424788 0.865694
0.0913608 -0.0412934 0.86726
0.0923749 -0.0401234 0.869224
0.0934214 -0.0389626 0.871509
0.0944296 -0.037776 0.873326
0.0954373 -0.0365825 0.875109
0.0964692 -0.0353938 0.877116
0.102838 -0.023578 0.864699
0.10367 -0.0223232 0.864671
0.104507 -0.0210714 0.864715
0.105356 -0.0198231 0.864866
0.106187 -0.0185701 0.864844
0.106997 -0.0173134 0.864625
0.107793 -0.0160554 0.864291
0.108588 -0.0147982 0.863941
0.109384 -0.0135425 0.863622
0.110163 -0.0122861 0.863147
0.110968 -0.0110356 0.862921
0.111809 -0.00979031 0.863023
0.112618 -0.00854175 0.862843
0.113455 -0.00729658 0.862924
0.11434 -0.00605572 0.863422
0.115249 -0.0048157 0.864123
0.116155 -0.00357402 0.864783
0.117113 -0.00233376 0.865888
0.11806 -0.00109013 0.866887
0.118997 0.000155778 0.86779
0.018744 -0.153376 0.899462
0.0196306 -0.151883 0.898566
0.02051 -0.150281 0.896975
0.0213783 -0.148581 0.894753
0.0222368 -0.146811 0.892047
0.0230849 -0.144981 0.888916
0.0239278 -0.143178 0.885897
0.0247686 -0.141425 0.883136
0.0256238 -0.139879 0.881663
0.0264818 -0.138394 0.880561
0.0273521 -0.137045 0.880332
0.0282252 -0.135725 0.880286
0.0291048 -0.134461 0.880613
0.0299857 -0.133201 0.880971
0.0308738 -0.131986 0.881637
0.03176 -0.130758 0.882233
0.0326562 -0.12958 0.88318
0.0335629 -0.128454 0.884509
0.0344611 -0.127268 0.885441
0.035366 -0.126103 0.88653
0.0362457 -0.124798 0.886629
0.0371088 -0.123414 0.886138
0.0379531 -0.121946 0.885017
0.0387873 -0.12045 0.883657
0.0396014 -0.11888 0.881693
0.0404188 -0.117348 0.879979
0.0412183 -0.115765 0.87784
0.0420115 -0.114179 0.875615
0.0427947 -0.112581 0.87324
0.0435901 -0.111048 0.871332
0.0443921 -0.109558 0.869725
0.0452019 -0.108111 0.868437
0.0460217 -0.106706 0.86745
0.046856 -0.105357 0.866921
0.0476797 -0.103983 0.866154
0.0485085 -0.102629 0.865544
0.0493392 -0.101286 0.865006
0.0501502 -0.0998979 0.86405
0.0509548 -0.0985008 0.862989
0.0517468 -0.0970832 0.861716
0.0525237 -0.0956376 0.860143
0.0533002 -0.0942043 0.858641
0.0540749 -0.0927794 0.857176
0.0548531 -0.091372 0.855834
0.0556546 -0.0900242 0.855026
0.0564816 -0.0887346 0.85476
0.0573213 -0.0874726 0.854758
0.0582031 -0.0862919 0.855568
0.0590969 -0.0851294 0.856586
0.0599965 -0.083973 0.857696
0.0608882 -0.0827957 0.858608
0.0617449 -0.0815562 0.858884
0.0625588 -0.0802456 0.858389
0.0633623 -0.0789219 0.857731
0.0641439 -0.0775693 0.856721
0.0649148 -0.0762082 0.855584
0.0657103 -0.0748889 0.854883
0.0665049 -0.0735734 0.854206
0.0673048 -0.0722687 0.85362
0.0681244 -0.0709941 0.853382
0.0689685 -0.0697525 0.853531
0.0698147 -0.0685135 0.853719
0.070678 -0.0672944 0.854161
0.0715352 -0.0660665 0.854492
0.0723668 -0.0648101 0.854461
0.073203 -0.0635591 0.854496
0.0740226 -0.062291 0.854281
0.0748471 -0.0610301 0.854164
0.0756648 -0.0597633 0.853943
0.0765049 -0.0585198 0.854056
0.0773484 -0.0572792 0.854202
0.0782455 -0.0560863 0.855082
0.079169 -0.0549127 0.856293
0.0801175 -0.053755 0.857793
0.0810584 -0.0525856 0.859179
0.0819792 -0.0513955 0.860262
0.0828631 -0.0501743 0.86087
0.0837255 -0.0489355 0.861197
0.0845744 -0.0476867 0.861348
0.0854596 -0.0464622 0.861939
0.0863484 -0.0452382 0.862574
0.0872419 -0.0440152 0.86324
0.08817 -0.0428109 0.864318
0.0890999 -0.0416041 0.865396
0.0900574 -0.040409 0.866771
0.0910522 -0.0392293 0.868545
0.0920852 -0.0380621 0.870714
0.0931006 -0.0368805 0.872651
0.094131 -0.0356975 0.874713
0.0951776 -0.0345161 0.876918
0.0962101 -0.0333211 0.87893
0.102416 -0.0214664 0.864673
0.103273 -0.0202202 0.864912
0.10412 -0.0189703 0.865043
0.104959 -0.0177187 0.865092
0.105778 -0.0164636 0.864959
0.106577 -0.0152064 0.864634
0.107364 -0.0139475 0.864205
0.108161 -0.0126918 0.863874
0.10892 -0.0114326 0.863215
0.109724 -0.010182 0.86297
0.110547 -0.00893416 0.862908
0.111357 -0.00768625 0.862729
0.112185 -0.00644067 0.862726
0.113068 -0.00519914 0.863218
0.113965 -0.00395842 0.863816
0.114869 -0.0027168 0.864473
0.115825 -0.0014758 0.865571
0.116771 -0.000231967 0.866575
0.117705 0.00101418 0.867465
0.0165374 -0.154326 0.902505
0.0174307 -0.152832 0.901628
0.0183203 -0.151318 0.900614
0.0192036 -0.149712 0.899009
0.0200788 -0.148032 0.89691
0.0209405 -0.146216 0.893926
0.0217926 -0.144354 0.890585
0.0226405 -0.142532 0.887437
0.0234857 -0.140764 0.884574
0.0243414 -0.139191 0.882932
0.0252071 -0.137749 0.882116
0.0260828 -0.136428 0.882083
0.0269592 -0.135122 0.882152
0.0278442 -0.133886 0.882686
0.028727 -0.132626 0.883066
0.0296178 -0.131421 0.883832
0.0305069 -0.130191 0.884428
0.0314032 -0.129008 0.885369
0.0323079 -0.127863 0.886597
0.0332031 -0.126646 0.887328
0.0340985 -0.125423 0.888025
0.0349713 -0.12407 0.887787
0.0358278 -0.122642 0.886982
0.0366672 -0.121136 0.885574
0.0375067 -0.119653 0.884303
0.03833 -0.118108 0.882531
0.0391509 -0.116579 0.880839
0.0399498 -0.114977 0.878532
0.0407458 -0.113388 0.876273
0.0415294 -0.111775 0.873774
0.0423428 -0.110299 0.872315
0.0431158 -0.108694 0.869772
0.0438963 -0.107141 0.86759
0.0446838 -0.10563 0.865703
0.0455004 -0.104231 0.864716
0.0462958 -0.102776 0.863229
0.0471481 -0.101502 0.863263
0.048001 -0.100229 0.863311
0.0488278 -0.0988865 0.86273
0.0496279 -0.0974801 0.86156
0.0504142 -0.0960481 0.860122
0.0511995 -0.0946251 0.858721
0.0519857 -0.0932155 0.85741
0.0527703 -0.0918141 0.856138
0.0535589 -0.0904307 0.855001
0.0543698 -0.0891039 0.854376
0.0552057 -0.0878341 0.854294
0.0560533 -0.0865888 0.854452
0.0569384 -0.0854165 0.85535
0.0578356 -0.0842632 0.856471
0.0587348 -0.0831071 0.85759
0.0596208 -0.0819214 0.858419
0.0604766 -0.0806804 0.858675
0.0612869 -0.0793634 0.858099
0.0620859 -0.0780331 0.857358
0.0628681 -0.0766815 0.856347
0.0636406 -0.0753218 0.855203
0.0644322 -0.0739967 0.85442
0.0652274 -0.0726824 0.853738
0.0660319 -0.0713845 0.853222
0.0668567 -0.0701175 0.853063
0.0677007 -0.0688762 0.85321
0.0685473 -0.0676382 0.853403
0.0694214 -0.0664328 0.85402
0.0702836 -0.0652119 0.854452
0.0711295 -0.0639707 0.854615
0.0719786 -0.0627334 0.854839
0.0728168 -0.0614841 0.854894
0.0736487 -0.0602289 0.854866
0.0744691 -0.0589629 0.854665
0.0753106 -0.0577189 0.854782
0.0761534 -0.0564762 0.854917
0.0770378 -0.0552704 0.855622
0.0779456 -0.0540823 0.856633
0.0788834 -0.0529154 0.858023
0.0798106 -0.0517348 0.859234
0.0807224 -0.0505378 0.860229
0.0816064 -0.0493163 0.860837
0.0824694 -0.0480781 0.861168
0.0833183 -0.0468294 0.86132
0.0842019 -0.0456038 0.86191
0.0850907 -0.0443797 0.862546
0.0859834 -0.0431562 0.863211
0.0869099 -0.0419508 0.864289
0.0878389 -0.0407434 0.865368
0.0887948 -0.0395472 0.866742
0.0897867 -0.0383648 0.86851
0.0908092 -0.0371929 0.870589
0.0918199 -0.0360082 0.872507
0.0928643 -0.034832 0.874757
0.0939212 -0.0336538 0.877111
0.094968 -0.0324637 0.879303
0.0972888 -0.0321391 0.881401
0.0960543 -0.0312825 0.881888
0.0971585 -0.0301002 0.884623
0.102039 -0.0193676 0.865111
0.102882 -0.0181164 0.865193
0.103725 -0.0168662 0.865295
0.104552 -0.015612 0.865224
0.10536 -0.0143557 0.864983
0.106142 -0.013096 0.864485
0.106937 -0.011841 0.864139
0.107688 -0.0105805 0.863378
0.10849 -0.00932895 0.863111
0.109294 -0.00807956 0.862875
0.110102 -0.00683086 0.862678
0.110921 -0.00558529 0.86258
0.111792 -0.00434264 0.862963
0.112667 -0.00310129 0.863382
0.11357 -0.00185895 0.864037
0.114514 -0.000618156 0.865048
0.11546 0.000626848 0.86607
0.116394 0.00187269 0.866964
0.0152102 -0.153588 0.903507
0.0161067 -0.152136 0.902889
0.0170001 -0.15063 0.901929
0.0178881 -0.149054 0.900511
0.0187689 -0.14739 0.898517
0.0196391 -0.145631 0.89588
0.0204962 -0.143733 0.89231
0.0213469 -0.14187 0.888898
0.0221968 -0.140083 0.885906
0.0230611 -0.138566 0.884636
0.0239266 -0.137088 0.883589
0.0248067 -0.135797 0.883766
0.0256883 -0.134519 0.884039
0.0265748 -0.133282 0.884587
0.0274591 -0.132019 0.884972
0.0283497 -0.130799 0.885646
0.0292348 -0.129535 0.886035
0.0301261 -0.128307 0.886679
0.0310247 -0.127117 0.887605
0.0319128 -0.125855 0.888028
0.0328009 -0.124588 0.888411
0.0336694 -0.123206 0.887961
0.0345255 -0.121764 0.887048
0.0353673 -0.12026 0.885642
0.0362141 -0.118804 0.884567
0.0370461 -0.117289 0.883014
0.0378783 -0.115796 0.881595
0.0386861 -0.114216 0.879454
0.0394907 -0.112645 0.877333
0.0402955 -0.111099 0.875362
0.0411323 -0.109697 0.874519
0.0418735 -0.107954 0.870834
0.0426156 -0.106251 0.867395
0.0433612 -0.104593 0.864253
0.044123 -0.103017 0.861728
0.0448708 -0.101421 0.858971
0.0457389 -0.100212 0.859527
0.0466075 -0.0989998 0.860059
0.047446 -0.097701 0.859827
0.0482588 -0.0963361 0.858986
0.0490633 -0.0949568 0.857982
0.0498656 -0.0935808 0.856981
0.0506724 -0.0922247 0.856138
0.0514755 -0.0908667 0.855251
0.0522865 -0.0895341 0.854583
0.0531118 -0.0882385 0.854252
0.0539616 -0.0869974 0.854453
0.0548167 -0.0857688 0.854788
0.0557023 -0.0845971 0.855701
0.0565946 -0.0834343 0.856736
0.0574832 -0.0822592 0.857668
0.0583584 -0.0810549 0.858307
0.0592037 -0.0797965 0.858374
0.0600137 -0.0784789 0.857784
0.0608146 -0.0771508 0.85705
0.061599 -0.0758023 0.85606
0.0623742 -0.0744455 0.854927
0.0631663 -0.0731213 0.854144
0.0639574 -0.0718005 0.853364
0.0647615 -0.0705031 0.852846
0.0655921 -0.0692441 0.852776
0.0664465 -0.0680171 0.853099
0.0672988 -0.0667868 0.853395
0.0681826 -0.0655936 0.854178
0.0690514 -0.0643796 0.854702
0.0699087 -0.063151 0.855048
0.07076 -0.0619149 0.855298
0.0716111 -0.0606779 0.855535
0.072451 -0.0594291 0.855601
0.0732781 -0.0581679 0.855489
0.0741211 -0.0569234 0.855615
0.0749654 -0.0556799 0.855755
0.0758359 -0.0544602 0.856268
0.0767287 -0.053258 0.857082
0.0776514 -0.0520775 0.858274
0.0785628 -0.0508838 0.859292
0.0794672 -0.0496809 0.860205
0.0803503 -0.048459 0.860812
0.0812126 -0.0472202 0.861139
0.0820615 -0.0459715 0.861291
0.0829451 -0.0447459 0.861882
0.083833 -0.0435213 0.862517
0.084724 -0.0422966 0.863183
0.0856505 -0.0410912 0.864261
0.0865779 -0.0398827 0.865339
0.087533 -0.0386856 0.866722
0.0885164 -0.0374985 0.868418
0.0895363 -0.0363248 0.870505
0.0905363 -0.0351342 0.872326
0.0915851 -0.0339598 0.874656
0.0926469 -0.0327837 0.877099
0.0937036 -0.031597 0.879444
0.0947821 -0.0304113 0.881975
0.0958778 -0.0292241 0.884648
0.0982609 -0.0289072 0.887281
0.0969871 -0.0280332 0.887415
0.098007 -0.0268029 0.889176
0.101663 -0.0172669 0.865558
0.102509 -0.0160169 0.865671
0.103346 -0.0147644 0.8657
0.104161 -0.0135086 0.865512
0.104935 -0.0122476 0.864933
0.105723 -0.0109907 0.864503
0.106472 -0.00973018 0.863711
0.107248 -0.00847494 0.863184
0.108033 -0.00722332 0.862762
0.10884 -0.00597545 0.86255
0.109645 -0.0047283 0.862332
0.110497 -0.00348595 0.862546
0.111362 -0.00224316 0.86287
0.112251 -0.00100162 0.86342
0.113184 0.000240352 0.864351
0.114129 0.00148456 0.865369
0.118409 0.0031243 0.87715
0.116165 0.00272899 0.875945
0.0129783 -0.154205 0.904535
0.0138788 -0.152782 0.904103
0.0147776 -0.151357 0.903658
0.0156746 -0.14989 0.902935
0.0165675 -0.148363 0.901828
0.0174539 -0.146753 0.900171
0.018332 -0.145025 0.89773
0.0191992 -0.14319 0.894557
0.0200543 -0.141273 0.890795
0.0209062 -0.139434 0.887465
0.0217764 -0.137947 0.886391
0.0226474 -0.136498 0.885553
0.0235228 -0.135123 0.885187
0.0244059 -0.133845 0.885469
0.0252945 -0.132615 0.886081
0.0261783 -0.131335 0.886364
0.0270666 -0.130094 0.886914
0.02795 -0.128799 0.887092
0.0288351 -0.127525 0.887424
0.0297256 -0.126277 0.887946
0.0306051 -0.124958 0.887959
0.0314847 -0.123638 0.887956
0.0323497 -0.122232 0.887317
0.0332022 -0.120769 0.886234
0.0340481 -0.119282 0.884937
0.0349039 -0.117866 0.884158
0.0357482 -0.116405 0.883005
0.0365936 -0.114966 0.881998
0.0373806 -0.113277 0.878981
0.0381557 -0.111572 0.87576
0.0389319 -0.109905 0.87277
0.0397347 -0.108378 0.870858
0.0404394 -0.106499 0.865979
0.0411873 -0.104825 0.862695
0.0419284 -0.10316 0.859416
0.0426886 -0.101591 0.856867
0.0434467 -0.100039 0.854411
0.0443322 -0.0989036 0.855559
0.045212 -0.097744 0.856518
0.0460627 -0.0964927 0.856665
0.046889 -0.0951763 0.856222
0.0477091 -0.0938458 0.855627
0.0485312 -0.0925269 0.855121
0.0493622 -0.0912349 0.854855
0.0501899 -0.0899388 0.854542
0.0510259 -0.0886646 0.854427
0.0518736 -0.0874178 0.854573
0.0527368 -0.0862056 0.855073
0.0536066 -0.0850046 0.855696
0.0544916 -0.0838313 0.856622
0.0553788 -0.0826566 0.85755
0.0562531 -0.0814532 0.858202
0.0571117 -0.0802183 0.858525
0.0579385 -0.0789252 0.858208
0.0587392 -0.0775918 0.857435
0.0595335 -0.076252 0.856549
0.06032 -0.0749068 0.855576
0.0610963 -0.0735519 0.854448
0.0618893 -0.0722286 0.853654
0.0626859 -0.0709162 0.852959
0.0634923 -0.069622 0.852461
0.0643281 -0.0683715 0.852495
0.0651892 -0.0671537 0.852933
0.066047 -0.0659304 0.853314
0.0669353 -0.0647435 0.854189
0.0678139 -0.0635413 0.854884
0.0686832 -0.0623261 0.85542
0.0695418 -0.0610971 0.855773
0.0704051 -0.0598718 0.856187
0.0712562 -0.058633 0.85642
0.0720906 -0.0573773 0.856405
0.0729352 -0.056132 0.85654
0.0737797 -0.0548867 0.856672
0.0746442 -0.0536594 0.857087
0.0755236 -0.0524441 0.857715
0.0764311 -0.0512498 0.85871
0.0773283 -0.0500438 0.859551
0.0782243 -0.0488338 0.860354
0.0791002 -0.0476061 0.860869
0.0799557 -0.0463624 0.86111
0.0808046 -0.0451136 0.861262
0.0816874 -0.0438874 0.861853
0.0825754 -0.0426628 0.862488
0.0834655 -0.0414376 0.863154
0.0843904 -0.0402311 0.864232
0.085317 -0.039022 0.86531
0.0862702 -0.0378238 0.8667
0.0872527 -0.0366362 0.868401
0.0882625 -0.0354568 0.870409
0.0892542 -0.0342616 0.872146
0.090296 -0.033084 0.87445
0.091347 -0.0319022 0.876797
0.0924157 -0.0307205 0.879316
0.0935168 -0.0295433 0.88214
0.0946215 -0.0283576 0.884956
0.0957222 -0.0271616 0.887668
0.0967461 -0.0259309 0.889483
0.0990087 -0.0255611 0.890705
0.0977444 -0.0246873 0.890997
0.101286 -0.0151649 0.86599
0.102133 -0.0139144 0.866123
0.10295 -0.0126584 0.865939
0.103728 -0.0113979 0.865393
0.104517 -0.0101408 0.864949
0.105265 -0.00888001 0.864138
0.106024 -0.00762347 0.863434
0.1068 -0.00637076 0.862915
0.107597 -0.00512222 0.86261
0.108394 -0.00387482 0.862299
0.109226 -0.00263064 0.862329
0.110069 -0.00138773 0.862471
0.110937 -0.000144884 0.862829
0.112951 0.00107734 0.873529
0.011644 -0.153448 0.905433
0.0125454 -0.152034 0.905073
0.013447 -0.150633 0.904773
0.014347 -0.149207 0.904315
0.0152444 -0.147746 0.90362
0.0161381 -0.146204 0.902401
0.0170238 -0.144548 0.900432
0.0187577 -0.140716 0.892973
0.019608 -0.138717 0.888592
0.0204815 -0.137237 0.887572
0.0213569 -0.135817 0.886925
0.022235 -0.134456 0.886666
0.0231211 -0.133192 0.887064
0.0240098 -0.131948 0.887601
0.024892 -0.130637 0.887679
0.0257755 -0.129339 0.887846
0.0266539 -0.127998 0.887711
0.027533 -0.126666 0.887634
0.0284116 -0.125337 0.887572
0.029286 -0.123976 0.887266
0.0301599 -0.122627 0.887046
0.0310218 -0.1212 0.88623
0.0318721 -0.119719 0.884988
0.0327224 -0.11826 0.883885
0.0335833 -0.116872 0.883306
0.0344373 -0.115455 0.882478
0.0352602 -0.113902 0.880557
0.0360278 -0.112112 0.87669
0.0367774 -0.110287 0.872446
0.0375247 -0.108499 0.868405
0.0382966 -0.106857 0.86548
0.0390107 -0.105019 0.860834
0.0397647 -0.10338 0.857764
0.0405122 -0.101748 0.854669
0.0412776 -0.100208 0.852298
0.0420448 -0.0986963 0.850118
0.0429358 -0.0976017 0.851585
0.0438218 -0.0964806 0.852847
0.0446848 -0.0952823 0.853433
0.0455255 -0.0940165 0.853407
0.0463601 -0.0927355 0.853234
0.0472003 -0.0914717 0.853215
0.0480534 -0.0902424 0.853524
0.0489082 -0.0890159 0.853864
0.0497684 -0.0878008 0.854323
0.0506442 -0.0866191 0.855123
0.0515325 -0.0854608 0.856183
0.0524162 -0.0842864 0.857101
0.0532983 -0.0831035 0.857952
0.0541795 -0.0819143 0.858759
0.0550346 -0.0806711 0.859004
0.055871 -0.0793921 0.858855
0.056679 -0.0780642 0.858156
0.0574714 -0.0767145 0.857183
0.0582565 -0.0753593 0.856111
0.0590405 -0.0740092 0.855058
0.0598179 -0.0726559 0.853928
0.0606112 -0.0713339 0.85313
0.061413 -0.0700294 0.852515
0.0622256 -0.0687443 0.852118
0.0630736 -0.0675108 0.852354
0.0639402 -0.0663012 0.852904
0.0648083 -0.0650913 0.853465
0.0657022 -0.063911 0.85444
0.0665855 -0.0627144 0.855222
0.0674611 -0.0615055 0.855856
0.068331 -0.060288 0.856388
0.0692004 -0.0590681 0.8569
0.0700585 -0.0578348 0.85723
0.0709054 -0.0565895 0.857385
0.0717518 -0.0553437 0.857532
0.0725978 -0.0540976 0.857673
0.0734561 -0.0528624 0.857991
0.0743173 -0.0516291 0.858349
0.0752041 -0.0504166 0.859065
0.0760873 -0.0491983 0.859713
0.0769694 -0.0479773 0.860335
0.0778382 -0.0467444 0.860764
0.0786993 -0.0455048 0.861082
0.0795482 -0.044256 0.861233
0.0804305 -0.0430296 0.861824
0.0813172 -0.0418041 0.86246
0.0822071 -0.0405786 0.863125
0.0831302 -0.0393709 0.864203
0.0840551 -0.0381607 0.865281
0.0850142 -0.0369655 0.866749
0.0859935 -0.0357754 0.868452
0.087001 -0.0345945 0.87045
0.0879886 -0.033397 0.872172
0.0890208 -0.0322136 0.874381
0.0900518 -0.0310227 0.876545
0.0911171 -0.0298392 0.879058
0.0922244 -0.0286632 0.881998
0.0933519 -0.0274856 0.885112
0.0944679 -0.026294 0.888035
0.0955027 -0.0250653 0.889997
0.0964925 -0.023817 0.891439
0.0974475 -0.022554 0.892465
0.100074 -0.0143149 0.866429
0.100918 -0.0130633 0.866526
0.101729 -0.0118061 0.866283
0.102508 -0.0105453 0.865723
0.103299 -0.00928848 0.865304
0.104059 -0.00802958 0.864579
0.104818 -0.0067724 0.863866
0.105579 -0.00551875 0.863192
0.106366 -0.00426895 0.862775
0.107145 -0.00302129 0.862293
0.107949 -0.00177598 0.862059
0.108764 -0.000531729 0.86193
0.0103067 -0.152723 0.906543
0.0112102 -0.151348 0.906426
0.0121133 -0.149974 0.906306
0.0130161 -0.148665 0.90659
0.013919 -0.147317 0.906634
0.0148207 -0.145896 0.906199
0.0157168 -0.144361 0.905029
0.0183086 -0.138053 0.890088
0.0191837 -0.136541 0.888857
0.02094 -0.133725 0.887734
0.0218264 -0.132462 0.88815
0.0227127 -0.131186 0.88848
0.023593 -0.129846 0.88836
0.0244735 -0.128504 0.88822
0.0253481 -0.127118 0.887771
0.0262215 -0.125732 0.887299
0.0270932 -0.124348 0.886833
0.0279632 -0.122958 0.886306
0.0288348 -0.121594 0.885958
0.029695 -0.120156 0.885046
0.0305439 -0.118666 0.883713
0.0314001 -0.117239 0.882831
0.0322609 -0.115852 0.88224
0.0330902 -0.114304 0.880363
0.0338884 -0.112623 0.877378
0.0346326 -0.110712 0.872472
0.0353675 -0.108817 0.86758
0.0360884 -0.106917 0.86253
0.0368634 -0.105305 0.85975
0.0375865 -0.103511 0.855373
0.0383508 -0.101924 0.852659
0.0391143 -0.100363 0.850092
0.0398961 -0.0988934 0.848257
0.040674 -0.0974289 0.846421
0.0415667 -0.0963614 0.848096
0.042459 -0.0952792 0.849678
0.0433344 -0.0941335 0.850711
0.0441841 -0.0929047 0.850993
0.0450339 -0.0916752 0.851272
0.0458928 -0.0904694 0.851781
0.0467762 -0.0893251 0.852897
0.0476579 -0.0881692 0.853926
0.0485423 -0.0870132 0.854978
0.0494376 -0.0858764 0.856251
0.0503411 -0.0847498 0.85766
0.0512156 -0.083552 0.858364
0.0520858 -0.0823413 0.858949
0.0529616 -0.081139 0.859636
0.0538031 -0.079866 0.85957
0.0546187 -0.0785457 0.858972
0.055418 -0.0772002 0.858067
0.0562059 -0.075841 0.856972
0.0569825 -0.07447 0.855701
0.0577576 -0.0731052 0.854454
0.0585357 -0.0717527 0.853309
0.0593298 -0.0704325 0.852513
0.0601379 -0.069138 0.852003
0.0609608 -0.0678686 0.851789
0.0618191 -0.06665 0.852213
0.0626947 -0.065453 0.852932
0.0635731 -0.0642569 0.853682
0.064476 -0.0630879 0.854826
0.0653659 -0.0618984 0.855722
0.0662523 -0.0607012 0.856538
0.0671283 -0.0594891 0.857169
0.0680035 -0.0582737 0.85777
0.068863 -0.0570399 0.858112
0.0697118 -0.0557944 0.858282
0.0705599 -0.054548 0.858441
0.0714064 -0.0533002 0.858576
0.0722595 -0.0520584 0.85881
0.0731085 -0.0508126 0.85898
0.073982 -0.0495873 0.859505
0.0748504 -0.0483565 0.859949
0.0757193 -0.0471245 0.860388
0.0765814 -0.0458865 0.860728
0.0774427 -0.044647 0.861053
0.0782978 -0.0434025 0.861287
0.0791801 -0.0421758 0.861885
0.0800663 -0.0409499 0.862523
0.0809554 -0.0397238 0.863186
0.0818769 -0.0385149 0.864258
0.0827943 -0.0373001 0.865252
0.0837506 -0.0361031 0.866718
0.0847274 -0.0349122 0.868411
0.0857311 -0.0337281 0.870393
0.0867164 -0.0325286 0.872112
0.0877369 -0.0313397 0.874221
0.0887657 -0.0301476 0.876388
0.089828 -0.0289617 0.878908
0.0909333 -0.0277844 0.881869
0.0920587 -0.0266053 0.885012
0.0931805 -0.0254139 0.888044
0.0942217 -0.0241865 0.890111
0.0952236 -0.0229407 0.891696
0.0961755 -0.0216756 0.892702
0.100504 -0.0109521 0.866589
0.1013 -0.00969369 0.866192
0.102103 -0.00843849 0.865874
0.102888 -0.00718166 0.865389
0.103658 -0.0059253 0.864763
0.104439 -0.00467242 0.864257
0.105236 -0.00342303 0.863927
0.00896521 -0.152014 0.907769
0.00987 -0.150676 0.907886
0.0107751 -0.149383 0.908282
0.0116801 -0.148191 0.909321
0.0125866 -0.146961 0.910138
0.0134936 -0.145671 0.910577
0.0144011 -0.144376 0.910989
0.0196407 -0.132995 0.888823
0.020528 -0.131726 0.88921
0.0214129 -0.130423 0.889362
0.0222943 -0.129069 0.889155
0.0231699 -0.12767 0.888617
0.0240423 -0.12624 0.887841
0.024912 -0.124811 0.887057
0.0257784 -0.123377 0.886214
0.026646 -0.121962 0.885486
0.0275152 -0.120583 0.885022
0.0283729 -0.119124 0.883925
0.0292177 -0.117601 0.882316
0.0300707 -0.116155 0.881269
0.0309313 -0.114773 0.880689
0.0317593 -0.113214 0.878697
0.0325309 -0.111377 0.874417
0.03325 -0.109323 0.868281
0.0339628 -0.107316 0.862378
0.0346796 -0.105398 0.857073
0.0354377 -0.103725 0.853698
0.0361951 -0.102087 0.850539
0.036993 -0.100649 0.849018
0.0377885 -0.0992179 0.847522
0.03859 -0.0978255 0.846322
0.0393996 -0.096475 0.845463
0.0402729 -0.0953511 0.84663
0.041147 -0.0942213 0.847769
0.0420144 -0.0930611 0.848652
0.0428741 -0.0918718 0.849279
0.0437607 -0.0907567 0.850627
0.0446485 -0.0896354 0.851948
0.0455639 -0.088579 0.853937
0.0464755 -0.0874984 0.855738
0.0473888 -0.0864101 0.857507
0.0482825 -0.0852623 0.858715
0.0491794 -0.0841151 0.859959
0.0500436 -0.0828869 0.860384
0.0508952 -0.0816301 0.86051
0.051758 -0.0803967 0.86089
0.0525882 -0.0790965 0.860541
0.0533936 -0.077752 0.859681
0.0541834 -0.0763847 0.85853
0.0549717 -0.075023 0.8574
0.0557365 -0.073628 0.855838
0.0564996 -0.0722408 0.85431
0.0572702 -0.0708751 0.852989
0.0580611 -0.0695493 0.852107
0.0588703 -0.0682569 0.851609
0.0596987 -0.0669961 0.851493
0.0605616 -0.0657851 0.852015
0.0614413 -0.0645944 0.852821
0.0623286 -0.0634106 0.853745
0.0632359 -0.062248 0.85499
0.0641317 -0.0610655 0.855999
0.0650229 -0.0598737 0.856909
0.0659042 -0.0586669 0.857631
0.0667799 -0.0574512 0.858243
0.0676398 -0.0562166 0.858588
0.0684943 -0.0549756 0.858841
0.0693428 -0.0537284 0.858997
0.0701851 -0.0524753 0.859061
0.0710381 -0.0512322 0.859286
0.0718745 -0.0499744 0.859263
0.0727339 -0.0487366 0.859583
0.073594 -0.0474988 0.85991
0.0744621 -0.0462664 0.860345
0.0753185 -0.0450241 0.860608
0.0761861 -0.0437893 0.861024
0.0770476 -0.0425492 0.861349
0.07793 -0.0413225 0.861956
0.0788161 -0.0400962 0.862599
0.0797041 -0.0388692 0.863257
0.0806238 -0.0376589 0.864319
0.0815397 -0.0364429 0.865307
0.082495 -0.0352449 0.866782
0.0834636 -0.0340487 0.868395
0.0844648 -0.0328633 0.870381
0.0854465 -0.031662 0.872084
0.0864509 -0.0304656 0.874032
0.0874761 -0.0292708 0.876187
0.0885344 -0.0280835 0.878698
0.0896346 -0.0269033 0.881653
0.0907567 -0.0257215 0.884803
0.0918746 -0.0245277 0.887837
0.0929225 -0.0233019 0.89001
0.0939383 -0.0220603 0.891781
0.0948856 -0.0207932 0.892746
0.100058 -0.0088376 0.866326
0.100877 -0.00758388 0.866167
0.10169 -0.00633059 0.865955
0.102484 -0.00507594 0.86555
0.103293 -0.00382462 0.865308
0.00762088 -0.151297 0.908955
0.00852545 -0.150022 0.909476
0.00943064 -0.148807 0.910381
0.0103355 -0.147733 0.912193
0.011244 -0.146616 0.913758
0.012154 -0.14539 0.914647
0.0130663 -0.144239 0.91604
0.0183408 -0.132296 0.890142
0.0192273 -0.130997 0.890331
0.0201118 -0.129666 0.890294
0.0209919 -0.128279 0.889863
0.0218662 -0.126836 0.889009
0.0227368 -0.125374 0.888005
0.0236051 -0.123917 0.887012
0.0244698 -0.122447 0.885894
0.0253364 -0.12102 0.885072
0.0262053 -0.11963 0.88451
0.027059 -0.118135 0.883129
0.0279007 -0.116578 0.881233
0.0287495 -0.115102 0.879924
0.0296058 -0.113697 0.879144
0.0311692 -0.110066 0.87089
0.0318573 -0.107826 0.863135
0.0325581 -0.10575 0.85656
0.0332718 -0.103819 0.851034
0.0340302 -0.102162 0.847698
0.0348224 -0.100696 0.845909
0.0356477 -0.0993901 0.845468
0.0364685 -0.0980721 0.844904
0.0373137 -0.0968556 0.845228
0.0381656 -0.0956622 0.845763
0.0390291 -0.0945068 0.846654
0.0398964 -0.0933573 0.84762
0.0407841 -0.0922665 0.849158
0.0416645 -0.0911411 0.850404
0.0425718 -0.090087 0.852365
0.0434816 -0.0890251 0.854302
0.0444187 -0.0880245 0.856893
0.045327 -0.0869282 0.858594
0.046233 -0.0858138 0.860154
0.0471176 -0.084637 0.861113
0.0480026 -0.083455 0.862038
0.0488546 -0.0821925 0.862133
0.0496992 -0.0809141 0.862053
0.0505537 -0.0796584 0.862215
0.0513742 -0.0783329 0.8616
0.0521746 -0.0769732 0.860574
0.0529593 -0.0755911 0.859252
0.0537344 -0.0742007 0.857787
0.0544886 -0.0727835 0.855948
0.0552445 -0.071381 0.85422
0.0560117 -0.0700081 0.852791
0.0567995 -0.0686767 0.851823
0.0576137 -0.0673919 0.85141
0.0584475 -0.066139 0.851391
0.0593146 -0.0649344 0.852001
0.0601895 -0.063738 0.852739
0.0610799 -0.062559 0.853736
0.0619914 -0.0614026 0.855083
0.0628914 -0.0602257 0.856187
0.0637884 -0.0590406 0.857209
0.0646792 -0.0578443 0.8581
0.0655541 -0.0566268 0.858703
0.0664136 -0.0553906 0.859035
0.067268 -0.0541485 0.859283
0.0681114 -0.0528952 0.859355
0.0689485 -0.0516361 0.859324
0.0697952 -0.0503867 0.859452
0.0706199 -0.0491181 0.859244
0.0714667 -0.0478698 0.859379
0.0723197 -0.0466266 0.859605
0.0731812 -0.0453896 0.859953
0.0740373 -0.0441479 0.860219
0.0749109 -0.0429182 0.860731
0.075785 -0.0416874 0.86124
0.0766741 -0.0404652 0.861949
0.0775665 -0.039243 0.86269
0.078453 -0.0380147 0.863333
0.0793706 -0.0368028 0.864383
0.0802852 -0.0355858 0.86537
0.0812399 -0.0343871 0.866861
0.0822076 -0.0331897 0.868482
0.0832062 -0.0320029 0.870472
0.0841927 -0.0308028 0.872258
0.0851952 -0.0296045 0.874211
0.0862177 -0.0284082 0.876368
0.0872649 -0.0272147 0.87878
0.0883584 -0.0260299 0.881695
0.0894668 -0.024842 0.884731
0.0905643 -0.0236404 0.887575
0.0916094 -0.022413 0.88975
0.0926448 -0.0211763 0.891772
0.0935917 -0.0199085 0.892743
0.0945246 -0.0186348 0.893544
0.0987785 -0.00797641 0.866077
0.0996302 -0.00672665 0.866249
0.100474 -0.00547599 0.866338
0.101307 -0.00422476 0.866322
0.00626679 -0.150768 0.91132
0.00717109 -0.149561 0.912293
0.00807611 -0.148412 0.913643
0.00898052 -0.1474 0.915893
0.00989019 -0.146318 0.917728
0.0108027 -0.14511 0.918774
0.011718 -0.143973 0.920303
0.0179218 -0.130237 0.891253
0.0188061 -0.128879 0.891036
0.0196865 -0.127472 0.890457
0.0205598 -0.125984 0.889288
0.0214299 -0.124494 0.888068
0.0222979 -0.123013 0.886883
0.0231631 -0.121532 0.88568
0.0240309 -0.120106 0.884858
0.0249017 -0.118728 0.884376
0.025756 -0.117222 0.882897
0.0265973 -0.115642 0.88081
0.0274434 -0.114136 0.879252
0.0282943 -0.11269 0.878133
0.0291108 -0.111041 0.875346
0.0312234 -0.104488 0.853182
0.0319855 -0.102793 0.84956
0.0327992 -0.101395 0.848395
0.0336497 -0.100184 0.848806
0.0344993 -0.098967 0.849173
0.0353451 -0.0977306 0.849374
0.0361962 -0.0965163 0.849775
0.0370489 -0.0953043 0.850203
0.0379073 -0.0941117 0.850817
0.0387671 -0.0929186 0.851438
0.0396475 -0.0917912 0.852694
0.0405293 -0.0906581 0.853923
0.0414355 -0.0895915 0.855829
0.0423438 -0.0885161 0.857697
0.0432783 -0.0875015 0.860221
0.0441794 -0.0863764 0.861693
0.0450728 -0.085221 0.862891
0.0459467 -0.0840089 0.863529
0.0468242 -0.0828016 0.864232
0.0476665 -0.0815085 0.864029
0.0485043 -0.0802072 0.863727
0.0493524 -0.0789317 0.863697
0.0501706 -0.0775953 0.862976
0.0509666 -0.0762197 0.861777
0.0517574 -0.0748429 0.860521
0.0525352 -0.0734509 0.85904
0.0532814 -0.0720122 0.856941
0.0540279 -0.0705876 0.854939
0.0547915 -0.0692043 0.853375
0.0555679 -0.0678514 0.852134
0.0563708 -0.0665474 0.851473
0.0572051 -0.0652949 0.851457
0.0580715 -0.0640894 0.852063
0.0589413 -0.0628864 0.85272
0.0598347 -0.061712 0.853794
0.0607447 -0.0605544 0.855142
0.0616442 -0.0593776 0.85626
0.0625405 -0.0581919 0.857288
0.0634301 -0.0569945 0.858176
0.0643042 -0.0557761 0.858773
0.0651633 -0.0545394 0.859102
0.0660173 -0.0532968 0.859346
0.0668605 -0.052043 0.859408
0.0676967 -0.0507828 0.85936
0.068532 -0.0495228 0.859307
0.0693508 -0.048249 0.858998
0.0701971 -0.0470008 0.859129
0.0710447 -0.0457535 0.859277
0.0719002 -0.0445126 0.859545
0.0727615 -0.0432755 0.859894
0.0736402 -0.0420502 0.860493
0.0745156 -0.0408208 0.86103
0.075411 -0.0396031 0.86184
0.0763091 -0.0383846 0.862673
0.0771946 -0.0371558 0.863314
0.0781108 -0.0359428 0.86436
0.0790308 -0.0347287 0.865434
0.0799911 -0.0335324 0.867023
0.0809581 -0.0323345 0.868665
0.0819603 -0.0311482 0.870728
0.0829513 -0.0299495 0.872601
0.0839458 -0.0287459 0.874475
0.0849606 -0.0275445 0.876563
0.0859952 -0.0263454 0.87886
0.0870605 -0.0251494 0.881479
0.0881534 -0.0239549 0.884378
0.0892385 -0.0227482 0.88712
0.0902809 -0.0215197 0.889301
0.0913332 -0.0202878 0.891558
0.0922951 -0.0190239 0.892718
0.0932272 -0.0177493 0.893516
0.00671203 -0.148015 0.916939
0.00761679 -0.147 0.91921
0.00852726 -0.145901 0.920972
0.00944167 -0.14472 0.922237
0.0103581 -0.143568 0.923705
0.0157268 -0.130817 0.892264
0.0166136 -0.129473 0.892156
0.0174981 -0.128086 0.891739
0.0183784 -0.126645 0.890921
0.0192522 -0.125129 0.889539
0.0201227 -0.123613 0.888125
0.0209909 -0.122108 0.886758
0.0218579 -0.120629 0.885555
0.022727 -0.119204 0.88473
0.0235986 -0.117827 0.884249
0.0244551 -0.116323 0.882774
0.0253005 -0.114755 0.880759
0.0261491 -0.11325 0.879199
0.0270007 -0.111798 0.878021
0.0278203 -0.110144 0.875173
0.0300538 -0.104131 0.857362
0.030827 -0.102443 0.853822
0.0316513 -0.101066 0.85287
0.0324924 -0.0997835 0.852722
0.0333583 -0.0986197 0.85361
0.0342147 -0.0974064 0.854074
0.0350729 -0.0961967 0.854579
0.0359295 -0.0949771 0.855002
0.0367846 -0.0937491 0.855355
0.0376397 -0.0925193 0.855696
0.0385123 -0.0913485 0.856605
0.0393918 -0.0901937 0.857689
0.040296 -0.0891101 0.859497
0.0412018 -0.0880173 0.86126
0.0421255 -0.0869633 0.863458
0.043015 -0.0857964 0.864563
0.0438969 -0.0846019 0.865408
0.0447559 -0.0833424 0.865589
0.0456178 -0.0820898 0.865846
0.0464492 -0.0807633 0.865302
0.047285 -0.079452 0.864906
0.0481281 -0.078161 0.864718
0.0489491 -0.0768246 0.864004
0.0497497 -0.0754527 0.862851
0.0505494 -0.0740876 0.861734
0.0513307 -0.0726951 0.86025
0.0520773 -0.0712496 0.858065
0.0528221 -0.0698156 0.85594
0.0535797 -0.0684164 0.854173
0.054345 -0.0670414 0.852647
0.0551366 -0.0657168 0.851718
0.0559663 -0.0644566 0.851602
0.0568233 -0.0632374 0.852032
0.0576872 -0.0620264 0.852585
0.0585745 -0.0608451 0.853573
0.0594779 -0.0596803 0.854829
0.060371 -0.0584971 0.855862
0.0612649 -0.05731 0.856874
0.0621483 -0.0561068 0.857675
0.0630213 -0.0548884 0.858271
0.063885 -0.0536581 0.858693
0.0647392 -0.0524168 0.858949
0.0655823 -0.0511635 0.859011
0.0664176 -0.0499033 0.858951
0.0672513 -0.0486425 0.85887
0.0680706 -0.0473701 0.858568
0.0689223 -0.0461273 0.858788
0.069771 -0.0448816 0.858958
0.0706254 -0.0436403 0.859214
0.071491 -0.0424072 0.859638
0.0723691 -0.041182 0.860239
0.0732452 -0.0399535 0.860798
0.0741465 -0.0387402 0.86171
0.0750498 -0.0375252 0.862632
0.075935 -0.036296 0.863276
0.07685 -0.0350824 0.864325
0.0777758 -0.0338712 0.865497
0.078735 -0.032674 0.867094
0.0797006 -0.0314744 0.868742
0.0807 -0.0302857 0.8708
0.0816948 -0.0290886 0.872756
0.0826875 -0.0278836 0.874638
0.083701 -0.0266806 0.87674
0.0847264 -0.0254756 0.87895
0.0857711 -0.024271 0.881354
0.0868356 -0.0230657 0.883952
0.0878999 -0.021852 0.886493
0.088939 -0.0206227 0.888675
0.0900089 -0.0193952 0.891181
0.0909806 -0.0181337 0.892475
0.0919389 -0.0168662 0.893595
0.00533858 -0.147618 0.920267
0.00624777 -0.146476 0.921766
0.00716132 -0.145274 0.922896
0.00807688 -0.14405 0.923898
0.0089946 -0.142806 0.924785
0.0144152 -0.130074 0.893319
0.0153031 -0.128715 0.893118
0.0161878 -0.12729 0.892434
0.0170689 -0.125816 0.891375
0.0179438 -0.124271 0.889778
0.0188154 -0.122732 0.888179
0.0196841 -0.121204 0.88663
0.0205537 -0.119737 0.885509
0.0214241 -0.118313 0.884685
0.0222969 -0.116938 0.884214
0.023157 -0.115449 0.882847
0.0240071 -0.113898 0.880949
0.024856 -0.112375 0.879231
0.0257136 -0.110956 0.878316
0.0265705 -0.10955 0.877477
0.0313701 -0.099612 0.858718
0.0322258 -0.0983666 0.858962
0.0330899 -0.0971594 0.859553
0.0339519 -0.0959381 0.860025
0.0348094 -0.0946943 0.860298
0.0356611 -0.093426 0.860345
0.0365121 -0.0921562 0.860375
0.0373781 -0.0909424 0.860941
0.0382528 -0.0897544 0.861769
0.0391482 -0.0886287 0.863233
0.0400466 -0.0875014 0.864719
0.0409478 -0.0863707 0.866208
0.041821 -0.0851483 0.866788
0.0426903 -0.0839115 0.867228
0.0435429 -0.0826278 0.867182
0.0443955 -0.0813455 0.867143
0.0452384 -0.0800408 0.866851
0.0460831 -0.0787437 0.866631
0.0469223 -0.0774365 0.866285
0.047743 -0.0760925 0.8655
0.0485501 -0.0747265 0.864426
0.0493533 -0.0733605 0.863312
0.0501312 -0.0719539 0.861664
0.0508793 -0.0705028 0.859408
0.0516202 -0.0690539 0.857093
0.0523708 -0.0676363 0.85509
0.0531222 -0.0662327 0.853191
0.0539029 -0.0648879 0.851992
0.0547235 -0.0636125 0.851674
0.0555704 -0.0623782 0.851903
0.0564196 -0.061147 0.852178
0.0573007 -0.0599591 0.853074
0.0581928 -0.0587816 0.854151
0.0590788 -0.0575916 0.855081
0.0599647 -0.0563975 0.855985
0.0608455 -0.0551936 0.856767
0.0617172 -0.0539765 0.857368
0.062586 -0.0527538 0.857899
0.0634459 -0.0515201 0.858267
0.0642939 -0.0502734 0.858423
0.0651338 -0.0490189 0.858444
0.0659679 -0.0477595 0.858371
0.0667928 -0.0464929 0.858157
0.0676505 -0.045256 0.858479
0.0684996 -0.0440115 0.858663
0.0693591 -0.0427747 0.859004
0.0702289 -0.0415452 0.859501
0.0711063 -0.0403197 0.860101
0.0719762 -0.0390872 0.860578
0.0728816 -0.037877 0.86157
0.0737834 -0.036661 0.862485
0.0746687 -0.0354322 0.863142
0.0755832 -0.0342184 0.864204
0.0765202 -0.0330134 0.865552
0.0774779 -0.0318149 0.867156
0.0784415 -0.0306142 0.868806
0.0794383 -0.0294233 0.870862
0.0804371 -0.0282263 0.872896
0.081428 -0.0270205 0.874791
0.0824395 -0.0258161 0.876903
0.0834548 -0.0246063 0.879019
0.0844884 -0.0233957 0.881317
0.0855403 -0.0221848 0.883799
0.0865858 -0.0209639 0.886146
0.0876227 -0.0197333 0.88834
0.0886973 -0.0185065 0.890945
0.089685 -0.0172491 0.892454
0.0906497 -0.0159826 0.893666
0.00396067 -0.147111 0.922934
0.00487722 -0.145817 0.923478
0.00579441 -0.144522 0.924016
0.00671159 -0.143251 0.924724
0.00763159 -0.141907 0.924953
0.00855468 -0.140421 0.924232
0.011753 -0.137509 0.916831
0.00948207 -0.138524 0.920687
0.010405 -0.136309 0.914882
0.0130998 -0.129265 0.893927
0.0139882 -0.127878 0.893522
0.0148743 -0.12644 0.892747
0.0157572 -0.124962 0.891654
0.0166343 -0.123405 0.889959
0.017508 -0.121853 0.888254
0.0183791 -0.120324 0.886689
0.0192512 -0.118869 0.885647
0.0201232 -0.117445 0.88482
0.020998 -0.116086 0.88447
0.0218629 -0.114624 0.883305
0.0227199 -0.11311 0.881699
0.0235752 -0.111619 0.880226
0.0244378 -0.11022 0.879475
0.0294169 -0.100956 0.866866
0.0302428 -0.0994938 0.865289
0.0310865 -0.0981466 0.864702
0.0319507 -0.0969075 0.865081
0.0328153 -0.0956679 0.86546
0.0336733 -0.0943965 0.865549
0.0345207 -0.0930814 0.865223
0.0353681 -0.0917717 0.864935
0.0362277 -0.0905123 0.865124
0.0370953 -0.0892811 0.865592
0.0379627 -0.0880466 0.866036
0.0388379 -0.0868356 0.866725
0.0397125 -0.0856177 0.86736
0.040564 -0.084326 0.867239
0.041415 -0.0830354 0.867122
0.0422744 -0.0817699 0.867267
0.0431341 -0.0805057 0.867424
0.0439876 -0.0792255 0.867405
0.0448463 -0.0779589 0.867532
0.0456878 -0.0766527 0.867208
0.0465114 -0.07531 0.866443
0.0473208 -0.0739429 0.865359
0.0481268 -0.0725773 0.864251
0.0489025 -0.0711596 0.862463
0.0496548 -0.0697097 0.860207
0.0503989 -0.0682601 0.857871
0.0511487 -0.0668352 0.855762
0.0518945 -0.0654176 0.853665
0.0526682 -0.064058 0.85226
0.0534805 -0.0627682 0.851746
0.0543177 -0.0615193 0.851774
0.0551572 -0.0602745 0.851856
0.0560275 -0.0590729 0.852559
0.0569045 -0.0578773 0.853374
0.0577783 -0.0566742 0.854103
0.0586566 -0.0554735 0.854895
0.0595305 -0.0542647 0.855586
0.0604017 -0.05305 0.856206
0.0612789 -0.0518397 0.856921
0.0621476 -0.0506177 0.857465
0.0630014 -0.0493787 0.857738
0.0638521 -0.0481361 0.857949
0.064692 -0.0468832 0.85798
0.0655228 -0.0456226 0.857861
0.0663811 -0.0443869 0.858199
0.06723 -0.0431426 0.858383
0.0680893 -0.0419064 0.85873
0.0689637 -0.0406808 0.85931
0.0698409 -0.0394555 0.859919
0.070715 -0.0382263 0.86047
0.0716244 -0.0370187 0.861538
0.0725244 -0.0358017 0.862444
0.073409 -0.0345725 0.863104
0.0743227 -0.033358 0.864168
0.0752584 -0.0321522 0.865523
0.0762141 -0.0309523 0.867127
0.0771755 -0.0297501 0.868778
0.0781697 -0.0285574 0.870833
0.0791659 -0.0273587 0.872867
0.0801615 -0.0261534 0.874851
0.0811709 -0.0249475 0.876972
0.0821842 -0.0237365 0.8791
0.0832065 -0.0225212 0.881292
0.0842468 -0.0213048 0.883663
0.0852808 -0.0200793 0.885906
0.0863143 -0.0188468 0.888094
0.0873869 -0.0176189 0.890721
0.0883905 -0.0163654 0.892453
0.089369 -0.0151005 0.893842
0.00258738 -0.146397 0.924293
0.00350645 -0.145067 0.924614
0.00442618 -0.143729 0.92489
0.00534529 -0.142414 0.92531
0.00626802 -0.141008 0.925132
0.0072002 -0.139274 0.922717
0.00813724 -0.13714 0.917513
0.0108894 -0.130314 0.898247
0.0117825 -0.128429 0.894345
0.0126722 -0.127035 0.893899
0.0135597 -0.125587 0.893042
0.0144443 -0.124095 0.891846
0.0153239 -0.122527 0.89005
0.0161997 -0.120963 0.888248
0.0170732 -0.119435 0.886677
0.0179477 -0.117993 0.885722
0.0188219 -0.116583 0.884997
0.0196996 -0.11525 0.884855
0.0205685 -0.113813 0.883881
0.0214317 -0.112336 0.882566
0.0222932 -0.110876 0.881345
0.0231586 -0.109482 0.880637
0.0240212 -0.10808 0.879845
0.0261557 -0.107417 0.877863
0.0248961 -0.106796 0.880024
0.0270111 -0.106013 0.877001
0.0257739 -0.105535 0.880398
0.0278275 -0.104369 0.874065
0.0266181 -0.104031 0.878685
0.0274362 -0.102384 0.875678
0.0282569 -0.100799 0.873134
0.029083 -0.099283 0.871143
0.0299243 -0.0978777 0.8701
0.0307911 -0.0966198 0.870378
0.0316556 -0.0953489 0.870538
0.0325135 -0.0940473 0.87041
0.0333592 -0.0926957 0.869797
0.0342 -0.0913315 0.86904
0.0350345 -0.0899521 0.86811
0.0358775 -0.0886151 0.867571
0.0367186 -0.0872779 0.86701
0.037571 -0.0859863 0.866895
0.0384251 -0.0847028 0.866856
0.0392791 -0.0834197 0.866816
0.0401331 -0.0821388 0.866794
0.0409954 -0.0808831 0.86704
0.0418613 -0.0796362 0.867384
0.0427189 -0.0783664 0.86748
0.0435784 -0.0771017 0.867632
0.0444242 -0.075804 0.867402
0.0452552 -0.0744753 0.866794
0.0460701 -0.0731165 0.865802
0.0468856 -0.0717665 0.864877
0.0476744 -0.0703695 0.863334
0.0484313 -0.0689218 0.861094
0.0491794 -0.0674724 0.858744
0.049929 -0.0660413 0.856542
0.0506746 -0.0646172 0.854347
0.0514396 -0.0632391 0.852686
0.0522448 -0.0619357 0.851984
0.0530696 -0.0606671 0.85174
0.0539001 -0.0594091 0.851629
0.0547564 -0.0581886 0.85206
0.0556181 -0.0569743 0.852593
0.0564809 -0.0557592 0.853131
0.0573479 -0.0545474 0.853739
0.0582112 -0.0533289 0.85426
0.0590801 -0.0521152 0.854874
0.0599603 -0.0509117 0.85568
0.0608333 -0.0496973 0.856333
0.061696 -0.0484702 0.856786
0.0625568 -0.0472397 0.857195
0.0634075 -0.0459984 0.857418
0.0642492 -0.0447487 0.857486
0.0651217 -0.0435262 0.858076
0.0659811 -0.0422908 0.858433
0.0668512 -0.0410632 0.858963
0.0677263 -0.0398376 0.859557
0.0686035 -0.0386118 0.860175
0.0694716 -0.0373777 0.860634
0.0703738 -0.0361652 0.861612
0.071267 -0.0349434 0.862427
0.0721508 -0.0337136 0.863085
0.0730686 -0.0325014 0.864231
0.0740029 -0.0312943 0.865585
0.0749568 -0.0300929 0.867192
0.0759161 -0.0288893 0.868839
0.0769069 -0.0276948 0.870888
0.0778948 -0.0264911 0.872838
0.0788815 -0.0252822 0.874742
0.0798882 -0.0240741 0.87686
0.0808993 -0.0228604 0.878988
0.0819118 -0.0216411 0.881092
0.082941 -0.0204213 0.883368
0.0839703 -0.0191939 0.885591
0.084994 -0.0179574 0.887691
0.0860625 -0.0167271 0.890311
0.0870797 -0.015477 0.892245
0.0880677 -0.0142137 0.893774
0.00306017 -0.142854 0.925226
0.0039803 -0.141516 0.925503
0.00490552 -0.140072 0.925066
0.00585329 -0.138041 0.9206
0.00680335 -0.135696 0.91388
0.00866206 -0.131165 0.901149
0.0095688 -0.129203 0.89674
0.0104643 -0.127548 0.894446
0.011355 -0.126155 0.894003
0.0122441 -0.124713 0.893192
0.0131308 -0.123224 0.892004
0.0140133 -0.121659 0.89022
0.0148921 -0.120098 0.888428
0.0157682 -0.11857 0.886848
0.0166445 -0.117129 0.885896
0.0175204 -0.115723 0.885198
0.0183994 -0.114403 0.885161
0.0192719 -0.112991 0.884386
0.0201402 -0.11155 0.883348
0.0210067 -0.110117 0.882348
0.0218729 -0.108708 0.881523
0.0227362 -0.107291 0.880613
0.0236079 -0.105971 0.880493
0.024479 -0.104651 0.880365
0.0253257 -0.103148 0.878649
0.0261655 -0.101628 0.876726
0.0270023 -0.100119 0.874852
0.0278373 -0.0986283 0.873096
0.0286798 -0.097208 0.87193
0.0295428 -0.095918 0.871937
0.0304003 -0.0946002 0.871679
0.0312531 -0.0932659 0.871253
0.0320946 -0.0918853 0.870365
0.0329327 -0.0905014 0.869416
0.0337663 -0.0891112 0.868373
0.0346035 -0.087747 0.867559
0.0354427 -0.0863995 0.866887
0.0362949 -0.0851063 0.86675
0.0371462 -0.083813 0.866605
0.0379975 -0.0825218 0.866474
0.0388508 -0.0812393 0.866428
0.03971 -0.0799758 0.866584
0.0405758 -0.0787311 0.86695
0.0414367 -0.0774717 0.867155
0.0423026 -0.0762245 0.867502
0.0431521 -0.0749354 0.867368
0.0439872 -0.0736146 0.866846
0.0448099 -0.0722703 0.866017
0.0456301 -0.0709278 0.865175
0.0464192 -0.0695271 0.863572
0.0471859 -0.0680935 0.861487
0.0479452 -0.0666597 0.859317
0.0486958 -0.0652247 0.857046
0.0494457 -0.0638033 0.854867
0.0502134 -0.0624258 0.853198
0.0510126 -0.0611096 0.852318
0.0518264 -0.0598224 0.85181
0.0526488 -0.0585516 0.851513
0.0534916 -0.0573126 0.851669
0.0543432 -0.0560855 0.852008
0.0551953 -0.0548582 0.852351
0.0560558 -0.0536405 0.852854
0.0569132 -0.0524174 0.853285
0.0577809 -0.0512047 0.853903
0.058659 -0.0500016 0.854705
0.0595346 -0.0487927 0.855436
0.0604018 -0.0475721 0.855992
0.0612672 -0.0463482 0.856504
0.0621274 -0.0451175 0.856911
0.0629795 -0.0438784 0.857167
0.063857 -0.0426609 0.857857
0.0647268 -0.0414347 0.858401
0.0656073 -0.0402153 0.859109
0.0664833 -0.0389901 0.859727
0.0673603 -0.0377638 0.860346
0.0682331 -0.0365326 0.860887
0.069129 -0.0353152 0.861776
0.0700165 -0.0340896 0.862517
0.0709044 -0.0328618 0.863245
0.0718267 -0.0316516 0.864475
0.072754 -0.0304401 0.86575
0.0737062 -0.0292372 0.86736
0.0746631 -0.0280311 0.868996
0.0756451 -0.0268311 0.87095
0.0766174 -0.0256209 0.872723
0.077601 -0.0244096 0.874614
0.0785981 -0.023197 0.876639
0.0796052 -0.0219823 0.878761
0.080609 -0.0207594 0.880784
0.0816284 -0.0195349 0.882967
0.0826468 -0.0183038 0.88509
0.0836643 -0.0170665 0.887158
0.0847294 -0.0158344 0.889782
0.0857688 -0.0145883 0.892026
0.00773949 -0.133399 0.907359
0.00642837 -0.1318 0.902511
0.00734688 -0.129846 0.898198
0.00825145 -0.128123 0.895441
0.00914636 -0.126633 0.894305
0.0100378 -0.125242 0.893876
0.0109281 -0.12381 0.893127
0.0118166 -0.122337 0.89205
0.0127021 -0.120777 0.890293
0.013584 -0.11923 0.888591
0.0144629 -0.117716 0.887104
0.015341 -0.116275 0.886153
0.0162184 -0.114871 0.88547
0.0170987 -0.113564 0.885535
0.0179741 -0.112176 0.884945
0.0188463 -0.110758 0.884098
0.019715 -0.109324 0.883095
0.0205828 -0.107908 0.882211
0.0214464 -0.106471 0.881128
0.0223163 -0.105124 0.88078
0.0231839 -0.103765 0.880323
0.0240405 -0.102326 0.879143
0.0248938 -0.100884 0.877905
0.0257441 -0.0994442 0.876651
0.0265896 -0.0979934 0.875263
0.0274359 -0.096571 0.874095
0.0282909 -0.0952172 0.873534
0.0291432 -0.0938582 0.872903
0.0299925 -0.0924936 0.872198
0.0308322 -0.0910925 0.871114
0.0316668 -0.0896821 0.869905
0.0325 -0.088281 0.86875
0.0333341 -0.0868971 0.867732
0.0341718 -0.0855397 0.866952
0.035022 -0.0842372 0.866718
0.0358713 -0.0829352 0.866479
0.0367198 -0.0816344 0.866238
0.0375703 -0.0803433 0.866093
0.0384286 -0.0790785 0.86623
0.0392937 -0.0778336 0.866591
0.0401598 -0.0765899 0.866971
0.0410287 -0.0753517 0.867423
0.0418818 -0.0740712 0.867386
0.0427209 -0.0727585 0.866954
0.0435488 -0.0714235 0.86623
0.0443714 -0.0700832 0.865409
0.0451637 -0.068685 0.863821
0.0459371 -0.0672597 0.861819
0.0467034 -0.0658346 0.859742
0.0474584 -0.0644025 0.857486
0.0482133 -0.0629847 0.855334
0.048987 -0.0616135 0.85374
0.0497876 -0.0602966 0.852848
0.0505947 -0.0589963 0.852151
0.05141 -0.057713 0.851672
0.0522441 -0.0564609 0.851635
0.0530866 -0.0552215 0.851785
0.0539296 -0.0539825 0.851945
0.0547807 -0.0527541 0.852272
0.0556323 -0.0515253 0.852603
0.0564935 -0.050307 0.853118
0.0573611 -0.0490942 0.853745
0.0582351 -0.0478859 0.854475
0.0591049 -0.0466706 0.855108
0.0599738 -0.0454524 0.85571
0.0608386 -0.0442279 0.856219
0.0617045 -0.0430029 0.856736
0.0625829 -0.0417872 0.857462
0.0634583 -0.0405665 0.858117
0.0643441 -0.039352 0.858934
0.0652245 -0.0381306 0.85964
0.0661004 -0.0369036 0.860252
0.0669776 -0.0356756 0.860873
0.0678721 -0.0344572 0.861758
0.068759 -0.0332311 0.862501
0.0696517 -0.0320062 0.863316
0.070579 -0.0307985 0.864647
0.0715057 -0.0295861 0.865933
0.0724567 -0.0283819 0.867552
0.0734103 -0.0271729 0.869163
0.0743824 -0.0259685 0.871015
0.0753396 -0.024751 0.872603
0.0763135 -0.0235348 0.874387
0.0772995 -0.0223181 0.876301
0.0783027 -0.0211008 0.878403
0.0792978 -0.019875 0.880351
0.0803139 -0.0186494 0.882533
0.0813284 -0.0174166 0.884644
0.0823486 -0.0161786 0.886781
0.0834097 -0.0149448 0.889404
0.0844783 -0.0137047 0.892063
0.00512335 -0.130365 0.89876
0.0060323 -0.128716 0.89655
0.00693237 -0.1272 0.895246
0.00782868 -0.125719 0.89417
0.00872085 -0.124326 0.893718
0.00961221 -0.122907 0.89306
0.0105026 -0.121427 0.891924
0.0113905 -0.119872 0.890187
0.012275 -0.11834 0.888585
0.0131567 -0.116848 0.887258
0.0140363 -0.115397 0.886228
0.0149156 -0.114017 0.885726
0.0157967 -0.112721 0.88588
0.0166741 -0.111344 0.885383
0.0175487 -0.10994 0.884642
0.0184219 -0.108542 0.883936
0.0192913 -0.107116 0.882976
0.0201557 -0.105657 0.8817
0.0210253 -0.104293 0.88121
0.021892 -0.102912 0.880558
0.022753 -0.101495 0.879571
0.0236129 -0.10009 0.878653
0.0244716 -0.0986943 0.877801
0.0253231 -0.0972634 0.876595
0.0261737 -0.0958473 0.875493
0.027025 -0.0944547 0.874578
0.027876 -0.0930747 0.873754
0.0287238 -0.0916906 0.872864
0.0295641 -0.0902803 0.871689
0.0303971 -0.0888509 0.870285
0.0312303 -0.08744 0.869025
0.0320638 -0.086046 0.867896
0.0329009 -0.0846803 0.867023
0.0337476 -0.0833622 0.866622
0.0345954 -0.0820535 0.866307
0.0354419 -0.0807443 0.865969
0.0362894 -0.0794436 0.865711
0.037147 -0.078178 0.865833
0.0380163 -0.0769478 0.866357
0.0388874 -0.0757202 0.866923
0.0397591 -0.0744905 0.867479
0.0406183 -0.0732253 0.867623
0.0414619 -0.071921 0.867292
0.0422945 -0.0705942 0.866665
0.0431199 -0.0692564 0.865871
0.0439187 -0.0678668 0.864381
0.0446986 -0.0664491 0.862462
0.0454747 -0.0650371 0.860544
0.0462347 -0.0636078 0.858311
0.0469969 -0.0621971 0.856245
0.0477742 -0.0608266 0.854655
0.0485725 -0.0595018 0.853653
0.04937 -0.0581825 0.852684
0.0501785 -0.0568863 0.852015
0.0510014 -0.0556163 0.851711
0.0518358 -0.0543648 0.851674
0.0526704 -0.0531149 0.851655
0.0535165 -0.0518809 0.851888
0.0543593 -0.050642 0.852045
0.0552146 -0.0494182 0.85246
0.0560756 -0.0481997 0.852979
0.056943 -0.0469864 0.853611
0.0578111 -0.0457717 0.854241
0.0586835 -0.0445588 0.854933
0.0595521 -0.04334 0.855535
0.0604268 -0.0421247 0.856236
0.0613094 -0.0409139 0.857059
0.0621892 -0.0396978 0.857811
0.063079 -0.0384872 0.858718
0.0639636 -0.0372695 0.859513
0.0648389 -0.0360423 0.860128
0.0657251 -0.0348207 0.860912
