ply
format ascii 1.0
element vertex 1647
property float x
property float y
property float z
end_header
0.13355 -0.0139758 0.825046
0.13239 -0.0130529 0.824974
0.131232 -0.0121302 0.824908
0.130104 -0.0112116 0.825115
0.12899 -0.0102942 0.825451
0.127897 -0.00937779 0.825975
0.126801 -0.00846026 0.826477
0.125701 -0.00754278 0.826954
0.124574 -0.00662307 0.827176
0.123447 -0.00570337 0.827398
0.122328 -0.00478397 0.8277
0.121201 -0.00386452 0.827928
0.120082 -0.0029444 0.828233
0.118963 -0.00202455 0.828539
0.117876 -0.00110467 0.829185
0.116793 -0.000183538 0.829881
0.11576 0.00074073 0.831114
0.11475 0.00166764 0.832634
0.113738 0.00259683 0.834165
0.112713 0.00352861 0.83558
0.111666 0.00446133 0.836788
0.110576 0.00539257 0.837544
0.109478 0.00632372 0.838205
0.108385 0.00725678 0.838958
0.107281 0.00818966 0.839584
0.106197 0.00912682 0.840461
0.10511 0.0100643 0.841332
0.104016 0.0110023 0.84212
0.102932 0.0119443 0.843072
0.101848 0.0128874 0.84404
0.161849 -0.0364864 0.851268
0.160561 -0.0355025 0.850633
0.159265 -0.0345185 0.849932
0.157903 -0.0335189 0.848732
0.1566 -0.0325359 0.847933
0.15529 -0.0315522 0.847063
0.153907 -0.0305538 0.845631
0.152506 -0.0295535 0.844029
0.150976 -0.0285272 0.841419
0.149409 -0.027497 0.838463
0.147828 -0.0264687 0.835328
0.146314 -0.0254603 0.832664
0.144839 -0.0244626 0.830236
0.143485 -0.0234934 0.828723
0.142175 -0.0225357 0.82753
0.140932 -0.0215918 0.826857
0.139713 -0.0206529 0.82635
0.138506 -0.0197176 0.825933
0.1373 -0.0187841 0.825518
0.136117 -0.0178549 0.825272
0.134946 -0.0169283 0.825127
0.133778 -0.0160024 0.825
0.132622 -0.0150784 0.824962
0.131465 -0.0141555 0.824919
0.130318 -0.0132337 0.824958
0.129191 -0.012315 0.825173
0.128075 -0.011397 0.825497
0.126969 -0.0104791 0.825906
0.125861 -0.00956177 0.826309
0.124752 -0.00864367 0.826697
0.123625 -0.00772397 0.826919
0.122498 -0.00680427 0.827141
0.121387 -0.00588543 0.827529
0.12027 -0.00496557 0.827847
0.11916 -0.00404623 0.828248
0.118049 -0.00312602 0.828647
0.116962 -0.00220628 0.829297
0.115869 -0.00128524 0.829897
0.114825 -0.000361951 0.83103
0.113804 0.000562413 0.832444
0.112783 0.00149094 0.833889
0.111758 0.00242082 0.835322
0.110719 0.00335294 0.836631
0.109639 0.00428404 0.837503
0.108549 0.00521653 0.838273
0.107471 0.00615085 0.839213
0.106387 0.00708618 0.840089
0.105316 0.00802458 0.841159
0.104249 0.00896591 0.842296
0.103165 0.00990674 0.843249
0.102086 0.0108502 0.844289
0.101 0.0117944 0.84526
0.160801 -0.0376068 0.850531
0.159516 -0.0366237 0.849911
0.15822 -0.0356379 0.849197
0.156848 -0.0346336 0.847905
0.155518 -0.0336426 0.846899
0.154193 -0.0326551 0.845907
0.152811 -0.0316547 0.844458
0.151414 -0.0306532 0.842867
0.149896 -0.0296256 0.840305
0.148367 -0.0286007 0.837615
0.146837 -0.0275787 0.834845
0.145363 -0.026575 0.832472
0.143929 -0.0255822 0.830346
0.142611 -0.0246172 0.82911
0.1413 -0.0236566 0.827906
0.140045 -0.0227087 0.82713
0.138814 -0.0217665 0.826526
0.137597 -0.0208286 0.826031
0.136393 -0.019894 0.825628
0.13522 -0.0189649 0.825465
0.134039 -0.018036 0.825237
0.132861 -0.0171079 0.825019
0.131703 -0.0161831 0.824971
0.130547 -0.0152595 0.824933
0.129402 -0.0143379 0.824991
0.128275 -0.0134186 0.825212
0.127157 -0.0125002 0.825519
0.12604 -0.0115814 0.82583
0.124922 -0.0106629 0.826138
0.123811 -0.00974508 0.82652
0.122693 -0.00882606 0.826828
0.121575 -0.0079065 0.827138
0.120473 -0.00698825 0.827622
0.119364 -0.00606866 0.828031
0.118256 -0.00514866 0.828456
0.117145 -0.00422908 0.828861
0.11605 -0.00330866 0.829438
0.114946 -0.00238773 0.829935
0.11389 -0.00146562 0.830947
0.112858 -0.000542 0.832254
0.111827 0.000384044 0.833609
0.11081 0.00131363 0.835136
0.109785 0.00224499 0.836633
0.108721 0.00317683 0.837702
0.107646 0.00411001 0.838662
0.106596 0.00504647 0.839952
0.105533 0.00598473 0.841114
0.104476 0.00692533 0.842379
0.103421 0.00786897 0.843717
0.102344 0.00881253 0.844779
0.101256 0.00975581 0.845744
0.10016 0.0106994 0.846627
0.159774 -0.0387323 0.849939
0.158465 -0.0377405 0.849138
0.157178 -0.0367564 0.848474
0.155803 -0.0357499 0.84715
0.15446 -0.0347535 0.846027
0.153113 -0.033759 0.844857
0.151745 -0.0327602 0.843497
0.150343 -0.0317551 0.841842
0.148864 -0.0307339 0.839559
0.147376 -0.0297142 0.837149
0.145886 -0.0286974 0.834672
0.14445 -0.027698 0.832575
0.14305 -0.0267103 0.830716
0.141744 -0.0257451 0.829569
0.140433 -0.0247812 0.82836
0.139176 -0.0238313 0.827566
0.137933 -0.0228849 0.826863
0.136706 -0.0219432 0.826283
0.135495 -0.0210056 0.825814
0.134314 -0.020075 0.825593
0.133124 -0.0191432 0.825282
0.131943 -0.0182139 0.825041
0.130783 -0.0172888 0.824977
0.129627 -0.0163643 0.824936
0.128482 -0.0154415 0.824993
0.127346 -0.0145206 0.825129
0.126218 -0.0136011 0.825342
0.125091 -0.0126816 0.825565
0.123973 -0.0117634 0.825875
0.122872 -0.0108465 0.826355
0.121771 -0.0099292 0.82684
0.120663 -0.00901006 0.827249
0.119569 -0.00809255 0.827822
0.11846 -0.00717273 0.82824
0.117351 -0.00625332 0.828668
0.116241 -0.00533246 0.829081
0.115143 -0.00441221 0.829645
0.11403 -0.00349104 0.830049
0.112956 -0.00256975 0.830879
0.111913 -0.00164715 0.832081
0.110873 -0.000722002 0.833341
0.109854 0.000205361 0.834872
0.108844 0.00113594 0.83655
0.107808 0.00206833 0.83797
0.106755 0.00300277 0.839211
0.105726 0.00394048 0.840781
0.104684 0.00488098 0.842229
0.103634 0.00582279 0.843623
0.10258 0.00676743 0.845004
0.1015 0.00771102 0.846082
0.100409 0.00865487 0.847043
0.0993036 0.0095985 0.84783
0.158687 -0.0398391 0.848916
0.157357 -0.0388402 0.847946
0.156077 -0.0378568 0.847313
0.154715 -0.0368527 0.846066
0.153375 -0.0358555 0.84495
0.152041 -0.0348626 0.843858
0.150699 -0.0338691 0.842674
0.149304 -0.032863 0.841049
0.147863 -0.0318487 0.839042
0.146414 -0.0308345 0.836913
0.14496 -0.0298229 0.834703
0.143552 -0.028826 0.832804
0.142175 -0.0278398 0.831123
0.140868 -0.0268729 0.829967
0.139557 -0.0259061 0.828752
0.138289 -0.0249515 0.827859
0.137025 -0.0239993 0.826986
0.135798 -0.0230562 0.826394
0.134586 -0.022117 0.825919
0.133405 -0.0211857 0.8257
0.132207 -0.020251 0.825311
0.131026 -0.0193208 0.825067
0.129854 -0.0183929 0.824897
0.128687 -0.0174666 0.824761
0.127524 -0.016541 0.82465
0.126386 -0.0156199 0.824771
0.125257 -0.0147002 0.824976
0.124131 -0.0137806 0.825201
0.123024 -0.0128636 0.825609
0.121941 -0.0119495 0.826276
0.12086 -0.0110335 0.826953
0.119761 -0.0101161 0.827477
0.118683 -0.00919958 0.828215
0.11758 -0.00828054 0.828712
0.116468 -0.00735989 0.82912
0.115356 -0.00643834 0.829522
0.114256 -0.00551833 0.830078
0.113136 -0.00459568 0.830405
0.112045 -0.00367447 0.831072
0.110992 -0.0027526 0.832182
0.109935 -0.00182899 0.833265
0.108913 -0.000902642 0.834782
0.107909 2.64929e-05 0.836552
0.106889 0.000958215 0.838172
0.105858 0.00189312 0.839707
0.104843 0.00283143 0.841479
0.103813 0.00377216 0.843113
0.102769 0.00471465 0.844613
0.101719 0.0056596 0.846083
0.100637 0.00660404 0.847164
0.0995355 0.00754684 0.84802
0.0984134 0.00848884 0.848611
0.156269 -0.0399426 0.846879
0.155003 -0.0389633 0.846342
0.153657 -0.0379611 0.845196
0.152333 -0.0369673 0.844182
0.151021 -0.0359782 0.843234
0.149705 -0.0349904 0.842237
0.148312 -0.0339821 0.840615
0.146897 -0.0329717 0.838793
0.145474 -0.0319614 0.836855
0.144047 -0.0309528 0.83484
0.142652 -0.0299556 0.833037
0.141288 -0.028969 0.831443
0.139981 -0.0279996 0.830289
0.13867 -0.0270302 0.82906
0.137393 -0.0260713 0.82809
0.13612 -0.0251147 0.82713
0.134891 -0.0241697 0.826519
0.133676 -0.023229 0.826016
0.132494 -0.0222963 0.825788
0.131286 -0.0213591 0.825319
0.130104 -0.0204278 0.825063
0.128923 -0.0194972 0.82481
0.127738 -0.0185675 0.824508
0.126557 -0.0176384 0.82422
0.125409 -0.0167155 0.824244
0.124279 -0.0157956 0.82443
0.123154 -0.0148772 0.824664
0.122066 -0.0139627 0.825262
0.121011 -0.0130522 0.826203
0.119956 -0.0121408 0.827164
0.118875 -0.011225 0.827867
0.117804 -0.0103089 0.828699
0.116707 -0.00939022 0.829265
0.115585 -0.00846795 0.829581
0.114462 -0.00754644 0.829889
0.113355 -0.0066248 0.830364
0.112233 -0.00570249 0.830692
0.111128 -0.00478019 0.831207
0.110073 -0.00385854 0.832307
0.109012 -0.00293573 0.833367
0.107988 -0.00201108 0.834877
0.10699 -0.00108324 0.836745
0.105991 -0.000152185 0.838641
0.104968 0.000781874 0.840305
0.103966 0.00172011 0.842276
0.102947 0.00266138 0.844084
0.101898 0.00360353 0.845558
0.100838 0.00454753 0.846923
0.0997507 0.00549097 0.847975
0.0986401 0.00643397 0.84873
0.0975096 0.00737561 0.849227
0.153933 -0.040068 0.845388
0.152632 -0.0390773 0.844554
0.151325 -0.0380871 0.843665
0.150035 -0.037104 0.842876
0.14873 -0.0361171 0.841951
0.14734 -0.0351073 0.84034
0.145942 -0.0340974 0.838621
0.144543 -0.0330906 0.836862
0.14313 -0.0320824 0.834946
0.141747 -0.0310853 0.833235
0.140386 -0.0300964 0.83165
0.139079 -0.0291245 0.830487
0.137768 -0.0281531 0.829258
0.136492 -0.027192 0.828287
0.135219 -0.0262337 0.827325
0.13398 -0.0252852 0.82663
0.132755 -0.0243403 0.826028
0.131571 -0.0234059 0.825785
0.130354 -0.0224661 0.825232
0.129165 -0.0215317 0.824907
0.127984 -0.0206006 0.824643
0.126798 -0.0196696 0.824328
0.125598 -0.018737 0.823868
0.124441 -0.0178122 0.823798
0.123311 -0.016892 0.823974
0.122195 -0.015975 0.824298
0.121117 -0.0150629 0.825001
0.120088 -0.0141575 0.826213
0.119059 -0.0132497 0.827445
0.117994 -0.0123361 0.828328
0.116924 -0.0114206 0.829183
0.115824 -0.010501 0.82974
0.114694 -0.00957786 0.829976
0.11357 -0.00865481 0.83028
0.112454 -0.0077328 0.830671
0.111332 -0.00681042 0.831007
0.110224 -0.00588762 0.831501
0.109167 -0.00496671 0.83259
0.108098 -0.00404357 0.833565
0.107071 -0.00312046 0.835082
0.106086 -0.00219396 0.837123
0.1051 -0.00126431 0.839222
0.10409 -0.000330653 0.84108
0.103093 0.000606881 0.843142
0.102069 0.00154658 0.844934
0.101009 0.00248778 0.846294
0.0999316 0.00343079 0.847466
0.0988291 0.00437313 0.848332
0.0977171 0.00531603 0.849088
0.0965975 0.00625909 0.849756
0.151617 -0.0401969 0.843998
0.150355 -0.0392191 0.843431
0.149085 -0.0382395 0.842791
0.14778 -0.0372511 0.841857
0.146391 -0.0362383 0.84024
0.144993 -0.0352263 0.838517
0.143588 -0.034214 0.836688
0.142177 -0.0332033 0.834776
0.140807 -0.0322062 0.833143
0.139447 -0.0312149 0.831558
0.138141 -0.030241 0.830397
0.136842 -0.0292705 0.829253
0.135576 -0.0283098 0.828365
0.134305 -0.0273503 0.827413
0.133076 -0.0264022 0.826803
0.131843 -0.0254536 0.826124
0.13065 -0.024517 0.825798
0.129424 -0.0235731 0.825156
0.128225 -0.0226361 0.824741
0.127035 -0.0217025 0.824395
0.12585 -0.0207703 0.824074
0.124649 -0.0198369 0.823606
0.123483 -0.0189101 0.823446
0.122353 -0.0179901 0.823622
0.121245 -0.017075 0.824024
0.120185 -0.0161659 0.824909
0.119166 -0.0152635 0.826236
0.118161 -0.0143605 0.827728
0.117104 -0.0134483 0.828715
0.11604 -0.0125335 0.829644
0.114933 -0.0116129 0.830137
0.113801 -0.0106892 0.830361
0.112676 -0.00976622 0.83067
0.111566 -0.00884391 0.831144
0.110443 -0.00792029 0.831473
0.109333 -0.00699777 0.831964
0.108273 -0.00607682 0.833045
0.107195 -0.00515414 0.833935
0.106162 -0.0042311 0.835387
0.105168 -0.0033064 0.837362
0.104186 -0.00237836 0.839539
0.103188 -0.00144595 0.841568
0.102189 -0.00051035 0.843655
0.101156 0.000428886 0.845352
0.100092 0.00136875 0.846691
0.0990043 0.00231043 0.847752
0.097889 0.00325191 0.848457
0.0967827 0.00419458 0.849313
0.0956821 0.00513974 0.85027
0.150652 -0.0413312 0.843807
0.149398 -0.0403546 0.8433
0.14814 -0.039378 0.842749
0.146833 -0.0383863 0.84179
0.145433 -0.0373681 0.840077
0.144037 -0.0363521 0.838342
0.142633 -0.0353374 0.836514
0.141234 -0.0343271 0.834678
0.139865 -0.0333272 0.833043
0.138514 -0.0323356 0.831526
0.137202 -0.0313574 0.830297
0.135913 -0.0303876 0.829235
0.13465 -0.0294262 0.82836
0.13339 -0.0284674 0.827501
0.132164 -0.0275184 0.826907
0.130932 -0.0265693 0.826242
0.129738 -0.0256305 0.825901
0.128511 -0.0246849 0.825248
0.127311 -0.0237472 0.824824
0.126122 -0.0228126 0.824478
0.124945 -0.0218806 0.824239
0.123754 -0.0209478 0.823859
0.122589 -0.0200203 0.823711
0.121449 -0.0190987 0.823801
0.12034 -0.0181823 0.824195
0.119263 -0.0172718 0.824929
0.118248 -0.0163709 0.82631
0.117257 -0.0154709 0.827954
0.11621 -0.0145615 0.829071
0.115155 -0.0136488 0.83011
0.114053 -0.0127282 0.830674
0.11292 -0.0118037 0.830898
0.111795 -0.01088 0.831212
0.110684 -0.0099573 0.831692
0.109553 -0.00903236 0.831947
0.108442 -0.00810913 0.832429
0.107373 -0.00718855 0.83343
0.106294 -0.00626549 0.834331
0.105258 -0.00534325 0.835774
0.104267 -0.00442063 0.837818
0.103276 -0.00349387 0.839913
0.102276 -0.00256332 0.841952
0.101268 -0.00162883 0.843955
0.100226 -0.000691521 0.845573
0.0991535 0.000247848 0.846819
0.0980707 0.00118897 0.847962
0.0969619 0.00213047 0.848775
0.0958745 0.00307497 0.849916
0.0947991 0.0040227 0.851262
0.0951655 0.00616013 0.859726
0.0937065 0.00497089 0.8524
0.149758 -0.042491 0.844172
0.148506 -0.0415133 0.843677
0.147249 -0.0405354 0.843131
0.145945 -0.0395424 0.842195
0.144532 -0.0385156 0.840365
0.143124 -0.0374929 0.838526
0.14171 -0.0364717 0.836604
0.140303 -0.0354547 0.834689
0.138935 -0.0344529 0.833051
0.137596 -0.0334619 0.831616
0.136284 -0.0324815 0.830386
0.134999 -0.0315097 0.829339
0.133745 -0.0305495 0.828551
0.132497 -0.0295909 0.827779
0.131272 -0.0286413 0.827196
0.130041 -0.0276902 0.826536
0.128837 -0.0267483 0.826112
0.127616 -0.0258025 0.825511
0.126417 -0.0248631 0.825089
0.125237 -0.0239292 0.824837
0.124063 -0.0229974 0.824625
0.122889 -0.0220671 0.824416
0.121716 -0.0211367 0.824194
0.120566 -0.0202123 0.824202
0.119447 -0.0192932 0.824497
0.118355 -0.0183797 0.825081
0.117324 -0.017478 0.826321
0.116323 -0.0165786 0.827893
0.115282 -0.0156708 0.829072
0.114233 -0.0147595 0.83019
0.113129 -0.0138395 0.830739
0.112012 -0.0129162 0.831144
0.110897 -0.0119935 0.831588
0.109794 -0.0110714 0.832165
0.108669 -0.0101474 0.832509
0.107565 -0.00922409 0.833091
0.106488 -0.00830228 0.834009
0.105406 -0.00738006 0.834893
0.104353 -0.00645717 0.836153
0.103345 -0.00553533 0.838017
0.102342 -0.0046104 0.840006
0.101339 -0.00368101 0.842037
0.100324 -0.0027491 0.843971
0.0992809 -0.00181312 0.845597
0.098212 -0.000874922 0.84692
0.0971287 6.54416e-05 0.848075
0.0960261 0.00100735 0.84899
0.0949463 0.00195202 0.850256
0.0938883 0.00290013 0.851893
0.0928138 0.00385076 0.853321
0.147635 -0.0426801 0.84422
0.146364 -0.0416963 0.843576
0.145058 -0.0407001 0.842621
0.143643 -0.0396696 0.840767
0.142223 -0.0386395 0.838824
0.140801 -0.0376111 0.836812
0.139387 -0.0365889 0.834828
0.138019 -0.0355839 0.833181
0.136682 -0.0345907 0.831755
0.135372 -0.0336071 0.830519
0.134088 -0.0326343 0.829485
0.132844 -0.0316743 0.828772
0.131605 -0.0307178 0.828088
0.13039 -0.0297682 0.827588
0.129167 -0.0288181 0.827006
0.127963 -0.0278742 0.826576
0.126759 -0.0269313 0.826133
0.125568 -0.0259934 0.825805
0.124392 -0.0250585 0.825592
0.123227 -0.0241275 0.825477
0.122062 -0.023197 0.825356
0.120878 -0.022263 0.825046
0.119711 -0.0213333 0.824886
0.118579 -0.0204116 0.825071
0.117462 -0.0194932 0.825416
0.116401 -0.0185855 0.826343
0.114355 -0.0167805 0.829093
0.113309 -0.0158718 0.830268
0.112213 -0.014952 0.830899
0.1111 -0.0140305 0.831366
0.109992 -0.0131082 0.83189
0.108896 -0.0121876 0.832568
0.107778 -0.0112627 0.833001
0.10668 -0.0103403 0.833673
0.1056 -0.00941904 0.834586
0.10451 -0.00849521 0.835385
0.103439 -0.00757208 0.836451
0.10242 -0.00665136 0.83821
0.101402 -0.0057269 0.840015
0.100396 -0.00479991 0.842042
0.0993713 -0.00386941 0.843884
0.0983267 -0.00293499 0.845507
0.0972569 -0.00199749 0.846831
0.0961781 -0.00105839 0.848071
0.0950818 -0.000116878 0.849091
0.0940138 0.000827007 0.850559
0.0929663 0.00177511 0.85238
0.0919012 0.00272519 0.853994
0.0922809 0.00486317 0.863073
0.0908258 0.00367816 0.855496
0.146731 -0.0438394 0.844533
0.145426 -0.0428404 0.843603
0.144113 -0.0418403 0.842592
0.14271 -0.0408104 0.840818
0.1413 -0.0397797 0.838939
0.139894 -0.0387527 0.837046
0.13849 -0.0377305 0.835138
0.137124 -0.036722 0.833491
0.135778 -0.0357227 0.831976
0.134469 -0.0347376 0.830747
0.133184 -0.0337622 0.829704
0.131941 -0.0328014 0.828996
0.130702 -0.0318424 0.828302
0.129495 -0.0308948 0.827884
0.128284 -0.0299459 0.827402
0.127089 -0.029003 0.827059
0.125905 -0.0280638 0.826805
0.124732 -0.0271289 0.826652
0.123566 -0.0261959 0.826553
0.1224 -0.0252637 0.826446
0.12124 -0.0243329 0.82639
0.120045 -0.0233945 0.825974
0.11886 -0.0224584 0.825634
0.117701 -0.0215297 0.825552
0.116565 -0.0206074 0.825718
0.115467 -0.0196923 0.826268
0.113425 -0.017891 0.829088
0.111295 -0.0160664 0.831055
0.110185 -0.0151444 0.831555
0.109076 -0.014223 0.832092
0.107987 -0.013303 0.83286
0.106877 -0.01238 0.8334
0.105779 -0.0114573 0.834084
0.104698 -0.0105358 0.834995
0.103604 -0.00961221 0.835773
0.102517 -0.00868803 0.836659
0.101483 -0.00776678 0.838242
0.10046 -0.0068446 0.840026
0.0994452 -0.00591909 0.841957
0.0984128 -0.00498997 0.843718
0.0973721 -0.00405752 0.845421
0.0963011 -0.00312084 0.846741
0.0952207 -0.00218321 0.847982
0.0941353 -0.00124266 0.849178
0.0930773 -0.000299439 0.850819
0.0920291 0.000647918 0.852657
0.0909713 0.00159722 0.85442
0.0898986 0.00254913 0.856009
0.145818 -0.0449965 0.844774
0.144489 -0.0439862 0.843648
0.143178 -0.042984 0.842636
0.141789 -0.0419562 0.840971
0.140399 -0.0409295 0.839244
0.139026 -0.0399099 0.837615
0.137621 -0.0388836 0.835689
0.136245 -0.0378687 0.833953
0.134898 -0.0368657 0.832421
0.133589 -0.0358778 0.831194
0.132305 -0.0348997 0.830141
0.131062 -0.0339366 0.829433
0.129832 -0.0329787 0.828821
0.128626 -0.0320299 0.828416
0.127424 -0.0310827 0.828031
0.126232 -0.0301389 0.827719
0.125058 -0.0292014 0.827567
0.123895 -0.0282676 0.827512
0.122737 -0.0273362 0.827505
0.121578 -0.0264039 0.827475
0.120422 -0.0254733 0.827479
0.119225 -0.0245324 0.827053
0.118029 -0.0235925 0.826613
0.116849 -0.0226573 0.826331
0.115687 -0.0217269 0.826222
0.11455 -0.0208037 0.826375
0.113488 -0.0198962 0.827339
0.111455 -0.0180967 0.830353
0.110363 -0.0171787 0.83106
0.109253 -0.0162576 0.83157
0.108151 -0.0153372 0.832194
0.107061 -0.0144175 0.832961
0.105958 -0.0134955 0.833595
0.104866 -0.0125739 0.834364
0.103784 -0.0116533 0.835288
0.102689 -0.0107292 0.836062
0.101595 -0.00980464 0.836865
0.100549 -0.0088847 0.83834
0.0995188 -0.00796252 0.840038
0.0984956 -0.00703854 0.841891
0.0974551 -0.00611065 0.843566
0.0964126 -0.0051802 0.845267
0.0953395 -0.00424493 0.846578
0.0942579 -0.00330793 0.847815
0.0931833 -0.00236876 0.84919
0.0921309 -0.00142617 0.850933
0.0910804 -0.000481281 0.852779
0.0900263 0.000466786 0.854631
0.0889512 0.00141791 0.856209
0.140873 -0.0431054 0.841173
0.139501 -0.0420818 0.83959
0.138166 -0.0410732 0.838272
0.136752 -0.0400388 0.836254
0.135375 -0.03902 0.834504
0.134018 -0.03801 0.83288
0.132718 -0.0370225 0.831721
0.131415 -0.0360363 0.830506
0.130172 -0.0350712 0.829796
0.128942 -0.034112 0.829188
0.127747 -0.0331644 0.828872
0.126555 -0.032219 0.828585
0.125373 -0.0312775 0.828376
0.124215 -0.0303441 0.82839
0.12306 -0.0294113 0.828427
0.1219 -0.0284776 0.828407
0.120732 -0.027542 0.8283
0.119576 -0.0266101 0.828307
0.118378 -0.0256665 0.827874
0.117173 -0.0247229 0.827361
0.115986 -0.0237846 0.827008
0.114813 -0.0228501 0.826794
0.109383 -0.018282 0.830519
0.108296 -0.0173663 0.831301
0.107204 -0.016448 0.832037
0.106121 -0.0155307 0.832903
0.105022 -0.0146096 0.833594
0.103936 -0.01369 0.834457
0.102861 -0.0127707 0.835472
0.101758 -0.0118467 0.836171
0.100656 -0.0109208 0.836886
0.0995965 -0.01 0.838182
0.0985565 -0.00907975 0.839785
0.0975254 -0.00815712 0.841552
0.0964847 -0.00723096 0.843242
0.0954404 -0.00630226 0.84494
0.0943715 -0.00536907 0.84633
0.0932899 -0.00443284 0.847576
0.0922203 -0.00349488 0.849041
0.0911675 -0.00255497 0.850814
0.0901216 -0.00161192 0.85276
0.0890719 -0.000664963 0.85471
0.0880004 0.000285433 0.856375
0.0883643 0.00240809 0.86583
0.0868975 0.00123604 0.857587
0.139916 -0.0442396 0.841041
0.138588 -0.0432299 0.839808
0.137286 -0.0422314 0.83877
0.135883 -0.0411972 0.836837
0.134518 -0.0401791 0.835181
0.133161 -0.0391661 0.833554
0.131851 -0.0381716 0.832299
0.130548 -0.0371819 0.831075
0.129294 -0.036212 0.830275
0.128057 -0.0352475 0.829592
0.12686 -0.0342988 0.829275
0.125677 -0.0333551 0.829068
0.124494 -0.0324122 0.828861
0.123343 -0.0314797 0.828949
0.122195 -0.0305484 0.82906
0.121034 -0.0296134 0.829039
0.119873 -0.0286793 0.829015
0.118717 -0.0277467 0.829039
0.117529 -0.0268039 0.828711
0.116338 -0.0258617 0.82834
0.115156 -0.0249237 0.828064
0.113975 -0.0239861 0.827772
0.107323 -0.0184706 0.830835
0.106247 -0.017557 0.831773
0.105164 -0.0166411 0.832646
0.104065 -0.0157202 0.833334
0.102985 -0.014803 0.834288
0.101916 -0.0138855 0.835395
0.100815 -0.0129619 0.836115
0.0997109 -0.0120368 0.836819
0.0986477 -0.011117 0.838091
0.0975993 -0.0101963 0.839591
0.0965534 -0.00927485 0.841182
0.0955059 -0.00834998 0.842794
0.0944603 -0.0074226 0.844485
0.0933848 -0.00649114 0.845798
0.0923022 -0.00555663 0.847044
0.0912389 -0.00462035 0.848612
0.090196 -0.00368329 0.850568
0.089161 -0.00274241 0.852713
0.0881257 -0.00179738 0.854934
0.0870635 -0.000848873 0.856796
0.0859647 0.000102286 0.8581
0.0857681 0.00218768 0.858386
0.0848341 0.00105359 0.858899
0.138925 -0.0453604 0.840619
0.137643 -0.0443675 0.839773
0.136383 -0.0433835 0.839085
0.135024 -0.0423622 0.837522
0.133681 -0.0413494 0.836058
0.132344 -0.0403402 0.834604
0.131033 -0.0393429 0.833347
0.129719 -0.0383453 0.83202
0.128455 -0.0373683 0.831123
0.127196 -0.036395 0.830252
0.12598 -0.0354381 0.829755
0.124786 -0.0344892 0.829453
0.123602 -0.0335447 0.82923
0.122444 -0.032609 0.829251
0.121295 -0.0316772 0.82936
0.120141 -0.0307443 0.829426
0.118981 -0.0298084 0.829408
0.117832 -0.0288779 0.829515
0.11666 -0.0279398 0.829369
0.115491 -0.0270018 0.829233
0.114335 -0.0260694 0.829238
0.10532 -0.0186736 0.831875
0.104222 -0.0177546 0.832572
0.103121 -0.0168342 0.833243
0.102041 -0.0159168 0.834197
0.100965 -0.0149995 0.835233
0.0998628 -0.0140767 0.835957
0.0987578 -0.0131521 0.836656
0.0976866 -0.0122322 0.837831
0.0966284 -0.0113129 0.839224
0.0955744 -0.0103917 0.840714
0.0945188 -0.00946729 0.84222
0.0934658 -0.00854216 0.843827
0.0923898 -0.00761166 0.845134
0.091307 -0.00667891 0.846383
0.090248 -0.00574561 0.84804
0.0892155 -0.00481085 0.850174
0.0882012 -0.00387348 0.852688
0.0871872 -0.00293129 0.855302
0.0861362 -0.0019838 0.857386
0.0850447 -0.00103377 0.858868
0.084396 -6.54939e-05 0.868203
0.137985 -0.0465031 0.840634
0.136716 -0.0455136 0.839897
0.135478 -0.0445367 0.839395
0.134152 -0.043525 0.838108
0.132833 -0.0425181 0.83685
0.131527 -0.0415184 0.835673
0.130216 -0.0405175 0.834417
0.128891 -0.0395124 0.83299
0.127613 -0.0385287 0.831977
0.126343 -0.0375477 0.830994
0.125114 -0.0365846 0.830384
0.123919 -0.0356333 0.830069
0.122725 -0.0346844 0.829762
0.121558 -0.0337454 0.829701
0.1204 -0.0328094 0.82973
0.119239 -0.0318726 0.829718
0.118069 -0.030934 0.829619
0.116929 -0.0300054 0.829812
0.115773 -0.0290707 0.82984
0.114623 -0.0281387 0.829922
0.113477 -0.027209 0.830051
0.112346 -0.0262828 0.830335
0.109731 -0.0223467 0.829419
0.109995 -0.024405 0.829907
0.108842 -0.0234734 0.829928
0.107708 -0.0225478 0.830174
0.1075 -0.0205049 0.830322
0.106588 -0.0216252 0.830581
0.10549 -0.0207082 0.831264
0.104397 -0.0197909 0.832023
0.103289 -0.01887 0.832603
0.102184 -0.0179497 0.833249
0.101102 -0.0170335 0.834194
0.100019 -0.0161156 0.835151
0.0989224 -0.0151938 0.835956
0.0978225 -0.0142709 0.836736
0.0967443 -0.0133505 0.83783
0.0956724 -0.0124305 0.839053
0.0946094 -0.0115092 0.840433
0.0935382 -0.0105854 0.84174
0.0924664 -0.00965895 0.843072
0.0913773 -0.0087296 0.844197
0.0902887 -0.00779819 0.845358
0.0892225 -0.00686721 0.846915
0.0881952 -0.00593558 0.84914
0.0872072 -0.00500385 0.852115
0.0862165 -0.00406522 0.855146
0.0851877 -0.00312065 0.857649
0.0841111 -0.00217152 0.859424
0.135762 -0.0466482 0.839782
0.134543 -0.0456792 0.839453
0.133265 -0.0446853 0.838582
0.131979 -0.0436889 0.837615
0.130695 -0.0426949 0.836634
0.129385 -0.0416916 0.835388
0.128049 -0.0406793 0.833865
0.126752 -0.0396838 0.832658
0.12546 -0.0386926 0.831475
0.124213 -0.0377208 0.830692
0.123016 -0.036768 0.830364
0.121823 -0.035818 0.830064
0.120655 -0.0348776 0.829999
0.119496 -0.0339409 0.830024
0.118332 -0.0330027 0.829991
0.117147 -0.0320566 0.829719
0.116005 -0.0311271 0.829907
0.114856 -0.0301953 0.830014
0.113718 -0.0292663 0.830227
0.112572 -0.0283356 0.830362
0.111447 -0.0274115 0.830733
0.111168 -0.0253426 0.830095
0.110274 -0.0264721 0.830553
0.109101 -0.0255333 0.830368
0.107944 -0.0245992 0.830343
0.106807 -0.0236723 0.830568
0.105681 -0.0227477 0.830911
0.104574 -0.0218289 0.831504
0.103472 -0.0209094 0.832152
0.102363 -0.0199887 0.832739
0.101255 -0.0190681 0.833357
0.100171 -0.0181515 0.834293
0.0990867 -0.0172343 0.835251
0.0980011 -0.0163165 0.836224
0.0969075 -0.0153944 0.837099
0.0958281 -0.0144752 0.838209
0.0947433 -0.0135532 0.83927
0.0936705 -0.0126319 0.840536
0.0925788 -0.0117055 0.841557
0.0914864 -0.0107784 0.842607
0.0903847 -0.00984787 0.843539
0.089288 -0.00891727 0.844583
0.0882102 -0.00798701 0.845962
0.087176 -0.00705854 0.8481
0.0862136 -0.00613261 0.851528
0.0852459 -0.00519952 0.854997
0.0842441 -0.0042592 0.858021
0.0831872 -0.0033122 0.860192
0.134804 -0.047783 0.83965
0.133594 -0.046816 0.839386
0.132358 -0.0458384 0.838883
0.13111 -0.0448564 0.83826
0.129847 -0.0438684 0.837465
0.128538 -0.0428629 0.836237
0.127202 -0.0418464 0.8347
0.125883 -0.0408403 0.8333
0.124573 -0.0398385 0.831933
0.12331 -0.038857 0.830982
0.122106 -0.0379005 0.830589
0.120914 -0.0369496 0.830298
0.119736 -0.0360053 0.830142
0.118567 -0.0350634 0.830057
0.1174 -0.0341243 0.829998
0.116205 -0.0331737 0.829627
0.115063 -0.0322441 0.829814
0.113922 -0.0313145 0.830006
0.112786 -0.0303866 0.830254
0.111637 -0.0294541 0.830357
0.110515 -0.0285309 0.830758
0.109369 -0.0275993 0.830886
0.108201 -0.0266614 0.830766
0.107056 -0.0257306 0.830898
0.105917 -0.0248024 0.831109
0.104788 -0.0238765 0.831432
0.103658 -0.0229506 0.831752
0.102553 -0.0220317 0.83239
0.101435 -0.0211088 0.832879
0.100332 -0.0201889 0.833558
0.0992467 -0.0192737 0.834501
0.0981625 -0.0183565 0.835471
0.0970823 -0.0174403 0.836534
0.0959939 -0.0165209 0.83751
0.0949152 -0.0156017 0.838646
0.0938283 -0.01468 0.839704
0.0927467 -0.013758 0.840868
0.0916334 -0.0128291 0.841597
0.0905217 -0.0118989 0.84236
0.0894009 -0.0109667 0.84301
0.0882809 -0.0100343 0.843691
0.0871902 -0.00910386 0.844858
0.0861425 -0.00817822 0.8468
0.0851995 -0.007259 0.850587
0.0842576 -0.00633362 0.854557
0.0832882 -0.00539879 0.858196
0.13383 -0.04891 0.839372
0.13263 -0.0479471 0.839197
0.131425 -0.0469819 0.838966
0.130202 -0.0460088 0.838557
0.128958 -0.0450282 0.837949
0.12766 -0.0440237 0.836804
0.126324 -0.0430051 0.835272
0.124995 -0.0419903 0.833762
0.123675 -0.0409816 0.832295
0.122403 -0.0399941 0.831252
0.121191 -0.0390338 0.830782
0.119999 -0.0380813 0.830493
0.118813 -0.0371323 0.830255
0.117634 -0.0361866 0.830071
0.116458 -0.0352422 0.829913
0.115254 -0.0342877 0.829448
0.11412 -0.0333608 0.829717
0.11298 -0.0324312 0.829921
0.111845 -0.0315033 0.830174
0.110709 -0.0305758 0.830433
0.109608 -0.0296598 0.831076
0.10847 -0.0287313 0.831313
0.107325 -0.0277996 0.831463
0.106192 -0.0268729 0.831761
0.105045 -0.0259411 0.831894
0.1039 -0.0250093 0.832029
0.102755 -0.0240779 0.83217
0.101636 -0.023155 0.832647
0.100512 -0.0222306 0.833071
0.0994082 -0.021311 0.833759
0.098323 -0.0203967 0.834722
0.0972372 -0.0194806 0.835697
0.0961632 -0.0185663 0.83686
0.0950805 -0.0176485 0.837936
0.0940006 -0.0167307 0.839088
0.0929119 -0.0158093 0.840143
0.0918265 -0.0148874 0.841281
0.0906999 -0.0139552 0.841821
0.0895697 -0.0130225 0.84232
0.0884354 -0.0120884 0.842766
0.0872973 -0.0111532 0.843157
0.0861842 -0.010221 0.843963
0.0856558 -0.0093695 0.854725
0.131682 -0.0490856 0.839149
0.130479 -0.048121 0.838937
0.129266 -0.0471516 0.83862
0.128028 -0.0461716 0.838061
0.126743 -0.0451708 0.837029
0.125408 -0.0441491 0.835496
0.12408 -0.0431318 0.833985
0.12276 -0.0421192 0.832497
0.121486 -0.0411293 0.831437
0.120274 -0.0401661 0.830955
0.11908 -0.0392134 0.83066
0.117895 -0.038263 0.830421
0.116707 -0.0373131 0.830157
0.115531 -0.0363679 0.829992
0.114328 -0.0354124 0.829531
0.113187 -0.0344822 0.82973
0.11204 -0.03355 0.829859
0.11091 -0.0326245 0.830185
0.109767 -0.0316937 0.830356
0.108658 -0.0307754 0.830919
0.10752 -0.0298462 0.831153
0.106375 -0.0289151 0.831307
0.105229 -0.0279835 0.831453
0.104089 -0.0270534 0.831652
0.102942 -0.0261216 0.831779
0.101803 -0.0251927 0.832
0.100691 -0.0242722 0.832571
0.0995809 -0.0233513 0.833172
0.0984773 -0.0224329 0.833881
0.0973972 -0.0215202 0.834924
0.0963155 -0.020607 0.835982
0.0952462 -0.0196945 0.837233
0.0941736 -0.0187813 0.838487
0.0930988 -0.0178649 0.839736
0.0920081 -0.0169438 0.840794
0.0909146 -0.0160207 0.841842
0.089781 -0.0150867 0.84229
0.0886381 -0.0141505 0.842604
0.0874915 -0.0132144 0.842873
0.0863412 -0.0122765 0.843068
0.0857492 -0.0114372 0.8527
0.129538 -0.0492621 0.83895
0.128334 -0.0482966 0.838719
0.127107 -0.0473208 0.838264
0.125831 -0.0463215 0.837313
0.124498 -0.0452973 0.835786
0.123172 -0.0442777 0.834281
0.121852 -0.0432626 0.832792
0.12057 -0.0422661 0.831638
0.119356 -0.0413011 0.831141
0.118163 -0.0403465 0.83084
0.116977 -0.0393955 0.830604
0.11579 -0.0384448 0.830345
0.114614 -0.0374986 0.830186
0.113411 -0.0365421 0.829731
0.112263 -0.0356084 0.829852
0.111108 -0.0346722 0.829898
0.10997 -0.0337436 0.830133
0.108818 -0.0328089 0.830201
0.1077 -0.0318882 0.830676
0.106562 -0.0309591 0.830905
0.105424 -0.0300299 0.831143
0.104284 -0.0290999 0.831352
0.10315 -0.0281728 0.831647
0.10201 -0.0272432 0.831862
0.100878 -0.0263161 0.832174
0.0997659 -0.0253961 0.832754
0.098655 -0.0244759 0.833362
0.0975508 -0.0235568 0.83407
0.0964747 -0.0226467 0.83519
0.0953981 -0.0217351 0.836334
0.0943323 -0.0208265 0.837674
0.0932648 -0.0199154 0.839028
0.0921884 -0.0189993 0.840284
0.0910965 -0.0180781 0.841346
0.0900009 -0.0171549 0.842389
0.0888658 -0.0162212 0.842845
0.0877169 -0.015283 0.84308
0.0865689 -0.014346 0.843339
0.0859566 -0.013523 0.85261
0.127384 -0.0494343 0.838658
0.126169 -0.0484627 0.838306
0.124908 -0.0474685 0.837496
0.123585 -0.0464465 0.836061
0.122279 -0.0454327 0.834738
0.120961 -0.0444157 0.833266
0.11968 -0.0434167 0.832116
0.118457 -0.0424462 0.831527
0.117255 -0.0414856 0.831138
0.116062 -0.0405305 0.830823
0.114876 -0.0395788 0.830573
0.1137 -0.038632 0.830418
0.112504 -0.0376767 0.830034
0.111355 -0.0367424 0.830155
0.11019 -0.0358022 0.8301
0.109049 -0.0348715 0.830308
0.107896 -0.0339359 0.830365
0.106771 -0.0330128 0.830765
0.105632 -0.0320824 0.830985
0.104499 -0.0311554 0.83129
0.103359 -0.0302254 0.831509
0.102226 -0.0292983 0.831819
0.101087 -0.0283684 0.832051
0.0999552 -0.0274419 0.832382
0.098842 -0.0265217 0.832964
0.0977299 -0.0256015 0.83357
0.0966295 -0.0246843 0.834347
0.0955518 -0.0237754 0.835472
0.0944746 -0.022864 0.836625
0.093408 -0.021956 0.837977
0.0923449 -0.0210479 0.839425
0.0912667 -0.0201328 0.840686
0.0901789 -0.0192146 0.841849
0.0890821 -0.0182916 0.842898
0.087956 -0.0173593 0.84351
0.0868061 -0.0164209 0.843753
0.0856536 -0.0154813 0.843949
0.126569 -0.0506416 0.839884
0.125302 -0.0496424 0.839051
0.124012 -0.0486306 0.83795
0.122681 -0.0476017 0.836433
0.121369 -0.0465822 0.835044
0.120071 -0.0455704 0.833752
0.118799 -0.0445741 0.832695
0.117577 -0.0436014 0.832116
0.116373 -0.0426401 0.831719
0.115171 -0.0416786 0.831311
0.113975 -0.0407217 0.830966
0.112791 -0.03977 0.830723
0.111602 -0.0388166 0.830419
0.110444 -0.0378781 0.83045
0.109278 -0.0369361 0.830386
0.108136 -0.0360046 0.83058
0.106981 -0.0350677 0.83063
0.105848 -0.0341406 0.830939
0.104703 -0.0332079 0.831093
0.103569 -0.0322806 0.831398
0.102429 -0.0313504 0.831623
0.101296 -0.0304234 0.831943
0.100159 -0.0294942 0.832202
0.0990331 -0.0285693 0.832616
0.0979185 -0.0276489 0.833191
0.0968105 -0.02673 0.833862
0.0957145 -0.0258162 0.834729
0.0946423 -0.0249101 0.835955
0.09357 -0.0240025 0.837215
0.0925078 -0.0230964 0.838657
0.0914417 -0.0221888 0.840101
0.0903618 -0.0212743 0.84137
0.0892722 -0.0203557 0.842532
0.0881786 -0.0194346 0.843669
0.0870627 -0.0185054 0.844475
0.0859227 -0.0175685 0.844907
0.0848039 -0.0166382 0.845718
0.12567 -0.0518106 0.840341
0.124391 -0.0508014 0.839375
0.12309 -0.0497829 0.838174
0.121761 -0.0487501 0.836651
0.120459 -0.0477337 0.83536
0.11918 -0.0467286 0.834255
0.117917 -0.0457343 0.833292
0.116694 -0.0447596 0.832704
0.115489 -0.0437956 0.832295
0.114284 -0.0428319 0.831869
0.11308 -0.0418689 0.831432
0.111886 -0.0409119 0.831091
0.110697 -0.0399567 0.830782
0.109525 -0.0390103 0.830649
0.108353 -0.0380649 0.830518
0.107216 -0.0371364 0.83079
0.106068 -0.0362025 0.830927
0.104936 -0.0352753 0.831258
0.103803 -0.0343482 0.83158
0.102676 -0.033423 0.83197
0.101535 -0.0324923 0.8322
0.100401 -0.0315646 0.832522
0.099268 -0.0306362 0.832849
0.0981396 -0.0297108 0.833252
0.0970171 -0.0287872 0.833739
0.0959073 -0.0278687 0.834413
0.094817 -0.0269571 0.835378
0.0937452 -0.0260519 0.836641
0.0926777 -0.0251471 0.838004
0.0916177 -0.024244 0.839525
0.0905542 -0.0233378 0.841039
0.0894713 -0.0224238 0.842311
0.0883855 -0.0215068 0.843569
0.0872955 -0.0205883 0.844814
0.0861933 -0.0196631 0.845885
0.0850679 -0.0187306 0.846608
0.0839805 -0.0178086 0.848011
0.126045 -0.05399 0.841683
0.124746 -0.0529671 0.840554
0.123468 -0.0519575 0.839603
0.122158 -0.0509306 0.838297
0.120838 -0.0498992 0.836851
0.119546 -0.0488853 0.835654
0.118285 -0.0478877 0.834736
0.117032 -0.0468958 0.833869
0.115816 -0.0459231 0.833364
0.114602 -0.0449533 0.832866
0.113389 -0.0439826 0.83234
0.112183 -0.0430179 0.831894
0.11098 -0.042055 0.831454
0.10979 -0.041099 0.831143
0.108625 -0.0401552 0.831095
0.10746 -0.0392121 0.831055
0.106318 -0.0382803 0.831271
0.105177 -0.0373494 0.831507
0.104044 -0.036422 0.831839
0.10291 -0.0354944 0.832171
0.101782 -0.0345688 0.832571
0.100647 -0.0336396 0.832877
0.0995108 -0.0327108 0.833189
0.0983753 -0.0317814 0.833504
0.0972391 -0.0308522 0.833817
0.0961147 -0.0299277 0.834295
0.095004 -0.0290091 0.834978
0.0939193 -0.0281006 0.83605
0.0928524 -0.0271989 0.837419
0.091789 -0.0262965 0.838875
0.0907315 -0.0253969 0.840487
0.0896703 -0.0244931 0.842085
0.0885855 -0.0235787 0.843362
0.0874968 -0.0226625 0.844628
0.0864156 -0.021747 0.846053
0.0853226 -0.020826 0.847332
0.0842078 -0.0198964 0.848282
0.0831451 -0.0189837 0.85019
0.1273 -0.0549889 0.84236
0.127541 -0.0571027 0.842409
0.126332 -0.0561277 0.842181
0.125095 -0.0551369 0.841667
0.1238 -0.0541141 0.840569
0.122521 -0.0531018 0.839604
0.121211 -0.0520721 0.83829
0.119902 -0.0510432 0.836932
0.118621 -0.0500325 0.835843
0.117372 -0.04904 0.835044
0.116128 -0.0480496 0.834259
0.114911 -0.0470759 0.833749
0.113689 -0.0460992 0.833159
0.112468 -0.0451238 0.832554
0.111263 -0.0441572 0.832109
0.110061 -0.0431934 0.831679
0.108877 -0.0422395 0.831441
0.107718 -0.0412982 0.831476
0.106561 -0.0403588 0.83153
0.105432 -0.0394331 0.831921
0.104298 -0.0385048 0.832252
0.103171 -0.0375807 0.83268
0.102043 -0.0366555 0.8331
0.100919 -0.0357321 0.83358
0.0997763 -0.0347985 0.833812
0.0986387 -0.0338683 0.83412
0.0974947 -0.0329349 0.834345
0.096345 -0.0319987 0.834488
0.0952131 -0.0310711 0.834884
0.0941059 -0.030155 0.835644
0.0930193 -0.0292464 0.836717
0.0919512 -0.0283452 0.838098
0.0908964 -0.0274491 0.839734
0.0898426 -0.0265513 0.841432
0.0887797 -0.0256496 0.843062
0.0876977 -0.0247379 0.844432
0.0866126 -0.0238234 0.845795
0.0855334 -0.0229105 0.847316
0.0844437 -0.0219914 0.8487
0.0833419 -0.0210676 0.849937
0.0823021 -0.0201642 0.852329
0.126541 -0.0582228 0.841925
0.125339 -0.0572518 0.841762
0.124116 -0.0562676 0.841378
0.122834 -0.0552502 0.840397
0.121559 -0.054238 0.839459
0.120246 -0.0532032 0.838091
0.118947 -0.0521774 0.836828
0.117671 -0.0511666 0.835769
0.116432 -0.0501778 0.835069
0.115197 -0.0491913 0.834381
0.11398 -0.0482155 0.833866
0.112757 -0.0472366 0.833263
0.111537 -0.0462603 0.832664
0.110332 -0.0452932 0.832222
0.109132 -0.0443284 0.831809
0.107956 -0.0433782 0.831666
0.106798 -0.0424365 0.831714
0.105647 -0.0414997 0.831851
0.104525 -0.0405778 0.832334
0.103396 -0.0396533 0.832753
0.102269 -0.0387282 0.833183
0.101146 -0.0378053 0.833681
0.100021 -0.0368818 0.834166
0.0988712 -0.0359447 0.834322
0.0977329 -0.0350138 0.834635
0.0965935 -0.0340828 0.83494
0.0954429 -0.0331451 0.83508
0.0943093 -0.0322173 0.835475
0.093206 -0.0313029 0.836309
0.0921119 -0.0303916 0.837301
0.0910399 -0.0294909 0.838664
0.0899883 -0.0285983 0.840388
0.0889392 -0.0277046 0.842201
0.0878753 -0.0268042 0.843857
0.0868023 -0.0258977 0.845417
0.0857194 -0.0249858 0.84687
0.0846431 -0.0240748 0.848481
0.0835499 -0.0231563 0.849869
0.0824599 -0.0222378 0.851366
0.0814347 -0.0213426 0.854107
0.0817435 -0.0194267 0.863714
0.0803979 -0.0204407 0.856759
0.12671 -0.0602955 0.841295
0.12552 -0.0593309 0.841246
0.124303 -0.0583495 0.840922
0.123056 -0.0573497 0.840289
0.121778 -0.0563325 0.83932
0.120524 -0.0553296 0.838563
0.119231 -0.0543049 0.837386
0.11796 -0.0532939 0.836398
0.116711 -0.0522963 0.835602
0.115473 -0.0513061 0.834907
0.114232 -0.050314 0.834138
0.113014 -0.0493364 0.833608
0.111784 -0.0483523 0.832917
0.110571 -0.0473791 0.832395
0.109377 -0.0464159 0.832054
0.108193 -0.0454592 0.831823
0.107025 -0.0445126 0.831779
0.105874 -0.043575 0.831917
0.104724 -0.0426374 0.832061
0.103607 -0.0417198 0.832628
0.102485 -0.0407984 0.833139
0.101364 -0.0398769 0.833665
0.100245 -0.0389569 0.834243
0.0991322 -0.03804 0.834902
0.0979816 -0.0371018 0.835063
0.0968485 -0.0361733 0.835464
0.0957079 -0.0352417 0.835777
0.0945554 -0.0343029 0.835913
0.0934149 -0.0333706 0.836222
0.0923039 -0.0324521 0.836964
0.0912008 -0.0315388 0.83786
0.0901214 -0.0306357 0.839142
0.0890669 -0.0297439 0.840858
0.0880158 -0.0288524 0.842688
0.086956 -0.0279553 0.844446
0.0858873 -0.0270522 0.846114
0.0848068 -0.0261432 0.847651
0.0837275 -0.0252334 0.849266
0.0826364 -0.0243174 0.850738
0.0815486 -0.0234011 0.852322
0.080505 -0.022502 0.854798
0.0794595 -0.0216001 0.857356
0.126947 -0.0624102 0.841306
0.125737 -0.0614314 0.841069
0.124543 -0.0604634 0.840976
0.123314 -0.0594741 0.84053
0.122052 -0.0584636 0.839739
0.120783 -0.0574487 0.83884
0.11953 -0.0564463 0.838091
0.118241 -0.0554208 0.836931
0.116982 -0.0544141 0.836046
0.115741 -0.0534197 0.835332
0.114505 -0.0524284 0.834635
0.113256 -0.0514302 0.833777
0.112038 -0.0504511 0.83323
0.110808 -0.0494658 0.832533
0.109597 -0.0484912 0.832011
0.108411 -0.0475328 0.831772
0.107243 -0.0465848 0.831721
0.106084 -0.0456422 0.831777
0.104946 -0.0447126 0.832084
0.103809 -0.0437827 0.832398
0.102692 -0.0428651 0.83298
0.10157 -0.0419439 0.833504
0.100448 -0.0410226 0.834033
0.0993299 -0.0401023 0.834621
0.0982157 -0.0391851 0.835283
0.0970647 -0.0382477 0.83546
0.0959372 -0.037322 0.83595
0.0948008 -0.0363926 0.836337
0.0936485 -0.0354531 0.836487
0.0925068 -0.0345202 0.836798
0.0913998 -0.0336052 0.837632
0.0902889 -0.032688 0.838431
0.0892012 -0.0317822 0.839617
0.0881381 -0.0308884 0.841236
0.0870839 -0.0299981 0.84306
0.0860174 -0.0290998 0.84474
0.0849512 -0.028201 0.846497
0.083869 -0.0272934 0.848046
0.0827884 -0.0263843 0.849669
0.0816948 -0.025469 0.851136
0.0806052 -0.0245536 0.852724
0.0795491 -0.0236527 0.855027
0.0785004 -0.0227527 0.857576
0.0788327 -0.0208636 0.868274
0.0774351 -0.021844 0.859919
0.127173 -0.0645195 0.841209
0.12597 -0.0635445 0.841047
0.124763 -0.0625669 0.840834
0.123557 -0.0615914 0.840626
0.122317 -0.0605929 0.84006
0.12104 -0.0595714 0.839103
0.119779 -0.0585603 0.838278
0.118521 -0.0575508 0.837446
0.117243 -0.0565303 0.836386
0.115987 -0.0555237 0.835518
0.114748 -0.0545282 0.834802
0.113504 -0.0535311 0.834015
0.112254 -0.0525305 0.833132
0.11103 -0.0515461 0.832503
0.109809 -0.0505643 0.831879
0.108608 -0.0495944 0.831463
0.107431 -0.0486413 0.831323
0.106272 -0.0476978 0.831372
0.10512 -0.0467603 0.831516
0.103983 -0.0458306 0.83183
0.102853 -0.0449051 0.832234
0.101743 -0.0439925 0.832911
0.100628 -0.0430758 0.833531
0.0995119 -0.0421584 0.834148
0.0984048 -0.0412462 0.834903
0.0972972 -0.0403325 0.835664
0.0961463 -0.0393945 0.835849
0.0950241 -0.0384723 0.836433
0.0938928 -0.0375453 0.836903
0.0927395 -0.0366057 0.837062
0.0915915 -0.0356691 0.837294
0.0904886 -0.0347567 0.83821
0.0893706 -0.0338369 0.838932
0.0882697 -0.0329251 0.839935
0.0871983 -0.032029 0.841453
0.0861402 -0.0311386 0.843246
0.0850609 -0.0302367 0.844751
0.0839926 -0.0293397 0.846507
0.0829136 -0.0284358 0.84814
0.0818313 -0.027528 0.849769
0.080737 -0.0266143 0.851251
0.0796493 -0.0257034 0.852927
0.0785865 -0.0248022 0.855149
0.07753 -0.0239026 0.857602
0.0764617 -0.0229953 0.859928
0.127377 -0.0666158 0.840906
0.126202 -0.0656588 0.841009
0.124982 -0.0646714 0.840675
0.123767 -0.0636878 0.840379
0.12255 -0.0627035 0.840053
0.121289 -0.0616901 0.839266
0.120004 -0.0606613 0.838212
0.118745 -0.0596492 0.83738
0.11748 -0.0586338 0.836461
0.116205 -0.0576132 0.835411
0.114959 -0.0566102 0.834625
0.113722 -0.0556149 0.833914
0.112479 -0.0546169 0.833119
0.111238 -0.0536195 0.832313
0.110017 -0.0526347 0.831687
0.108805 -0.0516577 0.831161
0.10762 -0.0506984 0.830927
0.106453 -0.0497498 0.830885
0.105302 -0.0488114 0.83103
0.104157 -0.0478776 0.831255
0.10302 -0.0469482 0.831571
0.10189 -0.0460236 0.831988
0.100781 -0.0451122 0.832678
0.0996723 -0.0442001 0.833382
0.0985552 -0.0432831 0.833999
0.097454 -0.042375 0.83484
0.0963521 -0.0414663 0.835694
0.0952086 -0.0405318 0.835982
0.0940856 -0.0396101 0.836571
0.092959 -0.0386863 0.837124
0.091811 -0.0377496 0.837367
0.0906631 -0.0368129 0.837616
0.0895592 -0.035901 0.838538
0.0884392 -0.0349811 0.839249
0.0873314 -0.0340661 0.840161
0.0862411 -0.0331618 0.841403
0.0851691 -0.0322672 0.843
0.0840824 -0.0313624 0.844394
0.0830126 -0.0304669 0.846144
0.0819327 -0.0295657 0.847792
0.0808542 -0.0286628 0.849514
0.0797674 -0.0277553 0.851167
0.0786785 -0.0268457 0.852847
0.0776095 -0.0259445 0.854989
0.0765498 -0.0250475 0.85743
0.0754739 -0.0241408 0.859655
0.126417 -0.0677637 0.840812
0.125227 -0.0667963 0.84078
0.124 -0.0658032 0.840373
0.122775 -0.0648116 0.839971
0.121536 -0.0638111 0.839415
0.120267 -0.0627894 0.838525
0.118974 -0.0617527 0.83737
0.117701 -0.0607292 0.836373
0.116429 -0.0597074 0.835364
0.115157 -0.0586856 0.834308
0.113904 -0.0576765 0.833428
0.112669 -0.0566819 0.832727
0.111429 -0.0556828 0.831929
0.1102 -0.0546912 0.831226
0.108995 -0.053717 0.830775
0.107802 -0.0527512 0.83045
0.106635 -0.0518017 0.830406
0.105483 -0.0508626 0.830543
0.104339 -0.0499287 0.830769
0.103194 -0.0489949 0.830994
0.102056 -0.0480659 0.831308
0.100926 -0.0471414 0.831721
0.0998102 -0.0462257 0.832322
0.0986946 -0.0453108 0.832946
0.0975773 -0.0443934 0.833555
0.096476 -0.0434874 0.834407
0.0953742 -0.0425801 0.835271
0.0942433 -0.041654 0.835739
0.0931314 -0.0407401 0.836498
0.0920111 -0.0398202 0.837147
0.0908682 -0.0388874 0.83748
0.0897256 -0.0379536 0.837814
0.0886203 -0.0370422 0.838738
0.0874992 -0.036122 0.839446
0.0863844 -0.0352041 0.840268
0.0852817 -0.0342938 0.841324
0.084197 -0.0333937 0.842725
0.0831026 -0.0324873 0.844009
0.0820265 -0.0315912 0.845676
0.0809466 -0.030692 0.847339
0.0798666 -0.0297924 0.849075
0.078788 -0.028891 0.850896
0.0776976 -0.0279834 0.852578
0.0766262 -0.0270856 0.854727
0.0755644 -0.0261903 0.85716
0.0744936 -0.0252904 0.859544
0.126648 -0.0698808 0.840767
0.125452 -0.068909 0.840682
0.12425 -0.0679319 0.840527
0.123006 -0.0669254 0.839943
0.12176 -0.0659169 0.839318
0.120496 -0.0648981 0.8385
0.119218 -0.0638675 0.837499
0.117927 -0.0628299 0.836339
0.116647 -0.0617996 0.835247
0.115371 -0.0607708 0.834152
0.114099 -0.059748 0.833083
0.11284 -0.0587329 0.832108
0.111601 -0.0577326 0.831325
0.110365 -0.0567349 0.830547
0.109153 -0.0557548 0.830024
0.107961 -0.0547869 0.829694
0.106786 -0.0538327 0.829565
0.105629 -0.0528892 0.829625
0.104485 -0.0519561 0.829856
0.103348 -0.0510271 0.830162
0.102211 -0.0500984 0.830475
0.101079 -0.0491744 0.830872
0.0999553 -0.0482541 0.831361
0.0988373 -0.0473386 0.831946
0.0977143 -0.0464179 0.832464
0.0965899 -0.0454979 0.832985
0.0954827 -0.0445884 0.833751
0.0943751 -0.0436789 0.834536
0.0932505 -0.0427579 0.835094
0.0921456 -0.0418492 0.835952
0.0910373 -0.0409391 0.836795
0.0899068 -0.0400127 0.837305
0.0887698 -0.0390835 0.837735
0.0876681 -0.0381761 0.838737
0.0865463 -0.0372561 0.839443
0.0854252 -0.0363356 0.840179
0.0843158 -0.035423 0.841142
0.0832284 -0.0345236 0.842521
0.0821316 -0.0336179 0.843788
0.0810545 -0.0327236 0.845461
0.0799745 -0.0318261 0.847143
0.0788888 -0.0309259 0.8488
0.0778035 -0.030024 0.850528
0.0767069 -0.0291156 0.852115
0.0756344 -0.0282197 0.854265
0.0745747 -0.0273306 0.856798
0.0735149 -0.0264408 0.859465
0.0737871 -0.0245826 0.87007
0.0724332 -0.0255364 0.861773
0.125664 -0.0710129 0.840453
0.12446 -0.0700343 0.840283
0.123235 -0.0690396 0.839895
0.121973 -0.0680186 0.839124
0.120709 -0.0669964 0.838309
0.119438 -0.065969 0.837389
0.118154 -0.0649324 0.836298
0.116873 -0.0638984 0.835212
0.115589 -0.0628623 0.834047
0.114307 -0.0618281 0.83287
0.113028 -0.0607971 0.831692
0.111763 -0.0597759 0.830627
0.110519 -0.0587693 0.82975
0.109294 -0.0577779 0.829067
0.108102 -0.0568095 0.828736
0.106926 -0.0558536 0.828591
0.105769 -0.0549114 0.828655
0.10462 -0.0539746 0.82881
0.103484 -0.0530466 0.829125
0.102348 -0.0521185 0.829438
0.101212 -0.0511905 0.82976
0.100076 -0.0502635 0.830087
0.098946 -0.0493396 0.830491
0.0978215 -0.0484199 0.830979
0.0966906 -0.0474961 0.831393
0.0955598 -0.0465714 0.831808
0.0944521 -0.0456625 0.832556
0.0933447 -0.0447541 0.833333
0.0922322 -0.0438421 0.834057
0.0911398 -0.0429442 0.835105
0.0900449 -0.0420446 0.836149
0.0889276 -0.0411279 0.836865
0.0878017 -0.0402062 0.83747
0.0866993 -0.0393001 0.838475
0.0855774 -0.0383801 0.839181
0.0844551 -0.0374611 0.839916
0.0833403 -0.0365459 0.840795
0.0822515 -0.0356477 0.842168
0.081159 -0.0347461 0.843522
0.0800811 -0.033854 0.845208
0.0789997 -0.0329592 0.846901
0.0779117 -0.0320601 0.848542
0.0768187 -0.0311569 0.850156
0.075716 -0.0302458 0.851627
0.0746419 -0.0293531 0.853785
0.0735855 -0.0284709 0.856439
0.0725374 -0.0275924 0.859416
0.0714748 -0.0267037 0.862226
0.124665 -0.072133 0.839988
0.123448 -0.0711442 0.839692
0.122202 -0.0701328 0.839086
0.12092 -0.0690945 0.838093
0.119633 -0.0680525 0.837014
0.118355 -0.0670184 0.836
0.117074 -0.0659814 0.834916
0.115806 -0.0649549 0.833936
0.114519 -0.0639124 0.832699
0.113247 -0.0628834 0.831608
0.111963 -0.0618458 0.830338
0.1107 -0.0608228 0.829253
0.109457 -0.0598165 0.828376
0.108249 -0.0588353 0.827859
0.107067 -0.0578736 0.827628
0.105909 -0.0569295 0.82767
0.10476 -0.0559927 0.827819
0.103618 -0.0550607 0.828053
0.102482 -0.054134 0.828365
0.101347 -0.0532063 0.828681
0.100211 -0.0522801 0.829008
0.0990772 -0.0513537 0.829348
0.0979421 -0.0504263 0.829675
0.0968113 -0.0495026 0.830072
0.0956742 -0.0485743 0.830386
0.0945368 -0.0476461 0.830701
0.093423 -0.0467337 0.831353
0.0923154 -0.0458268 0.832121
0.0912142 -0.0449242 0.833004
0.0901296 -0.0440336 0.834169
0.0890476 -0.0431444 0.835412
0.0879428 -0.042238 0.836326
0.0868278 -0.0413253 0.837113
0.0857254 -0.040421 0.838131
0.0846079 -0.0395049 0.838918
0.0834856 -0.0385859 0.839654
0.0823654 -0.0376685 0.840452
0.0812756 -0.0367721 0.841829
0.0801876 -0.0358761 0.843289
0.0791085 -0.034987 0.844992
0.078026 -0.0340941 0.846691
0.0769355 -0.0331948 0.848301
0.0758349 -0.0322894 0.84979
0.0747251 -0.0313767 0.851149
0.0736529 -0.0304892 0.853384
0.0726041 -0.0296164 0.856257
0.0715668 -0.0287503 0.859552
0.0705183 -0.0278762 0.862774
0.124877 -0.0742402 0.839775
0.123643 -0.0732357 0.839305
0.122407 -0.0722302 0.838803
0.121149 -0.0712074 0.838052
0.119858 -0.070161 0.836952
0.118556 -0.0691039 0.835687
0.117282 -0.0680702 0.834684
0.116014 -0.0670399 0.833706
0.114751 -0.066014 0.832747
0.113466 -0.064972 0.831522
0.112205 -0.0639485 0.830519
0.110924 -0.0629092 0.829248
