ply
format ascii 1.0
element vertex 1589
property float x
property float y
property float z
end_header
-0.0619315 0.00127329 0.947422
-0.0618355 0.00282583 0.945311
-0.0617335 0.00437126 0.943139
-0.0616579 0.00591009 0.94128
-0.061581 0.00744256 0.939422
-0.0615155 0.00896981 0.937711
-0.0614475 0.0104909 0.935967
-0.0613764 0.0120058 0.9342
-0.0612881 0.0135121 0.932205
-0.0611825 0.0150092 0.930011
-0.0610288 0.01649 0.927225
-0.0608873 0.0179642 0.924599
-0.0607652 0.0194339 0.922222
-0.0606417 0.020895 0.919817
-0.0605287 0.0223509 0.91755
-0.0604444 0.0238076 0.915649
-0.0603663 0.0252595 0.913819
-0.0603096 0.0267126 0.912267
-0.0602843 0.0281709 0.911093
-0.0602635 0.0296269 0.909979
-0.0602701 0.0310894 0.909197
-0.0602959 0.0325572 0.908656
-0.0603302 0.0340269 0.908226
-0.0603552 0.0354905 0.907671
-0.0603853 0.036955 0.90719
-0.0604127 0.038416 0.906668
-0.0604532 0.0398819 0.906305
-0.0604828 0.0413414 0.905827
-0.0605232 0.0428042 0.90546
-0.0605592 0.0442635 0.90505
-0.060584 0.0457153 0.904512
-0.0605947 0.0471562 0.903792
-0.0606209 0.0486051 0.903275
-0.0606514 0.0500539 0.902794
-0.0607008 0.0515145 0.90256
-0.0607564 0.0529776 0.902389
-0.0608192 0.0544456 0.902311
-0.0608916 0.0559195 0.90234
-0.0609722 0.0574 0.902477
-0.0610605 0.058886 0.902698
-0.0611466 0.0603719 0.902906
-0.0612471 0.0618691 0.903278
-0.0613717 0.0633871 0.903938
-0.0615158 0.0649227 0.904823
-0.0616758 0.066475 0.905903
-0.0618479 0.0680412 0.907125
-0.0620326 0.0696228 0.908503
-0.0622205 0.0712103 0.9099
-0.0624035 0.0727984 0.911246
-0.062556 0.0743621 0.912229
-0.0627021 0.0759225 0.913133
-0.063811 -0.0346226 0.991932
-0.064639 -0.035978 0.983098
-0.0647368 -0.0343734 0.983367
-0.0633211 -0.032726 0.984713
-0.0648278 -0.0327648 0.983547
-0.0649397 -0.0311653 0.983996
-0.0650551 -0.0295654 0.984474
-0.0651712 -0.0279647 0.984971
-0.0652766 -0.0263586 0.985343
-0.06538 -0.0247504 0.98568
-0.0654351 -0.0231248 0.985414
-0.0654725 -0.0214946 0.984926
-0.0655062 -0.0198653 0.9844
-0.0655155 -0.0182312 0.983573
-0.0655016 -0.0165941 0.98246
-0.0655019 -0.0149643 0.981529
-0.0654773 -0.0133325 0.980294
-0.0654223 -0.0116992 0.978676
-0.0653788 -0.0100733 0.977209
-0.0653271 -0.00845126 0.975644
-0.0650211 -0.00680201 0.970957
-0.0646432 -0.00516089 0.965413
-0.0642378 -0.00353603 0.959526
-0.0638276 -0.0019307 0.953597
-0.0634482 -0.000346677 0.948056
-0.0633243 0.001212 0.945645
-0.0632431 0.0027624 0.94376
-0.0631594 0.0043063 0.941854
-0.0630958 0.00584437 0.940191
-0.0630336 0.00737681 0.938546
-0.0629814 0.00890454 0.937038
-0.0629324 0.0104274 0.935559
-0.0628674 0.0119432 0.933887
-0.0627665 0.0134489 0.9318
-0.0626417 0.0149435 0.929412
-0.0624662 0.0164213 0.926425
-0.0622973 0.0178902 0.923512
-0.0621639 0.0193573 0.921045
-0.0620377 0.0208176 0.918657
-0.0619288 0.0222746 0.916493
-0.0618565 0.0237341 0.914766
-0.0617832 0.0251879 0.91304
-0.0617335 0.0266432 0.911593
-0.0617149 0.0281039 0.910523
-0.0617 0.0295625 0.909506
-0.0617058 0.0310253 0.908736
-0.0617376 0.0324957 0.908277
-0.0617649 0.0339627 0.907766
-0.0617806 0.0354228 0.907116
-0.0618017 0.0368831 0.906535
-0.0618186 0.0383396 0.905907
-0.0618508 0.0398011 0.905455
-0.0618803 0.0412595 0.904968
-0.0619115 0.0427176 0.904513
-0.061947 0.0441761 0.904104
-0.06197 0.0456267 0.90356
-0.0619804 0.0470675 0.902854
-0.0620057 0.0485152 0.902334
-0.0620355 0.0499631 0.901855
-0.0620853 0.0514229 0.901623
-0.0621419 0.0528863 0.901471
-0.0622054 0.0543541 0.901408
-0.0622711 0.0558229 0.901364
-0.0623515 0.0573016 0.901489
-0.0624311 0.0587805 0.901611
-0.0625104 0.0602592 0.901728
-0.0625969 0.061744 0.90193
-0.0627065 0.0632475 0.902402
-0.0628337 0.0647664 0.903076
-0.0629846 0.0663077 0.904033
-0.0631576 0.0678704 0.905243
-0.0633456 0.0694508 0.906638
-0.0635368 0.071037 0.908051
-0.0637201 0.0726213 0.90938
-0.0638731 0.0741817 0.910354
-0.0640078 0.075727 0.911103
-0.0660101 -0.0375983 0.981232
-0.066113 -0.035999 0.981561
-0.0662116 -0.0343964 0.981829
-0.0663071 -0.0327918 0.982066
-0.066411 -0.0311905 0.982413
-0.0665257 -0.0295923 0.982881
-0.0666424 -0.0279935 0.983377
-0.0667487 -0.0263893 0.983749
-0.0668527 -0.0247831 0.984084
-0.0669222 -0.0231647 0.984008
-0.0669669 -0.0215387 0.983623
-0.0670095 -0.0199136 0.983215
-0.0670277 -0.0182835 0.982513
-0.0670287 -0.0166517 0.981607
-0.0670279 -0.0150227 0.980679
-0.0670106 -0.0133934 0.979559
-0.0669454 -0.011759 0.97785
-0.0668983 -0.0101338 0.976378
-0.0667685 -0.00850124 0.973905
-0.0664032 -0.00684725 0.968599
-0.0659805 -0.00520523 0.96262
-0.0655631 -0.00358373 0.956712
-0.0651497 -0.00198243 0.950866
-0.064834 -0.000405273 0.946194
-0.0647468 0.0011501 0.944277
-0.0646764 0.0026988 0.942562
-0.0646047 0.00424164 0.940832
-0.0645396 0.00577893 0.939192
-0.064484 0.00731098 0.937662
-0.0644466 0.00883926 0.936356
-0.0644106 0.0103632 0.935064
-0.0643354 0.0118782 0.933309
-0.0642304 0.0133835 0.931211
-0.0640854 0.0148755 0.928633
-0.0638887 0.01635 0.925448
-0.0637064 0.0178167 0.922441
-0.0635702 0.019283 0.919986
-0.0634402 0.0207425 0.917612
-0.0633445 0.0222026 0.915639
-0.0632835 0.0236655 0.914088
-0.0632235 0.0251232 0.912542
-0.0631789 0.0265808 0.911189
-0.0631665 0.0280444 0.91022
-0.0631513 0.0295035 0.90921
-0.0631554 0.0309664 0.908438
-0.0631792 0.0324343 0.907898
-0.0632051 0.033901 0.90738
-0.0632127 0.0353578 0.906642
-0.0632303 0.0368175 0.90604
-0.0632384 0.0382699 0.905316
-0.0632535 0.0397234 0.904674
-0.0632728 0.0411769 0.904091
-0.0632951 0.0426299 0.903539
-0.0633236 0.0440838 0.90305
-0.0633477 0.045534 0.902521
-0.0633642 0.0469781 0.901905
-0.0633831 0.0484219 0.901326
-0.0634118 0.049869 0.900851
-0.0634607 0.0513279 0.900619
-0.0635179 0.0527908 0.900478
-0.063577 0.0542542 0.900355
-0.0636433 0.0557223 0.900322
-0.0637228 0.0571998 0.900444
-0.0637953 0.0586721 0.900481
-0.0638677 0.0601445 0.900517
-0.0639542 0.0616273 0.900712
-0.0640562 0.0631227 0.901085
-0.0641672 0.0646268 0.901566
-0.0643018 0.0661512 0.902315
-0.0644668 0.0677042 0.903422
-0.0646503 0.0692754 0.904726
-0.064844 0.0708599 0.906149
-0.0650369 0.0724486 0.907569
-0.0652131 0.0740258 0.908785
-0.065365 0.0755841 0.90972
-0.065904 -0.0391949 0.980864
-0.0672588 -0.0408011 0.978859
-0.0673537 -0.0392014 0.979086
-0.0674635 -0.0376088 0.979493
-0.0675653 -0.0360111 0.979806
-0.0676756 -0.0344164 0.980222
-0.0677728 -0.0328146 0.980478
-0.0678775 -0.0312151 0.980821
-0.067992 -0.0296186 0.981281
-0.0681083 -0.0280214 0.981763
-0.0682164 -0.0264199 0.982154
-0.0683213 -0.0248158 0.982493
-0.0683991 -0.0232021 0.982519
-0.0684517 -0.0215806 0.98224
-0.0685127 -0.0199625 0.982057
-0.0685403 -0.0183365 0.981481
-0.0685572 -0.0167099 0.980786
-0.0685701 -0.015085 0.980045
-0.068567 -0.0134594 0.979113
-0.0685146 -0.0118278 0.977587
-0.068491 -0.0102063 0.976417
-0.0682677 -0.00855991 0.972894
-0.0678449 -0.00690051 0.967015
-0.067373 -0.00525584 0.960569
-0.0669212 -0.0036346 0.954381
-0.0664797 -0.0020349 0.948318
-0.066233 -0.000464569 0.944554
-0.0661611 0.00108836 0.94285
-0.0660933 0.00263551 0.941201
-0.0660174 0.00417685 0.939467
-0.0659588 0.00571274 0.937921
-0.0659102 0.00724413 0.936517
-0.0658878 0.00877242 0.935406
-0.0658653 0.0102969 0.934298
-0.0657882 0.0118115 0.932556
-0.0656804 0.0133164 0.930463
-0.0655228 0.0148068 0.92779
-0.0653192 0.0162804 0.924587
-0.0651305 0.0177463 0.921571
-0.065 0.0192139 0.919225
-0.0648761 0.0206752 0.916964
-0.0647931 0.0221388 0.91518
-0.064744 0.0236056 0.9138
-0.0646964 0.0250682 0.912434
-0.0646592 0.0265289 0.911187
-0.0646449 0.0279933 0.910219
-0.0646334 0.0294548 0.909269
-0.0646353 0.030918 0.908481
-0.0646434 0.0323812 0.907775
-0.0646618 0.0338456 0.907175
-0.0646586 0.0352995 0.906346
-0.0646671 0.0367554 0.905642
-0.0646605 0.0382015 0.904758
-0.0646587 0.0396477 0.903946
-0.0646697 0.0410965 0.903266
-0.0646821 0.0425444 0.902614
-0.0647009 0.0439932 0.902034
-0.0647246 0.0454425 0.901507
-0.0647416 0.0468867 0.900913
-0.0647533 0.0483259 0.900264
-0.0647877 0.0497757 0.899861
-0.0648356 0.051233 0.899622
-0.0648914 0.0526945 0.899472
-0.0649581 0.0541619 0.899436
-0.0650316 0.0556341 0.899485
-0.0651117 0.0571109 0.899609
-0.0651841 0.0585825 0.899646
-0.0652565 0.060054 0.899682
-0.0653363 0.0615313 0.899805
-0.0654238 0.0630148 0.900015
-0.0655272 0.0645111 0.900402
-0.0656465 0.0660214 0.900968
-0.0657983 0.0675591 0.90189
-0.0659748 0.0691219 0.903106
-0.0661772 0.0707096 0.904601
-0.066374 0.072297 0.906028
-0.0665602 0.0738801 0.907344
-0.0667289 0.0754505 0.908451
-0.0687575 -0.0408346 0.977728
-0.0688319 -0.0392252 0.977707
-0.0689228 -0.0376246 0.977887
-0.0690126 -0.0360231 0.97806
-0.0691199 -0.034429 0.978429
-0.0692188 -0.03283 0.978699
-0.0693314 -0.0312361 0.979133
-0.0694543 -0.0296448 0.97968
-0.0695707 -0.0280496 0.980163
-0.0696818 -0.0264506 0.98057
-0.0697956 -0.0248517 0.981022
-0.0698756 -0.0232402 0.981061
-0.0699441 -0.0216256 0.980981
-0.0700228 -0.020014 0.981011
-0.0700686 -0.0183939 0.980659
-0.0701105 -0.0167744 0.980273
-0.0701488 -0.0151553 0.97983
-0.0701612 -0.0135328 0.979103
-0.0701323 -0.0119052 0.977891
-0.0701208 -0.0102847 0.976881
-0.0697756 -0.00861999 0.972003
-0.0692645 -0.00695135 0.96522
-0.0687146 -0.00530148 0.957994
-0.0682044 -0.00367932 0.951254
-0.0678171 -0.00208799 0.945933
-0.0676441 -0.000524447 0.943099
-0.0675846 0.00102648 0.941575
-0.0675064 0.00257228 0.93984
-0.0674356 0.00411222 0.938192
-0.0673746 0.00564685 0.936658
-0.0673335 0.00717719 0.935353
-0.067309 0.00870439 0.934249
-0.0672935 0.0102284 0.933244
-0.0672147 0.0117422 0.931519
-0.0671053 0.0132464 0.929443
-0.0669428 0.0147358 0.926771
-0.0667485 0.0162112 0.923741
-0.0665647 0.0176781 0.920826
-0.066439 0.0191473 0.918588
-0.0663355 0.0206135 0.916604
-0.0662655 0.0220811 0.914999
-0.0662237 0.0235507 0.913725
-0.0661901 0.0250185 0.91255
-0.066159 0.0264827 0.911396
-0.0661443 0.0279479 0.91043
-0.0661277 0.0294099 0.909457
-0.0661262 0.0308734 0.908648
-0.066126 0.0323345 0.907848
-0.0661355 0.0337967 0.907163
-0.0661231 0.0352481 0.906244
-0.0661237 0.0367014 0.90546
-0.0660996 0.0381411 0.9044
-0.0660829 0.0395808 0.90343
-0.0660825 0.0410252 0.902648
-0.0660859 0.0424682 0.9019
-0.0660949 0.0439124 0.901229
-0.0661245 0.0453648 0.900779
-0.0661406 0.0468086 0.900189
-0.0661519 0.0482469 0.899535
-0.0661835 0.0496956 0.899122
-0.0662298 0.051151 0.898857
-0.0662776 0.0526073 0.898626
-0.0663423 0.0540733 0.898579
-0.0664161 0.0555444 0.898625
-0.0664955 0.0570203 0.898747
-0.0665679 0.0584911 0.898784
-0.0666403 0.0599619 0.89882
-0.0667206 0.0614384 0.898945
-0.0668017 0.0629161 0.899081
-0.0668991 0.0644065 0.899394
-0.0670119 0.0659095 0.899875
-0.067148 0.0674333 0.900621
-0.0673175 0.0689863 0.901725
-0.0675142 0.0705656 0.903133
-0.0677052 0.0721448 0.90448
-0.067888 0.0737204 0.905726
-0.0680584 0.0752894 0.906839
-0.0702172 -0.0424963 0.977035
-0.0702715 -0.0408768 0.976787
-0.0703324 -0.039262 0.976623
-0.0704067 -0.0376542 0.976609
-0.0704793 -0.0360456 0.976569
-0.0705868 -0.0344536 0.976948
-0.0706864 -0.0328564 0.977217
-0.0708002 -0.0312644 0.977655
-0.0709227 -0.0296749 0.978201
-0.0710415 -0.0280817 0.97869
-0.0711522 -0.0264845 0.979096
-0.0712685 -0.0248878 0.979558
-0.0713558 -0.0232806 0.979692
-0.0714422 -0.0216729 0.979819
-0.0715472 -0.0200699 0.980151
-0.0716215 -0.018458 0.980137
-0.0716918 -0.0168455 0.980076
-0.071749 -0.0152304 0.979863
-0.0717881 -0.0136125 0.979446
-0.0717876 -0.0119892 0.978587
-0.0716853 -0.0103524 0.97656
-0.0712185 -0.00867114 0.970396
-0.0706383 -0.00699693 0.96296
-0.0700162 -0.00534348 0.955058
-0.0694512 -0.00372138 0.947818
-0.0691488 -0.00214082 0.943565
-0.0690583 -0.00058443 0.941714
-0.0690039 0.000964687 0.940277
-0.0689231 0.00250916 0.938552
-0.0688503 0.00404768 0.936909
-0.0687874 0.00558099 0.935383
-0.0687352 0.00710959 0.933989
-0.0687016 0.00863477 0.932804
-0.068684 0.0101571 0.931794
-0.0686095 0.0116699 0.930149
-0.0685069 0.0131738 0.92819
-0.0683502 0.0146635 0.925634
-0.0681762 0.0161419 0.922885
-0.0680117 0.0176125 0.920248
-0.0678931 0.0190834 0.918123
-0.0678033 0.0205535 0.916332
-0.0677533 0.0220268 0.914987
-0.0677267 0.0235015 0.913903
-0.0677006 0.0249726 0.91283
-0.0676773 0.0264407 0.911784
-0.0676604 0.0279073 0.910814
-0.0676336 0.0293679 0.909748
-0.0676223 0.0308295 0.908839
-0.0676051 0.0322862 0.907876
-0.0675989 0.0337434 0.907023
-0.0675753 0.0351912 0.90599
-0.0675645 0.0366411 0.905109
-0.0675304 0.0380773 0.90396
-0.0675127 0.039517 0.902991
-0.0675103 0.0409611 0.902201
-0.0675037 0.0424002 0.901365
-0.0675111 0.0438434 0.900679
-0.0675397 0.0452954 0.90023
-0.0675482 0.046735 0.899561
-0.0675567 0.0481726 0.898896
-0.0675855 0.0496198 0.89846
-0.0676233 0.0510702 0.898113
-0.0676643 0.0525212 0.897802
-0.067729 0.0539865 0.897755
-0.0678019 0.0554568 0.897798
-0.0678808 0.0569316 0.897914
-0.0679531 0.0584016 0.897951
-0.0680254 0.0598716 0.897987
-0.0681059 0.0613473 0.898109
-0.0681867 0.0628239 0.89824
-0.0682768 0.064307 0.898464
-0.0683812 0.0658032 0.898858
-0.0685115 0.0673195 0.899516
-0.0686663 0.0688581 0.900445
-0.0688545 0.0704278 0.901744
-0.0690398 0.0719978 0.902996
-0.0692152 0.0735641 0.904148
-0.0693782 0.0751234 0.905168
-0.071764 -0.0425565 0.976493
-0.0718094 -0.0409328 0.976151
-0.0718635 -0.0393151 0.975913
-0.0719169 -0.0376977 0.975661
-0.0719706 -0.0360815 0.975415
-0.072069 -0.0344861 0.975676
-0.072159 -0.0328865 0.975841
-0.0722668 -0.0312934 0.976201
-0.0723901 -0.0297055 0.976743
-0.0725182 -0.0281175 0.977334
-0.0726365 -0.0265245 0.977825
-0.0727535 -0.0249293 0.97829
-0.0728408 -0.0233234 0.978417
-0.0729444 -0.0217221 0.978736
-0.073062 -0.0201235 0.979203
-0.0731664 -0.0185202 0.979525
-0.0732754 -0.0169171 0.979903
-0.0733796 -0.0153117 0.98022
-0.0734562 -0.0137001 0.980234
-0.0735114 -0.0120846 0.979997
-0.0733076 -0.0104291 0.976882
-0.0727138 -0.00873002 0.969422
-0.0713668 -0.00539091 0.952749
-0.0707291 -0.00376645 0.944839
-0.0705062 -0.00219554 0.941551
-0.0704754 -0.000644593 0.940407
-0.0704116 0.00090333 0.938888
-0.0703295 0.0024462 0.937185
-0.0702467 0.00398323 0.935461
-0.0701727 0.00551451 0.933842
-0.0701173 0.00704135 0.932436
-0.0700723 0.00856391 0.931146
-0.0700519 0.0100841 0.930125
-0.0699899 0.0115967 0.928654
-0.069901 0.0131008 0.926884
-0.0697595 0.0145918 0.92454
-0.0696076 0.0160734 0.92209
-0.0694656 0.0175483 0.919746
-0.0693531 0.0190211 0.917735
-0.0692776 0.0204947 0.916127
-0.0692411 0.0219722 0.914959
-0.069222 0.0234499 0.913978
-0.0692035 0.0249242 0.913004
-0.0691866 0.0263957 0.912049
-0.0691604 0.0278611 0.910996
-0.0691247 0.0293201 0.909841
-0.0691113 0.0307825 0.908932
-0.0690766 0.0322345 0.907798
-0.0690661 0.0336917 0.906928
-0.0690407 0.0351396 0.905885
-0.0690194 0.0365858 0.904893
-0.0689745 0.0380189 0.903652
-0.0689536 0.0394584 0.902675
-0.0689356 0.0408958 0.901729
-0.0689275 0.0423346 0.900886
-0.0689331 0.0437779 0.900202
-0.0689611 0.04523 0.899758
-0.068962 0.0466657 0.899014
-0.068969 0.0481028 0.898347
-0.0689969 0.0495492 0.8979
-0.0690257 0.0509952 0.897477
-0.0690597 0.0524417 0.897092
-0.0691245 0.0539067 0.89705
-0.0691968 0.055376 0.897087
-0.0692616 0.0568406 0.897045
-0.0693258 0.0583045 0.896996
-0.0693904 0.059768 0.896946
-0.0694696 0.0612418 0.897055
-0.0695496 0.062717 0.897183
-0.0696466 0.0642042 0.89748
-0.0697514 0.0656988 0.897868
-0.0698732 0.0672067 0.898425
-0.0700128 0.0687311 0.89918
-0.0701864 0.0702849 0.900292
-0.0703623 0.0718449 0.901435
-0.0705284 0.0734 0.902472
-0.0706916 0.0749549 0.903465
-0.0695092 0.0766561 0.905827
-0.0708208 0.0764841 0.904106
-0.0733461 -0.0426356 0.976347
-0.0733648 -0.0409981 0.975717
-0.0733994 -0.0393705 0.975254
-0.0734379 -0.0377468 0.974846
-0.073481 -0.0361269 0.974496
-0.073579 -0.0345318 0.974739
-0.0736673 -0.0329325 0.97489
-0.0737739 -0.0313398 0.975234
-0.0738985 -0.0297531 0.975785
-0.074028 -0.0281661 0.976378
-0.0741393 -0.0265713 0.976778
-0.0742384 -0.0249713 0.977041
-0.0743065 -0.023361 0.97696
-0.0743927 -0.0217563 0.977079
-0.0745289 -0.0201646 0.977744
-0.0746731 -0.018573 0.978506
-0.0748352 -0.0169829 0.97945
-0.0749962 -0.0153896 0.980394
-0.075146 -0.013791 0.981204
-0.075234 -0.0121791 0.98134
-0.0750214 -0.0105199 0.978183
-0.0743106 -0.0088029 0.969567
-0.0735095 -0.00710417 0.959982
-0.0726822 -0.00543505 0.950129
-0.0720614 -0.00381632 0.942556
-0.0719106 -0.00225331 0.940109
-0.0718768 -0.000703954 0.938951
-0.0718098 0.000842234 0.937431
-0.0717253 0.00238344 0.935735
-0.0716317 0.0039188 0.933931
-0.0715613 0.00544846 0.932381
-0.0714939 0.0069731 0.930871
-0.0714387 0.00849339 0.929491
-0.0714078 0.0100108 0.928376
-0.071359 0.0115227 0.927076
-0.0712768 0.0130263 0.925419
-0.0711594 0.0145195 0.923382
-0.0710314 0.0160041 0.921231
-0.0709118 0.0174829 0.919172
-0.0708058 0.0189572 0.91726
-0.0707425 0.0204342 0.915825
-0.0707142 0.0219138 0.914753
-0.0707093 0.0233959 0.913952
-0.0706986 0.0248734 0.913082
-0.0706866 0.0263476 0.9122
-0.0706503 0.0278116 0.911057
-0.0706109 0.0292706 0.909881
-0.0705886 0.0307312 0.908887
-0.0705451 0.0321812 0.907672
-0.0705254 0.0336359 0.906717
-0.0704958 0.0350834 0.905654
-0.070463 0.0365265 0.904568
-0.0704096 0.0379567 0.903252
-0.0703864 0.039396 0.90227
-0.0703601 0.0408304 0.901249
-0.0703494 0.0422688 0.900401
-0.070354 0.0437116 0.899713
-0.070375 0.0451605 0.899204
-0.0703667 0.0465924 0.898386
-0.0703812 0.0480331 0.897799
-0.0704072 0.0494793 0.897352
-0.0704301 0.0509212 0.89686
-0.0704619 0.0523675 0.896475
-0.0705266 0.0538315 0.896424
-0.070591 0.0552954 0.896377
-0.0706479 0.0567543 0.896251
-0.0707107 0.058217 0.896193
-0.0707742 0.059679 0.896131
-0.0708451 0.0611466 0.896158
-0.0709187 0.0626154 0.896204
-0.0710148 0.0641013 0.896498
-0.0711207 0.0655946 0.896882
-0.0712349 0.0670957 0.89736
-0.071366 0.0686116 0.898014
-0.07153 0.0701557 0.899016
-0.0716904 0.0716992 0.899966
-0.0718348 0.0732329 0.900757
-0.0719973 0.0747842 0.901733
-0.0721346 0.0763171 0.902447
-0.0749346 -0.0427175 0.976262
-0.0749376 -0.041072 0.975468
-0.074956 -0.0394369 0.974844
-0.0749858 -0.0378091 0.974344
-0.0750192 -0.0361853 0.973893
-0.0751067 -0.0345861 0.974025
-0.0751864 -0.0329835 0.974072
-0.0752826 -0.0313875 0.974309
-0.0754081 -0.0298016 0.974856
-0.0755373 -0.0282152 0.975439
-0.0756425 -0.0266189 0.975758
-0.0757221 -0.0250137 0.975812
-0.0757787 -0.0234012 0.975601
-0.0758421 -0.0217918 0.975478
-0.0759958 -0.0202066 0.976324
-0.0761818 -0.0186266 0.977523
-0.0763852 -0.0170466 0.978901
-0.0766143 -0.0154676 0.980566
-0.0768384 -0.013882 0.982167
-0.0769646 -0.0122743 0.982705
-0.0767373 -0.0106105 0.979444
-0.0750033 -0.00716497 0.959183
-0.0740512 -0.0054851 0.94817
-0.073344 -0.00386236 0.939799
-0.073311 -0.00231091 0.938664
-0.0732733 -0.000763205 0.937491
-0.0732125 0.000781126 0.936065
-0.0731263 0.00232078 0.934375
-0.0730373 0.0038546 0.932656
-0.0729556 0.00538287 0.931016
-0.0728761 0.00690549 0.929405
-0.0728103 0.00842357 0.927938
-0.0727703 0.00993862 0.92675
-0.0727291 0.0114495 0.925558
-0.0726629 0.0129534 0.924095
-0.0725695 0.0144487 0.922345
-0.0724648 0.0159364 0.920479
-0.0723677 0.0174191 0.918702
-0.0722669 0.0188951 0.916884
-0.0722096 0.0203737 0.91553
-0.0721864 0.0218552 0.914541
-0.0721823 0.0233379 0.913754
-0.0721715 0.0248163 0.912899
-0.0721576 0.0262909 0.912018
-0.0721252 0.0277568 0.910933
-0.0720748 0.0292135 0.90966
-0.0720406 0.0306715 0.90857
-0.0719957 0.0321218 0.907358
-0.0719738 0.0335767 0.906402
-0.0719357 0.0350218 0.905268
-0.0719028 0.0364652 0.904193
-0.0718462 0.0378954 0.902873
-0.0718218 0.039335 0.901894
-0.071786 0.0407656 0.900787
-0.071773 0.0422035 0.89993
-0.0717751 0.0436461 0.899237
-0.0717883 0.045091 0.898647
-0.0717794 0.0465226 0.897831
-0.0717996 0.0479672 0.897324
-0.0718259 0.0494135 0.896882
-0.0718402 0.0508512 0.896314
-0.0718709 0.0522968 0.895921
-0.0719251 0.0537548 0.895773
-0.0719798 0.0552128 0.895631
-0.0720209 0.056661 0.89534
-0.0720827 0.0581221 0.895271
-0.0721442 0.0595822 0.895194
-0.072215 0.0610489 0.895221
-0.0722899 0.0625173 0.895276
-0.0723885 0.0640035 0.895586
-0.0724863 0.0654905 0.895894
-0.0726008 0.0669901 0.896366
-0.0727242 0.0684981 0.896928
-0.0728658 0.0700218 0.897676
-0.0730097 0.0715496 0.898447
-0.0731447 0.073073 0.89913
-0.0732878 0.0746043 0.899886
-0.0734124 0.0761238 0.900467
-0.0765236 -0.0444489 0.976977
-0.0765299 -0.0428025 0.976234
-0.0765196 -0.0411505 0.975318
-0.0765309 -0.039512 0.974631
-0.0765685 -0.0378881 0.974228
-0.0766026 -0.0362639 0.97378
-0.0766728 -0.0346568 0.973727
-0.0767501 -0.0330533 0.973757
-0.0768292 -0.0314499 0.97379
-0.0769368 -0.0298575 0.974141
-0.0770573 -0.0282684 0.974625
-0.0771519 -0.0266693 0.974836
-0.0771864 -0.0250507 0.974402
-0.0772009 -0.0234277 0.973757
-0.0771632 -0.0217925 0.972554
-0.0772163 -0.0201851 0.972319
-0.077313 -0.0185893 0.972549
-0.0775301 -0.0170198 0.974064
-0.0778567 -0.0154678 0.976725
-0.0782512 -0.0139198 0.98011
-0.0785363 -0.0123417 0.982322
-0.0784406 -0.0106984 0.980512
-0.0755235 -0.00554566 0.947348
-0.0747522 -0.00391894 0.93845
-0.0747209 -0.00236922 0.937361
-0.0746831 -0.000822994 0.936204
-0.0746286 0.000719643 0.934869
-0.0745409 0.00225802 0.933197
-0.074442 0.00379074 0.931405
-0.0743489 0.00531732 0.929675
-0.0742668 0.0068385 0.928059
-0.07419 0.00835463 0.926514
-0.0741488 0.00986805 0.92533
-0.0741233 0.0113791 0.924327
-0.0740722 0.0128835 0.923047
-0.0739957 0.0143804 0.921503
-0.0739137 0.0158714 0.919916
-0.0738325 0.017357 0.918332
-0.0737378 0.0188346 0.916604
-0.0736772 0.0203134 0.915245
-0.0736596 0.0217966 0.914328
-0.0736465 0.023278 0.913468
-0.0736352 0.0247568 0.912623
-0.0736214 0.0262318 0.911749
-0.0735854 0.0276976 0.910648
-0.0735236 0.029152 0.909288
-0.073487 0.0306099 0.908189
-0.0734326 0.0320576 0.906898
-0.0734097 0.0335123 0.905942
-0.0733687 0.0349574 0.904809
-0.0733353 0.0364014 0.903748
-0.0732783 0.0378319 0.902438
-0.0732534 0.0392717 0.901469
-0.0732049 0.0406981 0.900259
-0.0731893 0.0421352 0.899389
-0.0731893 0.0435771 0.898687
-0.0731941 0.0450181 0.898019
-0.0731904 0.046453 0.897277
-0.0732157 0.0479006 0.896836
-0.0732433 0.0493474 0.896408
-0.073249 0.050781 0.895764
-0.0732781 0.0522257 0.895361
-0.0733208 0.0536771 0.8951
-0.0733588 0.055124 0.894782
-0.0733814 0.0565609 0.894316
-0.0734353 0.0580155 0.894164
-0.0734886 0.0594698 0.894012
-0.0735606 0.0609354 0.894045
-0.0736351 0.0624029 0.894106
-0.073734 0.0638876 0.894414
-0.073832 0.0653731 0.894719
-0.0739482 0.0668716 0.895193
-0.0740571 0.0683666 0.8956
-0.0741894 0.0698816 0.896255
-0.0743239 0.0713993 0.896918
-0.0744513 0.0729133 0.897506
-0.074586 0.0744354 0.898173
-0.074721 0.0759599 0.898844
-0.0764897 -0.0460829 0.977423
-0.0780735 -0.0461611 0.977241
-0.0781008 -0.0445242 0.976741
-0.0781146 -0.0428813 0.976083
-0.078101 -0.0412279 0.975146
-0.0781181 -0.0395923 0.974533
-0.0781558 -0.0379683 0.974142
-0.0781896 -0.0363438 0.9737
-0.07825 -0.0347322 0.973546
-0.0783259 -0.0331277 0.973559
-0.0783847 -0.0315165 0.973388
-0.0784651 -0.0299137 0.973437
-0.0785658 -0.0283181 0.973707
-0.0786135 -0.0267043 0.973419
-0.0785879 -0.025069 0.972368
-0.0785155 -0.0234238 0.970827
-0.0783741 -0.021765 0.968566
-0.078314 -0.0201348 0.967157
-0.078332 -0.0185282 0.966571
-0.078518 -0.0169608 0.967736
-0.0790108 -0.0154518 0.972086
-0.0801076 -0.0124091 0.981944
-0.0803597 -0.0108184 0.983773
-0.0795593 -0.0090817 0.97468
-0.0770606 -0.00561255 0.947215
-0.0761244 -0.00397273 0.936764
-0.0761099 -0.00242637 0.935868
-0.0760734 -0.000882024 0.934743
-0.076027 0.000658685 0.933523
-0.075938 0.00219564 0.931854
-0.0758378 0.00372675 0.930081
-0.0757407 0.00525209 0.928352
-0.0756643 0.0067721 0.92682
-0.0755927 0.0082873 0.925355
-0.0755593 0.00980033 0.924274
-0.0755413 0.0113111 0.923367
-0.0755051 0.0128166 0.922266
-0.0754354 0.0143141 0.920822
-0.0753629 0.0158063 0.919349
-0.0752891 0.0172934 0.917872
-0.0752006 0.0187728 0.916246
-0.0751369 0.0202515 0.914875
-0.0751169 0.0217348 0.913953
-0.0751027 0.023216 0.913085
-0.0750894 0.0246948 0.91224
-0.0750737 0.0261698 0.911367
-0.0750292 0.0276338 0.910194
-0.0749652 0.0290882 0.908834
-0.074928 0.0305461 0.907745
-0.0748693 0.0319937 0.906445
-0.0748534 0.033451 0.905571
-0.0748186 0.0348991 0.904515
-0.0747923 0.0363465 0.903544
-0.0747407 0.0377808 0.902321
-0.0747145 0.0392211 0.901351
-0.0746549 0.0406443 0.900056
-0.0746367 0.0420812 0.899172
-0.0746274 0.0435193 0.89838
-0.0746146 0.0449527 0.897552
-0.0746091 0.0463875 0.896808
-0.0746341 0.0478348 0.896361
-0.0746601 0.0492816 0.895939
-0.0746574 0.050711 0.895221
-0.0746849 0.0521549 0.894808
-0.0747099 0.0535959 0.894371
-0.0747293 0.0550315 0.89387
-0.0747329 0.0564567 0.893227
-0.0747777 0.0579048 0.892986
-0.074823 0.0593522 0.892751
-0.0748949 0.0608172 0.892795
-0.0749698 0.0622834 0.892857
-0.0750686 0.063766 0.893157
-0.0751665 0.0652491 0.893451
-0.0752735 0.0667396 0.893836
-0.0753822 0.0682325 0.894235
-0.0755088 0.0697402 0.894814
-0.0756344 0.0712487 0.895382
-0.0757504 0.0727519 0.895858
-0.0758826 0.0742692 0.896492
-0.0760185 0.0757904 0.897151
-0.0796562 -0.0462386 0.977038
-0.0796909 -0.0446054 0.976626
-0.07971 -0.0429654 0.976036
-0.0797029 -0.0413154 0.975187
-0.0797275 -0.0396828 0.974662
-0.0797652 -0.0380578 0.974267
-0.0797982 -0.0364328 0.973837
-0.0798491 -0.0348162 0.97358
-0.0799134 -0.0332063 0.973473
-0.0799517 -0.0315868 0.973089
-0.0799914 -0.0299695 0.972726
-0.0800419 -0.0283574 0.97248
-0.0800352 -0.0267277 0.971639
-0.0799557 -0.0250786 0.970044
-0.0798002 -0.0234134 0.967681
-0.0795608 -0.0217335 0.964453
-0.0794058 -0.0200862 0.962099
-0.0793256 -0.0184644 0.960513
-0.0793566 -0.0168725 0.960073
-0.0814412 -0.0124369 0.979119
-0.0820545 -0.0109036 0.984616
-0.0774733 -0.00402472 0.934878
-0.077491 -0.00248289 0.934326
-0.0774791 -0.000941607 0.93348
-0.0774502 0.000597035 0.932448
-0.0773665 0.00213287 0.930874
-0.0772719 0.0036633 0.929189
-0.0771812 0.00518796 0.927543
-0.0771026 0.00670747 0.926023
-0.0770298 0.00822217 0.924569
-0.076994 0.00973455 0.923495
-0.0769665 0.0112439 0.922497
-0.076938 0.0127499 0.921492
-0.0768745 0.0142478 0.920135
-0.0768103 0.0157412 0.918776
-0.0767431 0.0172296 0.917394
-0.0766615 0.0187105 0.915861
-0.076596 0.0201893 0.914491
-0.076574 0.0216727 0.91357
-0.0765565 0.0231538 0.912693
-0.0765339 0.0246304 0.911762
-0.0765157 0.026105 0.910872
-0.0764694 0.027569 0.909707
-0.076396 0.0290214 0.908277
-0.0763493 0.030477 0.907116
-0.0762964 0.0319264 0.90589
-0.0762706 0.0333809 0.904935
-0.0762349 0.0348286 0.903884
-0.0762228 0.0362818 0.903075
-0.0761865 0.0377228 0.902027
-0.0761606 0.039164 0.901074
-0.0761067 0.0405909 0.899859
-0.0760856 0.0420272 0.898956
-0.0760664 0.043462 0.898085
-0.0760354 0.044888 0.897095
-0.0760289 0.0463225 0.896346
-0.0760525 0.0477695 0.895898
-0.0760711 0.0492123 0.8954
-0.0760589 0.0506372 0.894604
-0.0760843 0.0520803 0.894184
-0.0760915 0.0535113 0.893578
-0.0760915 0.0549359 0.892903
-0.0760852 0.0563541 0.892161
-0.0761182 0.0577945 0.891817
-0.076163 0.0592406 0.89158
-0.0762353 0.060704 0.891622
-0.0763099 0.0621691 0.891687
-0.0764083 0.0636502 0.891983
-0.0765046 0.0651303 0.892254
-0.076603 0.066613 0.892549
-0.0767036 0.0680987 0.892872
-0.0768297 0.0696033 0.893434
-0.0769473 0.0711036 0.893917
-0.0770552 0.0725979 0.894305
-0.0771791 0.074105 0.894839
-0.0773113 0.075622 0.895468
-0.0813101 -0.0430511 0.976023
-0.0813126 -0.0414052 0.975278
-0.0813493 -0.0397778 0.97489
-0.0813761 -0.0381475 0.974397
-0.0814089 -0.0365215 0.973967
-0.0814493 -0.0349001 0.97361
-0.0815023 -0.0332852 0.973393
-0.0815093 -0.0316539 0.972699
-0.0814971 -0.0300183 0.971813
-0.0814838 -0.0283858 0.970924
-0.0814195 -0.02674 0.969512
-0.0812835 -0.0250778 0.967385
-0.0810707 -0.023401 0.96448
-0.0807849 -0.0217148 0.960843
-0.0805484 -0.0200534 0.957708
-0.0803921 -0.0184213 0.95539
-0.0802999 -0.0168111 0.953725
-0.0827681 -0.0124647 0.97632
-0.0836462 -0.0109734 0.984387
-0.0815363 -0.0092033 0.978556
-0.0833142 -0.00929786 0.980293
-0.0788756 -0.0040812 0.933577
-0.0788994 -0.00254124 0.9331
-0.0789028 -0.00100211 0.932418
-0.0788805 0.000535312 0.931475
-0.0788037 0.00207008 0.929999
-0.0787139 0.00359985 0.928391
-0.0786316 0.00512424 0.926855
-0.0785606 0.0066437 0.925439
-0.0784865 0.00815829 0.923999
-0.0784578 0.00967108 0.923008
-0.0784189 0.0111795 0.921916
-0.0783884 0.0126851 0.920907
-0.078323 0.0141829 0.919554
-0.0782652 0.0156772 0.918282
-0.0781961 0.0171656 0.916905
-0.0781198 0.0186478 0.915451
-0.0780524 0.0201268 0.914094
-0.07803 0.0216103 0.913178
-0.078004 0.0230897 0.912222
-0.0779693 0.024564 0.911195
-0.0779473 0.0260381 0.91029
-0.077898 0.0275016 0.909118
-0.0778145 0.0289514 0.90761
-0.0777655 0.0304063 0.906441
-0.0777194 0.031858 0.905299
-0.077683 0.0333094 0.904265
-0.0776465 0.0347574 0.903226
-0.0776431 0.0362135 0.90251
-0.0776234 0.0376613 0.901642
-0.0775976 0.0391035 0.900712
-0.0775535 0.0405347 0.899601
-0.0775289 0.0419711 0.898692
-0.0775068 0.0434052 0.897802
-0.0774653 0.0448272 0.896721
-0.0774561 0.0462616 0.89597
-0.0774796 0.0477087 0.895522
-0.0774967 0.0491511 0.895019
-0.0774828 0.0505759 0.89422
-0.0775076 0.0520189 0.893798
-0.0775051 0.0534451 0.893109
-0.0774867 0.0548596 0.892263
-0.0774597 0.0562662 0.891338
-0.0774735 0.057695 0.890817
-0.0775005 0.0591292 0.890412
-0.0775722 0.0605913 0.890452
-0.0776481 0.0620553 0.890522
-0.0777386 0.0635294 0.890737
-0.0778354 0.0650084 0.891011
-0.077932 0.0664882 0.891288
-0.0780243 0.0679655 0.891517
-0.07815 0.0694684 0.892078
-0.0782774 0.0709738 0.892649
-0.0783876 0.0724673 0.893046
-0.0784951 0.0739605 0.893425
-0.0786104 0.0754612 0.893879
-0.0829298 -0.0431458 0.976196
-0.0829343 -0.0415005 0.975486
-0.0829761 -0.0398748 0.975157
-0.0830074 -0.0382454 0.974713
-0.0830278 -0.0366133 0.974168
-0.0830484 -0.0349833 0.973625
-0.0830924 -0.0333641 0.973309
-0.0830663 -0.0317206 0.972298
-0.0829993 -0.0300666 0.970887
-0.0829182 -0.0284129 0.969335
-0.082805 -0.0267545 0.967464
-0.0826241 -0.0250826 0.964925
-0.0823716 -0.0233994 0.961679
-0.0820658 -0.0217132 0.957903
-0.0817815 -0.0200453 0.954346
-0.0815578 -0.0184037 0.951405
-0.0814419 -0.0167949 0.949528
-0.0809333 -0.0153501 0.959357
-0.0819829 -0.015321 0.954165
-0.0828374 -0.0138876 0.961896
-0.0848243 -0.0109831 0.980063
-0.0844769 -0.00931272 0.975889
-0.0804595 -0.00415218 0.934106
-0.0804265 -0.00260711 0.933073
-0.0804064 -0.00106636 0.932173
-0.0803562 0.000472195 0.930974
-0.0802685 0.00200712 0.929412
-0.080177 0.00353653 0.927806
-0.080102 0.0050609 0.926377
-0.0800318 0.00658059 0.924995
-0.079957 0.00809507 0.923565
-0.0799333 0.00960838 0.922639
-0.0798814 0.011116 0.921443
-0.0798315 0.0126195 0.920258
-0.0797633 0.0141171 0.918903
-0.0797023 0.0156111 0.917627
-0.0796323 0.0170989 0.91625
-0.0795616 0.0185823 0.91488
-0.079501 0.0200628 0.913611
-0.0794701 0.0215446 0.912624
-0.0794414 0.023024 0.91167
-0.0793952 0.0244958 0.910544
-0.0793713 0.0259689 0.909629
-0.0793103 0.0274297 0.908365
-0.0792323 0.0288814 0.906941
-0.0791808 0.0303356 0.905766
-0.0791393 0.0317894 0.904696
-0.0790938 0.0332378 0.903581
-0.0790648 0.0346885 0.902638
-0.0790613 0.0361445 0.901928
-0.0790593 0.0375994 0.901248
-0.0790346 0.0390427 0.900347
-0.0789987 0.0404782 0.899332
-0.0789724 0.0419148 0.898421
-0.07894 0.0433449 0.897441
-0.078886 0.0447625 0.896267
-0.0788757 0.0461964 0.895508
-0.0788978 0.0476435 0.895062
-0.0789062 0.0490821 0.894483
-0.0788987 0.0505103 0.893755
-0.0789219 0.0519526 0.893323
-0.0789103 0.0533745 0.892561
-0.0788729 0.0547792 0.891554
-0.0788424 0.0561839 0.890604
-0.0788369 0.057601 0.889905
-0.0788442 0.0590231 0.889325
-0.0789078 0.0604787 0.889284
-0.0789839 0.0619416 0.88936
-0.0790662 0.0634095 0.889501
-0.0791636 0.0648871 0.889778
-0.0792526 0.0663599 0.889976
-0.0793352 0.0678291 0.890118
-0.0794622 0.0693298 0.890672
-0.0795905 0.0708334 0.891243
-0.079704 0.0723274 0.891668
-0.0798136 0.0738202 0.892063
-0.0799373 0.075325 0.892588
-0.0845799 -0.0432544 0.976651
-0.0845833 -0.0416075 0.975941
-0.0846124 -0.0399744 0.97548
-0.0846317 -0.0383391 0.974931
-0.0846292 -0.036697 0.974171
-0.0846381 -0.035062 0.973519
-0.0846619 -0.033435 0.973016
-0.0846222 -0.0317869 0.97189
-0.08452 -0.0301217 0.970158
-0.0843812 -0.0284504 0.968066
-0.0842315 -0.026783 0.96587
-0.0840356 -0.0251097 0.963226
-0.0837754 -0.0234279 0.959959
-0.0835369 -0.0217627 0.956902
-0.0833246 -0.0201146 0.954114
-0.0831606 -0.018487 0.951799
-0.0830708 -0.0168828 0.950206
-0.0834811 -0.0153808 0.953497
-0.082017 -0.00422086 0.934337
-0.0819458 -0.00267247 0.932958
-0.0819088 -0.00113044 0.931907
-0.0818374 0.000408911 0.930517
-0.0817456 0.00194392 0.92894
-0.0816591 0.00347336 0.927419
-0.0815926 0.00499805 0.92609
-0.0815226 0.00651801 0.924732
-0.0814551 0.00803338 0.923396
-0.0814275 0.00954695 0.922448
-0.0813629 0.0110541 0.921148
-0.0813003 0.0125569 0.919864
-0.0812298 0.0140544 0.918508
-0.081166 0.0155485 0.917229
-0.0810936 0.0170365 0.915855
-0.081021 0.0185199 0.91449
-0.080959 0.0200006 0.913227
-0.0809257 0.0214825 0.912235
-0.0808953 0.0229617 0.911278
-0.0808377 0.0244314 0.910062
-0.080811 0.0259044 0.90914
-0.0807399 0.0273627 0.907796
-0.0806603 0.0288143 0.906377
-0.0806068 0.0302684 0.905203
-0.080573 0.0317247 0.904221
-0.0805248 0.033173 0.903103
-0.0805028 0.0346264 0.902241
-0.0804974 0.0360826 0.901532
-0.0805044 0.0375408 0.900941
-0.0804875 0.0389879 0.900127
-0.0804514 0.0404244 0.899127
-0.0804234 0.0418613 0.898218
-0.0803788 0.0432876 0.897145
-0.0803132 0.0447009 0.895876
-0.0802931 0.0461307 0.895033
-0.0803146 0.047578 0.894593
-0.0803141 0.0490126 0.893942
-0.0803138 0.0504448 0.893292
-0.0803287 0.0518828 0.892785
-0.0803065 0.0532994 0.891936
-0.0802584 0.0546987 0.890842
-0.0802242 0.0561021 0.889879
-0.0802077 0.0575126 0.889084
-0.0802133 0.0589339 0.888502
-0.080268 0.0603832 0.888377
-0.0803424 0.0618444 0.888438
-0.0804258 0.0633113 0.88858
-0.0805144 0.064782 0.888773
-0.0805947 0.0662483 0.888896
-0.0806783 0.0677161 0.889035
-0.0808049 0.0692152 0.889584
-0.0809345 0.070718 0.890159
-0.0810568 0.0722177 0.890672
-0.081177 0.0737165 0.891153
-0.0813022 0.0752207 0.891684
-0.0800367 0.0768124 0.892886
-0.0813934 0.0767001 0.891897
-0.0862253 -0.0417101 0.976298
-0.0862446 -0.0400717 0.975752
-0.0862557 -0.0384322 0.975132
-0.086252 -0.0367888 0.974367
-0.0862378 -0.0351443 0.973504
-0.08624 -0.033509 0.972803
-0.0861787 -0.0318535 0.971488
-0.0860523 -0.030181 0.969552
-0.0858785 -0.0284997 0.967156
-0.0857227 -0.0268324 0.964941
-0.0855332 -0.0251629 0.962401
-0.0853216 -0.0234962 0.959655
-0.0851448 -0.0218478 0.957241
-0.0849944 -0.020214 0.955087
-0.0848598 -0.0185913 0.953093
-0.0847789 -0.0169866 0.951618
-0.0849847 -0.0154415 0.952881
-0.0839024 -0.00586763 0.938363
-0.0835713 -0.0042892 0.934521
-0.0834749 -0.00273834 0.93292
-0.0834231 -0.00119511 0.931745
-0.0833369 0.00034526 0.930248
-0.0832317 0.00188057 0.928564
-0.0831512 0.00341027 0.927122
-0.0830914 0.00493523 0.92588
-0.0830209 0.00645567 0.924536
-0.082951 0.0079715 0.923203
-0.0829206 0.00948537 0.922244
-0.082844 0.0109921 0.920852
-0.0827695 0.0124942 0.919476
-0.0827043 0.0139928 0.918198
-0.082649 0.0154882 0.917007
-0.0825761 0.0169769 0.915655
-0.082502 0.0184609 0.914294
-0.082437 0.0199418 0.913025
-0.0823919 0.0214221 0.911937
-0.0823501 0.0228995 0.91089
-0.0822895 0.0243692 0.909667
-0.082262 0.0258424 0.908753
-0.0821974 0.027303 0.907492
-0.0821175 0.0287553 0.906092
-0.0820638 0.0302101 0.904932
-0.082029 0.0316671 0.903962
-0.0819778 0.0331153 0.902836
-0.0819542 0.0345688 0.901969
-0.0819471 0.0360251 0.901257
-0.0819526 0.0374833 0.90066
-0.0819335 0.0389304 0.899842
-0.0818942 0.0403666 0.898831
-0.0818563 0.0418002 0.897841
-0.081801 0.0432226 0.89668
-0.0817316 0.0446354 0.895401
-0.0817082 0.0460644 0.894546
-0.0817311 0.0475121 0.894119
-0.0817218 0.048943 0.893399
-0.081729 0.0503793 0.892828
-0.0817323 0.051812 0.892227
-0.0817093 0.0532283 0.891379
-0.0816505 0.0546227 0.890206
-0.0816144 0.0560257 0.889244
-0.0815879 0.0574309 0.888369
-0.0815927 0.0588514 0.887783
-0.0816371 0.0602945 0.887572
-0.0817116 0.0617544 0.887627
-0.0817923 0.0632194 0.887751
-0.0818808 0.0646895 0.887944
-0.0819624 0.0661547 0.888064
-0.0820359 0.0676151 0.888114
-0.0821533 0.0691066 0.888574
-0.0822736 0.0706015 0.889061
-0.0823972 0.0720994 0.889567
-0.0825177 0.0735975 0.890053
-0.0826452 0.0751012 0.890593
-0.0827366 0.0765798 0.890811
-0.0878899 -0.0418215 0.976841
-0.0878925 -0.0401749 0.976148
-0.0878896 -0.0385286 0.975406
-0.0878784 -0.0368818 0.974589
-0.0878297 -0.0352232 0.973404
-0.0878084 -0.0335792 0.972494
-0.0877349 -0.0319202 0.971088
-0.0875968 -0.0302445 0.969069
-0.0874204 -0.0285637 0.966687
-0.0872614 -0.0268961 0.964467
-0.0870787 -0.0252298 0.962035
-0.0869039 -0.023574 0.959683
-0.0867861 -0.0219407 0.957874
-0.0866878 -0.0203182 0.956246
-0.0866106 -0.018706 0.954822
-0.086583 -0.0171089 0.953864
-0.0866122 -0.015526 0.953455
-0.084332 -0.00746996 0.943158
-0.0852927 -0.00903034 0.938283
-0.0852445 -0.00746941 0.937155
-0.0852084 -0.00591352 0.936144
-0.0851031 -0.00435585 0.934481
-0.0849936 -0.00280363 0.932779
-0.0849333 -0.00125949 0.931544
-0.0848345 0.000281458 0.929948
-0.0847158 0.00181729 0.928174
-0.0846334 0.00334707 0.926732
-0.0845802 0.00487231 0.925575
-0.0845086 0.00639292 0.924238
-0.0844364 0.0079091 0.922907
-0.0844042 0.00942312 0.921946
-0.0843337 0.0109308 0.920631
-0.0842488 0.0124325 0.919181
-0.0841922 0.0139325 0.917998
-0.0841456 0.0154296 0.916914
-0.0840705 0.016919 0.915566
-0.0839945 0.0184036 0.91421
-0.0839254 0.0198849 0.912921
-0.0838677 0.0213638 0.911738
-0.0838153 0.0228396 0.9106
-0.083762 0.0243115 0.909466
-0.0837247 0.025783 0.908473
-0.0836673 0.0272463 0.907302
-0.0835953 0.0287017 0.90599
-0.0835492 0.0301598 0.904925
-0.0835135 0.0316176 0.90396
-0.0834706 0.0330697 0.902928
-0.0834448 0.0345237 0.902052
-0.0834372 0.0359809 0.901343
-0.0834305 0.0374361 0.900648
-0.0834083 0.0388834 0.899814
-0.0833568 0.0403162 0.89871
-0.083308 0.0417464 0.897632
-0.0832323 0.0431615 0.896305
-0.083159 0.0445737 0.895011
-0.0831257 0.0459987 0.894071
-0.0831479 0.0474465 0.89365
-0.0831375 0.0488775 0.892934
-0.083152 0.0503181 0.892444
-0.0831449 0.0517459 0.891753
-0.0831189 0.0531617 0.890898
-0.0830493 0.0545508 0.889638
-0.0830126 0.0559542 0.888689
-0.0829776 0.057355 0.887747
-0.0829728 0.0587706 0.88709
-0.082999 0.060202 0.88671
-0.0830628 0.0616548 0.88667
-0.083126 0.0631076 0.886632
-0.0832145 0.0645761 0.88682
-0.083304 0.0660457 0.887017
-0.0833862 0.0675108 0.887147
-0.0835029 0.0690006 0.887597
-0.0836226 0.0704928 0.888061
-0.0837442 0.0719885 0.888553
-0.0838666 0.0734853 0.889039
-0.0839868 0.0749826 0.889513
-0.0840876 0.0764667 0.889812
-0.0896148 -0.0403089 0.977224
-0.0895976 -0.0386544 0.976352
-0.0895436 -0.0369888 0.975141
-0.0894546 -0.0353145 0.973611
-0.0893985 -0.0336571 0.972382
-0.0893014 -0.0319902 0.97078
-0.0891514 -0.0303111 0.968671
-0.0889815 -0.0286335 0.966393
-0.0888391 -0.0269717 0.964367
-0.0886852 -0.025314 0.962243
-0.088539 -0.0236654 0.960189
-0.0884619 -0.0220413 0.958783
-0.0884021 -0.0204261 0.957543
-0.088363 -0.0188199 0.956501
-0.0883538 -0.0172233 0.955732
-0.0867907 -0.00909397 0.937859
-0.0867744 -0.00753653 0.937041
-0.086735 -0.00598005 0.936013
-0.0866167 -0.00442104 0.934257
-0.0864985 -0.00286798 0.932498
-0.0864315 -0.00132338 0.931227
-0.0863289 0.000217821 0.929615
-0.0861991 0.00175403 0.927768
-0.0861143 0.00328386 0.926333
-0.086052 0.00480899 0.925101
-0.0859767 0.00632964 0.923759
-0.085902 0.00784568 0.922427
-0.0858686 0.00935967 0.921469
-0.0858066 0.0108681 0.920249
-0.0857298 0.0123709 0.918899
-0.0856822 0.0138723 0.917819
-0.0856449 0.0153712 0.916832
-0.0855686 0.0168615 0.915494
-0.0854895 0.0183464 0.914127
-0.0854167 0.0198279 0.912824
-0.0853469 0.0213056 0.911552
-0.0852912 0.0227816 0.910405
-0.0852461 0.024256 0.909362
-0.0851981 0.0257263 0.908292
-0.0851499 0.0271926 0.907218
-0.0850822 0.0286503 0.905973
-0.0850362 0.0301096 0.904921
-0.0849986 0.0315679 0.903952
-0.0849726 0.0330263 0.903086
-0.0849461 0.0344816 0.902218
-0.0849375 0.0359402 0.901521
-0.0849209 0.0373933 0.900746
-0.0848955 0.0388403 0.899888
-0.0848229 0.0402667 0.89861
-0.084762 0.0416933 0.89744
-0.0846655 0.0431013 0.895944
-0.0845884 0.0445128 0.894636
-0.0845431 0.0459336 0.893608
-0.0845559 0.0473775 0.893112
-0.0845361 0.0488042 0.892318
-0.0845576 0.0502482 0.891898
-0.0845401 0.051671 0.891125
-0.0845129 0.0530864 0.890269
-0.0844491 0.0544799 0.889089
-0.0844209 0.0558882 0.888223
-0.0843756 0.0572842 0.887207
-0.0843687 0.0586991 0.886542
-0.0843747 0.0601189 0.885989
-0.0844267 0.0615646 0.88585
-0.0844806 0.0630107 0.885727
-0.0845621 0.0644733 0.885846
-0.0846438 0.0659371 0.885974
-0.0847267 0.0674013 0.886107
-0.0848354 0.0688835 0.886473
-0.0849454 0.0703677 0.886851
-0.085075 0.0718668 0.887404
-0.0851976 0.0733627 0.887895
-0.0853191 0.0748592 0.888373
-0.0854298 0.0763485 0.888749
-0.091391 -0.0404634 0.978745
-0.0913509 -0.0387972 0.977682
-0.0912558 -0.0371134 0.976111
-0.0911391 -0.0354269 0.974336
-0.0910348 -0.0337512 0.972685
-0.0909102 -0.0320745 0.970854
-0.090744 -0.0303905 0.968636
-0.0905715 -0.0287123 0.966364
-0.0904268 -0.0270502 0.964356
-0.0902928 -0.0253979 0.962439
-0.0901656 -0.0237541 0.960592
-0.0901083 -0.0221341 0.959396
-0.09007 -0.0205225 0.958368
-0.0900695 -0.0189227 0.957694
-0.0900778 -0.017327 0.957093
-0.0901481 -0.0157451 0.957068
-0.0882608 -0.00915414 0.937178
-0.0882283 -0.00759561 0.936224
-0.0881792 -0.00603896 0.935121
-0.0880352 -0.00447889 0.93316
-0.087934 -0.00292823 0.931588
-0.0878906 -0.00138555 0.930548
-0.0878146 0.000154509 0.929211
-0.0876827 0.00169073 0.927367
-0.087596 0.00322053 0.925937
-0.087522 0.00474583 0.924622
-0.0874434 0.00626636 0.92327
-0.0873662 0.00778225 0.921933
-0.0873312 0.00929608 0.92098
-0.0872787 0.0108053 0.919864
-0.0872198 0.0123102 0.9187
-0.0871824 0.0138132 0.917728
-0.0871529 0.0153137 0.916822
-0.087074 0.0168046 0.915482
-0.0869912 0.0182902 0.914105
-0.0869073 0.0197709 0.91272
-0.0868354 0.0212491 0.911448
-0.0867772 0.0227256 0.9103
-0.0867407 0.0242027 0.909343
-0.0866915 0.0256736 0.908277
-0.0866508 0.027143 0.90729
-0.0865802 0.0286015 0.906042
-0.0865313 0.0300614 0.904983
-0.0864924 0.0315204 0.904013
-0.0864746 0.0329826 0.903236
-0.086449 0.0344395 0.902387
-0.0864398 0.0358992 0.901695
-0.0864225 0.0373532 0.900918
-0.0864034 0.0388043 0.900138
-0.0863189 0.0402281 0.898772
-0.0862561 0.0416558 0.897602
-0.0861537 0.0430636 0.896084
-0.0860649 0.0444719 0.894685
-0.0859987 0.0458849 0.893484
-0.0859915 0.0473207 0.892815
-0.0859512 0.0487385 0.89185
-0.0859533 0.0501735 0.891264
-0.0859245 0.0515914 0.890409
-0.085887 0.0530022 0.88948
-0.0858313 0.0543999 0.888385
-0.0858109 0.0558128 0.887602
-0.0857641 0.0572085 0.886589
-0.0857545 0.0586222 0.88591
-0.0857562 0.0600394 0.885325
-0.085797 0.0614782 0.88509
-0.0858405 0.0629178 0.88488
-0.0859225 0.0643799 0.885002
-0.0860044 0.0658431 0.885135
-0.0860887 0.0673075 0.885281
-0.0861897 0.0687835 0.885575
-0.0862996 0.0702665 0.885949
-0.0864306 0.0717649 0.886503
-0.0865545 0.0732603 0.886999
-0.0866692 0.0747499 0.887406
-0.0867792 0.0762376 0.887776
-0.0931805 -0.0422768 0.981017
-0.0931449 -0.0406065 0.980006
-0.0930921 -0.0389327 0.978838
-0.0929684 -0.0372361 0.977027
-0.0928228 -0.035538 0.975026
-0.0926881 -0.0338506 0.973124
-0.0925364 -0.032164 0.971067
-0.0923632 -0.0304779 0.968826
-0.0921953 -0.0288012 0.966634
-0.0920611 -0.0271415 0.964742
-0.0919457 -0.0254939 0.963029
-0.0918386 -0.0238542 0.961393
-0.0917819 -0.0222326 0.960214
-0.0917524 -0.0206213 0.959283
-0.0917663 -0.0190226 0.95875
-0.0917751 -0.0174247 0.958163
-0.0918465 -0.0158403 0.958142
-0.0893591 -0.00298769 0.930599
-0.0893368 -0.00144709 0.929761
-0.0892836 9.15457e-05 0.928653
-0.0891578 0.00162752 0.926895
-0.0890602 0.00315737 0.925384
-0.0889811 0.00468241 0.924049
-0.0888987 0.00620258 0.922683
-0.0888186 0.00771828 0.921335
-0.0887839 0.00923208 0.920403
-0.088741 0.0107418 0.91939
-0.0886908 0.0122476 0.918322
-0.0886522 0.0137508 0.917354
-0.0886203 0.0152514 0.916447
-0.0885394 0.0167423 0.915103
-0.088463 0.0182293 0.913809
-0.0883783 0.0197105 0.912433
-0.088305 0.0211891 0.911167
-0.0882551 0.0226676 0.910105
-0.0882252 0.024147 0.909232
-0.0881768 0.0256189 0.908184
-0.0881526 0.0270932 0.907358
-0.0880903 0.0285551 0.9062
-0.088039 0.0300156 0.905135
-0.0880076 0.0314784 0.904248
-0.0879893 0.0329416 0.903473
-0.0879625 0.0343999 0.902631
-0.0879629 0.0358641 0.90203
-0.0879518 0.0373222 0.901331
-0.0879336 0.0387752 0.900562
-0.0878562 0.0402039 0.899277
-0.0877828 0.04163 0.898036
-0.0876682 0.0430352 0.896429
-0.0875572 0.0444363 0.894851
-0.0874665 0.0458415 0.893465
-0.0874288 0.0472644 0.892532
-0.0873733 0.0486768 0.891455
-0.0873534 0.0501018 0.890685
-0.0873242 0.0515195 0.889833
-0.0872855 0.0529302 0.888906
-0.0872386 0.054333 0.887903
-0.0872177 0.0557465 0.887135
-0.0871695 0.0571424 0.886123
-0.0871491 0.0585503 0.885357
-0.0871389 0.0599614 0.884681
-0.0871688 0.0613936 0.884354
-0.0872018 0.0628269 0.884063
-0.087283 0.0642881 0.884181
-0.0873657 0.0657501 0.88431
-0.0874486 0.0672128 0.884443
-0.0875405 0.0686819 0.884657
-0.0876428 0.0701583 0.884956
-0.0877746 0.0716561 0.885517
-0.0879007 0.0731509 0.886017
-0.0880154 0.0746398 0.886428
-0.0881344 0.0761326 0.88687
-0.0949749 -0.0424371 0.982577
-0.0949244 -0.0407576 0.98144
-0.0948317 -0.0390662 0.979941
-0.0946817 -0.037358 0.977922
-0.0945211 -0.0356532 0.975812
-0.0943603 -0.0339555 0.973703
-0.0941917 -0.0322627 0.971529
-0.0940232 -0.0305775 0.969357
-0.0938526 -0.0288994 0.967178
-0.0937274 -0.0272415 0.965395
-0.0936301 -0.0255976 0.96387
-0.0935422 -0.0239612 0.962426
-0.0934934 -0.0223395 0.96134
-0.0934747 -0.0207282 0.960512
-0.0934694 -0.0191228 0.959811
-0.0934731 -0.0175218 0.959196
-0.0935385 -0.0159339 0.959124
-0.0908444 -0.00305097 0.930165
-0.0908124 -0.00151 0.929251
-0.0907625 2.84983e-05 0.928183
-0.0906433 0.00156425 0.92651
-0.0905319 0.00309426 0.924907
-0.0904394 0.00461899 0.92347
-0.0903436 0.00613865 0.922006
-0.0902601 0.00765386 0.920653
-0.0902255 0.00916735 0.919733
-0.0901915 0.0106775 0.918817
-0.0901506 0.012184 0.917843
-0.0901097 0.0136869 0.916866
-0.0900657 0.0151863 0.91587
-0.089981 0.0166769 0.91452
-0.0899131 0.0181651 0.913316
-0.0898284 0.0196465 0.91196
-0.0897644 0.021127 0.910792
-0.0897306 0.0226094 0.909896
-0.0897096 0.024091 0.909109
-0.0896615 0.025564 0.908082
-0.0896472 0.0270413 0.907351
-0.0896041 0.0285091 0.906375
-0.0895514 0.0299708 0.905313
-0.0895294 0.0314374 0.90452
-0.0895168 0.0329043 0.903817
-0.089489 0.0343638 0.902975
-0.0894884 0.0358291 0.90237
-0.0894864 0.0372918 0.901756
-0.0894766 0.0387497 0.901077
-0.0894103 0.0401846 0.899904
-0.0893461 0.0416165 0.898756
-0.0892198 0.0430201 0.897069
-0.089083 0.0444141 0.895301
-0.0889585 0.0458072 0.893638
-0.0888761 0.0472128 0.892338
-0.088788 0.0486116 0.890994
-0.0887447 0.0500266 0.890038
-0.0887121 0.051443 0.889169
-0.0886633 0.052849 0.88817
-0.0886256 0.054257 0.887263
-0.0886048 0.0556704 0.886499
-0.0885565 0.0570667 0.885503
-0.088525 0.0584694 0.884661
-0.088514 0.0598798 0.883981
-0.0885339 0.0613062 0.883578
-0.0885669 0.0627388 0.883286
-0.0886475 0.0641989 0.883399
-0.0887286 0.0656596 0.883518
-0.0888105 0.0671209 0.88364
-0.0889015 0.0685884 0.883842
-0.0890024 0.0700634 0.884132
-0.0891264 0.0715534 0.884606
-0.0892519 0.0730471 0.885104
-0.0893581 0.0745287 0.885437
-0.0894788 0.076021 0.885886
-0.0967099 -0.0409094 0.982878
-0.096592 -0.0392057 0.981174
-0.0964175 -0.0374867 0.97897
-0.0962416 -0.035775 0.976758
-0.0960557 -0.0340675 0.974457
-0.0958716 -0.0323688 0.972184
-0.0957017 -0.0306822 0.97003
-0.0955406 -0.0290059 0.967963
-0.0954354 -0.0273525 0.966386
-0.0953693 -0.025715 0.965154
-0.0953009 -0.0240812 0.963901
-0.0952515 -0.0224565 0.962821
