ply
format ascii 1.0
element vertex 1712
property float x
property float y
property float z
end_header
0.19711 -0.156507 0.857299
0.195237 -0.155828 0.855903
0.193361 -0.155143 0.854469
0.191347 -0.154352 0.852403
0.189248 -0.153497 0.84993
0.187081 -0.152587 0.84711
0.184949 -0.151698 0.844396
0.182969 -0.150916 0.842316
0.181049 -0.150176 0.840472
0.179171 -0.149466 0.838789
0.17743 -0.148855 0.837701
0.175766 -0.148301 0.836946
0.174148 -0.147779 0.836389
0.172489 -0.147225 0.835625
0.170881 -0.14671 0.835088
0.169307 -0.146217 0.834693
0.167707 -0.145704 0.834162
0.166115 -0.145195 0.833656
0.164606 -0.144752 0.833548
0.163136 -0.144337 0.833617
0.161621 -0.143888 0.833466
0.160158 -0.143478 0.833562
0.158741 -0.143105 0.833887
0.157346 -0.14275 0.834326
0.156007 -0.142441 0.835057
0.154749 -0.1422 0.836221
0.153511 -0.141975 0.837497
0.152268 -0.14175 0.83877
0.151084 -0.141574 0.840372
0.149854 -0.141363 0.84175
0.148575 -0.141112 0.84288
0.147347 -0.140904 0.844301
0.146114 -0.140697 0.845722
0.144827 -0.140444 0.846854
0.143536 -0.140189 0.847979
0.142265 -0.139954 0.849235
0.140901 -0.139637 0.849966
0.139519 -0.139306 0.850603
0.13812 -0.138961 0.851146
0.136721 -0.138614 0.851685
0.13525 -0.138205 0.8518
0.133804 -0.137816 0.852057
0.132342 -0.137415 0.852222
0.130912 -0.13704 0.852575
0.129487 -0.136672 0.852964
0.128103 -0.136341 0.853609
0.126703 -0.135995 0.854158
0.12534 -0.135686 0.854954
0.123954 -0.135356 0.855608
0.122557 -0.135016 0.856195
0.121129 -0.134645 0.856577
0.119668 -0.134242 0.856738
0.118141 -0.133774 0.856439
0.116567 -0.133257 0.855801
0.114969 -0.132714 0.854969
0.113371 -0.132167 0.854106
0.111799 -0.131645 0.853412
0.110297 -0.131192 0.853193
0.108935 -0.130883 0.853992
0.107691 -0.1307 0.855681
0.106475 -0.130549 0.857612
0.105305 -0.130453 0.859943
0.104067 -0.130286 0.861787
0.1028 -0.130092 0.863444
0.10145 -0.129813 0.864486
0.100095 -0.129528 0.865499
0.0986831 -0.12918 0.86606
0.0972859 -0.128851 0.866755
0.0958805 -0.128513 0.867387
0.0944896 -0.128192 0.86815
0.0931101 -0.127886 0.869023
0.0917263 -0.127576 0.869874
0.0903371 -0.127262 0.870691
0.0889558 -0.126958 0.871592
0.0875864 -0.126671 0.872617
0.0862198 -0.126388 0.873687
0.0848865 -0.12615 0.875095
0.083569 -0.125935 0.876684
0.0822419 -0.125713 0.87822
0.0809237 -0.125504 0.879878
0.0796076 -0.125303 0.881602
0.0782865 -0.125102 0.883331
0.0769882 -0.124933 0.885325
0.0756801 -0.124759 0.887279
0.0743859 -0.124608 0.889434
0.0731188 -0.124504 0.891955
0.0718736 -0.124437 0.894794
0.0706019 -0.124341 0.897414
0.209814 -0.162713 0.866283
0.207944 -0.162049 0.865071
0.20607 -0.161381 0.86382
0.204082 -0.160627 0.862069
0.202107 -0.15988 0.860344
0.200186 -0.159168 0.858813
0.198314 -0.15849 0.857465
0.196452 -0.157818 0.856135
0.194599 -0.157148 0.854818
0.192689 -0.156433 0.853224
0.19072 -0.155671 0.851343
0.188654 -0.154835 0.849004
0.186575 -0.153983 0.846563
0.184511 -0.153138 0.844147
0.182521 -0.152345 0.842017
0.180643 -0.151633 0.840361
0.178836 -0.150972 0.838999
0.177097 -0.150361 0.837922
0.175417 -0.149792 0.837095
0.173781 -0.149255 0.836458
0.172098 -0.148681 0.835582
0.170471 -0.148148 0.83495
0.168896 -0.147654 0.834552
0.167314 -0.147154 0.834112
0.165724 -0.146645 0.833613
0.16423 -0.146213 0.833578
0.162756 -0.145795 0.833635
0.161242 -0.145345 0.833486
0.159795 -0.144947 0.833666
0.158413 -0.144604 0.834173
0.157036 -0.144264 0.834709
0.155744 -0.143996 0.835695
0.154536 -0.143798 0.837128
0.153333 -0.143607 0.838606
0.152142 -0.143427 0.840167
0.151006 -0.143297 0.842049
0.149775 -0.143089 0.843443
0.148494 -0.14284 0.844583
0.147231 -0.142608 0.845835
0.145947 -0.142358 0.846983
0.144606 -0.142062 0.847833
0.143264 -0.141764 0.848677
0.141928 -0.141473 0.849569
0.140529 -0.141128 0.850108
0.139114 -0.140768 0.850555
0.137685 -0.140396 0.850923
0.136269 -0.140037 0.85137
0.134798 -0.139625 0.851481
0.133335 -0.139222 0.851638
0.131856 -0.138803 0.851692
0.130411 -0.138414 0.851947
0.128973 -0.138032 0.85225
0.127579 -0.137693 0.852832
0.126182 -0.13735 0.853396
0.124807 -0.137029 0.854108
0.123406 -0.136685 0.854658
0.121994 -0.136329 0.855135
0.120566 -0.135957 0.855509
0.119095 -0.135544 0.855594
0.117571 -0.135076 0.855307
0.115984 -0.134543 0.854566
0.114373 -0.133983 0.853627
0.112763 -0.133421 0.852668
0.111207 -0.132911 0.852063
0.109756 -0.132509 0.852207
0.108469 -0.13228 0.853554
0.107287 -0.132165 0.85571
0.106126 -0.132077 0.858072
0.104977 -0.132008 0.860569
0.103724 -0.131831 0.86232
0.102429 -0.13161 0.863773
0.101066 -0.131317 0.864721
0.0996822 -0.131002 0.865509
0.0982594 -0.130644 0.865991
0.0968522 -0.130304 0.866607
0.0954245 -0.129941 0.867056
0.0940117 -0.129595 0.867634
0.0926306 -0.129287 0.868491
0.091247 -0.128979 0.869343
0.0898595 -0.128667 0.870174
0.0884895 -0.128379 0.871176
0.0871297 -0.128104 0.872291
0.0857618 -0.127822 0.873353
0.084419 -0.127573 0.874673
0.083099 -0.127358 0.876243
0.081761 -0.127123 0.87768
0.0804311 -0.126903 0.879229
0.0791078 -0.126694 0.880875
0.0777953 -0.126507 0.88269
0.0764986 -0.126345 0.884705
0.0751926 -0.126176 0.886685
0.0739085 -0.126042 0.888947
0.0726492 -0.125954 0.891566
0.0713867 -0.125868 0.89422
0.0700871 -0.125736 0.896536
0.20879 -0.163785 0.863688
0.206964 -0.163149 0.862638
0.205155 -0.162523 0.861637
0.203217 -0.161801 0.86008
0.201318 -0.161103 0.858653
0.199449 -0.160425 0.857333
0.197628 -0.159781 0.85619
0.195791 -0.159121 0.854952
0.193958 -0.158463 0.853713
0.192051 -0.157746 0.852125
0.190127 -0.157013 0.850431
0.188123 -0.156217 0.848356
0.18611 -0.15541 0.8462
0.184109 -0.154607 0.844058
0.182162 -0.153842 0.842123
0.180323 -0.153156 0.840641
0.178535 -0.152508 0.839371
0.176815 -0.151908 0.838382
0.175119 -0.151325 0.837485
0.17348 -0.150785 0.836838
0.171778 -0.150194 0.835875
0.170129 -0.149641 0.835139
0.168518 -0.149118 0.834573
0.166936 -0.148616 0.834132
0.165346 -0.148106 0.833635
0.163856 -0.147675 0.83362
0.162383 -0.147259 0.833683
0.160886 -0.146821 0.833619
0.159455 -0.146438 0.833886
0.158122 -0.146135 0.83465
0.156812 -0.145854 0.835543
0.155607 -0.145659 0.836987
0.154467 -0.145523 0.838795
0.153311 -0.145375 0.840542
0.152148 -0.145226 0.842279
0.151007 -0.145097 0.844163
0.149744 -0.144865 0.845405
0.148442 -0.144601 0.84645
0.14714 -0.144339 0.847509
0.145788 -0.144035 0.848304
0.144395 -0.143693 0.848868
0.143001 -0.143353 0.849436
0.141601 -0.143006 0.849971
0.140168 -0.142631 0.850317
0.13872 -0.142242 0.850576
0.137261 -0.141843 0.85077
0.135831 -0.14147 0.851134
0.134372 -0.14107 0.85132
0.132896 -0.140654 0.851396
0.131403 -0.140221 0.851362
0.129941 -0.139816 0.851514
0.128487 -0.139419 0.851711
0.127066 -0.139054 0.852117
0.125656 -0.138699 0.852599
0.124268 -0.138366 0.853223
0.122841 -0.137995 0.853594
0.121413 -0.137623 0.85396
0.119973 -0.137237 0.85424
0.118468 -0.136788 0.854081
0.116923 -0.136296 0.853629
0.115323 -0.135745 0.852779
0.113699 -0.135167 0.851733
0.112082 -0.134593 0.850699
0.110557 -0.134111 0.850295
0.109138 -0.133741 0.85065
0.107937 -0.133604 0.852624
0.106818 -0.133561 0.855248
0.105722 -0.133549 0.858113
0.104596 -0.13351 0.860806
0.103358 -0.133353 0.862682
0.102035 -0.133104 0.863927
0.100647 -0.132785 0.864678
0.0992396 -0.132445 0.865286
0.097807 -0.132074 0.865687
0.0963979 -0.131733 0.866288
0.0949482 -0.131344 0.866552
0.0935227 -0.130984 0.86702
0.0921394 -0.130675 0.867857
0.0907751 -0.13039 0.868877
0.0894009 -0.130096 0.869825
0.0880432 -0.129823 0.87094
0.086703 -0.129574 0.872239
0.0853349 -0.129295 0.873309
0.0839825 -0.129037 0.874546
0.0826525 -0.128811 0.876029
0.0813047 -0.128565 0.877368
0.0799625 -0.128332 0.878805
0.0786364 -0.128123 0.880435
0.0773234 -0.127936 0.882241
0.0760191 -0.127767 0.884186
0.0747205 -0.127613 0.886252
0.0734357 -0.127484 0.88852
0.072169 -0.127388 0.891056
0.0708967 -0.127292 0.893612
0.0695857 -0.127148 0.895803
0.207757 -0.164843 0.86105
0.206052 -0.16429 0.860475
0.204337 -0.163729 0.859848
0.20245 -0.163039 0.85849
0.200576 -0.162356 0.85716
0.198754 -0.161709 0.856024
0.196959 -0.161079 0.854978
0.195126 -0.160419 0.853752
0.1933 -0.159762 0.852531
0.191415 -0.159057 0.851027
0.189495 -0.158323 0.849345
0.18754 -0.157558 0.847472
0.185572 -0.15678 0.84551
0.183634 -0.15602 0.843642
0.181731 -0.155285 0.841902
0.179933 -0.154627 0.840606
0.178187 -0.154008 0.839523
0.176502 -0.153434 0.838701
0.174825 -0.152864 0.837896
0.173201 -0.152334 0.837321
0.171496 -0.151738 0.836346
0.169827 -0.151169 0.835524
0.168196 -0.150628 0.834862
0.166595 -0.15011 0.834331
0.165004 -0.149597 0.833833
0.163532 -0.149182 0.833912
0.162078 -0.148781 0.834076
0.1606 -0.148359 0.834115
0.159232 -0.148029 0.834709
0.157967 -0.147785 0.835828
0.156763 -0.147594 0.837283
0.155647 -0.147481 0.839214
0.154592 -0.147422 0.841494
0.153465 -0.147306 0.843431
0.152294 -0.147154 0.845153
0.151098 -0.146985 0.846773
0.149778 -0.146708 0.847735
0.148419 -0.146398 0.848493
0.147046 -0.146076 0.84918
0.145626 -0.145713 0.849609
0.144166 -0.145315 0.849816
0.142723 -0.144931 0.850115
0.141274 -0.144543 0.850375
0.139792 -0.144123 0.850447
0.138313 -0.143705 0.850522
0.136837 -0.14329 0.850616
0.135406 -0.142917 0.850974
0.133936 -0.142506 0.851093
0.132462 -0.142091 0.851185
0.130971 -0.141659 0.851163
0.129505 -0.14125 0.85129
0.128021 -0.140824 0.851301
0.126581 -0.140439 0.851582
0.125142 -0.140057 0.851871
0.123714 -0.139683 0.852228
0.122223 -0.139247 0.85217
0.120719 -0.138797 0.852016
0.119214 -0.138345 0.851844
0.11766 -0.137842 0.851323
0.116081 -0.13731 0.850608
0.114487 -0.136759 0.849757
0.112904 -0.136218 0.848964
0.111338 -0.135692 0.848266
0.109869 -0.135265 0.848237
0.108581 -0.135033 0.849535
0.107484 -0.135013 0.852281
0.106446 -0.135063 0.855524
0.105412 -0.135127 0.858875
0.104316 -0.135128 0.86182
0.103034 -0.134926 0.863378
0.101683 -0.134649 0.864418
0.100278 -0.134311 0.865045
0.0988348 -0.13393 0.865368
0.097387 -0.133545 0.865653
0.0959633 -0.133186 0.866135
0.0944911 -0.13277 0.86621
0.0930543 -0.132395 0.866579
0.0916701 -0.132087 0.86741
0.090317 -0.131817 0.868529
0.0889552 -0.131539 0.869591
0.087618 -0.131295 0.870899
0.0862884 -0.131063 0.872304
0.0849293 -0.130797 0.873468
0.0835764 -0.130541 0.874714
0.0822369 -0.130306 0.876114
0.0808766 -0.130047 0.87735
0.0795246 -0.129802 0.878691
0.0781867 -0.12958 0.880207
0.0768635 -0.129383 0.88192
0.0755489 -0.129203 0.883763
0.0742398 -0.129036 0.885721
0.0729437 -0.128894 0.887873
0.0716657 -0.128788 0.890295
0.0703768 -0.128672 0.892668
0.0690598 -0.12852 0.894782
0.20875 -0.166682 0.860283
0.207069 -0.166146 0.859814
0.205371 -0.165596 0.859262
0.203619 -0.165004 0.858472
0.201758 -0.164328 0.857206
0.199888 -0.163645 0.855886
0.198069 -0.162996 0.854752
0.196276 -0.162363 0.853707
0.194446 -0.161703 0.852485
0.192621 -0.161041 0.851255
0.190762 -0.160352 0.849856
0.188887 -0.159647 0.848357
0.186978 -0.158913 0.846684
0.185075 -0.158179 0.844999
0.183199 -0.157465 0.843412
0.181356 -0.156771 0.841936
0.179583 -0.156131 0.840756
0.177875 -0.155538 0.839846
0.176194 -0.154966 0.839046
0.174532 -0.154406 0.838313
0.17291 -0.153878 0.837754
0.171205 -0.153279 0.836784
0.169518 -0.152694 0.835878
0.167883 -0.152147 0.835199
0.166275 -0.151622 0.834638
0.164683 -0.151108 0.834139
0.163245 -0.150722 0.834392
0.161813 -0.150339 0.834671
0.160382 -0.149956 0.834953
0.159082 -0.149686 0.835902
0.157904 -0.149519 0.83749
0.156794 -0.149413 0.83945
0.155771 -0.149385 0.841891
0.154751 -0.149364 0.84439
0.153602 -0.149236 0.846241
0.152388 -0.149052 0.847767
0.151119 -0.148822 0.849016
0.149741 -0.148498 0.849686
0.148339 -0.148153 0.850231
0.146912 -0.147786 0.850635
0.145438 -0.147376 0.850781
0.143941 -0.146945 0.850786
0.142446 -0.146516 0.850801
0.140949 -0.146082 0.850794
0.139448 -0.145646 0.85076
0.137951 -0.145212 0.850738
0.136459 -0.144781 0.850739
0.135027 -0.144407 0.851093
0.133557 -0.143996 0.851216
0.132084 -0.143583 0.851321
0.130594 -0.143152 0.851311
0.129116 -0.142731 0.851366
0.127601 -0.142274 0.851183
0.126116 -0.141845 0.85118
0.124632 -0.141417 0.851173
0.123137 -0.140975 0.851084
0.121579 -0.14047 0.85057
0.120007 -0.139947 0.849943
0.118445 -0.139433 0.849359
0.116851 -0.138883 0.84854
0.115262 -0.138335 0.847721
0.113685 -0.137798 0.846963
0.112146 -0.137298 0.84645
0.110629 -0.136818 0.846065
0.109191 -0.136422 0.846245
0.108015 -0.136313 0.848349
0.10702 -0.136409 0.851851
0.10606 -0.136553 0.855695
0.105102 -0.136709 0.859647
0.104069 -0.136789 0.863103
0.102759 -0.13656 0.864468
0.10136 -0.136231 0.865149
0.09993 -0.135866 0.865585
0.0984602 -0.135455 0.865703
0.096977 -0.135026 0.865701
0.0955305 -0.134642 0.865998
0.0940554 -0.134222 0.866049
0.0926088 -0.133836 0.866338
0.0912155 -0.133517 0.867092
0.0898733 -0.133263 0.868309
0.0885222 -0.133001 0.869474
0.0871968 -0.132773 0.870896
0.085876 -0.132557 0.872396
0.0845247 -0.132302 0.873639
0.0831703 -0.132047 0.874881
0.0818289 -0.131813 0.876279
0.0804679 -0.131555 0.87751
0.0791052 -0.131299 0.878764
0.077756 -0.131066 0.880183
0.0764238 -0.130858 0.881803
0.0750875 -0.130652 0.883438
0.073751 -0.130448 0.885104
0.0724327 -0.130278 0.887022
0.0711371 -0.130146 0.88924
0.0698314 -0.130009 0.891422
0.0685063 -0.129847 0.893444
0.208215 -0.168096 0.859672
0.206535 -0.167559 0.859203
0.204856 -0.16702 0.858723
0.203061 -0.166393 0.857752
0.201203 -0.165717 0.856496
0.199314 -0.165014 0.855088
0.197492 -0.164361 0.853937
0.195659 -0.163695 0.852713
0.193831 -0.163031 0.851492
0.191988 -0.162353 0.850177
0.190168 -0.161689 0.84894
0.188318 -0.160999 0.847545
0.186457 -0.160299 0.846074
0.184599 -0.159596 0.844586
0.182785 -0.158926 0.843269
0.180982 -0.158261 0.841977
0.179249 -0.15765 0.84098
0.177579 -0.157085 0.840249
0.175916 -0.156526 0.839536
0.174274 -0.155981 0.838901
0.172669 -0.155465 0.838428
0.170951 -0.154854 0.837397
0.169245 -0.154251 0.836406
0.167604 -0.153699 0.835703
0.165976 -0.153156 0.835051
0.164383 -0.15264 0.834553
0.163012 -0.152309 0.83514
0.161633 -0.151972 0.835695
0.160255 -0.151637 0.83626
0.159071 -0.151468 0.837816
0.157964 -0.151367 0.83979
0.156915 -0.15132 0.842094
0.155944 -0.151345 0.844841
0.15492 -0.151328 0.847354
0.153713 -0.151154 0.848927
0.152439 -0.150923 0.85016
0.15108 -0.150618 0.85095
0.149632 -0.150233 0.851254
0.148192 -0.149856 0.851606
0.146714 -0.149445 0.851746
0.145206 -0.149005 0.851709
0.143687 -0.148554 0.851602
0.142155 -0.148091 0.851414
0.140625 -0.147627 0.851221
0.139108 -0.147175 0.851099
0.137595 -0.146726 0.850989
0.136086 -0.14628 0.850897
0.134653 -0.145904 0.851249
0.133181 -0.145492 0.851364
0.131709 -0.145079 0.851475
0.130204 -0.144633 0.851375
0.128699 -0.144186 0.851266
0.127132 -0.143675 0.850747
0.125591 -0.14319 0.850383
0.124036 -0.142688 0.84991
0.122472 -0.142174 0.849355
0.120845 -0.141594 0.848365
0.119217 -0.14101 0.847336
0.117599 -0.140432 0.846345
0.11599 -0.139859 0.845379
0.114406 -0.139312 0.844564
0.112867 -0.138808 0.844033
0.111377 -0.138355 0.843834
0.109904 -0.13792 0.843745
0.108642 -0.137714 0.845181
0.107642 -0.137804 0.848589
0.106777 -0.138053 0.853081
0.105911 -0.138313 0.857672
0.105013 -0.138547 0.862119
0.103893 -0.138538 0.864945
0.10251 -0.138229 0.865764
0.101056 -0.137839 0.86603
0.0996003 -0.137446 0.866279
0.0980944 -0.136993 0.866114
0.0965777 -0.136524 0.865842
0.0950985 -0.1361 0.865869
0.0936138 -0.135667 0.86584
0.0921669 -0.135281 0.866127
0.0907739 -0.134963 0.866887
0.0894418 -0.134724 0.868202
0.0880996 -0.134475 0.86945
0.0867829 -0.134262 0.870963
0.0854616 -0.134047 0.872466
0.0841276 -0.13382 0.873886
0.0827712 -0.133565 0.875122
0.081428 -0.133333 0.876517
0.0800656 -0.133076 0.877755
0.0787018 -0.132821 0.879001
0.0773347 -0.132564 0.880251
0.0759914 -0.132345 0.881769
0.0746367 -0.132114 0.88321
0.073271 -0.131871 0.884579
0.0719251 -0.131662 0.886194
0.0706168 -0.131515 0.888277
0.0693024 -0.131365 0.890352
0.0679779 -0.131208 0.892376
0.207818 -0.169612 0.859623
0.206128 -0.169065 0.859109
0.204442 -0.16852 0.858604
0.202599 -0.167855 0.857432
0.20072 -0.167159 0.856088
0.198807 -0.166436 0.854573
0.196965 -0.165762 0.85333
0.195089 -0.16506 0.851919
0.193221 -0.16436 0.850516
0.191377 -0.163678 0.849192
0.18958 -0.163028 0.848044
0.187755 -0.162355 0.846754
0.185939 -0.161685 0.845477
0.184143 -0.161028 0.84426
0.182388 -0.160401 0.843208
0.180629 -0.159769 0.842113
0.178935 -0.159186 0.841294
0.177303 -0.158652 0.840744
0.175655 -0.158103 0.840104
0.17403 -0.15757 0.839556
0.172443 -0.157068 0.839174
0.170725 -0.156455 0.83815
0.169017 -0.155849 0.837154
0.167388 -0.155306 0.836519
0.165742 -0.154747 0.835786
0.164166 -0.154245 0.835377
0.16285 -0.153963 0.836252
0.16154 -0.153686 0.837164
0.160235 -0.153416 0.838115
0.159138 -0.153326 0.840137
0.158086 -0.15328 0.842425
0.157065 -0.153264 0.844904
0.156069 -0.153276 0.847556
0.155 -0.153226 0.84986
0.153747 -0.153017 0.851217
0.152416 -0.152739 0.852168
0.150974 -0.152361 0.852523
0.149486 -0.151943 0.852633
0.148012 -0.151536 0.852808
0.146504 -0.151098 0.852793
0.144952 -0.150618 0.852519
0.143412 -0.150149 0.852306
0.141847 -0.149654 0.851933
0.140283 -0.149158 0.851554
0.138737 -0.148678 0.85126
0.137223 -0.148227 0.851149
0.135716 -0.147782 0.851067
0.134268 -0.147394 0.851341
0.13278 -0.146965 0.85136
0.131289 -0.146533 0.851357
0.129754 -0.146057 0.851071
0.128196 -0.145555 0.850619
0.12656 -0.144973 0.84966
0.124938 -0.144402 0.848757
0.123301 -0.143813 0.847736
0.121669 -0.143225 0.846711
0.120006 -0.142601 0.845443
0.118352 -0.141983 0.844211
0.116726 -0.14139 0.843122
0.115134 -0.14083 0.842242
0.113572 -0.140298 0.84154
0.112079 -0.13984 0.841301
0.110645 -0.139444 0.841476
0.109236 -0.139075 0.841816
0.108169 -0.139089 0.844674
0.107351 -0.139389 0.849435
0.106622 -0.139804 0.854981
0.105833 -0.140165 0.860201
0.104873 -0.14034 0.864218
0.103634 -0.140201 0.866163
0.102175 -0.139805 0.866399
0.100663 -0.139347 0.866214
0.0991834 -0.138925 0.866272
0.0976642 -0.138455 0.865999
0.0961358 -0.137971 0.865631
0.0946569 -0.137546 0.86566
0.0931819 -0.137125 0.865715
0.091745 -0.136752 0.866092
0.0903528 -0.136436 0.866864
0.0890272 -0.136209 0.868245
0.0876829 -0.135959 0.869485
0.0863654 -0.135749 0.871001
0.0850344 -0.135525 0.872425
0.0837086 -0.135311 0.873931
0.0823518 -0.135058 0.875173
0.0810084 -0.134828 0.876575
0.0796464 -0.134574 0.877822
0.0782895 -0.134332 0.879155
0.0769131 -0.134065 0.880319
0.0755581 -0.133832 0.881728
0.0741846 -0.133575 0.882981
0.0728078 -0.133319 0.884234
0.0714443 -0.133086 0.885663
0.0701186 -0.132915 0.887552
0.0687945 -0.132754 0.889519
0.0674682 -0.132597 0.891524
0.207415 -0.171125 0.859549
0.20569 -0.170551 0.858895
0.204004 -0.170004 0.858387
0.20215 -0.169327 0.857167
0.200265 -0.168623 0.855792
0.198308 -0.16786 0.854087
0.196439 -0.167163 0.852728
0.194521 -0.166424 0.851132
0.192653 -0.165722 0.849724
0.190809 -0.165034 0.848389
0.189034 -0.164399 0.847334
0.187234 -0.163741 0.846146
0.185461 -0.163102 0.845055
0.183725 -0.162491 0.844108
0.18203 -0.16191 0.843326
0.180314 -0.161309 0.842426
0.178642 -0.160743 0.84171
0.177027 -0.160222 0.841246
0.175379 -0.159671 0.840609
0.173769 -0.15915 0.840137
0.172202 -0.158663 0.839852
0.1705 -0.158063 0.838916
0.168807 -0.157467 0.837996
0.167208 -0.156948 0.837512
0.165579 -0.156403 0.836873
0.16404 -0.155932 0.836659
0.162793 -0.155712 0.83789
0.161556 -0.155502 0.83919
0.16031 -0.155287 0.840461
0.159249 -0.155235 0.842697
0.158176 -0.155177 0.844904
0.157109 -0.155128 0.847177
0.156032 -0.155074 0.849429
0.154886 -0.154962 0.851348
0.153578 -0.154706 0.852426
0.152194 -0.154383 0.853108
0.1507 -0.15396 0.853194
0.149192 -0.153523 0.853197
0.1477 -0.1531 0.853282
0.146178 -0.152649 0.853196
0.144641 -0.152183 0.853013
0.143101 -0.151713 0.852808
0.141519 -0.151201 0.852339
0.139937 -0.150687 0.851859
0.138373 -0.15019 0.85147
0.136845 -0.149725 0.851276
0.135338 -0.149279 0.851201
0.133876 -0.148877 0.85139
0.132372 -0.148433 0.851315
0.13085 -0.147969 0.851119
0.129271 -0.147446 0.850552
0.12764 -0.146869 0.84964
0.125931 -0.146209 0.848197
0.124222 -0.145544 0.846721
0.122517 -0.144878 0.845221
0.120836 -0.144233 0.843844
0.119165 -0.143594 0.842495
0.117512 -0.142971 0.841232
0.115897 -0.142383 0.84019
0.11434 -0.141854 0.839512
0.112823 -0.141367 0.839094
0.111363 -0.140941 0.839067
0.10997 -0.140587 0.839505
0.108729 -0.140405 0.841054
0.107864 -0.140652 0.8454
0.107241 -0.141187 0.851644
0.10663 -0.141753 0.858128
0.105863 -0.142153 0.863567
0.104768 -0.142184 0.866611
0.103391 -0.141888 0.867507
0.101814 -0.141354 0.866835
0.100255 -0.140838 0.866275
0.0987616 -0.1404 0.866228
0.0972295 -0.139912 0.86585
0.0956994 -0.139425 0.865467
0.0942109 -0.138988 0.865416
0.0927382 -0.138569 0.865489
0.0913111 -0.138209 0.865954
0.0899176 -0.137893 0.866719
0.0885826 -0.137655 0.868023
0.0872365 -0.137406 0.869252
0.0859173 -0.137196 0.870758
0.0845767 -0.136961 0.872098
0.0832603 -0.136763 0.873698
0.0819129 -0.136526 0.875037
0.08058 -0.136313 0.876552
0.0792259 -0.136074 0.87789
0.0778685 -0.135833 0.879222
0.0764898 -0.135565 0.880372
0.0751234 -0.135319 0.881686
0.0737404 -0.135051 0.882839
0.0723549 -0.134783 0.884004
0.0709829 -0.134538 0.885342
0.0696325 -0.134333 0.886964
0.068299 -0.134159 0.888823
0.0669638 -0.13399 0.890727
0.207122 -0.172723 0.859924
0.205409 -0.172156 0.859323
0.203723 -0.171608 0.858818
0.201804 -0.170878 0.85733
0.199882 -0.170142 0.855801
0.197831 -0.169303 0.853699
0.195862 -0.168523 0.851906
0.193952 -0.167786 0.850339
0.192103 -0.167095 0.849006
0.190303 -0.166438 0.847856
0.188569 -0.165833 0.846979
0.186814 -0.165208 0.845986
0.185119 -0.16463 0.845244
0.183444 -0.164065 0.844568
0.181792 -0.163518 0.843986
0.180134 -0.162964 0.84336
0.178483 -0.162414 0.842751
0.176848 -0.161875 0.842199
0.175195 -0.161319 0.841545
0.173582 -0.160796 0.84107
0.172015 -0.160308 0.840794
0.17035 -0.159737 0.840039
0.168691 -0.159169 0.839295
0.167127 -0.158681 0.838999
0.165533 -0.158165 0.838538
0.164012 -0.157711 0.838433
0.162782 -0.157509 0.83977
0.161581 -0.157335 0.841271
0.160368 -0.157153 0.842734
0.159293 -0.157096 0.844925
0.158159 -0.15699 0.846846
0.157008 -0.156871 0.848699
0.155832 -0.156734 0.850449
0.154568 -0.156519 0.851757
0.153195 -0.156206 0.852495
0.15178 -0.155856 0.853013
0.150268 -0.155416 0.853002
0.148757 -0.154976 0.85299
0.147262 -0.154549 0.853058
0.14574 -0.154098 0.852972
0.144219 -0.153645 0.852878
0.142682 -0.153177 0.852687
0.141084 -0.152649 0.852132
0.1395 -0.152132 0.851641
0.137934 -0.15163 0.851233
0.136391 -0.151149 0.850952
0.134884 -0.150703 0.850877
0.133408 -0.150286 0.850975
0.131889 -0.149825 0.850806
0.130337 -0.14933 0.85042
0.128702 -0.148749 0.849502
0.126986 -0.148079 0.84803
0.125203 -0.147337 0.846095
0.12342 -0.146589 0.844111
0.121675 -0.145874 0.842319
0.119987 -0.145214 0.840862
0.118353 -0.144608 0.839729
0.116763 -0.144045 0.838856
0.11521 -0.143519 0.838209
0.113698 -0.143036 0.837827
0.112221 -0.14259 0.837675
0.110787 -0.142189 0.837811
0.109532 -0.141991 0.839236
0.108441 -0.141981 0.841881
0.107735 -0.142421 0.847427
0.106596 -0.143667 0.860978
0.105706 -0.143939 0.865539
0.104488 -0.143832 0.86766
0.102999 -0.143404 0.867698
0.101404 -0.142846 0.866882
0.0998189 -0.142297 0.866117
0.0983031 -0.14183 0.865886
0.0967599 -0.141327 0.865412
0.09523 -0.140838 0.865026
0.0937425 -0.140401 0.864981
0.0922809 -0.139996 0.865149
0.0908662 -0.139652 0.865721
0.0894732 -0.139338 0.866494
0.0881362 -0.1391 0.867785
0.0867886 -0.13885 0.869005
0.0854503 -0.138617 0.87034
0.0841083 -0.138382 0.871669
0.0827916 -0.138186 0.873271
0.0814447 -0.137952 0.874618
0.0801224 -0.137757 0.87624
0.0787866 -0.137546 0.877764
0.0774294 -0.137309 0.879113
0.076057 -0.137053 0.880338
0.0746901 -0.136808 0.881646
0.0732965 -0.136527 0.882702
0.0719107 -0.136261 0.883872
0.0705387 -0.136018 0.885213
0.06918 -0.135803 0.88675
0.0678439 -0.135629 0.888591
0.0665142 -0.135473 0.890566
0.0663449 -0.135018 0.901267
0.0651723 -0.135303 0.89246
0.203428 -0.173205 0.859196
0.201416 -0.172399 0.857321
0.199404 -0.171589 0.855411
0.197221 -0.170639 0.852743
0.195244 -0.169848 0.850909
0.19336 -0.169127 0.849443
0.191537 -0.168453 0.848216
0.189801 -0.167845 0.847342
0.188116 -0.167276 0.846673
0.186404 -0.166684 0.845871
0.184789 -0.166169 0.845485
0.183175 -0.165653 0.845089
0.181588 -0.165158 0.844804
0.179972 -0.164638 0.844379
0.178355 -0.164115 0.843933
0.176712 -0.163569 0.843354
0.175069 -0.163021 0.842761
0.173454 -0.162496 0.842285
0.171906 -0.162026 0.842115
0.170279 -0.161486 0.841552
0.168656 -0.160949 0.840998
0.167111 -0.160478 0.840809
0.165534 -0.159977 0.840451
0.164045 -0.159552 0.840519
0.162812 -0.159352 0.841863
0.161621 -0.159193 0.843443
0.160385 -0.158995 0.844812
0.159251 -0.15889 0.846723
0.158023 -0.158705 0.848175
0.156775 -0.158503 0.84954
0.155492 -0.158271 0.850737
0.154158 -0.157995 0.851682
0.152753 -0.157654 0.852251
0.151322 -0.157289 0.852683
0.14981 -0.156848 0.852671
0.148283 -0.156392 0.852568
0.146773 -0.155951 0.85255
0.14525 -0.155497 0.852455
0.143729 -0.155044 0.852363
0.142181 -0.154562 0.852099
0.140585 -0.154034 0.851552
0.139 -0.153514 0.85105
0.137419 -0.152995 0.850547
0.135862 -0.152499 0.850176
0.134355 -0.152051 0.850095
0.132865 -0.151619 0.850102
0.131306 -0.151116 0.849681
0.129725 -0.150588 0.849105
0.128037 -0.149947 0.847831
0.126239 -0.149188 0.845827
0.124401 -0.14838 0.843507
0.122604 -0.147608 0.841395
0.120841 -0.146867 0.839454
0.119188 -0.146237 0.838195
0.117626 -0.145703 0.837514
0.116105 -0.145211 0.837093
0.114598 -0.144731 0.836739
0.113125 -0.144289 0.836618
0.111788 -0.143996 0.837434
0.110485 -0.143745 0.838514
0.109375 -0.143716 0.841002
0.10846 -0.143918 0.844968
0.107898 -0.144542 0.851638
0.107243 -0.145075 0.857769
0.106539 -0.145567 0.86367
0.105503 -0.145678 0.867166
0.104139 -0.145401 0.868183
0.102536 -0.144835 0.867333
0.100931 -0.144262 0.866431
0.0993362 -0.143698 0.86558
0.0978225 -0.143232 0.865362
0.0962808 -0.142729 0.864894
0.0947605 -0.14225 0.864584
0.0932839 -0.141826 0.864629
0.0918242 -0.141424 0.864812
0.0904011 -0.141069 0.865311
0.0890167 -0.140767 0.866161
0.08767 -0.140518 0.867367
0.0863129 -0.140257 0.868503
0.0849644 -0.140011 0.869743
0.0836211 -0.139776 0.87106
0.0823021 -0.139579 0.872641
0.0809645 -0.13936 0.87408
0.0796525 -0.139183 0.875806
0.0783272 -0.13899 0.877442
0.0769782 -0.138769 0.878886
0.0756065 -0.138516 0.88012
0.0742383 -0.138272 0.881424
0.0728376 -0.13798 0.8824
0.0714593 -0.137727 0.88365
0.0700858 -0.137486 0.884995
0.0687261 -0.137271 0.886526
0.0673885 -0.137099 0.888357
0.0660563 -0.136943 0.890319
0.0647147 -0.136777 0.892217
0.203101 -0.17478 0.859445
0.200996 -0.173896 0.857178
0.196598 -0.171963 0.85173
0.194586 -0.171139 0.84974
0.192757 -0.170457 0.848498
0.190986 -0.169821 0.84749
0.189321 -0.169269 0.846923
0.187684 -0.168737 0.846463
0.186036 -0.168195 0.845946
0.184503 -0.167747 0.845928
0.182971 -0.167298 0.845905
0.181466 -0.166872 0.846004
0.179925 -0.166414 0.845932
0.178325 -0.165906 0.84558
0.176658 -0.16534 0.844903
0.175005 -0.164784 0.844278
0.173369 -0.16424 0.843713
0.171805 -0.163756 0.84348
0.170213 -0.163248 0.843101
0.168645 -0.162758 0.842823
0.167118 -0.162303 0.842739
0.165556 -0.161817 0.842474
0.164078 -0.161403 0.842616
0.162802 -0.16117 0.843771
0.161567 -0.160975 0.845147
0.160285 -0.16074 0.846301
0.159059 -0.160558 0.847757
0.15774 -0.160292 0.848749
0.156417 -0.160025 0.849729
0.155047 -0.159715 0.850475
0.153647 -0.159378 0.851063
0.152223 -0.159019 0.851528
0.150775 -0.158637 0.851861
0.149265 -0.158197 0.851855
0.147727 -0.157729 0.851686
0.146203 -0.157273 0.851585
0.144679 -0.156816 0.851475
0.143158 -0.156361 0.851374
0.141596 -0.155865 0.851029
0.140017 -0.15535 0.850568
0.138448 -0.154843 0.850147
0.13687 -0.154325 0.849657
0.135274 -0.153787 0.849045
0.133737 -0.153307 0.848773
0.132191 -0.152816 0.848429
0.130589 -0.152265 0.847723
0.128972 -0.151695 0.846897
0.127258 -0.151021 0.845439
0.125438 -0.15023 0.843258
0.123615 -0.14943 0.841007
0.121828 -0.148661 0.838931
0.120114 -0.147965 0.837283
0.11856 -0.147438 0.836659
0.117104 -0.147016 0.836679
0.115675 -0.146623 0.83687
0.114251 -0.146235 0.837097
0.112861 -0.145886 0.837557
0.111636 -0.145724 0.839188
0.11044 -0.145601 0.841063
0.109433 -0.145699 0.844333
0.108629 -0.146045 0.849176
0.107951 -0.146552 0.855059
0.1071 -0.14687 0.859784
0.106196 -0.147137 0.864215
0.105009 -0.147073 0.866565
0.103538 -0.146666 0.866742
0.101977 -0.146148 0.866207
0.100401 -0.145607 0.865524
0.0988432 -0.145086 0.864959
0.0973431 -0.144635 0.864845
0.095824 -0.144159 0.864561
0.0943253 -0.143707 0.864432
0.0928496 -0.143284 0.864486
0.0913902 -0.142881 0.864672
0.0899557 -0.142512 0.865075
0.0885514 -0.142184 0.865749
0.0871832 -0.141907 0.866761
0.0858159 -0.141633 0.867802
0.0844486 -0.141362 0.868864
0.083105 -0.141128 0.870174
0.0817759 -0.140918 0.871653
0.0804385 -0.1407 0.873087
0.079135 -0.140537 0.874894
0.0778292 -0.140377 0.87673
0.0764921 -0.140174 0.878286
0.0751376 -0.139949 0.879705
0.0737769 -0.13972 0.881094
0.0723759 -0.139429 0.88207
0.0710043 -0.139189 0.883407
0.0696316 -0.138951 0.884757
0.0682716 -0.138739 0.886293
0.0669322 -0.138569 0.888124
0.0656079 -0.138429 0.89018
0.0642579 -0.138253 0.891993
0.202782 -0.176363 0.859725
0.195959 -0.17327 0.850646
0.193986 -0.172472 0.848812
0.192253 -0.171866 0.84798
0.190575 -0.171303 0.847373
0.188971 -0.170799 0.847072
0.187424 -0.170341 0.847016
0.185858 -0.169866 0.846865
0.184424 -0.169501 0.847304
0.182993 -0.169138 0.84775
0.181569 -0.168782 0.848236
0.180088 -0.168377 0.84846
0.178468 -0.167853 0.848035
0.176736 -0.167232 0.847077
0.175037 -0.166636 0.846251
0.173341 -0.166041 0.845421
0.171739 -0.165525 0.845019
0.170162 -0.165029 0.844723
0.168624 -0.164566 0.844608
0.16708 -0.164098 0.844458
0.165513 -0.163608 0.844187
0.164026 -0.163189 0.844301
0.162695 -0.162909 0.845196
0.161385 -0.16265 0.846207
0.160042 -0.162363 0.847064
0.158741 -0.162114 0.848141
0.157351 -0.161786 0.848774
0.155976 -0.16147 0.849482
0.154554 -0.161113 0.849954
0.153085 -0.160711 0.850169
0.151609 -0.160302 0.850347
0.150114 -0.159875 0.850418
0.148591 -0.15942 0.850329
0.147042 -0.158939 0.850085
0.14552 -0.158483 0.849985
0.143996 -0.158023 0.84986
0.142476 -0.157567 0.849753
0.140903 -0.157056 0.849324
0.139328 -0.156542 0.848872
0.137776 -0.156049 0.84854
0.136189 -0.155518 0.847979
0.13458 -0.154964 0.847274
0.13303 -0.154466 0.846902
0.131467 -0.153953 0.846432
0.129837 -0.153369 0.845531
0.128231 -0.152806 0.844757
0.126533 -0.152143 0.843371
0.124748 -0.151383 0.841395
0.122974 -0.150627 0.839432
0.121285 -0.149958 0.837978
0.119685 -0.149381 0.837071
0.118255 -0.14899 0.837284
0.116908 -0.148689 0.838045
0.115578 -0.148411 0.838942
0.114216 -0.148097 0.839626
0.112853 -0.147782 0.840309
0.11167 -0.147676 0.842278
0.110534 -0.147631 0.844628
0.109582 -0.147806 0.848359
0.108741 -0.148124 0.852993
0.10787 -0.148418 0.857508
0.106816 -0.148505 0.860749
0.105703 -0.148527 0.863609
0.104377 -0.148296 0.864889
0.102916 -0.147899 0.865127
0.101397 -0.147429 0.864901
0.0998608 -0.146935 0.864524
0.098351 -0.146473 0.864341
0.0968656 -0.14604 0.864345
0.0953605 -0.14558 0.864173
0.0938744 -0.145144 0.864147
0.0923889 -0.144707 0.864116
0.090919 -0.14429 0.86421
0.0894727 -0.143904 0.864504
0.0880552 -0.143558 0.865058
0.0866653 -0.143251 0.86587
0.0852881 -0.142964 0.866813
0.0839104 -0.142678 0.867768
0.0825589 -0.142433 0.868994
0.081221 -0.142211 0.870379
0.0798833 -0.141994 0.871801
0.0785893 -0.141847 0.873696
0.0772943 -0.141704 0.875632
0.075976 -0.141532 0.877381
0.0746411 -0.141339 0.878993
0.0732977 -0.141138 0.880564
0.0719036 -0.140861 0.881626
0.070541 -0.140638 0.883062
0.069168 -0.140402 0.884418
0.0678086 -0.140194 0.885968
0.0664695 -0.140026 0.887803
0.0651519 -0.139903 0.889952
0.0638017 -0.139731 0.891777
0.0629072 -0.138084 0.893864
0.062457 -0.139577 0.893733
0.191807 -0.173322 0.847716
0.190213 -0.172826 0.847469
0.188707 -0.172403 0.847604
0.187234 -0.172007 0.847881
0.185787 -0.171633 0.848271
0.184456 -0.171357 0.849185
0.183147 -0.1711 0.850207
0.181786 -0.170801 0.851001
0.180361 -0.170446 0.851504
0.178697 -0.169887 0.850903
0.1769 -0.169209 0.849662
0.175112 -0.168535 0.848436
0.173347 -0.167879 0.847292
0.171684 -0.167311 0.846619
0.170084 -0.166795 0.846226
0.168541 -0.166329 0.846102
0.166973 -0.16584 0.845851
0.165386 -0.165332 0.845489
0.163861 -0.164879 0.845423
0.162472 -0.164549 0.846043
0.161089 -0.164226 0.846696
0.159676 -0.163875 0.847195
0.158303 -0.163562 0.847912
0.156862 -0.163186 0.848276
0.155436 -0.162824 0.848718
0.153981 -0.162434 0.849003
0.152475 -0.161997 0.849021
0.150964 -0.161552 0.848996
0.149434 -0.16109 0.848865
0.147895 -0.160617 0.848677
0.146333 -0.16012 0.848344
0.144799 -0.159649 0.848161
0.143262 -0.159174 0.847949
0.141715 -0.158688 0.847668
0.140129 -0.158161 0.847146
0.138544 -0.157632 0.846614
0.137011 -0.157155 0.846372
0.135431 -0.156627 0.845835
0.133827 -0.156072 0.845134
0.132262 -0.155556 0.844652
0.130692 -0.155032 0.84412
0.129051 -0.154429 0.843122
0.127465 -0.153884 0.842449
0.125832 -0.153283 0.841451
0.124147 -0.152624 0.840093
0.122499 -0.152 0.838932
0.120952 -0.151483 0.838404
0.119489 -0.151058 0.838418
0.11817 -0.150792 0.839391
0.116894 -0.150577 0.840668
0.115619 -0.150366 0.841976
0.114296 -0.150101 0.842967
0.112958 -0.149822 0.843871
0.111798 -0.149753 0.84606
0.110719 -0.149785 0.848873
0.109766 -0.149974 0.852668
0.108793 -0.150149 0.856398
0.107742 -0.150241 0.859631
0.106523 -0.150135 0.86166
0.105224 -0.149935 0.863119
0.103773 -0.149549 0.863425
0.102315 -0.149154 0.863673
0.100845 -0.148743 0.863821
0.0993456 -0.148293 0.863725
0.0978715 -0.147875 0.863825
0.0964094 -0.147472 0.864019
0.0949167 -0.147027 0.863949
0.0934319 -0.146592 0.863934
0.0919467 -0.146155 0.863906
0.0904743 -0.145734 0.863978
0.0889954 -0.145302 0.863985
0.0875562 -0.144926 0.864339
0.0861365 -0.144577 0.864871
0.0847378 -0.144259 0.865605
0.0833431 -0.143948 0.866389
0.0819913 -0.143702 0.8676
0.0806466 -0.143471 0.868907
0.0793185 -0.143268 0.870409
0.0780164 -0.14311 0.87221
0.0767296 -0.142982 0.874224
0.0754236 -0.14283 0.876084
0.0741078 -0.142669 0.877896
0.0727762 -0.142488 0.879584
0.0714069 -0.142252 0.880912
0.0700537 -0.142046 0.882447
0.0686888 -0.141826 0.883901
0.0673375 -0.141635 0.885551
0.0660055 -0.141483 0.887472
0.0646939 -0.141375 0.889711
0.0633588 -0.141233 0.891722
0.0620225 -0.141099 0.893798
0.189958 -0.174441 0.848035
0.188503 -0.174061 0.848399
0.187101 -0.173727 0.849003
0.185796 -0.173475 0.850041
0.184535 -0.173261 0.851286
0.183332 -0.1731 0.852811
0.182064 -0.172885 0.854057
0.180656 -0.17255 0.854669
0.178962 -0.171964 0.853951
0.177111 -0.171239 0.852479
0.175228 -0.170482 0.850828
0.173357 -0.169731 0.849198
0.17161 -0.169087 0.848134
0.169913 -0.168485 0.847286
0.168328 -0.167982 0.846969
0.166706 -0.167444 0.846458
0.165096 -0.166914 0.845989
0.16355 -0.166441 0.845823
0.162141 -0.166094 0.846346
0.160706 -0.165724 0.84674
0.159253 -0.165337 0.847041
0.157811 -0.164959 0.847398
0.156334 -0.164549 0.847568
0.154844 -0.164126 0.84767
0.153355 -0.163703 0.847772
0.151832 -0.163247 0.847685
0.150317 -0.162797 0.847631
0.148757 -0.162302 0.847322
0.147217 -0.161826 0.847115
0.145653 -0.161324 0.846761
0.144106 -0.160837 0.846486
0.142542 -0.160333 0.846108
0.140982 -0.159829 0.845731
0.139382 -0.159284 0.845115
0.137783 -0.158737 0.844478
0.136243 -0.158248 0.844172
0.134666 -0.15772 0.843634
0.133068 -0.157167 0.842947
0.131517 -0.15666 0.842526
0.129955 -0.156141 0.842025
0.128334 -0.155556 0.841136
0.126784 -0.155043 0.840663
0.125239 -0.154535 0.84021
0.12366 -0.153987 0.839521
0.122171 -0.153535 0.839388
0.120764 -0.153173 0.839789
0.119423 -0.152887 0.840636
0.118186 -0.152719 0.842189
0.116969 -0.152579 0.843913
0.115729 -0.152415 0.845503
0.11444 -0.152198 0.846785
0.113146 -0.151977 0.848048
0.112006 -0.151942 0.850437
0.110925 -0.151985 0.853306
0.109824 -0.15201 0.856083
0.108701 -0.152016 0.85876
0.107493 -0.151924 0.860854
0.106134 -0.15165 0.861843
0.104695 -0.151278 0.862235
0.103245 -0.150893 0.862543
0.101789 -0.150498 0.862796
0.100331 -0.150102 0.863038
0.0988452 -0.149668 0.863042
0.0973939 -0.149279 0.863325
0.095953 -0.148903 0.863692
0.0944709 -0.148472 0.86371
0.0929859 -0.148036 0.863693
0.0914985 -0.147595 0.863645
0.090015 -0.147158 0.863618
0.0885075 -0.146685 0.863367
0.0870477 -0.146279 0.863528
0.0855979 -0.145886 0.863778
0.0841703 -0.145525 0.864231
0.0827651 -0.145197 0.8649
0.0814057 -0.14494 0.866022
0.0800639 -0.144712 0.86734
0.0787368 -0.144511 0.868839
0.077435 -0.144354 0.87063
0.0761487 -0.144228 0.872628
0.0748606 -0.144105 0.874664
0.0735565 -0.143964 0.876588
0.0722443 -0.143818 0.878487
0.0709019 -0.143627 0.880102
0.0695659 -0.143452 0.881824
0.0682099 -0.143249 0.883381
0.0668666 -0.143074 0.88512
0.0655477 -0.14295 0.887218
0.0642437 -0.142861 0.889555
0.062916 -0.142738 0.891677
0.0615877 -0.142623 0.893868
0.191346 -0.176598 0.849055
0.189857 -0.176191 0.849282
0.188422 -0.17583 0.849749
0.187108 -0.175572 0.850751
0.185908 -0.175414 0.852279
0.184714 -0.175263 0.85385
0.183576 -0.175164 0.855697
0.182362 -0.175001 0.857217
0.180926 -0.174644 0.857726
0.179181 -0.174016 0.8568
0.177246 -0.173215 0.854952
0.175274 -0.172377 0.852897
0.173295 -0.171528 0.85077
0.171462 -0.170805 0.849301
0.169669 -0.170115 0.847999
0.168042 -0.169572 0.84748
0.166379 -0.168995 0.846768
0.164748 -0.168446 0.846203
0.163167 -0.16794 0.845866
0.161741 -0.167578 0.846306
0.160269 -0.167173 0.84651
0.158778 -0.166749 0.846617
0.157281 -0.16632 0.846688
0.155766 -0.165872 0.846656
0.154242 -0.165414 0.846566
0.152737 -0.164974 0.846573
0.151186 -0.164489 0.846326
0.14966 -0.164026 0.846204
0.148086 -0.163515 0.845807
0.146532 -0.163022 0.84551
0.144969 -0.162518 0.845147
0.143424 -0.162031 0.84487
0.141849 -0.161511 0.844412
0.140272 -0.160988 0.843926
0.138657 -0.160423 0.843199
0.13703 -0.159843 0.842381
0.135479 -0.159339 0.841991
0.133906 -0.15881 0.841452
0.132314 -0.158258 0.840781
0.130771 -0.157757 0.840392
0.129231 -0.157257 0.840002
0.12771 -0.156775 0.839718
0.126251 -0.15636 0.839813
0.124823 -0.155978 0.8401
0.123397 -0.155597 0.840393
0.122048 -0.155304 0.841194
0.12072 -0.155035 0.84214
0.119462 -0.154847 0.843572
0.118263 -0.154732 0.845429
0.117048 -0.154601 0.847205
0.11582 -0.154459 0.848925
0.114547 -0.154269 0.850368
0.113283 -0.154091 0.851891
0.112041 -0.153945 0.853607
0.110848 -0.153862 0.855713
0.109607 -0.153726 0.857502
0.108346 -0.153569 0.85918
0.107002 -0.153313 0.860265
0.10563 -0.153024 0.861157
0.10418 -0.152638 0.86146
0.102742 -0.152265 0.861849
0.101298 -0.151886 0.862194
0.099863 -0.151519 0.862615
0.0983999 -0.151115 0.862806
0.0969701 -0.150754 0.863265
0.0955294 -0.150379 0.863638
0.0940553 -0.149959 0.863727
0.0925588 -0.149506 0.863615
0.0910509 -0.149036 0.863389
0.0895475 -0.14857 0.863186
0.0880295 -0.148081 0.862834
0.0865323 -0.147619 0.862652
0.0850526 -0.147181 0.862614
0.0836041 -0.146788 0.862859
0.0821803 -0.146431 0.863336
0.0808144 -0.146163 0.864377
0.079474 -0.145937 0.865695
0.0781494 -0.14574 0.8672
0.076847 -0.145583 0.868971
0.0755685 -0.14547 0.871039
0.0742884 -0.145362 0.873146
0.0730126 -0.145269 0.875365
0.071721 -0.145157 0.877464
0.070405 -0.145013 0.879373
0.0690841 -0.144868 0.881276
0.0677381 -0.144685 0.882943
0.0663951 -0.144513 0.884691
0.065091 -0.14442 0.886975
0.0638014 -0.144362 0.889497
0.0624891 -0.144274 0.891836
0.0611829 -0.144206 0.894326
0.192639 -0.178678 0.849642
0.191216 -0.178328 0.850168
0.189738 -0.177931 0.850455
0.188358 -0.177619 0.851173
0.187132 -0.17744 0.852586
0.18603 -0.177372 0.854571
0.184864 -0.177251 0.856293
0.183761 -0.177189 0.858327
0.182558 -0.17704 0.85992
0.181054 -0.176628 0.860144
0.179286 -0.175978 0.859123
0.177322 -0.17515 0.857163
0.175276 -0.174243 0.85477
0.173212 -0.173313 0.852244
0.171311 -0.172526 0.850461
0.169416 -0.17174 0.848668
0.167697 -0.171112 0.847706
0.165994 -0.170497 0.846801
0.164345 -0.169928 0.846141
0.162746 -0.169405 0.845719
0.161289 -0.169014 0.846001
0.159797 -0.168589 0.846104
0.158285 -0.168145 0.846098
0.156734 -0.167662 0.845882
0.155185 -0.16718 0.845667
0.15364 -0.1667 0.84546
0.15212 -0.166244 0.845383
0.150555 -0.165743 0.84505
0.149049 -0.165297 0.845024
0.147482 -0.16479 0.844655
0.145933 -0.164299 0.844372
0.144387 -0.163811 0.844098
0.142844 -0.163323 0.843826
0.141256 -0.162788 0.843284
0.139665 -0.162247 0.842707
0.138033 -0.16166 0.841867
0.136378 -0.161047 0.840873
0.134812 -0.160524 0.840375
0.133215 -0.159966 0.839683
0.131664 -0.159454 0.83924
0.130169 -0.159001 0.839128
0.128757 -0.158638 0.839526
0.127371 -0.158303 0.840085
0.126039 -0.15803 0.840994
0.124722 -0.157773 0.842006
0.123401 -0.157515 0.843012
0.122098 -0.157279 0.844149
0.120808 -0.157059 0.845384
0.11957 -0.156902 0.846991
0.118336 -0.156754 0.848656
0.11708 -0.156584 0.850201
0.115804 -0.156394 0.851635
0.114501 -0.156174 0.852901
0.113189 -0.155945 0.854119
0.111884 -0.155729 0.855416
0.110613 -0.155557 0.856981
0.10929 -0.155325 0.858195
0.10794 -0.155061 0.859222
0.106558 -0.154759 0.860028
0.105172 -0.154454 0.860819
0.103733 -0.154081 0.861202
0.102304 -0.153722 0.861669
0.100873 -0.15336 0.862118
0.0994503 -0.15301 0.862642
0.0979992 -0.152622 0.862935
0.0965701 -0.152263 0.863407
0.0951292 -0.151889 0.863784
0.093645 -0.151454 0.863792
0.0921365 -0.150985 0.863581
0.0906172 -0.150497 0.863257
0.0891027 -0.150014 0.862955
0.0875652 -0.149495 0.862426
0.0860473 -0.149002 0.862049
0.0845373 -0.148517 0.861725
0.0830682 -0.148091 0.861764
0.0816258 -0.147705 0.86205
0.0802602 -0.147437 0.863083
0.0789227 -0.147216 0.864417
0.077607 -0.147033 0.866002
0.0762968 -0.146865 0.867686
0.0750092 -0.146739 0.869648
0.0737214 -0.146621 0.871668
0.0724555 -0.146546 0.873977
0.0711749 -0.146455 0.876192
0.0698855 -0.146359 0.878387
0.0685891 -0.146258 0.880568
0.0672598 -0.146107 0.882424
0.0659315 -0.145965 0.884357
0.0646437 -0.145907 0.88684
0.0633688 -0.145884 0.889573
0.0620728 -0.145831 0.892127
0.0607876 -0.145812 0.89491
0.194234 -0.181018 0.851511
0.192618 -0.180505 0.851219
0.191126 -0.180098 0.851461
0.189656 -0.17971 0.851798
0.188304 -0.179424 0.852652
0.187156 -0.179319 0.854432
0.186091 -0.179289 0.856604
0.184922 -0.17917 0.858334
0.183771 -0.179071 0.860166
0.182521 -0.178886 0.861567
0.18095 -0.178414 0.861489
0.179177 -0.177759 0.86046
0.177178 -0.176896 0.858342
0.175115 -0.175969 0.855875
0.173027 -0.175013 0.853242
0.171082 -0.174182 0.851252
0.169108 -0.173319 0.849079
0.167331 -0.172634 0.847829
0.165573 -0.171965 0.846653
0.163903 -0.171375 0.84589
0.162273 -0.170821 0.845308
0.160799 -0.170412 0.845501
0.159273 -0.169954 0.845427
0.157741 -0.16949 0.845316
0.156142 -0.168958 0.844841
0.154576 -0.168458 0.844532
0.153016 -0.167961 0.844238
0.151497 -0.167503 0.844149
0.149964 -0.167031 0.84398
0.148492 -0.166619 0.844133
0.146959 -0.166144 0.843947
0.145429 -0.165672 0.843771
0.143916 -0.165214 0.843673
0.142375 -0.164727 0.843409
0.140775 -0.164177 0.842792
0.139171 -0.16362 0.842136
0.137537 -0.163029 0.841282
0.135868 -0.162397 0.840196
0.134273 -0.161841 0.839523
0.132688 -0.161293 0.838889
0.131218 -0.160867 0.838939
0.129812 -0.160512 0.839379
0.128508 -0.160268 0.84045
0.127239 -0.160066 0.841761
0.125995 -0.159894 0.843253
0.12471 -0.15968 0.844508
0.123426 -0.159469 0.845782
0.122149 -0.159269 0.847127
0.120851 -0.159047 0.848354
0.119588 -0.158868 0.849831
0.118319 -0.158686 0.851294
0.117016 -0.158467 0.852555
0.115674 -0.158204 0.85356
0.11433 -0.15794 0.854565
0.112988 -0.15768 0.855601
0.111645 -0.157421 0.856646
0.110311 -0.157176 0.857775
0.108937 -0.156884 0.858626
0.107544 -0.156569 0.859351
0.106124 -0.15622 0.859877
0.104715 -0.155885 0.860486
0.103288 -0.155528 0.860965
0.101872 -0.155186 0.861532
0.100453 -0.154841 0.862086
0.0990428 -0.154509 0.862712
0.0976027 -0.154136 0.863101
0.0961742 -0.15378 0.863586
0.0947328 -0.153406 0.863966
0.0932479 -0.152971 0.863975
0.0917377 -0.152498 0.863752
0.0902079 -0.151995 0.863341
0.0886713 -0.151479 0.862845
0.0871123 -0.150926 0.86212
0.0855637 -0.150385 0.861458
0.0840244 -0.149854 0.860852
0.0825442 -0.149409 0.860775
0.0811016 -0.149021 0.861048
0.079747 -0.14877 0.862181
0.0784192 -0.148566 0.863607
0.077113 -0.148401 0.865286
0.0757852 -0.148206 0.866787
0.0744877 -0.148067 0.868645
0.0731829 -0.147921 0.870474
0.0719169 -0.147849 0.872777
0.0706374 -0.147764 0.875011
0.069374 -0.147714 0.877481
0.0680953 -0.147649 0.879863
0.0667813 -0.147529 0.881908
0.0654694 -0.147421 0.884041
0.064204 -0.147409 0.886806
0.0629456 -0.147423 0.889755
0.0616707 -0.14742 0.892604
0.060406 -0.14745 0.895692
0.194352 -0.182973 0.853684
0.19264 -0.182378 0.852994
0.191117 -0.181946 0.853112
0.189656 -0.181567 0.853504
0.188313 -0.181293 0.854419
0.187162 -0.181189 0.856201
0.186053 -0.181127 0.858197
0.184814 -0.18095 0.859626
0.183574 -0.180776 0.861067
0.182256 -0.180532 0.862162
0.180623 -0.180004 0.861804
0.178883 -0.179377 0.860933
0.176923 -0.178546 0.859001
0.174905 -0.177655 0.856749
0.172823 -0.176699 0.854148
0.170851 -0.17584 0.852032
0.168818 -0.174918 0.849574
0.166963 -0.174158 0.84795
0.165135 -0.173418 0.846421
0.163445 -0.172806 0.845555
0.161796 -0.172231 0.844874
0.160271 -0.171774 0.844809
0.158695 -0.171266 0.844471
0.157143 -0.170779 0.844246
0.155514 -0.170216 0.843609
0.153952 -0.169717 0.843309
0.152414 -0.16924 0.843121
0.150913 -0.168798 0.843123
0.149412 -0.168356 0.843121
0.147986 -0.16799 0.843525
0.146504 -0.167566 0.843617
0.145027 -0.167146 0.843729
0.143573 -0.16675 0.843972
0.142075 -0.166308 0.843959
0.140504 -0.165787 0.843517
0.138929 -0.16526 0.843033
0.137326 -0.164701 0.842369
0.135696 -0.16411 0.841525
0.134113 -0.163567 0.840942
0.132567 -0.163062 0.84056
0.131128 -0.162673 0.84082
0.129753 -0.162354 0.841473
0.128473 -0.162143 0.842725
0.127236 -0.161982 0.844267
0.125987 -0.161812 0.845762
0.124705 -0.161607 0.847064
0.123412 -0.161391 0.848315
0.122099 -0.161155 0.849456
0.120764 -0.160895 0.850465
0.119477 -0.160695 0.851817
0.118163 -0.160466 0.853009
0.116834 -0.16022 0.854108
0.115476 -0.159941 0.855026
0.114114 -0.15966 0.85593
0.112738 -0.159363 0.85675
0.111366 -0.159072 0.857602
0.109968 -0.15875 0.858279
0.108555 -0.15841 0.858855
0.107123 -0.158046 0.85929
0.105679 -0.157667 0.859636
0.104249 -0.157305 0.860086
0.102845 -0.156979 0.860746
0.101443 -0.156657 0.861429
0.100038 -0.15633 0.86209
0.0986384 -0.156014 0.862812
0.0972071 -0.155654 0.863279
0.0957763 -0.155296 0.863752
0.0943337 -0.154921 0.86413
0.0928482 -0.154485 0.864137
0.0913386 -0.154013 0.863926
0.0898071 -0.153506 0.863503
0.0882504 -0.15296 0.862831
0.0866779 -0.152385 0.861983
0.085108 -0.15181 0.861122
0.0835488 -0.151246 0.860324
0.0820512 -0.150772 0.860076
0.0806177 -0.150397 0.860432
0.0792569 -0.150138 0.861502
0.0779308 -0.149938 0.862944
0.076626 -0.149778 0.864638
0.0752953 -0.14958 0.86611
0.0739795 -0.149413 0.867776
0.0726628 -0.14925 0.869477
0.0713942 -0.149177 0.871753
0.0701229 -0.149108 0.874069
0.0688691 -0.14908 0.876654
0.067609 -0.149052 0.879247
0.0663184 -0.148978 0.88157
0.0650365 -0.148932 0.884076
0.0637865 -0.148956 0.887051
0.0625443 -0.149009 0.890221
0.0612822 -0.149039 0.893263
0.0600305 -0.149105 0.896555
0.0597523 -0.148721 0.906934
0.0587234 -0.149074 0.899242
0.196087 -0.185448 0.856112
0.194416 -0.184891 0.85563
0.192694 -0.184288 0.854912
0.191159 -0.183847 0.855
0.189714 -0.183485 0.855479
0.188346 -0.183192 0.856302
0.187131 -0.183036 0.857814
0.185914 -0.182881 0.859338
0.184579 -0.182623 0.860347
0.18323 -0.182352 0.861296
0.18181 -0.182018 0.861926
0.180135 -0.18145 0.861374
0.178395 -0.180821 0.860498
0.176461 -0.180008 0.858683
0.174503 -0.179168 0.856714
0.172483 -0.178264 0.854407
0.170534 -0.177422 0.852403
0.168513 -0.176506 0.850005
0.166618 -0.175704 0.848181
0.164733 -0.174906 0.846368
0.163004 -0.174255 0.845306
0.161301 -0.173625 0.844348
