ply
format ascii 1.0
element vertex 1708
property float x
property float y
property float z
end_header
0.252259 -0.115634 0.753435
0.252823 -0.11446 0.753735
0.253421 -0.113299 0.754131
0.254049 -0.11215 0.754617
0.25467 -0.110997 0.755081
0.255311 -0.109851 0.755601
0.255834 -0.108655 0.755772
0.256406 -0.107478 0.756088
0.257001 -0.10631 0.75647
0.257629 -0.105153 0.756948
0.258211 -0.103977 0.757291
0.258934 -0.102854 0.758044
0.259613 -0.101711 0.75867
0.260276 -0.100561 0.759243
0.260984 -0.0994248 0.759945
0.261689 -0.0982855 0.760639
0.2623 -0.0971111 0.761056
0.26288 -0.0959249 0.761383
0.263502 -0.094752 0.76183
0.264129 -0.0935792 0.76229
0.264817 -0.0924254 0.762925
0.265641 -0.0913131 0.763949
0.266647 -0.0902555 0.765491
0.267747 -0.0892221 0.767301
0.268889 -0.0881952 0.769224
0.270032 -0.0871616 0.771141
0.271247 -0.0861433 0.773259
0.272371 -0.0850906 0.775111
0.247708 -0.147468 0.776745
0.247537 -0.145834 0.774697
0.247434 -0.144248 0.772875
0.247267 -0.142633 0.770858
0.247189 -0.141075 0.769125
0.247192 -0.13957 0.767655
0.247268 -0.138109 0.766414
0.247267 -0.136613 0.76494
0.247304 -0.135143 0.76359
0.247343 -0.13368 0.762256
0.247417 -0.13224 0.761029
0.247542 -0.130831 0.759967
0.247757 -0.129473 0.759185
0.247973 -0.128117 0.75841
0.248192 -0.126767 0.757647
0.248365 -0.125398 0.756745
0.248578 -0.124052 0.755973
0.248791 -0.122709 0.7552
0.249082 -0.121406 0.75467
0.249432 -0.120132 0.754319
0.249879 -0.118905 0.754264
0.250372 -0.117699 0.754349
0.250866 -0.116493 0.754435
0.251359 -0.115286 0.75452
0.251923 -0.114111 0.754817
0.252495 -0.112937 0.755135
0.25307 -0.111765 0.755465
0.253666 -0.1106 0.755851
0.254282 -0.109442 0.756303
0.254783 -0.108236 0.756408
0.255379 -0.107068 0.756796
0.256024 -0.105918 0.757325
0.256682 -0.104772 0.757893
0.257319 -0.103616 0.758397
0.258065 -0.102499 0.75922
0.258741 -0.101353 0.759834
0.259374 -0.10019 0.760321
0.260056 -0.0990432 0.760951
0.260734 -0.0978929 0.761567
0.261339 -0.096715 0.761967
0.261915 -0.0955258 0.762282
0.262561 -0.0943593 0.762798
0.263192 -0.0931868 0.76327
0.26391 -0.0920412 0.763994
0.264784 -0.0909436 0.765166
0.265824 -0.0898944 0.766812
0.266932 -0.088861 0.768651
0.268128 -0.0878484 0.770735
0.269273 -0.0868128 0.772665
0.270438 -0.0857765 0.774647
0.271528 -0.0847116 0.776407
0.247119 -0.148897 0.780521
0.24713 -0.147356 0.779025
0.246995 -0.145738 0.777077
0.246807 -0.144098 0.774971
0.246586 -0.142449 0.772772
0.24641 -0.140834 0.770719
0.246384 -0.139309 0.769143
0.246387 -0.137806 0.76767
0.246343 -0.136285 0.76605
0.246355 -0.1348 0.764616
0.246419 -0.133347 0.763343
0.246472 -0.131895 0.762047
0.246626 -0.130499 0.761068
0.246845 -0.12914 0.760291
0.247065 -0.127785 0.759521
0.247261 -0.126422 0.758681
0.247455 -0.125061 0.75784
0.247669 -0.123713 0.757059
0.247907 -0.12238 0.756359
0.248224 -0.121088 0.755904
0.248598 -0.119823 0.755623
0.249048 -0.118595 0.755572
0.249542 -0.117386 0.755658
0.250036 -0.116178 0.755743
0.250531 -0.11497 0.755828
0.251072 -0.113783 0.756056
0.251618 -0.112597 0.756298
0.252192 -0.111422 0.756623
0.252766 -0.110245 0.756944
0.253358 -0.109076 0.757322
0.253858 -0.107868 0.757423
0.254472 -0.106706 0.757863
0.255121 -0.105556 0.758406
0.255783 -0.104409 0.758987
0.256422 -0.103252 0.759497
0.257143 -0.102124 0.760247
0.257791 -0.100967 0.760782
0.258399 -0.099793 0.761196
0.259053 -0.0986346 0.761745
0.259706 -0.0974738 0.762287
0.260308 -0.0962938 0.762678
0.260882 -0.0951033 0.762988
0.261531 -0.0939371 0.763516
0.262189 -0.0927723 0.764068
0.26296 -0.0916426 0.764945
0.263911 -0.0905683 0.766346
0.265034 -0.0895435 0.768239
0.266203 -0.0885266 0.770259
0.267459 -0.087529 0.772524
0.268629 -0.0864981 0.774534
0.269741 -0.0854427 0.776367
0.270746 -0.0843499 0.777889
0.246045 -0.150056 0.782804
0.246244 -0.148618 0.781895
0.24633 -0.147117 0.780628
0.246294 -0.145552 0.778976
0.246165 -0.143942 0.777043
0.245965 -0.1423 0.774891
0.245756 -0.140662 0.772722
0.245677 -0.139104 0.770968
0.245586 -0.137547 0.769183
0.245488 -0.135994 0.767388
0.245475 -0.134493 0.765862
0.245515 -0.133025 0.764508
0.245572 -0.131573 0.763213
0.245776 -0.1302 0.762381
0.246047 -0.128865 0.76176
0.246294 -0.127521 0.761066
0.246518 -0.126169 0.760306
0.246738 -0.124818 0.759536
0.246956 -0.123469 0.758764
0.247197 -0.122134 0.758065
0.247516 -0.120839 0.757607
0.247891 -0.119572 0.757322
0.248317 -0.11833 0.757197
0.248809 -0.117118 0.757277
0.249282 -0.115898 0.757291
0.249754 -0.114677 0.757306
0.250249 -0.113467 0.757394
0.250769 -0.112268 0.757554
0.251317 -0.111079 0.757798
0.251868 -0.109892 0.758053
0.252439 -0.108712 0.758364
0.252962 -0.107512 0.758533
0.253595 -0.106356 0.759031
0.254244 -0.105204 0.759575
0.25493 -0.104065 0.760227
0.255594 -0.102915 0.760813
0.25629 -0.101776 0.761491
0.256911 -0.100606 0.761945
0.25749 -0.0994198 0.762272
0.25812 -0.0982508 0.762748
0.258726 -0.0970722 0.763155
0.259354 -0.0958997 0.763622
0.25998 -0.0947257 0.764086
0.260684 -0.0935763 0.764775
0.261375 -0.0924203 0.765423
0.262243 -0.0913201 0.766587
0.263273 -0.0902682 0.768222
0.264457 -0.0892595 0.770298
0.265666 -0.0882515 0.772443
0.266947 -0.0872578 0.774787
0.26809 -0.0862142 0.776724
0.269118 -0.0851303 0.778321
0.270015 -0.084003 0.779534
0.245284 -0.148289 0.783005
0.245437 -0.146825 0.781946
0.245516 -0.145323 0.78065
0.24549 -0.143768 0.779029
0.245354 -0.142158 0.777067
0.245144 -0.140515 0.774877
0.245055 -0.138947 0.773079
0.244884 -0.137342 0.771028
0.244735 -0.135758 0.769058
0.244672 -0.134227 0.76736
0.244708 -0.132755 0.765989
0.244772 -0.131303 0.764703
0.245004 -0.129942 0.76395
0.245301 -0.128618 0.763406
0.245599 -0.127295 0.762862
0.24583 -0.125943 0.762116
0.246079 -0.124603 0.761431
0.246304 -0.123254 0.760669
0.246548 -0.121917 0.759972
0.24682 -0.120597 0.759364
0.247167 -0.119314 0.758993
0.247544 -0.118046 0.75871
0.248013 -0.116822 0.758713
0.248461 -0.115588 0.758652
0.248932 -0.114365 0.758661
0.249424 -0.113151 0.758736
0.249942 -0.111948 0.758886
0.25051 -0.110766 0.759192
0.251085 -0.109586 0.759515
0.25166 -0.108406 0.759842
0.252205 -0.107212 0.760072
0.252865 -0.106064 0.76065
0.253492 -0.104901 0.761131
0.254157 -0.103751 0.76172
0.254816 -0.102597 0.762288
0.255485 -0.101445 0.762885
0.25608 -0.100263 0.763264
0.256658 -0.0990745 0.763587
0.25729 -0.0979043 0.764071
0.257897 -0.0967237 0.764477
0.258573 -0.0955661 0.765089
0.259257 -0.094409 0.765721
0.259997 -0.0932693 0.766517
0.260746 -0.0921294 0.767336
0.261665 -0.091043 0.768653
0.262729 -0.0899982 0.770389
0.263946 -0.0889959 0.77257
0.265186 -0.0879932 0.774812
0.266443 -0.086988 0.777093
0.267549 -0.0859294 0.778928
0.268491 -0.0848159 0.780278
0.269304 -0.0836607 0.781249
0.244424 -0.146464 0.782891
0.244623 -0.14503 0.781973
0.244729 -0.143546 0.780762
0.244683 -0.141982 0.779067
0.24455 -0.140378 0.77711
0.244465 -0.138808 0.775308
0.244241 -0.13717 0.773079
0.24404 -0.135554 0.770925
0.243947 -0.134003 0.769122
0.243962 -0.132517 0.767671
0.244051 -0.131074 0.766455
0.24429 -0.129714 0.765718
0.244635 -0.12841 0.765317
0.24496 -0.127098 0.76485
0.245216 -0.125755 0.764176
0.245495 -0.124425 0.763574
0.245742 -0.123083 0.762876
0.245988 -0.121743 0.762174
0.246233 -0.120406 0.761476
0.246553 -0.119107 0.761012
0.246878 -0.117812 0.760566
0.247321 -0.116572 0.760485
0.247744 -0.115324 0.760341
0.248238 -0.114108 0.760421
0.248708 -0.112882 0.760425
0.249203 -0.111666 0.760503
0.249793 -0.110491 0.760872
0.250393 -0.109319 0.76127
0.250977 -0.108139 0.761624
0.251575 -0.106964 0.762013
0.252288 -0.105833 0.762751
0.252895 -0.104659 0.763166
0.253536 -0.103496 0.763682
0.254189 -0.102336 0.764235
0.254833 -0.101171 0.764757
0.255408 -0.0999791 0.765069
0.25601 -0.0987963 0.765465
0.256689 -0.0976398 0.766087
0.257325 -0.0964658 0.766577
0.258082 -0.0953328 0.767429
0.258845 -0.0941989 0.768295
0.259598 -0.0930591 0.769132
0.260377 -0.0919247 0.770038
0.261324 -0.0908427 0.771439
0.262389 -0.0897932 0.773184
0.263567 -0.0887737 0.775253
0.264804 -0.0877651 0.777493
0.265976 -0.0867288 0.77953
0.266997 -0.0856404 0.781118
0.267854 -0.0844982 0.782225
0.268614 -0.0833243 0.783042
0.243229 -0.145998 0.783256
0.243628 -0.144677 0.782976
0.243859 -0.143263 0.782157
0.243938 -0.141767 0.780856
0.243892 -0.140207 0.77916
0.243833 -0.138647 0.777429
0.243568 -0.136983 0.775049
0.243343 -0.135349 0.772806
0.243248 -0.133794 0.770986
0.243288 -0.132317 0.769597
0.243383 -0.130874 0.768393
0.243647 -0.129522 0.767725
0.243996 -0.128217 0.767329
0.244318 -0.1269 0.766851
0.244577 -0.125554 0.766174
0.2449 -0.124242 0.765703
0.245151 -0.122898 0.765009
0.245398 -0.121555 0.764304
0.245615 -0.120202 0.763513
0.245929 -0.118896 0.763023
0.246205 -0.117575 0.762418
0.246625 -0.116321 0.76226
0.247048 -0.11507 0.762115
0.247566 -0.113862 0.762263
0.24802 -0.112625 0.762214
0.248517 -0.111408 0.762299
0.249132 -0.11024 0.762741
0.249759 -0.109076 0.763224
0.250376 -0.107906 0.76367
0.251032 -0.10675 0.764236
0.251796 -0.105637 0.765129
0.252406 -0.104459 0.765551
0.253043 -0.10329 0.766054
0.253672 -0.102118 0.76653
0.254316 -0.100949 0.767051
0.254894 -0.0997537 0.767372
0.255527 -0.0985781 0.767857
0.256239 -0.0974291 0.768576
0.256904 -0.0962612 0.769151
0.257691 -0.0951341 0.770093
0.258488 -0.0940073 0.771059
0.259247 -0.0928644 0.771909
0.260046 -0.0917322 0.772878
0.261016 -0.0906521 0.774347
0.262059 -0.0895905 0.77603
0.263182 -0.0885486 0.777944
0.264387 -0.0875252 0.780092
0.265473 -0.0864583 0.781884
0.266411 -0.0853409 0.783232
0.267191 -0.0841722 0.78411
0.267921 -0.0829864 0.784842
0.242012 -0.145519 0.783555
0.242456 -0.144224 0.783417
0.24277 -0.142856 0.782861
0.242945 -0.141413 0.781863
0.243023 -0.13992 0.780553
0.242996 -0.138374 0.77891
0.242781 -0.136734 0.776676
0.242605 -0.135123 0.774572
0.24254 -0.13358 0.772834
0.242587 -0.132104 0.771462
0.24273 -0.130682 0.770398
0.242995 -0.129327 0.769725
0.24332 -0.128006 0.769248
0.24364 -0.126685 0.768755
0.243921 -0.125346 0.768141
0.244225 -0.124022 0.767606
0.244502 -0.122687 0.766983
0.24475 -0.12134 0.766276
0.244946 -0.119973 0.765407
0.245237 -0.118653 0.764838
0.245512 -0.117328 0.764226
0.24591 -0.116062 0.763997
0.246337 -0.11481 0.763858
0.246882 -0.11361 0.764086
0.247341 -0.112373 0.76405
0.247867 -0.111164 0.764219
0.248483 -0.109994 0.764665
0.249159 -0.108846 0.765295
0.249806 -0.107686 0.765835
0.250518 -0.106549 0.766567
0.251289 -0.105434 0.767482
0.251921 -0.104261 0.767971
0.252531 -0.103078 0.768388
0.253157 -0.101899 0.768852
0.253806 -0.100728 0.769387
0.254416 -0.0995414 0.769804
0.255081 -0.0983731 0.770381
0.255843 -0.0972375 0.771249
0.256542 -0.0960771 0.771927
0.257385 -0.0949649 0.773037
0.258211 -0.0938424 0.774088
0.258988 -0.0927005 0.774994
0.259785 -0.0915619 0.775952
0.260749 -0.0904746 0.777405
0.261746 -0.0893928 0.778954
0.262791 -0.0883209 0.780638
0.263909 -0.087266 0.782536
0.264884 -0.0861605 0.784001
0.265718 -0.0850084 0.785047
0.266421 -0.0838143 0.7857
0.267101 -0.0826114 0.786285
0.270992 -0.0824616 0.792421
0.26784 -0.0814234 0.78704
0.241267 -0.143761 0.783803
0.2416 -0.142404 0.783307
0.24181 -0.140979 0.782413
0.241941 -0.139515 0.781271
0.241972 -0.137999 0.779805
0.241807 -0.136384 0.777716
0.241684 -0.1348 0.775772
0.241679 -0.133286 0.774214
0.241783 -0.131837 0.77301
0.241997 -0.130449 0.772165
0.242285 -0.129103 0.771559
0.242607 -0.127777 0.771064
0.242927 -0.126452 0.770566
0.243207 -0.12511 0.76994
0.243492 -0.123773 0.769338
0.243796 -0.122448 0.768799
0.244049 -0.121101 0.768097
0.244249 -0.119732 0.767232
0.244561 -0.118418 0.766724
0.244866 -0.117104 0.766196
0.245249 -0.115827 0.765918
0.245699 -0.114582 0.765847
0.24629 -0.113399 0.766214
0.246776 -0.112169 0.766255
0.247332 -0.11097 0.766515
0.247973 -0.109806 0.767035
0.248671 -0.108664 0.767732
0.249317 -0.107499 0.768267
0.250035 -0.10636 0.76902
0.250786 -0.105233 0.769874
0.251419 -0.104056 0.770361
0.252004 -0.102859 0.770699
0.252608 -0.101668 0.771095
0.25326 -0.100495 0.771638
0.253899 -0.0993142 0.772137
0.254595 -0.0981529 0.772807
0.255385 -0.0970235 0.773764
0.256132 -0.0958757 0.774584
0.256979 -0.0947598 0.775705
0.257783 -0.0936255 0.776692
0.25856 -0.0924789 0.777595
0.259354 -0.0913349 0.778545
0.260274 -0.0902287 0.77987
0.261221 -0.0891267 0.781272
0.262209 -0.0880326 0.782791
0.263242 -0.0869474 0.78444
0.264135 -0.085814 0.785664
0.26489 -0.0846353 0.786477
0.265538 -0.0834226 0.786967
0.266212 -0.0822161 0.787535
0.26692 -0.0810172 0.788198
0.24042 -0.141945 0.783724
0.240644 -0.140527 0.782867
0.24081 -0.139082 0.781832
0.240841 -0.137566 0.780358
0.240703 -0.135964 0.778342
0.240632 -0.134406 0.776558
0.240685 -0.132922 0.775176
0.240848 -0.131501 0.774152
0.241114 -0.130139 0.773469
0.241425 -0.128802 0.772929
0.24175 -0.127475 0.772438
0.242069 -0.126148 0.771933
0.242375 -0.124816 0.771386
0.242686 -0.123489 0.770857
0.24304 -0.122185 0.770469
0.243341 -0.120858 0.769911
0.243615 -0.119521 0.769276
0.24398 -0.118228 0.768928
0.244337 -0.116933 0.768555
0.244723 -0.115654 0.768278
0.245176 -0.114406 0.768211
0.245764 -0.113218 0.76857
0.246253 -0.111985 0.768613
0.246816 -0.110784 0.768892
0.247459 -0.109617 0.769421
0.248158 -0.108471 0.770115
0.248774 -0.107289 0.770557
0.249465 -0.106136 0.771225
0.250168 -0.104986 0.771932
0.250778 -0.103796 0.772346
0.251336 -0.102585 0.772599
0.251915 -0.101382 0.772916
0.252568 -0.100205 0.773461
0.253214 -0.0990246 0.77398
0.253908 -0.0978599 0.774647
0.254724 -0.0967364 0.77568
0.255517 -0.0956016 0.776642
0.256344 -0.0944752 0.777705
0.257172 -0.0933458 0.778765
0.257976 -0.0922044 0.779749
0.258772 -0.0910575 0.780709
0.259649 -0.0899336 0.781908
0.260571 -0.0888197 0.783233
0.26148 -0.0876977 0.784522
0.262429 -0.0865835 0.785923
0.263241 -0.0854228 0.786908
0.263939 -0.0842251 0.787551
0.264557 -0.0830019 0.787951
0.265227 -0.0817925 0.788506
0.265905 -0.080584 0.789087
0.239362 -0.140011 0.782948
0.239534 -0.138569 0.781923
0.239568 -0.137054 0.780453
0.239455 -0.135465 0.77851
0.239415 -0.133924 0.776811
0.23952 -0.132467 0.775587
0.239711 -0.131061 0.774652
0.240006 -0.129712 0.774058
0.240346 -0.12839 0.773608
0.2407 -0.127076 0.773204
0.241047 -0.125761 0.772785
0.241424 -0.124463 0.772458
0.241805 -0.123169 0.772152
0.242211 -0.121888 0.771922
0.242566 -0.120584 0.771535
0.242937 -0.119289 0.7712
0.243357 -0.118019 0.771018
0.243745 -0.116735 0.770742
0.244159 -0.115464 0.770544
0.244628 -0.114219 0.770525
0.245191 -0.113016 0.7708
0.245681 -0.11178 0.770846
0.246272 -0.110587 0.771207
0.246901 -0.10941 0.771689
0.247571 -0.108248 0.772295
0.248156 -0.107049 0.772635
0.248791 -0.10587 0.773127
0.2494 -0.104679 0.773542
0.24998 -0.103475 0.773863
0.25051 -0.10225 0.774027
0.251039 -0.101026 0.77419
0.251667 -0.0998381 0.774658
0.252332 -0.0986621 0.775236
0.253029 -0.0974963 0.775911
0.25382 -0.0963619 0.776872
0.254636 -0.0952332 0.777906
0.255439 -0.0940967 0.778898
0.256269 -0.0929656 0.779966
0.257099 -0.0918314 0.781037
0.257926 -0.0906923 0.782089
0.258783 -0.0895596 0.783231
0.259697 -0.0884411 0.784541
0.260575 -0.0873069 0.785735
0.261445 -0.0861661 0.786901
0.262201 -0.084987 0.787722
0.262868 -0.0837788 0.788275
0.263434 -0.0825396 0.788522
0.264077 -0.0813218 0.788998
0.264732 -0.0801058 0.789509
0.26872 -0.0799639 0.795997
0.265394 -0.0788904 0.79004
0.237877 -0.140924 0.78396
0.238056 -0.139481 0.782945
0.238233 -0.138041 0.781931
0.238249 -0.136516 0.780393
0.238161 -0.134941 0.778521
0.238124 -0.133402 0.776823
0.238252 -0.131957 0.77567
0.238445 -0.130552 0.774736
0.238786 -0.129227 0.774282
0.239153 -0.127918 0.773918
0.239558 -0.126631 0.77368
0.23998 -0.125353 0.773499
0.240432 -0.12409 0.773413
0.24087 -0.122822 0.773284
0.241352 -0.121576 0.773295
0.241783 -0.120306 0.773146
0.242211 -0.119035 0.772987
0.242688 -0.117788 0.772985
0.243127 -0.116524 0.772863
0.243563 -0.11526 0.772733
0.244034 -0.114011 0.772711
0.24457 -0.112793 0.7729
0.245081 -0.111562 0.773008
0.245673 -0.110367 0.773373
0.246284 -0.109178 0.773793
0.246884 -0.107983 0.774179
0.247413 -0.106758 0.774342
0.247944 -0.105534 0.774511
0.248453 -0.1043 0.774609
0.248958 -0.103066 0.774695
0.249459 -0.101829 0.774769
0.249982 -0.100601 0.774913
0.250587 -0.099403 0.775308
0.251273 -0.0982343 0.775953
0.251994 -0.097076 0.776703
0.252806 -0.0959481 0.777735
0.253625 -0.094819 0.778783
0.254427 -0.0936804 0.779774
0.255259 -0.0925489 0.780853
0.256088 -0.0914127 0.781919
0.256895 -0.090266 0.782918
0.257725 -0.0891229 0.783979
0.258636 -0.0880025 0.785285
0.25948 -0.0868562 0.786383
0.260296 -0.0856982 0.787395
0.261023 -0.0845096 0.78813
0.261663 -0.0832929 0.788602
0.262204 -0.082046 0.788773
0.262825 -0.0808218 0.789185
0.263482 -0.0796062 0.789705
0.264142 -0.07839 0.790231
0.236221 -0.141742 0.784414
0.236494 -0.140349 0.783705
0.236663 -0.138901 0.782655
0.236808 -0.137444 0.781529
0.23683 -0.135924 0.780005
0.236819 -0.134391 0.778373
0.23683 -0.132877 0.776822
0.23696 -0.131434 0.775672
0.237169 -0.130037 0.774784
0.237507 -0.128711 0.77432
0.237897 -0.127415 0.774029
0.238332 -0.126142 0.773885
0.238809 -0.124892 0.773881
0.239293 -0.123645 0.7739
0.239786 -0.122403 0.773942
0.240299 -0.121171 0.774058
0.240806 -0.119936 0.774146
0.241307 -0.118698 0.77422
0.24188 -0.117494 0.774526
0.242397 -0.116263 0.774648
0.242884 -0.115018 0.774675
0.243376 -0.113776 0.77472
0.243914 -0.112555 0.77491
0.244425 -0.111321 0.775015
0.244973 -0.110103 0.775236
0.245557 -0.108899 0.775572
0.246062 -0.107662 0.775653
0.246511 -0.106402 0.775565
0.246942 -0.105135 0.775412
0.247396 -0.103878 0.775337
0.24785 -0.102622 0.775264
0.248346 -0.101383 0.775321
0.248846 -0.100145 0.775395
0.24945 -0.0989467 0.775785
0.250113 -0.097769 0.776366
0.250835 -0.0966105 0.777122
0.251628 -0.0954752 0.778095
0.252471 -0.0943542 0.779223
0.253247 -0.0932065 0.780139
0.254074 -0.0920727 0.78121
0.254898 -0.0909343 0.782265
0.255703 -0.0897862 0.783258
0.256506 -0.0886342 0.784242
0.257389 -0.0875044 0.78547
0.258202 -0.0863485 0.786478
0.258991 -0.0851819 0.78741
0.259692 -0.0839858 0.788072
0.260333 -0.0827696 0.788547
0.260897 -0.0815299 0.788792
0.261542 -0.0803127 0.789277
0.262174 -0.0790903 0.789722
0.262858 -0.0778809 0.790323
0.234394 -0.142461 0.784304
0.234722 -0.141099 0.783772
0.235009 -0.139716 0.783106
0.2352 -0.138282 0.782127
0.235346 -0.136826 0.780998
0.235386 -0.135316 0.779522
0.23545 -0.133826 0.778135
0.23549 -0.132329 0.77667
0.235627 -0.130889 0.775534
0.235836 -0.129493 0.774644
0.236171 -0.128166 0.774167
0.236539 -0.126858 0.773803
0.236974 -0.125587 0.773661
0.237478 -0.124351 0.773741
0.23801 -0.123129 0.773917
0.238553 -0.121911 0.774127
0.239114 -0.120702 0.774392
0.239689 -0.1195 0.774704
0.240262 -0.118295 0.775011
0.240868 -0.117105 0.775419
0.241435 -0.115895 0.775702
0.241974 -0.114673 0.775897
0.242518 -0.113452 0.776103
0.243062 -0.11223 0.776312
0.243598 -0.111005 0.776492
0.244141 -0.109782 0.776694
0.244721 -0.108575 0.777018
0.245171 -0.107312 0.776924
0.245568 -0.106029 0.776665
0.24594 -0.104736 0.776326
0.24632 -0.103449 0.776016
0.246702 -0.102164 0.775715
0.247155 -0.100907 0.775634
0.247634 -0.0996608 0.775638
0.248215 -0.0984537 0.775962
0.248881 -0.097277 0.776553
0.249625 -0.0961267 0.777381
0.250421 -0.094992 0.77837
0.251285 -0.0938782 0.779567
0.252062 -0.0927301 0.78049
0.252881 -0.0915935 0.78154
0.253652 -0.0904369 0.782438
0.254448 -0.0892858 0.783408
0.2552 -0.0881173 0.784242
0.256053 -0.0869782 0.785383
0.256842 -0.0858151 0.786321
0.257628 -0.084648 0.787247
0.258305 -0.0834451 0.787839
0.258945 -0.0822292 0.788316
0.259509 -0.0809901 0.788561
0.260153 -0.0797732 0.789044
0.260781 -0.0785504 0.789482
0.261465 -0.0773417 0.790085
0.265675 -0.077244 0.797332
0.262169 -0.0761366 0.790749
0.233976 -0.143772 0.784535
0.23257 -0.143181 0.784202
0.232946 -0.141846 0.783828
0.233238 -0.140464 0.783172
0.233507 -0.139072 0.782441
0.233694 -0.137637 0.781443
0.233839 -0.136182 0.780308
0.233962 -0.13472 0.779103
0.234125 -0.133285 0.778036
0.234245 -0.131831 0.776834
0.23439 -0.130396 0.775714
0.234583 -0.128991 0.774764
0.234868 -0.127638 0.77412
0.235186 -0.126304 0.773587
0.235575 -0.12501 0.773293
0.236078 -0.123775 0.773374
0.236631 -0.122564 0.773617
0.237212 -0.121366 0.773953
0.237795 -0.120169 0.774293
0.238395 -0.118978 0.774689
0.239016 -0.117797 0.775152
0.239673 -0.11663 0.775728
0.240291 -0.115444 0.776178
0.240904 -0.114254 0.776609
0.241525 -0.113067 0.777067
0.242099 -0.111857 0.77737
0.242662 -0.110642 0.777636
0.243201 -0.109416 0.777827
0.243754 -0.108195 0.778061
0.244156 -0.106911 0.77781
0.244526 -0.105615 0.777464
0.244849 -0.104301 0.776964
0.245178 -0.102993 0.776492
0.245491 -0.10168 0.775964
0.245918 -0.100413 0.775802
0.246373 -0.0991579 0.77573
0.24693 -0.0979421 0.775984
0.247593 -0.0967644 0.776564
0.248359 -0.0956222 0.777466
0.249152 -0.0944866 0.77845
0.249995 -0.0933657 0.779588
0.25079 -0.0922241 0.780571
0.251585 -0.091079 0.781549
0.252327 -0.0899131 0.782364
0.253068 -0.0887443 0.783171
0.253815 -0.0875749 0.783993
0.254617 -0.0864199 0.784978
0.255378 -0.085249 0.785839
0.256157 -0.084081 0.786751
0.256855 -0.0828856 0.787413
0.2575 -0.0816724 0.787905
0.258064 -0.0804341 0.788151
0.25873 -0.0792246 0.788709
0.259357 -0.0780023 0.789142
0.260037 -0.0767934 0.78974
0.260767 -0.0755959 0.790485
0.23072 -0.143884 0.784004
0.23116 -0.142587 0.783845
0.231529 -0.141249 0.783444
0.231764 -0.139835 0.782597
0.231996 -0.138423 0.781737
0.232191 -0.136993 0.780758
0.232368 -0.135558 0.779728
0.23255 -0.13413 0.778714
0.23281 -0.132749 0.777968
0.233028 -0.131349 0.777084
0.233205 -0.12993 0.776068
0.233399 -0.128525 0.775115
0.233656 -0.127157 0.774375
0.233921 -0.125796 0.77366
0.234238 -0.124465 0.773126
0.234714 -0.123216 0.773116
0.235242 -0.121994 0.773279
0.2358 -0.120786 0.773543
0.236402 -0.119599 0.77395
0.237026 -0.118421 0.774428
0.237677 -0.117255 0.774988
0.238378 -0.11611 0.775715
0.239066 -0.114956 0.776394
0.239704 -0.113777 0.776909
0.240356 -0.112604 0.777465
0.240938 -0.111397 0.777795
0.241502 -0.110182 0.778065
0.242017 -0.108945 0.77818
0.242547 -0.107714 0.778341
0.242931 -0.106422 0.778032
0.243283 -0.105119 0.777622
0.243583 -0.103796 0.777048
0.243908 -0.102486 0.776557
0.244214 -0.10117 0.776009
0.244637 -0.0999023 0.77583
0.24511 -0.0986545 0.775818
0.245688 -0.0974464 0.776134
0.246347 -0.0962674 0.776708
0.247088 -0.0951161 0.777535
0.247876 -0.0939791 0.778509
0.248694 -0.0928491 0.779572
0.249488 -0.0917073 0.780558
0.25026 -0.0905549 0.78147
0.250999 -0.0893886 0.78228
0.25169 -0.0882038 0.782935
0.252405 -0.0870245 0.78366
0.253153 -0.0858533 0.784487
0.253883 -0.0846738 0.785255
0.254638 -0.0834995 0.786096
0.255334 -0.082305 0.786756
0.256 -0.0810993 0.787318
0.256592 -0.0798708 0.787654
0.257283 -0.0786692 0.788291
0.257934 -0.0774548 0.788803
0.25864 -0.0762536 0.78948
0.259393 -0.0750629 0.790302
0.228712 -0.144489 0.783259
0.229176 -0.143208 0.783183
0.229594 -0.1419 0.782951
0.22995 -0.140556 0.782506
0.230178 -0.13914 0.781627
0.230418 -0.137734 0.780793
0.230663 -0.136335 0.779982
0.230892 -0.134931 0.779121
0.231146 -0.133544 0.778346
0.231479 -0.132204 0.777844
0.231774 -0.130846 0.777215
0.23196 -0.129432 0.776223
0.232154 -0.128027 0.77526
0.232376 -0.12664 0.774399
0.232586 -0.125251 0.773502
0.232878 -0.123908 0.772879
0.233333 -0.122649 0.772799
0.233837 -0.121416 0.772886
0.234369 -0.120197 0.773064
0.234949 -0.119 0.7734
0.235554 -0.117815 0.773819
0.236228 -0.116661 0.774462
0.236931 -0.115518 0.775197
0.23764 -0.114375 0.77595
0.238322 -0.113218 0.776612
0.238999 -0.112056 0.777257
0.239581 -0.110851 0.77759
0.240141 -0.109634 0.777847
0.240652 -0.108396 0.777949
0.241159 -0.107157 0.778036
0.241572 -0.105877 0.777817
0.241952 -0.104586 0.7775
0.242302 -0.103285 0.777082
0.242628 -0.101975 0.776591
0.24293 -0.100658 0.776026
0.24335 -0.0993894 0.77584
0.2438 -0.098133 0.775751
0.24438 -0.096926 0.776077
0.245039 -0.0957475 0.776653
0.245773 -0.0945939 0.777463
0.246537 -0.0934488 0.778365
0.247346 -0.0923163 0.779408
0.248117 -0.0911673 0.780328
0.248886 -0.0900144 0.781235
0.249628 -0.0888494 0.782056
0.250316 -0.0876644 0.782705
0.251003 -0.0864766 0.783347
0.251717 -0.0852954 0.784073
0.252417 -0.0841078 0.784754
0.253141 -0.0829252 0.785505
0.253813 -0.0817246 0.786095
0.254505 -0.0805281 0.786742
0.255124 -0.0793085 0.787163
0.25582 -0.0781096 0.787818
0.256498 -0.0769037 0.788416
0.257227 -0.0757096 0.789169
0.257957 -0.0745137 0.789924
0.262299 -0.0744334 0.797676
0.258738 -0.0733285 0.790832
0.226738 -0.145112 0.78262
0.227194 -0.143826 0.782514
0.227652 -0.142543 0.782419
0.228051 -0.141226 0.782122
0.228379 -0.139867 0.781578
0.228627 -0.138465 0.78077
0.228919 -0.137091 0.780109
0.229211 -0.13572 0.779454
0.229488 -0.134344 0.778752
0.229783 -0.132981 0.778114
0.230144 -0.131657 0.7777
0.230445 -0.130303 0.777091
0.230656 -0.128903 0.776177
0.230849 -0.127497 0.775208
0.231068 -0.126109 0.77433
0.231256 -0.124709 0.773351
0.231548 -0.123366 0.772726
0.231982 -0.122098 0.772581
0.232465 -0.120855 0.772598
0.232993 -0.119634 0.772763
0.233568 -0.118437 0.773086
0.234148 -0.11724 0.773423
0.234802 -0.116077 0.774003
0.235501 -0.114934 0.77473
0.236185 -0.113781 0.775407
0.236865 -0.112625 0.776069
0.237539 -0.111463 0.776704
0.238118 -0.110257 0.777029
0.238671 -0.109039 0.777268
0.239198 -0.10781 0.777424
0.239703 -0.10657 0.777507
0.240164 -0.105313 0.777445
0.240574 -0.104035 0.777221
0.240953 -0.102745 0.776897
0.241282 -0.101437 0.776411
0.241588 -0.100123 0.775857
0.242011 -0.0988561 0.77568
0.242513 -0.0976202 0.775757
0.243121 -0.0964241 0.776172
0.243806 -0.095255 0.776835
0.24454 -0.0941016 0.777648
0.245273 -0.0929451 0.778457
0.24603 -0.0917945 0.77934
0.246772 -0.0906359 0.780173
0.247516 -0.089475 0.781007
0.248258 -0.0883108 0.781832
0.248944 -0.0871257 0.78248
0.249606 -0.0859306 0.783046
0.250291 -0.0847413 0.783687
0.250959 -0.0835444 0.784271
0.251657 -0.0823549 0.784943
0.252326 -0.0811547 0.785529
0.253041 -0.0799661 0.786252
0.253687 -0.0787557 0.786761
0.254412 -0.0775656 0.787508
0.255139 -0.0763742 0.788263
0.25587 -0.0751811 0.789026
0.256598 -0.0739851 0.789781
0.257399 -0.0728056 0.790754
0.261786 -0.0727199 0.798663
0.258287 -0.071645 0.791991
0.224758 -0.145727 0.78195
0.225259 -0.144471 0.782001
0.225663 -0.143155 0.781717
0.226089 -0.141854 0.781509
0.226475 -0.140531 0.781165
0.22682 -0.139184 0.78068
0.227119 -0.137814 0.780044
0.227461 -0.136471 0.779554
0.227781 -0.135117 0.778994
0.228099 -0.133765 0.778425
0.228415 -0.132415 0.777858
0.228799 -0.131105 0.777525
0.229143 -0.129774 0.777056
0.229402 -0.1284 0.776298
0.229616 -0.127005 0.775393
0.229822 -0.12561 0.774465
0.230014 -0.124212 0.773499
0.230291 -0.122862 0.772818
0.230707 -0.121584 0.772607
0.231146 -0.120319 0.772476
0.231646 -0.119086 0.772551
0.232191 -0.117874 0.772777
0.232745 -0.116666 0.773032
0.233372 -0.115492 0.773525
0.234067 -0.114348 0.774245
0.234766 -0.113203 0.774973
0.235444 -0.112047 0.77563
0.236094 -0.110876 0.776196
0.236673 -0.109671 0.776525
0.237219 -0.108452 0.776743
0.237701 -0.107204 0.776748
0.238159 -0.105947 0.77668
0.238641 -0.104699 0.776689
0.239077 -0.103434 0.776546
0.239464 -0.10215 0.776251
0.239843 -0.100863 0.775928
0.24022 -0.0995778 0.775599
0.240669 -0.0983217 0.775505
0.241226 -0.0971072 0.775758
0.241888 -0.0959318 0.776352
0.2426 -0.0947725 0.777103
0.24331 -0.0936103 0.777844
0.244013 -0.0924432 0.778561
0.244695 -0.0912664 0.77921
0.245406 -0.0900972 0.779945
0.246121 -0.0889274 0.780695
0.24686 -0.0877628 0.781514
0.247528 -0.0865726 0.782107
0.248209 -0.0853847 0.782742
0.248871 -0.0841886 0.783309
0.249512 -0.0829846 0.783812
0.25018 -0.0817871 0.784399
0.250846 -0.0805871 0.784974
0.25156 -0.0793996 0.785701
0.252234 -0.0781981 0.786297
0.252959 -0.0770092 0.787055
0.253709 -0.0758252 0.787885
0.254483 -0.0746445 0.788787
0.255213 -0.0734496 0.78955
0.256015 -0.0722709 0.790531
0.256869 -0.0711024 0.791674
0.25924 -0.0704964 0.793425
0.257739 -0.0699336 0.792857
0.222802 -0.146354 0.781348
0.223264 -0.145074 0.781267
0.223736 -0.143802 0.781217
0.224103 -0.142465 0.780804
0.224496 -0.141146 0.780483
0.224865 -0.139814 0.780078
0.225257 -0.138498 0.779757
0.22563 -0.137174 0.779376
0.226002 -0.135849 0.778989
0.226346 -0.134511 0.778506
0.226686 -0.133173 0.778016
0.227006 -0.131825 0.777455
0.22739 -0.130516 0.777121
0.227759 -0.1292 0.776734
0.228061 -0.12785 0.776122
0.228306 -0.126473 0.775321
0.228544 -0.125095 0.774494
0.228762 -0.12371 0.77361
0.229062 -0.122371 0.773001
0.229476 -0.121093 0.772784
0.229891 -0.119816 0.772571
0.230344 -0.11856 0.772488
0.230838 -0.117324 0.772543
0.231346 -0.116094 0.772642
0.231924 -0.114898 0.772978
0.232594 -0.113744 0.773618
0.233265 -0.112588 0.774261
0.23392 -0.111422 0.774847
0.234547 -0.110243 0.775337
0.235102 -0.10903 0.775591
0.235629 -0.107804 0.775751
0.236109 -0.106558 0.775753
0.236565 -0.105302 0.77568
0.237066 -0.104065 0.775754
0.237526 -0.102811 0.775691
0.237961 -0.101548 0.775549
0.238388 -0.100283 0.775381
0.238856 -0.0990344 0.775352
0.239381 -0.0978082 0.775502
0.240013 -0.0966227 0.776002
0.240727 -0.0954662 0.776764
0.241464 -0.0943162 0.777601
0.242147 -0.0931434 0.778257
0.242843 -0.0919731 0.778953
0.243497 -0.090786 0.779513
0.244157 -0.0895992 0.780091
0.244846 -0.0884202 0.780757
0.245554 -0.0872459 0.781486
0.246172 -0.0860396 0.781925
0.246811 -0.0848387 0.782427
0.24747 -0.0836426 0.782991
0.248109 -0.0824387 0.783491
0.248751 -0.0812337 0.783996
0.24939 -0.0800271 0.784495
0.250125 -0.0788466 0.78529
0.250799 -0.0776461 0.78589
0.251501 -0.0764519 0.786579
0.252271 -0.0752741 0.787478
0.25309 -0.0741066 0.788526
0.253824 -0.0729133 0.789302
0.254628 -0.0717357 0.7903
0.255482 -0.0705676 0.791443
0.256294 -0.0693854 0.792456
0.258641 -0.0687693 0.794136
0.257134 -0.0682065 0.79355
0.221407 -0.145762 0.781006
0.221821 -0.144453 0.780752
0.222245 -0.143152 0.780535
0.222555 -0.141782 0.77992
0.222921 -0.140448 0.779502
0.22329 -0.139119 0.7791
0.223707 -0.13782 0.778865
0.224147 -0.136536 0.778717
0.224546 -0.135229 0.778422
0.224895 -0.133895 0.777959
0.225237 -0.132559 0.77747
0.225555 -0.131212 0.776904
0.225923 -0.129895 0.776511
0.226297 -0.128584 0.776142
0.226626 -0.12725 0.775621
0.226922 -0.125901 0.774988
0.227206 -0.124547 0.774315
0.227473 -0.123189 0.773591
0.227811 -0.12187 0.773113
0.228245 -0.120602 0.772959
0.228637 -0.119314 0.772667
0.229065 -0.118044 0.772498
0.229512 -0.116786 0.772392
0.229969 -0.115532 0.772324
0.230482 -0.114306 0.772441
0.231126 -0.113141 0.772999
0.231773 -0.111976 0.773569
0.232423 -0.110811 0.774143
0.233051 -0.109633 0.774643
0.233627 -0.108431 0.774967
0.234155 -0.107207 0.775131
0.234634 -0.105962 0.775134
0.235091 -0.104707 0.77506
0.23561 -0.10348 0.775196
0.236115 -0.102246 0.775283
0.236601 -0.101004 0.775308
0.23708 -0.0997604 0.775312
0.237619 -0.0985406 0.775513
0.238195 -0.0973341 0.775829
0.238857 -0.0961599 0.776431
0.239572 -0.0950033 0.7772
0.240306 -0.0938512 0.778027
0.240981 -0.0926752 0.778663
0.241654 -0.0914963 0.779286
0.242262 -0.0902927 0.7797
0.242896 -0.0890969 0.780198
0.243552 -0.0879071 0.780765
0.244211 -0.0867165 0.781338
0.244801 -0.0855015 0.781686
0.245434 -0.0842993 0.782172
0.24609 -0.0831031 0.78273
0.246708 -0.0818935 0.783167
0.247348 -0.0806889 0.783669
0.247985 -0.0794823 0.784162
0.248692 -0.0782946 0.784875
0.249362 -0.0770939 0.78547
0.250061 -0.0758995 0.786152
0.250828 -0.074722 0.787048
0.251672 -0.0735622 0.78818
0.252433 -0.0723768 0.789047
0.253245 -0.0712016 0.790071
0.25412 -0.0700392 0.791288
0.254903 -0.0688504 0.792215
0.255712 -0.067664 0.793219
0.258105 -0.0670549 0.795046
0.25665 -0.0665055 0.794621
0.21957 -0.146461 0.78081
0.219978 -0.145148 0.780533
0.220361 -0.143821 0.780171
0.220776 -0.142515 0.779921
0.221057 -0.141129 0.779203
0.221424 -0.139798 0.778789
0.221838 -0.138497 0.778542
0.222279 -0.137213 0.778392
0.222745 -0.135946 0.778331
0.223166 -0.134653 0.778115
0.223535 -0.133331 0.777718
0.223854 -0.131983 0.777146
0.224172 -0.130637 0.776578
0.224498 -0.129298 0.77604
0.224894 -0.127999 0.775744
0.225249 -0.12668 0.775309
0.225592 -0.125357 0.774837
0.225903 -0.124019 0.774254
0.226233 -0.122693 0.773743
0.226575 -0.121376 0.773275
0.227011 -0.120109 0.773128
0.227385 -0.118812 0.772769
0.22779 -0.117531 0.772519
0.22821 -0.11626 0.772324
0.228641 -0.114994 0.772166
0.229106 -0.113746 0.772124
0.229745 -0.11258 0.77267
0.230394 -0.111417 0.773245
0.231022 -0.110242 0.77375
0.231646 -0.109064 0.774239
0.232241 -0.107871 0.774628
0.232768 -0.106648 0.774791
0.233249 -0.105404 0.774802
0.233728 -0.10416 0.774805
0.234273 -0.102944 0.775026
0.234805 -0.101722 0.775202
0.235296 -0.100483 0.775247
0.235824 -0.099259 0.77541
0.236416 -0.0980599 0.775785
0.23702 -0.0968645 0.776198
0.237708 -0.0956994 0.776884
0.238443 -0.0945498 0.777721
0.239145 -0.0933857 0.77845
0.239815 -0.092207 0.779069
0.240488 -0.0910276 0.779698
0.241056 -0.0898097 0.779984
0.241693 -0.0886147 0.78049
0.242296 -0.0874068 0.780888
0.242898 -0.086197 0.78128
0.243435 -0.0849652 0.781462
0.244063 -0.0837623 0.781935
0.244673 -0.0825521 0.78235
0.245308 -0.0813484 0.782842
0.245949 -0.0801452 0.78335
0.246585 -0.0789391 0.783846
0.247291 -0.0777518 0.784557
0.24798 -0.0765572 0.785215
0.248677 -0.0753632 0.785895
0.249443 -0.0741858 0.786791
0.25031 -0.073033 0.788005
0.251099 -0.0718554 0.788965
0.251913 -0.0706809 0.789999
0.252786 -0.0695183 0.791218
0.253561 -0.0683275 0.792127
0.254344 -0.067136 0.793057
0.25523 -0.0659649 0.794302
0.259705 -0.0658316 0.802571
0.256103 -0.0647869 0.795502
0.219169 -0.14778 0.781112
0.217427 -0.148541 0.781259
0.21787 -0.147248 0.781106
0.218235 -0.145906 0.78067
0.218603 -0.144568 0.780247
0.21894 -0.143213 0.779721
0.219346 -0.141902 0.779439
0.21965 -0.140531 0.778797
0.220024 -0.139205 0.778407
0.220443 -0.137909 0.778179
0.220886 -0.136628 0.778035
0.221351 -0.135361 0.777972
0.221771 -0.134068 0.77775
0.222121 -0.132736 0.777285
0.222458 -0.131399 0.776773
0.222772 -0.130052 0.776187
0.223093 -0.128711 0.775628
0.223508 -0.127424 0.775399
0.223884 -0.126117 0.775035
0.224252 -0.124808 0.774646
0.224609 -0.123495 0.774221
0.224969 -0.122185 0.773809
0.225318 -0.120872 0.77336
0.225778 -0.119617 0.773295
0.226174 -0.11833 0.773012
0.22656 -0.117041 0.772696
0.226958 -0.115758 0.772423
0.227363 -0.11448 0.772175
0.227801 -0.11322 0.772041
0.228397 -0.112034 0.77244
0.229041 -0.110869 0.773005
0.22967 -0.109695 0.773519
0.230294 -0.108518 0.774008
0.230887 -0.107325 0.774396
0.231412 -0.106102 0.774553
0.231895 -0.10486 0.77457
0.232377 -0.103618 0.77458
0.232925 -0.102404 0.774814
0.233503 -0.101201 0.775145
0.234024 -0.099975 0.775288
0.2346 -0.0987706 0.775613
0.235217 -0.0975813 0.776073
0.235864 -0.0964019 0.77663
0.23653 -0.0952281 0.777244
0.23728 -0.0940838 0.778138
0.237957 -0.0929098 0.778787
0.238626 -0.0917306 0.779406
0.239301 -0.0905515 0.780041
0.23985 -0.0893264 0.780266
0.240459 -0.0881216 0.780684
0.241033 -0.0869039 0.780991
0.241586 -0.085678 0.781223
0.242073 -0.0844304 0.781244
0.242698 -0.0832268 0.781708
0.243283 -0.0820097 0.782047
0.243918 -0.080807 0.782544
0.244579 -0.0796107 0.783121
0.245214 -0.0784049 0.783613
0.245899 -0.0772121 0.784265
0.246587 -0.0760181 0.784923
0.247258 -0.0748173 0.785522
0.248 -0.0736342 0.78635
0.248865 -0.0724817 0.787562
0.249699 -0.0713166 0.78867
0.250512 -0.0701426 0.789711
0.251408 -0.0689863 0.791007
0.252203 -0.067801 0.791984
0.253008 -0.0666145 0.792984
0.253843 -0.0654322 0.79408
0.254711 -0.0642534 0.795271
0.257003 -0.0636123 0.796787
0.255602 -0.063077 0.796531
0.25998 -0.062888 0.8045
0.256521 -0.0619018 0.797876
0.215804 -0.149381 0.781837
0.216115 -0.148 0.781202
0.216523 -0.146685 0.780919
0.216861 -0.145325 0.780381
0.217206 -0.143974 0.77988
0.217538 -0.142615 0.779328
0.217944 -0.141307 0.779046
0.218295 -0.139965 0.778571
0.218693 -0.138655 0.778265
0.219115 -0.137361 0.778044
0.219557 -0.136079 0.777896
0.220018 -0.134811 0.777818
0.220397 -0.133495 0.77745
0.220746 -0.132163 0.77698
0.221063 -0.130816 0.7764
0.221358 -0.129458 0.775739
0.221654 -0.128104 0.775092
0.222084 -0.126827 0.774917
0.22246 -0.125522 0.774551
0.222855 -0.124228 0.774256
0.22326 -0.122941 0.773994
0.223667 -0.121657 0.773742
0.224042 -0.120357 0.773381
0.224525 -0.119114 0.773396
0.224944 -0.11784 0.77319
0.225332 -0.11655 0.772877
0.22571 -0.115258 0.772535
0.226093 -0.11397 0.772209
0.226506 -0.112698 0.771988
0.227097 -0.11151 0.772375
0.2277 -0.110326 0.772801
0.228307 -0.109144 0.773243
0.228928 -0.107966 0.773725
0.229519 -0.106773 0.774112
0.230026 -0.105543 0.774206
0.230553 -0.104321 0.77437
0.231077 -0.103097 0.774526
0.231627 -0.101885 0.774769
0.232227 -0.100692 0.775176
0.232769 -0.099474 0.775388
0.233369 -0.098279 0.775792
0.233984 -0.0970887 0.776247
0.234675 -0.0959265 0.776951
0.235335 -0.0947503 0.777554
0.236109 -0.0936149 0.77853
0.236767 -0.0924331 0.779115
0.237436 -0.0912538 0.779741
0.238108 -0.0900735 0.780368
0.238655 -0.0888473 0.780585
0.239218 -0.0876265 0.780858
0.239742 -0.0863917 0.780999
0.240242 -0.0851484 0.781062
0.24068 -0.0838853 0.780921
0.241285 -0.0826764 0.781326
0.241849 -0.0814536 0.781599
0.242506 -0.0802585 0.782169
0.243185 -0.0790688 0.78281
0.243847 -0.0778717 0.783391
0.244533 -0.0766799 0.784051
0.245268 -0.0754999 0.784862
0.245939 -0.0742996 0.785467
0.246675 -0.073115 0.786277
0.247511 -0.0719549 0.787403
0.248341 -0.0707893 0.788506
0.24913 -0.0696096 0.789476
0.250025 -0.0684534 0.790777
0.250843 -0.0672739 0.791832
0.251672 -0.0660937 0.792914
0.252507 -0.0649115 0.794014
0.253395 -0.0637376 0.795276
0.254281 -0.0625599 0.796526
0.255194 -0.0613832 0.797857
0.213718 -0.149909 0.780726
0.214204 -0.148646 0.780726
0.214575 -0.147307 0.780306
0.215028 -0.146023 0.780189
0.215391 -0.144682 0.779744
0.215743 -0.143336 0.779262
0.216077 -0.141981 0.778715
0.216525 -0.1407 0.778585
0.216902 -0.139376 0.778204
0.217325 -0.138081 0.777983
0.217766 -0.1368 0.777832
0.218222 -0.135528 0.777735
0.218657 -0.134244 0.777564
0.219054 -0.13294 0.77726
0.219408 -0.131611 0.776801
0.21973 -0.130267 0.776236
0.220004 -0.128898 0.7755
0.220301 -0.127545 0.77485
0.220691 -0.126247 0.774531
0.221072 -0.124945 0.774182
0.22149 -0.123665 0.773966
0.221939 -0.122403 0.773862
0.222372 -0.121132 0.773697
0.222789 -0.119854 0.773482
0.223293 -0.118622 0.773569
0.223733 -0.117358 0.773434
0.224145 -0.116081 0.773199
0.224548 -0.114801 0.772943
0.224953 -0.113522 0.772686
0.225365 -0.112249 0.772462
0.225932 -0.11105 0.772771
0.22649 -0.109845 0.773044
0.227051 -0.108641 0.773326
0.227646 -0.107451 0.773724
0.228238 -0.106259 0.774111
0.228747 -0.10503 0.774219
0.229298 -0.103819 0.774465
0.229845 -0.102606 0.774699
0.230414 -0.101401 0.775004
0.231034 -0.100216 0.775483
0.231595 -0.0990056 0.775758
0.232219 -0.09782 0.776245
0.232832 -0.0966285 0.776696
0.2335 -0.0954569 0.777328
0.234135 -0.0942708 0.777846
0.234892 -0.0931283 0.778769
0.235508 -0.0919314 0.779222
0.236179 -0.0907527 0.779851
0.2368 -0.0895541 0.780317
0.237316 -0.0883179 0.780436
0.237853 -0.0870885 0.780621
0.238354 -0.0858467 0.780686
0.238806 -0.0845888 0.780595
0.239237 -0.0833245 0.780433
0.239837 -0.0821153 0.780825
0.240384 -0.0808882 0.781042
0.241044 -0.0796953 0.781627
0.241744 -0.0785129 0.78234
0.242449 -0.0773297 0.783064
0.243141 -0.0761403 0.783745
0.243925 -0.0749752 0.784721
0.244638 -0.0737867 0.785463
0.245372 -0.072602 0.786275
0.246177 -0.0714335 0.787308
0.247001 -0.0702666 0.788393
0.247787 -0.0690865 0.78936
0.248662 -0.0679255 0.790605
0.249483 -0.0667469 0.791672
0.250309 -0.0655663 0.792753
0.251145 -0.064385 0.793862
0.25201 -0.0632065 0.795057
0.252894 -0.0620279 0.79631
0.253806 -0.0608519 0.797645
0.258055 -0.0606153 0.805273
0.254623 -0.059651 0.798678
0.212063 -0.149133 0.779396
0.212573 -0.147889 0.779487
0.213006 -0.146593 0.779294
0.213441 -0.145301 0.779111
0.213791 -0.143953 0.778621
0.214149 -0.142614 0.778157
0.214523 -0.141286 0.77776
0.215022 -0.140039 0.777812
0.215465 -0.138758 0.777668
0.215932 -0.137493 0.777608
0.216412 -0.136235 0.777595
0.216865 -0.134963 0.777488
0.217301 -0.13368 0.777319
0.21772 -0.132389 0.777092
0.218096 -0.131075 0.776713
0.218422 -0.129733 0.776154
0.218698 -0.128365 0.775424
0.218995 -0.127013 0.77477
0.219365 -0.125704 0.77438
0.219747 -0.124403 0.774033
0.22019 -0.123136 0.773901
0.220664 -0.121888 0.773882
0.221118 -0.120629 0.773793
0.221558 -0.119363 0.773654
0.222062 -0.118131 0.773741
0.222523 -0.116877 0.77368
0.222958 -0.115611 0.773526
0.223386 -0.114343 0.773351
0.223817 -0.113077 0.773185
0.224253 -0.111814 0.773039
0.224779 -0.110595 0.773204
0.225288 -0.109367 0.77331
0.225795 -0.108138 0.773413
0.226339 -0.106926 0.773637
0.226888 -0.105715 0.773878
0.227401 -0.104489 0.774
0.227976 -0.103288 0.77433
0.228548 -0.102086 0.774646
0.229118 -0.100882 0.774958
0.229758 -0.099706 0.775508
0.23034 -0.0985045 0.775857
0.230965 -0.0973193 0.77635
0.231559 -0.0961207 0.776739
0.232246 -0.0949566 0.777437
0.232859 -0.0937621 0.777886
0.23361 -0.0926178 0.778793
0.234203 -0.0914124 0.77917
0.234868 -0.0902319 0.779785
0.235462 -0.0890242 0.780161
0.235996 -0.0877951 0.78034
0.23651 -0.0865583 0.780452
0.236989 -0.0853096 0.780448
0.237413 -0.0840429 0.780261
0.237837 -0.0827774 0.780075
0.238411 -0.081561 0.780385
0.238938 -0.0803287 0.78054
0.239622 -0.0791444 0.781204
0.240341 -0.0779688 0.781987
0.24105 -0.0767874 0.782729
0.241765 -0.0756055 0.783487
0.242599 -0.0744552 0.784634
0.24334 -0.0732748 0.785468
0.244076 -0.072091 0.78629
0.244876 -0.070921 0.787311
0.245669 -0.0697464 0.788308
0.246428 -0.0685596 0.78919
0.247275 -0.0673919 0.790352
0.248096 -0.0662138 0.791427
0.24892 -0.0650333 0.792508
0.249779 -0.0638575 0.793695
0.250644 -0.0626796 0.794898
0.25153 -0.0615014 0.796163
0.25244 -0.0603252 0.797498
0.253278 -0.0591294 0.798602
0.25544 -0.0584466 0.799706
0.25407 -0.0579205 0.799558
0.258384 -0.0576655 0.807385
0.254928 -0.056721 0.800714
0.21038 -0.148336 0.777939
0.210908 -0.147108 0.778105
0.211347 -0.145819 0.777934
0.211765 -0.144518 0.777691
0.212142 -0.143191 0.777295
0.212543 -0.141882 0.776994
0.212963 -0.140587 0.776765
0.213528 -0.139384 0.777059
0.214018 -0.138134 0.777089
0.214533 -0.1369 0.777204
0.215036 -0.135657 0.777275
0.215513 -0.1344 0.777256
0.215953 -0.133121 0.7771
0.216376 -0.131833 0.776887
0.216755 -0.13052 0.776515
0.217083 -0.12918 0.775961
0.217358 -0.127813 0.775224
0.217676 -0.126473 0.774641
0.218044 -0.125163 0.774241
0.218447 -0.123874 0.773967
0.218908 -0.122618 0.773898
0.219405 -0.121382 0.773962
0.219863 -0.120125 0.773886
0.220326 -0.118871 0.773826
0.220829 -0.117639 0.773913
0.221312 -0.116396 0.773924
0.221772 -0.115142 0.773857
0.222228 -0.113887 0.773779
0.222686 -0.112634 0.773704
0.223145 -0.111382 0.77364
0.223629 -0.110141 0.773656
0.224088 -0.10889 0.773589
0.224541 -0.107636 0.773503
0.225035 -0.106402 0.773555
0.225538 -0.105171 0.773642
0.226051 -0.103945 0.773764
0.226627 -0.102746 0.774099
0.2272 -0.101545 0.774424
0.227773 -0.100343 0.774749
0.228416 -0.0991688 0.775308
0.229024 -0.0979787 0.775748
0.229649 -0.096794 0.776243
0.230247 -0.0955972 0.776647
0.23093 -0.0944321 0.777334
0.231537 -0.093236 0.777768
0.23226 -0.0920815 0.778583
0.232847 -0.0908749 0.778943
0.233484 -0.0896849 0.779468
0.234051 -0.0884688 0.779761
0.234587 -0.087241 0.779947
0.2351 -0.0860051 0.780056
0.235584 -0.0847592 0.780069
0.236008 -0.0834938 0.779882
0.236429 -0.0822283 0.779689
0.236997 -0.0810106 0.77998
0.237521 -0.0797787 0.780125
0.238183 -0.0785885 0.780723
0.238925 -0.0774208 0.781583
0.239675 -0.0762524 0.782464
0.240394 -0.0750724 0.783244
0.241255 -0.0739302 0.784481
0.242045 -0.0727641 0.785484
0.242808 -0.0715872 0.786393
0.24359 -0.0704129 0.787362
0.244374 -0.0692357 0.788338
0.245103 -0.0680413 0.789125
0.245896 -0.0668605 0.790122
0.246688 -0.0656762 0.79111
0.247507 -0.0644947 0.792179
0.248385 -0.063324 0.793435
0.249274 -0.062152 0.794721
0.25021 -0.0609851 0.796152
0.251141 -0.0598137 0.797561
0.252005 -0.0586222 0.798753
0.252818 -0.057418 0.799779
0.253681 -0.0562198 0.80096
0.257855 -0.0559192 0.808369
0.254495 -0.0550079 0.801979
0.208242 -0.148812 0.77657
0.20875 -0.147574 0.776666
0.209256 -0.146334 0.776749
0.209665 -0.145028 0.776469
0.21008 -0.143728 0.776218
0.210458 -0.142405 0.775826
0.210879 -0.141113 0.775602
0.211346 -0.13985 0.775542
0.211975 -0.138691 0.776081
0.212516 -0.137475 0.776297
0.213094 -0.136281 0.776646
0.213663 -0.135081 0.77696
0.214186 -0.133853 0.77711
0.214652 -0.132589 0.777049
0.215098 -0.131315 0.776917
0.215497 -0.130014 0.776612
0.215804 -0.128662 0.775982
0.216079 -0.127295 0.77524
0.216377 -0.125944 0.774579
0.216744 -0.124634 0.774176
0.217145 -0.123344 0.773892
0.217628 -0.1221 0.7739
0.218128 -0.120866 0.773977
0.218609 -0.119622 0.773983
0.219093 -0.118379 0.773998
0.219597 -0.117147 0.774085
0.220082 -0.115905 0.774102
0.220564 -0.114663 0.774113
0.221046 -0.11342 0.774122
0.221528 -0.112177 0.774133
0.222011 -0.110936 0.774149
0.222471 -0.109684 0.774082
0.222884 -0.108411 0.77385
0.223286 -0.107134 0.773588
0.223734 -0.105879 0.773482
0.224192 -0.104629 0.773415
0.224702 -0.103402 0.773522
0.225294 -0.102211 0.773918
0.225888 -0.101019 0.774315
0.226488 -0.0998291 0.774733
0.227132 -0.0986557 0.775302
0.227759 -0.0974738 0.77581
0.228364 -0.0962813 0.77624
0.228982 -0.0950926 0.776714
0.229643 -0.0939192 0.777332
0.230248 -0.0927226 0.777761
0.230922 -0.0915503 0.778415
0.2315 -0.0903407 0.778747
0.232116 -0.089144 0.779205
0.232687 -0.0879299 0.779509
0.233247 -0.0867114 0.779779
0.233786 -0.0854848 0.779974
0.234271 -0.0842397 0.779991
0.234697 -0.0829756 0.779813
0.235121 -0.0817113 0.779625
0.235688 -0.080494 0.779917
0.236214 -0.0792629 0.780069
0.236869 -0.0780711 0.780649
0.237588 -0.0768967 0.781436
0.238357 -0.0757344 0.782384
0.239079 -0.0745556 0.783175
0.23996 -0.073419 0.784488
0.2408 -0.0722672 0.785659
0.241611 -0.0711031 0.78673
0.242396 -0.0699289 0.787715
0.243157 -0.0687454 0.788617
0.243854 -0.0675424 0.789305
0.244613 -0.066353 0.790196
0.245351 -0.0651556 0.791014
0.246145 -0.0639683 0.79201
0.247021 -0.0627977 0.793266
0.247908 -0.0616247 0.794549
0.248843 -0.0604593 0.795989
0.249798 -0.0592922 0.797484
0.250689 -0.0581066 0.798766
0.251552 -0.0569118 0.799957
0.252465 -0.0557237 0.801303
0.253306 -0.0545162 0.802414
0.257527 -0.0542083 0.809986
0.254253 -0.0533262 0.803857
0.206229 -0.14937 0.77565
0.20673 -0.148128 0.775721
0.207198 -0.146864 0.775664
0.207686 -0.145614 0.77568
0.208049 -0.14428 0.775231
0.20846 -0.14298 0.774962
0.208852 -0.141669 0.77463
0.209295 -0.140393 0.77448
0.209764 -0.139134 0.774434
0.210414 -0.137992 0.77506
0.210997 -0.136805 0.775433
0.21162 -0.135641 0.775952
0.212234 -0.13447 0.776435
0.212801 -0.13327 0.776747
0.213291 -0.132022 0.776771
0.213775 -0.130771 0.77678
0.214193 -0.129482 0.776545
0.21452 -0.128141 0.77598
0.214819 -0.126788 0.77532
0.215136 -0.125447 0.774728
0.215487 -0.124128 0.774261
0.215887 -0.122839 0.773972
0.216371 -0.121595 0.773986
0.216873 -0.120362 0.774068
0.217358 -0.11912 0.774083
0.217862 -0.117888 0.77417
0.218366 -0.116656 0.774257
0.21887 -0.115423 0.774344
0.219374 -0.114191 0.774431
0.219878 -0.112959 0.774518
0.220382 -0.111727 0.774605
0.220886 -0.110495 0.774692
0.221304 -0.109223 0.774479
0.221693 -0.107938 0.774162
0.222073 -0.10665 0.773818
0.222478 -0.105376 0.773565
0.222895 -0.104108 0.77335
0.2234 -0.10288 0.773446
0.223969 -0.101679 0.773759
0.224541 -0.100479 0.774085
0.225159 -0.0992968 0.774569
0.225803 -0.0981242 0.775142
0.226451 -0.096951 0.775722
0.227051 -0.0957573 0.776139
0.227667 -0.0945681 0.776607
0.228305 -0.0933863 0.777152
0.22891 -0.0921902 0.777579
0.22954 -0.0910025 0.778091
0.230119 -0.0897942 0.778429
0.230754 -0.088605 0.778953
0.231331 -0.087394 0.779283
0.231915 -0.0861844 0.779633
0.2325 -0.0849741 0.779987
0.233027 -0.0837437 0.780145
0.233483 -0.0824893 0.780063
0.233955 -0.0812407 0.780034
