ply
format ascii 1.0
element vertex 1796
property float x
property float y
property float z
end_header
0.377888 -0.363816 1.15738
0.379176 -0.363532 1.15644
0.380283 -0.36312 1.1551
0.381002 -0.362432 1.1529
0.381195 -0.361377 1.14957
0.38129 -0.360261 1.14605
0.381221 -0.359037 1.14219
0.381254 -0.357895 1.13859
0.381678 -0.357033 1.13586
0.382765 -0.356637 1.13457
0.384197 -0.356483 1.13403
0.38608 -0.35664 1.13445
0.388367 -0.357072 1.13573
0.391299 -0.357939 1.13835
0.394431 -0.358933 1.14137
0.397652 -0.359979 1.14455
0.400635 -0.360855 1.1472
0.40345 -0.361609 1.14947
0.405642 -0.361939 1.15042
0.407555 -0.362079 1.1508
0.409497 -0.362236 1.15122
0.411353 -0.362334 1.15146
0.413007 -0.362299 1.15128
0.41461 -0.362227 1.151
0.416148 -0.362114 1.15058
0.417593 -0.361939 1.14998
0.418995 -0.361737 1.14929
0.420532 -0.361622 1.14887
0.358433 -0.36429 1.1596
0.356637 -0.362728 1.1597
0.358166 -0.362625 1.15931
0.359718 -0.362537 1.15898
0.36118 -0.362382 1.15844
0.362673 -0.36225 1.15797
0.364198 -0.362143 1.15757
0.365689 -0.362009 1.15709
0.367291 -0.361958 1.15687
0.368973 -0.361965 1.15683
0.370785 -0.362064 1.15709
0.372577 -0.362149 1.15729
0.374413 -0.362262 1.15758
0.37612 -0.362281 1.15758
0.37758 -0.36212 1.15702
0.378745 -0.361749 1.1558
0.379651 -0.361196 1.15401
0.380189 -0.360385 1.15143
0.380314 -0.359289 1.14795
0.380357 -0.358143 1.14432
0.380359 -0.356977 1.14062
0.380571 -0.355967 1.13741
0.381128 -0.355203 1.13497
0.382257 -0.35484 1.13378
0.383649 -0.35466 1.13316
0.385518 -0.354807 1.13356
0.387804 -0.355235 1.13484
0.390863 -0.356184 1.13773
0.394174 -0.357295 1.14113
0.397574 -0.358456 1.14469
0.400645 -0.359384 1.14752
0.403486 -0.36015 1.14984
0.405587 -0.360417 1.15061
0.407411 -0.360497 1.1508
0.409269 -0.360597 1.15105
0.411077 -0.360662 1.15119
0.412681 -0.360593 1.15091
0.414268 -0.360511 1.1506
0.415764 -0.360371 1.1501
0.417257 -0.360228 1.14959
0.418674 -0.360037 1.14894
0.420348 -0.36001 1.14879
0.355135 -0.362852 1.16014
0.353443 -0.361371 1.16048
0.354907 -0.361218 1.15994
0.356369 -0.361063 1.1594
0.357851 -0.360924 1.15891
0.359392 -0.360829 1.15855
0.360855 -0.360675 1.15801
0.362339 -0.360539 1.15752
0.36386 -0.360428 1.15712
0.365351 -0.360295 1.15665
0.366955 -0.360245 1.15643
0.36864 -0.360254 1.1564
0.370449 -0.360351 1.15665
0.372239 -0.360433 1.15685
0.374023 -0.360509 1.15703
0.375682 -0.360492 1.15692
0.377094 -0.360298 1.15625
0.378103 -0.359819 1.15469
0.378841 -0.35915 1.15254
0.379197 -0.358217 1.14955
0.379259 -0.357083 1.14594
0.379272 -0.355925 1.14225
0.37941 -0.354864 1.13886
0.379804 -0.353986 1.13606
0.380571 -0.353373 1.13408
0.381747 -0.353043 1.13299
0.383135 -0.352862 1.13236
0.384997 -0.353003 1.13275
0.387396 -0.353507 1.13427
0.390585 -0.354539 1.13745
0.394051 -0.355747 1.14117
0.39757 -0.356981 1.14498
0.400716 -0.357954 1.14797
0.403469 -0.358655 1.15011
0.40549 -0.358866 1.15071
0.407271 -0.358917 1.15081
0.409085 -0.358987 1.15097
0.410843 -0.359019 1.15101
0.412392 -0.358913 1.15062
0.413934 -0.358802 1.15022
0.41543 -0.358663 1.14972
0.416974 -0.358553 1.14932
0.418443 -0.358397 1.14877
0.422598 -0.359952 1.15358
0.353178 -0.359707 1.16019
0.354645 -0.359557 1.15966
0.356103 -0.359401 1.15911
0.357532 -0.359221 1.15849
0.359053 -0.359112 1.15809
0.360506 -0.358952 1.15753
0.361952 -0.358787 1.15696
0.363469 -0.358674 1.15655
0.364959 -0.358541 1.15607
0.366535 -0.358472 1.1558
0.368226 -0.358486 1.15578
0.370032 -0.35858 1.15603
0.371743 -0.358604 1.15605
0.373441 -0.358618 1.15604
0.375045 -0.358564 1.15581
0.376372 -0.358312 1.15496
0.377226 -0.357726 1.15306
0.377731 -0.356899 1.15039
0.377802 -0.355772 1.14678
0.377766 -0.35458 1.14297
0.37782 -0.35346 1.13938
0.378181 -0.352562 1.13649
0.378913 -0.351923 1.13443
0.380032 -0.351557 1.13322
0.381323 -0.351309 1.13238
0.382709 -0.351127 1.13175
0.384559 -0.35126 1.13212
0.387116 -0.351867 1.13398
0.390447 -0.352989 1.13746
0.394047 -0.354279 1.14147
0.397655 -0.355564 1.14546
0.40083 -0.356549 1.14851
0.403452 -0.357161 1.15038
0.405389 -0.357314 1.15081
0.407091 -0.357312 1.15074
0.408818 -0.357323 1.15072
0.410527 -0.357323 1.15067
0.412029 -0.357187 1.15018
0.413532 -0.357052 1.1497
0.415032 -0.356915 1.14921
0.416578 -0.356808 1.14882
0.420439 -0.358175 1.15306
0.351405 -0.358164 1.16033
0.35291 -0.358043 1.15989
0.354372 -0.357889 1.15935
0.355815 -0.357722 1.15877
0.357189 -0.357503 1.15802
0.358637 -0.357339 1.15745
0.360048 -0.35715 1.1568
0.361456 -0.356958 1.15613
0.362935 -0.356818 1.15564
0.364421 -0.356685 1.15516
0.366028 -0.356637 1.15496
0.367755 -0.356677 1.15503
0.369497 -0.356727 1.15514
0.371121 -0.35669 1.15496
0.372727 -0.356638 1.15475
0.374135 -0.356446 1.15409
0.375235 -0.356036 1.15274
0.375929 -0.355343 1.15048
0.376298 -0.354428 1.14753
0.376313 -0.353273 1.14381
0.376356 -0.352145 1.14018
0.376613 -0.351174 1.13705
0.377266 -0.350483 1.13481
0.378249 -0.350023 1.13329
0.379543 -0.349778 1.13246
0.380953 -0.349613 1.13189
0.38241 -0.34948 1.13142
0.38426 -0.349612 1.13178
0.386973 -0.350321 1.13397
0.390367 -0.351477 1.13759
0.39403 -0.352803 1.14174
0.397638 -0.354079 1.14573
0.400825 -0.355066 1.1488
0.403282 -0.355563 1.15033
0.405167 -0.355681 1.15065
0.406822 -0.355647 1.15049
0.408461 -0.355602 1.15029
0.410123 -0.355571 1.15014
0.411622 -0.355434 1.14965
0.413129 -0.355302 1.14918
0.414633 -0.355169 1.1487
0.416213 -0.355083 1.14837
0.349723 -0.35669 1.16069
0.351146 -0.356507 1.16005
0.352643 -0.356381 1.1596
0.354095 -0.35622 1.15904
0.355522 -0.356041 1.15841
0.356858 -0.355795 1.15758
0.358267 -0.355604 1.15692
0.359636 -0.355384 1.15617
0.361 -0.355161 1.1554
0.362435 -0.354991 1.15481
0.36388 -0.354829 1.15424
0.365484 -0.354781 1.15404
0.367171 -0.354792 1.15403
0.368796 -0.354757 1.15386
0.370298 -0.354635 1.15342
0.371776 -0.354494 1.15292
0.372982 -0.354162 1.15181
0.373881 -0.353616 1.15002
0.374477 -0.352861 1.14756
0.374828 -0.351941 1.14458
0.374884 -0.350823 1.14096
0.375123 -0.349841 1.13778
0.375671 -0.349079 1.13529
0.376617 -0.348593 1.1337
0.377821 -0.348287 1.13267
0.379283 -0.348158 1.13221
0.380741 -0.348025 1.13174
0.382201 -0.347894 1.13127
0.384048 -0.348023 1.13163
0.386808 -0.348759 1.13393
0.390253 -0.349943 1.13765
0.393963 -0.351291 1.1419
0.397602 -0.35258 1.14596
0.400779 -0.353554 1.14901
0.403142 -0.353985 1.15034
0.404938 -0.354044 1.15047
0.406502 -0.353951 1.15013
0.408047 -0.353845 1.14974
0.409655 -0.35378 1.14948
0.411153 -0.353644 1.14899
0.412669 -0.353518 1.14854
0.414216 -0.353413 1.14815
0.418283 -0.3549 1.15284
0.347848 -0.355069 1.16057
0.34947 -0.355037 1.16042
0.350922 -0.354877 1.15986
0.352398 -0.354735 1.15935
0.353869 -0.354589 1.15884
0.355275 -0.354395 1.15817
0.356575 -0.354123 1.15725
0.35794 -0.353901 1.15649
0.359295 -0.353672 1.1557
0.360618 -0.353421 1.15485
0.362015 -0.353224 1.15417
0.363422 -0.353036 1.15351
0.364943 -0.352928 1.15312
0.366476 -0.352829 1.15276
0.367938 -0.352681 1.15223
0.369306 -0.352465 1.15149
0.370649 -0.352232 1.1507
0.371729 -0.351816 1.14931
0.37253 -0.351207 1.14731
0.373101 -0.350442 1.14481
0.373486 -0.349554 1.14191
0.37368 -0.348541 1.13861
0.374153 -0.347726 1.13595
0.374964 -0.347149 1.13405
0.37612 -0.34681 1.13292
0.377489 -0.346619 1.13226
0.379069 -0.34657 1.13205
0.380568 -0.346465 1.13167
0.382102 -0.346384 1.13136
0.38399 -0.346538 1.13181
0.386909 -0.347374 1.13444
0.390396 -0.348577 1.13826
0.394106 -0.349917 1.1425
0.397696 -0.351165 1.14646
0.400828 -0.352103 1.14942
0.402954 -0.352377 1.15025
0.404622 -0.352353 1.15012
0.406045 -0.352169 1.14948
0.407452 -0.351975 1.14881
0.408972 -0.351854 1.14838
0.410469 -0.351717 1.14789
0.411984 -0.351593 1.14744
0.413576 -0.351518 1.14715
0.347454 -0.353312 1.15996
0.34903 -0.353246 1.1597
0.350503 -0.353103 1.15919
0.351966 -0.352952 1.15866
0.353477 -0.352837 1.15825
0.354883 -0.352643 1.15758
0.356178 -0.35237 1.15665
0.357534 -0.352143 1.15587
0.358888 -0.351914 1.15508
0.36021 -0.351663 1.15423
0.361609 -0.35147 1.15356
0.36301 -0.351277 1.15289
0.364449 -0.351112 1.15232
0.365855 -0.350925 1.15166
0.367145 -0.350655 1.15075
0.368379 -0.350348 1.14971
0.369592 -0.350027 1.14863
0.37055 -0.34953 1.14698
0.371269 -0.34887 1.1448
0.37191 -0.348161 1.14247
0.372389 -0.347344 1.13979
0.372771 -0.346468 1.13691
0.373434 -0.34579 1.13468
0.374488 -0.345382 1.13332
0.375769 -0.34513 1.13246
0.377246 -0.345011 1.13204
0.378865 -0.344988 1.13192
0.380432 -0.34493 1.13168
0.382004 -0.344873 1.13146
0.384009 -0.345103 1.13215
0.386977 -0.345966 1.13489
0.390434 -0.347142 1.13864
0.394095 -0.348441 1.14278
0.397628 -0.349643 1.14662
0.40064 -0.350496 1.14933
0.402645 -0.350691 1.14991
0.404265 -0.350634 1.14968
0.405586 -0.350386 1.14883
0.406853 -0.350104 1.14788
0.408237 -0.349898 1.14717
0.409688 -0.349735 1.14659
0.411167 -0.349589 1.14608
0.415379 -0.351159 1.1511
0.34699 -0.351504 1.15918
0.348544 -0.351422 1.15887
0.350041 -0.351298 1.15842
0.351481 -0.351131 1.15784
0.353068 -0.351073 1.15761
0.354506 -0.350906 1.15702
0.355833 -0.350656 1.15617
0.357185 -0.350427 1.15538
0.358578 -0.350228 1.15469
0.359948 -0.350013 1.15395
0.361357 -0.349827 1.1533
0.362721 -0.349609 1.15255
0.364107 -0.349407 1.15186
0.365347 -0.349103 1.15083
0.366436 -0.348694 1.14946
0.36754 -0.348299 1.14813
0.368675 -0.347926 1.14688
0.369527 -0.347361 1.145
0.370216 -0.346685 1.14276
0.37098 -0.346066 1.14071
0.371627 -0.345371 1.13841
0.372223 -0.344646 1.13601
0.373123 -0.344134 1.1343
0.374367 -0.343856 1.13336
0.375715 -0.343651 1.13265
0.377187 -0.343528 1.13221
0.378764 -0.343477 1.132
0.380332 -0.343418 1.13177
0.381981 -0.343412 1.13171
0.384153 -0.34375 1.13276
0.387185 -0.344649 1.13564
0.390575 -0.345772 1.13924
0.394139 -0.346998 1.14318
0.397527 -0.348099 1.14671
0.40033 -0.348811 1.14898
0.402174 -0.348902 1.14923
0.403741 -0.348812 1.14889
0.405001 -0.348526 1.14792
0.406212 -0.348211 1.14686
0.407509 -0.347951 1.14597
0.408914 -0.347761 1.14531
0.41034 -0.347584 1.14469
0.414703 -0.34924 1.15002
0.345981 -0.349292 1.15706
0.347212 -0.348974 1.15598
0.348514 -0.348709 1.15508
0.349634 -0.348312 1.15374
0.3509 -0.348024 1.15276
0.352233 -0.347787 1.15195
0.353452 -0.347467 1.15086
0.354697 -0.347169 1.14985
0.356524 -0.34729 1.1502
0.358379 -0.347428 1.15062
0.360317 -0.347624 1.15122
0.362151 -0.347743 1.15156
0.363924 -0.347817 1.15177
0.365006 -0.347402 1.15037
0.365939 -0.346887 1.14865
0.36689 -0.346386 1.14697
0.367908 -0.345937 1.14546
0.368759 -0.345374 1.14359
0.369536 -0.344764 1.14155
0.370428 -0.344237 1.13979
0.371237 -0.343657 1.13786
0.372025 -0.343066 1.13589
0.373037 -0.34263 1.13443
0.37432 -0.342381 1.13357
0.375657 -0.342168 1.13284
0.377163 -0.342068 1.13247
0.378738 -0.342014 1.13225
0.380351 -0.341985 1.13212
0.382123 -0.342058 1.13232
0.384469 -0.342507 1.13374
0.387488 -0.34339 1.13659
0.390806 -0.344458 1.14004
0.394181 -0.345554 1.14357
0.397377 -0.346523 1.1467
0.399921 -0.347066 1.14843
0.401679 -0.3471 1.1485
0.403201 -0.346982 1.14808
0.404416 -0.346669 1.14702
0.405544 -0.346304 1.14578
0.406795 -0.346017 1.1448
0.40815 -0.345797 1.14405
0.409519 -0.345587 1.14332
0.413912 -0.347254 1.14872
0.344935 -0.345837 1.1508
0.346213 -0.345563 1.14986
0.347212 -0.345086 1.14826
0.348531 -0.344845 1.14743
0.349753 -0.344535 1.14637
0.350853 -0.344139 1.14503
0.351977 -0.343762 1.14376
0.353756 -0.343857 1.14403
0.355587 -0.343985 1.14442
0.358098 -0.344594 1.14638
0.360556 -0.345158 1.1482
0.362926 -0.345654 1.14979
0.364477 -0.345571 1.14949
0.365875 -0.345382 1.14883
0.366707 -0.344802 1.14688
0.367605 -0.344271 1.1451
0.368378 -0.343658 1.14305
0.36919 -0.343075 1.14109
0.370092 -0.342558 1.13936
0.370984 -0.342037 1.13761
0.371886 -0.341527 1.13589
0.372939 -0.341121 1.13452
0.374228 -0.340875 1.13368
0.375569 -0.340665 1.13295
0.377106 -0.340586 1.13265
0.378685 -0.340534 1.13245
0.380419 -0.340583 1.13257
0.38236 -0.340766 1.13313
0.384848 -0.341302 1.13486
0.387839 -0.342159 1.13764
0.391061 -0.343158 1.14088
0.3942 -0.344094 1.14392
0.397126 -0.344883 1.14648
0.399456 -0.345286 1.14776
0.401127 -0.345264 1.14765
0.402568 -0.345096 1.14706
0.403784 -0.344786 1.14601
0.404913 -0.344424 1.14478
0.40613 -0.344119 1.14374
0.407441 -0.343873 1.14289
0.408798 -0.343656 1.14214
0.413045 -0.345224 1.14726
0.343352 -0.342025 1.14328
0.344606 -0.341745 1.14233
0.345964 -0.341541 1.14162
0.347128 -0.341199 1.14045
0.348168 -0.340769 1.13899
0.34919 -0.34033 1.13751
0.350918 -0.340394 1.13769
0.352723 -0.340512 1.13804
0.355302 -0.341173 1.1402
0.357845 -0.341801 1.14224
0.360841 -0.342739 1.14531
0.363 -0.343085 1.14642
0.364967 -0.343294 1.14708
0.366264 -0.343039 1.1462
0.367582 -0.342799 1.14537
0.368225 -0.342099 1.14302
0.36892 -0.34144 1.14081
0.369784 -0.3409 1.13899
0.370713 -0.340405 1.13732
0.371653 -0.339923 1.13569
0.372761 -0.339556 1.13444
0.374095 -0.339342 1.1337
0.375513 -0.339183 1.13314
0.377088 -0.339128 1.13292
0.378677 -0.339081 1.13274
0.380501 -0.339187 1.13305
0.382535 -0.339429 1.13382
0.385072 -0.339992 1.13565
0.387947 -0.340769 1.13818
0.391018 -0.341663 1.1411
0.393924 -0.342443 1.14364
0.396668 -0.343112 1.14582
0.398791 -0.343381 1.14667
0.400459 -0.343358 1.14656
0.401894 -0.343188 1.14596
0.403192 -0.342932 1.14508
0.404369 -0.342602 1.14396
0.405628 -0.342325 1.143
0.406937 -0.34208 1.14216
0.408293 -0.341863 1.14141
0.412299 -0.343275 1.14604
0.339024 -0.338624 1.13712
0.34077 -0.338712 1.13738
0.342295 -0.338637 1.1371
0.343622 -0.338419 1.13634
0.344733 -0.338046 1.13507
0.345721 -0.337588 1.13352
0.346627 -0.337077 1.13178
0.348285 -0.337099 1.13182
0.350002 -0.337161 1.132
0.352463 -0.337743 1.13391
0.354967 -0.338349 1.13589
0.358141 -0.339411 1.1394
0.36047 -0.339881 1.14093
0.362971 -0.340463 1.14283
0.364753 -0.340546 1.14308
0.366508 -0.34061 1.14326
0.36753 -0.340173 1.14177
0.368518 -0.339716 1.14022
0.369366 -0.339168 1.13837
0.370329 -0.338701 1.13678
0.371351 -0.338275 1.13533
0.372543 -0.337966 1.13427
0.373959 -0.337806 1.13371
0.375455 -0.337698 1.13332
0.377036 -0.337647 1.13312
0.378665 -0.337625 1.13302
0.380496 -0.337735 1.13335
0.382609 -0.338025 1.13428
0.385075 -0.338538 1.13596
0.387817 -0.339223 1.1382
0.390703 -0.339994 1.14073
0.393468 -0.340679 1.14298
0.396009 -0.341216 1.14473
0.398051 -0.341432 1.14542
0.399752 -0.341431 1.14538
0.401226 -0.341287 1.14488
0.402571 -0.341063 1.1441
0.403829 -0.340785 1.14314
0.405177 -0.340565 1.14237
0.406532 -0.340349 1.14163
0.407933 -0.340161 1.14097
0.409331 -0.339973 1.14031
0.335768 -0.33601 1.1335
0.337245 -0.335908 1.13313
0.338723 -0.335805 1.13276
0.340088 -0.335621 1.13212
0.341379 -0.335385 1.1313
0.342418 -0.33497 1.12988
0.343335 -0.334471 1.12818
0.344175 -0.333921 1.12631
0.345696 -0.333854 1.12606
0.347311 -0.333852 1.12602
0.349641 -0.334347 1.12765
0.352078 -0.33491 1.12951
0.355215 -0.335949 1.13296
0.35769 -0.336524 1.13486
0.36044 -0.337281 1.13736
0.362519 -0.337572 1.13831
0.364556 -0.337832 1.13915
0.365839 -0.337579 1.13827
0.367096 -0.337309 1.13734
0.368188 -0.33693 1.13605
0.369403 -0.336635 1.13503
0.370652 -0.336365 1.1341
0.372034 -0.336183 1.13346
0.373601 -0.336124 1.13323
0.375209 -0.336091 1.13309
0.376829 -0.336064 1.13298
0.3785 -0.336069 1.13297
0.380357 -0.336195 1.13336
0.382499 -0.3365 1.13435
0.38484 -0.33693 1.13576
0.387415 -0.337504 1.13765
0.390164 -0.338183 1.13989
0.392793 -0.338779 1.14186
0.39518 -0.339215 1.14329
0.397224 -0.339434 1.14399
0.399005 -0.339484 1.14413
0.40052 -0.339367 1.14371
0.401912 -0.339173 1.14303
0.403224 -0.33893 1.14219
0.404657 -0.338764 1.1416
0.406059 -0.338579 1.14095
0.407505 -0.338421 1.14039
0.409026 -0.338309 1.13999
0.332885 -0.336268 1.13442
0.331191 -0.334794 1.1346
0.3326 -0.334642 1.13406
0.334273 -0.3361 1.13383
0.333936 -0.334437 1.13335
0.335315 -0.334263 1.13274
0.336721 -0.33411 1.1322
0.338133 -0.333962 1.13167
0.339483 -0.333769 1.13099
0.340741 -0.333511 1.1301
0.341845 -0.333146 1.12884
0.342867 -0.332725 1.1274
0.343824 -0.33226 1.12581
0.344923 -0.331898 1.12456
0.346101 -0.331593 1.12351
0.347894 -0.331716 1.1239
0.349791 -0.331908 1.12452
0.352398 -0.332584 1.12678
0.354895 -0.333178 1.12875
0.357724 -0.333991 1.13146
0.360004 -0.334425 1.1329
0.362303 -0.334865 1.13436
0.36383 -0.334783 1.13405
0.365338 -0.334687 1.13371
0.36668 -0.334481 1.13298
0.368168 -0.334372 1.13259
0.369666 -0.33427 1.13222
0.371318 -0.334269 1.13219
0.373112 -0.334359 1.13247
0.374874 -0.334426 1.13267
0.376537 -0.334427 1.13265
0.378241 -0.334454 1.13271
0.380047 -0.334545 1.13299
0.382069 -0.334772 1.13373
0.384242 -0.335092 1.13478
0.386689 -0.335582 1.1364
0.3893 -0.33617 1.13836
0.391841 -0.336708 1.14014
0.39418 -0.337114 1.14149
0.396265 -0.337358 1.14228
0.398124 -0.337457 1.14259
0.399732 -0.337399 1.14237
0.401249 -0.337286 1.14196
0.402728 -0.337148 1.14146
0.404291 -0.337061 1.14115
0.405783 -0.336931 1.14068
0.407272 -0.3368 1.14021
0.408915 -0.33676 1.14005
0.329561 -0.333366 1.13493
0.33091 -0.333171 1.13424
0.332259 -0.332976 1.13356
0.333543 -0.332734 1.13272
0.334817 -0.332487 1.13186
0.336107 -0.332251 1.13104
0.337431 -0.332042 1.13031
0.338731 -0.331815 1.12952
0.339927 -0.331518 1.12848
0.341103 -0.331206 1.1274
0.342229 -0.330861 1.12621
0.343295 -0.330477 1.12488
0.344467 -0.330168 1.12382
0.345751 -0.329939 1.12302
0.347072 -0.329735 1.1223
0.34846 -0.329579 1.12175
0.350496 -0.329864 1.1227
0.352489 -0.330117 1.12353
0.354868 -0.330628 1.12524
0.357299 -0.331167 1.12705
0.359754 -0.331717 1.12889
0.361589 -0.331847 1.1293
0.363387 -0.33195 1.12963
0.365018 -0.331942 1.12958
0.36677 -0.332011 1.12979
0.368551 -0.332097 1.13006
0.370452 -0.332259 1.13059
0.372487 -0.332508 1.1314
0.374449 -0.332704 1.13205
0.376233 -0.332784 1.13229
0.377971 -0.332831 1.13243
0.379699 -0.332871 1.13254
0.381555 -0.332991 1.13293
0.383564 -0.333207 1.13363
0.385838 -0.333585 1.13489
0.388275 -0.334062 1.13648
0.390761 -0.334564 1.13816
0.393126 -0.334985 1.13957
0.395252 -0.335254 1.14045
0.397197 -0.335408 1.14095
0.398968 -0.335452 1.14108
0.400616 -0.33542 1.14094
0.402228 -0.335364 1.14073
0.403924 -0.335359 1.14069
0.405584 -0.335331 1.14057
0.407084 -0.335206 1.14012
0.408806 -0.335214 1.14013
0.329187 -0.331676 1.13434
0.330498 -0.331454 1.13357
0.331784 -0.331215 1.13273
0.332997 -0.330925 1.13172
0.334213 -0.330637 1.13072
0.335458 -0.330372 1.1298
0.336712 -0.330114 1.1289
0.337974 -0.329864 1.12802
0.339166 -0.329566 1.12699
0.340376 -0.329282 1.126
0.341543 -0.328969 1.12491
0.342717 -0.328662 1.12384
0.343964 -0.328408 1.12296
0.345318 -0.328228 1.12232
0.346676 -0.328051 1.1217
0.348103 -0.327922 1.12124
0.349665 -0.327885 1.1211
0.351177 -0.327813 1.12083
0.353095 -0.328013 1.12149
0.355112 -0.328277 1.12237
0.357188 -0.328576 1.12337
0.359236 -0.328854 1.1243
0.361307 -0.329142 1.12526
0.363138 -0.329269 1.12568
0.365093 -0.329475 1.12636
0.367173 -0.32976 1.12731
0.369317 -0.330082 1.12839
0.371599 -0.330489 1.12976
0.37377 -0.330821 1.13087
0.375711 -0.331001 1.13146
0.377521 -0.331095 1.13176
0.379209 -0.331109 1.13179
0.380976 -0.331173 1.13199
0.382886 -0.331325 1.13248
0.385017 -0.331612 1.13344
0.387287 -0.331983 1.13469
0.389715 -0.332448 1.13625
0.392039 -0.332843 1.13758
0.39424 -0.333158 1.13863
0.396312 -0.33339 1.1394
0.398214 -0.333515 1.13981
0.399995 -0.333565 1.13995
0.401775 -0.333612 1.14009
0.403567 -0.333665 1.14025
0.405328 -0.333697 1.14034
0.40691 -0.333621 1.14006
0.411439 -0.335302 1.14577
0.327466 -0.330184 1.13445
0.328702 -0.329907 1.13348
0.329967 -0.329654 1.1326
0.331215 -0.32939 1.13167
0.332364 -0.329055 1.1305
0.333517 -0.328726 1.12936
0.334728 -0.328439 1.12835
0.335907 -0.328132 1.12728
0.337123 -0.327852 1.12631
0.338309 -0.327552 1.12526
0.339553 -0.327295 1.12436
0.340761 -0.327014 1.12338
0.342039 -0.326782 1.12256
0.343325 -0.326557 1.12178
0.344715 -0.326403 1.12123
0.346106 -0.326251 1.12069
0.347599 -0.326168 1.12039
0.349166 -0.326136 1.12026
0.350713 -0.326087 1.12008
0.352324 -0.326082 1.12004
0.354031 -0.326139 1.12022
0.355785 -0.326225 1.1205
0.35756 -0.326323 1.12082
0.359451 -0.326496 1.1214
0.361413 -0.326712 1.12212
0.36346 -0.326981 1.12302
0.365643 -0.327333 1.12422
0.367962 -0.32777 1.1257
0.370446 -0.328308 1.12753
0.372787 -0.328748 1.12902
0.37496 -0.329076 1.13013
0.37692 -0.329266 1.13076
0.378678 -0.329325 1.13095
0.380364 -0.329337 1.13097
0.382216 -0.329452 1.13135
0.384172 -0.329629 1.13194
0.386306 -0.329915 1.1329
0.388608 -0.3303 1.13421
0.390925 -0.330691 1.13553
0.39317 -0.331032 1.13668
0.395331 -0.33132 1.13765
0.39736 -0.331521 1.13832
0.399302 -0.331669 1.13881
0.401256 -0.331822 1.13932
0.403182 -0.331955 1.13976
0.405077 -0.332067 1.14012
0.40944 -0.333646 1.14552
0.325793 -0.328725 1.13466
0.326993 -0.328424 1.13361
0.328169 -0.328107 1.1325
0.329399 -0.327831 1.13153
0.330581 -0.327521 1.13044
0.331705 -0.327172 1.12922
0.332858 -0.326845 1.12808
0.334035 -0.326538 1.127
0.335147 -0.326186 1.12577
0.336287 -0.325855 1.12462
0.337426 -0.325527 1.12347
0.338636 -0.325249 1.1225
0.339883 -0.324998 1.12162
0.341233 -0.324818 1.12098
0.342588 -0.324643 1.12036
0.344042 -0.324536 1.11998
0.345498 -0.32443 1.1196
0.347026 -0.324371 1.11938
0.348629 -0.324362 1.11933
0.350206 -0.324335 1.11923
0.351819 -0.324331 1.1192
0.353456 -0.324342 1.11922
0.355135 -0.32438 1.11934
0.356828 -0.324424 1.11948
0.358598 -0.324518 1.11979
0.36041 -0.324636 1.12018
0.362326 -0.32482 1.1208
0.364411 -0.325109 1.12179
0.366678 -0.325513 1.12317
0.369201 -0.326075 1.12509
0.371659 -0.326589 1.12685
0.374025 -0.32704 1.12839
0.376178 -0.327351 1.12945
0.378057 -0.327487 1.12991
0.37975 -0.327503 1.12995
0.381587 -0.327609 1.1303
0.383454 -0.327731 1.13071
0.38546 -0.327936 1.1314
0.387634 -0.328242 1.13244
0.389936 -0.328622 1.13374
0.392218 -0.328986 1.13498
0.394465 -0.329324 1.13613
0.396587 -0.329583 1.13701
0.398693 -0.329829 1.13785
0.400807 -0.330076 1.13869
0.4055 -0.331859 1.14483
0.324055 -0.327221 1.13471
0.325301 -0.326954 1.13377
0.326441 -0.326611 1.13257
0.327566 -0.32626 1.13134
0.328743 -0.325947 1.13024
0.329921 -0.325637 1.12915
0.331044 -0.325292 1.12794
0.332198 -0.324968 1.1268
0.333346 -0.324643 1.12566
0.334385 -0.324243 1.12426
0.33545 -0.323865 1.12293
0.336546 -0.323509 1.12169
0.33772 -0.32321 1.12063
0.33897 -0.322964 1.11977
0.340355 -0.322812 1.11923
0.341773 -0.322682 1.11876
0.343261 -0.322599 1.11846
0.344785 -0.32254 1.11825
0.346382 -0.32253 1.1182
0.348054 -0.322568 1.11832
0.349703 -0.322589 1.11839
0.351347 -0.322606 1.11843
0.352989 -0.32262 1.11847
0.354632 -0.322634 1.11851
0.356319 -0.322674 1.11864
0.358013 -0.322719 1.11878
0.359741 -0.322783 1.11899
0.361502 -0.322867 1.11927
0.363488 -0.323093 1.12005
0.365585 -0.323386 1.12105
0.368008 -0.323883 1.12277
0.370462 -0.324395 1.12453
0.372946 -0.324919 1.12634
0.375229 -0.325311 1.1277
0.377276 -0.325552 1.12852
0.379088 -0.325644 1.12883
0.38097 -0.325777 1.12928
0.382789 -0.325869 1.12959
0.384706 -0.326019 1.1301
0.386822 -0.326288 1.13102
0.389074 -0.326637 1.13222
0.391427 -0.327043 1.13362
0.393756 -0.32743 1.13495
0.396001 -0.327761 1.13609
0.398232 -0.32808 1.13719
0.400436 -0.32838 1.13822
0.410425 -0.333762 1.15138
0.408109 -0.331917 1.1505
0.322827 -0.327503 1.1357
0.321122 -0.326021 1.13583
0.32239 -0.325769 1.13494
0.3236 -0.325476 1.13391
0.324817 -0.32519 1.1329
0.325948 -0.324843 1.13168
0.327007 -0.324448 1.13028
0.328155 -0.324117 1.12912
0.329335 -0.323812 1.12804
0.330454 -0.323465 1.12682
0.33157 -0.323118 1.1256
0.33268 -0.322769 1.12437
0.333652 -0.322327 1.12282
0.334673 -0.32192 1.12139
0.335761 -0.321563 1.12013
0.336931 -0.321264 1.11907
0.338214 -0.321044 1.1183
0.339631 -0.320915 1.11784
0.341081 -0.320809 1.11746
0.342603 -0.32075 1.11724
0.344169 -0.32072 1.11713
0.345778 -0.320719 1.11712
0.347486 -0.320781 1.11732
0.349166 -0.320823 1.11746
0.350848 -0.320866 1.1176
0.352527 -0.320904 1.11773
0.354205 -0.32094 1.11785
0.355855 -0.320957 1.1179
0.357508 -0.320975 1.11795
0.359127 -0.320969 1.11792
0.360775 -0.320981 1.11796
0.362601 -0.321105 1.11838
0.364528 -0.32129 1.11902
0.366777 -0.321676 1.12036
0.36913 -0.322123 1.12192
0.371608 -0.322642 1.12372
0.374014 -0.323112 1.12536
0.376228 -0.323457 1.12655
0.378205 -0.323652 1.12723
0.3802 -0.323855 1.12793
0.382053 -0.323967 1.12831
0.383962 -0.324113 1.12881
0.386067 -0.324375 1.12972
0.388383 -0.324761 1.13106
0.390848 -0.325231 1.1327
0.393303 -0.325691 1.1343
0.395642 -0.326077 1.13564
0.400794 -0.328129 1.14281
0.32051 -0.324162 1.13462
0.321792 -0.323922 1.13377
0.32302 -0.323644 1.13279
0.324219 -0.323348 1.13174
0.325333 -0.322992 1.13048
0.326397 -0.322602 1.12911
0.32755 -0.322279 1.12796
0.328693 -0.32195 1.1268
0.329802 -0.321599 1.12556
0.330852 -0.32121 1.12418
0.331919 -0.320834 1.12285
0.332854 -0.32037 1.12121
0.33387 -0.319964 1.11978
0.334956 -0.319609 1.11852
0.336159 -0.319335 1.11755
0.337477 -0.319141 1.11687
0.338925 -0.319035 1.11649
0.340405 -0.318951 1.11618
0.341928 -0.318895 1.11598
0.343531 -0.318891 1.11596
0.345174 -0.318911 1.11603
0.346888 -0.318979 1.11626
0.348632 -0.319063 1.11655
0.350347 -0.319127 1.11677
0.352033 -0.31917 1.11692
0.353713 -0.319208 1.11704
0.355357 -0.319221 1.11708
0.356969 -0.319212 1.11705
0.358583 -0.319203 1.11701
0.360195 -0.319194 1.11697
0.36188 -0.319227 1.11708
0.363678 -0.319331 1.11744
0.365719 -0.319585 1.11833
0.367898 -0.319922 1.11951
0.370286 -0.320385 1.12114
0.372759 -0.320895 1.12293
0.375091 -0.321314 1.1244
0.37719 -0.321584 1.12534
0.379263 -0.321835 1.12622
0.381225 -0.322015 1.12685
0.383206 -0.322203 1.1275
0.385431 -0.322537 1.12867
0.38795 -0.323043 1.13045
0.390665 -0.32366 1.13261
0.393258 -0.324199 1.1345
0.398511 -0.326309 1.14193
0.319819 -0.322248 1.13321
0.321152 -0.322049 1.13249
0.322423 -0.321804 1.13163
0.323601 -0.321496 1.13053
0.324727 -0.321151 1.12931
0.325792 -0.320766 1.12794
0.326938 -0.32044 1.12678
0.328014 -0.320067 1.12546
0.329057 -0.319673 1.12406
0.330065 -0.319258 1.12259
0.331129 -0.318884 1.12126
0.332058 -0.318419 1.11961
0.333107 -0.31804 1.11826
0.334234 -0.317717 1.11711
0.335477 -0.317473 1.11625
0.336829 -0.317304 1.11565
0.33831 -0.317221 1.11535
0.339823 -0.31716 1.11513
0.341376 -0.317124 1.115
0.343006 -0.317139 1.11505
0.344678 -0.31718 1.11519
0.346386 -0.317242 1.11541
0.348128 -0.317325 1.1157
0.349846 -0.317391 1.11593
0.351528 -0.317432 1.11608
0.35321 -0.317471 1.11621
0.354851 -0.317483 1.11625
0.356457 -0.31747 1.1162
0.358064 -0.317457 1.11616
0.359675 -0.317446 1.11612
0.361325 -0.317459 1.11616
0.363018 -0.317497 1.11629
0.364893 -0.317647 1.11682
0.366935 -0.317898 1.1177
0.369187 -0.318275 1.11904
0.371613 -0.318755 1.12074
0.374018 -0.319217 1.12237
0.37623 -0.319556 1.12357
0.378343 -0.319832 1.12454
0.380414 -0.320077 1.12541
0.382625 -0.320405 1.12657
0.385111 -0.320893 1.12829
0.387944 -0.321583 1.13073
0.391007 -0.322402 1.13363
0.393784 -0.323044 1.13591
0.317777 -0.320526 1.13245
0.319139 -0.320348 1.13182
0.320499 -0.32017 1.13118
0.321744 -0.31991 1.13025
0.322932 -0.31961 1.12919
0.324053 -0.319267 1.12796
0.325079 -0.318857 1.1265
0.326156 -0.318485 1.12518
0.327193 -0.31809 1.12376
0.328232 -0.317697 1.12237
0.329236 -0.317283 1.12089
0.330301 -0.316913 1.11957
0.331263 -0.316476 1.11801
0.332385 -0.31615 1.11685
0.333581 -0.315876 1.11587
0.334897 -0.315684 1.11519
0.336319 -0.315563 1.11476
0.337834 -0.315503 1.11454
0.339379 -0.315464 1.11441
0.340932 -0.315429 1.11428
0.342557 -0.31544 1.11432
0.344221 -0.315476 1.11445
0.345891 -0.315513 1.11458
0.347562 -0.31555 1.11472
0.349237 -0.315588 1.11485
0.350916 -0.315627 1.11499
0.352561 -0.315643 1.11505
0.354231 -0.315674 1.11516
0.35587 -0.315683 1.11519
0.357543 -0.315713 1.1153
0.359196 -0.315728 1.11535
0.360881 -0.315762 1.11547
0.362534 -0.315776 1.11552
0.364325 -0.315873 1.11587
0.366212 -0.316027 1.11642
0.3683 -0.316303 1.1174
0.370602 -0.316706 1.11884
0.372957 -0.317136 1.12037
0.375171 -0.317475 1.12158
0.377318 -0.317771 1.12264
0.379429 -0.318041 1.1236
0.381656 -0.318376 1.1248
0.387141 -0.320649 1.1329
0.390662 -0.321736 1.13678
0.394245 -0.322849 1.14075
0.315808 -0.318857 1.13187
0.317181 -0.318689 1.13127
0.318533 -0.318506 1.13062
0.319837 -0.318289 1.12984
0.321037 -0.318 1.12881
0.322224 -0.317703 1.12774
0.323342 -0.317359 1.12652
0.324358 -0.316947 1.12504
0.325421 -0.31657 1.12369
0.326418 -0.31615 1.12218
0.327459 -0.315762 1.1208
0.328497 -0.315375 1.11941
0.329569 -0.315014 1.11812
0.330599 -0.314627 1.11673
0.331822 -0.314371 1.11582
0.333094 -0.31415 1.11503
0.334481 -0.314007 1.11452
0.335966 -0.31393 1.11424
0.337512 -0.313891 1.11411
0.339029 -0.313832 1.1139
0.340585 -0.3138 1.11378
0.342177 -0.313789 1.11375
0.343806 -0.313801 1.1138
0.345434 -0.313812 1.11384
0.347065 -0.313823 1.11388
0.348662 -0.313811 1.11384
0.350327 -0.313842 1.11396
0.351966 -0.313854 1.114
0.353613 -0.31387 1.11407
0.355287 -0.313903 1.11418
0.357034 -0.313979 1.11446
0.358723 -0.314017 1.1146
0.360419 -0.314058 1.11475
0.362103 -0.31409 1.11487
0.363853 -0.314161 1.11513
0.36562 -0.314242 1.11542
0.367591 -0.314445 1.11615
0.369804 -0.314791 1.1174
0.37211 -0.315189 1.11883
0.374279 -0.315501 1.11996
0.376462 -0.315818 1.1211
0.378606 -0.316107 1.12214
0.38382 -0.318217 1.12972
0.315342 -0.317114 1.13102
0.316675 -0.31692 1.13032
0.317967 -0.316696 1.12952
0.319237 -0.316457 1.12866
0.320333 -0.316097 1.12737
0.321482 -0.315777 1.12622
0.32256 -0.31541 1.1249
0.323568 -0.314995 1.1234
0.324598 -0.314599 1.12198
0.325631 -0.314207 1.12057
0.326701 -0.313844 1.11926
0.32781 -0.313508 1.11806
0.328948 -0.313195 1.11693
0.33005 -0.312859 1.11573
0.331308 -0.312629 1.1149
0.332646 -0.312454 1.11428
0.334072 -0.312338 1.11386
0.335593 -0.312284 1.11367
0.33717 -0.312266 1.11362
0.338714 -0.312226 1.11348
0.340236 -0.312171 1.11329
0.341798 -0.312141 1.11318
0.343423 -0.31215 1.11322
0.345016 -0.312138 1.11319
0.346605 -0.312123 1.11314
0.348126 -0.312062 1.11293
0.349746 -0.312065 1.11294
0.351346 -0.312053 1.1129
0.352995 -0.312071 1.11297
0.354711 -0.31213 1.11319
0.356603 -0.312296 1.1138
0.358369 -0.312382 1.11412
0.360107 -0.312449 1.11436
0.361824 -0.3125 1.11456
0.363571 -0.312568 1.11481
0.365298 -0.312624 1.11502
0.367194 -0.312779 1.11559
0.369317 -0.313069 1.11664
0.371572 -0.313436 1.11797
0.373696 -0.313718 1.119
0.375847 -0.314014 1.12007
0.377986 -0.314299 1.12111
0.314648 -0.315214 1.12958
0.316006 -0.315038 1.12895
0.317358 -0.314858 1.12831
0.318566 -0.31458 1.1273
0.319653 -0.314216 1.12599
0.320792 -0.313892 1.12482
0.321873 -0.31353 1.12351
0.322889 -0.313124 1.12205
0.323954 -0.312756 1.12072
0.325022 -0.312391 1.1194
0.326126 -0.312054 1.11818
0.327306 -0.311769 1.11716
0.328482 -0.311483 1.11613
0.32965 -0.311194 1.11508
0.330938 -0.310986 1.11433
0.332278 -0.310813 1.11372
0.333704 -0.310697 1.1133
0.335259 -0.310666 1.1132
0.336837 -0.310649 1.11315
0.338379 -0.310608 1.11301
0.339927 -0.310569 1.11288
0.341449 -0.310514 1.11269
0.34304 -0.310502 1.11265
0.344597 -0.310466 1.11253
0.346151 -0.310429 1.1124
0.347636 -0.310346 1.11211
0.34925 -0.310344 1.11212
0.350845 -0.31033 1.11207
0.352524 -0.310367 1.11222
0.354245 -0.310428 1.11245
0.356173 -0.310617 1.11314
0.357983 -0.310728 1.11356
0.359759 -0.310817 1.1139
0.361481 -0.310872 1.1141
0.363294 -0.31098 1.11451
0.365057 -0.311056 1.11479
0.366953 -0.31121 1.11536
0.369035 -0.311474 1.11633
0.371278 -0.311829 1.11763
0.373357 -0.312083 1.11857
0.375438 -0.312335 1.11949
0.377501 -0.312573 1.12037
0.314011 -0.313357 1.12828
0.315351 -0.313171 1.12761
0.316718 -0.313005 1.12702
0.317929 -0.31273 1.12602
0.319009 -0.312365 1.1247
0.320151 -0.312046 1.12354
0.321263 -0.311708 1.12232
0.322348 -0.311353 1.12103
0.323456 -0.311016 1.11982
0.32459 -0.3107 1.11867
0.325762 -0.31041 1.11762
0.327006 -0.31017 1.11675
0.328191 -0.309892 1.11575
0.329392 -0.309626 1.11479
0.330675 -0.309416 1.11403
0.332008 -0.309238 1.11339
0.333428 -0.309119 1.11297
0.335018 -0.309112 1.11295
0.336602 -0.309098 1.11292
0.338147 -0.309058 1.11278
0.339688 -0.309015 1.11264
0.341169 -0.308933 1.11235
0.342688 -0.308873 1.11215
0.344207 -0.308816 1.11194
0.345763 -0.308779 1.11182
0.347252 -0.308699 1.11154
0.348837 -0.30868 1.11148
0.350426 -0.308662 1.11143
0.35213 -0.308713 1.11163
0.35385 -0.308774 1.11187
0.35578 -0.308962 1.11257
0.357625 -0.309095 1.11307
0.359433 -0.309203 1.11347
0.36119 -0.309277 1.11376
0.363042 -0.309408 1.11425
0.364817 -0.30949 1.11457
0.366683 -0.309625 1.11507
0.368731 -0.309866 1.11597
0.370926 -0.31019 1.11717
0.372967 -0.31042 1.11802
0.375043 -0.310667 1.11894
0.377069 -0.310882 1.11974
0.31208 -0.311722 1.12777
0.313473 -0.311576 1.12724
0.314739 -0.31134 1.12639
0.316087 -0.311161 1.12575
0.317328 -0.31091 1.12484
0.318441 -0.310571 1.1236
0.319586 -0.310256 1.12246
0.320767 -0.309969 1.12142
0.32192 -0.309662 1.1203
0.323096 -0.309374 1.11926
0.324294 -0.309101 1.11827
0.325501 -0.308838 1.11731
0.326777 -0.308619 1.11652
0.327995 -0.308365 1.1156
0.329228 -0.308121 1.11472
0.33048 -0.307892 1.11389
0.331806 -0.30771 1.11324
0.333189 -0.307567 1.11272
0.334742 -0.307534 1.11262
0.3363 -0.307504 1.11252
0.337817 -0.307445 1.11232
0.339324 -0.307381 1.1121
0.340798 -0.307295 1.1118
0.342309 -0.307231 1.11158
0.343825 -0.307171 1.11137
0.34541 -0.307153 1.11132
0.346966 -0.307116 1.1112
0.34856 -0.307102 1.11116
0.350155 -0.307086 1.11112
0.351853 -0.307134 1.11131
0.353595 -0.307207 1.1116
0.355492 -0.307373 1.11223
0.357332 -0.307502 1.11272
0.359168 -0.307626 1.11319
0.360957 -0.307719 1.11355
0.362819 -0.307855 1.11407
0.36464 -0.307962 1.11448
0.366509 -0.308098 1.115
0.368519 -0.308313 1.11581
0.370707 -0.308632 1.117
0.372747 -0.308859 1.11785
0.37479 -0.309085 1.1187
0.376814 -0.309297 1.1195
0.310385 -0.310254 1.12786
0.311639 -0.31001 1.12697
0.312962 -0.309815 1.12627
0.314204 -0.309565 1.12536
0.315496 -0.309349 1.12458
0.316768 -0.309122 1.12375
0.317914 -0.308808 1.12261
0.319094 -0.30852 1.12156
0.320311 -0.308258 1.12061
0.321497 -0.307977 1.11958
0.322705 -0.307712 1.11862
0.323966 -0.307485 1.11779
0.325236 -0.307264 1.11699
0.326549 -0.307072 1.1163
0.327829 -0.306858 1.11553
0.329093 -0.306636 1.11472
0.330316 -0.306388 1.11382
0.331609 -0.306185 1.11309
0.332953 -0.306017 1.11248
0.334469 -0.30596 1.11229
0.335991 -0.305907 1.11211
0.337505 -0.305847 1.11191
0.33898 -0.305763 1.11161
0.340421 -0.305655 1.11123
0.341898 -0.30557 1.11094
0.343411 -0.305509 1.11073
0.344996 -0.30549 1.11068
0.34659 -0.305477 1.11065
0.34822 -0.305485 1.1107
0.349848 -0.30549 1.11074
0.35158 -0.305559 1.11101
0.353356 -0.305652 1.11137
0.355252 -0.305815 1.112
0.357088 -0.30594 1.11248
0.358953 -0.30608 1.11302
0.360742 -0.306172 1.11338
0.36261 -0.306309 1.11391
0.364467 -0.306438 1.1144
0.366332 -0.306569 1.11491
0.368293 -0.306753 1.11562
0.370475 -0.307066 1.11679
0.372517 -0.307292 1.11765
0.374535 -0.307501 1.11845
0.37656 -0.307711 1.11925
0.310248 -0.308757 1.12786
0.311319 -0.308385 1.12649
0.312573 -0.308144 1.12561
0.313742 -0.307844 1.12452
0.314968 -0.307586 1.12357
0.316239 -0.307358 1.12275
0.317448 -0.307091 1.12177
0.318662 -0.306828 1.12081
0.319911 -0.30659 1.11994
0.321124 -0.306329 1.11899
0.322361 -0.306084 1.1181
0.323628 -0.305862 1.11729
0.324905 -0.305647 1.11651
0.326281 -0.305498 1.11598
0.327594 -0.305307 1.11529
0.328897 -0.305111 1.11457
0.330153 -0.304885 1.11375
0.331447 -0.304683 1.11302
0.332755 -0.304493 1.11233
0.33423 -0.304409 1.11204
0.335709 -0.304328 1.11176
0.337155 -0.304225 1.1114
0.338592 -0.304117 1.11102
0.34003 -0.304009 1.11063
0.341476 -0.303905 1.11027
0.342965 -0.303828 1.11001
0.344581 -0.30383 1.11003
0.346238 -0.303855 1.11015
0.347904 -0.303885 1.11028
0.349607 -0.303936 1.1105
0.351441 -0.304065 1.111
0.353261 -0.304183 1.11146
0.355129 -0.304328 1.11203
0.356933 -0.304432 1.11244
0.35879 -0.304566 1.11296
0.360546 -0.304637 1.11325
0.362418 -0.304775 1.11379
0.364269 -0.304899 1.11427
0.366125 -0.305023 1.11476
0.368038 -0.305178 1.11536
0.37018 -0.305464 1.11645
0.372187 -0.305668 1.11724
0.37421 -0.305878 1.11805
0.376234 -0.306086 1.11885
0.30911 -0.307681 1.12942
0.310152 -0.307288 1.12797
0.3111 -0.306832 1.12628
0.312301 -0.306555 1.12526
0.313402 -0.30621 1.12399
0.314564 -0.30591 1.12289
0.315834 -0.305683 1.12206
0.31707 -0.305436 1.12116
0.318288 -0.305177 1.12021
0.319539 -0.304942 1.11935
0.320782 -0.304702 1.11847
0.322015 -0.304457 1.11758
0.323281 -0.304235 1.11677
0.324562 -0.304023 1.116
0.326007 -0.30392 1.11563
0.32736 -0.303757 1.11505
0.328698 -0.303584 1.11442
0.32999 -0.303382 1.11369
0.331315 -0.303202 1.11304
0.332591 -0.30299 1.11227
0.333998 -0.302864 1.11181
0.335405 -0.302737 1.11136
0.336776 -0.302587 1.11082
0.338142 -0.302435 1.11028
0.339575 -0.302324 1.10989
0.341051 -0.30224 1.1096
0.342603 -0.302203 1.10948
0.344259 -0.302229 1.1096
0.345985 -0.302297 1.10988
0.347686 -0.302347 1.1101
0.349459 -0.30244 1.11047
0.351342 -0.302597 1.11109
0.353241 -0.30276 1.11173
0.355117 -0.302907 1.11231
0.356884 -0.302988 1.11264
0.3587 -0.303095 1.11307
0.360416 -0.303141 1.11327
0.36222 -0.303237 1.11366
0.364036 -0.303339 1.11406
0.365885 -0.303458 1.11454
0.367724 -0.303568 1.11498
0.36979 -0.303809 1.11591
0.371788 -0.304006 1.11668
0.373807 -0.304212 1.11748
0.375797 -0.3044 1.11821
0.381404 -0.308091 1.12637
0.380904 -0.306355 1.1256
0.308083 -0.308087 1.13092
0.30805 -0.306659 1.1312
0.308971 -0.30618 1.12941
0.309944 -0.30574 1.12778
0.310801 -0.305225 1.12586
0.311917 -0.30489 1.12462
0.313014 -0.304546 1.12334
0.314169 -0.304241 1.12222
0.315406 -0.303995 1.12132
0.316674 -0.303771 1.12049
0.317895 -0.303516 1.11956
0.319146 -0.303282 1.1187
0.320387 -0.303042 1.11782
0.321645 -0.302816 1.11699
0.322914 -0.302597 1.11619
0.324225 -0.302407 1.1155
0.3257 -0.302323 1.11521
0.327057 -0.302163 1.11464
0.328402 -0.301996 1.11403
0.329698 -0.301798 1.11331
0.331055 -0.301638 1.11273
0.332301 -0.301409 1.1119
0.333673 -0.301261 1.11136
0.335071 -0.301128 1.11089
0.336402 -0.300954 1.11026
0.337701 -0.300761 1.10956
0.339156 -0.300664 1.10922
0.340694 -0.300619 1.10908
0.342288 -0.300608 1.10906
0.343984 -0.300658 1.10928
0.345776 -0.300765 1.10971
0.347515 -0.300838 1.11002
0.349295 -0.300933 1.11041
0.35122 -0.301113 1.11112
0.353192 -0.301319 1.11193
0.355072 -0.301467 1.11252
0.356797 -0.301521 1.11275
0.358598 -0.301617 1.11315
0.360271 -0.301637 1.11325
0.362006 -0.301691 1.11349
0.363822 -0.301792 1.1139
0.365707 -0.30193 1.11445
0.367513 -0.30202 1.11482
0.369502 -0.302213 1.11558
0.371487 -0.302401 1.11632
0.373455 -0.302577 1.11702
0.375409 -0.302742 1.11768
0.380328 -0.304579 1.12467
0.307862 -0.305122 1.13106
0.308765 -0.304633 1.12923
0.309742 -0.304199 1.12761
0.310546 -0.303648 1.12555
0.311567 -0.303252 1.12406
0.312686 -0.302923 1.12285
0.313809 -0.3026 1.12165
0.314987 -0.302316 1.12059
0.316257 -0.302094 1.11978
0.317505 -0.301858 1.11891
0.318756 -0.301627 1.11806
0.320028 -0.30141 1.11726
0.32132 -0.301206 1.11652
0.322618 -0.301007 1.1158
0.323958 -0.300837 1.11518
0.325433 -0.300753 1.11489
0.326787 -0.300591 1.11431
0.328128 -0.300423 1.11369
0.329422 -0.300223 1.11297
0.33078 -0.300065 1.1124
0.33206 -0.299859 1.11164
0.333435 -0.299713 1.11112
0.334832 -0.299581 1.11064
0.336155 -0.299402 1.11
0.337449 -0.299207 1.10928
0.338881 -0.299096 1.10889
0.340457 -0.299074 1.10884
0.342089 -0.299086 1.10892
0.343823 -0.299158 1.10922
0.345625 -0.299269 1.10968
0.347393 -0.299358 1.11005
0.349207 -0.299472 1.11052
0.351164 -0.299669 1.11131
0.353139 -0.299875 1.11212
0.355016 -0.300019 1.1127
0.3567 -0.300047 1.11284
0.358422 -0.300096 1.11306
0.360049 -0.300087 1.11306
0.361746 -0.300119 1.11322
0.363533 -0.300202 1.11356
0.365451 -0.300358 1.11419
0.367261 -0.300448 1.11457
0.369175 -0.300597 1.11517
0.371112 -0.300756 1.11581
0.373066 -0.300922 1.11648
0.374984 -0.301067 1.11706
0.376884 -0.301197 1.1176
0.306944 -0.304195 1.13323
0.307822 -0.303688 1.13132
0.308624 -0.303131 1.12922
0.309539 -0.302656 1.12744
0.310341 -0.302108 1.12537
0.311302 -0.301672 1.12373
0.312355 -0.301302 1.12234
0.313446 -0.300958 1.12106
0.314564 -0.300635 1.11986
0.315804 -0.300395 1.11897
0.317075 -0.300178 1.11817
0.31836 -0.299969 1.1174
0.319665 -0.299775 1.11669
0.321025 -0.299617 1.11612
0.322359 -0.299443 1.11549
0.323703 -0.299275 1.11488
0.325173 -0.299188 1.11458
0.326518 -0.299022 1.11398
0.32782 -0.298828 1.11327
0.329107 -0.298626 1.11253
0.330495 -0.298489 1.11204
0.331812 -0.298306 1.11137
0.333197 -0.298166 1.11087
0.334623 -0.298053 1.11047
0.335951 -0.297878 1.10983
0.337249 -0.297685 1.10913
0.338683 -0.297576 1.10875
0.340299 -0.297578 1.10879
0.341906 -0.297574 1.10881
0.343673 -0.297664 1.10919
0.345471 -0.297771 1.10964
0.347238 -0.297858 1.11001
0.349081 -0.297989 1.11055
0.351101 -0.298221 1.11147
0.353076 -0.298424 1.11229
0.354954 -0.298567 1.11287
0.3566 -0.298571 1.11293
0.358247 -0.298576 1.11298
0.359801 -0.298524 1.11282
0.361458 -0.298532 1.11288
0.36321 -0.298593 1.11316
0.365128 -0.298747 1.11378
0.366936 -0.298836 1.11416
0.368778 -0.298943 1.11461
0.370672 -0.299077 1.11516
0.372583 -0.299218 1.11574
0.374459 -0.299337 1.11623
0.376325 -0.299448 1.1167
0.305938 -0.304617 1.13482
0.304776 -0.303521 1.13636
0.305873 -0.303162 1.13501
0.306914 -0.302765 1.13352
0.307768 -0.302243 1.13154
0.308488 -0.301633 1.12922
0.30934 -0.301118 1.12727
0.310142 -0.300572 1.1252
0.31104 -0.300096 1.1234
0.312057 -0.299702 1.12192
0.313109 -0.299337 1.12054
0.314162 -0.298972 1.11918
0.315364 -0.298709 1.1182
0.316665 -0.298512 1.11747
0.317981 -0.298326 1.11679
0.319359 -0.298179 1.11626
0.32079 -0.298069 1.11588
0.322191 -0.297938 1.11541
0.323568 -0.297792 1.11488
0.324977 -0.297667 1.11444
0.326287 -0.297478 1.11375
0.327549 -0.29726 1.11294
0.3288 -0.297036 1.11212
0.33019 -0.296899 1.11163
0.331544 -0.296741 1.11105
0.332934 -0.296606 1.11057
0.334398 -0.296515 1.11026
0.335756 -0.296359 1.10969
0.337089 -0.296189 1.10907
0.338562 -0.296104 1.10878
0.340213 -0.296126 1.10891
0.341812 -0.296116 1.10891
0.343542 -0.296182 1.1092
0.345266 -0.296244 1.10948
0.346997 -0.296309 1.10977
0.348806 -0.296417 1.11023
0.350797 -0.29663 1.11109
0.352775 -0.296832 1.11192
0.354651 -0.296974 1.1125
0.356295 -0.296976 1.11255
0.35794 -0.296979 1.1126
0.359523 -0.296944 1.11251
0.361181 -0.296952 1.11258
0.362928 -0.297009 1.11284
0.364874 -0.297178 1.11353
0.366677 -0.297263 1.1139
0.368453 -0.297332 1.1142
0.37034 -0.29746 1.11474
0.37221 -0.297576 1.11523
0.374009 -0.297651 1.11556
0.375834 -0.297739 1.11594
0.304607 -0.301991 1.13628
0.305724 -0.301647 1.13498
0.306808 -0.301282 1.1336
0.307653 -0.300756 1.1316
0.308329 -0.300119 1.12917
0.309149 -0.299585 1.12713
0.309949 -0.299041 1.12506
0.310785 -0.298526 1.12309
0.311736 -0.298091 1.12144
0.312772 -0.297715 1.12002
0.31376 -0.297311 1.11849
0.314927 -0.297026 1.11743
0.316257 -0.29685 1.11678
0.317637 -0.296706 1.11626
0.319059 -0.29659 1.11585
0.320561 -0.296525 1.11564
0.322025 -0.296435 1.11533
0.323435 -0.29631 1.11489
0.324783 -0.296146 1.11429
0.326057 -0.295936 1.11352
0.327284 -0.295697 1.11263
0.328504 -0.295454 1.11173
0.329867 -0.295301 1.11117
0.331252 -0.295164 1.11068
0.332703 -0.295066 1.11034
0.334234 -0.295016 1.11019
0.33566 -0.294903 1.10979
0.337066 -0.294776 1.10934
0.338569 -0.294708 1.10912
0.340215 -0.294727 1.10923
0.341743 -0.294672 1.10906
0.343427 -0.29471 1.10925
0.345044 -0.294707 1.10929
0.346736 -0.294748 1.10948
0.348446 -0.294796 1.10972
0.350406 -0.29499 1.11051
0.352319 -0.295154 1.11119
0.354226 -0.295311 1.11185
0.355904 -0.295334 1.11198
0.357589 -0.295358 1.11212
0.359212 -0.295347 1.11212
0.360937 -0.295392 1.11234
0.36268 -0.295446 1.11259
0.364593 -0.295594 1.11322
0.366393 -0.295676 1.11358
0.368161 -0.295739 1.11387
0.369977 -0.295827 1.11425
0.371837 -0.295937 1.11473
0.373632 -0.296009 1.11505
0.37541 -0.296071 1.11533
0.380747 -0.299527 1.1229
0.377149 -0.296109 1.11552
0.304366 -0.300412 1.136
0.305523 -0.300097 1.13481
0.30666 -0.299769 1.13357
0.307495 -0.299239 1.13154
0.308203 -0.298628 1.12919
0.30905 -0.298114 1.12723
0.309846 -0.29757 1.12514
0.310651 -0.297037 1.1231
0.311597 -0.296601 1.12143
0.312601 -0.296206 1.11993
0.313583 -0.2958 1.11839
0.314719 -0.295496 1.11724
0.316051 -0.295322 1.1166
0.317436 -0.295181 1.1161
0.318863 -0.295068 1.1157
0.320339 -0.294986 1.11542
0.321805 -0.294897 1.11512
0.323179 -0.29475 1.11459
0.324492 -0.294564 1.11391
0.325793 -0.294372 1.1132
0.327048 -0.294152 1.11238
0.328305 -0.293934 1.11157
0.329669 -0.293782 1.11102
0.331082 -0.29366 1.11059
0.332561 -0.29358 1.11032
0.334096 -0.293532 1.11018
0.335566 -0.293446 1.10989
0.337041 -0.293361 1.1096
0.338547 -0.293294 1.10939
0.340158 -0.29329 1.10942
0.341645 -0.293211 1.10915
0.343288 -0.293223 1.10925
0.344802 -0.293159 1.10904
0.346415 -0.293152 1.10906
0.348079 -0.293174 1.10919
0.349997 -0.293341 1.10989
0.351838 -0.293462 1.11041
0.353743 -0.293617 1.11107
0.355488 -0.293677 1.11135
0.357184 -0.293709 1.11152
0.358855 -0.293724 1.11163
0.360621 -0.293792 1.11194
0.3624 -0.293865 1.11228
0.364276 -0.293991 1.11282
0.366074 -0.294072 1.11318
0.367841 -0.294134 1.11347
0.369614 -0.294197 1.11377
0.371431 -0.294281 1.11415
0.37322 -0.294349 1.11446
0.374961 -0.29439 1.11467
0.376664 -0.294408 1.11479
0.304212 -0.298893 1.13596
0.305403 -0.298603 1.13486
0.306572 -0.298298 1.1337
0.30742 -0.297779 1.13171
0.308134 -0.297174 1.12937
0.308981 -0.296663 1.1274
0.309745 -0.296101 1.12524
0.310493 -0.295533 1.12304
0.31141 -0.29508 1.1213
0.312415 -0.294687 1.1198
0.313399 -0.294284 1.11826
0.314517 -0.293971 1.11707
0.315845 -0.293793 1.11642
0.317222 -0.293649 1.1159
0.318612 -0.293512 1.11541
0.320053 -0.293407 1.11505
0.321512 -0.293315 1.11473
0.322852 -0.293147 1.11412
0.324159 -0.292958 1.11342
0.325487 -0.292784 1.11278
0.326778 -0.292587 1.11205
0.328075 -0.292394 1.11134
0.329472 -0.292263 1.11087
0.330879 -0.292139 1.11043
0.332354 -0.292055 1.11015
0.333924 -0.292029 1.1101
0.335441 -0.29197 1.10991
0.336955 -0.291909 1.10972
0.338497 -0.291863 1.10959
0.3401 -0.291853 1.1096
0.341522 -0.291735 1.10918
0.343134 -0.291728 1.10921
0.344576 -0.291621 1.10883
0.346117 -0.291572 1.10869
0.347695 -0.291542 1.10862
0.34953 -0.291661 1.10914
0.351256 -0.291715 1.1094
0.353151 -0.291864 1.11004
0.354965 -0.291963 1.11049
0.356711 -0.292022 1.11077
0.358462 -0.292083 1.11106
0.360294 -0.292188 1.11152
0.362142 -0.292299 1.11201
0.36399 -0.292408 1.11249
0.365789 -0.292488 1.11286
0.36755 -0.292545 1.11314
0.369317 -0.292603 1.11342
0.371065 -0.29265 1.11366
0.372847 -0.292713 1.11396
0.374593 -0.292756 1.11418
0.376296 -0.292773 1.1143
0.303908 -0.297273 1.13551
0.305149 -0.297018 1.13454
0.306368 -0.296748 1.13353
0.307257 -0.29626 1.13164
0.308012 -0.295686 1.12941
0.308856 -0.295175 1.12744
0.309614 -0.294612 1.12525
0.31033 -0.294025 1.12297
0.311251 -0.293576 1.12124
0.312294 -0.293211 1.11984
0.313317 -0.292835 1.1184
0.314433 -0.292521 1.1172
0.31573 -0.292325 1.11647
0.317067 -0.292153 1.11585
0.318411 -0.291988 1.11525
0.319812 -0.29186 1.11479
0.321235 -0.291743 1.11438
0.322569 -0.291572 1.11375
0.323874 -0.291384 1.11305
0.325206 -0.291213 1.11243
0.326539 -0.291043 1.1118
0.327876 -0.290876 1.11119
0.329278 -0.290747 1.11073
0.330682 -0.290621 1.11028
0.332182 -0.290553 1.11006
0.333755 -0.290527 1.11002
0.335311 -0.290491 1.10993
0.336863 -0.290452 1.10982
0.338436 -0.290424 1.10977
0.340009 -0.290395 1.1097
0.341428 -0.290275 1.10928
0.342978 -0.290231 1.10916
0.344386 -0.290105 1.10871
0.345856 -0.290014 1.1084
0.347355 -0.289939 1.10816
0.349076 -0.289991 1.10842
0.350725 -0.29 1.10851
0.352576 -0.290123 1.10905
0.354456 -0.29026 1.10965
0.356241 -0.290341 1.11003
0.358105 -0.290465 1.11057
0.360009 -0.290608 1.1112
0.361889 -0.290735 1.11176
0.363729 -0.290839 1.11223
0.365533 -0.29092 1.1126
0.367262 -0.290958 1.11281
0.369028 -0.291016 1.11309
0.37077 -0.291058 1.11332
0.372551 -0.29112 1.11362
0.374334 -0.291182 1.11392
0.376042 -0.291201 1.11405
0.303681 -0.295706 1.13526
0.304951 -0.295471 1.13438
