ply
format ascii 1.0
element vertex 1582
property float x
property float y
property float z
end_header
-0.0671167 -0.05269 0.905197
-0.0661824 -0.0516401 0.906854
-0.0652486 -0.0505906 0.908586
-0.0643093 -0.0495352 0.910267
-0.063404 -0.0485187 0.912722
-0.0625706 -0.0475825 0.916791
-0.0617373 -0.0466467 0.921053
-0.0609002 -0.0457055 0.925397
-0.0600373 -0.0447373 0.929384
-0.0591372 -0.0437252 0.932662
-0.0581533 -0.0426204 0.934119
-0.0560046 -0.042556 0.93507
-0.0571667 -0.0415117 0.935551
-0.119366 -0.10917 0.87062
-0.118342 -0.10802 0.870555
-0.117291 -0.10684 0.870243
-0.116187 -0.105601 0.869428
-0.115064 -0.104342 0.868423
-0.113917 -0.103056 0.86716
-0.112762 -0.101763 0.865799
-0.111628 -0.100492 0.864594
-0.110509 -0.0992375 0.863505
-0.109406 -0.0980001 0.862538
-0.108351 -0.0968157 0.86201
-0.107306 -0.0956433 0.861571
-0.106281 -0.094493 0.861319
-0.105251 -0.0933367 0.860996
-0.10422 -0.0921794 0.860654
-0.103187 -0.0910215 0.860283
-0.102166 -0.0898744 0.860006
-0.101149 -0.0887323 0.859763
-0.100188 -0.0876523 0.860118
-0.0992464 -0.0865938 0.860682
-0.0983222 -0.0855535 0.861443
-0.097405 -0.0845211 0.862293
-0.0964986 -0.0835008 0.863283
-0.0955688 -0.0824552 0.864025
-0.0946378 -0.0814078 0.864762
-0.0936987 -0.0803509 0.865412
-0.0927517 -0.0792859 0.86598
-0.0917889 -0.0782038 0.866368
-0.0908388 -0.077135 0.86691
-0.0898818 -0.0760598 0.86738
-0.0889257 -0.0749839 0.867857
-0.0879882 -0.0739295 0.868584
-0.087077 -0.0729047 0.86967
-0.0861822 -0.0718955 0.87098
-0.0852811 -0.0708803 0.872242
-0.0844059 -0.0698937 0.873888
-0.0835083 -0.0688827 0.875268
-0.082584 -0.067842 0.876305
-0.0816326 -0.0667726 0.876987
-0.0806833 -0.0657046 0.877708
-0.0797334 -0.0646354 0.87843
-0.0787914 -0.0635754 0.879287
-0.0778619 -0.0625295 0.880357
-0.0769648 -0.0615176 0.881943
-0.0761277 -0.0605717 0.884522
-0.0752922 -0.0596272 0.887204
-0.0744677 -0.0586943 0.89015
-0.0736334 -0.0577515 0.893037
-0.0727807 -0.0567865 0.895694
-0.0718682 -0.0557586 0.897435
-0.0709486 -0.0547215 0.899091
-0.0700297 -0.0536854 0.900826
-0.0691094 -0.0526473 0.902586
-0.068182 -0.0516017 0.904272
-0.0672545 -0.0505569 0.906028
-0.0663242 -0.0495077 0.90778
-0.0653962 -0.0484614 0.909638
-0.0645037 -0.0474529 0.912285
-0.0636804 -0.0465179 0.916465
-0.0628612 -0.0455887 0.920915
-0.06204 -0.0446557 0.925521
-0.0611948 -0.0436961 0.929793
-0.0603021 -0.042686 0.933198
-0.0593279 -0.0415886 0.934866
-0.0583501 -0.0404862 0.936492
-0.120428 -0.108123 0.870211
-0.119395 -0.106964 0.870071
-0.118337 -0.105779 0.869701
-0.117221 -0.10453 0.868789
-0.116067 -0.103242 0.86752
-0.114898 -0.101936 0.866063
-0.113712 -0.100612 0.864419
-0.112567 -0.0993334 0.863121
-0.11145 -0.0980835 0.862047
-0.110366 -0.0968714 0.861272
-0.109321 -0.0957003 0.860842
-0.108294 -0.0945489 0.860581
-0.10727 -0.0934001 0.860327
-0.106231 -0.0922356 0.859918
-0.105185 -0.0910639 0.859418
-0.104145 -0.0898989 0.858964
-0.103115 -0.0887444 0.858598
-0.10209 -0.0875944 0.858259
-0.101124 -0.0865085 0.858539
-0.100191 -0.0854589 0.859182
-0.0992847 -0.0844369 0.860116
-0.0983919 -0.0834305 0.861223
-0.0975045 -0.0824292 0.862406
-0.0965914 -0.0813998 0.863319
-0.0956683 -0.0803592 0.864131
-0.0947285 -0.0793011 0.864765
-0.0937734 -0.0782272 0.865232
-0.0928109 -0.0771452 0.865615
-0.0918621 -0.0760775 0.866164
-0.0909077 -0.0750031 0.866647
-0.0899538 -0.0739303 0.867149
-0.0890181 -0.0728763 0.867882
-0.0881083 -0.0718502 0.868961
-0.0872259 -0.0708537 0.870422
-0.0863337 -0.0698452 0.87178
-0.0854692 -0.0688662 0.873538
-0.0845801 -0.0678616 0.875014
-0.0836622 -0.0668262 0.876131
-0.0827109 -0.0657556 0.876807
-0.0817683 -0.0646938 0.877616
-0.0808193 -0.0636247 0.878348
-0.0798772 -0.0625634 0.879198
-0.0789419 -0.0615086 0.880164
-0.078016 -0.0604633 0.881293
-0.0771623 -0.0594945 0.883565
-0.0763063 -0.0585237 0.885877
-0.0754682 -0.0575703 0.888537
-0.0746271 -0.0566136 0.891232
-0.073782 -0.0556519 0.893949
-0.0728694 -0.0546204 0.895628
-0.0719641 -0.0535946 0.897476
-0.0710602 -0.0525708 0.899408
-0.0701592 -0.05155 0.901455
-0.0692493 -0.05052 0.903421
-0.0683408 -0.0494904 0.905471
-0.0674229 -0.0484507 0.90742
-0.0665022 -0.0474082 0.909385
-0.0656086 -0.046393 0.911956
-0.0647803 -0.0454439 0.915936
-0.0639605 -0.0445032 0.920267
-0.0631391 -0.0435601 0.924751
-0.0623035 -0.0426022 0.929119
-0.0614288 -0.0416031 0.932829
-0.0604794 -0.0405268 0.935009
-0.0595196 -0.0394404 0.937054
-0.0577006 -0.0397341 0.946256
-0.0585948 -0.0383885 0.940008
-0.12149 -0.107079 0.869818
-0.120453 -0.105917 0.869642
-0.119379 -0.104715 0.869134
-0.118249 -0.103455 0.868111
-0.117071 -0.102145 0.866632
-0.115907 -0.100848 0.865236
-0.114699 -0.0995067 0.863411
-0.113545 -0.0982203 0.862027
-0.112426 -0.0969741 0.860954
-0.111353 -0.0957752 0.860281
-0.110301 -0.0945981 0.859785
-0.109275 -0.0934491 0.859525
-0.10824 -0.0922915 0.859175
-0.107185 -0.0911105 0.858595
-0.106129 -0.0899306 0.857995
-0.105081 -0.0887581 0.857451
-0.104043 -0.0875977 0.857
-0.103019 -0.0864507 0.856667
-0.102054 -0.0853665 0.856945
-0.101131 -0.0843257 0.857667
-0.100242 -0.0833214 0.858768
-0.0993686 -0.0823327 0.860059
-0.0985002 -0.0813485 0.861425
-0.0976058 -0.0803376 0.862531
-0.0966918 -0.0793055 0.863434
-0.095753 -0.0782473 0.864067
-0.0947973 -0.0771729 0.864522
-0.0938348 -0.0760903 0.864895
-0.0928867 -0.075022 0.865438
-0.0919321 -0.0739489 0.865921
-0.0909858 -0.0728828 0.866503
-0.0900518 -0.0718291 0.867241
-0.0891363 -0.0707957 0.868234
-0.0882628 -0.0698047 0.869778
-0.0873853 -0.06881 0.871309
-0.0865258 -0.0678328 0.873109
-0.0856456 -0.0668346 0.874682
-0.0847416 -0.0658108 0.875966
-0.0837959 -0.064745 0.876715
-0.0828549 -0.0636837 0.87754
-0.0819072 -0.062615 0.878287
-0.0809605 -0.0615464 0.879054
-0.0800181 -0.0604832 0.87991
-0.0790681 -0.0594119 0.880669
-0.0781915 -0.0584162 0.882563
-0.0773096 -0.0574129 0.884413
-0.0764569 -0.0564392 0.886777
-0.075597 -0.0554594 0.889114
-0.0747493 -0.0544896 0.891707
-0.0738439 -0.0534618 0.893436
-0.0729529 -0.052448 0.895457
-0.0720641 -0.0514351 0.897585
-0.0711979 -0.0504454 0.90018
-0.0703196 -0.0494422 0.902636
-0.0694263 -0.048424 0.904916
-0.0685308 -0.0474026 0.907234
-0.0676263 -0.0463721 0.909471
-0.0667258 -0.0453451 0.911865
-0.0658766 -0.0443684 0.915363
-0.0650505 -0.0434115 0.919445
-0.0642224 -0.0424523 0.923683
-0.063394 -0.0414923 0.928083
-0.0625359 -0.0405021 0.932044
-0.0616224 -0.0394556 0.934949
-0.0606879 -0.0383899 0.937527
-0.0597968 -0.0373642 0.941204
-0.122569 -0.106051 0.869555
-0.121503 -0.104861 0.869143
-0.120408 -0.10364 0.868462
-0.119256 -0.102359 0.867251
-0.118049 -0.101023 0.865521
-0.116872 -0.0997178 0.864026
-0.115642 -0.0983578 0.86201
-0.114477 -0.0970664 0.860546
-0.113352 -0.0958153 0.85941
-0.112289 -0.0946295 0.858825
-0.111237 -0.0934546 0.858327
-0.110202 -0.0922971 0.857974
-0.10915 -0.0911228 0.857444
-0.108091 -0.0899426 0.856835
-0.107034 -0.0887628 0.856216
-0.105978 -0.0875852 0.855592
-0.104948 -0.0864345 0.855209
-0.103933 -0.0852982 0.854957
-0.102977 -0.0842237 0.855313
-0.102058 -0.0831863 0.856056
-0.101187 -0.0821979 0.857318
-0.100334 -0.0812269 0.858792
-0.0994933 -0.0802687 0.860436
-0.0986194 -0.0792761 0.861744
-0.097723 -0.0782616 0.862833
-0.0967924 -0.0772115 0.863554
-0.0958372 -0.0761368 0.864006
-0.0948675 -0.075047 0.864292
-0.0939125 -0.073971 0.864745
-0.0929576 -0.0728968 0.865214
-0.0920174 -0.0718361 0.865857
-0.0910844 -0.0707827 0.866599
-0.0901637 -0.0697424 0.867511
-0.0892995 -0.0687575 0.869144
-0.0884372 -0.0677745 0.87084
-0.087582 -0.0667989 0.872674
-0.0867178 -0.0658138 0.874434
-0.0858341 -0.0648078 0.875972
-0.0848954 -0.0637481 0.876812
-0.0839562 -0.0626863 0.877653
-0.0830098 -0.0616177 0.878416
-0.082056 -0.0605426 0.879094
-0.0811011 -0.0594651 0.879759
-0.0801372 -0.0583803 0.880318
-0.0792384 -0.0573574 0.881838
-0.0783487 -0.0563446 0.88355
-0.0774756 -0.0553456 0.885545
-0.0766058 -0.0543502 0.887661
-0.0757497 -0.0533675 0.890058
-0.0748453 -0.0523387 0.891761
-0.0739465 -0.0513127 0.89359
-0.0730724 -0.0503105 0.895898
-0.0722287 -0.049337 0.898797
-0.0713733 -0.0483518 0.901591
-0.0705011 -0.0473492 0.90419
-0.0696246 -0.0463424 0.90681
-0.0687326 -0.0453188 0.909214
-0.0678231 -0.0442789 0.911403
-0.0669518 -0.0432729 0.914392
-0.0661121 -0.0422959 0.918112
-0.0652788 -0.0413235 0.922111
-0.0644563 -0.0403603 0.926525
-0.0636299 -0.0393911 0.931021
-0.0627652 -0.0383836 0.934879
-0.0618677 -0.0373461 0.938209
-0.0610066 -0.0363395 0.942503
-0.0591957 -0.0366135 0.951969
-0.0601076 -0.0352972 0.946127
-0.120139 -0.10114 0.865319
-0.118932 -0.099809 0.8636
-0.117764 -0.0985177 0.862186
-0.116533 -0.0971629 0.860174
-0.115368 -0.0958755 0.858712
-0.114251 -0.0946362 0.857647
-0.11318 -0.0934441 0.856981
-0.112119 -0.0922629 0.856399
-0.111083 -0.0911063 0.856023
-0.11003 -0.089933 0.855476
-0.108971 -0.0887545 0.854854
-0.107915 -0.087578 0.854238
-0.106869 -0.0864128 0.853702
-0.105849 -0.0852741 0.853412
-0.104851 -0.0841571 0.853327
-0.103899 -0.0830855 0.8537
-0.102998 -0.0820654 0.854609
-0.102132 -0.08108 0.855896
-0.10129 -0.0801166 0.857455
-0.100461 -0.0791676 0.859196
-0.0996129 -0.0781984 0.860759
-0.0987367 -0.0772025 0.862053
-0.0978315 -0.0761758 0.863039
-0.0968927 -0.0751162 0.863666
-0.0959298 -0.0740336 0.864032
-0.0949667 -0.0729507 0.864398
-0.0940049 -0.0718675 0.864771
-0.0930566 -0.0707999 0.865322
-0.0921245 -0.0697455 0.866059
-0.0911994 -0.0686998 0.866906
-0.0903363 -0.067713 0.868528
-0.089476 -0.0667291 0.870225
-0.0886285 -0.0657573 0.872127
-0.0877699 -0.0647731 0.873924
-0.0868952 -0.0637741 0.875562
-0.0859714 -0.0627269 0.876587
-0.0850394 -0.0616706 0.877516
-0.0840936 -0.0606019 0.878281
-0.0831397 -0.0595251 0.878948
-0.082183 -0.0584463 0.879594
-0.0812078 -0.0573489 0.879979
-0.0802905 -0.0563069 0.881216
-0.0793838 -0.0552732 0.88263
-0.0784961 -0.054259 0.884385
-0.0776064 -0.0532401 0.886138
-0.076737 -0.0522404 0.888266
-0.07583 -0.0512055 0.889867
-0.0749286 -0.0501746 0.891596
-0.074054 -0.0491679 0.893828
-0.0732315 -0.0482086 0.896993
-0.0724034 -0.047243 0.900184
-0.0715597 -0.0462618 0.903199
-0.070708 -0.0452723 0.906197
-0.0698332 -0.0442599 0.908869
-0.0689212 -0.0432128 0.910945
-0.0680263 -0.0421802 0.913429
-0.067172 -0.041183 0.916785
-0.066322 -0.0401889 0.920359
-0.0654839 -0.0392029 0.92431
-0.064694 -0.0382571 0.929409
-0.063888 -0.0372942 0.934399
-0.0630371 -0.0362902 0.938645
-0.0621978 -0.0352936 0.943315
-0.0613195 -0.0342616 0.947345
-0.0594809 -0.0344969 0.956366
-0.0603822 -0.0331771 0.95018
-0.120882 -0.099792 0.862231
-0.119699 -0.0984882 0.860704
-0.118562 -0.0972327 0.859562
-0.117362 -0.0959131 0.857818
-0.116225 -0.094659 0.85661
-0.115128 -0.0934425 0.855723
-0.114058 -0.0922536 0.85506
-0.112996 -0.0910741 0.854459
-0.111943 -0.0899017 0.853913
-0.110874 -0.0887154 0.853204
-0.109817 -0.0875418 0.852595
-0.108783 -0.086389 0.852175
-0.107742 -0.0852309 0.851678
-0.106742 -0.0841131 0.851573
-0.105762 -0.0830142 0.851651
-0.104813 -0.0819466 0.852045
-0.103917 -0.0809287 0.852969
-0.103068 -0.0799586 0.854411
-0.102235 -0.0790021 0.856037
-0.101416 -0.0780601 0.857857
-0.100588 -0.0771067 0.8596
-0.0997388 -0.0761337 0.861155
-0.0988525 -0.0751247 0.862339
-0.0979318 -0.0740813 0.863154
-0.0969846 -0.0730136 0.863693
-0.0960224 -0.0719303 0.864058
-0.0950526 -0.0708404 0.864345
-0.0940977 -0.0697651 0.864807
-0.0931653 -0.0687106 0.865537
-0.092235 -0.0676583 0.866308
-0.0913597 -0.0666574 0.867758
-0.0904997 -0.0656697 0.869424
-0.0896599 -0.064701 0.871386
-0.0888044 -0.0637172 0.873199
-0.087941 -0.0627255 0.874954
-0.0870458 -0.0617041 0.876338
-0.0861268 -0.0606592 0.877436
-0.0851875 -0.0595949 0.87828
-0.0842335 -0.0585172 0.878945
-0.0832767 -0.057437 0.879584
-0.0822949 -0.0563334 0.87988
-0.0813606 -0.0552732 0.880855
-0.0804304 -0.0542161 0.881909
-0.0795252 -0.0531821 0.883365
-0.0786246 -0.0521514 0.884924
-0.0777344 -0.0511294 0.886687
-0.0768256 -0.0500903 0.888212
-0.0759261 -0.0490589 0.889927
-0.0750541 -0.0480498 0.892122
-0.0742415 -0.0470934 0.895374
-0.0734454 -0.0461498 0.899005
-0.0726228 -0.0451818 0.902324
-0.0717945 -0.0442065 0.905638
-0.0709391 -0.0432057 0.908596
-0.070023 -0.0421523 0.910577
-0.0691098 -0.041099 0.912671
-0.068238 -0.0400802 0.91561
-0.0673693 -0.0390634 0.918742
-0.0665107 -0.0380522 0.922175
-0.065761 -0.0371305 0.927929
-0.0650055 -0.0362002 0.933796
-0.0642103 -0.0352333 0.939093
-0.0634063 -0.0342567 0.944444
-0.0625618 -0.0332431 0.949131
-0.0616073 -0.0321396 0.951591
-0.12148 -0.0983132 0.857951
-0.120394 -0.097109 0.857245
-0.119315 -0.0959139 0.85659
-0.118152 -0.0946359 0.855165
-0.117049 -0.0934165 0.854243
-0.115973 -0.0922246 0.853541
-0.114895 -0.0910312 0.852804
-0.113835 -0.0898555 0.852205
-0.112773 -0.0886776 0.851568
-0.111689 -0.0874786 0.850705
-0.110628 -0.0863031 0.850039
-0.109606 -0.0851652 0.849728
-0.108578 -0.0840216 0.849343
-0.107599 -0.0829252 0.849423
-0.106648 -0.0818546 0.849767
-0.105726 -0.0808116 0.850403
-0.104848 -0.0798109 0.851498
-0.104009 -0.0788477 0.853011
-0.103179 -0.0778906 0.854633
-0.102368 -0.0769529 0.856502
-0.10155 -0.0760065 0.858322
-0.100721 -0.0750494 0.860065
-0.0998635 -0.0740657 0.861537
-0.0989688 -0.0730457 0.862625
-0.0980387 -0.0719932 0.863346
-0.0970839 -0.0709175 0.863799
-0.0961141 -0.0698276 0.864085
-0.0951588 -0.0687512 0.864538
-0.0942266 -0.0676956 0.865262
-0.0932964 -0.0666417 0.866022
-0.0924014 -0.0656207 0.867223
-0.0915402 -0.0646287 0.86885
-0.0907002 -0.0636573 0.870787
-0.0898473 -0.0626715 0.872596
-0.0889895 -0.0616817 0.874395
-0.0881164 -0.0606772 0.876038
-0.0871999 -0.0596325 0.877152
-0.0862618 -0.0585689 0.87801
-0.085308 -0.0574912 0.878675
-0.084353 -0.056411 0.879327
-0.0833714 -0.0553074 0.879624
-0.082426 -0.0542359 0.880431
-0.0814832 -0.0531664 0.881293
-0.0805603 -0.0521141 0.882461
-0.0796468 -0.0510705 0.883806
-0.0787482 -0.0500379 0.885398
-0.0778412 -0.048997 0.886903
-0.076944 -0.047965 0.888612
-0.0760737 -0.046955 0.890789
-0.0752643 -0.0459949 0.894011
-0.0744778 -0.0450525 0.897717
-0.0736676 -0.0440888 0.901157
-0.0728516 -0.0431171 0.904604
-0.0720116 -0.0421245 0.907765
-0.0711044 -0.0410741 0.909844
-0.0701884 -0.0400152 0.91184
-0.0693032 -0.0389808 0.914481
-0.068417 -0.0379436 0.917191
-0.0675396 -0.0369114 0.920153
-0.0667724 -0.035965 0.92541
-0.0660595 -0.0350577 0.931941
-0.0653283 -0.034131 0.938398
-0.0645723 -0.0331808 0.944598
-0.0637668 -0.0321891 0.950042
-0.0628496 -0.0311085 0.953271
-0.0609453 -0.0312647 0.960864
-0.0618676 -0.0299766 0.955202
-0.122156 -0.0969281 0.854421
-0.121117 -0.0957716 0.85409
-0.120067 -0.0946067 0.853667
-0.118939 -0.0933667 0.852543
-0.117863 -0.0921756 0.851841
-0.116783 -0.0909838 0.851102
-0.11569 -0.0897781 0.85021
-0.114622 -0.0885965 0.849522
-0.113551 -0.087413 0.848791
-0.112469 -0.0862191 0.847934
-0.111426 -0.0850625 0.847418
-0.110431 -0.0839521 0.847342
-0.109432 -0.0828378 0.847222
-0.108475 -0.0817623 0.847494
-0.107543 -0.080711 0.848012
-0.106641 -0.0796857 0.848819
-0.105765 -0.078686 0.849914
-0.104931 -0.0777229 0.851434
-0.10411 -0.0767726 0.853126
-0.103311 -0.075842 0.85508
-0.102511 -0.0749098 0.857062
-0.101701 -0.0739673 0.858974
-0.100871 -0.0730058 0.860711
-0.0999967 -0.0720026 0.862002
-0.0990844 -0.070966 0.862912
-0.0981389 -0.0698977 0.863459
-0.0971764 -0.0688142 0.863825
-0.0962206 -0.0677374 0.864271
-0.0952885 -0.0666811 0.864993
-0.0943583 -0.0656267 0.86575
-0.0934574 -0.064597 0.866857
-0.0925888 -0.0635967 0.868383
-0.0917433 -0.0626159 0.870219
-0.0908855 -0.0616229 0.871944
-0.0900298 -0.0606322 0.873744
-0.08916 -0.0596282 0.875405
-0.0882461 -0.0585834 0.876529
-0.087316 -0.0575256 0.877477
-0.0863707 -0.0564543 0.878244
-0.0854177 -0.055375 0.878913
-0.0844417 -0.0542766 0.879287
-0.0835024 -0.0532094 0.880171
-0.0825594 -0.052138 0.881016
-0.0816243 -0.0510742 0.882001
-0.0807106 -0.0500278 0.883316
-0.0798059 -0.0489875 0.884793
-0.0788892 -0.0479361 0.886127
-0.0779827 -0.0468936 0.887662
-0.0771145 -0.0458814 0.889827
-0.0762928 -0.0449045 0.892777
-0.0755056 -0.0439553 0.896387
-0.0747048 -0.042993 0.899905
-0.0738996 -0.0420244 0.903448
-0.0730706 -0.0410336 0.906715
-0.0721817 -0.0399954 0.909074
-0.0712691 -0.0389354 0.911083
-0.0703773 -0.0378911 0.913534
-0.0694723 -0.0368351 0.915834
-0.0685734 -0.0357827 0.918334
-0.0677809 -0.0348079 0.92295
-0.0671102 -0.033919 0.930115
-0.0664334 -0.0330215 0.93746
-0.0657308 -0.0320991 0.944602
-0.0649759 -0.0311318 0.950954
-0.064102 -0.0300757 0.955073
-0.0631051 -0.0289298 0.956677
-0.0611943 -0.0290712 0.964301
-0.0621091 -0.0277845 0.958385
-0.122931 -0.0956502 0.851779
-0.121912 -0.0945147 0.851605
-0.120875 -0.0933639 0.851278
-0.119772 -0.0921515 0.850367
-0.118699 -0.0909661 0.849684
-0.117611 -0.0897671 0.84885
-0.116514 -0.088562 0.847925
-0.115427 -0.0873673 0.847071
-0.114359 -0.0861892 0.846353
-0.113295 -0.0850146 0.84565
-0.112263 -0.0838696 0.845217
-0.111268 -0.0827604 0.845128
-0.110287 -0.081664 0.845156
-0.109342 -0.0806006 0.845528
-0.108425 -0.0795611 0.846159
-0.107534 -0.0785461 0.84706
-0.106661 -0.077547 0.848149
-0.105821 -0.0765772 0.849589
-0.104997 -0.0756216 0.851212
-0.104203 -0.0746915 0.853172
-0.103424 -0.0737742 0.855323
-0.102642 -0.0728537 0.857497
-0.10184 -0.0719143 0.859499
-0.101 -0.0709399 0.861131
-0.100114 -0.0699242 0.862303
-0.0991852 -0.0688706 0.863026
-0.0982315 -0.0677945 0.863485
-0.0972834 -0.0667244 0.864018
-0.0963526 -0.0656674 0.864742
-0.0954303 -0.0646188 0.865583
-0.0945299 -0.0635888 0.866693
-0.0936564 -0.0625817 0.868145
-0.0928048 -0.0615918 0.869883
-0.0919341 -0.0605851 0.871431
-0.0910579 -0.0595742 0.872955
-0.0901825 -0.0585616 0.874513
-0.0892694 -0.0575166 0.87563
-0.0883418 -0.0564597 0.87659
-0.0874054 -0.0553942 0.877451
-0.086465 -0.0543256 0.878279
-0.085497 -0.0532341 0.878756
-0.084566 -0.0521721 0.879734
-0.0836181 -0.051096 0.880503
-0.0826833 -0.0500302 0.881469
-0.081764 -0.0489771 0.882684
-0.0808548 -0.0479304 0.884064
-0.0799342 -0.0468745 0.885318
-0.0790355 -0.0458355 0.886929
-0.0781642 -0.0448178 0.889011
-0.0773389 -0.0438331 0.891857
-0.0765498 -0.0428753 0.895355
-0.0757518 -0.0419083 0.898834
-0.0749493 -0.0409362 0.902366
-0.0741306 -0.0399477 0.905719
-0.0732567 -0.038916 0.908269
-0.0723528 -0.0378599 0.910384
-0.0714545 -0.0368068 0.912665
-0.0705305 -0.035733 0.914573
-0.0695975 -0.0346512 0.916382
-0.0688288 -0.0336864 0.921315
-0.0681947 -0.0328112 0.928989
-0.0675566 -0.0319263 0.936913
-0.066918 -0.0310349 0.945159
-0.0662233 -0.0300969 0.952601
-0.0653429 -0.0290281 0.956531
-0.0643308 -0.0278684 0.957822
-0.0633251 -0.0267128 0.959307
-0.0614128 -0.0268393 0.966989
-0.0623094 -0.0255495 0.960615
-0.124879 -0.0956595 0.850638
-0.123871 -0.094535 0.850556
-0.122846 -0.0933947 0.850326
-0.121789 -0.0922272 0.849824
-0.120685 -0.0910164 0.848903
-0.119599 -0.0898228 0.848114
-0.118478 -0.0885974 0.846997
-0.117367 -0.0873824 0.845944
-0.11626 -0.0861705 0.844896
-0.115169 -0.084975 0.843968
-0.114092 -0.0837916 0.843138
-0.113053 -0.0826436 0.842631
-0.112051 -0.0815296 0.842457
-0.111082 -0.0804443 0.842572
-0.110159 -0.0794005 0.843124
-0.109263 -0.0783802 0.843931
-0.108391 -0.0773811 0.844987
-0.10752 -0.0763818 0.846063
-0.106682 -0.0754114 0.847481
-0.10586 -0.0744555 0.849093
-0.105071 -0.0735273 0.851066
-0.104299 -0.0726117 0.85324
-0.103539 -0.071706 0.855585
-0.102764 -0.0707883 0.85784
-0.10196 -0.0698418 0.859815
-0.10111 -0.068856 0.861348
-0.100223 -0.0678367 0.862504
-0.0993005 -0.066788 0.863306
-0.0983695 -0.0657313 0.864022
-0.0974467 -0.064681 0.864839
-0.0965333 -0.0636386 0.865778
-0.0956277 -0.0626013 0.866815
-0.0947487 -0.061587 0.868192
-0.0938769 -0.060577 0.869674
-0.0929899 -0.0595542 0.871012
-0.0920978 -0.0585274 0.872321
-0.0912081 -0.0575008 0.87368
-0.0902889 -0.0564502 0.874707
-0.0893683 -0.0553972 0.875733
-0.0884337 -0.0543317 0.876596
-0.0875022 -0.0532697 0.877525
-0.0865501 -0.0521894 0.878191
-0.0856278 -0.0511337 0.879277
-0.0846887 -0.0500634 0.880151
-0.0837605 -0.0490025 0.881205
-0.0828427 -0.0479481 0.88242
-0.0819346 -0.046901 0.883806
-0.0810153 -0.0458443 0.885063
-0.080119 -0.0448032 0.886675
-0.0792492 -0.0437827 0.888751
-0.07842 -0.0427901 0.891491
-0.0776219 -0.0418194 0.89479
-0.0768144 -0.0408395 0.898063
-0.0760098 -0.0398587 0.901472
-0.0751897 -0.038864 0.904739
-0.0743256 -0.0378356 0.907397
-0.0734315 -0.0367827 0.90962
-0.0725298 -0.0357232 0.911803
-0.0715961 -0.0346397 0.913484
-0.070653 -0.033549 0.91507
-0.0699118 -0.0325936 0.920376
-0.0693063 -0.0317244 0.928419
-0.0687085 -0.0308521 0.936912
-0.0681119 -0.0299721 0.945796
-0.0674478 -0.0290399 0.953707
-0.066557 -0.0279565 0.957353
-0.0655389 -0.0267913 0.95852
-0.0645267 -0.0256295 0.959877
-0.0635061 -0.0244603 0.961067
-0.06159 -0.0245699 0.968765
-0.0624887 -0.023293 0.962395
-0.125905 -0.094624 0.850129
-0.124893 -0.0934972 0.850021
-0.123864 -0.0923559 0.849766
-0.122782 -0.0911669 0.849055
-0.121654 -0.0899378 0.847943
-0.120536 -0.0887173 0.846884
-0.11937 -0.0874554 0.845384
-0.118236 -0.0862237 0.844136
-0.11711 -0.0849997 0.842927
-0.116013 -0.0838009 0.841936
-0.114937 -0.0826223 0.841111
-0.113899 -0.0814771 0.840606
-0.112874 -0.0803439 0.840206
-0.111906 -0.0792599 0.840308
-0.110978 -0.0782124 0.840789
-0.110087 -0.0771944 0.841608
-0.109212 -0.0761921 0.842606
-0.108349 -0.0751997 0.843736
-0.107487 -0.0742069 0.844886
-0.106642 -0.0732282 0.846222
-0.105832 -0.0722787 0.847933
-0.10507 -0.0713699 0.850165
-0.10431 -0.0704616 0.852458
-0.103553 -0.0695527 0.854816
-0.102817 -0.0686621 0.857452
-0.102036 -0.0677312 0.859669
-0.101205 -0.0667583 0.861403
-0.100343 -0.0657582 0.862835
-0.099466 -0.0647456 0.864132
-0.0985447 -0.0636945 0.864958
-0.0976316 -0.0626516 0.8659
-0.0967265 -0.061613 0.866939
-0.0958413 -0.0605918 0.868238
-0.0949476 -0.0595614 0.869452
-0.0940494 -0.058528 0.870647
-0.0931417 -0.0574856 0.871747
-0.0922312 -0.0564404 0.872835
-0.0912992 -0.0553781 0.873684
-0.0903735 -0.0543197 0.874623
-0.0894388 -0.053254 0.875469
-0.088516 -0.0521976 0.876487
-0.0875869 -0.0511348 0.877436
-0.0866829 -0.0500918 0.878743
-0.0857709 -0.0490415 0.879971
-0.084858 -0.0479891 0.881209
-0.0839475 -0.0469384 0.882514
-0.0830419 -0.0458905 0.883919
-0.0821296 -0.0448365 0.885263
-0.0812281 -0.0437897 0.886802
-0.0803538 -0.042762 0.888772
-0.0795158 -0.0417582 0.891337
-0.0786953 -0.0407662 0.894254
-0.0778736 -0.0397691 0.897232
-0.077054 -0.0387733 0.900351
-0.0762212 -0.0377633 0.903346
-0.0753616 -0.0367337 0.906004
-0.074476 -0.0356837 0.908319
-0.0735775 -0.0346244 0.910503
-0.0726455 -0.0335393 0.912163
-0.0717017 -0.0324463 0.913686
-0.0709892 -0.0315006 0.919376
-0.0704211 -0.0306398 0.927894
-0.0698619 -0.0297767 0.936928
-0.0692896 -0.0288954 0.946076
-0.0686489 -0.0279632 0.95429
-0.0677484 -0.0268686 0.957704
-0.066726 -0.0256984 0.958771
-0.0657151 -0.0245352 0.96012
-0.0646944 -0.0233638 0.961308
-0.0636785 -0.0221945 0.962644
-0.126939 -0.0935968 0.849693
-0.125935 -0.092479 0.849657
-0.124896 -0.0913292 0.84932
-0.123804 -0.0901345 0.848539
-0.122662 -0.0888966 0.847324
-0.121511 -0.08765 0.845994
-0.120305 -0.0863577 0.84417
-0.11915 -0.0851109 0.842747
-0.118005 -0.0838741 0.841375
-0.116889 -0.0826616 0.840216
-0.115811 -0.0814843 0.839376
-0.11478 -0.080347 0.838925
-0.113746 -0.0792087 0.838436
-0.112771 -0.0781196 0.838463
-0.111835 -0.077064 0.838846
-0.110936 -0.0760414 0.839582
-0.110038 -0.075018 0.840334
-0.109155 -0.0740063 0.841231
-0.108268 -0.0729914 0.842107
-0.107397 -0.0719896 0.843153
-0.106546 -0.0710046 0.844415
-0.105763 -0.0700741 0.846369
-0.104982 -0.0691452 0.848388
-0.104206 -0.0682198 0.8505
-0.103451 -0.0673093 0.852863
-0.102759 -0.0664483 0.855925
-0.102022 -0.065549 0.858582
-0.101261 -0.0646296 0.861045
-0.100479 -0.0636912 0.86333
-0.0996436 -0.062709 0.865089
-0.0987301 -0.0616623 0.86601
-0.0978239 -0.0606227 0.867042
-0.0969239 -0.0595865 0.868155
-0.0960064 -0.0585362 0.869091
-0.0950996 -0.0574936 0.870167
-0.094177 -0.0564383 0.871079
-0.0932486 -0.0553772 0.871932
-0.0923105 -0.0543098 0.872696
-0.0913843 -0.0532496 0.873606
-0.0904495 -0.0521835 0.874435
-0.0895365 -0.0511333 0.875555
-0.0886251 -0.0500825 0.876707
-0.0877385 -0.0490503 0.878215
-0.0868428 -0.04801 0.879637
-0.0859443 -0.0469671 0.881058
-0.0850424 -0.0459203 0.882463
-0.0841452 -0.0448765 0.883972
-0.0832406 -0.0438254 0.885405
-0.0823463 -0.0427813 0.887026
-0.0814722 -0.0417499 0.888988
-0.0806296 -0.0407392 0.891459
-0.0797933 -0.0397293 0.894094
-0.0789595 -0.0387205 0.896856
-0.0781249 -0.0377081 0.899669
-0.0772763 -0.0366837 0.902363
-0.0764198 -0.0356519 0.905012
-0.0755429 -0.0346035 0.90742
-0.0746494 -0.0335433 0.909623
-0.0737253 -0.0324619 0.911381
-0.0727773 -0.0313638 0.912798
-0.0721512 -0.0304607 0.919867
-0.0716152 -0.0296046 0.928819
-0.0710831 -0.0287403 0.938164
-0.0705269 -0.0278525 0.947466
-0.0699129 -0.0269193 0.956016
-0.0689471 -0.0257812 0.958129
-0.0679251 -0.0246098 0.959208
-0.0669148 -0.0234447 0.960568
-0.0658941 -0.022272 0.961766
-0.0648752 -0.0210986 0.963013
-0.0629631 -0.0211835 0.970704
-0.0638574 -0.0199243 0.96435
-0.127982 -0.0925792 0.849338
-0.126971 -0.0914555 0.849242
-0.125918 -0.0902958 0.8488
-0.124816 -0.0890941 0.847943
-0.123654 -0.0878416 0.846571
-0.122471 -0.0865732 0.844997
-0.121253 -0.0852748 0.843083
-0.120087 -0.0840229 0.841578
-0.118925 -0.0827743 0.840061
-0.117806 -0.0815638 0.838889
-0.116734 -0.0803941 0.838101
-0.115702 -0.0792582 0.83764
-0.114651 -0.078107 0.836994
-0.113666 -0.0770107 0.836922
-0.112717 -0.0759457 0.83718
-0.111809 -0.0749138 0.837807
-0.110887 -0.0738699 0.83831
-0.109988 -0.0728453 0.839038
-0.109074 -0.0718088 0.839638
-0.108169 -0.0707784 0.840322
-0.107266 -0.0697485 0.84103
-0.10644 -0.0687818 0.842514
-0.105627 -0.0678245 0.844149
-0.104823 -0.0668729 0.845908
-0.104039 -0.0659367 0.8479
-0.103335 -0.0650626 0.850752
-0.1027 -0.0642409 0.854383
-0.102049 -0.0634039 0.857922
-0.101372 -0.0625455 0.861273
-0.10064 -0.0616407 0.864098
-0.0998187 -0.0606648 0.866008
-0.098904 -0.0596166 0.866936
-0.0979894 -0.0585681 0.867882
-0.0970712 -0.0575158 0.8688
-0.0961645 -0.0564716 0.869865
-0.0952294 -0.0554052 0.87062
-0.0942948 -0.0543395 0.871397
-0.0933573 -0.0532708 0.87215
-0.0924167 -0.0522 0.872883
-0.0914756 -0.0511281 0.873618
-0.0905713 -0.0500812 0.874812
-0.0896695 -0.0490368 0.876076
-0.0887869 -0.0480057 0.877613
-0.0879071 -0.0469746 0.879219
-0.0870231 -0.045939 0.880802
-0.0861306 -0.044897 0.882318
-0.0852418 -0.0438566 0.883923
-0.0843518 -0.0428135 0.885546
-0.0834637 -0.0417706 0.887244
-0.0825869 -0.0407333 0.889133
-0.0817329 -0.0397111 0.891412
-0.0808856 -0.0386897 0.893846
-0.0800406 -0.0376685 0.896393
-0.0791888 -0.0366394 0.898897
-0.0783358 -0.0356082 0.901467
-0.0774801 -0.0345732 0.904081
-0.0766125 -0.0335278 0.906584
-0.0757242 -0.0324669 0.908828
-0.0748098 -0.0313889 0.910705
-0.0738544 -0.030285 0.91197
-0.0733181 -0.0294218 0.920421
-0.0728038 -0.0285615 0.929581
-0.0723008 -0.0276974 0.939284
-0.071765 -0.0268029 0.948771
-0.071174 -0.0258671 0.957597
-0.0701428 -0.0246909 0.958496
-0.069127 -0.0235211 0.95968
-0.0681136 -0.0223506 0.960962
-0.067095 -0.0211769 0.962184
-0.0660745 -0.0200017 0.963409
-0.0650558 -0.0188257 0.96472
-0.063142 -0.018893 0.972421
-0.0640299 -0.0176441 0.965903
-0.130089 -0.09273 0.849477
-0.129058 -0.0915904 0.849243
-0.128006 -0.0904326 0.848826
-0.126938 -0.0892617 0.848271
-0.125816 -0.0880458 0.847262
-0.124652 -0.0867952 0.845886
-0.123457 -0.0855209 0.844227
-0.122227 -0.0842183 0.842237
-0.121041 -0.0829534 0.840573
-0.119876 -0.0817058 0.839039
-0.118738 -0.0804836 0.837714
-0.117649 -0.0793024 0.836781
-0.116619 -0.0781691 0.836329
-0.115568 -0.0770205 0.835688
-0.114574 -0.0759186 0.83553
-0.113615 -0.0748452 0.835683
-0.112696 -0.0738041 0.83619
-0.111755 -0.0727455 0.836505
-0.110847 -0.0717134 0.83713
-0.109917 -0.0706636 0.837555
-0.108994 -0.0696186 0.838047
-0.108056 -0.0685622 0.838401
-0.107188 -0.0675595 0.839425
-0.106314 -0.0665531 0.840422
-0.105458 -0.065559 0.8416
-0.104615 -0.0645746 0.842933
-0.103871 -0.0636662 0.845299
-0.103317 -0.0629029 0.849666
-0.10279 -0.0621563 0.854402
-0.10223 -0.0613796 0.858886
-0.101641 -0.060579 0.863171
-0.100945 -0.0596955 0.866411
-0.100017 -0.0586355 0.867194
-0.0991034 -0.0575851 0.868139
-0.098199 -0.0565412 0.869207
-0.0972859 -0.0554909 0.870201
-0.0963384 -0.0544148 0.870817
-0.0954042 -0.0533472 0.871591
-0.0944507 -0.052266 0.872156
-0.0934863 -0.0511778 0.872607
-0.092531 -0.0500945 0.873161
-0.0916144 -0.0490379 0.874194
-0.0907144 -0.0479932 0.875461
-0.0898267 -0.0469555 0.876905
-0.088947 -0.0459227 0.878489
-0.0880711 -0.0448907 0.880155
-0.087195 -0.0438569 0.881855
-0.0863237 -0.0428256 0.883669
-0.0854561 -0.0417946 0.885571
-0.0845767 -0.0407543 0.887358
-0.0836947 -0.0397113 0.889161
-0.0828297 -0.0386771 0.891258
-0.0819714 -0.037645 0.893495
-0.0811088 -0.0366094 0.89575
-0.0802461 -0.0355701 0.898049
-0.0793775 -0.0345254 0.900338
-0.0785246 -0.0334882 0.902932
-0.077662 -0.0324418 0.905448
-0.0767891 -0.0313876 0.907894
-0.0758904 -0.0303158 0.909983
-0.0749534 -0.0292197 0.911517
-0.0744333 -0.0283514 0.920071
-0.0739353 -0.0274854 0.929332
-0.0734514 -0.0266131 0.939168
-0.0729331 -0.0257124 0.948774
-0.0723581 -0.0247696 0.957715
-0.0713381 -0.0235977 0.958804
-0.0703332 -0.0224311 0.960203
-0.0693214 -0.0212593 0.961496
-0.0683025 -0.0200835 0.962714
-0.0672758 -0.0189036 0.963812
-0.0662464 -0.0177198 0.964886
-0.0652147 -0.016535 0.965943
-0.063305 -0.0165894 0.97379
-0.0641772 -0.0153467 0.96692
-0.131219 -0.0917844 0.849792
-0.13015 -0.0906133 0.849269
-0.129055 -0.0894212 0.848524
-0.127958 -0.0882275 0.84774
-0.126822 -0.0870035 0.846633
-0.125646 -0.0857482 0.845179
-0.124439 -0.0844669 0.84343
-0.123196 -0.0831587 0.841349
-0.121988 -0.0818802 0.839518
-0.12081 -0.0806275 0.837895
-0.11968 -0.0794145 0.836642
-0.118593 -0.0782382 0.83573
-0.117576 -0.0771174 0.835391
-0.116536 -0.0759798 0.834848
-0.115534 -0.0748716 0.834616
-0.114557 -0.0737854 0.834606
-0.113611 -0.0727225 0.834862
-0.112644 -0.071644 0.834931
-0.111719 -0.0705987 0.835381
-0.110775 -0.0695364 0.835645
-0.109828 -0.0684744 0.8359
-0.108867 -0.0674002 0.836011
-0.107964 -0.066371 0.836677
-0.107048 -0.0653312 0.837222
-0.106139 -0.0642967 0.837844
-0.105234 -0.0632648 0.838513
-0.104434 -0.0623118 0.840246
-0.103823 -0.0614993 0.843928
-0.103247 -0.060709 0.848039
-0.102073 -0.0591022 0.856298
-0.101518 -0.0583186 0.860917
-0.100747 -0.0573731 0.86331
-0.0999906 -0.0564373 0.865921
-0.0992434 -0.0555049 0.868682
-0.098471 -0.0545539 0.871234
-0.0975157 -0.05347 0.871768
-0.0965642 -0.0523893 0.872357
-0.0955918 -0.0512947 0.872719
-0.0945966 -0.0501829 0.872803
-0.0936238 -0.0490879 0.87316
-0.0926849 -0.0480154 0.873923
-0.0917642 -0.0469542 0.874917
-0.0908486 -0.0458963 0.876
-0.0899618 -0.0448554 0.877454
-0.0890929 -0.0438264 0.879182
-0.0882351 -0.0428026 0.881091
-0.0873909 -0.0417852 0.883219
-0.0865531 -0.0407705 0.885494
-0.0856947 -0.0397404 0.887545
-0.0848071 -0.0386904 0.889255
-0.0839303 -0.0376453 0.891152
-0.0830533 -0.0365989 0.893104
-0.0821795 -0.0355525 0.895161
-0.0813022 -0.0345015 0.897205
-0.0804189 -0.0334444 0.89923
-0.0795696 -0.0324058 0.901821
-0.078716 -0.0313616 0.904422
-0.0778525 -0.030309 0.906958
-0.0769693 -0.0292425 0.90925
-0.0760519 -0.028155 0.91106
-0.0755468 -0.0272808 0.91971
-0.0750652 -0.0264074 0.929056
-0.0745933 -0.0255251 0.938899
-0.0740924 -0.0246166 0.948617
-0.0735347 -0.0236678 0.957688
-0.0725283 -0.0225 0.958999
-0.0715352 -0.0213366 0.960607
-0.0705289 -0.0201657 0.962005
-0.0695101 -0.0189868 0.963212
-0.0684824 -0.0178038 0.964284
-0.0674466 -0.0166167 0.965235
-0.0664058 -0.0154268 0.966097
-0.0653643 -0.0142359 0.966982
-0.133413 -0.0920015 0.850552
-0.1323 -0.0907952 0.849715
-0.131217 -0.0896149 0.849094
-0.130075 -0.0883875 0.847997
-0.128936 -0.087162 0.846894
-0.127777 -0.0859222 0.845608
-0.126597 -0.0846666 0.844126
-0.125378 -0.0833805 0.842295
-0.124133 -0.0820761 0.840218
-0.122914 -0.0807933 0.838303
-0.121732 -0.079542 0.83666
-0.120609 -0.0783397 0.835481
-0.119525 -0.0771669 0.83459
-0.118509 -0.0760497 0.834267
-0.117489 -0.0749286 0.833889
-0.116487 -0.0738238 0.833666
-0.115505 -0.0727327 0.833596
-0.11455 -0.071664 0.833769
-0.113582 -0.0705855 0.833824
-0.112641 -0.0695268 0.83411
-0.111697 -0.068467 0.83438
-0.110753 -0.0674067 0.834644
-0.109794 -0.0663348 0.834764
-0.10886 -0.0652814 0.835119
-0.107909 -0.0642167 0.835319
-0.106957 -0.0631507 0.835506
-0.105956 -0.0620479 0.835203
-0.105054 -0.0610187 0.835874
-0.104357 -0.0601371 0.838594
-0.1037 -0.0592837 0.841791
-0.102672 -0.0599166 0.852253
-0.103046 -0.0584303 0.845083
-0.101874 -0.0568092 0.853287
-0.101279 -0.055987 0.857435
-0.100703 -0.0551747 0.861878
-0.100137 -0.0543652 0.866528
-0.0995269 -0.0535214 0.870805
-0.0987016 -0.0525276 0.872792
-0.0977245 -0.0514276 0.873098
-0.0967255 -0.0503139 0.873163
-0.0957021 -0.0491849 0.872947
-0.0946988 -0.0480684 0.872941
-0.0937287 -0.0469744 0.873328
-0.0927641 -0.0458834 0.873777
-0.0918173 -0.0448037 0.874449
-0.0909015 -0.0437445 0.875525
-0.0900561 -0.0427278 0.877496
-0.0892264 -0.0417183 0.87971
-0.0884306 -0.0407283 0.882422
-0.087626 -0.0397303 0.885089
-0.0867953 -0.0387149 0.887488
-0.0859016 -0.0376576 0.889088
-0.0850183 -0.0366066 0.890877
-0.0841293 -0.03555 0.892631
-0.0832505 -0.0344971 0.894579
-0.0823685 -0.0334404 0.896527
-0.081481 -0.032379 0.898455
-0.0806418 -0.0313414 0.901135
-0.0797954 -0.0302969 0.903807
-0.0789431 -0.029247 0.906459
-0.0780676 -0.0281813 0.908842
-0.0771596 -0.0270964 0.910766
-0.0765792 -0.0261701 0.918032
-0.0752027 -0.0234981 0.947616
-0.0746749 -0.0225475 0.95701
-0.0737667 -0.0214214 0.960034
-0.0727706 -0.0202534 0.961566
-0.071759 -0.0190778 0.962893
-0.070734 -0.0178951 0.963986
-0.0697012 -0.0167077 0.964951
-0.068655 -0.0155147 0.965699
-0.0676081 -0.0143218 0.966456
-0.066566 -0.0131292 0.967328
-0.0646451 -0.0131524 0.974816
-0.0655234 -0.0119348 0.968223
-0.135556 -0.0921737 0.85089
-0.13446 -0.0909831 0.85021
-0.133336 -0.0897699 0.849295
-0.13224 -0.0885809 0.848584
-0.131075 -0.0873381 0.847317
-0.12992 -0.0861038 0.846103
-0.128738 -0.0848481 0.844641
-0.127544 -0.083587 0.843069
-0.126314 -0.0822968 0.841161
-0.125068 -0.0809963 0.839087
-0.123839 -0.0797109 0.83711
-0.122656 -0.0784628 0.835464
-0.121541 -0.0772692 0.834351
-0.120465 -0.0761068 0.833543
-0.119452 -0.074993 0.83324
-0.11845 -0.0738877 0.833018
-0.117457 -0.07279 0.832865
-0.116474 -0.0716997 0.832791
-0.115512 -0.0706261 0.832894
-0.114544 -0.0695478 0.832943
-0.113594 -0.0684828 0.833143
-0.112643 -0.0674174 0.833335
-0.111691 -0.0663521 0.833527
-0.110734 -0.0652819 0.833654
-0.109792 -0.064224 0.833931
-0.108834 -0.0631538 0.834047
-0.107866 -0.0620772 0.834071
-0.106864 -0.060976 0.833759
-0.105861 -0.0598738 0.833419
-0.105046 -0.0589065 0.834935
-0.104265 -0.0579619 0.836812
-0.103483 -0.0570134 0.838707
-0.102427 -0.0575971 0.848793
-0.102745 -0.0560949 0.841095
-0.101382 -0.0539043 0.857575
-0.101011 -0.0532206 0.864222
-0.100568 -0.0524808 0.870228
-0.0998869 -0.0515792 0.873768
-0.0988749 -0.0504557 0.873702
-0.09785 -0.0493246 0.873488
-0.0967868 -0.0481708 0.872832
-0.0957292 -0.0470199 0.872206
-0.0946974 -0.045887 0.871861
-0.0936774 -0.0447618 0.871638
-0.0926921 -0.0436595 0.871823
-0.0917707 -0.0425953 0.872775
-0.0909736 -0.0416061 0.875283
-0.0902006 -0.040629 0.878158
-0.0894626 -0.0396702 0.881553
-0.0886969 -0.0386902 0.88467
-0.0878829 -0.0376795 0.887246
-0.086976 -0.0366142 0.888662
-0.0860824 -0.0355535 0.890275
-0.0851858 -0.0344908 0.891907
-0.0842964 -0.03343 0.893664
-0.0834145 -0.0323708 0.895582
-0.0825358 -0.0313115 0.897589
-0.0816997 -0.0302719 0.900273
-0.0808581 -0.0292256 0.902949
-0.0800206 -0.0281785 0.905776
-0.079155 -0.0271153 0.908259
-0.0782573 -0.0260323 0.910303
-0.0775961 -0.0250578 0.916166
-0.0756827 -0.0213747 0.954098
-0.0748926 -0.0202932 0.959053
-0.0739875 -0.0191591 0.962162
-0.0729713 -0.0179793 0.963394
-0.0719409 -0.016793 0.964388
-0.0709071 -0.015604 0.965349
-0.0698561 -0.0144089 0.966
-0.068808 -0.0132138 0.966748
-0.0677665 -0.0120197 0.967612
-0.066728 -0.0108251 0.968594
-0.064809 -0.0108338 0.976162
-0.0656898 -0.00963003 0.969594
-0.135471 -0.0899358 0.849599
-0.134341 -0.0887209 0.848648
-0.13324 -0.0875303 0.847905
-0.132057 -0.0862765 0.84651
-0.130879 -0.0850282 0.845132
-0.129684 -0.0837662 0.843578
-0.128489 -0.0825075 0.842003
-0.127259 -0.0812223 0.840109
-0.126024 -0.0799363 0.838145
-0.124804 -0.0786627 0.836255
-0.123629 -0.0774255 0.834695
-0.122505 -0.0762271 0.833512
-0.12142 -0.0750608 0.832632
-0.120397 -0.0739407 0.832247
-0.119403 -0.0728422 0.832085
-0.11841 -0.0717461 0.831934
-0.117437 -0.0706647 0.831945
-0.116476 -0.0695917 0.832052
-0.115507 -0.0685144 0.832093
-0.114547 -0.0674423 0.8322
-0.113586 -0.0663709 0.832301
-0.112627 -0.0652997 0.832408
-0.111661 -0.064225 0.832455
-0.11072 -0.0631676 0.832727
-0.109755 -0.0620931 0.832769
-0.108779 -0.0610118 0.832713
-0.107769 -0.0599068 0.83232
-0.106766 -0.0588075 0.831978
-0.105836 -0.0577575 0.832328
-0.104936 -0.0567298 0.832988
-0.104031 -0.055698 0.833608
-0.103178 -0.0547006 0.834756
-0.102172 -0.0552878 0.845237
-0.102485 -0.0538086 0.837549
-0.101702 -0.0519633 0.860023
-0.101438 -0.0513306 0.86782
-0.100924 -0.0505303 0.873103
-0.100027 -0.0494818 0.874302
-0.0989529 -0.0483202 0.873559
-0.0978284 -0.0471284 0.872222
-0.0967044 -0.0459398 0.870858
-0.0956084 -0.0447688 0.869763
-0.0945308 -0.0436112 0.868851
-0.0935159 -0.0424929 0.868656
-0.0925785 -0.0414195 0.869366
-0.0918328 -0.0404586 0.872428
-0.0911275 -0.0395177 0.876064
-0.0904515 -0.0385884 0.880153
-0.0897343 -0.0376323 0.883834
-0.0889745 -0.0366477 0.887062
-0.0880621 -0.0355768 0.88838
-0.087155 -0.0345074 0.889806
-0.0862546 -0.0334391 0.891346
-0.0853534 -0.0323697 0.892916
-0.0844667 -0.0313055 0.894732
-0.0835843 -0.0302414 0.896651
-0.082751 -0.0291997 0.899325
-0.0819142 -0.0281531 0.902022
-0.0810929 -0.0271105 0.90503
-0.0802377 -0.0260469 0.90762
-0.0793596 -0.0249718 0.909938
-0.0786078 -0.0239478 0.914281
-0.0770543 -0.0241281 0.924143
-0.0779695 -0.0229654 0.92056
-0.0765525 -0.0201567 0.949002
-0.0758942 -0.0191212 0.956009
-0.0751009 -0.0180251 0.96094
-0.0741869 -0.0168799 0.963924
-0.0731555 -0.0156912 0.964905
-0.0721151 -0.0144991 0.965754
-0.0710581 -0.0133002 0.966292
-0.0700107 -0.0121043 0.967035
-0.0689679 -0.0109087 0.967899
-0.0679359 -0.00971443 0.968992
-0.0668979 -0.00851746 0.970007
-0.064969 -0.00850803 0.977406
-0.0658584 -0.00731888 0.971011
-0.135309 -0.0876448 0.847731
-0.134193 -0.0864447 0.846873
-0.133021 -0.0852027 0.845573
-0.131837 -0.083954 0.844161
-0.130629 -0.0826876 0.842525
-0.129434 -0.0814326 0.840957
-0.128214 -0.0801595 0.839157
-0.126991 -0.0788866 0.837299
-0.125781 -0.0776258 0.835507
-0.124615 -0.0763994 0.834035
-0.12349 -0.0752028 0.83285
-0.122404 -0.0740383 0.831971
-0.12138 -0.072919 0.831577
-0.120385 -0.0718223 0.831421
-0.119392 -0.070726 0.831265
-0.118411 -0.0696401 0.831209
-0.117442 -0.0685623 0.831242
-0.116464 -0.0674784 0.831198
-0.115494 -0.0664001 0.831212
-0.114514 -0.0653156 0.831139
-0.113545 -0.0642388 0.831152
-0.112561 -0.0631524 0.831029
-0.111611 -0.0620898 0.83121
-0.110647 -0.0610165 0.831245
-0.109673 -0.0599372 0.831194
-0.108673 -0.0588408 0.830887
-0.107685 -0.0577542 0.830692
-0.106653 -0.0566369 0.830051
-0.10564 -0.0555332 0.829569
-0.104627 -0.0544318 0.82909
-0.103642 -0.0533483 0.828855
-0.102805 -0.0523618 0.830116
-0.102073 -0.0500414 0.862988
-0.101747 -0.0493508 0.87016
-0.100988 -0.0483864 0.872806
-0.100023 -0.047294 0.87326
-0.0988388 -0.0460697 0.871284
-0.0976626 -0.0448527 0.869341
-0.0965118 -0.0436536 0.867633
-0.0953785 -0.0424663 0.866071
-0.0943356 -0.0413345 0.865522
-0.0933889 -0.0402577 0.866086
-0.092655 -0.0392995 0.869202
-0.0919971 -0.0383797 0.873317
-0.0913741 -0.0374754 0.877978
-0.0907038 -0.0365384 0.882155
-0.089998 -0.0355785 0.886001
-0.0891197 -0.0345243 0.887737
-0.0882134 -0.0334534 0.889149
-0.0873148 -0.0323844 0.890688
-0.0864132 -0.0313133 0.892235
-0.0855237 -0.0302458 0.893971
-0.0846494 -0.0291831 0.895975
-0.0838145 -0.0281362 0.898578
-0.0829873 -0.0270905 0.901367
-0.0821757 -0.0260471 0.904452
-0.0813308 -0.0249861 0.907149
-0.0804629 -0.0239114 0.909581
-0.0796312 -0.022847 0.912631
-0.0788925 -0.0218167 0.917219
-0.0775398 -0.0189962 0.94601
-0.0770061 -0.0179956 0.954893
-0.0763191 -0.0169293 0.961524
-0.0754024 -0.0157786 0.96442
-0.0743639 -0.014586 0.965284
-0.0733233 -0.0133923 0.966116
-0.0722709 -0.0121934 0.966753
-0.0712231 -0.0109962 0.967511
-0.0701819 -0.00979948 0.968386
-0.0691548 -0.0086047 0.969592
-0.0681076 -0.00740334 0.970404
-0.0670676 -0.0062032 0.9714
-0.136783 -0.0869537 0.850561
-0.135343 -0.0855108 0.84733
-0.133977 -0.084127 0.844597
-0.132786 -0.0828758 0.843133
-0.131563 -0.0816032 0.841398
-0.130377 -0.0803584 0.839906
-0.129159 -0.0790929 0.838144
-0.127957 -0.0778395 0.836463
-0.126776 -0.0766041 0.834916
-0.125629 -0.0753949 0.833606
-0.124493 -0.0741946 0.832353
-0.123415 -0.0730371 0.831541
-0.122379 -0.0719109 0.831058
-0.121384 -0.0708146 0.830897
-0.120393 -0.0697211 0.83076
-0.119423 -0.068643 0.830794
-0.118453 -0.0675653 0.830826
-0.117473 -0.0664812 0.830765
-0.116483 -0.0653902 0.830613
-0.115484 -0.0642928 0.830367
-0.114488 -0.063199 0.830141
-0.113485 -0.0621001 0.829838
-0.112517 -0.0610259 0.829848
-0.111543 -0.0599475 0.829789
-0.110563 -0.058866 0.829674
-0.109572 -0.0577772 0.829446
-0.108596 -0.0566992 0.82935
-0.107589 -0.0556011 0.828947
-0.106602 -0.0545159 0.82872
-0.105625 -0.0534391 0.828588
-0.104665 -0.0523733 0.828615
-0.103692 -0.0512979 0.828492
-0.102392 -0.0516463 0.835711
-0.10311 -0.0504678 0.832309
-0.102195 -0.047956 0.863331
-0.101592 -0.0470838 0.867536
-0.100752 -0.0460686 0.869284
-0.0996622 -0.0449051 0.868321
-0.0985554 -0.0437331 0.86714
-0.0973626 -0.0425147 0.864962
-0.0962073 -0.0413205 0.863148
-0.0951663 -0.0401925 0.862597
-0.0942166 -0.0391144 0.86308
-0.0935047 -0.0381658 0.866387
-0.0928938 -0.0372661 0.870976
-0.0923199 -0.0363799 0.876129
-0.0916903 -0.0354595 0.880739
-0.0910281 -0.034516 0.885055
-0.0901681 -0.0334687 0.886994
-0.0892576 -0.0323943 0.888316
-0.088366 -0.0313273 0.889928
-0.0874679 -0.0302557 0.891485
-0.0865808 -0.0291871 0.89323
-0.0857164 -0.0281267 0.895328
-0.0848774 -0.0270741 0.897833
-0.084046 -0.0260233 0.90051
-0.0832373 -0.0249772 0.903595
-0.0824023 -0.0239163 0.906383
-0.0815404 -0.0228403 0.908851
-0.0806395 -0.0217461 0.910806
-0.0798076 -0.0206747 0.913871
-0.0780163 -0.0168393 0.952161
-0.0774542 -0.0158047 0.960681
-0.0766304 -0.0146779 0.965091
-0.0755852 -0.0134822 0.965837
-0.0745376 -0.0122846 0.966558
-0.0734793 -0.0110836 0.967104
-0.0724278 -0.00988385 0.967783
-0.0713862 -0.00868583 0.968672
-0.0703602 -0.00748962 0.969872
-0.0693065 -0.00628653 0.970572
-0.0682656 -0.00508395 0.971545
-0.0663477 -0.00505184 0.979071
-0.0672216 -0.00388088 0.972491
-0.137049 -0.0849835 0.851866
-0.135385 -0.0833848 0.846985
-0.133971 -0.0819744 0.843894
-0.132559 -0.0805677 0.84076
-0.131382 -0.0793332 0.839351
-0.130164 -0.0780715 0.8376
-0.128972 -0.0768294 0.836014
-0.1278 -0.0756044 0.834554
-0.126652 -0.0743973 0.83325
-0.125507 -0.0731931 0.831933
-0.124436 -0.0720431 0.83119
-0.123398 -0.0709178 0.830702
-0.122403 -0.0698223 0.830545
-0.121413 -0.0687301 0.830419
-0.120443 -0.0676533 0.830458
-0.119463 -0.0665691 0.830405
-0.118464 -0.0654714 0.830175
-0.117453 -0.0643686 0.829853
-0.116428 -0.0632549 0.829378
-0.115412 -0.062149 0.828976
-0.114389 -0.0610384 0.828495
-0.113411 -0.0599586 0.828404
-0.112437 -0.0588819 0.828339
-0.111467 -0.0578078 0.828305
-0.110495 -0.0567336 0.828254
-0.109539 -0.055668 0.828327
-0.108558 -0.0545895 0.82818
-0.10759 -0.0535169 0.82813
-0.106638 -0.0524566 0.828243
-0.105696 -0.0514021 0.828439
-0.104739 -0.0503382 0.828486
-0.103993 -0.0494016 0.830626
-0.102716 -0.0497509 0.838126
-0.103425 -0.0485709 0.834614
-0.102 -0.0456866 0.860322
-0.101291 -0.0447477 0.863369
-0.100312 -0.0436523 0.863552
-0.099308 -0.0425429 0.863459
-0.0981952 -0.0413749 0.862157
-0.0970643 -0.040199 0.860612
-0.0960413 -0.0390831 0.860243
-0.0951059 -0.038014 0.860863
-0.094409 -0.0370694 0.864279
-0.0938306 -0.0361801 0.869167
-0.0932825 -0.0352999 0.87454
-0.0926873 -0.0343891 0.879477
-0.092057 -0.0334556 0.884113
-0.0912155 -0.0324143 0.886242
-0.0903068 -0.0313388 0.887576
-0.0894241 -0.0302746 0.88927
-0.0885289 -0.0292027 0.890841
-0.0876506 -0.0281356 0.892679
-0.0867892 -0.027074 0.894783
-0.0859395 -0.0260142 0.897094
-0.0850966 -0.0249538 0.899561
-0.0842827 -0.0239023 0.902513
-0.0834459 -0.0228367 0.905221
-0.0825953 -0.0217626 0.907796
-0.0817163 -0.0206745 0.910046
-0.0807955 -0.0195682 0.911726
-0.0791803 -0.0196735 0.920188
-0.0800734 -0.0185271 0.916458
-0.0784432 -0.0146402 0.957494
-0.0777345 -0.0135411 0.963677
-0.076785 -0.0123696 0.966003
-0.0757367 -0.011172 0.966721
-0.0746787 -0.0099704 0.967277
-0.0736281 -0.00876948 0.96797
-0.0725856 -0.00756982 0.968845
-0.0715537 -0.00637106 0.969921
-0.0704937 -0.00516541 0.970496
-0.069448 -0.00396263 0.971359
-0.0684051 -0.00275823 0.972309
-0.136848 -0.0826717 0.849733
-0.135176 -0.0810822 0.844783
-0.133549 -0.0795289 0.840079
-0.132371 -0.078297 0.838674
-0.131152 -0.0770385 0.83693
-0.129968 -0.0758065 0.835421
-0.128804 -0.074591 0.83404
-0.127668 -0.0733949 0.832837
-0.126521 -0.0721934 0.831526
-0.125449 -0.0710451 0.830785
-0.12441 -0.0699194 0.830285
-0.123414 -0.0688247 0.830128
-0.122424 -0.0677347 0.830011
-0.121455 -0.066658 0.830053
-0.120474 -0.0655735 0.829989
-0.119462 -0.0644702 0.829671
-0.118441 -0.0633601 0.829251
-0.117396 -0.0622356 0.828612
-0.116368 -0.0611236 0.828111
-0.115327 -0.0600031 0.827473
-0.114338 -0.0589173 0.827284
-0.113356 -0.0578373 0.827148
-0.112396 -0.0567698 0.827191
-0.111436 -0.0557039 0.827241
-0.110499 -0.0546524 0.827491
-0.109538 -0.053586 0.827522
-0.108587 -0.0525256 0.827638
-0.107645 -0.0514709 0.827839
-0.106711 -0.0504212 0.828114
-0.105769 -0.0493674 0.828315
-0.104868 -0.0483362 0.828903
-0.104133 -0.0474028 0.831169
-0.103072 -0.0478627 0.840864
-0.103612 -0.0465879 0.83561
-0.102361 -0.0442896 0.852809
-0.101789 -0.0434242 0.857167
-0.100951 -0.0424094 0.858779
-0.100084 -0.0413775 0.860123
-0.0990895 -0.0402765 0.860092
-0.0980031 -0.0391281 0.859039
-0.0970123 -0.0380311 0.859026
-0.0960717 -0.03696 0.859576
-0.0953855 -0.0360149 0.863049
-0.0948135 -0.0351214 0.867933
-0.0942836 -0.034242 0.873435
-0.093707 -0.0333332 0.87852
-0.093108 -0.032407 0.883463
-0.092269 -0.0313644 0.88559
-0.0913624 -0.0302889 0.886926
-0.0904755 -0.0292207 0.888539
-0.0895885 -0.0281502 0.890194
-0.0887147 -0.0270828 0.892052
-0.0878491 -0.0260164 0.894066
-0.0869928 -0.0249513 0.896262
-0.086137 -0.0238826 0.898508
-0.0853109 -0.0228234 0.901234
-0.084477 -0.0217556 0.903922
-0.0836367 -0.0206824 0.906593
-0.082777 -0.0195994 0.909062
-0.0818732 -0.0184972 0.91095
-0.081061 -0.0174214 0.914268
-0.079421 -0.0134809 0.954245
-0.0788408 -0.0124084 0.962353
-0.0779982 -0.0112598 0.966392
-0.0769443 -0.0100592 0.967007
-0.0758854 -0.00885684 0.967562
-0.0748277 -0.00765408 0.968135
-0.0737797 -0.006452 0.968894
-0.0727357 -0.00524977 0.969739
-0.0716738 -0.0040444 0.970288
-0.0706294 -0.00284039 0.971161
-0.0695943 -0.00163513 0.972238
-0.146865 -0.091906 0.88491
-0.147927 -0.0930778 0.884999
-0.148889 -0.0919234 0.883749
-0.147847 -0.0907665 0.883795
-0.145187 -0.090284 0.880431
-0.146557 -0.0894333 0.882092
-0.143287 -0.0885044 0.874276
-0.145031 -0.0879319 0.878668
-0.138526 -0.0820969 0.853987
-0.136591 -0.0803319 0.847195
-0.134737 -0.0786295 0.840872
-0.133374 -0.0772726 0.838111
-0.132172 -0.0760306 0.836517
-0.130995 -0.0748072 0.835077
-0.12983 -0.0735938 0.8337
-0.128703 -0.0724066 0.832581
