ply
format ascii 1.0
element vertex 1576
property float x
property float y
property float z
end_header
-0.0116515 -0.106004 0.201093
-0.0112235 -0.106082 0.201148
-0.0107951 -0.10614 0.201157
-0.0103665 -0.106165 0.201097
-0.00993822 -0.106208 0.201076
-0.00951008 -0.106241 0.201033
-0.00908207 -0.106276 0.200995
-0.00865404 -0.106333 0.201004
-0.00822579 -0.106411 0.201057
-0.0077976 -0.106471 0.201072
-0.00736863 -0.106573 0.201175
-0.00693919 -0.106677 0.201284
-0.00650844 -0.106815 0.201465
-0.00607627 -0.106978 0.201699
-0.00564136 -0.107195 0.202048
-0.0052059 -0.107395 0.202359
-0.00476806 -0.107623 0.202732
-0.00433088 -0.10781 0.203016
-0.00389338 -0.107983 0.20327
-0.00345812 -0.1081 0.203405
-0.00302135 -0.108234 0.203575
-0.00258593 -0.108337 0.203681
-0.00214787 -0.108476 0.20386
-0.00170817 -0.108628 0.204069
-0.00126611 -0.108802 0.204325
-0.000818827 -0.109031 0.204697
-0.000349207 -0.109516 0.205609
0.000131127 -0.11009 0.20671
0.000619245 -0.110704 0.207893
0.00111005 -0.111301 0.20904
-0.0316132 -0.109028 0.213933
-0.031151 -0.109037 0.213829
-0.0306785 -0.108988 0.213599
-0.0302069 -0.10894 0.21337
-0.0297404 -0.108915 0.213192
-0.0292563 -0.108786 0.212786
-0.0260618 -0.10029 0.193686
-0.0255725 -0.0998676 0.192647
-0.0251517 -0.0998713 0.192543
-0.0247188 -0.0997901 0.192253
-0.0242873 -0.0997115 0.19197
-0.0238583 -0.0996424 0.191707
-0.0234381 -0.0996309 0.19157
-0.0230151 -0.0995943 0.191379
-0.0225992 -0.0996071 0.191296
-0.0221849 -0.0996309 0.191237
-0.021771 -0.099656 0.19118
-0.0213585 -0.0996907 0.191145
-0.0209472 -0.0997353 0.191131
-0.0205351 -0.0997713 0.191099
-0.0201251 -0.0998256 0.191106
-0.0197159 -0.0998892 0.191134
-0.0193059 -0.0999448 0.191144
-0.0188984 -0.100028 0.191215
-0.0184908 -0.100113 0.191288
-0.0180846 -0.100217 0.191404
-0.0176797 -0.100344 0.191568
-0.0172737 -0.100463 0.191716
-0.0168758 -0.100705 0.19213
-0.0164769 -0.100954 0.192558
-0.0161142 -0.101809 0.194299
-0.0157478 -0.10271 0.196137
-0.0153767 -0.103649 0.198055
-0.0149877 -0.104374 0.199508
-0.0145915 -0.105058 0.200872
-0.0141637 -0.105112 0.200875
-0.0137364 -0.105181 0.200909
-0.0133091 -0.105252 0.200948
-0.0128829 -0.105363 0.201073
-0.0124555 -0.105443 0.201131
-0.0120279 -0.105526 0.201194
-0.0115999 -0.105596 0.201231
-0.011172 -0.105675 0.201286
-0.0107437 -0.105742 0.201316
-0.0103151 -0.105779 0.201282
-0.00988681 -0.105844 0.201308
-0.00945845 -0.105901 0.201316
-0.00903008 -0.105959 0.201325
-0.00860163 -0.106028 0.201361
-0.00817275 -0.106118 0.20144
-0.00774416 -0.106177 0.201453
-0.0073147 -0.106278 0.201554
-0.00688513 -0.106369 0.201636
-0.00645488 -0.106475 0.201748
-0.00602357 -0.106601 0.201905
-0.00559012 -0.106772 0.202157
-0.00515607 -0.106936 0.202392
-0.00471962 -0.107135 0.202703
-0.00428277 -0.107319 0.202984
-0.00384559 -0.107491 0.203235
-0.00341013 -0.107616 0.203389
-0.00297356 -0.10775 0.203561
-0.00253769 -0.107865 0.203691
-0.00209891 -0.108016 0.2039
-0.00165918 -0.108171 0.204114
-0.00121628 -0.108357 0.204397
-0.000769892 -0.108575 0.204746
-0.000299545 -0.109068 0.205679
0.000184067 -0.109674 0.206852
0.000677714 -0.110344 0.20816
0.00117468 -0.111 0.209437
-0.0320787 -0.109033 0.214069
-0.0320188 -0.108576 0.214156
-0.0315505 -0.108555 0.213986
-0.0310859 -0.108551 0.213851
-0.0306086 -0.108476 0.213563
-0.0301298 -0.108387 0.213243
-0.0296477 -0.108273 0.212867
-0.0291505 -0.108065 0.212286
-0.0260502 -0.100135 0.194347
-0.0255098 -0.0993911 0.192597
-0.0250908 -0.0994046 0.192514
-0.0246625 -0.0993525 0.192287
-0.0242317 -0.0992769 0.192008
-0.023803 -0.099209 0.191747
-0.0233828 -0.0991966 0.191608
-0.0229613 -0.09917 0.191438
-0.0225434 -0.0991661 0.191317
-0.0221283 -0.0991815 0.19124
-0.0217145 -0.0992056 0.191181
-0.0213022 -0.0992398 0.191144
-0.0208902 -0.0992755 0.191111
-0.0204794 -0.0993209 0.191099
-0.0200705 -0.0993846 0.191127
-0.0196616 -0.0994489 0.191156
-0.0192527 -0.0995142 0.191188
-0.0188473 -0.0996184 0.191304
-0.0184417 -0.0997249 0.191426
-0.0180366 -0.0998436 0.191573
-0.0176332 -0.0999897 0.19178
-0.0172277 -0.100119 0.19195
-0.0168404 -0.100515 0.192702
-0.0164519 -0.100935 0.193503
-0.0160894 -0.101821 0.195318
-0.015721 -0.102719 0.197157
-0.0153459 -0.103619 0.199
-0.0149461 -0.10416 0.200059
-0.0145408 -0.104668 0.201046
-0.0141124 -0.10471 0.201022
-0.0136847 -0.10477 0.201037
-0.0132575 -0.104842 0.201078
-0.0128313 -0.104952 0.201203
-0.0124041 -0.105041 0.20128
-0.0119764 -0.105121 0.201337
-0.0115484 -0.105189 0.201371
-0.0111206 -0.105277 0.201446
-0.0106923 -0.105356 0.201501
-0.0102638 -0.105415 0.201514
-0.00983538 -0.105494 0.201569
-0.00940675 -0.105572 0.201623
-0.00897797 -0.105652 0.201681
-0.00854896 -0.105734 0.201743
-0.00811947 -0.105837 0.20185
-0.00769038 -0.105897 0.201864
-0.00726066 -0.105984 0.201938
-0.00683126 -0.10605 0.201966
-0.00640138 -0.106131 0.202024
-0.00597097 -0.106221 0.202105
-0.00553821 -0.106368 0.202305
-0.0051055 -0.106497 0.202467
-0.00467024 -0.10667 0.202725
-0.00423453 -0.106833 0.20296
-0.00379809 -0.106995 0.203193
-0.00336281 -0.107122 0.203351
-0.00292518 -0.107279 0.203572
-0.00248865 -0.107407 0.203731
-0.00204842 -0.107581 0.203989
-0.00160784 -0.107747 0.204229
-0.00116232 -0.107967 0.204585
-0.000715333 -0.10819 0.204946
-0.00024343 -0.108695 0.205908
0.000239559 -0.109287 0.207058
0.000732724 -0.109948 0.208351
0.00123009 -0.110603 0.209631
-0.0324228 -0.108115 0.214358
-0.0319508 -0.108078 0.214151
-0.0314812 -0.10805 0.213964
-0.0310148 -0.108034 0.213805
-0.0305317 -0.107927 0.213443
-0.0300498 -0.107819 0.213079
-0.0295598 -0.107658 0.212599
-0.0290583 -0.107421 0.211951
-0.026025 -0.0998952 0.194825
-0.0254419 -0.0988812 0.192471
-0.0250242 -0.0989002 0.1924
-0.0245996 -0.0988701 0.19222
-0.0241718 -0.098813 0.191981
-0.0237438 -0.0987482 0.191726
-0.0233229 -0.0987282 0.19157
-0.022903 -0.0987111 0.19142
-0.0224865 -0.0987163 0.191319
-0.0220717 -0.0987328 0.191243
-0.0216592 -0.0987651 0.191202
-0.0212478 -0.0988057 0.19118
-0.0208358 -0.0988399 0.191143
-0.0204243 -0.098877 0.191113
-0.0200156 -0.09894 0.191139
-0.0196078 -0.0990136 0.191189
-0.0192002 -0.0990904 0.191246
-0.0187968 -0.0992158 0.191409
-0.0183931 -0.0993443 0.191579
-0.0179904 -0.0994929 0.191793
-0.0175878 -0.0996509 0.192027
-0.0171941 -0.099942 0.192552
-0.0168176 -0.100507 0.193675
-0.0164395 -0.101109 0.194879
-0.0160758 -0.102016 0.196745
-0.0157038 -0.102898 0.198558
-0.0153148 -0.103587 0.199945
-0.0149042 -0.103944 0.20061
-0.0144907 -0.104292 0.201252
-0.0140626 -0.104345 0.201252
-0.0136349 -0.104406 0.201269
-0.0132078 -0.104489 0.201334
-0.0127811 -0.10459 0.201437
-0.0123534 -0.104668 0.201491
-0.0119253 -0.104735 0.201522
-0.011497 -0.104793 0.201532
-0.011069 -0.10487 0.201585
-0.0106409 -0.10496 0.201665
-0.0102125 -0.105042 0.201728
-0.00978387 -0.105135 0.201813
-0.00935501 -0.105235 0.201914
-0.00892572 -0.105347 0.202042
-0.00849618 -0.105441 0.20213
-0.00806619 -0.105545 0.20224
-0.00763645 -0.105614 0.202275
-0.00720651 -0.10569 0.202324
-0.00677748 -0.105724 0.202282
-0.0063483 -0.105769 0.202264
-0.00591917 -0.105815 0.202249
-0.00548814 -0.105914 0.202347
-0.00505702 -0.106008 0.202433
-0.00462318 -0.106155 0.202637
-0.00418839 -0.106307 0.20285
-0.00375179 -0.106479 0.203105
-0.00331607 -0.106621 0.203294
-0.00287729 -0.106801 0.203566
-0.00243944 -0.106952 0.203776
-0.00199778 -0.107148 0.204082
-0.00155569 -0.107335 0.204369
-0.00110752 -0.107588 0.204797
-0.00065654 -0.107858 0.205259
-0.000183692 -0.108366 0.206234
0.000298804 -0.108944 0.207358
0.000790939 -0.109584 0.208612
0.00128737 -0.110221 0.209858
0.00173888 -0.111325 0.211053
0.0017899 -0.110875 0.211141
0.00222555 -0.111783 0.21191
0.00227417 -0.111308 0.211949
-0.0318808 -0.10757 0.214124
-0.0314066 -0.107518 0.213882
-0.0309363 -0.10748 0.213672
-0.0304491 -0.107348 0.213254
-0.0299639 -0.107219 0.212843
-0.0294697 -0.107031 0.212299
-0.0289699 -0.1068 0.211661
-0.0253773 -0.0983924 0.19239
-0.0249593 -0.0984068 0.192308
-0.0245379 -0.0983965 0.192172
-0.024112 -0.0983501 0.191956
-0.0236858 -0.0982961 0.191723
-0.0232653 -0.0982772 0.191568
-0.0228469 -0.0982699 0.191439
-0.0224306 -0.0982752 0.191338
-0.0220161 -0.0982913 0.191261
-0.0216037 -0.098323 0.191219
-0.0211925 -0.0983641 0.191197
-0.0207807 -0.0983979 0.19116
-0.0203693 -0.0984337 0.191126
-0.0199609 -0.0984972 0.191154
-0.0195542 -0.0985802 0.191225
-0.0191477 -0.0986667 0.191304
-0.0187463 -0.0988121 0.191512
-0.0183444 -0.098962 0.191729
-0.0179434 -0.0991309 0.191989
-0.0175413 -0.0992988 0.192245
-0.0171593 -0.0997505 0.193126
-0.0167937 -0.100484 0.194624
-0.0164256 -0.101265 0.196224
-0.0160597 -0.102175 0.198106
-0.0156836 -0.103028 0.199861
-0.0152824 -0.103533 0.200852
-0.0148618 -0.10372 0.201145
-0.0144405 -0.103913 0.201452
-0.0140128 -0.103979 0.201479
-0.0135849 -0.104039 0.201496
-0.0131577 -0.104123 0.201562
-0.0127304 -0.104213 0.201642
-0.0123024 -0.104281 0.201675
-0.011874 -0.104338 0.201683
-0.0114456 -0.104395 0.201691
-0.0110174 -0.104463 0.201724
-0.0105894 -0.104564 0.201828
-0.010161 -0.104659 0.201919
-0.00973231 -0.104763 0.202031
-0.00930324 -0.104876 0.20216
-0.00887361 -0.105008 0.202332
-0.00844365 -0.105113 0.202445
-0.00801313 -0.10523 0.202582
-0.00758283 -0.105311 0.202642
-0.00715242 -0.105386 0.202689
-0.00672358 -0.105398 0.202599
-0.00629482 -0.105419 0.202529
-0.0058663 -0.105442 0.202463
-0.00543677 -0.105496 0.202466
-0.00500713 -0.105555 0.202478
-0.00457409 -0.105688 0.202649
-0.00414015 -0.105826 0.202833
-0.00370369 -0.105999 0.203092
-0.00326631 -0.106173 0.203351
-0.0028261 -0.106377 0.203678
-0.00238673 -0.106551 0.203938
-0.00194416 -0.106758 0.204269
-0.00150115 -0.106956 0.204579
-0.00105098 -0.107231 0.205056
-0.000596812 -0.107535 0.205595
-0.000124822 -0.108026 0.206536
0.000357032 -0.108589 0.207633
0.000848169 -0.10921 0.20885
0.00134232 -0.109816 0.210037
0.00183972 -0.110414 0.211204
0.00232264 -0.110833 0.211986
0.00275731 -0.111705 0.21268
0.00280316 -0.111202 0.21266
-0.0317995 -0.107007 0.213972
-0.0313238 -0.106944 0.213704
-0.0308517 -0.106894 0.213466
-0.0303631 -0.106752 0.213023
-0.0298769 -0.106614 0.212589
-0.0293834 -0.106426 0.212045
-0.0288886 -0.106219 0.211459
-0.0253178 -0.0979371 0.192381
-0.0248988 -0.0979429 0.19228
-0.0244794 -0.0979436 0.192167
-0.0240562 -0.097915 0.19199
-0.0236304 -0.0978619 0.191758
-0.0232102 -0.0978444 0.191606
-0.0227931 -0.0978456 0.191495
-0.0223769 -0.0978506 0.191393
-0.0219615 -0.0978583 0.191297
-0.0215496 -0.0978928 0.191261
-0.0211376 -0.0979252 0.19122
-0.0207261 -0.0979599 0.191184
-0.0203149 -0.0979957 0.191151
-0.0199075 -0.0980678 0.191198
-0.019502 -0.0981605 0.191291
-0.0190966 -0.0982575 0.191393
-0.0186961 -0.0984133 0.191625
-0.018295 -0.0985713 0.191861
-0.017894 -0.0987405 0.192122
-0.0174912 -0.0988989 0.192359
-0.0171205 -0.0995063 0.193587
-0.0167658 -0.100408 0.195462
-0.0164083 -0.101372 0.197472
-0.0160395 -0.102272 0.19934
-0.0156602 -0.10311 0.20107
-0.0152476 -0.103439 0.201676
-0.0148183 -0.103474 0.201637
-0.0143895 -0.103518 0.201617
-0.0139619 -0.103586 0.201649
-0.0135342 -0.103656 0.201686
-0.0131068 -0.103738 0.201749
-0.0126792 -0.103817 0.201805
-0.0122511 -0.103884 0.201836
-0.0118227 -0.10394 0.201843
-0.0113941 -0.103987 0.201829
-0.0109658 -0.104055 0.201861
-0.0105378 -0.104155 0.201965
-0.0101094 -0.10425 0.202055
-0.00968069 -0.104366 0.202192
-0.00925151 -0.10449 0.202347
-0.00882173 -0.104624 0.202523
-0.00839151 -0.104741 0.202662
-0.00796068 -0.104866 0.202819
-0.00753015 -0.104949 0.202883
-0.00709977 -0.105016 0.202912
-0.00667053 -0.105037 0.202843
-0.00624192 -0.105047 0.202749
-0.00581375 -0.105057 0.202653
-0.00538502 -0.10509 0.202608
-0.00495593 -0.105135 0.202591
-0.00452387 -0.105246 0.202716
-0.00409067 -0.105371 0.202873
-0.00365431 -0.105544 0.203132
-0.0032158 -0.105739 0.203439
-0.00277477 -0.105956 0.203795
-0.00233386 -0.106153 0.204105
-0.00188964 -0.106381 0.204484
-0.00144478 -0.1066 0.204841
-0.000993304 -0.106887 0.205346
-0.00053586 -0.107225 0.205961
-6.30594e-05 -0.107716 0.206906
0.000418617 -0.108267 0.20798
0.000907693 -0.108859 0.209142
0.00139976 -0.109438 0.210274
0.00189427 -0.11 0.211368
0.00237512 -0.110394 0.2121
0.00285281 -0.110738 0.212723
0.00328395 -0.111555 0.213298
0.00333198 -0.111076 0.21333
-0.0317112 -0.10641 0.213739
-0.0312379 -0.106355 0.21349
-0.0307717 -0.106332 0.213312
-0.0302838 -0.106191 0.212869
-0.0297965 -0.106044 0.212414
-0.0293021 -0.105849 0.21185
-0.0288103 -0.105656 0.211291
-0.0253094 -0.097809 0.193103
-0.0248488 -0.0975486 0.192406
-0.0244295 -0.0975495 0.192294
-0.0240064 -0.0975215 0.192117
-0.0235792 -0.0974588 0.191862
-0.0231568 -0.097424 0.191671
-0.0227385 -0.0974158 0.191539
-0.0223202 -0.0974022 0.191395
-0.0219048 -0.0974088 0.191296
-0.0214943 -0.097453 0.191281
-0.021082 -0.0974799 0.191228
-0.0206727 -0.0975333 0.191233
-0.0202635 -0.0975867 0.191239
-0.0198564 -0.09766 0.191289
-0.0194512 -0.0977549 0.191387
-0.0190475 -0.0978701 0.19153
-0.018647 -0.0980255 0.191762
-0.0182457 -0.0981825 0.191997
-0.0178438 -0.0983413 0.192236
-0.0174401 -0.0984881 0.192449
-0.0170803 -0.0992438 0.19401
-0.0167258 -0.100159 0.195922
-0.0163673 -0.10112 0.197935
-0.0159975 -0.102017 0.199806
-0.0156169 -0.102846 0.201521
-0.0151956 -0.103023 0.201796
-0.0147674 -0.10308 0.201804
-0.0143392 -0.103137 0.201813
-0.0139118 -0.103215 0.201866
-0.0134844 -0.103294 0.201925
-0.0130568 -0.103374 0.201984
-0.0126283 -0.103433 0.201995
-0.0122 -0.103498 0.202021
-0.0117713 -0.103543 0.202004
-0.0113425 -0.10358 0.201967
-0.0109143 -0.103647 0.201997
-0.0104861 -0.103736 0.202077
-0.0100577 -0.103828 0.202162
-0.00962905 -0.103933 0.202276
-0.00919998 -0.104047 0.202408
-0.00877028 -0.10418 0.202585
-0.00834007 -0.104306 0.202745
-0.00790929 -0.104434 0.202908
-0.0074786 -0.104528 0.202996
-0.00704801 -0.104605 0.203049
-0.00661877 -0.104628 0.202981
-0.00619017 -0.104638 0.202887
-0.00576203 -0.104648 0.202792
-0.00533331 -0.104681 0.202747
-0.00490422 -0.104726 0.202729
-0.00447214 -0.104837 0.202854
-0.00403891 -0.104962 0.203012
-0.0036025 -0.105134 0.203271
-0.00316324 -0.10534 0.203602
-0.00272135 -0.105569 0.203984
-0.00227871 -0.105788 0.204346
-0.00183334 -0.106028 0.204751
-0.00138639 -0.10627 0.20516
-0.000934475 -0.106556 0.205666
-0.000475537 -0.106906 0.206308
-2.88602e-06 -0.107386 0.207233
0.000477036 -0.107912 0.208258
0.00096357 -0.108468 0.209346
0.00145344 -0.109019 0.210424
0.00194374 -0.109534 0.211421
0.00242063 -0.109892 0.212077
0.00289648 -0.11022 0.212668
0.00337541 -0.110554 0.21327
-0.0316302 -0.105849 0.213585
-0.0311569 -0.105792 0.213329
-0.0306919 -0.105772 0.213158
-0.0302094 -0.105657 0.212772
-0.0297207 -0.1055 0.212293
-0.0292307 -0.105326 0.211775
-0.0287393 -0.105133 0.211214
-0.0253022 -0.0976882 0.193848
-0.0248015 -0.0971716 0.192571
-0.0243835 -0.097182 0.192479
-0.0239628 -0.0971716 0.192341
-0.0235354 -0.0971083 0.192084
-0.0231102 -0.0970548 0.19185
-0.0226882 -0.0970177 0.191652
-0.0222671 -0.0969829 0.19146
-0.0218494 -0.0969692 0.191315
-0.0214391 -0.097013 0.1913
-0.0210271 -0.0970413 0.191249
-0.0206202 -0.0971137 0.191297
-0.0202122 -0.0971775 0.191326
-0.019807 -0.0972699 0.191419
-0.0194029 -0.0973759 0.191542
-0.0190003 -0.0975025 0.191711
-0.0185987 -0.0976475 0.191921
-0.0181964 -0.0977928 0.192131
-0.0177934 -0.0979387 0.192343
-0.0173998 -0.098215 0.192844
-0.0170495 -0.0991088 0.19472
-0.0166944 -0.100035 0.196665
-0.0163343 -0.100992 0.198678
-0.0159622 -0.101872 0.200518
-0.0155716 -0.102548 0.201902
-0.0151436 -0.102606 0.201913
-0.0147165 -0.102685 0.20197
-0.0142892 -0.102764 0.202027
-0.0138621 -0.102852 0.202104
-0.0134345 -0.102932 0.202164
-0.0130063 -0.103002 0.202199
-0.0125774 -0.103049 0.202187
-0.0121488 -0.103102 0.202187
-0.0117198 -0.103136 0.202144
-0.0112909 -0.103172 0.202105
-0.0108626 -0.103229 0.202113
-0.0104344 -0.103306 0.202167
-0.010006 -0.103386 0.202225
-0.00957745 -0.103477 0.202309
-0.00914856 -0.103579 0.202415
-0.00871915 -0.103702 0.20257
-0.00828921 -0.103827 0.202728
-0.00785868 -0.103954 0.20289
-0.00742824 -0.104049 0.202981
-0.00699763 -0.104137 0.203058
-0.00656808 -0.10418 0.203035
-0.00613931 -0.104203 0.202968
-0.00571074 -0.104226 0.202902
-0.00528162 -0.104271 0.202882
-0.00485205 -0.104328 0.202891
-0.00441987 -0.10444 0.203018
-0.0039859 -0.104576 0.203201
-0.00354936 -0.104749 0.203462
-0.00310931 -0.104964 0.203816
-0.00266716 -0.105193 0.204199
-0.00222274 -0.105434 0.204611
-0.00177613 -0.105687 0.205045
-0.00132627 -0.105961 0.205528
-0.000872752 -0.10626 0.206063
-0.000412322 -0.10662 0.206729
5.80381e-05 -0.107064 0.207581
0.000536385 -0.107565 0.208554
0.00102003 -0.108082 0.209564
0.00150695 -0.108598 0.210568
0.00199365 -0.109076 0.211489
0.00247137 -0.10944 0.212162
0.0029459 -0.109755 0.212725
0.00342467 -0.110087 0.213327
-0.031562 -0.105352 0.213573
-0.0310867 -0.105283 0.21329
-0.0306207 -0.105257 0.213103
-0.0301396 -0.105147 0.212728
-0.0296456 -0.10496 0.212178
-0.0291577 -0.104795 0.211678
-0.0286664 -0.104601 0.211112
-0.0280944 -0.104041 0.208627
-0.0280716 -0.103796 0.209164
-0.0252959 -0.0975734 0.194611
-0.0247571 -0.0968141 0.19278
-0.0243448 -0.0968636 0.192776
-0.0239268 -0.0968739 0.192684
-0.0235018 -0.0968307 0.192471
-0.0230769 -0.096783 0.192248
-0.0226525 -0.0967325 0.19202
-0.0222259 -0.096657 0.191735
-0.0218053 -0.0966215 0.19154
-0.0213924 -0.0966454 0.19148
-0.0209783 -0.0966563 0.19139
-0.0205715 -0.0967298 0.191441
-0.0201645 -0.0968032 0.191491
-0.0197605 -0.0969077 0.191612
-0.0193564 -0.0970152 0.191739
-0.0189537 -0.0971422 0.191909
-0.0185502 -0.0972672 0.192075
-0.0181461 -0.0973916 0.192239
-0.0177527 -0.0976554 0.192716
-0.0173701 -0.0980815 0.193554
-0.0170191 -0.0989828 0.195455
-0.0166628 -0.0999094 0.19741
-0.0162998 -0.100842 0.199377
-0.0159179 -0.101582 0.200912
-0.0155187 -0.102115 0.201983
-0.0150919 -0.102197 0.202046
-0.0146654 -0.102288 0.202131
-0.0142386 -0.102377 0.202211
-0.0138114 -0.102467 0.202293
-0.0133837 -0.102547 0.202352
-0.0129552 -0.102608 0.202369
-0.0125262 -0.102654 0.202353
-0.0120974 -0.102705 0.202349
-0.0116682 -0.102729 0.202282
-0.0112394 -0.102764 0.202243
-0.010811 -0.102821 0.202251
-0.0103827 -0.102888 0.202282
-0.00995431 -0.102956 0.202313
-0.00952586 -0.103034 0.202369
-0.00909721 -0.103114 0.202427
-0.00866821 -0.103214 0.202531
-0.00823869 -0.103327 0.202663
-0.00780866 -0.103443 0.202801
-0.00737884 -0.103526 0.202869
-0.00694845 -0.103625 0.202968
-0.00651864 -0.103691 0.202996
-0.00608941 -0.103737 0.202981
-0.00566023 -0.103784 0.202967
-0.00522996 -0.103861 0.203019
-0.00479891 -0.103951 0.203099
-0.00436598 -0.104075 0.203254
-0.0039311 -0.104225 0.203467
-0.00349374 -0.104406 0.203747
-0.00305335 -0.10462 0.204102
-0.00261154 -0.104837 0.204461
-0.00216604 -0.10509 0.204898
-0.0017181 -0.105355 0.205362
-0.00126673 -0.105643 0.205876
-0.000811791 -0.105953 0.206437
-0.00034994 -0.106321 0.207125
0.000118895 -0.106741 0.207928
0.000595855 -0.107215 0.208846
0.0010773 -0.107704 0.209798
0.00156091 -0.108181 0.210721
0.00204397 -0.108622 0.211566
0.00252175 -0.108984 0.212237
0.00299642 -0.109297 0.2128
0.00347538 -0.109632 0.213409
0.00390501 -0.110416 0.21392
0.00395734 -0.109974 0.214034
-0.0310265 -0.104825 0.213365
-0.0305548 -0.104768 0.213109
-0.0300764 -0.104672 0.212761
-0.0295808 -0.104476 0.212187
-0.029093 -0.10431 0.211685
-0.0285961 -0.104083 0.211041
-0.0280491 -0.103552 0.209709
-0.0247897 -0.0969621 0.194137
-0.0243418 -0.0967872 0.193623
-0.0238937 -0.0965967 0.193075
-0.0234766 -0.0966142 0.192999
-0.0230587 -0.0966228 0.192903
-0.0226344 -0.09658 0.19269
-0.0222026 -0.0964721 0.19233
-0.021776 -0.0963948 0.19204
-0.0213565 -0.0963686 0.191866
-0.0209365 -0.096332 0.191668
-0.0205285 -0.0963966 0.191699
-0.0201203 -0.0964616 0.19173
-0.0197162 -0.0965669 0.191853
-0.019311 -0.0966653 0.19196
-0.0189072 -0.096782 0.192108
-0.0185017 -0.0968861 0.192228
-0.0181082 -0.0971363 0.192676
-0.0177263 -0.0975488 0.193488
-0.0173558 -0.0981493 0.194722
-0.0170038 -0.0990646 0.196662
-0.0166453 -0.0999912 0.198626
-0.0162675 -0.100729 0.200163
-0.0158737 -0.101294 0.201313
-0.0154652 -0.101673 0.202043
-0.0150392 -0.101767 0.202134
-0.0146133 -0.10187 0.202245
-0.014187 -0.101969 0.202348
-0.0137598 -0.102058 0.202429
-0.0133321 -0.102139 0.202489
-0.0129036 -0.102199 0.202506
-0.0124743 -0.102234 0.202465
-0.0120456 -0.102286 0.202461
-0.0116162 -0.102299 0.202372
-0.0111875 -0.102336 0.202334
-0.0107592 -0.102393 0.202344
-0.010331 -0.10246 0.202374
-0.00990267 -0.102518 0.202385
-0.0094743 -0.102595 0.202436
-0.00904581 -0.102662 0.202468
-0.00861718 -0.102741 0.202524
-0.00818806 -0.10284 0.202628
-0.00775857 -0.102943 0.202736
-0.00732934 -0.103015 0.20278
-0.00689931 -0.103114 0.202881
-0.00646929 -0.103202 0.202957
-0.00603956 -0.103273 0.202997
-0.00560936 -0.103354 0.203058
-0.00517737 -0.103474 0.203205
-0.00474473 -0.103597 0.203358
-0.00431083 -0.103734 0.203544
-0.00387449 -0.103905 0.203804
-0.00343612 -0.104096 0.204107
-0.00299591 -0.104299 0.204439
-0.00255371 -0.104515 0.204796
-0.00210708 -0.104777 0.205255
-0.00165853 -0.105042 0.205722
-0.00120648 -0.105332 0.206241
-0.000750817 -0.105643 0.206808
-0.000288361 -0.10601 0.207498
0.000179323 -0.106407 0.208252
0.000654144 -0.106854 0.209114
0.0011323 -0.107304 0.209985
0.00161371 -0.107754 0.210853
0.00209356 -0.108159 0.211622
0.00256999 -0.108509 0.21227
0.00304339 -0.108813 0.212815
0.00352406 -0.10916 0.213455
0.0040075 -0.109513 0.214106
-0.0314461 -0.104458 0.213777
-0.0309731 -0.104401 0.213517
-0.0304966 -0.10432 0.213204
-0.0300141 -0.104202 0.212805
-0.0295163 -0.103993 0.2122
-0.029025 -0.103808 0.211649
-0.0285231 -0.10355 0.210934
-0.0280204 -0.103273 0.210175
-0.0244185 -0.0972476 0.195699
-0.0239395 -0.0968679 0.194717
-0.0234993 -0.0967396 0.194308
-0.0230529 -0.0965547 0.193771
-0.0226446 -0.0966445 0.193858
-0.0222286 -0.0966753 0.193811
-0.0217923 -0.0965396 0.193386
-0.0213607 -0.09643 0.193021
-0.0209345 -0.0963563 0.192738
-0.0205024 -0.0962183 0.192309
-0.0200739 -0.0960989 0.191923
-0.0196706 -0.0962129 0.192066
-0.019266 -0.096319 0.19219
-0.0188624 -0.0964408 0.19235
-0.0184549 -0.0965248 0.192425
-0.0180729 -0.0969113 0.193183
-0.017703 -0.097482 0.194356
-0.0173439 -0.0982502 0.195974
-0.0169903 -0.0991751 0.197944
-0.016627 -0.100065 0.199833
-0.0162348 -0.100611 0.200946
-0.0158293 -0.101004 0.201711
-0.0154119 -0.101233 0.202107
-0.0149866 -0.101339 0.202226
-0.0145613 -0.101452 0.20236
-0.0141353 -0.10156 0.202483
-0.0137081 -0.101648 0.202562
-0.01328 -0.101718 0.202599
-0.0128515 -0.101778 0.202613
-0.012422 -0.101803 0.20255
-0.0119932 -0.101845 0.202524
-0.0115638 -0.101848 0.202413
-0.0111353 -0.101885 0.202375
-0.0107072 -0.101942 0.202385
-0.0102792 -0.102011 0.202419
-0.00985101 -0.102079 0.202453
-0.00942276 -0.102157 0.202507
-0.00899441 -0.102224 0.202538
-0.00856599 -0.102291 0.202569
-0.00813717 -0.102379 0.202646
-0.00770829 -0.102458 0.202705
-0.00727924 -0.102538 0.202762
-0.00684919 -0.102647 0.202887
-0.00641895 -0.102748 0.202995
-0.00598862 -0.102843 0.203086
-0.00555729 -0.102955 0.203218
-0.00512425 -0.103098 0.203417
-0.00469033 -0.103245 0.203624
-0.00425541 -0.103397 0.203843
-0.00381761 -0.103588 0.204149
-0.00337821 -0.103789 0.204475
-0.00293758 -0.103991 0.204804
-0.00249411 -0.104218 0.205188
-0.00204554 -0.104498 0.205691
-0.00159629 -0.104764 0.206161
-0.00114444 -0.105041 0.206655
-0.000689093 -0.10534 0.207197
-0.000228793 -0.105675 0.207817
0.00023649 -0.106038 0.2085
0.000709504 -0.106462 0.209316
0.00118591 -0.106888 0.210136
0.00166492 -0.107312 0.210951
0.00214358 -0.107703 0.211691
0.00261853 -0.108039 0.212313
0.00309324 -0.108353 0.212883
0.00357528 -0.108712 0.21355
0.00406048 -0.109077 0.214232
-0.0318638 -0.104077 0.214158
-0.0313854 -0.103998 0.213847
-0.0309118 -0.103937 0.213578
-0.0304324 -0.103841 0.213228
-0.029948 -0.103712 0.212803
-0.0294499 -0.1035 0.212188
-0.0289568 -0.103304 0.211609
-0.0284556 -0.103049 0.210896
-0.0279536 -0.102774 0.210139
-0.0273965 -0.102263 0.207743
-0.0273781 -0.102049 0.20835
-0.024016 -0.0973521 0.19686
-0.0235477 -0.0970497 0.19605
-0.0230764 -0.0967021 0.195137
-0.022643 -0.096618 0.194827
-0.0222487 -0.0968328 0.1952
-0.0218279 -0.0968424 0.195104
-0.0214101 -0.0968737 0.195057
-0.0209948 -0.0969261 0.195059
-0.0201175 -0.0965871 0.194052
-0.0196893 -0.0964922 0.193719
-0.0192599 -0.0963734 0.193333
-0.0188332 -0.0962675 0.192975
-0.0184197 -0.096294 0.192919
-0.01805 -0.0968341 0.194029
-0.0176925 -0.0975756 0.195595
-0.0173442 -0.0985131 0.197603
-0.0169855 -0.0994094 0.199517
-0.0166068 -0.100114 0.200993
-0.0162012 -0.100482 0.201707
-0.0157843 -0.100705 0.20209
-0.0153582 -0.100786 0.202155
-0.0149335 -0.100901 0.202294
-0.0145083 -0.101014 0.202428
-0.0140824 -0.101122 0.202553
-0.0136553 -0.10121 0.20263
-0.0132273 -0.101278 0.202664
-0.0127989 -0.101336 0.202675
-0.0123696 -0.101362 0.202612
-0.0119406 -0.101393 0.202564
-0.0115114 -0.101395 0.202448
-0.0110831 -0.101431 0.202408
-0.0106552 -0.101488 0.202416
-0.0102274 -0.101568 0.202478
-0.00979942 -0.101648 0.202538
-0.00937122 -0.101737 0.202618
-0.00894289 -0.101815 0.202673
-0.00851454 -0.101873 0.202684
-0.00808591 -0.10195 0.202737
-0.0076573 -0.102018 0.202769
-0.00722857 -0.102086 0.202803
-0.0067987 -0.102196 0.202929
-0.00636827 -0.102309 0.203063
-0.00593765 -0.102415 0.20318
-0.00550552 -0.102549 0.20336
-0.00507105 -0.102723 0.203631
-0.00463626 -0.102884 0.203871
-0.00420048 -0.103048 0.204118
-0.00376189 -0.103248 0.204444
-0.00332156 -0.103458 0.204792
-0.00287971 -0.103672 0.20515
-0.00243483 -0.103913 0.205566
-0.00198481 -0.104205 0.206098
-0.00153422 -0.10448 0.20659
-0.00108197 -0.104754 0.207078
-0.000627163 -0.105038 0.207589
-0.000168284 -0.105348 0.208157
0.000294299 -0.105677 0.208766
0.00076579 -0.106076 0.209532
0.00124045 -0.106479 0.210304
0.00171748 -0.106882 0.211075
0.002196 -0.107271 0.211816
0.0026735 -0.107626 0.212479
0.00315088 -0.10796 0.213096
0.00363446 -0.108329 0.21379
0.00412158 -0.108706 0.2145
-0.0313265 -0.103547 0.213938
-0.0308553 -0.103498 0.213694
-0.0303755 -0.103399 0.213338
-0.0298853 -0.10324 0.21284
-0.0293886 -0.103035 0.212239
-0.0288936 -0.102827 0.21163
-0.0283933 -0.102577 0.210925
-0.0278923 -0.102307 0.210175
-0.0273622 -0.101849 0.208994
-0.0268155 -0.101361 0.206647
-0.0268414 -0.10142 0.207879
-0.0235822 -0.0972594 0.197576
-0.023106 -0.096895 0.19662
-0.0226727 -0.0968303 0.196352
-0.0219148 -0.0975635 0.197794
-0.0197305 -0.0969951 0.195898
-0.0192746 -0.0966414 0.194972
-0.0188379 -0.0964575 0.194434
-0.0184182 -0.0964421 0.194282
-0.0180457 -0.0969773 0.195385
-0.0176982 -0.0978738 0.19731
-0.0173456 -0.0987951 0.19929
-0.01697 -0.0994981 0.200771
-0.016576 -0.10001 0.201816
-0.0161579 -0.100202 0.202131
-0.0157316 -0.100278 0.202182
-0.0153055 -0.100358 0.202244
-0.0148808 -0.100471 0.202379
-0.0144557 -0.100583 0.202513
-0.01403 -0.100693 0.202641
-0.0136026 -0.100772 0.202699
-0.0131747 -0.100839 0.202731
-0.012746 -0.100886 0.202716
-0.0123166 -0.100901 0.20263
-0.0118877 -0.100923 0.202559
-0.0114589 -0.100934 0.202463
-0.0110308 -0.100967 0.202417
-0.0106032 -0.101034 0.202449
-0.0101757 -0.101125 0.202534
-0.00974786 -0.101218 0.202624
-0.00931973 -0.101318 0.202728
-0.0088913 -0.101407 0.202809
-0.00846299 -0.101465 0.202821
-0.00803448 -0.101533 0.202853
-0.00760608 -0.10159 0.202862
-0.00717749 -0.101658 0.202894
-0.00674763 -0.101767 0.203021
-0.00631719 -0.101882 0.203159
-0.00588629 -0.101997 0.203298
-0.00545341 -0.102151 0.203523
-0.0050179 -0.102346 0.203841
-0.00458236 -0.102519 0.204109
-0.00414528 -0.102703 0.204402
-0.00370524 -0.102923 0.204774
-0.00326326 -0.103153 0.205168
-0.00281997 -0.103381 0.205559
-0.00237284 -0.103646 0.206031
-0.00192173 -0.103943 0.206575
-0.00147037 -0.104217 0.207068
-0.00101914 -0.104469 0.207509
-0.000565703 -0.104728 0.207966
-0.000108553 -0.105011 0.208476
0.000352063 -0.105314 0.20903
0.000821723 -0.105688 0.209742
0.00129537 -0.106078 0.21049
0.00177198 -0.10647 0.21124
0.00225082 -0.106858 0.211982
0.0027295 -0.107224 0.212673
0.00321125 -0.107591 0.213367
0.00369815 -0.107985 0.214118
0.00418759 -0.108376 0.214863
0.00472771 -0.110002 0.217244
0.00467288 -0.108712 0.215485
-0.0312593 -0.103055 0.213934
-0.0307915 -0.103021 0.213725
-0.0303143 -0.102936 0.213396
-0.0298243 -0.102776 0.212897
-0.0293317 -0.102593 0.212342
-0.0288368 -0.102386 0.211733
-0.0283372 -0.102139 0.211033
-0.0278369 -0.101873 0.210289
-0.0273498 -0.101669 0.209687
-0.0268657 -0.101468 0.209097
-0.0231835 -0.097441 0.198929
-0.0227494 -0.097401 0.198715
-0.0188787 -0.0970384 0.196801
-0.0184519 -0.0969894 0.19657
-0.0180729 -0.0974957 0.197611
-0.0177085 -0.0982309 0.199174
-0.017336 -0.0989352 0.200666
-0.0169431 -0.0994305 0.201678
-0.016535 -0.0997571 0.202303
-0.0161063 -0.0997933 0.202264
-0.0156795 -0.0998596 0.202294
-0.0152528 -0.0999286 0.20233
-0.0148281 -0.100038 0.202459
-0.014403 -0.10015 0.202593
-0.0139775 -0.100263 0.202728
-0.0135502 -0.100343 0.20279
-0.0131227 -0.100419 0.202841
-0.012694 -0.100464 0.202822
-0.0122647 -0.10048 0.202736
-0.0118359 -0.100502 0.202666
-0.0114074 -0.100524 0.202594
-0.0109793 -0.100557 0.202548
-0.0105517 -0.100625 0.202581
-0.0101242 -0.100716 0.202667
-0.00969632 -0.10081 0.20276
-0.00926818 -0.100911 0.202868
-0.00883977 -0.101 0.202949
-0.00841143 -0.101058 0.20296
-0.00798291 -0.101125 0.202991
-0.00755452 -0.101182 0.203
-0.00712591 -0.10125 0.203032
-0.00669607 -0.101359 0.203157
-0.00626535 -0.101482 0.203315
-0.00583393 -0.101608 0.20348
-0.00540009 -0.101782 0.203752
-0.00496386 -0.101989 0.204096
-0.00452754 -0.102171 0.204388
-0.00409013 -0.102356 0.204682
-0.00364913 -0.102585 0.205078
-0.00320663 -0.102817 0.205478
-0.00276143 -0.103068 0.205921
-0.00231218 -0.103356 0.206447
-0.00185874 -0.103675 0.207044
-0.00140663 -0.10395 0.207539
-0.000955546 -0.10419 0.207956
-0.000503329 -0.104427 0.208364
-4.84964e-05 -0.104676 0.208802
0.000408595 -0.104933 0.209256
0.000874696 -0.105269 0.209884
0.00134725 -0.105642 0.210598
0.00182253 -0.106022 0.211324
0.002303 -0.106423 0.212099
0.00278614 -0.106825 0.212873
0.00327362 -0.107241 0.213678
0.0037649 -0.107663 0.214496
0.00425655 -0.108067 0.215272
-0.0311806 -0.102507 0.213797
-0.0307163 -0.102489 0.213623
-0.0302472 -0.102442 0.213384
-0.0297581 -0.102286 0.21289
-0.029268 -0.102116 0.212362
-0.0287739 -0.101911 0.211757
-0.028275 -0.101668 0.211061
-0.0277751 -0.101404 0.210318
-0.027288 -0.101198 0.209711
-0.0267989 -0.100966 0.209045
-0.026351 -0.101065 0.208037
-0.0263213 -0.100791 0.20851
-0.0258488 -0.100715 0.207102
-0.0258577 -0.100691 0.208152
-0.0253329 -0.100253 0.20591
-0.0253803 -0.100492 0.207563
-0.0216045 -0.0985701 0.201043
-0.0220873 -0.0989956 0.203221
-0.0216731 -0.0991774 0.203518
-0.018919 -0.0976168 0.199184
-0.018486 -0.0975447 0.198897
-0.0180887 -0.0978828 0.199554
-0.0177031 -0.0983955 0.200612
-0.0173114 -0.09888 0.201604
-0.016903 -0.099182 0.202176
-0.0164829 -0.0993402 0.202417
-0.0160536 -0.099367 0.202357
-0.0156269 -0.0994333 0.202386
-0.0152002 -0.0995004 0.202418
-0.0147749 -0.0995986 0.202521
-0.0143499 -0.0997097 0.202654
-0.0139246 -0.0998236 0.202793
-0.0134976 -0.0999056 0.202858
-0.0130704 -0.0999911 0.202932
-0.0126421 -0.100044 0.202931
-0.0122131 -0.100069 0.202867
-0.0117844 -0.100095 0.202804
-0.0113563 -0.100139 0.202783
-0.0109281 -0.100174 0.202742
-0.0105004 -0.100242 0.202775
-0.0100727 -0.100323 0.202838
-0.00964482 -0.100415 0.202927
-0.00921657 -0.100525 0.203055
-0.00878801 -0.100614 0.203136
-0.00835958 -0.100672 0.203148
-0.00793087 -0.100748 0.203198
-0.00750218 -0.100814 0.203227
-0.00707363 -0.100872 0.203237
-0.00664306 -0.101 0.203408
-0.00621174 -0.101134 0.203591
-0.00577963 -0.101272 0.203782
-0.00534534 -0.101448 0.204059
-0.00490913 -0.101645 0.204383
-0.00447298 -0.101817 0.204652
-0.00403533 -0.102 0.204944
-0.00359393 -0.10223 0.205343
-0.00315028 -0.102475 0.205775
-0.00270263 -0.102757 0.206291
-0.00225204 -0.103056 0.206844
-0.00179731 -0.103384 0.207462
-0.00134375 -0.103669 0.207982
-0.000892107 -0.103908 0.208398
-0.000440831 -0.104124 0.208763
1.26102e-05 -0.104352 0.209152
0.000467747 -0.104583 0.209551
0.000931223 -0.104883 0.210102
0.00140116 -0.105231 0.21076
0.00187658 -0.105607 0.211483
0.00235873 -0.10602 0.212287
0.00284643 -0.106459 0.213147
0.00333929 -0.106915 0.214046
0.00383461 -0.107364 0.214928
0.00432713 -0.107769 0.215711
-0.0311178 -0.102038 0.213841
-0.0306536 -0.102019 0.213665
-0.0301866 -0.101982 0.213448
-0.0297001 -0.101839 0.212983
-0.0292126 -0.101682 0.212483
-0.0287169 -0.101469 0.211857
-0.0282166 -0.101218 0.211138
-0.0277163 -0.100951 0.210385
-0.0272272 -0.100733 0.209747
-0.0267382 -0.100501 0.209078
-0.0262629 -0.100339 0.20857
-0.0258015 -0.100252 0.208241
-0.0253484 -0.100212 0.20802
-0.0248172 -0.0997014 0.205603
-0.0248137 -0.0996165 0.206506
-0.0242882 -0.0990961 0.204075
-0.0243138 -0.0992235 0.205464
-0.0228423 -0.0980951 0.201385
-0.0232802 -0.0981284 0.201585
-0.0233481 -0.0986022 0.203768
-0.0228896 -0.0984413 0.203269
-0.0224964 -0.0987804 0.202848
-0.0225062 -0.0988563 0.204109
-0.0220907 -0.0990358 0.204401
-0.021676 -0.09923 0.204728
-0.0212232 -0.0990568 0.203116
-0.021242 -0.099266 0.204686
-0.0207762 -0.0989479 0.202741
-0.0208079 -0.0992993 0.204639
-0.0203097 -0.0986417 0.201912
-0.0203569 -0.0991703 0.204215
-0.0189526 -0.0981261 0.201426
-0.018515 -0.0980449 0.201116
-0.0180965 -0.0981779 0.201301
-0.0176926 -0.0984994 0.201921
-0.0172846 -0.0987978 0.202487
-0.0168627 -0.0989303 0.20267
-0.0164315 -0.0989342 0.202556
-0.0160022 -0.0989604 0.202494
-0.0155749 -0.0990173 0.202503
-0.0151476 -0.0990742 0.202511
-0.0147224 -0.0991704 0.20261
-0.0142974 -0.0992809 0.202742
-0.0138722 -0.0993953 0.202882
-0.0134456 -0.0994873 0.202971
-0.0130189 -0.0995827 0.203068
-0.0125906 -0.0996374 0.203071
-0.0121619 -0.0996743 0.203033
-0.0117334 -0.0997121 0.202997
-0.0113054 -0.0997687 0.203005
-0.0108772 -0.0998155 0.20299
-0.0104493 -0.0998827 0.203022
-0.0100214 -0.0999612 0.203079
-0.0095933 -0.10005 0.203161
-0.00916479 -0.100169 0.203311
-0.0087361 -0.10025 0.203374
-0.00830746 -0.100309 0.203386
-0.00787857 -0.100383 0.203434
-0.00744932 -0.100468 0.203505
-0.00702046 -0.100528 0.203522
-0.00658893 -0.10068 0.203745
-0.0061565 -0.100835 0.203977
-0.00572352 -0.100983 0.204192
-0.00528939 -0.101141 0.20443
-0.00485319 -0.101326 0.204729
-0.00441717 -0.101486 0.20497
-0.00397982 -0.101656 0.205235
-0.003538 -0.101887 0.205637
-0.00309327 -0.102142 0.206093
-0.00264438 -0.102436 0.206638
-0.00219251 -0.102744 0.207216
-0.0017365 -0.103081 0.207857
-0.00128234 -0.103366 0.208378
-0.000830039 -0.103605 0.208797
-0.000378344 -0.10382 0.20916
7.55628e-05 -0.104046 0.209547
0.000529437 -0.104256 0.209898
0.000990863 -0.104532 0.210397
0.00146011 -0.104865 0.211026
0.00193459 -0.105229 0.211723
0.00241726 -0.105643 0.212534
0.00291069 -0.106126 0.213499
0.00340727 -0.106608 0.214459
0.00390496 -0.107071 0.215376
0.00439849 -0.107473 0.216155
-0.0310527 -0.101557 0.213857
-0.0305906 -0.101547 0.213704
-0.0301248 -0.101516 0.213497
-0.029642 -0.101392 0.213074
-0.0291565 -0.101245 0.212598
-0.028663 -0.101044 0.211995
-0.0281604 -0.10078 0.211245
-0.0276583 -0.100503 0.210463
-0.0271675 -0.100274 0.209798
-0.0266807 -0.100055 0.209155
-0.0262063 -0.0998975 0.208656
-0.025747 -0.0998243 0.208356
-0.025294 -0.0997844 0.208135
-0.024787 -0.0993752 0.20705
-0.0243134 -0.0991702 0.206443
-0.0238136 -0.0987998 0.204352
-0.0238405 -0.0989532 0.205809
-0.0233766 -0.0987851 0.20529
-0.0229196 -0.0986546 0.204859
-0.0225039 -0.0988371 0.205159
-0.0220622 -0.098816 0.204984
-0.0216247 -0.0988254 0.204881
-0.0211867 -0.0988264 0.204757
-0.0207479 -0.0988149 0.204605
-0.0203137 -0.0988422 0.204544
-0.0198839 -0.0988077 0.203251
-0.0198583 -0.0986576 0.203989
-0.0194095 -0.098394 0.202169
-0.0194042 -0.0984638 0.203414
-0.0189637 -0.0983953 0.20313
-0.018526 -0.0983453 0.20289
-0.0180892 -0.0982946 0.202648
-0.017668 -0.0984289 0.202836
-0.0172445 -0.0985416 0.202974
-0.0168111 -0.0985223 0.202806
-0.01638 -0.0985268 0.202692
-0.0159507 -0.0985538 0.202632
-0.0155235 -0.0986107 0.20264
-0.0150962 -0.0986676 0.202648
-0.0146709 -0.0987635 0.202747
-0.0142455 -0.098864 0.202856
-0.0138198 -0.0989671 0.202971
-0.013393 -0.0990499 0.203039
-0.0129663 -0.0991455 0.203137
-0.0125385 -0.0992111 0.203165
-0.0121107 -0.0992801 0.203201
-0.0116826 -0.0993403 0.203217
-0.0112547 -0.0994171 0.203271
-0.0108265 -0.0994731 0.203277
-0.0103982 -0.0995295 0.203284
-0.00997004 -0.0995966 0.203316
-0.00954172 -0.0996941 0.203417
-0.00911287 -0.0998344 0.203617
-0.00868383 -0.0999187 0.203688
-0.00825472 -0.0999894 0.203727
-0.00782519 -0.10008 0.203812
-0.00739527 -0.100175 0.203908
-0.00696577 -0.100241 0.203937
-0.00653325 -0.100408 0.204195
-0.00609981 -0.100573 0.204452
-0.00566657 -0.100711 0.204645
-0.0052324 -0.100855 0.20485
-0.00479659 -0.101019 0.205103
-0.00436077 -0.101165 0.205313
-0.00392314 -0.101331 0.205571
-0.00348093 -0.101561 0.205972
-0.00303564 -0.101817 0.206432
-0.00258609 -0.102113 0.206984
-0.00213298 -0.102431 0.207585
-0.0016763 -0.102768 0.20823
-0.00122162 -0.103052 0.208751
-0.000768695 -0.103292 0.209173
-0.000316407 -0.103507 0.209539
0.000137825 -0.103732 0.209924
0.000591016 -0.103929 0.210249
0.00105207 -0.104194 0.210725
0.00151975 -0.104506 0.21131
0.00199454 -0.104868 0.212005
0.00247752 -0.105281 0.212814
0.00297307 -0.105776 0.21381
0.00347008 -0.106256 0.214772
0.00396824 -0.106716 0.215686
0.00445861 -0.10709 0.216406
-0.0309902 -0.101089 0.213904
-0.0305295 -0.101085 0.213762
-0.0300647 -0.101058 0.213566
-0.0295857 -0.100953 0.213187
-0.0290986 -0.100798 0.212688
-0.0286069 -0.100607 0.212105
-0.0281025 -0.100333 0.211327
-0.0276004 -0.100055 0.210541
-0.02711 -0.0998289 0.209878
-0.0266274 -0.0996343 0.20929
-0.0261536 -0.0994809 0.208799
-0.0256961 -0.0994192 0.208525
-0.0252414 -0.0993685 0.208277
-0.024762 -0.0991455 0.207624
-0.024317 -0.0991438 0.207492
-0.0238715 -0.099135 0.207344
-0.0234093 -0.0989984 0.206895
-0.0229498 -0.0988698 0.206466
-0.0225056 -0.0988494 0.206291
-0.0220371 -0.0986249 0.205638
-0.0215772 -0.0984522 0.205107
-0.0211356 -0.0984231 0.204913
-0.0206931 -0.0983779 0.204681
-0.0202562 -0.0983786 0.204557
-0.0198167 -0.0983486 0.204361
-0.0193789 -0.0983281 0.204188
-0.0189392 -0.0982804 0.203951
-0.0185023 -0.0982531 0.203763
-0.0180636 -0.0981974 0.203508
-0.0176267 -0.0981502 0.203273
-0.0171905 -0.0981011 0.203034
-0.0167581 -0.0980933 0.202892
-0.0163272 -0.0980997 0.202782
-0.0158981 -0.0981286 0.202726
-0.0154709 -0.0981848 0.202732
-0.0150437 -0.0982406 0.202738
-0.014618 -0.0983273 0.202816
-0.0141927 -0.0984275 0.202925
-0.0137675 -0.09854 0.203062
-0.0133413 -0.0986397 0.20317
-0.012915 -0.0987456 0.203292
-0.0124881 -0.0988421 0.203392
-0.0120606 -0.0989329 0.203479
-0.0116327 -0.0990143 0.203543
-0.0112045 -0.0990923 0.2036
-0.0107759 -0.099147 0.203603
-0.0103471 -0.0991823 0.203561
-0.00991865 -0.0992481 0.20359
-0.00949007 -0.0993577 0.20372
-0.00906076 -0.0995226 0.203977
-0.00863108 -0.0996315 0.204105
-0.00820131 -0.0997125 0.204168
-0.00777108 -0.099811 0.204272
-0.00734075 -0.0998972 0.204347
-0.00691087 -0.0999561 0.204359
-0.00647822 -0.100108 0.204584
-0.00604402 -0.100281 0.20486
-0.00561077 -0.100404 0.20502
-0.00517623 -0.100545 0.20522
-0.0047405 -0.100697 0.205445
-0.00430441 -0.10084 0.205651
-0.0038669 -0.100997 0.205886
-0.00342496 -0.101214 0.20626
-0.00297993 -0.10146 0.2067
-0.00252999 -0.101755 0.207252
-0.00207643 -0.102073 0.207857
-0.00161857 -0.102421 0.208527
-0.00116247 -0.102716 0.209077
-0.000708095 -0.102967 0.209527
-0.000255336 -0.103183 0.209894
0.000199412 -0.103406 0.210279
0.000652212 -0.103593 0.21058
0.00111046 -0.103826 0.210987
0.00157689 -0.104125 0.211542
0.00205233 -0.104486 0.212238
0.00253569 -0.104897 0.213049
0.00303292 -0.105402 0.214071
0.00353163 -0.10589 0.215055
0.00402705 -0.106324 0.215915
0.0045157 -0.10668 0.216597
-0.03047 -0.100631 0.213841
-0.0300038 -0.100597 0.213626
-0.0295276 -0.100506 0.213277
-0.0290371 -0.100332 0.212732
-0.0285455 -0.100141 0.212147
-0.0280415 -0.0998681 0.211368
-0.0275436 -0.099614 0.210634
-0.0270557 -0.0994021 0.210002
-0.0265785 -0.0992403 0.209488
-0.0261064 -0.0990982 0.209022
-0.0256489 -0.0990372 0.208749
-0.0251907 -0.0989649 0.208448
-0.0247367 -0.098913 0.208197
-0.0242911 -0.098913 0.208068
-0.0238454 -0.0989086 0.207929
-0.0233855 -0.0987954 0.207533
-0.0229287 -0.0986945 0.207167
-0.0224651 -0.0985287 0.206648
-0.0219993 -0.0983292 0.206051
-0.0215402 -0.0981678 0.205544
-0.0210934 -0.0980982 0.205253
-0.0206447 -0.098 0.204895
-0.0202022 -0.0979486 0.204648
-0.0197586 -0.0978768 0.204353
-0.0193192 -0.097837 0.204134
-0.0188801 -0.0977914 0.203901
-0.0184455 -0.0977864 0.203764
-0.018008 -0.097741 0.203532
-0.0175727 -0.0977118 0.203338
-0.0171373 -0.0976718 0.20312
-0.0167057 -0.0976741 0.203
-0.0162744 -0.0976728 0.202873
-0.0158454 -0.0977015 0.202815
-0.0154177 -0.097747 0.202797
-0.0149905 -0.0978015 0.2028
-0.0145645 -0.0978794 0.202857
-0.0141398 -0.0979893 0.20299
-0.0137151 -0.0981118 0.203151
-0.0132894 -0.0982206 0.20328
-0.0128634 -0.0983365 0.203426
-0.0124371 -0.098454 0.203575
-0.0120098 -0.098558 0.203693
-0.011582 -0.0986525 0.203788
-0.0111536 -0.0987303 0.203845
-0.0107248 -0.0987826 0.203842
-0.0102958 -0.0988064 0.203773
-0.00986718 -0.0988815 0.203824
-0.00943838 -0.099014 0.204007
-0.00900854 -0.0992129 0.204344
-0.00857836 -0.0993276 0.204486
-0.00814803 -0.0994182 0.204571
-0.00771714 -0.0995242 0.204692
-0.0072865 -0.099599 0.204742
-0.00685618 -0.0996593 0.204757
-0.00642284 -0.0998155 0.204994
-0.00598814 -0.0999861 0.205264
-0.00555493 -0.100096 0.205394
-0.00512034 -0.100227 0.205571
-0.00468459 -0.100369 0.205776
-0.00424846 -0.100506 0.205966
-0.0038101 -0.10067 0.206221
-0.00336769 -0.100887 0.206597
-0.00292219 -0.101133 0.207037
-0.00247255 -0.101416 0.207564
-0.0020179 -0.101742 0.20819
-0.00156023 -0.102079 0.208839
-0.00110356 -0.102376 0.209394
-0.000647731 -0.102639 0.209872
-0.000193512 -0.102865 0.210266
0.000261133 -0.10308 0.210633
0.000713849 -0.103264 0.210928
0.00117139 -0.103483 0.211305
0.00163593 -0.103758 0.211809
0.00211024 -0.104106 0.212478
0.0025954 -0.104526 0.213313
0.00309334 -0.105032 0.214344
0.00359013 -0.1055 0.215285
0.0040854 -0.105929 0.216135
0.00457257 -0.10627 0.216787
-0.0304042 -0.100146 0.213843
-0.0299377 -0.100109 0.213621
-0.0294637 -0.100028 0.213295
-0.0289734 -0.0998545 0.212748
-0.0284842 -0.0996753 0.212188
-0.0279842 -0.0994245 0.211458
-0.0274909 -0.0991964 0.210783
-0.0270071 -0.0990092 0.210206
-0.0265337 -0.0988709 0.209746
-0.0260612 -0.0987274 0.209275
-0.0256017 -0.0986552 0.208973
-0.025143 -0.0985809 0.208666
-0.0246873 -0.0985189 0.208389
-0.0242387 -0.098499 0.208213
-0.0237916 -0.0984843 0.208048
-0.0233371 -0.0984101 0.207743
-0.0228848 -0.0983447 0.20746
-0.0224279 -0.0982341 0.207069
-0.0219668 -0.0980779 0.206571
-0.0215093 -0.097935 0.206105
-0.0210569 -0.0978228 0.205712
-0.0206019 -0.0976724 0.205229
-0.0201525 -0.0975589 0.204834
-0.0197049 -0.0974479 0.204445
-0.0192647 -0.0973991 0.204204
-0.018826 -0.097356 0.203976
-0.0183923 -0.0973609 0.203861
-0.017955 -0.0973161 0.20363
-0.0175204 -0.0972949 0.203454
-0.017085 -0.097254 0.203232
-0.0166535 -0.0972558 0.203111
-0.0162223 -0.0972556 0.202985
-0.0157933 -0.0972835 0.202925
-0.015365 -0.0973175 0.20288
-0.0149377 -0.0973693 0.202877
-0.0145118 -0.0974465 0.202933
-0.0140877 -0.0975688 0.203095
-0.0136636 -0.0977026 0.203283
-0.013239 -0.0978433 0.203488
-0.0128133 -0.0979711 0.203662
-0.012387 -0.0981 0.203838
-0.0119595 -0.0982041 0.203957
-0.0115316 -0.0983079 0.204074
-0.0111028 -0.0983764 0.204109
-0.0106737 -0.09842 0.204086
-0.0102444 -0.0984318 0.203989
-0.00981569 -0.098516 0.20406
-0.00938662 -0.0986692 0.204293
-0.00895641 -0.0988735 0.204644
-0.00852579 -0.0989996 0.204812
-0.00809496 -0.0990974 0.204915
-0.00766387 -0.0991934 0.205014
-0.00723346 -0.0992449 0.205009
-0.00680267 -0.0993122 0.20504
-0.00636941 -0.0994552 0.205248
-0.00593456 -0.0996237 0.205514
-0.00550109 -0.0997328 0.205642
-0.00506615 -0.0998663 0.205827
-0.00463 -0.100012 0.206039
-0.00419298 -0.100159 0.206256
-0.00375365 -0.100335 0.206539
-0.0033108 -0.100553 0.206917
-0.00286489 -0.100797 0.207356
-0.00241558 -0.101068 0.207857
-0.00195992 -0.101402 0.208502
-0.00150183 -0.101737 0.209151
-0.00104375 -0.102045 0.209735
-0.000586395 -0.102319 0.210241
-0.000130571 -0.102557 0.210663
0.000324361 -0.10277 0.211028
0.000776725 -0.102943 0.211299
0.00123337 -0.103148 0.211645
0.001697 -0.103409 0.212118
0.00216916 -0.103731 0.212732
0.00265467 -0.104154 0.213576
0.00315337 -0.104661 0.214611
0.00364992 -0.10512 0.215537
0.00414293 -0.105526 0.216341
0.00462979 -0.105863 0.216985
-0.0303296 -0.0996179 0.213741
-0.0298652 -0.0995892 0.213538
-0.029397 -0.0995365 0.213278
-0.0289072 -0.099364 0.212731
-0.0284239 -0.099216 0.212243
-0.0279284 -0.0989895 0.211568
-0.0274396 -0.0987869 0.210951
-0.0269602 -0.0986255 0.210433
-0.02649 -0.0985077 0.21002
-0.0260158 -0.0983557 0.209526
-0.0255556 -0.0982804 0.209215
-0.0250966 -0.0982057 0.208906
-0.0246395 -0.098135 0.208607
-0.0241881 -0.0980967 0.208385
-0.0237409 -0.0980817 0.20822
-0.0232889 -0.0980273 0.20796
-0.02284 -0.0979883 0.207738
-0.0223889 -0.0979259 0.20746
-0.0219307 -0.097796 0.207022
-0.0214735 -0.097661 0.206572
-0.0210175 -0.0975225 0.206115
-0.0205601 -0.0973552 0.20559
-0.020108 -0.0972195 0.20514
-0.019662 -0.097127 0.204793
-0.0192224 -0.0970883 0.204574
-0.0187824 -0.0970356 0.204322
-0.0183467 -0.0970213 0.204161
-0.0179082 -0.0969652 0.203902
-0.0174712 -0.0969163 0.20366
-0.0170343 -0.0968578 0.203395
-0.0166022 -0.0968514 0.203254
-0.0161708 -0.0968488 0.203122
-0.0157412 -0.096866 0.203037
-0.0153128 -0.096898 0.202986
-0.0148857 -0.0969509 0.202986
-0.0144602 -0.0970367 0.203062
-0.0140367 -0.0971701 0.203251
-0.0136125 -0.0973065 0.203446
-0.0131883 -0.0974598 0.203681
-0.0127628 -0.0975988 0.203882
-0.0123366 -0.0977381 0.204084
-0.0119089 -0.0978416 0.204202
-0.011481 -0.0979526 0.204336
-0.0110519 -0.0980201 0.204369
-0.0106226 -0.098073 0.204368
-0.0101932 -0.0980955 0.204295
-0.00976423 -0.0982005 0.204416
-0.0093347 -0.0983634 0.204671
-0.00890397 -0.0985672 0.205023
-0.00847298 -0.0986816 0.205165
-0.00804196 -0.0987669 0.205239
-0.00761077 -0.0988489 0.205305
-0.00718052 -0.0988825 0.205258
-0.00674977 -0.0989401 0.205267
-0.00631665 -0.0990733 0.205452
-0.00588156 -0.0992419 0.20572
-0.00544823 -0.0993444 0.205833
-0.00501225 -0.0994979 0.206065
-0.00457526 -0.0996557 0.206307
-0.00413744 -0.0998133 0.206548
-0.00369708 -0.1 0.206858
-0.00325377 -0.100218 0.207238
-0.00280862 -0.100443 0.207635
-0.00235973 -0.100702 0.208111
-0.00190393 -0.101032 0.20875
-0.00144551 -0.101367 0.2094
-0.000985976 -0.101687 0.210015
-0.000526439 -0.101982 0.210571
-6.8246e-05 -0.102241 0.211043
0.00038725 -0.102453 0.211407
0.0008402 -0.102626 0.211679
0.00129493 -0.102808 0.211972
0.00175656 -0.103046 0.212395
0.00222547 -0.103335 0.212934
0.00270969 -0.103742 0.213746
0.00320507 -0.104216 0.214713
0.00370195 -0.104675 0.215641
0.0041937 -0.105069 0.21642
0.0046818 -0.105414 0.217087
0.00522159 -0.106962 0.219375
0.00515713 -0.105648 0.217496
-0.0302638 -0.0991334 0.213742
-0.0297994 -0.0991035 0.213535
-0.0293315 -0.0990508 0.213274
-0.0288423 -0.0988807 0.21273
-0.0283618 -0.0987466 0.212274
-0.0278727 -0.0985546 0.211679
-0.027388 -0.0983756 0.211115
-0.0269125 -0.0982372 0.21065
-0.0264424 -0.0981212 0.210239
-0.0259681 -0.0979697 0.209744
-0.0255061 -0.0978841 0.209407
-0.0250471 -0.0978097 0.209097
-0.02459 -0.0977404 0.2088
-0.0241389 -0.0977044 0.208582
-0.0236942 -0.0977078 0.20846
-0.0232459 -0.0976823 0.208268
-0.0227998 -0.0976669 0.208101
-0.0223531 -0.097642 0.207912
-0.0218996 -0.0975557 0.207575
-0.0214453 -0.0974518 0.207197
