ply
format ascii 1.0
element vertex 1717
property float x
property float y
property float z
end_header
0.171587 0.0415372 0.859208
0.173364 0.0418232 0.86026
0.175308 0.0421558 0.862039
0.177269 0.0424921 0.863859
0.179258 0.0428351 0.865769
0.181291 0.0431897 0.867845
0.183315 0.0435407 0.869849
0.185314 0.0438838 0.871709
0.187337 0.0442325 0.873645
0.189258 0.0445521 0.875114
0.191129 0.0448572 0.876351
0.193719 0.0453583 0.880566
0.196724 0.0459703 0.886438
0.200125 0.0466872 0.893848
0.204059 0.0475447 0.903328
0.20797 0.0483919 0.912579
0.211113 0.0490285 0.918604
0.213838 0.0495503 0.92287
0.216253 0.0499875 0.925846
0.218332 0.0503339 0.927451
0.220345 0.0506621 0.928776
0.222399 0.0510002 0.930236
0.22456 0.0513658 0.932084
0.226765 0.0517425 0.93408
0.228905 0.0521008 0.935793
0.231071 0.0524653 0.937584
0.23315 0.0528064 0.93902
0.235121 0.0531188 0.940032
0.237035 0.0534158 0.940813
0.241134 0.0525391 0.948866
0.240769 0.0541821 0.948294
0.0836714 0.0322182 0.961
0.0820033 0.0337562 0.963238
0.0826996 0.0335561 0.954191
0.0838406 0.0335617 0.949447
0.0854412 0.0337732 0.948942
0.0870009 0.0339674 0.948087
0.0887597 0.0325031 0.947001
0.088514 0.034142 0.946847
0.0902529 0.0326724 0.945624
0.0900282 0.0343182 0.945647
0.0915894 0.0345149 0.944871
0.0961365 0.032991 0.879232
0.0974821 0.0331332 0.877736
0.0988448 0.0332833 0.876399
0.100039 0.0333698 0.873869
0.101303 0.0334848 0.871895
0.10255 0.0335943 0.869838
0.103826 0.0337168 0.868039
0.105087 0.0338347 0.86617
0.106384 0.0339671 0.864585
0.107704 0.0341089 0.863186
0.10906 0.0342652 0.862064
0.110429 0.0344265 0.861044
0.111851 0.0346077 0.86039
0.113248 0.03478 0.859582
0.114681 0.0349656 0.85902
0.116139 0.0351604 0.858626
0.117573 0.0353472 0.858089
0.118939 0.0355101 0.857131
0.120263 0.0356595 0.85594
0.12163 0.0358239 0.855024
0.122991 0.035987 0.854089
0.124395 0.0361653 0.853427
0.12587 0.036368 0.853196
0.127339 0.0365683 0.852922
0.128727 0.036742 0.85219
0.130111 0.0369144 0.85144
0.131512 0.0370931 0.850803
0.132905 0.0372691 0.850125
0.134354 0.0374642 0.849774
0.135817 0.0376636 0.849497
0.137295 0.037868 0.849307
0.138808 0.0380834 0.849301
0.140372 0.0383152 0.849568
0.141972 0.0385582 0.850016
0.143624 0.0388173 0.850728
0.145254 0.0390686 0.851305
0.14687 0.0393154 0.851799
0.148432 0.0395448 0.852005
0.150022 0.0397827 0.852345
0.15155 0.0400013 0.852366
0.153062 0.0402149 0.852306
0.15455 0.0404209 0.852124
0.156133 0.0406561 0.852409
0.157752 0.0409018 0.852858
0.159407 0.0411579 0.853469
0.161155 0.0414417 0.854512
0.162918 0.0417289 0.855601
0.164682 0.042016 0.856678
0.166366 0.0422787 0.857363
0.168068 0.0425464 0.858118
0.169804 0.0428235 0.859012
0.17157 0.0431087 0.860025
0.17339 0.043409 0.861261
0.175359 0.0437521 0.863144
0.177325 0.0440933 0.864984
0.179279 0.0444297 0.866736
0.181287 0.0447806 0.868691
0.183265 0.0451222 0.870489
0.185219 0.0454558 0.872153
0.1872 0.0457961 0.873905
0.189055 0.0460999 0.875092
0.190832 0.0463812 0.875934
0.193775 0.046989 0.881629
0.197185 0.0477252 0.889182
0.201057 0.0485858 0.898512
0.205034 0.0494717 0.908147
0.208932 0.0503308 0.917316
0.211619 0.0508515 0.921475
0.213948 0.0512718 0.924142
0.215999 0.0516145 0.925663
0.21811 0.0519727 0.927394
0.220179 0.0523186 0.928935
0.222234 0.0526601 0.930401
0.224371 0.0530228 0.932158
0.226598 0.0534092 0.934238
0.228714 0.0537645 0.935861
0.230884 0.0541338 0.937669
0.232966 0.0544784 0.939116
0.234991 0.0548073 0.940329
0.23694 0.0551151 0.941238
0.240461 0.0558388 0.947936
0.0799494 0.0351217 0.961881
0.0807301 0.0349411 0.953489
0.0819501 0.0349732 0.949404
0.0835498 0.0351835 0.948886
0.085155 0.0353967 0.948429
0.0867263 0.035595 0.94768
0.0882576 0.0357761 0.9466
0.0897995 0.0359626 0.945637
0.0913633 0.0361596 0.944879
0.0931286 0.0347033 0.943929
0.092915 0.0363518 0.944037
0.0961201 0.0346056 0.880698
0.0974463 0.0347371 0.879036
0.0987959 0.0348792 0.877582
0.0999647 0.0349508 0.874844
0.101205 0.0350528 0.872685
0.102465 0.0351638 0.870707
0.103744 0.0352838 0.868909
0.10502 0.035404 0.86713
0.106317 0.0355338 0.865535
0.107638 0.0356734 0.864129
0.108972 0.035819 0.86284
0.110329 0.0359744 0.861735
0.111724 0.0361441 0.860891
0.113108 0.0363105 0.859995
0.114517 0.0364864 0.859271
0.115964 0.0366766 0.858801
0.117399 0.0368627 0.858264
0.118764 0.0370242 0.857301
0.120114 0.037181 0.856266
0.121497 0.0373495 0.855438
0.122901 0.0375265 0.854761
0.124325 0.0377103 0.854203
0.125834 0.0379244 0.854162
0.127294 0.0381211 0.853828
0.128698 0.0382988 0.853175
0.130065 0.0384642 0.852321
0.131464 0.0386409 0.851658
0.13284 0.0388104 0.850881
0.134277 0.0390002 0.850445
0.135723 0.0391939 0.850073
0.137171 0.0393876 0.849706
0.138682 0.0396031 0.849692
0.140265 0.0398417 0.850057
0.141905 0.0400983 0.850707
0.143583 0.0403674 0.851551
0.145246 0.0406305 0.852293
0.146877 0.0408831 0.852857
0.148443 0.041114 0.853071
0.150039 0.0413543 0.853432
0.151587 0.0415794 0.853545
0.153135 0.0418041 0.853652
0.154627 0.0420109 0.853476
0.156233 0.0422536 0.853859
0.157834 0.0424943 0.854209
0.159454 0.0427405 0.85464
0.161161 0.0430133 0.855476
0.162903 0.0432963 0.856463
0.164635 0.0435756 0.857382
0.166321 0.0438401 0.858069
0.168062 0.0441209 0.858996
0.169804 0.0444017 0.859914
0.171591 0.0446949 0.861013
0.173435 0.0450047 0.862351
0.17543 0.0453587 0.864342
0.177363 0.0456933 0.866026
0.179292 0.0460256 0.86766
0.181252 0.0463661 0.869406
0.183183 0.0466968 0.870991
0.185094 0.047021 0.872467
0.187054 0.0473587 0.874129
0.188864 0.0476516 0.875123
0.190977 0.048032 0.877384
0.194317 0.0487646 0.884733
0.198137 0.049631 0.893963
0.202085 0.0505293 0.903584
0.206059 0.0514303 0.913174
0.209536 0.0521853 0.920607
0.211765 0.0525834 0.922901
0.213712 0.0529004 0.924026
0.215765 0.0532467 0.925555
0.217875 0.0536082 0.927287
0.219971 0.0539648 0.928938
0.222051 0.054316 0.930498
0.224184 0.0546812 0.932243
0.226383 0.0550638 0.934212
0.228496 0.0554217 0.935828
0.230666 0.0557942 0.937632
0.232752 0.0561429 0.939096
0.234781 0.0564752 0.940321
0.236735 0.0567865 0.941252
0.240775 0.0576632 0.949871
0.0775952 0.0363311 0.95756
0.0788215 0.0363523 0.953339
0.0800418 0.0363753 0.94919
0.0816427 0.0365858 0.948683
0.0832531 0.0368009 0.948271
0.0848726 0.0370207 0.947948
0.0864697 0.0372301 0.947431
0.0880079 0.0374129 0.946411
0.0895609 0.0376031 0.945542
0.0911264 0.0377998 0.944797
0.0926904 0.0379964 0.944056
0.0942384 0.0381864 0.943199
0.0961925 0.0362633 0.882844
0.0974965 0.0363818 0.880984
0.0988294 0.0365137 0.879378
0.0999486 0.0365596 0.876249
0.101138 0.0366365 0.873696
0.102371 0.0367332 0.871517
0.103627 0.0368409 0.869545
0.104893 0.036954 0.867684
0.106193 0.0370817 0.866092
0.107528 0.0372245 0.864775
0.108849 0.0373629 0.863393
0.110208 0.0375167 0.862283
0.11159 0.0376802 0.861351
0.112972 0.0378446 0.860436
0.114368 0.0380141 0.859619
0.115802 0.038199 0.859065
0.117237 0.0383844 0.858523
0.118617 0.0385497 0.857647
0.120001 0.0387171 0.85681
0.121403 0.0388913 0.856094
0.122828 0.0390745 0.855529
0.124264 0.0392619 0.855039
0.125777 0.039477 0.855007
0.127209 0.0396634 0.854503
0.128613 0.0398399 0.85384
0.129978 0.0400029 0.852962
0.131361 0.0401731 0.852206
0.132722 0.0403358 0.851333
0.134156 0.0405243 0.85088
0.13557 0.0407062 0.850324
0.136999 0.0408933 0.849853
0.138526 0.0411138 0.849917
0.140116 0.0413556 0.850314
0.141798 0.0416281 0.85119
0.143514 0.0419113 0.852226
0.145211 0.0421872 0.853141
0.146854 0.0424448 0.853759
0.148463 0.0426903 0.854185
0.150061 0.042932 0.854548
0.151629 0.0431636 0.854749
0.153198 0.0433951 0.854949
0.154711 0.0436084 0.854866
0.15631 0.0438492 0.855202
0.157915 0.0440916 0.855557
0.159534 0.0443381 0.855971
0.161222 0.0446063 0.856706
0.162946 0.0448854 0.857598
0.164662 0.045161 0.858431
0.166332 0.045422 0.859038
0.168076 0.0457055 0.859973
0.16984 0.0459945 0.860981
0.171635 0.0462924 0.862111
0.173484 0.0466059 0.863462
0.175476 0.0469626 0.865434
0.177368 0.0472876 0.866926
0.179253 0.0476095 0.868361
0.181149 0.0479336 0.869818
0.183036 0.0482544 0.871214
0.184906 0.048569 0.872511
0.186826 0.048898 0.874002
0.188594 0.0491806 0.874821
0.191096 0.0496805 0.878717
0.194845 0.0505469 0.887774
0.198744 0.0514529 0.897324
0.202753 0.0523859 0.907184
0.206727 0.0533032 0.916755
0.209777 0.0539464 0.92243
0.211633 0.0542399 0.923203
0.213576 0.0545581 0.924311
0.215632 0.0549083 0.925854
0.217724 0.0552679 0.927512
0.219845 0.0556349 0.929259
0.221921 0.055988 0.930803
0.224026 0.0563486 0.932438
0.22617 0.0567192 0.934193
0.228278 0.0570788 0.935791
0.230419 0.0574468 0.937486
0.232501 0.0577975 0.938938
0.234532 0.0581331 0.940176
0.236675 0.0584991 0.941809
0.0752456 0.0375214 0.953117
0.07651 0.0375554 0.949266
0.0781293 0.0377743 0.948927
0.0797386 0.0379882 0.948497
0.08135 0.0382037 0.948095
0.0829716 0.0384241 0.947792
0.0846034 0.0386498 0.947585
0.0862245 0.0388704 0.947283
0.0877872 0.0390633 0.946474
0.0893531 0.0392584 0.945712
0.0909176 0.0394533 0.944953
0.092475 0.0396457 0.944151
0.0940207 0.0398333 0.94327
0.0961307 0.037871 0.883978
0.097441 0.0379886 0.882146
0.0987557 0.0381097 0.880388
0.0998931 0.0381574 0.877372
0.101101 0.0382371 0.874933
0.102318 0.038323 0.872619
0.103549 0.0384165 0.870454
0.10483 0.0385324 0.868683
0.106133 0.0386583 0.867098
0.107482 0.0388043 0.865863
0.108793 0.0389359 0.864393
0.110139 0.0390826 0.863189
0.111495 0.0392337 0.862066
0.112876 0.0393959 0.861133
0.114232 0.0395491 0.860057
0.115651 0.0397267 0.859393
0.117084 0.0399108 0.858838
0.11848 0.0400804 0.85805
0.119886 0.0402547 0.857342
0.121326 0.0404424 0.856857
0.122757 0.0406267 0.856318
0.124191 0.0408123 0.855804
0.125695 0.0410241 0.855711
0.127109 0.0412029 0.855092
0.128517 0.0413796 0.854441
0.129898 0.0415474 0.853654
0.131299 0.0417223 0.852984
0.132647 0.0418788 0.852029
0.134065 0.042061 0.851482
0.135463 0.0422361 0.850828
0.136874 0.042416 0.850251
0.138401 0.0426372 0.850315
0.140009 0.0428861 0.850805
0.141713 0.0431678 0.851795
0.143436 0.0434549 0.852856
0.145132 0.0437326 0.853765
0.146774 0.0439906 0.854367
0.148384 0.0442376 0.854797
0.149967 0.0444749 0.855076
0.151553 0.0447129 0.855362
0.153173 0.0449619 0.855811
0.154711 0.0451833 0.855842
0.156332 0.0454321 0.856279
0.157961 0.0456828 0.85674
0.159581 0.0459304 0.857149
0.161253 0.0461946 0.857798
0.162961 0.04647 0.858605
0.164644 0.0467365 0.859275
0.16633 0.0470037 0.859949
0.168075 0.0472891 0.860882
0.169825 0.0475755 0.861818
0.171642 0.0478822 0.863041
0.173526 0.0482095 0.864546
0.175484 0.0485588 0.866354
0.177349 0.0488781 0.867722
0.17921 0.0491949 0.869043
0.181043 0.0495025 0.870223
0.182873 0.049808 0.871364
0.184802 0.0501435 0.872919
0.186787 0.0504952 0.874685
0.188645 0.050807 0.875884
0.191605 0.0514531 0.881706
0.195433 0.0523594 0.891084
0.199338 0.0532832 0.900635
0.203219 0.0541947 0.909951
0.207056 0.0550877 0.91895
0.209643 0.0556024 0.92273
0.211496 0.0558969 0.923492
0.213438 0.0562168 0.924593
0.215472 0.0565637 0.926047
0.217541 0.0569196 0.927612
0.219664 0.0572905 0.929367
0.22171 0.057638 0.930794
0.223763 0.0579866 0.932226
0.225874 0.0583512 0.933861
0.227977 0.0587126 0.935437
0.230113 0.0590827 0.93712
0.232197 0.0594369 0.938581
0.234441 0.0598358 0.940615
0.236794 0.0602648 0.943028
0.241141 0.0595091 0.952001
0.240948 0.0612049 0.952072
0.0746335 0.0378361 0.963649
0.0727114 0.0392627 0.963535
0.073656 0.0391037 0.956156
0.0746375 0.0389742 0.949383
0.0762282 0.0391774 0.948761
0.0778496 0.0393974 0.948447
0.0794601 0.0396119 0.948035
0.0810818 0.0398324 0.947733
0.0827039 0.0400531 0.947438
0.0843365 0.0402793 0.947241
0.0859693 0.0405056 0.947044
0.0875432 0.0407029 0.946334
0.0891092 0.040897 0.945572
0.0906693 0.0410889 0.944775
0.0922121 0.0412732 0.94385
0.0937593 0.0414605 0.942983
0.096098 0.0394962 0.885338
0.0974042 0.0396083 0.883454
0.0987096 0.0397217 0.881605
0.0998835 0.0397796 0.878836
0.101113 0.0398639 0.876531
0.102304 0.0399341 0.874009
0.103523 0.0400179 0.87173
0.104804 0.0401304 0.869944
0.106098 0.0402492 0.868276
0.107451 0.0403943 0.867049
0.108775 0.0405284 0.865653
0.11011 0.0406681 0.864354
0.111439 0.0408064 0.863046
0.11278 0.0409506 0.861839
0.114081 0.0410795 0.860394
0.115443 0.0412338 0.859367
0.116846 0.041405 0.858617
0.118255 0.0415791 0.857916
0.119707 0.0417702 0.857488
0.121198 0.0419767 0.857306
0.122673 0.0421769 0.857024
0.124132 0.0423712 0.856652
0.125629 0.0425803 0.856512
0.127044 0.0427582 0.855885
0.128468 0.0429397 0.85532
0.129873 0.0431149 0.854659
0.131281 0.0432913 0.85402
0.13263 0.0434462 0.853058
0.134034 0.043622 0.852418
0.135418 0.0437908 0.851674
0.136815 0.0439648 0.851016
0.138358 0.0441915 0.851154
0.139966 0.0444414 0.851639
0.14167 0.0447247 0.852617
0.143374 0.0450074 0.853577
0.145056 0.0452815 0.854403
0.146685 0.0455361 0.854931
0.148285 0.0457802 0.855301
0.149873 0.0460201 0.855605
0.15148 0.0462657 0.855989
0.153117 0.0465214 0.856516
0.154691 0.0467553 0.856721
0.156335 0.0470124 0.85726
0.15797 0.0472664 0.857747
0.159608 0.0475207 0.858234
0.161284 0.0477873 0.858894
0.162979 0.0480594 0.859625
0.164661 0.048327 0.860286
0.166349 0.0485957 0.860958
0.168109 0.0488879 0.861953
0.16988 0.0491825 0.862975
0.171702 0.0494931 0.864213
0.173573 0.0498188 0.865652
0.175508 0.050164 0.867351
0.177312 0.050466 0.868438
0.179151 0.0507784 0.869659
0.180949 0.0510767 0.870677
0.182858 0.0514096 0.872162
0.184897 0.0517828 0.874185
0.18698 0.0521681 0.876361
0.188942 0.0525145 0.877991
0.192007 0.0532035 0.884247
0.195861 0.0541342 0.893723
0.199757 0.0550717 0.903225
0.203634 0.0559981 0.912512
0.207424 0.0568924 0.921311
0.209588 0.0572841 0.923351
0.211413 0.0575713 0.923992
0.213346 0.057891 0.925058
0.215353 0.0582322 0.926398
0.217375 0.0585773 0.927777
0.219496 0.058951 0.929525
0.221541 0.0593009 0.930946
0.22354 0.0596362 0.93217
0.225597 0.0599879 0.933593
0.227667 0.0603429 0.93505
0.229777 0.0607085 0.936635
0.231916 0.061082 0.938308
0.234284 0.0615215 0.940814
0.236832 0.0620121 0.943954
0.240728 0.0628929 0.952036
0.0708344 0.0407145 0.963888
0.0717468 0.0405187 0.956031
0.0730362 0.0405463 0.952241
0.0743389 0.0405862 0.948704
0.0759397 0.0407946 0.94819
0.0775719 0.0410205 0.947986
0.0791943 0.0412412 0.947691
0.080827 0.0414674 0.947495
0.0824597 0.0416936 0.947298
0.0840924 0.0419199 0.947101
0.0857141 0.0421405 0.946807
0.0872759 0.0423309 0.945992
0.0888405 0.0425233 0.945218
0.0904004 0.0427141 0.944422
0.0919393 0.0428954 0.943466
0.0934866 0.0430815 0.942601
0.0951033 0.043302 0.94232
0.0986802 0.0413463 0.882952
0.0999128 0.0414249 0.88059
0.101174 0.0415188 0.878491
0.102358 0.0415802 0.875882
0.103564 0.0416541 0.873492
0.104809 0.0417466 0.871422
0.106077 0.0418512 0.869558
0.107419 0.0419891 0.868241
0.108735 0.0421168 0.86677
0.110071 0.0422542 0.865461
0.111387 0.0423845 0.864051
0.112686 0.0425088 0.862554
0.113942 0.0426164 0.860808
0.115272 0.0427561 0.859573
0.116643 0.0429132 0.858616
0.11808 0.0430975 0.858087
0.119576 0.0433056 0.857928
0.121115 0.0435308 0.858029
0.122594 0.0437323 0.857769
0.12404 0.0439207 0.857308
0.125494 0.0441126 0.856903
0.126896 0.0442846 0.856196
0.128313 0.0444628 0.855589
0.129755 0.0446507 0.85513
0.131195 0.0448381 0.854666
0.13259 0.045009 0.853956
0.13401 0.0451896 0.853397
0.135411 0.0453632 0.852736
0.136829 0.0455435 0.852178
0.138359 0.0457658 0.852238
0.13995 0.0460101 0.852619
0.141617 0.0462814 0.85339
0.143285 0.0465526 0.854153
0.144949 0.0468217 0.854878
0.146595 0.0470839 0.855496
0.1482 0.0473305 0.855887
0.14981 0.0475787 0.856294
0.151453 0.0478377 0.856852
0.153094 0.0480959 0.857394
0.154689 0.0483374 0.857695
0.156354 0.0486027 0.858327
0.158008 0.0488638 0.858894
0.159651 0.0491206 0.859396
0.161327 0.0493884 0.860047
0.163023 0.0496623 0.860777
0.164709 0.049932 0.861445
0.166399 0.0502025 0.862115
0.168163 0.0504976 0.863119
0.169957 0.0508018 0.864239
0.171781 0.0511153 0.865479
0.173638 0.0514385 0.866841
0.175536 0.0517743 0.868365
0.17732 0.0520718 0.869358
0.179138 0.0523795 0.87048
0.181018 0.0527065 0.871851
0.183024 0.0530735 0.87375
0.185166 0.0534832 0.876209
0.187334 0.0538996 0.878734
0.189404 0.0542829 0.880804
0.192446 0.0549753 0.886951
0.196305 0.0559237 0.896431
0.20021 0.0568809 0.905964
0.204128 0.0578363 0.915409
0.207862 0.058728 0.923959
0.209585 0.0589849 0.924187
0.211381 0.0592645 0.924707
0.213286 0.0595772 0.925651
0.21524 0.0599045 0.926777
0.217259 0.0602512 0.928143
0.219376 0.0606272 0.929873
0.221423 0.0609805 0.931302
0.223394 0.0613097 0.932412
0.225422 0.0616555 0.933727
0.22746 0.0620036 0.935059
0.229569 0.0623722 0.936641
0.231773 0.0627683 0.938557
0.234223 0.063237 0.941367
0.236941 0.0637843 0.945141
0.240535 0.06459 0.952107
0.244753 0.0638072 0.96049
0.244161 0.0654013 0.959098
0.0696204 0.041803 0.95362
0.0708508 0.0417884 0.949195
0.0724617 0.0420014 0.948766
0.0740726 0.0422148 0.948345
0.0756848 0.0424292 0.947945
0.0773174 0.0426555 0.947748
0.0789501 0.0428817 0.947551
0.0805828 0.0431079 0.947354
0.0822155 0.0433342 0.947158
0.0838482 0.0435604 0.946961
0.0854691 0.0437804 0.946659
0.0870298 0.0439691 0.945833
0.0885937 0.0441602 0.945053
0.0901537 0.04435 0.944256
0.091681 0.044524 0.943203
0.0932189 0.0447043 0.942261
0.0948283 0.0449211 0.941923
0.0985914 0.0429483 0.883861
0.099895 0.0430554 0.882004
0.101215 0.0431719 0.880311
0.102419 0.0432369 0.877815
0.103603 0.0432957 0.875239
0.104818 0.0433709 0.872939
0.106058 0.0434589 0.870857
0.10736 0.0435765 0.869248
0.108667 0.0436975 0.867702
0.110007 0.0438339 0.866404
0.111312 0.0439567 0.864905
0.112607 0.0440763 0.86337
0.113856 0.0441783 0.861573
0.115157 0.0443033 0.860138
0.116503 0.0444479 0.859011
0.117938 0.0446307 0.858467
0.119423 0.0448339 0.858231
0.120952 0.0450556 0.858272
0.122422 0.0452531 0.85795
0.123896 0.0454521 0.857654
0.125354 0.0456449 0.857264
0.126786 0.0458279 0.856733
0.128235 0.0460175 0.856302
0.129726 0.0462237 0.856115
0.131171 0.0464122 0.855671
0.132583 0.0465881 0.855043
0.134004 0.0467678 0.854474
0.135396 0.0469367 0.853754
0.136818 0.0471178 0.853211
0.138337 0.0473353 0.853194
0.139911 0.0475741 0.853478
0.141542 0.0478335 0.854054
0.14319 0.0480987 0.854704
0.144819 0.048356 0.85524
0.146481 0.048625 0.855933
0.148103 0.0488787 0.856407
0.149734 0.0491352 0.856916
0.151395 0.049402 0.857563
0.153057 0.0496689 0.858204
0.154671 0.0499174 0.858585
0.156339 0.0501853 0.859231
0.157996 0.0504483 0.859806
0.159638 0.0507055 0.860292
0.161313 0.0509739 0.86093
0.163012 0.0512502 0.861668
0.164701 0.0515221 0.86234
0.166415 0.0518021 0.863117
0.168185 0.052101 0.864141
0.17 0.0524143 0.86535
0.171813 0.0527262 0.866531
0.173668 0.0530513 0.867879
0.175528 0.0533769 0.869224
0.177308 0.0536744 0.870187
0.179127 0.0539847 0.871309
0.181118 0.0543513 0.873166
0.183231 0.054757 0.87552
0.185482 0.055207 0.878437
0.187735 0.0556557 0.881318
0.189865 0.0560618 0.883624
0.192457 0.0566172 0.887846
0.196294 0.0575755 0.897237
0.204234 0.05956 0.916704
0.207977 0.0604698 0.925288
0.209686 0.0607225 0.92545
0.211457 0.0609949 0.925858
0.213313 0.0612937 0.926598
0.215213 0.061606 0.927501
0.217205 0.0619469 0.928756
0.2193 0.0623189 0.930393
0.221323 0.0626673 0.931723
0.22327 0.0629913 0.93274
0.225267 0.0633302 0.933935
0.227273 0.0636708 0.935142
0.229379 0.0640416 0.936711
0.231645 0.0644604 0.93886
0.234217 0.0649721 0.942136
0.237117 0.0655814 0.946579
0.240408 0.0663076 0.952422
0.243699 0.0670297 0.958174
0.247762 0.0662012 0.965901
0.0687806 0.0420609 0.962366
0.0681848 0.0435061 0.958498
0.0692372 0.0433668 0.952031
0.0706429 0.0434522 0.949431
0.0722561 0.0436658 0.949019
0.0738695 0.0438801 0.948617
0.0754834 0.0440949 0.948224
0.0771057 0.0443147 0.947921
0.0787378 0.0445405 0.947713
0.0803604 0.0447608 0.947418
0.0819832 0.0449813 0.947127
0.0836156 0.0452074 0.946926
0.0852356 0.0454266 0.946615
0.0867848 0.0456078 0.945684
0.0883473 0.0457971 0.944891
0.0899074 0.0459859 0.944095
0.0914254 0.0461535 0.942961
0.0929561 0.0463288 0.941959
0.0945223 0.0465233 0.941271
0.0960774 0.0467129 0.940506
0.0985075 0.0445566 0.88481
0.0999021 0.0447033 0.883607
0.101258 0.0448328 0.882147
0.102505 0.0449128 0.879936
0.103717 0.0449791 0.87753
0.104906 0.045037 0.875011
0.106114 0.0451061 0.872681
0.107374 0.045201 0.870758
0.108655 0.0453071 0.869017
0.109975 0.0454318 0.867566
0.111283 0.0455531 0.866073
0.112593 0.0456763 0.86462
0.113846 0.045776 0.862825
0.115124 0.0458881 0.861228
0.116445 0.0460201 0.859932
0.117865 0.0461951 0.859279
0.11931 0.0463808 0.858785
0.12081 0.0465905 0.858644
0.122294 0.0467932 0.858401
0.123784 0.0469987 0.858197
0.125257 0.0471967 0.857887
0.126734 0.047397 0.85761
0.128216 0.047599 0.857358
0.12974 0.0478184 0.857354
0.131218 0.0480188 0.857082
0.132663 0.0482065 0.856627
0.13409 0.048387 0.856074
0.135499 0.0485612 0.855434
0.136925 0.0487421 0.854892
0.138416 0.0489484 0.854706
0.13996 0.0491754 0.854811
0.141542 0.0494168 0.855113
0.143159 0.0496713 0.855593
0.144757 0.0499178 0.855959
0.146421 0.0501886 0.856654
0.148044 0.0504436 0.857126
0.149692 0.0507072 0.857712
0.151372 0.0509825 0.858453
0.153054 0.0512573 0.85918
0.154673 0.0515086 0.859583
0.15636 0.0517844 0.860313
0.158 0.0520422 0.860793
0.159625 0.0522942 0.861192
0.161283 0.0525573 0.861737
0.162981 0.0528345 0.862462
0.164674 0.0531091 0.863149
0.166448 0.0534119 0.8642
0.168246 0.0537224 0.865347
0.170086 0.0540465 0.866662
0.171898 0.0543599 0.867827
0.173734 0.0546805 0.869078
0.175552 0.054994 0.870227
0.177313 0.0552867 0.871098
0.179152 0.0556056 0.872299
0.18128 0.0560223 0.874752
0.183522 0.0564761 0.877662
0.185889 0.0569699 0.881063
0.188239 0.0574558 0.884342
0.190416 0.0578814 0.886831
0.192575 0.0582986 0.889198
0.196408 0.0592724 0.898574
0.204433 0.0613193 0.918383
0.208191 0.0622493 0.927025
0.209867 0.0624914 0.927041
0.211591 0.0627488 0.927247
0.213422 0.0630409 0.927878
0.215276 0.0633397 0.928586
0.217242 0.0636742 0.929727
0.219287 0.0640332 0.931163
0.221311 0.0643847 0.932496
0.223212 0.0646958 0.933327
0.22518 0.0650276 0.934405
0.227155 0.0653607 0.935489
0.229256 0.0657331 0.937039
0.231526 0.0661573 0.939203
0.234178 0.0667001 0.942778
0.237022 0.0673001 0.947012
0.24004 0.0679519 0.95184
0.24306 0.0686013 0.956607
0.067103 0.0454669 0.967444
0.0680742 0.0452508 0.959816
0.0692114 0.0451525 0.954201
0.0705456 0.0451868 0.950815
0.0721088 0.0453679 0.949867
0.0736929 0.045563 0.949154
0.0753062 0.0457765 0.948744
0.0769184 0.0459897 0.948332
0.0785506 0.046215 0.948117
0.0801735 0.046435 0.947815
0.0817966 0.0466552 0.947518
0.0834188 0.046875 0.947216
0.0850276 0.0470874 0.946798
0.0865649 0.0472605 0.945757
0.0881173 0.0474429 0.944872
0.0896663 0.0476245 0.943977
0.0911826 0.0477895 0.942827
0.0927038 0.0479583 0.941745
0.0942595 0.0481464 0.94097
0.0958126 0.0483339 0.94019
0.098469 0.0461912 0.886104
0.0998873 0.0463467 0.885055
0.101257 0.0464797 0.883672
0.102536 0.0465705 0.881669
0.103791 0.0466522 0.879542
0.10496 0.0466952 0.876853
0.106139 0.0467457 0.874296
0.107357 0.0468168 0.872058
0.108619 0.0469107 0.87017
0.109915 0.0470216 0.868544
0.111229 0.0471426 0.867076
0.112558 0.0472712 0.865728
0.113857 0.0473882 0.864221
0.115132 0.0474956 0.862584
0.116456 0.047626 0.86129
0.117872 0.0477975 0.86059
0.119293 0.0479721 0.85994
0.120751 0.0481628 0.859524
0.122234 0.0483646 0.859265
0.123726 0.0485701 0.859058
0.125188 0.048763 0.858677
0.126683 0.0489703 0.858497
0.128169 0.0491736 0.858261
0.129712 0.0494003 0.858353
0.131196 0.0496026 0.858103
0.132688 0.0498085 0.857905
0.134133 0.0499949 0.857437
0.135575 0.0501806 0.85696
0.137032 0.0503729 0.856576
0.138522 0.0505781 0.856372
0.140068 0.0508056 0.856468
0.14162 0.0510352 0.856593
0.143206 0.0512778 0.856893
0.144758 0.051507 0.857007
0.146406 0.051773 0.857614
0.148001 0.0520177 0.857931
0.149667 0.0522892 0.858601
0.151351 0.0525671 0.859351
0.153036 0.0528446 0.86009
0.154656 0.0530969 0.86049
0.156344 0.0533741 0.861214
0.15797 0.0536273 0.861616
0.159593 0.0538794 0.862
0.161251 0.0541436 0.862539
0.162968 0.0544289 0.863348
0.164685 0.0547133 0.864138
0.166484 0.0550272 0.865303
0.168305 0.0553476 0.866543
0.170168 0.0556822 0.867956
0.171961 0.0559906 0.869023
0.173777 0.0563062 0.870174
0.175591 0.0566204 0.871299
0.177374 0.0569222 0.872258
0.179221 0.057246 0.873488
0.181483 0.0577138 0.876522
0.183845 0.0582142 0.879943
0.186205 0.0587116 0.883305
0.188513 0.0591883 0.886386
0.190632 0.0595978 0.888614
0.192762 0.0600095 0.890851
0.19652 0.0609739 0.899901
0.204636 0.0630868 0.920085
0.208446 0.0640497 0.928939
0.210027 0.0642594 0.928549
0.211754 0.0645181 0.928755
0.213563 0.0648035 0.929284
0.215416 0.0651034 0.929982
0.217355 0.0654309 0.931009
0.219377 0.0657847 0.932342
0.221375 0.0661298 0.933565
0.223274 0.0664418 0.934381
0.225193 0.0667598 0.935263
0.22714 0.0670858 0.936234
0.229213 0.067452 0.937673
0.231479 0.0678789 0.939819
0.23397 0.0683765 0.942783
0.236684 0.0689432 0.946538
0.239539 0.069552 0.950761
0.0669468 0.0472012 0.968316
0.0680754 0.0470751 0.962343
0.0692313 0.0469768 0.956863
0.0705317 0.046981 0.95307
0.0720417 0.0471246 0.951536
0.0735942 0.0472976 0.950475
0.0751973 0.0475032 0.94994
0.0767891 0.0477023 0.949307
0.0784106 0.0479202 0.948972
0.0800239 0.0481335 0.948564
0.0816381 0.0483476 0.948172
0.0832486 0.0485597 0.94775
0.0848569 0.048771 0.947317
0.0863726 0.0489297 0.946073
0.0879133 0.049104 0.945078
0.0894494 0.0492769 0.944067
0.0909521 0.0494324 0.942797
0.0924527 0.0495882 0.94154
0.0940019 0.0497718 0.940711
0.0952884 0.0498153 0.937773
0.0966969 0.0499274 0.935885
0.0969366 0.0476403 0.88792
0.0984008 0.0478158 0.887179
0.0998218 0.0479704 0.886133
0.101212 0.0481106 0.884882
0.102533 0.0482181 0.883162
0.103822 0.048312 0.881255
0.104986 0.048347 0.878507
0.106144 0.0483821 0.875776
0.107316 0.0484268 0.873204
0.108537 0.0484972 0.871017
0.109805 0.0485921 0.869194
0.111122 0.0487114 0.867729
0.112482 0.0488522 0.86658
0.113828 0.0489872 0.865356
0.115137 0.0491068 0.863921
0.11649 0.0492479 0.862798
0.117918 0.0494229 0.862154
0.119323 0.0495886 0.861386
0.120749 0.049764 0.860756
0.122217 0.0499581 0.860389
0.123697 0.0501579 0.860101
0.12515 0.0503464 0.859657
0.126663 0.0505602 0.859564
0.128165 0.0507697 0.85941
0.129699 0.0509925 0.859438
0.1312 0.0512016 0.859277
0.132727 0.0514215 0.859264
0.134193 0.0516156 0.858902
0.135656 0.0518088 0.858528
0.137161 0.0520193 0.858388
0.138657 0.0522262 0.858198
0.140205 0.052454 0.858287
0.141757 0.0526832 0.858395
0.143341 0.0529249 0.858664
0.144893 0.0531537 0.85876
0.146514 0.0534097 0.859212
0.148093 0.0536485 0.859435
0.149728 0.0539088 0.859934
0.151379 0.0541748 0.860504
0.153016 0.0544347 0.86099
0.154637 0.0546879 0.861386
0.15631 0.0549604 0.862026
0.157934 0.0552138 0.862415
0.159561 0.0554676 0.862806
0.16122 0.0557332 0.863344
0.162942 0.0560218 0.86417
0.164677 0.0563147 0.865044
0.166518 0.0566459 0.866395
0.168346 0.0569712 0.867661
0.17023 0.0573159 0.869163
0.172023 0.0576261 0.870221
0.173838 0.0579432 0.871359
0.175638 0.0582538 0.872407
0.177462 0.0585726 0.87355
0.179381 0.0589241 0.875087
0.181753 0.0594362 0.878593
0.184108 0.05994 0.881973
0.186425 0.0604274 0.885132
0.188682 0.0608912 0.887981
0.190713 0.0612736 0.88982
0.193168 0.0618029 0.893432
0.196936 0.0627865 0.902512
0.20489 0.0648786 0.922006
0.208596 0.065821 0.930421
0.210131 0.0660143 0.929834
0.211836 0.0662654 0.929937
0.213624 0.0665447 0.930374
0.215453 0.0668378 0.93097
0.217392 0.0671669 0.931986
0.219382 0.0675123 0.933187
0.22133 0.0678432 0.934211
0.2232 0.0681472 0.934912
0.225119 0.0684665 0.935783
0.227012 0.068777 0.936549
0.229059 0.0691369 0.937881
0.231266 0.0695489 0.939808
0.233664 0.0700216 0.94242
0.236224 0.0705454 0.945604
0.0679273 0.0488069 0.963273
0.0691887 0.0487692 0.95888
0.070492 0.0487667 0.955069
0.0719785 0.0488907 0.953255
0.0735094 0.0490464 0.951943
0.0751027 0.0492438 0.951283
0.0766841 0.0494344 0.950525
0.0782969 0.0496455 0.950084
0.079901 0.0498517 0.949569
0.0815049 0.0500582 0.949062
0.0831051 0.050263 0.948531
0.0847129 0.0504728 0.948078
0.0862268 0.0506279 0.946804
0.0877458 0.0507875 0.945605
0.0892803 0.0509575 0.944568
0.0907698 0.051103 0.943175
0.0922574 0.0512492 0.9418
0.0935611 0.0512947 0.938946
0.0945742 0.0511839 0.933809
0.0955642 0.051067 0.928621
0.0967559 0.0492122 0.888163
0.0982257 0.0493894 0.887458
0.0996619 0.04955 0.886518
0.101075 0.0496998 0.885429
0.102449 0.0498308 0.884079
0.103783 0.0499434 0.882476
0.104966 0.0499823 0.879838
0.106127 0.0500132 0.877107
0.107272 0.0500398 0.87433
0.108463 0.0500915 0.871925
0.109692 0.0501637 0.86982
0.111022 0.0502868 0.868438
0.11241 0.050438 0.867453
0.113798 0.0505906 0.866492
0.115126 0.0507164 0.865168
0.116501 0.0508646 0.864159
0.117918 0.0510335 0.86344
0.1193 0.0511867 0.862509
0.120698 0.0513479 0.861692
0.12218 0.0515476 0.861401
0.12369 0.0517599 0.861281
0.125161 0.051955 0.860928
0.126706 0.0521825 0.861011
0.128222 0.0523973 0.860923
0.129741 0.0526133 0.86085
0.131229 0.0528159 0.860598
0.132762 0.0530376 0.860599
0.134219 0.053227 0.860174
0.135689 0.0534222 0.859827
0.137219 0.0536424 0.859808
0.138737 0.053858 0.859726
0.140293 0.0540887 0.859843
0.141846 0.0543183 0.859942
0.143429 0.0545599 0.860195
0.144964 0.0547813 0.860184
0.146551 0.0550241 0.860446
0.148129 0.0552623 0.860649
0.149761 0.0555222 0.861125
0.151379 0.0557757 0.861515
0.152997 0.0560287 0.861896
0.154614 0.056281 0.862263
0.156252 0.056541 0.862726
0.157844 0.0567824 0.862949
0.159489 0.0570441 0.863425
0.16117 0.0573191 0.864062
0.162932 0.0576245 0.865073
0.16473 0.0579428 0.866237
0.166631 0.0582991 0.867861
0.168499 0.0586414 0.869302
0.170388 0.0589904 0.870814
0.172165 0.0592962 0.871788
0.173964 0.0596089 0.872839
0.175768 0.0599229 0.873898
0.177606 0.0602482 0.875084
0.179595 0.0606281 0.876926
0.181938 0.0611357 0.880296
0.184245 0.0616275 0.883452
0.18651 0.0621016 0.886377
0.189062 0.0626766 0.890489
0.19139 0.0631682 0.893581
0.194358 0.063886 0.899342
0.198118 0.0648813 0.908355
0.201995 0.0659115 0.917724
0.205377 0.0667597 0.924894
0.208592 0.067544 0.931268
0.210123 0.0677347 0.930655
0.211828 0.0679864 0.930759
0.213597 0.0682598 0.93111
0.215428 0.0685545 0.931705
0.217314 0.0688673 0.932507
0.219226 0.0691888 0.933403
0.221092 0.0694933 0.934096
0.222905 0.0697796 0.934576
0.224744 0.0700739 0.935145
0.226611 0.0703772 0.935809
0.0690205 0.0504823 0.959572
0.0704084 0.0505304 0.956621
0.0718888 0.0506458 0.954711
0.0734142 0.0507943 0.953314
0.075008 0.0509898 0.952633
0.0765797 0.0511719 0.951754
0.0781825 0.0513751 0.951195
0.0797769 0.0515734 0.950567
0.0813829 0.0517798 0.950061
0.0829722 0.0519763 0.949412
0.0845691 0.0521782 0.948846
0.0860731 0.0523245 0.947467
0.0875796 0.0524742 0.946145
0.089102 0.052635 0.944993
0.090603 0.0527846 0.943687
0.0918724 0.0528021 0.940477
0.0929221 0.0526984 0.935541
0.0936738 0.0524329 0.928316
0.0943488 0.0521344 0.920668
0.0960408 0.0506798 0.919516
0.0954148 0.0507783 0.891514
0.096558 0.0507761 0.888276
0.0980363 0.0509568 0.887631
0.0994909 0.0511255 0.886823
0.100921 0.0512824 0.885852
0.102315 0.0514209 0.884634
0.103712 0.0515628 0.883467
0.104913 0.0516062 0.880944
0.106075 0.0516323 0.878203
0.10722 0.0516532 0.875405
0.108397 0.0516932 0.872886
0.109587 0.0517423 0.870508
0.110919 0.0518631 0.869119
0.112306 0.0520126 0.868127
0.113709 0.0521706 0.867255
0.115066 0.0523071 0.866099
0.116473 0.0524686 0.865283
0.117914 0.052647 0.864697
0.119314 0.0528067 0.863866
0.120717 0.0529679 0.863059
0.122214 0.0531736 0.862844
0.123716 0.0533819 0.862664
0.125181 0.0535727 0.862255
0.126726 0.0538001 0.862326
0.128227 0.0540077 0.862136
0.129715 0.0542096 0.861872
0.131188 0.0544046 0.861521
0.132717 0.0546243 0.861489
0.134162 0.0548075 0.860986
0.13565 0.0550097 0.860728
0.137216 0.0552454 0.8609
0.138773 0.0554772 0.861021
0.140353 0.0557182 0.861257
0.141929 0.0559568 0.861461
0.143528 0.0562053 0.861786
0.145067 0.056428 0.861781
0.146641 0.0566648 0.861956
0.14822 0.0569038 0.862153
0.149831 0.0571554 0.862506
0.151412 0.057394 0.862695
0.152992 0.0576321 0.862874
0.15459 0.0578775 0.863142
0.156211 0.0581313 0.86351
0.157805 0.0583738 0.863736
0.159486 0.0586504 0.864378
0.161208 0.0589428 0.865207
0.163017 0.0592684 0.866434
0.164879 0.0596135 0.867891
0.166825 0.0599897 0.869714
0.168721 0.0603451 0.871273
0.170616 0.0606985 0.872797
0.172396 0.0610065 0.873766
0.17416 0.0613074 0.874646
0.175967 0.0616238 0.875701
0.17779 0.0619452 0.876808
0.179809 0.0623388 0.878765
0.182477 0.0629737 0.883559
0.185133 0.0635999 0.888223
0.187726 0.0641989 0.892539
0.190611 0.0649021 0.898046
0.193272 0.0655186 0.90251
0.196237 0.0662428 0.908198
0.199538 0.0670845 0.915217
0.202874 0.0679331 0.922273
0.205733 0.0686047 0.927244
0.208454 0.0692226 0.931566
0.210026 0.0694273 0.931121
0.211736 0.0696809 0.931236
0.213507 0.0699559 0.931594
0.215314 0.0702431 0.93209
0.217194 0.0705557 0.932866
0.219052 0.0708596 0.93354
0.220861 0.0711461 0.934013
0.0732483 0.0524994 0.953977
0.0748662 0.0527097 0.953522
0.0764499 0.0528974 0.952741
0.0780643 0.0531066 0.952274
0.0796711 0.0533112 0.951743
0.0812785 0.0535167 0.951229
0.0828604 0.0537067 0.950491
0.0844575 0.053907 0.949907
0.0859517 0.0540442 0.948421
0.0874369 0.0541778 0.946894
0.0922771 0.0540867 0.932075
0.0927821 0.0536675 0.922874
0.0932065 0.0532152 0.913272
0.094138 0.0523974 0.895466
0.0951205 0.0522951 0.890893
0.0963481 0.0523343 0.8883
0.097835 0.0525188 0.887716
0.0992982 0.0526909 0.886968
0.100744 0.0528544 0.886106
0.102165 0.0530055 0.885078
0.103578 0.0531538 0.88402
0.104818 0.0532124 0.881757
0.105997 0.0532423 0.879119
0.107145 0.0532591 0.876322
0.108322 0.0532942 0.873789
0.109497 0.0533312 0.871296
0.110804 0.0534367 0.869728
0.11218 0.0535788 0.868654
0.113599 0.0537429 0.867875
0.114972 0.0538853 0.866815
0.116421 0.0540657 0.86626
0.11788 0.0542514 0.865773
0.119326 0.0544308 0.86521
0.12076 0.0546053 0.864584
0.122278 0.0548197 0.864477
0.123773 0.0550234 0.864234
0.12524 0.0552142 0.863824
0.126758 0.0554287 0.863718
0.128216 0.0556158 0.863261
0.129659 0.0557957 0.862718
0.131097 0.0559745 0.862159
0.132593 0.0561795 0.861937
0.134034 0.0563597 0.8614
0.13555 0.056574 0.861295
0.137149 0.0568246 0.861644
0.138744 0.0570728 0.861961
0.140376 0.0573366 0.862467
0.141989 0.0575915 0.86286
0.143612 0.0578504 0.863299
0.145174 0.0580822 0.863401
0.146736 0.0583142 0.863501
0.1483 0.0585467 0.863606
0.149896 0.0587921 0.863867
0.151445 0.0590175 0.863882
0.152992 0.0592418 0.863883
0.154605 0.0594936 0.864215
0.156212 0.0597419 0.864501
0.157823 0.0599919 0.864807
0.159562 0.0602931 0.865722
0.161346 0.0606117 0.86684
0.163205 0.0609586 0.868289
0.165135 0.0613332 0.870056
0.167093 0.0617168 0.871919
0.168978 0.0620699 0.873408
0.170837 0.0624112 0.874749
0.172582 0.0627067 0.875542
0.174323 0.0629999 0.876302
0.176111 0.0633101 0.877257
0.177912 0.0636247 0.878254
0.180305 0.0641653 0.881871
0.183326 0.0649422 0.888202
0.186322 0.0657043 0.894324
0.189271 0.0664436 0.900147
0.192466 0.0672706 0.906942
0.195078 0.0678736 0.911131
0.200691 0.0692135 0.920961
0.203453 0.0698612 0.925577
0.205817 0.0703586 0.928466
0.0762613 0.0545869 0.953158
0.0778885 0.0548037 0.952805
0.0794981 0.055009 0.952289
0.0811078 0.0552149 0.951784
0.0827021 0.0554113 0.951148
0.0843123 0.0556187 0.95067
0.0858076 0.0557534 0.949177
0.0872944 0.0558849 0.947648
0.0910901 0.0551363 0.924112
0.0913171 0.0545411 0.912735
0.0918247 0.0541281 0.903922
0.0934452 0.0526708 0.902453
0.0922996 0.053709 0.895083
0.0933385 0.0536283 0.890891
0.0946352 0.0537009 0.888795
0.096125 0.0538857 0.888223
0.0976134 0.0540702 0.88765
0.0990837 0.054245 0.886951
0.100555 0.0544213 0.886273
0.102002 0.0545852 0.885434
0.103444 0.0547468 0.88457
0.104725 0.0548235 0.882589
0.105936 0.054865 0.880156
0.107089 0.0548788 0.877375
0.108254 0.0549026 0.874742
0.109428 0.054934 0.872225
0.110719 0.0550286 0.870542
0.112073 0.0551572 0.869309
0.113481 0.055314 0.868448
0.114868 0.0554614 0.867468
0.11632 0.0556423 0.866925
0.117795 0.0558345 0.866527
0.119272 0.0560281 0.86615
0.120738 0.0562166 0.865708
0.122288 0.056446 0.865786
0.123799 0.0566565 0.865622
0.125266 0.056846 0.865197
0.126782 0.0570588 0.865064
0.128238 0.0572432 0.864576
0.129652 0.0574088 0.863855
0.131074 0.0575787 0.863192
0.132539 0.0577685 0.862777
0.13396 0.0579387 0.862122
0.135462 0.0581462 0.86193
0.137062 0.0583978 0.862278
0.138676 0.0586552 0.862693
0.140344 0.0589358 0.863389
0.141994 0.0592074 0.86397
0.143656 0.059484 0.864606
0.145257 0.0597327 0.8649
0.146828 0.059968 0.865031
0.148395 0.0602014 0.865135
0.14996 0.0604337 0.865226
0.151476 0.0606445 0.865058
0.152991 0.0608555 0.864892
0.154626 0.0611162 0.865318
0.156271 0.0613811 0.865787
0.157963 0.0616649 0.866475
0.159784 0.0620015 0.867781
0.161635 0.0623488 0.869203
0.163524 0.0627099 0.870777
0.165461 0.0630895 0.872555
0.167384 0.0634616 0.874235
0.169233 0.063802 0.875537
0.171053 0.0641294 0.876681
0.172776 0.064417 0.877358
0.174478 0.0646956 0.877926
0.176226 0.0649914 0.878687
0.178369 0.0654418 0.881209
0.181165 0.0661459 0.886604
0.184516 0.0670611 0.894364
0.187869 0.0679703 0.902011
0.191195 0.0688623 0.909419
0.201454 0.0712164 0.92507
0.203743 0.0716926 0.927673
0.0900823 0.0555185 0.90444
0.0907943 0.0552195 0.89737
0.0915671 0.0549675 0.89097
0.0928766 0.0550428 0.888946
0.0944062 0.0552496 0.888673
0.0958986 0.0554352 0.888121
0.097386 0.0556184 0.887538
0.0988692 0.0557998 0.886936
0.100366 0.0559893 0.886441
0.101839 0.0561662 0.885786
0.10331 0.0563426 0.885126
0.104636 0.0564397 0.883445
0.105888 0.0564992 0.881291
0.107062 0.0565187 0.878637
0.108229 0.0565381 0.875996
0.109401 0.0565635 0.873447
0.11069 0.0566532 0.871731
0.112031 0.0567723 0.870396
0.113442 0.0569289 0.869542
0.114831 0.0570749 0.868559
0.116284 0.0572543 0.868001
0.117746 0.0574394 0.867516
0.119227 0.0576342 0.867151
0.120697 0.0578233 0.866721
0.122266 0.0580618 0.866902
0.123779 0.0582724 0.866736
0.125259 0.058467 0.866374
0.126759 0.0586715 0.866134
0.128201 0.0588484 0.865558
0.129615 0.0590121 0.864822
0.131025 0.0591747 0.864075
0.132461 0.0593499 0.863486
0.133868 0.0595125 0.862745
0.135371 0.0597196 0.862546
0.136944 0.0599595 0.862742
0.138576 0.0602258 0.863249
0.140275 0.0605219 0.86411
0.141961 0.0608106 0.864876
0.143647 0.061099 0.865633
0.14527 0.0613577 0.866032
0.146859 0.061601 0.866247
0.148426 0.0618341 0.86634
0.14999 0.0620659 0.866414
0.15151 0.0622778 0.866255
0.15306 0.0625032 0.866252
0.154735 0.0627817 0.866868
0.156443 0.063074 0.867638
0.158223 0.0633957 0.868743
0.160116 0.063764 0.870377
0.162018 0.0641344 0.872024
0.163928 0.0645064 0.87368
0.165843 0.0648787 0.875329
0.167707 0.0652285 0.87671
0.169513 0.0655524 0.877788
0.171272 0.0658564 0.878633
0.172935 0.06612 0.879015
0.17458 0.066376 0.87931
0.176629 0.0667945 0.881426
0.179119 0.0673878 0.885488
0.182254 0.0682353 0.892367
0.185922 0.0692884 0.901493
0.189599 0.0703367 0.910515
0.0885835 0.0570653 0.906995
0.0890637 0.056601 0.897884
0.0900735 0.0564789 0.893294
0.0911054 0.0563774 0.889
0.0926462 0.0565909 0.888814
0.0941869 0.0568044 0.888628
0.0956802 0.0569897 0.88808
0.0971675 0.057172 0.887495
0.0986498 0.057352 0.886884
0.100159 0.0575483 0.886482
0.10165 0.0577345 0.885954
0.103153 0.0579274 0.885513
0.104531 0.0580512 0.884201
0.105828 0.0581312 0.882343
0.107043 0.0581683 0.879958
0.108229 0.0581924 0.877423
0.109415 0.0582198 0.874946
0.110678 0.058292 0.873039
0.112006 0.0584009 0.871599
0.11339 0.0585408 0.870548
0.114765 0.0586774 0.869463
0.116218 0.0588556 0.868894
0.117695 0.0590472 0.868492
0.119192 0.0592491 0.868216
0.12068 0.0594462 0.867883
0.122264 0.0596924 0.868147
0.123766 0.0598967 0.867901
0.125249 0.0600916 0.867541
0.126753 0.0602971 0.867312
0.128199 0.0604742 0.86674
0.129618 0.0606386 0.86602
0.131032 0.0608014 0.865284
0.13244 0.060962 0.864525
0.133833 0.0611157 0.863688
0.135319 0.0613147 0.86339
0.136881 0.061549 0.863508
0.138529 0.0618239 0.8641
0.140264 0.062138 0.865148
0.141987 0.0624448 0.866104
0.14371 0.0627511 0.867046
0.145369 0.0630265 0.867624
0.146975 0.0632773 0.867912
0.148559 0.0635177 0.868078
0.150127 0.0637505 0.868154
0.151665 0.0639696 0.86807
0.153238 0.0642042 0.868165
0.154972 0.0645095 0.869063
0.156748 0.0648319 0.87015
0.158601 0.0651863 0.871594
0.160531 0.0655724 0.873385
0.162438 0.0659469 0.875035
0.16429 0.0662956 0.876385
0.166124 0.0666361 0.877631
0.167926 0.0669609 0.878697
0.169653 0.067253 0.879391
0.171353 0.0675332 0.879946
0.173147 0.0678518 0.880925
0.174942 0.0681695 0.881886
0.177282 0.0687109 0.885306
0.180132 0.0694579 0.890965
0.183593 0.0704483 0.89926
0.187349 0.0715503 0.908728
0.191 0.0726017 0.917591
0.0870778 0.0586213 0.909575
0.0875412 0.0581197 0.900143
0.0883079 0.0578282 0.893458
0.089596 0.057878 0.89117
0.090864 0.0579186 0.88878
0.0923929 0.0581249 0.888502
0.0939209 0.0583307 0.88822
0.095412 0.0585142 0.887658
0.0968984 0.0586955 0.887069
0.0983814 0.0588753 0.886465
0.0999151 0.0590857 0.886246
0.101434 0.0592878 0.885924
0.102953 0.0594896 0.885598
0.104385 0.0596421 0.884664
0.10576 0.059763 0.883343
0.107022 0.0598216 0.881265
0.108267 0.0598736 0.879117
0.109496 0.0599197 0.87691
0.110775 0.0599954 0.875076
0.11209 0.0600938 0.873527
0.113462 0.0602244 0.872375
0.114812 0.0603443 0.871101
0.116263 0.0605202 0.870507
0.117731 0.0607049 0.870021
0.11923 0.0609068 0.869743
0.120735 0.0611114 0.869497
0.122337 0.0613662 0.869849
0.123843 0.0615716 0.869611
0.125346 0.061775 0.869352
0.126856 0.0619824 0.869139
0.128309 0.0621614 0.868592
0.129732 0.0623255 0.867874
0.13115 0.062488 0.867139
0.13253 0.0626326 0.8662
0.133905 0.0627754 0.865243
0.135375 0.0629654 0.864838
0.136921 0.0631916 0.864852
0.13856 0.0634623 0.865378
0.140314 0.0637871 0.86652
0.142076 0.064114 0.867678
0.143824 0.0644326 0.868734
0.145504 0.0647184 0.869409
0.147145 0.064985 0.869863
0.148767 0.0652423 0.870208
0.15036 0.065486 0.870393
0.151957 0.0657307 0.870592
0.153591 0.0659919 0.870972
0.155371 0.0663182 0.872075
0.157178 0.0666552 0.873292
0.159058 0.0670227 0.874841
0.160956 0.0673966 0.876449
0.162807 0.0677485 0.877805
0.164598 0.0680721 0.87884
0.166355 0.06838 0.879695
0.16812 0.0686903 0.880572
0.169832 0.0689765 0.881179
0.171612 0.0692914 0.882095
0.173545 0.0696697 0.883693
0.175508 0.0700592 0.885403
0.178108 0.0707143 0.889976
0.181241 0.0715879 0.896881
0.184845 0.0726502 0.905775
0.188185 0.0735947 0.913356
0.191412 0.074486 0.920327
0.194007 0.0733863 0.923502
0.0860021 0.0596394 0.902334
0.0865456 0.0591803 0.893654
0.0875891 0.0590637 0.889321
0.0891166 0.0592685 0.889025
0.0906103 0.0594517 0.888461
0.0921252 0.0596489 0.888076
0.0936392 0.059846 0.887689
0.0951068 0.0600145 0.886949
0.0965805 0.0601877 0.886271
0.0980617 0.0603663 0.885663
0.0996066 0.0605839 0.885535
0.101126 0.0607865 0.885223
0.102683 0.061011 0.885178
0.104168 0.0611935 0.884622
0.1056 0.0613453 0.8837
0.106923 0.0614355 0.882039
0.108253 0.0615318 0.880461
0.109544 0.0616082 0.878653
0.110868 0.0617053 0.877101
0.112214 0.0618164 0.875724
0.1136 0.0619515 0.87464
0.114964 0.0620758 0.873432
0.116434 0.0622591 0.872927
0.11792 0.0624516 0.872531
0.119414 0.0626484 0.872187
0.120908 0.0628455 0.871848
0.122484 0.063086 0.872014
0.123978 0.0632832 0.871676
0.125472 0.0634808 0.871343
0.126988 0.0636897 0.871142
0.128459 0.0638761 0.870682
0.1299 0.0640471 0.870047
0.131305 0.0642002 0.869209
0.13267 0.0643345 0.86816
0.134057 0.0644807 0.867253
0.135511 0.0646609 0.866734
0.137028 0.0648727 0.866577
0.138653 0.0651365 0.867005
0.14041 0.0654643 0.868149
0.142179 0.0657957 0.869327
0.143935 0.0661194 0.870412
0.145624 0.0664102 0.871121
0.147319 0.0667023 0.871841
0.148984 0.0669796 0.872391
0.150608 0.0672367 0.872714
0.152271 0.0675119 0.873233
0.153985 0.0678094 0.873994
0.155777 0.0681415 0.875129
0.157587 0.0684805 0.876332
0.159462 0.0688478 0.877837
0.161299 0.0691959 0.879123
0.163089 0.0695214 0.880156
0.164821 0.0698197 0.880889
0.16656 0.0701203 0.881639
0.168354 0.0704441 0.882636
0.170156 0.0707703 0.883652
0.172059 0.0711393 0.885119
0.174137 0.0715824 0.887368
0.176236 0.0720317 0.88967
0.178969 0.0727504 0.894819
0.182205 0.073678 0.902151
0.185419 0.0745891 0.90927
0.18833 0.0753649 0.914923
0.085243 0.0608486 0.897749
0.0860635 0.0605656 0.891428
0.0873481 0.0606051 0.889101
0.0888632 0.0608016 0.888706
0.090343 0.0609751 0.888033
0.0918434 0.0611628 0.887536
0.0933424 0.0613502 0.887037
0.094808 0.0615169 0.886289
0.0962814 0.0616894 0.885616
0.0977627 0.0618676 0.885012
0.0993065 0.0620851 0.884884
0.100823 0.062286 0.884554
0.102392 0.0625188 0.884607
0.103917 0.0627245 0.884336
0.105408 0.0629109 0.883837
0.106806 0.0630421 0.882691
0.108226 0.0631877 0.881717
0.109591 0.0633029 0.880393
0.110977 0.063432 0.879237
0.112372 0.063567 0.878157
0.113793 0.0637187 0.877274
0.115202 0.063864 0.876323
0.116708 0.0640647 0.876015
0.118204 0.0642598 0.875644
0.119703 0.0644573 0.875303
0.121199 0.064653 0.874941
0.122734 0.0648697 0.874819
0.124199 0.0650495 0.874278
0.125679 0.0652374 0.87383
0.12717 0.0654313 0.873452
0.128628 0.0656085 0.872887
0.130069 0.0657773 0.872229
0.13146 0.065921 0.871291
0.132827 0.0660533 0.870231
0.134218 0.0661988 0.869322
0.135767 0.0664248 0.869315
0.137373 0.0666792 0.869622
0.139119 0.0670027 0.87069
0.140906 0.0673449 0.871959
0.142705 0.0676914 0.873267
0.144383 0.0679773 0.8739
0.145993 0.068229 0.874156
0.147614 0.0684856 0.874462
0.149305 0.0687749 0.875121
0.150959 0.069046 0.875578
0.152656 0.0693365 0.876241
0.154417 0.0696559 0.877213
0.156215 0.0699917 0.878354
0.15797 0.0703059 0.879256
0.159767 0.0706382 0.880347
0.161524 0.0709506 0.881218
0.163238 0.0712427 0.881866
0.164916 0.0715173 0.882325
0.166678 0.0718294 0.883177
0.16856 0.0721938 0.884576
0.170481 0.0725742 0.886135
0.172513 0.0730021 0.888185
0.174717 0.0735033 0.890991
0.176919 0.0740008 0.893741
0.179684 0.0747411 0.89901
0.18255 0.0755192 0.904642
0.185346 0.0762617 0.909873
0.0848757 0.0614577 0.908145
0.0835952 0.0631979 0.912803
0.0840355 0.0626075 0.902798
0.0845202 0.0620666 0.893453
0.0855966 0.0619539 0.889322
0.0871149 0.0621516 0.888947
0.0886186 0.0623399 0.888458
0.0900859 0.0625042 0.887686
0.0915714 0.0626817 0.887074
0.0930581 0.0628607 0.886483
0.0945233 0.0630265 0.885736
0.0959968 0.0631984 0.885067
0.0974647 0.0633677 0.884369
0.0990061 0.0635842 0.884228
0.10052 0.0637838 0.883888
0.102089 0.064017 0.883942
0.103653 0.0642471 0.88396
0.105202 0.064468 0.883867
0.106659 0.0646331 0.88313
0.108163 0.0648273 0.88273
0.109616 0.0649914 0.881988
0.111068 0.0651564 0.881258
0.112528 0.0653259 0.880583
0.113999 0.0655032 0.879999
0.115459 0.0656745 0.879349
0.117004 0.0658945 0.879254
0.118538 0.0661089 0.879096
0.120073 0.0663228 0.878932
0.121584 0.0665242 0.878626
0.123088 0.0667216 0.878277
0.124524 0.0668823 0.877519
0.125974 0.0670512 0.876855
0.127422 0.0672194 0.876186
0.128851 0.0673784 0.875418
0.130263 0.0675291 0.874562
0.131641 0.0676632 0.873527
0.132999 0.0677878 0.87239
0.134489 0.0679818 0.872021
0.136141 0.068259 0.872562
0.137867 0.0685738 0.873508
0.139717 0.0689499 0.875115
0.141573 0.069327 0.876722
0.143345 0.0696597 0.877839
0.145004 0.0699341 0.878322
0.146562 0.0701581 0.878258
0.14813 0.0703874 0.87825
0.149786 0.0706592 0.878696
0.151413 0.0709157 0.878976
0.153082 0.0711924 0.879469
0.154832 0.0715069 0.880358
0.156598 0.0718276 0.881307
0.158281 0.0721081 0.881826
0.160001 0.0724052 0.882515
0.161702 0.0726921 0.883093
0.163385 0.07297 0.883573
0.165052 0.0732396 0.883963
0.166879 0.0735822 0.885109
0.168829 0.0739798 0.886819
0.170853 0.074409 0.888847
0.172968 0.0748767 0.891259
0.175256 0.0754194 0.894431
0.177504 0.0759409 0.897369
0.17994 0.0765427 0.90111
0.182411 0.0771558 0.904948
0.0822833 0.0649415 0.917341
0.0829015 0.064449 0.908661
0.0834781 0.0639431 0.899871
0.0840871 0.0634772 0.891606
0.085387 0.0635173 0.889365
0.0868935 0.0637063 0.88889
0.0883858 0.063886 0.888307
