ply
format ascii 1.0
element vertex 1660
property float x
property float y
property float z
end_header
0.0156727 -0.126215 0.214726
0.0153916 -0.126527 0.214477
0.0151118 -0.126852 0.214254
0.0148309 -0.127161 0.214
0.014548 -0.127441 0.213691
0.0142643 -0.127705 0.213352
0.013981 -0.127969 0.213014
0.0136957 -0.128198 0.21261
0.0134107 -0.128424 0.2122
0.0131236 -0.128608 0.211713
0.0128361 -0.128774 0.211193
0.0125486 -0.128927 0.210652
0.0122638 -0.129107 0.210165
0.0119792 -0.129277 0.209661
0.0116989 -0.129511 0.209279
0.0114208 -0.129772 0.20895
0.0111431 -0.130036 0.208629
0.0108704 -0.130391 0.208477
0.0105996 -0.130787 0.208402
0.010329 -0.131191 0.20834
0.0100592 -0.13162 0.208325
0.00979122 -0.132099 0.208401
0.00952091 -0.132531 0.20839
0.00925031 -0.132964 0.208379
0.00897881 -0.133381 0.208337
0.00870614 -0.133767 0.20824
0.00843244 -0.134125 0.208091
0.00815809 -0.134457 0.207896
0.00788308 -0.134761 0.207649
0.00760949 -0.135115 0.207493
0.00733627 -0.135484 0.207364
0.00706318 -0.135862 0.207251
0.00679048 -0.136267 0.207186
0.00651863 -0.136735 0.207233
0.00624676 -0.137235 0.207334
0.00597511 -0.137801 0.20755
0.00570288 -0.138393 0.207809
0.00542966 -0.138969 0.208038
0.0051554 -0.139521 0.208223
0.00488026 -0.140041 0.208348
0.00460453 -0.140509 0.208384
0.0043283 -0.141083 0.2086
0.00405102 -0.141722 0.208927
0.0037728 -0.142371 0.209267
0.00349379 -0.142961 0.209505
0.00321423 -0.143506 0.209662
0.00293449 -0.144015 0.209757
0.00265439 -0.1445 0.209809
0.00237403 -0.144963 0.209823
0.0288632 -0.116928 0.233926
0.0285696 -0.117295 0.233737
0.0282598 -0.117581 0.233364
0.0279501 -0.117864 0.232986
0.0276136 -0.118005 0.232291
0.0272729 -0.118117 0.231532
0.0269237 -0.118175 0.230658
0.0265836 -0.118271 0.229874
0.0262393 -0.118335 0.229025
0.0259098 -0.118473 0.228342
0.0255798 -0.118599 0.227639
0.0252618 -0.118786 0.227073
0.0249477 -0.11899 0.226548
0.0246412 -0.119234 0.226112
0.0243395 -0.119503 0.225732
0.0240446 -0.119809 0.225435
0.0237483 -0.120106 0.225118
0.0234429 -0.12034 0.224667
0.0231423 -0.120601 0.224277
0.0228397 -0.120845 0.223852
0.0225407 -0.121108 0.22347
0.022236 -0.121328 0.222997
0.0219436 -0.121628 0.222698
0.0216476 -0.1219 0.222339
0.0213526 -0.122176 0.221989
0.0210536 -0.122418 0.221571
0.020763 -0.122718 0.221276
0.0204741 -0.12303 0.221005
0.0201847 -0.123335 0.220721
0.0198913 -0.123604 0.220365
0.0195898 -0.123803 0.219865
0.01928 -0.123923 0.219209
0.0189674 -0.124009 0.218483
0.0186598 -0.124126 0.217827
0.0183633 -0.124332 0.217355
0.0180799 -0.124652 0.217112
0.0177915 -0.124922 0.216772
0.0175034 -0.125192 0.216431
0.0172147 -0.125449 0.216068
0.0169221 -0.125662 0.215618
0.0166298 -0.12587 0.21516
0.0163484 -0.126188 0.214919
0.0160663 -0.126494 0.214659
0.0157847 -0.126804 0.214405
0.0155035 -0.127115 0.214154
0.0152202 -0.127398 0.21385
0.0149357 -0.127662 0.213511
0.0146516 -0.127925 0.213169
0.0143651 -0.128151 0.212758
0.0140766 -0.12834 0.212278
0.0137901 -0.128548 0.211836
0.0135024 -0.128727 0.211341
0.013214 -0.128884 0.210806
0.0129281 -0.129065 0.210321
0.0126455 -0.129286 0.209911
0.0123629 -0.129497 0.209485
0.0120832 -0.129745 0.209131
0.0118055 -0.130021 0.208829
0.0115276 -0.130286 0.208509
0.011254 -0.130627 0.208331
0.010982 -0.130997 0.208208
0.0107109 -0.131387 0.208121
0.0104414 -0.131816 0.208106
0.0101739 -0.132297 0.208185
0.00990436 -0.132742 0.208197
0.00963449 -0.133188 0.20821
0.00936367 -0.133617 0.208191
0.00909149 -0.134017 0.208117
0.00881818 -0.134389 0.207993
0.00854415 -0.134736 0.207824
0.00826923 -0.135054 0.207603
0.00799551 -0.135408 0.207448
0.00772187 -0.135764 0.207297
0.00744838 -0.136128 0.207158
0.00717515 -0.136504 0.207042
0.00690305 -0.136944 0.207038
0.00663109 -0.137416 0.207088
0.00635987 -0.137966 0.207276
0.00608841 -0.138556 0.207531
0.00581602 -0.139148 0.207786
0.00554237 -0.139702 0.207973
0.00526788 -0.140236 0.208124
0.0049926 -0.14073 0.208205
0.00471689 -0.141319 0.208446
0.00444054 -0.14196 0.208775
0.00416305 -0.142624 0.20914
0.00388445 -0.143227 0.209398
0.00360528 -0.143775 0.209559
0.00332588 -0.14427 0.20963
0.00304599 -0.144769 0.209706
0.00276567 -0.145256 0.209759
0.0292612 -0.117115 0.233631
0.0289697 -0.117492 0.233465
0.0286609 -0.117783 0.233105
0.0283538 -0.118081 0.23276
0.0280256 -0.118267 0.232168
0.0276896 -0.118408 0.231477
0.0273425 -0.118483 0.230641
0.0270033 -0.11859 0.229883
0.0266593 -0.118662 0.229052
0.0263262 -0.118785 0.228338
0.0259951 -0.11891 0.227634
0.0256744 -0.119087 0.227045
0.0253572 -0.119277 0.22649
0.0250438 -0.119483 0.225971
0.0247371 -0.119724 0.225532
0.0244391 -0.120013 0.225198
0.0241422 -0.120306 0.224874
0.0238364 -0.120541 0.224425
0.0235375 -0.120814 0.224062
0.0232368 -0.121072 0.223668
0.0229376 -0.121336 0.223287
0.0226344 -0.121569 0.222844
0.022342 -0.121871 0.222548
0.0220459 -0.122144 0.222193
0.0217523 -0.122433 0.22187
0.021453 -0.122675 0.221454
0.0211605 -0.122964 0.221135
0.0208713 -0.123275 0.220862
0.0205814 -0.123577 0.220573
0.0202876 -0.123846 0.220216
0.0199871 -0.124057 0.219743
0.0196785 -0.124194 0.21912
0.0193667 -0.124294 0.218426
0.0190612 -0.124437 0.217824
0.0187641 -0.124644 0.217352
0.0184803 -0.124963 0.217109
0.0181912 -0.125232 0.216765
0.0179024 -0.125498 0.216418
0.0176116 -0.125741 0.216025
0.0173184 -0.125954 0.215575
0.0170256 -0.126163 0.215118
0.0167442 -0.126483 0.214884
0.0164617 -0.126789 0.214622
0.0161786 -0.127086 0.214343
0.0158957 -0.127381 0.214062
0.0156108 -0.12765 0.213729
0.0153238 -0.127888 0.21334
0.0150373 -0.128125 0.212949
0.0147485 -0.128326 0.21249
0.0144572 -0.128485 0.211953
0.0141684 -0.128663 0.211456
0.01388 -0.128838 0.210955
0.0135913 -0.128995 0.210422
0.0133062 -0.129192 0.209967
0.0130252 -0.129439 0.209609
0.0127448 -0.129688 0.209255
0.0124665 -0.129964 0.208954
0.0121894 -0.130253 0.208678
0.0119119 -0.13053 0.208379
0.0116375 -0.130856 0.208175
0.0113641 -0.131201 0.208004
0.0110918 -0.131565 0.20787
0.0108226 -0.131994 0.207855
0.010555 -0.132464 0.207912
0.0102859 -0.132911 0.207928
0.0100164 -0.133356 0.207939
0.00974633 -0.133798 0.207942
0.00947439 -0.134199 0.207872
0.00920176 -0.134586 0.207775
0.00892863 -0.134959 0.207654
0.00865448 -0.135304 0.207482
0.00838077 -0.135661 0.207331
0.00810709 -0.136019 0.207183
0.00783384 -0.136393 0.207061
0.00756054 -0.136769 0.206944
0.00728832 -0.137197 0.206919
0.00701662 -0.13767 0.206971
0.00674585 -0.13822 0.207157
0.00647468 -0.138793 0.207382
0.00620267 -0.13937 0.20761
0.00592944 -0.139911 0.207774
0.00565532 -0.140432 0.207902
0.00538027 -0.140914 0.207961
0.0051053 -0.141489 0.208178
0.0048297 -0.142115 0.208481
0.00455316 -0.142778 0.208843
0.00427543 -0.143392 0.20912
0.00399675 -0.143957 0.209309
0.00371776 -0.144455 0.209384
0.00343797 -0.145 0.209537
0.00315701 -0.145599 0.209779
0.00248159 -0.146009 0.210258
0.00287264 -0.146472 0.210478
0.0293701 -0.117692 0.233199
0.0290609 -0.117982 0.232837
0.0287536 -0.118279 0.232492
0.0284327 -0.118505 0.23199
0.0281033 -0.118682 0.231382
0.0277604 -0.118784 0.230608
0.0274227 -0.118904 0.229881
0.0270796 -0.118988 0.229075
0.0267431 -0.119097 0.228333
0.0264128 -0.119233 0.227651
0.0260889 -0.119396 0.227034
0.0257707 -0.119585 0.226476
0.0254538 -0.119775 0.225924
0.0251416 -0.119987 0.225421
0.0248367 -0.120236 0.225002
0.0245352 -0.120503 0.224622
0.0242272 -0.120725 0.224148
0.0239285 -0.121001 0.223792
0.0236299 -0.121274 0.22343
0.0233326 -0.121552 0.223081
0.0230329 -0.121811 0.222692
0.0227423 -0.122126 0.222424
0.0224496 -0.122426 0.222125
0.0221576 -0.122727 0.22183
0.0218594 -0.122982 0.221438
0.0215663 -0.12327 0.221116
0.0212766 -0.123579 0.220841
0.0209829 -0.123856 0.2205
0.0206868 -0.12411 0.220113
0.0203856 -0.12432 0.219638
0.0200764 -0.124458 0.219019
0.0197643 -0.124563 0.218335
0.0194613 -0.124733 0.217787
0.0191651 -0.124953 0.217343
0.0188793 -0.125258 0.217071
0.0185881 -0.125511 0.216696
0.0182972 -0.125762 0.216319
0.0180045 -0.125992 0.215899
0.017711 -0.126206 0.215453
0.0174204 -0.126442 0.215051
0.0171404 -0.126779 0.214849
0.0168591 -0.127101 0.214617
0.0165744 -0.127385 0.214314
0.0162897 -0.127665 0.214002
0.0160019 -0.127905 0.213615
0.0157134 -0.12813 0.2132
0.0154242 -0.128341 0.212759
0.0151337 -0.128526 0.212271
0.0148397 -0.128657 0.211683
0.0145489 -0.128817 0.211151
0.0142602 -0.128991 0.21065
0.0139711 -0.129149 0.210119
0.0136868 -0.12936 0.209692
0.0134072 -0.129632 0.209382
0.0131275 -0.129895 0.209055
0.0128492 -0.130173 0.208759
0.0125721 -0.130464 0.208487
0.0122943 -0.13074 0.208188
0.0120189 -0.131051 0.207954
0.0117447 -0.13138 0.207754
0.0114716 -0.131728 0.20759
0.0112021 -0.132144 0.207551
0.0109337 -0.132587 0.207561
0.0106644 -0.13302 0.207551
0.0103953 -0.133464 0.207561
0.0101258 -0.133909 0.207569
0.00985537 -0.134338 0.207549
0.00958413 -0.134754 0.207505
0.00931208 -0.135155 0.207434
0.009039 -0.135529 0.207314
0.00876571 -0.1359 0.207188
0.00849206 -0.136259 0.207041
0.00821878 -0.136633 0.20692
0.00794551 -0.137008 0.206802
0.00767346 -0.137438 0.206779
0.00740183 -0.137901 0.206813
0.00713132 -0.138438 0.206975
0.00686069 -0.139009 0.207197
0.00658942 -0.139595 0.20744
0.0063167 -0.140137 0.207605
0.00604315 -0.140672 0.207755
0.00576873 -0.141181 0.20786
0.00549412 -0.141755 0.208074
0.00521908 -0.142354 0.20833
0.00494308 -0.142999 0.208661
0.00466612 -0.143613 0.208935
0.00438813 -0.144178 0.209125
0.00410933 -0.144683 0.209211
0.00382978 -0.14532 0.209518
0.00354871 -0.146021 0.209929
0.00326468 -0.14697 0.210752
0.0294584 -0.118169 0.232546
0.0291488 -0.118455 0.232177
0.028834 -0.118713 0.231746
0.0285091 -0.118916 0.231197
0.0281728 -0.119055 0.230508
0.0278373 -0.119191 0.229817
0.0274982 -0.119301 0.229071
0.0271629 -0.119423 0.228355
0.0268319 -0.119559 0.227677
0.0265044 -0.119708 0.227028
0.026185 -0.119894 0.226465
0.0258646 -0.120069 0.22588
0.0255474 -0.120256 0.225324
0.0252394 -0.12049 0.224872
0.0249334 -0.120731 0.224439
0.0246227 -0.12094 0.223938
0.024322 -0.121205 0.223558
0.0240233 -0.121479 0.223198
0.0237259 -0.121757 0.222851
0.0234299 -0.122041 0.222517
0.0231414 -0.122372 0.222282
0.0228526 -0.1227 0.222041
0.022562 -0.123014 0.221771
0.022265 -0.12328 0.221404
0.0219714 -0.123567 0.221081
0.0216813 -0.123876 0.220804
0.0213855 -0.124141 0.220437
0.0210885 -0.124392 0.220046
0.0207866 -0.124601 0.219568
0.0204777 -0.124748 0.218968
0.020165 -0.124855 0.21829
0.0198613 -0.125025 0.217744
0.0195631 -0.125234 0.217276
0.0192738 -0.125511 0.216948
0.0189791 -0.125737 0.21652
0.0186863 -0.125974 0.216115
0.0183948 -0.126217 0.215724
0.0181037 -0.126458 0.215331
0.017817 -0.126735 0.21501
0.0175383 -0.127088 0.214839
0.0172582 -0.127424 0.214636
0.0169717 -0.127695 0.214305
0.0166853 -0.127962 0.213967
0.0163944 -0.128174 0.213526
0.016104 -0.128384 0.213083
0.015812 -0.128567 0.21259
0.0155195 -0.128735 0.21207
0.0152226 -0.128839 0.211429
0.0149304 -0.128986 0.210876
0.0146413 -0.129161 0.210377
0.0143519 -0.12932 0.20985
0.0140673 -0.129532 0.209426
0.0137885 -0.129816 0.209138
0.0135095 -0.130092 0.208837
0.0132312 -0.130373 0.208545
0.012954 -0.130666 0.208277
0.0126768 -0.130953 0.207999
0.0123996 -0.131236 0.207716
0.0121244 -0.131548 0.207485
0.0118506 -0.13188 0.207292
0.0115812 -0.132293 0.207246
0.0113111 -0.132696 0.207184
0.0110421 -0.133126 0.207168
0.0107727 -0.133554 0.20715
0.0105037 -0.133997 0.207156
0.0102339 -0.13443 0.207144
0.00996488 -0.13489 0.20718
0.00969434 -0.135322 0.207163
0.0094229 -0.135737 0.207117
0.00915071 -0.136137 0.207042
0.00887744 -0.13651 0.20692
0.0086046 -0.136897 0.206822
0.00833163 -0.137287 0.206728
0.00805972 -0.137719 0.206709
0.007788 -0.13817 0.206721
0.0075175 -0.138691 0.206857
0.00724708 -0.139248 0.20705
0.00697617 -0.139821 0.207271
0.00670372 -0.140351 0.207415
0.00643049 -0.140874 0.207544
0.00615677 -0.141408 0.207692
0.00588269 -0.141967 0.207879
0.00560796 -0.142552 0.208108
0.00533281 -0.143181 0.208412
0.00505672 -0.143807 0.208707
0.00477926 -0.144358 0.208873
0.00450102 -0.144909 0.209036
0.00422205 -0.145669 0.209548
0.00394136 -0.146491 0.21016
0.00365801 -0.14753 0.21113
0.0295411 -0.11862 0.231836
0.0292282 -0.118887 0.231428
0.028908 -0.119115 0.230935
0.0285804 -0.119302 0.230352
0.0282522 -0.119479 0.229753
0.0279203 -0.119631 0.2291
0.0275866 -0.119766 0.228415
0.0272564 -0.119913 0.22776
0.0269256 -0.120048 0.227084
0.0266033 -0.120224 0.226497
0.0262799 -0.120386 0.225886
0.0259618 -0.120572 0.225328
0.0256488 -0.120782 0.224824
0.0253415 -0.121019 0.224382
0.0250298 -0.121225 0.223875
0.0247283 -0.121488 0.223492
0.0244271 -0.121749 0.223106
0.0241291 -0.122026 0.222755
0.0238326 -0.122309 0.22242
0.0235441 -0.122642 0.222188
0.0232557 -0.122974 0.221954
0.0229672 -0.123303 0.221718
0.0226717 -0.123583 0.221378
0.0223775 -0.123869 0.221053
0.0220854 -0.124167 0.220754
0.0217874 -0.124418 0.220361
0.0214865 -0.124644 0.219917
0.0211818 -0.124836 0.219405
0.020872 -0.124981 0.218802
0.0205614 -0.125111 0.218171
0.0202574 -0.125283 0.217629
0.0199585 -0.12549 0.21716
0.0196669 -0.125751 0.2168
0.0193712 -0.125972 0.216362
0.0190765 -0.126196 0.215931
0.0187866 -0.126456 0.215575
0.0184982 -0.126726 0.215239
0.0182156 -0.127044 0.214999
0.0179381 -0.12741 0.214853
0.0176579 -0.127749 0.214654
0.0173694 -0.128004 0.214294
0.0170822 -0.128267 0.213949
0.016788 -0.128452 0.213455
0.0164935 -0.128624 0.212938
0.0161994 -0.12879 0.212413
0.0159052 -0.128944 0.211867
0.0156063 -0.129033 0.2112
0.0153136 -0.129181 0.210649
0.0150252 -0.12937 0.210177
0.0147365 -0.129543 0.209679
0.0144524 -0.129769 0.20928
0.0141734 -0.130053 0.208994
0.013895 -0.13034 0.208714
0.0136172 -0.130633 0.208445
0.0133391 -0.130915 0.208157
0.0130616 -0.131202 0.207879
0.0127833 -0.131471 0.207569
0.0125062 -0.131756 0.207288
0.0122307 -0.13206 0.207045
0.0119601 -0.132445 0.206949
0.0116879 -0.132807 0.206811
0.0114177 -0.133205 0.206738
0.011148 -0.133616 0.206688
0.0108794 -0.134057 0.206693
0.0106115 -0.13452 0.206735
0.010345 -0.135023 0.206848
0.0100773 -0.135513 0.206935
0.00980723 -0.135959 0.206943
0.00953626 -0.136387 0.20692
0.00926353 -0.136776 0.206824
0.00899109 -0.137177 0.206751
0.00871818 -0.137568 0.206659
0.00844633 -0.137999 0.206638
0.00817464 -0.138447 0.206644
0.00790413 -0.138955 0.206755
0.00763374 -0.139495 0.206919
0.00736311 -0.140056 0.207117
0.0070914 -0.140602 0.207287
0.00681839 -0.141115 0.2074
0.0065453 -0.141665 0.207573
0.00627172 -0.142223 0.20776
0.00599758 -0.142807 0.207987
0.00572296 -0.143422 0.208264
0.00544727 -0.144047 0.208555
0.00517027 -0.144599 0.208722
0.0048927 -0.14518 0.208935
0.00461493 -0.146021 0.209582
0.00433517 -0.146933 0.210341
0.00405327 -0.147957 0.211283
0.00337202 -0.148596 0.212137
0.00376901 -0.148985 0.212225
0.0299355 -0.118796 0.231521
0.0296273 -0.119087 0.231167
0.029311 -0.119336 0.230721
0.0289907 -0.119561 0.230224
0.0286693 -0.119776 0.229709
0.028348 -0.119986 0.229185
0.028016 -0.120135 0.228533
0.0276872 -0.120295 0.227904
0.0273553 -0.120431 0.227229
0.0270318 -0.120605 0.22664
0.0267055 -0.120758 0.226007
0.0263863 -0.120943 0.225447
0.0260702 -0.121139 0.224916
0.02576 -0.121364 0.224447
0.0254448 -0.121555 0.223908
0.0251401 -0.121802 0.22349
0.024836 -0.122048 0.223073
0.0245372 -0.122323 0.222719
0.0242419 -0.122617 0.222405
0.023955 -0.122962 0.222199
0.0236684 -0.123307 0.221994
0.02338 -0.123641 0.221763
0.0230858 -0.123933 0.22145
0.0227913 -0.124221 0.221128
0.0224969 -0.124506 0.220802
0.0221981 -0.124756 0.220406
0.0218962 -0.12498 0.219958
0.0215888 -0.125157 0.219417
0.0212781 -0.125302 0.218815
0.0209665 -0.125431 0.218183
0.0206603 -0.125593 0.217621
0.020359 -0.125785 0.217121
0.0200648 -0.12603 0.216728
0.0197667 -0.126235 0.21626
0.0194715 -0.126459 0.21583
0.0191816 -0.126723 0.215481
0.0188948 -0.127009 0.215177
0.0186147 -0.127354 0.214989
0.0183373 -0.127722 0.214847
0.0180566 -0.12806 0.214645
0.0177662 -0.128301 0.214257
0.0174769 -0.128547 0.21388
0.0171794 -0.128704 0.213333
0.0168829 -0.128861 0.212789
0.0165858 -0.129002 0.212216
0.0162918 -0.129165 0.211689
0.0159922 -0.129254 0.211022
0.0156992 -0.129404 0.210476
0.0154114 -0.129606 0.210031
0.0151231 -0.129793 0.209558
0.0148378 -0.130007 0.209138
0.0145586 -0.130291 0.208852
0.0142798 -0.130577 0.208569
0.0140009 -0.130857 0.208277
0.0137233 -0.13115 0.208009
0.0134465 -0.13145 0.207756
0.0131679 -0.13172 0.207448
0.0128906 -0.132004 0.207167
0.012614 -0.132293 0.206896
0.0123417 -0.132652 0.206752
0.012068 -0.132985 0.206562
0.0117964 -0.133354 0.206436
0.0115253 -0.133734 0.206331
0.0112572 -0.134174 0.206334
0.0109899 -0.134637 0.206376
0.0107247 -0.135159 0.206522
0.0104589 -0.135678 0.206663
0.0101905 -0.136155 0.206725
0.00992096 -0.136614 0.206754
0.0096494 -0.137031 0.206709
0.00937767 -0.137449 0.206666
0.00910559 -0.137865 0.206618
0.00883425 -0.138311 0.206622
0.0085622 -0.138745 0.206603
0.0082918 -0.139248 0.206704
0.00802169 -0.139786 0.206864
0.00775115 -0.140334 0.207038
0.00747985 -0.140882 0.20721
0.00720744 -0.141409 0.207346
0.00693482 -0.141962 0.207524
0.0066613 -0.142509 0.207689
0.00638755 -0.143081 0.207894
0.00611319 -0.143679 0.208143
0.00583809 -0.14429 0.208409
0.00556161 -0.144842 0.208575
0.00528538 -0.14554 0.208984
0.0050088 -0.146469 0.209775
0.00473051 -0.14748 0.210696
0.00444958 -0.148495 0.21162
0.00416656 -0.149484 0.212492
0.0300179 -0.119248 0.230819
0.0297101 -0.119538 0.230466
0.0293995 -0.119812 0.230079
0.0290857 -0.120067 0.229652
0.0287723 -0.12032 0.229224
0.0284444 -0.120496 0.228627
0.0281168 -0.120667 0.228025
0.0277859 -0.120814 0.227374
0.0274615 -0.120989 0.226786
0.027136 -0.121151 0.226174
0.026816 -0.121338 0.225618
0.0264989 -0.121534 0.225085
0.0261855 -0.121745 0.224587
0.0258669 -0.121922 0.224017
0.0255573 -0.122144 0.223549
0.0252501 -0.122377 0.223102
0.0249486 -0.122639 0.222719
0.0246525 -0.12293 0.2224
0.0243673 -0.123288 0.22222
0.0240823 -0.123646 0.222041
0.0237956 -0.123992 0.221838
0.0235027 -0.124297 0.221549
0.0232076 -0.124584 0.221226
0.0229107 -0.124857 0.220873
0.0226092 -0.125093 0.220449
0.0223046 -0.125303 0.219971
0.0219946 -0.125466 0.219404
0.0216831 -0.125611 0.218802
0.0213727 -0.125756 0.218202
0.0210659 -0.12592 0.217644
0.0207622 -0.1261 0.217121
0.0204654 -0.126327 0.216693
0.020166 -0.126527 0.216215
0.0198691 -0.126742 0.215767
0.0195806 -0.127021 0.215448
0.0192964 -0.127334 0.215196
0.0190187 -0.127702 0.215053
0.0187398 -0.128059 0.214889
0.0184573 -0.128383 0.21466
0.0181635 -0.128598 0.214221
0.0178719 -0.128827 0.213811
0.0175722 -0.128969 0.213236
0.0172762 -0.129138 0.212715
0.0169797 -0.129293 0.21217
0.0166864 -0.12947 0.211669
0.0163847 -0.129547 0.210982
0.0160896 -0.129682 0.210408
0.015799 -0.129858 0.209913
0.0155091 -0.130032 0.209416
0.0152222 -0.130232 0.208973
0.0149428 -0.130517 0.208688
0.0146637 -0.130801 0.208402
0.0143845 -0.13108 0.208108
0.0141076 -0.131386 0.207864
0.0138316 -0.131701 0.207638
0.0135538 -0.131986 0.207357
0.0132763 -0.132271 0.207079
0.0129993 -0.13256 0.206806
0.012726 -0.132902 0.206632
0.0124506 -0.133208 0.206393
0.0121774 -0.13355 0.206219
0.0119056 -0.133915 0.206086
0.0116363 -0.134326 0.206038
0.011368 -0.134764 0.206035
0.0111035 -0.135284 0.206179
0.010839 -0.135819 0.206346
0.0105718 -0.136311 0.206436
0.0103051 -0.136826 0.206564
0.0100349 -0.137273 0.206572
0.00976441 -0.13772 0.206578
0.00949301 -0.138153 0.20656
0.00922224 -0.138612 0.206585
0.00894983 -0.139034 0.206546
0.00867972 -0.139538 0.206647
0.00840997 -0.140076 0.206806
0.00813933 -0.140607 0.20695
0.00786843 -0.141154 0.207119
0.00759665 -0.141695 0.207278
0.00732508 -0.142279 0.207507
0.00705196 -0.14283 0.207678
0.00677858 -0.1434 0.20788
0.00650452 -0.143997 0.208124
0.00622977 -0.14459 0.20836
0.00595362 -0.145145 0.208529
0.00567905 -0.145941 0.209099
0.00540418 -0.146942 0.210008
0.00512709 -0.147963 0.210944
0.00484735 -0.148961 0.211833
0.00456546 -0.149906 0.21263
0.0298092 -0.120067 0.229943
0.0294986 -0.12034 0.229554
0.0291898 -0.120618 0.229181
0.0288678 -0.120827 0.228658
0.0285422 -0.121013 0.228087
0.0282126 -0.121172 0.227463
0.0278892 -0.121357 0.226897
0.0275649 -0.121531 0.226312
0.0272461 -0.121729 0.225779
0.0269304 -0.121938 0.225274
0.0266162 -0.122151 0.224777
0.0262963 -0.122326 0.224205
0.0259833 -0.122535 0.223706
0.0256731 -0.122754 0.223232
0.0253689 -0.123004 0.222824
0.0250726 -0.123298 0.222509
0.0247852 -0.123645 0.222306
0.0244999 -0.124003 0.222127
0.0242126 -0.124349 0.22192
0.0239191 -0.124653 0.22163
0.0236215 -0.124927 0.22128
0.0233239 -0.125199 0.220925
0.0230196 -0.125421 0.220471
0.0227139 -0.125627 0.219987
0.0224032 -0.125792 0.219424
0.0220943 -0.125963 0.218873
0.0217867 -0.126135 0.21833
0.0214809 -0.126313 0.217799
0.0211761 -0.126492 0.217274
0.0208784 -0.126718 0.216844
0.0205764 -0.126905 0.216339
0.0202771 -0.127107 0.215865
0.0199865 -0.127373 0.21552
0.0197017 -0.127684 0.215265
0.0194222 -0.12804 0.215096
0.0191415 -0.128384 0.214906
0.0188573 -0.128695 0.214653
0.0185624 -0.128906 0.214206
0.0182688 -0.129121 0.21377
0.0179683 -0.129263 0.213194
0.0176717 -0.129434 0.212677
0.0173748 -0.129592 0.212138
0.017081 -0.129772 0.211643
0.0167771 -0.129834 0.21093
0.0164798 -0.129955 0.210328
0.0161869 -0.130112 0.209799
0.015896 -0.130281 0.209295
0.0156077 -0.13047 0.208829
0.0153279 -0.130753 0.20854
0.0150485 -0.131037 0.208256
0.014769 -0.131315 0.20796
0.0144921 -0.131622 0.207719
0.0142171 -0.131952 0.207521
0.0139403 -0.132255 0.207274
0.0136635 -0.132556 0.207022
0.0133869 -0.132855 0.206769
0.0131132 -0.133195 0.206591
0.0128367 -0.133488 0.206328
0.0125625 -0.133816 0.206129
0.0122892 -0.134156 0.205952
0.0120184 -0.134539 0.205852
0.011748 -0.134932 0.205769
0.0114824 -0.135422 0.205857
0.0112177 -0.13594 0.205995
0.0109518 -0.136446 0.206109
0.0106882 -0.137017 0.206337
0.010421 -0.137524 0.20645
0.0101536 -0.138044 0.206583
0.00988447 -0.138534 0.206663
0.00961474 -0.139023 0.206739
0.00934181 -0.139436 0.206682
0.0090713 -0.139927 0.206761
0.00880083 -0.140438 0.20687
0.0085288 -0.140915 0.20692
0.00825737 -0.141431 0.207036
0.00798523 -0.141943 0.207145
0.00771393 -0.142513 0.20735
0.007441 -0.143054 0.207502
0.00716842 -0.143637 0.207726
0.0068951 -0.144232 0.207965
0.00662115 -0.144851 0.208244
0.00634676 -0.145494 0.20856
0.00607435 -0.146408 0.209325
0.00580114 -0.147457 0.21031
0.00552538 -0.148507 0.211289
0.00524662 -0.149471 0.212119
0.00496845 -0.151126 0.214083
0.0302239 -0.120345 0.229855
0.0299182 -0.120644 0.229525
0.0296147 -0.12095 0.229212
0.029299 -0.121194 0.228766
0.0289819 -0.121428 0.228298
0.0286542 -0.121602 0.227707
0.0283322 -0.1218 0.227168
0.0280091 -0.121987 0.226608
0.0276892 -0.122186 0.226076
0.0273707 -0.122386 0.225551
0.0270552 -0.122597 0.225052
0.0267363 -0.122784 0.224504
0.02642 -0.12298 0.223977
0.0261085 -0.123198 0.2235
0.0258033 -0.123448 0.22309
0.0255063 -0.123743 0.222776
0.0252146 -0.124067 0.222524
0.0249269 -0.124414 0.222321
0.0246366 -0.124744 0.222082
0.0243424 -0.125048 0.221789
0.0240423 -0.125311 0.221415
0.023742 -0.125569 0.221033
0.0234365 -0.125788 0.220573
0.0231279 -0.12598 0.220061
0.0228145 -0.126133 0.219472
0.022505 -0.126305 0.218925
0.0222002 -0.126504 0.218434
0.0218939 -0.126685 0.21791
0.0215901 -0.126878 0.217413
0.021293 -0.127115 0.217005
0.0209916 -0.127314 0.216521
0.0206898 -0.127502 0.216022
0.0203968 -0.127755 0.215651
0.0201094 -0.12805 0.215362
0.0198264 -0.128379 0.215141
0.0195423 -0.128696 0.214898
0.0192562 -0.128994 0.214617
0.0189606 -0.129203 0.214168
0.0186663 -0.129418 0.213732
0.0183651 -0.129561 0.213159
0.0180695 -0.129747 0.212672
0.0177732 -0.129919 0.21216
0.0174801 -0.130113 0.211692
0.017176 -0.130187 0.210999
0.0168774 -0.130302 0.210389
0.0165832 -0.130455 0.209851
0.0162901 -0.130609 0.209318
0.0159997 -0.130782 0.208824
0.0157185 -0.131053 0.208514
0.0154377 -0.131325 0.208206
0.0151558 -0.131577 0.207862
0.0148786 -0.131884 0.207621
0.0146035 -0.132216 0.207426
0.0143276 -0.132534 0.207207
0.0140518 -0.132851 0.206985
0.0137759 -0.133165 0.206759
0.0135019 -0.133505 0.206579
0.0132258 -0.133809 0.206337
0.0129507 -0.134127 0.206118
0.012677 -0.134465 0.205938
0.0124051 -0.134832 0.205809
0.0121343 -0.135218 0.205712
0.0118672 -0.135675 0.205742
0.0116025 -0.136188 0.20587
0.011337 -0.136695 0.205986
0.0110756 -0.1373 0.206271
0.0108103 -0.137843 0.206445
0.0105448 -0.138399 0.206642
0.0102765 -0.138907 0.206751
0.0100075 -0.139414 0.206857
0.00973427 -0.139825 0.206796
0.00946282 -0.140291 0.206829
0.00919197 -0.140787 0.206912
0.0089194 -0.141245 0.206929
0.00864767 -0.141744 0.207015
0.0083753 -0.14224 0.207094
0.00810395 -0.142797 0.207276
0.00783141 -0.143336 0.207425
0.00755903 -0.143907 0.207626
0.00728653 -0.144515 0.207887
0.007014 -0.145182 0.208244
0.00674189 -0.145936 0.208745
0.00647202 -0.146959 0.209687
0.00620055 -0.148037 0.210717
0.0059256 -0.149056 0.21164
0.00564703 -0.14995 0.212352
0.0303356 -0.120935 0.229466
0.0300349 -0.121257 0.229188
0.0297258 -0.121536 0.228818
0.0294166 -0.121813 0.228442
0.0290934 -0.122015 0.227909
0.0287735 -0.122229 0.227405
0.0284518 -0.122429 0.226873
0.0281311 -0.122629 0.226343
0.0278115 -0.122829 0.225818
0.0274928 -0.123028 0.225292
0.0271704 -0.123202 0.224717
0.0268502 -0.123382 0.224156
0.0265378 -0.123601 0.223678
0.0262317 -0.12385 0.223267
0.0259362 -0.124158 0.22298
0.0256456 -0.124492 0.222748
0.025359 -0.12485 0.222564
0.0250679 -0.125179 0.222322
0.0247731 -0.125484 0.222032
0.0244702 -0.125734 0.22163
0.0241672 -0.12598 0.221223
0.0238603 -0.126196 0.220756
0.0235506 -0.126387 0.220242
0.023236 -0.126539 0.21965
0.0229258 -0.126714 0.219108
0.0226201 -0.126913 0.218617
0.022311 -0.12708 0.218066
0.0220063 -0.127274 0.217569
0.0217071 -0.127501 0.217141
0.0214051 -0.127702 0.216662
0.021102 -0.127888 0.216157
0.0208064 -0.128125 0.215755
0.0205151 -0.128392 0.215412
0.0202295 -0.128704 0.215157
0.0199417 -0.128993 0.214859
0.0196535 -0.129276 0.214551
0.0193574 -0.129486 0.214102
0.0190615 -0.129691 0.213648
0.0187597 -0.129835 0.213077
0.018466 -0.130045 0.212635
0.0181691 -0.130217 0.212124
0.0178766 -0.130423 0.211681
0.0175741 -0.130523 0.211037
0.0172758 -0.130651 0.210452
0.0169808 -0.130805 0.209916
0.0166858 -0.130946 0.20936
0.0163933 -0.131105 0.208839
0.0161104 -0.131362 0.208502
0.0158278 -0.131619 0.208166
0.0155443 -0.131857 0.207798
0.0152687 -0.132187 0.207598
0.0149933 -0.132518 0.207401
0.0147172 -0.132837 0.207184
0.0144411 -0.133155 0.206964
0.0141651 -0.133472 0.206741
0.0138902 -0.133801 0.206544
0.0136147 -0.13412 0.206325
0.0133401 -0.134449 0.206128
0.0130662 -0.134789 0.205949
0.0127941 -0.135155 0.205817
0.0125222 -0.135526 0.205695
0.0122543 -0.135967 0.205696
0.0119892 -0.136467 0.205799
0.0117246 -0.136986 0.205935
0.011464 -0.137596 0.206229
0.0112006 -0.138171 0.206458
0.0109363 -0.138749 0.206689
0.010669 -0.139274 0.206828
0.0103995 -0.139768 0.20691
0.010126 -0.140176 0.206842
0.00985394 -0.140624 0.206843
0.00958255 -0.141101 0.206893
0.00930946 -0.141543 0.206883
0.00903745 -0.142027 0.206942
0.00876526 -0.14252 0.207016
0.00849434 -0.143075 0.207192
0.00822215 -0.143613 0.207338
0.00795015 -0.144185 0.20754
0.00767887 -0.144826 0.207855
0.00740811 -0.145544 0.208297
0.00713822 -0.146374 0.208921
0.00687118 -0.147483 0.210004
0.00660098 -0.148575 0.211052
0.00632688 -0.149567 0.211927
0.00604859 -0.150404 0.212542
0.0304499 -0.121537 0.229105
0.0301472 -0.12185 0.228806
0.0298448 -0.122162 0.228507
0.0295275 -0.122397 0.228046
0.0292098 -0.122627 0.227575
0.028892 -0.122852 0.227095
0.0285724 -0.123063 0.226588
0.0282516 -0.123262 0.22606
0.0279337 -0.123472 0.225556
0.0276098 -0.123644 0.224976
0.0272862 -0.123811 0.224389
0.0269705 -0.124017 0.223884
0.0266632 -0.124264 0.223468
0.026367 -0.124572 0.223179
0.0260739 -0.124895 0.222923
0.0257867 -0.125252 0.222737
0.0254968 -0.125593 0.222517
0.0251993 -0.125885 0.222199
0.0248919 -0.126112 0.221751
0.0245898 -0.126369 0.221365
0.0242819 -0.126583 0.220895
0.0239692 -0.126762 0.220354
0.0236557 -0.126927 0.21979
0.0233461 -0.127112 0.219268
0.0230374 -0.127297 0.218749
0.0227269 -0.127461 0.218192
0.0224229 -0.127666 0.217716
0.0221212 -0.127881 0.217264
0.0218185 -0.128083 0.216787
0.0215148 -0.12827 0.216285
0.0212165 -0.128493 0.215855
0.0209209 -0.128731 0.215455
0.0206314 -0.129014 0.215143
0.0203396 -0.129274 0.214789
0.0200478 -0.12953 0.214428
0.0197498 -0.129727 0.213957
0.019452 -0.12992 0.213479
0.0191509 -0.130075 0.212932
0.0188593 -0.130309 0.212536
0.0185645 -0.130507 0.212074
0.0182744 -0.130742 0.211684
0.0179753 -0.130883 0.21112
0.017679 -0.131043 0.210592
0.0173802 -0.131166 0.21
0.0170828 -0.131292 0.209416
0.016788 -0.131435 0.208865
0.0165017 -0.131661 0.208472
0.0162166 -0.131893 0.20809
0.0159346 -0.132155 0.207765
0.0156586 -0.132483 0.207562
0.0153829 -0.132813 0.207362
0.0151074 -0.133143 0.207164
0.014831 -0.133461 0.206943
0.0145547 -0.133777 0.206721
0.0142805 -0.13412 0.206546
0.0140048 -0.134439 0.20633
0.01373 -0.134771 0.206136
0.0134569 -0.135126 0.205984
0.0131847 -0.135495 0.205857
0.0129129 -0.135871 0.205741
0.0126459 -0.136328 0.205769
0.0123812 -0.136832 0.20588
0.0121169 -0.137355 0.20602
0.0118572 -0.137976 0.206332
0.0115939 -0.13855 0.206557
0.0113299 -0.139124 0.206781
0.011062 -0.139637 0.206896
0.0107918 -0.140113 0.206947
0.0105175 -0.140505 0.20685
0.0102447 -0.140934 0.206819
0.00997232 -0.141384 0.20682
0.00969885 -0.141813 0.206786
0.00942658 -0.142283 0.206821
0.00915423 -0.142764 0.206873
0.00888329 -0.143303 0.207024
0.00861228 -0.143869 0.207216
0.00834212 -0.144486 0.207492
0.00807304 -0.145191 0.207913
0.00780485 -0.145991 0.20849
0.00753741 -0.146906 0.209252
0.0072712 -0.14798 0.210274
0.00700182 -0.149038 0.21126
0.00672757 -0.14996 0.212018
0.00644908 -0.150714 0.212492
0.0308733 -0.121856 0.229103
0.0305717 -0.122175 0.22882
0.0302742 -0.122513 0.228575
0.0299627 -0.122781 0.228184
0.0296502 -0.123041 0.227776
0.0293341 -0.123279 0.227324
0.029016 -0.123503 0.226844
0.0286937 -0.1237 0.226311
0.0283725 -0.123898 0.225782
0.0280469 -0.124067 0.225195
0.0277219 -0.124233 0.224604
0.0274048 -0.124436 0.224094
0.027097 -0.124685 0.223682
0.0268002 -0.124994 0.223393
0.0265046 -0.125306 0.223113
0.0262148 -0.125651 0.222902
0.0259226 -0.125981 0.22266
0.0256222 -0.12626 0.222314
0.0253117 -0.126473 0.221837
0.0250085 -0.126727 0.221444
0.0246998 -0.126942 0.220975
0.0243866 -0.127122 0.220438
0.0240743 -0.127301 0.219902
0.0237657 -0.127499 0.219406
0.023454 -0.127669 0.218857
0.0231417 -0.127828 0.218289
0.0228381 -0.128041 0.21783
0.0225339 -0.128244 0.217353
0.0222289 -0.128435 0.216855
0.0219258 -0.128633 0.216374
0.0216251 -0.128843 0.215918
0.0213239 -0.129044 0.215445
0.0210303 -0.129297 0.215077
0.0207376 -0.129553 0.214715
0.0204436 -0.129794 0.214326
0.0201449 -0.129991 0.213855
0.0198464 -0.130183 0.213375
0.0195443 -0.130336 0.212824
0.0192522 -0.130568 0.212426
0.0189573 -0.13077 0.211972
0.0186687 -0.131023 0.211616
0.0183735 -0.131208 0.211135
0.0180823 -0.131424 0.210714
0.0177853 -0.131576 0.210174
0.0174881 -0.131716 0.209615
0.0171916 -0.131851 0.209051
0.0169016 -0.132047 0.208601
0.0166121 -0.132239 0.208145
0.0163274 -0.132476 0.207774
0.0160502 -0.132794 0.207552
0.0157732 -0.133112 0.20733
0.0154974 -0.133442 0.207131
0.0152206 -0.133757 0.206905
0.0149439 -0.134071 0.206679
0.0146684 -0.1344 0.206478
0.0143933 -0.134731 0.206283
0.0141193 -0.135078 0.206116
0.0138473 -0.135451 0.205996
0.0135762 -0.135838 0.2059
0.0133068 -0.136255 0.205857
0.0130409 -0.136732 0.205918
0.0127765 -0.137241 0.206035
0.0125133 -0.13778 0.206204
0.0122529 -0.138386 0.206485
0.0119896 -0.138954 0.206699
0.0117239 -0.139494 0.206862
0.0114559 -0.140003 0.20697
0.0111844 -0.140451 0.20697
0.0109093 -0.140828 0.206847
0.0106351 -0.141228 0.206765
0.0103624 -0.141665 0.206745
0.010089 -0.142096 0.206713
0.00981702 -0.142569 0.206752
0.00954536 -0.143066 0.20683
0.0092754 -0.143621 0.207007
0.00900619 -0.144234 0.207277
0.00873742 -0.144887 0.207612
0.0084708 -0.14566 0.208144
0.00820473 -0.146512 0.208804
0.00793852 -0.147443 0.20959
0.00767199 -0.148454 0.210502
0.00740216 -0.149425 0.211342
0.00712778 -0.150263 0.211959
0.00685981 -0.151616 0.213414
0.0310029 -0.12253 0.228895
0.0307077 -0.122881 0.228679
0.0303995 -0.123168 0.228327
0.0300871 -0.123432 0.227928
0.0297731 -0.123685 0.227507
0.0294541 -0.123909 0.227027
0.0291309 -0.124107 0.226495
0.028809 -0.124307 0.225969
0.0284848 -0.124488 0.225408
0.0281588 -0.124655 0.224818
0.0278382 -0.124844 0.224279
0.0275268 -0.125079 0.223836
0.0272272 -0.125375 0.223521
0.0269313 -0.125689 0.223245
0.0266391 -0.126024 0.22301
0.0263461 -0.126351 0.222763
0.0260426 -0.126615 0.222387
0.0257287 -0.126813 0.221878
0.0254207 -0.127041 0.221433
0.0251132 -0.127267 0.220987
0.0247976 -0.127437 0.220431
0.0244867 -0.127631 0.219923
0.0241777 -0.127831 0.219431
0.0238652 -0.128001 0.218883
0.02355 -0.128146 0.218288
0.0232454 -0.128357 0.217824
0.0229404 -0.128559 0.217345
0.0226364 -0.128762 0.216872
0.0223327 -0.128961 0.216392
0.022031 -0.129169 0.215932
0.0217272 -0.129354 0.21543
0.0214295 -0.12958 0.21501
0.021133 -0.12981 0.214597
0.0208367 -0.130036 0.21418
0.0205358 -0.130219 0.213683
0.0202365 -0.130408 0.213199
0.0199352 -0.130572 0.212671
0.0196445 -0.13082 0.212302
0.0193524 -0.131051 0.211904
0.0190667 -0.131335 0.211606
0.0187765 -0.131573 0.211224
0.0184878 -0.13182 0.21086
0.0181913 -0.131986 0.210346
0.0178917 -0.132111 0.209761
0.0175932 -0.132238 0.20918
0.0173 -0.132407 0.208681
0.0170083 -0.132584 0.208198
0.016722 -0.132811 0.207807
0.0164444 -0.133128 0.207584
0.0161659 -0.133433 0.207338
0.0158889 -0.133751 0.207117
0.0156096 -0.134042 0.206847
0.0153314 -0.134341 0.206594
0.0150545 -0.134653 0.206362
0.0147801 -0.134995 0.206187
0.0145072 -0.135358 0.206049
0.0142372 -0.135761 0.20598
0.013969 -0.136192 0.205961
0.0137022 -0.13665 0.205989
0.0134381 -0.137154 0.206098
0.0131756 -0.137694 0.206267
0.0129134 -0.13825 0.206462
0.0126508 -0.138816 0.206672
0.0123866 -0.139366 0.206853
0.0121186 -0.139862 0.206938
0.0118485 -0.140329 0.206972
0.011575 -0.140737 0.206902
0.0113003 -0.141125 0.206799
0.0110256 -0.141515 0.206698
0.0107529 -0.141951 0.206676
0.0104803 -0.142398 0.206671
0.0102096 -0.142899 0.206757
0.00993888 -0.143414 0.206864
0.00967005 -0.144002 0.207094
0.00940257 -0.14465 0.207421
0.0091358 -0.145354 0.207839
0.00887155 -0.146182 0.208461
0.00860671 -0.147057 0.209156
0.00833972 -0.147927 0.209837
0.00807177 -0.148833 0.210572
0.00781488 -0.150313 0.212247
0.00755234 -0.151722 0.213795
0.0311216 -0.123153 0.228576
0.0308178 -0.123463 0.228274
0.0305074 -0.123739 0.227901
0.0301976 -0.124015 0.227528
0.0298835 -0.124267 0.227107
0.0295624 -0.12448 0.226606
0.0292421 -0.124692 0.226106
0.0289176 -0.124878 0.225553
0.0285905 -0.125044 0.224963
0.0282688 -0.125233 0.224422
0.0279563 -0.125466 0.223975
0.0276513 -0.125735 0.223605
0.027352 -0.126034 0.223296
0.0270568 -0.126353 0.22303
0.0267607 -0.126666 0.222751
0.0264521 -0.126903 0.222321
0.026135 -0.127085 0.221783
0.025826 -0.12731 0.221332
0.0255179 -0.127536 0.220885
0.0252016 -0.127706 0.220329
0.0248944 -0.127927 0.219877
0.0245871 -0.128142 0.219415
0.0242742 -0.128314 0.218871
0.0239601 -0.128473 0.218303
0.0236567 -0.128696 0.217865
0.0233495 -0.128888 0.217367
0.0230466 -0.129104 0.216917
0.0227438 -0.129314 0.21646
0.0224396 -0.129509 0.215975
0.022133 -0.12968 0.215446
0.0218328 -0.129892 0.214997
0.0215335 -0.130105 0.214553
0.0212334 -0.130305 0.214087
0.0209319 -0.130488 0.21359
0.0206307 -0.130666 0.213086
0.0203319 -0.130857 0.212607
0.0200424 -0.131119 0.212267
0.0197543 -0.13139 0.211943
0.0194686 -0.131677 0.211651
0.0191792 -0.131928 0.211294
0.0188898 -0.132174 0.210927
0.018591 -0.132326 0.210388
0.0182892 -0.13244 0.209781
0.0179902 -0.132569 0.209206
0.0176957 -0.132734 0.208699
0.0174032 -0.13291 0.208213
0.0171172 -0.133146 0.20784
0.0168392 -0.133462 0.207614
0.0165603 -0.133767 0.207368
0.0162827 -0.134084 0.207145
0.0160009 -0.134348 0.206827
0.0157211 -0.134633 0.206547
0.0154417 -0.134918 0.206267
0.015166 -0.135246 0.206067
0.0148931 -0.135609 0.205927
0.0146245 -0.136029 0.20589
0.0143574 -0.136475 0.205897
0.0140928 -0.136962 0.205975
0.0138317 -0.137507 0.206154
0.0135704 -0.138062 0.206349
0.0133093 -0.138634 0.206569
0.0130455 -0.139174 0.206734
0.0127798 -0.139697 0.206865
0.0125102 -0.140163 0.206897
0.0122395 -0.140616 0.206907
0.0119653 -0.141012 0.206817
0.0116914 -0.141417 0.206741
0.0114173 -0.141818 0.20666
0.0111446 -0.142255 0.206638
0.0108721 -0.142702 0.206633
0.0106016 -0.143206 0.206722
0.0103317 -0.143738 0.206857
0.0100648 -0.144358 0.207139
0.00979956 -0.145053 0.207544
0.00953607 -0.145838 0.208095
0.00927419 -0.146717 0.208797
0.00900966 -0.147583 0.209473
0.00874167 -0.148387 0.210044
0.00848669 -0.149733 0.2115
0.00824484 -0.15175 0.21405
0.0312421 -0.123785 0.228276
0.0309354 -0.124081 0.227945
0.0306276 -0.12437 0.227599
0.0303171 -0.124643 0.227222
0.0299978 -0.124869 0.226748
0.029682 -0.125109 0.226305
0.0293598 -0.125311 0.225786
0.0290342 -0.125491 0.225224
0.0287136 -0.125691 0.224707
0.0283993 -0.12592 0.224251
0.0280882 -0.126162 0.223823
0.0277853 -0.126444 0.22348
0.0274842 -0.126734 0.223154
0.0271805 -0.127007 0.222793
0.026866 -0.127214 0.222303
0.0265457 -0.127382 0.221735
0.0262337 -0.127593 0.221257
0.0259231 -0.127807 0.220786
0.0256079 -0.127987 0.220252
0.0253002 -0.128208 0.2198
0.0249943 -0.128436 0.219365
0.0246831 -0.128625 0.218853
0.0243726 -0.128811 0.21834
0.024071 -0.129051 0.217934
0.0237667 -0.129268 0.217485
0.0234634 -0.129487 0.217042
0.02316 -0.129699 0.216588
0.0228549 -0.129894 0.216102
0.0225453 -0.13005 0.215543
0.0222404 -0.130233 0.21504
0.0219383 -0.130429 0.214564
0.0216356 -0.130615 0.21407
0.0213318 -0.130785 0.213549
0.0210318 -0.130978 0.213073
0.0207342 -0.131184 0.212625
0.020446 -0.131462 0.212312
0.0201593 -0.131748 0.212018
0.0198742 -0.132046 0.211745
0.0195841 -0.132297 0.211386
0.0192935 -0.132537 0.211009
0.0189925 -0.132677 0.210449
0.0186907 -0.1328 0.209859
0.0183911 -0.132932 0.209289
0.0180961 -0.133101 0.208788
0.0178029 -0.133278 0.208305
0.0175173 -0.133525 0.207952
0.0172364 -0.133816 0.207679
0.0169555 -0.134104 0.207403
0.0166762 -0.134405 0.20715
0.0163913 -0.134641 0.206781
0.01611 -0.134911 0.206475
0.015829 -0.135181 0.206169
0.0155531 -0.135509 0.205968
0.0152801 -0.135871 0.205828
0.0150136 -0.136318 0.205836
0.0147478 -0.13678 0.205871
0.0144856 -0.137298 0.206002
0.014226 -0.137861 0.206211
0.0139651 -0.138418 0.206407
0.0137034 -0.138977 0.206605
0.0134389 -0.139503 0.206744
0.0131724 -0.14001 0.206847
0.0129021 -0.140463 0.206855
0.0126316 -0.140918 0.206867
0.0123582 -0.141329 0.206801
0.0120843 -0.141735 0.206727
0.0118108 -0.142151 0.206669
0.0115382 -0.142589 0.206649
0.0112662 -0.143048 0.206664
0.0109961 -0.143555 0.206758
0.010727 -0.144101 0.206915
0.0104613 -0.144741 0.207228
0.0101988 -0.145495 0.207729
0.00993804 -0.146331 0.208363
0.00967764 -0.147231 0.209098
0.00941352 -0.148086 0.209751
0.00914403 -0.148824 0.210209
0.00890571 -0.15066 0.212467
0.0313928 -0.124558 0.228273
0.0310834 -0.124844 0.22792
0.0307631 -0.125075 0.227453
0.03044 -0.125287 0.226949
0.0301236 -0.125528 0.226508
0.029803 -0.125743 0.226017
0.0294794 -0.125939 0.225487
0.0291627 -0.126166 0.225023
0.0288453 -0.126384 0.224543
0.0285302 -0.12661 0.224082
0.0282234 -0.126876 0.223704
0.0279159 -0.127135 0.223315
0.027604 -0.127366 0.22287
0.0272862 -0.127559 0.22235
0.0269645 -0.127724 0.221778
0.0266497 -0.127922 0.221274
0.0263361 -0.128123 0.220778
0.0260201 -0.128303 0.220244
0.0257114 -0.128522 0.219787
0.0254028 -0.128737 0.219326
0.0250931 -0.128938 0.218841
0.0247841 -0.12914 0.218358
0.0244843 -0.129396 0.217982
0.0241818 -0.129629 0.217565
0.0238816 -0.129874 0.217173
0.0235776 -0.130088 0.21672
0.0232718 -0.130284 0.216237
0.0229593 -0.130426 0.215652
0.0226511 -0.130591 0.215114
0.0223443 -0.130759 0.214584
0.0220403 -0.13094 0.214082
0.0217359 -0.131112 0.213564
0.0214368 -0.131317 0.213113
0.0211406 -0.13154 0.212695
0.0208519 -0.131818 0.212383
0.0205633 -0.132093 0.212067
0.0202745 -0.132364 0.211743
0.0199821 -0.132599 0.211355
0.0196889 -0.132821 0.210945
0.0193896 -0.132983 0.210425
0.0190902 -0.133135 0.209889
0.0187942 -0.133311 0.209399
0.0185002 -0.133496 0.208929
0.0182074 -0.133686 0.208469
0.0179199 -0.133921 0.208093
0.017637 -0.134198 0.207795
0.0173521 -0.134449 0.20745
0.0170695 -0.13472 0.207143
0.016781 -0.134922 0.206713
0.0164968 -0.135163 0.206355
0.0162121 -0.135394 0.20598
0.0159373 -0.135735 0.205802
0.0156641 -0.136095 0.205659
0.0153988 -0.136554 0.205689
0.0151356 -0.137047 0.205777
0.0148761 -0.137595 0.205961
0.0146173 -0.138164 0.206178
0.0143578 -0.138736 0.2064
0.0140964 -0.139294 0.206593
0.0138301 -0.13979 0.206679
0.0135637 -0.140294 0.206777
0.0132934 -0.140746 0.206783
0.0130229 -0.141201 0.206793
0.0127498 -0.141616 0.206734
0.0124775 -0.14205 0.206708
0.0122049 -0.142483 0.206679
0.011933 -0.142937 0.206683
0.0116626 -0.143425 0.206747
0.0113946 -0.143975 0.20691
0.011127 -0.144552 0.207118
0.0108634 -0.145236 0.207504
0.0106031 -0.146027 0.208063
0.0103432 -0.146869 0.208704
0.010082 -0.147732 0.209373
0.00981636 -0.148524 0.209921
0.00956324 -0.149725 0.211138
0.0318337 -0.124953 0.228426
0.0315184 -0.125214 0.22802
0.031197 -0.125443 0.227549
0.0308697 -0.125639 0.227013
0.0305554 -0.125894 0.2266
0.0302366 -0.126123 0.226136
0.0299151 -0.126334 0.225637
0.0296004 -0.126575 0.225202
0.0292803 -0.126784 0.224704
0.0289617 -0.126996 0.224214
0.0286513 -0.127246 0.223805
0.0283427 -0.127503 0.22341
0.0280276 -0.127721 0.222939
0.0277109 -0.127925 0.22244
0.0273923 -0.128113 0.221914
0.027077 -0.128314 0.221415
0.0267604 -0.128502 0.220893
0.0264411 -0.128668 0.220331
0.0261286 -0.128869 0.219839
0.025817 -0.129069 0.21935
0.0255063 -0.12927 0.218862
0.0251992 -0.129487 0.21841
0.024901 -0.129757 0.218063
0.0245996 -0.130003 0.217669
0.0243007 -0.130261 0.217301
0.023998 -0.130489 0.216878
0.0236895 -0.130673 0.216371
0.0233759 -0.130814 0.215783
0.0230646 -0.130964 0.215216
0.0227528 -0.131102 0.214629
0.0224444 -0.131258 0.214078
0.0221406 -0.131439 0.213579
0.0218411 -0.131646 0.213131
0.0215474 -0.131894 0.21276
0.0212586 -0.132175 0.212453
0.0209705 -0.132459 0.212154
0.0206794 -0.132715 0.211801
0.0203857 -0.132945 0.211404
0.0200879 -0.133133 0.210931
0.0197878 -0.133295 0.210411
0.0194892 -0.133461 0.209902
0.0191942 -0.133652 0.209439
0.0189014 -0.133856 0.209003
0.0186106 -0.134072 0.208592
0.0183237 -0.13432 0.208239
0.0180389 -0.134583 0.207915
0.0177518 -0.134819 0.207542
0.0174645 -0.135047 0.207158
0.0171725 -0.135218 0.206672
0.0168861 -0.13544 0.206281
0.0165985 -0.135643 0.205857
0.0163225 -0.135972 0.205658
0.0160504 -0.136346 0.205538
0.0157877 -0.136834 0.205618
0.0155261 -0.137343 0.205734
0.0152694 -0.137924 0.205973
0.0150121 -0.138508 0.206217
0.0147527 -0.139079 0.206434
0.0144895 -0.139607 0.206575
0.0142212 -0.140073 0.206607
0.0139532 -0.140548 0.206655
0.013683 -0.140999 0.206658
0.0134121 -0.141443 0.206649
0.0131406 -0.141885 0.206636
0.0128703 -0.142349 0.206661
0.0125995 -0.142815 0.206686
0.0123302 -0.143315 0.206768
0.0120631 -0.143866 0.206935
0.0117975 -0.144462 0.207175
0.0115332 -0.145104 0.207491
0.011272 -0.145839 0.207957
0.0110124 -0.146639 0.208527
0.010753 -0.147483 0.209167
0.0104899 -0.148285 0.209733
0.0102414 -0.149502 0.210977
0.010009 -0.151245 0.213077
0.0325849 -0.125053 0.228913
0.03226 -0.125276 0.228427
0.0319414 -0.125525 0.227995
0.0316163 -0.125739 0.227495
0.0312879 -0.125934 0.226955
0.0309752 -0.126199 0.226563
0.0306585 -0.126441 0.226127
0.0303394 -0.126667 0.22566
0.0300324 -0.12695 0.225311
0.0297116 -0.12716 0.224815
0.0293899 -0.12736 0.2243
0.029078 -0.127607 0.223884
0.028769 -0.127866 0.223491
0.0284512 -0.128073 0.222998
0.0281368 -0.128293 0.222534
0.0278222 -0.128508 0.222061
0.0275082 -0.128722 0.221587
0.0271909 -0.128912 0.221069
0.0268702 -0.129076 0.220503
0.0265561 -0.129273 0.220003
0.0262429 -0.129469 0.219504
0.0259293 -0.129657 0.218993
0.0256232 -0.129887 0.218564
0.0253244 -0.130158 0.218217
0.0250223 -0.130403 0.217823
0.0247206 -0.130648 0.217428
0.0244188 -0.130887 0.217025
0.0241078 -0.13106 0.216497
0.0237928 -0.1312 0.215907
0.0234803 -0.131348 0.215336
0.0231672 -0.131483 0.214745
0.022856 -0.131625 0.214168
0.0225513 -0.131806 0.213668
0.0222511 -0.132014 0.213222
0.0219568 -0.132262 0.212851
0.0216641 -0.132517 0.212496
0.0213735 -0.132785 0.212165
0.0210797 -0.133024 0.211782
0.0207839 -0.133241 0.21136
0.020484 -0.133417 0.210865
0.0201865 -0.133607 0.210396
0.0198904 -0.133801 0.209939
0.0195979 -0.134021 0.20953
0.0193061 -0.134241 0.209123
0.0190162 -0.134472 0.208738
0.0187282 -0.134717 0.208378
0.0184411 -0.134965 0.208026
0.0181519 -0.135186 0.207627
0.0178614 -0.135388 0.207196
0.0175657 -0.135528 0.206656
0.017277 -0.135732 0.206232
0.0169862 -0.135906 0.205757
0.0167077 -0.136208 0.20551
0.0164369 -0.136597 0.205417
0.0161769 -0.137115 0.205548
0.0159161 -0.137629 0.205673
0.0156622 -0.138239 0.205963
0.0154063 -0.138837 0.206228
0.0151461 -0.139392 0.206417
0.0148809 -0.13989 0.206504
0.0146116 -0.14034 0.206507
0.0143418 -0.140787 0.206506
0.0140709 -0.141224 0.206486
0.0138001 -0.141668 0.206477
0.0135316 -0.142152 0.206535
0.0132634 -0.142649 0.206614
0.0129948 -0.14315 0.206698
0.0127301 -0.143727 0.20691
0.0124683 -0.144372 0.207232
0.0122057 -0.145025 0.207565
0.0119459 -0.145753 0.208021
0.0116883 -0.146557 0.208599
0.0114291 -0.147362 0.209173
0.0111678 -0.14816 0.209733
0.0109226 -0.149367 0.210962
0.0106947 -0.15107 0.212998
0.0326629 -0.125492 0.228202
0.0323462 -0.125751 0.227793
0.0320219 -0.125971 0.227304
0.0316954 -0.126177 0.226789
0.0313854 -0.126456 0.226429
0.0310716 -0.126715 0.226026
0.0307547 -0.126954 0.225586
0.0304529 -0.127265 0.225294
0.0301312 -0.127474 0.224796
0.0298088 -0.127674 0.224282
0.0295007 -0.127944 0.223911
0.0291963 -0.128229 0.223574
0.0288814 -0.128456 0.22312
0.028572 -0.128708 0.222719
0.0282642 -0.128966 0.22233
0.0279518 -0.129195 0.221886
0.0276339 -0.129387 0.221372
0.0273137 -0.129561 0.220824
0.0269983 -0.129757 0.220321
0.0266837 -0.129952 0.21982
0.0263668 -0.130128 0.219283
0.0260578 -0.130345 0.21883
0.0257536 -0.130587 0.218427
0.0254479 -0.130817 0.218
0.025141 -0.131032 0.21755
0.0248364 -0.131259 0.217122
0.0245244 -0.131431 0.216592
0.0242087 -0.131572 0.216004
0.023895 -0.131718 0.215431
0.0235792 -0.131842 0.214818
0.0232667 -0.131981 0.214235
0.0229613 -0.132163 0.213737
0.0226602 -0.13237 0.213289
0.0223623 -0.132595 0.212875
0.0220668 -0.132834 0.212489
0.021772 -0.133073 0.212104
0.0214771 -0.133306 0.211711
0.0211812 -0.133526 0.211295
0.0208839 -0.13373 0.210851
0.0205878 -0.133936 0.210413
0.0202936 -0.134153 0.209998
0.0200022 -0.134389 0.209617
0.0197114 -0.134624 0.209237
0.019421 -0.134857 0.208855
0.0191337 -0.135114 0.208517
0.0188455 -0.135357 0.208157
0.018554 -0.135564 0.207733
0.0182614 -0.135753 0.207277
0.0179649 -0.135894 0.206738
0.017674 -0.136083 0.206288
0.0173796 -0.136228 0.205761
0.0170993 -0.136514 0.205486
0.0168272 -0.136889 0.205367
0.0165677 -0.137409 0.205503
0.0163075 -0.137928 0.205634
0.0160554 -0.138554 0.20595
0.0157988 -0.139137 0.206188
0.0155378 -0.139678 0.20635
0.0152714 -0.140158 0.206407
0.0150022 -0.140607 0.206408
0.0147325 -0.141054 0.206406
0.0144618 -0.141492 0.206387
0.014192 -0.141948 0.206397
0.0139257 -0.142463 0.206507
0.0136599 -0.142994 0.206644
0.0133937 -0.143532 0.206788
0.0131339 -0.144187 0.207129
0.012877 -0.144913 0.207584
0.0126187 -0.14564 0.208038
0.0123629 -0.146441 0.208613
0.0121085 -0.147301 0.209279
0.0118486 -0.148093 0.209829
0.011585 -0.148841 0.210301
0.0113607 -0.150477 0.21223
0.0330426 -0.125605 0.227763
0.0327303 -0.125883 0.227397
0.0324088 -0.126117 0.226938
0.0320857 -0.126339 0.226458
0.0317758 -0.126619 0.2261
0.0314653 -0.126894 0.225731
0.0311512 -0.127149 0.225324
0.0308546 -0.127486 0.225085
