ply
format ascii 1.0
element vertex 1775
property float x
property float y
property float z
end_header
0.229289 0.181115 0.742633
0.230796 0.184771 0.747072
0.200995 0.0621384 0.77578
0.200879 0.0629506 0.773155
0.200876 0.0639242 0.771102
0.200746 0.0647066 0.768426
0.200535 0.0653642 0.76536
0.200298 0.0659758 0.762174
0.200089 0.0666232 0.759139
0.199891 0.0672818 0.756171
0.199739 0.0680047 0.753443
0.199743 0.0689589 0.751491
0.199767 0.069939 0.749641
0.199844 0.070996 0.748053
0.19997 0.0721275 0.746715
0.200118 0.073289 0.745483
0.200284 0.0744768 0.744343
0.200513 0.0757611 0.743512
0.200732 0.0770299 0.742638
0.200936 0.0782732 0.741689
0.20117 0.0795619 0.740886
0.201383 0.0808168 0.739983
0.201598 0.0820748 0.739094
0.201865 0.0834146 0.738458
0.202139 0.0847628 0.73785
0.202413 0.0861115 0.737244
0.202715 0.0875065 0.736777
0.203053 0.0889564 0.736474
0.203364 0.0903648 0.736046
0.203695 0.0918042 0.735709
0.204016 0.0932285 0.735327
0.204384 0.0947292 0.735164
0.204726 0.0961883 0.734879
0.205145 0.0977724 0.734949
0.205604 0.0994238 0.735206
0.20608 0.101104 0.735536
0.206553 0.102782 0.73585
0.207094 0.104574 0.736478
0.20763 0.106359 0.737073
0.208152 0.108124 0.737602
0.20872 0.109966 0.738333
0.20925 0.111748 0.738887
0.209714 0.113423 0.739138
0.210212 0.115155 0.739539
0.210711 0.116891 0.739938
0.211124 0.118483 0.739945
0.211547 0.120095 0.739999
0.211949 0.12167 0.73995
0.2123 0.123161 0.739674
0.212635 0.124624 0.739323
0.213002 0.126141 0.739113
0.213311 0.127561 0.738645
0.213637 0.129009 0.738253
0.213982 0.130491 0.737946
0.214405 0.132108 0.737984
0.21482 0.13371 0.737981
0.21531 0.135447 0.738315
0.215818 0.137215 0.738718
0.216292 0.138926 0.73897
0.216763 0.140633 0.739206
0.217269 0.142404 0.739594
0.217724 0.144086 0.739754
0.218179 0.14577 0.739911
0.218631 0.147449 0.74005
0.219027 0.149029 0.739943
0.219438 0.150639 0.739905
0.219852 0.152253 0.739873
0.220231 0.153805 0.739688
0.220607 0.155354 0.739491
0.220998 0.15693 0.739356
0.22141 0.158544 0.739311
0.221911 0.16032 0.739643
0.222441 0.162151 0.740098
0.222993 0.164025 0.740641
0.223556 0.165918 0.741225
0.224055 0.167699 0.741538
0.224517 0.169413 0.741685
0.224921 0.171021 0.741589
0.225302 0.172588 0.741392
0.225713 0.174211 0.741319
0.22621 0.175995 0.741609
0.226749 0.177856 0.742067
0.227295 0.179734 0.742555
0.227869 0.181665 0.743151
0.199467 0.0624766 0.775797
0.199361 0.0632965 0.773201
0.199349 0.064252 0.77109
0.199207 0.0650104 0.768337
0.199028 0.065707 0.765406
0.19883 0.0663688 0.76239
0.198645 0.0670454 0.759453
0.198486 0.0677558 0.756657
0.19837 0.0685265 0.754085
0.198359 0.0694526 0.752041
0.198383 0.0704293 0.750179
0.198477 0.0715109 0.748668
0.198623 0.0726701 0.747417
0.198776 0.0738379 0.746202
0.198942 0.0750247 0.745055
0.19917 0.0763068 0.744215
0.199387 0.0775698 0.74332
0.199577 0.0787914 0.742301
0.199813 0.080083 0.741504
0.200029 0.0813419 0.740611
0.200243 0.0825984 0.739716
0.200495 0.0839125 0.739
0.200768 0.0852596 0.738385
0.201042 0.0866086 0.737778
0.201342 0.0879998 0.737298
0.201678 0.089449 0.73699
0.20199 0.0908591 0.736565
0.202323 0.0923024 0.736237
0.20263 0.0937051 0.735789
0.202996 0.0952034 0.735618
0.203334 0.0966568 0.735314
0.203769 0.0982706 0.735467
0.204245 0.0999515 0.735804
0.204771 0.101719 0.736377
0.205263 0.103431 0.736783
0.205806 0.10523 0.737423
0.206305 0.106958 0.737855
0.206788 0.108661 0.738208
0.207315 0.110441 0.738763
0.207808 0.112165 0.739156
0.208255 0.113812 0.73933
0.208751 0.115545 0.73973
0.209249 0.117281 0.740132
0.20966 0.118872 0.740132
0.210119 0.120546 0.740351
0.210559 0.122189 0.740482
0.210952 0.123753 0.740396
0.211325 0.125282 0.740216
0.211727 0.126862 0.740166
0.21204 0.12829 0.739714
0.212386 0.129774 0.739412
0.212735 0.131265 0.739121
0.213159 0.132885 0.739161
0.213555 0.13446 0.739082
0.21404 0.136189 0.73939
0.214526 0.137924 0.739705
0.214997 0.139633 0.739948
0.215449 0.141309 0.7401
0.215935 0.143048 0.740405
0.216386 0.144727 0.740553
0.216844 0.146418 0.740723
0.217299 0.148106 0.740882
0.217715 0.149725 0.740866
0.218127 0.151337 0.740828
0.21852 0.152917 0.740711
0.21888 0.154437 0.740442
0.219235 0.15595 0.740157
0.219625 0.157524 0.740017
0.220038 0.159142 0.739976
0.220536 0.160917 0.740302
0.221084 0.162785 0.74084
0.221634 0.164658 0.741381
0.222195 0.166555 0.741967
0.222732 0.168409 0.742444
0.223236 0.170203 0.742775
0.223663 0.171856 0.742776
0.224081 0.173494 0.742736
0.224493 0.175122 0.74267
0.224972 0.176876 0.742884
0.22547 0.178666 0.743177
0.225955 0.180433 0.743409
0.226427 0.182178 0.743585
0.197833 0.0636275 0.773197
0.197785 0.0645232 0.770887
0.197651 0.0652857 0.768153
0.197499 0.0660161 0.765339
0.19735 0.0667443 0.762547
0.197213 0.0674863 0.759828
0.197111 0.0682773 0.757297
0.197016 0.0690746 0.754811
0.19702 0.0700205 0.752829
0.197061 0.0710195 0.751036
0.197174 0.0721271 0.749606
0.197326 0.0732939 0.748375
0.197499 0.0744919 0.747251
0.197666 0.075679 0.746101
0.197895 0.0769632 0.745262
0.19808 0.0781754 0.744204
0.198271 0.0793975 0.743183
0.19849 0.080661 0.742296
0.198689 0.0818935 0.74132
0.198904 0.0831496 0.74042
0.199157 0.0844655 0.739706
0.199416 0.0857915 0.739025
0.199689 0.0871379 0.738408
0.199988 0.0885271 0.737919
0.200306 0.0899486 0.737526
0.200618 0.0913584 0.737097
0.200949 0.0928009 0.736764
0.201257 0.0942043 0.736317
0.201639 0.0957306 0.736223
0.201997 0.0972193 0.736018
0.202451 0.0988659 0.73626
0.202927 0.100551 0.736604
0.203468 0.102347 0.737254
0.203958 0.10406 0.737657
0.204501 0.105863 0.738305
0.204963 0.107534 0.738572
0.205423 0.109201 0.738821
0.205892 0.110886 0.739114
0.206346 0.112547 0.739331
0.206758 0.114136 0.739347
0.207236 0.115841 0.739672
0.20773 0.117575 0.740065
0.208158 0.119196 0.740147
0.208635 0.120903 0.740454
0.209096 0.122585 0.740685
0.209525 0.124212 0.740767
0.209934 0.125805 0.740753
0.210373 0.127452 0.740875
0.210707 0.128917 0.740517
0.211076 0.130444 0.740319
0.211461 0.131998 0.74019
0.211906 0.133659 0.740328
0.21232 0.135267 0.740329
0.212804 0.137 0.74064
0.213287 0.138732 0.740942
0.213736 0.140406 0.741089
0.214152 0.142022 0.741086
0.214618 0.143728 0.741304
0.215069 0.145409 0.741453
0.215526 0.147102 0.741623
0.215982 0.148795 0.74179
0.216417 0.150452 0.741862
0.216811 0.152033 0.741745
0.217184 0.153578 0.741536
0.21752 0.155057 0.741168
0.217856 0.156534 0.740795
0.218244 0.158109 0.740653
0.218658 0.159731 0.740618
0.219136 0.161473 0.740863
0.219679 0.163335 0.741383
0.220223 0.165201 0.741906
0.220782 0.167099 0.742492
0.221341 0.168997 0.743071
0.221887 0.170873 0.743586
0.222338 0.172575 0.743692
0.222797 0.174292 0.743831
0.223228 0.175958 0.743845
0.223706 0.177713 0.74406
0.224201 0.179501 0.74434
0.224678 0.181257 0.744542
0.225914 0.184454 0.747959
0.196164 0.065665 0.768317
0.19608 0.0664925 0.765829
0.196016 0.0673455 0.76345
0.195906 0.0681221 0.760844
0.195814 0.0689233 0.758343
0.195726 0.0697261 0.755871
0.195717 0.0706478 0.753808
0.195761 0.0716483 0.752016
0.19586 0.0727323 0.750506
0.196016 0.0739044 0.749289
0.196191 0.0751041 0.748166
0.196377 0.0763202 0.747103
0.196606 0.0776036 0.746257
0.196793 0.0788186 0.745203
0.196984 0.0800377 0.744169
0.197201 0.0812985 0.743269
0.197397 0.0825252 0.74227
0.197613 0.0837819 0.741368
0.197851 0.0850747 0.74058
0.198094 0.0863735 0.739814
0.19835 0.087694 0.739116
0.19865 0.0890856 0.73863
0.198953 0.0904823 0.738161
0.199264 0.0918919 0.737729
0.199607 0.0933535 0.737449
0.19993 0.0947829 0.737073
0.200332 0.0963463 0.737082
0.200715 0.0978758 0.73699
0.201187 0.0995578 0.737328
0.201663 0.101247 0.737677
0.202202 0.103044 0.738322
0.202674 0.10473 0.738646
0.203198 0.106507 0.739213
0.20364 0.108145 0.739385
0.204075 0.109774 0.739525
0.204488 0.111366 0.739556
0.204903 0.112962 0.739594
0.205292 0.114514 0.739508
0.205734 0.116159 0.739669
0.206193 0.117835 0.739908
0.206635 0.119483 0.740063
0.207129 0.121222 0.740454
0.20761 0.122941 0.740785
0.208076 0.124635 0.741042
0.208537 0.126322 0.741271
0.209012 0.128034 0.741562
0.209384 0.129567 0.741378
0.209792 0.131164 0.741356
0.210214 0.132785 0.741395
0.210678 0.134485 0.741627
0.21113 0.136163 0.741798
0.211619 0.137909 0.742136
0.212103 0.139648 0.742447
0.212551 0.141323 0.742591
0.212946 0.142905 0.742496
0.213374 0.144546 0.742544
0.213822 0.146226 0.742683
0.214259 0.147885 0.742767
0.214698 0.149551 0.742862
0.215131 0.151205 0.742921
0.215503 0.152751 0.742712
0.215836 0.154225 0.742329
0.216151 0.155664 0.741861
0.216465 0.157103 0.741395
0.216836 0.158648 0.741177
0.217251 0.160273 0.741148
0.217729 0.162017 0.741396
0.218266 0.163874 0.741902
0.218805 0.165735 0.742409
0.219364 0.167635 0.742998
0.219943 0.169576 0.743671
0.220511 0.171499 0.744292
0.221005 0.173284 0.744587
0.221488 0.175049 0.74483
0.22196 0.176795 0.745023
0.222437 0.178552 0.745237
0.222907 0.180299 0.745418
0.223361 0.182014 0.745525
0.225427 0.186815 0.752513
0.194531 0.0658201 0.767732
0.194556 0.0668086 0.765786
0.194584 0.0677981 0.763861
0.194541 0.0686744 0.761582
0.19454 0.0696114 0.759523
0.194473 0.0704418 0.757137
0.194452 0.0713398 0.754993
0.194496 0.0723388 0.753191
0.194597 0.073423 0.751677
0.194755 0.0745964 0.750458
0.194961 0.0758458 0.749487
0.195165 0.0770896 0.748504
0.195397 0.0783781 0.747667
0.195602 0.0796204 0.746691
0.195776 0.0808126 0.745567
0.195959 0.0820192 0.744494
0.196155 0.0832449 0.743486
0.19637 0.0844999 0.742574
0.196578 0.0857431 0.741631
0.196821 0.0870411 0.740857
0.197073 0.0883548 0.740133
0.197357 0.0897207 0.739567
0.197631 0.0910704 0.738955
0.197942 0.0924802 0.73852
0.198282 0.0939402 0.738231
0.198622 0.0953985 0.737935
0.199029 0.0969723 0.73797
0.199448 0.0985654 0.738054
0.199941 0.100285 0.738495
0.200415 0.101976 0.738841
0.200949 0.103769 0.73947
0.201419 0.105456 0.739788
0.201909 0.107178 0.740197
0.202331 0.108786 0.740281
0.202747 0.110385 0.740332
0.203105 0.111883 0.740102
0.20348 0.113413 0.739957
0.203829 0.114898 0.739686
0.204233 0.116479 0.739674
0.204671 0.118119 0.739816
0.205127 0.119795 0.740044
0.205624 0.121542 0.740458
0.206124 0.123296 0.740882
0.206625 0.125055 0.741307
0.207105 0.126778 0.741631
0.207582 0.128498 0.741939
0.207994 0.130102 0.741939
0.208436 0.131763 0.742079
0.208879 0.133425 0.742218
0.209361 0.135159 0.742535
0.209852 0.136911 0.742891
0.210346 0.13867 0.743253
0.21085 0.14045 0.743662
0.211299 0.142129 0.74381
0.211707 0.143736 0.743772
0.212114 0.145343 0.74373
0.212559 0.147021 0.743857
0.212977 0.148649 0.743859
0.213412 0.150309 0.743934
0.213824 0.151928 0.743905
0.214176 0.153438 0.743606
0.214487 0.154873 0.743123
0.214762 0.15624 0.742479
0.215037 0.157606 0.741835
0.215388 0.159114 0.74153
0.215785 0.160709 0.741426
0.216245 0.162422 0.741601
0.216781 0.16428 0.742107
0.217354 0.16621 0.742773
0.217914 0.168116 0.743375
0.218531 0.170135 0.744224
0.219137 0.172133 0.745018
0.219669 0.173994 0.745482
0.220154 0.175767 0.74574
0.220648 0.177559 0.746033
0.221128 0.179324 0.74626
0.221598 0.181075 0.746444
0.222051 0.18279 0.746546
0.193009 0.0661443 0.767713
0.193142 0.0672957 0.766311
0.193248 0.068404 0.764777
0.193264 0.0693678 0.762782
0.193336 0.0704174 0.761085
0.193286 0.07127 0.758765
0.193284 0.072194 0.756697
0.193345 0.0732169 0.754965
0.193444 0.0742964 0.753427
0.193585 0.0754419 0.752111
0.193777 0.0766684 0.751059
0.193983 0.077916 0.750081
0.194202 0.0791826 0.749167
0.194423 0.0804534 0.748272
0.194599 0.0816473 0.747145
0.194769 0.082831 0.745995
0.194948 0.0840289 0.744895
0.195149 0.0852599 0.743903
0.195325 0.0864496 0.742793
0.195548 0.0877159 0.741919
0.195812 0.0890492 0.741249
0.196096 0.0904158 0.74068
0.196372 0.0917695 0.740074
0.196669 0.0931583 0.739572
0.197025 0.0946447 0.739354
0.197364 0.0961051 0.739058
0.197776 0.0976883 0.739114
0.198213 0.0993158 0.739291
0.198719 0.101062 0.739798
0.19919 0.102751 0.740133
0.199707 0.10452 0.740686
0.200159 0.10618 0.740924
0.200613 0.107845 0.741166
0.201018 0.109425 0.741167
0.201399 0.110965 0.741051
0.201723 0.112407 0.740664
0.202062 0.113875 0.740349
0.202405 0.11535 0.740048
0.202789 0.116896 0.739941
0.203206 0.118504 0.739994
0.203678 0.120208 0.740299
0.204189 0.121984 0.740787
0.204692 0.123748 0.741234
0.205212 0.125545 0.741758
0.20571 0.127303 0.74217
0.206188 0.129027 0.742485
0.206617 0.130665 0.74257
0.207062 0.132332 0.742725
0.207525 0.134034 0.742964
0.208041 0.135835 0.743445
0.208568 0.137655 0.743969
0.209081 0.139453 0.744425
0.209624 0.141307 0.745016
0.21009 0.143022 0.745246
0.210499 0.144634 0.745214
0.210888 0.146211 0.745089
0.211313 0.147855 0.745128
0.211709 0.149445 0.74503
0.212125 0.151074 0.745023
0.212501 0.152629 0.744832
0.212833 0.154104 0.744442
0.213125 0.155501 0.743868
0.213377 0.156825 0.74312
0.213632 0.158154 0.742382
0.21398 0.159657 0.742063
0.214374 0.161248 0.74195
0.214834 0.162965 0.742128
0.215353 0.164794 0.742565
0.215947 0.166768 0.743333
0.216527 0.168718 0.744032
0.217164 0.17078 0.74498
0.217787 0.172818 0.745857
0.218373 0.174785 0.746563
0.218877 0.176599 0.746907
0.219373 0.1784 0.747215
0.219851 0.180166 0.747439
0.220325 0.181926 0.747641
0.221338 0.184735 0.750183
0.192036 0.0692121 0.766356
0.192074 0.0702064 0.764455
0.192178 0.0713041 0.762906
0.192112 0.0721283 0.760486
0.192115 0.0730579 0.758429
0.192178 0.0740803 0.756687
0.192278 0.0751611 0.755145
0.192402 0.076277 0.753727
0.192592 0.0774991 0.752653
0.192785 0.0787264 0.751604
0.193008 0.0799992 0.750701
0.19323 0.0812711 0.749802
0.193406 0.0824646 0.748667
0.193561 0.0836242 0.747436
0.193742 0.0848229 0.746332
0.193942 0.0860526 0.745329
0.194102 0.0872149 0.74413
0.194293 0.0884271 0.743088
0.194524 0.089705 0.742248
0.194789 0.0910418 0.741586
0.195036 0.0923456 0.740829
0.195317 0.0937057 0.74024
0.195687 0.0952194 0.740098
0.196044 0.0967101 0.739886
0.196457 0.0982979 0.739951
0.196908 0.0999537 0.740204
0.197425 0.101723 0.740773
0.197896 0.103415 0.74111
0.198393 0.105156 0.741577
0.198829 0.106789 0.741735
0.199264 0.108424 0.741891
0.199648 0.109971 0.741795
0.200011 0.11148 0.741591
0.200319 0.112895 0.74113
0.200642 0.114335 0.740732
0.200985 0.11581 0.740434
0.20135 0.117326 0.74024
0.201767 0.118934 0.740293
0.202254 0.12067 0.74068
0.202783 0.122482 0.741262
0.203287 0.124251 0.741719
0.203821 0.126075 0.742313
0.204333 0.127862 0.742798
0.20481 0.129588 0.743115
0.205254 0.131257 0.743277
0.205699 0.132928 0.743438
0.206196 0.134694 0.743836
0.206715 0.136504 0.744337
0.207277 0.138393 0.745031
0.207806 0.140226 0.745569
0.208367 0.142118 0.746248
0.208817 0.143808 0.74641
0.209246 0.14546 0.746472
0.209618 0.147007 0.746268
0.210027 0.148624 0.746237
0.210421 0.150213 0.746128
0.210833 0.151838 0.746107
0.211191 0.15336 0.745831
0.211523 0.154836 0.745441
0.211798 0.156202 0.744787
0.212033 0.157493 0.743956
0.212268 0.158784 0.743123
0.212576 0.160213 0.742625
0.212949 0.161765 0.74242
0.213408 0.163482 0.742597
0.213943 0.165346 0.743113
0.214575 0.1674 0.744061
0.215194 0.16943 0.744941
0.215856 0.171545 0.746006
0.216514 0.173656 0.74705
0.217119 0.175667 0.747848
0.217621 0.177482 0.748189
0.218153 0.179356 0.748656
0.218652 0.181168 0.748975
0.219596 0.18385 0.751244
0.221239 0.187909 0.756567
0.190903 0.0701558 0.768378
0.190939 0.0711441 0.766447
0.191042 0.0722401 0.764883
0.190978 0.0730622 0.762448
0.190972 0.0739729 0.76032
0.191027 0.074981 0.758524
0.191114 0.0760382 0.756898
0.191217 0.0771188 0.755361
0.191375 0.078288 0.754113
0.19155 0.0794846 0.75296
0.19176 0.0807356 0.751984
0.191998 0.0820336 0.751159
0.192159 0.083203 0.749943
0.192315 0.0843603 0.748699
0.192496 0.0855595 0.747591
0.192695 0.0867868 0.746575
0.192841 0.0879243 0.745297
0.193015 0.089107 0.744162
0.193214 0.0903312 0.743157
0.193461 0.0916351 0.742394
0.193708 0.0929384 0.741632
0.193988 0.0942993 0.741041
0.194374 0.095841 0.740976
0.194759 0.0973827 0.740907
0.195158 0.0989483 0.740903
0.195594 0.10058 0.741082
0.196109 0.102351 0.74165
0.196576 0.104041 0.741978
0.197044 0.105732 0.7423
0.197478 0.107367 0.742459
0.197908 0.108995 0.742589
0.198272 0.110508 0.742398
0.198632 0.112014 0.742183
0.198958 0.113461 0.741804
0.199283 0.114905 0.741419
0.199644 0.116415 0.741208
0.200026 0.117963 0.7411
0.200432 0.119555 0.741104
0.20092 0.121295 0.7415
0.201448 0.123109 0.74208
0.201933 0.124848 0.742454
0.202464 0.126673 0.743045
0.202973 0.128459 0.743522
0.203431 0.130154 0.743756
0.203873 0.131821 0.743909
0.204316 0.133491 0.744064
0.204812 0.135258 0.744461
0.205348 0.137104 0.745051
0.205929 0.139033 0.745842
0.206478 0.140907 0.746481
0.20707 0.142862 0.747313
0.207536 0.144586 0.747555
0.207985 0.146278 0.747709
0.208361 0.147834 0.747523
0.208767 0.14945 0.74748
0.209141 0.151004 0.747283
0.209535 0.152595 0.747176
0.209877 0.15409 0.746826
0.210211 0.15557 0.746442
0.210484 0.156935 0.745779
0.21072 0.158227 0.744946
0.210956 0.159518 0.744115
0.211248 0.160916 0.743539
0.211601 0.162433 0.743242
0.212054 0.164142 0.743397
0.212589 0.16601 0.74392
0.21324 0.168106 0.744962
0.213897 0.170217 0.746025
0.214579 0.172379 0.747192
0.215259 0.174539 0.748343
0.21588 0.176589 0.749223
0.216387 0.178417 0.749587
0.21692 0.180299 0.750066
0.217904 0.183069 0.75254
0.219363 0.186783 0.757104
0.221574 0.191993 0.76497
0.189678 0.0709628 0.769946
0.189738 0.0719881 0.768129
0.189871 0.0731295 0.766704
0.189824 0.0739749 0.764337
0.189835 0.0749113 0.762283
0.189882 0.0759034 0.760426
0.189955 0.0769347 0.758709
0.190039 0.077982 0.757058
0.190175 0.079115 0.755688
0.190321 0.0802613 0.754371
0.190516 0.0814883 0.753314
0.190753 0.0827833 0.752473
0.190898 0.0839238 0.751163
0.191038 0.0850532 0.749828
0.191204 0.086225 0.748633
0.191391 0.0874323 0.747552
0.191554 0.0885965 0.746349
0.191729 0.0897795 0.745211
0.19194 0.0910234 0.74426
0.192186 0.0923257 0.743486
0.192431 0.0936251 0.742708
0.192714 0.0949906 0.742126
0.193098 0.0965334 0.742058
0.193471 0.0980562 0.741929
0.193869 0.0996227 0.741921
0.194303 0.101254 0.742095
0.194787 0.102975 0.742513
0.195254 0.104667 0.742842
0.195705 0.106333 0.743091
0.19612 0.107937 0.743156
0.196548 0.109564 0.743283
0.19691 0.111076 0.743084
0.197271 0.112585 0.742874
0.197631 0.114093 0.74266
0.197991 0.115602 0.742446
0.198373 0.117151 0.742336
0.198791 0.118767 0.742404
0.199214 0.120393 0.742493
0.199702 0.122137 0.742892
0.200213 0.123926 0.743399
0.200677 0.12563 0.743674
0.201172 0.127393 0.744095
0.201661 0.129147 0.744484
0.202086 0.130784 0.744563
0.202527 0.132453 0.744716
0.202967 0.134119 0.744858
0.203493 0.135949 0.745412
0.204033 0.137804 0.746021
0.204633 0.139776 0.746914
0.205182 0.141655 0.74756
0.205774 0.143616 0.748399
0.206223 0.145311 0.748564
0.206669 0.147 0.748708
0.207061 0.148591 0.748601
0.20747 0.150213 0.74857
0.207843 0.151767 0.748367
0.208236 0.15336 0.748257
0.208575 0.15485 0.747892
0.20891 0.156333 0.747511
0.209187 0.157704 0.746862
0.209425 0.159001 0.746036
0.209661 0.160293 0.745198
0.209935 0.161657 0.744538
0.210269 0.163137 0.744154
0.210702 0.164811 0.74422
0.211218 0.166646 0.744662
0.211883 0.168777 0.745781
0.212583 0.170977 0.747046
0.213284 0.173184 0.748311
0.214 0.175423 0.749635
0.214657 0.17755 0.750685
0.215185 0.179425 0.751148
0.216166 0.182199 0.753642
0.217663 0.186006 0.758431
0.219678 0.190852 0.765505
0.188676 0.0721439 0.772738
0.18872 0.0731408 0.770813
0.188812 0.0742153 0.769158
0.188747 0.075027 0.76667
0.188727 0.0759083 0.764429
0.188729 0.0768235 0.762316
0.188785 0.0778244 0.760494
0.188867 0.0788669 0.758819
0.188956 0.0799173 0.757183
0.18907 0.0810092 0.75569
0.189248 0.0822056 0.754531
0.189455 0.0834511 0.753532
0.189582 0.0845592 0.752119
0.189722 0.0856862 0.750773
0.189888 0.086858 0.749573
0.190063 0.088042 0.748419
0.190228 0.089208 0.747218
0.19042 0.0904187 0.746158
0.190649 0.0916924 0.745292
0.190914 0.0930272 0.744609
0.191191 0.0943834 0.743991
0.191491 0.0957812 0.743497
0.191849 0.097278 0.743289
0.19219 0.0987469 0.742999
0.192567 0.100279 0.742887
0.192969 0.101857 0.742902
0.193433 0.103547 0.74323
0.193914 0.105269 0.743637
0.194364 0.106935 0.743881
0.194778 0.108539 0.743944
0.195237 0.110226 0.744231
0.195618 0.111774 0.744126
0.196002 0.113326 0.744032
0.196397 0.114899 0.743988
0.196793 0.116477 0.743954
0.197194 0.118062 0.743936
0.197632 0.119717 0.744101
0.198055 0.121347 0.744192
0.198524 0.123062 0.744503
0.198995 0.124782 0.744819
0.199422 0.126422 0.744919
0.199879 0.128119 0.745161
0.200351 0.129845 0.745471
0.200775 0.131483 0.745545
0.201199 0.133123 0.74562
0.201654 0.134821 0.745839
0.202181 0.136657 0.746404
0.202737 0.13855 0.747102
0.203341 0.140534 0.748019
0.203906 0.142448 0.748747
0.20446 0.144343 0.749418
0.204922 0.146067 0.749647
0.205352 0.147729 0.74972
0.205762 0.149356 0.749698
0.206172 0.150983 0.749672
0.206563 0.152572 0.749553
0.206936 0.15413 0.74935
0.207273 0.155619 0.748979
0.207591 0.157069 0.748514
0.207869 0.158443 0.747865
0.208127 0.159777 0.747123
0.208383 0.161108 0.746377
0.208659 0.162475 0.745719
0.209009 0.163989 0.745409
0.209439 0.16566 0.745464
0.209952 0.167495 0.745896
0.210637 0.169671 0.747115
0.211354 0.171914 0.748472
0.212057 0.174134 0.749761
0.21281 0.176455 0.751263
0.213482 0.178619 0.752391
0.214411 0.1813 0.754679
0.215879 0.185063 0.759388
0.217906 0.189958 0.766597
0.187596 0.0732148 0.775161
0.187647 0.074221 0.773255
0.18773 0.0752776 0.77153
0.187661 0.0760786 0.768996
0.18762 0.0769218 0.766622
0.187586 0.077773 0.764296
0.187628 0.0787475 0.762381
0.187712 0.079791 0.760701
0.187785 0.0808124 0.758965
0.187869 0.0818508 0.757297
0.188011 0.0829867 0.755943
0.188185 0.0841741 0.754759
0.188268 0.0852039 0.753101
0.188407 0.0863265 0.751738
0.18859 0.0875253 0.750616
0.188781 0.0887366 0.749539
0.18895 0.089907 0.748346
0.189174 0.0911739 0.747449
0.189411 0.0924606 0.746614
0.189667 0.0937808 0.745883
0.189951 0.09515 0.745297
0.190266 0.0965756 0.744876
0.190592 0.0980182 0.744505
0.190913 0.0994532 0.74411
0.191269 0.10095 0.743892
0.191648 0.10249 0.743794
0.192097 0.104155 0.744045
0.192592 0.105906 0.744532
0.193025 0.107547 0.744698
0.193486 0.109238 0.745001
0.19398 0.110991 0.745464
0.194418 0.112645 0.745646
0.194858 0.114303 0.745832
0.19532 0.116003 0.746126
0.195736 0.117621 0.74619
0.196138 0.119213 0.746179
0.196561 0.120845 0.746269
0.196964 0.12244 0.746258
0.197397 0.124093 0.746394
0.197814 0.125717 0.746445
0.198203 0.127289 0.746357
0.198621 0.128918 0.746415
0.199074 0.130612 0.746635
0.19948 0.132219 0.746624
0.199905 0.133864 0.746707
0.20036 0.135567 0.746932
0.200907 0.137444 0.747595
0.201449 0.139315 0.748233
0.202048 0.141299 0.749142
0.202625 0.14324 0.749932
0.203175 0.145134 0.750594
0.203638 0.146862 0.750827
0.204082 0.148555 0.750971
0.204512 0.150223 0.751044
0.204925 0.151857 0.751031
0.205319 0.153456 0.750927
0.205673 0.154979 0.750634
0.20599 0.156431 0.750168
0.206288 0.157843 0.749605
0.206533 0.159153 0.748801
0.206791 0.160487 0.748055
0.207047 0.161817 0.747303
0.207325 0.163189 0.746652
0.207678 0.164711 0.746354
0.208108 0.166385 0.746412
0.208636 0.168254 0.746922
0.209337 0.170468 0.748224
0.210054 0.172721 0.749597
0.210778 0.174989 0.750989
0.211561 0.177381 0.75265
0.212254 0.179595 0.753881
0.213608 0.183143 0.758129
0.215574 0.187937 0.765147
0.186844 0.074848 0.779419
0.186749 0.0756103 0.776697
0.186705 0.0764523 0.774259
0.18662 0.0772219 0.771612
0.186556 0.0780223 0.769088
0.186505 0.0788397 0.766643
0.186518 0.0797635 0.764557
0.186577 0.0807608 0.762721
0.186623 0.0817347 0.760827
0.186671 0.0827089 0.758951
0.186779 0.083784 0.757403
0.18692 0.0849123 0.75603
0.186988 0.0859138 0.75428
0.187143 0.0870637 0.752996
0.187329 0.0882661 0.751878
0.187524 0.0894826 0.750811
0.18771 0.0906818 0.749699
0.187966 0.0920035 0.748957
0.188237 0.0933522 0.748298
0.188502 0.0946887 0.747606
0.188817 0.0961155 0.74718
0.189148 0.0975691 0.746831
0.189455 0.0989811 0.74636
0.189741 0.100355 0.745781
0.190074 0.101813 0.745443
0.190418 0.103293 0.745166
0.19085 0.104932 0.745336
0.191348 0.106692 0.74584
0.191769 0.108313 0.745947
0.192262 0.110067 0.746415
0.192775 0.111861 0.746984
0.193269 0.113621 0.747452
0.19375 0.115359 0.747846
0.194266 0.117164 0.748416
0.194713 0.118843 0.748633
0.19513 0.120467 0.748696
0.195535 0.122069 0.748694
0.19592 0.123636 0.748592
0.196332 0.125253 0.748623
0.19668 0.126752 0.748333
0.197013 0.128222 0.747968
0.197393 0.129782 0.747836
0.197826 0.131443 0.747964
0.19822 0.13303 0.747894
0.198661 0.134708 0.748056
0.199134 0.136448 0.74837
0.199661 0.138294 0.748945
0.200187 0.140139 0.74951
0.200764 0.142086 0.750319
0.201338 0.144029 0.751109
0.201886 0.145924 0.751764
0.202367 0.14769 0.75209
0.202814 0.149393 0.752249
0.20328 0.151134 0.752498
0.203678 0.152743 0.752415
0.204055 0.154313 0.752234
0.204389 0.155797 0.751843
0.204686 0.157209 0.751273
0.204929 0.158516 0.750454
0.205171 0.159817 0.749624
0.205428 0.161149 0.748869
0.205687 0.162485 0.748129
0.205985 0.163897 0.747569
0.206358 0.165459 0.747362
0.206789 0.167139 0.74743
0.2073 0.168978 0.747864
0.207998 0.171197 0.749171
0.208714 0.173453 0.750547
0.20942 0.175695 0.751875
0.210201 0.178092 0.753539
0.211284 0.181104 0.756585
0.213075 0.185565 0.762886
0.185915 0.0762123 0.782789
0.185772 0.0768869 0.779764
0.185651 0.0775957 0.776881
0.185554 0.0783399 0.77414
0.185475 0.0791101 0.771508
0.185408 0.0798953 0.76895
0.185411 0.0807974 0.766785
0.185442 0.0817459 0.764785
0.185473 0.0826902 0.762789
0.185486 0.0835997 0.760703
0.18556 0.0846126 0.758955
0.185669 0.0856846 0.757402
0.18574 0.0866868 0.755649
0.185898 0.0878407 0.75437
0.186115 0.0890967 0.753408
0.186316 0.0903243 0.752367
0.18652 0.0915543 0.751339
0.186808 0.0929352 0.750765
0.187109 0.0943373 0.750254
0.187374 0.0956756 0.749557
0.18772 0.0971599 0.749289
0.188049 0.0986128 0.748927
0.188342 0.0999999 0.748374
0.188595 0.101316 0.74762
0.18891 0.102743 0.747184
0.189238 0.104196 0.74682
0.189655 0.10581 0.746912
0.19014 0.107552 0.747356
0.19056 0.109175 0.747458
0.19107 0.110966 0.748021
0.191567 0.112736 0.748516
0.192099 0.114571 0.749179
0.192599 0.116349 0.749676
0.193135 0.118198 0.750356
0.193598 0.119911 0.750655
0.194031 0.121568 0.750795
0.194416 0.123137 0.750694
0.1948 0.124705 0.750586
0.195194 0.126292 0.750525
0.195507 0.127727 0.750058
0.195819 0.129159 0.749586
0.196179 0.130684 0.749354
0.196595 0.132315 0.749396
0.196989 0.133906 0.74933
0.197449 0.135624 0.749587
0.197938 0.1374 0.749983
0.198463 0.139246 0.750553
0.198966 0.141052 0.75101
0.199538 0.142997 0.751807
0.200094 0.14491 0.752512
0.200612 0.146752 0.753029
0.201097 0.148532 0.75338
0.201546 0.150241 0.753551
0.202012 0.151987 0.753805
0.202392 0.153563 0.753637
0.202766 0.155127 0.753434
0.203065 0.156545 0.752875
0.20334 0.157914 0.752198
0.203546 0.159144 0.751191
0.203765 0.160402 0.750254
0.204005 0.161698 0.749412
0.204264 0.163032 0.748666
0.204549 0.164419 0.748046
0.204922 0.165982 0.74784
0.205336 0.167629 0.747829
0.205828 0.169434 0.748181
0.206505 0.171618 0.749404
0.207215 0.173871 0.750771
0.207899 0.176074 0.752006
0.20866 0.178439 0.753596
0.210168 0.182337 0.758656
0.212411 0.187755 0.767109
0.18494 0.0765981 0.788222
0.184851 0.0773654 0.78546
0.184704 0.0780288 0.782387
0.184548 0.0786717 0.779279
0.184458 0.0794214 0.776545
0.184369 0.08017 0.773834
0.184306 0.0809571 0.771271
0.184324 0.0818831 0.76917
0.184341 0.082803 0.767069
0.184341 0.0836885 0.76488
0.184334 0.0845606 0.762669
0.184361 0.0854869 0.760645
0.184427 0.0864805 0.758844
0.1845 0.0874845 0.75709
0.184675 0.0886665 0.75589
0.184913 0.0899596 0.755032
0.185148 0.091247 0.754162
0.18537 0.0925106 0.753226
0.185675 0.0939216 0.752731
0.185977 0.0953275 0.752221
0.186241 0.0966657 0.751514
0.186587 0.0981513 0.751239
0.186899 0.0995773 0.750789
0.187149 0.100888 0.750007
0.187388 0.102178 0.749168
0.187674 0.103553 0.748577
0.187971 0.104949 0.748046
0.188386 0.106565 0.748135
0.18887 0.108307 0.748574
0.189289 0.109933 0.748679
0.189811 0.111751 0.74931
0.190305 0.113518 0.74979
0.190847 0.115379 0.750517
0.191361 0.117188 0.751091
0.191899 0.119047 0.751787
0.192362 0.120764 0.752089
0.192825 0.122483 0.75239
0.193215 0.124063 0.752309
0.193617 0.125668 0.752294
0.193997 0.127232 0.752164
0.194293 0.128635 0.751605
0.19457 0.130001 0.750951
0.19491 0.13149 0.750618
0.195296 0.133065 0.75051
0.195708 0.134694 0.750535
0.19617 0.136421 0.750809
0.196658 0.138197 0.751202
0.197164 0.140014 0.751689
0.197678 0.141846 0.752206
0.198232 0.14376 0.752919
0.198802 0.145708 0.753704
0.19934 0.147594 0.754326
0.199843 0.149412 0.754766
0.200292 0.151126 0.754942
0.200753 0.152866 0.755175
0.201096 0.154371 0.754826
0.201433 0.155864 0.754445
0.201677 0.157171 0.753611
0.201898 0.158431 0.75267
0.202067 0.159586 0.75148
0.202268 0.160804 0.75045
0.202507 0.162099 0.749603
0.20277 0.163439 0.748872
0.203053 0.164822 0.748239
0.203422 0.166378 0.74802
0.203831 0.168017 0.747989
0.204286 0.169751 0.748172
0.204922 0.171855 0.74921
0.205607 0.174065 0.750477
0.206248 0.176188 0.751529
0.206951 0.17844 0.752861
0.208866 0.183202 0.759886
0.184932 0.0756615 0.790453
0.185053 0.0749396 0.793419
0.184686 0.0773187 0.800193
0.184371 0.0777071 0.796089
0.184027 0.0780354 0.791832
0.18374 0.0784563 0.787922
0.183408 0.0787922 0.783777
0.183297 0.0795057 0.780892
0.183244 0.0803146 0.778342
0.183206 0.0811443 0.775882
0.183175 0.0819846 0.773478
0.183209 0.0829341 0.771441
0.183215 0.0838311 0.769258
0.183228 0.0847365 0.76712
0.183207 0.0855781 0.764805
0.183204 0.0864483 0.762598
0.183239 0.0873828 0.760608
0.183298 0.0883585 0.75876
0.183447 0.0894926 0.757408
0.183673 0.0907645 0.756479
0.183923 0.092079 0.755683
0.184164 0.0933772 0.754842
0.184471 0.0947928 0.754352
0.184776 0.0962059 0.753855
0.18504 0.0975456 0.753144
0.185355 0.0989754 0.752698
0.185638 0.100348 0.752087
0.185871 0.101628 0.751211
0.18611 0.102917 0.750364
0.186381 0.104267 0.749694
0.186678 0.105663 0.749159
0.187092 0.107278 0.74924
0.187555 0.108988 0.749582
0.187957 0.110583 0.749594
0.188474 0.112397 0.75021
0.188951 0.114138 0.750612
0.189501 0.116019 0.751389
0.190042 0.117883 0.752107
0.190592 0.119769 0.752873
0.191074 0.121528 0.753282
0.191571 0.123315 0.75376
0.19198 0.124936 0.753783
0.192404 0.126585 0.753875
0.192787 0.128159 0.753764
0.193084 0.129564 0.753203
0.193359 0.130927 0.752533
0.193685 0.132389 0.752125
0.194054 0.133937 0.751937
0.194467 0.135569 0.751963
0.194943 0.137327 0.75231
0.195416 0.139082 0.752639
0.195924 0.140905 0.753135
0.196422 0.142712 0.75358
0.196959 0.144597 0.754213
0.197511 0.146515 0.75492
0.198064 0.148436 0.75562
0.198549 0.150224 0.75598
0.198979 0.151904 0.756064
0.199403 0.153573 0.756116
0.199705 0.154996 0.755562
0.199987 0.15638 0.754915
0.200193 0.157609 0.753893
0.200396 0.15883 0.752855
0.200561 0.159974 0.751641
0.200733 0.161131 0.750464
0.200956 0.162391 0.749537
0.201202 0.163697 0.748721
0.201465 0.165036 0.747991
0.201798 0.166519 0.747596
0.202183 0.168111 0.747458
0.202614 0.169796 0.747536
0.203174 0.17175 0.748226
0.203814 0.173872 0.749294
0.204409 0.175905 0.750144
0.205051 0.178036 0.751207
0.18338 0.0799604 0.797031
0.182937 0.0801022 0.792186
0.182423 0.080111 0.786961
0.182154 0.0805399 0.783146
0.181971 0.0811141 0.779834
0.181957 0.0819821 0.77749
0.18196 0.0828749 0.775247
0.181997 0.0838271 0.77321
0.181993 0.0847009 0.770947
0.182011 0.0856113 0.768818
0.182023 0.0865089 0.766668
0.182035 0.0874024 0.764525
0.182058 0.088311 0.762448
0.182141 0.0893269 0.760714
0.182274 0.0904292 0.759255
0.182471 0.091649 0.758161
0.182678 0.0928848 0.757121
0.18293 0.0942018 0.756329
0.183209 0.095569 0.755689
0.183502 0.0969609 0.755124
0.183754 0.0982782 0.754341
0.184051 0.0996761 0.753796
0.184315 0.101014 0.753079
0.184528 0.102256 0.752088
0.184766 0.103542 0.75123
0.185022 0.104862 0.750472
0.185319 0.10626 0.749938
0.185715 0.107844 0.749928
0.186144 0.109492 0.750093
0.186544 0.111086 0.750101
0.187045 0.112874 0.75064
0.187508 0.11459 0.75097
0.18804 0.116442 0.751665
0.188578 0.118306 0.752381
0.189112 0.120166 0.753074
0.189627 0.12199 0.753659
0.190173 0.123877 0.754402
0.190634 0.125603 0.754701
0.19111 0.127357 0.755069
0.191527 0.128999 0.75513
0.19184 0.130437 0.754652
0.192114 0.131799 0.753972
0.19244 0.133263 0.753561
0.192793 0.13478 0.753288
0.193188 0.13638 0.753225
0.193661 0.138136 0.753559
0.194149 0.139925 0.753969
0.194644 0.141728 0.754408
0.195145 0.143544 0.754869
0.195679 0.145429 0.755495
0.196212 0.147315 0.756113
0.196729 0.149169 0.756642
0.19718 0.150894 0.75684
0.197573 0.152501 0.75674
0.197956 0.154089 0.75659
0.198205 0.155404 0.755773
0.198432 0.156676 0.754849
0.198618 0.157862 0.753724
0.198803 0.159043 0.752595
0.198955 0.160157 0.751309
0.199143 0.161345 0.750207
0.199369 0.162607 0.749286
0.199612 0.163905 0.748457
0.199874 0.165241 0.747721
0.200185 0.166678 0.747223
0.200536 0.1682 0.746921
0.200945 0.169841 0.746898
0.201446 0.171677 0.747318
0.20204 0.173708 0.748181
0.202592 0.175655 0.748837
0.203173 0.177663 0.749624
0.18221 0.0819118 0.796971
0.181526 0.0816063 0.790709
0.181126 0.0817942 0.786101
0.180827 0.0821534 0.782089
0.180699 0.0828131 0.779073
0.18072 0.083735 0.776916
0.180761 0.0846892 0.774878
0.180744 0.0855356 0.772522
0.180769 0.0864536 0.77041
0.180804 0.0873876 0.768367
0.180842 0.0883228 0.766345
0.180879 0.0892552 0.764332
0.180977 0.090294 0.762659
0.181091 0.0913625 0.761089
0.181254 0.0925181 0.759793
0.181412 0.0936618 0.758471
0.18163 0.0949162 0.757487
0.181877 0.0962229 0.756663
0.182141 0.097561 0.755934
0.182379 0.0988501 0.755066
0.182656 0.100213 0.754416
0.182887 0.101487 0.753513
0.183052 0.102636 0.752253
0.183259 0.103864 0.751229
0.183485 0.105125 0.750305
0.183753 0.106466 0.749611
0.184116 0.107988 0.74943
0.184526 0.109603 0.749503
0.184924 0.111193 0.749502
0.185424 0.112982 0.750047
0.185904 0.114734 0.750482
0.186437 0.116592 0.751196
0.187003 0.118516 0.752075
0.187569 0.120442 0.752948
0.188133 0.122366 0.753803
0.188731 0.124359 0.754829
0.189273 0.126247 0.755556
0.189798 0.128101 0.756185
0.190235 0.129785 0.756352
0.190581 0.131289 0.756041
0.190872 0.132685 0.755445
0.191198 0.134151 0.755031
0.191519 0.135607 0.754594
0.191908 0.137198 0.754502
0.192376 0.138949 0.754817
0.192882 0.140777 0.755319
0.193382 0.142594 0.755787
0.193914 0.144479 0.756416
0.194442 0.146359 0.75702
0.194921 0.148139 0.757367
0.195383 0.149889 0.757627
0.195781 0.151508 0.757558
0.196121 0.153008 0.757193
0.196434 0.154455 0.756695
0.196642 0.155686 0.75567
0.196817 0.156846 0.754479
0.196972 0.157966 0.753197
0.19714 0.15911 0.751981
0.197312 0.160262 0.750789
0.197504 0.161452 0.749696
0.197746 0.162746 0.748858
0.198004 0.164074 0.748099
0.198266 0.165408 0.747362
0.198562 0.166815 0.746793
0.198896 0.168298 0.746406
0.199267 0.169862 0.746205
0.199712 0.171581 0.74636
0.200248 0.173496 0.746958
0.200757 0.175354 0.747418
0.201265 0.177211 0.747865
0.180854 0.0835309 0.795834
0.180492 0.0837771 0.791389
0.180067 0.0839022 0.786604
0.179806 0.0843166 0.782787
0.179681 0.08497 0.779763
0.179574 0.0856524 0.776859
0.179425 0.0862522 0.773726
0.179497 0.0872513 0.771861
0.179582 0.0882738 0.770085
0.17966 0.0892796 0.768271
0.179709 0.0902288 0.766301
0.179811 0.0912733 0.764637
0.179906 0.0923025 0.762939
0.180011 0.0933482 0.761305
0.180117 0.0943933 0.759682
0.180298 0.0955766 0.758482
0.180479 0.0967604 0.757291
0.180697 0.0980096 0.756299
0.180902 0.0992359 0.755247
0.181133 0.10051 0.754339
0.18133 0.101717 0.753245
0.181466 0.102807 0.75182
0.181644 0.103975 0.750628
0.181839 0.105176 0.749537
0.182074 0.106452 0.748664
0.182401 0.107905 0.748294
0.182794 0.109486 0.74828
0.183175 0.111045 0.748198
0.183677 0.112839 0.748765
0.184185 0.11465 0.749365
0.184719 0.116511 0.750094
0.185403 0.118671 0.75162
0.186096 0.120851 0.753183
0.186779 0.123016 0.754683
0.187479 0.125219 0.756265
0.188128 0.127326 0.75757
0.18864 0.129161 0.758137
0.189047 0.130789 0.758147
0.189394 0.132298 0.75784
0.189674 0.133673 0.75718
0.189971 0.13508 0.756607
0.190258 0.136469 0.755988
0.190625 0.138019 0.755783
0.191075 0.139737 0.756007
0.191598 0.141606 0.75661
0.192118 0.14347 0.757188
0.192668 0.145397 0.757915
0.193175 0.147238 0.758415
0.193628 0.14897 0.758633
0.194035 0.150609 0.758615
0.194362 0.152085 0.758186
0.194631 0.153441 0.757463
0.194886 0.154767 0.756667
0.195027 0.155856 0.755297
0.19515 0.156907 0.753843
0.195305 0.15802 0.752549
0.195476 0.159168 0.751347
0.195668 0.160357 0.750251
0.195878 0.161583 0.749245
0.196123 0.16288 0.748417
0.196368 0.164179 0.747593
0.196631 0.165515 0.746859
0.196913 0.166888 0.746218
0.197229 0.168335 0.745749
0.197598 0.169894 0.74554
0.198021 0.171571 0.745599
0.198503 0.173372 0.745939
0.198988 0.175182 0.746294
0.199473 0.176992 0.74664
0.180216 0.085555 0.801268
0.179892 0.0858616 0.796989
0.179479 0.0859986 0.792215
0.179218 0.086405 0.788345
0.179073 0.0870186 0.785167
0.178935 0.0876383 0.782039
0.178788 0.0882382 0.77888
0.178733 0.0890018 0.776259
0.178669 0.0897457 0.773602
0.178621 0.0905135 0.771042
0.178518 0.0911761 0.768186
0.178463 0.0919232 0.765613
0.17855 0.0929331 0.763854
0.178637 0.0939424 0.762108
0.178713 0.094927 0.760303
0.178859 0.0960407 0.758894
0.178977 0.0971006 0.757337
0.179144 0.0982524 0.756062
0.179287 0.0993573 0.754659
0.179472 0.10054 0.753492
0.179653 0.101712 0.752301
0.17979 0.1028 0.750876
0.179953 0.103935 0.749598
0.180132 0.105102 0.748416
0.180345 0.106331 0.74742
0.18061 0.107662 0.746713
0.180953 0.109145 0.746434
0.181303 0.110643 0.746194
0.181787 0.112405 0.74668
0.182279 0.114184 0.747206
0.182809 0.116041 0.747932
0.18348 0.11818 0.749413
0.18434 0.1207 0.751902
0.185195 0.123216 0.754352
0.186054 0.125743 0.756801
0.186867 0.128186 0.758997
0.187518 0.130307 0.760315
0.187892 0.131872 0.760147
0.188239 0.133384 0.759837
0.188519 0.134759 0.759169
0.188801 0.13614 0.758518
0.1891 0.137552 0.757951
0.189481 0.139134 0.757818
0.189978 0.140953 0.758292
0.190607 0.143045 0.759449
0.191234 0.145137 0.76059
0.191856 0.14722 0.761694
0.192428 0.149203 0.762531
0.192782 0.150738 0.762237
0.193033 0.152058 0.761407
0.193181 0.153164 0.760053
0.193257 0.154117 0.75833
0.193311 0.155021 0.756499
0.19338 0.155956 0.754756
0.193452 0.156895 0.753033
0.193609 0.158008 0.751744
0.193799 0.15919 0.750629
0.194026 0.160451 0.749707
0.194274 0.161754 0.748891
0.194522 0.163058 0.748078
0.194768 0.164356 0.747257
0.19503 0.165687 0.746516
0.195294 0.167023 0.745789
0.195578 0.168399 0.745157
0.195944 0.169953 0.744937
0.196348 0.17159 0.744908
0.196792 0.173312 0.745073
0.197258 0.175084 0.74534
0.19772 0.176847 0.745584
0.180859 0.085817 0.807436
0.179888 0.0872843 0.811076
0.1795 0.0874723 0.806344
0.178608 0.0884919 0.793885
0.178438 0.0890543 0.790518
0.178292 0.0896569 0.78731
0.178162 0.0902814 0.7842
0.178118 0.0910649 0.781614
0.178088 0.091868 0.779111
0.177894 0.0923594 0.775678
0.177635 0.0927211 0.771885
0.177419 0.0931577 0.768355
0.177338 0.0938455 0.765614
0.177243 0.0945034 0.76281
0.177294 0.0954349 0.760845
0.177407 0.0964841 0.759244
0.177451 0.0973966 0.757254
0.177556 0.0984257 0.755622
0.177637 0.0994047 0.753856
0.177803 0.100547 0.752577
0.177956 0.101662 0.751228
0.178096 0.10275 0.749812
0.178235 0.103833 0.748393
0.178397 0.104963 0.747115
0.178563 0.106097 0.745857
0.178777 0.107323 0.744867
0.179071 0.108708 0.744325
0.1794 0.110164 0.743979
0.179836 0.111831 0.744215
0.180293 0.113542 0.744565
0.18077 0.115295 0.745022
0.181377 0.11731 0.746178
0.182415 0.120197 0.749675
0.183484 0.123153 0.753316
0.184555 0.126122 0.756949
0.18558 0.129005 0.760312
0.186421 0.131521 0.762666
0.186756 0.13301 0.762287
0.1871 0.134517 0.761954
0.187379 0.135893 0.761281
0.187663 0.137278 0.760628
0.187978 0.138726 0.760142
0.188376 0.140344 0.760095
0.188912 0.142251 0.760781
0.189615 0.144506 0.762339
0.190338 0.146806 0.763992
0.19104 0.149066 0.765523
0.19167 0.151179 0.766668
0.191989 0.152644 0.766179
0.192096 0.153664 0.764587
0.19206 0.154382 0.76226
0.191947 0.154934 0.759541
0.191821 0.155453 0.756765
0.19177 0.15613 0.754392
0.19181 0.156992 0.752487
0.191965 0.1581 0.751191
0.192162 0.159293 0.750105
0.192395 0.160563 0.749209
0.19266 0.161902 0.748481
0.192908 0.163203 0.747667
0.193154 0.164498 0.74684
0.193413 0.16582 0.746081
0.19369 0.167184 0.74542
0.193972 0.168555 0.744779
0.194321 0.170072 0.744477
0.194707 0.171671 0.744362
0.195116 0.17332 0.74436
0.19556 0.175045 0.744525
0.196002 0.176767 0.744681
0.199291 0.18102 0.751277
0.197165 0.180073 0.748409
0.1777 0.090936 0.795372
0.17752 0.0923352 0.789542
0.177511 0.0931811 0.78712
0.177513 0.094044 0.784773
0.17733 0.0945494 0.781355
0.176918 0.0946104 0.77662
0.176509 0.0946693 0.771927
0.176239 0.0949877 0.768061
0.175953 0.0952696 0.764123
0.175806 0.0958133 0.761001
0.175865 0.0967521 0.759076
0.17585 0.0975435 0.756733
0.175908 0.0984744 0.754819
0.175957 0.099386 0.752864
0.176108 0.100495 0.751495
0.176248 0.10158 0.750068
0.176391 0.102669 0.748663
0.176504 0.103696 0.747091
0.176652 0.104791 0.745724
0.176788 0.105862 0.744298
0.17697 0.107021 0.743129
0.17723 0.108335 0.742399
0.177522 0.109714 0.741852
0.177879 0.111225 0.741667
0.178283 0.112829 0.741737
0.178706 0.114472 0.741908
0.179252 0.116368 0.742757
0.18049 0.119674 0.747399
0.181777 0.12309 0.75228
0.183095 0.12658 0.757308
0.184339 0.129929 0.761903
0.185378 0.132863 0.765353
0.185678 0.134284 0.764783
0.186021 0.135793 0.764443
0.186319 0.137207 0.763855
0.186621 0.138632 0.763296
0.186973 0.140159 0.763001
0.187422 0.141889 0.763227
0.188002 0.143894 0.764146
0.188747 0.146248 0.765938
0.189532 0.148691 0.767933
0.190278 0.151057 0.76971
0.190919 0.153205 0.77092
0.191225 0.155437 0.768175
0.191027 0.155807 0.764972
0.190728 0.155954 0.76125
0.19042 0.156077 0.757501
0.190246 0.156482 0.754465
0.190219 0.157196 0.752204
0.190348 0.158243 0.75076
0.19055 0.159443 0.749696
0.1908 0.160748 0.748886
0.191065 0.162085 0.748156
0.191312 0.163381 0.74733
0.191556 0.164672 0.746496
0.191814 0.165991 0.745731
0.192092 0.167352 0.74507
0.192373 0.168723 0.74443
0.192706 0.170204 0.744046
0.193073 0.171761 0.743838
0.193444 0.173329 0.743653
0.193868 0.175012 0.743725
0.194291 0.176696 0.743796
0.195082 0.179194 0.745703
0.175704 0.0964117 0.776188
0.175224 0.0963129 0.771051
0.174705 0.0961274 0.765707
0.174347 0.0962484 0.761326
0.17422 0.0968165 0.758307
0.174174 0.097539 0.755769
0.174206 0.0984114 0.753692
0.174256 0.0993171 0.751728
0.174394 0.100396 0.750281
0.174538 0.101483 0.748866
0.174695 0.102596 0.747539
0.174808 0.103617 0.745957
0.174958 0.104712 0.744597
0.17508 0.105748 0.74308
0.175236 0.106851 0.741763
0.175449 0.10807 0.740776
0.17571 0.109383 0.740056
0.176003 0.11076 0.739514
0.176354 0.112257 0.739301
0.176722 0.11379 0.739183
0.177464 0.116089 0.741139
0.178916 0.119855 0.747022
0.180417 0.123735 0.753147
0.181956 0.127703 0.75944
0.183392 0.131473 0.76514
0.184366 0.134293 0.768267
0.184623 0.135626 0.76745
0.184954 0.137112 0.767037
0.185272 0.138571 0.766555
0.185597 0.140045 0.766111
0.186003 0.141689 0.766102
0.186475 0.143474 0.766453
0.187072 0.145525 0.767473
0.187801 0.147856 0.769189
0.188596 0.150334 0.771255
0.189327 0.152679 0.772963
0.190244 0.157004 0.771245
0.189981 0.157223 0.76766
0.189556 0.157089 0.763237
0.189123 0.15693 0.758794
0.188829 0.157065 0.755099
0.188734 0.157623 0.752462
0.188817 0.158568 0.75077
0.189004 0.159734 0.749627
0.189239 0.161004 0.748732
0.1895 0.16233 0.747977
0.189728 0.163583 0.747053
0.189958 0.16484 0.746142
0.19022 0.166167 0.7454
0.190486 0.167502 0.744675
0.190753 0.168838 0.743959
0.191082 0.170312 0.743561
0.19143 0.171828 0.743263
0.191783 0.173355 0.742985
0.192201 0.175026 0.743035
0.192636 0.176739 0.743172
0.193079 0.178468 0.743343
0.196244 0.18252 0.749449
0.193852 0.180938 0.745174
0.174312 0.0978617 0.774704
0.173571 0.0972217 0.767992
0.173016 0.0969392 0.762408
0.172683 0.0970879 0.758151
0.172472 0.0974723 0.754626
0.172533 0.0983971 0.75271
0.172603 0.0993358 0.750849
0.172748 0.100423 0.749431
0.172893 0.101508 0.74802
0.173037 0.102588 0.746603
0.173122 0.10355 0.74486
0.173271 0.104637 0.743484
0.173382 0.105647 0.741902
0.173529 0.106725 0.740523
0.173729 0.107912 0.739455
0.173973 0.10919 0.738644
0.174219 0.110469 0.737842
0.174522 0.111866 0.737364
0.174856 0.113327 0.737062
0.175753 0.115956 0.73992
0.177367 0.120083 0.746776
0.179021 0.12431 0.753824
0.180722 0.128646 0.761088
0.182303 0.132745 0.767646
0.183242 0.135509 0.770611
0.183517 0.13688 0.769884
0.183866 0.138408 0.769567
0.184205 0.139914 0.769195
0.184551 0.141434 0.768857
0.18499 0.143153 0.769029
0.185481 0.144983 0.76948
0.186075 0.147037 0.770492
0.186776 0.149322 0.772076
0.187535 0.151736 0.773964
0.188219 0.15399 0.775428
0.189097 0.158236 0.773481
0.188833 0.158443 0.769858
0.188373 0.158216 0.765203
0.187852 0.157849 0.760245
0.187501 0.157848 0.756218
0.187337 0.158248 0.753193
0.187355 0.159042 0.751141
0.187494 0.160101 0.749737
0.187708 0.161324 0.748734
0.187934 0.162571 0.747792
0.188148 0.16379 0.746789
0.18838 0.165049 0.745884
0.188647 0.166385 0.745163
0.188914 0.16772 0.744444
0.18918 0.169054 0.743723
0.189506 0.170522 0.743314
0.189838 0.172002 0.742931
0.190189 0.173526 0.742649
0.19059 0.17516 0.742617
0.191023 0.17687 0.742751
0.191496 0.178671 0.743086
0.191991 0.180522 0.743524
0.195612 0.185629 0.751956
0.193464 0.184593 0.748921
0.172744 0.0989491 0.772156
0.171878 0.0980253 0.764658
0.171244 0.0975553 0.758572
0.170795 0.0974481 0.753609
0.170864 0.0983813 0.751725
0.170974 0.0993936 0.750086
0.171149 0.100537 0.748836
0.171283 0.101597 0.747356
0.171413 0.102645 0.745854
0.171483 0.103568 0.744006
0.171619 0.104624 0.742549
0.17172 0.105607 0.740898
0.171895 0.106738 0.739675
0.172111 0.107956 0.738698
0.172355 0.109231 0.737885
0.172587 0.110479 0.737001
0.172876 0.111845 0.736444
0.173182 0.113247 0.735987
0.17437 0.1165 0.740533
0.176114 0.120934 0.748203
0.177901 0.12547 0.756066
0.179665 0.129975 0.763762
0.181306 0.134234 0.770722
0.182032 0.136561 0.772517
0.182324 0.137971 0.771883
0.182691 0.139538 0.771661
0.183046 0.141081 0.771372
0.183405 0.142632 0.771105
0.183831 0.144327 0.771203
0.184289 0.146093 0.77148
0.184814 0.148006 0.772123
0.185392 0.150035 0.773047
0.186024 0.152182 0.774257
0.187377 0.159003 0.770431
0.187021 0.158989 0.766296
0.186591 0.158805 0.761785
0.186213 0.158726 0.757565
0.185996 0.159 0.754235
0.185944 0.159632 0.75179
0.186016 0.16054 0.750022
0.186182 0.161651 0.748753
0.186375 0.162824 0.747636
0.186573 0.164006 0.746544
0.186806 0.165264 0.74564
0.187073 0.1666 0.744923
0.18734 0.167933 0.744198
0.187603 0.169259 0.743461
0.187942 0.170754 0.743117
0.18826 0.172203 0.742665
0.188615 0.173737 0.742407
0.189031 0.175407 0.742457
0.189478 0.177152 0.742671
0.189965 0.178987 0.743084
0.190494 0.180921 0.743709
0.191733 0.184481 0.74796
0.195083 0.189006 0.755029
0.193142 0.188443 0.753058
0.196761 0.193565 0.761398
0.170695 0.0990366 0.766681
0.169765 0.0979428 0.758757
0.169082 0.0973412 0.752354
0.1692 0.0983668 0.750747
0.169349 0.099454 0.749332
0.169528 0.100601 0.748098
0.169676 0.101685 0.746693
0.169793 0.102701 0.745102
0.169862 0.103615 0.743237
0.169997 0.104664 0.741767
0.170113 0.105673 0.740196
0.170306 0.10684 0.739076
0.170552 0.108118 0.738268
0.170786 0.109367 0.737389
0.171032 0.110643 0.736585
0.17132 0.112007 0.736026
0.171629 0.113415 0.735585
0.173109 0.117307 0.741857
0.174945 0.121971 0.750131
0.176785 0.126659 0.758381
0.178583 0.131274 0.766349
0.180245 0.135611 0.773496
0.180729 0.137431 0.773939
0.18104 0.138879 0.773401
0.181423 0.140485 0.77327
0.181776 0.142026 0.77297
0.182132 0.143572 0.772683
0.182536 0.145223 0.772662
0.182958 0.146915 0.772741
0.18554 0.159483 0.766706
0.185208 0.159499 0.762684
0.184869 0.159493 0.758643
0.184637 0.159719 0.755192
0.184536 0.160236 0.752468
0.184572 0.161055 0.750488
0.184704 0.162089 0.749034
0.184881 0.163222 0.747822
0.185064 0.164366 0.746643
