ply
format ascii 1.0
element vertex 1731
property float x
property float y
property float z
end_header
0.178892 -0.197111 0.896541
0.177566 -0.197366 0.897812
0.176239 -0.197624 0.899096
0.174893 -0.197863 0.900271
0.173519 -0.198071 0.901251
0.172122 -0.198251 0.902068
0.170747 -0.198463 0.903074
0.169386 -0.198697 0.90421
0.168023 -0.198932 0.90536
0.166656 -0.199166 0.906496
0.165241 -0.199337 0.907256
0.163791 -0.199461 0.907733
0.162318 -0.199554 0.908025
0.160836 -0.199635 0.90824
0.159326 -0.199674 0.908208
0.157804 -0.199693 0.908061
0.156281 -0.199708 0.907881
0.154722 -0.199665 0.907365
0.153121 -0.199553 0.906428
0.151509 -0.199418 0.905355
0.149898 -0.199276 0.90424
0.148276 -0.199108 0.902974
0.146698 -0.199002 0.902082
0.145646 -0.199781 0.906471
0.144672 -0.200719 0.911811
0.14374 -0.201762 0.917771
0.14275 -0.202733 0.923305
0.141687 -0.203606 0.928244
0.140168 -0.203663 0.928323
0.138652 -0.203726 0.928426
0.137131 -0.203776 0.928458
0.135658 -0.203918 0.929037
0.134214 -0.204122 0.929984
0.132772 -0.204334 0.930982
0.131378 -0.20465 0.932595
0.12999 -0.204987 0.934335
0.128613 -0.205361 0.936293
0.127245 -0.205767 0.938441
0.125884 -0.206203 0.940768
0.124478 -0.206552 0.942574
0.123057 -0.206879 0.944241
0.121606 -0.207138 0.945514
0.120738 -0.208874 0.955558
0.247822 -0.195372 0.898255
0.249526 -0.195442 0.898955
0.249463 -0.196852 0.89821
0.247757 -0.196779 0.8975
0.246031 -0.196689 0.89668
0.237241 -0.196056 0.891514
0.23585 -0.196215 0.892203
0.234426 -0.196348 0.89274
0.233094 -0.196559 0.893734
0.23185 -0.196844 0.895182
0.23056 -0.197095 0.896422
0.229116 -0.197217 0.896889
0.227446 -0.197146 0.896194
0.225231 -0.196601 0.892647
0.222877 -0.195922 0.888305
0.220528 -0.195232 0.883897
0.218287 -0.194623 0.879979
0.216317 -0.194246 0.877448
0.214719 -0.194195 0.876882
0.213122 -0.194143 0.876309
0.211511 -0.194076 0.875646
0.209934 -0.194036 0.875149
0.208349 -0.193986 0.874589
0.206851 -0.194017 0.874517
0.205417 -0.194108 0.874802
0.203992 -0.194207 0.875138
0.20262 -0.19436 0.875793
0.201244 -0.194509 0.876425
0.199853 -0.194644 0.876979
0.198409 -0.194727 0.877215
0.197025 -0.194872 0.877821
0.195657 -0.195033 0.878527
0.194293 -0.195201 0.879273
0.192942 -0.195384 0.88011
0.191621 -0.195601 0.881151
0.190347 -0.195873 0.882515
0.18908 -0.196156 0.883948
0.187877 -0.196517 0.885839
0.186722 -0.196936 0.888082
0.185525 -0.197316 0.890084
0.184336 -0.197711 0.892184
0.1831 -0.198061 0.894005
0.1818 -0.198339 0.895409
0.180464 -0.19858 0.89658
0.179143 -0.198842 0.897881
0.177743 -0.199012 0.898632
0.176342 -0.199184 0.899393
0.17497 -0.199392 0.900376
0.173563 -0.19956 0.901109
0.172156 -0.19973 0.901857
0.170792 -0.199957 0.90295
0.16944 -0.200206 0.904166
0.168068 -0.20043 0.905237
0.166678 -0.200634 0.906192
0.165249 -0.200787 0.906838
0.163775 -0.200879 0.907122
0.162281 -0.200942 0.907235
0.16079 -0.201007 0.90736
0.15928 -0.201045 0.907325
0.157751 -0.201051 0.9071
0.156218 -0.201049 0.90683
0.15465 -0.20099 0.906226
0.15305 -0.200875 0.905287
0.151441 -0.20074 0.904225
0.149842 -0.200613 0.903216
0.148216 -0.200432 0.901896
0.146631 -0.200314 0.900934
0.145602 -0.201136 0.905542
0.144646 -0.202113 0.911059
0.143727 -0.203184 0.91713
0.14277 -0.204222 0.923009
0.141743 -0.205171 0.928346
0.140218 -0.205218 0.928365
0.138701 -0.20528 0.928465
0.137171 -0.205314 0.928406
0.135687 -0.205436 0.928867
0.13422 -0.205595 0.929536
0.132764 -0.205777 0.930351
0.131349 -0.206053 0.931719
0.129967 -0.206405 0.933529
0.128591 -0.20678 0.935475
0.127237 -0.207221 0.937811
0.125885 -0.207681 0.940254
0.1245 -0.208081 0.942348
0.123088 -0.208427 0.944122
0.121642 -0.208704 0.945491
0.250985 -0.198242 0.897613
0.249391 -0.198255 0.897424
0.247697 -0.19819 0.896768
0.245976 -0.1981 0.895969
0.244142 -0.196469 0.895079
0.244112 -0.197896 0.89448
0.242338 -0.196308 0.893843
0.242316 -0.19774 0.893286
0.240518 -0.196132 0.892511
0.240516 -0.197576 0.892044
0.238833 -0.196057 0.891794
0.238852 -0.197517 0.891431
0.237212 -0.197475 0.890916
0.235726 -0.197557 0.891144
0.23422 -0.197622 0.891267
0.232782 -0.197743 0.891726
0.231396 -0.197909 0.89245
0.229978 -0.198048 0.89302
0.228383 -0.198036 0.892687
0.226551 -0.197818 0.891128
0.22444 -0.19735 0.888079
0.22226 -0.19681 0.884615
0.220118 -0.196292 0.881276
0.218101 -0.195874 0.878534
0.216338 -0.195677 0.877108
0.21474 -0.195626 0.876548
0.213142 -0.195572 0.875972
0.21152 -0.195491 0.875242
0.209943 -0.195451 0.874749
0.208358 -0.1954 0.874191
0.206874 -0.195444 0.874198
0.205441 -0.195535 0.874489
0.20403 -0.195649 0.874908
0.202659 -0.195803 0.87557
0.201308 -0.195979 0.876357
0.199928 -0.196127 0.876981
0.198497 -0.196223 0.877297
0.197113 -0.196369 0.877907
0.195743 -0.19653 0.878608
0.194365 -0.196684 0.87927
0.193013 -0.196868 0.880103
0.191742 -0.197143 0.881474
0.190538 -0.197494 0.883297
0.189369 -0.197891 0.885388
0.188252 -0.198354 0.88787
0.187152 -0.198844 0.890511
0.185967 -0.199247 0.892632
0.184752 -0.199621 0.894588
0.183457 -0.199908 0.896026
0.182082 -0.200105 0.896932
0.180689 -0.200282 0.897722
0.179302 -0.200469 0.898565
0.177866 -0.200596 0.899062
0.176441 -0.20074 0.899651
0.175057 -0.200937 0.900558
0.17364 -0.201093 0.901219
0.172233 -0.201265 0.901978
0.170859 -0.201481 0.902997
0.169495 -0.201715 0.904121
0.168109 -0.201925 0.905093
0.166696 -0.202098 0.905862
0.165244 -0.20222 0.906321
0.163748 -0.202279 0.906411
0.162232 -0.202309 0.906335
0.16073 -0.202358 0.906362
0.159211 -0.20238 0.906239
0.157664 -0.202355 0.905845
0.156105 -0.20231 0.905326
0.154509 -0.202204 0.904448
0.152901 -0.20207 0.903411
0.151305 -0.201949 0.902451
0.149723 -0.201844 0.901586
0.148127 -0.20171 0.900546
0.146578 -0.201645 0.899916
0.145566 -0.202502 0.904683
0.14462 -0.203503 0.910288
0.143717 -0.204612 0.916529
0.142777 -0.205692 0.922588
0.141767 -0.206678 0.9281
0.14025 -0.206742 0.928216
0.138733 -0.206803 0.928315
0.137202 -0.206835 0.92825
0.135703 -0.206927 0.92853
0.13422 -0.207056 0.929022
0.132749 -0.207206 0.92965
0.131333 -0.20748 0.930989
0.129938 -0.207807 0.932639
0.128563 -0.208186 0.934598
0.127218 -0.208648 0.937032
0.125874 -0.209129 0.939577
0.124499 -0.209552 0.941788
0.123105 -0.209949 0.943838
0.121672 -0.21026 0.9454
0.254151 -0.198196 0.897872
0.25563 -0.199554 0.897076
0.254035 -0.199568 0.8969
0.25258 -0.198228 0.897799
0.252465 -0.199601 0.89683
0.250888 -0.199626 0.896717
0.249291 -0.199635 0.896511
0.247592 -0.199564 0.895829
0.245864 -0.199466 0.894994
0.244036 -0.199286 0.893668
0.24227 -0.199151 0.892614
0.240481 -0.198993 0.891421
0.238816 -0.198932 0.890804
0.237141 -0.198859 0.890119
0.235576 -0.198875 0.889954
0.233985 -0.198868 0.889656
0.232428 -0.198887 0.889514
0.230915 -0.198942 0.889583
0.229358 -0.198959 0.889427
0.227625 -0.198822 0.888367
0.225677 -0.198493 0.886174
0.22369 -0.198121 0.883731
0.221668 -0.197709 0.881054
0.219728 -0.197362 0.878762
0.217917 -0.197123 0.877104
0.216347 -0.197098 0.87671
0.214762 -0.197057 0.876218
0.213165 -0.197002 0.875646
0.211557 -0.196935 0.875
0.209996 -0.196909 0.874597
0.208426 -0.196871 0.874131
0.206944 -0.196916 0.874144
0.205509 -0.197007 0.874433
0.204097 -0.197121 0.874851
0.202723 -0.197273 0.875498
0.201373 -0.19745 0.87629
0.199993 -0.1976 0.876918
0.198574 -0.19771 0.877314
0.197202 -0.197869 0.878002
0.19582 -0.198019 0.878634
0.194429 -0.198161 0.879217
0.193147 -0.198423 0.880502
0.191958 -0.19879 0.882405
0.190829 -0.199229 0.884727
0.189756 -0.199741 0.887473
0.188726 -0.200311 0.890553
0.187608 -0.200791 0.893109
0.1864 -0.201176 0.895108
0.185115 -0.201477 0.896616
0.183738 -0.201674 0.897515
0.182284 -0.201779 0.89788
0.180838 -0.201896 0.898311
0.179382 -0.202 0.898671
0.177933 -0.202114 0.899086
0.176507 -0.202257 0.899671
0.175123 -0.202456 0.900581
0.173696 -0.202601 0.901177
0.172289 -0.202774 0.901936
0.170912 -0.202989 0.902939
0.169526 -0.203195 0.903888
0.168117 -0.203374 0.904682
0.166682 -0.203517 0.905264
0.165208 -0.203607 0.905538
0.16368 -0.20362 0.905362
0.162154 -0.203633 0.905191
0.160642 -0.203664 0.905124
0.159087 -0.20363 0.904675
0.157511 -0.203558 0.904008
0.155913 -0.203446 0.903114
0.15428 -0.203275 0.90187
0.152656 -0.203107 0.900654
0.151092 -0.203029 0.899954
0.149552 -0.202986 0.899459
0.148007 -0.20293 0.898887
0.1466 -0.203104 0.899652
0.145628 -0.204039 0.904828
0.144702 -0.205085 0.910641
0.143807 -0.206219 0.916966
0.142876 -0.207327 0.923131
0.141783 -0.208171 0.927765
0.140267 -0.208235 0.927888
0.138751 -0.208298 0.928
0.13722 -0.20833 0.927937
0.135712 -0.208407 0.928128
0.134228 -0.208532 0.928599
0.132762 -0.208695 0.92929
0.131338 -0.208954 0.930539
0.129943 -0.209281 0.932175
0.128568 -0.209663 0.934132
0.127224 -0.210131 0.936583
0.125881 -0.210618 0.939144
0.124518 -0.211076 0.941531
0.123133 -0.211493 0.943689
0.121713 -0.211841 0.94544
0.257112 -0.200913 0.896289
0.255532 -0.200939 0.896187
0.253937 -0.200952 0.896006
0.25237 -0.200986 0.895945
0.250792 -0.201009 0.895829
0.249195 -0.201016 0.895616
0.247516 -0.200958 0.895023
0.245775 -0.200848 0.894122
0.243966 -0.20068 0.892886
0.242218 -0.200557 0.891914
0.240448 -0.200411 0.890812
0.238786 -0.200351 0.890207
0.237112 -0.200277 0.889525
0.235478 -0.200234 0.889022
0.233813 -0.200163 0.888355
0.232166 -0.200103 0.887759
0.230502 -0.200027 0.887064
0.228813 -0.199925 0.886219
0.226972 -0.199686 0.884581
0.225107 -0.199421 0.882789
0.223222 -0.199131 0.880848
0.221364 -0.198858 0.879013
0.219592 -0.198656 0.87759
0.217956 -0.198572 0.876861
0.216372 -0.198534 0.876392
0.214801 -0.198506 0.875983
0.213218 -0.198463 0.87549
0.211624 -0.198407 0.874925
0.210079 -0.198395 0.874612
0.208525 -0.198373 0.874238
0.207057 -0.198432 0.874341
0.20562 -0.198523 0.874625
0.204218 -0.198647 0.875104
0.202829 -0.198786 0.875671
0.201477 -0.198964 0.876462
0.200086 -0.199103 0.877024
0.198681 -0.199228 0.877509
0.197311 -0.199392 0.878216
0.195927 -0.199542 0.878843
0.19457 -0.199722 0.879646
0.193379 -0.200087 0.881519
0.192277 -0.200556 0.883993
0.191224 -0.201089 0.886836
0.190216 -0.201682 0.890028
0.189198 -0.202277 0.893223
0.188005 -0.20268 0.895309
0.186723 -0.202986 0.896837
0.185358 -0.203199 0.897824
0.183916 -0.203322 0.898288
0.182401 -0.203356 0.898243
0.180931 -0.203444 0.898505
0.179442 -0.203508 0.898632
0.177991 -0.203621 0.899036
0.176565 -0.203765 0.899625
0.175181 -0.203966 0.900541
0.173753 -0.204111 0.901137
0.172344 -0.204283 0.90188
0.170953 -0.204482 0.902784
0.169543 -0.204656 0.903548
0.168112 -0.204805 0.904161
0.166654 -0.204917 0.904561
0.16515 -0.204963 0.904581
0.163592 -0.20493 0.904146
0.162018 -0.20487 0.90356
0.16044 -0.204799 0.902909
0.158827 -0.204669 0.901922
0.157214 -0.204532 0.900891
0.155579 -0.204354 0.899626
0.153948 -0.204174 0.89835
0.152351 -0.20404 0.897342
0.150828 -0.20402 0.896987
0.149332 -0.204041 0.896869
0.147851 -0.204084 0.896877
0.146606 -0.204535 0.899226
0.145704 -0.205601 0.905105
0.144832 -0.206753 0.911469
0.143971 -0.207965 0.918178
0.142965 -0.208949 0.923576
0.141783 -0.209634 0.92726
0.140276 -0.209714 0.927471
0.138752 -0.209762 0.927501
0.137221 -0.209793 0.927432
0.135705 -0.209853 0.927534
0.134207 -0.209948 0.927832
0.132733 -0.210093 0.928419
0.13131 -0.210353 0.929662
0.129915 -0.210682 0.931297
0.128541 -0.211069 0.933262
0.127196 -0.211533 0.935671
0.125859 -0.212036 0.938304
0.124509 -0.212527 0.940864
0.123132 -0.212971 0.943147
0.121728 -0.213357 0.945108
0.258676 -0.200875 0.896321
0.258604 -0.202281 0.895551
0.257025 -0.202307 0.895454
0.255456 -0.20234 0.895394
0.25387 -0.202359 0.895251
0.252316 -0.202401 0.895244
0.25072 -0.202409 0.895047
0.249122 -0.202414 0.894826
0.247442 -0.202353 0.894224
0.245704 -0.202243 0.893337
0.243914 -0.202087 0.89219
0.242184 -0.201976 0.891297
0.240433 -0.201844 0.890287
0.238773 -0.201782 0.889687
0.237101 -0.201709 0.889017
0.235431 -0.201634 0.888339
0.233714 -0.201516 0.887411
0.231997 -0.201394 0.886465
0.230264 -0.201255 0.885419
0.228555 -0.201132 0.884464
0.226776 -0.200943 0.883131
0.224981 -0.200735 0.88169
0.223186 -0.200521 0.880211
0.221397 -0.200307 0.878737
0.219672 -0.200145 0.877562
0.218024 -0.200049 0.876772
0.216426 -0.199997 0.876233
0.214856 -0.199969 0.875833
0.213288 -0.199939 0.875424
0.211709 -0.199898 0.874946
0.210178 -0.199899 0.874718
0.208653 -0.199905 0.874511
0.207198 -0.199979 0.8747
0.205762 -0.200071 0.874993
0.204343 -0.200181 0.875386
0.202938 -0.200305 0.875863
0.201572 -0.20047 0.876574
0.200168 -0.200597 0.877067
0.198762 -0.200723 0.877553
0.197418 -0.200915 0.878419
0.196074 -0.201109 0.8793
0.194808 -0.201393 0.880688
0.193717 -0.201872 0.883203
0.192701 -0.202446 0.886252
0.191684 -0.203029 0.889358
0.190653 -0.203608 0.892435
0.189534 -0.204095 0.894989
0.188238 -0.204385 0.89641
0.186876 -0.204601 0.897407
0.18546 -0.204757 0.898057
0.183981 -0.204836 0.89827
0.182464 -0.204867 0.898212
0.18099 -0.204952 0.898458
0.179489 -0.205002 0.898502
0.178038 -0.205115 0.898911
0.176621 -0.205272 0.899572
0.175226 -0.20546 0.900405
0.173786 -0.205591 0.900914
0.172375 -0.20576 0.901642
0.170961 -0.205929 0.90237
0.169528 -0.206074 0.902954
0.168075 -0.206191 0.903383
0.166594 -0.20627 0.903595
0.165049 -0.206255 0.903274
0.163443 -0.206147 0.902421
0.161808 -0.205991 0.901297
0.160178 -0.205835 0.900169
0.158506 -0.205608 0.898638
0.156873 -0.20543 0.897392
0.155241 -0.205245 0.896102
0.153626 -0.20508 0.894927
0.152047 -0.204964 0.894037
0.150557 -0.204989 0.893945
0.149078 -0.205031 0.893947
0.147743 -0.205317 0.895342
0.146672 -0.206071 0.899395
0.145839 -0.20727 0.905971
0.145023 -0.208538 0.912939
0.144175 -0.20979 0.919811
0.143049 -0.210563 0.923964
0.141774 -0.211079 0.926653
0.140274 -0.211174 0.926948
0.13875 -0.21122 0.926969
0.137218 -0.211248 0.926889
0.135702 -0.211306 0.926982
0.134189 -0.21137 0.927105
0.132709 -0.211503 0.927615
0.13128 -0.211748 0.928767
0.12988 -0.212066 0.930326
0.128505 -0.212452 0.932272
0.127167 -0.212934 0.934761
0.125835 -0.213452 0.937456
0.124494 -0.213964 0.94011
0.123126 -0.21443 0.942503
0.121735 -0.214856 0.944671
0.258596 -0.203735 0.895062
0.256982 -0.203733 0.89481
0.255417 -0.203768 0.894764
0.253842 -0.203794 0.894669
0.252286 -0.203834 0.894654
0.25069 -0.203841 0.894451
0.249107 -0.203857 0.894304
0.247428 -0.203795 0.893703
0.245673 -0.203669 0.892739
0.2439 -0.203524 0.891668
0.242171 -0.203411 0.890779
0.240422 -0.203279 0.889778
0.238765 -0.203219 0.889194
0.237077 -0.20313 0.888446
0.23537 -0.203022 0.887589
0.233615 -0.202869 0.886476
0.231846 -0.202699 0.885264
0.230067 -0.202515 0.883976
0.228356 -0.202387 0.883007
0.226593 -0.202208 0.881749
0.224835 -0.202029 0.880486
0.223108 -0.201872 0.879357
0.221374 -0.201705 0.878165
0.219682 -0.201571 0.877167
0.218064 -0.201501 0.876536
0.21648 -0.201461 0.876075
0.214913 -0.201435 0.875693
0.213359 -0.201419 0.875367
0.211796 -0.201391 0.874975
0.210279 -0.201407 0.874832
0.208768 -0.201427 0.874713
0.207316 -0.201504 0.874921
0.205878 -0.201596 0.875211
0.204458 -0.201706 0.875604
0.203051 -0.201829 0.876073
0.201682 -0.201993 0.876777
0.200288 -0.202132 0.877333
0.198893 -0.202271 0.877893
0.197637 -0.202561 0.879311
0.196378 -0.202853 0.880734
0.195204 -0.203241 0.882711
0.194213 -0.203842 0.88589
0.193265 -0.204502 0.889404
0.19219 -0.205031 0.892172
0.191083 -0.205533 0.894785
0.18986 -0.205909 0.896681
0.188455 -0.206076 0.897396
0.187013 -0.206201 0.897871
0.185558 -0.206311 0.898259
0.184054 -0.206361 0.898306
0.182545 -0.206404 0.898318
0.181071 -0.206489 0.898564
0.179557 -0.206523 0.898526
0.178104 -0.206635 0.898922
0.176685 -0.206791 0.899572
0.175268 -0.206951 0.900247
0.173817 -0.207067 0.900669
0.172403 -0.207236 0.901389
0.170968 -0.207375 0.901945
0.169502 -0.207475 0.902273
0.168015 -0.207544 0.90243
0.166502 -0.207574 0.90237
0.164896 -0.207467 0.901533
0.163227 -0.207263 0.900145
0.161529 -0.207003 0.898451
0.159854 -0.20677 0.896904
0.158141 -0.206468 0.894971
0.156511 -0.206284 0.893706
0.154901 -0.206123 0.892568
0.153326 -0.206011 0.891706
0.151777 -0.205935 0.891048
0.150312 -0.205993 0.891151
0.148978 -0.206275 0.892512
0.147815 -0.206857 0.895561
0.146919 -0.207927 0.901353
0.145355 -0.210585 0.915844
0.144393 -0.211646 0.921582
0.143144 -0.212202 0.924471
0.141764 -0.212522 0.926033
0.140264 -0.212614 0.92632
0.138731 -0.212642 0.926243
0.137199 -0.212669 0.926159
0.135676 -0.212713 0.926169
0.134157 -0.21276 0.926201
0.132675 -0.212888 0.926683
0.131252 -0.213146 0.927902
0.12984 -0.213439 0.929308
0.128461 -0.213814 0.93118
0.127117 -0.214284 0.933581
0.125786 -0.214803 0.936251
0.124446 -0.21532 0.938916
0.123093 -0.215826 0.941511
0.121719 -0.216292 0.94389
0.120335 -0.215275 0.9468
0.120332 -0.216749 0.946208
0.255392 -0.205206 0.894197
0.253801 -0.205218 0.89403
0.25224 -0.205254 0.893994
0.250638 -0.205255 0.893761
0.249059 -0.205274 0.89363
0.247382 -0.205211 0.893038
0.24563 -0.205085 0.892082
0.243873 -0.204951 0.891088
0.242161 -0.20485 0.890277
0.24043 -0.204729 0.88936
0.238776 -0.204671 0.888792
0.237087 -0.204579 0.88804
0.23536 -0.204452 0.887084
0.233582 -0.204277 0.885859
0.231778 -0.204073 0.884472
0.22998 -0.20387 0.883092
0.228257 -0.203728 0.882055
0.226514 -0.203564 0.880895
0.224793 -0.203414 0.879817
0.223103 -0.203289 0.878879
0.221402 -0.203149 0.877862
0.219756 -0.203056 0.877107
0.218164 -0.203011 0.876622
0.216581 -0.202971 0.87617
0.215028 -0.202958 0.875864
0.213488 -0.202955 0.875622
0.211938 -0.202941 0.875314
0.210422 -0.202958 0.875182
0.208925 -0.202993 0.875151
0.207458 -0.203056 0.875283
0.206019 -0.203148 0.875574
0.204596 -0.203256 0.875955
0.203188 -0.20338 0.876425
0.201818 -0.203546 0.877132
0.200474 -0.20374 0.877998
0.199157 -0.203965 0.87904
0.197988 -0.204355 0.881007
0.196818 -0.204751 0.883005
0.195735 -0.205249 0.88558
0.194761 -0.20588 0.888902
0.193745 -0.206476 0.89202
0.192572 -0.206901 0.894184
0.19136 -0.20729 0.896138
0.190038 -0.207556 0.8974
0.18858 -0.207663 0.89777
0.187111 -0.207756 0.898065
0.185641 -0.207849 0.898359
0.184135 -0.207897 0.898397
0.182626 -0.20794 0.898412
0.18114 -0.208012 0.898585
0.179625 -0.208046 0.898547
0.17816 -0.208142 0.898858
0.176728 -0.208282 0.899413
0.175298 -0.208427 0.899993
0.173834 -0.208527 0.90033
0.1724 -0.208668 0.90089
0.170932 -0.208763 0.901193
0.169423 -0.2088 0.90117
0.16788 -0.208787 0.900873
0.166314 -0.208738 0.90037
0.164655 -0.208546 0.899073
0.162944 -0.208271 0.897305
0.161212 -0.207951 0.895294
0.159507 -0.207661 0.893448
0.157791 -0.207342 0.891441
0.156182 -0.20718 0.890314
0.154611 -0.207071 0.889481
0.153076 -0.207015 0.888947
0.151562 -0.206988 0.888576
0.150109 -0.207061 0.888758
0.148928 -0.2076 0.891545
0.147925 -0.208467 0.896152
0.14719 -0.209834 0.903551
0.146462 -0.211258 0.911263
0.145687 -0.212642 0.918746
0.144589 -0.213471 0.923132
0.143217 -0.2138 0.924738
0.141737 -0.213931 0.925235
0.140235 -0.214021 0.925505
0.138695 -0.214032 0.925338
0.137165 -0.214059 0.92526
0.135644 -0.214104 0.925281
0.134118 -0.214135 0.925222
0.132627 -0.214242 0.925591
0.131196 -0.214482 0.926694
0.129792 -0.214789 0.92817
0.128409 -0.215156 0.929984
0.127067 -0.21563 0.932385
0.125737 -0.216153 0.935058
0.124404 -0.216688 0.937801
0.123048 -0.217184 0.940321
0.121686 -0.217688 0.942884
0.120314 -0.218181 0.945388
0.255392 -0.206663 0.893742
0.25374 -0.206627 0.893306
0.252153 -0.20664 0.893145
0.250544 -0.206634 0.892881
0.248976 -0.206661 0.892795
0.247317 -0.206611 0.892283
0.245603 -0.206512 0.891501
0.243881 -0.206406 0.890669
0.242185 -0.206316 0.889935
0.240473 -0.20621 0.88911
0.238821 -0.206152 0.888554
0.237114 -0.206044 0.887717
0.235366 -0.205896 0.886663
0.23355 -0.205684 0.885247
0.231712 -0.205448 0.883695
0.2299 -0.205229 0.882239
0.228195 -0.2051 0.881289
0.226486 -0.204964 0.880301
0.224801 -0.204845 0.879411
0.223177 -0.204778 0.878812
0.221525 -0.204683 0.878052
0.21991 -0.204618 0.877467
0.218346 -0.2046 0.877138
0.216776 -0.204573 0.876765
0.215207 -0.204545 0.876387
0.21368 -0.204556 0.876226
0.212142 -0.204554 0.875991
0.210625 -0.204572 0.875867
0.209128 -0.204607 0.875842
0.207656 -0.204668 0.87596
0.206213 -0.204757 0.876236
0.2048 -0.204878 0.876686
0.203419 -0.205033 0.877331
0.202092 -0.205248 0.878306
0.200807 -0.20551 0.879544
0.199549 -0.205804 0.880961
0.198429 -0.206255 0.883254
0.197307 -0.206712 0.885577
0.196269 -0.207271 0.888468
0.195222 -0.207831 0.891359
0.194106 -0.208322 0.893867
0.192835 -0.208641 0.89542
0.191522 -0.208917 0.896729
0.190101 -0.209068 0.897345
0.188641 -0.209174 0.89771
0.187157 -0.209251 0.897913
0.185675 -0.209329 0.898122
0.184168 -0.209376 0.898162
0.182672 -0.209436 0.898267
0.181177 -0.209496 0.898379
0.179663 -0.20953 0.898347
0.178183 -0.209609 0.898558
0.176726 -0.209716 0.89893
0.175272 -0.209828 0.899331
0.173798 -0.209913 0.899579
0.172342 -0.210024 0.899968
0.17084 -0.21007 0.900003
0.169276 -0.210026 0.899536
0.167667 -0.209914 0.89869
0.166035 -0.209762 0.897627
0.164334 -0.209501 0.895962
0.162607 -0.209189 0.894013
0.160872 -0.208854 0.891937
0.159176 -0.208566 0.890129
0.157497 -0.208294 0.888402
0.155926 -0.208183 0.887573
0.154401 -0.20814 0.887118
0.152924 -0.208174 0.887086
0.151577 -0.208421 0.888237
0.15026 -0.208726 0.889702
0.149218 -0.209514 0.89384
0.148357 -0.210645 0.899865
0.147635 -0.21206 0.907458
0.146768 -0.213257 0.913845
0.145868 -0.214431 0.9201
0.144649 -0.215042 0.923248
0.143182 -0.215194 0.923858
0.141701 -0.215323 0.924344
0.140208 -0.215427 0.924697
0.138677 -0.215452 0.924612
0.137155 -0.215497 0.924633
0.135635 -0.215543 0.924664
0.134101 -0.215557 0.924517
0.132596 -0.215629 0.924689
0.131149 -0.215834 0.925595
0.129738 -0.216125 0.926971
0.128351 -0.216481 0.928707
0.127003 -0.216942 0.931018
0.125667 -0.217449 0.933583
0.124333 -0.21798 0.936279
0.122972 -0.218464 0.938716
0.121615 -0.218975 0.941297
0.12025 -0.219489 0.943893
0.118899 -0.218578 0.947361
0.118842 -0.219904 0.945946
0.252064 -0.208024 0.892291
0.250427 -0.207993 0.891895
0.248896 -0.208049 0.891976
0.247274 -0.208027 0.891629
0.245607 -0.207967 0.891067
0.243927 -0.207892 0.890425
0.242246 -0.207814 0.889768
0.240533 -0.207706 0.888942
0.238865 -0.207633 0.888312
0.237143 -0.20751 0.887404
0.235392 -0.207357 0.886334
0.233557 -0.207126 0.884828
0.231685 -0.206857 0.883109
0.229872 -0.206633 0.881647
0.228183 -0.206516 0.880779
0.226509 -0.206409 0.879964
0.224888 -0.206348 0.879405
0.223346 -0.206358 0.879239
0.221776 -0.20634 0.878916
0.220224 -0.206336 0.878677
0.218707 -0.206364 0.878614
0.217165 -0.206367 0.878406
0.215592 -0.206338 0.878027
0.214031 -0.206317 0.877696
0.212487 -0.206313 0.877451
0.210939 -0.206301 0.877171
0.209423 -0.206321 0.87706
0.207947 -0.206379 0.877166
0.206511 -0.206479 0.877502
0.205097 -0.206603 0.877966
0.203774 -0.206822 0.878963
0.202494 -0.207092 0.880236
0.201243 -0.207397 0.881699
0.200018 -0.207735 0.883347
0.198928 -0.208229 0.885854
0.197804 -0.208692 0.888195
0.19671 -0.209199 0.890767
0.195569 -0.20966 0.893093
0.194355 -0.210045 0.894995
0.192979 -0.210247 0.895889
0.191573 -0.210416 0.896598
0.190104 -0.21051 0.896899
0.188658 -0.210633 0.897359
0.187178 -0.210715 0.897587
0.185698 -0.210796 0.897813
0.184202 -0.210857 0.897929
0.182717 -0.21093 0.898116
0.181201 -0.210963 0.898075
0.179686 -0.210996 0.89804
0.178181 -0.211042 0.898072
0.176688 -0.211101 0.89818
0.175198 -0.211164 0.898305
0.173711 -0.21123 0.89845
0.172213 -0.211279 0.898506
0.170659 -0.211248 0.898114
0.169045 -0.211128 0.897241
0.167378 -0.210925 0.895907
0.165693 -0.210686 0.894382
0.163977 -0.210392 0.892552
0.162259 -0.210083 0.890642
0.160549 -0.209774 0.888737
0.158904 -0.209554 0.887318
0.1574 -0.20955 0.887082
0.155996 -0.209705 0.887717
0.154643 -0.209946 0.888823
0.153329 -0.210255 0.890304
0.152124 -0.210755 0.892826
0.150822 -0.211103 0.894519
0.1498 -0.211947 0.898923
0.148922 -0.213074 0.904875
0.148052 -0.21425 0.911086
0.147026 -0.215177 0.915939
0.145984 -0.216103 0.920784
0.144643 -0.216492 0.922686
0.143177 -0.216645 0.923305
0.141696 -0.216773 0.923783
0.140204 -0.216879 0.924145
0.138682 -0.216924 0.924171
0.137177 -0.217002 0.924377
0.135658 -0.21705 0.924418
0.134117 -0.217047 0.924184
0.132602 -0.217098 0.924247
0.131133 -0.217254 0.924876
0.1297 -0.217495 0.925971
0.1283 -0.217818 0.927516
0.126939 -0.218248 0.92964
0.125582 -0.218704 0.931907
0.124242 -0.219218 0.934486
0.122881 -0.219698 0.936879
0.121519 -0.220197 0.939377
0.120159 -0.220717 0.941986
0.11876 -0.221152 0.944132
0.250351 -0.209385 0.8911
0.248897 -0.209502 0.891525
0.247331 -0.209526 0.891433
0.24572 -0.209511 0.891133
0.244083 -0.209473 0.8907
0.242402 -0.209394 0.890045
0.240684 -0.209281 0.889203
0.238997 -0.20919 0.888487
0.237258 -0.209052 0.887505
0.235506 -0.208897 0.886433
0.233668 -0.208661 0.884919
0.231777 -0.208372 0.883112
0.229962 -0.208144 0.881646
0.228256 -0.208011 0.880696
0.226597 -0.207917 0.879962
0.225028 -0.207903 0.879671
0.223556 -0.207979 0.879871
0.222072 -0.208043 0.880009
0.220621 -0.208138 0.880318
0.219167 -0.20823 0.880607
0.217652 -0.208263 0.880571
0.216074 -0.208233 0.880189
0.21449 -0.208192 0.879755
0.212924 -0.208169 0.87941
0.211354 -0.208138 0.879031
0.209805 -0.208127 0.878758
0.208324 -0.208185 0.878857
0.206885 -0.208285 0.879196
0.205484 -0.208427 0.879756
0.204177 -0.208671 0.880878
0.202929 -0.208981 0.882362
0.201693 -0.209309 0.883945
0.20049 -0.209678 0.885749
0.199374 -0.210153 0.888127
0.198209 -0.210578 0.890237
0.197021 -0.210986 0.892253
0.195788 -0.211348 0.894015
0.194486 -0.211635 0.895368
0.193056 -0.211776 0.895921
0.191601 -0.211888 0.896317
0.190132 -0.211983 0.896618
0.188687 -0.212107 0.897084
0.187196 -0.212176 0.897241
0.185706 -0.212244 0.8974
0.184222 -0.21232 0.897598
0.182738 -0.212394 0.897789
0.181208 -0.212409 0.897659
0.179681 -0.212425 0.897531
0.178139 -0.21242 0.897291
0.176597 -0.212412 0.897035
0.17506 -0.212409 0.896803
0.17353 -0.212411 0.896601
0.171978 -0.212381 0.896226
0.17038 -0.212281 0.895472
0.168723 -0.212091 0.894227
0.167034 -0.211846 0.892684
0.16534 -0.211584 0.891048
0.163652 -0.21132 0.889405
0.161994 -0.211093 0.887962
0.160466 -0.211058 0.887563
0.158996 -0.21111 0.887634
0.157679 -0.211408 0.889042
0.15643 -0.21182 0.891075
0.155204 -0.212284 0.893378
0.153915 -0.212651 0.895163
0.152735 -0.213213 0.898001
0.151455 -0.213618 0.899985
0.150458 -0.214532 0.904726
0.149467 -0.215485 0.909683
0.14844 -0.216402 0.914435
0.147281 -0.217101 0.918008
0.146106 -0.217792 0.921534
0.144658 -0.217979 0.922331
0.143198 -0.218147 0.923025
0.141726 -0.218293 0.923602
0.140236 -0.218404 0.923988
0.138723 -0.218468 0.924122
0.137226 -0.218564 0.924429
0.135706 -0.218612 0.924472
0.134163 -0.218607 0.924231
0.132641 -0.218642 0.924209
0.131149 -0.218745 0.924549
0.129699 -0.218949 0.925438
0.128275 -0.219217 0.926669
0.126888 -0.219583 0.928431
0.125504 -0.219972 0.930319
0.124156 -0.220464 0.932759
0.122788 -0.220925 0.935034
0.121424 -0.221412 0.937445
0.120065 -0.221938 0.940062
0.118674 -0.22239 0.942287
0.248956 -0.211003 0.891334
0.247464 -0.211089 0.891588
0.245921 -0.211132 0.891604
0.244329 -0.211132 0.89139
0.242644 -0.21105 0.890726
0.240898 -0.210913 0.889762
0.239171 -0.210787 0.888863
0.237413 -0.21063 0.887795
0.235644 -0.21046 0.886651
0.233806 -0.210222 0.885144
0.231896 -0.209912 0.883245
0.230077 -0.20968 0.881767
0.228353 -0.209528 0.88073
0.226724 -0.209461 0.880156
0.22522 -0.209509 0.880204
0.223819 -0.209654 0.880783
0.22244 -0.209821 0.881479
0.221087 -0.210015 0.882321
0.2197 -0.210176 0.882987
0.2182 -0.210228 0.883059
0.216643 -0.210223 0.882821
0.215049 -0.210178 0.882366
0.213459 -0.210134 0.881916
0.211865 -0.210083 0.881433
0.210309 -0.210069 0.881148
0.208809 -0.210111 0.881165
0.207354 -0.210201 0.881443
0.205952 -0.210346 0.882022
0.204628 -0.210578 0.88307
0.203362 -0.210876 0.884473
0.20209 -0.211171 0.885863
0.200873 -0.211532 0.88761
0.199652 -0.211895 0.889364
0.198394 -0.212221 0.89092
0.19713 -0.212546 0.892468
0.195828 -0.212831 0.893801
0.194442 -0.213022 0.89462
0.193014 -0.213165 0.895186
0.19156 -0.213277 0.89558
0.190079 -0.213356 0.895801
0.188645 -0.213494 0.896335
0.187166 -0.213576 0.896565
0.185676 -0.213644 0.896725
0.184193 -0.21372 0.896926
0.182696 -0.213777 0.897026
0.181142 -0.213759 0.896721
0.179589 -0.21374 0.896406
0.178022 -0.213697 0.895969
0.176446 -0.213639 0.895446
0.174873 -0.213581 0.894928
0.173296 -0.213514 0.894359
0.171689 -0.213401 0.893542
0.170049 -0.213233 0.89243
0.168373 -0.213006 0.890998
0.16669 -0.212759 0.889465
0.16503 -0.212537 0.888064
0.163411 -0.212368 0.886953
0.161945 -0.212429 0.887076
0.160609 -0.212693 0.888292
0.159312 -0.213026 0.889875
0.158167 -0.213609 0.892807
0.157048 -0.214252 0.896057
0.155842 -0.214767 0.898621
0.154563 -0.21517 0.900582
0.153394 -0.215773 0.903616
0.152121 -0.216211 0.90576
0.150981 -0.216897 0.909235
0.149849 -0.217617 0.912893
0.148678 -0.218288 0.916286
0.147393 -0.218763 0.918626
0.146099 -0.219237 0.92096
0.144661 -0.219443 0.921854
0.14321 -0.219629 0.922642
0.141746 -0.219792 0.923307
0.140265 -0.219923 0.923797
0.138761 -0.220006 0.924032
0.137272 -0.220119 0.924431
0.135758 -0.220183 0.924562
0.134222 -0.220192 0.924403
0.132691 -0.220211 0.924294
0.131175 -0.220262 0.924358
0.129707 -0.220425 0.925025
0.128259 -0.220636 0.925944
0.126849 -0.220949 0.927409
0.125453 -0.221306 0.929105
0.124105 -0.221797 0.931522
0.122731 -0.222244 0.933701
0.121367 -0.222731 0.936096
0.120006 -0.223244 0.938627
0.118609 -0.223681 0.940749
0.247722 -0.212761 0.892313
0.246188 -0.212812 0.892381
0.244596 -0.212814 0.892177
0.242929 -0.212748 0.89161
0.241157 -0.212587 0.890533
0.239406 -0.212441 0.889533
0.237628 -0.212265 0.888376
0.23584 -0.212076 0.887147
0.233982 -0.211819 0.88555
0.23205 -0.211488 0.883556
0.230229 -0.211251 0.882073
0.228518 -0.211111 0.881111
0.226953 -0.211103 0.880864
0.225514 -0.211214 0.881256
0.224197 -0.211443 0.882282
0.222901 -0.211695 0.88343
0.221614 -0.211959 0.884643
0.220257 -0.212155 0.885495
0.218782 -0.212238 0.88573
0.217222 -0.212233 0.885499
0.215608 -0.212172 0.884966
0.213996 -0.21211 0.884427
0.212381 -0.212042 0.883856
0.210817 -0.212024 0.883552
0.209313 -0.212067 0.88358
0.207853 -0.212156 0.883855
0.206431 -0.212286 0.884348
0.205082 -0.212496 0.88527
0.203762 -0.212741 0.886381
0.202394 -0.212937 0.887223
0.201073 -0.213187 0.88836
0.199762 -0.213452 0.889578
0.19842 -0.213685 0.890621
0.197089 -0.213934 0.891752
0.195778 -0.214209 0.893019
0.194407 -0.214418 0.893935
0.192996 -0.214581 0.894604
0.191558 -0.214712 0.8951
0.190076 -0.214791 0.895316
0.188626 -0.214909 0.895741
0.187121 -0.214956 0.895792
0.185616 -0.215004 0.895843
0.184122 -0.215066 0.895967
0.182614 -0.215107 0.895982
0.181049 -0.215071 0.895586
0.179481 -0.215028 0.895156
0.17788 -0.214937 0.894465
0.176258 -0.214812 0.893593
0.17464 -0.214687 0.892721
0.173018 -0.214549 0.891784
0.171377 -0.214379 0.890676
0.169726 -0.214188 0.889453
0.168069 -0.213978 0.888134
0.166429 -0.213787 0.886912
0.164822 -0.213637 0.885912
0.163369 -0.213718 0.886144
0.162089 -0.214067 0.887806
0.160943 -0.214636 0.89064
0.159826 -0.215267 0.8938
0.158841 -0.216129 0.89819
0.157738 -0.21682 0.901671
0.156514 -0.217325 0.904155
0.155225 -0.217733 0.906125
0.154042 -0.218335 0.909127
0.152765 -0.218786 0.911324
0.151493 -0.219258 0.913633
0.150218 -0.219739 0.915986
0.14891 -0.22017 0.918071
0.147501 -0.220425 0.919224
0.146092 -0.220682 0.920386
0.144664 -0.220909 0.921387
0.143229 -0.221128 0.922344
0.141775 -0.22131 0.923107
0.140302 -0.221457 0.923684
0.138805 -0.221557 0.924008
0.137322 -0.221686 0.924487
0.135815 -0.221766 0.924705
0.134279 -0.221777 0.924563
0.132747 -0.221797 0.924464
0.131217 -0.221815 0.924352
0.129731 -0.221938 0.9248
0.128265 -0.222109 0.925505
0.126842 -0.222388 0.926777
0.12544 -0.222731 0.928394
0.124092 -0.223229 0.930826
0.12272 -0.223678 0.933
0.121344 -0.224135 0.935216
0.119975 -0.22463 0.937631
0.118566 -0.225033 0.939556
0.248151 -0.214582 0.893821
0.246554 -0.214582 0.893613
0.244901 -0.214532 0.89314
0.243229 -0.214462 0.892559
0.241503 -0.214342 0.891711
0.239679 -0.214131 0.890377
0.237831 -0.213893 0.8889
0.236002 -0.213666 0.887482
0.234117 -0.213382 0.88576
0.232148 -0.213013 0.883588
0.230329 -0.212776 0.882119
0.22867 -0.212683 0.88142
0.227187 -0.212755 0.8816
0.225848 -0.212964 0.882513
0.224584 -0.213249 0.883831
0.223365 -0.21358 0.885398
0.22212 -0.213891 0.88685
0.220773 -0.214103 0.887779
0.219279 -0.21417 0.887936
0.217727 -0.214179 0.887779
0.216096 -0.214104 0.887179
0.214482 -0.214044 0.886655
0.212864 -0.213975 0.886089
0.211294 -0.213955 0.885779
0.209784 -0.213996 0.885798
0.208306 -0.214071 0.885995
0.206833 -0.214151 0.886222
0.205402 -0.214277 0.88669
0.203997 -0.214432 0.887316
0.202537 -0.214528 0.887622
0.20113 -0.214682 0.888242
0.199762 -0.214884 0.889116
0.198406 -0.215101 0.890069
0.197062 -0.215337 0.891118
0.195751 -0.215614 0.892389
0.194397 -0.215842 0.893403
0.193 -0.216023 0.89416
0.191561 -0.216154 0.894657
0.190079 -0.216232 0.89487
0.188606 -0.21632 0.895136
0.187072 -0.216332 0.894996
0.185553 -0.21636 0.894946
0.184047 -0.216403 0.894973
0.182516 -0.216412 0.894826
0.180951 -0.216374 0.894425
0.179383 -0.216328 0.893983
0.177761 -0.216204 0.893126
0.176106 -0.216029 0.892002
0.174456 -0.215854 0.890875
0.172797 -0.215659 0.88965
0.171126 -0.215438 0.88828
0.169469 -0.215229 0.886983
0.167849 -0.215068 0.885935
0.166271 -0.214963 0.885182
0.164832 -0.215064 0.88552
0.163556 -0.21542 0.887206
0.162457 -0.216061 0.890398
0.161471 -0.216898 0.894622
0.160497 -0.217778 0.899068
0.159511 -0.218662 0.90354
0.158401 -0.219363 0.907037
0.157154 -0.21985 0.909407
0.15584 -0.220234 0.911234
0.154517 -0.220611 0.913022
0.153112 -0.220851 0.914087
0.151713 -0.221108 0.915246
0.15032 -0.22138 0.91648
0.148915 -0.221636 0.917625
0.147515 -0.221908 0.918859
0.146114 -0.222184 0.920114
0.144694 -0.222428 0.921199
0.143277 -0.222684 0.922343
0.141823 -0.22287 0.923122
0.140357 -0.223035 0.923788
0.138867 -0.22315 0.924192
0.137382 -0.223279 0.924673
0.135868 -0.223344 0.924815
0.134339 -0.223373 0.924767
0.132808 -0.223394 0.924677
0.13127 -0.223397 0.924492
0.12977 -0.223485 0.924756
0.128295 -0.223636 0.925353
0.126863 -0.223899 0.92653
0.125463 -0.224249 0.928172
0.124111 -0.224741 0.930555
0.122745 -0.225212 0.932826
0.121367 -0.225668 0.93502
0.119985 -0.226128 0.937229
0.118569 -0.226511 0.93904
0.246797 -0.21625 0.894276
0.245069 -0.216135 0.893461
0.24338 -0.21605 0.892812
0.241735 -0.216001 0.892351
0.239954 -0.215828 0.891234
0.238169 -0.215646 0.89007
0.236281 -0.215365 0.888379
0.234346 -0.215034 0.886427
0.232318 -0.214607 0.883972
0.230561 -0.214426 0.882819
0.228964 -0.214394 0.882449
0.227606 -0.214587 0.883272
0.226354 -0.214886 0.884654
0.225153 -0.215237 0.886311
0.223883 -0.215526 0.887639
0.222584 -0.215789 0.888831
0.221165 -0.215935 0.889404
0.219631 -0.215966 0.889367
0.218061 -0.215958 0.889127
0.216442 -0.215898 0.888611
0.214829 -0.21584 0.888107
0.213234 -0.215799 0.887696
0.211676 -0.215794 0.887474
0.210135 -0.215805 0.887336
0.208624 -0.215848 0.887366
0.207101 -0.215876 0.887315
0.205577 -0.215902 0.887259
0.20408 -0.215956 0.887347
0.202572 -0.215998 0.887369
0.201108 -0.216088 0.887651
0.199703 -0.216248 0.888294
0.19833 -0.216446 0.88914
0.196998 -0.216695 0.890257
0.195689 -0.216975 0.891534
0.194349 -0.217222 0.892637
0.192979 -0.217436 0.893563
0.191553 -0.217582 0.894135
0.190059 -0.217644 0.894266
0.188548 -0.217685 0.894286
0.186988 -0.21766 0.893959
0.185455 -0.217668 0.893805
0.183946 -0.217705 0.893807
0.182409 -0.217704 0.893608
0.180869 -0.217697 0.893374
0.179304 -0.217651 0.892942
0.177671 -0.217509 0.892002
0.175984 -0.217285 0.890634
0.174319 -0.217085 0.88939
0.17263 -0.21684 0.887914
0.170949 -0.2166 0.886463
0.169309 -0.216409 0.885274
0.167847 -0.216479 0.88545
0.166432 -0.216621 0.885999
0.165171 -0.217 0.887796
0.164073 -0.217643 0.890967
0.163131 -0.21855 0.895523
0.16219 -0.219482 0.90021
0.161222 -0.220397 0.904798
0.160112 -0.221099 0.908275
0.158862 -0.221584 0.910616
0.157472 -0.221841 0.911768
0.156004 -0.221967 0.912228
0.154539 -0.2221 0.912732
0.153129 -0.222334 0.913756
0.151729 -0.222591 0.914903
0.150319 -0.222834 0.915976
0.14893 -0.223121 0.917282
0.147538 -0.223408 0.918584
0.146129 -0.22367 0.919754
0.144708 -0.223916 0.92084
0.143308 -0.224207 0.922164
0.141846 -0.224379 0.922867
0.140382 -0.224548 0.923551
0.138899 -0.224679 0.924036
0.137407 -0.224793 0.924435
0.135892 -0.224857 0.924576
0.134377 -0.224919 0.9247
0.132853 -0.224957 0.924705
0.131315 -0.22496 0.924527
0.129814 -0.22505 0.9248
0.128338 -0.225202 0.925393
0.126906 -0.225466 0.926572
0.12552 -0.225857 0.928415
0.12417 -0.226358 0.930822
0.122803 -0.226834 0.933104
0.121422 -0.227287 0.935263
0.12003 -0.227728 0.937359
0.118602 -0.22808 0.938993
0.117114 -0.226795 0.940327
0.117142 -0.228351 0.940205
0.245051 -0.217576 0.892923
0.243363 -0.21749 0.892273
0.241764 -0.217481 0.89203
0.239932 -0.21726 0.890672
0.238119 -0.217049 0.88937
0.236201 -0.216736 0.887536
0.23424 -0.216375 0.88545
0.232307 -0.216034 0.883466
0.230743 -0.216034 0.883271
0.22934 -0.216187 0.88388
0.228126 -0.216525 0.885456
0.226974 -0.216926 0.887365
0.225722 -0.217237 0.888794
0.224393 -0.217473 0.889837
0.223 -0.217649 0.890561
0.221493 -0.21771 0.890687
0.219903 -0.217685 0.890363
0.218325 -0.217671 0.890095
0.216689 -0.217594 0.889502
0.215075 -0.217537 0.889009
0.213495 -0.217513 0.88869
0.211948 -0.217522 0.888544
0.21039 -0.217517 0.888328
0.208861 -0.217542 0.888265
0.20729 -0.217518 0.88795
0.205716 -0.21749 0.887613
0.204158 -0.217476 0.887347
0.202607 -0.217469 0.887121
0.201102 -0.217513 0.887158
0.199696 -0.217671 0.887788
0.198321 -0.217867 0.88862
0.19699 -0.218118 0.889739
0.195683 -0.218402 0.891029
0.194345 -0.218653 0.892143
0.192961 -0.21885 0.892981
0.191533 -0.218994 0.893539
0.190039 -0.219056 0.893667
0.188516 -0.21908 0.893602
0.186954 -0.219052 0.893266
0.185417 -0.219053 0.89308
0.183898 -0.219075 0.893008
0.182363 -0.219076 0.89282
0.180828 -0.219073 0.892614
0.179265 -0.219029 0.892196
0.177643 -0.218898 0.891329
0.175965 -0.218684 0.890025
0.174311 -0.218496 0.88886
0.172654 -0.218295 0.88763
0.171017 -0.218116 0.886513
0.169502 -0.218113 0.886307
0.168179 -0.218395 0.887588
0.166894 -0.218743 0.889204
0.165753 -0.219322 0.892021
0.16475 -0.220133 0.896041
0.163819 -0.22108 0.900764
0.162743 -0.221816 0.904392
0.16164 -0.222527 0.907887
0.160398 -0.223024 0.910268
0.15903 -0.223319 0.911609
0.157533 -0.223398 0.911823
0.156064 -0.223524 0.912285
0.154587 -0.223638 0.912689
0.153176 -0.223871 0.913701
0.151775 -0.224128 0.914842
0.150356 -0.224357 0.915836
0.148959 -0.224632 0.917066
0.147557 -0.224902 0.918272
0.146137 -0.225145 0.91934
0.144708 -0.225374 0.920333
0.143309 -0.22567 0.921669
0.141849 -0.225845 0.922385
0.140393 -0.226031 0.923155
0.138916 -0.226177 0.923718
0.137424 -0.226292 0.924121
0.13591 -0.226358 0.924268
0.1344 -0.226433 0.924463
0.132883 -0.226488 0.924558
0.131346 -0.226495 0.924404
0.129847 -0.226588 0.924692
0.128383 -0.226772 0.92545
0.126956 -0.227053 0.926712
0.125583 -0.227484 0.928744
0.124234 -0.227993 0.931177
0.122866 -0.228471 0.933446
0.121481 -0.228922 0.935581
0.120082 -0.229347 0.93758
0.118649 -0.229689 0.939149
0.117188 -0.229965 0.940376
0.24311 -0.218717 0.89063
0.24163 -0.218814 0.890941
0.239845 -0.21863 0.889797
0.238101 -0.218481 0.88883
0.236248 -0.218225 0.887309
0.234408 -0.217974 0.885817
0.232581 -0.21773 0.884359
0.231153 -0.217862 0.884857
0.229867 -0.218133 0.886071
0.228733 -0.218555 0.888073
0.227562 -0.218947 0.889916
0.226262 -0.219216 0.89112
0.224853 -0.219379 0.891773
0.223369 -0.219467 0.892041
0.221784 -0.219452 0.891773
0.220138 -0.219371 0.891166
0.218509 -0.219305 0.890634
0.216844 -0.219197 0.889886
0.215227 -0.219137 0.889387
0.213644 -0.219111 0.88906
0.212095 -0.219119 0.888913
0.210537 -0.219114 0.888703
0.209007 -0.219139 0.888643
0.207403 -0.21908 0.888147
0.205797 -0.219015 0.887625
0.204207 -0.218964 0.887177
0.202641 -0.218939 0.88686
0.201111 -0.218953 0.886747
0.199703 -0.21911 0.887371
0.19834 -0.219321 0.888275
0.197008 -0.219574 0.889393
0.19569 -0.219845 0.890609
0.194367 -0.220116 0.891818
0.192995 -0.220329 0.892731
0.191554 -0.220458 0.893209
0.190071 -0.220533 0.893413
0.188546 -0.220555 0.893336
0.186984 -0.220525 0.892999
0.185446 -0.220525 0.892811
0.18394 -0.220565 0.892834
0.182419 -0.220583 0.892739
0.180897 -0.220599 0.892633
0.179355 -0.220584 0.892373
0.177743 -0.220468 0.89159
0.176087 -0.220284 0.890456
0.174457 -0.22013 0.889479
0.172845 -0.219994 0.888599
0.171307 -0.219965 0.888263
0.169896 -0.220122 0.888886
0.168681 -0.22058 0.891062
0.167495 -0.221094 0.893519
0.166433 -0.221813 0.897035
0.165429 -0.222644 0.901118
0.164356 -0.223385 0.90474
0.163137 -0.223905 0.907228
0.161889 -0.224389 0.909527
0.160535 -0.224706 0.910971
0.159068 -0.224836 0.911449
0.15758 -0.22493 0.91175
0.156102 -0.225044 0.912146
0.154625 -0.225158 0.912545
0.153213 -0.225391 0.913555
0.151813 -0.225652 0.914704
0.150396 -0.225887 0.915727
0.148999 -0.226165 0.916963
0.147594 -0.226433 0.91815
0.146165 -0.226658 0.919116
0.144726 -0.226868 0.920007
0.143317 -0.227148 0.921253
0.141857 -0.227324 0.921969
0.140401 -0.22751 0.922736
0.138924 -0.227657 0.923303
0.137432 -0.227772 0.923703
0.135926 -0.227854 0.923936
0.134417 -0.227931 0.924141
0.132914 -0.22802 0.924414
0.131392 -0.228062 0.924442
0.129899 -0.228174 0.92483
0.128448 -0.228394 0.925766
0.12704 -0.228729 0.92729
0.125673 -0.229184 0.92943
0.124318 -0.229684 0.931797
0.122947 -0.230163 0.934057
0.121553 -0.230595 0.93608
0.120146 -0.231006 0.937988
0.118707 -0.231338 0.939498
0.117253 -0.231637 0.940832
0.242737 -0.219831 0.888427
0.241396 -0.220052 0.88938
0.239665 -0.219914 0.888484
0.237991 -0.219826 0.887845
0.236212 -0.219635 0.886675
0.234522 -0.219524 0.88592
0.232847 -0.219424 0.885218
0.231573 -0.219708 0.886493
0.230402 -0.220096 0.888303
0.229306 -0.220563 0.890516
0.228089 -0.220917 0.892152
0.226725 -0.221128 0.893048
0.225223 -0.221201 0.893239
0.223634 -0.221186 0.892973
0.221965 -0.221085 0.89227
0.220264 -0.220948 0.891381
0.2186 -0.220844 0.890666
0.216918 -0.220718 0.889832
0.2153 -0.220656 0.88933
0.213743 -0.220657 0.889149
0.212194 -0.220664 0.889005
0.210636 -0.220661 0.888802
0.209092 -0.220671 0.88867
0.207473 -0.220594 0.888093
0.205836 -0.220493 0.88739
0.204242 -0.220438 0.886926
0.202662 -0.220395 0.886527
0.201145 -0.220425 0.886496
0.199738 -0.220583 0.887126
0.198388 -0.220811 0.888111
0.197059 -0.221069 0.889246
0.195742 -0.221344 0.890474
0.194415 -0.221612 0.891663
0.193055 -0.221841 0.892652
0.191614 -0.221971 0.893134
0.190144 -0.222065 0.893431
0.188622 -0.22209 0.893376
0.187085 -0.222093 0.893211
0.185548 -0.222095 0.893039
0.184042 -0.222137 0.89307
0.18252 -0.222154 0.892975
0.181018 -0.222198 0.893018
0.179476 -0.222185 0.892773
0.177898 -0.222117 0.892245
0.1763 -0.222016 0.891549
0.174751 -0.221983 0.891198
0.173233 -0.221991 0.891058
0.171788 -0.222106 0.891467
0.17046 -0.2224 0.892787
0.169304 -0.222964 0.895481
0.168146 -0.223537 0.898222
0.167077 -0.224266 0.901756
0.165952 -0.224923 0.904921
0.164741 -0.225456 0.907453
0.163388 -0.225768 0.908859
0.162017 -0.226055 0.91014
0.160551 -0.226186 0.910623
0.159083 -0.226314 0.911093
0.157596 -0.226411 0.911404
0.156119 -0.226526 0.911809
0.154643 -0.226642 0.912213
0.153231 -0.226878 0.913233
0.151822 -0.227124 0.9143
0.150407 -0.227363 0.915334
0.14901 -0.227642 0.91657
0.147606 -0.227912 0.917761
0.146164 -0.228116 0.918615
0.144733 -0.228342 0.919578
0.143323 -0.228621 0.920811
0.141864 -0.228798 0.92153
0.140406 -0.228983 0.922288
0.138938 -0.229147 0.922937
0.137438 -0.229246 0.923256
0.13594 -0.229347 0.923585
0.134446 -0.229459 0.923971
0.132967 -0.229604 0.924522
0.131466 -0.229702 0.924838
0.129993 -0.229869 0.925502
0.128562 -0.230144 0.926714
0.127167 -0.23052 0.928439
0.125795 -0.230969 0.930532
0.124424 -0.231439 0.93273
0.123037 -0.231881 0.934781
0.121633 -0.232293 0.936686
0.120219 -0.232691 0.938516
0.118786 -0.233049 0.940143
0.117331 -0.233351 0.941487
0.242303 -0.220882 0.88594
0.241043 -0.221176 0.887257
0.239504 -0.221212 0.88726
0.237959 -0.221242 0.887232
0.236337 -0.221198 0.886826
0.234806 -0.221239 0.88685
0.233282 -0.221286 0.886907
0.232117 -0.221681 0.888742
0.230983 -0.222112 0.890756
0.229841 -0.222542 0.892766
0.228559 -0.222838 0.89409
0.227117 -0.222976 0.894611
0.225515 -0.222951 0.894299
0.223843 -0.222851 0.893612
0.222105 -0.222679 0.892553
0.220368 -0.222502 0.891473
0.218672 -0.222365 0.890592
0.216973 -0.222219 0.889669
0.215339 -0.222139 0.889085
0.213795 -0.222153 0.888978
0.212246 -0.222161 0.888837
0.21069 -0.22216 0.888651
0.209147 -0.22217 0.888526
0.20754 -0.222106 0.888021
0.2059 -0.222001 0.887307
0.204307 -0.221946 0.886848
0.202727 -0.221903 0.886453
0.201224 -0.221949 0.886508
0.199817 -0.222109 0.887145
0.198456 -0.222326 0.888067
0.197112 -0.222568 0.889116
0.195781 -0.222828 0.890256
0.194452 -0.223095 0.891432
0.193092 -0.223326 0.892427
0.191666 -0.223476 0.893005
0.190213 -0.223591 0.893414
0.188715 -0.22365 0.89353
0.187204 -0.223688 0.893547
0.185682 -0.22371 0.893482
0.184187 -0.223769 0.893599
0.182684 -0.223814 0.893655
0.181179 -0.223857 0.893694
0.179649 -0.223861 0.893538
0.178106 -0.223846 0.893284
0.176558 -0.22382 0.892977
0.17507 -0.22388 0.893103
0.173645 -0.224032 0.893696
0.172283 -0.224281 0.894776
0.171023 -0.224691 0.89667
0.169912 -0.22534 0.899773
0.168755 -0.225933 0.902593
0.167562 -0.226482 0.90519
0.166312 -0.226953 0.907386
0.164973 -0.227287 0.908896
0.16351 -0.227421 0.909397
0.162035 -0.227537 0.909803
0.160568 -0.227666 0.910277
0.159088 -0.227777 0.910655
0.157603 -0.227875 0.910974
0.156126 -0.227991 0.911379
0.154658 -0.228123 0.911865
0.153246 -0.228358 0.912876
0.151837 -0.228606 0.913944
0.150421 -0.228845 0.914973
0.149023 -0.229124 0.916199
0.147611 -0.22938 0.917309
0.146161 -0.229568 0.918079
0.144722 -0.229778 0.918959
0.143296 -0.230022 0.92001
0.141836 -0.230199 0.920721
0.14038 -0.230386 0.921484
0.138912 -0.230552 0.922144
0.137421 -0.230669 0.92255
0.135945 -0.23082 0.923131
0.134462 -0.230955 0.923632
0.133 -0.231144 0.924404
0.131523 -0.231299 0.925009
0.13008 -0.231543 0.926057
0.128664 -0.231864 0.927489
0.127283 -0.232284 0.929422
0.125908 -0.232738 0.931521
0.124527 -0.233189 0.933607
0.123116 -0.233574 0.935363
0.121703 -0.233965 0.937147
0.120286 -0.234366 0.938975
0.118854 -0.234729 0.940622
0.117398 -0.235037 0.941986
0.242035 -0.22208 0.884232
0.240739 -0.22234 0.885365
0.23928 -0.222449 0.885741
0.237771 -0.222511 0.885876
0.236334 -0.222641 0.886356
0.234987 -0.222859 0.887279
0.233635 -0.223074 0.888187
0.232501 -0.223506 0.890193
0.231399 -0.223975 0.892384
0.230178 -0.224333 0.894012
0.228821 -0.224557 0.894967
0.227301 -0.224617 0.895093
0.225693 -0.224587 0.894762
0.224001 -0.224467 0.893979
0.222227 -0.224256 0.892738
0.220454 -0.22404 0.891474
0.218722 -0.223863 0.890404
0.216994 -0.223684 0.889324
0.215346 -0.223588 0.888664
0.213804 -0.223604 0.888567
0.21227 -0.223627 0.888511
0.210745 -0.22366 0.888499
0.209216 -0.223686 0.888456
0.207636 -0.223653 0.888117
0.206023 -0.223578 0.887565
0.204444 -0.22354 0.887201
0.202866 -0.2235 0.886822
0.201377 -0.223564 0.886973
0.199968 -0.223724 0.887604
0.198605 -0.223942 0.888526
0.197232 -0.224151 0.8894
0.195871 -0.224376 0.890356
0.194525 -0.224624 0.891433
0.193153 -0.224842 0.89235
0.191731 -0.224998 0.89296
0.190304 -0.225149 0.893545
0.188845 -0.225259 0.893927
0.187359 -0.225333 0.894123
0.185848 -0.225373 0.894149
0.184353 -0.225433 0.894278
0.182858 -0.225492 0.8944
0.181351 -0.225534 0.894439
0.179844 -0.225574 0.894466
0.178372 -0.225663 0.894738
0.176893 -0.225743 0.894967
0.175454 -0.225881 0.895483
0.174107 -0.226158 0.8967
0.172809 -0.226515 0.898315
0.171573 -0.226976 0.900452
0.170354 -0.227472 0.902763
0.16909 -0.227908 0.904773
0.16776 -0.228248 0.9063
0.166378 -0.22851 0.907439
0.164927 -0.228663 0.908032
