ply
format ascii 1.0
element vertex 1671
property float x
property float y
property float z
end_header
-0.142292 -0.0993259 0.85197
-0.143377 -0.0996724 0.849358
-0.14453 -0.100015 0.847212
-0.145714 -0.100356 0.845286
-0.146942 -0.100694 0.843651
-0.148181 -0.101031 0.842111
-0.14946 -0.101367 0.840827
-0.150679 -0.101703 0.839223
-0.151936 -0.102037 0.837852
-0.153219 -0.10237 0.836656
-0.154522 -0.102702 0.835589
-0.155812 -0.103034 0.834466
-0.15719 -0.103364 0.833833
-0.15858 -0.103696 0.833281
-0.159945 -0.104026 0.8326
-0.161373 -0.104356 0.832255
-0.162895 -0.104688 0.832415
-0.164443 -0.10502 0.832704
-0.166101 -0.105352 0.833551
-0.167834 -0.105688 0.834765
-0.169559 -0.106024 0.835914
-0.171286 -0.106361 0.837052
-0.173048 -0.1067 0.838336
-0.174684 -0.107037 0.838971
-0.176282 -0.107373 0.839405
-0.177886 -0.107712 0.839853
-0.179437 -0.108048 0.840033
-0.18094 -0.108384 0.839981
-0.182446 -0.10872 0.839933
-0.183945 -0.109055 0.839851
-0.185404 -0.109389 0.839579
-0.186844 -0.109724 0.83922
-0.18827 -0.110057 0.838796
-0.189733 -0.110392 0.838542
-0.191156 -0.110725 0.83811
-0.192554 -0.111057 0.837569
-0.193927 -0.111388 0.836918
-0.19534 -0.111721 0.836453
-0.196763 -0.112054 0.836033
-0.198234 -0.112388 0.835823
-0.199721 -0.112724 0.835688
-0.201242 -0.11306 0.835694
-0.202705 -0.113395 0.835448
-0.204167 -0.11373 0.835197
-0.205608 -0.114062 0.83486
-0.206945 -0.11439 0.834088
-0.20821 -0.114714 0.833025
-0.209378 -0.115031 0.831569
-0.210494 -0.115346 0.829919
-0.211608 -0.115659 0.828284
-0.212873 -0.115981 0.827275
-0.214322 -0.116313 0.827017
-0.216174 -0.116669 0.82836
-0.218192 -0.117037 0.830343
-0.220278 -0.117409 0.832561
-0.222328 -0.117781 0.834605
-0.224177 -0.118141 0.835842
-0.22587 -0.118492 0.836453
-0.227438 -0.118835 0.836578
-0.228971 -0.119176 0.836562
-0.23045 -0.119512 0.836341
-0.231982 -0.119853 0.836317
-0.233425 -0.120188 0.835962
-0.234923 -0.120526 0.835807
-0.236519 -0.120872 0.836014
-0.238166 -0.121222 0.836399
-0.239795 -0.121571 0.836714
-0.241471 -0.121922 0.83719
-0.2432 -0.122279 0.837846
-0.244869 -0.122633 0.838277
-0.246586 -0.122989 0.838869
-0.248373 -0.123351 0.8397
-0.250124 -0.123712 0.840389
-0.251906 -0.124076 0.841173
-0.253745 -0.124444 0.842144
-0.255637 -0.124817 0.843282
-0.257574 -0.125195 0.844556
-0.25955 -0.125577 0.845944
-0.261589 -0.125966 0.847526
-0.263711 -0.126362 0.849366
-0.265846 -0.12676 0.851222
-0.26788 -0.127151 0.852721
-0.126014 -0.0962614 0.878015
-0.127382 -0.0966138 0.876772
-0.12874 -0.0969657 0.875475
-0.129985 -0.0973222 0.873425
-0.131229 -0.0976766 0.871407
-0.132496 -0.0980287 0.86959
-0.133773 -0.0983789 0.867869
-0.135018 -0.0987289 0.865965
-0.136257 -0.0990782 0.864068
-0.137447 -0.0994273 0.861882
-0.138602 -0.0997758 0.859516
-0.139719 -0.100123 0.856957
-0.140814 -0.100469 0.85431
-0.141917 -0.100813 0.851763
-0.143035 -0.101155 0.84935
-0.144221 -0.101494 0.847395
-0.145438 -0.101832 0.845659
-0.146695 -0.102168 0.844194
-0.147952 -0.102503 0.842747
-0.149245 -0.102837 0.841536
-0.150464 -0.103171 0.839919
-0.151707 -0.103503 0.838459
-0.152974 -0.103836 0.837165
-0.154262 -0.104167 0.836005
-0.155553 -0.104497 0.83488
-0.156949 -0.104828 0.834343
-0.158359 -0.105159 0.833893
-0.159745 -0.105489 0.833316
-0.161236 -0.10582 0.833303
-0.162828 -0.106154 0.833822
-0.164487 -0.106489 0.83468
-0.166243 -0.106827 0.836019
-0.168071 -0.107167 0.837708
-0.169839 -0.107507 0.839048
-0.171568 -0.107848 0.840169
-0.173281 -0.10819 0.841184
-0.174864 -0.108528 0.841534
-0.176408 -0.108865 0.841677
-0.177938 -0.109202 0.841748
-0.179416 -0.109537 0.84156
-0.180848 -0.109872 0.841147
-0.182299 -0.110206 0.840827
-0.183741 -0.110541 0.840468
-0.185143 -0.110873 0.839921
-0.186544 -0.111205 0.839377
-0.187949 -0.111538 0.838852
-0.18941 -0.111873 0.838593
-0.190819 -0.112205 0.838094
-0.192221 -0.112537 0.837568
-0.193597 -0.112867 0.836928
-0.195005 -0.113198 0.836439
-0.196386 -0.113529 0.835833
-0.197828 -0.113862 0.835497
-0.199271 -0.114196 0.83517
-0.200729 -0.114529 0.834911
-0.202092 -0.114858 0.834239
-0.20343 -0.115185 0.83347
-0.204762 -0.115511 0.832685
-0.20601 -0.115833 0.831555
-0.20721 -0.11615 0.830233
-0.208373 -0.116464 0.828776
-0.209546 -0.11678 0.82738
-0.210739 -0.117095 0.826079
-0.212092 -0.117421 0.825442
-0.213772 -0.117767 0.826119
-0.215812 -0.118138 0.828226
-0.217984 -0.11852 0.830821
-0.220192 -0.118906 0.833519
-0.222307 -0.119286 0.835812
-0.224077 -0.119643 0.836734
-0.225719 -0.119993 0.837144
-0.227256 -0.120334 0.837146
-0.228716 -0.120669 0.836848
-0.230166 -0.121005 0.836513
-0.231667 -0.121343 0.836372
-0.233061 -0.121674 0.835832
-0.234532 -0.12201 0.835579
-0.236127 -0.122357 0.835781
-0.237799 -0.12271 0.836263
-0.239459 -0.123062 0.836689
-0.241187 -0.12342 0.837354
-0.242945 -0.12378 0.838114
-0.24464 -0.124137 0.838636
-0.24636 -0.124495 0.839237
-0.248125 -0.124858 0.839988
-0.249848 -0.125218 0.840576
-0.251602 -0.125581 0.841266
-0.253409 -0.125949 0.842126
-0.255275 -0.126323 0.843175
-0.257182 -0.1267 0.844349
-0.259127 -0.127082 0.845633
-0.261131 -0.12747 0.847103
-0.26322 -0.127868 0.848833
-0.2653 -0.128264 0.850513
-0.26731 -0.128655 0.851938
-0.124128 -0.0974415 0.8781
-0.125514 -0.097792 0.876965
-0.126885 -0.0981426 0.875744
-0.128217 -0.098493 0.874279
-0.129475 -0.0988455 0.872326
-0.130719 -0.0991967 0.870317
-0.131986 -0.0995457 0.868504
-0.133263 -0.0998928 0.866784
-0.134506 -0.100241 0.864884
-0.135744 -0.100586 0.862978
-0.136949 -0.100932 0.860901
-0.138132 -0.101276 0.858723
-0.139282 -0.101619 0.856369
-0.140423 -0.10196 0.854006
-0.141573 -0.1023 0.851746
-0.142736 -0.102638 0.849604
-0.143942 -0.102974 0.847766
-0.14519 -0.103309 0.846208
-0.146453 -0.103644 0.844763
-0.147723 -0.103977 0.843389
-0.149021 -0.104311 0.842195
-0.150243 -0.104642 0.840582
-0.151471 -0.104973 0.839035
-0.152737 -0.105303 0.837723
-0.154021 -0.105633 0.836532
-0.155314 -0.105962 0.835406
-0.156742 -0.106294 0.835044
-0.158176 -0.106625 0.834711
-0.159609 -0.106956 0.834379
-0.161169 -0.10729 0.834727
-0.162852 -0.107627 0.835719
-0.164612 -0.107968 0.837088
-0.16647 -0.108312 0.838942
-0.168346 -0.108658 0.840852
-0.1701 -0.109003 0.842103
-0.171795 -0.109344 0.843023
-0.173438 -0.109686 0.843662
-0.174966 -0.110024 0.843716
-0.17647 -0.110361 0.843643
-0.177945 -0.110698 0.843428
-0.179367 -0.111031 0.842952
-0.18076 -0.111364 0.842336
-0.182152 -0.111697 0.841729
-0.18354 -0.112028 0.841101
-0.18492 -0.112359 0.840447
-0.186302 -0.112691 0.839805
-0.187687 -0.113021 0.839187
-0.189149 -0.113357 0.838923
-0.190559 -0.113688 0.838427
-0.191965 -0.11402 0.837914
-0.193344 -0.11435 0.837287
-0.194737 -0.11468 0.836724
-0.196075 -0.115008 0.835924
-0.197452 -0.115337 0.835305
-0.198827 -0.115667 0.834683
-0.200183 -0.115993 0.833979
-0.201438 -0.116315 0.832853
-0.202664 -0.116633 0.831615
-0.203897 -0.116952 0.830421
-0.205072 -0.117266 0.828996
-0.206242 -0.117579 0.827572
-0.207424 -0.117893 0.82621
-0.208662 -0.11821 0.825092
-0.209928 -0.118528 0.824103
-0.211329 -0.118855 0.823674
-0.213204 -0.119217 0.82515
-0.215429 -0.119606 0.828006
-0.21775 -0.120004 0.831196
-0.220108 -0.120406 0.834487
-0.222353 -0.120801 0.837284
-0.224076 -0.121157 0.838015
-0.225628 -0.1215 0.83807
-0.227118 -0.121839 0.837883
-0.228526 -0.122171 0.837384
-0.229903 -0.122499 0.836766
-0.231356 -0.122835 0.836443
-0.232744 -0.123164 0.835878
-0.234195 -0.1235 0.835548
-0.235768 -0.123845 0.835673
-0.237467 -0.124201 0.836253
-0.239154 -0.124557 0.836779
-0.240914 -0.124919 0.837557
-0.242697 -0.125284 0.838408
-0.244415 -0.125643 0.839008
-0.246134 -0.126003 0.839605
-0.247899 -0.126369 0.840353
-0.24962 -0.126729 0.840937
-0.251351 -0.127092 0.841543
-0.253131 -0.12746 0.842307
-0.25497 -0.127833 0.843266
-0.256819 -0.128208 0.844238
-0.258679 -0.128584 0.845238
-0.260616 -0.128969 0.846482
-0.262644 -0.129363 0.848015
-0.264667 -0.129758 0.849509
-0.266649 -0.130149 0.850847
-0.123719 -0.0989675 0.877695
-0.125105 -0.0993167 0.876559
-0.126486 -0.0996643 0.875414
-0.127792 -0.100013 0.873762
-0.129051 -0.100363 0.871817
-0.130282 -0.100711 0.869719
-0.131547 -0.101058 0.867888
-0.132795 -0.101404 0.865983
-0.134038 -0.101748 0.864084
-0.135262 -0.102091 0.862091
-0.136492 -0.102433 0.86018
-0.137692 -0.102773 0.85811
-0.138874 -0.103113 0.855963
-0.140047 -0.10345 0.853802
-0.141243 -0.103787 0.85182
-0.142437 -0.104122 0.849864
-0.143676 -0.104457 0.848214
-0.144955 -0.10479 0.846837
-0.146235 -0.105123 0.845482
-0.147524 -0.105455 0.844206
-0.148838 -0.105787 0.843099
-0.150051 -0.106117 0.841422
-0.151267 -0.106446 0.839789
-0.15253 -0.106774 0.838451
-0.153799 -0.107102 0.837167
-0.155093 -0.10743 0.836041
-0.156585 -0.107763 0.836019
-0.158071 -0.108096 0.835965
-0.15956 -0.108429 0.83592
-0.161237 -0.108769 0.836882
-0.162997 -0.109112 0.838266
-0.164827 -0.109458 0.839983
-0.166748 -0.10981 0.842145
-0.168631 -0.110161 0.844067
-0.170336 -0.110506 0.845034
-0.171976 -0.11085 0.845656
-0.173531 -0.111189 0.845831
-0.174989 -0.111525 0.845512
-0.176456 -0.111862 0.845243
-0.177881 -0.112195 0.844762
-0.179267 -0.112528 0.8441
-0.180638 -0.112859 0.84337
-0.18199 -0.113189 0.842558
-0.18334 -0.113518 0.841743
-0.184703 -0.113848 0.840999
-0.186067 -0.114178 0.840268
-0.187433 -0.114508 0.839556
-0.188895 -0.114842 0.839289
-0.190304 -0.115174 0.838786
-0.191712 -0.115506 0.838279
-0.193073 -0.115833 0.837561
-0.194429 -0.116162 0.836834
-0.195692 -0.116483 0.835699
-0.196987 -0.116806 0.834719
-0.198255 -0.117127 0.833632
-0.199502 -0.117446 0.832464
-0.200645 -0.117757 0.830864
-0.201774 -0.118067 0.829227
-0.202909 -0.118376 0.82763
-0.204045 -0.118685 0.826059
-0.205213 -0.118995 0.824641
-0.206445 -0.11931 0.823507
-0.207754 -0.11963 0.822702
-0.209088 -0.119952 0.822007
-0.210794 -0.120302 0.822824
-0.212987 -0.120693 0.825592
-0.215457 -0.121107 0.829428
-0.217965 -0.121526 0.833356
-0.22045 -0.121945 0.837136
-0.222539 -0.122333 0.83931
-0.224127 -0.12268 0.839501
-0.225575 -0.123016 0.839145
-0.227019 -0.12335 0.838774
-0.228356 -0.123676 0.837995
-0.229664 -0.123998 0.837111
-0.231047 -0.124327 0.836522
-0.232415 -0.124654 0.835878
-0.233865 -0.124989 0.835546
-0.23544 -0.125335 0.835677
-0.237165 -0.125695 0.836353
-0.238875 -0.126054 0.836961
-0.240659 -0.126421 0.837827
-0.242444 -0.126788 0.838682
-0.244209 -0.127154 0.839454
-0.245927 -0.127515 0.840046
-0.247692 -0.127882 0.840791
-0.249417 -0.128245 0.841381
-0.251146 -0.128609 0.841979
-0.252879 -0.128973 0.842578
-0.254689 -0.129346 0.843438
-0.256482 -0.129718 0.844222
-0.258258 -0.130088 0.844934
-0.260107 -0.130466 0.845883
-0.262095 -0.130859 0.847284
-0.264086 -0.131253 0.848677
-0.266067 -0.131647 0.850017
-0.123391 -0.10049 0.877872
-0.124771 -0.100838 0.876691
-0.126149 -0.101185 0.875518
-0.127426 -0.101533 0.873659
-0.128673 -0.101879 0.871622
-0.129888 -0.102226 0.869413
-0.131139 -0.102569 0.867487
-0.132358 -0.102912 0.86539
-0.133573 -0.103253 0.863302
-0.134795 -0.103593 0.8613
-0.136039 -0.103932 0.859481
-0.137256 -0.104269 0.857518
-0.138469 -0.104605 0.855571
-0.139687 -0.104941 0.853688
-0.140926 -0.105275 0.851977
-0.142154 -0.105608 0.850223
-0.143424 -0.105941 0.848754
-0.144736 -0.106273 0.847563
-0.146029 -0.106605 0.84628
-0.147335 -0.106936 0.845094
-0.148667 -0.107267 0.844078
-0.149884 -0.107595 0.842407
-0.151101 -0.107922 0.840768
-0.152379 -0.10825 0.839498
-0.153635 -0.108576 0.83813
-0.154947 -0.108904 0.837093
-0.156494 -0.109239 0.837364
-0.158048 -0.109575 0.837672
-0.159612 -0.109912 0.83802
-0.16138 -0.110258 0.839453
-0.163204 -0.110608 0.841154
-0.165071 -0.11096 0.843045
-0.166978 -0.111316 0.845109
-0.168825 -0.11167 0.846819
-0.170491 -0.112016 0.847566
-0.17208 -0.112359 0.847902
-0.173551 -0.112696 0.847634
-0.174972 -0.11303 0.847119
-0.176407 -0.113365 0.846671
-0.177802 -0.113698 0.846031
-0.179142 -0.114027 0.84513
-0.180492 -0.114356 0.844292
-0.181808 -0.114684 0.843294
-0.18312 -0.11501 0.84229
-0.184447 -0.115337 0.841373
-0.185812 -0.115666 0.840641
-0.187181 -0.115995 0.839938
-0.188626 -0.116329 0.839593
-0.190016 -0.116659 0.838993
-0.191399 -0.116988 0.838371
-0.192719 -0.117313 0.837466
-0.193999 -0.117634 0.836397
-0.195162 -0.117947 0.834822
-0.196334 -0.11826 0.833304
-0.197476 -0.118569 0.831671
-0.198612 -0.118878 0.830036
-0.199687 -0.119181 0.82816
-0.200766 -0.119483 0.826323
-0.201873 -0.119788 0.82463
-0.203025 -0.120095 0.823146
-0.204216 -0.120404 0.821842
-0.205514 -0.120722 0.820999
-0.20691 -0.121048 0.820567
-0.208345 -0.121377 0.8203
-0.210394 -0.121759 0.822526
-0.212918 -0.122183 0.826635
-0.215649 -0.122627 0.831514
-0.218315 -0.123068 0.836063
-0.220696 -0.123485 0.839418
-0.222566 -0.123858 0.840721
-0.224009 -0.124193 0.840334
-0.225344 -0.124518 0.839534
-0.22674 -0.124848 0.838974
-0.22805 -0.12517 0.838088
-0.229333 -0.125489 0.837109
-0.230717 -0.125818 0.836523
-0.232107 -0.126146 0.835961
-0.233581 -0.126483 0.835716
-0.23516 -0.126831 0.83586
-0.236903 -0.127194 0.8366
-0.238611 -0.127555 0.8372
-0.240396 -0.127923 0.83807
-0.242159 -0.12829 0.838847
-0.243948 -0.12866 0.839703
-0.245668 -0.129024 0.8403
-0.247435 -0.129392 0.841053
-0.249162 -0.129757 0.841652
-0.250916 -0.130125 0.842334
-0.252626 -0.130489 0.84285
-0.254406 -0.13086 0.843603
-0.256146 -0.131228 0.844204
-0.257888 -0.131597 0.844803
-0.259684 -0.131971 0.845572
-0.261615 -0.132361 0.846787
-0.263573 -0.132754 0.848074
-0.265547 -0.13315 0.849397
-0.123058 -0.102015 0.878024
-0.124419 -0.102361 0.876697
-0.125797 -0.102707 0.875522
-0.127068 -0.103052 0.873611
-0.128311 -0.103395 0.871543
-0.129499 -0.103738 0.869137
-0.130732 -0.104079 0.86709
-0.131923 -0.104418 0.864802
-0.133137 -0.104756 0.86271
-0.134357 -0.105093 0.860696
-0.135616 -0.105429 0.858973
-0.136848 -0.105764 0.857114
-0.138092 -0.106098 0.855358
-0.139354 -0.106431 0.853753
-0.140639 -0.106764 0.852317
-0.141901 -0.107096 0.850763
-0.143189 -0.107427 0.849399
-0.144517 -0.107759 0.848295
-0.145813 -0.108089 0.847015
-0.147133 -0.10842 0.845905
-0.148484 -0.108751 0.844988
-0.149718 -0.109077 0.843406
-0.150951 -0.109403 0.841843
-0.152258 -0.10973 0.840727
-0.153534 -0.110056 0.839453
-0.154884 -0.110384 0.838613
-0.156498 -0.110724 0.839246
-0.158128 -0.111066 0.839947
-0.159755 -0.111408 0.840618
-0.161567 -0.111759 0.842267
-0.16338 -0.112112 0.843884
-0.165211 -0.112467 0.845565
-0.167044 -0.112823 0.847224
-0.168818 -0.113177 0.848541
-0.170432 -0.113522 0.849005
-0.17197 -0.113864 0.849068
-0.173389 -0.114198 0.848527
-0.174791 -0.114531 0.847903
-0.176208 -0.114865 0.847364
-0.17759 -0.115196 0.846651
-0.17895 -0.115526 0.845841
-0.180304 -0.115855 0.84501
-0.181601 -0.116179 0.843915
-0.182893 -0.116503 0.842809
-0.184201 -0.116828 0.841796
-0.185549 -0.117155 0.840981
-0.186921 -0.117483 0.840284
-0.188349 -0.117816 0.839854
-0.189718 -0.118144 0.839159
-0.19106 -0.11847 0.838343
-0.192317 -0.118788 0.837157
-0.193495 -0.1191 0.835628
-0.194549 -0.119402 0.833569
-0.19559 -0.119701 0.83148
-0.196619 -0.119999 0.829369
-0.197672 -0.120297 0.827384
-0.198725 -0.120595 0.825429
-0.199793 -0.120893 0.823562
-0.200908 -0.121195 0.821917
-0.202104 -0.121503 0.820637
-0.203358 -0.121816 0.819616
-0.204704 -0.122137 0.818984
-0.20616 -0.122467 0.818815
-0.207886 -0.122823 0.819748
-0.210296 -0.123242 0.823451
-0.213183 -0.123708 0.829027
-0.216147 -0.124184 0.834835
-0.218872 -0.124639 0.8396
-0.221014 -0.125041 0.84199
-0.222625 -0.125392 0.842256
-0.223841 -0.125704 0.840973
-0.225082 -0.126019 0.839801
-0.226451 -0.126346 0.839138
-0.227735 -0.126664 0.838148
-0.229014 -0.126982 0.837154
-0.230378 -0.127308 0.836488
-0.231773 -0.127637 0.835945
-0.23327 -0.127976 0.835787
-0.234848 -0.128324 0.835923
-0.23657 -0.128687 0.836587
-0.238275 -0.129049 0.837177
-0.240057 -0.129419 0.838037
-0.241797 -0.129785 0.838732
-0.243612 -0.13016 0.839681
-0.245358 -0.130528 0.840373
-0.247156 -0.130902 0.841235
-0.248909 -0.131271 0.841923
-0.250662 -0.131641 0.842605
-0.252368 -0.132005 0.843107
-0.254123 -0.132376 0.843767
-0.255834 -0.132742 0.844271
-0.257552 -0.133109 0.844784
-0.259321 -0.133482 0.845465
-0.261175 -0.133865 0.846421
-0.263101 -0.134257 0.847604
-0.265045 -0.134652 0.848829
-0.122789 -0.10354 0.878642
-0.124159 -0.103885 0.877368
-0.125539 -0.104229 0.876196
-0.126773 -0.104571 0.874007
-0.127994 -0.104912 0.871778
-0.129124 -0.10525 0.868961
-0.130292 -0.105587 0.866467
-0.131488 -0.105923 0.864208
-0.132713 -0.106258 0.862194
-0.133962 -0.106593 0.860369
-0.135249 -0.106927 0.858829
-0.136513 -0.10726 0.857172
-0.137813 -0.107593 0.855774
-0.139121 -0.107926 0.854446
-0.14044 -0.108258 0.853215
-0.14175 -0.10859 0.851941
-0.143058 -0.108921 0.850685
-0.144374 -0.109251 0.84949
-0.145669 -0.10958 0.848191
-0.146992 -0.109909 0.847078
-0.148346 -0.11024 0.846168
-0.149614 -0.110566 0.84477
-0.150881 -0.110891 0.843386
-0.152224 -0.111219 0.842459
-0.153536 -0.111546 0.841366
-0.154909 -0.111875 0.840635
-0.156546 -0.112219 0.841375
-0.158216 -0.112564 0.842279
-0.159883 -0.112911 0.843143
-0.16169 -0.113266 0.844746
-0.163451 -0.11362 0.846071
-0.165205 -0.113974 0.847325
-0.166944 -0.114327 0.848473
-0.1686 -0.114677 0.849171
-0.170148 -0.115019 0.849291
-0.171654 -0.115359 0.849187
-0.173055 -0.115691 0.848549
-0.174454 -0.116024 0.84791
-0.175868 -0.116357 0.847353
-0.17725 -0.116687 0.84664
-0.178629 -0.117018 0.84592
-0.179986 -0.117346 0.845103
-0.181266 -0.117668 0.84392
-0.182556 -0.11799 0.842803
-0.183861 -0.118313 0.841771
-0.18519 -0.118638 0.840867
-0.186562 -0.118966 0.84017
-0.18797 -0.119296 0.839648
-0.189319 -0.119622 0.83886
-0.190619 -0.119943 0.837854
-0.191798 -0.120253 0.836316
-0.19285 -0.120552 0.834227
-0.193792 -0.12084 0.831676
-0.194716 -0.121125 0.829081
-0.195677 -0.121413 0.82668
-0.196707 -0.121706 0.824616
-0.197807 -0.122005 0.822878
-0.198962 -0.122308 0.821401
-0.200166 -0.122615 0.820151
-0.20143 -0.122927 0.819165
-0.202745 -0.123244 0.818409
-0.204128 -0.123568 0.817941
-0.20582 -0.123922 0.818752
-0.20781 -0.124305 0.820772
-0.210512 -0.124761 0.825665
-0.21657 -0.125744 0.837864
-0.21908 -0.126187 0.841758
-0.220995 -0.12657 0.843236
-0.222392 -0.126901 0.842652
-0.223573 -0.127208 0.841227
-0.224763 -0.127516 0.839853
-0.226086 -0.127837 0.839008
-0.227345 -0.128151 0.837923
-0.228624 -0.128467 0.836926
-0.229989 -0.128793 0.836267
-0.231409 -0.129124 0.835816
-0.232935 -0.129467 0.835764
-0.234514 -0.129815 0.835907
-0.236232 -0.13018 0.836559
-0.237935 -0.130543 0.83714
-0.23967 -0.13091 0.837832
-0.241408 -0.131277 0.838518
-0.243222 -0.131654 0.839468
-0.24497 -0.132023 0.840168
-0.246798 -0.132403 0.841136
-0.248601 -0.132779 0.842006
-0.25036 -0.133151 0.842704
-0.252087 -0.13352 0.843279
-0.253839 -0.133892 0.843934
-0.255524 -0.134256 0.844343
-0.257243 -0.134625 0.844861
-0.259012 -0.135 0.845545
-0.260842 -0.135382 0.846418
-0.262762 -0.135776 0.847584
-0.264727 -0.136176 0.848879
-0.269517 -0.135343 0.858424
-0.266672 -0.136574 0.850092
-0.125273 -0.105754 0.876815
-0.126452 -0.106092 0.874225
-0.127618 -0.106429 0.871602
-0.128664 -0.10676 0.868199
-0.129826 -0.107093 0.865662
-0.131037 -0.107426 0.863508
-0.132278 -0.107759 0.861603
-0.13357 -0.108092 0.860063
-0.13489 -0.108425 0.858737
-0.136185 -0.108757 0.857275
-0.137543 -0.109091 0.856243
-0.138897 -0.109424 0.855202
-0.140267 -0.109757 0.854275
-0.141612 -0.110089 0.853206
-0.14295 -0.110419 0.852117
-0.144264 -0.110749 0.850893
-0.145572 -0.111077 0.849655
-0.146897 -0.111406 0.848539
-0.148273 -0.111737 0.847736
-0.149578 -0.112063 0.846533
-0.150881 -0.112389 0.845341
-0.152247 -0.112718 0.844522
-0.153581 -0.113045 0.843532
-0.15499 -0.113377 0.842977
-0.156631 -0.113723 0.843722
-0.158319 -0.114072 0.844705
-0.159972 -0.11442 0.845471
-0.161729 -0.114776 0.846788
-0.163405 -0.115127 0.847637
-0.165068 -0.115477 0.848394
-0.166701 -0.115826 0.848981
-0.168288 -0.116172 0.849311
-0.169803 -0.116512 0.849259
-0.171292 -0.116851 0.849069
-0.172692 -0.117183 0.848429
-0.174074 -0.117513 0.847699
-0.17547 -0.117845 0.847054
-0.17685 -0.118174 0.846332
-0.178229 -0.118503 0.845614
-0.179571 -0.118829 0.844723
-0.180852 -0.11915 0.843549
-0.18214 -0.11947 0.842421
-0.183425 -0.11979 0.841293
-0.184735 -0.120112 0.840299
-0.186105 -0.120439 0.839597
-0.187493 -0.120767 0.838984
-0.188786 -0.121087 0.837943
-0.190043 -0.121402 0.836747
-0.191142 -0.121703 0.834853
-0.192074 -0.121986 0.832231
-0.192928 -0.122262 0.829297
-0.19382 -0.12254 0.826574
-0.194744 -0.122819 0.824026
-0.195816 -0.123113 0.822162
-0.197017 -0.123418 0.820875
-0.198274 -0.123729 0.819849
-0.199545 -0.124041 0.818892
-0.200868 -0.124358 0.818166
-0.202412 -0.124698 0.818374
-0.20402 -0.125045 0.818843
-0.205968 -0.125427 0.82071
-0.208279 -0.125849 0.82404
-0.211258 -0.126343 0.830046
-0.214124 -0.126828 0.835509
-0.216952 -0.127312 0.840737
-0.219202 -0.127734 0.843577
-0.220844 -0.12809 0.843961
-0.22202 -0.128396 0.8425
-0.22318 -0.128698 0.84099
-0.224348 -0.129002 0.839531
-0.225675 -0.129323 0.838698
-0.226935 -0.129636 0.83762
-0.228233 -0.129953 0.836698
-0.229622 -0.13028 0.836126
-0.231046 -0.130611 0.835691
-0.232552 -0.130952 0.835566
-0.234151 -0.131304 0.835786
-0.235847 -0.131667 0.836355
-0.237526 -0.132029 0.836853
-0.239236 -0.132394 0.837453
-0.24097 -0.132763 0.838127
-0.242777 -0.133141 0.839057
-0.24455 -0.133515 0.839848
-0.246405 -0.1339 0.840918
-0.248239 -0.134282 0.841897
-0.250024 -0.134659 0.842688
-0.251754 -0.135029 0.843272
-0.253505 -0.135403 0.843923
-0.255166 -0.135765 0.844255
-0.256907 -0.136138 0.844851
-0.258679 -0.136515 0.845539
-0.260506 -0.136899 0.846406
-0.262424 -0.137295 0.847563
-0.264384 -0.137697 0.848845
-0.26633 -0.138098 0.850062
-0.124988 -0.107281 0.877302
-0.126112 -0.107614 0.874305
-0.128197 -0.108268 0.867378
-0.129334 -0.108596 0.864679
-0.130579 -0.108927 0.862757
-0.131853 -0.109258 0.861076
-0.133192 -0.109591 0.859854
-0.134545 -0.109924 0.858743
-0.135886 -0.110256 0.857574
-0.137304 -0.110592 0.85692
-0.138721 -0.110927 0.856262
-0.140156 -0.111263 0.855729
-0.141561 -0.111597 0.855021
-0.142919 -0.111928 0.854027
-0.144219 -0.112255 0.8527
-0.145525 -0.112583 0.851428
-0.146839 -0.11291 0.850219
-0.148206 -0.113239 0.849351
-0.149546 -0.113567 0.848335
-0.150902 -0.113896 0.847422
-0.15229 -0.114226 0.846709
-0.153644 -0.114554 0.845812
-0.15507 -0.114887 0.84533
-0.15668 -0.115233 0.84588
-0.158334 -0.115582 0.846656
-0.15995 -0.11593 0.847203
-0.161625 -0.116282 0.848056
-0.163215 -0.116628 0.848436
-0.164805 -0.116975 0.848803
-0.166352 -0.117318 0.848932
-0.16787 -0.117659 0.8489
-0.169364 -0.117998 0.848744
-0.170833 -0.118335 0.848453
-0.172234 -0.118667 0.847819
-0.173601 -0.118995 0.847022
-0.17498 -0.119323 0.846294
-0.176357 -0.119652 0.845558
-0.177733 -0.11998 0.844831
-0.179057 -0.120303 0.843859
-0.180355 -0.120623 0.842771
-0.181659 -0.120944 0.841725
-0.182946 -0.121262 0.840611
-0.184204 -0.121578 0.839374
-0.185532 -0.121899 0.838481
-0.186843 -0.122219 0.837516
-0.188072 -0.122531 0.83619
-0.189272 -0.122838 0.834744
-0.190328 -0.123131 0.832667
-0.191219 -0.123406 0.82987
-0.192085 -0.123678 0.827005
-0.192983 -0.123952 0.824319
-0.19397 -0.124234 0.822065
-0.195185 -0.124539 0.820835
-0.196546 -0.12486 0.820248
-0.197944 -0.125185 0.819833
-0.199351 -0.12551 0.819453
-0.200812 -0.125842 0.819306
-0.20255 -0.126204 0.820323
-0.20435 -0.126573 0.821581
-0.206489 -0.126981 0.824222
-0.209016 -0.127435 0.828422
-0.211809 -0.12792 0.833645
-0.214336 -0.128377 0.837714
-0.216805 -0.128828 0.841486
-0.218772 -0.129223 0.843192
-0.220205 -0.129556 0.842745
-0.221458 -0.129868 0.841596
-0.222672 -0.130175 0.840302
-0.223912 -0.130485 0.839125
-0.225265 -0.130808 0.838396
-0.226572 -0.131125 0.837498
-0.227918 -0.131447 0.836754
-0.229309 -0.131774 0.836191
-0.230734 -0.132105 0.835759
-0.232215 -0.132443 0.83554
-0.233768 -0.13279 0.835587
-0.235412 -0.133148 0.835966
-0.237065 -0.133507 0.836371
-0.238726 -0.133868 0.836797
-0.240456 -0.134238 0.837464
-0.242235 -0.134614 0.838296
-0.244006 -0.13499 0.839083
-0.245881 -0.135379 0.840232
-0.24777 -0.135771 0.841407
-0.249584 -0.136153 0.842308
-0.251365 -0.136532 0.843073
-0.25314 -0.13691 0.843808
-0.254801 -0.137273 0.844139
-0.256567 -0.137651 0.84482
-0.258339 -0.138029 0.845513
-0.260168 -0.138416 0.846385
-0.262086 -0.138814 0.847542
-0.264072 -0.139223 0.848915
-0.265993 -0.139623 0.850051
-0.124707 -0.10881 0.877821
-0.127719 -0.109773 0.866483
-0.12888 -0.110097 0.863946
-0.130186 -0.110428 0.862446
-0.131522 -0.11076 0.86118
-0.132903 -0.111094 0.860231
-0.134321 -0.11143 0.859535
-0.135721 -0.111764 0.858743
-0.137215 -0.112104 0.858558
-0.13871 -0.112444 0.85838
-0.140211 -0.112785 0.858243
-0.14167 -0.113122 0.857837
-0.14302 -0.113453 0.856765
-0.144278 -0.113776 0.855148
-0.145555 -0.1141 0.853669
-0.146826 -0.114423 0.852187
-0.148168 -0.11475 0.851144
-0.149526 -0.115079 0.850211
-0.150914 -0.115409 0.849464
-0.152294 -0.115739 0.848682
-0.15365 -0.116066 0.847776
-0.155075 -0.116398 0.847265
-0.156641 -0.116743 0.84755
-0.15823 -0.117089 0.847952
-0.159792 -0.117434 0.848196
-0.161397 -0.117782 0.848663
-0.162921 -0.118124 0.848678
-0.164459 -0.118467 0.848769
-0.165954 -0.118806 0.84862
-0.167399 -0.119141 0.84821
-0.168836 -0.119475 0.847763
-0.170252 -0.119806 0.847208
-0.171635 -0.120135 0.846491
-0.172985 -0.12046 0.845618
-0.174363 -0.120788 0.844893
-0.175734 -0.121114 0.844142
-0.177107 -0.121441 0.84341
-0.178413 -0.121761 0.842354
-0.179711 -0.122079 0.841276
-0.181031 -0.1224 0.84032
-0.182301 -0.122715 0.839134
-0.183538 -0.123026 0.837806
-0.184842 -0.123344 0.836812
-0.186124 -0.123659 0.835723
-0.187309 -0.123964 0.834202
-0.188517 -0.12427 0.832809
-0.189587 -0.124561 0.830805
-0.190521 -0.124836 0.828214
-0.19145 -0.12511 0.825637
-0.192487 -0.125395 0.823574
-0.193642 -0.125692 0.822059
-0.195048 -0.126018 0.821664
-0.196581 -0.126358 0.821816
-0.198146 -0.126702 0.822104
-0.199662 -0.12704 0.822178
-0.20118 -0.127379 0.82225
-0.203002 -0.127754 0.823603
-0.20492 -0.128141 0.82533
-0.207174 -0.128568 0.828428
-0.209656 -0.129024 0.832417
-0.212122 -0.12948 0.836282
-0.214291 -0.129901 0.838879
-0.216375 -0.130313 0.841094
-0.218077 -0.130679 0.841741
-0.219522 -0.131013 0.841357
-0.220852 -0.131332 0.840514
-0.222141 -0.131647 0.839522
-0.223478 -0.131967 0.838723
-0.22486 -0.132293 0.838109
-0.226196 -0.132613 0.837322
-0.227568 -0.132937 0.83668
-0.228937 -0.133261 0.836034
-0.230338 -0.133588 0.83551
-0.231791 -0.133922 0.835185
-0.233311 -0.134265 0.835114
-0.234901 -0.134618 0.835296
-0.236527 -0.134975 0.835606
-0.238158 -0.135333 0.835928
-0.239865 -0.135701 0.836514
-0.241616 -0.136075 0.837255
-0.243382 -0.136452 0.83803
-0.24528 -0.136847 0.839266
-0.247194 -0.137244 0.84054
-0.249061 -0.137636 0.84163
-0.250893 -0.138023 0.842584
-0.252718 -0.138409 0.843497
-0.254404 -0.138777 0.843912
-0.256197 -0.13916 0.844689
-0.257971 -0.13954 0.845388
-0.259804 -0.139929 0.846275
-0.261721 -0.14033 0.847436
-0.263735 -0.140745 0.8489
-0.265659 -0.141148 0.850048
-0.267937 -0.140026 0.851241
-0.267627 -0.141558 0.85132
-0.129832 -0.111932 0.862397
-0.131224 -0.112266 0.861503
-0.132673 -0.112604 0.861002
-0.134144 -0.112943 0.860649
-0.135632 -0.113283 0.860413
-0.137204 -0.113629 0.860716
-0.138796 -0.113977 0.861129
-0.140352 -0.114322 0.861307
-0.141861 -0.114664 0.861185
-0.143188 -0.114992 0.85993
-0.144405 -0.115311 0.85802
-0.145618 -0.115628 0.856128
-0.146841 -0.115945 0.854323
-0.14814 -0.116268 0.853001
-0.149484 -0.116595 0.851966
-0.150873 -0.116925 0.851209
-0.152238 -0.117253 0.850322
-0.153582 -0.117578 0.849323
-0.154976 -0.117908 0.848627
-0.156494 -0.118249 0.84863
-0.158019 -0.118591 0.848667
-0.159516 -0.11893 0.848546
-0.161054 -0.119274 0.848647
-0.162527 -0.119611 0.848388
-0.164015 -0.119949 0.84821
-0.165473 -0.120285 0.847871
-0.166879 -0.120615 0.847262
-0.168275 -0.120944 0.84661
-0.16965 -0.121271 0.845851
-0.171012 -0.121596 0.845036
-0.172343 -0.121918 0.844073
-0.173701 -0.122243 0.843264
-0.175053 -0.122566 0.842426
-0.176388 -0.122888 0.841519
-0.177672 -0.123203 0.840372
-0.17895 -0.123518 0.839214
-0.180287 -0.123839 0.838349
-0.18156 -0.124152 0.837189
-0.182795 -0.124461 0.835865
-0.184073 -0.124774 0.834763
-0.185338 -0.125086 0.833612
-0.186499 -0.125385 0.831995
-0.187727 -0.125691 0.830705
-0.18888 -0.125988 0.82909
-0.189949 -0.126275 0.827118
-0.191056 -0.126566 0.825345
-0.192301 -0.126873 0.824207
-0.193666 -0.127193 0.823611
-0.195249 -0.12754 0.823974
-0.196903 -0.127896 0.824639
-0.198567 -0.128254 0.825335
-0.200161 -0.128603 0.825713
-0.201736 -0.12895 0.826004
-0.203615 -0.129336 0.827571
-0.205649 -0.129741 0.829758
-0.207924 -0.130178 0.832916
-0.210194 -0.130615 0.836006
-0.212355 -0.13104 0.838598
-0.214232 -0.131429 0.839991
-0.215974 -0.131801 0.840818
-0.217435 -0.132137 0.840501
-0.218881 -0.13247 0.840127
-0.220302 -0.132801 0.839654
-0.221661 -0.133123 0.838941
-0.223069 -0.133452 0.838421
-0.224499 -0.133783 0.837995
-0.225861 -0.134106 0.837308
-0.227236 -0.134429 0.836677
-0.228607 -0.134753 0.836033
-0.230002 -0.135079 0.835488
-0.23138 -0.135403 0.834879
-0.232847 -0.135739 0.834612
-0.234362 -0.136082 0.834521
-0.235932 -0.136432 0.834627
-0.237515 -0.136784 0.834781
-0.239216 -0.137153 0.835353
-0.240944 -0.137526 0.836018
-0.242729 -0.137907 0.836873
-0.244599 -0.1383 0.838019
-0.246533 -0.138703 0.83937
-0.248428 -0.1391 0.840569
-0.250315 -0.139497 0.841719
-0.252171 -0.13989 0.842746
-0.25393 -0.14027 0.843421
-0.255751 -0.140658 0.844296
-0.257552 -0.141044 0.845091
-0.259413 -0.141439 0.846075
-0.261354 -0.141846 0.84732
-0.263394 -0.142268 0.848872
-0.265371 -0.142681 0.8502
-0.267374 -0.143098 0.851589
-0.130997 -0.113779 0.862311
-0.132483 -0.114119 0.862047
-0.134007 -0.114462 0.86203
-0.135599 -0.114811 0.862459
-0.137227 -0.115164 0.863102
-0.138903 -0.11552 0.86403
-0.140538 -0.115874 0.864671
-0.14207 -0.116219 0.864658
-0.143384 -0.116545 0.863281
-0.144568 -0.116859 0.861131
-0.145715 -0.117168 0.858801
-0.14686 -0.117476 0.856495
-0.148095 -0.117792 0.854771
-0.149364 -0.11811 0.85327
-0.150722 -0.118437 0.852314
-0.152043 -0.118759 0.85116
-0.153369 -0.119082 0.850051
-0.154747 -0.119409 0.849253
-0.156248 -0.119749 0.849156
-0.157726 -0.120087 0.848929
-0.159187 -0.120423 0.848606
-0.160659 -0.12076 0.848341
-0.162095 -0.121093 0.847886
-0.163517 -0.121424 0.847362
-0.164939 -0.121756 0.846838
-0.166323 -0.122083 0.846123
-0.167713 -0.122411 0.845442
-0.169051 -0.122732 0.844504
-0.170407 -0.123056 0.843669
-0.171732 -0.123375 0.842687
-0.173071 -0.123696 0.841785
-0.174387 -0.124014 0.840781
-0.1757 -0.124332 0.839778
-0.176962 -0.124643 0.838535
-0.178217 -0.124953 0.837274
-0.179537 -0.125271 0.836346
-0.180807 -0.125582 0.835185
-0.182042 -0.125888 0.833877
-0.183331 -0.126201 0.832838
-0.1846 -0.126511 0.831718
-0.185782 -0.12681 0.830211
-0.187052 -0.12712 0.829123
-0.188322 -0.127429 0.828055
-0.189539 -0.127731 0.826753
-0.190876 -0.128048 0.826009
-0.192331 -0.12838 0.8258
-0.193887 -0.128725 0.826035
-0.195605 -0.129092 0.826976
-0.197366 -0.129464 0.828086
-0.199101 -0.129833 0.82906
-0.200767 -0.130193 0.829725
-0.202433 -0.130554 0.83037
-0.204366 -0.13095 0.832135
-0.206419 -0.131363 0.834374
-0.208458 -0.131775 0.836518
-0.21048 -0.132185 0.83856
-0.212369 -0.132578 0.84002
-0.213994 -0.132936 0.840381
-0.215476 -0.133275 0.840151
-0.216936 -0.13361 0.839836
-0.218383 -0.133944 0.839467
-0.219827 -0.134277 0.839088
-0.221211 -0.134602 0.838474
-0.222664 -0.134936 0.838135
-0.224138 -0.135274 0.837879
-0.225523 -0.135598 0.83728
-0.226898 -0.135922 0.836647
-0.228263 -0.136243 0.835982
-0.229633 -0.136566 0.83534
-0.230943 -0.136879 0.834477
-0.232359 -0.137208 0.834021
-0.233799 -0.13754 0.833652
-0.235292 -0.13788 0.833483
-0.236843 -0.138228 0.833526
-0.238517 -0.138594 0.834011
-0.240247 -0.138969 0.834689
-0.242029 -0.139351 0.835541
-0.243894 -0.139746 0.836679
-0.24582 -0.14015 0.838015
-0.247762 -0.140557 0.839387
-0.249678 -0.14096 0.840649
-0.251592 -0.141364 0.841883
-0.253431 -0.141757 0.842837
-0.255302 -0.142155 0.843895
-0.257132 -0.142547 0.844791
-0.259017 -0.142948 0.845862
-0.26101 -0.143365 0.847279
-0.263077 -0.143794 0.848927
-0.265087 -0.144215 0.850363
-0.267123 -0.14464 0.851864
-0.129405 -0.114965 0.864229
-0.130873 -0.115304 0.863822
-0.132377 -0.115646 0.863663
-0.133966 -0.115996 0.864056
-0.135639 -0.116354 0.864989
-0.137322 -0.116714 0.865965
-0.139054 -0.117079 0.867224
-0.140738 -0.117439 0.868143
-0.142259 -0.117785 0.868023
-0.143544 -0.118106 0.866429
-0.144671 -0.118412 0.863891
-0.145756 -0.118711 0.861144
-0.14682 -0.119008 0.858326
-0.14799 -0.119315 0.856186
-0.149182 -0.119623 0.85422
-0.150507 -0.119945 0.853056
-0.151794 -0.120263 0.851696
-0.153104 -0.120582 0.850488
-0.154452 -0.120906 0.849514
-0.155939 -0.121245 0.849333
-0.157383 -0.121578 0.848912
-0.158808 -0.12191 0.848392
-0.160226 -0.122241 0.847836
-0.161624 -0.122569 0.847175
-0.163009 -0.122896 0.846457
-0.164412 -0.123224 0.845837
-0.165764 -0.123547 0.844961
-0.167139 -0.123872 0.844211
-0.168458 -0.12419 0.843184
-0.169795 -0.12451 0.842259
-0.171116 -0.124827 0.841268
-0.172453 -0.125147 0.840365
-0.17375 -0.125461 0.839281
-0.17504 -0.125774 0.838169
-0.176277 -0.12608 0.836816
-0.177492 -0.126383 0.835371
-0.178793 -0.126697 0.834361
-0.18006 -0.127006 0.833201
-0.181296 -0.12731 0.831909
-0.182589 -0.127622 0.830903
-0.183879 -0.127933 0.829896
-0.18519 -0.128246 0.828997
-0.186581 -0.12857 0.828479
-0.188014 -0.1289 0.828154
-0.189448 -0.129229 0.827835
-0.190995 -0.129574 0.828025
-0.192575 -0.129923 0.828359
-0.194267 -0.130288 0.829178
-0.196059 -0.130667 0.83042
-0.197838 -0.131044 0.83158
-0.199607 -0.131421 0.832682
-0.201317 -0.131789 0.833505
-0.203049 -0.132161 0.834407
-0.20483 -0.13254 0.835499
-0.206707 -0.132933 0.836977
-0.208514 -0.133317 0.838139
-0.210299 -0.133698 0.839187
-0.211944 -0.13406 0.839644
-0.213546 -0.134415 0.83991
-0.215005 -0.13475 0.839591
-0.216485 -0.135089 0.839357
-0.217954 -0.135425 0.83908
-0.219442 -0.135765 0.838877
-0.220872 -0.136096 0.838448
-0.22237 -0.136436 0.838284
-0.223846 -0.136774 0.838034
-0.225249 -0.137101 0.837504
-0.2266 -0.13742 0.836776
-0.227921 -0.137735 0.835937
-0.229245 -0.138049 0.835121
-0.230529 -0.138358 0.834159
-0.231855 -0.138673 0.833365
-0.233217 -0.138993 0.832714
-0.234654 -0.139324 0.832341
-0.236152 -0.139665 0.832196
-0.237802 -0.140028 0.832604
-0.23953 -0.140404 0.833281
-0.241311 -0.140788 0.834142
-0.243168 -0.141184 0.83526
-0.245111 -0.141593 0.836667
-0.24707 -0.142006 0.83811
-0.249066 -0.142424 0.83966
-0.251033 -0.142838 0.84109
-0.252953 -0.143246 0.842332
-0.254876 -0.143654 0.843567
-0.256736 -0.144053 0.84457
-0.258623 -0.144456 0.84565
-0.260669 -0.144885 0.847248
-0.262788 -0.145326 0.849077
-0.264862 -0.14576 0.850724
-0.266985 -0.146202 0.852515
-0.127741 -0.116149 0.865703
-0.129257 -0.116493 0.865604
-0.130737 -0.116833 0.865259
-0.132282 -0.11718 0.865358
-0.133937 -0.117538 0.866172
-0.135685 -0.117907 0.867576
-0.137396 -0.118272 0.868706
-0.139162 -0.118643 0.870155
-0.140862 -0.119009 0.871148
-0.142342 -0.11935 0.870732
-0.143616 -0.119669 0.869039
-0.144729 -0.119969 0.866383
-0.145761 -0.120259 0.863287
-0.146763 -0.120545 0.860058
-0.147882 -0.120843 0.857595
-0.148993 -0.121139 0.855124
-0.150241 -0.121451 0.853506
-0.151496 -0.121763 0.851949
-0.15279 -0.122079 0.850643
-0.154124 -0.1224 0.849582
-0.155582 -0.122735 0.84924
-0.157008 -0.123066 0.848716
-0.158412 -0.123395 0.848081
-0.159777 -0.123719 0.847233
-0.161139 -0.124042 0.846386
-0.162502 -0.124365 0.84555
-0.163887 -0.12469 0.844845
-0.165222 -0.125009 0.843881
-0.166614 -0.125335 0.84323
-0.167937 -0.125652 0.842232
-0.169276 -0.125971 0.841322
-0.170614 -0.12629 0.840421
-0.17195 -0.126608 0.839523
-0.17323 -0.126918 0.838354
-0.1745 -0.127227 0.837151
-0.175713 -0.127528 0.835684
-0.17689 -0.127824 0.834063
-0.178167 -0.128132 0.832944
-0.1794 -0.128435 0.83163
-0.180682 -0.128744 0.830569
-0.182032 -0.129062 0.829842
-0.183491 -0.129395 0.829628
-0.184983 -0.129732 0.829575
-0.186553 -0.130081 0.829873
-0.188147 -0.130433 0.830274
-0.189742 -0.130786 0.830668
-0.191368 -0.131143 0.831192
-0.193018 -0.131504 0.831814
-0.194755 -0.131877 0.832806
-0.196509 -0.132254 0.833854
-0.198239 -0.132627 0.834781
-0.199948 -0.132997 0.835595
-0.201621 -0.133363 0.83624
-0.203286 -0.133728 0.836836
-0.204971 -0.134095 0.837509
-0.206724 -0.134473 0.838449
-0.208396 -0.13484 0.839037
-0.210026 -0.1352 0.839438
-0.211605 -0.135553 0.839619
-0.213182 -0.135906 0.839784
-0.21466 -0.136244 0.839544
-0.21616 -0.136585 0.839388
-0.217655 -0.136926 0.839213
-0.219169 -0.137269 0.839113
-0.220625 -0.137604 0.838783
-0.222127 -0.137945 0.838632
-0.223604 -0.138283 0.838386
-0.224988 -0.138607 0.837775
-0.226315 -0.138921 0.836949
-0.22761 -0.139231 0.836013
-0.228909 -0.139541 0.835099
-0.230147 -0.139841 0.833963
-0.231422 -0.140147 0.832979
-0.232709 -0.140455 0.832046
-0.23409 -0.140777 0.831471
-0.235536 -0.141109 0.831138
-0.237182 -0.141473 0.83154
-0.238912 -0.141851 0.832234
-0.240713 -0.14224 0.833173
-0.242545 -0.142634 0.834207
-0.244457 -0.143041 0.835512
-0.24639 -0.143452 0.836871
-0.248408 -0.143877 0.83851
-0.250406 -0.144299 0.840054
-0.252404 -0.144722 0.841577
-0.254404 -0.145145 0.843083
-0.256316 -0.145555 0.84427
-0.258256 -0.145969 0.845531
-0.260358 -0.14641 0.847324
-0.262538 -0.146865 0.849357
-0.264673 -0.147312 0.851213
-0.266882 -0.147772 0.853289
-0.126261 -0.117357 0.868508
-0.127659 -0.117689 0.867561
-0.129135 -0.118029 0.867167
-0.130625 -0.11837 0.866871
-0.132194 -0.118721 0.867109
-0.133908 -0.119088 0.868302
-0.135688 -0.119463 0.869897
-0.137404 -0.119832 0.871033
-0.139141 -0.120203 0.872274
-0.140813 -0.120568 0.873068
-0.142247 -0.120904 0.872341
-0.143523 -0.121221 0.870637
-0.144613 -0.121515 0.867818
-0.145637 -0.121799 0.864644
-0.146623 -0.122078 0.861304
-0.14771 -0.122369 0.858627
-0.148757 -0.122653 0.855766
-0.149958 -0.122957 0.853853
-0.151166 -0.12326 0.852018
-0.152442 -0.123572 0.850606
-0.153748 -0.123888 0.849382
-0.15519 -0.124221 0.848949
-0.156583 -0.124548 0.848244
-0.157968 -0.124873 0.847502
-0.159283 -0.125189 0.84639
-0.160628 -0.125508 0.845449
-0.161972 -0.125828 0.844523
-0.163354 -0.126152 0.843808
-0.164719 -0.126474 0.84301
-0.166145 -0.126804 0.842542
-0.167503 -0.127124 0.841728
-0.168862 -0.127445 0.840927
-0.170235 -0.127767 0.840205
-0.171573 -0.128084 0.839316
-0.172838 -0.128391 0.83807
-0.174092 -0.128696 0.836787
-0.175302 -0.128994 0.835305
-0.176461 -0.129285 0.833592
-0.177701 -0.129586 0.832296
-0.178945 -0.129889 0.831041
-0.180331 -0.130211 0.830477
-0.181799 -0.130546 0.830304
-0.183402 -0.1309 0.830766
-0.185059 -0.131263 0.831468
-0.186758 -0.131632 0.83235
-0.188409 -0.131994 0.832993
-0.190067 -0.132357 0.833654
-0.191744 -0.132724 0.834385
-0.193397 -0.133087 0.834996
-0.195109 -0.133459 0.835856
-0.196822 -0.133832 0.836701
-0.198492 -0.134199 0.837341
-0.200106 -0.134557 0.837726
-0.201722 -0.134916 0.83811
-0.203347 -0.135276 0.838523
-0.204976 -0.135637 0.838944
-0.206628 -0.136001 0.839448
-0.208215 -0.136356 0.839675
-0.209774 -0.136707 0.839776
-0.211287 -0.13705 0.839678
-0.212819 -0.137397 0.839663
-0.214321 -0.137738 0.839518
-0.215845 -0.138084 0.839461
-0.217366 -0.138428 0.83939
-0.218906 -0.138776 0.83939
-0.220387 -0.139115 0.839156
-0.221893 -0.139457 0.839017
-0.223372 -0.139795 0.838773
-0.224757 -0.140119 0.838163
-0.226081 -0.140432 0.837325
-0.227355 -0.140737 0.836303
-0.228605 -0.141038 0.835197
-0.229792 -0.141328 0.833868
-0.230993 -0.141621 0.832602
-0.232205 -0.141915 0.831392
-0.233554 -0.142231 0.830705
-0.234996 -0.142563 0.83036
-0.236668 -0.142932 0.830859
-0.238421 -0.143315 0.831645
-0.240247 -0.14371 0.832677
-0.242028 -0.144098 0.833533
-0.24391 -0.144503 0.834736
-0.245788 -0.144908 0.835909
-0.247803 -0.145335 0.837543
-0.249805 -0.145762 0.839106
-0.251878 -0.1462 0.840899
-0.253933 -0.146635 0.842602
-0.255898 -0.147056 0.843974
-0.257894 -0.147483 0.845429
-0.260076 -0.147941 0.847497
-0.262318 -0.14841 0.84974
-0.264539 -0.148876 0.851883
-0.266838 -0.149355 0.854254
-0.126261 -0.118914 0.870984
-0.127605 -0.119238 0.869624
-0.129066 -0.119577 0.8691
-0.130567 -0.11992 0.868859
-0.132149 -0.120273 0.869159
-0.133866 -0.120644 0.870353
-0.135621 -0.12102 0.871765
-0.137293 -0.121385 0.872591
-0.138969 -0.121752 0.873428
-0.140593 -0.122112 0.873907
-0.141983 -0.122442 0.87289
-0.143287 -0.12276 0.871348
-0.14441 -0.123054 0.868719
-0.145472 -0.123339 0.865763
-0.146467 -0.123614 0.862455
-0.147535 -0.123898 0.859647
-0.148536 -0.124172 0.856493
-0.149673 -0.124464 0.854196
-0.150821 -0.124756 0.852
-0.152079 -0.125064 0.850482
-0.153367 -0.125375 0.849156
-0.154763 -0.125702 0.848461
-0.156108 -0.12602 0.847487
-0.157471 -0.126342 0.84663
-0.158756 -0.126652 0.845353
-0.1601 -0.12697 0.844421
-0.161464 -0.127291 0.843604
-0.162862 -0.127616 0.842981
-0.164258 -0.127942 0.842354
-0.165731 -0.128278 0.84214
-0.167144 -0.128606 0.841609
-0.168559 -0.128934 0.841099
-0.17 -0.129265 0.840721
-0.171389 -0.129589 0.840086
-0.172691 -0.1299 0.839017
-0.173982 -0.130208 0.837906
-0.175233 -0.130511 0.836615
-0.176445 -0.130807 0.835145
-0.177706 -0.131111 0.833938
-0.179006 -0.13142 0.832935
-0.18044 -0.13175 0.832581
-0.181956 -0.132092 0.832621
-0.183601 -0.132455 0.833263
-0.185312 -0.132827 0.834196
-0.187016 -0.1332 0.835079
-0.188681 -0.133566 0.835768
-0.190338 -0.133931 0.836404
-0.191974 -0.134293 0.836929
-0.193583 -0.134651 0.83732
-0.19527 -0.135022 0.838053
-0.196925 -0.135388 0.838625
-0.198561 -0.13575 0.839103
-0.200157 -0.136107 0.8394
-0.201753 -0.136464 0.839681
-0.20333 -0.136818 0.839878
-0.204916 -0.137173 0.840106
-0.206463 -0.137522 0.84016
-0.207986 -0.137867 0.840112
-0.209477 -0.138207 0.839925
-0.210946 -0.138544 0.839648
-0.21244 -0.138885 0.839475
-0.213986 -0.139234 0.83951
-0.215539 -0.139584 0.839568
-0.217086 -0.139934 0.839603
-0.218651 -0.140286 0.839698
-0.220152 -0.140628 0.839541
-0.221655 -0.14097 0.839389
-0.223134 -0.141309 0.839143
-0.22452 -0.141631 0.838531
-0.225848 -0.141944 0.837704
-0.22712 -0.142248 0.836669
-0.228325 -0.14254 0.83539
-0.229481 -0.142823 0.833939
-0.23063 -0.143105 0.832477
-0.231792 -0.143389 0.831079
-0.233096 -0.143697 0.830223
-0.234559 -0.144032 0.82996
-0.236214 -0.144399 0.830398
-0.237971 -0.144785 0.8312
-0.239799 -0.145183 0.832247
-0.241571 -0.145571 0.833074
-0.2434 -0.145969 0.83409
-0.245242 -0.14637 0.835139
-0.247248 -0.146799 0.836747
-0.24927 -0.147232 0.838392
-0.251374 -0.147679 0.840297
-0.253487 -0.148128 0.842207
-0.255531 -0.148566 0.84385
-0.257632 -0.149014 0.845669
-0.259874 -0.149487 0.847942
-0.262179 -0.149971 0.8504
-0.264457 -0.150451 0.852731
-0.266815 -0.150946 0.8553
-0.27153 -0.150242 0.864532
-0.269006 -0.151411 0.857278
-0.124846 -0.120147 0.874376
-0.126227 -0.120475 0.873228
-0.12757 -0.120798 0.871835
-0.12903 -0.121136 0.871279
-0.130549 -0.121482 0.871127
-0.13212 -0.121835 0.87133
-0.133798 -0.122203 0.872244
-0.135483 -0.122573 0.873169
-0.13709 -0.122931 0.87356
-0.138689 -0.123289 0.87389
-0.140239 -0.12364 0.87389
-0.141598 -0.123964 0.872674
-0.142901 -0.12428 0.871127
-0.144045 -0.124573 0.868617
-0.145155 -0.12486 0.865951
-0.146201 -0.125137 0.862944
-0.14729 -0.12542 0.860249
-0.148304 -0.125691 0.857156
-0.149408 -0.125975 0.854653
-0.150507 -0.126257 0.852165
-0.151732 -0.126558 0.850448
-0.152971 -0.12686 0.848838
-0.154318 -0.127178 0.84787
-0.155626 -0.12749 0.846692
-0.15697 -0.127807 0.845731
-0.158235 -0.128112 0.844354
-0.159597 -0.128432 0.843524
-0.160998 -0.128757 0.842915
-0.162432 -0.129088 0.842488
-0.163864 -0.129418 0.842057
-0.165388 -0.129763 0.842111
-0.166875 -0.130101 0.841967
-0.168348 -0.130438 0.84175
-0.169849 -0.130779 0.841672
-0.171291 -0.131111 0.841293
-0.172647 -0.131429 0.840484
-0.173981 -0.131743 0.839575
-0.175293 -0.132054 0.838566
-0.176568 -0.132358 0.83739
-0.177893 -0.132671 0.836469
-0.179237 -0.132986 0.835654
-0.180751 -0.133329 0.835665
-0.182286 -0.133675 0.835767
-0.183963 -0.134045 0.836536
-0.185672 -0.13442 0.837434
-0.187321 -0.134785 0.838039
-0.188871 -0.135134 0.838172
-0.190502 -0.135497 0.838672
-0.192065 -0.135849 0.838852
-0.19362 -0.136199 0.838987
-0.19529 -0.136569 0.839629
-0.196964 -0.136939 0.840275
-0.198591 -0.137302 0.840704
-0.200177 -0.137658 0.840939
-0.201752 -0.138013 0.841124
-0.203261 -0.138356 0.841015
-0.204775 -0.1387 0.840928
-0.206234 -0.139035 0.840604
-0.20771 -0.139372 0.840356
-0.209157 -0.139705 0.839983
-0.210625 -0.140041 0.839698
-0.212123 -0.140383 0.839538
-0.213694 -0.140737 0.839675
-0.215271 -0.141092 0.839833
-0.216843 -0.141446 0.839961
-0.218407 -0.141799 0.840056
-0.219907 -0.142141 0.839889
-0.221408 -0.142483 0.839724
-0.222887 -0.142822 0.839474
-0.224293 -0.143147 0.838942
-0.225648 -0.143464 0.838212
-0.226947 -0.143771 0.837275
-0.228175 -0.144065 0.836077
-0.229373 -0.144354 0.834778
-0.230521 -0.144634 0.833306
-0.231664 -0.144912 0.831828
-0.232945 -0.145215 0.830879
-0.234365 -0.145543 0.830454
-0.235952 -0.145899 0.83064
-0.237665 -0.146279 0.831283
-0.239467 -0.146674 0.832233
-0.241192 -0.147056 0.832895
-0.242988 -0.147451 0.833794
-0.244797 -0.147848 0.834729
-0.246772 -0.148275 0.836232
-0.248792 -0.148711 0.837874
-0.250923 -0.149167 0.839879
-0.253066 -0.149625 0.841896
-0.25519 -0.15008 0.843821
-0.257375 -0.150547 0.845928
-0.259653 -0.151031 0.848325
-0.261991 -0.151526 0.850891
-0.264321 -0.15202 0.853401
-0.266679 -0.15252 0.855966
-0.268901 -0.152995 0.85805
-0.123366 -0.121381 0.877395
-0.124756 -0.12171 0.876262
-0.126141 -0.122037 0.875119
-0.127513 -0.122363 0.873899
-0.128982 -0.122702 0.873382
-0.130493 -0.123047 0.873153
-0.132063 -0.123401 0.873327
-0.133699 -0.123765 0.87393
-0.135321 -0.124127 0.874426
-0.136864 -0.124478 0.874387
-0.138389 -0.124826 0.874222
-0.139851 -0.125164 0.873649
-0.141179 -0.125482 0.872237
-0.142464 -0.125792 0.870579
-0.143639 -0.126086 0.868264
-0.144791 -0.126375 0.865849
-0.14589 -0.126656 0.86316
-0.147011 -0.12694 0.86065
-0.148039 -0.127208 0.857633
-0.149115 -0.127484 0.854951
-0.150183 -0.127757 0.852271
-0.151387 -0.128052 0.85043
-0.152577 -0.128344 0.848533
-0.15386 -0.128651 0.847201
-0.155131 -0.128955 0.845818
-0.156451 -0.129267 0.844735
-0.157699 -0.129568 0.843266
-0.15908 -0.129889 0.842545
-0.160531 -0.130222 0.842214
-0.162003 -0.130559 0.842
-0.163504 -0.1309 0.841935
-0.165083 -0.131254 0.842282
-0.166644 -0.131605 0.842519
-0.168179 -0.131952 0.842615
-0.169738 -0.132303 0.842833
-0.171222 -0.132642 0.842656
-0.172635 -0.132968 0.842119
-0.17403 -0.133292 0.841498
-0.175425 -0.133616 0.840883
-0.176802 -0.133936 0.840186
-0.178211 -0.134262 0.839652
-0.179605 -0.134585 0.839053
-0.181145 -0.134933 0.839156
-0.182682 -0.135281 0.83924
-0.184324 -0.135646 0.839814
-0.185948 -0.136009 0.840295
-0.187507 -0.136361 0.840455
-0.188985 -0.136699 0.840241
-0.190538 -0.137049 0.840365
-0.192038 -0.137391 0.840246
-0.193564 -0.137737 0.840238
-0.195238 -0.138109 0.840889
-0.196917 -0.138482 0.841551
-0.19857 -0.138851 0.842083
-0.200144 -0.139206 0.842257
-0.20172 -0.139561 0.842436
-0.203187 -0.139897 0.842138
-0.204634 -0.14023 0.841753
-0.206025 -0.140553 0.841133
-0.207454 -0.140882 0.840681
-0.208879 -0.141211 0.840215
-0.210347 -0.141547 0.839931
-0.211848 -0.141889 0.839779
-0.213421 -0.142244 0.839925
-0.215019 -0.142604 0.840163
-0.216611 -0.142963 0.84037
-0.218156 -0.143313 0.840384
-0.219634 -0.143651 0.840129
-0.221112 -0.143989 0.839871
-0.222588 -0.144327 0.839607
-0.223999 -0.144653 0.839088
-0.225424 -0.144982 0.83863
-0.2268 -0.145301 0.837983
-0.228104 -0.145608 0.83707
-0.22938 -0.145909 0.836056
-0.230578 -0.146196 0.834762
-0.231728 -0.146474 0.8333
-0.232965 -0.146768 0.832175
-0.234355 -0.147089 0.831629
-0.235862 -0.147432 0.831514
-0.237499 -0.1478 0.831874
-0.239226 -0.148183 0.832549
