ply
format ascii 1.0
element vertex 1730
property float x
property float y
property float z
end_header
0.161243 -0.171976 0.861401
0.162104 -0.170823 0.861814
0.162929 -0.169628 0.86201
0.163774 -0.168456 0.862328
0.164706 -0.167378 0.863166
0.165658 -0.166318 0.864112
0.166668 -0.165316 0.865395
0.167654 -0.164285 0.866527
0.168669 -0.163279 0.867821
0.169669 -0.162253 0.869016
0.1707 -0.161254 0.870379
0.171721 -0.160239 0.871672
0.172777 -0.159253 0.873153
0.173836 -0.158265 0.874646
0.174914 -0.157289 0.876223
0.132449 -0.218104 0.870909
0.133236 -0.216785 0.870686
0.133999 -0.215424 0.870279
0.13467 -0.213904 0.869182
0.135387 -0.212473 0.868453
0.136103 -0.211048 0.867738
0.136849 -0.209677 0.867247
0.137621 -0.208355 0.866963
0.138379 -0.207013 0.866586
0.139107 -0.205624 0.865987
0.13985 -0.204265 0.865518
0.140553 -0.202846 0.864764
0.141248 -0.20142 0.863966
0.141981 -0.200059 0.863454
0.142709 -0.198696 0.862926
0.143418 -0.197306 0.862262
0.144176 -0.195995 0.861954
0.144936 -0.19469 0.861666
0.145705 -0.193401 0.861445
0.146494 -0.192143 0.861365
0.147274 -0.190873 0.861229
0.148067 -0.189625 0.86119
0.148898 -0.18843 0.861404
0.14973 -0.187236 0.861623
0.150538 -0.18601 0.861684
0.151327 -0.184761 0.861632
0.152064 -0.183443 0.861228
0.152818 -0.182151 0.860951
0.153553 -0.180837 0.860553
0.154291 -0.17953 0.860185
0.155041 -0.178241 0.859897
0.155811 -0.176979 0.859742
0.15658 -0.175718 0.859583
0.157418 -0.174541 0.859867
0.158316 -0.173435 0.860524
0.159209 -0.172321 0.861142
0.160081 -0.171182 0.861631
0.160932 -0.170016 0.86198
0.16178 -0.168846 0.862315
0.162626 -0.167674 0.862636
0.163547 -0.166584 0.863412
0.164499 -0.165524 0.864362
0.165504 -0.164518 0.865632
0.166473 -0.163467 0.866665
0.167457 -0.16243 0.86778
0.16844 -0.161387 0.868885
0.169453 -0.16037 0.870152
0.170459 -0.159341 0.871366
0.171499 -0.158341 0.872766
0.172555 -0.157351 0.874251
0.17363 -0.156374 0.875831
0.131199 -0.217202 0.870702
0.13198 -0.215872 0.870427
0.132726 -0.214482 0.869894
0.133407 -0.212978 0.868856
0.134127 -0.211552 0.868142
0.134857 -0.21015 0.867523
0.135606 -0.208784 0.867052
0.136378 -0.207461 0.866759
0.137123 -0.206097 0.86628
0.137827 -0.204669 0.865502
0.138547 -0.203273 0.864861
0.13925 -0.201855 0.864104
0.139946 -0.200431 0.863307
0.140683 -0.199077 0.862821
0.141424 -0.197734 0.862377
0.142144 -0.196363 0.861791
0.142901 -0.195049 0.861464
0.143671 -0.193761 0.861249
0.144453 -0.192491 0.861117
0.145247 -0.191241 0.861071
0.146028 -0.189974 0.860943
0.146833 -0.188742 0.860979
0.147663 -0.187546 0.861191
0.148497 -0.186355 0.861422
0.149305 -0.185131 0.861492
0.150084 -0.183867 0.861361
0.150795 -0.182515 0.860785
0.151524 -0.181191 0.860341
0.152259 -0.179878 0.859938
0.153012 -0.178592 0.859671
0.15379 -0.177338 0.859556
0.154585 -0.176108 0.859564
0.155391 -0.174893 0.859647
0.156232 -0.173719 0.859944
0.157144 -0.17263 0.860692
0.158064 -0.171548 0.861483
0.158938 -0.170409 0.861984
0.159778 -0.16923 0.862263
0.160638 -0.168074 0.862673
0.161486 -0.166902 0.863001
0.162381 -0.165783 0.863623
0.163329 -0.164719 0.864559
0.164329 -0.163706 0.865793
0.165278 -0.162636 0.866721
0.166232 -0.161567 0.867664
0.167213 -0.160522 0.868761
0.168209 -0.159489 0.86994
0.169186 -0.158432 0.87099
0.170206 -0.157413 0.872288
0.17126 -0.156423 0.873769
0.172318 -0.15543 0.87526
0.129966 -0.216332 0.870629
0.130737 -0.214983 0.870272
0.131463 -0.213556 0.869573
0.132144 -0.212052 0.868529
0.132865 -0.210627 0.867817
0.1336 -0.209233 0.867227
0.134351 -0.20787 0.866762
0.135111 -0.206528 0.866382
0.135844 -0.205143 0.8658
0.136536 -0.203695 0.864931
0.137245 -0.202282 0.864202
0.137948 -0.200865 0.863442
0.138655 -0.199459 0.862722
0.139393 -0.198107 0.862238
0.140138 -0.19677 0.861814
0.140871 -0.195419 0.861313
0.141616 -0.19409 0.860908
0.142386 -0.192801 0.860687
0.143169 -0.191534 0.860563
0.143964 -0.190287 0.860525
0.144746 -0.189022 0.860401
0.145573 -0.187822 0.860591
0.146414 -0.186643 0.860879
0.14725 -0.185456 0.861131
0.148071 -0.184248 0.861282
0.148849 -0.182984 0.861147
0.149558 -0.181629 0.860548
0.150288 -0.180306 0.860106
0.151035 -0.179009 0.85978
0.151791 -0.177726 0.859522
0.152581 -0.176488 0.85949
0.15339 -0.175275 0.859583
0.154213 -0.17408 0.85977
0.155057 -0.17291 0.860091
0.155985 -0.17184 0.860943
0.156928 -0.170785 0.861891
0.157808 -0.169651 0.862419
0.158649 -0.168473 0.86271
0.159535 -0.167345 0.863277
0.16038 -0.16617 0.863591
0.161249 -0.16502 0.86405
0.162181 -0.163937 0.864888
0.163162 -0.162904 0.866017
0.16407 -0.16179 0.866696
0.164995 -0.160691 0.867469
0.165959 -0.15963 0.868478
0.166939 -0.158581 0.869565
0.167899 -0.157508 0.870527
0.168902 -0.156474 0.871732
0.169949 -0.155479 0.873191
0.172445 -0.15587 0.883076
0.12808 -0.217043 0.871888
0.128825 -0.215636 0.871295
0.129543 -0.214186 0.870506
0.130244 -0.212709 0.869589
0.130916 -0.211187 0.868466
0.131629 -0.209746 0.867679
0.132357 -0.208338 0.867022
0.133096 -0.206955 0.866464
0.133833 -0.205573 0.865903
0.134542 -0.204148 0.865138
0.135224 -0.202685 0.864187
0.135924 -0.201258 0.863387
0.136627 -0.199841 0.86262
0.137345 -0.198454 0.861975
0.138094 -0.197121 0.861571
0.138831 -0.195773 0.861088
0.139565 -0.194424 0.860591
0.140311 -0.193098 0.860192
0.141081 -0.19181 0.859969
0.141864 -0.190545 0.859847
0.142658 -0.189298 0.859807
0.143439 -0.188033 0.859675
0.144286 -0.186864 0.860011
0.14513 -0.18569 0.860322
0.145968 -0.184508 0.860593
0.146789 -0.183302 0.860749
0.147565 -0.182035 0.860594
0.148249 -0.180648 0.859827
0.148966 -0.179308 0.859288
0.149713 -0.178014 0.858969
0.150469 -0.176732 0.858712
0.151272 -0.175513 0.858769
0.152108 -0.174334 0.859037
0.152958 -0.173174 0.859408
0.153805 -0.172009 0.859747
0.154769 -0.170982 0.860838
0.155738 -0.169958 0.861949
0.156632 -0.168842 0.862577
0.157488 -0.167679 0.862958
0.158399 -0.166579 0.863684
0.159243 -0.165402 0.863987
0.160098 -0.164235 0.864358
0.161014 -0.163136 0.865106
0.161967 -0.162073 0.86607
0.162846 -0.160927 0.866574
0.163755 -0.159812 0.867258
0.164704 -0.158736 0.868179
0.165655 -0.157659 0.869103
0.166609 -0.156582 0.870044
0.167594 -0.155532 0.871154
0.168595 -0.154493 0.872352
0.126976 -0.216423 0.872883
0.127714 -0.215 0.872222
0.128406 -0.213495 0.871202
0.129075 -0.211955 0.870011
0.129736 -0.21041 0.868787
0.130429 -0.208931 0.867827
0.131136 -0.207483 0.866993
0.131842 -0.206041 0.86617
0.132553 -0.204615 0.865405
0.133251 -0.20317 0.864541
0.133922 -0.201689 0.863502
0.134616 -0.200252 0.862648
0.135321 -0.198839 0.861891
0.136049 -0.197469 0.861316
0.136798 -0.196137 0.860911
0.137535 -0.19479 0.860428
0.138282 -0.193463 0.860025
0.13904 -0.192155 0.859704
0.13982 -0.190884 0.859556
0.140614 -0.189635 0.859506
0.141397 -0.188373 0.859389
0.142166 -0.187091 0.859173
0.143023 -0.185939 0.859586
0.143846 -0.184736 0.859751
0.144663 -0.183525 0.859877
0.145483 -0.18232 0.860031
0.146254 -0.181048 0.859847
0.146927 -0.179647 0.859001
0.147644 -0.17831 0.858464
0.148392 -0.177018 0.858149
0.149159 -0.175753 0.857969
0.149975 -0.174551 0.858112
0.150824 -0.173391 0.858474
0.151714 -0.17228 0.859097
0.152585 -0.171146 0.859607
0.153574 -0.170149 0.860863
0.154566 -0.169153 0.862131
0.155486 -0.168067 0.862931
0.156345 -0.166908 0.863336
0.157258 -0.165809 0.864074
0.158088 -0.164615 0.86429
0.158929 -0.163433 0.864567
0.159819 -0.162303 0.865154
0.160744 -0.161211 0.865955
0.161607 -0.160049 0.866362
0.162499 -0.158917 0.866951
0.16343 -0.157823 0.867769
0.164367 -0.156733 0.868614
0.165305 -0.155641 0.869464
0.166287 -0.154589 0.870563
0.167271 -0.153536 0.871673
0.12512 -0.217216 0.874489
0.125878 -0.215819 0.873954
0.126611 -0.214381 0.873237
0.127279 -0.212827 0.872002
0.127933 -0.211252 0.870663
0.128573 -0.209664 0.869242
0.129245 -0.208143 0.868099
0.129927 -0.20665 0.867063
0.130599 -0.205148 0.865966
0.131277 -0.203661 0.864921
0.13196 -0.202191 0.863942
0.132623 -0.200696 0.862827
0.133309 -0.199245 0.861904
0.134027 -0.197855 0.86124
0.134766 -0.196504 0.860747
0.135515 -0.195174 0.860341
0.136254 -0.19383 0.859867
0.137012 -0.192521 0.859544
0.13778 -0.191229 0.859291
0.138572 -0.189977 0.85923
0.139379 -0.188749 0.85928
0.140176 -0.187506 0.859255
0.140945 -0.186224 0.859036
0.1418 -0.185069 0.859434
0.142598 -0.183832 0.859427
0.14339 -0.182587 0.859383
0.144185 -0.181348 0.859356
0.144943 -0.18006 0.859086
0.145603 -0.178644 0.858152
0.146323 -0.177311 0.857629
0.147072 -0.176022 0.857324
0.147852 -0.174774 0.85722
0.148679 -0.173589 0.857448
0.149541 -0.172446 0.857897
0.150455 -0.171368 0.858697
0.151366 -0.170283 0.859467
0.152367 -0.169304 0.860818
0.153372 -0.168323 0.862182
0.154305 -0.167252 0.863067
0.155178 -0.166109 0.863562
0.15608 -0.164998 0.864235
0.156911 -0.163804 0.864451
0.15775 -0.162618 0.864715
0.158625 -0.161473 0.865207
0.159522 -0.160349 0.865838
0.160368 -0.159171 0.866148
0.161243 -0.15802 0.866629
0.162146 -0.156899 0.867283
0.163066 -0.155793 0.868039
0.16399 -0.154688 0.868808
0.164955 -0.153622 0.869824
0.165924 -0.152555 0.870847
0.124075 -0.216726 0.876055
0.124837 -0.21533 0.875532
0.125547 -0.213841 0.874595
0.126197 -0.212245 0.873186
0.126831 -0.210628 0.871661
0.12744 -0.208977 0.86996
0.128068 -0.207372 0.868445
0.128699 -0.205782 0.866972
0.129347 -0.204236 0.865678
0.129993 -0.202692 0.864369
0.130665 -0.201204 0.863295
0.131329 -0.199709 0.862174
0.132026 -0.198279 0.861335
0.132747 -0.196893 0.860681
0.133496 -0.195559 0.860265
0.134258 -0.19425 0.859952
0.13501 -0.192927 0.859564
0.13578 -0.191637 0.85933
0.13656 -0.190363 0.859168
0.137365 -0.189131 0.859196
0.138176 -0.187908 0.859269
0.138986 -0.186686 0.85935
0.139746 -0.185391 0.85906
0.140576 -0.184198 0.859276
0.141346 -0.18292 0.859063
0.142098 -0.181621 0.85874
0.142853 -0.180327 0.858435
0.14361 -0.17904 0.85816
0.144285 -0.177645 0.857317
0.145019 -0.176334 0.8569
0.145794 -0.175079 0.856758
0.146584 -0.173846 0.856736
0.147411 -0.172661 0.856957
0.148285 -0.171536 0.857497
0.149201 -0.170461 0.858316
0.150128 -0.169397 0.859197
0.151131 -0.168421 0.860576
0.152147 -0.167456 0.862024
0.153079 -0.166384 0.862905
0.153965 -0.165256 0.863484
0.154867 -0.164145 0.864165
0.155698 -0.162951 0.864381
0.15652 -0.161748 0.864545
0.157391 -0.160598 0.865014
0.158273 -0.159459 0.865551
0.159106 -0.158267 0.865782
0.159978 -0.157115 0.86625
0.160864 -0.155977 0.866808
0.161768 -0.154855 0.867468
0.162691 -0.153751 0.86824
0.163654 -0.152684 0.869253
0.164635 -0.15163 0.870354
0.122988 -0.216156 0.877287
0.123759 -0.214773 0.876823
0.124455 -0.213251 0.875749
0.125108 -0.211654 0.874335
0.125734 -0.210015 0.872712
0.126323 -0.20832 0.870822
0.126909 -0.206633 0.86894
0.127487 -0.204944 0.867022
0.128095 -0.203321 0.865372
0.128709 -0.201722 0.863805
0.129372 -0.200218 0.862654
0.130049 -0.198745 0.861621
0.130759 -0.197337 0.860873
0.13149 -0.195969 0.860299
0.132251 -0.194654 0.859965
0.133025 -0.193364 0.859735
0.13378 -0.192046 0.859371
0.134564 -0.190778 0.859237
0.135367 -0.18954 0.859244
0.136185 -0.188327 0.859368
0.137009 -0.187124 0.859541
0.137823 -0.185905 0.85963
0.138593 -0.184624 0.859412
0.13939 -0.183382 0.859387
0.140119 -0.182046 0.858884
0.140832 -0.180691 0.858272
0.141558 -0.179358 0.857766
0.142294 -0.178043 0.857333
0.142983 -0.176667 0.856584
0.143733 -0.175379 0.856276
0.144521 -0.174143 0.856229
0.145324 -0.172928 0.856291
0.146149 -0.171742 0.856508
0.147023 -0.170617 0.85705
0.147938 -0.169543 0.857872
0.148878 -0.168495 0.858844
0.149868 -0.167506 0.86015
0.150883 -0.16654 0.861602
0.15181 -0.165465 0.862465
0.152694 -0.164336 0.863036
0.153583 -0.163212 0.863639
0.154426 -0.162032 0.863934
0.155246 -0.160828 0.864088
0.156116 -0.159678 0.864552
0.156983 -0.158525 0.865009
0.157829 -0.157347 0.865318
0.158701 -0.156196 0.865791
0.159586 -0.155058 0.866348
0.160501 -0.153949 0.867082
0.161434 -0.152856 0.867918
0.162397 -0.15179 0.868942
0.163378 -0.150738 0.870057
0.121138 -0.217002 0.879119
0.121892 -0.215574 0.87848
0.122669 -0.2142 0.87806
0.123357 -0.212654 0.876884
0.124025 -0.211077 0.875559
0.124644 -0.20942 0.873855
0.125214 -0.207683 0.871779
0.12576 -0.205915 0.869531
0.126285 -0.204124 0.867149
0.126848 -0.202418 0.865118
0.127442 -0.200781 0.86337
0.12811 -0.199285 0.862244
0.128802 -0.197838 0.861323
0.129526 -0.196452 0.860676
0.130267 -0.1951 0.860171
0.13103 -0.193788 0.859842
0.131804 -0.192499 0.859619
0.132572 -0.191201 0.859349
0.133381 -0.18997 0.859389
0.134198 -0.188755 0.859506
0.135018 -0.187544 0.859639
0.13584 -0.186336 0.859792
0.136651 -0.185113 0.859862
0.137423 -0.183832 0.859646
0.138198 -0.182558 0.859461
0.138916 -0.181205 0.858865
0.139601 -0.179809 0.858045
0.140303 -0.178443 0.857363
0.141027 -0.17711 0.856836
0.141732 -0.175758 0.856198
0.142497 -0.17449 0.85599
0.143299 -0.173272 0.856039
0.144113 -0.172072 0.856177
0.144938 -0.170886 0.856392
0.145798 -0.169746 0.856854
0.1467 -0.168655 0.857586
0.147646 -0.167617 0.858612
0.148607 -0.166593 0.859733
0.149595 -0.165596 0.861013
0.150517 -0.164517 0.861856
0.1514 -0.163388 0.862422
0.152263 -0.162236 0.862869
0.153106 -0.161059 0.863169
0.153939 -0.15987 0.863404
0.154807 -0.15872 0.863871
0.15569 -0.157585 0.864423
0.156563 -0.156438 0.864916
0.15745 -0.155305 0.86549
0.158336 -0.154169 0.866055
0.159249 -0.153058 0.866786
0.160167 -0.151951 0.86754
0.161131 -0.150886 0.868568
0.162151 -0.149874 0.869936
0.120006 -0.216356 0.880046
0.120764 -0.214933 0.879428
0.121545 -0.213561 0.87902
0.122227 -0.211999 0.877778
0.122899 -0.210425 0.876462
0.123522 -0.208769 0.874761
0.124088 -0.207016 0.872608
0.124614 -0.205205 0.870166
0.125107 -0.203348 0.867475
0.125636 -0.201577 0.865141
0.126208 -0.199897 0.863194
0.12687 -0.198388 0.861996
0.127568 -0.19695 0.861115
0.128315 -0.195605 0.86065
0.12908 -0.194292 0.860322
0.129843 -0.192978 0.859988
0.130618 -0.191689 0.859761
0.131396 -0.190407 0.859564
0.132205 -0.189177 0.859613
0.133026 -0.187964 0.859744
0.133835 -0.186737 0.859799
0.134644 -0.185508 0.859847
0.13544 -0.184261 0.8598
0.13619 -0.182948 0.859423
0.136923 -0.181613 0.858927
0.137645 -0.180265 0.858352
0.138328 -0.178866 0.857506
0.13902 -0.177488 0.856752
0.139755 -0.176171 0.856304
0.140496 -0.174868 0.855913
0.141274 -0.173618 0.855794
0.142088 -0.172417 0.855932
0.142913 -0.171232 0.856147
0.143738 -0.170046 0.856362
0.144586 -0.16889 0.856738
0.145461 -0.167766 0.857292
0.146376 -0.16669 0.858116
0.147297 -0.165619 0.858973
0.148242 -0.164573 0.859982
0.149137 -0.163465 0.860652
0.150004 -0.162321 0.861131
0.150867 -0.161171 0.861576
0.151721 -0.16001 0.861963
0.152579 -0.158852 0.862371
0.153476 -0.157736 0.863025
0.154384 -0.156632 0.863758
0.155272 -0.155502 0.864345
0.156185 -0.154398 0.865092
0.157074 -0.153266 0.865682
0.157987 -0.152157 0.86642
0.158917 -0.151062 0.86725
0.159892 -0.15001 0.86836
0.160939 -0.149026 0.869911
0.118837 -0.215638 0.880672
0.119599 -0.214219 0.880071
0.12039 -0.212863 0.879732
0.121077 -0.211305 0.878504
0.121761 -0.209751 0.877275
0.122389 -0.208098 0.875588
0.122959 -0.206346 0.873434
0.12347 -0.204499 0.870818
0.123932 -0.202581 0.867847
0.124441 -0.200765 0.865301
0.124993 -0.199046 0.863164
0.125645 -0.197519 0.861881
0.126338 -0.19607 0.860937
0.127105 -0.194758 0.860627
0.127882 -0.193465 0.860395
0.128647 -0.192155 0.860073
0.129424 -0.190866 0.85985
0.13022 -0.189613 0.859789
0.131019 -0.188365 0.859751
0.131829 -0.187136 0.859799
0.132628 -0.185891 0.859766
0.133422 -0.184641 0.859711
0.134183 -0.18334 0.859394
0.13493 -0.182023 0.858991
0.135634 -0.180645 0.858267
0.136354 -0.179297 0.857688
0.137042 -0.177905 0.856869
0.137758 -0.176561 0.856279
0.138497 -0.175251 0.85586
0.139273 -0.173996 0.855717
0.140064 -0.172763 0.855686
0.140889 -0.171578 0.855901
0.141714 -0.170392 0.856116
0.142539 -0.169206 0.856332
0.143375 -0.168034 0.856624
0.144224 -0.166879 0.857005
0.145099 -0.165755 0.857563
0.145978 -0.164633 0.858139
0.146882 -0.16354 0.858882
0.147749 -0.162402 0.859378
0.148601 -0.161243 0.859765
0.149475 -0.16011 0.860296
0.150342 -0.158966 0.86077
0.151225 -0.15784 0.861356
0.152148 -0.156756 0.862191
0.153096 -0.155697 0.863191
0.15401 -0.154598 0.863958
0.15495 -0.153522 0.864882
0.155851 -0.152404 0.865552
0.156763 -0.151294 0.866289
0.157691 -0.150198 0.867114
0.158676 -0.149157 0.868295
0.15974 -0.148189 0.869957
0.117644 -0.214873 0.881095
0.118409 -0.213456 0.880502
0.119202 -0.2121 0.880169
0.119892 -0.210544 0.878944
0.120578 -0.20899 0.877715
0.121209 -0.207338 0.876025
0.121773 -0.205571 0.873793
0.122278 -0.203707 0.871094
0.122746 -0.201792 0.868125
0.123249 -0.199961 0.8655
0.123794 -0.198225 0.863275
0.124446 -0.196694 0.861964
0.125144 -0.195254 0.861061
0.125915 -0.193945 0.860759
0.126704 -0.192672 0.860623
0.127483 -0.191384 0.860405
0.128271 -0.190112 0.860263
0.129057 -0.18884 0.860114
0.129842 -0.18757 0.859971
0.13064 -0.186321 0.859922
0.131427 -0.185056 0.859796
0.132202 -0.183775 0.859578
0.13294 -0.18244 0.85909
0.133674 -0.181103 0.858578
0.134363 -0.179704 0.857742
0.135072 -0.178339 0.857071
0.135773 -0.176967 0.856343
0.136516 -0.17566 0.855943
0.137272 -0.174375 0.855644
0.138062 -0.17314 0.855601
0.138865 -0.171923 0.855656
0.13969 -0.170737 0.855871
0.140515 -0.169552 0.856086
0.14134 -0.168366 0.856301
0.142165 -0.16718 0.856516
0.143001 -0.166009 0.856809
0.14385 -0.164853 0.85719
0.144701 -0.163698 0.857584
0.145565 -0.162558 0.858058
0.146416 -0.161402 0.858448
0.147254 -0.16023 0.85875
0.148128 -0.159099 0.859287
0.149018 -0.157985 0.859932
0.149941 -0.156906 0.860787
0.15089 -0.155853 0.861809
0.151866 -0.154825 0.862993
0.152804 -0.153752 0.863922
0.153742 -0.152676 0.864846
0.154642 -0.151556 0.865512
0.155554 -0.150447 0.866251
0.15648 -0.149349 0.867071
0.157464 -0.148307 0.868254
0.158527 -0.147339 0.869923
0.116441 -0.214087 0.88143
0.117213 -0.212681 0.880886
0.117998 -0.211309 0.880485
0.1187 -0.209773 0.879342
0.119379 -0.2082 0.878025
0.120011 -0.206546 0.876317
0.120577 -0.204777 0.874075
0.121087 -0.202916 0.871376
0.121571 -0.201025 0.868506
0.122091 -0.199221 0.865992
0.122632 -0.197472 0.863698
0.123276 -0.195923 0.862302
0.123962 -0.194459 0.861285
0.124722 -0.193129 0.860885
0.125512 -0.191857 0.86075
0.126306 -0.190592 0.860644
0.127106 -0.189341 0.860598
0.127893 -0.188069 0.860452
0.128658 -0.186764 0.860136
0.129443 -0.185492 0.85998
0.130218 -0.184209 0.859756
0.130964 -0.182882 0.859313
0.131682 -0.181516 0.858662
0.132393 -0.180144 0.857967
0.133068 -0.178724 0.857014
0.133766 -0.177345 0.856258
0.134488 -0.176005 0.855689
0.135256 -0.174735 0.855471
0.136047 -0.1735 0.855433
0.136851 -0.172284 0.855487
0.137666 -0.171083 0.855625
0.138491 -0.169898 0.85584
0.139316 -0.168712 0.856056
0.14013 -0.167512 0.856194
0.140943 -0.166311 0.856326
0.141756 -0.16511 0.856456
0.14258 -0.163924 0.856666
0.143406 -0.16274 0.856887
0.144243 -0.161569 0.857188
0.145091 -0.160412 0.857564
0.145939 -0.159253 0.857939
0.146826 -0.158139 0.85857
0.147742 -0.157057 0.859395
0.148701 -0.156021 0.860504
0.149676 -0.154998 0.861707
0.150677 -0.153999 0.863067
0.151628 -0.15294 0.864088
0.152565 -0.151863 0.865013
0.153475 -0.150753 0.865747
0.154373 -0.149629 0.866397
0.155286 -0.148518 0.86714
0.156268 -0.147475 0.868319
0.157339 -0.146515 0.870052
0.115206 -0.213235 0.881485
0.115989 -0.211852 0.88104
0.116766 -0.21046 0.880542
0.11747 -0.208924 0.879401
0.11814 -0.207333 0.877991
0.118773 -0.205676 0.876264
0.11934 -0.203905 0.874001
0.119864 -0.202065 0.871387
0.120382 -0.200235 0.868781
0.120939 -0.198493 0.866544
0.121489 -0.196754 0.86429
0.122125 -0.195186 0.862802
0.122801 -0.1937 0.86168
0.12355 -0.19235 0.861179
0.124332 -0.191063 0.860979
0.125138 -0.189817 0.860963
0.12594 -0.188568 0.860932
0.126729 -0.187297 0.860787
0.127465 -0.185942 0.860226
0.128226 -0.184633 0.859885
0.128991 -0.183332 0.859574
0.129726 -0.181988 0.859038
0.130426 -0.180594 0.858238
0.131134 -0.179218 0.85752
0.131799 -0.177782 0.856474
0.132496 -0.176401 0.855703
0.133233 -0.175083 0.855238
0.134024 -0.173848 0.855195
0.134827 -0.172631 0.855248
0.135652 -0.171444 0.855457
0.136466 -0.170243 0.855595
0.137291 -0.169057 0.85581
0.138116 -0.167872 0.856025
0.138919 -0.166657 0.85608
0.139719 -0.16544 0.856122
0.140519 -0.164222 0.856155
0.141319 -0.163005 0.856195
0.14212 -0.161792 0.85625
0.142945 -0.160608 0.856465
0.143792 -0.159451 0.85684
0.144642 -0.158296 0.85723
0.145564 -0.157226 0.858112
0.146518 -0.156189 0.859205
0.147502 -0.155183 0.860497
0.148503 -0.154189 0.86188
0.149513 -0.153201 0.863317
0.150465 -0.152143 0.864349
0.151401 -0.151063 0.865265
0.152323 -0.149966 0.866081
0.153221 -0.148842 0.866736
0.154145 -0.147742 0.867556
0.155128 -0.146698 0.868739
0.156169 -0.145708 0.870292
0.158464 -0.145601 0.872105
0.15726 -0.144761 0.872147
0.113164 -0.21372 0.881781
0.113976 -0.212394 0.881591
0.114766 -0.211022 0.881188
0.115534 -0.209611 0.880608
0.11624 -0.208079 0.879474
0.116912 -0.206486 0.878052
0.117546 -0.204828 0.876314
0.118117 -0.203059 0.874045
0.118656 -0.201244 0.871533
0.119199 -0.199456 0.869112
0.119781 -0.197756 0.86706
0.120354 -0.196054 0.864972
0.120993 -0.194487 0.863485
0.12167 -0.192999 0.862352
0.122409 -0.191628 0.861755
0.123174 -0.190307 0.861388
0.123969 -0.189042 0.861287
0.124763 -0.187776 0.861173
0.125541 -0.186487 0.860939
0.126257 -0.185097 0.860208
0.127007 -0.183769 0.859766
0.127759 -0.182448 0.859351
0.128485 -0.181089 0.858735
0.129175 -0.17968 0.857852
0.129893 -0.178318 0.857199
0.130569 -0.176899 0.856237
0.131282 -0.175541 0.855573
0.132033 -0.174244 0.855214
0.132837 -0.173026 0.855261
0.13363 -0.171793 0.855232
0.134452 -0.170604 0.855426
0.135255 -0.169387 0.855479
0.136081 -0.168202 0.855697
0.136906 -0.167018 0.855918
0.137709 -0.165802 0.855965
0.138496 -0.164567 0.855909
0.13928 -0.16333 0.855833
0.140066 -0.162097 0.855776
0.140856 -0.16087 0.855745
0.14168 -0.159686 0.85596
0.142538 -0.158545 0.856421
0.143413 -0.157421 0.856985
0.144362 -0.156383 0.858066
0.145343 -0.155378 0.859352
0.146351 -0.154399 0.860818
0.147363 -0.153418 0.862286
0.148372 -0.152428 0.863722
0.149323 -0.151368 0.864753
0.150259 -0.150289 0.865671
0.151182 -0.149192 0.866499
0.152081 -0.148067 0.867159
0.152995 -0.146956 0.867915
0.153962 -0.145896 0.869006
0.154963 -0.144866 0.870305
0.156009 -0.143875 0.871888
0.111925 -0.212862 0.88181
0.112739 -0.211538 0.881624
0.113539 -0.210188 0.881322
0.114302 -0.208764 0.880679
0.115012 -0.207235 0.879558
0.115686 -0.205643 0.878129
0.116332 -0.204004 0.876469
0.116916 -0.202257 0.874294
0.117471 -0.200469 0.871895
0.11804 -0.198722 0.869654
0.118635 -0.197042 0.867691
0.119221 -0.19536 0.865689
0.119854 -0.193776 0.864119
0.120542 -0.192303 0.863054
0.121272 -0.190912 0.862367
0.122027 -0.189572 0.861906
0.122811 -0.188286 0.861708
0.123591 -0.186996 0.861478
0.124349 -0.185671 0.861068
0.125063 -0.184276 0.860309
0.125805 -0.182933 0.859787
0.126547 -0.181594 0.859281
0.127262 -0.180218 0.858571
0.127942 -0.178791 0.857595
0.128643 -0.177404 0.856803
0.129332 -0.176004 0.855931
0.130061 -0.174669 0.85538
0.130825 -0.173391 0.85512
0.131641 -0.172192 0.855267
0.132442 -0.170971 0.855293
0.133263 -0.169778 0.855473
0.134054 -0.168545 0.855437
0.134881 -0.167361 0.855658
0.135707 -0.166177 0.855882
0.136498 -0.164947 0.855852
0.137284 -0.16371 0.85578
0.138066 -0.162471 0.855691
0.138852 -0.161238 0.855628
0.139631 -0.159997 0.855521
0.140464 -0.158826 0.855806
0.141324 -0.157685 0.85627
0.14221 -0.156576 0.856929
0.143175 -0.155557 0.858123
0.14418 -0.154581 0.859588
0.145203 -0.153619 0.861159
0.146223 -0.152647 0.862695
0.147218 -0.151641 0.864044
0.148154 -0.150565 0.864984
0.14909 -0.149484 0.865901
0.150014 -0.148389 0.866743
0.150915 -0.147266 0.867418
0.151829 -0.146154 0.868173
0.152793 -0.14509 0.869252
0.153765 -0.144031 0.870376
0.154782 -0.143012 0.871775
0.109896 -0.213384 0.882263
0.110681 -0.211991 0.881782
0.111495 -0.210667 0.881594
0.112305 -0.209338 0.881381
0.11307 -0.207916 0.880745
0.113782 -0.206389 0.87963
0.114467 -0.204816 0.878285
0.115125 -0.203198 0.876715
0.115725 -0.201478 0.874648
0.116305 -0.19973 0.872429
0.116889 -0.198008 0.870293
0.117495 -0.196344 0.868401
0.118093 -0.194678 0.866468
0.11872 -0.193077 0.864816
0.119402 -0.19159 0.863684
0.120134 -0.190198 0.862988
0.120869 -0.18882 0.862351
0.121633 -0.187496 0.861962
0.122391 -0.186167 0.861544
0.123138 -0.184821 0.861029
0.123843 -0.183411 0.860186
0.124576 -0.182053 0.859589
0.125299 -0.180684 0.858924
0.126013 -0.179305 0.858199
0.126684 -0.177863 0.857133
0.127386 -0.176478 0.856342
0.128089 -0.175098 0.855565
0.128848 -0.173811 0.855259
0.129637 -0.172568 0.855176
0.130475 -0.1714 0.85549
0.131287 -0.170193 0.855598
0.132117 -0.169013 0.85585
0.132897 -0.167764 0.855724
0.133724 -0.166579 0.855946
0.13454 -0.165381 0.856093
0.135311 -0.164123 0.855908
0.136087 -0.162872 0.855757
0.13687 -0.161634 0.855667
0.137647 -0.160389 0.85554
0.138428 -0.159151 0.855442
0.139272 -0.157993 0.855808
0.14014 -0.156863 0.856341
0.14105 -0.155782 0.857162
0.142038 -0.154791 0.85853
0.143056 -0.15383 0.860099
0.144088 -0.152878 0.861742
0.145094 -0.15189 0.86319
0.146075 -0.150867 0.86445
0.146997 -0.149775 0.865291
0.147931 -0.148692 0.86621
0.148854 -0.147595 0.867044
0.149756 -0.146472 0.867729
0.150657 -0.145345 0.868397
0.151605 -0.144266 0.869383
0.15256 -0.14319 0.870397
0.153561 -0.142156 0.871709
0.109444 -0.211138 0.881837
0.110266 -0.20983 0.881721
0.111093 -0.208535 0.881657
0.111873 -0.207143 0.881153
0.112596 -0.205636 0.880121
0.113302 -0.2041 0.87894
0.113955 -0.202467 0.877299
0.114552 -0.200733 0.875162
0.115136 -0.198988 0.87295
0.115722 -0.197265 0.870805
0.116322 -0.195584 0.868822
0.116942 -0.193952 0.86705
0.117581 -0.192371 0.865485
0.118267 -0.190886 0.86436
0.118999 -0.189492 0.863658
0.119717 -0.188078 0.862845
0.12046 -0.186717 0.862275
0.121191 -0.185337 0.861604
0.121926 -0.183972 0.860992
0.122634 -0.182564 0.860154
0.12336 -0.181194 0.859494
0.124067 -0.179797 0.858681
0.124797 -0.178444 0.858081
0.125477 -0.177016 0.857083
0.126182 -0.175633 0.856297
0.126917 -0.174302 0.855771
0.127718 -0.173076 0.855785
0.128518 -0.171849 0.855795
0.129369 -0.170698 0.856206
0.130194 -0.169509 0.85641
0.131017 -0.168316 0.856597
0.131789 -0.167052 0.856394
0.132603 -0.165848 0.856519
0.133398 -0.164619 0.856495
0.134147 -0.16333 0.856141
0.134922 -0.162078 0.855981
0.135707 -0.160841 0.855901
0.136489 -0.159601 0.855802
0.137283 -0.158379 0.855798
0.13814 -0.157235 0.856247
0.139006 -0.156103 0.85677
0.139917 -0.155022 0.857601
0.140913 -0.154041 0.859041
0.141931 -0.153079 0.860616
0.142961 -0.152124 0.862259
0.143954 -0.15112 0.863618
0.14493 -0.150092 0.864858
0.145839 -0.148984 0.86561
0.146773 -0.1479 0.866525
0.147683 -0.146789 0.867279
0.148595 -0.145676 0.868035
0.149493 -0.144547 0.868688
0.150429 -0.143454 0.869588
0.151369 -0.142363 0.870519
0.152393 -0.141351 0.871982
0.109037 -0.208993 0.881841
0.109862 -0.207693 0.881757
0.110654 -0.206324 0.881359
0.111395 -0.204851 0.880473
0.112111 -0.203335 0.879382
0.112769 -0.201705 0.877746
0.113385 -0.200004 0.875759
0.11397 -0.198256 0.873523
0.114558 -0.19653 0.871359
0.115154 -0.194834 0.869298
0.115785 -0.193221 0.867609
0.11643 -0.191645 0.866065
0.117127 -0.190176 0.865019
0.117861 -0.188783 0.864319
0.118579 -0.187366 0.863488
0.119305 -0.185969 0.862749
0.120026 -0.18457 0.861981
0.120744 -0.183173 0.861209
0.121454 -0.181767 0.860373
0.122182 -0.180398 0.859719
0.122899 -0.179016 0.858979
0.123641 -0.177679 0.858461
0.124352 -0.176297 0.857696
0.125071 -0.174934 0.857019
0.12583 -0.173638 0.856676
0.126645 -0.172429 0.856787
0.127458 -0.171218 0.856884
0.128311 -0.170068 0.857309
0.12915 -0.168897 0.857621
0.129976 -0.167704 0.857818
0.13074 -0.166425 0.857538
0.131541 -0.1652 0.857557
0.132311 -0.163934 0.857337
0.133029 -0.162599 0.856723
0.133781 -0.161314 0.856383
0.134565 -0.160075 0.856292
0.135337 -0.158822 0.85612
0.136135 -0.157603 0.856133
0.137002 -0.156472 0.856667
0.13786 -0.155328 0.857124
0.138768 -0.154244 0.857941
0.139753 -0.153249 0.859309
0.140769 -0.152285 0.860883
0.141799 -0.15133 0.862527
0.142799 -0.150334 0.863956
0.143776 -0.149306 0.865192
0.144684 -0.148196 0.865946
0.145616 -0.147111 0.866863
0.146538 -0.146012 0.867695
0.147461 -0.14491 0.868529
0.14836 -0.14378 0.869192
0.149307 -0.142698 0.87017
0.15026 -0.141618 0.871182
0.151284 -0.140606 0.872662
0.107809 -0.208159 0.88198
0.108635 -0.20686 0.881899
0.109438 -0.205513 0.881597
0.110194 -0.204069 0.880844
0.110913 -0.202555 0.879758
0.111574 -0.200926 0.878124
0.11221 -0.199262 0.876297
0.112796 -0.197509 0.874032
0.113386 -0.195782 0.871857
0.113985 -0.194086 0.86979
0.114621 -0.192475 0.868105
0.11526 -0.190885 0.866491
0.11596 -0.189419 0.865452
0.116697 -0.188027 0.86476
0.117416 -0.186608 0.86392
0.118134 -0.185195 0.863092
0.118854 -0.183794 0.862312
0.119574 -0.182395 0.861529
0.120292 -0.181002 0.860765
0.121033 -0.179652 0.860197
0.121772 -0.178303 0.859628
0.122537 -0.177 0.859285
0.123282 -0.175669 0.858788
0.124019 -0.174331 0.85824
0.124804 -0.17307 0.858088
0.125632 -0.171877 0.858296
0.126446 -0.170664 0.858398
0.12729 -0.169495 0.858733
0.12814 -0.168335 0.859117
0.128957 -0.167126 0.85924
0.129711 -0.165829 0.858874
0.13051 -0.164598 0.858862
0.131269 -0.163312 0.858541
0.131954 -0.161929 0.857658
0.132693 -0.160624 0.857205
0.133475 -0.159379 0.857089
0.134226 -0.158096 0.856748
0.135014 -0.156863 0.856683
0.135892 -0.155744 0.857289
0.13674 -0.154586 0.857671
0.137626 -0.153474 0.858332
0.138598 -0.152463 0.859608
0.13961 -0.151494 0.861161
0.140617 -0.150513 0.862662
0.141618 -0.149519 0.864105
0.142605 -0.148503 0.865434
0.143537 -0.147419 0.866356
0.144471 -0.146336 0.867289
0.145429 -0.145274 0.868375
0.146379 -0.144199 0.86939
0.147317 -0.143109 0.870323
0.148281 -0.142042 0.871421
0.149272 -0.140998 0.872689
0.150309 -0.139996 0.874259
0.153643 -0.140901 0.882981
0.151346 -0.138987 0.875804
0.107398 -0.206007 0.881951
0.108208 -0.204673 0.881707
0.10897 -0.20324 0.881005
0.109706 -0.201757 0.880055
0.110383 -0.200159 0.878559
0.111033 -0.198516 0.876827
0.111625 -0.196769 0.874579
0.112219 -0.195044 0.872404
0.112819 -0.193344 0.870318
0.113458 -0.191736 0.868636
0.114108 -0.19016 0.867085
0.114812 -0.188697 0.86606
0.11555 -0.187304 0.86536
0.116271 -0.185887 0.864533
0.11699 -0.184472 0.863699
0.117704 -0.183055 0.862838
0.118423 -0.181653 0.862038
0.119144 -0.180261 0.861273
0.119886 -0.17891 0.860705
0.12064 -0.177582 0.860246
0.121429 -0.176318 0.8601
0.122209 -0.17504 0.859889
0.122972 -0.173737 0.859528
0.123771 -0.172494 0.859483
0.124609 -0.171313 0.859764
0.125432 -0.170109 0.859921
0.126275 -0.168934 0.86024
0.127134 -0.167784 0.860693
0.127952 -0.166573 0.86081
0.128708 -0.165272 0.860432
0.129499 -0.164024 0.860339
0.130236 -0.162705 0.859839
0.130902 -0.161292 0.85879
0.13163 -0.159968 0.858237
0.132389 -0.15869 0.857937
0.133119 -0.157376 0.857414
0.133904 -0.156137 0.857323
0.134771 -0.155003 0.857847
0.135608 -0.15383 0.858145
0.136492 -0.152715 0.858792
0.137448 -0.151684 0.859964
0.138447 -0.1507 0.861432
0.13944 -0.149702 0.862841
0.140443 -0.14871 0.864307
0.141432 -0.147696 0.865656
0.142389 -0.146641 0.866764
0.143336 -0.145571 0.867791
0.144332 -0.14455 0.869149
0.145311 -0.143504 0.870372
0.146292 -0.142457 0.871603
0.147273 -0.141405 0.872814
0.148303 -0.140398 0.874346
0.149355 -0.139407 0.876017
0.150404 -0.138407 0.877648
0.106178 -0.205191 0.882177
0.10699 -0.203859 0.881936
0.107747 -0.202414 0.881174
0.108488 -0.200938 0.880258
0.109178 -0.199364 0.878867
0.109854 -0.197772 0.877366
0.110486 -0.196098 0.875455
0.111104 -0.194412 0.873464
0.111709 -0.192715 0.871384
0.112349 -0.191101 0.869679
0.113 -0.189521 0.868104
0.113696 -0.188039 0.866987
0.114427 -0.186628 0.866205
0.115152 -0.185213 0.865383
0.115864 -0.183782 0.86447
0.116579 -0.182364 0.863605
0.1173 -0.180961 0.862801
0.118024 -0.179569 0.862038
0.11877 -0.178221 0.861489
0.119554 -0.176942 0.861282
0.120366 -0.175711 0.861321
0.12118 -0.174483 0.861377
0.121965 -0.173212 0.861192
0.122774 -0.171979 0.861217
0.123591 -0.170761 0.861313
0.124404 -0.169537 0.861371
0.125227 -0.168329 0.86152
0.126078 -0.167162 0.861892
0.126898 -0.16595 0.862017
0.127675 -0.164677 0.861795
0.128469 -0.163429 0.861714
0.129211 -0.162111 0.861227
0.12989 -0.160711 0.860258
0.13062 -0.159386 0.859706
0.131362 -0.158079 0.859245
0.13208 -0.156747 0.858624
0.132842 -0.155475 0.858347
0.133675 -0.154294 0.858607
0.134479 -0.153078 0.858651
0.135341 -0.151935 0.859136
0.136262 -0.150862 0.860052
0.137244 -0.149858 0.86141
0.138222 -0.148843 0.862723
0.139235 -0.147864 0.864273
0.140224 -0.146851 0.865635
0.141205 -0.145823 0.866919
0.142176 -0.144779 0.868124
0.143211 -0.143799 0.869764
0.144228 -0.142795 0.871263
0.145274 -0.141815 0.872953
0.146295 -0.140801 0.874445
0.147365 -0.139832 0.876257
0.148429 -0.138849 0.87801
0.149489 -0.137856 0.879723
0.152762 -0.138674 0.888062
0.150538 -0.136845 0.88134
0.106465 -0.201457 0.880743
0.107208 -0.199985 0.879839
0.107928 -0.198472 0.878722
0.108642 -0.196956 0.877574
0.109319 -0.195373 0.876086
0.109968 -0.193744 0.874361
0.110604 -0.192101 0.872541
0.111257 -0.190506 0.870919
0.111911 -0.188925 0.869346
0.112608 -0.187436 0.868195
0.11334 -0.186023 0.867405
0.114065 -0.184603 0.866567
0.114782 -0.183174 0.865661
0.115509 -0.181771 0.86488
0.116233 -0.180368 0.86408
0.116959 -0.178975 0.863314
0.117707 -0.177626 0.862762
0.11851 -0.176375 0.862714
0.119335 -0.17516 0.862845
0.12017 -0.173963 0.863071
0.120976 -0.172719 0.863048
0.121777 -0.171468 0.862987
0.122573 -0.170212 0.862891
0.123364 -0.168949 0.862752
0.124169 -0.16771 0.862736
0.124995 -0.166503 0.862898
0.125827 -0.165306 0.863111
0.126608 -0.164034 0.862909
0.127414 -0.1628 0.862909
0.12817 -0.161499 0.862523
0.128873 -0.160126 0.861722
0.12961 -0.158805 0.861196
0.130354 -0.157498 0.860745
0.131064 -0.156149 0.860036
0.131804 -0.154845 0.859571
0.132614 -0.153632 0.859649
0.133385 -0.152372 0.859435
0.134223 -0.151197 0.859734
0.135109 -0.150079 0.860392
0.136066 -0.149046 0.861576
0.137029 -0.148014 0.862788
0.13805 -0.147044 0.864408
0.139039 -0.146031 0.865777
0.140053 -0.14504 0.86731
0.141058 -0.144035 0.868771
0.142129 -0.143094 0.870681
0.143174 -0.142117 0.872386
0.144269 -0.141187 0.87442
0.145339 -0.140222 0.87626
0.146437 -0.139277 0.878274
0.147493 -0.138283 0.879977
0.148566 -0.137298 0.881776
0.1496 -0.136269 0.883288
0.106684 -0.197595 0.878648
0.107419 -0.196119 0.877683
0.108138 -0.194622 0.876599
0.108819 -0.193052 0.875149
0.109481 -0.191455 0.873551
0.110157 -0.1899 0.87212
0.110832 -0.188352 0.870709
0.11153 -0.186859 0.869546
0.112264 -0.185442 0.868739
0.112992 -0.184021 0.867898
0.113719 -0.182606 0.867073
0.114458 -0.181218 0.866369
0.115195 -0.179831 0.865656
0.115932 -0.178454 0.86498
0.116691 -0.177116 0.864499
0.117496 -0.175862 0.86444
0.118321 -0.174642 0.86456
0.119149 -0.173429 0.864717
0.119949 -0.17217 0.864621
0.120723 -0.170871 0.864311
0.121498 -0.169578 0.864022
0.122258 -0.168263 0.863602
0.123051 -0.167003 0.863482
0.123859 -0.165767 0.863488
0.124693 -0.16457 0.863712
0.125486 -0.163314 0.863596
0.126304 -0.162096 0.863693
0.127064 -0.160797 0.863324
0.127801 -0.159468 0.862776
0.128561 -0.158175 0.862423
0.129311 -0.156872 0.861995
0.130033 -0.155535 0.861363
0.130773 -0.154226 0.860882
0.131561 -0.152982 0.860781
0.132319 -0.151702 0.860452
0.133145 -0.150509 0.860649
0.134008 -0.149362 0.861132
0.134952 -0.148311 0.862221
0.135902 -0.147263 0.863346
0.1369 -0.146266 0.864804
0.137877 -0.145239 0.866094
0.1389 -0.144259 0.867711
0.13992 -0.143267 0.869276
0.141002 -0.142339 0.871288
0.142082 -0.1414 0.873252
0.143212 -0.140504 0.875544
0.144309 -0.139566 0.877591
0.145422 -0.138636 0.879719
0.146479 -0.137639 0.881433
0.147551 -0.13665 0.883224
0.148559 -0.135592 0.884567
0.105424 -0.19668 0.878395
0.106177 -0.195243 0.877609
0.106929 -0.19381 0.876828
0.107649 -0.192318 0.875747
0.10835 -0.190798 0.874512
0.109059 -0.189302 0.873376
0.109775 -0.187827 0.872325
0.110504 -0.186386 0.871423
0.11125 -0.184985 0.870706
0.111981 -0.183562 0.869865
0.112711 -0.182143 0.869028
0.113445 -0.180738 0.868247
0.114168 -0.17932 0.867384
0.114899 -0.177924 0.866616
0.11565 -0.176568 0.866046
0.116447 -0.175294 0.865896
0.117263 -0.174056 0.865931
0.118084 -0.172825 0.866002
0.118884 -0.171563 0.865899
0.119631 -0.170216 0.865337
0.120387 -0.168889 0.864869
0.121124 -0.167536 0.864243
0.121907 -0.166257 0.86402
0.122693 -0.164986 0.863834
0.123536 -0.163803 0.864136
0.124338 -0.162557 0.864084
0.125158 -0.161341 0.864194
0.125929 -0.160056 0.863908
0.126699 -0.15877 0.863612
0.127484 -0.157508 0.86344
0.128237 -0.156207 0.863032
0.128982 -0.154896 0.862557
0.129734 -0.153599 0.862157
0.130502 -0.152327 0.861892
0.131253 -0.151033 0.861488
0.132076 -0.149835 0.861666
0.132917 -0.148658 0.86197
0.133839 -0.147579 0.862895
0.134778 -0.146516 0.863933
0.135752 -0.14549 0.865227
0.136718 -0.144449 0.86644
0.137739 -0.143467 0.868051
0.13878 -0.142501 0.869794
0.139876 -0.141587 0.871912
0.14099 -0.140684 0.874142
0.142143 -0.139812 0.876616
0.143265 -0.138897 0.878842
0.14438 -0.137966 0.880997
0.145438 -0.136968 0.882719
0.146491 -0.13596 0.884398
0.147486 -0.134884 0.885636
0.104142 -0.195719 0.877919
0.104916 -0.194326 0.877336
0.105707 -0.192975 0.876943
0.106467 -0.191563 0.876246
0.107217 -0.190138 0.875471
0.107991 -0.188766 0.874945
0.108747 -0.187364 0.874261
0.109509 -0.185981 0.873657
0.11027 -0.1846 0.873052
0.111005 -0.183175 0.872212
0.11172 -0.181719 0.871195
0.112454 -0.180306 0.870386
0.113161 -0.178852 0.869348
0.113887 -0.177437 0.868497
0.114631 -0.176061 0.867831
0.115418 -0.174766 0.867581
0.116218 -0.173495 0.86745
0.11702 -0.172228 0.867337
0.117811 -0.170945 0.867133
0.118538 -0.169562 0.86638
0.119276 -0.168202 0.865738
0.119984 -0.166801 0.864849
0.120747 -0.165489 0.864442
0.121503 -0.164171 0.86399
0.122344 -0.162984 0.864274
0.123155 -0.161751 0.864295
0.123987 -0.16055 0.864498
0.12478 -0.159295 0.864381
0.12558 -0.158051 0.864328
0.126377 -0.156803 0.864247
0.127145 -0.155518 0.863941
0.127913 -0.154235 0.863637
0.128678 -0.152953 0.863327
0.129442 -0.15167 0.863008
0.130193 -0.150375 0.862603
0.131008 -0.149163 0.8627
0.13184 -0.147972 0.86293
0.132741 -0.146865 0.863691
0.133667 -0.145786 0.864638
0.134627 -0.144742 0.865829
0.135579 -0.143684 0.866942
0.136587 -0.142687 0.868469
0.137638 -0.141731 0.870299
0.138746 -0.14083 0.872519
0.139873 -0.139941 0.874861
0.141037 -0.139081 0.877436
0.142182 -0.138189 0.879841
0.143283 -0.137243 0.88191
0.144326 -0.136228 0.883537
0.145364 -0.135201 0.885105
0.147569 -0.13532 0.89488
0.10367 -0.193441 0.877217
0.10448 -0.192128 0.877002
0.105273 -0.190785 0.87664
0.106067 -0.189448 0.876295
0.106897 -0.188187 0.87632
0.107716 -0.186905 0.876237
0.108521 -0.185598 0.876024
0.109306 -0.184255 0.875618
0.110044 -0.182825 0.874768
0.110739 -0.181322 0.87353
0.111447 -0.179852 0.872435
0.112129 -0.178341 0.871112
0.112838 -0.17689 0.87008
0.113573 -0.175493 0.869311
0.114344 -0.174164 0.868886
0.115126 -0.172857 0.868574
0.115909 -0.171554 0.868276
0.116688 -0.17025 0.867961
0.117406 -0.168848 0.867107
0.118145 -0.167487 0.866457
0.118839 -0.166058 0.86541
0.119591 -0.164727 0.864903
0.120327 -0.163377 0.864271
0.121157 -0.162172 0.864455
0.121961 -0.160929 0.864419
0.122805 -0.159745 0.864718
0.12362 -0.15852 0.864778
0.124432 -0.157291 0.864819
0.125232 -0.156046 0.864759
0.126012 -0.154775 0.864537
0.126792 -0.153507 0.864323
0.12757 -0.152239 0.864103
0.128356 -0.150984 0.863957
0.129133 -0.149717 0.863733
0.129951 -0.148506 0.863843
0.130782 -0.147312 0.864066
0.131661 -0.146174 0.864648
0.132574 -0.145077 0.865492
0.13351 -0.144004 0.866508
0.134448 -0.14293 0.867523
0.135443 -0.141916 0.868957
0.136503 -0.14097 0.870862
0.1376 -0.140057 0.873022
0.138728 -0.139168 0.875388
0.13989 -0.138306 0.877971
0.141043 -0.137422 0.880451
0.14213 -0.136461 0.882432
0.144388 -0.136688 0.892823
0.104067 -0.189982 0.876912
0.104899 -0.188723 0.876954
0.105767 -0.187538 0.877358
0.106632 -0.186345 0.877726
0.107486 -0.18513 0.877986
0.108293 -0.183822 0.877772
0.109041 -0.182403 0.876984
0.109727 -0.180872 0.87561
0.110407 -0.179341 0.874211
0.111054 -0.17776 0.872526
0.111746 -0.176272 0.871301
0.112473 -0.174854 0.870426
0.113235 -0.173505 0.869906
0.113999 -0.172163 0.869411
0.114763 -0.170826 0.868932
0.115524 -0.169487 0.868427
0.116226 -0.168056 0.867406
0.116948 -0.166666 0.866599
0.117635 -0.165224 0.865478
0.118378 -0.163879 0.864881
0.119113 -0.162526 0.864232
0.119934 -0.161307 0.864331
0.12075 -0.160081 0.864392
0.121606 -0.158915 0.864798
0.122435 -0.15771 0.864974
0.123257 -0.156494 0.865094
0.124067 -0.155262 0.865111
0.124848 -0.153991 0.864888
0.125649 -0.15275 0.864839
0.12646 -0.151524 0.86488
0.12726 -0.150285 0.864841
0.128059 -0.149045 0.864788
0.128887 -0.147843 0.864966
0.129719 -0.146646 0.865183
0.130587 -0.145494 0.865681
0.131489 -0.14438 0.866432
0.132402 -0.143278 0.867267
0.133327 -0.142186 0.868184
0.134299 -0.141146 0.869455
0.135346 -0.140185 0.871276
0.13644 -0.139268 0.87343
0.137564 -0.138376 0.875788
0.138712 -0.137498 0.878284
0.139859 -0.13661 0.880746
0.140944 -0.135645 0.882724
0.103746 -0.188032 0.877785
0.104639 -0.186896 0.878442
0.105525 -0.185743 0.879021
0.1064 -0.184566 0.879479
0.107225 -0.183288 0.879429
0.107984 -0.181882 0.878716
0.108663 -0.180332 0.877246
0.109317 -0.178744 0.875559
0.109947 -0.177123 0.873663
0.110614 -0.175583 0.872165
0.111316 -0.174116 0.871032
0.112071 -0.172751 0.870424
0.112826 -0.171392 0.869837
0.113582 -0.170038 0.869261
0.114333 -0.168681 0.868663
0.115036 -0.16725 0.867636
0.115752 -0.165847 0.866752
0.116433 -0.164394 0.86556
0.117149 -0.163004 0.864708
0.117882 -0.161648 0.864032
0.118693 -0.160413 0.864044
0.119519 -0.159205 0.864203
0.120398 -0.158072 0.864805
0.121256 -0.156908 0.865228
0.122089 -0.155709 0.86544
0.122908 -0.154488 0.865526
0.123697 -0.153227 0.865369
0.12451 -0.152 0.865408
0.125345 -0.150803 0.865633
0.12617 -0.149594 0.865781
0.126992 -0.148381 0.865905
0.127821 -0.147179 0.866094
0.128654 -0.145979 0.866302
0.129509 -0.144809 0.866701
0.1304 -0.143681 0.867369
0.131303 -0.142565 0.868125
0.132218 -0.14146 0.868969
0.133178 -0.140403 0.870142
0.134211 -0.139425 0.871868
0.13529 -0.138492 0.873923
0.136399 -0.137583 0.876183
0.137529 -0.136686 0.878574
0.138674 -0.135795 0.881033
0.139758 -0.13483 0.88302
0.104409 -0.185127 0.880257
0.105284 -0.183946 0.880707
0.106109 -0.182664 0.880646
0.106888 -0.181293 0.880118
0.107581 -0.179761 0.878743
0.108248 -0.17819 0.877144
0.108898 -0.176598 0.875401
0.109558 -0.175037 0.873795
0.110244 -0.173534 0.872479
0.110975 -0.17212 0.871611
0.111705 -0.170713 0.870769
0.112428 -0.169298 0.869861
0.11317 -0.167923 0.869163
0.113883 -0.166505 0.868207
0.114611 -0.165118 0.867407
0.115311 -0.163693 0.866377
0.116011 -0.162274 0.865359
0.116734 -0.160898 0.864574
0.117524 -0.15963 0.864396
0.118341 -0.158407 0.864469
0.119204 -0.157251 0.864933
0.120082 -0.156116 0.865535
0.120926 -0.154929 0.865828
0.121744 -0.153706 0.865907
0.122545 -0.15246 0.865838
0.123378 -0.151261 0.86605
0.124237 -0.150094 0.866466
0.125086 -0.148915 0.866813
0.125931 -0.147729 0.867116
0.126772 -0.146537 0.86738
0.127604 -0.145335 0.867585
0.128453 -0.144152 0.867909
0.129334 -0.14301 0.868503
0.130236 -0.14189 0.869252
0.131142 -0.140771 0.87001
0.13209 -0.1397 0.871104
0.13311 -0.138706 0.872742
0.134164 -0.137742 0.874615
0.135236 -0.136792 0.876608
0.136341 -0.135868 0.878821
0.13747 -0.134961 0.881191
0.138543 -0.133984 0.88311
0.103293 -0.184518 0.881542
0.104166 -0.183328 0.881954
0.104988 -0.182034 0.881839
0.105786 -0.180696 0.88149
0.106496 -0.179189 0.880248
0.107179 -0.177641 0.878772
0.107851 -0.176083 0.877212
0.1085 -0.174491 0.875448
0.10917 -0.172954 0.873946
0.109881 -0.171497 0.872858
0.110585 -0.170039 0.871733
0.111282 -0.168574 0.870559
0.112035 -0.167213 0.869937
0.112767 -0.165825 0.869149
0.113508 -0.164454 0.868446
0.114239 -0.163075 0.867677
0.114933 -0.16164 0.866575
0.115646 -0.160244 0.86567
0.116405 -0.158926 0.865206
0.117203 -0.15767 0.865093
0.118046 -0.156483 0.865388
0.118927 -0.15535 0.866003
0.119771 -0.154164 0.866306
0.120591 -0.152942 0.866392
0.121393 -0.151696 0.866331
0.12223 -0.150499 0.866561
0.1231 -0.149348 0.867086
0.123971 -0.148196 0.867605
0.124839 -0.147038 0.868089
0.125693 -0.14586 0.868458
0.126528 -0.144658 0.868667
0.127385 -0.143484 0.869062
0.128267 -0.142338 0.869644
0.129161 -0.141206 0.870328
0.130065 -0.140084 0.871086
0.131013 -0.13901 0.872173
0.132009 -0.137987 0.873632
0.133029 -0.136985 0.875252
0.134086 -0.136016 0.877141
0.135177 -0.135076 0.87926
0.136293 -0.134156 0.881556
0.137363 -0.133176 0.883469
0.103012 -0.182639 0.882853
0.103835 -0.181346 0.882745
0.104654 -0.180044 0.882589
0.105409 -0.17862 0.881784
0.106126 -0.177129 0.880608
0.106824 -0.175611 0.879272
0.107495 -0.174053 0.877691
0.108169 -0.172509 0.876165
0.108859 -0.171008 0.874844
0.109536 -0.169492 0.873414
0.110205 -0.167972 0.871938
0.110943 -0.16658 0.871151
0.111679 -0.165193 0.870374
0.112427 -0.163831 0.869719
0.113184 -0.162487 0.86916
0.11389 -0.161067 0.868147
0.114596 -0.159654 0.867155
0.115323 -0.158281 0.866377
0.116099 -0.156987 0.86605
0.116913 -0.155754 0.866072
0.117774 -0.154591 0.866518
0.118619 -0.153404 0.866823
0.119451 -0.152197 0.867004
0.120264 -0.150966 0.867033
0.121111 -0.14978 0.867348
0.121991 -0.14864 0.867944
0.122864 -0.147489 0.868477
0.123734 -0.146331 0.868975
0.1246 -0.145167 0.869437
0.125436 -0.143964 0.869656
0.126305 -0.142801 0.870133
0.127186 -0.141653 0.870713
0.12808 -0.140518 0.871387
0.128984 -0.139393 0.87214
0.129942 -0.138329 0.873317
0.130919 -0.137281 0.874621
0.131935 -0.136273 0.876223
0.132978 -0.135287 0.878008
0.134043 -0.134319 0.879947
0.135135 -0.133372 0.882076
0.136192 -0.132378 0.8839
0.10223 -0.182734 0.887801
0.102898 -0.181103 0.885976
0.103629 -0.179614 0.884856
0.104355 -0.178121 0.883707
0.105085 -0.176647 0.882626
0.105806 -0.175165 0.881486
0.106501 -0.173641 0.880104
0.107187 -0.17211 0.878656
0.107862 -0.170571 0.877132
0.108513 -0.168998 0.875401
0.109156 -0.167425 0.873637
0.109877 -0.165996 0.87265
0.110609 -0.164596 0.871805
0.111362 -0.163235 0.871171
0.112132 -0.161909 0.870721
0.112853 -0.160507 0.869813
0.113554 -0.159079 0.868744
0.114264 -0.157674 0.867786
0.115019 -0.156343 0.867245
0.115801 -0.155057 0.866967
0.116642 -0.153863 0.86723
0.117488 -0.152675 0.867533
0.11832 -0.151468 0.867718
0.119144 -0.150248 0.86783
0.119991 -0.149061 0.86814
0.12087 -0.147917 0.868719
0.121751 -0.146775 0.869321
0.122631 -0.145628 0.8699
0.123509 -0.144478 0.870464
0.124357 -0.143287 0.870771
0.125226 -0.142123 0.871248
0.126098 -0.14096 0.871743
0.126992 -0.139823 0.87242
0.127888 -0.138686 0.873102
0.128846 -0.13762 0.874282
0.129812 -0.136558 0.875506
0.130816 -0.135534 0.877015
0.131844 -0.134532 0.878702
0.132897 -0.133548 0.88055
0.133954 -0.132563 0.882425
0.134985 -0.131541 0.884064
0.101987 -0.180925 0.889577
0.102631 -0.179245 0.887475
0.103328 -0.177686 0.885981
0.104052 -0.176188 0.884791
0.104779 -0.174707 0.883665
0.105496 -0.173216 0.882466
0.106194 -0.171698 0.881102
0.106861 -0.170133 0.879446
0.107489 -0.16851 0.877443
0.108117 -0.166899 0.875473
0.108827 -0.165444 0.874351
0.109559 -0.164037 0.873472
0.110307 -0.162662 0.872762
0.111095 -0.161359 0.872458
0.111836 -0.159983 0.871712
0.112525 -0.158529 0.870497
0.113215 -0.157086 0.869318
0.11395 -0.155719 0.868578
0.114695 -0.154373 0.86794
0.115505 -0.153129 0.867917
0.116351 -0.15194 0.868213
0.117187 -0.150735 0.868418
0.118013 -0.149516 0.868541
0.118859 -0.148326 0.868839
0.119735 -0.147177 0.869402
0.120615 -0.146032 0.869989
0.121496 -0.144885 0.870576
0.122384 -0.143747 0.871229
0.123244 -0.142569 0.871625
0.124114 -0.141404 0.872111
0.124986 -0.140238 0.872598
0.12588 -0.1391 0.873274
0.126786 -0.137973 0.874037
0.127756 -0.136919 0.875313
