ply
format ascii 1.0
element vertex 1669
property float x
property float y
property float z
end_header
0.0889577 0.0433435 0.861428
0.0905061 0.0435031 0.861898
0.092066 0.0436683 0.86252
0.0936035 0.0438216 0.862797
0.095148 0.043978 0.863159
0.0966869 0.0441311 0.863427
0.0982314 0.044287 0.863767
0.0997776 0.0444431 0.864113
0.101347 0.0446093 0.864744
0.102914 0.0447739 0.865329
0.104482 0.0449383 0.8659
0.106065 0.0451082 0.866621
0.107634 0.0452721 0.867169
0.1092 0.0454339 0.867655
0.110774 0.0455987 0.86822
0.112389 0.0457793 0.869219
0.113993 0.0459548 0.870067
0.115619 0.0461382 0.871121
0.117292 0.0463384 0.872631
0.118999 0.0465507 0.874455
0.120691 0.0467555 0.876059
0.122395 0.0469632 0.877733
0.124154 0.0471898 0.879896
0.125962 0.0474324 0.882471
-0.0129706 0.0349925 0.853307
-0.011442 0.0351311 0.8531
-0.00993745 0.0352829 0.853418
-0.00845224 0.0354468 0.85421
-0.00698157 0.0356216 0.85542
-0.00549286 0.0357874 0.856266
-0.0039953 0.0359491 0.856944
-0.00248064 0.0361001 0.857201
-0.000957486 0.0362451 0.857228
0.000587924 0.0363718 0.85656
0.00214289 0.0364879 0.855501
0.00370349 0.036595 0.854118
0.00527396 0.0366871 0.852191
0.0068443 0.0367716 0.850008
0.00840686 0.0368558 0.847838
0.00995219 0.036951 0.846101
0.0114939 0.0370425 0.844248
0.0130173 0.0371507 0.843019
0.0145329 0.037264 0.841992
0.016039 0.0373873 0.841332
0.0175425 0.0375109 0.840698
0.0190436 0.0376344 0.840061
0.0205462 0.0377471 0.839053
0.022045 0.0378601 0.838074
0.0235367 0.0379875 0.837602
0.0250227 0.0381347 0.837823
0.0265085 0.0382877 0.838243
0.0279943 0.0384581 0.839255
0.0294834 0.0386197 0.839953
0.0309742 0.0387749 0.840435
0.0324653 0.0389182 0.840506
0.0339584 0.0390746 0.841017
0.0354518 0.0392246 0.841314
0.0369476 0.0393817 0.841839
0.0384431 0.039533 0.842171
0.0399374 0.0396788 0.842319
0.0414343 0.0398302 0.842647
0.0429312 0.0399797 0.842911
0.0444302 0.0401321 0.843267
0.0459282 0.0402812 0.843512
0.0474281 0.0404321 0.84382
0.0489272 0.0405813 0.844062
0.0504317 0.0407366 0.844501
0.051938 0.040893 0.844973
0.0534476 0.0410519 0.845514
0.0549628 0.0412155 0.846201
0.0564778 0.0413769 0.846811
0.0579952 0.0415389 0.847438
0.0595149 0.0417016 0.848078
0.0610356 0.0418637 0.848694
0.0625611 0.0420285 0.849389
0.0640894 0.0421943 0.850105
0.0656246 0.0423642 0.85094
0.0671591 0.0425317 0.851696
0.0687025 0.0427044 0.852603
0.0702326 0.0428655 0.853153
0.0717515 0.0430173 0.853426
0.0732653 0.0431652 0.853577
0.0747784 0.0433123 0.853711
0.0762929 0.0434602 0.853865
0.0778323 0.0436242 0.854485
0.079391 0.0437992 0.855422
0.0809587 0.0439785 0.85647
0.0825498 0.04417 0.857863
0.0841394 0.0443587 0.859159
0.0857183 0.044539 0.860212
0.0872938 0.0447159 0.861153
0.0888639 0.0448888 0.86198
0.0904062 0.0450455 0.862344
0.0919545 0.0452047 0.86277
0.0934904 0.0453573 0.863017
0.0950283 0.0455109 0.863285
0.0965608 0.045661 0.863458
0.0980987 0.0458138 0.863705
0.0996517 0.0459736 0.864137
0.101215 0.0461379 0.864693
0.102783 0.0463037 0.865283
0.104351 0.0464688 0.865849
0.105932 0.0466393 0.866559
0.107494 0.0468004 0.867009
0.109067 0.046966 0.867578
0.110641 0.0471319 0.868146
0.112257 0.0473143 0.869151
0.113861 0.0474911 0.869999
0.115488 0.0476763 0.87106
0.117143 0.0478723 0.872393
0.11884 0.0480833 0.874112
0.120529 0.0482897 0.875694
0.12223 0.0484994 0.877349
0.124046 0.0487515 0.880076
0.125971 0.0490428 0.883787
-0.00720868 0.0371981 0.857425
-0.00571607 0.0373653 0.858261
-0.00420828 0.0375234 0.858761
-0.00267978 0.0376669 0.858723
-0.00114447 0.0378045 0.858477
0.00041295 0.037922 0.857516
0.00198185 0.0380254 0.85607
0.00355481 0.0381196 0.854311
0.00513626 0.0381979 0.852018
0.00671156 0.0382735 0.849655
0.0082764 0.0383512 0.847389
0.00982111 0.0384439 0.845672
0.0113588 0.0385375 0.844
0.0128803 0.0386465 0.842875
0.0143933 0.0387627 0.842013
0.0158985 0.0388873 0.841438
0.0174013 0.0390123 0.840887
0.0189031 0.0391348 0.840256
0.0204047 0.0392507 0.839415
0.0219036 0.0393651 0.838533
0.0233962 0.0394923 0.838083
0.0248836 0.0396376 0.838231
0.0263704 0.0397911 0.838644
0.0278571 0.0399604 0.839562
0.029347 0.0401175 0.840085
0.0308382 0.0402735 0.840567
0.0323298 0.0404167 0.840636
0.033823 0.0405716 0.84107
0.035316 0.0407189 0.841267
0.0368118 0.0408763 0.841779
0.0383066 0.0410252 0.842021
0.0398009 0.0411713 0.84217
0.0412976 0.0413227 0.842488
0.0427944 0.0414724 0.842749
0.0442932 0.0416251 0.843097
0.0457914 0.0417748 0.843355
0.0472913 0.0419263 0.843666
0.0487906 0.042076 0.843917
0.0502953 0.0422324 0.84437
0.0518038 0.0423924 0.844927
0.0533163 0.0425557 0.84558
0.0548298 0.0427181 0.846195
0.0563424 0.0428774 0.846717
0.0578561 0.0430364 0.847226
0.059366 0.04319 0.847574
0.0608764 0.0433435 0.847913
0.0623971 0.0435058 0.848507
0.0639208 0.0436694 0.849134
0.0654514 0.0438377 0.84989
0.0669919 0.0440126 0.850828
0.068538 0.0441901 0.851833
0.0700709 0.0443549 0.852469
0.0715965 0.0445127 0.852905
0.0731218 0.0446697 0.853312
0.0746404 0.0448211 0.85356
0.0761653 0.0449765 0.853917
0.0777155 0.0451485 0.854736
0.0792804 0.0453289 0.855776
0.0808545 0.0455135 0.856926
0.082452 0.0457109 0.858414
0.0840487 0.0459055 0.859813
0.0856289 0.0460877 0.860867
0.0872038 0.0462653 0.86179
0.0887683 0.0464355 0.862502
0.0903048 0.0465887 0.862756
0.0918409 0.0467416 0.863
0.0933712 0.0468912 0.863154
0.0949023 0.047041 0.863313
0.0964282 0.0471878 0.863392
0.0979593 0.0473376 0.863552
0.0995192 0.0475012 0.864069
0.101083 0.0476666 0.864632
0.102651 0.0478333 0.865224
0.104219 0.0479992 0.865787
0.105799 0.0481703 0.866482
0.107345 0.0483247 0.866746
0.108916 0.0484903 0.86729
0.110489 0.0486566 0.867856
0.112106 0.0488415 0.868881
0.113712 0.0490204 0.869751
0.115354 0.0492142 0.870985
0.117001 0.0494085 0.872226
0.118696 0.0496217 0.873926
0.120383 0.0498299 0.875489
0.122102 0.0500497 0.877329
0.123962 0.0503241 0.880497
0.125981 0.0506583 0.885107
-0.00746725 0.0388036 0.860182
-0.00595331 0.0389603 0.860596
-0.00442312 0.0391055 0.860612
-0.00287431 0.0392352 0.860104
-0.00132155 0.0393598 0.859425
0.000244142 0.0394699 0.858272
0.00182322 0.0395629 0.856555
0.00340396 0.0396476 0.854579
0.00499441 0.0397134 0.851999
0.00657339 0.0397812 0.849513
0.00814106 0.0398518 0.847149
0.00968587 0.0399417 0.845433
0.0112217 0.0400351 0.843855
0.0127417 0.040145 0.842822
0.0142548 0.0402599 0.841966
0.0157592 0.0403857 0.841464
0.0172613 0.040512 0.840986
0.0187627 0.0406355 0.840424
0.0202623 0.0407582 0.839841
0.0217606 0.0408771 0.839147
0.0232537 0.0410071 0.838811
0.024743 0.0411505 0.83889
0.0262313 0.0413019 0.839214
0.0277196 0.0414668 0.839952
0.0292103 0.0416218 0.840383
0.0307023 0.0417759 0.840785
0.0321944 0.0419188 0.840841
0.0336877 0.0420712 0.841182
0.0351805 0.0422156 0.841283
0.0366759 0.0423709 0.841708
0.03817 0.0425172 0.841865
0.0396644 0.0426636 0.84202
0.041161 0.0428154 0.842338
0.042659 0.0429684 0.842685
0.0441583 0.043122 0.843047
0.0456568 0.0432724 0.843315
0.0471588 0.043428 0.843731
0.0486584 0.0435778 0.843976
0.0501631 0.0437345 0.84442
0.0516736 0.0438981 0.845052
0.0531885 0.0440651 0.845781
0.0547008 0.0442263 0.846335
0.0562138 0.0443864 0.846856
0.0577225 0.04454 0.847191
0.0592263 0.0446874 0.84735
0.0607304 0.0448347 0.847506
0.0622442 0.0449914 0.847922
0.0637604 0.0451494 0.848374
0.0652863 0.0453155 0.84904
0.066828 0.045494 0.850039
0.0683728 0.045673 0.851043
0.0699091 0.0458422 0.851778
0.071442 0.0460073 0.852394
0.0729796 0.0461749 0.853071
0.0745036 0.0463308 0.853432
0.076043 0.0464973 0.854073
0.0776079 0.046681 0.855165
0.0791828 0.0468694 0.856374
0.0807635 0.0470597 0.85762
0.082367 0.0472627 0.859192
0.0839601 0.0474564 0.860506
0.0855355 0.0476367 0.861462
0.0871052 0.0478121 0.862287
0.0886588 0.047976 0.86281
0.0901839 0.0481227 0.862886
0.0917195 0.0482754 0.863117
0.0932447 0.048422 0.86319
0.0947699 0.0485686 0.863264
0.096302 0.0487186 0.863423
0.0978393 0.0488717 0.86366
0.0993937 0.049033 0.864102
0.100964 0.0492028 0.86475
0.102532 0.0493704 0.865341
0.104093 0.0495335 0.865814
0.105666 0.0497019 0.866415
0.107211 0.0498559 0.866661
0.108774 0.0500184 0.867114
0.110347 0.0501857 0.867679
0.111964 0.0503723 0.86871
0.113571 0.0505532 0.869591
0.115214 0.050749 0.870828
0.116859 0.0509449 0.87206
0.118562 0.0511641 0.873841
0.120268 0.0513829 0.875597
0.122036 0.0516264 0.877927
0.123953 0.0519294 0.881644
-0.00779469 0.0404692 0.864585
-0.00622193 0.0405875 0.863705
-0.00464269 0.0406974 0.862569
-0.00306945 0.0408087 0.861488
-0.00149867 0.0409183 0.860364
7.19271e-05 0.041024 0.859123
0.0016592 0.0411078 0.857207
0.00324955 0.0411806 0.854958
0.00484726 0.0412352 0.852165
0.00643045 0.041295 0.84956
0.00800102 0.0413585 0.847101
0.00954465 0.0414476 0.845457
0.011079 0.0415415 0.843976
0.0125978 0.0416525 0.843034
0.01411 0.0417691 0.842271
0.0156154 0.0418936 0.84176
0.0171185 0.042019 0.841281
0.0186206 0.0421419 0.84073
0.0201198 0.0422669 0.840248
0.0216183 0.042388 0.839657
0.0231118 0.042521 0.83942
0.0246023 0.0426644 0.839498
0.0260921 0.0428155 0.839798
0.027582 0.0429751 0.840348
0.0290737 0.043125 0.840609
0.0305661 0.0432763 0.840909
0.0320583 0.0434134 0.840797
0.0335513 0.0435628 0.841039
0.035044 0.0437066 0.841123
0.0365393 0.0438626 0.841547
0.0380328 0.0440065 0.841632
0.0395279 0.0441559 0.84187
0.0410247 0.0443086 0.842198
0.0425239 0.0444652 0.842633
0.0440249 0.0446232 0.843104
0.0455254 0.0447775 0.843471
0.0470295 0.0449368 0.84397
0.0485314 0.0450898 0.844293
0.0500364 0.0452467 0.84472
0.0515493 0.0454138 0.845423
0.0530671 0.045585 0.846232
0.0545829 0.0457505 0.846879
0.0560947 0.0459086 0.847324
0.0576041 0.0460623 0.847647
0.0591059 0.0462064 0.847712
0.0606078 0.0463507 0.847783
0.0621134 0.0464986 0.847952
0.0636257 0.0466532 0.848293
0.065146 0.0468149 0.848814
0.0666831 0.0469909 0.84971
0.0682246 0.0471687 0.850642
0.0697658 0.0473438 0.851503
0.0713033 0.0475139 0.852224
0.0728459 0.0476866 0.853009
0.0743749 0.0478469 0.85347
0.0759198 0.0480186 0.854216
0.0774948 0.0482112 0.855489
0.0790751 0.0484053 0.85679
0.080661 0.0486007 0.858113
0.0822652 0.0488063 0.859683
0.0838642 0.0490055 0.861081
0.0854354 0.0491839 0.861951
0.0870063 0.0493604 0.862766
0.0885543 0.0495214 0.863196
0.0900857 0.0496712 0.863349
0.0916177 0.0498215 0.86351
0.0931436 0.0499683 0.863589
0.0946698 0.0501151 0.863664
0.096202 0.0502651 0.863818
0.097735 0.0504154 0.863979
0.0992894 0.0505774 0.86442
0.100868 0.0507521 0.865161
0.102438 0.050921 0.865756
0.104007 0.0510882 0.866311
0.105587 0.0512613 0.867
0.107127 0.0514125 0.867171
0.108682 0.0515719 0.867531
0.110256 0.0517395 0.868084
0.111865 0.0519239 0.86902
0.113465 0.0521021 0.869811
0.115116 0.0523036 0.871132
0.116763 0.052502 0.872374
0.118478 0.0527294 0.874273
0.120203 0.0529599 0.876231
0.121999 0.0532184 0.878814
0.123966 0.0535495 0.883029
-0.00810764 0.0421379 0.868604
-0.00648421 0.0422196 0.866628
-0.00486972 0.0423025 0.864706
-0.00327161 0.0423933 0.863052
-0.00168647 0.0424906 0.861603
-0.000106769 0.0425876 0.860163
0.00149133 0.0426594 0.857976
0.00309144 0.0427194 0.855461
0.0046937 0.0427656 0.852559
0.00628294 0.0428149 0.849772
0.00785712 0.0428708 0.84721
0.00940104 0.0429577 0.845585
0.0109341 0.0430523 0.844199
0.0124534 0.0431621 0.843269
0.0139648 0.0432803 0.842594
0.0154711 0.0434041 0.842088
0.0169749 0.0435291 0.841619
0.0184777 0.0436515 0.841082
0.0199768 0.0437789 0.840694
0.0214754 0.0439027 0.840207
0.0229701 0.0440354 0.839975
0.0244625 0.0441752 0.839947
0.0259533 0.0443259 0.840221
0.0274446 0.0444793 0.840572
0.0289371 0.044623 0.840654
0.0304298 0.0447714 0.840861
0.0319221 0.044908 0.840745
0.033415 0.0450541 0.840889
0.0349077 0.0451982 0.840978
0.0364028 0.0453544 0.841392
0.0378962 0.0454984 0.841479
0.0393922 0.0456513 0.841802
0.0408903 0.0458079 0.842223
0.04239 0.0459659 0.842678
0.0438927 0.0461278 0.843235
0.0453951 0.0462859 0.843687
0.0468981 0.0464429 0.844105
0.0484004 0.0465963 0.844427
0.0499077 0.0467571 0.844939
0.0514236 0.046929 0.845739
0.0529447 0.0471057 0.846656
0.0544661 0.047279 0.847474
0.0559815 0.0474409 0.848
0.0574946 0.0475983 0.8484
0.0589978 0.0477424 0.848463
0.0605013 0.047887 0.848536
0.0620078 0.0480346 0.848689
0.0635145 0.0481823 0.848843
0.0650281 0.0483367 0.849162
0.0665615 0.0485099 0.849948
0.0680964 0.0486825 0.850715
0.0696316 0.0488532 0.851431
0.0711695 0.0490248 0.852163
0.0727158 0.0492019 0.853023
0.0742495 0.0493665 0.853575
0.0758002 0.0495437 0.854429
0.0773809 0.0497427 0.855804
0.0789718 0.0499464 0.857287
0.0805591 0.0501445 0.858621
0.0821596 0.0503495 0.860113
0.0837591 0.0505508 0.861506
0.0853305 0.05073 0.862363
0.0868964 0.0509044 0.863098
0.0884462 0.0510663 0.86353
0.0899782 0.0512167 0.86369
0.0915111 0.0513673 0.863854
0.0930389 0.0515144 0.863935
0.0945666 0.0516615 0.864018
0.0960992 0.0518115 0.864167
0.097633 0.0519622 0.86433
0.0991889 0.0521254 0.864781
0.100776 0.0523054 0.865617
0.102354 0.0524789 0.8663
0.103939 0.0526557 0.86705
0.105522 0.0528307 0.867759
0.107063 0.0529826 0.867934
0.108613 0.0531383 0.868201
0.110179 0.0533024 0.868648
0.111772 0.0534794 0.869386
0.11337 0.0536582 0.870159
0.115022 0.0538621 0.871486
0.11668 0.054067 0.872829
0.118405 0.0543026 0.874842
0.120146 0.0545426 0.876935
0.121954 0.0548111 0.879642
0.124446 0.0553867 0.889056
-0.0100379 0.0437238 0.874096
-0.00838991 0.0437942 0.871853
-0.00672602 0.0438437 0.869013
-0.0050781 0.0438977 0.866335
-0.00345805 0.0439684 0.864168
-0.00185355 0.0440464 0.862231
-0.00026201 0.0441303 0.860482
0.00134316 0.0441916 0.858104
0.00294681 0.0442442 0.8555
0.00454782 0.0442881 0.852671
0.00613574 0.0443357 0.849972
0.00770828 0.044391 0.847517
0.00925091 0.0444786 0.84599
0.0107815 0.0445771 0.844778
0.0123037 0.0446826 0.843774
0.0138164 0.0447994 0.843092
0.0153237 0.0449227 0.842594
0.0168274 0.04505 0.84221
0.0183302 0.045175 0.841769
0.0198299 0.0453051 0.841469
0.0213293 0.0454306 0.841053
0.0228265 0.0455597 0.840734
0.0243216 0.045693 0.840531
0.0258144 0.0458368 0.840609
0.0273071 0.0459839 0.840776
0.0288004 0.046124 0.84076
0.0302934 0.0462695 0.840881
0.0317859 0.0464024 0.840675
0.0332784 0.0465456 0.84074
0.0347712 0.0466892 0.840815
0.0362657 0.0468432 0.84116
0.0377597 0.0469906 0.841333
0.0392576 0.0471506 0.841828
0.040757 0.0473115 0.842342
0.0422583 0.0474737 0.842887
0.0437615 0.0476363 0.843441
0.0452642 0.0477949 0.843884
0.0467662 0.0479488 0.844212
0.0482706 0.0481063 0.844622
0.0497828 0.0482755 0.845327
0.0513045 0.0484576 0.846344
0.05283 0.0486405 0.847377
0.0543601 0.0488261 0.848469
0.05588 0.0489927 0.849085
0.0573954 0.0491511 0.849496
0.0589033 0.0492988 0.849639
0.0604122 0.0494474 0.849805
0.0619121 0.0495852 0.84971
0.0634105 0.0497218 0.849587
0.0649143 0.0498648 0.849619
0.0664373 0.0500277 0.850129
0.0679622 0.0501912 0.850648
0.0694995 0.050365 0.851412
0.0710407 0.0505407 0.852212
0.0725866 0.0507186 0.853061
0.0741248 0.0508876 0.853696
0.0756846 0.0510737 0.854724
0.0772627 0.0512722 0.856038
0.078855 0.0514793 0.857541
0.0804478 0.0516834 0.858964
0.082049 0.0518908 0.860455
0.0836447 0.0520911 0.861773
0.0852219 0.0522756 0.862717
0.0867899 0.0524515 0.86346
0.0883393 0.0526143 0.863897
0.0898732 0.052765 0.86406
0.0914072 0.0529157 0.86422
0.0929351 0.0530628 0.864299
0.0944632 0.0532098 0.864374
0.0959965 0.0533602 0.864529
0.0975314 0.053511 0.86469
0.0990877 0.0536744 0.865132
0.100683 0.0538601 0.866062
0.10227 0.05404 0.866859
0.103873 0.0542275 0.867819
0.105461 0.0544052 0.868557
0.107011 0.0545613 0.868822
0.10856 0.0547167 0.869068
0.110125 0.0548798 0.869476
0.111703 0.0550499 0.870041
0.11331 0.0552338 0.870895
0.114972 0.0554441 0.87231
0.116641 0.0556564 0.87376
0.11837 0.0558963 0.875793
0.120122 0.0561444 0.877982
0.121927 0.0564158 0.880652
0.124385 0.0569906 0.889717
-0.0119687 0.0453112 0.879133
-0.0102994 0.0453722 0.8767
-0.00864604 0.0454389 0.874446
-0.00695465 0.0454638 0.871047
-0.00528236 0.0454945 0.867841
-0.00364103 0.0455439 0.86518
-0.00201994 0.0456038 0.862834
-0.000416759 0.0456738 0.860783
0.00119526 0.0457245 0.858223
0.00280041 0.0457719 0.855601
0.00439946 0.0458147 0.852873
0.00598786 0.0458583 0.85019
0.00755864 0.0459134 0.847846
0.00910013 0.0460022 0.846417
0.0106317 0.0460989 0.845212
0.0121552 0.0462022 0.844196
0.0136693 0.0463175 0.843503
0.0151791 0.0464365 0.842916
0.0166836 0.0465631 0.842532
0.0181863 0.0466904 0.842171
0.0196869 0.04682 0.841871
0.0211874 0.0469448 0.841454
0.0226856 0.0470729 0.841124
0.0241822 0.0472021 0.840826
0.0256767 0.0473391 0.840727
0.0271701 0.0474826 0.840801
0.0286636 0.0476222 0.840772
0.030157 0.0477647 0.840818
0.0316497 0.0479005 0.840693
0.0331426 0.0480437 0.84076
0.0346356 0.0481875 0.840838
0.0361298 0.0483383 0.841093
0.0376247 0.0484893 0.841349
0.0391229 0.0486509 0.841866
0.0406228 0.0488133 0.842397
0.0421245 0.0489767 0.84295
0.0436276 0.0491393 0.843482
0.045129 0.0492943 0.843825
0.0466308 0.0494485 0.844144
0.0481391 0.049614 0.844737
0.0496579 0.0497962 0.845726
0.0511857 0.0499889 0.846958
0.0527174 0.0501823 0.848199
0.0542542 0.0503778 0.849479
0.0557788 0.0505497 0.850194
0.0572995 0.0507135 0.850714
0.058816 0.0508699 0.851055
0.0603306 0.0510227 0.851311
0.0618332 0.0511602 0.85121
0.0633336 0.0512961 0.851069
0.0648363 0.0514351 0.851004
0.0663505 0.0515867 0.851231
0.0678683 0.0517417 0.851533
0.0693983 0.0519081 0.852097
0.0709318 0.0520763 0.852698
0.0724705 0.052248 0.853373
0.0740136 0.0524222 0.854099
0.0755793 0.0526142 0.855225
0.0771589 0.0528156 0.856553
0.0787566 0.0530288 0.858135
0.0803502 0.0532349 0.859553
0.0819479 0.0534414 0.860967
0.0835392 0.0536398 0.862193
0.0851177 0.0538263 0.863147
0.0866803 0.0539992 0.863798
0.0882315 0.0541629 0.86424
0.0897655 0.0543138 0.8644
0.0913056 0.0544683 0.864639
0.0928412 0.0546195 0.864807
0.0943768 0.054771 0.864974
0.0959177 0.0549257 0.865217
0.0974597 0.0550805 0.865457
0.0990178 0.0552448 0.865901
0.100614 0.055432 0.866832
0.102204 0.055614 0.867645
0.103819 0.0558089 0.868725
0.105417 0.055993 0.869571
0.106977 0.056154 0.869927
0.108526 0.0563086 0.870145
0.110092 0.0564726 0.870561
0.111657 0.0566351 0.870942
0.113259 0.0568167 0.871718
0.114913 0.0570253 0.873051
0.116594 0.0572448 0.874596
0.118317 0.0574842 0.876548
0.120084 0.0577437 0.878895
0.121869 0.0580086 0.881341
0.124295 0.058583 0.890083
-0.0121449 0.046898 0.879719
-0.0104728 0.0469541 0.87726
-0.00882515 0.0470233 0.87518
-0.00713133 0.0470422 0.871771
-0.00545793 0.0470684 0.868589
-0.00380667 0.0471052 0.86571
-0.00218296 0.04716 0.863334
-0.000572085 0.0472192 0.861093
0.00104139 0.0472652 0.858526
0.00264758 0.0473085 0.855908
0.00424535 0.0473501 0.853269
0.0058348 0.0473896 0.8506
0.00740426 0.047445 0.848362
0.00894688 0.0475315 0.846938
0.01048 0.0476258 0.845725
0.0120071 0.0477231 0.844602
0.0135223 0.0478369 0.843899
0.0150348 0.0479508 0.843209
0.0165403 0.0480764 0.84282
0.0180437 0.048203 0.842458
0.0195451 0.0483322 0.842164
0.0210463 0.0484568 0.841757
0.0225461 0.0485806 0.841335
0.024044 0.0487054 0.840944
0.0255394 0.0488381 0.840746
0.0270334 0.0489781 0.840732
0.0285272 0.0491146 0.840631
0.0300205 0.0492574 0.840684
0.0315133 0.0493933 0.840573
0.0330063 0.0495362 0.840629
0.0344992 0.0496796 0.840696
0.0359934 0.0498306 0.840948
0.0374884 0.0499821 0.841211
0.0389874 0.0501483 0.841818
0.0404877 0.0503123 0.84237
0.0419894 0.0504763 0.842918
0.0434938 0.0506427 0.84352
0.0449965 0.0508013 0.843932
0.0464989 0.0509562 0.844261
0.0480113 0.0511306 0.845036
0.049535 0.0513229 0.84622
0.0510663 0.0515227 0.847569
0.0526038 0.051726 0.848991
0.0541465 0.051931 0.850439
0.0556759 0.0521089 0.85126
0.0572046 0.0522826 0.85198
0.0587299 0.0524485 0.852522
0.0602507 0.0526065 0.852882
0.0617593 0.0527481 0.852872
0.0632659 0.0528873 0.852809
0.0647709 0.0530255 0.852723
0.0662809 0.0531696 0.852771
0.0677927 0.0533156 0.852862
0.0693159 0.0534737 0.853215
0.0708432 0.0536348 0.853637
0.0723726 0.0537969 0.854077
0.0739173 0.0539726 0.854807
0.0754797 0.0541623 0.855842
0.0770556 0.0543616 0.857077
0.0786496 0.0545735 0.858575
0.0802378 0.0547769 0.859882
0.0818305 0.054981 0.861196
0.0834216 0.055181 0.862412
0.0850009 0.0553691 0.863368
0.0865644 0.0555432 0.864018
0.0881206 0.0557111 0.86454
0.0896558 0.055862 0.864694
0.0911965 0.0560173 0.864941
0.0927394 0.0561734 0.865204
0.0942829 0.0563298 0.865476
0.0958268 0.056486 0.865739
0.0973705 0.0566416 0.865986
0.0989348 0.0568103 0.866505
0.100532 0.0569988 0.867431
0.102131 0.0571868 0.868338
0.103761 0.0573924 0.869601
0.105369 0.0575824 0.87054
0.106938 0.0577488 0.870993
0.108498 0.0579086 0.871308
0.110069 0.0580748 0.871748
0.111629 0.058234 0.872049
0.113232 0.0584167 0.872819
0.114878 0.058622 0.874038
0.116551 0.0588399 0.875504
0.118251 0.0590697 0.877194
0.119993 0.0593188 0.879259
0.121721 0.0595584 0.881122
0.124075 0.0601119 0.889165
-0.0123289 0.0484939 0.880472
-0.0106484 0.04854 0.877863
-0.00899331 0.0486003 0.875646
-0.00728708 0.048603 0.871968
-0.00561867 0.04863 0.868944
-0.00397014 0.0486662 0.866176
-0.00235273 0.0487256 0.864016
-0.000731283 0.0487708 0.861518
0.000886045 0.0488093 0.858873
0.00249607 0.0488447 0.856171
0.0040952 0.0488814 0.853523
0.00568325 0.0489201 0.850945
0.00725194 0.0489748 0.848783
0.00879603 0.0490586 0.847352
0.0103305 0.0491504 0.84613
0.0118589 0.0492452 0.844991
0.0133769 0.049354 0.844198
0.0148918 0.049463 0.843418
0.0163993 0.0495841 0.842936
0.0179035 0.0497096 0.842565
0.0194052 0.0498386 0.842279
0.0209076 0.0499597 0.841807
0.0224077 0.0500827 0.841385
0.0239062 0.0502063 0.840979
0.0254025 0.0503344 0.840684
0.0268969 0.0504705 0.840582
0.0283906 0.0506103 0.840569
0.029884 0.0507535 0.84063
0.0313772 0.050893 0.840607
0.0328707 0.0510397 0.84075
0.0343642 0.0511833 0.840824
0.0358582 0.0513306 0.840981
0.0373533 0.051482 0.841233
0.0388516 0.0516451 0.841749
0.040351 0.0518064 0.84222
0.0418538 0.0519747 0.842849
0.0433595 0.0521463 0.843546
0.0448642 0.0523099 0.844059
0.0463706 0.0524736 0.844572
0.0478873 0.0526576 0.845532
0.0494141 0.0528566 0.846822
0.0509464 0.0530584 0.848164
0.0524867 0.0532674 0.849658
0.0540303 0.0534745 0.851099
0.0555636 0.0536577 0.852008
0.057097 0.0538377 0.852838
0.0586303 0.0540136 0.853576
0.0601568 0.0541776 0.854051
0.0616739 0.0543276 0.85422
0.0631865 0.0544713 0.854253
0.0646951 0.0546104 0.85419
0.0662045 0.0547508 0.854153
0.0677145 0.0548925 0.854144
0.0692319 0.0550423 0.854308
0.0707532 0.0551957 0.854549
0.0722757 0.0553501 0.854808
0.0738214 0.0555264 0.855528
0.0753806 0.0557136 0.856474
0.0769528 0.0559105 0.857614
0.0785418 0.0561196 0.859002
0.0801249 0.0563202 0.860205
0.0817123 0.0565214 0.861414
0.0832981 0.0567187 0.862533
0.0848721 0.0569037 0.863394
0.086435 0.0570785 0.864041
0.0879979 0.0572517 0.86465
0.0895337 0.0574032 0.864814
0.0910814 0.0575637 0.865161
0.0926322 0.0577253 0.865526
0.0941784 0.0578835 0.865824
0.0957245 0.0580408 0.866102
0.0972754 0.0582014 0.866445
0.0988413 0.0583713 0.866971
0.100439 0.0585615 0.867898
0.102052 0.0587593 0.868971
0.103689 0.0589706 0.870307
0.105293 0.0591589 0.871177
0.106879 0.0593356 0.87182
0.108458 0.0595068 0.872346
0.110026 0.0596703 0.872719
0.111579 0.0598254 0.87293
0.113188 0.060012 0.873749
0.114827 0.0602135 0.874854
0.116493 0.0604292 0.876227
0.118176 0.0606525 0.877737
0.11989 0.0608899 0.879511
0.12158 0.0611117 0.880973
-0.00914021 0.0501588 0.875603
-0.00743357 0.0501555 0.871935
-0.0057772 0.0501907 0.869239
-0.00413594 0.0502316 0.8667
-0.00252717 0.0502993 0.864828
-0.000903848 0.0503405 0.862332
0.000718749 0.0503705 0.859588
0.00233369 0.0503971 0.856785
0.00393497 0.0504287 0.854123
0.00552521 0.0504623 0.851527
0.00709776 0.0505096 0.849276
0.00864331 0.0505907 0.84784
0.0101794 0.0506798 0.846602
0.0117107 0.0507692 0.845379
0.0132313 0.050873 0.844504
0.0147484 0.0509772 0.843644
0.016258 0.0510933 0.843068
0.017763 0.0512176 0.842682
0.0192652 0.051346 0.842395
0.020768 0.0514666 0.841931
0.022268 0.051593 0.841606
0.0237672 0.0517152 0.84119
0.0252646 0.0518387 0.840802
0.0267594 0.0519739 0.840683
0.0282535 0.0521138 0.840669
0.0297475 0.0522536 0.840658
0.0312411 0.0523933 0.840642
0.0327351 0.0525437 0.840866
0.034229 0.0526878 0.840946
0.0357234 0.0528356 0.841112
0.037219 0.052987 0.841356
0.0387175 0.0531497 0.841844
0.0402158 0.0533066 0.842204
0.0417189 0.0534764 0.842842
0.0432252 0.0536503 0.843566
0.0447321 0.0538201 0.844198
0.0462425 0.0539941 0.844916
0.0477637 0.0541879 0.846055
0.0492913 0.0543889 0.847341
0.0508222 0.0545883 0.848584
0.0523627 0.0547988 0.850055
0.0539045 0.0550035 0.851395
0.0554385 0.0551887 0.852314
0.0569754 0.0553743 0.853235
0.0585151 0.05556 0.854154
0.060046 0.0557294 0.854724
0.0615711 0.0558887 0.855081
0.0630928 0.0560422 0.855318
0.0646083 0.0561874 0.855379
0.0661209 0.0563291 0.855368
0.0676368 0.0564749 0.855442
0.0691558 0.0566242 0.855589
0.0706752 0.0567736 0.855737
0.0721993 0.0569278 0.855982
0.0737464 0.0571047 0.856688
0.0753019 0.0572881 0.85752
0.076871 0.057482 0.858562
0.0784519 0.0576846 0.85977
0.080027 0.0578786 0.860799
0.0816043 0.0580721 0.861813
0.083185 0.0582661 0.862829
0.0847537 0.0584477 0.863595
0.0863184 0.0586241 0.864252
0.0878823 0.0587991 0.864878
0.0894252 0.0589558 0.865139
0.0909801 0.0591216 0.865582
0.0925381 0.0592887 0.866045
0.0940925 0.0594524 0.866439
0.0956459 0.059615 0.866811
0.0972053 0.0597809 0.867245
0.0987738 0.0599521 0.867777
0.100373 0.0601441 0.86871
0.101989 0.0603444 0.869795
0.103622 0.0605543 0.871059
0.105241 0.0607532 0.872106
0.106845 0.060941 0.872935
0.108437 0.0611195 0.873582
0.110015 0.0612893 0.874062
0.111578 0.0614491 0.87435
0.113178 0.0616308 0.875051
0.114809 0.0618289 0.876055
0.116468 0.0620415 0.877326
0.118136 0.0622575 0.878651
0.119831 0.0624863 0.880208
0.121923 0.0629306 0.885756
-0.00591148 0.0517264 0.868908
-0.00428228 0.0517767 0.866693
-0.00268221 0.0518523 0.865082
-0.00106527 0.0518988 0.862807
0.000557201 0.0519263 0.860116
0.00217426 0.0519474 0.857293
0.00377725 0.0519744 0.854627
0.00536909 0.0520035 0.85203
0.00694556 0.0520428 0.849685
0.00849418 0.0521178 0.848163
0.0100352 0.0521969 0.846747
0.0115656 0.0522879 0.84561
0.0130868 0.0523903 0.844738
0.014603 0.0524975 0.843977
0.0161149 0.0526087 0.843313
0.0176199 0.0527346 0.842979
0.0191241 0.0528581 0.842599
0.0206276 0.052978 0.842138
0.022128 0.0531048 0.841832
0.0236279 0.0532265 0.841419
0.025126 0.0533487 0.841021
0.0266216 0.0534832 0.840893
0.0281165 0.053619 0.840794
0.0296108 0.0537549 0.840698
0.0311049 0.0538977 0.840752
0.0325993 0.0540486 0.840981
0.0340937 0.0541934 0.841076
0.0355889 0.0543428 0.841269
0.037084 0.0544899 0.841413
0.0385818 0.0546482 0.841795
0.040079 0.0548004 0.842044
0.041582 0.0549709 0.842678
0.0430897 0.0551513 0.843513
0.0446015 0.0553357 0.84443
0.0461157 0.0555196 0.84533
0.0476396 0.0557202 0.84657
0.0491666 0.0559194 0.847776
0.0506957 0.0561157 0.848912
0.052234 0.0563231 0.850269
0.0537715 0.0565216 0.851436
0.0553034 0.0567042 0.852274
0.0568428 0.0568953 0.853276
0.0583854 0.0570865 0.854277
0.0599169 0.0572571 0.854854
0.0614519 0.0574304 0.855482
0.0629847 0.0575982 0.855998
0.0645096 0.0577539 0.856268
0.0660319 0.0579056 0.856456
0.0675609 0.0580652 0.856799
0.0690788 0.0582105 0.856859
0.0706003 0.0583601 0.857003
0.0721265 0.0585143 0.85724
0.0736715 0.0586879 0.857855
0.075216 0.0588594 0.858425
0.0767812 0.0590499 0.859365
0.0783534 0.0592448 0.860382
0.0799199 0.0594313 0.861234
0.0814881 0.0596174 0.86207
0.0830686 0.0598123 0.863074
0.0846372 0.0599946 0.863829
0.0862078 0.0601769 0.86458
0.0877803 0.0603586 0.865314
0.0893362 0.0605261 0.865777
0.0908993 0.0606979 0.866316
0.092464 0.0608703 0.866862
0.0940191 0.0610338 0.867241
0.0955738 0.0611968 0.867607
0.097135 0.0613636 0.868042
0.0987043 0.0615357 0.868576
0.100308 0.0617304 0.869528
0.101925 0.0619327 0.870618
0.103554 0.0621407 0.871806
0.105189 0.0623516 0.873041
0.106804 0.0625466 0.873976
0.108406 0.062732 0.87473
0.109987 0.0629028 0.875213
0.111559 0.0630678 0.875585
0.113145 0.0632404 0.876096
0.11477 0.0634354 0.877011
0.116415 0.063641 0.878114
0.118066 0.0638488 0.879251
0.119733 0.0640637 0.88051
-0.00604892 0.053265 0.868658
-0.00442061 0.0533129 0.866475
-0.0028182 0.0533828 0.864802
-0.00119841 0.0534217 0.862446
0.000419526 0.053451 0.859899
0.00203139 0.0534755 0.857258
0.00363191 0.0535026 0.854697
0.00521952 0.0535355 0.852283
0.0067927 0.0535786 0.850105
0.00834501 0.0536464 0.848486
0.00988724 0.0537226 0.847059
0.0114169 0.0538154 0.846004
0.0129374 0.0539207 0.845225
0.0144545 0.0540274 0.844483
0.0159678 0.0541372 0.843813
0.0174741 0.054262 0.84347
0.0189796 0.054384 0.843067
0.020485 0.0544995 0.842532
0.0219863 0.0546261 0.842233
0.023487 0.0547476 0.841832
0.0249863 0.0548688 0.841427
0.0264832 0.0549989 0.841213
0.0279789 0.0551343 0.841108
0.0294741 0.05527 0.841011
0.0309689 0.0554121 0.841051
0.0324641 0.0555631 0.841275
0.0339592 0.0557082 0.841373
0.0354552 0.0558583 0.841576
0.0369505 0.0560022 0.84165
0.0384487 0.0561607 0.842022
0.0399464 0.0563122 0.842252
0.0414509 0.0564882 0.842975
0.0429607 0.0566742 0.843898
0.0444775 0.0568732 0.845077
0.0459948 0.0570635 0.846075
0.0475202 0.0572669 0.847329
0.0490447 0.0574594 0.848359
0.0505705 0.0576481 0.849305
0.0521049 0.057848 0.850471
0.0536381 0.0580396 0.851463
0.055168 0.0582193 0.852217
0.0567074 0.0584119 0.853219
0.0582499 0.0586048 0.854223
0.0597813 0.058776 0.854791
0.0613226 0.0589593 0.855599
0.062863 0.0591382 0.856312
0.0643965 0.059305 0.856788
0.0659273 0.0594666 0.857163
0.067465 0.0596357 0.85768
0.0689854 0.0597822 0.85776
0.0705131 0.0599372 0.858002
0.0720421 0.0600929 0.858257
0.073589 0.0602677 0.858875
0.0751313 0.0604359 0.859362
0.0766969 0.0606267 0.860275
0.0782657 0.060818 0.861195
0.079833 0.0610057 0.862038
0.0813975 0.0611881 0.862782
0.0829739 0.0613801 0.863695
0.0845426 0.0615628 0.864437
0.0861163 0.0617473 0.865204
0.0876907 0.0619313 0.865959
0.0892545 0.0621051 0.866522
0.0908195 0.062278 0.867062
0.0923788 0.062446 0.867515
0.0939294 0.0626053 0.867802
0.0954778 0.0627635 0.868071
0.0970393 0.0629307 0.8685
0.0986103 0.063104 0.86904
0.100214 0.0632999 0.869985
0.101839 0.0635092 0.871166
0.103468 0.063719 0.872352
0.105105 0.063932 0.873589
0.106736 0.0641388 0.874707
0.108357 0.0643369 0.875664
0.109949 0.0645147 0.876256
0.111539 0.0646902 0.876804
0.113128 0.0648644 0.877323
0.114748 0.0650562 0.878154
0.116377 0.0652533 0.879074
0.118003 0.0654469 0.879926
0.119626 0.0656372 0.880719
-0.00455698 0.0548463 0.866203
-0.00294687 0.0549035 0.86432
-0.00132798 0.0549392 0.861985
0.000285759 0.05497 0.859563
0.00189046 0.0550008 0.85716
0.00348468 0.0550346 0.854832
0.00506538 0.0550768 0.852701
0.00663746 0.0551203 0.850615
0.00818949 0.0551887 0.849063
0.00973158 0.055266 0.84771
0.0112609 0.0553612 0.846742
0.0127827 0.0554662 0.845984
0.0142997 0.0555765 0.845341
0.0158148 0.0556851 0.844668
0.0173228 0.0558095 0.844327
0.0188323 0.0559223 0.843751
0.0203391 0.056037 0.843215
0.0218428 0.0561583 0.84282
0.0233455 0.0562748 0.842329
0.0248459 0.056395 0.84192
0.0263439 0.056525 0.84171
0.0278409 0.0566567 0.841534
0.0293371 0.0567916 0.841426
0.0308328 0.0569333 0.841457
0.0323287 0.0570801 0.841589
0.0338247 0.0572252 0.841685
0.0353213 0.0573753 0.841883
0.0368173 0.0575194 0.841957
0.0383171 0.0576826 0.842413
0.0398169 0.05784 0.842749
0.0413237 0.058022 0.84357
0.0428346 0.0582101 0.8445
0.0443538 0.0584152 0.845761
0.0458724 0.0586071 0.846758
0.0473991 0.058813 0.84802
0.0489211 0.0589981 0.848872
0.0504454 0.0591825 0.849706
0.0519735 0.0593696 0.850587
0.0535021 0.0595528 0.851388
0.055027 0.0597248 0.851971
0.0565638 0.0599146 0.85289
0.0581057 0.0601086 0.853884
0.0596396 0.0602851 0.854541
0.061184 0.0604749 0.855445
0.0627281 0.0606605 0.856266
0.0642687 0.0608378 0.856926
0.0658071 0.0610097 0.857482
0.0673534 0.0611897 0.858187
0.0688792 0.0613419 0.858369
0.0704133 0.0615034 0.858725
0.0719517 0.0616692 0.859158
0.0735057 0.0618509 0.859883
0.0750542 0.0620247 0.860459
0.0766218 0.0622173 0.861375
0.078192 0.0624096 0.862282
0.0797557 0.062593 0.86302
0.0813123 0.0627675 0.863595
0.0828847 0.0629556 0.864412
0.0844553 0.0631399 0.865156
0.0860299 0.0633257 0.865923
0.0876056 0.0635114 0.866687
0.0891775 0.0636916 0.867348
0.0907377 0.0638605 0.867801
0.092293 0.0640239 0.868154
0.0938359 0.0641774 0.868332
0.0953792 0.0643307 0.868504
0.0969417 0.0644984 0.868931
0.0985143 0.064673 0.869477
0.100112 0.0648654 0.870333
0.101736 0.0650755 0.871495
0.103364 0.065286 0.87266
0.105002 0.0655011 0.873897
0.106642 0.0657161 0.875128
0.108281 0.0659275 0.876289
0.109886 0.0661133 0.876999
0.111494 0.0663012 0.877745
0.113093 0.0664815 0.878354
0.114714 0.0666748 0.879186
0.116344 0.0668727 0.880092
0.11797 0.067066 0.880913
0.119942 0.0674698 0.885314
-0.00147014 0.0564735 0.861893
0.000132688 0.0565169 0.859817
0.00172484 0.056565 0.857854
0.00331726 0.0566007 0.855646
0.00489906 0.0566409 0.853548
0.00647286 0.0566818 0.851479
0.0080288 0.0567434 0.849842
0.0095727 0.0568185 0.848491
0.0111055 0.056908 0.847439
0.0126285 0.0570125 0.846697
0.014147 0.0571218 0.846056
0.0156623 0.0572339 0.845476
0.0171721 0.0573575 0.845128
0.0186832 0.0574697 0.844557
0.020192 0.0575826 0.844007
0.0216973 0.0577027 0.843599
0.0232018 0.0578172 0.843086
0.0247039 0.0579369 0.842675
0.0262038 0.0580624 0.842385
0.0277025 0.0581891 0.842119
0.0291999 0.0583194 0.841925
0.0306967 0.0584615 0.84196
0.0321934 0.0586043 0.842011
0.0336903 0.0587493 0.842103
0.0351882 0.0589027 0.842358
0.036686 0.0590508 0.84251
0.0381879 0.0592208 0.843078
0.0396903 0.0593851 0.843536
0.0411999 0.0595739 0.844459
0.0427126 0.0597639 0.845395
0.0442333 0.059971 0.846652
0.0457518 0.0601601 0.847564
0.0472783 0.0603636 0.848739
0.0487996 0.0605447 0.849488
0.0503224 0.0607241 0.850204
0.0518445 0.0608974 0.850801
0.0533685 0.0610714 0.851408
0.0548907 0.0612383 0.851881
0.0564221 0.0614199 0.852622
0.0579584 0.0616064 0.853448
0.0594944 0.0617882 0.854185
0.0610413 0.0619843 0.855179
0.0625891 0.0621772 0.856109
0.0641368 0.0623658 0.856958
0.0656859 0.0625532 0.857779
0.0672404 0.0627445 0.858668
0.0687754 0.0629075 0.859041
0.0703195 0.0630804 0.85959
0.0718682 0.0632572 0.860207
0.0734288 0.0634461 0.861035
0.0749887 0.0636314 0.861797
0.0765603 0.0638272 0.862743
0.0781334 0.0640219 0.863661
0.0796993 0.0642064 0.864396
0.0812529 0.0643764 0.864871
0.0828169 0.0645554 0.865503
0.0843886 0.0647404 0.866236
0.0859588 0.0649221 0.866909
0.0875324 0.0651047 0.867594
0.0891048 0.0652854 0.868242
0.090661 0.0654493 0.868595
0.0922038 0.0656022 0.868756
0.0937412 0.0657497 0.868825
0.0952776 0.0658972 0.868894
0.0968352 0.0660608 0.869238
0.0984083 0.0662366 0.869791
0.100007 0.0664306 0.87065
0.101631 0.0666417 0.871796
0.103258 0.0668532 0.872944
0.104897 0.0670705 0.874185
0.106547 0.0672937 0.87552
0.108196 0.0675141 0.876798
0.109819 0.0677134 0.877718
0.11144 0.0679096 0.87858
0.113058 0.0681027 0.879388
0.11468 0.0682975 0.88022
0.116303 0.0684905 0.881016
0.117919 0.0686787 0.88173
0.120276 0.0693304 0.890107
-0.00158491 0.0579684 0.861007
-1.89595e-06 0.0580368 0.859506
0.00157534 0.0581058 0.858025
0.0031583 0.0581552 0.856167
0.00472849 0.0582156 0.854539
0.00630211 0.0582579 0.852562
0.0078626 0.0583124 0.850839
0.00940876 0.0583849 0.849479
0.0109438 0.0584724 0.848424
0.0124689 0.0585756 0.847681
0.0139865 0.0586923 0.847202
0.0155026 0.058808 0.84671
0.0170147 0.0589316 0.846372
0.0185271 0.0590473 0.845885
0.0200395 0.0591546 0.84524
0.021549 0.0592644 0.844649
0.0230557 0.0593777 0.844126
0.02456 0.0594961 0.843705
0.0260625 0.0596126 0.84325
0.027563 0.0597385 0.842976
0.0290623 0.0598671 0.842756
0.0305606 0.0600047 0.842704
0.0320585 0.0601395 0.842603
0.0335566 0.0602844 0.842692
0.0350557 0.0604377 0.842937
0.0365553 0.0605908 0.843176
0.0380587 0.0607632 0.843772
0.0395646 0.0609386 0.844421
0.0410771 0.0611352 0.845455
0.0425915 0.0613266 0.846389
0.0441137 0.061535 0.847628
0.0456339 0.0617254 0.848534
0.0471589 0.0619215 0.849539
0.0486796 0.0620986 0.850193
0.0502016 0.0622741 0.850812
0.051718 0.0624328 0.851128
0.0532377 0.0625968 0.851537
0.0547547 0.0627532 0.851808
0.0562806 0.0629254 0.852362
0.0578135 0.0631072 0.853083
0.0593514 0.0632945 0.853899
0.0608988 0.0634935 0.854917
0.06245 0.0636935 0.855947
0.0640045 0.0638939 0.856981
0.0655579 0.0640884 0.857904
0.0671134 0.0642823 0.858813
0.0686575 0.0644572 0.859385
0.0702101 0.0646412 0.860111
0.0717649 0.0648253 0.860837
0.0733312 0.0650209 0.861759
0.0749025 0.0652192 0.862724
0.0764772 0.0654183 0.863697
0.0780575 0.0656208 0.864722
0.0796258 0.0658069 0.865463
0.0811848 0.0659815 0.866001
0.0827452 0.0661559 0.866534
0.0843186 0.0663415 0.867255
0.0858852 0.0665191 0.867838
0.0874587 0.0667017 0.868502
0.0890269 0.0668778 0.869053
0.090577 0.0670364 0.869307
0.0921143 0.0671831 0.869359
0.0936394 0.0673191 0.869234
0.0951636 0.0674551 0.869108
0.096714 0.0676134 0.869356
0.0982822 0.0677852 0.869826
0.099875 0.0679756 0.870605
0.101498 0.0681885 0.871751
0.10314 0.0684125 0.873074
0.104779 0.0686327 0.874329
0.106446 0.0688701 0.875859
0.108112 0.0691041 0.877328
0.109752 0.0693164 0.878435
0.111376 0.0695151 0.879314
0.113006 0.0697165 0.880234
0.114631 0.0699136 0.88108
0.116255 0.0701083 0.881881
0.117874 0.0702974 0.882591
-0.00172029 0.0594918 0.860722
-0.000156333 0.0595873 0.859797
0.00140884 0.0596752 0.858731
0.00298468 0.0597374 0.857175
0.00454631 0.0598153 0.855934
0.00612088 0.0598581 0.854028
0.00768238 0.0599141 0.852389
0.00922994 0.0599884 0.851103
0.0107686 0.0600731 0.850024
0.0122987 0.0601699 0.849179
0.0138209 0.0602813 0.848616
0.0153395 0.0603967 0.848129
0.0168554 0.0605156 0.847711
0.0183694 0.0606352 0.847312
0.0198845 0.0607414 0.846665
0.0213976 0.060846 0.845992
0.0229076 0.0609533 0.845372
0.0244147 0.0610665 0.844867
0.0259205 0.0611726 0.844234
0.0274231 0.0612923 0.843854
0.0289241 0.0614238 0.843691
0.0304243 0.0615611 0.843637
0.0319241 0.0616962 0.843543
0.0334237 0.0618375 0.84356
0.0349249 0.0619956 0.843883
0.0364264 0.0621492 0.844123
0.0379318 0.0623239 0.844742
0.0394404 0.0625062 0.845491
0.0409559 0.0627085 0.846598
0.0424721 0.0629009 0.84752
0.043995 0.0631068 0.848677
0.0455156 0.0632941 0.849498
0.0470388 0.0634818 0.850322
0.0485592 0.0636549 0.850887
0.0500785 0.0638211 0.851326
0.0515918 0.0639707 0.851472
0.0531076 0.0641248 0.851697
0.0546242 0.0642798 0.851936
0.0561475 0.0644469 0.852387
0.0576775 0.0646243 0.853011
0.0592183 0.0648177 0.853909
0.0607687 0.0650229 0.855008
0.062321 0.065226 0.856064
0.0638797 0.0654343 0.857204
0.0654373 0.0656359 0.858224
0.0669939 0.0658318 0.85914
0.0685426 0.0660131 0.859806
0.0700968 0.0661992 0.860548
0.0716575 0.066391 0.861383
0.0732333 0.0665987 0.862484
0.0748151 0.0668098 0.863634
0.0763966 0.0670166 0.86471
0.0779894 0.0672328 0.865935
0.0795647 0.0674257 0.866765
0.0811265 0.0676017 0.867311
0.0826841 0.0677718 0.867755
0.084254 0.0679529 0.868378
0.0858159 0.068125 0.868853
0.0873858 0.0683033 0.869428
0.0889439 0.0684695 0.869801
0.09049 0.0686226 0.869956
0.0920213 0.0687631 0.869908
0.0935392 0.0688919 0.869668
0.0950576 0.0690214 0.869439
0.0966077 0.0691792 0.869673
0.0981754 0.069351 0.870133
0.0997698 0.0695431 0.870915
0.101388 0.0697531 0.871984
0.103038 0.0699863 0.873421
0.104687 0.0702152 0.874782
0.106364 0.0704619 0.876422
0.10804 0.0707043 0.877984
0.109703 0.0709353 0.879359
0.111337 0.0711416 0.880334
0.112969 0.0713456 0.881271
0.114597 0.0715441 0.882114
0.116225 0.0717414 0.882935
0.118101 0.0721047 0.886359
0.00121996 0.0612856 0.860141
0.00279573 0.0613504 0.858685
0.00435586 0.061435 0.857603
0.00593669 0.0614691 0.855593
0.00750093 0.0615232 0.853966
0.00905183 0.061595 0.852672
0.0105936 0.0616779 0.85159
0.012129 0.0617675 0.850638
0.0136542 0.061877 0.850052
0.0151769 0.0619875 0.849491
0.0166952 0.0621064 0.849086
0.0182119 0.0622255 0.848683
0.0197298 0.0623302 0.848028
0.0212462 0.0624292 0.84727
0.0227589 0.0625352 0.846647
0.0242685 0.0626472 0.846131
0.0257771 0.062747 0.845404
0.0272827 0.0628561 0.844845
0.0287859 0.062977 0.844501
0.0302876 0.0631088 0.844347
0.0317885 0.0632345 0.844092
0.0332889 0.0633706 0.844017
0.0347916 0.0635338 0.844422
0.0362948 0.063693 0.844752
0.0378015 0.0638693 0.84538
0.0393123 0.0640576 0.846212
0.0408298 0.0642657 0.847385
0.0423476 0.0644599 0.84831
0.0438703 0.0646624 0.849375
0.0453908 0.0648461 0.850109
0.0469135 0.0650296 0.850841
0.0484328 0.0651977 0.851301
0.0499508 0.065359 0.851646
0.0514631 0.0655041 0.851711
0.0529771 0.0656532 0.851847
0.0544943 0.0658087 0.852089
0.0560153 0.065971 0.852445
0.0575456 0.0661493 0.85307
0.0590895 0.0663495 0.854058
0.0606437 0.0665627 0.855259
0.0621968 0.066768 0.856325
0.063759 0.0669829 0.857541
0.0653205 0.0671909 0.858641
0.0668779 0.0673884 0.859559
0.0684311 0.067576 0.860308
0.0699866 0.0677637 0.861058
0.0715562 0.0679675 0.862068
0.0731343 0.0681784 0.863189
0.0747265 0.0684027 0.864525
0.0763142 0.0686171 0.865691
0.0779138 0.0688412 0.867012
0.079487 0.0690311 0.86777
0.0810565 0.0692145 0.868418
0.0826111 0.06938 0.868777
0.0841779 0.0695573 0.869324
0.0857413 0.0697297 0.869787
0.087312 0.0699081 0.870347
0.0888667 0.0700692 0.870627
0.0904137 0.0702226 0.870783
0.0919413 0.0703577 0.870648
0.0934539 0.0704803 0.870317
0.0949666 0.070603 0.869985
0.0965037 0.0707485 0.87002
0.0980644 0.0709148 0.870379
0.0996588 0.0711079 0.87116
0.101284 0.0713252 0.872317
0.102951 0.0715735 0.873953
0.104618 0.0718177 0.875515
0.106307 0.0720754 0.877283
0.107998 0.0723323 0.87903
0.109673 0.0725724 0.880508
0.111309 0.0727803 0.88148
0.112959 0.0729975 0.882594
0.114599 0.0732044 0.883544
0.116441 0.0735529 0.886661
0.118614 0.0741245 0.893178
0.0010158 0.0629269 0.862019
0.0025962 0.0629879 0.860533
0.00416024 0.0630701 0.859437
0.00574502 0.0631001 0.857412
0.00731478 0.0631476 0.855712
0.00887034 0.0632143 0.854362
0.0104173 0.0632906 0.853192
0.0119582 0.0633716 0.852114
0.0134898 0.0634697 0.851344
0.0150168 0.0635732 0.850674
0.0165385 0.0636873 0.850191
0.0180563 0.0638102 0.849868
0.0195776 0.0639092 0.849129
0.0210964 0.064006 0.848358
0.0226113 0.064111 0.847731
0.0241231 0.0642214 0.847202
0.0256343 0.0643153 0.846391
0.0271421 0.0644177 0.845733
0.0286473 0.064528 0.845213
0.0301506 0.064653 0.844952
0.0316528 0.0647782 0.844692
0.0331545 0.0649139 0.844616
0.0346588 0.0650829 0.845104
0.0361645 0.0652517 0.845588
0.0376721 0.0654247 0.846142
0.0391834 0.0656097 0.846895
0.0407022 0.0658197 0.848067
0.0422211 0.0660149 0.848982
0.0437428 0.0662101 0.849892
0.0452643 0.0663948 0.850626
0.0467874 0.0665781 0.851331
0.0483056 0.0667408 0.851689
0.0498242 0.0669019 0.852021
0.0513396 0.0670524 0.852177
0.0528549 0.0672026 0.852325
0.0543758 0.0673643 0.852663
0.0559006 0.067533 0.853113
0.0574306 0.067709 0.853684
0.0589759 0.0679115 0.854682
0.0605312 0.0681265 0.855881
0.0620824 0.0683282 0.856857
0.0636454 0.0685449 0.858071
0.0652075 0.0687542 0.859162
0.0667622 0.0689477 0.859988
0.068316 0.0691358 0.860729
0.0698719 0.0693245 0.861472
0.0714424 0.0695298 0.862481
0.0730258 0.0697488 0.863701
0.0746241 0.069982 0.865142
0.0762185 0.0702052 0.866418
0.0778281 0.0704422 0.867907
0.0794078 0.070639 0.868752
0.0809847 0.0708299 0.869503
0.0825427 0.0709974 0.869881
0.084111 0.071175 0.870416
0.0856703 0.071342 0.870783
0.0872366 0.0715154 0.871249
0.0887883 0.0716719 0.871449
0.0903369 0.071826 0.871612
0.0918661 0.0719604 0.871468
0.0933808 0.0720825 0.871136
0.0948944 0.0722046 0.870805
0.0964268 0.0723448 0.870756
0.0979826 0.0725052 0.871015
0.099576 0.072698 0.871772
0.101203 0.0729178 0.872936
0.10288 0.0731757 0.874675
0.104564 0.0734357 0.876439
0.106263 0.073704 0.878322
0.107966 0.0739717 0.880187
0.109652 0.0742204 0.881756
0.111291 0.0744317 0.882755
0.112945 0.0746519 0.883882
0.114803 0.07502 0.887224
0.116888 0.0755449 0.892893
0.119337 0.0763179 0.902237
0.000826344 0.0645476 0.863414
0.00240581 0.0646132 0.862051
0.00396869 0.0647022 0.861103
0.00555489 0.0647333 0.859152
0.00712606 0.0647828 0.857533
0.00868671 0.0648436 0.85612
0.0102391 0.0649126 0.854855
0.0117857 0.0649851 0.853657
0.0133226 0.0650746 0.852758
0.0148552 0.065167 0.851914
0.0163806 0.0652753 0.851346
0.0179009 0.0653967 0.851008
0.0194256 0.0654887 0.850168
0.0209475 0.0655787 0.849302
0.0224651 0.0656771 0.848582
0.0239793 0.0657826 0.847984
0.0254918 0.06588 0.847255
0.0270014 0.0659811 0.846594
0.0285083 0.0660941 0.846133
0.0300135 0.0662182 0.845862
0.0315174 0.0663419 0.845585
0.033021 0.0664782 0.845518
0.034527 0.0666479 0.846004
0.0360338 0.0668137 0.846424
0.037543 0.0669875 0.846975
0.0390559 0.0671734 0.847722
0.0405742 0.0673757 0.848733
0.0420943 0.0675725 0.849649
0.0436161 0.0677643 0.85048
0.045137 0.0679442 0.851114
0.0466611 0.0681284 0.851815
0.0481801 0.0682911 0.852165
0.0496999 0.0684532 0.852504
0.0512205 0.0686151 0.852837
0.0527418 0.0687771 0.853172
0.0542673 0.0689462 0.85362
0.0557995 0.0691276 0.85426
0.0573343 0.0693107 0.854925
0.058882 0.0695152 0.855927
0.0604368 0.0697273 0.857047
0.0619862 0.069924 0.857916
0.0635442 0.0701311 0.858945
0.0651043 0.0703363 0.859941
0.0666536 0.0705203 0.860599
0.0682085 0.0707099 0.861341
0.0697652 0.0708989 0.86207
0.0713444 0.0711168 0.863249
0.0729303 0.0713392 0.86449
0.0745354 0.0715821 0.866043
0.0761318 0.071808 0.867327
0.0777434 0.0720482 0.868824
0.0793202 0.0722409 0.869586
0.0808981 0.0724325 0.870325
0.0824625 0.0726063 0.870791
0.0840333 0.0727858 0.87134
0.0855939 0.072953 0.8717
0.0871622 0.0731271 0.872163
0.0887147 0.073283 0.872349
0.0902651 0.0734377 0.872515
0.0917966 0.0735728 0.872386
0.0933138 0.073695 0.872063
0.0948298 0.0738163 0.871726
0.096357 0.0739503 0.871584
0.0979066 0.0741046 0.871747
0.0994949 0.0742924 0.872407
0.101116 0.074508 0.873482
0.1028 0.0747746 0.875306
0.104503 0.0750526 0.877294
0.106212 0.0753314 0.879284
0.107934 0.0756155 0.881343
0.109637 0.0758796 0.883099
0.111289 0.0761002 0.884208
0.113144 0.0764749 0.887571
0.115241 0.0770252 0.893483
0.117593 0.0777517 0.901941
0.000594914 0.0662496 0.866105
0.00218283 0.0663068 0.864631
0.0037574 0.0663801 0.86344
0.00535157 0.0664007 0.861364
0.00693191 0.066436 0.859547
0.00850275 0.0664786 0.857865
0.0100611 0.0665391 0.856489
0.0116113 0.0666083 0.855268
0.0131565 0.0666795 0.854086
0.0146949 0.0667593 0.853056
0.0162243 0.0668603 0.852381
0.0177488 0.0669712 0.851874
0.0192767 0.0670551 0.850925
0.0208004 0.067143 0.850048
0.0223197 0.06724 0.849324
0.0238359 0.0673397 0.848649
0.0253499 0.0674361 0.847922
0.0268608 0.0675414 0.847346
0.0283691 0.0676592 0.846976
0.0298759 0.067789 0.846803
0.031382 0.067923 0.846699
0.032888 0.0680651 0.846727
0.0343954 0.0682264 0.847063
0.0359032 0.0683821 0.84731
0.0374132 0.0685501 0.847751
0.0389257 0.0687266 0.848327
0.040444 0.0689245 0.849242
0.0419663 0.0691281 0.850243
0.043489 0.0693211 0.851068
0.0450112 0.0695019 0.8517
0.0465395 0.0696983 0.852574
0.0480622 0.0698681 0.853026
0.0495863 0.0700388 0.85349
0.0511131 0.0702131 0.854009
0.0526417 0.0703882 0.854539
0.0541723 0.0705648 0.855087
0.0557101 0.0707542 0.855834
0.0572478 0.0709387 0.856501
0.0587953 0.0711388 0.857408
0.0603457 0.0713397 0.858321
0.0618906 0.0715256 0.859001
0.0634435 0.0717219 0.859837
0.0650018 0.0719232 0.860746
0.0665527 0.0721082 0.861401
0.0681053 0.0722933 0.862056
0.069667 0.0724891 0.86287
0.0712483 0.07271 0.864062
0.0728403 0.072941 0.8654
0.0744481 0.0731882 0.866979
0.0760507 0.0734223 0.868354
0.0776547 0.0736528 0.869667
0.0792367 0.0738517 0.8705
0.0808121 0.0740393 0.871161
0.0823835 0.0742202 0.87172
0.0839567 0.0744011 0.872275
0.0855244 0.0745752 0.872729
0.0870888 0.0747434 0.873092
0.0886417 0.0748992 0.873269
0.0901887 0.0750479 0.873344
0.0917221 0.075183 0.873217
0.0932477 0.0753111 0.872987
0.0947716 0.0754387 0.872752
0.0963015 0.0755728 0.872614
0.0978589 0.075733 0.872858
0.0994478 0.075921 0.873506
0.101071 0.0761381 0.874571
0.102765 0.0764153 0.876506
