ply
format ascii 1.0
element vertex 1534
property float x
property float y
property float z
end_header
0.0616758 0.0060503 -0.02259
0.0619376 0.00598758 -0.0225596
0.0621966 0.00592326 -0.0225417
0.0624578 0.00585997 -0.0225151
0.0627296 0.00580144 -0.0224491
0.0629996 0.00574197 -0.0223904
0.0437256 0.00980746 -0.0288835
0.0439427 0.00972015 -0.0290427
0.0441643 0.00963837 -0.0291668
0.0443913 0.00956268 -0.029252
0.044617 0.00948606 -0.0293437
0.0448375 0.00940431 -0.0294693
0.0450671 0.00933234 -0.0295315
0.045294 0.00925776 -0.0296111
0.0455209 0.00918351 -0.0296887
0.0457482 0.00910991 -0.0297626
0.0459798 0.00904066 -0.029808
0.0462156 0.00897551 -0.0298262
0.0464559 0.00891465 -0.0298159
0.0466992 0.00885643 -0.0297878
0.0469343 0.00879047 -0.0298113
0.0471614 0.00871739 -0.0298827
0.0473729 0.0086306 -0.0300468
0.047576 0.00853703 -0.0302576
0.0477722 0.00843811 -0.0305057
0.047971 0.0083424 -0.0307336
0.0481787 0.0082549 -0.0309066
0.0483952 0.00817534 -0.0310262
0.0486169 0.00810053 -0.0311138
0.0488462 0.00803204 -0.0311584
0.0490851 0.00797146 -0.0311486
0.0493197 0.00790736 -0.031163
0.0495587 0.00784667 -0.0311535
0.0498024 0.00778955 -0.0311192
0.0500471 0.00773297 -0.0310808
0.0502951 0.00767875 -0.0310255
0.0505511 0.00763023 -0.0309296
0.0508099 0.00758347 -0.0308206
0.0510772 0.00754245 -0.0306701
0.0513596 0.00751177 -0.0304455
0.0516642 0.0074961 -0.0301122
0.0520207 0.00751597 -0.0295229
0.0523998 0.0075496 -0.0288314
0.0527677 0.0075732 -0.0282073
0.0531187 0.00758333 -0.0276765
0.0534389 0.00757095 -0.0273048
0.0537083 0.00752351 -0.027185
0.0539554 0.00746097 -0.0271743
0.0541997 0.00739651 -0.0271774
0.0544437 0.00733181 -0.0271821
0.0546907 0.00726902 -0.0271728
0.0549355 0.00720472 -0.0271744
0.0551867 0.0071444 -0.0271464
0.0554412 0.00708596 -0.0271042
0.0556903 0.00702405 -0.0270874
0.0559353 0.00695956 -0.0270898
0.0561763 0.00689263 -0.0271101
0.0564105 0.00682171 -0.0271606
0.0566419 0.00674928 -0.0272228
0.0568729 0.00667669 -0.0272864
0.0570909 0.00659694 -0.0274049
0.0573006 0.00651262 -0.0275586
0.0575049 0.00642567 -0.0277333
0.0577503 0.00636202 -0.0277306
0.0580499 0.00632775 -0.0275011
0.0585134 0.00638177 -0.0265882
0.0590473 0.00647086 -0.0253969
0.0596003 0.00656685 -0.0241436
0.060097 0.00663001 -0.023138
0.060533 0.00665881 -0.022394
0.0608072 0.00660254 -0.0223136
0.0610482 0.00652899 -0.0223686
0.0612842 0.00645318 -0.0224421
0.0615288 0.00638174 -0.0224811
0.0617859 0.00631646 -0.022471
0.0620486 0.00625396 -0.0224387
0.0623076 0.00618944 -0.0224223
0.0625605 0.00612195 -0.0224293
0.0628129 0.00605424 -0.0224383
0.0630593 0.00598368 -0.0224703
0.0426564 0.0102739 -0.0279098
0.0424777 0.0105728 -0.027952
0.0426999 0.0104872 -0.0280942
0.0428752 0.0101848 -0.0280757
0.0429175 0.0103967 -0.0282675
0.0430911 0.010093 -0.0282599
0.0431346 0.0103064 -0.0284407
0.0432982 0.00999193 -0.0285045
0.0433467 0.0102111 -0.0286466
0.0435027 0.00988887 -0.0287629
0.0435581 0.0101158 -0.0288536
0.0437822 0.0100356 -0.0289651
0.0440015 0.00995064 -0.029108
0.0442234 0.00986903 -0.0292299
0.0444494 0.00979228 -0.0293211
0.0446752 0.00971555 -0.0294128
0.0448936 0.00963152 -0.0295519
0.0451228 0.00955905 -0.0296168
0.0453474 0.00948226 -0.0297103
0.0455722 0.00940588 -0.0298012
0.0457975 0.00933033 -0.0298874
0.0460268 0.00925885 -0.0299471
0.0462558 0.00918737 -0.030007
0.0464887 0.0091197 -0.0300423
0.0467266 0.00905681 -0.0300461
0.0469542 0.00898435 -0.030113
0.0471783 0.00890891 -0.0302001
0.0473894 0.0088221 -0.0303634
0.0475969 0.0087326 -0.0305455
0.0477981 0.00863829 -0.0307611
0.0480064 0.00855079 -0.0309317
0.0482213 0.00846956 -0.0310611
0.0484454 0.00839643 -0.0311364
0.0486743 0.00832748 -0.0311835
0.0489085 0.00826313 -0.0311998
0.0491504 0.00820488 -0.0311743
0.0493904 0.00814507 -0.0311591
0.0496352 0.00808881 -0.0311194
0.0498847 0.00803618 -0.0310545
0.0501376 0.00798575 -0.0309737
0.0503966 0.00793977 -0.0308616
0.0506615 0.00789769 -0.0307216
0.0509346 0.00786128 -0.0305411
0.0512145 0.00782914 -0.0303295
0.05151 0.00780767 -0.0300416
0.0518285 0.00780175 -0.0296426
0.0521799 0.00781791 -0.0290852
0.0525349 0.0078346 -0.0285202
0.0528762 0.00783999 -0.0280321
0.0531961 0.00782905 -0.0276569
0.0534875 0.00779747 -0.0274269
0.0537489 0.00774496 -0.0273454
0.0539963 0.00768272 -0.0273329
0.0542408 0.00761859 -0.0273342
0.0544905 0.00755774 -0.0273114
0.0547375 0.00749512 -0.0273014
0.0549849 0.00743261 -0.0272905
0.0552358 0.00737217 -0.027264
0.0554898 0.00731359 -0.0272238
0.055732 0.0072475 -0.0272382
0.0559761 0.00718264 -0.0272437
0.0562108 0.00711202 -0.0272917
0.0564419 0.00703939 -0.0273549
0.0566697 0.00696494 -0.0274318
0.0569032 0.006894 -0.0274831
0.0571238 0.00681564 -0.02759
0.05734 0.00673512 -0.027714
0.057583 0.00666989 -0.027723
0.0578801 0.00663503 -0.0275022
0.0582446 0.00663665 -0.0270021
0.0587678 0.00672372 -0.0258469
0.0593037 0.00681455 -0.0246552
0.0598073 0.00688484 -0.0236131
0.0602489 0.0069192 -0.0228401
0.0606247 0.00691715 -0.0223437
0.0608532 0.00683698 -0.0224494
0.0611103 0.00677191 -0.0224383
0.06136 0.0067028 -0.0224584
0.0616216 0.00663992 -0.0224301
0.0618883 0.00657941 -0.0223827
0.0621562 0.00651926 -0.0223317
0.0624158 0.00645483 -0.0223142
0.062665 0.00638538 -0.0223367
0.0629096 0.00631361 -0.0223771
0.0631507 0.00624036 -0.02243
0.0637563 0.00612221 -0.0207992
0.0634161 0.00617856 -0.0223911
0.0422429 0.0106433 -0.0279045
0.0422923 0.0108632 -0.0280467
0.0425239 0.0107889 -0.0281174
0.0427464 0.0107038 -0.0282554
0.0429639 0.0106133 -0.0284278
0.0431828 0.0105252 -0.028586
0.0433982 0.0104336 -0.0287666
0.0436136 0.0103428 -0.0289433
0.0438387 0.0102637 -0.029047
0.04406 0.0101808 -0.0291756
0.0442824 0.0100995 -0.029294
0.0445076 0.0100219 -0.0293903
0.0447333 0.00994503 -0.0294819
0.0449517 0.00986081 -0.029621
0.045181 0.00978843 -0.0296849
0.0454077 0.00971354 -0.0297651
0.0456327 0.00963727 -0.0298546
0.045858 0.0095616 -0.0299407
0.0460829 0.00948582 -0.0300278
0.046307 0.00940953 -0.0301187
0.0465307 0.0093332 -0.0302102
0.0467589 0.00926142 -0.0302724
0.0469791 0.00918236 -0.0303827
0.0472025 0.00910656 -0.0304718
0.0474136 0.00901991 -0.0306331
0.0476279 0.00893672 -0.0307724
0.0478359 0.00884838 -0.0309463
0.0480534 0.00876895 -0.0310621
0.0482757 0.00869407 -0.0311481
0.0485071 0.00862715 -0.0311812
0.0487391 0.00856071 -0.0312111
0.0489807 0.00850233 -0.0311869
0.0492255 0.00844647 -0.0311456
0.0494711 0.00839098 -0.0311013
0.0497235 0.00834072 -0.0310212
0.0499814 0.0082945 -0.0309131
0.0502431 0.00825072 -0.0307874
0.0505143 0.00821383 -0.0306139
0.050791 0.00818043 -0.0304151
0.0510738 0.0081509 -0.0301882
0.0513632 0.00812546 -0.0299318
0.0516688 0.00811103 -0.0295972
0.0519935 0.00810929 -0.0291725
0.0523206 0.00810778 -0.0287433
0.0526454 0.00810322 -0.0283326
0.0529578 0.00808854 -0.0279904
0.0532472 0.00805673 -0.0277665
0.0535119 0.0080072 -0.0276662
0.0537733 0.0079551 -0.0275835
0.0540265 0.0078971 -0.0275419
0.0542717 0.00783368 -0.0275388
0.0545246 0.0077752 -0.0275
0.0547714 0.00771263 -0.0274902
0.0550191 0.00765052 -0.0274771
0.0552698 0.00759022 -0.0274506
0.0555266 0.00753362 -0.027397
0.0557654 0.00746562 -0.0274259
0.0560121 0.00740253 -0.0274189
0.0562489 0.00733329 -0.0274568
0.0564802 0.00726088 -0.0275181
0.0567078 0.00718638 -0.0275952
0.0569507 0.00712105 -0.0276048
0.0571785 0.00704689 -0.0276798
0.057428 0.00698542 -0.0276609
0.0577158 0.00694564 -0.0274799
0.0580627 0.00693871 -0.0270519
0.0584774 0.00696847 -0.0263458
0.0589851 0.00704762 -0.0252626
0.0594699 0.00711121 -0.0242896
0.0599167 0.00715149 -0.0234868
0.0603049 0.00715821 -0.0229339
0.060632 0.00713099 -0.0226362
0.0608863 0.00706462 -0.0226358
0.0611591 0.00700776 -0.0225624
0.0614217 0.00694543 -0.0225303
0.0616999 0.00689101 -0.022437
0.0619794 0.00683688 -0.0223404
0.0622522 0.00677923 -0.0222709
0.0625196 0.00671853 -0.0222241
0.0627731 0.00665098 -0.0222311
0.0630216 0.00658089 -0.0222575
0.0632664 0.00650909 -0.0222978
0.0635431 0.00645246 -0.0222177
0.0427902 0.010917 -0.0284359
0.0430077 0.0108265 -0.0286066
0.043229 0.0107413 -0.0287459
0.0434517 0.0106583 -0.0288715
0.0436731 0.0105744 -0.0290039
0.0439006 0.0104978 -0.0290911
0.0441259 0.0104193 -0.0291909
0.0443504 0.0103401 -0.0292956
0.0445757 0.0102623 -0.0293918
0.0448015 0.0101852 -0.0294836
0.04502 0.0101009 -0.0296218
0.0452497 0.0100287 -0.0296838
0.0454768 0.00995404 -0.0297618
0.0457002 0.0098759 -0.0298622
0.0459231 0.00979766 -0.0299639
0.0461435 0.00971721 -0.03008
0.0463627 0.00963607 -0.0302012
0.0465795 0.00955299 -0.0303354
0.0468006 0.00947451 -0.0304406
0.0470136 0.00938875 -0.0305935
0.0472343 0.00931066 -0.0306974
0.0474453 0.00922406 -0.0308571
0.0476623 0.00914347 -0.0309784
0.0478751 0.00905953 -0.0311223
0.0481016 0.00898812 -0.0311845
0.0483311 0.00891944 -0.0312289
0.0485679 0.00885713 -0.0312315
0.0488073 0.00879691 -0.0312199
0.0490586 0.00874661 -0.0311423
0.049309 0.00869518 -0.0310717
0.0495621 0.00864563 -0.030988
0.0498248 0.00860352 -0.0308538
0.0500912 0.00856374 -0.0307029
0.0503573 0.00852319 -0.0305564
0.0506347 0.00849082 -0.0303534
0.050918 0.00846223 -0.0301235
0.0512051 0.00843565 -0.0298783
0.0514988 0.0084131 -0.0296041
0.0518125 0.00840449 -0.0292326
0.0521209 0.00839061 -0.0288949
0.0524246 0.00837224 -0.0285861
0.0527216 0.00834789 -0.0283166
0.0530071 0.00831453 -0.0281079
0.0532712 0.00826534 -0.0280078
0.05353 0.00821215 -0.027935
0.0537911 0.00816028 -0.0278524
0.0540475 0.00810489 -0.0277939
0.0542952 0.00804344 -0.0277777
0.0545512 0.0079874 -0.0277229
0.0548043 0.00792915 -0.0276834
0.0550553 0.00786943 -0.0276539
0.0553061 0.00780945 -0.027626
0.0555663 0.00775522 -0.0275566
0.0558021 0.00768551 -0.0275979
0.0560519 0.0076245 -0.0275767
0.0562919 0.00755739 -0.0275992
0.0565297 0.00748889 -0.0276318
0.0567641 0.00741844 -0.0276788
0.0570173 0.00735926 -0.0276437
0.0572748 0.00730251 -0.0275906
0.0575621 0.00726277 -0.0274119
0.0578943 0.0072485 -0.0270446
0.0582888 0.00726862 -0.0264207
0.0587469 0.00732282 -0.02554
0.0591983 0.00737093 -0.0246988
0.0596259 0.00740341 -0.0239684
0.0600146 0.00741255 -0.0234077
0.0603475 0.0073898 -0.0230826
0.0606281 0.00733811 -0.0229733
0.0609054 0.00728438 -0.0228788
0.0611972 0.00723787 -0.0227283
0.0614758 0.00718413 -0.0226321
0.0617702 0.00713815 -0.0224757
0.0620651 0.00709212 -0.0223188
0.0623497 0.00704032 -0.0222048
0.0626258 0.00698396 -0.0221251
0.0628884 0.00692064 -0.0220986
0.0631417 0.00685264 -0.0221081
0.0633992 0.00678669 -0.0221017
0.0636896 0.00673653 -0.0219717
0.0428304 0.0111254 -0.0286431
0.0430535 0.0110419 -0.0287703
0.0432803 0.0109633 -0.0288674
0.0435105 0.0108892 -0.0289379
0.0437376 0.0108117 -0.0290298
0.0439636 0.0107333 -0.0291274
0.0441911 0.010657 -0.0292125
0.0444173 0.0105796 -0.0293046
0.0446428 0.0105017 -0.0294006
0.0448687 0.0104246 -0.0294914
0.0450912 0.0103443 -0.0296036
0.0453232 0.0102742 -0.0296516
0.0455509 0.0101999 -0.0297264
0.0457741 0.0101213 -0.0298288
0.0459969 0.0100425 -0.0299326
0.0462126 0.00995711 -0.0300786
0.0464254 0.00986933 -0.0302407
0.0466372 0.00978127 -0.0304054
0.0468513 0.00969595 -0.0305533
0.047059 0.00960519 -0.0307369
0.0472792 0.00952672 -0.0308425
0.0474906 0.00944044 -0.0309988
0.0477082 0.00936033 -0.031116
0.0479256 0.00928046 -0.0312324
0.0481571 0.00921348 -0.0312653
0.0483895 0.00914735 -0.0312929
0.0486385 0.00909557 -0.0312268
0.0488903 0.00904596 -0.0311459
0.0491545 0.00900633 -0.0309986
0.0494131 0.00896143 -0.0308853
0.0496744 0.00891831 -0.0307594
0.0499385 0.00887693 -0.0306212
0.0502057 0.00883751 -0.030469
0.0504703 0.00879546 -0.0303333
0.0507454 0.00876107 -0.0301455
0.0510265 0.00873059 -0.0299302
0.0513164 0.00870607 -0.0296734
0.051611 0.00868415 -0.0293975
0.0519148 0.00866806 -0.0290802
0.0522112 0.00864545 -0.0288053
0.052502 0.00861774 -0.0285633
0.0527758 0.00857688 -0.0284098
0.0530412 0.00852947 -0.0283
0.0532961 0.00847416 -0.0282439
0.0535488 0.00841711 -0.0281992
0.0538067 0.00836348 -0.0281305
0.0540654 0.00831007 -0.0280598
0.0543159 0.00825086 -0.028029
0.054575 0.00819724 -0.0279587
0.0548336 0.00814301 -0.0278921
0.055085 0.0080838 -0.0278601
0.0553391 0.0080262 -0.0278163
0.0556051 0.00797606 -0.0277196
0.0558448 0.00790888 -0.0277429
0.0560983 0.00785035 -0.0277047
0.056345 0.00778749 -0.027697
0.0565896 0.00772322 -0.0276993
0.0568378 0.00766108 -0.0276861
0.0571115 0.00761421 -0.0275629
0.0573952 0.00757285 -0.0273987
0.0577198 0.00755503 -0.027063
0.0580907 0.00756325 -0.0265356
0.0585122 0.00759896 -0.0258038
0.0589337 0.00763254 -0.0250827
0.0593355 0.00765295 -0.0244536
0.0597082 0.0076555 -0.0239522
0.0600451 0.00763652 -0.0236062
0.0603369 0.00759209 -0.0234469
0.0606298 0.00754765 -0.0232863
0.0609227 0.00750277 -0.0231278
0.0612236 0.00746163 -0.0229401
0.0615144 0.0074146 -0.0227951
0.0618165 0.00737305 -0.022608
0.0621196 0.00733147 -0.0224197
0.0624161 0.00728593 -0.0222598
0.0627046 0.007236 -0.0221324
0.0629804 0.00717927 -0.0220559
0.0632514 0.00711993 -0.0219988
0.063531 0.00706453 -0.0219105
0.0638342 0.00702049 -0.0217346
0.0428732 0.0113368 -0.0288296
0.043106 0.0112653 -0.0288832
0.0433416 0.0111973 -0.0289157
0.0435796 0.0111324 -0.0289301
0.0438128 0.0110617 -0.0289794
0.0440371 0.010981 -0.0290896
0.0442663 0.0109063 -0.029164
0.0444925 0.0108285 -0.0292576
0.0447183 0.0107506 -0.0293524
0.0449448 0.0106738 -0.0294407
0.0451734 0.0105996 -0.0295131
0.0454057 0.0105295 -0.0295604
0.0456334 0.0104548 -0.0296369
0.0458566 0.0103756 -0.029741
0.0460793 0.0102963 -0.0298467
0.0462929 0.0102083 -0.0300077
0.0465014 0.0101159 -0.0301967
0.0467086 0.0100229 -0.0303908
0.0469157 0.00993057 -0.0305817
0.0471185 0.00983475 -0.0307955
0.0473341 0.00975186 -0.0309281
0.0475453 0.00966526 -0.0310852
0.0477651 0.00958712 -0.0311888
0.0479873 0.0095115 -0.0312767
0.0482235 0.00944864 -0.0312829
0.0484658 0.00939107 -0.031255
0.0487277 0.00935049 -0.0311171
0.0489908 0.00931035 -0.0309753
0.0492666 0.00928029 -0.0307669
0.0495316 0.00924047 -0.0306211
0.0497942 0.009198 -0.0304915
0.0500588 0.00915665 -0.0303539
0.050322 0.00911355 -0.0302268
0.0505812 0.00906681 -0.030123
0.0508504 0.00902746 -0.0299693
0.0511252 0.00899198 -0.0297892
0.0514073 0.00896136 -0.0295754
0.0516942 0.00893367 -0.0293409
0.0519901 0.00891191 -0.0290649
0.0522784 0.00888344 -0.0288324
0.0525605 0.00884959 -0.0286347
0.052823 0.00880073 -0.028537
0.0530822 0.00874909 -0.0284577
0.0533308 0.00868955 -0.0284313
0.0535797 0.00863005 -0.0284044
0.0538347 0.00857474 -0.0283487
0.0540928 0.00852126 -0.0282799
0.0543462 0.00846435 -0.0282343
0.054605 0.00841082 -0.0281647
0.054867 0.00835925 -0.0280813
0.0551211 0.00830204 -0.0280362
0.055381 0.00824849 -0.0279654
0.0556533 0.00820267 -0.02784
0.0559054 0.00814349 -0.0278072
0.0561662 0.00808973 -0.0277363
0.0564354 0.00804087 -0.0276301
0.0566943 0.0079853 -0.0275706
0.0569574 0.00793204 -0.0274941
0.0572464 0.00789426 -0.0273071
0.0575523 0.00786602 -0.0270506
0.0578902 0.00785595 -0.026662
0.0582806 0.00787571 -0.0260568
0.058667 0.00789126 -0.0254776
0.0590488 0.00790244 -0.0249263
0.0594068 0.00789846 -0.0244814
0.0597353 0.00787656 -0.0241639
0.0600325 0.00783628 -0.0239787
0.0603344 0.00779795 -0.0237776
0.0606347 0.00775826 -0.0235853
0.0609427 0.00772208 -0.0233656
0.0612517 0.00768571 -0.0231454
0.0615506 0.0076435 -0.0229675
0.0618534 0.0076028 -0.022777
0.0621638 0.00756534 -0.0225606
0.0624687 0.00752457 -0.0223677
0.0627672 0.00747997 -0.0222021
0.0630605 0.00743222 -0.0220592
0.0633564 0.00738532 -0.0219083
0.0636588 0.00734118 -0.0217356
0.0639727 0.00730232 -0.0215215
0.0429089 0.011539 -0.0290684
0.0431513 0.0114797 -0.0290494
0.0433969 0.0114241 -0.0290075
0.0436435 0.0113694 -0.0289606
0.0438828 0.0113059 -0.028966
0.0441092 0.0112272 -0.0290631
0.0443416 0.0111559 -0.0291157
0.0445695 0.0110796 -0.0291994
0.0447979 0.0110042 -0.0292775
0.0450272 0.0109301 -0.0293484
0.0452644 0.0108647 -0.0293658
0.0454991 0.0107968 -0.0293993
0.0457273 0.0107219 -0.0294753
0.0459506 0.0106423 -0.0295805
0.0461713 0.0105604 -0.0297012
0.0463811 0.010468 -0.0298872
0.0465834 0.0103687 -0.030117
0.0467837 0.0102684 -0.0303544
0.0469814 0.0101665 -0.0306029
0.0471792 0.0100656 -0.030846
0.0473901 0.00997801 -0.0310072
0.0476014 0.00989134 -0.0311631
0.0478232 0.00981499 -0.0312545
0.0480498 0.00974327 -0.0313171
0.0482974 0.00969067 -0.031258
0.0485547 0.00964632 -0.0311459
0.0488328 0.00961979 -0.0309191
0.049108 0.00958982 -0.030713
0.0493956 0.00956954 -0.0304434
0.0496616 0.00953003 -0.030296
0.0499224 0.00948552 -0.0301803
0.0501822 0.00943969 -0.0300724
0.05044 0.00939173 -0.0299774
0.0506909 0.00933782 -0.0299207
0.0509517 0.00929156 -0.0298136
0.0512155 0.00924719 -0.0296932
0.0514888 0.00920985 -0.0295259
0.0517676 0.00917596 -0.0293346
0.0520559 0.0091487 -0.0290983
0.052339 0.00911664 -0.0288924
0.0526162 0.00907933 -0.0287201
0.0528735 0.00902682 -0.0286481
0.0531297 0.00897318 -0.0285833
0.0533776 0.00891331 -0.0285599
0.0536205 0.00884968 -0.0285616
0.053872 0.00879215 -0.0285218
0.0541299 0.0087388 -0.0284536
0.0543835 0.00868226 -0.0284063
0.0546452 0.00863106 -0.0283223
0.0549163 0.00858582 -0.028197
0.055179 0.00853457 -0.0281119
0.0554517 0.00848956 -0.0279832
0.0557367 0.00845217 -0.0278012
0.0560027 0.00840189 -0.0277072
0.0562743 0.00835477 -0.0275904
0.0565609 0.00831679 -0.0274093
0.0568313 0.0082681 -0.0273017
0.0571065 0.00822194 -0.0271755
0.0574044 0.00818938 -0.026953
0.0577186 0.00816582 -0.0266653
0.0580591 0.00815727 -0.0262694
0.0584209 0.00816018 -0.0257899
0.0587778 0.00815869 -0.0253381
0.059126 0.00815095 -0.0249285
0.0594511 0.00812859 -0.0246207
0.059747 0.00808863 -0.0244373
0.0600401 0.00804655 -0.024268
0.0603453 0.00801069 -0.0240524
0.0606519 0.00797498 -0.0238344
0.0609672 0.00794348 -0.0235842
0.0612803 0.00790988 -0.0233474
0.0615859 0.00787166 -0.0231428
0.0618847 0.00782918 -0.0229682
0.0621948 0.00779223 -0.0227516
0.0625042 0.0077542 -0.0225414
0.0628153 0.00771637 -0.0223279
0.0631263 0.00767798 -0.0221173
0.0634517 0.00764627 -0.0218553
0.063784 0.00761725 -0.0215712
0.0641092 0.00758398 -0.0213171
0.0646409 0.00743504 -0.0199933
0.0644304 0.00754804 -0.0210812
0.0429475 0.0117445 -0.0292847
0.0431959 0.0116931 -0.0292194
0.0434505 0.0116488 -0.0291115
0.0437058 0.0116046 -0.0290024
0.043952 0.0115492 -0.0289596
0.0441844 0.0114774 -0.0290147
0.0444245 0.0114146 -0.029016
0.0446565 0.0113424 -0.0290733
0.04489 0.0112722 -0.0291192
0.0451243 0.011203 -0.029159
0.0453666 0.0111426 -0.0291457
0.0456021 0.0110748 -0.0291773
0.0458288 0.0109977 -0.0292658
0.0460523 0.0109176 -0.0293726
0.0462713 0.0108332 -0.029506
0.0464793 0.0107381 -0.0297063
0.046675 0.0106315 -0.0299782
0.0468705 0.0105258 -0.0302464
0.0470583 0.0104135 -0.0305563
0.0472489 0.0103051 -0.0308436
0.0474529 0.0102106 -0.0310457
0.047664 0.0101236 -0.0312023
0.0478861 0.0100473 -0.0312922
0.0481286 0.00999006 -0.0312634
0.048392 0.00995167 -0.0311156
0.0486681 0.0099239 -0.0308996
0.0489609 0.00991005 -0.0305943
0.0492497 0.00989149 -0.0303171
0.049531 0.0098653 -0.0300867
0.049792 0.00982089 -0.0299713
0.0500448 0.00976907 -0.0299027
0.0502941 0.00971399 -0.0298544
0.0505416 0.00965729 -0.0298164
0.0507873 0.0095988 -0.0297893
0.0510405 0.00954626 -0.0297237
0.0512915 0.00949162 -0.029671
0.0515589 0.0094496 -0.0295359
0.0518287 0.00940898 -0.0293908
0.0521084 0.00937531 -0.0291991
0.0523863 0.00933963 -0.0290196
0.0526633 0.00930263 -0.0288475
0.0529182 0.00924848 -0.0287877
0.0531743 0.00919503 -0.0287226
0.0534248 0.00913719 -0.0286863
0.0536704 0.00907565 -0.0286744
0.0539302 0.00902413 -0.0285954
0.0541942 0.00897523 -0.0284982
0.0544567 0.00892492 -0.0284098
0.0547223 0.00887642 -0.0283085
0.0549996 0.00883545 -0.0281556
0.0552637 0.00878511 -0.0280653
0.0555469 0.00874712 -0.0278902
0.0558406 0.00871544 -0.0276709
0.0561241 0.00867637 -0.0275009
0.0564103 0.00863848 -0.0273215
0.0567119 0.00860984 -0.0270772
0.0569904 0.0085658 -0.0269377
0.0572744 0.00852468 -0.026777
0.0575727 0.00849191 -0.0265573
0.0578853 0.00846723 -0.0262795
0.058205 0.00844594 -0.0259764
0.0585371 0.00843122 -0.0256252
0.0588641 0.00841229 -0.0253012
0.0591897 0.00839154 -0.0249878
0.0594926 0.00835674 -0.024772
0.0597856 0.00831554 -0.0246002
0.0600785 0.00827366 -0.0244318
0.0603865 0.00823994 -0.0242043
0.0606895 0.0082026 -0.0240008
0.0610051 0.00817175 -0.0237496
0.0613141 0.00813647 -0.0235284
0.0616197 0.0080987 -0.0233237
0.0619131 0.00805372 -0.0231699
0.0622186 0.00801474 -0.0229714
0.0625271 0.00797678 -0.0227638
0.0628465 0.00794394 -0.0225175
0.0631781 0.00791657 -0.0222287
0.0635261 0.00789685 -0.0218819
0.0638811 0.0078797 -0.0215135
0.0642193 0.0078532 -0.0212121
0.064545 0.00781961 -0.0209613
0.0651067 0.00768425 -0.0195394
0.064847 0.00777366 -0.0208013
0.0427296 0.0119898 -0.0296285
0.0429852 0.0119485 -0.0295064
0.0432369 0.0119017 -0.0294157
0.0434939 0.0118608 -0.0292895
0.043757 0.0118266 -0.0291229
0.0440122 0.011782 -0.0290168
0.0442535 0.0117205 -0.0290104
0.0445005 0.0116656 -0.0289649
0.0447409 0.0116028 -0.0289658
0.0449794 0.0115377 -0.0289803
0.045219 0.0114739 -0.0289875
0.045468 0.0114204 -0.0289324
0.0457084 0.0113571 -0.0289355
0.0459378 0.0112822 -0.0290094
0.046162 0.0112019 -0.0291155
0.0463787 0.0111143 -0.0292665
0.0465822 0.0110138 -0.0294968
0.046771 0.0108992 -0.0298141
0.0469614 0.0107876 -0.0301149
0.0471398 0.0106653 -0.0304824
0.0473272 0.0105532 -0.0307895
0.0475284 0.0104556 -0.0310089
0.0477398 0.0103684 -0.0311648
0.0479759 0.010305 -0.0311739
0.0482411 0.0102684 -0.0310163
0.04852 0.0102437 -0.0307841
0.0488115 0.0102294 -0.0304852
0.0491181 0.0102273 -0.0301087
0.0494029 0.0102045 -0.0298598
0.0496713 0.0101665 -0.029705
0.0499238 0.010114 -0.0296407
0.0501654 0.010052 -0.0296362
0.0504001 0.00998417 -0.029669
0.0506374 0.0099185 -0.0296879
0.0508779 0.00985547 -0.0296897
0.0511242 0.0097971 -0.0296619
0.0513655 0.00973455 -0.0296605
0.0516273 0.00968825 -0.0295543
0.0518906 0.00964259 -0.0294434
0.0521617 0.00960254 -0.0292954
0.0524333 0.00956228 -0.0291476
0.0527096 0.00952506 -0.0289793
0.0529667 0.00947289 -0.0289076
0.053226 0.00942194 -0.0288273
0.0534803 0.00936702 -0.0287725
0.053735 0.00931216 -0.0287169
0.0540044 0.00926755 -0.0285931
0.0542782 0.00922563 -0.0284508
0.0545475 0.00918009 -0.0283315
0.0548203 0.00913645 -0.0281987
0.0551015 0.00909812 -0.0280296
0.05537 0.00905063 -0.0279208
0.0556637 0.0090196 -0.0277005
0.0559664 0.00899381 -0.0274433
0.056265 0.00896447 -0.0272087
0.0565628 0.00893383 -0.0269812
0.0568785 0.00891402 -0.0266787
0.0571619 0.00887262 -0.0265217
0.0574489 0.00883295 -0.0263517
0.0577474 0.00879993 -0.0261349
0.0580367 0.00876048 -0.025961
0.0583313 0.00872369 -0.0257674
0.0586378 0.00869346 -0.025527
0.0589427 0.00866162 -0.0252965
0.0592484 0.00862936 -0.025067
0.0595503 0.00859429 -0.0248559
0.0598426 0.00855293 -0.0246873
0.0601317 0.00850928 -0.0245341
0.060436 0.00847372 -0.0243223
0.0607394 0.00843701 -0.0241172
0.0610593 0.00840898 -0.0238493
0.0613615 0.00837022 -0.0236556
0.0616654 0.00833197 -0.0234575
0.0619538 0.00828456 -0.0233233
0.062247 0.00823952 -0.0231715
0.0625468 0.00819727 -0.0229979
0.0628726 0.0081684 -0.0227265
0.0632132 0.00814645 -0.0224029
0.0635797 0.00813699 -0.0219861
0.0639534 0.00812996 -0.0215485
0.0643051 0.00811056 -0.0211984
0.0646383 0.0080811 -0.0209206
0.0649387 0.00803444 -0.0207677
0.0424752 0.012032 -0.0297453
0.0425403 0.0122705 -0.029762
0.0427843 0.012215 -0.0297237
0.0430352 0.0121679 -0.0296364
0.0432838 0.0121174 -0.029568
0.0435391 0.0120748 -0.029453
0.0438044 0.0120437 -0.0292706
0.0440659 0.0120071 -0.0291197
0.0443162 0.0119563 -0.0290505
0.0445725 0.0119122 -0.0289423
0.0448224 0.0118601 -0.0288801
0.0450657 0.0118002 -0.0288634
0.0453117 0.0117431 -0.0288303
0.0455653 0.0116941 -0.0287483
0.0458066 0.0116314 -0.0287479
0.0460366 0.0115565 -0.0288204
0.0462609 0.0114756 -0.0289288
0.0464732 0.0113827 -0.0291097
0.046672 0.0112765 -0.0293713
0.0468579 0.0111583 -0.0297068
0.0470437 0.0110413 -0.0300367
0.0472174 0.0109136 -0.0304333
0.047404 0.0108001 -0.0307452
0.047605 0.0107018 -0.0309663
0.0478299 0.0106271 -0.0310439
0.0480843 0.0105806 -0.0309493
0.048372 0.0105647 -0.030666
0.0486666 0.0105539 -0.0303495
0.0489727 0.0105523 -0.0299741
0.0492699 0.0105411 -0.0296559
0.049544 0.0105082 -0.0294715
0.049794 0.0104532 -0.0294229
0.0500331 0.0103887 -0.0294341
0.0502594 0.010313 -0.0295147
0.0504858 0.0102378 -0.0295929
0.0507177 0.0101673 -0.0296418
0.0509582 0.0101041 -0.0296445
0.0512048 0.0100459 -0.029616
0.0514465 0.00998345 -0.0296136
0.0517031 0.00993281 -0.0295361
0.0519602 0.00988234 -0.029457
0.0522225 0.00983556 -0.0293538
0.0524853 0.00978869 -0.0292504
0.0527586 0.00974948 -0.0290969
0.0530179 0.00969912 -0.0290146
0.0532859 0.0096549 -0.028892
0.0535528 0.00960937 -0.0287768
0.0538211 0.00956444 -0.0286572
0.0541014 0.0095277 -0.0284831
0.0543853 0.00949296 -0.028295
0.0546567 0.00944865 -0.0281685
0.0549332 0.00940745 -0.0280206
0.0552153 0.00936957 -0.0278499
0.0554924 0.00932774 -0.0277042
0.0557968 0.00930378 -0.0274387
0.0561102 0.00928506 -0.0271366
0.0564235 0.00926527 -0.0268398
0.0567358 0.00924375 -0.0265527
0.0570565 0.00922685 -0.0262326
0.0573408 0.00918547 -0.0260759
0.0576213 0.00914107 -0.0259385
0.0579068 0.00909951 -0.025781
0.0581827 0.00905119 -0.0256681
0.0584577 0.00900206 -0.0255603
0.0587435 0.00895917 -0.0254089
0.059037 0.00892048 -0.0252277
0.0593281 0.00887965 -0.0250599
0.0596193 0.00883839 -0.024894
0.0599076 0.00879504 -0.0247416
0.0601963 0.00875135 -0.0245905
0.0604974 0.00871416 -0.0243927
0.0608007 0.00867771 -0.0241885
0.061124 0.00865199 -0.0239076
0.0614231 0.00861189 -0.0237262
0.0617272 0.00857392 -0.0235283
0.0620111 0.0085243 -0.0234118
0.0622954 0.00847458 -0.0232951
0.0625864 0.00842818 -0.023154
0.062915 0.00840119 -0.0228727
0.0632601 0.00838214 -0.0225326
0.0636329 0.00837663 -0.0220928
0.0640166 0.00837553 -0.021618
0.0643727 0.00835898 -0.0212521
0.0647096 0.00833164 -0.0209621
0.0650056 0.00828304 -0.0208255
0.0423695 0.0125754 -0.0297556
0.0426038 0.0125071 -0.0297908
0.042841 0.0124427 -0.0298037
0.0430877 0.0123904 -0.0297469
0.043331 0.0123334 -0.0297173
0.0435817 0.0122854 -0.0296351
0.0438448 0.0122521 -0.0294676
0.0441097 0.0122201 -0.0292917
0.0443687 0.0121801 -0.0291612
0.044632 0.0121444 -0.0290049
0.0448908 0.0121027 -0.0288831
0.0451403 0.0120497 -0.0288264
0.0453906 0.0119972 -0.028766
0.0456449 0.0119489 -0.0286811
0.0458886 0.0118884 -0.0286672
0.0461149 0.011809 -0.0287651
0.0463346 0.011723 -0.0289026
0.0465421 0.0116246 -0.0291145
0.0467357 0.0115126 -0.0294079
0.0469216 0.0113938 -0.0297435
0.0471098 0.0112788 -0.0300583
0.0472883 0.0111554 -0.0304253
0.0474818 0.0110482 -0.0306962
0.0476897 0.0109562 -0.0308771
0.0479296 0.0108956 -0.030868
0.0482031 0.0108669 -0.0306663
0.0485088 0.0108675 -0.0302844
0.0488138 0.0108659 -0.0299137
0.0491217 0.0108654 -0.0295346
0.0494052 0.0108412 -0.0292984
0.0496653 0.0107952 -0.0291954
0.0498977 0.0107241 -0.029246
0.0501269 0.0106504 -0.0293131
0.0503454 0.0105677 -0.0294364
0.0505639 0.0104852 -0.0295583
0.0507903 0.01041 -0.0296364
0.0510304 0.0103463 -0.0296423
0.0512749 0.0102861 -0.0296258
0.0515167 0.0102238 -0.0296232
0.051773 0.0101729 -0.0295478
0.0520271 0.0101201 -0.0294847
0.0522835 0.0100687 -0.0294115
0.0525437 0.01002 -0.0293214
0.052814 0.00997866 -0.0291831
0.0530736 0.00992871 -0.0290994
0.0533508 0.00989156 -0.0289329
0.0536307 0.00985593 -0.0287556
0.0539127 0.00982112 -0.028572
0.0542034 0.00979197 -0.0283504
0.0544973 0.0097643 -0.0281181
0.054769 0.00972006 -0.0279922
0.0550488 0.00968097 -0.0278316
0.0553284 0.0096412 -0.0276745
0.0556088 0.00960146 -0.0275163
0.0559197 0.00958193 -0.0272241
0.0562404 0.00956811 -0.0268924
0.0565586 0.00955149 -0.0265771
0.0568814 0.00953687 -0.0262467
0.0571968 0.00951637 -0.0259534
0.0574781 0.00947267 -0.0258131
0.0577554 0.00942597 -0.0256918
0.0580348 0.00938014 -0.0255639
0.0583016 0.00932599 -0.0254912
0.0585726 0.00927424 -0.0254019
0.0588477 0.00922461 -0.0252973
0.0591306 0.00917937 -0.0251623
0.0594108 0.00913208 -0.0250403
0.0596917 0.00908487 -0.024917
0.0599763 0.00903924 -0.0247817
0.0602613 0.0089936 -0.024646
0.0605585 0.00895446 -0.0244641
0.0608651 0.00892026 -0.0242469
0.0611889 0.00889518 -0.0239651
0.0614848 0.00885341 -0.0237974
0.0617888 0.00881578 -0.0235998
0.0620726 0.00876634 -0.0234836
0.062346 0.00871087 -0.0234091
0.0626288 0.00866012 -0.0233005
0.0629562 0.00863307 -0.0230235
0.0633008 0.00861441 -0.0226852
0.063674 0.00860992 -0.022244
0.0640656 0.00861371 -0.0217406
0.0644261 0.00859999 -0.0213591
0.064763 0.00857316 -0.0210693
0.0650594 0.00852507 -0.020931
0.0656271 0.00839596 -0.0195053
0.0653249 0.00846093 -0.0209076
0.0422015 0.0128845 -0.0297271
0.0424364 0.0128168 -0.0297585
0.0426721 0.0127501 -0.029784
0.0429055 0.0126804 -0.0298265
0.0431503 0.0126258 -0.0297839
0.0433909 0.0125653 -0.0297744
0.0436358 0.0125101 -0.0297339
0.0438929 0.0124697 -0.0296089
0.0441555 0.0124352 -0.0294496
0.0444139 0.0123949 -0.0293228
0.0446774 0.0123599 -0.0291645
0.0449406 0.0123237 -0.0290121
0.0451945 0.012276 -0.0289254
0.0454488 0.0122283 -0.0288385
0.0457031 0.0121801 -0.028754
0.045947 0.0121198 -0.0287391
0.0461707 0.0120376 -0.0288528
0.0463875 0.0119482 -0.0290087
0.0465942 0.0118489 -0.0292243
0.0467877 0.0117365 -0.0295172
0.0469782 0.0116223 -0.0298228
0.0471737 0.0115143 -0.0300929
0.0473644 0.0114027 -0.0303861
0.0475683 0.0113053 -0.0305958
0.0477934 0.0112296 -0.0306769
0.0480495 0.0111842 -0.0305766
0.0483374 0.0111689 -0.0302956
0.0486553 0.0111806 -0.0298495
0.0489574 0.0111758 -0.0295014
0.0492522 0.0111627 -0.029201
0.049517 0.011121 -0.029073
0.0497612 0.0110602 -0.0290603
0.0499746 0.0109717 -0.0292158
0.0501965 0.0108913 -0.0293231
0.05041 0.0108039 -0.0294739
0.0506255 0.0107188 -0.0296114
0.0508491 0.0106409 -0.0297046
0.0510917 0.0105794 -0.0296973
0.0513363 0.0105195 -0.02968
0.0515786 0.0104574 -0.0296756
0.0518321 0.0104045 -0.0296143
0.0520862 0.0103516 -0.0295519
0.0523397 0.0102981 -0.0294936
0.0526001 0.0102497 -0.0294022
0.0528708 0.0102089 -0.0292624
0.0531336 0.0101616 -0.0291631
0.05342 0.0101317 -0.0289525
0.0537097 0.0101035 -0.0287298
0.0540053 0.010079 -0.0284827
0.0543087 0.0100592 -0.0282036
0.0546113 0.0100378 -0.0279329
0.0548824 0.0099929 -0.0278119
0.0551589 0.00995129 -0.0276689
0.0554324 0.0099071 -0.0275416
0.055708 0.00986383 -0.0274076
0.0560132 0.00984055 -0.0271427
0.0563351 0.00982777 -0.0268076
0.0566564 0.00981344 -0.0264806
0.0569837 0.00980202 -0.0261326
0.0573001 0.0097823 -0.0258371
0.0575872 0.00974237 -0.025673
0.0578644 0.00969546 -0.0255543
0.058141 0.00964779 -0.0254397
0.058402 0.00958976 -0.0253932
0.0586698 0.00953575 -0.0253194
0.0589344 0.00947946 -0.0252604
0.0592094 0.00942952 -0.0251586
0.0594826 0.00937809 -0.025066
0.0597601 0.00932877 -0.0249581
0.0600445 0.00928327 -0.0248237
0.0603294 0.0092378 -0.0246885
0.0606232 0.00919685 -0.0245211
0.0609298 0.00916295 -0.0243046
0.0612535 0.00913824 -0.0240239
0.0615459 0.00909476 -0.0238701
0.0618504 0.00905765 -0.0236714
0.0621343 0.0090085 -0.0235549
0.0624043 0.0089512 -0.023494
0.0626829 0.0088985 -0.0234006
0.0630059 0.00886951 -0.0231409
0.0633463 0.00884909 -0.0228192
0.0637109 0.00884066 -0.0224111
0.0640973 0.00884264 -0.0219272
0.0644564 0.00882894 -0.0215507
0.0647935 0.00880284 -0.0212601
0.0650953 0.00875777 -0.0211022
0.0653707 0.00869891 -0.021042
0.0419661 0.0129516 -0.0296992
0.0417462 0.0130407 -0.0295483
0.0420299 0.0131892 -0.0297247
0.0422696 0.0131277 -0.0297209
0.0425077 0.0130642 -0.0297289
0.0427461 0.0130008 -0.0297355
0.0429801 0.0129318 -0.0297739
0.0432256 0.0128776 -0.0297291
0.0434624 0.012812 -0.0297481
0.0436999 0.0127474 -0.0297615
0.0439488 0.0126968 -0.0296954
0.0442046 0.0126543 -0.0295834
0.0444541 0.0126036 -0.0295171
0.0447114 0.0125617 -0.0294001
0.0449742 0.0125256 -0.0292493
0.045228 0.0124783 -0.0291618
0.0454826 0.0124313 -0.0290719
0.0457388 0.0123858 -0.0289735
0.0459841 0.0123276 -0.0289472
0.0462052 0.0122427 -0.0290762
0.0464212 0.0121527 -0.0292348
0.0466293 0.0120548 -0.0294398
0.0468231 0.0119428 -0.0297287
0.047023 0.0118384 -0.0299745
0.0472329 0.0117451 -0.0301562
0.0474386 0.0116483 -0.0303592
0.0476555 0.0115635 -0.0304921
0.0479029 0.0115094 -0.0304445
0.0481729 0.0114771 -0.0302672
0.0484693 0.0114695 -0.0299418
0.0487805 0.0114746 -0.0295392
0.0490717 0.0114592 -0.0292569
0.049343 0.011424 -0.0290912
0.0495871 0.0113631 -0.0290796
0.0498143 0.0112868 -0.0291607
0.0500248 0.0111955 -0.0293318
0.0502465 0.0111149 -0.0294395
0.0504623 0.0110295 -0.029577
0.0506781 0.0109445 -0.0297124
0.0509039 0.0108686 -0.0297933
0.0511442 0.0108052 -0.0297978
0.0513889 0.0107454 -0.02978
0.0516315 0.0106837 -0.0297736
0.0518852 0.010631 -0.0297115
0.052142 0.0105806 -0.0296352
0.0523982 0.0105293 -0.0295635
0.0526617 0.0104836 -0.0294571
0.0529359 0.0104457 -0.0293009
0.0532074 0.0104051 -0.0291602
0.0535 0.0103802 -0.0289208
0.0537964 0.0103572 -0.0286677
0.0540987 0.0103378 -0.0283905
0.054403 0.0103188 -0.0281092
0.054703 0.0102957 -0.0278521
0.0549675 0.0102458 -0.0277639
0.0552432 0.0102037 -0.0276255
0.0555138 0.0101574 -0.0275127
0.0557929 0.0101167 -0.0273638
0.0560954 0.0100917 -0.0271127
0.056417 0.0100791 -0.0267804
0.0567354 0.0100631 -0.0264677
0.0570603 0.0100504 -0.0261316
0.057374 0.0100291 -0.0258493
0.0576652 0.00999205 -0.0256685
0.0579458 0.00994745 -0.0255358
0.0582232 0.00990037 -0.0254186
0.0584848 0.00984263 -0.0253707
0.0587489 0.00978635 -0.0253129
0.0590093 0.00972739 -0.0252721
0.0592771 0.00967296 -0.025201
0.0595466 0.00961928 -0.0251244
0.0598208 0.00956818 -0.0250302
0.0601052 0.00952293 -0.0248958
0.0603902 0.0094777 -0.0247608
0.0606877 0.00943929 -0.0245785
0.060995 0.00940603 -0.0243603
0.0613152 0.00937965 -0.024094
0.0616106 0.00933816 -0.0239288
0.0619183 0.00930325 -0.0237178
0.0621991 0.00925244 -0.0236139
0.0624696 0.00919552 -0.0235513
0.0627519 0.00914488 -0.0234449
0.0630668 0.0091118 -0.0232165
0.0633946 0.0090851 -0.0229425
0.0637462 0.00907036 -0.0225836
0.0641197 0.00906617 -0.0221484
0.0644695 0.00904843 -0.0218058
0.0648062 0.00902272 -0.0215163
0.0651167 0.00898277 -0.0213255
0.0654058 0.00893116 -0.0212153
0.0423422 0.0133776 -0.0296799
0.042583 0.0133172 -0.0296699
0.0428233 0.0132561 -0.0296637
0.0430579 0.0131875 -0.0296995
0.0432982 0.0131263 -0.0296939
0.0435313 0.0130556 -0.0297408
0.0437648 0.0129858 -0.0297836
0.0440038 0.0129228 -0.0297879
0.0442507 0.0128695 -0.0297376
0.0444926 0.0128098 -0.0297229
0.0447426 0.0127597 -0.0296541
0.044999 0.0127167 -0.0295448
0.0452507 0.0126676 -0.029469
0.0455028 0.0126185 -0.0293929
0.0457584 0.012573 -0.0292958
0.0460015 0.012513 -0.0292814
0.0462202 0.0124258 -0.0294225
0.046438 0.0123383 -0.029566
0.0466522 0.0122474 -0.0297298
0.046853 0.0121429 -0.0299729
0.0470647 0.012051 -0.0301446
0.047289 0.0119726 -0.0302381
0.0475179 0.0118994 -0.0303022
0.0477548 0.0118344 -0.0303182
0.0480211 0.0117987 -0.030163
0.0483037 0.0117783 -0.0299165
0.0485965 0.0117667 -0.0296172
0.0488867 0.0117513 -0.0293383
0.0491589 0.0117178 -0.0291659
0.0494096 0.0116631 -0.0291171
0.0496347 0.0115845 -0.0292107
0.0498563 0.011503 -0.0293218
0.0500655 0.0114107 -0.0294982
0.0502845 0.0113278 -0.0296194
0.0504983 0.0112407 -0.0297661
0.0507168 0.0111581 -0.0298858
0.050943 0.0110826 -0.0299637
0.0511806 0.0110171 -0.0299814
0.051425 0.0109573 -0.0299646
0.0516725 0.0108999 -0.0299323
0.0519293 0.0108501 -0.0298537
0.0521917 0.0108045 -0.0297492
0.0524537 0.0107581 -0.0296483
0.0527203 0.010715 -0.0295271
0.0529949 0.0106777 -0.0293692
0.0532695 0.0106397 -0.0292141
0.0535652 0.0106175 -0.0289607
0.0538675 0.0105993 -0.0286803
0.054176 0.0105849 -0.0283751
0.0544837 0.0105687 -0.0280793
0.0547811 0.0105438 -0.0278361
0.0550422 0.0104915 -0.0277638
0.0553147 0.0104471 -0.0276414
0.0555826 0.010399 -0.0275415
0.0558621 0.0103587 -0.0273917
0.0561616 0.0103319 -0.0271547
0.0564823 0.010319 -0.0268275
0.0567997 0.0103027 -0.0265202
0.057125 0.0102908 -0.0261831
0.0574368 0.0102687 -0.0259097
0.0577319 0.0102344 -0.0257128
0.0580162 0.0101924 -0.0255649
0.0582946 0.010146 -0.0254446
0.0585562 0.0100884 -0.0253965
0.0588205 0.0100321 -0.0253392
0.0590799 0.00997277 -0.0253019
0.0593441 0.00991608 -0.0252466
0.05961 0.00986026 -0.0251849
0.0598808 0.00980727 -0.0251043
0.0601654 0.00976236 -0.0249696
0.0604508 0.00971738 -0.0248341
0.0607524 0.00968186 -0.0246353
0.0610604 0.00964923 -0.0244153
0.061381 0.00962345 -0.0241483
0.0616793 0.00958399 -0.0239715
0.0619904 0.00955117 -0.0237488
0.0622719 0.00950096 -0.0236424
0.0625467 0.00944641 -0.0235642
0.0628327 0.009398 -0.023444
0.0631396 0.0093608 -0.0232465
0.0634589 0.00932971 -0.0230057
0.0637973 0.00930833 -0.0226966
0.0641532 0.00929539 -0.0223274
0.0644897 0.00927114 -0.0220341
0.0648212 0.00924347 -0.0217626
0.0651361 0.00920622 -0.0215557
0.0654352 0.00916024 -0.0214085
0.0426579 0.01357 -0.0296144
0.0428997 0.0135107 -0.0295984
0.0431376 0.0134461 -0.0296119
0.0433807 0.0133881 -0.0295882
0.0436161 0.01332 -0.0296206
0.0438497 0.0132496 -0.0296654
0.0440804 0.0131759 -0.029729
0.0443166 0.0131091 -0.0297543
0.0445476 0.013036 -0.0298146
0.0447851 0.0129709 -0.0298308
0.0450309 0.0129157 -0.0297911
0.0452794 0.0128635 -0.0297342
0.0455267 0.0128094 -0.0296877
0.0457797 0.0127616 -0.0296054
0.0460225 0.0127018 -0.0295905
0.0462435 0.0126176 -0.0297139
0.0464637 0.012533 -0.0298404
0.0466867 0.012452 -0.0299468
0.0469012 0.0123622 -0.030104
0.0471273 0.0122854 -0.0301874
0.0473685 0.0122245 -0.0301796
0.0476171 0.0121712 -0.030128
0.0478671 0.012119 -0.0300692
0.0481421 0.0120915 -0.0298671
0.0484189 0.012065 -0.0296585
0.0486994 0.012041 -0.0294332
0.0489708 0.0120073 -0.0292639
0.0492267 0.011958 -0.0291849
0.0494595 0.0118866 -0.0292358
0.0496792 0.0118029 -0.0293586
0.0498953 0.0117164 -0.0294985
0.0501038 0.0116235 -0.0296771
0.0503226 0.0115404 -0.0297984
0.050537 0.0114539 -0.0299405
0.0507584 0.0113739 -0.0300441
0.0509844 0.0112984 -0.0301218
0.0512186 0.01123 -0.0301566
0.051465 0.0111722 -0.0301282
0.0517124 0.011115 -0.030096
0.0519727 0.0110685 -0.0299992
0.0522385 0.0110259 -0.0298772
0.0525062 0.0109844 -0.0297482
0.052773 0.0109417 -0.0296259
0.0530503 0.0109068 -0.0294554
0.0533252 0.0108693 -0.0292989
0.053621 0.0108475 -0.0290458
0.0539236 0.0108301 -0.0287644
0.0542348 0.0108181 -0.0284474
0.0545429 0.0108026 -0.0281499
0.0548406 0.0107783 -0.0279062
0.0551048 0.0107284 -0.0278202
0.0553771 0.010684 -0.027699
0.0556454 0.0106364 -0.0275975
0.0559254 0.0105966 -0.0274458
0.0562223 0.0105683 -0.0272212
0.0565389 0.010553 -0.0269129
0.0568523 0.0105344 -0.0266241
0.0571737 0.0105203 -0.0263044
0.0574863 0.0104992 -0.0260279
0.0577853 0.0104679 -0.0258145
0.0580764 0.0104307 -0.0256375
0.0583579 0.0103866 -0.0255041
0.0586203 0.0103294 -0.0254538
0.0588845 0.0102734 -0.025396
0.0591444 0.0102142 -0.0253579
0.0594014 0.0101531 -0.0253318
0.0596636 0.0100951 -0.0252858
0.0599336 0.0100417 -0.0252087
0.0602186 0.00999728 -0.0250726
0.0605043 0.00995292 -0.0249352
0.0608136 0.00992231 -0.0247063
0.0611291 0.00989452 -0.0244571
0.0614503 0.00986946 -0.0241884
0.0617528 0.00983256 -0.0239966
0.0620679 0.00980235 -0.0237589
0.0623503 0.00975279 -0.0236495
0.0626294 0.00970068 -0.0235559
0.0629197 0.00965488 -0.0234197
0.063223 0.00961567 -0.0232376
0.0635338 0.00958017 -0.0230294
0.0638627 0.00955398 -0.0227568
0.0642009 0.00953204 -0.0224533
0.0645275 0.00950301 -0.0221965
0.0648505 0.00947114 -0.021957
0.0651691 0.00943641 -0.0217361
0.0654728 0.00939329 -0.0215715
0.0660964 0.00929965 -0.0199631
0.0657632 0.00934257 -0.0214578
0.042739 0.0138317 -0.0295132
0.0429796 0.0137704 -0.0295084
0.0432191 0.0137074 -0.0295124
0.0434637 0.0136509 -0.0294804
0.0437015 0.0135855 -0.0294975
0.0439316 0.0135101 -0.029569
0.0441585 0.0134311 -0.0296612
0.0443844 0.0133511 -0.0297587
0.0446047 0.0132647 -0.0298925
0.0448314 0.0131865 -0.0299809
0.0450702 0.0131233 -0.0299864
0.045312 0.0130634 -0.0299734
0.0455559 0.0130059 -0.0299469
0.0458062 0.0129555 -0.0298807
0.0460485 0.0128957 -0.0298667
0.0462758 0.012819 -0.0299477
0.0465029 0.0127422 -0.0300292
0.0467356 0.0126719 -0.0300745
0.0469639 0.012597 -0.0301464
0.0472047 0.0125357 -0.0301407
0.0474611 0.0124905 -0.0300432
0.0477248 0.0124524 -0.0299047
0.0479856 0.0124108 -0.0297859
0.0482663 0.0123886 -0.0295544
0.0485342 0.0123526 -0.0294016
0.0487963 0.0123101 -0.029285
0.0490469 0.0122559 -0.0292352
0.0492845 0.0121889 -0.0292596
0.0495002 0.0121011 -0.0294052
0.0497124 0.0120105 -0.0295675
0.049923 0.011919 -0.0297363
0.0501311 0.0118258 -0.0299153
0.0503497 0.0117428 -0.0300352
0.0505666 0.0116587 -0.0301624
0.0507929 0.0115833 -0.0302386
0.0510209 0.0115097 -0.0303046
0.0512545 0.011441 -0.0303413
0.0515026 0.0113849 -0.0303038
0.05175 0.011328 -0.0302706
0.0520136 0.0112844 -0.0301571
0.0522828 0.0112451 -0.0300174
0.0525562 0.0112086 -0.0298601
0.0528228 0.011166 -0.029739
0.0531024 0.0111332 -0.0295572
0.0533771 0.011096 -0.0294018
0.0536702 0.0110724 -0.0291619
0.0539729 0.0110555 -0.0288804
0.0542868 0.0110461 -0.0285513
0.0545957 0.0110317 -0.0282509
0.054894 0.0110082 -0.0280044
0.0551671 0.0109651 -0.0278777
0.0554426 0.0109233 -0.0277421
0.0557176 0.0108806 -0.0276114
0.0560015 0.0108438 -0.0274428
0.0562959 0.0108139 -0.0272305
0.0566059 0.0107942 -0.0269527
0.0569151 0.0107731 -0.0266827
0.0572268 0.0107527 -0.0264065
0.0575364 0.0107299 -0.0261436
0.0578384 0.0107012 -0.0259169
0.0581298 0.0106645 -0.0257391
0.058408 0.0106184 -0.0256199
0.0586735 0.0105635 -0.025556
0.0589381 0.0105077 -0.0254972
0.0591986 0.0104491 -0.0254562
0.0594556 0.0103881 -0.0254302
0.059717 0.0103297 -0.025387
0.0599864 0.0102762 -0.025312
0.0602711 0.0102318 -0.0251775
0.0605575 0.010188 -0.0250381
0.0608744 0.0101624 -0.0247797
0.0611977 0.0101398 -0.0244996
0.06152 0.0101158 -0.0242273
0.0618269 0.0100817 -0.0240191
0.0621465 0.0100545 -0.0237644
0.0624332 0.0100074 -0.0236399
0.0627174 0.00995833 -0.023527
0.0630165 0.00991753 -0.0233589
0.0633207 0.00987898 -0.0231745
0.0636235 0.00983908 -0.0229978
0.063939 0.00980574 -0.0227761
0.0642595 0.00977445 -0.0225391
0.0645733 0.00973876 -0.0223303
0.064887 0.00970255 -0.0221238
0.065206 0.00966836 -0.0219019
0.0655135 0.00962756 -0.0217238
0.065816 0.00958372 -0.0215655
0.0430598 0.0140306 -0.029418
0.0432992 0.0139671 -0.0294243
0.0435459 0.0139131 -0.0293791
0.0437889 0.0138541 -0.029361
0.0440237 0.0137842 -0.0294019
0.0442511 0.0137051 -0.0294932
0.0444728 0.0136191 -0.029622
0.0446881 0.0135258 -0.0297919
0.0449042 0.0134343 -0.0299526
0.0451326 0.0133583 -0.0300286
0.0453637 0.0132857 -0.0300861
0.0456008 0.0132204 -0.0301032
0.0458444 0.0131626 -0.030079
0.0460843 0.0131003 -0.0300792
0.0463178 0.0130308 -0.0301198
0.0465539 0.0129642 -0.030144
0.0467967 0.0129051 -0.0301268
0.0470415 0.012848 -0.0300979
0.0472993 0.0128045 -0.0299919
0.0475667 0.0127707 -0.0298311
0.0478368 0.0127388 -0.0296579
0.0481031 0.0127023 -0.0295107
0.0483717 0.0126673 -0.0293534
0.0486243 0.0126156 -0.0292909
0.0488707 0.0125573 -0.0292655
0.0491034 0.0124854 -0.0293178
0.0493256 0.0124035 -0.0294279
0.0495333 0.0123081 -0.029616
0.0497421 0.0122144 -0.0297951
0.0499502 0.0121207 -0.0299755
0.0501629 0.0120319 -0.0301278
0.0503865 0.0119537 -0.0302195
0.0506085 0.0118743 -0.0303184
0.0508376 0.0118014 -0.0303795
0.051068 0.0117299 -0.0304326
0.0513013 0.0116612 -0.03047
0.0515468 0.011603 -0.0304454
0.0517993 0.0115506 -0.0303857
0.0520662 0.0115101 -0.0302556
0.0523356 0.0114712 -0.0301152
0.0526116 0.0114371 -0.0299454
0.0528775 0.0113941 -0.0298282
0.0531547 0.0113597 -0.0296582
0.0534294 0.0113227 -0.0295028
0.0537199 0.0112976 -0.0292756
0.0540189 0.0112782 -0.029012
0.0543355 0.0112714 -0.0286706
0.0546448 0.0112579 -0.0283685
0.0549442 0.0112357 -0.0281171
0.0552268 0.0111999 -0.0279472
0.0555088 0.0111631 -0.0277827
0.0557905 0.0111255 -0.027622
0.0560785 0.0110919 -0.027436
0.0563733 0.0110624 -0.0272229
0.0566772 0.0110387 -0.0269736
0.0569789 0.0110125 -0.0267376
0.0572801 0.0109852 -0.0265072
0.057586 0.0109603 -0.0262609
0.057885 0.0109299 -0.0260473
0.0581763 0.0108935 -0.0258699
0.0584574 0.0108495 -0.0257388
0.0587292 0.0107991 -0.0256477
0.0589944 0.0107439 -0.0255863
0.0592589 0.0106879 -0.0255293
0.0595161 0.010627 -0.0255027
0.0597768 0.0105683 -0.0254626
0.0600421 0.0105124 -0.025404
0.0603269 0.0104683 -0.0252695
0.0606141 0.0104252 -0.0251269
0.0609349 0.0104024 -0.0248535
0.0612626 0.0103829 -0.0245566
0.0615895 0.010362 -0.0242674
0.0619011 0.010331 -0.0240414
0.0622248 0.0103066 -0.0237719
0.0625195 0.0102641 -0.023618
0.0628084 0.0102179 -0.0234878
0.0631129 0.0101803 -0.0233005
0.0634188 0.0101428 -0.0231109
0.0637175 0.0101007 -0.0229505
0.0640242 0.0100626 -0.0227627
0.0643311 0.0100241 -0.0225766
0.0646362 0.00998389 -0.0224004
0.0649417 0.00994351 -0.0222244
0.0652605 0.00990961 -0.0220034
0.0655721 0.00987132 -0.0218107
0.0658891 0.00983532 -0.0216012
0.0431247 0.0142703 -0.02944
0.0433653 0.0142083 -0.0294386
0.043615 0.0141583 -0.0293725
0.0438647 0.0141077 -0.0293087
0.0441042 0.0140437 -0.0293176
0.0443381 0.0139724 -0.0293655
0.0445636 0.0138905 -0.0294707
0.044781 0.0137992 -0.0296283
0.0449907 0.013699 -0.0298339
0.0452107 0.0136123 -0.0299675
0.0454327 0.0135285 -0.0300853
0.0456611 0.0134527 -0.03016
0.045894 0.0133825 -0.0302042
0.0461335 0.01332 -0.0302064
0.0463774 0.0132624 -0.030181
0.0466237 0.0132072 -0.0301421
0.0468789 0.0131617 -0.0300494
0.0471425 0.0131247 -0.0299084
0.0474106 0.0130919 -0.0297435
0.047682 0.0130618 -0.0295626
0.0479553 0.0130328 -0.0293747
0.0482214 0.0129955 -0.0292323
0.0484756 0.0129453 -0.0291617
0.0487151 0.0128798 -0.0291774
0.0489456 0.0128053 -0.0292435
0.0491607 0.0127158 -0.0293954
0.0493677 0.0126189 -0.0295895
0.0495693 0.0125176 -0.0298099
0.0497752 0.0124212 -0.0300036
0.0499833 0.0123276 -0.0301816
0.0502036 0.012246 -0.030292
0.0504327 0.0121728 -0.0303537
0.0506578 0.0120963 -0.0304356
0.0508922 0.0120283 -0.0304684
0.0511258 0.0119596 -0.0305045
0.0513598 0.0118915 -0.0305383
0.0516055 0.0118335 -0.0305126
0.0518632 0.0117857 -0.0304274
0.0521275 0.0117432 -0.0303104
0.0523972 0.0117047 -0.0301695
0.0526729 0.0116705 -0.0300017
0.0529359 0.0116252 -0.0298988
0.0532104 0.0115889 -0.0297422
0.0534824 0.01155 -0.0296004
0.0537672 0.0115206 -0.0294007
0.0540598 0.0114966 -0.0291675
0.0543753 0.0114897 -0.0288313
0.0546848 0.0114769 -0.0285284
0.054988 0.0114581 -0.0282596
0.0552804 0.0114301 -0.0280445
0.0555723 0.011401 -0.0278352
0.0558613 0.011369 -0.0276424
0.0561532 0.0113384 -0.0274403
0.0564481 0.0113092 -0.0272277
0.056745 0.0112807 -0.0270099
0.0570393 0.0112496 -0.0268072
0.0573329 0.0112172 -0.0266103
0.0576317 0.0111878 -0.0263945
0.0579304 0.0111576 -0.0261824
0.0582189 0.0111196 -0.026017
0.0584999 0.0110759 -0.0258861
0.0587746 0.0110276 -0.025783
0.0590399 0.0109727 -0.025721
0.059305 0.0109175 -0.0256601
0.0595693 0.0108613 -0.025605
0.0598299 0.0108027 -0.0255645
0.0600952 0.0107469 -0.0255065
0.0603834 0.0107051 -0.0253583
0.0606743 0.0106647 -0.0252011
0.060996 0.0106429 -0.0249245
0.0613313 0.0106285 -0.0245987
0.0616623 0.0106103 -0.0242944
0.0619781 0.0105821 -0.0240537
0.0623022 0.0105582 -0.0237835
0.0626045 0.0105205 -0.0236006
0.0628979 0.0104771 -0.0234542
0.0632079 0.0104427 -0.0232474
0.0635144 0.0104057 -0.0230566
0.0638092 0.0103615 -0.0229119
0.0641112 0.0103208 -0.0227428
0.0644099 0.0102778 -0.0225884
0.0647105 0.0102354 -0.0224287
0.0650123 0.010193 -0.0222675
0.0653349 0.0101617 -0.0220327
0.0656516 0.0101262 -0.0218231
0.065991 0.0101024 -0.0215347
0.0435752 0.0146453 -0.0284144
0.0437562 0.0145002 -0.0288525
0.0440042 0.0144461 -0.0288072
0.0442421 0.0143783 -0.0288348
0.0444422 0.014262 -0.029122
0.044669 0.0141811 -0.0292209
0.0448833 0.0140848 -0.0294027
0.0450852 0.0139742 -0.0296627
0.0452986 0.0138786 -0.0298424
0.0455132 0.0137853 -0.0300104
0.0457346 0.0137008 -0.0301314
0.0459608 0.0136226 -0.0302189
0.0462065 0.013567 -0.030183
