ply
format ascii 1.0
element vertex 1644
property float x
property float y
property float z
end_header
0.016879 -0.118534 0.71388
0.0162458 -0.119772 0.714105
0.0156347 -0.121087 0.714865
0.0150172 -0.122387 0.715497
0.014401 -0.123698 0.716193
0.013783 -0.125008 0.716872
0.0131638 -0.126321 0.717551
0.0125437 -0.127637 0.718238
0.0119204 -0.128947 0.718866
0.0113069 -0.130305 0.719797
0.010695 -0.131679 0.720811
0.0101014 -0.133147 0.722398
0.00950457 -0.134617 0.723966
0.00890831 -0.136107 0.725632
0.00830813 -0.137596 0.72726
0.0077093 -0.139111 0.729012
0.00709936 -0.140588 0.730503
0.0064831 -0.142049 0.731868
0.00586113 -0.143493 0.733114
0.00522847 -0.144891 0.734057
0.00459121 -0.146273 0.734897
0.00394741 -0.147625 0.735545
0.00330969 -0.149028 0.73647
0.00267469 -0.150462 0.737559
0.00203142 -0.151854 0.738387
0.00138638 -0.153244 0.739196
0.000739076 -0.154633 0.739982
8.60429e-05 -0.155987 0.740558
-0.000568037 -0.157343 0.741137
-0.0012223 -0.158709 0.74176
-0.00188179 -0.160033 0.74215
-0.00253777 -0.161404 0.742783
-0.00318672 -0.162862 0.743859
-0.00383653 -0.164334 0.744996
-0.00447848 -0.165923 0.746718
-0.00511796 -0.167582 0.748775
-0.00576646 -0.169171 0.750445
-0.00642054 -0.17073 0.751933
-0.00707653 -0.172298 0.753443
-0.00773758 -0.17384 0.754796
-0.00840405 -0.175326 0.755853
-0.00906845 -0.176883 0.757247
-0.00973696 -0.178409 0.758463
-0.0104109 -0.179867 0.759333
-0.0110864 -0.181321 0.76017
-0.011763 -0.182795 0.761089
-0.0124396 -0.184318 0.762228
-0.0131188 -0.185816 0.763232
-0.0137963 -0.187461 0.764907
-0.0144767 -0.189097 0.766517
-0.015157 -0.190899 0.768874
0.0454621 -0.0775791 0.770467
0.0474998 -0.0770572 0.771292
0.046667 -0.0781797 0.769357
0.0458737 -0.0793385 0.767908
0.0397481 -0.0821715 0.729798
0.0388133 -0.0830149 0.725792
0.0379582 -0.0839489 0.722844
0.0373081 -0.085161 0.722812
0.0366114 -0.0863051 0.722097
0.0358854 -0.087401 0.720927
0.0351636 -0.088497 0.719792
0.0344271 -0.0895638 0.718407
0.0337076 -0.0906509 0.717252
0.0330315 -0.0918047 0.716749
0.0324106 -0.0930513 0.71711
0.0318145 -0.0943442 0.717881
0.0312427 -0.0956862 0.719068
0.0306741 -0.0970412 0.720338
0.0300916 -0.0983781 0.721415
0.0294857 -0.0996757 0.722125
0.0288648 -0.100947 0.722597
0.0282143 -0.102161 0.722568
0.0275506 -0.103346 0.722307
0.0268606 -0.104473 0.721568
0.0261601 -0.105571 0.720618
0.0254612 -0.106667 0.719671
0.0247553 -0.107739 0.718565
0.0240492 -0.108805 0.717425
0.0233365 -0.109846 0.716122
0.0226385 -0.110915 0.715069
0.0219551 -0.112017 0.714277
0.0213129 -0.113225 0.714291
0.0206736 -0.114441 0.714366
0.0200345 -0.115659 0.714452
0.0194032 -0.116901 0.714707
0.0187637 -0.11812 0.714794
0.0181221 -0.119334 0.714842
0.0174852 -0.120564 0.714998
0.0168713 -0.121872 0.715686
0.0162468 -0.123149 0.716154
0.0156248 -0.12444 0.716699
0.0149975 -0.125717 0.717144
0.0143753 -0.127017 0.71773
0.0137498 -0.128311 0.71826
0.0131241 -0.129609 0.71881
0.0125058 -0.130943 0.719578
0.0118891 -0.132292 0.720421
0.0112915 -0.133732 0.721831
0.0106941 -0.135188 0.723308
0.0101009 -0.13668 0.724975
0.00950616 -0.138183 0.726683
0.00891599 -0.139727 0.728607
0.00831134 -0.141219 0.730185
0.00769979 -0.142694 0.731627
0.00707974 -0.14414 0.732873
0.00644611 -0.145524 0.733734
0.00580779 -0.146892 0.734488
0.00516234 -0.148228 0.735041
0.0045237 -0.149614 0.735868
0.00388796 -0.151031 0.736859
0.00324624 -0.152422 0.737685
0.00260462 -0.153825 0.738561
0.00196116 -0.155231 0.739441
0.00131184 -0.156602 0.740113
0.000660485 -0.157974 0.740777
9.73985e-06 -0.159358 0.741496
-0.000647855 -0.160699 0.741969
-0.00130099 -0.162088 0.742693
-0.00194639 -0.163563 0.743858
-0.00259256 -0.165057 0.745097
-0.00323214 -0.166649 0.746825
-0.00387015 -0.168293 0.748796
-0.00451663 -0.169881 0.750451
-0.00516875 -0.171443 0.751941
-0.0058227 -0.173015 0.753463
-0.00648003 -0.174577 0.754915
-0.00714378 -0.176083 0.756063
-0.00780658 -0.177645 0.757466
-0.00847242 -0.179191 0.758775
-0.00914444 -0.180668 0.759728
-0.0098185 -0.182144 0.760661
-0.0104934 -0.183638 0.761667
-0.0111681 -0.185184 0.762902
-0.011846 -0.18669 0.763935
-0.0125216 -0.188343 0.765635
-0.0131735 -0.190969 0.771811
0.0483209 -0.0759135 0.773037
0.048703 -0.0776577 0.770166
0.0478574 -0.0787656 0.768094
0.0470588 -0.0799172 0.766591
0.0448567 -0.0802256 0.763416
0.0462665 -0.0810691 0.765144
0.0452445 -0.0819376 0.760599
0.0404615 -0.0842484 0.731736
0.0394799 -0.085028 0.727137
0.0387391 -0.0861238 0.725863
0.0379885 -0.087199 0.724421
0.0372269 -0.0882505 0.722788
0.0365024 -0.0893498 0.721661
0.0357584 -0.0904127 0.720221
0.0350306 -0.0914938 0.718989
0.0343612 -0.092665 0.718623
0.0337492 -0.0939319 0.719138
0.0331551 -0.0952336 0.719951
0.0325865 -0.0965856 0.721187
0.0320109 -0.0979326 0.722346
0.031407 -0.0992335 0.723074
0.0307757 -0.100486 0.723368
0.0301392 -0.10173 0.723587
0.0294684 -0.102906 0.723232
0.0287849 -0.104054 0.722648
0.0280877 -0.105168 0.721809
0.0273846 -0.106264 0.720845
0.0266852 -0.107363 0.719921
0.025983 -0.108449 0.71892
0.0252847 -0.109537 0.717961
0.0245787 -0.110601 0.71683
0.023883 -0.111683 0.715865
0.0232136 -0.112827 0.715379
0.022579 -0.114059 0.715563
0.021943 -0.11529 0.715725
0.0213064 -0.11652 0.715882
0.0206733 -0.117762 0.716119
0.0200215 -0.118951 0.715972
0.0193716 -0.120145 0.715862
0.0187296 -0.121363 0.715921
0.0181044 -0.122636 0.716358
0.0174724 -0.12389 0.716655
0.0168431 -0.125157 0.717031
0.0162124 -0.126422 0.717386
0.0155873 -0.127712 0.717895
0.0149591 -0.128995 0.718345
0.0143308 -0.130282 0.718815
0.0137102 -0.131603 0.719495
0.0130913 -0.132939 0.720254
0.01249 -0.134356 0.721507
0.0118919 -0.1358 0.722904
0.0113011 -0.137291 0.724563
0.0107096 -0.138798 0.726282
0.0101225 -0.140343 0.728209
0.00952316 -0.14185 0.729867
0.00891639 -0.143339 0.731386
0.00829827 -0.144786 0.732631
0.00766356 -0.146158 0.733416
0.00702637 -0.147526 0.734165
0.00637931 -0.148847 0.734632
0.00573962 -0.150218 0.735374
0.00510532 -0.151634 0.736352
0.00446689 -0.153037 0.737245
0.00382497 -0.154429 0.73806
0.00318548 -0.155852 0.739026
0.00253941 -0.157239 0.739786
0.00188995 -0.158614 0.740464
0.00124063 -0.160001 0.741199
0.00058389 -0.161341 0.741667
-6.79198e-05 -0.16273 0.742386
-0.000710542 -0.164221 0.743624
-0.00135116 -0.165745 0.745022
-0.00198658 -0.167358 0.746844
-0.00262038 -0.169021 0.7489
-0.00326454 -0.17061 0.750547
-0.00391462 -0.17217 0.752023
-0.00456752 -0.17373 0.753479
-0.00522417 -0.175284 0.754873
-0.00588469 -0.17681 0.75612
-0.00654425 -0.178391 0.757607
-0.00720745 -0.179957 0.759005
-0.00787718 -0.181459 0.760066
-0.00854805 -0.182974 0.761177
-0.00921975 -0.184509 0.762372
-0.00989161 -0.186096 0.763786
-0.0105685 -0.187625 0.764911
-0.011242 -0.189279 0.766603
-0.0138299 -0.193834 0.779005
-0.011849 -0.192974 0.777684
0.0490498 -0.0793555 0.766893
0.0482398 -0.0804932 0.765264
0.0474461 -0.0816422 0.763814
0.0466198 -0.0827456 0.761908
0.044124 -0.082662 0.754631
0.0457055 -0.083732 0.758799
0.0445132 -0.0843538 0.75191
0.0410651 -0.0861821 0.732116
0.0402082 -0.0871313 0.729308
0.0393949 -0.0881283 0.727052
0.0385939 -0.0891316 0.724922
0.0378332 -0.0901844 0.723324
0.0370919 -0.0912587 0.721975
0.0363679 -0.0923533 0.720851
0.0357228 -0.0935707 0.720881
0.0351057 -0.0948352 0.721337
0.0345004 -0.0961229 0.721986
0.0339253 -0.0974679 0.723121
0.0333374 -0.0987967 0.724084
0.0327031 -0.100045 0.724334
0.0320505 -0.101261 0.724299
0.0313974 -0.102476 0.724256
0.0307106 -0.103624 0.723654
0.0300167 -0.104753 0.722918
0.0293084 -0.105847 0.721919
0.0286033 -0.106943 0.720947
0.0279066 -0.10805 0.720097
0.0272123 -0.109158 0.719268
0.0265222 -0.110271 0.718489
0.0258274 -0.111367 0.717607
0.0251386 -0.112472 0.716808
0.0244851 -0.113661 0.716651
0.0238596 -0.114922 0.717023
0.023225 -0.116162 0.717234
0.0225907 -0.117404 0.717456
0.021951 -0.118634 0.717583
0.0212814 -0.119778 0.717107
0.020618 -0.120937 0.716741
0.0199666 -0.122131 0.716621
0.019333 -0.123379 0.716876
0.0186965 -0.124621 0.717077
0.0180626 -0.125874 0.71735
0.0174283 -0.127128 0.717623
0.0168066 -0.128428 0.718194
0.0161728 -0.129691 0.718508
0.0155418 -0.130966 0.7189
0.0149182 -0.132275 0.71949
0.0142967 -0.133598 0.720162
0.0136913 -0.134992 0.721266
0.0130928 -0.136427 0.722595
0.0125043 -0.137918 0.724246
0.0119151 -0.139424 0.725954
0.0113312 -0.140972 0.727883
0.0107348 -0.142481 0.729549
0.010133 -0.143984 0.731145
0.00951679 -0.145432 0.732389
0.00888337 -0.146804 0.733174
0.0082473 -0.148173 0.733923
0.00759871 -0.149481 0.734314
0.00696009 -0.150853 0.735052
0.00632748 -0.15227 0.736035
0.00569352 -0.153691 0.737025
0.00505535 -0.155099 0.737925
0.00441989 -0.156539 0.738981
0.00377687 -0.157943 0.739821
0.00312811 -0.159319 0.740501
0.00247956 -0.160704 0.741219
0.00182293 -0.162045 0.741685
0.00117385 -0.163447 0.742472
0.00053327 -0.164942 0.743721
-0.000104015 -0.166485 0.745203
-0.000736289 -0.1681 0.747036
-0.00136912 -0.169751 0.749009
-0.002013 -0.171326 0.750576
-0.00266265 -0.172869 0.751959
-0.00331326 -0.174431 0.753416
-0.00396898 -0.175968 0.754725
-0.00462549 -0.17753 0.756135
-0.00528014 -0.179147 0.757793
-0.00593806 -0.18077 0.759454
-0.00660371 -0.182315 0.760715
-0.00726971 -0.183891 0.76211
-0.00793958 -0.185454 0.763416
-0.00860905 -0.187061 0.764913
-0.00928442 -0.188609 0.766113
-0.00995761 -0.190248 0.767713
0.0501955 -0.0798961 0.765147
0.0494036 -0.0810518 0.763761
0.0486304 -0.0822226 0.762585
0.0478028 -0.0833237 0.760687
0.0470008 -0.0844468 0.759085
0.0459506 -0.0852538 0.754197
0.0448619 -0.0859872 0.748699
0.0426757 -0.087358 0.737227
0.0417404 -0.0882164 0.733462
0.0408978 -0.0891865 0.730896
0.0400763 -0.0901738 0.728569
0.0392948 -0.0912083 0.726755
0.0385436 -0.0922794 0.725334
0.0378261 -0.0933958 0.724369
0.0371792 -0.0946205 0.724415
0.0365359 -0.0958518 0.724518
0.035907 -0.0971081 0.724837
0.0353036 -0.0984109 0.725554
0.0346733 -0.0996702 0.725876
0.0340029 -0.100859 0.725586
0.0333322 -0.102045 0.725282
0.032658 -0.103223 0.724916
0.0319548 -0.104342 0.724074
0.0312541 -0.105461 0.723254
0.0305394 -0.106547 0.72218
0.0298278 -0.107632 0.72113
0.0291292 -0.108739 0.720274
0.0284419 -0.109866 0.71959
0.0277592 -0.110999 0.71897
0.0270765 -0.112128 0.718333
0.0263954 -0.113257 0.717707
0.0257511 -0.114473 0.717738
0.0251345 -0.115761 0.718286
0.0245048 -0.117018 0.718603
0.0238731 -0.118272 0.718896
0.0232325 -0.119505 0.719021
0.0225588 -0.120645 0.718503
0.0218802 -0.121768 0.717873
0.021219 -0.122938 0.717575
0.0205699 -0.124143 0.71752
0.0199253 -0.125362 0.71756
0.0192842 -0.126593 0.717677
0.0186497 -0.127847 0.717945
0.0180257 -0.129139 0.718455
0.0173923 -0.130404 0.718775
0.0167609 -0.131679 0.719154
0.0161372 -0.132986 0.719729
0.0155101 -0.134286 0.720249
0.0149032 -0.13567 0.721278
0.0143029 -0.137092 0.722519
0.0137133 -0.13857 0.724079
0.0131235 -0.140063 0.725706
0.0125425 -0.141613 0.727635
0.0119486 -0.143124 0.729303
0.0113497 -0.144629 0.730903
0.0107354 -0.146078 0.732148
0.0101058 -0.147464 0.733008
0.00947099 -0.148835 0.733762
0.00882559 -0.150157 0.734232
0.00818834 -0.151531 0.734979
0.00755983 -0.152964 0.736047
0.00692772 -0.154391 0.737056
0.00629352 -0.155818 0.738054
0.00566194 -0.157276 0.7392
0.00502391 -0.158708 0.740184
0.00437588 -0.160084 0.740859
0.00372734 -0.16147 0.74157
0.00307327 -0.162825 0.742103
0.00242254 -0.164215 0.742813
0.00178216 -0.165696 0.743989
0.00114685 -0.167242 0.745477
0.000517157 -0.168863 0.747321
-0.000116233 -0.170486 0.749148
-0.00075823 -0.172061 0.750701
-0.00140668 -0.1736 0.752057
-0.00205584 -0.17516 0.753495
-0.00271009 -0.176699 0.754801
-0.00336269 -0.178279 0.756295
-0.00401278 -0.179933 0.758118
-0.00466493 -0.181601 0.759984
-0.0053249 -0.183208 0.761531
-0.00598645 -0.184831 0.763137
-0.00665298 -0.186434 0.764616
-0.0073234 -0.18801 0.765952
-0.00799689 -0.189577 0.767226
-0.00867098 -0.191184 0.768664
0.0498184 -0.0828089 0.761438
0.0489817 -0.0838991 0.759453
0.0481695 -0.0850091 0.757741
0.0472286 -0.0859525 0.754339
0.0462503 -0.086832 0.750383
0.0437279 -0.0866337 0.742477
0.0452261 -0.0876324 0.745744
0.0442167 -0.0884288 0.741203
0.0432725 -0.0892907 0.737438
0.042404 -0.0902389 0.734619
0.0415567 -0.0912027 0.732029
0.040761 -0.0922288 0.730097
0.0400093 -0.0933106 0.728736
0.0393028 -0.0944556 0.727989
0.0386381 -0.0956626 0.727822
0.037979 -0.0968781 0.727734
0.0373283 -0.0981074 0.727768
0.0366775 -0.0993371 0.727804
0.0360029 -0.100525 0.727482
0.0353079 -0.101675 0.726843
0.0346141 -0.102824 0.726212
0.0339217 -0.103972 0.725586
0.0332055 -0.105071 0.724569
0.0324933 -0.106171 0.723592
0.0317718 -0.107246 0.722438
0.0310623 -0.10834 0.721456
0.0303572 -0.109437 0.720519
0.0296726 -0.110573 0.719903
0.028993 -0.111716 0.719359
0.0283184 -0.112868 0.718886
0.027641 -0.11401 0.718353
0.0270045 -0.115248 0.718533
0.0263967 -0.116559 0.719237
0.0257671 -0.117819 0.719564
0.0251402 -0.119089 0.719952
0.0244946 -0.120312 0.719999
0.0238115 -0.121433 0.719334
0.0231224 -0.122532 0.718531
0.0224589 -0.1237 0.718211
0.0217983 -0.124874 0.717937
0.0211497 -0.126083 0.717907
0.0205086 -0.127316 0.718027
0.0198739 -0.12857 0.71829
0.0192511 -0.129867 0.718817
0.0186212 -0.131144 0.719214
0.0179936 -0.132434 0.719676
0.0173698 -0.133741 0.720244
0.0167392 -0.135029 0.720673
0.0161261 -0.136387 0.721535
0.015517 -0.13777 0.722524
0.0149226 -0.139222 0.723918
0.0143317 -0.140702 0.725455
0.013751 -0.142242 0.727314
0.01316 -0.143755 0.728988
0.0125692 -0.145287 0.730738
0.0119597 -0.146751 0.732063
0.0113345 -0.148154 0.733013
0.0107011 -0.149527 0.733776
0.010059 -0.150864 0.734324
0.00942252 -0.152239 0.735069
0.00879574 -0.153675 0.736145
0.00816767 -0.155118 0.737238
0.00753996 -0.156579 0.738407
0.00691271 -0.158055 0.739645
0.00627631 -0.159492 0.74065
0.00563051 -0.160883 0.741389
0.00498252 -0.16227 0.742099
0.00432895 -0.163627 0.742638
0.00368116 -0.165038 0.743447
0.00304393 -0.166539 0.744709
0.00241021 -0.168089 0.7462
0.00178044 -0.169694 0.747952
0.00114686 -0.171301 0.749681
0.000502835 -0.172843 0.751058
-0.000144131 -0.174383 0.752407
-0.000791582 -0.175946 0.753847
-0.00144252 -0.177504 0.75524
-0.00208851 -0.17914 0.756992
-0.00273274 -0.180837 0.75901
-0.00338065 -0.182534 0.761
-0.00403653 -0.184186 0.762742
-0.00469538 -0.185833 0.764443
-0.00536283 -0.187405 0.765765
-0.00603406 -0.188963 0.766999
-0.00670693 -0.19053 0.768256
-0.0073817 -0.192106 0.769538
0.0501651 -0.0844814 0.75831
0.0493644 -0.0856045 0.756764
0.0485144 -0.0866601 0.754565
0.0476092 -0.087636 0.751619
0.0466691 -0.0885528 0.748165
0.0457384 -0.0894644 0.744762
0.0448002 -0.0903488 0.741191
0.0439218 -0.0912972 0.738338
0.0430584 -0.092252 0.735625
0.0422516 -0.0932748 0.733623
0.0414924 -0.0943575 0.732228
0.0407817 -0.0955071 0.731478
0.040091 -0.0966841 0.730992
0.0394041 -0.0978647 0.730549
0.038722 -0.0990509 0.730167
0.0380317 -0.100221 0.729656
0.0373249 -0.101361 0.728893
0.0366088 -0.10248 0.727977
0.0358955 -0.103598 0.72708
0.0351843 -0.104716 0.726193
0.0344597 -0.105802 0.725081
0.0337394 -0.106891 0.72401
0.0330153 -0.107966 0.722851
0.0323089 -0.10907 0.721948
0.0316061 -0.110176 0.721081
0.0309248 -0.111323 0.720543
0.0302442 -0.112469 0.720006
0.0295735 -0.113633 0.719622
0.0289037 -0.114797 0.719242
0.0282658 -0.116035 0.719409
0.0276531 -0.117335 0.720021
0.0270247 -0.118602 0.720376
0.0263951 -0.119868 0.720718
0.0257381 -0.121064 0.720571
0.0250463 -0.122167 0.719773
0.0243505 -0.123252 0.718874
0.0236784 -0.124398 0.718404
0.0230133 -0.125562 0.718059
0.022365 -0.126773 0.718035
0.0217306 -0.128027 0.718295
0.0211037 -0.129307 0.718716
0.0204853 -0.130618 0.719329
0.0198602 -0.131913 0.719824
0.0192362 -0.133216 0.720363
0.0186131 -0.134527 0.720939
0.0179755 -0.135791 0.721213
0.0173522 -0.137112 0.721827
0.0167355 -0.138463 0.722618
0.0161353 -0.139887 0.723831
0.0155402 -0.141342 0.725209
0.0149595 -0.142872 0.727
0.0143742 -0.144399 0.728747
0.0137891 -0.145946 0.730578
0.0131851 -0.147427 0.731993
0.012565 -0.148848 0.733041
0.0119356 -0.150237 0.73389
0.0113002 -0.151606 0.734604
0.0106643 -0.15298 0.735342
0.0100414 -0.154433 0.736497
0.00941679 -0.15589 0.737658
0.00879347 -0.157369 0.738917
0.00816778 -0.158851 0.740171
0.0075354 -0.160307 0.74127
0.00689061 -0.161705 0.742033
0.00624347 -0.163096 0.742753
0.00559051 -0.164455 0.7433
0.00494156 -0.165855 0.744039
0.00430354 -0.167344 0.745229
0.00367116 -0.168894 0.746708
0.00304279 -0.170499 0.74844
0.00240888 -0.172089 0.750072
0.00176603 -0.17363 0.751434
0.00112437 -0.175205 0.752946
0.00048116 -0.176794 0.7545
-0.000165673 -0.178381 0.756023
-0.000803936 -0.180076 0.758049
-0.00144243 -0.181818 0.760264
-0.00208839 -0.183521 0.762262
-0.00274213 -0.185179 0.764017
-0.00340132 -0.18681 0.765622
-0.00407143 -0.188346 0.766757
-0.00474316 -0.18988 0.767873
-0.00541541 -0.191449 0.769124
-0.00608982 -0.193008 0.77032
0.0513658 -0.0850851 0.75741
0.0505854 -0.0862318 0.756134
0.0497631 -0.087322 0.754313
0.048884 -0.0883332 0.751748
0.0479973 -0.0893221 0.749037
0.0471209 -0.090311 0.746402
0.0462246 -0.0912599 0.743457
0.0453887 -0.0922762 0.741238
0.0445627 -0.093295 0.739104
0.0437589 -0.0943345 0.737219
0.0430041 -0.0954362 0.735954
0.0422895 -0.0965915 0.735207
0.0415706 -0.0977365 0.734387
0.0408484 -0.0988722 0.733504
0.0401352 -0.100017 0.732727
0.0393945 -0.101113 0.731543
0.0386549 -0.102204 0.730349
0.0379129 -0.103284 0.729095
0.0371801 -0.104374 0.727945
0.0364447 -0.105452 0.726734
0.0357109 -0.106526 0.725516
0.0349831 -0.107604 0.724361
0.034257 -0.108679 0.723205
0.0335547 -0.109796 0.722393
0.0328516 -0.110905 0.721549
0.0321786 -0.112073 0.721166
0.0314967 -0.11322 0.72063
0.0308249 -0.114385 0.720247
0.0301541 -0.115551 0.719874
0.029511 -0.116779 0.719955
0.0288929 -0.118068 0.720471
0.0282593 -0.119322 0.720735
0.0276244 -0.120576 0.720982
0.0269621 -0.121761 0.720749
0.0262687 -0.122863 0.719949
0.025563 -0.123926 0.718898
0.0248888 -0.125069 0.718406
0.0242233 -0.126233 0.718065
0.0235754 -0.127446 0.718052
0.0229493 -0.128725 0.718469
0.0223308 -0.130031 0.71905
0.0217174 -0.131357 0.719752
0.0210974 -0.132669 0.720345
0.0204781 -0.133988 0.720976
0.019852 -0.13529 0.721483
0.0192069 -0.13653 0.7216
0.0185757 -0.137822 0.722028
0.0179519 -0.139145 0.722641
0.0173456 -0.14054 0.723674
0.016752 -0.141996 0.725044
0.0161773 -0.143539 0.726911
0.0155982 -0.145084 0.728747
0.0150225 -0.146662 0.730743
0.0144272 -0.148174 0.732329
0.0138123 -0.149615 0.733482
0.0131845 -0.151009 0.734347
0.0125522 -0.152392 0.735133
0.011914 -0.153754 0.735792
0.0112895 -0.155194 0.736867
0.0106661 -0.156653 0.738028
0.010047 -0.158149 0.739367
0.00942641 -0.159651 0.74072
0.00880073 -0.161143 0.741996
0.00816201 -0.162574 0.742928
0.00751753 -0.163985 0.743735
0.00686681 -0.165365 0.744371
0.00621557 -0.166751 0.745027
0.00557325 -0.168209 0.746042
0.00493779 -0.169728 0.747349
0.00430639 -0.1713 0.748902
0.00367256 -0.172876 0.750456
0.00303348 -0.174437 0.751906
0.00240048 -0.176072 0.753699
0.00176581 -0.177721 0.755536
0.00112922 -0.17939 0.757442
0.000497331 -0.181135 0.759683
-0.000137315 -0.182903 0.761998
-0.000783297 -0.184592 0.76391
-0.00143707 -0.186244 0.765618
-0.00210065 -0.187819 0.766942
-0.00277338 -0.189319 0.767892
-0.00344645 -0.190835 0.768908
-0.00411934 -0.192384 0.770054
-0.00479558 -0.193911 0.771088
-0.00670316 -0.19562 0.77627
-0.00541784 -0.196274 0.775889
0.0526842 -0.0858233 0.757936
0.0519001 -0.0869687 0.756645
0.0510964 -0.0880845 0.755088
0.0502196 -0.0891038 0.752609
0.0493347 -0.0901006 0.749981
0.0484943 -0.0911416 0.747857
0.0476369 -0.0921493 0.745475
0.0468354 -0.0932205 0.74376
0.0460373 -0.0942877 0.742054
0.0452624 -0.0953789 0.740616
0.0444975 -0.0964773 0.73928
0.0437726 -0.097628 0.738449
0.043021 -0.0987338 0.737241
0.042274 -0.0998407 0.736073
0.0415315 -0.100948 0.734939
0.0407517 -0.101989 0.733264
0.0399818 -0.103036 0.731689
0.0392199 -0.104089 0.730196
0.0384664 -0.105148 0.72879
0.0377108 -0.106196 0.727322
0.0369683 -0.107258 0.726011
0.0362333 -0.108327 0.724781
0.0355113 -0.109415 0.723721
0.0348087 -0.110534 0.722932
0.0341091 -0.111655 0.722171
0.0334402 -0.112835 0.72187
0.0327576 -0.113984 0.721347
0.0320842 -0.11515 0.720958
0.0314113 -0.116316 0.720572
0.0307591 -0.117525 0.720513
0.0301275 -0.118784 0.7208
0.0294883 -0.120026 0.720969
0.0288425 -0.121254 0.721028
0.0281748 -0.122427 0.720711
0.027478 -0.123523 0.719872
0.0267697 -0.124583 0.718805
0.0260901 -0.125713 0.718228
0.0254238 -0.126876 0.717881
0.0247761 -0.12809 0.717873
0.0241558 -0.129384 0.718386
0.023547 -0.130718 0.719139
0.0229399 -0.132062 0.719947
0.0223282 -0.133399 0.720696
0.0217132 -0.134732 0.7214
0.0210871 -0.136034 0.721901
0.0204378 -0.137262 0.721938
0.0198025 -0.13854 0.722274
0.0191751 -0.139849 0.722795
0.0185659 -0.141231 0.723737
0.0179783 -0.142703 0.725197
0.0174103 -0.144265 0.727158
0.016841 -0.145841 0.729166
0.0162753 -0.147452 0.731337
0.0156857 -0.148984 0.73302
0.0150724 -0.15043 0.734182
0.0144451 -0.151826 0.735048
0.0138161 -0.153223 0.735905
0.0131756 -0.154576 0.736499
0.0125522 -0.156019 0.737579
0.011933 -0.157496 0.738823
0.0113152 -0.158994 0.740162
0.0106956 -0.1605 0.741519
0.0100744 -0.162012 0.742885
0.00943918 -0.163464 0.743914
0.00879328 -0.164865 0.744655
0.00814444 -0.166259 0.745355
0.00749035 -0.167628 0.745912
0.0068459 -0.16907 0.746831
0.00620838 -0.17057 0.748029
0.00558324 -0.172176 0.749743
0.00495389 -0.173779 0.751408
0.00432413 -0.175402 0.753151
0.00370007 -0.177098 0.755227
0.00307201 -0.178794 0.757273
0.00243957 -0.180493 0.759295
0.0018098 -0.182246 0.761556
0.00117334 -0.183985 0.763708
0.000524069 -0.185637 0.765422
-0.000130916 -0.187269 0.767013
-0.000799078 -0.188791 0.768071
-0.00147362 -0.19027 0.768915
-0.00208524 -0.192493 0.773167
-0.00269848 -0.194793 0.777713
0.0532453 -0.0877393 0.757487
0.0524511 -0.0888706 0.756084
0.0515735 -0.0898942 0.75365
0.0506965 -0.0909067 0.751176
0.0498495 -0.0919452 0.749025
0.0489925 -0.0929598 0.746706
0.048181 -0.0940236 0.744913
0.0473865 -0.0951012 0.743298
0.0466144 -0.0962022 0.741938
0.0458523 -0.0973104 0.740679
0.0451184 -0.0984535 0.739763
0.0443627 -0.0995591 0.738542
0.0436056 -0.100656 0.737276
0.0428479 -0.101745 0.735975
0.042053 -0.102768 0.734141
0.0412789 -0.103814 0.732555
0.0405072 -0.104856 0.730967
0.0397393 -0.105895 0.729398
0.0389739 -0.10693 0.72783
0.0382275 -0.107991 0.726499
0.0374849 -0.109051 0.725196
0.0367622 -0.110141 0.724154
0.0360634 -0.111271 0.723447
0.0353673 -0.112403 0.722762
0.0346972 -0.113583 0.722459
0.0340124 -0.114732 0.721925
0.0333384 -0.1159 0.721545
0.0326687 -0.117076 0.721227
0.0320157 -0.118287 0.721168
0.0313696 -0.119514 0.721223
0.0307205 -0.120735 0.72123
0.0300589 -0.121926 0.72103
0.0293715 -0.123052 0.720389
0.0286602 -0.124114 0.719321
0.0279501 -0.125171 0.718244
0.0272651 -0.126287 0.717583
0.0265983 -0.127448 0.717229
0.0259514 -0.128663 0.717229
0.025337 -0.12997 0.717828
0.0247349 -0.131319 0.718678
0.0241339 -0.132678 0.719576
0.0235315 -0.13404 0.720478
0.0229251 -0.135397 0.721328
0.0222995 -0.136699 0.721828
0.0216536 -0.137939 0.721934
0.0210187 -0.139217 0.722269
0.0203923 -0.140528 0.722796
0.0197853 -0.141915 0.723757
0.0192108 -0.143429 0.725457
0.0186573 -0.145039 0.727684
0.0181029 -0.146666 0.72997
0.0175476 -0.148312 0.732322
0.0169663 -0.149875 0.734159
0.0163499 -0.151307 0.735233
0.0157193 -0.152691 0.736011
0.0150874 -0.154076 0.736786
0.0144435 -0.155415 0.737294
0.0138212 -0.156862 0.738379
0.0132064 -0.158357 0.739708
0.01259 -0.15986 0.741055
0.0119752 -0.161387 0.742507
0.0113549 -0.162901 0.74387
0.0107176 -0.164342 0.744824
0.0100715 -0.165742 0.745555
0.00942047 -0.167125 0.746179
0.00876106 -0.168462 0.746566
0.00811417 -0.169885 0.74738
0.00747952 -0.171399 0.748636
0.00685927 -0.17303 0.750455
0.00623788 -0.174677 0.752329
0.00561847 -0.176366 0.754378
0.00500412 -0.178124 0.756737
0.00438261 -0.179861 0.75896
0.0037517 -0.181563 0.760978
0.00312325 -0.183319 0.763224
0.00248418 -0.185023 0.76519
0.0018336 -0.186654 0.766787
0.00117566 -0.188254 0.768209
0.000506265 -0.189759 0.769176
-0.000169245 -0.191229 0.769961
-0.000705132 -0.194214 0.777681
-0.00124508 -0.197315 0.78582
-0.00331747 -0.197126 0.782344
0.0553824 -0.0873639 0.75961
0.0546058 -0.0885254 0.75847
0.0538097 -0.0896587 0.757079
0.0529296 -0.0906847 0.754669
0.0520532 -0.0917037 0.752261
0.0511955 -0.0927344 0.750031
0.0503335 -0.0937483 0.747706
0.0495108 -0.0948024 0.745819
0.048712 -0.0958794 0.744193
0.0479298 -0.0969708 0.74274
0.0471648 -0.0980792 0.741479
0.0464154 -0.0992038 0.740392
0.0456563 -0.100309 0.73916
0.0448909 -0.101397 0.737818
0.0441253 -0.102478 0.736448
0.0433332 -0.10351 0.734694
0.0425608 -0.104564 0.73317
0.0417806 -0.105596 0.731508
0.0410091 -0.106635 0.729929
0.0402392 -0.107667 0.728338
0.0394847 -0.108717 0.72693
0.0387392 -0.109776 0.72562
0.03802 -0.110877 0.724658
0.0373143 -0.111998 0.723872
0.0366203 -0.113137 0.723242
0.0359482 -0.114316 0.722924
0.0352628 -0.115467 0.722399
0.0345879 -0.116636 0.722023
0.0339222 -0.117823 0.72178
0.0332728 -0.119045 0.721789
0.032621 -0.120262 0.721762
0.0319654 -0.12147 0.721673
0.0312879 -0.122626 0.721228
0.0305886 -0.123727 0.720409
0.0298661 -0.124764 0.719182
0.0291464 -0.125801 0.717971
0.0284523 -0.126896 0.717169
0.0277888 -0.128066 0.716877
0.0271412 -0.129277 0.71686
0.0265242 -0.130575 0.717396
0.0259281 -0.131937 0.718326
0.0253286 -0.133296 0.719226
0.0247278 -0.134659 0.720127
0.0241229 -0.136018 0.720983
0.023499 -0.137322 0.721495
0.0228542 -0.138565 0.721616
0.0222241 -0.139857 0.722036
0.0216065 -0.141196 0.722722
0.021013 -0.142625 0.723935
0.0204577 -0.144203 0.72599
0.0199241 -0.145878 0.728581
0.0193847 -0.147556 0.731136
0.0188327 -0.149209 0.733506
0.0182491 -0.15076 0.735255
0.0176253 -0.152163 0.736146
0.0169906 -0.15353 0.736819
0.0163557 -0.154903 0.737514
0.0157152 -0.156259 0.738103
0.0150972 -0.157723 0.73927
0.0144837 -0.159223 0.740606
0.013869 -0.16073 0.741964
0.0132586 -0.162276 0.743501
0.0126393 -0.163794 0.744865
0.0119995 -0.16522 0.745728
0.011353 -0.166619 0.746443
0.010702 -0.168001 0.747055
0.0100364 -0.169312 0.747288
0.00939311 -0.170755 0.748193
0.00876281 -0.172291 0.749546
0.00815057 -0.173963 0.751553
0.00753494 -0.17564 0.753557
0.00692864 -0.177407 0.755974
0.00631481 -0.179158 0.758275
0.00569464 -0.180898 0.760489
0.00506191 -0.182579 0.762382
0.00442804 -0.184279 0.764342
0.00378375 -0.185929 0.766034
0.0031347 -0.187563 0.767631
0.00247877 -0.189166 0.769059
0.00180803 -0.190666 0.769981
0.00113719 -0.192176 0.770944
0.000686281 -0.195912 0.782051
-0.00179357 -0.200503 0.794235
0.000231166 -0.199835 0.793849
0.0567382 -0.0881389 0.76047
0.0559557 -0.0892973 0.75929
0.055161 -0.090436 0.757949
0.054286 -0.0914733 0.75565
0.0534061 -0.0924935 0.753254
0.0525384 -0.093517 0.750955
0.0516773 -0.0945377 0.748693
0.0508423 -0.0955809 0.746703
0.0500321 -0.0966474 0.744977
0.0492388 -0.0977281 0.743426
0.0484636 -0.0988263 0.74207
0.0477046 -0.0999408 0.740891
0.0469431 -0.101045 0.739656
0.0461759 -0.102135 0.738327
0.0454087 -0.103218 0.736967
0.0446189 -0.104258 0.735287
0.0438436 -0.105312 0.733763
0.043055 -0.106336 0.732029
0.0422807 -0.107374 0.730451
0.0415029 -0.108397 0.728794
0.0407445 -0.109446 0.727369
0.0399911 -0.110495 0.725981
0.039264 -0.111585 0.724936
0.0385451 -0.112683 0.723983
0.0378437 -0.113811 0.723261
0.0371649 -0.114978 0.722856
0.0364791 -0.11613 0.722337
0.0358094 -0.117311 0.722049
0.0351449 -0.118502 0.721832
0.034495 -0.119724 0.721837
0.0338378 -0.120929 0.721727
0.0331751 -0.122122 0.721531
0.0324912 -0.123265 0.720994
0.0317902 -0.124363 0.720167
0.0310657 -0.1254 0.718938
0.0303397 -0.126423 0.717649
0.0296403 -0.127507 0.716775
0.028976 -0.128675 0.716476
0.0283281 -0.129886 0.716452
0.0277072 -0.13117 0.716901
0.0271122 -0.13253 0.717821
0.0265175 -0.133899 0.718777
0.0259182 -0.135263 0.719677
0.0253198 -0.136636 0.720622
0.0247064 -0.137971 0.721316
0.0240706 -0.139241 0.721604
0.0234493 -0.140561 0.722185
0.0228483 -0.141954 0.723186
0.0222698 -0.143431 0.724669
0.0217308 -0.14506 0.727007
0.0212173 -0.146801 0.729951
0.0206859 -0.148504 0.732622
0.0201328 -0.150149 0.73492
0.0195455 -0.151684 0.736559
0.0189167 -0.15307 0.737336
0.0182718 -0.154398 0.737779
0.0176334 -0.155759 0.738391
0.0169896 -0.157102 0.738902
0.0163722 -0.158568 0.740063
0.0157604 -0.160072 0.741409
0.0151512 -0.161602 0.74287
0.0145424 -0.163152 0.744412
0.0139244 -0.164673 0.745776
0.0132812 -0.166082 0.746542
0.0126343 -0.167481 0.747239
0.0119832 -0.168865 0.74785
0.0113244 -0.170213 0.748266
0.0106875 -0.171697 0.749359
0.0100648 -0.173274 0.750906
0.00945794 -0.174973 0.753026
0.00884735 -0.176675 0.755129
0.00824329 -0.178447 0.757547
0.00762849 -0.180184 0.759754
0.0070053 -0.181891 0.761787
0.00636879 -0.183535 0.763487
0.00572933 -0.185183 0.765184
0.00508155 -0.186795 0.766684
0.00443181 -0.188417 0.768206
0.00378018 -0.190044 0.769734
0.00311127 -0.191554 0.770698
0.00244348 -0.193089 0.771761
0.0580895 -0.088907 0.76124
0.0573067 -0.0900685 0.760085
0.0565109 -0.0912097 0.758762
0.0556307 -0.0922457 0.756455
0.0547475 -0.0932669 0.75407
0.0538762 -0.0942909 0.751779
0.0530104 -0.0953106 0.749511
0.0521633 -0.0963432 0.747423
0.0513343 -0.0973894 0.745513
0.0505243 -0.0984515 0.743795
0.0497386 -0.0995382 0.742339
0.0489704 -0.100643 0.741075
0.0482064 -0.101746 0.739834
0.0474365 -0.102835 0.738499
0.0466674 -0.103918 0.737146
0.0458813 -0.104967 0.735548
0.04511 -0.106032 0.734111
0.0443254 -0.107066 0.73247
0.0435542 -0.108114 0.730971
0.042779 -0.109147 0.72939
0.0420184 -0.110196 0.72797
0.0412617 -0.111245 0.726575
0.0405258 -0.112323 0.725437
0.039793 -0.1134 0.724316
0.0390887 -0.114524 0.723577
0.038403 -0.115681 0.723086
0.0377169 -0.116834 0.722579
0.0370527 -0.118029 0.722381
0.0363981 -0.119243 0.722322
0.0357436 -0.120457 0.722265
0.0350854 -0.121663 0.72215
0.0344176 -0.122847 0.721887
0.0337226 -0.123967 0.721196
0.0330093 -0.125041 0.720199
0.0322774 -0.126064 0.718883
0.0315443 -0.127074 0.717515
0.0308387 -0.128145 0.716561
0.0301732 -0.129311 0.716248
0.0295297 -0.130533 0.716297
0.02891 -0.131819 0.716754
0.0283158 -0.133179 0.717667
0.0277216 -0.134547 0.718606
0.0271272 -0.135921 0.719569
0.0265309 -0.137297 0.720528
0.025924 -0.138649 0.72132
0.0252977 -0.139948 0.721779
0.0246855 -0.141297 0.722522
0.024103 -0.142747 0.723852
0.0235439 -0.144287 0.725683
0.023022 -0.145969 0.728307
0.0225212 -0.147748 0.731443
0.0219918 -0.149453 0.734098
0.0214279 -0.151055 0.736128
0.0208296 -0.152547 0.737506
0.0201933 -0.153906 0.738116
0.0195447 -0.155221 0.738479
0.0189068 -0.156585 0.739098
0.0182665 -0.157945 0.739686
0.0176571 -0.159443 0.741008
0.017047 -0.160953 0.74237
0.0164395 -0.162488 0.74384
0.0158322 -0.164041 0.745381
0.015212 -0.16555 0.746668
0.0145628 -0.166929 0.747266
0.0139195 -0.168347 0.748049
0.0132721 -0.169751 0.748751
0.0126225 -0.171153 0.749432
0.011997 -0.172699 0.750818
0.0113822 -0.174322 0.752568
0.0107809 -0.176044 0.754785
0.010168 -0.177727 0.756774
0.00955929 -0.179464 0.758991
0.00893822 -0.18115 0.760935
0.00830819 -0.182806 0.762703
0.00766557 -0.184398 0.764142
0.00702266 -0.186011 0.765655
0.0063719 -0.187591 0.766994
0.00572405 -0.189214 0.76851
0.00507723 -0.190866 0.770147
0.00441202 -0.192398 0.771201
0.00374567 -0.193938 0.77228
0.059387 -0.0896152 0.761388
0.0586108 -0.0907861 0.76033
0.0578251 -0.0919411 0.759145
0.0569666 -0.0930057 0.757123
0.0560931 -0.094043 0.754897
0.0552172 -0.0950665 0.752603
0.0543467 -0.0960853 0.750329
0.0534879 -0.0971082 0.748151
0.0526473 -0.0981436 0.746145
0.0518255 -0.0991942 0.744327
0.0510295 -0.100271 0.742782
0.0502591 -0.101375 0.741517
0.0494917 -0.102478 0.740267
0.0487197 -0.103567 0.738934
0.0479469 -0.104648 0.737567
0.0471639 -0.105706 0.736044
0.0463855 -0.106763 0.73455
0.0456038 -0.107807 0.732985
0.0448365 -0.108866 0.731574
0.0440526 -0.10989 0.729916
0.0432834 -0.110929 0.72842
0.0425176 -0.111965 0.726937
0.0417679 -0.113023 0.725641
0.041026 -0.114086 0.724424
0.0403192 -0.115209 0.723667
0.0396335 -0.116368 0.723189
0.038957 -0.117542 0.722834
0.0382987 -0.11875 0.722729
0.0376492 -0.119976 0.72275
0.0369946 -0.121192 0.722699
0.0363304 -0.122387 0.722505
0.0356558 -0.123559 0.722153
0.0349544 -0.124669 0.721384
0.0342307 -0.125722 0.720257
0.0334958 -0.126743 0.718929
0.032759 -0.127749 0.717535
0.0320459 -0.128805 0.716487
0.0313711 -0.129949 0.716031
0.0307278 -0.131171 0.716082
0.0301051 -0.132448 0.716477
0.0295131 -0.133811 0.7174
0.0289207 -0.135179 0.718345
0.0283363 -0.136578 0.719453
0.0277462 -0.137969 0.720496
0.0271488 -0.139348 0.721441
0.0265367 -0.140689 0.722148
0.0259389 -0.142081 0.72314
0.0253721 -0.143579 0.724737
0.0248291 -0.145168 0.726836
0.0243118 -0.146861 0.729494
0.02381 -0.148629 0.732539
0.0232735 -0.150302 0.734992
0.0226983 -0.15186 0.736753
0.0220925 -0.153322 0.737946
0.0214571 -0.154683 0.738565
0.020809 -0.156002 0.738939
0.0201758 -0.157384 0.739648
0.0195428 -0.158774 0.740389
0.0189391 -0.160294 0.741811
0.0183309 -0.161809 0.743185
0.0177286 -0.163363 0.744744
0.0171224 -0.164918 0.746277
0.016503 -0.166427 0.747551
0.0158571 -0.167824 0.748231
0.0152211 -0.16928 0.749194
0.0145784 -0.17071 0.750014
0.0139395 -0.172172 0.750978
0.0133191 -0.173744 0.752479
0.0127066 -0.175376 0.754253
0.0120974 -0.17705 0.756208
0.0114762 -0.17868 0.757912
0.0108567 -0.180342 0.759751
0.0102284 -0.181972 0.76141
0.00959502 -0.183595 0.763006
0.00895423 -0.185191 0.764454
0.00831013 -0.186786 0.765872
0.00766082 -0.188366 0.7672
0.00701476 -0.189986 0.7687
0.00636779 -0.191626 0.770264
0.00570393 -0.193159 0.771319
0.00503871 -0.194698 0.772388
0.0607017 -0.0903412 0.76171
0.0599337 -0.0915232 0.76076
0.0591532 -0.0926868 0.759658
0.0583079 -0.0937704 0.757822
0.0574504 -0.094831 0.755818
0.0565688 -0.0958526 0.753508
0.0556934 -0.0968708 0.751228
0.0548306 -0.0978936 0.749051
0.0539793 -0.0989204 0.746967
0.0531521 -0.0999688 0.745127
0.0523384 -0.101026 0.743411
0.0515516 -0.102112 0.741983
0.0507758 -0.103206 0.740659
0.0500067 -0.104303 0.739392
0.0492379 -0.105393 0.738104
0.0484649 -0.106471 0.73674
0.0476899 -0.107538 0.735326
0.0469053 -0.108583 0.733763
0.0461345 -0.109641 0.732343
0.0453406 -0.110653 0.730601
0.0445561 -0.111672 0.728941
0.0437752 -0.112687 0.727299
0.0430151 -0.11373 0.725895
0.0422652 -0.114783 0.7246
0.041552 -0.115896 0.723776
0.0408655 -0.117055 0.7233
0.0401948 -0.118242 0.723033
0.0395361 -0.119452 0.722929
0.0388868 -0.12068 0.722959
0.0382367 -0.121906 0.722978
0.0375765 -0.123112 0.722852
0.0369009 -0.124284 0.722497
0.0362024 -0.125403 0.721794
0.0354805 -0.126466 0.720727
0.0347384 -0.127475 0.719325
0.033994 -0.12847 0.717855
0.0332826 -0.129534 0.716864
0.0326015 -0.130666 0.716326
0.0319584 -0.131891 0.716386
0.0313407 -0.133181 0.716859
0.0307511 -0.134549 0.717806
0.0301606 -0.135922 0.718764
0.0295781 -0.137325 0.719886
0.0289889 -0.138717 0.720924
0.0283976 -0.140112 0.721956
0.0277995 -0.141496 0.722901
0.0272134 -0.142923 0.724087
0.0266629 -0.14447 0.725952
0.0261315 -0.146093 0.728226
0.0256084 -0.147763 0.730724
0.0250918 -0.149475 0.733424
0.0245391 -0.151087 0.735513
0.0239518 -0.152598 0.736994
0.0233396 -0.154034 0.738032
0.0227098 -0.155414 0.738751
0.0220708 -0.156767 0.739305
0.0214505 -0.158197 0.740267
0.0208302 -0.159638 0.741267
0.0202327 -0.16118 0.742794
0.0196304 -0.162718 0.744273
0.0190295 -0.164275 0.74583
0.0184198 -0.165813 0.747259
0.0178011 -0.167323 0.748523
0.0171631 -0.16876 0.749388
0.0165362 -0.170258 0.750556
0.0159049 -0.171748 0.751661
0.0152801 -0.173283 0.752974
0.0146635 -0.174878 0.754562
0.0140456 -0.176481 0.756172
0.0134242 -0.178088 0.757767
0.0127925 -0.179657 0.759161
0.0121612 -0.181246 0.760625
0.0115229 -0.182809 0.761951
0.0108859 -0.1844 0.763382
0.0102466 -0.185997 0.764822
0.00960153 -0.187575 0.766153
0.00895097 -0.189138 0.767395
0.00830387 -0.190741 0.768803
0.00765851 -0.192378 0.770349
0.00699333 -0.193894 0.771316
0.00632445 -0.195395 0.772206
0.0613036 -0.0923106 0.76167
0.0605258 -0.0934809 0.760625
0.059685 -0.0945744 0.758878
0.0588279 -0.0956403 0.756921
0.0579478 -0.0966695 0.754679
0.0570827 -0.097706 0.752564
0.0562159 -0.0987301 0.750392
0.0553463 -0.0997398 0.74815
0.0545067 -0.100777 0.746211
0.0536729 -0.101813 0.744304
0.052868 -0.102879 0.7427
0.0520819 -0.103963 0.741287
0.0513115 -0.105062 0.740035
0.0505473 -0.106163 0.738833
0.0497727 -0.107243 0.737485
0.0489947 -0.10831 0.736068
0.0482123 -0.109363 0.73457
0.047437 -0.11042 0.733132
0.0466335 -0.111422 0.731309
0.0458438 -0.112437 0.729626
0.045051 -0.113438 0.72787
0.0442695 -0.114448 0.726224
0.0435099 -0.115488 0.724833
0.0427904 -0.116593 0.723944
0.0420985 -0.117744 0.723408
0.0414274 -0.118931 0.723144
0.0407733 -0.120151 0.723109
0.0401238 -0.121379 0.723139
0.0394684 -0.122596 0.723087
0.0388025 -0.123791 0.722884
0.0381301 -0.124972 0.722587
0.0374349 -0.126102 0.721952
0.0367177 -0.127178 0.720979
0.0359792 -0.128201 0.719668
0.0352372 -0.129207 0.718272
0.0345244 -0.130272 0.71729
0.0338362 -0.131391 0.716663
0.033192 -0.132615 0.71671
0.0325793 -0.133918 0.717256
0.0319912 -0.135289 0.718211
0.031407 -0.136678 0.719256
0.0308309 -0.138097 0.720463
0.0302474 -0.139505 0.721581
0.0296665 -0.140929 0.722775
0.0290882 -0.14237 0.724046
0.0285145 -0.143835 0.725435
0.0279757 -0.145416 0.72748
0.0274421 -0.147031 0.729677
0.0269021 -0.148643 0.731822
0.0263643 -0.150281 0.734074
0.0257904 -0.151819 0.735721
0.0251918 -0.153287 0.736954
0.0245823 -0.154727 0.738014
0.0239629 -0.156143 0.738917
0.0233343 -0.157533 0.739667
0.0227276 -0.159012 0.740886
0.0221177 -0.160491 0.742078
0.021527 -0.162057 0.743716
0.0209308 -0.163617 0.745294
0.0203267 -0.16516 0.74676
0.0197145 -0.166684 0.748102
0.0191037 -0.168226 0.749517
0.0184744 -0.169703 0.750573
0.0178584 -0.17125 0.751972
0.0172426 -0.172818 0.753447
0.0166284 -0.174405 0.755002
0.0160024 -0.175954 0.756338
0.0153738 -0.177504 0.757663
0.0147386 -0.179034 0.758871
0.0140912 -0.180515 0.75982
0.0134451 -0.182014 0.760841
0.0128042 -0.183557 0.762059
0.0121663 -0.185133 0.763411
0.0115264 -0.186716 0.764779
0.0108863 -0.188315 0.7662
0.0102369 -0.189876 0.767425
0.00958889 -0.191461 0.768745
0.00894255 -0.193079 0.770191
0.0082811 -0.194611 0.771228
0.00761064 -0.196093 0.772027
0.0618674 -0.0942387 0.761225
0.061044 -0.0953553 0.759697
0.0601959 -0.0964362 0.75788
0.0593199 -0.0974753 0.755728
0.0584652 -0.0985298 0.753772
0.0576025 -0.0995648 0.751695
0.0567284 -0.100575 0.749452
0.0558761 -0.101602 0.747418
0.0550268 -0.102624 0.74538
0.054201 -0.103666 0.743575
0.0533968 -0.10473 0.741987
0.0526241 -0.10583 0.740739
0.0518664 -0.106944 0.739643
0.0510971 -0.108037 0.738391
0.0503165 -0.109106 0.73698
0.0495361 -0.110167 0.735542
0.0487506 -0.111212 0.734016
0.0479416 -0.112212 0.732171
0.0471418 -0.113217 0.730404
0.0463388 -0.114206 0.728561
0.0455454 -0.115201 0.726805
0.0447755 -0.116228 0.725316
0.0440416 -0.11731 0.724264
0.0433367 -0.11844 0.723574
0.0426638 -0.119626 0.723296
0.0420035 -0.120835 0.723181
0.0413539 -0.122064 0.723208
0.0406986 -0.123282 0.723161
0.0400376 -0.124489 0.723035
0.0393651 -0.125671 0.722745
0.0386752 -0.126814 0.722203
0.0379626 -0.127905 0.721321
0.037234 -0.128955 0.720189
0.0364956 -0.129975 0.718887
0.0357904 -0.131064 0.718048
0.035106 -0.132196 0.717503
0.0344662 -0.133434 0.717628
0.0338532 -0.134739 0.718169
0.033265 -0.136111 0.719114
0.0326766 -0.13749 0.720082
0.032096 -0.138897 0.7212
0.0315142 -0.140309 0.72233
0.0309402 -0.141751 0.723618
0.0303747 -0.143228 0.725087
0.029813 -0.144728 0.726658
0.029277 -0.146316 0.728715
0.0287395 -0.147916 0.730807
0.0281854 -0.149482 0.732665
0.0276258 -0.151046 0.734481
0.0270348 -0.152524 0.735781
0.0264285 -0.153962 0.73684
0.0258169 -0.155392 0.737833
0.0252008 -0.156815 0.738772
0.0245873 -0.158255 0.739791
0.0239918 -0.159771 0.741197
0.0233962 -0.1613 0.742648
0.0228123 -0.162887 0.744384
0.0222221 -0.164467 0.74605
0.0216195 -0.166012 0.747512
0.0210119 -0.167551 0.748921
0.0204098 -0.169131 0.750507
0.0197946 -0.170668 0.751858
0.0191926 -0.172277 0.75355
0.0185867 -0.173888 0.755224
0.0179734 -0.175482 0.756786
0.0173358 -0.176977 0.757837
0.0166925 -0.178455 0.758792
0.0160395 -0.179895 0.759545
0.0153778 -0.1813 0.760117
0.014722 -0.182743 0.760863
0.0140764 -0.184253 0.761913
0.0134407 -0.185829 0.763266
0.0128029 -0.187413 0.764632
0.012168 -0.189033 0.766144
0.0115207 -0.190597 0.767372
0.0108746 -0.192184 0.768697
0.0102242 -0.193763 0.76996
0.00956438 -0.195294 0.770988
0.00889275 -0.19676 0.77171
0.0639706 -0.0938016 0.76263
0.0632174 -0.0950042 0.761885
0.0624178 -0.0961511 0.760639
0.0616054 -0.0972775 0.759238
0.0607515 -0.0983485 0.757369
0.059908 -0.0994231 0.755583
0.0590483 -0.100469 0.753589
0.0581679 -0.101479 0.751334
0.0572876 -0.102478 0.749041
0.0564018 -0.103459 0.746647
0.0555455 -0.104466 0.744541
0.0547214 -0.105507 0.742765
0.0539388 -0.106598 0.741433
0.0531868 -0.107725 0.740431
0.0524292 -0.108839 0.739345
0.051646 -0.109909 0.73794
0.050862 -0.11097 0.736496
0.0500723 -0.112015 0.734959
0.0492547 -0.113006 0.733052
0.0484455 -0.114002 0.731213
0.0476323 -0.11498 0.729289
0.0468221 -0.115953 0.727364
0.046041 -0.116965 0.72577
0.0452964 -0.118032 0.724607
0.0445769 -0.119139 0.723748
0.0439019 -0.120323 0.723451
0.0432401 -0.12153 0.723322
0.0425794 -0.122738 0.723204
0.041924 -0.123957 0.723158
0.0412629 -0.125164 0.723035
0.0405904 -0.126348 0.722753
0.0399064 -0.127506 0.722305
0.0392051 -0.128624 0.721605
0.0384864 -0.1297 0.720644
0.0377577 -0.130747 0.719515
0.0370613 -0.131861 0.718834
0.036381 -0.133008 0.718372
0.0357418 -0.13425 0.718513
0.0351247 -0.135547 0.718994
0.0345361 -0.136919 0.719924
0.0339419 -0.138284 0.720789
0.033361 -0.13969 0.721888
0.0327908 -0.141132 0.723185
0.0322289 -0.142608 0.724652
0.031676 -0.144119 0.726303
0.0311207 -0.145637 0.72796
0.0305771 -0.147201 0.729859
0.0300263 -0.14876 0.73169
0.0294543 -0.150269 0.733205
0.0288727 -0.151761 0.734601
0.0282688 -0.153194 0.735641
0.0276629 -0.154629 0.736679
0.0270574 -0.156075 0.737756
0.0264524 -0.157532 0.738872
0.025854 -0.159021 0.740149
0.0252732 -0.160586 0.741803
0.0246879 -0.162149 0.743423
0.0241024 -0.163727 0.745091
0.0235137 -0.165309 0.746753
0.0229121 -0.166855 0.748207
0.0223061 -0.168399 0.749622
0.0217194 -0.170035 0.751488
0.0211267 -0.171664 0.753289
0.0205401 -0.17334 0.755296
0.0199432 -0.174992 0.757147
0.0193259 -0.176567 0.758599
0.0186688 -0.177976 0.759207
0.0180059 -0.179363 0.759699
0.0173341 -0.180712 0.760002
0.0166583 -0.182044 0.760216
0.015996 -0.183449 0.760778
0.0153475 -0.184938 0.761723
0.0147141 -0.186516 0.763077
0.0140788 -0.188106 0.76446
0.0134469 -0.18973 0.765985
0.0127985 -0.191277 0.767135
0.012151 -0.192846 0.768365
0.0114938 -0.194368 0.769368
0.0108322 -0.195878 0.7703
0.0101593 -0.197324 0.770936
0.0647437 -0.0926169 0.76357
0.0653543 -0.0945989 0.763588
0.0646021 -0.0958059 0.762872
0.0638241 -0.096981 0.76188
0.0630305 -0.0981337 0.760708
0.0621819 -0.0992168 0.75894
0.0613361 -0.100295 0.757172
0.060478 -0.101349 0.755241
0.0595852 -0.102351 0.752906
0.0586836 -0.10333 0.750433
0.0577752 -0.104288 0.747845
0.0568962 -0.105272 0.745535
0.0560504 -0.106289 0.743558
0.0552572 -0.107369 0.742137
0.0545029 -0.108496 0.741133
0.0537504 -0.109622 0.740134
0.0529714 -0.110702 0.738809
0.0521846 -0.111765 0.73737
0.0513854 -0.1128 0.735758
0.0505694 -0.1138 0.733914
0.0497571 -0.114796 0.73208
0.0489416 -0.115777 0.730173
0.0481336 -0.11676 0.728322
0.0473418 -0.11776 0.726634
0.0465809 -0.118804 0.725302
0.0458445 -0.119885 0.724253
0.0451551 -0.121045 0.723784
0.0444809 -0.122231 0.723501
0.0438193 -0.123439 0.72338
0.0431635 -0.124659 0.723333
0.0425018 -0.125866 0.723207
0.0418285 -0.12705 0.722924
0.0411492 -0.128219 0.722553
0.0404529 -0.129351 0.72194
0.0397395 -0.130443 0.721078
0.0390198 -0.131514 0.720106
0.0383388 -0.132667 0.719667
0.0376689 -0.133843 0.719379
0.0370411 -0.135116 0.719697
0.0364297 -0.13643 0.720267
0.0358356 -0.137791 0.721112
0.0352401 -0.139155 0.721953
0.0346547 -0.140551 0.722973
0.0340859 -0.141998 0.724278
0.033527 -0.143481 0.725771
0.032976 -0.144997 0.727431
0.0324124 -0.146491 0.728929
0.0318592 -0.148026 0.730639
0.0312952 -0.149543 0.732217
0.0307152 -0.151026 0.733571
0.0301305 -0.152506 0.734885
0.029523 -0.153925 0.735843
0.0289175 -0.155359 0.736865
0.0283175 -0.15682 0.738016
0.0277144 -0.158281 0.739142
0.0271224 -0.159789 0.740508
0.0265485 -0.161373 0.74225
0.0259695 -0.162954 0.743953
0.0253861 -0.164535 0.745624
0.024803 -0.166133 0.747357
0.0242033 -0.167682 0.748811
0.0236076 -0.169261 0.7504
0.023033 -0.170944 0.752478
0.0224524 -0.172619 0.754495
0.0218772 -0.174337 0.756693
0.0212857 -0.17601 0.758629
0.020657 -0.177537 0.759822
0.0199862 -0.178886 0.760126
0.0193067 -0.180197 0.760241
0.0186188 -0.181473 0.760181
0.0179315 -0.182749 0.760126
0.0172658 -0.184135 0.760592
0.0166159 -0.185606 0.76145
0.0159841 -0.187186 0.762803
0.0153511 -0.188778 0.764192
0.0147219 -0.190403 0.765721
0.0140719 -0.191933 0.766783
0.0134199 -0.193462 0.767829
0.012757 -0.194941 0.768633
0.0120933 -0.196425 0.769452
0.0114185 -0.197849 0.769988
0.0659357 -0.0965504 0.763306
0.0651929 -0.0977669 0.762692
0.0644273 -0.0989548 0.761834
0.0636127 -0.100082 0.760455
0.0627783 -0.10118 0.758848
0.0619292 -0.102252 0.75706
0.0610371 -0.103262 0.754786
0.0601148 -0.104223 0.75215
0.0591916 -0.10517 0.74946
0.0582963 -0.106139 0.747027
0.0574213 -0.107124 0.744775
0.0565951 -0.108164 0.743025
0.0558307 -0.109282 0.741935
0.0550681 -0.110397 0.740847
0.0542791 -0.111467 0.73944
0.0534895 -0.11253 0.738001
0.0526935 -0.113575 0.73646
0.051881 -0.114586 0.734699
0.0510716 -0.115592 0.732941
0.0502585 -0.116583 0.731107
0.0494539 -0.117578 0.729341
0.0486472 -0.118559 0.727515
0.04787 -0.11958 0.726016
0.0471173 -0.120637 0.724794
0.0464129 -0.121773 0.724153
0.0457246 -0.122936 0.723704
0.0450631 -0.124146 0.723588
0.044407 -0.125366 0.723542
0.0437438 -0.126572 0.723403
0.0430749 -0.127766 0.723187
0.042394 -0.128935 0.722806
0.0417014 -0.130077 0.722261
0.0410026 -0.131204 0.721621
0.0402985 -0.132314 0.720895
0.0396244 -0.133486 0.720569
0.0389705 -0.134703 0.720524
0.0383537 -0.136004 0.721009
0.037737 -0.13731 0.721507
0.0371384 -0.138663 0.722281
0.0365475 -0.14004 0.723191
0.0359638 -0.141442 0.724228
0.0353917 -0.142882 0.72547
0.0348348 -0.144371 0.726976
0.0342787 -0.145873 0.728534
0.0336995 -0.147325 0.729769
0.0331367 -0.148832 0.731299
0.0325683 -0.150334 0.732778
0.0319856 -0.151807 0.734062
0.0313988 -0.153278 0.735317
0.0307925 -0.1547 0.736279
0.0301836 -0.156123 0.737226
0.0295851 -0.157586 0.738378
0.0289796 -0.159036 0.739442
0.028394 -0.160562 0.740891
0.0278226 -0.162149 0.742639
0.0272459 -0.163733 0.744341
0.0266603 -0.165301 0.745934
0.0260792 -0.166901 0.747664
0.0254853 -0.168466 0.749192
0.0249009 -0.170086 0.750967
0.0243433 -0.171824 0.75332
0.0237748 -0.173545 0.755545
0.0232071 -0.175288 0.757846
0.0226133 -0.176946 0.759693
0.0219721 -0.178418 0.760599
0.0212835 -0.179694 0.760537
0.0205902 -0.180944 0.760355
0.0198969 -0.182197 0.760182
0.0191983 -0.183422 0.759881
0.0185301 -0.18479 0.760262
0.0178807 -0.186259 0.761108
0.0172474 -0.187821 0.762373
0.0166138 -0.189396 0.763682
0.0159864 -0.191023 0.765204
0.0153378 -0.192548 0.766247
0.0146797 -0.194033 0.767093
0.0140106 -0.195466 0.767687
0.0133413 -0.196904 0.768299
0.0126647 -0.198303 0.768732
0.0673248 -0.0973533 0.764271
0.0666023 -0.0985954 0.763879
0.065855 -0.0998081 0.763231
0.0650638 -0.100968 0.762124
0.0642243 -0.102065 0.760505
0.063378 -0.103147 0.758788
0.0624878 -0.104167 0.756586
0.0615526 -0.105119 0.753873
0.0606165 -0.106058 0.751105
0.0597135 -0.107025 0.748645
0.0588165 -0.107988 0.746208
0.0579691 -0.109006 0.74427
0.0571855 -0.110102 0.743
0.0564185 -0.111215 0.741891
0.0556174 -0.112274 0.740384
0.0548182 -0.113327 0.738869
0.0540188 -0.114372 0.737328
