ply
format ascii 1.0
element vertex 1644
property float x
property float y
property float z
end_header
-0.100058 -0.0757892 0.872712
-0.10069 -0.0771083 0.87234
-0.101334 -0.0784321 0.872051
-0.101947 -0.0797396 0.87153
-0.102591 -0.0810636 0.871254
-0.103247 -0.0823937 0.871062
-0.103963 -0.0837563 0.87131
-0.10476 -0.085165 0.872142
-0.105651 -0.086629 0.873646
-0.106528 -0.0880888 0.875033
-0.107483 -0.0895969 0.876959
-0.108376 -0.0910739 0.878428
-0.109226 -0.0925271 0.879556
-0.110026 -0.0939544 0.880331
-0.11081 -0.095373 0.880975
-0.11144 -0.0966993 0.880545
-0.112058 -0.0980169 0.880028
-0.112634 -0.0993082 0.879231
-0.113217 -0.100601 0.878475
-0.113831 -0.101914 0.877948
-0.114484 -0.103251 0.877688
-0.115137 -0.104587 0.87742
-0.115771 -0.105913 0.877037
-0.116405 -0.107237 0.876654
-0.117029 -0.108553 0.876199
-0.117679 -0.109887 0.875928
-0.11833 -0.111222 0.875661
-0.118955 -0.112537 0.875217
-0.119574 -0.113849 0.874745
-0.12019 -0.115157 0.874252
-0.120808 -0.116467 0.87378
-0.121443 -0.117789 0.873418
-0.122093 -0.11912 0.873154
-0.122741 -0.12045 0.872876
-0.123386 -0.121779 0.872587
-0.124032 -0.123108 0.872301
-0.124668 -0.124428 0.871948
-0.125386 -0.125811 0.872114
-0.126111 -0.1272 0.872317
-0.12684 -0.128593 0.872546
-0.127566 -0.129984 0.872749
-0.128287 -0.131371 0.872914
-0.128951 -0.132715 0.872731
-0.129614 -0.134058 0.872548
-0.130278 -0.135401 0.872365
-0.130942 -0.136745 0.872182
-0.131606 -0.138088 0.871998
-0.132283 -0.139443 0.871898
-0.132992 -0.140823 0.871983
-0.13372 -0.14222 0.872174
-0.134512 -0.14367 0.872738
-0.135322 -0.145138 0.873404
-0.136136 -0.146611 0.874085
-0.136963 -0.148096 0.874834
-0.137805 -0.149594 0.875656
-0.138591 -0.151048 0.876153
-0.139407 -0.152527 0.876807
-0.140237 -0.154021 0.87754
-0.141025 -0.155479 0.878028
-0.141781 -0.156911 0.87833
-0.14261 -0.158408 0.879034
-0.143383 -0.159856 0.879417
-0.144145 -0.161297 0.879739
-0.144905 -0.162734 0.880035
-0.145656 -0.164167 0.880291
-0.14633 -0.165529 0.880112
-0.147033 -0.166918 0.880094
-0.147772 -0.168339 0.880266
-0.148648 -0.169888 0.881183
-0.149643 -0.17155 0.88273
-0.150739 -0.173307 0.884805
-0.151926 -0.175153 0.887345
-0.153129 -0.17702 0.889951
-0.154232 -0.178796 0.892002
-0.155264 -0.180508 0.893658
-0.15622 -0.182152 0.894902
-0.157107 -0.183732 0.895771
-0.157927 -0.185248 0.896279
-0.158708 -0.186728 0.896584
-0.15954 -0.188259 0.897147
-0.160361 -0.18978 0.897643
-0.161225 -0.191344 0.898363
-0.162111 -0.192931 0.89918
-0.162997 -0.194519 0.899985
-0.163787 -0.196015 0.900305
-0.16457 -0.197504 0.900582
-0.165296 -0.198936 0.900567
-0.16608 -0.200428 0.900846
-0.169742 -0.202688 0.908472
-0.166818 -0.201874 0.900888
-0.094015 -0.0660359 0.878646
-0.0946887 -0.0673803 0.878565
-0.0953365 -0.0687121 0.878267
-0.0959109 -0.0700106 0.877399
-0.0963963 -0.0712645 0.875833
-0.0968889 -0.0725193 0.874346
-0.097375 -0.0737668 0.872814
-0.0978716 -0.0750179 0.87139
-0.0984616 -0.0763128 0.87069
-0.0990941 -0.0776297 0.870328
-0.0997498 -0.0789578 0.87014
-0.100376 -0.0802703 0.869732
-0.101033 -0.0815987 0.869552
-0.101688 -0.0829259 0.869361
-0.1024 -0.0842854 0.869592
-0.103203 -0.0856976 0.870495
-0.104103 -0.0871677 0.87209
-0.105013 -0.088648 0.873742
-0.106011 -0.090184 0.876014
-0.106951 -0.0916908 0.877838
-0.107838 -0.0931691 0.879258
-0.108676 -0.094621 0.880316
-0.109487 -0.0960579 0.881159
-0.110132 -0.0973938 0.880832
-0.110766 -0.0987208 0.880418
-0.111345 -0.100013 0.879625
-0.111928 -0.101306 0.878872
-0.112556 -0.102627 0.878425
-0.11321 -0.103965 0.878166
-0.11386 -0.105302 0.877887
-0.114481 -0.106618 0.877406
-0.115101 -0.107931 0.876916
-0.115697 -0.109229 0.876276
-0.116334 -0.110553 0.875904
-0.116972 -0.111878 0.87555
-0.11761 -0.113203 0.875197
-0.118245 -0.114526 0.874828
-0.118878 -0.115848 0.874451
-0.119514 -0.117169 0.874082
-0.120177 -0.118511 0.8739
-0.120829 -0.119845 0.873642
-0.121477 -0.121176 0.873364
-0.122121 -0.122503 0.873057
-0.122765 -0.123831 0.872755
-0.123386 -0.125141 0.872311
-0.12409 -0.126514 0.872389
-0.1248 -0.127891 0.872494
-0.125512 -0.129272 0.872621
-0.126222 -0.130651 0.872726
-0.126928 -0.132028 0.872803
-0.127592 -0.133371 0.87262
-0.128256 -0.134714 0.872436
-0.128919 -0.136058 0.872253
-0.129583 -0.137401 0.87207
-0.130247 -0.138744 0.871887
-0.130911 -0.140088 0.871704
-0.131603 -0.141455 0.871691
-0.132298 -0.142825 0.871695
-0.133067 -0.144258 0.872138
-0.13386 -0.145712 0.872708
-0.134687 -0.147196 0.873474
-0.135532 -0.148698 0.874335
-0.136404 -0.150225 0.875345
-0.137206 -0.151693 0.875941
-0.138034 -0.153186 0.876679
-0.138863 -0.15468 0.877412
-0.139651 -0.15614 0.877902
-0.140421 -0.157586 0.878291
-0.141251 -0.159085 0.879005
-0.142039 -0.160549 0.87948
-0.142802 -0.16199 0.879806
-0.143575 -0.163441 0.880182
-0.144311 -0.164862 0.880359
-0.145 -0.166237 0.88026
-0.14572 -0.167643 0.880336
-0.146509 -0.169112 0.880787
-0.147474 -0.170746 0.882192
-0.148561 -0.172499 0.88425
-0.149734 -0.174335 0.886748
-0.15092 -0.176188 0.889303
-0.152097 -0.178037 0.891779
-0.153121 -0.179745 0.893421
-0.154095 -0.181407 0.894777
-0.154984 -0.18299 0.895671
-0.155836 -0.184538 0.896357
-0.156598 -0.186002 0.896569
-0.157339 -0.187443 0.896662
-0.158132 -0.188938 0.897028
-0.158934 -0.190441 0.897434
-0.159781 -0.191991 0.898066
-0.160663 -0.193576 0.898872
-0.161543 -0.195161 0.899664
-0.162334 -0.196658 0.899988
-0.163118 -0.19815 0.900277
-0.163865 -0.199604 0.90037
-0.164649 -0.201096 0.900653
-0.165367 -0.202522 0.900596
-0.0925322 -0.0666326 0.87749
-0.093196 -0.0679703 0.877326
-0.0938227 -0.0692919 0.876874
-0.0943832 -0.0705809 0.875892
-0.0948484 -0.071821 0.874154
-0.095333 -0.0730683 0.872598
-0.0958102 -0.0743082 0.870996
-0.096309 -0.0755558 0.869579
-0.0968866 -0.0768423 0.868791
-0.097517 -0.0781556 0.868421
-0.0981819 -0.0794865 0.868313
-0.0988192 -0.0808025 0.867995
-0.0994768 -0.08213 0.867835
-0.100129 -0.0834541 0.867633
-0.100837 -0.0848101 0.867849
-0.101625 -0.0862132 0.868653
-0.102509 -0.0876754 0.870163
-0.103415 -0.0891545 0.871821
-0.104445 -0.0907118 0.874361
-0.105421 -0.0922411 0.876471
-0.106367 -0.093758 0.878349
-0.107266 -0.0952498 0.879865
-0.108136 -0.0967259 0.881146
-0.108809 -0.0980781 0.881007
-0.109479 -0.0994298 0.880853
-0.110061 -0.100723 0.880076
-0.110648 -0.102018 0.879331
-0.111287 -0.103347 0.878964
-0.111942 -0.104687 0.878707
-0.112582 -0.106017 0.878353
-0.113193 -0.107325 0.877793
-0.113798 -0.108628 0.877198
-0.114365 -0.109906 0.876359
-0.114987 -0.111219 0.875885
-0.115612 -0.112535 0.875439
-0.116264 -0.113869 0.875174
-0.116914 -0.115203 0.874902
-0.117564 -0.116535 0.874628
-0.118214 -0.117869 0.874357
-0.118905 -0.119232 0.874355
-0.11956 -0.120568 0.874112
-0.120211 -0.121902 0.873852
-0.120855 -0.12323 0.873545
-0.1215 -0.124558 0.873236
-0.122108 -0.125857 0.872703
-0.122797 -0.127221 0.87269
-0.123491 -0.128586 0.872692
-0.124184 -0.129953 0.872703
-0.124877 -0.131319 0.872705
-0.125569 -0.132684 0.872691
-0.126232 -0.134028 0.872508
-0.126896 -0.135371 0.872325
-0.12756 -0.136714 0.872142
-0.128224 -0.138057 0.871959
-0.128887 -0.139401 0.871776
-0.129551 -0.140744 0.871592
-0.130228 -0.142099 0.871492
-0.130907 -0.143455 0.871396
-0.131658 -0.144874 0.871737
-0.132432 -0.146313 0.872206
-0.133257 -0.147798 0.87297
-0.134099 -0.149299 0.873827
-0.134986 -0.150841 0.874937
-0.135802 -0.152323 0.875619
-0.136646 -0.15383 0.876454
-0.137473 -0.155326 0.877192
-0.138288 -0.156812 0.877848
-0.139077 -0.158275 0.878344
-0.139924 -0.159791 0.879161
-0.140729 -0.161272 0.879736
-0.141505 -0.162728 0.880144
-0.142278 -0.164181 0.880523
-0.14303 -0.165615 0.880782
-0.143736 -0.167009 0.880782
-0.144492 -0.168448 0.881053
-0.145333 -0.169969 0.881795
-0.146369 -0.171675 0.883599
-0.14751 -0.173485 0.885968
-0.148702 -0.175346 0.888585
-0.149867 -0.177188 0.89104
-0.151001 -0.179003 0.893298
-0.151969 -0.180661 0.894646
-0.152891 -0.182278 0.895729
-0.153763 -0.183847 0.896536
-0.154578 -0.185362 0.897031
-0.155301 -0.186787 0.897031
-0.156001 -0.188191 0.896911
-0.156756 -0.189648 0.897074
-0.157524 -0.19112 0.897308
-0.158352 -0.192652 0.897847
-0.159212 -0.194218 0.898552
-0.160086 -0.195799 0.899319
-0.160877 -0.197297 0.899651
-0.161665 -0.198792 0.89996
-0.162449 -0.200286 0.900251
-0.163235 -0.201781 0.900542
-0.163935 -0.203189 0.900399
-0.167675 -0.205569 0.908495
-0.164703 -0.204666 0.900589
-0.0910824 -0.0672414 0.876579
-0.0917281 -0.0685696 0.876272
-0.0923287 -0.0698776 0.875613
-0.0928762 -0.0711574 0.87452
-0.0933423 -0.0723945 0.87278
-0.093824 -0.0736362 0.871187
-0.0943051 -0.0748747 0.869609
-0.0948151 -0.0761247 0.868272
-0.09538 -0.0774021 0.867384
-0.0959966 -0.0787058 0.866908
-0.0966588 -0.0800344 0.866793
-0.0972837 -0.0813422 0.866389
-0.0979304 -0.0826608 0.866147
-0.0985696 -0.0839759 0.865855
-0.0992532 -0.0853168 0.865901
-0.100003 -0.0866972 0.866442
-0.100858 -0.0881421 0.867766
-0.101735 -0.0896046 0.869241
-0.102771 -0.0911673 0.871867
-0.103791 -0.0927265 0.874349
-0.10481 -0.0942903 0.876791
-0.105783 -0.0958299 0.878868
-0.106735 -0.0973606 0.880766
-0.107467 -0.0987525 0.881061
-0.108176 -0.10013 0.881183
-0.108786 -0.10144 0.88059
-0.109398 -0.102752 0.88002
-0.110039 -0.104083 0.879659
-0.110683 -0.105416 0.879321
-0.111313 -0.106739 0.87889
-0.111899 -0.10803 0.878152
-0.112479 -0.109316 0.87738
-0.113033 -0.110582 0.876435
-0.11364 -0.111885 0.875863
-0.114253 -0.113191 0.875327
-0.114916 -0.114535 0.875144
-0.11558 -0.115878 0.874961
-0.116244 -0.117221 0.874778
-0.116908 -0.118564 0.874595
-0.117624 -0.119948 0.874763
-0.118281 -0.121287 0.874536
-0.118937 -0.122623 0.874291
-0.119583 -0.123953 0.87399
-0.120226 -0.125281 0.873681
-0.120824 -0.126571 0.873065
-0.1215 -0.127924 0.872964
-0.122177 -0.129278 0.872869
-0.122855 -0.130633 0.872777
-0.123532 -0.131987 0.872682
-0.124209 -0.133341 0.87258
-0.124873 -0.134684 0.872397
-0.125537 -0.136027 0.872214
-0.1262 -0.137371 0.87203
-0.126864 -0.138714 0.871847
-0.127528 -0.140057 0.871664
-0.128192 -0.141401 0.871481
-0.128855 -0.142744 0.871298
-0.129532 -0.144099 0.871197
-0.130269 -0.145506 0.871452
-0.131026 -0.146932 0.871829
-0.131849 -0.148415 0.872587
-0.132687 -0.149916 0.873434
-0.133572 -0.151459 0.874545
-0.134401 -0.152954 0.875314
-0.135259 -0.154476 0.876243
-0.136087 -0.155974 0.876992
-0.136932 -0.157488 0.877825
-0.137737 -0.158969 0.878424
-0.138602 -0.160503 0.879347
-0.139424 -0.162003 0.880033
-0.140215 -0.163473 0.880522
-0.141002 -0.164941 0.880986
-0.141771 -0.166393 0.881342
-0.142513 -0.167821 0.881542
-0.143319 -0.169309 0.882094
-0.144214 -0.170884 0.883139
-0.145284 -0.172629 0.885148
-0.14644 -0.174461 0.887614
-0.147611 -0.176309 0.890129
-0.148719 -0.178103 0.892285
-0.149798 -0.17987 0.894256
-0.150729 -0.181497 0.895409
-0.151651 -0.183117 0.896502
-0.152508 -0.184675 0.897233
-0.153323 -0.186192 0.897728
-0.154022 -0.187595 0.897602
-0.154698 -0.188975 0.897349
-0.155415 -0.190396 0.897313
-0.156184 -0.191869 0.897553
-0.156994 -0.193386 0.898007
-0.157851 -0.194949 0.898695
-0.158703 -0.196511 0.899357
-0.159474 -0.19799 0.899585
-0.160246 -0.199471 0.899822
-0.161051 -0.200986 0.900217
-0.161837 -0.202483 0.900516
-0.162553 -0.203907 0.900451
-0.163317 -0.205383 0.900632
-0.166997 -0.207725 0.908452
-0.1641 -0.206878 0.900905
-0.0896475 -0.0678545 0.875769
-0.0902712 -0.069172 0.87529
-0.0908446 -0.0704634 0.874393
-0.0913782 -0.0717347 0.87319
-0.0918461 -0.0729688 0.871452
-0.0923192 -0.074203 0.869784
-0.0928045 -0.0754392 0.868223
-0.0933137 -0.0766865 0.86688
-0.0938561 -0.077949 0.865813
-0.0944502 -0.079238 0.865164
-0.0950999 -0.0805575 0.864957
-0.0957025 -0.0818502 0.864386
-0.0963348 -0.0831589 0.864047
-0.0969602 -0.0844636 0.863658
-0.0976192 -0.0857872 0.863526
-0.0983303 -0.0871436 0.863799
-0.0991647 -0.0885756 0.864995
-0.100009 -0.0900175 0.866257
-0.100993 -0.0915492 0.868541
-0.102038 -0.0931255 0.871259
-0.103139 -0.0947434 0.874352
-0.104189 -0.0963351 0.877037
-0.105229 -0.0979271 0.879624
-0.106079 -0.0993964 0.880783
-0.106837 -0.100807 0.881262
-0.107462 -0.102128 0.880776
-0.10809 -0.10345 0.880313
-0.108743 -0.104789 0.880033
-0.109386 -0.106122 0.879687
-0.110016 -0.107444 0.879242
-0.110589 -0.108726 0.878409
-0.111157 -0.110001 0.877537
-0.111697 -0.111257 0.876494
-0.112292 -0.112551 0.875833
-0.112893 -0.113848 0.875216
-0.113545 -0.115182 0.874952
-0.114208 -0.116525 0.874762
-0.114871 -0.117867 0.874576
-0.115535 -0.119211 0.874395
-0.116265 -0.120605 0.874652
-0.116947 -0.121964 0.874594
-0.117616 -0.123311 0.87444
-0.118276 -0.124652 0.874227
-0.118933 -0.12599 0.874001
-0.119531 -0.127281 0.873384
-0.120194 -0.128624 0.873201
-0.120858 -0.129968 0.873018
-0.121522 -0.131311 0.872835
-0.122186 -0.132654 0.872652
-0.122849 -0.133997 0.872469
-0.123513 -0.135341 0.872285
-0.124177 -0.136684 0.872102
-0.124841 -0.138027 0.871919
-0.125504 -0.139371 0.871736
-0.126168 -0.140714 0.871553
-0.126832 -0.142057 0.87137
-0.12751 -0.143412 0.871269
-0.128203 -0.144781 0.871262
-0.12894 -0.14619 0.871529
-0.129684 -0.147605 0.871825
-0.130501 -0.149087 0.872565
-0.13131 -0.150561 0.873236
-0.132163 -0.152079 0.874173
-0.13299 -0.153574 0.874939
-0.133847 -0.155098 0.875876
-0.134675 -0.156597 0.876633
-0.135536 -0.158129 0.877573
-0.13637 -0.159636 0.878342
-0.137251 -0.16119 0.87938
-0.138103 -0.162719 0.880238
-0.138911 -0.164208 0.880835
-0.139728 -0.165706 0.881474
-0.14053 -0.167191 0.882018
-0.141322 -0.168668 0.882501
-0.142198 -0.170227 0.883453
-0.143159 -0.17187 0.884874
-0.144246 -0.173637 0.886983
-0.145381 -0.175455 0.889344
-0.146508 -0.177268 0.891633
-0.147561 -0.179014 0.893494
-0.148584 -0.180733 0.895179
-0.149515 -0.182362 0.896333
-0.15044 -0.183989 0.897445
-0.151301 -0.185553 0.8982
-0.152116 -0.187073 0.898697
-0.152798 -0.18846 0.898475
-0.153438 -0.189804 0.898026
-0.154137 -0.191208 0.89789
-0.154886 -0.192663 0.898027
-0.155663 -0.194147 0.898307
-0.1565 -0.195693 0.898898
-0.157331 -0.197234 0.899453
-0.158081 -0.198692 0.899574
-0.158851 -0.200173 0.8998
-0.159672 -0.201706 0.900287
-0.16046 -0.203207 0.900598
-0.161196 -0.204652 0.900637
-0.161958 -0.206126 0.900807
-0.162722 -0.207604 0.900985
-0.166318 -0.209882 0.908405
-0.163439 -0.209031 0.90092
-0.0876156 -0.0671612 0.875651
-0.088222 -0.0684699 0.875021
-0.0888224 -0.0697751 0.874348
-0.0893784 -0.0710565 0.873308
-0.0899001 -0.072318 0.87199
-0.0903789 -0.0735546 0.870335
-0.0908556 -0.0747873 0.868683
-0.0913521 -0.0760266 0.867205
-0.09186 -0.0772704 0.865844
-0.0923909 -0.0785238 0.864676
-0.0929642 -0.0797997 0.863865
-0.0935921 -0.0811047 0.863489
-0.094172 -0.0823821 0.862742
-0.0947787 -0.0836742 0.862211
-0.0953898 -0.0849678 0.861718
-0.0960145 -0.0862684 0.861329
-0.0966785 -0.0875937 0.861251
-0.0974584 -0.088992 0.862064
-0.0982574 -0.0904046 0.863011
-0.0991617 -0.0918866 0.864742
-0.100153 -0.0934295 0.86711
-0.101346 -0.0951089 0.87095
-0.102506 -0.096776 0.874511
-0.103654 -0.0984414 0.87793
-0.104651 -0.100012 0.880203
-0.105545 -0.101517 0.88169
-0.106187 -0.10285 0.881322
-0.10683 -0.104183 0.880962
-0.107507 -0.105541 0.880856
-0.108139 -0.106865 0.880413
-0.108741 -0.108168 0.879772
-0.109301 -0.109438 0.878825
-0.109843 -0.110695 0.87777
-0.11035 -0.111924 0.876475
-0.110921 -0.113199 0.87564
-0.111509 -0.114485 0.874927
-0.112134 -0.115799 0.874484
-0.112785 -0.117132 0.87421
-0.113459 -0.118483 0.874103
-0.114136 -0.119836 0.874014
-0.114879 -0.121241 0.874364
-0.115576 -0.122611 0.8744
-0.116268 -0.123978 0.874411
-0.116942 -0.125329 0.874287
-0.1176 -0.126669 0.874069
-0.118199 -0.12796 0.873453
-0.118862 -0.129302 0.87326
-0.119512 -0.130634 0.872989
-0.120163 -0.131967 0.872723
-0.120827 -0.13331 0.87254
-0.121491 -0.134654 0.872357
-0.122155 -0.135997 0.872174
-0.122818 -0.13734 0.871991
-0.123482 -0.138684 0.871808
-0.124146 -0.140027 0.871625
-0.12481 -0.14137 0.871441
-0.125487 -0.142725 0.871341
-0.126179 -0.144094 0.871334
-0.126888 -0.145478 0.87143
-0.127628 -0.14689 0.871711
-0.128371 -0.148306 0.872011
-0.12917 -0.149774 0.872645
-0.12996 -0.151234 0.873216
-0.130783 -0.152725 0.873972
-0.131592 -0.154206 0.874646
-0.132446 -0.155729 0.875571
-0.133273 -0.157229 0.87633
-0.134134 -0.158763 0.877283
-0.134996 -0.1603 0.878229
-0.135906 -0.161884 0.879448
-0.136775 -0.16343 0.880408
-0.1376 -0.164936 0.881108
-0.138448 -0.166466 0.881928
-0.139282 -0.167986 0.882669
-0.140141 -0.16953 0.883538
-0.14107 -0.171144 0.884797
-0.142084 -0.172843 0.886525
-0.143171 -0.174616 0.888642
-0.144282 -0.176418 0.890882
-0.145351 -0.178181 0.892864
-0.14635 -0.179878 0.894434
-0.147338 -0.181566 0.895929
-0.148284 -0.183215 0.897177
-0.149227 -0.184864 0.898395
-0.150092 -0.186437 0.89918
-0.150926 -0.187979 0.899785
-0.151609 -0.189366 0.899558
-0.152234 -0.190695 0.899019
-0.152899 -0.192064 0.898698
-0.15363 -0.193503 0.898739
-0.154388 -0.194969 0.898915
-0.155189 -0.19648 0.899321
-0.155984 -0.197985 0.899685
-0.156712 -0.199422 0.899692
-0.15746 -0.20088 0.899804
-0.158262 -0.202396 0.900197
-0.15905 -0.203898 0.900515
-0.159806 -0.205365 0.900657
-0.160572 -0.206844 0.900849
-0.161335 -0.20832 0.901022
-0.162048 -0.209743 0.900939
-0.165689 -0.212093 0.908613
-0.162817 -0.211228 0.901139
-0.086836 -0.069104 0.8746
-0.0874242 -0.0704013 0.873814
-0.0879755 -0.0716785 0.872727
-0.0884777 -0.072928 0.871239
-0.0889494 -0.0741579 0.869509
-0.0894189 -0.0753828 0.867778
-0.0899063 -0.076615 0.866221
-0.0904052 -0.0778501 0.86477
-0.0909355 -0.0791008 0.863594
-0.0914979 -0.0803675 0.862687
-0.0921032 -0.0816591 0.862142
-0.0926702 -0.0829262 0.86129
-0.0932532 -0.0842012 0.860571
-0.0938411 -0.0854788 0.859902
-0.0944316 -0.0867565 0.859255
-0.0950487 -0.0880505 0.858826
-0.095776 -0.0894147 0.859257
-0.0965118 -0.090785 0.859742
-0.097326 -0.0922082 0.860822
-0.0982454 -0.0937036 0.862689
-0.0993891 -0.095353 0.866231
-0.100519 -0.0970009 0.869627
-0.10177 -0.0987389 0.87389
-0.102926 -0.100421 0.877402
-0.103982 -0.102039 0.880118
-0.104768 -0.103472 0.880821
-0.105557 -0.104909 0.881532
-0.106248 -0.106277 0.881515
-0.106855 -0.107585 0.880897
-0.107434 -0.108869 0.880069
-0.107978 -0.110128 0.87901
-0.108485 -0.111356 0.877685
-0.108955 -0.112556 0.876124
-0.109487 -0.1138 0.875011
-0.110035 -0.115054 0.874016
-0.110622 -0.116335 0.873297
-0.111257 -0.117655 0.872925
-0.111943 -0.119014 0.872904
-0.112659 -0.120399 0.873093
-0.113429 -0.121826 0.873641
-0.114176 -0.123236 0.874025
-0.114921 -0.124645 0.874386
-0.115623 -0.12602 0.874454
-0.116298 -0.127373 0.874339
-0.116909 -0.128674 0.873803
-0.117557 -0.130004 0.87351
-0.118179 -0.131314 0.873054
-0.118816 -0.132634 0.872695
-0.119467 -0.133967 0.872429
-0.120131 -0.13531 0.872246
-0.120795 -0.136654 0.872063
-0.121459 -0.137997 0.871879
-0.122122 -0.13934 0.871696
-0.122799 -0.140695 0.871596
-0.123464 -0.142039 0.871419
-0.124156 -0.143407 0.871409
-0.124863 -0.14479 0.8715
-0.125588 -0.146189 0.871696
-0.126317 -0.147593 0.871912
-0.127071 -0.149019 0.872275
-0.127853 -0.150473 0.872811
-0.128626 -0.15192 0.873283
-0.129417 -0.153384 0.873857
-0.130208 -0.154849 0.874423
-0.131026 -0.156342 0.87515
-0.131837 -0.157829 0.875823
-0.132694 -0.159361 0.876764
-0.133559 -0.160901 0.877734
-0.134481 -0.1625 0.879038
-0.135379 -0.164078 0.880189
-0.136234 -0.165615 0.88107
-0.137099 -0.167165 0.882005
-0.137995 -0.168745 0.883102
-0.138904 -0.170341 0.884269
-0.139871 -0.171996 0.885754
-0.14092 -0.173736 0.887695
-0.142005 -0.175514 0.889818
-0.143096 -0.177301 0.891957
-0.144142 -0.179048 0.893825
-0.145121 -0.18073 0.895292
-0.146095 -0.182408 0.896715
-0.147072 -0.184094 0.898149
-0.148017 -0.185748 0.899387
-0.1489 -0.187341 0.900267
-0.14975 -0.188902 0.900962
-0.150452 -0.190312 0.900837
-0.151064 -0.191628 0.90022
-0.151728 -0.192995 0.899886
-0.152423 -0.194397 0.899724
-0.153142 -0.195824 0.899693
-0.153907 -0.1973 0.899901
-0.154681 -0.198785 0.900158
-0.155374 -0.200186 0.899981
-0.156119 -0.201641 0.900075
-0.156918 -0.203156 0.900459
-0.157708 -0.204661 0.900788
-0.158466 -0.206131 0.900938
-0.159234 -0.207613 0.90114
-0.159977 -0.20907 0.901219
-0.160671 -0.210473 0.901034
-0.161402 -0.211915 0.901037
-0.163571 -0.212695 0.901258
-0.162133 -0.21336 0.901045
-0.165788 -0.215752 0.908778
-0.162846 -0.214784 0.900957
-0.0854787 -0.0697515 0.874421
-0.0860496 -0.0710387 0.873477
-0.0865727 -0.0722996 0.872139
-0.0870688 -0.0735423 0.870578
-0.0875419 -0.0747705 0.868848
-0.0880041 -0.0759889 0.867045
-0.0884946 -0.077219 0.865492
-0.0889837 -0.0784465 0.863954
-0.0895049 -0.0796893 0.862693
-0.0900573 -0.080948 0.861699
-0.0906508 -0.082231 0.861061
-0.0912067 -0.0834888 0.860114
-0.091767 -0.0847484 0.859216
-0.0923328 -0.0860099 0.858371
-0.0928903 -0.0872641 0.857464
-0.0934731 -0.0885339 0.856771
-0.0941516 -0.0898644 0.856831
-0.0948463 -0.091207 0.857022
-0.0955769 -0.0925732 0.857478
-0.0964251 -0.0940215 0.858844
-0.0974816 -0.0956147 0.861784
-0.0985205 -0.0972013 0.864551
-0.0997358 -0.098918 0.868626
-0.100918 -0.100619 0.872399
-0.102106 -0.102333 0.876173
-0.103057 -0.103883 0.878134
-0.104018 -0.105444 0.880147
-0.104827 -0.106898 0.881009
-0.105533 -0.108277 0.881108
-0.106087 -0.109543 0.880096
-0.106596 -0.110773 0.87877
-0.107053 -0.111961 0.877075
-0.107474 -0.113119 0.875145
-0.107952 -0.114319 0.873642
-0.108457 -0.115537 0.872342
-0.109014 -0.116793 0.871422
-0.109648 -0.118109 0.871042
-0.110371 -0.119497 0.871292
-0.111139 -0.120922 0.871851
-0.111976 -0.122405 0.872873
-0.112802 -0.12388 0.873807
-0.113613 -0.125346 0.874634
-0.114346 -0.126747 0.874909
-0.115036 -0.128115 0.874904
-0.115637 -0.129405 0.874279
-0.116255 -0.13071 0.873785
-0.116848 -0.131995 0.873132
-0.117471 -0.133302 0.872671
-0.118108 -0.134624 0.872317
-0.118772 -0.135967 0.872134
-0.119435 -0.13731 0.871951
-0.120112 -0.138665 0.871851
-0.12079 -0.14002 0.871755
-0.121481 -0.141389 0.871752
-0.122161 -0.142747 0.871666
-0.122867 -0.144128 0.87175
-0.123589 -0.145526 0.871933
-0.12433 -0.146941 0.872227
-0.125058 -0.148345 0.872439
-0.125811 -0.149772 0.8728
-0.126577 -0.151212 0.873236
-0.127319 -0.152633 0.873527
-0.128066 -0.154057 0.873837
-0.128824 -0.155493 0.874209
-0.129594 -0.156942 0.874652
-0.130385 -0.15841 0.875208
-0.131211 -0.159915 0.875978
-0.132059 -0.161442 0.876865
-0.132965 -0.163027 0.878088
-0.133876 -0.164619 0.879327
-0.134731 -0.166159 0.880223
-0.135626 -0.16774 0.881345
-0.136552 -0.169353 0.882638
-0.137508 -0.170998 0.884085
-0.138506 -0.172688 0.885768
-0.139586 -0.174464 0.887905
-0.140669 -0.176245 0.890033
-0.141754 -0.178034 0.892165
-0.142813 -0.179798 0.894119
-0.143826 -0.181518 0.895789
-0.144834 -0.183236 0.897419
-0.145879 -0.184995 0.899241
-0.146873 -0.186704 0.90076
-0.147757 -0.188302 0.901654
-0.148605 -0.189865 0.902337
-0.149306 -0.191273 0.902196
-0.149903 -0.192574 0.901487
-0.150554 -0.193929 0.901075
-0.151245 -0.195328 0.900887
-0.151925 -0.196715 0.900639
-0.152667 -0.198167 0.900722
-0.153407 -0.199618 0.900794
-0.154066 -0.200983 0.900434
-0.154794 -0.202421 0.900438
-0.155574 -0.203916 0.900723
-0.156345 -0.205402 0.90095
-0.157102 -0.206874 0.901104
-0.157886 -0.208375 0.901395
-0.158614 -0.209815 0.901389
-0.159307 -0.211217 0.901198
-0.160017 -0.212638 0.901096
-0.160728 -0.21406 0.901
-0.161422 -0.215464 0.900818
-0.165002 -0.217799 0.908197
-0.162061 -0.216805 0.900347
-0.0835181 -0.0690939 0.874909
-0.0841013 -0.0703879 0.874058
-0.0846471 -0.0716608 0.872891
-0.085183 -0.0729259 0.87165
-0.0856807 -0.0741673 0.870089
-0.0861569 -0.0753939 0.868366
-0.0866208 -0.0766103 0.866558
-0.0871104 -0.0778382 0.864989
-0.0875924 -0.0790582 0.863372
-0.0881143 -0.0802992 0.862107
-0.0886497 -0.0815457 0.860965
-0.0892228 -0.0828143 0.860153
-0.0897564 -0.0840566 0.859022
-0.0902861 -0.0852943 0.857871
-0.0908218 -0.0865333 0.856776
-0.0913675 -0.087778 0.855781
-0.0919269 -0.0890299 0.854904
-0.0925799 -0.090342 0.854775
-0.0932598 -0.0916726 0.85486
-0.0939333 -0.0929998 0.854894
-0.0946976 -0.0943898 0.855633
-0.0956538 -0.0959158 0.857851
-0.0965742 -0.0974206 0.859762
-0.0976636 -0.0990515 0.862953
-0.0988048 -0.100724 0.866489
-0.0999881 -0.102437 0.870308
-0.101085 -0.104092 0.873421
-0.102212 -0.105775 0.876723
-0.103203 -0.107366 0.878984
-0.104038 -0.10884 0.880047
-0.104688 -0.110177 0.879738
-0.105146 -0.111366 0.87803
-0.10555 -0.11251 0.87594
-0.105885 -0.113596 0.873372
-0.106313 -0.114751 0.871498
-0.1068 -0.115951 0.870076
-0.107342 -0.117192 0.869047
-0.107974 -0.118504 0.868668
-0.108734 -0.119921 0.869192
-0.109567 -0.1214 0.870229
-0.110472 -0.122939 0.871746
-0.111379 -0.124484 0.873262
-0.11227 -0.126018 0.874642
-0.113046 -0.127457 0.875222
-0.113752 -0.128838 0.875318
-0.11435 -0.130126 0.874674
-0.114952 -0.131418 0.874068
-0.115517 -0.132676 0.873212
-0.116125 -0.133971 0.872651
-0.116749 -0.13528 0.872206
-0.117413 -0.136623 0.872023
-0.118077 -0.137966 0.87184
-0.118767 -0.139333 0.871827
-0.119459 -0.140703 0.871831
-0.120167 -0.142086 0.871932
-0.120862 -0.143459 0.871947
-0.121583 -0.144856 0.872126
-0.122316 -0.146265 0.872384
-0.123057 -0.147681 0.872682
-0.123785 -0.149087 0.872895
-0.124538 -0.150515 0.873256
-0.125288 -0.151943 0.873599
-0.126004 -0.153338 0.87372
-0.126718 -0.154734 0.873834
-0.127443 -0.15614 0.87401
-0.128168 -0.157545 0.874175
-0.128937 -0.158995 0.874617
-0.129731 -0.16047 0.875198
-0.130561 -0.161979 0.875981
-0.131448 -0.163549 0.877113
-0.132366 -0.165152 0.878414
-0.133235 -0.166706 0.879403
-0.134161 -0.16832 0.880724
-0.135118 -0.169968 0.882213
-0.136101 -0.171644 0.88384
-0.13711 -0.173349 0.885603
-0.13817 -0.17511 0.887646
-0.139234 -0.176878 0.88969
-0.140317 -0.178668 0.891821
-0.141422 -0.180484 0.894059
-0.142488 -0.182265 0.896055
-0.143585 -0.18408 0.898205
-0.144717 -0.185935 0.900533
-0.145746 -0.187686 0.902256
-0.146627 -0.189286 0.903136
-0.147472 -0.190846 0.903796
-0.148156 -0.192239 0.903562
-0.148723 -0.193507 0.902675
-0.149356 -0.194845 0.902158
-0.150012 -0.196208 0.901774
-0.150657 -0.197556 0.901327
-0.151362 -0.198969 0.901205
-0.152083 -0.200402 0.901181
-0.152744 -0.201766 0.900816
-0.153471 -0.203206 0.900826
-0.154233 -0.204682 0.90101
-0.154985 -0.206149 0.901139
-0.15572 -0.207597 0.901176
-0.156486 -0.209079 0.90137
-0.157196 -0.2105 0.901273
-0.157888 -0.211902 0.901082
-0.158581 -0.213304 0.900891
-0.159274 -0.214705 0.9007
-0.159967 -0.216107 0.900508
-0.160624 -0.21747 0.900135
-0.0822428 -0.0697857 0.875473
-0.0827636 -0.0710455 0.874049
-0.0832728 -0.0722965 0.87254
-0.0838057 -0.0735584 0.871263
-0.0842966 -0.074793 0.869623
-0.0847652 -0.0760129 0.867819
-0.0852306 -0.0772262 0.866
-0.0857209 -0.0784516 0.864422
-0.0862037 -0.0796695 0.862797
-0.0867466 -0.0809218 0.861705
-0.087274 -0.0821613 0.860484
-0.0878375 -0.0834219 0.859582
-0.0883507 -0.0846489 0.858273
-0.0888484 -0.0858641 0.856853
-0.0893525 -0.0870801 0.855496
-0.0898868 -0.0883145 0.854404
-0.0904272 -0.0895506 0.853369
-0.0910602 -0.0908477 0.853088
-0.0917363 -0.0921751 0.853159
-0.0924069 -0.0934995 0.853185
-0.0931184 -0.0948526 0.853528
-0.0939752 -0.0963098 0.855004
-0.094784 -0.097736 0.856086
-0.0957511 -0.0992793 0.858381
-0.0967851 -0.100876 0.861161
-0.0979591 -0.102583 0.864983
-0.0991137 -0.104284 0.868613
-0.100329 -0.106038 0.872659
-0.101397 -0.107686 0.875536
-0.102298 -0.109211 0.877129
-0.102956 -0.110552 0.876899
-0.103433 -0.11175 0.875327
-0.103853 -0.1129 0.87335
-0.104184 -0.113976 0.870734
-0.10461 -0.115124 0.868848
-0.10511 -0.11633 0.867513
-0.105665 -0.117578 0.866589
-0.10631 -0.118898 0.866315
-0.107105 -0.120343 0.86711
-0.107988 -0.121865 0.868521
-0.108947 -0.123451 0.870441
-0.109909 -0.125045 0.872363
-0.110865 -0.126637 0.874225
-0.11169 -0.128121 0.875157
-0.112409 -0.129513 0.875342
-0.113018 -0.130811 0.874769
-0.113618 -0.1321 0.874146
-0.11417 -0.133345 0.873192
-0.114765 -0.134629 0.872546
-0.11539 -0.135936 0.872095
-0.116053 -0.13728 0.871911
-0.116717 -0.138623 0.871728
-0.117408 -0.139991 0.871725
-0.118115 -0.141374 0.871825
-0.11884 -0.142774 0.872038
-0.11955 -0.144162 0.872156
-0.120296 -0.145583 0.872498
-0.121043 -0.147006 0.872846
-0.121784 -0.148423 0.873139
-0.122513 -0.149831 0.873363
-0.123265 -0.151261 0.873721
-0.124002 -0.152677 0.873981
-0.1247 -0.154057 0.873995
-0.125398 -0.155437 0.874003
-0.126093 -0.156814 0.873994
-0.126785 -0.15819 0.873968
-0.127511 -0.159598 0.874143
-0.128285 -0.161055 0.874612
-0.129081 -0.162533 0.875205
-0.129947 -0.164084 0.876218
-0.13086 -0.165683 0.877505
-0.13174 -0.167252 0.878578
-0.132667 -0.16887 0.879923
-0.133638 -0.170535 0.881515
-0.134617 -0.172211 0.883138
-0.135606 -0.173899 0.884798
-0.136628 -0.175625 0.88664
-0.137653 -0.177357 0.888482
-0.138699 -0.179115 0.890428
-0.139863 -0.180997 0.893033
-0.141014 -0.182871 0.89554
-0.142235 -0.184822 0.898428
-0.143475 -0.186797 0.901393
-0.1446 -0.188656 0.903677
-0.145482 -0.190259 0.90456
-0.14632 -0.191816 0.905187
-0.146985 -0.19319 0.904835
-0.147553 -0.194457 0.903939
-0.148174 -0.195782 0.903343
-0.148813 -0.197125 0.902856
-0.149421 -0.198435 0.902199
-0.150091 -0.199812 0.901891
-0.150778 -0.201208 0.901674
-0.151424 -0.202557 0.901228
-0.152135 -0.203977 0.901137
-0.152876 -0.205433 0.901217
-0.153608 -0.206877 0.901235
-0.154322 -0.208304 0.901164
-0.155069 -0.209765 0.90126
-0.155778 -0.211185 0.901157
-0.15647 -0.212587 0.900966
-0.157163 -0.213989 0.900775
-0.157855 -0.21539 0.900583
-0.158548 -0.216792 0.900392
-0.159224 -0.218175 0.900113
-0.162759 -0.220503 0.907355
-0.159864 -0.219516 0.899647
-0.0804306 -0.0692087 0.877363
-0.0809792 -0.0704852 0.876156
-0.0814746 -0.0717304 0.874483
-0.0819566 -0.0729648 0.87271
-0.0824794 -0.0742186 0.871319
-0.0829623 -0.0754468 0.869591
-0.0834236 -0.0766599 0.867701
-0.0838716 -0.07786 0.865708
-0.0843534 -0.0790778 0.86404
-0.0848378 -0.080294 0.862412
-0.0853761 -0.0815405 0.861262
-0.0858953 -0.082774 0.859971
-0.086449 -0.084026 0.858975
-0.0869476 -0.0852411 0.857532
-0.087424 -0.0864395 0.855923
-0.0879081 -0.0876389 0.854388
-0.0884417 -0.0888707 0.853289
-0.0889831 -0.0901047 0.852256
-0.089607 -0.0913947 0.851908
-0.0902832 -0.0927215 0.851989
-0.0909547 -0.0940455 0.85203
-0.0916663 -0.0953976 0.852379
-0.0924075 -0.0967739 0.852969
-0.0930908 -0.0981078 0.853084
-0.0939577 -0.099579 0.85464
-0.0948799 -0.101095 0.856606
-0.0959523 -0.102729 0.859715
-0.0971423 -0.104459 0.863692
-0.0983965 -0.106245 0.868106
-0.0995011 -0.107924 0.871327
-0.10046 -0.109495 0.873411
-0.101158 -0.110864 0.873502
-0.101658 -0.112074 0.872098
-0.102102 -0.113237 0.870296
-0.102459 -0.114328 0.867877
-0.102906 -0.115486 0.866128
-0.103434 -0.116711 0.865009
-0.104018 -0.117979 0.864296
-0.104688 -0.119318 0.864211
-0.105493 -0.120772 0.865103
-0.10643 -0.12234 0.866925
-0.107424 -0.12396 0.869129
-0.108434 -0.1256 0.871425
-0.109437 -0.127236 0.873638
-0.110309 -0.128762 0.87491
-0.11103 -0.130156 0.875113
-0.111651 -0.131465 0.87463
-0.112254 -0.132755 0.874015
-0.112808 -0.134001 0.873072
-0.113417 -0.135295 0.87251
-0.114056 -0.136616 0.872154
-0.114733 -0.137972 0.872062
-0.11541 -0.139328 0.871967
-0.116113 -0.140708 0.872045
-0.116821 -0.142092 0.872151
-0.117558 -0.143506 0.872449
-0.118284 -0.144908 0.872665
-0.119032 -0.146333 0.873023
-0.11978 -0.147759 0.87338
-0.120519 -0.149177 0.873669
-0.121236 -0.150574 0.87381
-0.121973 -0.151991 0.87408
-0.122709 -0.153408 0.874337
-0.123393 -0.154775 0.87426
-0.124076 -0.156141 0.874172
-0.124756 -0.157503 0.874062
-0.12542 -0.158851 0.873862
-0.126102 -0.160216 0.87377
-0.126857 -0.161656 0.874131
-0.127622 -0.163103 0.874537
-0.128456 -0.164624 0.875368
-0.129364 -0.166222 0.876645
-0.130255 -0.167804 0.877801
-0.131182 -0.169425 0.879159
-0.132166 -0.171107 0.880851
-0.133126 -0.172767 0.882379
-0.134091 -0.174435 0.883917
-0.135073 -0.176124 0.885546
-0.136045 -0.177803 0.887091
-0.137019 -0.17949 0.888644
-0.138295 -0.181496 0.891939
-0.139564 -0.1835 0.89516
-0.140917 -0.185599 0.898835
-0.142277 -0.187712 0.902525
-0.143527 -0.189712 0.905542
-0.144374 -0.19128 0.906221
-0.145179 -0.192805 0.906663
-0.14583 -0.194164 0.906223
-0.1464 -0.195434 0.905327
-0.147003 -0.19674 0.904624
-0.147626 -0.198065 0.904032
-0.148199 -0.199336 0.903175
-0.148836 -0.200676 0.902668
-0.149489 -0.202034 0.90226
-0.150116 -0.203362 0.901708
-0.150808 -0.204764 0.90152
-0.151534 -0.206202 0.901509
-0.152244 -0.207623 0.901415
-0.152939 -0.209028 0.90124
-0.153666 -0.210468 0.901232
-0.154359 -0.21187 0.90104
-0.155052 -0.213272 0.900849
-0.155744 -0.214674 0.900658
-0.156437 -0.216075 0.900467
-0.15713 -0.217477 0.900276
-0.157823 -0.218879 0.900085
-0.158515 -0.220281 0.899895
-0.0786007 -0.0686239 0.879167
-0.0791185 -0.0698852 0.87764
-0.079658 -0.0711551 0.876329
-0.0801593 -0.0724018 0.874688
-0.0806501 -0.0736388 0.872969
-0.0811659 -0.0748875 0.8715
-0.0816317 -0.0761036 0.869599
-0.0820935 -0.0773135 0.867684
-0.0825226 -0.0784996 0.865503
-0.0829977 -0.0797103 0.863753
-0.0834767 -0.0809203 0.862059
-0.0840166 -0.0821659 0.860912
-0.0845279 -0.0833918 0.859537
-0.0850799 -0.0846416 0.858523
-0.0855687 -0.0858479 0.856985
-0.086037 -0.0870364 0.855282
-0.0865102 -0.0882266 0.85365
-0.087055 -0.0894629 0.85263
-0.0875977 -0.0906966 0.851607
-0.0882229 -0.0919864 0.85127
-0.0889086 -0.0933202 0.851436
-0.0895882 -0.0946493 0.851543
-0.0902994 -0.0960029 0.851906
-0.0910513 -0.0973872 0.852587
-0.0917464 -0.098731 0.852806
-0.0925203 -0.100135 0.853644
-0.0933398 -0.101575 0.854828
-0.0942995 -0.103127 0.8571
-0.0953905 -0.104785 0.860365
-0.096542 -0.106497 0.864061
-0.0976313 -0.108167 0.867231
-0.0986178 -0.109761 0.86957
-0.0993478 -0.111152 0.869925
-0.0998825 -0.112386 0.868802
-0.100385 -0.113591 0.867437
-0.100811 -0.11473 0.865518
-0.10131 -0.115928 0.864159
-0.101891 -0.117193 0.863427
-0.102514 -0.118492 0.863005
-0.103197 -0.119842 0.863026
-0.104031 -0.121322 0.864146
-0.104999 -0.12292 0.866219
-0.106012 -0.124562 0.868591
-0.107043 -0.126224 0.871065
-0.108064 -0.127881 0.873435
-0.108935 -0.129408 0.874712
-0.109632 -0.130783 0.874753
-0.110257 -0.132094 0.874295
-0.110863 -0.133386 0.873696
-0.111433 -0.134644 0.872857
-0.112045 -0.13594 0.872314
-0.11271 -0.137286 0.872141
-0.113402 -0.138656 0.872149
-0.114094 -0.140026 0.872154
-0.11481 -0.141418 0.872318
-0.115528 -0.142814 0.872494
-0.116263 -0.144226 0.872779
-0.117001 -0.145643 0.873084
-0.117752 -0.147071 0.87346
-0.118502 -0.148501 0.873829
-0.119241 -0.149919 0.87412
-0.119954 -0.151313 0.874234
-0.120664 -0.152705 0.874328
-0.121398 -0.154122 0.874578
-0.12207 -0.155478 0.874423
-0.122741 -0.156832 0.87426
-0.123405 -0.158179 0.874054
-0.124068 -0.159525 0.873842
-0.124733 -0.160875 0.873649
-0.125474 -0.1623 0.873921
-0.126221 -0.163732 0.874226
-0.127026 -0.165226 0.874893
-0.127904 -0.166795 0.875995
-0.128779 -0.168363 0.877066
-0.129688 -0.169968 0.878332
-0.130653 -0.171634 0.879929
-0.131607 -0.173292 0.881441
-0.132566 -0.174957 0.882966
-0.133512 -0.17661 0.884394
-0.13443 -0.178236 0.885643
-0.135332 -0.179848 0.886785
-0.136568 -0.181819 0.889885
-0.13795 -0.183952 0.893812
-0.139447 -0.186215 0.898372
-0.140978 -0.188521 0.903083
-0.142391 -0.190707 0.907072
-0.143228 -0.192269 0.907698
-0.14402 -0.193781 0.908056
-0.144672 -0.195141 0.907613
-0.145247 -0.196416 0.906734
-0.14582 -0.197688 0.905849
-0.146423 -0.198992 0.905142
-0.146961 -0.200223 0.904073
-0.147558 -0.20152 0.903347
-0.148161 -0.20282 0.902648
-0.148785 -0.204145 0.902072
-0.149445 -0.205509 0.901697
-0.150152 -0.206928 0.901591
-0.150845 -0.20833 0.901403
-0.151539 -0.209733 0.901219
-0.152248 -0.211153 0.901115
-0.152924 -0.212536 0.900837
-0.153616 -0.213937 0.900639
-0.154307 -0.215338 0.900445
-0.155001 -0.21674 0.900256
-0.155695 -0.218143 0.900072
-0.156404 -0.219564 0.899969
-0.157115 -0.220987 0.899873
-0.0771644 -0.0692339 0.878287
-0.0777166 -0.0705115 0.877071
-0.0782656 -0.0717855 0.875844
-0.0787811 -0.0730377 0.874318
-0.0792902 -0.0742823 0.872745
-0.0798266 -0.0755411 0.871447
-0.0802861 -0.07675 0.869461
-0.0807549 -0.0779623 0.867594
-0.0811945 -0.0791512 0.865476
-0.0816622 -0.0803547 0.863639
-0.0821524 -0.0815697 0.862028
-0.0827114 -0.0828262 0.861035
-0.0832239 -0.0840512 0.859654
-0.0837674 -0.085294 0.858553
-0.084251 -0.0864936 0.856945
-0.0847114 -0.0876754 0.855165
-0.08518 -0.0888588 0.853469
-0.0857256 -0.0900947 0.852449
-0.0862709 -0.0913279 0.851433
-0.0869051 -0.0926246 0.851173
-0.0875909 -0.0939579 0.851337
-0.0882687 -0.0952872 0.851438
-0.0889782 -0.0966407 0.851796
-0.0897385 -0.0980328 0.852555
-0.090455 -0.0993941 0.852953
-0.0912341 -0.100804 0.853845
-0.0920659 -0.102257 0.855142
-0.0929346 -0.103742 0.856717
-0.0939213 -0.105324 0.859202
-0.0949515 -0.106946 0.861998
-0.0959402 -0.108539 0.86443
-0.0968384 -0.110063 0.866132
-0.0975927 -0.111473 0.866706
-0.09818 -0.112745 0.865985
-0.0987483 -0.114 0.865125
-0.0992537 -0.115201 0.863799
-0.0998151 -0.116448 0.862908
-0.100455 -0.117762 0.862621
-0.101101 -0.119079 0.862371
-0.101795 -0.120439 0.86248
-0.10265 -0.121939 0.863763
-0.103638 -0.123559 0.866012
-0.104649 -0.125205 0.868402
-0.105679 -0.126871 0.870892
-0.106691 -0.128526 0.873231
-0.107545 -0.130041 0.874402
-0.108217 -0.131394 0.874272
-0.108856 -0.132716 0.873905
-0.109474 -0.134018 0.873392
-0.110059 -0.135288 0.872648
-0.110673 -0.136586 0.872117
-0.111353 -0.137944 0.872043
-0.112047 -0.139317 0.872075
-0.112742 -0.14069 0.872098
-0.113446 -0.142072 0.872185
-0.114161 -0.143467 0.872349
-0.114894 -0.144877 0.872623
-0.115631 -0.146294 0.872922
-0.116384 -0.147725 0.873316
-0.117145 -0.149167 0.873767
-0.117881 -0.150584 0.874044
-0.11859 -0.151976 0.874141
-0.119298 -0.153366 0.874222
-0.120045 -0.154796 0.874555
-0.120718 -0.156153 0.874409
-0.12139 -0.157508 0.874251
-0.122053 -0.158855 0.874041
-0.122715 -0.1602 0.873818
-0.123367 -0.161535 0.873537
-0.124107 -0.16296 0.873809
-0.124852 -0.164393 0.874114
-0.125643 -0.165872 0.874692
-0.126502 -0.167425 0.875694
-0.127358 -0.168976 0.876659
-0.128247 -0.170564 0.877819
-0.12918 -0.1722 0.879238
-0.130102 -0.173827 0.880572
-0.131041 -0.175474 0.881996
-0.131954 -0.177096 0.883247
-0.132824 -0.178672 0.884225
-0.133672 -0.180228 0.885058
-0.134832 -0.182124 0.887746
-0.136285 -0.184342 0.892136
-0.137876 -0.186718 0.897302
-0.139502 -0.189141 0.902621
-0.141031 -0.191463 0.907324
-0.141997 -0.19317 0.908705
-0.14279 -0.194687 0.90907
-0.143463 -0.196071 0.908743
-0.144056 -0.197365 0.907957
-0.14463 -0.198636 0.907063
-0.1452 -0.199903 0.906157
-0.145717 -0.201108 0.904955
-0.146281 -0.202367 0.90403
-0.146846 -0.203625 0.903117
-0.14745 -0.204926 0.90243
-0.148092 -0.206269 0.901948
-0.148768 -0.207651 0.901661
-0.149444 -0.209035 0.901381
-0.150137 -0.210436 0.90119
-0.15083 -0.211838 0.900999
-0.151505 -0.21322 0.900714
-0.152195 -0.214619 0.900513
-0.152886 -0.21602 0.900316
-0.15358 -0.217423 0.90013
-0.154275 -0.218827 0.899949
-0.154986 -0.220249 0.899852
-0.155696 -0.221673 0.89976
-0.15936 -0.224212 0.907816
-0.156463 -0.223163 0.899957
-0.0769015 -0.072431 0.875615
-0.0774239 -0.0736847 0.874134
-0.077958 -0.0749424 0.872778
-0.0784992 -0.076203 0.871514
-0.0789614 -0.0774114 0.86953
-0.0794333 -0.0786217 0.867657
-0.0798741 -0.0798086 0.865525
-0.0803368 -0.0810062 0.86362
-0.0808297 -0.0822206 0.862013
-0.0813897 -0.0834761 0.861015
-0.081912 -0.0847055 0.859703
-0.0824589 -0.085949 0.858618
-0.0829468 -0.0871498 0.857032
-0.0834205 -0.088338 0.855342
-0.0839009 -0.0895274 0.853726
-0.0844486 -0.0907636 0.852711
-0.0849958 -0.0919976 0.851702
-0.085632 -0.0932956 0.851454
-0.0863146 -0.0946287 0.8516
-0.0869928 -0.095958 0.851698
-0.0877008 -0.0973108 0.852041
-0.0884613 -0.0987056 0.852814
-0.0892079 -0.100092 0.853463
-0.090008 -0.101522 0.854539
-0.0908515 -0.102988 0.855946
-0.0917538 -0.104503 0.857802
-0.0926461 -0.106015 0.859557
-0.0935483 -0.107539 0.861372
-0.0943853 -0.109012 0.862643
-0.0951836 -0.110455 0.863592
-0.0958538 -0.111793 0.863528
-0.096508 -0.113118 0.863339
-0.0971477 -0.114432 0.863043
-0.0977672 -0.115727 0.862591
-0.0983991 -0.117031 0.862232
-0.099075 -0.118375 0.862214
-0.0997529 -0.119721 0.862212
-0.100478 -0.121108 0.86255
-0.101355 -0.122632 0.864021
-0.102357 -0.12427 0.866394
-0.103372 -0.125925 0.868835
-0.104384 -0.127581 0.871228
-0.105366 -0.129214 0.873366
-0.106189 -0.130705 0.874334
-0.106835 -0.132031 0.874007
-0.107471 -0.133351 0.873625
-0.108089 -0.134652 0.873107
-0.108686 -0.135934 0.872448
-0.109301 -0.137231 0.871921
-0.109992 -0.1386 0.871927
-0.110686 -0.139972 0.871949
-0.111393 -0.141358 0.872063
-0.112086 -0.14273 0.872077
-0.112801 -0.144124 0.87224
-0.113532 -0.145535 0.872508
-0.114268 -0.146951 0.872805
-0.115007 -0.148371 0.873117
-0.115767 -0.149812 0.873563
-0.1165 -0.151229 0.873831
-0.11721 -0.15262 0.873928
-0.117918 -0.154012 0.874016
-0.118665 -0.155444 0.874361
-0.119364 -0.156826 0.874379
-0.120036 -0.158183 0.874229
-0.120701 -0.15953 0.87402
-0.121375 -0.160888 0.873878
-0.122028 -0.162224 0.873605
-0.122756 -0.163639 0.873804
-0.123502 -0.165073 0.874117
-0.124288 -0.166548 0.874668
-0.125115 -0.168071 0.875483
-0.125937 -0.169587 0.876243
-0.126792 -0.171141 0.877207
-0.127691 -0.172745 0.878435
-0.128566 -0.174324 0.879494
-0.129472 -0.175939 0.880737
-0.130381 -0.17756 0.881987
-0.131234 -0.179121 0.882879
-0.132038 -0.180627 0.883453
-0.133105 -0.182427 0.885618
-0.134629 -0.184733 0.890484
-0.137969 -0.189694 0.90181
-0.139615 -0.19216 0.907255
-0.140706 -0.194011 0.909384
-0.141485 -0.195514 0.909671
-0.142196 -0.19694 0.909553
-0.142823 -0.198272 0.908955
-0.143399 -0.199545 0.908064
-0.143984 -0.200828 0.907231
-0.144485 -0.202013 0.905923
-0.145016 -0.203231 0.904798
-0.145549 -0.204451 0.903691
-0.14612 -0.205713 0.90281
-0.146727 -0.207016 0.90213
-0.147383 -0.208376 0.901735
-0.148041 -0.209739 0.901354
-0.148719 -0.211121 0.901074
-0.149411 -0.212523 0.900883
-0.150086 -0.213905 0.900594
-0.150777 -0.215303 0.900391
-0.151466 -0.216702 0.900185
-0.152162 -0.218107 0.900008
-0.152856 -0.219511 0.89983
-0.153567 -0.220934 0.899736
-0.154277 -0.222358 0.89964
-0.155059 -0.223866 0.899923
-0.0749396 -0.071778 0.876173
-0.0754925 -0.0730493 0.874951
-0.0760541 -0.0743245 0.873833
-0.0766168 -0.0755975 0.87273
-0.0771651 -0.0768604 0.871514
-0.0776414 -0.078075 0.869638
-0.078129 -0.0792932 0.867888
-0.0785736 -0.0804794 0.86576
-0.0790392 -0.0816763 0.863856
-0.0795366 -0.0828911 0.862264
-0.0800891 -0.0841414 0.861193
-0.0806324 -0.0853833 0.860048
-0.0811821 -0.0866277 0.858975
-0.081673 -0.0878289 0.857396
-0.0821497 -0.0890167 0.855708
-0.0826395 -0.0902111 0.854154
-0.0831812 -0.0914409 0.853066
-0.0837306 -0.0926751 0.852059
-0.0843662 -0.0939739 0.851809
-0.08505 -0.0953077 0.851958
-0.0857268 -0.0966379 0.852051
-0.0864343 -0.0979921 0.852396
-0.0871934 -0.0993887 0.85317
-0.0879598 -0.100792 0.853986
-0.0887596 -0.102224 0.855065
-0.0896009 -0.103692 0.856472
-0.0904584 -0.105176 0.857988
-0.091322 -0.106668 0.859531
-0.0921758 -0.108156 0.860982
-0.0929781 -0.109602 0.861992
-0.0937413 -0.111018 0.862683
-0.094428 -0.11237 0.862757
-0.0950817 -0.113693 0.862565
-0.0957227 -0.115007 0.862281
-0.0963781 -0.116332 0.862107
-0.0970363 -0.117659 0.861952
-0.097747 -0.119034 0.862202
-0.0984714 -0.120421 0.86255
-0.0992525 -0.121861 0.863323
-0.100158 -0.123414 0.865015
-0.101172 -0.12507 0.867504
-0.102162 -0.126709 0.869783
-0.103132 -0.128333 0.871886
-0.10405 -0.129911 0.873577
-0.10482 -0.131355 0.874167
-0.10545 -0.132668 0.873735
-0.106087 -0.133986 0.873341
-0.106704 -0.135287 0.872825
-0.107314 -0.136579 0.872255
-0.107941 -0.137887 0.871803
-0.108641 -0.139265 0.871878
-0.109333 -0.140636 0.871891
-0.11005 -0.142032 0.872072
-0.110742 -0.143404 0.872081
-0.111457 -0.144799 0.872248
-0.112176 -0.146198 0.872436
-0.112911 -0.147615 0.872733
-0.113623 -0.149008 0.872863
-0.114368 -0.150436 0.873218
-0.115088 -0.151839 0.873398
-0.115786 -0.153221 0.873429
-0.116496 -0.154614 0.873534
-0.117244 -0.156048 0.873892
-0.117957 -0.157445 0.874004
-0.118656 -0.158828 0.874023
-0.119334 -0.16019 0.873911
-0.120023 -0.161564 0.873867
-0.120705 -0.162931 0.873776
-0.121433 -0.164346 0.873976
-0.122165 -0.165767 0.874207
-0.122934 -0.167227 0.87466
-0.12373 -0.168718 0.87528
-0.124518 -0.170201 0.875846
-0.125355 -0.171738 0.876705
-0.126221 -0.173308 0.877737
-0.127076 -0.174868 0.878689
-0.127946 -0.176446 0.879728
-0.128835 -0.178047 0.880864
-0.129673 -0.179593 0.88168
-0.130476 -0.181102 0.882275
-0.131453 -0.182806 0.883914
-0.132881 -0.185015 0.888252
-0.134356 -0.187286 0.892838
-0.136103 -0.189869 0.898998
-0.137804 -0.192409 0.904829
-0.139052 -0.194443 0.907924
-0.139975 -0.196111 0.909073
-0.140851 -0.197726 0.909927
-0.141497 -0.199078 0.909433
-0.142079 -0.200357 0.908571
-0.142681 -0.201659 0.90783
-0.143202 -0.202865 0.906622
-0.14375 -0.204101 0.905583
-0.144272 -0.205306 0.904401
-0.144843 -0.206566 0.903502
-0.145428 -0.207844 0.902702
-0.14605 -0.209163 0.902105
-0.146675 -0.210484 0.901526
-0.147333 -0.211846 0.901142
-0.148008 -0.213228 0.900855
-0.148668 -0.21459 0.900481
-0.149358 -0.215989 0.90028
-0.150035 -0.217371 0.899995
-0.150727 -0.218772 0.899803
-0.15142 -0.220175 0.899619
-0.152131 -0.221599 0.899525
-0.152841 -0.223021 0.89943
-0.153638 -0.224549 0.899797
-0.157409 -0.227264 0.908513
-0.154498 -0.226156 0.900497
-0.0746363 -0.0749333 0.873059
-0.0752418 -0.0762318 0.872365
-0.0758083 -0.0775041 0.871306
-0.0763115 -0.0787333 0.86966
-0.0768193 -0.0799624 0.868079
-0.0773021 -0.0811718 0.866282
-0.0777793 -0.0823739 0.864456
-0.0782798 -0.0835894 0.862871
-0.0788345 -0.0848403 0.861801
-0.0793982 -0.0860958 0.860826
-0.0799512 -0.0873412 0.859759
-0.0804366 -0.0885361 0.858101
-0.0809398 -0.0897419 0.856627
-0.0814323 -0.0909362 0.855068
-0.0819658 -0.0921601 0.853897
-0.0825176 -0.0933949 0.85289
-0.0831614 -0.0947006 0.852701
-0.0838177 -0.0960154 0.852618
-0.084495 -0.0973468 0.852711
-0.0852047 -0.0987039 0.853073
-0.0859635 -0.100102 0.853847
-0.0867381 -0.101515 0.854743
-0.0875264 -0.102941 0.85574
-0.0883656 -0.104411 0.857139
-0.0891976 -0.105879 0.858467
-0.0900267 -0.107345 0.859743
-0.0908359 -0.108798 0.860843
-0.0916099 -0.110224 0.861649
-0.09234 -0.111612 0.862077
-0.0930155 -0.112954 0.862068
-0.0936787 -0.114286 0.861961
-0.0943329 -0.11561 0.861779
-0.0950199 -0.116963 0.861854
-0.095711 -0.118321 0.861962
-0.0964689 -0.119739 0.862584
-0.0972428 -0.121173 0.863318
-0.0980981 -0.122682 0.864658
-0.0990411 -0.124277 0.866658
-0.100033 -0.125919 0.868994
-0.100979 -0.127522 0.870955
-0.10189 -0.129097 0.872636
-0.102719 -0.130597 0.873688
-0.103431 -0.131986 0.873851
-0.104061 -0.133298 0.873412
-0.104697 -0.134616 0.873021
-0.105318 -0.135919 0.872527
-0.105943 -0.137224 0.872055
-0.106581 -0.138543 0.871692
-0.107282 -0.139922 0.871767
-0.107961 -0.141281 0.871691
-0.108663 -0.142664 0.871783
-0.109342 -0.144022 0.871695
-0.110045 -0.145405 0.871783
-0.110737 -0.146778 0.871791
-0.111458 -0.148181 0.871997
-0.112153 -0.149558 0.872024
-0.112884 -0.150971 0.872285
-0.113601 -0.152372 0.872455
-0.11431 -0.153765 0.872566
-0.115047 -0.155186 0.87286
-0.115809 -0.156635 0.873313
-0.116547 -0.15806 0.873604
-0.117259 -0.159457 0.873716
-0.117967 -0.160851 0.873801
-0.118672 -0.162242 0.873862
-0.119382 -0.163639 0.873954
-0.120111 -0.165057 0.874166
-0.12084 -0.166475 0.874372
-0.121593 -0.16792 0.874731
-0.12236 -0.16938 0.875173
-0.123121 -0.170835 0.875568
-0.123938 -0.172354 0.876322
-0.124773 -0.173892 0.877169
-0.125596 -0.175418 0.877929
-0.126444 -0.176975 0.878845
-0.127325 -0.17857 0.879952
-0.128159 -0.180114 0.880759
-0.128994 -0.181659 0.881555
-0.129852 -0.183233 0.882491
-0.131132 -0.185286 0.885979
-0.132487 -0.18743 0.889886
-0.134201 -0.18999 0.895921
-0.135889 -0.192528 0.901746
-0.137323 -0.194782 0.905997
-0.138428 -0.196661 0.908239
-0.139402 -0.198393 0.909692
-0.140069 -0.199769 0.909319
-0.140686 -0.201086 0.908652
-0.141325 -0.20243 0.908124
-0.141868 -0.203659 0.907032
-0.142455 -0.20494 0.90621
