ply
format ascii 1.0
element vertex 1642
property float x
property float y
property float z
end_header
0.0419094 -0.142362 0.856074
0.0422367 -0.14084 0.855498
0.0425477 -0.139281 0.854652
0.0428708 -0.13776 0.854039
0.0431747 -0.136196 0.853113
0.043496 -0.134679 0.852489
0.0438356 -0.133209 0.852175
0.0441997 -0.131798 0.852272
0.0445588 -0.130377 0.852292
0.0449317 -0.128988 0.852538
0.0452954 -0.12758 0.852641
0.0456701 -0.126194 0.852911
0.0460443 -0.124809 0.853185
0.0464086 -0.123401 0.853282
0.0467643 -0.12198 0.853275
0.0471194 -0.120557 0.853246
0.0474758 -0.119138 0.853238
0.0478335 -0.117722 0.853256
0.0482072 -0.116339 0.853523
0.0485972 -0.114985 0.85404
0.0489949 -0.113642 0.854662
0.0494276 -0.11236 0.85581
0.0498749 -0.111099 0.857164
0.0503349 -0.109856 0.858702
0.0507967 -0.108608 0.860242
0.0512579 -0.107354 0.86175
0.0516907 -0.10605 0.862847
0.0521171 -0.104731 0.863828
0.0525369 -0.103401 0.864719
0.0529462 -0.10205 0.865439
0.053362 -0.100708 0.866257
0.0538024 -0.099399 0.867415
0.0542595 -0.0981083 0.868784
0.0547365 -0.0968418 0.870442
0.033912 -0.176316 0.877598
0.0342807 -0.174801 0.877461
0.0346428 -0.173266 0.877206
0.0349881 -0.17167 0.876607
0.0353079 -0.169991 0.875523
0.0356118 -0.168262 0.874126
0.035902 -0.166497 0.872496
0.036164 -0.164647 0.870343
0.036412 -0.162766 0.867964
0.0366663 -0.160922 0.865744
0.0369333 -0.159133 0.863805
0.0371962 -0.157344 0.861827
0.0374809 -0.155636 0.860286
0.037791 -0.154016 0.859256
0.0381207 -0.152463 0.858611
0.0384628 -0.15095 0.858193
0.0388175 -0.149481 0.858043
0.0391707 -0.148009 0.85786
0.0395138 -0.14651 0.857494
0.0398361 -0.144958 0.856774
0.0401718 -0.143446 0.856296
0.0405071 -0.141939 0.855832
0.0408309 -0.140404 0.855162
0.0411373 -0.138831 0.854222
0.0414538 -0.13729 0.853468
0.0417646 -0.135741 0.852633
0.0420947 -0.134241 0.852124
0.04244 -0.132786 0.85191
0.0428104 -0.131389 0.852108
0.0431738 -0.129976 0.852185
0.0435463 -0.128585 0.852417
0.0439043 -0.127164 0.85243
0.0442796 -0.125779 0.852703
0.0446543 -0.124394 0.852979
0.0450129 -0.122976 0.852998
0.0453693 -0.121553 0.852975
0.0457235 -0.120129 0.852933
0.0460799 -0.118709 0.852919
0.0464326 -0.117285 0.852859
0.0468102 -0.11591 0.853198
0.0472007 -0.114556 0.853718
0.0476033 -0.113225 0.854436
0.0480421 -0.111956 0.855698
0.0485002 -0.110716 0.857235
0.0489657 -0.109483 0.858879
0.0494305 -0.108243 0.860488
0.0498835 -0.106977 0.861907
0.0503088 -0.105662 0.862911
0.0507343 -0.104343 0.863892
0.0511542 -0.103012 0.864797
0.0515641 -0.101663 0.865532
0.0519792 -0.100321 0.866349
0.0524178 -0.0990093 0.867494
0.0528597 -0.0976996 0.868686
0.0533228 -0.0964144 0.870156
0.0321135 -0.177459 0.877829
0.0324693 -0.175887 0.877394
0.0328381 -0.174372 0.877256
0.0332055 -0.172853 0.877091
0.0335525 -0.171259 0.876499
0.0338742 -0.169581 0.875421
0.0341844 -0.167867 0.87411
0.034482 -0.166118 0.87257
0.0347537 -0.164289 0.870528
0.0350154 -0.16244 0.868332
0.0352794 -0.160614 0.866219
0.0355535 -0.158837 0.864352
0.035824 -0.15706 0.862444
0.0361079 -0.155337 0.860821
0.0364165 -0.153706 0.859724
0.0367482 -0.152151 0.859069
0.0370813 -0.150608 0.858474
0.0374279 -0.149109 0.858129
0.0377711 -0.147606 0.857755
0.03811 -0.14609 0.857284
0.0384293 -0.144526 0.856479
0.0387615 -0.143003 0.855924
0.039089 -0.141472 0.855299
0.0394123 -0.139936 0.854615
0.0397163 -0.138351 0.853584
0.0400345 -0.136811 0.852831
0.040353 -0.135277 0.852093
0.0406968 -0.133814 0.851832
0.0410549 -0.132384 0.851797
0.041435 -0.131011 0.852166
0.0418033 -0.129609 0.852325
0.0421795 -0.128227 0.852629
0.0425334 -0.126793 0.852551
0.0429085 -0.125408 0.852826
0.0432786 -0.124012 0.853024
0.043628 -0.122573 0.852886
0.04398 -0.12114 0.852782
0.0443353 -0.119717 0.852741
0.0446876 -0.118289 0.852661
0.0450417 -0.116866 0.852611
0.0454247 -0.1155 0.853031
0.0458184 -0.114155 0.853621
0.0462317 -0.112843 0.854504
0.0466803 -0.111594 0.855942
0.0471423 -0.110364 0.857584
0.0476111 -0.109138 0.859302
0.0480679 -0.107886 0.860821
0.0485132 -0.106609 0.862149
0.0489321 -0.105282 0.863053
0.0493558 -0.103962 0.864035
0.049775 -0.10263 0.864932
0.0501844 -0.101281 0.865678
0.0505931 -0.0999289 0.866405
0.0510232 -0.098607 0.867456
0.0514572 -0.097286 0.868536
0.0519115 -0.0959914 0.869918
0.0310288 -0.175473 0.877274
0.0314022 -0.173971 0.877209
0.0317777 -0.17248 0.877195
0.0321321 -0.17091 0.876736
0.0324604 -0.169247 0.875743
0.0327811 -0.167562 0.874599
0.0330789 -0.1658 0.872988
0.0333509 -0.163958 0.870875
0.0336173 -0.162111 0.868686
0.0338843 -0.160283 0.866564
0.034158 -0.158491 0.864606
0.0344399 -0.156741 0.862862
0.0347312 -0.155033 0.861327
0.0350436 -0.153403 0.860237
0.0353757 -0.151846 0.859577
0.0357022 -0.150274 0.858803
0.0360395 -0.148745 0.858276
0.0363715 -0.147202 0.857646
0.0367058 -0.145671 0.857076
0.0370271 -0.144108 0.856277
0.0373575 -0.142576 0.855657
0.0376784 -0.141023 0.854883
0.0380102 -0.139506 0.854325
0.0383191 -0.137933 0.853363
0.0386392 -0.136394 0.852616
0.0389735 -0.134897 0.852132
0.039337 -0.133479 0.852196
0.0396998 -0.132062 0.852256
0.0400855 -0.130701 0.852722
0.0404603 -0.129311 0.852979
0.0408332 -0.127919 0.853218
0.0411836 -0.126474 0.853062
0.041553 -0.125074 0.853238
0.0419139 -0.123655 0.853264
0.0422536 -0.122194 0.852953
0.0426054 -0.120759 0.852841
0.042962 -0.119336 0.852809
0.0433167 -0.117912 0.852758
0.0436768 -0.1165 0.852803
0.0440658 -0.115145 0.853308
0.0444585 -0.113797 0.853888
0.0448714 -0.112485 0.854781
0.0453222 -0.111243 0.856291
0.0457835 -0.110012 0.85794
0.0462497 -0.108785 0.859656
0.0466997 -0.107522 0.861085
0.0471417 -0.106241 0.862393
0.0475536 -0.104903 0.863207
0.0479771 -0.103582 0.864185
0.0483899 -0.102241 0.865
0.0488027 -0.100898 0.865817
0.04921 -0.0995437 0.86653
0.0496343 -0.0982126 0.867494
0.0500602 -0.0968822 0.868488
0.050524 -0.0956019 0.870024
0.0299655 -0.173569 0.877155
0.0303408 -0.172074 0.877121
0.0307005 -0.170523 0.876769
0.0310384 -0.168887 0.875925
0.0313656 -0.167218 0.874871
0.0316666 -0.165457 0.873266
0.0319498 -0.163642 0.871305
0.0322187 -0.161791 0.869093
0.0324892 -0.15996 0.866952
0.0327634 -0.158155 0.864916
0.0330523 -0.156419 0.863256
0.0333479 -0.154714 0.861742
0.033666 -0.153096 0.860733
0.034 -0.151539 0.860075
0.0343279 -0.149964 0.859284
0.0346583 -0.148406 0.858585
0.0349869 -0.146848 0.857857
0.0353141 -0.145292 0.857125
0.0356381 -0.143729 0.856328
0.0359695 -0.142198 0.855715
0.0362963 -0.140656 0.855015
0.0366337 -0.139151 0.85454
0.0369583 -0.137612 0.853815
0.0372854 -0.136089 0.853178
0.0376306 -0.134617 0.85288
0.0380003 -0.133212 0.853043
0.0383695 -0.131805 0.853191
0.0387561 -0.130445 0.853672
0.0391366 -0.129068 0.854038
0.0395113 -0.127675 0.854287
0.0398588 -0.126218 0.854052
0.0402221 -0.124802 0.854121
0.0405723 -0.123356 0.853948
0.0408992 -0.121859 0.853374
0.0412411 -0.120401 0.853079
0.0415977 -0.118976 0.853037
0.0419481 -0.117542 0.852912
0.0423105 -0.116132 0.852974
0.0427033 -0.114786 0.853565
0.0430924 -0.11343 0.854078
0.0435028 -0.112115 0.854957
0.0439482 -0.110863 0.856393
0.0444068 -0.109631 0.858041
0.0448721 -0.108403 0.859758
0.0453237 -0.107146 0.861258
0.0457654 -0.105864 0.862563
0.0461764 -0.104526 0.863377
0.0465978 -0.103204 0.864357
0.0470157 -0.101871 0.865252
0.0474331 -0.100535 0.866148
0.04784 -0.0991802 0.866871
0.0482688 -0.0978558 0.867914
0.0486998 -0.0965322 0.868991
0.0491623 -0.0952516 0.870544
0.0285294 -0.173171 0.87712
0.0289052 -0.171676 0.877089
0.0292707 -0.170143 0.876836
0.0296161 -0.16853 0.876125
0.0299455 -0.166862 0.875077
0.0302501 -0.165102 0.873474
0.0305436 -0.163315 0.871677
0.0308162 -0.161459 0.869434
0.0310896 -0.159626 0.867283
0.0313671 -0.15782 0.865241
0.0316603 -0.156085 0.863585
0.0319548 -0.154368 0.862002
0.0322757 -0.152751 0.861
0.0326125 -0.151195 0.860349
0.0329412 -0.149618 0.859549
0.0332696 -0.148047 0.858761
0.0335984 -0.146486 0.858021
0.0339279 -0.144928 0.857278
0.034256 -0.143377 0.856554
0.0345941 -0.141858 0.856029
0.0349315 -0.140342 0.855503
0.0352801 -0.138863 0.855205
0.0356195 -0.137362 0.854751
0.0359561 -0.135856 0.854246
0.0363132 -0.13441 0.854143
0.0366887 -0.133016 0.854402
0.0370577 -0.131608 0.854556
0.0374408 -0.130232 0.854945
0.0378256 -0.128863 0.855384
0.0381968 -0.127457 0.855559
0.0385398 -0.125986 0.855238
0.0389031 -0.124564 0.855275
0.0392485 -0.123103 0.854999
0.0395621 -0.12157 0.854154
0.0398988 -0.120096 0.853744
0.0402543 -0.118666 0.853675
0.0405968 -0.11721 0.853379
0.0409546 -0.115789 0.853363
0.0413525 -0.114451 0.854027
0.0417365 -0.113085 0.854464
0.0421368 -0.111751 0.855184
0.0425757 -0.110487 0.856528
0.0430313 -0.109252 0.858153
0.0434849 -0.108006 0.859725
0.0439361 -0.10675 0.86124
0.0443807 -0.105477 0.862637
0.0448019 -0.104157 0.863622
0.0452238 -0.102835 0.864619
0.0456562 -0.101527 0.865771
0.046085 -0.100209 0.866851
0.0465083 -0.09888 0.867847
0.046944 -0.0975654 0.869012
0.0473908 -0.0962648 0.870349
0.0478576 -0.0949898 0.871993
0.0502171 -0.0948156 0.881071
0.0483246 -0.0937083 0.873612
0.0274653 -0.171261 0.876966
0.0278342 -0.169738 0.876771
0.028183 -0.168135 0.876112
0.028521 -0.166491 0.875202
0.0288341 -0.164756 0.87374
0.0291361 -0.162985 0.872039
0.0294134 -0.161133 0.869815
0.0296911 -0.1593 0.867664
0.0299711 -0.157491 0.865603
0.0302678 -0.155756 0.863951
0.0305691 -0.15405 0.862431
0.0308926 -0.152435 0.861444
0.0312311 -0.150877 0.860786
0.0315616 -0.149302 0.859999
0.0318914 -0.147728 0.859204
0.0322191 -0.146155 0.858383
0.0325488 -0.144594 0.857623
0.0328792 -0.143042 0.856898
0.0332185 -0.141523 0.856373
0.0335626 -0.140023 0.855958
0.0339224 -0.138571 0.855861
0.0342774 -0.137112 0.855697
0.0346254 -0.135632 0.855381
0.0349893 -0.134199 0.855386
0.0353686 -0.132813 0.85572
0.0357426 -0.13141 0.85593
0.0361243 -0.13003 0.856303
0.0365138 -0.128667 0.856811
0.0368848 -0.127258 0.85698
0.0372297 -0.125783 0.856647
0.0375897 -0.124348 0.856602
0.0379266 -0.122861 0.856145
0.0382331 -0.121305 0.855132
0.0385656 -0.119817 0.854621
0.038912 -0.118363 0.854367
0.0392458 -0.116883 0.853886
0.0396027 -0.115457 0.853843
0.0399947 -0.114108 0.854424
0.0403743 -0.112731 0.854776
0.0407742 -0.111394 0.855481
0.041204 -0.110117 0.856719
0.0416531 -0.108871 0.858258
0.0420993 -0.107613 0.859737
0.04255 -0.106359 0.861274
0.0429943 -0.105087 0.862692
0.0434258 -0.103786 0.863866
0.0438525 -0.102473 0.864958
0.0443003 -0.101193 0.866386
0.0447405 -0.0998945 0.867676
0.0451822 -0.098594 0.868976
0.045624 -0.0972881 0.870255
0.0460865 -0.0960107 0.87186
0.0465588 -0.0947423 0.873605
0.0470298 -0.0934654 0.875312
0.026032 -0.170878 0.877019
0.0264023 -0.169356 0.876828
0.0267503 -0.167742 0.876108
0.0270911 -0.166104 0.875233
0.0274117 -0.164387 0.873877
0.0277261 -0.162657 0.872409
0.0280224 -0.160862 0.870527
0.0283124 -0.159061 0.868563
0.0285976 -0.157252 0.866509
0.0288961 -0.155512 0.864834
0.0291997 -0.153801 0.863291
0.0295216 -0.15217 0.862211
0.0298573 -0.150598 0.86147
0.0301913 -0.149022 0.860687
0.0305195 -0.147436 0.859815
0.0308484 -0.14586 0.858988
0.0311801 -0.144298 0.858225
0.0315133 -0.142746 0.857503
0.0318547 -0.141228 0.856996
0.0322121 -0.139765 0.856837
0.0325816 -0.13834 0.856927
0.0329509 -0.136917 0.857034
0.0333095 -0.13546 0.856897
0.0336767 -0.134035 0.856973
0.0340484 -0.13262 0.85712
0.0344175 -0.131201 0.857229
0.0347917 -0.129794 0.85743
0.0351769 -0.128418 0.857856
0.0355491 -0.127009 0.858033
0.0359035 -0.125553 0.857858
0.036265 -0.124117 0.857826
0.0366053 -0.12263 0.857383
0.0369179 -0.121082 0.85645
0.0372527 -0.119592 0.85594
0.0375922 -0.118116 0.855523
0.0379214 -0.116621 0.854943
0.0382694 -0.115172 0.854712
0.0386468 -0.113789 0.855025
0.0390127 -0.11238 0.85512
0.0394022 -0.111023 0.85566
0.0398172 -0.109716 0.856639
0.0402579 -0.108456 0.858066
0.0406962 -0.107187 0.859448
0.04115 -0.105942 0.861069
0.0415934 -0.104671 0.8625
0.0420336 -0.103388 0.863853
0.04247 -0.102094 0.865125
0.0429327 -0.100841 0.866838
0.0433887 -0.0995701 0.86841
0.0438568 -0.0983139 0.870174
0.0443135 -0.097033 0.871738
0.0447922 -0.0957797 0.873627
0.0452682 -0.0945154 0.875456
0.045742 -0.0932422 0.877244
0.0480641 -0.0930037 0.885932
0.0462117 -0.0919551 0.878936
0.0252934 -0.167242 0.875497
0.0256366 -0.165607 0.874634
0.0259701 -0.16394 0.873556
0.0263021 -0.162271 0.872446
0.0266185 -0.160549 0.870991
0.0269238 -0.158793 0.869297
0.0272226 -0.157026 0.867506
0.0275292 -0.1553 0.865916
0.0278362 -0.153588 0.864375
0.0281596 -0.15195 0.863261
0.0284972 -0.150375 0.862512
0.0288316 -0.148795 0.861715
0.0291632 -0.147208 0.860849
0.0294983 -0.145644 0.860108
0.0298327 -0.144081 0.859349
0.0301672 -0.142526 0.858624
0.0305106 -0.141007 0.858115
0.0308764 -0.139565 0.858117
0.0312511 -0.138151 0.8583
0.03163 -0.136751 0.858579
0.0319969 -0.135315 0.858606
0.0323613 -0.133875 0.858594
0.0327244 -0.13243 0.858548
0.0330848 -0.13098 0.858457
0.0334515 -0.129549 0.858491
0.0338268 -0.128142 0.858705
0.0342043 -0.126743 0.858971
0.0345606 -0.125288 0.858817
0.0349276 -0.123862 0.858867
0.0352741 -0.122385 0.858525
0.0355982 -0.120858 0.857764
0.0359363 -0.119369 0.857281
0.0362778 -0.117891 0.856874
0.0366048 -0.116384 0.856205
0.0369443 -0.11491 0.855783
0.0373121 -0.113503 0.855912
0.0376641 -0.112062 0.855745
0.0380442 -0.110682 0.856098
0.0384432 -0.109343 0.856815
0.0388723 -0.108062 0.858065
0.0393036 -0.106782 0.859344
0.039759 -0.105543 0.861036
0.0402012 -0.104272 0.862474
0.0406544 -0.103016 0.864079
0.0411038 -0.101747 0.86561
0.0415803 -0.100521 0.867598
0.0420463 -0.0992681 0.869377
0.0425335 -0.0980441 0.87149
0.0430102 -0.0967949 0.873407
0.0434979 -0.0955572 0.875501
0.0439691 -0.094284 0.877279
0.0444471 -0.093015 0.879155
0.0449096 -0.0917149 0.88074
0.0245316 -0.163504 0.873306
0.0248727 -0.161868 0.872381
0.0252076 -0.160215 0.871336
0.0255272 -0.158505 0.869921
0.0258388 -0.156776 0.868355
0.0261568 -0.15508 0.866958
0.0264736 -0.153393 0.865582
0.0267987 -0.151752 0.864456
0.0271381 -0.150172 0.86369
0.0274755 -0.14859 0.86289
0.0278121 -0.147014 0.862106
0.0281529 -0.145461 0.861444
0.0284935 -0.143909 0.860773
0.0288335 -0.142365 0.860139
0.029182 -0.140854 0.859702
0.0295495 -0.139408 0.859694
0.0299241 -0.13799 0.859865
0.0303 -0.136577 0.860075
0.0306655 -0.135128 0.860028
0.0310195 -0.133649 0.859764
0.0313742 -0.132175 0.859522
0.0317232 -0.130685 0.859148
0.0320855 -0.129238 0.859076
0.0324533 -0.127809 0.859133
0.0328313 -0.12641 0.859409
0.033193 -0.124966 0.859342
0.0335645 -0.12355 0.859491
0.0339134 -0.122075 0.859167
0.0342524 -0.120579 0.858662
0.0346013 -0.119111 0.858354
0.0349454 -0.117634 0.857971
0.0352787 -0.116135 0.85738
0.0356185 -0.114657 0.856943
0.0359784 -0.113227 0.85689
0.0363253 -0.11177 0.856607
0.0367002 -0.110377 0.856856
0.03709 -0.109016 0.857395
0.0375124 -0.107723 0.858549
0.0379377 -0.106431 0.859739
0.0383824 -0.105173 0.861267
0.0388192 -0.103893 0.862625
0.0392737 -0.102643 0.864315
0.0397282 -0.101384 0.865951
0.0402073 -0.100167 0.868042
0.040686 -0.0989392 0.870084
0.0411855 -0.0977387 0.872459
0.0416711 -0.0965069 0.874586
0.0421641 -0.0952774 0.876794
0.0426342 -0.0940023 0.878583
0.0431102 -0.0927295 0.880451
0.0435601 -0.0914105 0.881863
0.0230871 -0.163038 0.872875
0.0234359 -0.161434 0.872132
0.0237849 -0.159833 0.871394
0.0241208 -0.158185 0.870352
0.0244499 -0.156516 0.869154
0.0247815 -0.154868 0.868055
0.0251161 -0.153239 0.867044
0.0254546 -0.151637 0.866182
0.0258004 -0.150069 0.865508
0.0261398 -0.148484 0.864708
0.0264784 -0.146904 0.863912
0.026819 -0.145336 0.863172
0.0271552 -0.143758 0.86235
0.0274945 -0.142198 0.861623
0.0278405 -0.140671 0.861097
0.028205 -0.13921 0.860996
0.0285763 -0.137776 0.861082
0.0289501 -0.136348 0.861205
0.0293156 -0.134896 0.86115
0.0296594 -0.13338 0.860632
0.030008 -0.131879 0.860209
0.0303486 -0.13036 0.859625
0.030707 -0.128897 0.85945
0.0310666 -0.127442 0.859312
0.0314481 -0.126052 0.859668
0.0318139 -0.124616 0.859666
0.0321865 -0.123202 0.859827
0.0325403 -0.121737 0.859588
0.0328933 -0.120272 0.859338
0.0332525 -0.118825 0.859214
0.0335987 -0.11735 0.85885
0.0339415 -0.115869 0.85842
0.0342873 -0.114398 0.858064
0.0346393 -0.112947 0.857846
0.0349846 -0.11148 0.857486
0.0353582 -0.110082 0.857716
0.0357394 -0.1087 0.858075
0.0361519 -0.107386 0.859062
0.0365721 -0.106083 0.860164
0.0370055 -0.104805 0.861526
0.0374363 -0.103515 0.862805
0.0378891 -0.102264 0.864489
0.0383505 -0.101023 0.866305
0.0388336 -0.0998146 0.868503
0.039324 -0.0986116 0.870814
0.0398303 -0.0974267 0.873374
0.0403243 -0.0962101 0.875682
0.0408158 -0.0949799 0.877917
0.0412853 -0.093703 0.879714
0.0417521 -0.092417 0.881468
0.0421957 -0.0910853 0.882774
0.0216349 -0.162534 0.872219
0.0219928 -0.160965 0.871682
0.0223572 -0.159431 0.871336
0.0227097 -0.157848 0.870683
0.0230577 -0.156255 0.86995
0.0234151 -0.154706 0.869469
0.0237657 -0.153134 0.868829
0.0241188 -0.151578 0.868269
0.0244704 -0.150025 0.867708
0.0248126 -0.148437 0.86691
0.0251478 -0.146825 0.865932
0.0254892 -0.145249 0.865165
0.0258209 -0.143642 0.864165
0.0261589 -0.142067 0.863355
0.0265038 -0.140523 0.862732
0.026865 -0.139043 0.86253
0.0272306 -0.137583 0.862448
0.0275976 -0.136126 0.862384
0.0279595 -0.134657 0.862228
0.0282975 -0.133112 0.861517
0.0286391 -0.131586 0.860917
0.02897 -0.130029 0.860068
0.0293209 -0.12854 0.859706
0.0296699 -0.127048 0.859299
0.0300507 -0.125656 0.859637
0.0304198 -0.12423 0.859709
0.0307976 -0.122827 0.859964
0.0311603 -0.121384 0.859896
0.0315258 -0.119949 0.859893
0.0318898 -0.118512 0.859861
0.0322428 -0.117049 0.859601
0.0325951 -0.115587 0.859344
0.0329469 -0.114126 0.85908
0.0332978 -0.112666 0.858806
0.0336435 -0.111198 0.858446
0.0340142 -0.109789 0.858595
0.0343916 -0.108396 0.858877
0.0347959 -0.107062 0.859699
0.0352098 -0.105748 0.860708
0.0356367 -0.104457 0.861966
0.0360615 -0.103155 0.863144
0.0365076 -0.101893 0.864741
0.0369709 -0.100659 0.866647
0.0374566 -0.0994599 0.868947
0.0379503 -0.0982661 0.871371
0.0384586 -0.0970888 0.874032
0.0389599 -0.0958874 0.876521
0.039444 -0.0946467 0.878669
0.0399055 -0.0933583 0.88037
0.0403649 -0.0920598 0.882011
0.0412858 -0.091504 0.891975
0.0205554 -0.160523 0.871387
0.0209269 -0.159019 0.871221
0.0212919 -0.157493 0.870907
0.0216573 -0.155971 0.870609
0.0220356 -0.154511 0.870686
0.0224102 -0.153035 0.870654
0.0227794 -0.151539 0.87049
0.0231419 -0.150013 0.870131
0.023486 -0.14842 0.869323
0.0238152 -0.14677 0.868121
0.0241492 -0.145147 0.867064
0.0244726 -0.143493 0.865778
0.0248058 -0.141888 0.864784
0.0251488 -0.140327 0.864057
0.0255047 -0.138819 0.863679
0.025864 -0.13733 0.863414
0.0262243 -0.135845 0.863163
0.0265822 -0.134359 0.862895
0.0269183 -0.132799 0.862081
0.0272616 -0.131271 0.861474
0.0275884 -0.129691 0.860465
0.027936 -0.128189 0.860002
0.0282784 -0.126672 0.859413
0.0286547 -0.125266 0.859649
0.0290219 -0.123831 0.859664
0.0294041 -0.122441 0.860017
0.0297755 -0.12102 0.860127
0.030145 -0.119597 0.860219
0.0305106 -0.118162 0.860208
0.0308686 -0.116708 0.860034
0.0312267 -0.115257 0.859868
0.0315836 -0.113806 0.859695
0.0319435 -0.112365 0.859597
0.0323002 -0.110916 0.859421
0.0326722 -0.109507 0.859582
0.0330493 -0.108111 0.859858
0.0334442 -0.106756 0.860498
0.0338528 -0.105428 0.861403
0.0342694 -0.104116 0.862483
0.0346878 -0.102802 0.863562
0.0351278 -0.101529 0.865064
0.035593 -0.100301 0.867046
0.036073 -0.0990939 0.869285
0.0365641 -0.0979007 0.871733
0.0370695 -0.0967223 0.874402
0.0375711 -0.095526 0.876966
0.038048 -0.0942748 0.879025
0.0389775 -0.0938074 0.88961
0.0198696 -0.157117 0.871007
0.0202493 -0.155658 0.871101
0.0206406 -0.15426 0.871562
0.0210318 -0.152855 0.871985
0.0214187 -0.151432 0.8723
0.0217894 -0.149934 0.872135
0.0221393 -0.148347 0.87139
0.0224668 -0.146673 0.870052
0.0227923 -0.145001 0.868689
0.0231056 -0.143289 0.867035
0.0234346 -0.141654 0.865847
0.0237752 -0.140075 0.865013
0.0241284 -0.138552 0.864538
0.0244826 -0.137035 0.864088
0.0248363 -0.135523 0.863654
0.0251888 -0.134009 0.863194
0.0255204 -0.132425 0.862212
0.0258584 -0.130875 0.861446
0.0261842 -0.129285 0.860362
0.0265294 -0.127771 0.859809
0.0268719 -0.126252 0.859202
0.0272457 -0.124835 0.859353
0.0276171 -0.123414 0.859465
0.0280038 -0.122037 0.859926
0.0283802 -0.120631 0.860155
0.0287543 -0.119217 0.860327
0.0291229 -0.117791 0.860394
0.0294822 -0.116337 0.860219
0.0298485 -0.114905 0.86022
0.0302182 -0.113484 0.860312
0.0305835 -0.112055 0.860322
0.0309487 -0.110625 0.860319
0.0313248 -0.109222 0.860549
0.0317024 -0.107824 0.86082
0.0320929 -0.106456 0.861374
0.0324965 -0.105116 0.862185
0.0329047 -0.103783 0.863081
0.0333169 -0.102457 0.86406
0.0337472 -0.101166 0.865398
0.0342057 -0.0999274 0.867294
0.0346821 -0.0987178 0.869527
0.0351697 -0.0975221 0.871967
0.0356669 -0.0963331 0.874547
0.0361648 -0.0951337 0.877092
0.0366384 -0.0938808 0.879148
0.0188438 -0.155374 0.871767
0.0192445 -0.154015 0.872483
0.0196419 -0.152642 0.87312
0.0200365 -0.151248 0.873635
0.0204132 -0.149774 0.873636
0.0207683 -0.148197 0.872967
0.0210959 -0.146506 0.871532
0.0214137 -0.144787 0.869878
0.0217241 -0.143043 0.868012
0.0220455 -0.141365 0.866548
0.0223792 -0.139747 0.865454
0.0227314 -0.13821 0.864889
0.0230831 -0.136679 0.864347
0.0234351 -0.135153 0.863815
0.0237851 -0.133626 0.863261
0.0241178 -0.132041 0.862273
0.0244552 -0.13048 0.861429
0.0247804 -0.128881 0.860274
0.0251171 -0.127333 0.859462
0.02546 -0.125811 0.858829
0.02583 -0.124383 0.858892
0.0262052 -0.122974 0.859103
0.0265991 -0.121623 0.859763
0.0269862 -0.120248 0.860241
0.0273645 -0.118846 0.860507
0.0277375 -0.117428 0.860644
0.0280997 -0.115981 0.860535
0.0284702 -0.114559 0.860626
0.0288491 -0.113159 0.860903
0.029224 -0.111751 0.861103
0.0295979 -0.11034 0.861279
0.0299747 -0.108936 0.861521
0.0303523 -0.107535 0.861782
0.0307381 -0.106155 0.862236
0.0311371 -0.104804 0.862963
0.0315408 -0.10346 0.863779
0.0319487 -0.102124 0.864684
0.0323735 -0.100821 0.865923
0.0328253 -0.0995713 0.867721
0.0332941 -0.0983499 0.869855
0.0337744 -0.0971426 0.872195
0.0342621 -0.0959415 0.874668
0.0347566 -0.0947404 0.877211
0.0352282 -0.093487 0.879274
0.0182458 -0.152418 0.874195
0.0186405 -0.151021 0.874702
0.0190178 -0.149543 0.874692
0.0193811 -0.147993 0.87421
0.0197142 -0.146315 0.872871
0.0200398 -0.144608 0.871306
0.0203585 -0.142885 0.869595
0.0206808 -0.14119 0.868023
0.0210107 -0.139542 0.866744
0.0213558 -0.137966 0.865917
0.0217001 -0.136396 0.865117
0.022042 -0.134821 0.86425
0.0223899 -0.133279 0.863595
0.0227273 -0.131704 0.862679
0.0230702 -0.130155 0.861921
0.0234033 -0.128577 0.860929
0.0237362 -0.127006 0.85995
0.0240765 -0.125469 0.859206
0.0244395 -0.124015 0.859077
0.0248119 -0.122595 0.859201
0.0252006 -0.121225 0.859722
0.0255941 -0.119872 0.860381
0.0259757 -0.11848 0.860728
0.0263481 -0.11706 0.860858
0.0267154 -0.115623 0.860839
0.0270937 -0.114221 0.861104
0.0274806 -0.112843 0.861576
0.0278643 -0.111456 0.861977
0.0282465 -0.110064 0.862334
0.0286273 -0.108667 0.862652
0.0290049 -0.107264 0.862911
0.0293889 -0.105873 0.863289
0.0297838 -0.104511 0.863941
0.0301864 -0.103165 0.864749
0.0305909 -0.101818 0.865568
0.0310105 -0.100505 0.866726
0.0314553 -0.0992432 0.868436
0.0319129 -0.098001 0.870383
0.0323782 -0.0967655 0.872453
0.0328553 -0.0955457 0.874746
0.0333408 -0.0943341 0.877197
0.0338065 -0.0930733 0.879192
0.0168471 -0.152201 0.875319
0.0172404 -0.150796 0.875787
0.0176181 -0.149307 0.875722
0.0179875 -0.147784 0.875422
0.0183292 -0.146124 0.874218
0.0186613 -0.144434 0.872778
0.0189899 -0.142737 0.871253
0.0193111 -0.141016 0.869521
0.0196379 -0.139339 0.868054
0.0199776 -0.137729 0.867005
0.0203154 -0.136117 0.86592
0.0206497 -0.134503 0.864784
0.0210026 -0.132971 0.864205
0.0213478 -0.131419 0.863459
0.0216961 -0.129881 0.8628
0.0220411 -0.128338 0.862073
0.022373 -0.126753 0.861009
0.0227117 -0.125199 0.860144
0.0230647 -0.123706 0.859725
0.0234316 -0.122261 0.859661
0.023813 -0.120868 0.86001
0.0242072 -0.119516 0.860684
0.0245884 -0.118124 0.861041
0.0249629 -0.116705 0.861178
0.0253301 -0.115268 0.861167
0.0257097 -0.113867 0.86145
0.0261002 -0.112501 0.862032
0.0264912 -0.111133 0.862607
0.0268812 -0.10976 0.863149
0.0272669 -0.108374 0.863572
0.0276455 -0.106969 0.863834
0.028032 -0.105584 0.864285
0.0284276 -0.104219 0.864925
0.0288265 -0.102864 0.865668
0.0292297 -0.101515 0.866485
0.029648 -0.100198 0.867637
0.0300839 -0.0989162 0.869165
0.0305284 -0.0976466 0.870857
0.0309854 -0.0963986 0.87282
0.0314552 -0.0951678 0.875017
0.0319341 -0.0939475 0.877394
0.0323972 -0.0926847 0.879382
0.0158275 -0.150514 0.87652
0.0162053 -0.149025 0.876463
0.0165824 -0.14753 0.876358
0.0169399 -0.145937 0.875596
0.0172849 -0.144291 0.874459
0.0176232 -0.142625 0.873161
0.0179536 -0.140928 0.871615
0.0182846 -0.139245 0.870124
0.0186195 -0.137598 0.86884
0.0189502 -0.13594 0.867446
0.0192776 -0.134281 0.866005
0.019627 -0.132724 0.86526
0.0199748 -0.131171 0.864526
0.0203272 -0.129639 0.863915
0.0206811 -0.128122 0.8634
0.0210193 -0.126548 0.862427
0.0213565 -0.12498 0.861475
0.0217007 -0.123444 0.860738
0.0220601 -0.121969 0.860458
0.0224328 -0.12054 0.860531
0.0228195 -0.119166 0.861033
0.0232016 -0.117773 0.861392
0.02358 -0.116364 0.861626
0.0239513 -0.114938 0.861706
0.0243337 -0.113546 0.862076
0.0247276 -0.112186 0.862729
0.0251197 -0.110819 0.863319
0.0255099 -0.109446 0.863874
0.0258994 -0.108068 0.864392
0.0262788 -0.106662 0.864664
0.0266691 -0.105285 0.865198
0.0270636 -0.103918 0.865835
0.0274628 -0.10256 0.866568
0.0278652 -0.101208 0.867381
0.0282862 -0.0998982 0.868624
0.0287143 -0.0985983 0.869994
0.0291555 -0.0973244 0.871667
0.029606 -0.096064 0.873525
0.0300649 -0.0948133 0.875539
0.0305333 -0.0935752 0.877747
0.0309902 -0.0923025 0.879645
0.0145193 -0.150871 0.881344
0.0148536 -0.149106 0.879553
0.015206 -0.147457 0.878473
0.0155554 -0.145807 0.877364
0.015907 -0.144173 0.876324
0.0162552 -0.142534 0.875224
0.0165941 -0.140863 0.873879
0.0169312 -0.139189 0.872468
0.0172642 -0.137509 0.87098
0.0175891 -0.135805 0.869282
0.017911 -0.134102 0.86755
0.0182565 -0.132515 0.866603
0.0186049 -0.130951 0.8658
0.0189592 -0.12942 0.86521
0.0193186 -0.127916 0.864807
0.0196632 -0.126353 0.86394
0.0200006 -0.124773 0.86291
0.0203405 -0.123211 0.861992
0.0206945 -0.121707 0.861495
0.0210564 -0.120238 0.861265
0.021438 -0.118839 0.861582
0.0218199 -0.117445 0.861939
0.022198 -0.116036 0.862177
0.0225733 -0.114618 0.862341
0.0229561 -0.113224 0.862705
0.0233493 -0.111861 0.863342
0.0237432 -0.1105 0.864001
0.0241371 -0.109135 0.864638
0.02453 -0.107766 0.865259
0.0249132 -0.106369 0.865621
0.025304 -0.10499 0.866154
0.0256952 -0.103611 0.866706
0.0260935 -0.102251 0.867442
0.0264932 -0.100891 0.868183
0.0269132 -0.099579 0.869428
0.0273361 -0.0982687 0.870717
0.027772 -0.0969836 0.872296
0.0282161 -0.0957115 0.874055
0.0286692 -0.0944505 0.875977
0.0291236 -0.0931863 0.877926
0.0295697 -0.0918949 0.879637
0.0135007 -0.14924 0.883014
0.0138306 -0.147434 0.880943
0.014175 -0.145729 0.879486
0.0145264 -0.144075 0.878336
0.0148778 -0.142435 0.877251
0.0152261 -0.140789 0.876091
0.0155684 -0.139123 0.874765
0.0159017 -0.137421 0.873144
0.0162228 -0.135675 0.871171
0.0165429 -0.133941 0.869232
0.0168868 -0.132333 0.868149
0.0172366 -0.130762 0.867313
0.0175911 -0.129218 0.866646
0.017957 -0.127731 0.86639
0.0183089 -0.126188 0.865687
0.0186446 -0.124586 0.86451
0.0189805 -0.122993 0.863369
0.0193293 -0.121461 0.862672
0.0196808 -0.119945 0.862078
0.0200521 -0.118509 0.862105
0.0204353 -0.117113 0.862456
0.0208144 -0.115705 0.862713
0.0211902 -0.114287 0.862889
0.0215733 -0.11289 0.863241
0.0219647 -0.111524 0.863861
0.0223584 -0.11016 0.864506
0.0227515 -0.108794 0.86515
0.0231477 -0.107435 0.865862
0.0235344 -0.106046 0.866313
0.0239251 -0.104666 0.866856
0.0243161 -0.103285 0.867399
0.0247149 -0.101923 0.868134
0.0251167 -0.100569 0.868957
0.0255396 -0.0992655 0.870299
0.0259616 -0.0979545 0.871603
0.0263958 -0.0966672 0.873184
0.0268343 -0.0953833 0.874844
0.0272779 -0.0941035 0.876593
0.0277196 -0.0928116 0.878263
0.028155 -0.0915011 0.87978
0.011813 -0.151286 0.889162
0.0121162 -0.149246 0.885658
0.0124387 -0.147357 0.883064
0.0127766 -0.145584 0.881177
0.013124 -0.143886 0.879749
0.0134735 -0.142218 0.878487
0.0138285 -0.140593 0.877486
0.0141769 -0.138939 0.876253
0.0145141 -0.137237 0.874649
0.0148398 -0.135494 0.872705
0.0151668 -0.133766 0.870822
0.0155075 -0.132128 0.869538
0.0158561 -0.130539 0.868586
0.0162051 -0.128956 0.867643
0.0165661 -0.127441 0.867186
0.0169236 -0.125913 0.866617
0.0172599 -0.124301 0.865368
0.0175919 -0.12268 0.864013
0.0179399 -0.121134 0.863212
0.0182896 -0.119602 0.862488
0.0186499 -0.118121 0.862163
0.0190306 -0.116715 0.862441
0.0194129 -0.115318 0.862793
0.0197927 -0.113912 0.863064
0.0201752 -0.112514 0.863415
0.0205666 -0.111147 0.864031
0.0209595 -0.109782 0.864675
0.0213535 -0.108417 0.865339
0.0217489 -0.107058 0.866063
0.0221395 -0.105678 0.866601
0.0225319 -0.104305 0.867214
0.022926 -0.102933 0.867849
0.0233242 -0.10157 0.868584
0.0237289 -0.100223 0.869496
0.0241537 -0.0989272 0.870932
0.024572 -0.0976067 0.872157
0.0250045 -0.0963183 0.873745
0.0254412 -0.0950322 0.875401
0.0258784 -0.0937415 0.877055
0.0263111 -0.0924315 0.878547
0.0267398 -0.0911084 0.879939
0.0101002 -0.160542 0.899781
0.00821415 -0.161534 0.89902
0.00860667 -0.160009 0.899009
0.0104868 -0.158977 0.899527
0.00899341 -0.158434 0.898681
0.01086 -0.157315 0.898652
0.00936737 -0.156767 0.897766
0.0111962 -0.155404 0.896183
0.00972681 -0.155007 0.896238
0.0115055 -0.153334 0.892642
0.0100632 -0.15309 0.893669
0.0103876 -0.151114 0.890656
0.0106974 -0.149072 0.887141
0.011021 -0.147154 0.884364
0.0113567 -0.145341 0.882224
0.011703 -0.143613 0.880602
0.0120514 -0.141918 0.879162
0.0124121 -0.140312 0.878295
0.0127674 -0.13868 0.877225
0.0131101 -0.136991 0.875723
0.0134456 -0.135273 0.873966
0.0137799 -0.133569 0.872263
0.0141194 -0.131904 0.870806
0.0144664 -0.130291 0.869683
0.0148124 -0.128679 0.86854
0.0151678 -0.127126 0.867805
0.0155261 -0.125593 0.867198
0.015865 -0.123979 0.865942
0.0161976 -0.122347 0.864503
0.0165441 -0.120789 0.863607
0.0168919 -0.119241 0.862767
0.0172489 -0.117737 0.862256
0.0176259 -0.116321 0.862456
0.0180088 -0.114926 0.862829
0.0183926 -0.113531 0.863196
0.0187751 -0.112134 0.863554
0.0191656 -0.110765 0.864169
0.0195584 -0.1094 0.864822
0.0199521 -0.108037 0.865501
0.0203481 -0.106679 0.866234
0.0207411 -0.105306 0.866855
0.0211326 -0.103932 0.86747
0.0215268 -0.10256 0.868112
0.0219247 -0.101198 0.868863
0.0223318 -0.0998593 0.869865
0.0227584 -0.0985702 0.871385
0.0231787 -0.097258 0.872711
0.0236163 -0.0959847 0.874473
0.0240546 -0.0947053 0.876221
0.0244904 -0.0934123 0.877875
0.0249177 -0.0920909 0.879266
0.025344 -0.090764 0.880639
0.0063361 -0.162595 0.898671
0.00672695 -0.161036 0.898456
0.00711718 -0.159492 0.89833
0.00750424 -0.157911 0.897954
0.0078789 -0.156238 0.896995
0.00824078 -0.154476 0.89544
0.00859444 -0.152666 0.893548
0.00893188 -0.150751 0.890919
0.0092529 -0.148749 0.887666
0.00958452 -0.146848 0.884997
0.00992166 -0.145017 0.882737
0.0102669 -0.143264 0.880948
0.0106181 -0.141567 0.879498
0.0109815 -0.139959 0.878618
0.0113382 -0.138326 0.877541
0.0116885 -0.136663 0.876225
0.0120326 -0.134971 0.874655
0.0123757 -0.133293 0.87315
0.0127206 -0.131643 0.871802
0.0130682 -0.130015 0.870586
0.0134111 -0.128378 0.869256
0.0137619 -0.126788 0.868248
0.0141169 -0.12523 0.867453
0.0144563 -0.123604 0.866107
0.0147892 -0.121961 0.86458
0.0151346 -0.120391 0.86359
0.0154837 -0.118839 0.862719
0.0158407 -0.117334 0.862197
0.0162193 -0.115919 0.8624
0.016605 -0.114536 0.862874
0.0169904 -0.11315 0.863334
0.0173762 -0.111762 0.863775
0.017767 -0.110393 0.86439
0.018159 -0.109027 0.865043
0.0185521 -0.107663 0.865721
0.0189447 -0.106295 0.866373
0.0193366 -0.104921 0.86699
0.0197288 -0.103547 0.867607
0.020123 -0.102175 0.868263
0.0205237 -0.100822 0.869107
0.0209328 -0.0994918 0.870203
0.0213611 -0.0982103 0.871813
0.0217831 -0.096906 0.873235
0.022222 -0.0956403 0.875096
0.0226585 -0.0943608 0.876865
0.0230991 -0.0930823 0.878697
0.0235255 -0.0917602 0.880104
0.0239551 -0.0904409 0.881585
0.00484817 -0.162086 0.898051
0.00523777 -0.160514 0.897749
0.00562633 -0.158943 0.897449
0.00601096 -0.15734 0.89693
0.00638254 -0.155627 0.895703
0.00674686 -0.153867 0.894148
0.00710515 -0.152073 0.892337
0.0074473 -0.150163 0.889729
0.00777913 -0.148208 0.886759
0.00812066 -0.146354 0.884391
0.00846582 -0.144554 0.882326
0.00881533 -0.142806 0.880557
0.00917185 -0.141132 0.879258
0.00953552 -0.139514 0.878307
0.00989299 -0.137871 0.877157
0.0102482 -0.136223 0.875932
0.0105982 -0.134558 0.874557
0.0109483 -0.132908 0.873246
0.0113013 -0.131285 0.8721
0.0116555 -0.129681 0.871055
0.0120013 -0.128041 0.869709
0.0123516 -0.126436 0.868595
0.0127017 -0.124844 0.867546
0.0130417 -0.123207 0.866103
0.0133751 -0.121553 0.864484
0.0137192 -0.119964 0.863345
0.0140672 -0.118403 0.862392
0.0144259 -0.116897 0.861858
0.0148014 -0.115471 0.861972
0.0151871 -0.114089 0.862452
0.015575 -0.112715 0.863004
0.0159626 -0.111337 0.863535
0.0163551 -0.109977 0.864224
0.0167457 -0.108609 0.864867
0.0171386 -0.107244 0.865534
0.01753 -0.105874 0.866176
0.0179238 -0.104508 0.866867
0.0183185 -0.103143 0.867572
0.0187142 -0.10178 0.868317
0.0191175 -0.100436 0.869256
0.019528 -0.0991131 0.870437
0.0199549 -0.0978314 0.872056
0.0203782 -0.0965348 0.87357
0.0208186 -0.0952776 0.875536
0.0212575 -0.0940069 0.877416
0.0217026 -0.092745 0.879447
0.0221339 -0.0914379 0.881044
0.0225696 -0.0901346 0.882728
0.0247063 -0.0898728 0.891634
0.0229966 -0.0888034 0.884149
0.00297125 -0.163155 0.897756
0.00336168 -0.161581 0.897451
0.00375224 -0.160011 0.897159
0.00413822 -0.158407 0.89664
0.00451955 -0.156761 0.89585
0.00489233 -0.155034 0.89452
0.00525763 -0.153259 0.892856
0.00561644 -0.151454 0.890956
0.00596283 -0.149548 0.888348
0.00630462 -0.147637 0.885649
0.00665163 -0.145803 0.883393
0.00700278 -0.144024 0.881455
0.0073563 -0.142291 0.87978
0.00771888 -0.140644 0.878654
0.0080839 -0.139028 0.877711
0.008444 -0.13739 0.876584
0.008805 -0.135768 0.875541
0.00916137 -0.134127 0.874329
0.00951463 -0.132482 0.873046
0.00987109 -0.130863 0.87192
0.0102273 -0.12926 0.870886
0.0105752 -0.12762 0.86954
0.0109231 -0.125993 0.868248
0.0112722 -0.124379 0.867016
0.0116135 -0.122739 0.865547
0.0119497 -0.121088 0.86394
0.0122944 -0.119492 0.862731
0.0126444 -0.117933 0.861788
0.0130057 -0.116437 0.861326
0.0133798 -0.115002 0.861353
0.0137672 -0.11363 0.861917
0.0141572 -0.112267 0.862563
0.014546 -0.1109 0.863188
0.0149378 -0.109541 0.863887
0.0153309 -0.108181 0.864598
0.0157216 -0.106813 0.865248
0.0161131 -0.105444 0.865889
0.0165089 -0.104088 0.866671
0.016905 -0.102731 0.867465
0.0173009 -0.101369 0.868215
0.0177054 -0.100032 0.869238
0.0181147 -0.0987094 0.870422
0.0185364 -0.0974195 0.87197
0.0189611 -0.09613 0.873562
0.0194015 -0.0948805 0.875622
0.0198414 -0.0936175 0.877596
0.0202934 -0.0923801 0.879909
0.0207294 -0.0910898 0.881711
0.0211703 -0.0898029 0.883603
0.0216028 -0.0884856 0.885206
0.0014867 -0.162665 0.897245
0.00187826 -0.16109 0.896933
0.00226608 -0.15949 0.896451
0.00265119 -0.157857 0.895748
0.00303136 -0.156184 0.89478
0.00340277 -0.154428 0.893255
0.00376725 -0.152613 0.891315
0.00412806 -0.150793 0.889299
0.00447786 -0.14889 0.886684
0.00482668 -0.147012 0.884182
0.00518066 -0.145212 0.88213
0.00553841 -0.143467 0.880405
0.00589768 -0.141761 0.878897
0.00626407 -0.140131 0.877872
0.00662947 -0.138504 0.876846
0.00699021 -0.136858 0.87565
0.00735444 -0.135248 0.874679
0.00771291 -0.133609 0.873464
0.00806808 -0.131965 0.872185
0.00842993 -0.130371 0.871233
0.00878777 -0.128773 0.870222
0.00914054 -0.127146 0.868956
0.00948964 -0.125509 0.867581
0.00983783 -0.123883 0.866248
0.0101811 -0.122243 0.86476
0.0105234 -0.120612 0.863308
0.0108719 -0.119022 0.862127
0.0112279 -0.117486 0.861365
0.0115916 -0.115999 0.860978
0.0119633 -0.114553 0.860911
0.0123474 -0.113171 0.861382
0.0127374 -0.111809 0.862038
0.0131241 -0.110436 0.862603
0.0135161 -0.109078 0.863312
0.0139097 -0.107729 0.864109
0.0143023 -0.106371 0.86485
0.0146958 -0.105012 0.865588
0.0150954 -0.103676 0.866557
0.0154938 -0.10233 0.867454
0.0158917 -0.100976 0.868295
0.0162974 -0.0996463 0.869393
0.0167056 -0.0983225 0.870577
0.0171232 -0.0970233 0.872041
0.0175477 -0.0957394 0.873704
0.0179853 -0.0944875 0.875752
0.0184248 -0.093232 0.877823
0.0188779 -0.0920035 0.880249
0.0193183 -0.0907297 0.88225
0.0197626 -0.0894562 0.884317
0.0201902 -0.0881303 0.885848
7.49739e-06 -0.162252 0.897202
0.000398876 -0.16066 0.896781
0.000785719 -0.159019 0.896046
0.00116955 -0.157353 0.89514
0.00155002 -0.155664 0.894059
0.00192223 -0.153877 0.892328
0.00228678 -0.152033 0.89019
0.00264972 -0.150201 0.888076
0.00300207 -0.148286 0.88537
0.00335634 -0.14643 0.882985
0.00371423 -0.144637 0.88097
0.0040774 -0.142923 0.879437
0.00444038 -0.141221 0.87794
0.00480913 -0.139603 0.87699
0.00517594 -0.137979 0.87597
0.0055396 -0.136335 0.874773
0.00590397 -0.134714 0.873712
0.00626197 -0.133063 0.8724
0.00661819 -0.131408 0.87102
0.00698058 -0.129816 0.870068
0.00734169 -0.12822 0.869059
0.00769735 -0.126607 0.867889
0.00805011 -0.124984 0.8666
0.00840117 -0.12336 0.865265
0.00874644 -0.121721 0.863774
0.00909536 -0.120114 0.862492
0.00944543 -0.118528 0.861335
0.00980524 -0.117007 0.860678
0.0101729 -0.115533 0.860383
0.0105437 -0.114085 0.860304
0.0109275 -0.112702 0.860763
0.0113178 -0.11135 0.861494
0.011705 -0.109979 0.862073
0.0120955 -0.108622 0.86279
0.0124912 -0.107282 0.86367
0.012883 -0.105926 0.864421
0.0132761 -0.104571 0.865197
0.0136806 -0.103255 0.866361
0.0140805 -0.101919 0.867358
0.0144795 -0.100574 0.868291
0.014886 -0.0992519 0.86947
0.0152956 -0.0979359 0.870739
0.0157113 -0.096635 0.872198
0.0161336 -0.0953495 0.873857
0.0165657 -0.0940868 0.875804
0.0170026 -0.09283 0.877874
0.0174517 -0.0916001 0.880302
0.0178901 -0.0903268 0.882322
0.0183347 -0.0890599 0.884477
0.018761 -0.0877321 0.885998
-0.00186924 -0.163349 0.897075
-0.00147462 -0.161783 0.896819
-0.00108293 -0.160186 0.896363
-0.000696176 -0.158518 0.895458
-0.00031124 -0.156837 0.89445
7.00514e-05 -0.155131 0.893252
0.000442787 -0.153318 0.891344
0.000808418 -0.151445 0.889003
0.00117259 -0.149587 0.886706
0.00152973 -0.147675 0.883998
0.00188782 -0.145825 0.881633
0.00225017 -0.144053 0.87974
0.0026174 -0.142356 0.878305
0.00298323 -0.14067 0.876902
0.00335447 -0.139052 0.875941
0.00372157 -0.137418 0.874837
0.00408647 -0.135775 0.87363
0.00445123 -0.134144 0.872479
0.00481072 -0.132482 0.871069
0.00516662 -0.130815 0.86959
0.00553091 -0.129225 0.868629
0.00589256 -0.127632 0.867624
0.00625435 -0.126047 0.866646
0.00661236 -0.12445 0.865538
0.00696877 -0.122852 0.864397
0.00731997 -0.121237 0.863079
0.00767488 -0.119656 0.861988
0.0080277 -0.118073 0.860856
0.00838873 -0.116555 0.860214
0.00875581 -0.115072 0.859839
0.00912337 -0.113605 0.859588
0.00950345 -0.112202 0.859872
0.00989079 -0.11084 0.860511
0.0102747 -0.10946 0.860995
0.0106655 -0.108113 0.861791
0.0110631 -0.106791 0.862832
0.0114586 -0.105456 0.86377
0.0118559 -0.104121 0.864731
0.0122651 -0.102833 0.866157
0.0126664 -0.101508 0.867255
0.013064 -0.100162 0.868191
0.0134694 -0.0988399 0.869371
0.01388 -0.0975323 0.870732
0.0142902 -0.0962155 0.872035
0.01471 -0.0949297 0.873698
0.0151387 -0.0936641 0.875624
0.0155753 -0.0924131 0.877764
0.0160189 -0.0911745 0.880109
0.0164569 -0.0899074 0.882207
0.0168954 -0.0886318 0.884276
0.0173142 -0.0872872 0.885606
-0.00334577 -0.163036 0.897628
-0.00295502 -0.161367 0.896761
-0.0025637 -0.159727 0.896044
-0.00217605 -0.158029 0.894946
-0.00179182 -0.156307 0.893671
-0.00141114 -0.154559 0.892203
-0.00103684 -0.152719 0.890106
-0.000669045 -0.150822 0.887589
-0.000302348 -0.148951 0.88519
6.06251e-05 -0.14707 0.882657
0.000424839 -0.145249 0.880472
0.000791843 -0.143497 0.878692
0.00116129 -0.141803 0.877263
0.00152967 -0.140116 0.875843
0.00190033 -0.138488 0.874792
0.00226911 -0.136844 0.873602
0.00263547 -0.135205 0.872412
0.00300354 -0.133587 0.871341
0.0033644 -0.131927 0.869926
0.00372222 -0.13025 0.868353
0.00408677 -0.12865 0.867301
0.00444992 -0.12706 0.866301
0.00481425 -0.12549 0.865421
0.00517624 -0.123912 0.864443
0.00553964 -0.122353 0.86359
0.00589841 -0.120776 0.86256
0.00626015 -0.119228 0.861733
0.00661784 -0.117668 0.860776
0.00698476 -0.116171 0.860306
0.00735269 -0.114695 0.859998
0.00772086 -0.113218 0.859655
0.00809615 -0.111793 0.859754
0.00847953 -0.110409 0.860209
0.00885954 -0.109009 0.860518
0.00924606 -0.107643 0.861142
0.00964249 -0.106322 0.862183
0.0100381 -0.104997 0.863209
0.0104359 -0.103672 0.864263
0.0108448 -0.102394 0.865781
0.0112472 -0.101076 0.866958
0.0116463 -0.0997399 0.867982
0.0120503 -0.0984172 0.869165
0.0124615 -0.0971178 0.870615
0.0128696 -0.0958016 0.871931
0.0132884 -0.0945157 0.873601
0.0137148 -0.0932495 0.87553
0.0141491 -0.0920031 0.877735
0.0145873 -0.0907559 0.879996
0.0150226 -0.0894877 0.882094
0.0154562 -0.0882031 0.884068
0.0158699 -0.0868485 0.885286
-0.00556834 -0.179166 0.937069
-0.00755109 -0.178868 0.928773
-0.00714115 -0.177058 0.927487
-0.00519439 -0.175975 0.927941
-0.00673429 -0.175208 0.92594
-0.00633687 -0.172944 0.921966
-0.00482535 -0.162685 0.897958
-0.00443506 -0.160944 0.896652
-0.00404403 -0.159253 0.895623
-0.00365638 -0.157525 0.894337
-0.00327009 -0.155789 0.892961
-0.00288737 -0.154014 0.891309
-0.00251196 -0.152145 0.889015
-0.00214036 -0.150236 0.886406
-0.00177063 -0.148353 0.883909
-0.0014026 -0.146491 0.881484
-0.0010352 -0.144676 0.879318
-0.000664369 -0.142941 0.877636
-0.000292735 -0.141249 0.87621
7.76173e-05 -0.139562 0.874776
0.000449207 -0.13791 0.873546
0.000818636 -0.136269 0.872355
0.00118837 -0.134633 0.871171
0.00155642 -0.13301 0.870046
0.00191883 -0.131342 0.868561
0.00228043 -0.129679 0.867066
0.00264549 -0.12808 0.866007
0.00301221 -0.126504 0.865094
0.00338083 -0.124962 0.864406
0.00374888 -0.12342 0.863704
0.00411754 -0.121899 0.863134
0.00448311 -0.120359 0.86239
0.0048506 -0.118846 0.861845
0.00521446 -0.117308 0.86107
0.00558286 -0.11582 0.860676
0.0059528 -0.114342 0.860357
0.00631977 -0.112852 0.859916
0.00669172 -0.111396 0.859751
0.00707178 -0.109999 0.860089
0.00744808 -0.108577 0.860205
0.00783133 -0.107192 0.860656
0.00822423 -0.105863 0.861622
0.0086191 -0.104538 0.862646
0.00901571 -0.103214 0.863699
0.00942182 -0.101935 0.865222
0.00982275 -0.100618 0.8664
0.0102222 -0.0992896 0.867502
0.0106263 -0.0979748 0.868762
0.0110356 -0.0966757 0.870218
0.0114427 -0.0953605 0.871547
0.0118582 -0.0940737 0.873212
0.0122804 -0.0927987 0.875048
0.0127138 -0.0915603 0.877346
0.0131492 -0.090314 0.879625
0.0135846 -0.0890543 0.881821
0.0140165 -0.0877751 0.883869
0.0144286 -0.0864183 0.885066
-0.00836661 -0.183447 0.936553
-0.0103296 -0.183474 0.930236
-0.00991478 -0.181804 0.929786
-0.00796174 -0.180622 0.929717
-0.00950111 -0.180066 0.928947
-0.00908803 -0.178275 0.92779
-0.00867583 -0.176409 0.926172
-0.00826735 -0.174445 0.923956
-0.00786382 -0.172154 0.919791
-0.00746751 -0.169714 0.914673
-0.00669609 -0.164382 0.901404
-0.00630822 -0.162316 0.898187
-0.00591584 -0.160512 0.896497
-0.00552498 -0.158778 0.895201
-0.00513488 -0.157036 0.893817
-0.00474678 -0.155269 0.892243
-0.00436175 -0.15348 0.890487
-0.00398314 -0.151595 0.888079
-0.00360784 -0.149686 0.885452
-0.00323384 -0.147807 0.882967
-0.0028613 -0.145964 0.880655
-0.00248892 -0.144157 0.878525
-0.00211559 -0.142425 0.876856
-0.00174146 -0.140722 0.875334
-0.00137115 -0.13901 0.873712
-0.000998555 -0.137345 0.872377
-0.000627928 -0.135693 0.871103
-0.000256631 -0.134062 0.869935
0.000113746 -0.132443 0.868822
0.000480503 -0.130791 0.867429
0.000845047 -0.129143 0.866034
0.00121073 -0.127537 0.864906
0.00158011 -0.125974 0.864079
0.0019507 -0.124444 0.86347
0.00232395 -0.122938 0.863032
0.00269551 -0.121433 0.862583
0.00306712 -0.119938 0.862194
0.00344076 -0.118459 0.861918
0.00380849 -0.116944 0.861333
0.00417937 -0.115458 0.860966
0.00454997 -0.113981 0.860651
0.00491684 -0.112479 0.860111
0.00528563 -0.111001 0.859757
0.00566263 -0.109581 0.859899
0.006038 -0.108147 0.859913
0.00641803 -0.106752 0.86027
0.00680751 -0.105405 0.861063
0.00719944 -0.104069 0.861989
0.00759175 -0.102734 0.862941
0.00799493 -0.101448 0.864383
0.00839434 -0.100132 0.865569
0.00879221 -0.0988048 0.866672
0.00919402 -0.0974904 0.867933
0.00960134 -0.0961911 0.869381
0.0100039 -0.0948676 0.870619
0.0104159 -0.0935731 0.872193
0.0108325 -0.0922895 0.873932
0.0112569 -0.0910296 0.875986
0.0116889 -0.0897842 0.878263
0.0121203 -0.0885271 0.880482
0.0125499 -0.0872495 0.882536
0.0129623 -0.0859022 0.883828
-0.0111721 -0.188014 0.937559
-0.0131243 -0.188098 0.931667
-0.012704 -0.186321 0.930687
-0.0107458 -0.185166 0.930786
-0.012286 -0.184589 0.929924
-0.0118692 -0.182898 0.929369
-0.0114527 -0.18121 0.928812
-0.0110371 -0.179455 0.92787
-0.0106218 -0.177663 0.926692
-0.0102075 -0.175749 0.924786
-0.00979527 -0.173724 0.922201
-0.00938577 -0.171408 0.91787
-0.00898062 -0.169016 0.913001
-0.00708139 -0.166887 0.907153
-0.00858088 -0.166454 0.907021
-0.00818629 -0.16401 0.901623
-0.00779197 -0.161901 0.898136
-0.00739785 -0.160031 0.896037
-0.00700513 -0.158233 0.894339
-0.00661333 -0.156477 0.892856
-0.006224 -0.154682 0.891096
-0.00583629 -0.152878 0.889234
-0.00545316 -0.150996 0.886819
-0.00507341 -0.149103 0.884281
-0.00469489 -0.147244 0.881908
-0.00431691 -0.145433 0.879791
-0.00394064 -0.143644 0.877766
-0.00356376 -0.141926 0.876182
-0.00318797 -0.140211 0.874565
-0.00281551 -0.138487 0.872849
-0.0024425 -0.136798 0.871334
-0.0020705 -0.135123 0.869878
-0.00169852 -0.13348 0.868606
-0.00132583 -0.131864 0.867499
-0.000956725 -0.130228 0.866204
-0.000589308 -0.128596 0.864911
-0.000220278 -0.127004 0.863876
0.000152019 -0.125456 0.863144
0.000524468 -0.123937 0.862615
0.000899058 -0.122445 0.862272
0.00127389 -0.120962 0.861989
0.00164922 -0.119492 0.861793
0.00202433 -0.118026 0.86162
0.00239612 -0.116534 0.861216
0.00276884 -0.11506 0.86095
0.00314058 -0.113584 0.860652
0.00350897 -0.112082 0.86011
0.00387767 -0.110593 0.859655
0.00425256 -0.109153 0.85962
0.00462632 -0.107709 0.859541
0.00500578 -0.106305 0.859817
0.00538979 -0.104938 0.860426
0.00577907 -0.10359 0.861234
0.00617002 -0.102254 0.862162
0.00656771 -0.10095 0.86343
0.00696342 -0.0996272 0.864545
0.00735831 -0.0982921 0.865561
0.00775844 -0.0969778 0.866811
0.00816124 -0.0956711 0.868174
0.00856017 -0.0943402 0.869321
0.00896726 -0.0930365 0.870787
0.00937903 -0.0917437 0.87241
0.00979749 -0.0904742 0.874342
0.010223 -0.0892217 0.876526
0.0106515 -0.0879669 0.878753
0.0110759 -0.086686 0.880747
0.0114907 -0.0853561 0.882221
-0.0135691 -0.190977 0.938477
-0.015505 -0.190852 0.931562
-0.0150856 -0.189226 0.931405
-0.0146672 -0.187571 0.931087
-0.0142445 -0.185797 0.930114
-0.0138245 -0.184034 0.929174
-0.0134058 -0.182324 0.928508
-0.0129881 -0.1806 0.92775
-0.0125696 -0.178812 0.926602
-0.0121524 -0.177004 0.92532
-0.011736 -0.175109 0.923513
-0.0113184 -0.173047 0.920695
-0.0109019 -0.170725 0.916306
-0.0104897 -0.168334 0.911411
-0.0100808 -0.165914 0.906245
-0.00967655 -0.163579 0.901484
-0.00927675 -0.161444 0.897834
-0.00887964 -0.159534 0.895483
-0.00848399 -0.157685 0.89346
-0.00808908 -0.155913 0.891864
-0.00769707 -0.154104 0.890003
-0.00730702 -0.152288 0.888048
-0.00692013 -0.150426 0.885748
-0.00653429 -0.148581 0.883501
-0.00615168 -0.146756 0.881337
-0.00576923 -0.144976 0.879412
-0.00538859 -0.1432 0.877469
-0.00500945 -0.14147 0.875792
-0.00463146 -0.139741 0.874082
-0.00425597 -0.137994 0.872189
-0.0038818 -0.13628 0.870491
-0.00350867 -0.13458 0.868838
-0.00313584 -0.132913 0.867382
-0.0027628 -0.131285 0.866167
-0.0023916 -0.129662 0.86496
-0.00202016 -0.128049 0.863783
-0.00164867 -0.126473 0.862858
-0.00127426 -0.124948 0.862291
-0.000898908 -0.123441 0.861836
-0.000523084 -0.121961 0.861583
-0.00014764 -0.120482 0.861324
0.000229211 -0.119024 0.861218
0.000606625 -0.117577 0.861194
0.000980994 -0.116107 0.860968
