ply
format ascii 1.0
element vertex 1654
property float x
property float y
property float z
end_header
-0.23759 -0.119225 0.941138
-0.235832 -0.11959 0.939948
-0.234182 -0.120007 0.939178
-0.232602 -0.120458 0.938685
-0.231055 -0.120925 0.938322
-0.22951 -0.12139 0.937954
-0.227932 -0.121836 0.937437
-0.226363 -0.122283 0.936948
-0.224813 -0.122739 0.936531
-0.223222 -0.12317 0.935924
-0.22159 -0.123574 0.935126
-0.220057 -0.124033 0.934745
-0.218521 -0.124487 0.93434
-0.217052 -0.124979 0.934227
-0.215639 -0.125503 0.934355
-0.21434 -0.126096 0.934997
-0.212957 -0.126638 0.935257
-0.211629 -0.127215 0.935774
-0.210367 -0.127834 0.936594
-0.209148 -0.128481 0.937623
-0.207886 -0.129103 0.938461
-0.206676 -0.129761 0.939555
-0.205489 -0.130436 0.940769
-0.204209 -0.131053 0.941552
-0.202892 -0.131645 0.942162
-0.201588 -0.132247 0.942839
-0.200318 -0.132875 0.943689
-0.199035 -0.133496 0.944487
-0.197791 -0.134145 0.945486
-0.196612 -0.134843 0.946823
-0.195399 -0.13552 0.947999
-0.194252 -0.136249 0.949529
-0.19307 -0.136956 0.950902
-0.191866 -0.13765 0.952177
-0.19067 -0.138354 0.953508
-0.189554 -0.139123 0.95528
-0.188451 -0.139907 0.957143
-0.187368 -0.140713 0.959145
-0.186308 -0.141543 0.961301
-0.185151 -0.142303 0.962956
-0.183902 -0.142991 0.96413
-0.182583 -0.143624 0.964923
-0.181278 -0.144271 0.965808
-0.179991 -0.144935 0.966806
-0.248284 -0.115854 0.950704
-0.246598 -0.116283 0.949924
-0.244863 -0.116686 0.948937
-0.243004 -0.117024 0.947437
-0.240994 -0.117283 0.945306
-0.239058 -0.117571 0.943443
-0.237244 -0.117916 0.942048
-0.235538 -0.118311 0.941069
-0.233931 -0.118753 0.940488
-0.232369 -0.119217 0.940073
-0.230822 -0.119686 0.939715
-0.229273 -0.120152 0.93934
-0.227714 -0.120611 0.938915
-0.226164 -0.121072 0.938511
-0.224653 -0.121553 0.938273
-0.223099 -0.122009 0.937834
-0.221526 -0.122451 0.937305
-0.220032 -0.122935 0.937112
-0.218534 -0.123417 0.936889
-0.217062 -0.123911 0.936777
-0.215646 -0.124438 0.936912
-0.214341 -0.12503 0.937544
-0.212954 -0.125575 0.937808
-0.211627 -0.126155 0.938346
-0.210362 -0.126775 0.939178
-0.209138 -0.127423 0.940204
-0.207848 -0.128031 0.940934
-0.206613 -0.128675 0.941929
-0.205386 -0.129327 0.94297
-0.204084 -0.129932 0.943669
-0.202743 -0.130512 0.944179
-0.201416 -0.131103 0.944763
-0.200143 -0.13173 0.945616
-0.198862 -0.132355 0.946438
-0.197614 -0.133004 0.947435
-0.19645 -0.133715 0.94886
-0.195265 -0.134415 0.950204
-0.1941 -0.135133 0.951665
-0.192931 -0.135853 0.953125
-0.191741 -0.13656 0.954496
-0.190543 -0.137265 0.955838
-0.189394 -0.138011 0.957462
-0.18827 -0.138781 0.959235
-0.187132 -0.139546 0.960967
-0.186015 -0.140333 0.962831
-0.184803 -0.141049 0.964205
-0.183516 -0.141708 0.965178
-0.182175 -0.142325 0.965866
-0.180866 -0.142969 0.966736
-0.17956 -0.143618 0.967637
-0.245992 -0.11483 0.949806
-0.244262 -0.115237 0.948831
-0.242405 -0.115578 0.947335
-0.240417 -0.115851 0.945289
-0.238508 -0.116156 0.943527
-0.23674 -0.116526 0.942317
-0.235059 -0.116936 0.941442
-0.233478 -0.117393 0.940964
-0.23194 -0.11787 0.940654
-0.230417 -0.118354 0.940398
-0.228891 -0.118833 0.940124
-0.227393 -0.119327 0.939957
-0.225901 -0.119823 0.939813
-0.224432 -0.12033 0.939759
-0.222922 -0.120812 0.939521
-0.221427 -0.121301 0.939343
-0.219974 -0.121814 0.939344
-0.218498 -0.122311 0.939234
-0.217044 -0.122821 0.939217
-0.215636 -0.123356 0.939408
-0.214306 -0.123937 0.939943
-0.212915 -0.124483 0.94021
-0.211605 -0.125077 0.940845
-0.210325 -0.125691 0.941622
-0.209074 -0.126325 0.942545
-0.207755 -0.126917 0.943156
-0.206473 -0.127535 0.943946
-0.20517 -0.12814 0.944646
-0.203843 -0.128731 0.945236
-0.202477 -0.129297 0.945642
-0.201111 -0.129864 0.946046
-0.199817 -0.130479 0.946808
-0.198548 -0.131112 0.9477
-0.1973 -0.131762 0.948706
-0.196115 -0.13246 0.950047
-0.194945 -0.133172 0.951475
-0.193761 -0.133878 0.952854
-0.192591 -0.134597 0.954323
-0.191418 -0.135317 0.955795
-0.190238 -0.136037 0.957247
-0.189074 -0.136773 0.958803
-0.187942 -0.137538 0.960559
-0.186781 -0.138286 0.962178
-0.18561 -0.139031 0.963766
-0.184362 -0.139718 0.964948
-0.183053 -0.14036 0.965815
-0.181679 -0.140951 0.966322
-0.180352 -0.141581 0.9671
-0.179031 -0.142218 0.967918
-0.179551 -0.145382 0.975992
-0.177712 -0.142859 0.968761
-0.247093 -0.112956 0.950553
-0.245362 -0.113367 0.94959
-0.243635 -0.113776 0.948627
-0.241761 -0.114112 0.947054
-0.239796 -0.114398 0.945092
-0.237888 -0.114706 0.94333
-0.236142 -0.115088 0.942203
-0.234462 -0.115499 0.941329
-0.232922 -0.115979 0.941015
-0.231408 -0.116469 0.940806
-0.229931 -0.116978 0.940743
-0.22847 -0.117493 0.940746
-0.227037 -0.118023 0.940861
-0.225593 -0.118545 0.940924
-0.224187 -0.119089 0.941152
-0.222739 -0.119609 0.941192
-0.221289 -0.120126 0.94122
-0.219881 -0.120666 0.941432
-0.218442 -0.121189 0.941503
-0.217001 -0.12171 0.941565
-0.21559 -0.122247 0.941754
-0.214233 -0.122816 0.942188
-0.212855 -0.123373 0.942528
-0.211542 -0.123968 0.943169
-0.210242 -0.124574 0.943874
-0.208933 -0.125174 0.94454
-0.207566 -0.12574 0.944944
-0.206201 -0.126307 0.945356
-0.204819 -0.126863 0.945685
-0.203434 -0.127417 0.946
-0.202045 -0.12797 0.9463
-0.200673 -0.128532 0.946682
-0.199361 -0.129136 0.947359
-0.198106 -0.12978 0.94833
-0.196874 -0.130442 0.949424
-0.195704 -0.13115 0.950847
-0.194534 -0.131861 0.952292
-0.193348 -0.132565 0.953669
-0.192179 -0.133285 0.955151
-0.191003 -0.134005 0.956618
-0.189809 -0.134714 0.958007
-0.188625 -0.135435 0.959469
-0.187491 -0.136198 0.96122
-0.186306 -0.136927 0.962726
-0.185101 -0.137644 0.964131
-0.183832 -0.138316 0.965212
-0.182506 -0.138944 0.965985
-0.181116 -0.139521 0.966402
-0.179775 -0.14014 0.967104
-0.178455 -0.140777 0.967934
-0.177135 -0.141417 0.96877
-0.24803 -0.111001 0.950651
-0.246387 -0.111457 0.950043
-0.244648 -0.111864 0.94904
-0.24289 -0.112261 0.947947
-0.241022 -0.1126 0.94639
-0.239129 -0.112923 0.944708
-0.237265 -0.113255 0.943118
-0.235522 -0.11364 0.941995
-0.233856 -0.114059 0.941175
-0.232313 -0.114538 0.94085
-0.23082 -0.11504 0.940725
-0.22937 -0.115562 0.940772
-0.227958 -0.116104 0.940982
-0.226553 -0.116648 0.941218
-0.225155 -0.117197 0.941482
-0.223776 -0.117755 0.941832
-0.22239 -0.118311 0.942149
-0.221 -0.118863 0.942449
-0.219672 -0.119449 0.943022
-0.218295 -0.12001 0.943378
-0.216892 -0.120556 0.943623
-0.215495 -0.121104 0.943891
-0.214135 -0.121674 0.944327
-0.212753 -0.122232 0.944664
-0.2114 -0.122807 0.945137
-0.210075 -0.123399 0.945744
-0.208687 -0.123954 0.946054
-0.207256 -0.124482 0.946165
-0.20581 -0.125 0.9462
-0.204384 -0.12553 0.946327
-0.202959 -0.12606 0.946455
-0.201566 -0.12661 0.946735
-0.200177 -0.127161 0.947037
-0.198863 -0.127765 0.947708
-0.197591 -0.128397 0.948602
-0.196359 -0.129058 0.949703
-0.195175 -0.129756 0.951059
-0.194023 -0.130479 0.952596
-0.192819 -0.13117 0.953886
-0.191646 -0.131886 0.955358
-0.190467 -0.132602 0.95681
-0.18927 -0.133308 0.958192
-0.188068 -0.134015 0.959564
-0.186916 -0.134763 0.961223
-0.185712 -0.135476 0.962623
-0.184488 -0.136178 0.963935
-0.183204 -0.136836 0.96493
-0.181879 -0.137464 0.965705
-0.180504 -0.138053 0.966209
-0.179179 -0.138683 0.966997
-0.177843 -0.139308 0.967738
-0.176539 -0.139959 0.968663
-0.2488 -0.10897 0.950092
-0.247209 -0.109451 0.949691
-0.245581 -0.109913 0.949135
-0.243865 -0.110332 0.948214
-0.242109 -0.110729 0.947117
-0.240257 -0.111079 0.945617
-0.238437 -0.111437 0.944219
-0.2366 -0.111784 0.942731
-0.234862 -0.112173 0.941623
-0.233197 -0.112594 0.940802
-0.231651 -0.113071 0.940461
-0.230139 -0.113563 0.940251
-0.22869 -0.114085 0.940301
-0.227302 -0.11464 0.940608
-0.22594 -0.115206 0.941028
-0.224588 -0.115778 0.941487
-0.223249 -0.116359 0.942011
-0.221923 -0.116946 0.94259
-0.220594 -0.117532 0.943162
-0.219291 -0.118134 0.943854
-0.217954 -0.118718 0.944399
-0.216594 -0.119289 0.94484
-0.215236 -0.119862 0.945296
-0.213878 -0.120436 0.945755
-0.212513 -0.121005 0.94618
-0.211153 -0.121578 0.946631
-0.209823 -0.122169 0.947224
-0.208388 -0.122698 0.94733
-0.206914 -0.123202 0.947241
-0.205421 -0.123692 0.947059
-0.203937 -0.124187 0.94691
-0.202456 -0.124682 0.946772
-0.201029 -0.125211 0.946892
-0.199623 -0.125753 0.94711
-0.198293 -0.126345 0.947704
-0.197024 -0.126978 0.94861
-0.195808 -0.12765 0.949795
-0.194627 -0.128347 0.951169
-0.193489 -0.12908 0.952787
-0.192285 -0.12977 0.954084
-0.191107 -0.130481 0.955532
-0.189892 -0.13117 0.956801
-0.188689 -0.131872 0.958154
-0.187454 -0.132552 0.95935
-0.186282 -0.133284 0.960905
-0.185063 -0.133984 0.962225
-0.183838 -0.134683 0.963528
-0.182539 -0.135328 0.96444
-0.181215 -0.135954 0.965218
-0.179841 -0.136543 0.965722
-0.178515 -0.137173 0.966508
-0.177179 -0.137794 0.96724
-0.175875 -0.138445 0.968166
-0.17652 -0.141706 0.977131
-0.174581 -0.139106 0.969166
-0.250302 -0.108448 0.950142
-0.249571 -0.106941 0.949542
-0.248027 -0.107444 0.949325
-0.246402 -0.107909 0.948781
-0.244757 -0.108364 0.948149
-0.243038 -0.108782 0.947206
-0.241282 -0.109181 0.946103
-0.239512 -0.109568 0.944918
-0.237785 -0.109972 0.943893
-0.236024 -0.110356 0.94271
-0.234292 -0.11075 0.941622
-0.232611 -0.111164 0.940731
-0.23102 -0.11162 0.940196
-0.229461 -0.11209 0.93979
-0.227971 -0.112591 0.939662
-0.226585 -0.113145 0.93997
-0.225242 -0.113721 0.940468
-0.223924 -0.11431 0.941074
-0.222606 -0.1149 0.941685
-0.221302 -0.115498 0.942362
-0.220015 -0.116106 0.943116
-0.218756 -0.116732 0.944003
-0.217462 -0.117339 0.944743
-0.216162 -0.117945 0.945461
-0.214867 -0.118554 0.946211
-0.213532 -0.119142 0.946779
-0.212187 -0.119725 0.947306
-0.210822 -0.120296 0.947744
-0.209468 -0.120875 0.948233
-0.207993 -0.121381 0.948154
-0.206496 -0.121872 0.947964
-0.204963 -0.12234 0.947594
-0.203439 -0.122811 0.947255
-0.201904 -0.123274 0.946853
-0.200458 -0.123791 0.946877
-0.199034 -0.124321 0.947007
-0.197687 -0.1249 0.947518
-0.196416 -0.125532 0.948412
-0.195217 -0.126213 0.949683
-0.194033 -0.126908 0.951051
-0.192882 -0.12763 0.9526
-0.191691 -0.128328 0.953968
-0.190497 -0.129026 0.95533
-0.189262 -0.129699 0.956501
-0.188023 -0.130373 0.957663
-0.186786 -0.13105 0.958844
-0.18558 -0.131755 0.960217
-0.184345 -0.132439 0.961444
-0.183117 -0.133134 0.962731
-0.181834 -0.133789 0.963725
-0.180514 -0.134418 0.96452
-0.179141 -0.135006 0.965026
-0.177831 -0.135646 0.965899
-0.176495 -0.136266 0.966624
-0.17519 -0.136914 0.967545
-0.173913 -0.137587 0.968639
-0.250314 -0.104901 0.948882
-0.248834 -0.105432 0.948915
-0.247283 -0.105933 0.948667
-0.245603 -0.106374 0.947901
-0.243923 -0.106813 0.947119
-0.242212 -0.107236 0.946198
-0.240489 -0.107649 0.945217
-0.238776 -0.108064 0.944255
-0.237143 -0.108512 0.943603
-0.235474 -0.108941 0.942791
-0.233771 -0.10935 0.941824
-0.23209 -0.109767 0.94093
-0.230472 -0.11021 0.940283
-0.228864 -0.110657 0.939665
-0.227309 -0.111127 0.939258
-0.225898 -0.111667 0.93946
-0.224535 -0.112232 0.939865
-0.223198 -0.11281 0.940387
-0.221898 -0.113408 0.941075
-0.220617 -0.114017 0.941847
-0.219356 -0.114638 0.942715
-0.218136 -0.115283 0.943778
-0.216902 -0.115923 0.944785
-0.215623 -0.116539 0.945601
-0.214353 -0.117163 0.946465
-0.213024 -0.117754 0.947065
-0.21168 -0.118337 0.947596
-0.210295 -0.118898 0.947945
-0.208922 -0.119465 0.948348
-0.207433 -0.119963 0.948202
-0.20592 -0.120446 0.947937
-0.20437 -0.120905 0.947481
-0.202842 -0.121374 0.947121
-0.201303 -0.121834 0.946694
-0.199854 -0.122349 0.946699
-0.198444 -0.122888 0.946899
-0.197112 -0.123478 0.947483
-0.195838 -0.124106 0.948369
-0.194622 -0.124775 0.949552
-0.193436 -0.125467 0.950908
-0.192266 -0.126174 0.952369
-0.191076 -0.12687 0.95374
-0.189866 -0.127557 0.955024
-0.188631 -0.128228 0.95619
-0.187359 -0.128876 0.957173
-0.1861 -0.129537 0.95824
-0.184861 -0.130213 0.959427
-0.183606 -0.130882 0.960543
-0.182365 -0.131563 0.961748
-0.181082 -0.132217 0.962739
-0.179777 -0.132855 0.963616
-0.178424 -0.133457 0.964227
-0.177132 -0.134108 0.965192
-0.175812 -0.134741 0.966011
-0.174524 -0.1354 0.967025
-0.173262 -0.136084 0.968208
-0.250892 -0.102795 0.947587
-0.249438 -0.103336 0.947717
-0.247938 -0.103858 0.947665
-0.246377 -0.104353 0.947366
-0.24469 -0.104792 0.946562
-0.24302 -0.105235 0.945811
-0.24136 -0.10568 0.945085
-0.239689 -0.106117 0.944301
-0.238047 -0.106564 0.943617
-0.236484 -0.107045 0.943248
-0.234889 -0.107509 0.942733
-0.233194 -0.107924 0.941794
-0.231511 -0.108341 0.940889
-0.22986 -0.108771 0.940101
-0.228203 -0.109193 0.939271
-0.226625 -0.109652 0.938761
-0.225196 -0.110183 0.938882
-0.223813 -0.110737 0.939197
-0.222454 -0.111303 0.939618
-0.221137 -0.11189 0.940224
-0.219841 -0.112489 0.940927
-0.218602 -0.113121 0.941891
-0.217385 -0.113765 0.942963
-0.216171 -0.114413 0.944056
-0.214931 -0.11505 0.945044
-0.213684 -0.115684 0.946011
-0.212356 -0.116275 0.946615
-0.211009 -0.116856 0.947129
-0.209622 -0.117414 0.947463
-0.208231 -0.117971 0.947781
-0.206766 -0.118483 0.94774
-0.205277 -0.11898 0.947583
-0.203766 -0.119462 0.947309
-0.202238 -0.119932 0.94695
-0.200696 -0.12039 0.946503
-0.199245 -0.120905 0.946499
-0.197818 -0.121433 0.94661
-0.196488 -0.122023 0.947205
-0.195215 -0.122651 0.948093
-0.193994 -0.123315 0.949256
-0.192792 -0.123995 0.950528
-0.191618 -0.124697 0.951964
-0.190413 -0.125381 0.953258
-0.189202 -0.126065 0.954536
-0.187969 -0.126736 0.955714
-0.186696 -0.127382 0.956691
-0.185419 -0.128028 0.957659
-0.184159 -0.128687 0.958727
-0.182886 -0.12934 0.959742
-0.181626 -0.130006 0.96084
-0.18033 -0.130645 0.961748
-0.179044 -0.131296 0.962724
-0.177709 -0.13191 0.963435
-0.176422 -0.132564 0.964421
-0.17512 -0.133209 0.965342
-0.173848 -0.133879 0.966443
-0.172573 -0.134551 0.967548
-0.173288 -0.137857 0.977102
-0.171326 -0.135249 0.968833
-0.251499 -0.100706 0.946416
-0.250038 -0.101244 0.946511
-0.24858 -0.101783 0.946618
-0.247063 -0.102296 0.946491
-0.245475 -0.102779 0.946077
-0.243812 -0.103227 0.945355
-0.242195 -0.103694 0.944805
-0.240582 -0.104159 0.94426
-0.238959 -0.104618 0.943661
-0.237357 -0.105084 0.943135
-0.235822 -0.105577 0.94287
-0.234232 -0.106044 0.942377
-0.232561 -0.106471 0.94153
-0.230877 -0.106889 0.940618
-0.229223 -0.107318 0.939811
-0.227545 -0.107733 0.938886
-0.225967 -0.108192 0.938373
-0.224521 -0.108714 0.938418
-0.22312 -0.109258 0.938651
-0.221758 -0.109821 0.939057
-0.220439 -0.110407 0.939648
-0.219122 -0.110994 0.940255
-0.217867 -0.111615 0.941145
-0.216649 -0.112257 0.942208
-0.215416 -0.112893 0.943212
-0.214176 -0.113527 0.944199
-0.212928 -0.114159 0.945154
-0.211599 -0.114748 0.945749
-0.210249 -0.115325 0.946243
-0.208877 -0.115891 0.94664
-0.207486 -0.116445 0.946951
-0.20606 -0.11698 0.947094
-0.204596 -0.117491 0.947047
-0.203108 -0.117987 0.946882
-0.201583 -0.118459 0.946528
-0.200044 -0.118921 0.946094
-0.198597 -0.119436 0.946102
-0.197209 -0.119989 0.946406
-0.1959 -0.120592 0.947106
-0.194647 -0.121232 0.948095
-0.193426 -0.121896 0.949262
-0.192202 -0.122559 0.950423
-0.190991 -0.123235 0.951672
-0.189767 -0.123905 0.952864
-0.188539 -0.124575 0.954056
-0.187308 -0.125246 0.955239
-0.186035 -0.12589 0.956214
-0.184742 -0.126523 0.957093
-0.183464 -0.127167 0.958061
-0.182171 -0.127804 0.958961
-0.180895 -0.128455 0.959966
-0.179599 -0.129093 0.96087
-0.17833 -0.129754 0.961935
-0.177014 -0.130381 0.96275
-0.175746 -0.131048 0.963844
-0.174476 -0.131717 0.964947
-0.173206 -0.132387 0.966061
-0.171931 -0.133057 0.967165
-0.170697 -0.133764 0.968526
-0.171421 -0.137089 0.978265
-0.16951 -0.134514 0.970198
-0.252096 -0.0986172 0.94521
-0.250683 -0.0991743 0.945486
-0.249169 -0.0996901 0.945374
-0.24768 -0.100215 0.94535
-0.246152 -0.100723 0.945169
-0.244584 -0.101214 0.944823
-0.242974 -0.101684 0.944301
-0.241409 -0.102172 0.94395
-0.239825 -0.10265 0.943515
-0.238242 -0.103127 0.94307
-0.236662 -0.103602 0.942627
-0.23515 -0.104106 0.942456
-0.233601 -0.104592 0.942126
-0.231975 -0.105041 0.941461
-0.23031 -0.105469 0.940624
-0.228643 -0.105894 0.939759
-0.226969 -0.106311 0.938849
-0.225376 -0.106765 0.938271
-0.223913 -0.107279 0.938238
-0.222473 -0.107803 0.938301
-0.221087 -0.108354 0.938601
-0.219743 -0.108926 0.939079
-0.218404 -0.109501 0.939589
-0.217128 -0.11011 0.940378
-0.215909 -0.110748 0.941432
-0.214689 -0.11139 0.942496
-0.21345 -0.112022 0.943477
-0.212184 -0.112643 0.944351
-0.210858 -0.113231 0.944949
-0.209503 -0.113804 0.945418
-0.208095 -0.114349 0.94564
-0.206669 -0.114882 0.945775
-0.205262 -0.115426 0.945999
-0.203819 -0.115949 0.946047
-0.20234 -0.116449 0.945916
-0.200856 -0.116945 0.945753
-0.199372 -0.117439 0.945582
-0.197945 -0.117967 0.945686
-0.1966 -0.118546 0.946197
-0.195332 -0.119174 0.947105
-0.194098 -0.119825 0.948198
-0.192861 -0.120477 0.949281
-0.191615 -0.121126 0.950334
-0.190351 -0.121766 0.951309
-0.189105 -0.122419 0.952385
-0.187859 -0.123075 0.953479
-0.186627 -0.123743 0.954654
-0.185342 -0.124378 0.955564
-0.184065 -0.125018 0.956524
-0.182771 -0.125651 0.957404
-0.181462 -0.126274 0.95821
-0.180169 -0.12691 0.959115
-0.178872 -0.127545 0.960005
-0.177604 -0.128205 0.961075
-0.176308 -0.128845 0.961991
-0.175041 -0.129511 0.963097
-0.173788 -0.13019 0.964289
-0.172545 -0.13088 0.965565
-0.171272 -0.131551 0.966678
-0.17004 -0.132257 0.968048
-0.168835 -0.13299 0.96961
-0.168357 -0.135299 0.972103
-0.167634 -0.133731 0.971219
-0.252712 -0.0965405 0.944084
-0.25126 -0.0970808 0.944207
-0.249818 -0.0976253 0.944367
-0.248269 -0.0981264 0.944104
-0.246748 -0.0986376 0.94395
-0.245204 -0.0991385 0.943696
-0.243687 -0.0996485 0.943541
-0.242154 -0.10015 0.943315
-0.24062 -0.100651 0.943082
-0.239061 -0.10114 0.942738
-0.237502 -0.101626 0.942384
-0.235925 -0.102104 0.941948
-0.234415 -0.102608 0.941776
-0.23289 -0.103105 0.941542
-0.231306 -0.103573 0.941046
-0.229671 -0.104016 0.940329
-0.228033 -0.104456 0.939582
-0.226382 -0.104885 0.938768
-0.22481 -0.105349 0.938275
-0.223346 -0.105863 0.938236
-0.221883 -0.106377 0.938201
-0.220457 -0.106908 0.938319
-0.219067 -0.107456 0.938597
-0.217689 -0.108011 0.938926
-0.216372 -0.108596 0.939531
-0.215133 -0.109224 0.940491
-0.213893 -0.109851 0.941456
-0.212636 -0.110472 0.942352
-0.211353 -0.111082 0.943138
-0.21001 -0.111659 0.94365
-0.208642 -0.112223 0.94405
-0.207235 -0.112766 0.944267
-0.20581 -0.113298 0.944395
-0.204422 -0.11385 0.944697
-0.203001 -0.114384 0.944838
-0.201561 -0.114906 0.944886
-0.200115 -0.115424 0.944903
-0.198704 -0.115961 0.945083
-0.197335 -0.116524 0.945472
-0.196046 -0.117137 0.946271
-0.194817 -0.117789 0.947377
-0.193602 -0.118452 0.94857
-0.192344 -0.11909 0.949553
-0.191093 -0.119735 0.950582
-0.189809 -0.120361 0.951453
-0.188526 -0.12099 0.952344
-0.187262 -0.121632 0.95334
-0.186009 -0.122285 0.954408
-0.184692 -0.122895 0.955137
-0.183386 -0.123515 0.955941
-0.182092 -0.124146 0.956818
-0.180783 -0.124767 0.95762
-0.179474 -0.125389 0.958428
-0.178161 -0.126011 0.959229
-0.176908 -0.12668 0.960378
-0.175613 -0.127319 0.961298
-0.174334 -0.127973 0.962324
-0.173094 -0.12866 0.963596
-0.171881 -0.129372 0.965043
-0.170611 -0.130043 0.966172
-0.169382 -0.130749 0.967562
-0.168177 -0.131481 0.969123
-0.166944 -0.132193 0.970532
-0.166447 -0.134489 0.972941
-0.165722 -0.132919 0.972036
-0.251979 -0.0950465 0.943476
-0.250476 -0.0955674 0.943399
-0.248986 -0.0960918 0.943365
-0.247378 -0.0965702 0.942868
-0.245831 -0.0970702 0.942601
-0.244291 -0.0975707 0.942352
-0.242801 -0.0980915 0.942296
-0.241338 -0.0986208 0.942339
-0.239833 -0.0991332 0.942213
-0.238281 -0.0996246 0.941892
-0.236724 -0.100112 0.94154
-0.235148 -0.100589 0.941099
-0.233622 -0.101087 0.940858
-0.232105 -0.101587 0.940644
-0.230547 -0.102067 0.940253
-0.228961 -0.102532 0.939733
-0.227367 -0.102992 0.939164
-0.225761 -0.103443 0.938537
-0.224225 -0.103925 0.938195
-0.222778 -0.104448 0.93823
-0.221295 -0.104953 0.938105
-0.219846 -0.105472 0.938121
-0.218414 -0.106 0.938212
-0.216993 -0.106532 0.938346
-0.215621 -0.107089 0.938697
-0.214361 -0.107703 0.93956
-0.213103 -0.108319 0.940439
-0.211845 -0.108938 0.941322
-0.210565 -0.109546 0.942119
-0.209241 -0.110132 0.942712
-0.207876 -0.110696 0.943117
-0.206471 -0.111238 0.943334
-0.205047 -0.11177 0.943462
-0.203675 -0.112331 0.943835
-0.202291 -0.112885 0.94415
-0.200892 -0.11343 0.944394
-0.199489 -0.113972 0.944612
-0.198132 -0.114542 0.945061
-0.196802 -0.115128 0.945645
-0.195536 -0.115755 0.946563
-0.194307 -0.116406 0.947676
-0.193089 -0.117067 0.948858
-0.191825 -0.117701 0.949816
-0.190557 -0.118335 0.95076
-0.18924 -0.118938 0.95146
-0.187939 -0.119554 0.952257
-0.186653 -0.120181 0.953136
-0.185366 -0.12081 0.954022
-0.18403 -0.121406 0.954645
-0.182721 -0.122023 0.955431
-0.181426 -0.122651 0.9563
-0.180105 -0.123262 0.957028
-0.178795 -0.123883 0.957832
-0.177482 -0.124503 0.958626
-0.176213 -0.125157 0.959678
-0.174917 -0.125794 0.960592
-0.173637 -0.126445 0.961609
-0.172397 -0.12713 0.962876
-0.171201 -0.127853 0.964422
-0.169949 -0.128536 0.965658
-0.168725 -0.129244 0.967078
-0.167534 -0.129985 0.968725
-0.166285 -0.130681 0.970033
-0.165045 -0.131391 0.97143
-0.164571 -0.133711 0.974014
-0.163878 -0.132165 0.973298
-0.252717 -0.0930213 0.942822
-0.251208 -0.0935398 0.942718
-0.249674 -0.0940482 0.942515
-0.248175 -0.0945695 0.942443
-0.246539 -0.0950365 0.941827
-0.244995 -0.0955373 0.941564
-0.243502 -0.0960564 0.941493
-0.242039 -0.0965866 0.941536
-0.240602 -0.097127 0.941682
-0.239121 -0.0976487 0.941647
-0.23759 -0.0981487 0.941402
-0.236011 -0.0986272 0.940954
-0.234435 -0.0991053 0.94051
-0.23287 -0.0995854 0.940101
-0.231375 -0.100095 0.939972
-0.229843 -0.100586 0.939682
-0.228302 -0.101072 0.939347
-0.226733 -0.101544 0.938884
-0.225186 -0.102023 0.938505
-0.223653 -0.102507 0.938174
-0.222208 -0.103031 0.938218
-0.220708 -0.103528 0.938014
-0.219238 -0.104038 0.937937
-0.217783 -0.104555 0.937924
-0.216339 -0.105075 0.937953
-0.214927 -0.105611 0.938118
-0.213665 -0.106222 0.938968
-0.212409 -0.106839 0.939852
-0.211133 -0.107446 0.940654
-0.209852 -0.108053 0.941439
-0.208544 -0.108646 0.942106
-0.20718 -0.10921 0.94251
-0.205778 -0.109753 0.942737
-0.204374 -0.110295 0.942954
-0.203023 -0.110867 0.943426
-0.201661 -0.111433 0.943846
-0.200267 -0.11198 0.944112
-0.198902 -0.112544 0.944517
-0.197586 -0.113137 0.945168
-0.196278 -0.113737 0.945865
-0.195031 -0.114375 0.946881
-0.193817 -0.115035 0.948074
-0.192575 -0.115681 0.949142
-0.191307 -0.116312 0.95008
-0.190038 -0.116945 0.95103
-0.188692 -0.117529 0.95158
-0.187394 -0.118147 0.952388
-0.18607 -0.118748 0.953069
-0.184743 -0.119349 0.953742
-0.183371 -0.11992 0.95417
-0.18206 -0.120534 0.95494
-0.180736 -0.12114 0.955641
-0.179426 -0.121757 0.956433
-0.178119 -0.122379 0.957245
-0.176807 -0.122998 0.958041
-0.175538 -0.123651 0.959091
-0.174255 -0.124295 0.960079
-0.172975 -0.124945 0.961093
-0.171735 -0.125628 0.962361
-0.170555 -0.126361 0.964003
-0.169321 -0.127058 0.965347
-0.168099 -0.127766 0.966778
-0.166908 -0.128504 0.968428
-0.165654 -0.129195 0.969713
-0.164402 -0.129891 0.971024
-0.163204 -0.130639 0.972706
-0.163909 -0.133989 0.98287
-0.161994 -0.13138 0.974336
-0.254236 -0.0925044 0.942954
-0.255078 -0.0905167 0.942695
-0.253605 -0.0910502 0.942736
-0.252046 -0.0915528 0.942448
-0.250493 -0.0920561 0.942176
-0.248912 -0.0925472 0.941784
-0.247405 -0.0930646 0.941673
-0.245793 -0.0935415 0.941147
-0.244258 -0.0940452 0.940911
-0.242772 -0.0945669 0.940863
-0.241311 -0.095098 0.940912
-0.239875 -0.0956383 0.941055
-0.238394 -0.096159 0.941014
-0.236844 -0.0966517 0.94069
-0.235284 -0.0971384 0.940311
-0.233705 -0.0976149 0.939846
-0.232135 -0.0980936 0.939412
-0.23066 -0.0986109 0.939361
-0.229149 -0.0991113 0.939154
-0.227632 -0.0996086 0.938916
-0.226108 -0.100101 0.938637
-0.224588 -0.100593 0.938372
-0.223062 -0.101081 0.938065
-0.221638 -0.101615 0.938203
-0.220159 -0.102122 0.938087
-0.218671 -0.102625 0.937934
-0.217196 -0.103131 0.93783
-0.21573 -0.103641 0.937755
-0.214293 -0.104165 0.937812
-0.212994 -0.104757 0.938491
-0.211736 -0.105371 0.939362
-0.210463 -0.105978 0.940175
-0.209182 -0.106583 0.940959
-0.207875 -0.107175 0.941625
-0.206509 -0.107738 0.942023
-0.205109 -0.108282 0.942256
-0.203709 -0.108826 0.942482
-0.202362 -0.109398 0.942969
-0.201037 -0.109984 0.943569
-0.199667 -0.110545 0.94395
-0.19834 -0.111131 0.944544
-0.197043 -0.111736 0.945294
-0.195768 -0.112354 0.94616
-0.194504 -0.112981 0.947092
-0.193302 -0.113647 0.948351
-0.192041 -0.114281 0.949325
-0.190772 -0.114911 0.950263
-0.189504 -0.115545 0.951221
-0.188144 -0.11612 0.951699
-0.186825 -0.116724 0.952403
-0.185482 -0.117312 0.952977
-0.184121 -0.117889 0.953464
-0.182715 -0.118437 0.953704
-0.181403 -0.119049 0.954462
-0.180063 -0.119643 0.955074
-0.178755 -0.12026 0.955871
-0.177462 -0.12089 0.956763
-0.17615 -0.121508 0.957556
-0.174868 -0.12215 0.958536
-0.173586 -0.122794 0.959523
-0.172291 -0.12343 0.960442
-0.171038 -0.1241 0.961629
-0.169857 -0.124831 0.963268
-0.168653 -0.125547 0.964786
-0.167431 -0.126254 0.966225
-0.166255 -0.127002 0.967965
-0.165015 -0.127702 0.969329
-0.163775 -0.128408 0.970723
-0.16255 -0.129129 0.972229
-0.161338 -0.129866 0.973847
-0.160796 -0.132135 0.976065
-0.160135 -0.130616 0.975547
-0.160747 -0.13392 0.985361
-0.158943 -0.13138 0.977348
-0.256054 -0.0885739 0.942936
-0.254432 -0.0890573 0.942419
-0.252919 -0.089578 0.942309
-0.251331 -0.0900707 0.941903
-0.249756 -0.0905654 0.941541
-0.248168 -0.0910547 0.941118
-0.246662 -0.0915726 0.941008
-0.245101 -0.092068 0.940674
-0.243592 -0.0925822 0.940536
-0.242109 -0.0931057 0.940496
-0.240648 -0.0936361 0.940541
-0.239208 -0.0941747 0.940666
-0.237686 -0.0946794 0.940455
-0.236136 -0.0951722 0.940125
-0.234558 -0.0956506 0.939668
-0.232959 -0.0961201 0.939117
-0.231367 -0.0965893 0.93858
-0.229908 -0.0971126 0.938592
-0.228398 -0.0976136 0.938382
-0.226909 -0.0981219 0.938253
-0.22543 -0.0986343 0.938164
-0.223955 -0.0991473 0.938085
-0.222452 -0.0996464 0.937879
-0.221051 -0.10019 0.938112
-0.219592 -0.100708 0.938085
-0.218105 -0.101211 0.937935
-0.216613 -0.10171 0.937751
-0.215126 -0.102211 0.937585
-0.213668 -0.102724 0.937542
-0.212366 -0.103313 0.938206
-0.211073 -0.103909 0.938916
-0.209782 -0.104506 0.939645
-0.2085 -0.105109 0.94042
-0.207193 -0.1057 0.941085
-0.205813 -0.106254 0.941409
-0.20445 -0.106818 0.941813
-0.203085 -0.107379 0.94221
-0.20174 -0.107953 0.942706
-0.200435 -0.108548 0.943396
-0.199081 -0.109118 0.943857
-0.197772 -0.109715 0.944542
-0.196474 -0.110318 0.945288
-0.195233 -0.110955 0.946325
-0.193965 -0.111579 0.947243
-0.192781 -0.112256 0.948599
-0.191505 -0.11288 0.949497
-0.190236 -0.11351 0.950443
-0.188966 -0.114142 0.951392
-0.187604 -0.114716 0.951861
-0.186253 -0.115298 0.952395
-0.184874 -0.115863 0.952775
-0.183476 -0.116416 0.953064
-0.182037 -0.116941 0.953113
-0.180713 -0.117543 0.953802
-0.17936 -0.118126 0.954337
-0.178067 -0.118752 0.95522
-0.176788 -0.11939 0.956186
-0.175495 -0.12002 0.957083
-0.174215 -0.120662 0.958071
-0.172964 -0.121327 0.959238
-0.17167 -0.121963 0.960164
-0.170413 -0.12263 0.96133
-0.169216 -0.123346 0.962868
-0.16801 -0.124059 0.964379
-0.166775 -0.124753 0.965735
-0.1656 -0.125499 0.96748
-0.164373 -0.126208 0.968936
-0.163149 -0.126925 0.970425
-0.161924 -0.127644 0.971936
-0.160725 -0.12839 0.973638
-0.15952 -0.129136 0.975325
-0.158324 -0.129896 0.977109
-0.256508 -0.0864547 0.941224
-0.255083 -0.0870054 0.941441
-0.253529 -0.0875124 0.941172
-0.252069 -0.0880497 0.941254
-0.250511 -0.0885522 0.940956
-0.248943 -0.0890501 0.940615
-0.247359 -0.0895412 0.940199
-0.2459 -0.0900749 0.940265
-0.244368 -0.0905815 0.940039
-0.242885 -0.0911051 0.939999
-0.241424 -0.0916358 0.940041
-0.239978 -0.0921724 0.940144
-0.238513 -0.0927005 0.940162
-0.23701 -0.0932131 0.940026
-0.235465 -0.0937084 0.939708
-0.233892 -0.0941898 0.939269
-0.232273 -0.0946508 0.93863
-0.230681 -0.0951208 0.93809
-0.229184 -0.0956283 0.937934
-0.22768 -0.0961321 0.937744
-0.226213 -0.0966501 0.937707
-0.224778 -0.0971805 0.937801
-0.223328 -0.0977046 0.937824
-0.221864 -0.0982214 0.937788
-0.220482 -0.0987743 0.938103
-0.219042 -0.0993006 0.93816
-0.217577 -0.0998151 0.938101
-0.216107 -0.100325 0.938017
-0.214638 -0.100836 0.937932
-0.213178 -0.101349 0.937885
-0.211856 -0.101928 0.938458
-0.210523 -0.102504 0.938989
-0.209192 -0.103081 0.939532
-0.207889 -0.103673 0.94021
-0.206582 -0.104263 0.940875
-0.205206 -0.104818 0.941214
-0.203863 -0.105392 0.941715
-0.202516 -0.105963 0.942201
-0.201187 -0.106545 0.942771
-0.199897 -0.107149 0.943544
-0.198559 -0.107727 0.944079
-0.197269 -0.108334 0.944862
-0.195969 -0.108936 0.945602
-0.194709 -0.109563 0.946554
-0.193422 -0.110176 0.947374
-0.192224 -0.110843 0.948666
-0.190919 -0.111448 0.949411
-0.189651 -0.112078 0.950361
-0.188344 -0.112685 0.95112
-0.186961 -0.113246 0.951474
-0.185592 -0.113816 0.951906
-0.184196 -0.11437 0.952197
-0.182768 -0.114901 0.952305
-0.181324 -0.115422 0.95233
-0.179999 -0.116022 0.953004
-0.178635 -0.116596 0.953473
-0.177347 -0.117224 0.954372
-0.176083 -0.11787 0.955423
-0.17482 -0.118519 0.956487
-0.173545 -0.119163 0.9575
-0.172327 -0.11985 0.958861
-0.17106 -0.120505 0.959946
-0.169803 -0.12117 0.961114
-0.168587 -0.121869 0.962542
-0.167378 -0.122579 0.964033
-0.166142 -0.12327 0.965384
-0.164956 -0.124006 0.967063
-0.163732 -0.124715 0.968533
-0.162506 -0.125429 0.97002
-0.161284 -0.126147 0.971541
-0.160072 -0.126881 0.973163
-0.158867 -0.127626 0.974855
-0.157672 -0.128384 0.976643
-0.158196 -0.131611 0.986053
-0.15642 -0.129097 0.978077
-0.255469 -0.0848699 0.939476
-0.254074 -0.0854291 0.939798
-0.252592 -0.0859584 0.939792
-0.251115 -0.0864892 0.939796
-0.249546 -0.0869867 0.939446
-0.247987 -0.0874874 0.939127
-0.24645 -0.0879931 0.938883
-0.245048 -0.0885469 0.93916
-0.243587 -0.0890791 0.939208
-0.242153 -0.0896198 0.939355
-0.240732 -0.0901663 0.939556
-0.239285 -0.0907016 0.939648
-0.237821 -0.0912302 0.939668
-0.236341 -0.0917515 0.93962
-0.234819 -0.092256 0.939397
-0.233249 -0.0927395 0.938964
-0.231633 -0.0932026 0.938332
-0.230042 -0.0936737 0.937788
-0.228525 -0.094173 0.93755
-0.227023 -0.0946774 0.937362
-0.22558 -0.0952057 0.937423
-0.224169 -0.0957465 0.937616
-0.222739 -0.0962791 0.937726
-0.221296 -0.0968062 0.937779
-0.219914 -0.0973592 0.938094
-0.218493 -0.0978944 0.938238
-0.217049 -0.0984182 0.938273
-0.2156 -0.0989396 0.938283
-0.214154 -0.0994618 0.938304
-0.212715 -0.0999857 0.938348
-0.211355 -0.100548 0.938754
-0.209979 -0.101102 0.939091
-0.208603 -0.101656 0.939424
-0.207257 -0.102226 0.939899
-0.205914 -0.102797 0.940394
-0.204542 -0.103354 0.940749
-0.20322 -0.103937 0.941347
-0.201894 -0.10452 0.94193
-0.200566 -0.105101 0.942508
-0.199294 -0.105714 0.943363
-0.197972 -0.106301 0.943984
-0.196684 -0.106907 0.944774
-0.195369 -0.107501 0.945442
-0.194125 -0.108135 0.946471
-0.192821 -0.108737 0.94721
-0.19162 -0.109401 0.948484
-0.190297 -0.109995 0.949139
-0.189026 -0.110622 0.950073
-0.1877 -0.111217 0.950726
-0.18633 -0.111786 0.951151
-0.184946 -0.112345 0.951497
-0.183536 -0.112888 0.951706
-0.182087 -0.113406 0.951702
-0.180641 -0.113925 0.951699
-0.179298 -0.114512 0.952277
-0.177923 -0.115077 0.952673
-0.176652 -0.115715 0.953666
-0.175403 -0.116369 0.954798
-0.174144 -0.117019 0.955882
-0.172885 -0.117672 0.956985
-0.171701 -0.118382 0.958545
-0.170451 -0.119049 0.959739
-0.169197 -0.119714 0.960918
-0.167978 -0.12041 0.962332
-0.166751 -0.121104 0.963719
-0.1655 -0.121782 0.964971
-0.164297 -0.122502 0.966551
-0.163074 -0.123211 0.968031
-0.161849 -0.123922 0.969517
-0.16064 -0.124651 0.971129
-0.15943 -0.125383 0.972761
-0.158227 -0.126126 0.974466
-0.157032 -0.126882 0.976253
-0.155792 -0.127604 0.97777
-0.155162 -0.129811 0.979505
-0.154522 -0.128305 0.979114
-0.155045 -0.131565 0.988762
-0.153284 -0.129038 0.980693
-0.254393 -0.0832779 0.937583
-0.253024 -0.0838425 0.937991
-0.251552 -0.0843741 0.93801
-0.25006 -0.0848983 0.937946
-0.248523 -0.0854061 0.937704
-0.247015 -0.0859228 0.937571
-0.245531 -0.0864459 0.937522
-0.244202 -0.0870245 0.938079
-0.242794 -0.0875742 0.938329
-0.241412 -0.0881335 0.938678
-0.240017 -0.0886886 0.938976
-0.238597 -0.0892331 0.93917
-0.237137 -0.089763 0.939205
-0.235662 -0.0902865 0.939173
-0.234143 -0.090792 0.938958
-0.232576 -0.0912775 0.938531
-0.230959 -0.0917409 0.937891
-0.229389 -0.0922214 0.93743
-0.227871 -0.0927205 0.93718
-0.226389 -0.0932332 0.937077
-0.224964 -0.0937691 0.937211
-0.223575 -0.0943196 0.9375
-0.222149 -0.0948538 0.937626
-0.220728 -0.0953901 0.93777
-0.219346 -0.0959431 0.938085
-0.217944 -0.0964874 0.938313
-0.216522 -0.0970219 0.938449
-0.215098 -0.0975553 0.938573
-0.213675 -0.0980891 0.938699
-0.212256 -0.0986228 0.938838
-0.210857 -0.0991668 0.939071
-0.209438 -0.0997012 0.939206
-0.208015 -0.100232 0.93932
-0.206626 -0.10078 0.939595
-0.205246 -0.101333 0.939909
-0.203875 -0.101889 0.940265
-0.202555 -0.102472 0.940869
-0.201231 -0.103054 0.941461
-0.199907 -0.103637 0.942054
-0.198637 -0.104249 0.94292
-0.197337 -0.104848 0.943647
-0.196049 -0.105454 0.944439
-0.194739 -0.106048 0.945124
-0.193492 -0.10668 0.94614
-0.192185 -0.107279 0.946862
-0.190963 -0.10793 0.948028
-0.189637 -0.108521 0.948663
-0.188346 -0.109134 0.949491
-0.187003 -0.109717 0.950048
-0.185635 -0.110286 0.95048
-0.184251 -0.110845 0.950822
-0.182846 -0.11139 0.951052
-0.181399 -0.111909 0.951047
-0.179952 -0.112425 0.951036
-0.178606 -0.113009 0.951591
-0.17723 -0.113573 0.951976
-0.175946 -0.114199 0.95289
-0.174714 -0.114863 0.954113
-0.173483 -0.115531 0.955359
-0.172228 -0.116185 0.956488
-0.171062 -0.116906 0.958153
-0.169846 -0.117595 0.959544
-0.168608 -0.118271 0.960826
-0.167379 -0.118958 0.962179
-0.166147 -0.119646 0.96354
-0.164877 -0.120309 0.96468
-0.163643 -0.121003 0.966066
-0.162405 -0.121696 0.967444
-0.161178 -0.122404 0.968916
-0.159981 -0.123141 0.970609
-0.158786 -0.123882 0.972336
-0.157611 -0.124648 0.974236
-0.156429 -0.125413 0.976111
-0.155203 -0.126147 0.977731
-0.153946 -0.126856 0.979156
-0.152711 -0.127591 0.980764
-0.15314 -0.130779 0.989921
-0.151444 -0.128303 0.982183
-0.254765 -0.081153 0.935576
-0.253376 -0.0817095 0.935903
-0.251985 -0.0822654 0.936215
-0.250483 -0.082786 0.936107
-0.248991 -0.083308 0.936032
-0.247459 -0.083816 0.935795
-0.245978 -0.0843399 0.935752
-0.244546 -0.0848803 0.935898
-0.243292 -0.0854823 0.936738
-0.241941 -0.0860509 0.937203
-0.240628 -0.0866335 0.937823
-0.239305 -0.0872131 0.938403
-0.237933 -0.0877755 0.938791
-0.236501 -0.0883161 0.938936
-0.23505 -0.0888479 0.938999
-0.233551 -0.0893623 0.938861
-0.231963 -0.0898395 0.938346
-0.230346 -0.0903041 0.937701
-0.228755 -0.0907773 0.937149
-0.227236 -0.0912765 0.936896
-0.225753 -0.0917889 0.936781
-0.224349 -0.0923339 0.937005
-0.222964 -0.092885 0.937309
-0.22156 -0.0934291 0.937529
-0.220159 -0.0939741 0.937761
-0.218777 -0.0945271 0.938077
-0.217377 -0.0950726 0.938311
-0.215975 -0.0956169 0.938537
-0.214573 -0.0961602 0.938762
-0.213172 -0.0967041 0.938989
-0.211773 -0.0972484 0.939222
-0.210353 -0.0977832 0.939358
-0.208893 -0.0982978 0.939302
-0.207426 -0.0988078 0.939211
-0.205998 -0.0993372 0.939301
-0.204581 -0.0998699 0.939436
-0.203207 -0.100425 0.939774
-0.201902 -0.101015 0.940449
-0.200596 -0.101605 0.941125
-0.199294 -0.102199 0.941826
-0.198027 -0.102811 0.942704
-0.196743 -0.103418 0.94351
-0.19544 -0.104014 0.944226
-0.194145 -0.104617 0.944992
-0.192882 -0.105239 0.945928
-0.191574 -0.105836 0.946642
-0.190316 -0.106465 0.947621
-0.188984 -0.107051 0.948223
-0.187679 -0.107654 0.948973
-0.186338 -0.108238 0.949542
-0.18499 -0.108818 0.950073
-0.183625 -0.109388 0.950515
-0.182221 -0.109934 0.95075
-0.180777 -0.110454 0.950756
-0.179331 -0.110972 0.95075
-0.177986 -0.111554 0.951307
-0.176612 -0.112119 0.951698
-0.175324 -0.112742 0.952593
-0.174077 -0.113394 0.953728
-0.172859 -0.11407 0.955053
-0.171607 -0.114725 0.956195
-0.170455 -0.115453 0.957948
-0.169271 -0.116164 0.959538
-0.168064 -0.116861 0.961009
-0.166836 -0.117548 0.962379
-0.16559 -0.118225 0.963654
-0.164301 -0.118872 0.964678
-0.163047 -0.119549 0.965939
-0.161777 -0.120217 0.967116
-0.160536 -0.120911 0.968503
-0.159339 -0.121645 0.970194
-0.158143 -0.122386 0.971919
-0.15697 -0.12315 0.973829
-0.155802 -0.123924 0.975804
-0.154591 -0.124668 0.97753
-0.153361 -0.125401 0.979148
-0.152154 -0.126158 0.98095
-0.150901 -0.126883 0.982476
-0.151338 -0.13009 0.991826
-0.149701 -0.127658 0.984394
-0.255271 -0.0790772 0.934088
-0.253878 -0.0796307 0.934386
-0.252445 -0.0801727 0.934537
-0.251035 -0.0807213 0.934771
-0.249485 -0.081225 0.934468
-0.247991 -0.0817458 0.934373
-0.246479 -0.0822591 0.934204
-0.245023 -0.0827907 0.934246
-0.243598 -0.0833317 0.934408
-0.242371 -0.0839394 0.935347
-0.241068 -0.0845232 0.935994
-0.239806 -0.0851219 0.93681
-0.238532 -0.085718 0.937584
-0.237208 -0.0862966 0.938161
-0.235802 -0.0868458 0.938405
-0.234391 -0.0873927 0.938631
-0.232913 -0.0879144 0.938574
-0.231344 -0.0884007 0.938134
-0.229751 -0.0888757 0.937585
-0.228179 -0.0893567 0.937113
-0.226644 -0.0898502 0.936785
-0.225159 -0.090363 0.936665
-0.223757 -0.0909084 0.936896
-0.222374 -0.0914599 0.937205
-0.220973 -0.0920059 0.937438
-0.219591 -0.0925589 0.937753
-0.218209 -0.0931119 0.938068
-0.216827 -0.0936649 0.938383
-0.215445 -0.0942179 0.938698
-0.214063 -0.0947709 0.939014
-0.212681 -0.0953239 0.939329
-0.211299 -0.0958769 0.939644
-0.209841 -0.0963945 0.93961
-0.20836 -0.0968999 0.939456
-0.206872 -0.0974013 0.939269
-0.205409 -0.0979129 0.939188
-0.203956 -0.0984286 0.939152
-0.20258 -0.0989815 0.939476
-0.201255 -0.0995614 0.940055
-0.199933 -0.100142 0.940649
-0.198647 -0.100743 0.941426
-0.19738 -0.101355 0.942307
-0.196114 -0.101969 0.943198
-0.194808 -0.102563 0.943898
-0.193512 -0.103164 0.944658
-0.192232 -0.103775 0.945508
-0.190925 -0.104372 0.94622
-0.189635 -0.104981 0.947032
-0.188305 -0.105567 0.947642
-0.187015 -0.106178 0.948467
-0.18568 -0.106764 0.949067
-0.18435 -0.107354 0.949691
-0.183019 -0.107944 0.95032
-0.181646 -0.108509 0.950718
-0.180222 -0.109042 0.950837
-0.17881 -0.109582 0.951018
-0.177468 -0.110167 0.951594
-0.176105 -0.110739 0.952058
-0.174803 -0.111352 0.952872
-0.173552 -0.112001 0.953995
-0.172319 -0.112666 0.955235
-0.171079 -0.113328 0.956455
-0.169914 -0.114047 0.958136
-0.168741 -0.114764 0.959798
-0.167521 -0.115452 0.961196
-0.166292 -0.116138 0.962566
-0.165032 -0.116803 0.963763
-0.163725 -0.117436 0.964677
-0.16244 -0.118088 0.965748
-0.161139 -0.118731 0.966729
-0.159868 -0.119399 0.967921
-0.158658 -0.12012 0.969523
-0.157476 -0.120868 0.971339
-0.156318 -0.121643 0.97335
-0.155179 -0.122439 0.975527
-0.153996 -0.123205 0.977442
-0.152795 -0.123962 0.979265
-0.1516 -0.12473 0.981164
-0.150377 -0.125477 0.982898
-0.149175 -0.126252 0.984819
-0.149517 -0.129387 0.993649
-0.147932 -0.126994 0.986478
-0.256588 -0.0784994 0.933505
-0.255896 -0.0770418 0.933047
-0.25457 -0.0776161 0.933593
-0.253165 -0.0781659 0.933844
-0.251712 -0.0787013 0.933916
-0.250257 -0.0792356 0.933975
-0.248655 -0.0797227 0.933466
-0.247096 -0.0802215 0.933114
-0.245561 -0.0807265 0.932846
-0.244104 -0.0812566 0.932872
-0.242702 -0.081804 0.933115
-0.2415 -0.0824182 0.934149
-0.240264 -0.083023 0.935056
-0.239047 -0.0836351 0.936046
-0.237796 -0.0842375 0.936909
-0.236519 -0.084832 0.93767
-0.235155 -0.0853962 0.938088
-0.233748 -0.0859447 0.938325
-0.232292 -0.0864744 0.938357
-0.230725 -0.0869619 0.937924
-0.229135 -0.0874388 0.937383
-0.227548 -0.0879147 0.936842
-0.226033 -0.0884175 0.9366
-0.22455 -0.0889309 0.936483
-0.223168 -0.0894839 0.936798
-0.221786 -0.0900369 0.937114
-0.220404 -0.0905898 0.937429
-0.219022 -0.0911429 0.937744
-0.21764 -0.0916958 0.938059
-0.216258 -0.0922489 0.938374
-0.214858 -0.0927934 0.938609
-0.213457 -0.0933385 0.938835
-0.212055 -0.0938827 0.939059
-0.210672 -0.094435 0.939368
-0.209199 -0.0949453 0.939258
-0.207737 -0.0954598 0.939189
-0.206268 -0.0959704 0.939087
-0.204806 -0.0964826 0.939009
-0.203337 -0.0969913 0.938892
-0.201958 -0.0975429 0.939206
-0.200615 -0.0981116 0.939693
-0.199276 -0.098683 0.9402
-0.197991 -0.0992834 0.940981
-0.196723 -0.0998937 0.941856
-0.195454 -0.100505 0.94273
-0.194147 -0.101097 0.943423
-0.192867 -0.101705 0.944261
-0.191588 -0.102316 0.945113
-0.190284 -0.102914 0.945843
-0.188993 -0.10352 0.946646
-0.187679 -0.104116 0.947338
-0.186391 -0.104727 0.948178
-0.185077 -0.105323 0.948881
-0.18375 -0.105915 0.949525
-0.182419 -0.106504 0.950149
-0.181046 -0.107069 0.95055
-0.179638 -0.107611 0.950754
-0.178246 -0.108165 0.951048
-0.17694 -0.108772 0.951829
-0.175608 -0.109365 0.952475
-0.174319 -0.109987 0.953371
-0.173066 -0.110635 0.954482
-0.171816 -0.111287 0.955633
-0.170559 -0.111937 0.956759
-0.169361 -0.112632 0.958257
-0.16817 -0.113336 0.959811
-0.166932 -0.114009 0.961109
-0.165688 -0.114682 0.962386
-0.164414 -0.115335 0.963492
-0.163091 -0.115956 0.964308
-0.16179 -0.116594 0.965277
-0.160475 -0.117224 0.966161
-0.159204 -0.117892 0.967352
-0.157991 -0.118607 0.968936
-0.156847 -0.119384 0.971014
-0.155717 -0.120179 0.973214
-0.154611 -0.121001 0.975614
-0.153456 -0.121789 0.977733
-0.152282 -0.122567 0.979747
-0.151085 -0.123333 0.981652
-0.149876 -0.124094 0.983496
-0.148663 -0.124857 0.985352
-0.147418 -0.125598 0.987012
-0.146654 -0.127709 0.987911
-0.146138 -0.126311 0.988447
-0.145314 -0.128369 0.988922
-0.144813 -0.126986 0.989568
-0.145014 -0.130039 0.997702
-0.143497 -0.127672 0.990772
-0.258532 -0.0758922 0.931904
-0.257825 -0.0744326 0.931392
-0.256465 -0.0749945 0.931804
-0.255124 -0.0755621 0.93229
-0.253763 -0.0761247 0.932699
-0.252367 -0.0766768 0.932981
-0.250885 -0.0772022 0.932935
-0.249398 -0.0777266 0.932862
-0.247799 -0.0782144 0.932358
-0.246243 -0.0787141 0.93201
-0.244713 -0.0792204 0.93175
-0.243278 -0.0797561 0.931858
-0.241898 -0.0803093 0.93218
-0.240718 -0.0809293 0.933295
-0.239504 -0.0815398 0.934287
-0.238311 -0.0821588 0.93537
-0.237084 -0.0827675 0.936325
-0.235846 -0.0833749 0.937249
-0.234507 -0.0839472 0.937762
-0.233106 -0.0844966 0.93802
-0.231673 -0.0850354 0.93815
-0.230131 -0.0855329 0.937816
-0.228543 -0.086012 0.937283
-0.22696 -0.0864907 0.936752
-0.225465 -0.0870014 0.936592
-0.223981 -0.0875148 0.936474
-0.222599 -0.0880678 0.93679
-0.221217 -0.0886208 0.937105
-0.219835 -0.0891738 0.93742
-0.218453 -0.0897268 0.937735
-0.217071 -0.0902798 0.93805
-0.215689 -0.0908328 0.938366
-0.21427 -0.0913696 0.938511
-0.212848 -0.0919054 0.93864
-0.211424 -0.0924396 0.938762
-0.210022 -0.0929821 0.938979
-0.20855 -0.0934937 0.938873
-0.20711 -0.0940182 0.938903
-0.205663 -0.0945397 0.938902
-0.204221 -0.0950616 0.938918
-0.20277 -0.0955789 0.938883
-0.201391 -0.0961305 0.939197
-0.200048 -0.0966993 0.939682
-0.198707 -0.0972702 0.940183
-0.19742 -0.0978685 0.940954
-0.196135 -0.0984689 0.941745
-0.19485 -0.0990715 0.942542
-0.193526 -0.0996535 0.943147
-0.192246 -0.100261 0.943986
-0.190953 -0.100863 0.944762
-0.189664 -0.101468 0.94557
-0.188375 -0.102075 0.946383
-0.187076 -0.102677 0.947154
-0.185789 -0.103288 0.947999
-0.184491 -0.103894 0.948792
-0.183166 -0.104486 0.949446
-0.181833 -0.105073 0.950059
-0.180459 -0.105637 0.95045
-0.179065 -0.106188 0.950735
-0.177679 -0.106745 0.951063
-0.17639 -0.107364 0.951946
-0.175093 -0.107978 0.952788
-0.173818 -0.108609 0.953771
-0.172566 -0.109257 0.954901
-0.171328 -0.109918 0.956131
-0.170069 -0.110566 0.957249
-0.168851 -0.111246 0.958631
-0.167642 -0.111936 0.960086
-0.166383 -0.112595 0.961259
-0.165107 -0.113244 0.962347
-0.163801 -0.113873 0.963255
-0.162464 -0.114482 0.963983
-0.161135 -0.115099 0.964773
-0.159793 -0.115706 0.965478
-0.158519 -0.116368 0.966648
-0.157305 -0.117081 0.968224
-0.156192 -0.117879 0.970499
-0.155107 -0.118708 0.973009
-0.154045 -0.119563 0.975724
-0.152919 -0.120374 0.978041
-0.151781 -0.121183 0.980321
-0.150583 -0.121947 0.982231
-0.149386 -0.122717 0.984173
-0.148173 -0.12348 0.986041
-0.146927 -0.124221 0.987713
-0.145647 -0.124934 0.989157
-0.144335 -0.125621 0.990385
-0.143009 -0.126299 0.991534
-0.14217 -0.128352 0.991927
-0.141669 -0.126968 0.992602
-0.14184 -0.130026 1.00076
-0.140328 -0.127637 0.993668
-0.258497 -0.07242 0.930541
-0.257102 -0.0729709 0.930821
-0.25571 -0.0735228 0.93111
-0.254332 -0.0740793 0.931453
-0.252925 -0.0746277 0.931687
-0.251497 -0.0751689 0.93184
-0.250016 -0.075694 0.931789
-0.248528 -0.0762166 0.931706
-0.246936 -0.0767071 0.931217
-0.245386 -0.0772085 0.930882
-0.243859 -0.0777155 0.930629
-0.242427 -0.078251 0.930741
-0.241072 -0.0788109 0.931155
-0.2399 -0.0794319 0.932296
-0.238712 -0.0800485 0.933388
-0.237561 -0.0806789 0.934635
-0.236355 -0.0812936 0.935673
-0.235122 -0.0819003 0.936612
-0.233808 -0.0824803 0.937224
-0.232451 -0.0830461 0.937663
-0.231023 -0.0835862 0.93781
-0.229501 -0.0840912 0.937556
-0.227934 -0.084579 0.937104
-0.226369 -0.0850655 0.936654
-0.224877 -0.0855774 0.936501
-0.223413 -0.0860996 0.936466
-0.222031 -0.0866527 0.936781
-0.220649 -0.0872056 0.937096
-0.219267 -0.0877586 0.937411
-0.217885 -0.0883116 0.937726
-0.216503 -0.0888646 0.938042
-0.215121 -0.0894177 0.938357
-0.213699 -0.0899532 0.938493
-0.212256 -0.0904798 0.938526
-0.210808 -0.0910039 0.938534
-0.209384 -0.0915373 0.938648
-0.207913 -0.0920491 0.938537
-0.206479 -0.092576 0.938598
-0.205056 -0.093108 0.938705
-0.203636 -0.093641 0.938821
-0.202203 -0.0941666 0.938874
-0.200824 -0.0947181 0.939188
-0.199497 -0.0952949 0.939755
-0.198174 -0.0958743 0.940345
-0.196888 -0.096473 0.941125
-0.195603 -0.0970727 0.941916
-0.194316 -0.0976731 0.942704
-0.192974 -0.0982465 0.943221
-0.191694 -0.0988541 0.944062
-0.190402 -0.0994554 0.944848
-0.189099 -0.100053 0.945585
-0.187806 -0.100657 0.946379
-0.186505 -0.101257 0.947138
-0.185203 -0.101859 0.947902
-0.18389 -0.102456 0.948617
-0.182579 -0.103054 0.949344
-0.181228 -0.103631 0.94986
-0.17985 -0.104192 0.95023
-0.178471 -0.104753 0.950597
-0.177117 -0.105329 0.951103
-0.175848 -0.105959 0.952101
-0.174581 -0.106592 0.953127
-0.173323 -0.107234 0.954215
-0.172073 -0.107883 0.955361
-0.170821 -0.108534 0.956513
-0.16956 -0.109181 0.957626
-0.16831 -0.109839 0.958822
-0.167081 -0.110514 0.960164
-0.16579 -0.111149 0.961146
-0.164498 -0.111786 0.962134
-0.163161 -0.112392 0.962849
-0.16182 -0.112996 0.963548
-0.160476 -0.1136 0.964236
-0.15912 -0.114195 0.964848
-0.157834 -0.114846 0.965931
-0.156606 -0.115546 0.967422
-0.155522 -0.116363 0.969888
-0.154471 -0.117216 0.972629
-0.153441 -0.118096 0.975568
-0.152358 -0.118938 0.978186
-0.151254 -0.119775 0.980724
-0.150056 -0.120538 0.982642
-0.148844 -0.121295 0.98449
-0.147628 -0.122054 0.986346
-0.146379 -0.12279 0.988003
-0.14511 -0.123513 0.989537
-0.143812 -0.124214 0.990881
-0.142497 -0.124903 0.992124
-0.141156 -0.12557 0.993187
-0.139798 -0.126224 0.994141
-0.139947 -0.129274 1.00226
-0.138411 -0.126852 0.994879
-0.257762 -0.0709561 0.929925
-0.256335 -0.0714989 0.930083
-0.254913 -0.0720419 0.930257
-0.253467 -0.072578 0.930338
-0.252015 -0.0731122 0.930395
-0.250541 -0.0736396 0.930366
-0.249059 -0.0741638 0.930302
-0.247574 -0.0746863 0.930221
-0.245984 -0.0751768 0.92973
-0.244461 -0.0756855 0.929487
-0.242983 -0.0762062 0.929415
-0.241599 -0.076756 0.929706
-0.240273 -0.077324 0.930228
-0.239123 -0.0779492 0.931458
-0.237961 -0.0785724 0.932647
-0.236833 -0.0792088 0.933987
-0.235632 -0.0798236 0.935042
-0.234423 -0.0804365 0.936074
-0.233131 -0.081023 0.936777
-0.231796 -0.0815957 0.937304
-0.230369 -0.0821356 0.93745
-0.228867 -0.0826492 0.937278
-0.22732 -0.0831444 0.936909
-0.225778 -0.0836399 0.936548
-0.224287 -0.084153 0.936404
-0.222845 -0.0846836 0.936457
-0.221463 -0.0852366 0.936772
-0.220081 -0.0857896 0.937087
-0.218699 -0.0863425 0.937403
-0.217317 -0.0868956 0.937718
-0.215935 -0.0874485 0.938033
-0.214553 -0.0880016 0.938348
-0.213113 -0.0885307 0.938403
-0.21165 -0.0890487 0.938341
-0.21018 -0.0895628 0.938248
-0.208735 -0.0900871 0.938259
-0.207263 -0.090599 0.938143
-0.205848 -0.0911343 0.938286
-0.204449 -0.0916774 0.938505
-0.203049 -0.0922196 0.938721
-0.201635 -0.0927542 0.938865
-0.200257 -0.0933058 0.93918
-0.198932 -0.0938829 0.939756
-0.197611 -0.0944632 0.94036
-0.196329 -0.0950629 0.941157
