ply
format ascii 1.0
element vertex 1584
property float x
property float y
property float z
end_header
-0.04516 -0.0472559 0.756714
-0.0457763 -0.0484281 0.755265
-0.0463969 -0.0496075 0.754038
-0.0470119 -0.0507764 0.752682
-0.0476302 -0.0519528 0.751529
-0.0482567 -0.0531437 0.750698
-0.0488922 -0.0543507 0.750196
-0.0495198 -0.0555449 0.749489
-0.0501527 -0.0567467 0.748951
-0.0507859 -0.0579512 0.748473
-0.0514216 -0.0591593 0.748077
-0.0520516 -0.0603578 0.747545
-0.0526902 -0.06157 0.747251
-0.0533246 -0.0627767 0.746878
-0.0539584 -0.0639819 0.7465
-0.0545908 -0.0651847 0.746102
-0.0552264 -0.0663931 0.745797
-0.0558622 -0.0676018 0.745508
-0.0564956 -0.0688048 0.745156
-0.0571364 -0.0700244 0.745025
-0.0577717 -0.0712315 0.744745
-0.05841 -0.0724442 0.744544
-0.0590475 -0.0736572 0.744347
-0.0596923 -0.0748818 0.744305
-0.0603404 -0.0761137 0.744346
-0.0609925 -0.0773544 0.744484
-0.0616457 -0.0785958 0.744629
-0.0622985 -0.0798373 0.744766
-0.0629515 -0.0810776 0.744889
-0.063616 -0.0823409 0.745255
-0.0642863 -0.0836165 0.745739
-0.0649675 -0.0849113 0.746414
-0.0656615 -0.0862309 0.747325
-0.0663824 -0.0876 0.748722
-0.0671041 -0.0889723 0.750103
-0.067839 -0.0903697 0.751693
-0.0685894 -0.0917958 0.753522
-0.0693229 -0.093191 0.754994
-0.0700176 -0.0945102 0.755701
-0.0706846 -0.0957783 0.755901
-0.0713346 -0.0970147 0.755798
-0.0719626 -0.0982086 0.755309
-0.0725824 -0.0993866 0.754689
-0.0732289 -0.100617 0.754548
-0.0738854 -0.101865 0.754567
-0.0745455 -0.103118 0.75464
-0.0752059 -0.104374 0.75472
-0.0759367 -0.105763 0.755934
-0.0766698 -0.107156 0.757152
-0.0774265 -0.108595 0.758712
-0.0781724 -0.110013 0.760071
-0.0789249 -0.111445 0.761502
-0.0796234 -0.112773 0.762067
-0.0803178 -0.114092 0.762553
-0.0810021 -0.115393 0.762883
-0.0817326 -0.116782 0.763888
-0.0824681 -0.11818 0.764937
-0.0832085 -0.119588 0.76603
-0.0839368 -0.120971 0.766921
-0.0846796 -0.122384 0.768007
-0.0854135 -0.123779 0.768945
-0.0413195 -0.0429281 0.756696
-0.0419647 -0.0441543 0.756285
-0.0426152 -0.0453896 0.756102
-0.0432566 -0.0466072 0.755553
-0.0438833 -0.047795 0.754428
-0.0445063 -0.0489761 0.753234
-0.0451296 -0.0501569 0.752103
-0.0457458 -0.0513225 0.750753
-0.0463695 -0.0525048 0.74977
-0.0470004 -0.0537034 0.749123
-0.0476365 -0.05491 0.748652
-0.0482693 -0.0561116 0.748114
-0.048906 -0.0573211 0.747727
-0.0495396 -0.0585241 0.747258
-0.0501751 -0.0597313 0.746872
-0.0508109 -0.0609376 0.746491
-0.0514515 -0.0621551 0.746291
-0.0520834 -0.063356 0.745851
-0.0527178 -0.064559 0.745469
-0.0533504 -0.0657609 0.745078
-0.0539857 -0.066969 0.744785
-0.0546227 -0.0681782 0.744521
-0.0552618 -0.0693921 0.744329
-0.0559057 -0.0706164 0.744276
-0.0565429 -0.071827 0.744049
-0.0571808 -0.0730386 0.743843
-0.0578174 -0.0742495 0.74363
-0.0584614 -0.0754734 0.743585
-0.0591123 -0.0767117 0.743708
-0.0597685 -0.0779599 0.743941
-0.0604259 -0.0792105 0.744194
-0.0610829 -0.0804602 0.744427
-0.0617392 -0.0817082 0.744633
-0.0624029 -0.0829719 0.744999
-0.0630697 -0.0842402 0.745406
-0.0637418 -0.0855199 0.745917
-0.0644213 -0.0868146 0.746565
-0.0651292 -0.0881649 0.747761
-0.065839 -0.089519 0.748959
-0.0665712 -0.0909155 0.750545
-0.0673235 -0.0923524 0.752476
-0.0680644 -0.0937679 0.754143
-0.0687629 -0.0950979 0.754953
-0.0694333 -0.0963739 0.755232
-0.0700827 -0.0976092 0.755125
-0.0707103 -0.0988004 0.754621
-0.07133 -0.0999764 0.753991
-0.0719813 -0.101214 0.753925
-0.0726476 -0.102481 0.754115
-0.0733173 -0.103755 0.754363
-0.0739879 -0.105031 0.754623
-0.0747166 -0.10642 0.755827
-0.0754412 -0.107803 0.756937
-0.0761772 -0.109206 0.7582
-0.0769049 -0.110594 0.759308
-0.0776387 -0.111994 0.760477
-0.0783312 -0.113311 0.76097
-0.0790238 -0.11463 0.761455
-0.0797142 -0.115943 0.761891
-0.0804553 -0.117356 0.76308
-0.0812072 -0.118791 0.764402
-0.081958 -0.120223 0.765682
-0.0827018 -0.121642 0.766827
-0.0834561 -0.123079 0.768082
-0.0842006 -0.124499 0.769188
-0.0867453 -0.126311 0.77806
-0.0849778 -0.125982 0.770719
-0.0400447 -0.0434635 0.754081
-0.0406899 -0.0446875 0.753709
-0.0413393 -0.0459194 0.753533
-0.0419791 -0.0471337 0.752989
-0.042612 -0.0483298 0.752121
-0.0432417 -0.0495203 0.751189
-0.0438674 -0.0507033 0.750162
-0.0444881 -0.0518752 0.748987
-0.045116 -0.0530642 0.748175
-0.0457501 -0.0542664 0.747638
-0.0463889 -0.0554776 0.74728
-0.0470241 -0.0566832 0.746841
-0.0476628 -0.0578953 0.746526
-0.0482986 -0.0591007 0.746124
-0.0489368 -0.0603116 0.745823
-0.0495748 -0.0615238 0.745547
-0.0502178 -0.0627456 0.745427
-0.0508484 -0.0639394 0.74491
-0.051481 -0.0651407 0.744512
-0.0521162 -0.0663463 0.744193
-0.0527502 -0.0675482 0.743836
-0.0533894 -0.0687637 0.743667
-0.0540341 -0.0699883 0.74363
-0.0546774 -0.0712118 0.743573
-0.0553116 -0.0724161 0.743275
-0.0559523 -0.0736319 0.743135
-0.0565893 -0.0748425 0.742931
-0.0572335 -0.0760659 0.742888
-0.0578872 -0.0773108 0.743095
-0.0585461 -0.0785666 0.743418
-0.059207 -0.0798254 0.743765
-0.0598671 -0.0810834 0.744089
-0.0605269 -0.0823388 0.744377
-0.0611898 -0.0836029 0.744743
-0.0618558 -0.0848716 0.74515
-0.0625236 -0.0861444 0.745584
-0.063191 -0.0874158 0.745991
-0.0638875 -0.0887478 0.746996
-0.0645894 -0.0900896 0.74807
-0.0653131 -0.0914762 0.749551
-0.0660615 -0.0929129 0.751476
-0.0668068 -0.0943435 0.753285
-0.0675073 -0.0956812 0.75417
-0.0681828 -0.096968 0.754556
-0.0688373 -0.0982128 0.754543
-0.0694703 -0.0994136 0.754132
-0.0701003 -0.100608 0.753674
-0.0707567 -0.101856 0.7537
-0.0714281 -0.103135 0.753998
-0.0721035 -0.104421 0.754343
-0.0727803 -0.105711 0.754711
-0.0734942 -0.107074 0.755685
-0.0742053 -0.108434 0.756605
-0.0749213 -0.109802 0.75757
-0.0756345 -0.111164 0.758459
-0.076346 -0.112522 0.759303
-0.0770305 -0.113828 0.759704
-0.0777212 -0.115143 0.760174
-0.0784193 -0.116476 0.760768
-0.0791712 -0.117915 0.762155
-0.0799409 -0.119389 0.763774
-0.0807123 -0.120867 0.765397
-0.0814777 -0.122334 0.766889
-0.082237 -0.123786 0.768243
-0.0829817 -0.125211 0.769369
-0.0837687 -0.126718 0.771064
-0.0863229 -0.128573 0.780088
-0.0845627 -0.12824 0.772827
-0.0387678 -0.0439704 0.750919
-0.0394216 -0.0452155 0.7511
-0.0400735 -0.0464554 0.751163
-0.0407104 -0.0476587 0.750474
-0.041345 -0.048859 0.749759
-0.0419807 -0.0500597 0.749099
-0.0426085 -0.0512447 0.748174
-0.0432365 -0.0524281 0.747272
-0.0438703 -0.0536282 0.746706
-0.0445083 -0.0548384 0.74634
-0.0451469 -0.0560491 0.746002
-0.0457849 -0.0572572 0.74564
-0.0464247 -0.0584723 0.745398
-0.0470629 -0.0596825 0.745091
-0.0477033 -0.0608988 0.744889
-0.0483421 -0.0621109 0.744634
-0.0489826 -0.063326 0.744434
-0.0496075 -0.064506 0.743739
-0.0502369 -0.0656983 0.74324
-0.0508685 -0.0668961 0.742833
-0.0515051 -0.0681027 0.742565
-0.0521469 -0.0693221 0.742474
-0.0527936 -0.0705521 0.742521
-0.0534395 -0.0717803 0.742543
-0.0540773 -0.072991 0.742344
-0.0547208 -0.0742143 0.742306
-0.0553609 -0.0754317 0.742193
-0.0560075 -0.0766611 0.742229
-0.0566643 -0.0779124 0.742517
-0.0573257 -0.0791752 0.742921
-0.0579894 -0.0804414 0.743353
-0.0586522 -0.0817067 0.743757
-0.0593146 -0.0829693 0.744121
-0.0599775 -0.0842335 0.744487
-0.0606419 -0.0855029 0.744893
-0.0613097 -0.0867758 0.745327
-0.0619689 -0.0880321 0.745576
-0.0626518 -0.0893398 0.74633
-0.0633386 -0.0906547 0.747133
-0.064051 -0.0920218 0.748425
-0.0647828 -0.0934305 0.750078
-0.0655244 -0.0948602 0.751882
-0.0662296 -0.0962118 0.752904
-0.0669159 -0.097524 0.753533
-0.0675807 -0.0987897 0.753723
-0.0682289 -0.100022 0.753603
-0.0688738 -0.101245 0.753413
-0.0695355 -0.102504 0.753536
-0.0702119 -0.103795 0.753928
-0.0708918 -0.105094 0.754373
-0.0715696 -0.106386 0.754757
-0.0722684 -0.107722 0.755496
-0.0729669 -0.109059 0.756223
-0.0736602 -0.110384 0.756824
-0.0743541 -0.11171 0.757432
-0.0750476 -0.113034 0.758005
-0.0757243 -0.114325 0.7583
-0.0764121 -0.115636 0.758755
-0.0771243 -0.116999 0.759587
-0.0778847 -0.118463 0.761165
-0.0786748 -0.119986 0.763149
-0.0794679 -0.121516 0.765137
-0.0802554 -0.123032 0.766987
-0.0810249 -0.124512 0.768532
-0.0817761 -0.125953 0.769768
-0.0825604 -0.127462 0.771453
-0.0833507 -0.128984 0.773194
-0.0853854 -0.12982 0.774947
-0.0841576 -0.130537 0.775118
-0.0867529 -0.132488 0.784561
-0.0849775 -0.132119 0.777197
-0.0375089 -0.044498 0.748315
-0.0381636 -0.0457488 0.748686
-0.0388151 -0.0469896 0.748828
-0.0394511 -0.0481904 0.748157
-0.0400855 -0.0493874 0.74745
-0.0407221 -0.0505894 0.74688
-0.0413522 -0.0517769 0.746064
-0.0419837 -0.0529678 0.745355
-0.0426229 -0.0541796 0.745043
-0.0432667 -0.0554012 0.744918
-0.0439081 -0.0566188 0.744724
-0.0445474 -0.0578302 0.74444
-0.0451912 -0.0590539 0.744361
-0.0458338 -0.0602733 0.744221
-0.0464776 -0.0614959 0.744133
-0.0471168 -0.0627082 0.743892
-0.0477561 -0.0639214 0.743672
-0.0483752 -0.0650867 0.742784
-0.0489997 -0.0662639 0.7421
-0.049629 -0.0674543 0.741615
-0.0502653 -0.0686599 0.741356
-0.0509064 -0.0698794 0.741279
-0.0515573 -0.0711191 0.741471
-0.0522055 -0.072354 0.741588
-0.0528495 -0.0735779 0.741568
-0.0534987 -0.0748159 0.741714
-0.0541461 -0.0760469 0.741775
-0.0547954 -0.0772837 0.741898
-0.0554544 -0.0785417 0.742261
-0.056115 -0.0798049 0.742665
-0.0567779 -0.0810715 0.743097
-0.0574407 -0.0823369 0.743501
-0.0581023 -0.0835999 0.743865
-0.0587644 -0.0848644 0.74423
-0.0594253 -0.0861268 0.744561
-0.0600885 -0.087392 0.744913
-0.0607426 -0.0886395 0.745068
-0.0614138 -0.0899223 0.745576
-0.0620902 -0.091218 0.746191
-0.062792 -0.0925679 0.747315
-0.0635091 -0.0939511 0.748725
-0.0642388 -0.095362 0.750353
-0.0649482 -0.0967276 0.751515
-0.0656423 -0.0980586 0.752328
-0.06632 -0.0993549 0.752804
-0.0669832 -0.100619 0.752977
-0.0676459 -0.10188 0.753125
-0.0683119 -0.10315 0.753341
-0.0689917 -0.104451 0.753811
-0.0696761 -0.105758 0.754331
-0.0703569 -0.107059 0.754784
-0.0710446 -0.108376 0.755352
-0.0717279 -0.109682 0.755813
-0.0724036 -0.11097 0.756127
-0.0730804 -0.112263 0.756468
-0.0737627 -0.113566 0.756877
-0.0744283 -0.114835 0.757011
-0.0751229 -0.116162 0.757599
-0.0758433 -0.117546 0.758593
-0.076613 -0.119036 0.760366
-0.0774184 -0.120599 0.762644
-0.0782368 -0.12219 0.765077
-0.0790386 -0.123746 0.767203
-0.0798203 -0.125257 0.768951
-0.0805764 -0.126714 0.770282
-0.0813525 -0.128211 0.771874
-0.0821334 -0.12972 0.773506
-0.0829181 -0.131235 0.775147
-0.0837219 -0.132791 0.777032
-0.0356147 -0.0438099 0.746095
-0.0362588 -0.0450317 0.745909
-0.0369078 -0.0462691 0.746059
-0.0375561 -0.0475031 0.746134
-0.0381926 -0.0487031 0.745529
-0.0388264 -0.0498969 0.744837
-0.0394644 -0.0511029 0.74441
-0.0400975 -0.0522959 0.743769
-0.0407341 -0.0534975 0.743314
-0.0413782 -0.0547219 0.743269
-0.0420261 -0.0559566 0.743398
-0.0426706 -0.0571828 0.743376
-0.0433146 -0.0584067 0.743321
-0.0439641 -0.059644 0.743478
-0.0446107 -0.0608752 0.743529
-0.0452588 -0.0621098 0.743626
-0.0458983 -0.0633215 0.743387
-0.0465347 -0.0645267 0.743061
-0.0471474 -0.0656707 0.741895
-0.0477665 -0.0668342 0.741037
-0.0483922 -0.0680109 0.740397
-0.0490254 -0.0692108 0.740078
-0.0496643 -0.0704224 0.739926
-0.0503187 -0.0716734 0.740275
-0.0509689 -0.0729136 0.740476
-0.051618 -0.0741513 0.740636
-0.0522761 -0.0754102 0.741047
-0.0529308 -0.076662 0.741355
-0.053583 -0.0779063 0.741567
-0.0542445 -0.079171 0.742006
-0.0549052 -0.0804342 0.74241
-0.0555672 -0.0817013 0.742842
-0.0562292 -0.082967 0.743245
-0.05689 -0.0842304 0.743609
-0.0575513 -0.0854954 0.743974
-0.058212 -0.0867572 0.744299
-0.0588738 -0.0880221 0.744642
-0.0595238 -0.089261 0.744711
-0.0601898 -0.090534 0.745118
-0.0608581 -0.0918121 0.745563
-0.061549 -0.0931434 0.746502
-0.0622522 -0.0945017 0.747671
-0.0629673 -0.0958865 0.749054
-0.0636711 -0.097244 0.750147
-0.0643717 -0.0985922 0.751128
-0.0650575 -0.0999108 0.751809
-0.0657342 -0.101204 0.752257
-0.0664122 -0.102504 0.752738
-0.0670899 -0.1038 0.753183
-0.0677699 -0.105101 0.753653
-0.0684527 -0.106408 0.754166
-0.0691317 -0.107708 0.754605
-0.0698132 -0.109013 0.755066
-0.0704853 -0.110295 0.755337
-0.0711542 -0.111572 0.755555
-0.0718252 -0.112852 0.755803
-0.0725021 -0.114145 0.756131
-0.0731719 -0.115424 0.756351
-0.0738713 -0.116766 0.757045
-0.0745958 -0.118164 0.758141
-0.0753704 -0.119668 0.760017
-0.0761774 -0.121246 0.762394
-0.0769989 -0.122854 0.764934
-0.0778109 -0.124438 0.767246
-0.0786016 -0.125976 0.76918
-0.0793678 -0.12746 0.770689
-0.0801423 -0.12896 0.772287
-0.080919 -0.130467 0.773889
-0.0816952 -0.13197 0.775427
-0.0824841 -0.133501 0.777133
-0.085059 -0.135466 0.786466
-0.083295 -0.135078 0.779105
-0.0349635 -0.0425664 0.745785
-0.0330853 -0.0418982 0.7439
-0.033732 -0.0431316 0.744036
-0.0343756 -0.0443533 0.743907
-0.0350158 -0.0455632 0.743535
-0.0356582 -0.0467808 0.743341
-0.0363028 -0.0480058 0.743306
-0.0369388 -0.0492058 0.74278
-0.0375749 -0.0504036 0.742246
-0.0382127 -0.0516103 0.741897
-0.0388477 -0.0528082 0.74141
-0.0394866 -0.0540158 0.741123
-0.0401312 -0.0552451 0.741204
-0.0407814 -0.0564889 0.741524
-0.0414311 -0.0577282 0.741761
-0.0420776 -0.058962 0.741889
-0.0427304 -0.0602101 0.742237
-0.0433837 -0.0614618 0.742618
-0.0440376 -0.0627124 0.742968
-0.0446791 -0.0639293 0.742812
-0.0453134 -0.0651277 0.742399
-0.0459266 -0.0662678 0.741201
-0.046542 -0.0674173 0.740171
-0.047165 -0.0685863 0.739443
-0.0477963 -0.0697799 0.739058
-0.0484369 -0.0709955 0.738974
-0.0490878 -0.0722398 0.739247
-0.0497396 -0.0734851 0.739524
-0.050391 -0.0747296 0.73978
-0.0510535 -0.0760029 0.740365
-0.0517138 -0.0772697 0.740855
-0.0523715 -0.078528 0.741231
-0.0530347 -0.0798003 0.74175
-0.0536945 -0.0810639 0.742154
-0.0543557 -0.0823314 0.742586
-0.0550169 -0.0835976 0.742989
-0.0556778 -0.084861 0.743353
-0.0563382 -0.0861264 0.743718
-0.0569984 -0.0873881 0.74404
-0.0576591 -0.088653 0.744378
-0.0583066 -0.0898827 0.744361
-0.0589673 -0.0911471 0.744677
-0.059634 -0.0924245 0.745112
-0.0603157 -0.0937378 0.745876
-0.0610096 -0.0950782 0.746874
-0.0617173 -0.0964505 0.74814
-0.0624145 -0.0977979 0.74914
-0.0631121 -0.0991468 0.750127
-0.0638066 -0.100486 0.750997
-0.0644907 -0.101799 0.751626
-0.0651763 -0.103118 0.752279
-0.0658568 -0.104424 0.752798
-0.066532 -0.105716 0.753194
-0.067209 -0.107014 0.753627
-0.0678834 -0.108304 0.753981
-0.0685556 -0.109588 0.754281
-0.0692209 -0.110858 0.754456
-0.0698843 -0.112122 0.754576
-0.0705538 -0.113401 0.754817
-0.0712302 -0.114695 0.755168
-0.0719065 -0.115987 0.755495
-0.0726104 -0.117343 0.756298
-0.073343 -0.118764 0.757566
-0.0741193 -0.120282 0.759534
-0.0749278 -0.121871 0.761979
-0.0757543 -0.123501 0.764672
-0.0765723 -0.12511 0.767146
-0.0773671 -0.126664 0.769186
-0.0781423 -0.128175 0.77087
-0.0789154 -0.129679 0.772477
-0.079686 -0.131176 0.774
-0.080453 -0.132667 0.775449
-0.0812286 -0.134174 0.776975
-0.0820187 -0.135712 0.778681
-0.0325092 -0.0437134 0.742707
-0.0331477 -0.0449171 0.742222
-0.0337844 -0.0461149 0.741641
-0.0344204 -0.0473069 0.740989
-0.0350585 -0.0485141 0.740656
-0.0356945 -0.0497104 0.740144
-0.0363293 -0.050906 0.739637
-0.0369655 -0.0521056 0.739233
-0.0376007 -0.0533042 0.738827
-0.0382392 -0.0545131 0.738621
-0.0388836 -0.0557445 0.738792
-0.0395372 -0.0570015 0.73938
-0.0401897 -0.0582558 0.739891
-0.0408407 -0.0595041 0.740284
-0.0414969 -0.0607679 0.740891
-0.0421554 -0.0620353 0.74153
-0.0428117 -0.0632974 0.742058
-0.0434556 -0.0645198 0.741999
-0.0440918 -0.0657224 0.741663
-0.0447079 -0.066867 0.740542
-0.0453242 -0.0680149 0.739509
-0.0459463 -0.069177 0.738709
-0.0465815 -0.0703788 0.738446
-0.047221 -0.0715943 0.738361
-0.0478692 -0.072831 0.738548
-0.048522 -0.0740824 0.7389
-0.0491774 -0.0753398 0.739314
-0.0498398 -0.0766143 0.739913
-0.0505031 -0.0778897 0.740505
-0.0511626 -0.0791559 0.740967
-0.0518248 -0.0804296 0.741495
-0.0524838 -0.0816936 0.741898
-0.0531451 -0.0829611 0.74233
-0.0538055 -0.0842277 0.742733
-0.0544655 -0.0854915 0.743097
-0.0551259 -0.0867569 0.743462
-0.055785 -0.0880196 0.743787
-0.056446 -0.0892849 0.744129
-0.057096 -0.0905238 0.744198
-0.0577538 -0.0917814 0.744446
-0.0584165 -0.09305 0.744793
-0.0590898 -0.0943461 0.745389
-0.0597736 -0.0956655 0.746188
-0.0604669 -0.0970096 0.747187
-0.0611567 -0.0983436 0.748069
-0.0618481 -0.0996818 0.748963
-0.0625444 -0.101028 0.74991
-0.0632306 -0.102353 0.750634
-0.0639196 -0.103682 0.751383
-0.0646038 -0.104998 0.752001
-0.0652811 -0.106299 0.752468
-0.0659581 -0.107597 0.752905
-0.0666308 -0.108886 0.753256
-0.0673021 -0.110171 0.753562
-0.0679679 -0.111441 0.75375
-0.0686262 -0.112695 0.753794
-0.0692959 -0.113974 0.754034
-0.0699758 -0.115278 0.754462
-0.0706601 -0.116593 0.754967
-0.0713734 -0.117974 0.755959
-0.072114 -0.11942 0.757411
-0.0728865 -0.120938 0.759361
-0.07369 -0.122524 0.761773
-0.0745066 -0.124141 0.764356
-0.0753109 -0.12573 0.76667
-0.0761029 -0.127286 0.768712
-0.076882 -0.128812 0.770502
-0.0776538 -0.13032 0.772125
-0.0784229 -0.131821 0.773663
-0.0791921 -0.133323 0.775184
-0.0799657 -0.134832 0.77671
-0.0807471 -0.136359 0.778334
-0.0832965 -0.138331 0.787515
-0.0815335 -0.137895 0.779984
-0.0306476 -0.0430835 0.74169
-0.0312876 -0.0442867 0.741221
-0.0319229 -0.045473 0.740418
-0.0325555 -0.0466497 0.739464
-0.0331853 -0.0478178 0.738391
-0.0338193 -0.0490052 0.737757
-0.0344523 -0.0501947 0.737189
-0.0350858 -0.0513866 0.736693
-0.0357217 -0.0525876 0.73639
-0.0363584 -0.0537908 0.736138
-0.0369971 -0.0550057 0.736091
-0.0376429 -0.0562422 0.736409
-0.0382964 -0.0575066 0.737156
-0.0389496 -0.0587686 0.737827
-0.0396039 -0.0600314 0.738481
-0.0402645 -0.0613152 0.739417
-0.0409277 -0.0626046 0.740395
-0.0415886 -0.0638836 0.741182
-0.0422389 -0.0651292 0.741461
-0.0428798 -0.0663441 0.741304
-0.0435021 -0.0675006 0.740363
-0.0441204 -0.0686482 0.739335
-0.0447448 -0.069817 0.738621
-0.0453786 -0.0710125 0.738278
-0.0460182 -0.0722275 0.738187
-0.0466637 -0.0734578 0.73829
-0.0473158 -0.0747092 0.738641
-0.0479729 -0.0759726 0.739122
-0.0486374 -0.0772551 0.739811
-0.0493019 -0.0785391 0.740488
-0.0499638 -0.0798133 0.741034
-0.0506255 -0.0810879 0.741561
-0.0512813 -0.0823453 0.741884
-0.0519389 -0.0836059 0.74223
-0.0525992 -0.0848723 0.742629
-0.0532585 -0.0861374 0.742999
-0.0539189 -0.0874041 0.743372
-0.0545777 -0.0886679 0.743701
-0.0552386 -0.0899336 0.744045
-0.055889 -0.0911734 0.744119
-0.0565439 -0.0924251 0.744306
-0.0572056 -0.0936947 0.744656
-0.057875 -0.0949819 0.745163
-0.0585494 -0.0962825 0.745779
-0.0592304 -0.0975983 0.746517
-0.0599098 -0.0989111 0.747205
-0.0605919 -0.100229 0.747917
-0.0612847 -0.101573 0.748844
-0.0619708 -0.102899 0.749587
-0.0626587 -0.104229 0.750348
-0.0633449 -0.105554 0.75105
-0.0640215 -0.106854 0.751518
-0.0646922 -0.108141 0.751868
-0.0653681 -0.10944 0.752303
-0.0660432 -0.110734 0.752695
-0.0667087 -0.112007 0.752904
-0.0673711 -0.11327 0.753034
-0.0680477 -0.114569 0.753429
-0.0687344 -0.115892 0.754008
-0.0694332 -0.117242 0.754777
-0.0701543 -0.118649 0.755948
-0.0708984 -0.120107 0.757486
-0.0716633 -0.121614 0.759339
-0.0724475 -0.123166 0.76149
-0.0732497 -0.12476 0.763882
-0.0740408 -0.126326 0.766027
-0.0748239 -0.12787 0.767982
-0.0756056 -0.129411 0.769858
-0.0763837 -0.130943 0.771641
-0.0771514 -0.132447 0.773199
-0.0779251 -0.133964 0.77481
-0.0787004 -0.135484 0.776412
-0.0794849 -0.137025 0.778122
-0.0802766 -0.13858 0.779881
-0.0823232 -0.139439 0.78165
-0.081077 -0.140156 0.781747
-0.0835967 -0.142076 0.79036
-0.0818733 -0.141721 0.783511
-0.0300074 -0.0418779 0.742137
-0.0287875 -0.0424348 0.740223
-0.0294275 -0.0436401 0.73983
-0.0300662 -0.0448374 0.739294
-0.0306988 -0.0460064 0.73819
-0.0313302 -0.0471737 0.737123
-0.0319574 -0.0483255 0.735807
-0.0325878 -0.0494969 0.73494
-0.0332205 -0.0506852 0.73443
-0.0338537 -0.0518773 0.734012
-0.0344909 -0.0530835 0.73387
-0.0351271 -0.0542893 0.733722
-0.0357681 -0.055515 0.733911
-0.0364119 -0.0567542 0.734306
-0.0370654 -0.0580253 0.735194
-0.0377178 -0.05929 0.735942
-0.0383738 -0.0605661 0.736825
-0.039034 -0.0618552 0.737861
-0.0397013 -0.0631659 0.739168
-0.0403639 -0.0644578 0.740149
-0.0410204 -0.0657264 0.740762
-0.0416663 -0.06696 0.740867
-0.0422989 -0.0681462 0.740337
-0.0429205 -0.069297 0.73936
-0.043548 -0.0704726 0.738733
-0.0441824 -0.0716678 0.738382
-0.0448227 -0.072882 0.738281
-0.0454664 -0.0741081 0.738323
-0.0461186 -0.0753607 0.738681
-0.0467767 -0.0766315 0.739235
-0.0474404 -0.0779146 0.73992
-0.0481036 -0.0791994 0.74059
-0.0487649 -0.0804753 0.741143
-0.0494261 -0.0817499 0.741662
-0.050079 -0.0829997 0.741894
-0.0507333 -0.084252 0.742146
-0.0513897 -0.0855111 0.74246
-0.0520463 -0.0867696 0.742757
-0.0527033 -0.0880298 0.74306
-0.0533645 -0.0893006 0.74346
-0.054027 -0.0905744 0.743876
-0.0546807 -0.091823 0.744036
-0.0553391 -0.0930842 0.74431
-0.0560015 -0.0943552 0.74467
-0.0566626 -0.0956249 0.745003
-0.0573294 -0.0969071 0.745444
-0.0580022 -0.0982043 0.74601
-0.0586704 -0.099491 0.746461
-0.0593436 -0.100789 0.747001
-0.0600304 -0.102121 0.747827
-0.0607134 -0.103444 0.748548
-0.0613961 -0.104766 0.749244
-0.0620817 -0.106092 0.749954
-0.06276 -0.107399 0.750493
-0.0634289 -0.108684 0.750831
-0.0641042 -0.109982 0.751265
-0.0647819 -0.111287 0.751747
-0.0654513 -0.112571 0.75205
-0.0661177 -0.113845 0.752268
-0.0668016 -0.115163 0.752824
-0.0674957 -0.11651 0.753575
-0.0682069 -0.117894 0.754604
-0.0689375 -0.119327 0.755966
-0.0696849 -0.120801 0.757607
-0.0704411 -0.122297 0.759365
-0.0712118 -0.123824 0.761311
-0.0719947 -0.125382 0.763435
-0.0727722 -0.126923 0.7654
-0.0735464 -0.128457 0.767264
-0.0743285 -0.130006 0.7692
-0.0751099 -0.131552 0.771078
-0.0758803 -0.13307 0.772722
-0.0766578 -0.134603 0.774436
-0.0774357 -0.136138 0.776127
-0.0782196 -0.137683 0.777849
-0.0790131 -0.139253 0.779696
-0.0798179 -0.140846 0.781664
-0.0806132 -0.142416 0.783444
-0.0831289 -0.144349 0.792006
-0.081409 -0.143985 0.785185
-0.0275745 -0.043001 0.738584
-0.0282135 -0.0442042 0.73819
-0.0288521 -0.0454003 0.737681
-0.0294833 -0.0465569 0.736379
-0.0301137 -0.0477111 0.735114
-0.0307411 -0.0488592 0.733792
-0.0313709 -0.0500224 0.732838
-0.032003 -0.0512063 0.732305
-0.0326362 -0.0523986 0.731948
-0.0332714 -0.053603 0.731816
-0.0339078 -0.0548124 0.731776
-0.034548 -0.0560427 0.732076
-0.0351915 -0.0572801 0.732482
-0.035843 -0.058554 0.733437
-0.0364942 -0.0598219 0.734258
-0.0371486 -0.0611019 0.735219
-0.0378075 -0.0623959 0.736344
-0.038477 -0.0637229 0.7379
-0.0391399 -0.0650269 0.739055
-0.0398016 -0.066319 0.740007
-0.0404526 -0.0675713 0.740375
-0.0410946 -0.0687892 0.740274
-0.0417228 -0.0699591 0.739549
-0.0423558 -0.0711476 0.739088
-0.0429926 -0.0723497 0.738813
-0.0436353 -0.0735706 0.738782
-0.0442778 -0.0747925 0.738759
-0.0449285 -0.0760405 0.739047
-0.0455843 -0.0773059 0.739524
-0.0462419 -0.0785762 0.740041
-0.0469013 -0.0798477 0.740556
-0.0475595 -0.081117 0.741027
-0.048215 -0.0823781 0.74139
-0.0488652 -0.083619 0.741528
-0.0495174 -0.0848685 0.741747
-0.0501727 -0.0861268 0.74205
-0.0508293 -0.0873855 0.742351
-0.0514859 -0.0886468 0.742664
-0.0521484 -0.0899244 0.74313
-0.05281 -0.0911968 0.743532
-0.053466 -0.0924541 0.743773
-0.0541242 -0.0937173 0.744063
-0.0547862 -0.094989 0.744427
-0.0554432 -0.0962486 0.744663
-0.0561053 -0.0975203 0.745006
-0.0567706 -0.0987994 0.745407
-0.0574348 -0.100078 0.745787
-0.0581041 -0.101366 0.746247
-0.0587846 -0.102689 0.746983
-0.0594625 -0.103999 0.747602
-0.0601399 -0.105309 0.748203
-0.060819 -0.106624 0.748821
-0.0614955 -0.107931 0.749364
-0.0621677 -0.109224 0.749783
-0.0628446 -0.11053 0.75029
-0.0635253 -0.111845 0.750857
-0.064198 -0.11314 0.751246
-0.064868 -0.114425 0.751558
-0.0655546 -0.115755 0.752206
-0.0662576 -0.117126 0.753139
-0.0669768 -0.118538 0.754369
-0.0677161 -0.12 0.755938
-0.0684665 -0.121489 0.757671
-0.0692195 -0.122983 0.759408
-0.0699766 -0.124485 0.761163
-0.0707462 -0.126018 0.763093
-0.0715092 -0.127533 0.764861
-0.0722722 -0.129044 0.766563
-0.0730404 -0.130568 0.768323
-0.0738225 -0.132126 0.770273
-0.0746009 -0.133671 0.772095
-0.0753869 -0.135235 0.774009
-0.0761801 -0.136813 0.77598
-0.0769762 -0.138397 0.777951
-0.0777728 -0.139981 0.779879
-0.0785746 -0.141577 0.781847
-0.079362 -0.143135 0.783535
-0.0801553 -0.144705 0.785268
-0.0821768 -0.145487 0.786466
-0.0809155 -0.146194 0.786459
-0.0257234 -0.0423398 0.736782
-0.026364 -0.0435597 0.736814
-0.027003 -0.0447626 0.736475
-0.0276405 -0.0459562 0.73596
-0.0282737 -0.0471137 0.734745
-0.028905 -0.0482654 0.73349
-0.029533 -0.0494109 0.732175
-0.0301619 -0.0505632 0.731068
-0.0307918 -0.0517358 0.730377
-0.0314238 -0.0529243 0.730001
-0.0320583 -0.0541272 0.729888
-0.0326948 -0.0553399 0.729947
-0.0333355 -0.0565782 0.730414
-0.0339799 -0.0578286 0.731053
-0.0346301 -0.0591076 0.732102
-0.0352808 -0.0603801 0.733007
-0.0359356 -0.0616708 0.734138
-0.0365933 -0.0629699 0.735341
-0.0372609 -0.0643026 0.736976
-0.0379231 -0.0656109 0.738195
-0.038586 -0.0669165 0.739329
-0.039241 -0.0681877 0.739955
-0.0398902 -0.0694319 0.740206
-0.0405245 -0.0706224 0.739749
-0.0411621 -0.0718245 0.739455
-0.0418027 -0.0730383 0.739316
-0.0424455 -0.0742604 0.739282
-0.0430894 -0.0754842 0.739272
-0.0437381 -0.0767276 0.739488
-0.0443919 -0.0779861 0.739873
-0.0450443 -0.0792413 0.740201
-0.0456976 -0.0804984 0.74054
-0.0463511 -0.0817534 0.740847
-0.0470026 -0.083 0.741053
-0.0476488 -0.084233 0.7411
-0.0482983 -0.0854738 0.741231
-0.0489527 -0.0867311 0.741525
-0.0496082 -0.0879905 0.741833
-0.0502649 -0.089251 0.742144
-0.0509291 -0.0905364 0.742686
-0.051592 -0.0918164 0.743161
-0.0522504 -0.0930837 0.743495
-0.052909 -0.094349 0.743804
-0.0535708 -0.0956211 0.744169
-0.0542239 -0.0968702 0.744308
-0.0548813 -0.0981297 0.744538
-0.0555384 -0.0993907 0.744773
-0.0561996 -0.100661 0.745088
-0.0568617 -0.101933 0.745399
-0.0575339 -0.103235 0.745964
-0.0582022 -0.104521 0.74639
-0.0588703 -0.105809 0.74681
-0.0595443 -0.107113 0.74735
-0.060223 -0.108429 0.747973
-0.0608968 -0.109732 0.748479
-0.0615806 -0.111058 0.749159
-0.0622666 -0.112394 0.749891
-0.0629461 -0.113708 0.750443
-0.0636228 -0.115015 0.750923
-0.0643173 -0.116367 0.751742
-0.0650274 -0.117763 0.752865
-0.0657576 -0.119211 0.754357
-0.0665011 -0.12069 0.756042
-0.0672499 -0.122183 0.757788
-0.0679958 -0.123668 0.759441
-0.0687395 -0.125144 0.760993
-0.0694922 -0.12664 0.762653
-0.0702393 -0.12812 0.76417
-0.0709934 -0.129617 0.765769
-0.0717533 -0.131128 0.767437
-0.0725321 -0.132687 0.769381
-0.0733229 -0.134272 0.771469
-0.0741324 -0.135905 0.773839
-0.0749415 -0.137532 0.776122
-0.0757518 -0.139162 0.778373
-0.0765553 -0.140772 0.780454
-0.0773419 -0.142339 0.782217
-0.0781159 -0.14387 0.78372
-0.0788952 -0.145414 0.785276
-0.0796479 -0.146889 0.786373
-0.0821368 -0.148804 0.794576
-0.0803966 -0.148353 0.787387
-0.0245196 -0.0429123 0.735336
-0.0251592 -0.0441239 0.735226
-0.0257976 -0.0453212 0.734817
-0.026434 -0.0465029 0.734107
-0.0270677 -0.0476612 0.732972
-0.0276986 -0.0488075 0.731665
-0.0283284 -0.0499501 0.730369
-0.0289564 -0.0510997 0.72926
-0.0295866 -0.052269 0.728564
-0.0302183 -0.0534556 0.7282
-0.030852 -0.0546606 0.728162
-0.0314885 -0.0558809 0.728379
-0.0321295 -0.0571271 0.729
-0.0327732 -0.0583873 0.729807
-0.0334232 -0.0596705 0.730937
-0.0340729 -0.0609542 0.732015
-0.0347282 -0.0622562 0.733316
-0.035384 -0.063556 0.73453
-0.0360491 -0.0648942 0.736231
-0.0367115 -0.0662122 0.737583
-0.0373748 -0.067529 0.738863
-0.0380309 -0.0688092 0.739606
-0.0386839 -0.0700741 0.740121
-0.0393216 -0.0712722 0.739766
-0.03996 -0.0724751 0.739481
-0.0406014 -0.0736897 0.73935
-0.0412445 -0.0749122 0.739316
-0.0418882 -0.0761364 0.739303
-0.0425369 -0.07738 0.739514
-0.043189 -0.0786374 0.739874
-0.0438392 -0.0798832 0.740094
-0.0444891 -0.0811306 0.74032
-0.0451394 -0.0823775 0.740532
-0.0457878 -0.0836166 0.740654
-0.0464321 -0.0848414 0.74062
-0.0470787 -0.0860742 0.74067
-0.0477302 -0.0873238 0.740888
-0.0483859 -0.088584 0.741208
-0.0490412 -0.0898458 0.741528
-0.0497047 -0.0911319 0.74208
-0.0503694 -0.0924203 0.742637
-0.0510301 -0.0936964 0.743057
-0.051689 -0.0949633 0.743384
-0.0523492 -0.0962366 0.743754
-0.0530016 -0.0974839 0.743878
-0.0536547 -0.0987325 0.744011
-0.0543083 -0.0999822 0.744149
-0.0549654 -0.101242 0.744371
-0.0556229 -0.102504 0.7446
-0.0562881 -0.103785 0.744998
-0.0569467 -0.105051 0.745242
-0.0576062 -0.106315 0.745472
-0.0582748 -0.107606 0.745924
-0.0589521 -0.108922 0.74656
-0.0596293 -0.110238 0.747174
-0.0603148 -0.111575 0.747948
-0.0610077 -0.112931 0.748855
-0.0616934 -0.114268 0.749582
-0.062377 -0.115597 0.750241
-0.0630784 -0.116973 0.751236
-0.0637978 -0.118402 0.7526
-0.0645348 -0.119874 0.754259
-0.0652751 -0.121355 0.755952
-0.0660214 -0.12285 0.757697
-0.0667613 -0.124324 0.759257
-0.0674938 -0.125775 0.760632
-0.0682293 -0.127236 0.76203
-0.0689681 -0.128701 0.763437
-0.0697143 -0.130184 0.764942
-0.0704714 -0.131697 0.766611
-0.0712472 -0.133255 0.768548
-0.0720525 -0.134892 0.770977
-0.0728772 -0.136573 0.77366
-0.0737018 -0.138254 0.776274
-0.0745217 -0.139919 0.778745
-0.075332 -0.141557 0.780986
-0.0761054 -0.143096 0.782552
-0.0768705 -0.14461 0.783937
-0.0776356 -0.146125 0.785297
-0.0783818 -0.147586 0.7863
-0.0791224 -0.149034 0.787207
-0.0811414 -0.149806 0.788304
-0.0798643 -0.150485 0.788108
-0.0823556 -0.152425 0.796274
-0.0806028 -0.151925 0.788931
-0.0233194 -0.0434974 0.734209
-0.0239573 -0.0446989 0.733902
-0.0245959 -0.0458918 0.733445
-0.0252315 -0.0470602 0.732506
-0.0258661 -0.0482163 0.731387
-0.0264981 -0.0493557 0.730013
-0.0271286 -0.0505038 0.728868
-0.0277581 -0.0516514 0.727776
-0.0283874 -0.0528149 0.727015
-0.0290194 -0.054003 0.726718
-0.0296524 -0.055206 0.726679
-0.0302866 -0.0564212 0.726834
-0.0309262 -0.0576707 0.72753
-0.0315695 -0.0589391 0.728485
-0.0322171 -0.0602283 0.729711
-0.0328689 -0.0615323 0.731104
-0.0335231 -0.0628464 0.732576
-0.0341774 -0.0641473 0.733805
-0.0348391 -0.0654853 0.735491
-0.035499 -0.0668025 0.736828
-0.0361601 -0.0681191 0.738103
-0.0368171 -0.0694119 0.739013
-0.0374737 -0.0706961 0.739778
-0.0381162 -0.0719137 0.739675
-0.0387559 -0.0731235 0.73947
-0.0393974 -0.074338 0.739333
-0.0400396 -0.0755535 0.739216
-0.0406811 -0.0767714 0.739123
-0.0413299 -0.0780151 0.739335
-0.0419814 -0.079273 0.739694
-0.0426307 -0.0805188 0.739908
-0.0432785 -0.0817583 0.740044
-0.0439263 -0.0829963 0.740161
-0.0445705 -0.0842197 0.740118
-0.045212 -0.0854366 0.740003
-0.0458561 -0.0866614 0.739974
-0.0465051 -0.0879027 0.740114
-0.0471569 -0.0891542 0.740351
-0.0478097 -0.0904082 0.740604
-0.0484718 -0.0916941 0.741157
-0.0491354 -0.0929834 0.741726
-0.0497979 -0.094268 0.742234
-0.0504605 -0.0955518 0.74272
-0.0511232 -0.0968335 0.743175
-0.0517753 -0.0980813 0.743306
-0.0524277 -0.0993286 0.743429
-0.0530802 -0.100576 0.743553
-0.0537336 -0.101825 0.743685
-0.0543867 -0.103076 0.743823
-0.0550434 -0.104336 0.744037
-0.0556978 -0.105588 0.744177
-0.0563524 -0.106839 0.744309
-0.0570137 -0.108111 0.744606
-0.0576888 -0.109426 0.745246
-0.0583712 -0.110761 0.746024
-0.0590593 -0.112111 0.746902
-0.0597538 -0.11348 0.747907
-0.0604501 -0.11485 0.748896
-0.0611436 -0.116212 0.74981
-0.0618518 -0.117614 0.750997
-0.0625734 -0.119055 0.752447
-0.0633112 -0.120539 0.754178
-0.0640484 -0.122018 0.755844
-0.0647876 -0.123502 0.7575
-0.0655161 -0.124953 0.758883
-0.0662459 -0.126405 0.760251
-0.0669707 -0.127839 0.761465
-0.0677021 -0.129292 0.762783
-0.0684411 -0.130762 0.764193
-0.0691955 -0.132274 0.765853
-0.0699635 -0.133822 0.767723
-0.0707843 -0.135512 0.770494
-0.0716294 -0.137266 0.773628
-0.0724735 -0.139012 0.776658
-0.0733045 -0.140717 0.779363
-0.0741222 -0.142384 0.781774
-0.0748816 -0.143891 0.783127
-0.0756284 -0.145363 0.784229
-0.0763759 -0.146837 0.785322
-0.0771143 -0.148286 0.78624
-0.0778477 -0.149718 0.787041
-0.0785873 -0.151167 0.78793
-0.0793235 -0.152605 0.788738
-0.0818269 -0.154603 0.797129
-0.0800863 -0.154111 0.789933
-0.0221208 -0.0440904 0.733279
-0.022759 -0.0452834 0.73282
-0.023397 -0.0464741 0.732345
-0.0240341 -0.047636 0.731324
-0.0246688 -0.0487898 0.730198
-0.0253021 -0.0499231 0.728752
-0.0259338 -0.051073 0.727686
-0.0265637 -0.0522181 0.726586
-0.0271934 -0.0533669 0.725612
-0.0278234 -0.0545492 0.72524
-0.028455 -0.055745 0.725115
-0.0290871 -0.0569482 0.72511
-0.0297239 -0.0581873 0.725668
-0.0303653 -0.0594644 0.726778
-0.0310116 -0.0607625 0.728158
-0.0316627 -0.0620822 0.729794
-0.0323163 -0.0634075 0.731436
-0.03297 -0.0647257 0.732906
-0.0336295 -0.0660631 0.734586
-0.0342861 -0.0673799 0.735913
-0.034945 -0.0686956 0.737176
-0.035602 -0.0700012 0.738253
-0.0362595 -0.071299 0.739193
-0.0369074 -0.0725418 0.739412
-0.0375506 -0.0737641 0.739366
-0.0381933 -0.0749839 0.739292
-0.0388345 -0.0761989 0.739158
-0.039475 -0.0774097 0.738982
-0.0401232 -0.0786544 0.739199
-0.0407734 -0.0799083 0.739509
-0.0414231 -0.0811565 0.739748
-0.04207 -0.0823898 0.739817
-0.0427149 -0.0836204 0.739849
-0.0433532 -0.0848206 0.739562
-0.0439928 -0.0860275 0.739351
-0.044634 -0.0872431 0.739234
-0.0452821 -0.0884829 0.739364
-0.0459328 -0.0897333 0.739593
-0.0465867 -0.0909926 0.739904
-0.0472477 -0.0922782 0.740457
-0.0479094 -0.0935675 0.741025
-0.0485713 -0.0948508 0.741528
-0.049235 -0.0961442 0.742102
-0.0498972 -0.0974276 0.742573
-0.0505498 -0.0986766 0.74272
-0.0511988 -0.099916 0.742774
-0.0518486 -0.101154 0.742815
-0.0524978 -0.102392 0.742857
-0.0531505 -0.10364 0.742987
-0.0538031 -0.10489 0.74312
-0.0544563 -0.10614 0.74325
-0.0551096 -0.107388 0.743367
-0.0557692 -0.108658 0.743651
-0.05644 -0.109964 0.744218
-0.0571239 -0.111308 0.74507
-0.0578131 -0.112667 0.746027
-0.0585121 -0.114057 0.747192
-0.0592141 -0.115449 0.748361
-0.0599181 -0.116849 0.749548
-0.0606324 -0.118278 0.750926
-0.0613575 -0.119733 0.75247
-0.0620922 -0.121217 0.754191
-0.0628186 -0.122673 0.755675
-0.0635507 -0.124144 0.757229
-0.0642685 -0.12557 0.758436
-0.0649925 -0.127012 0.75972
-0.0657101 -0.128434 0.760843
-0.0664389 -0.129886 0.762151
-0.0671709 -0.131344 0.763468
-0.0679229 -0.132858 0.765141
-0.0686831 -0.134395 0.766929
-0.069522 -0.136149 0.770119
-0.0703874 -0.137974 0.77371
-0.0712495 -0.139785 0.777139
-0.0720979 -0.141552 0.780215
-0.0729312 -0.143276 0.782961
-0.0736738 -0.144743 0.784041
-0.0744038 -0.146172 0.784867
-0.0751346 -0.147603 0.785682
-0.0758562 -0.14901 0.786333
-0.0765785 -0.150416 0.786965
-0.0773171 -0.151865 0.78785
-0.0780475 -0.153294 0.788592
-0.0788084 -0.1548 0.789781
-0.0808641 -0.155656 0.791332
-0.0795834 -0.156345 0.791173
-0.0209244 -0.044683 0.732364
-0.0215631 -0.0458722 0.731857
-0.022201 -0.0470601 0.731351
-0.022839 -0.0482157 0.730244
-0.0234746 -0.0493679 0.729125
-0.0241096 -0.0504983 0.727675
-0.024742 -0.0516419 0.72653
-0.0253726 -0.0527803 0.72535
-0.0260019 -0.053918 0.72422
-0.0266314 -0.0550919 0.723745
-0.0272617 -0.0562799 0.723521
-0.0278925 -0.0574764 0.723441
-0.0285272 -0.0587125 0.723981
-0.0291664 -0.0599929 0.72516
-0.0298108 -0.0613008 0.726698
-0.0304587 -0.0626284 0.728449
-0.0311109 -0.0639652 0.730262
-0.0317639 -0.0652944 0.731892
-0.03242 -0.0666373 0.733636
-0.0330746 -0.0679543 0.734968
-0.0337329 -0.0692814 0.736382
-0.0343913 -0.0706056 0.737699
-0.03505 -0.0719191 0.738833
-0.0356991 -0.0731778 0.73924
-0.0363438 -0.0744076 0.739286
-0.0369867 -0.0756277 0.739212
-0.0376271 -0.0768342 0.738981
-0.0382664 -0.0780367 0.73871
-0.0389142 -0.0792819 0.73893
-0.0395663 -0.080544 0.739331
-0.0402172 -0.0818036 0.739687
-0.0408645 -0.0830389 0.739775
-0.04151 -0.0842694 0.739805
-0.0421473 -0.0854664 0.739479
-0.0427847 -0.086664 0.73917
-0.043423 -0.0878635 0.738892
-0.0440685 -0.0890948 0.738938
-0.0447168 -0.0903356 0.739074
-0.0453691 -0.0915935 0.739369
-0.0460261 -0.0928699 0.739833
-0.0466874 -0.094158 0.740395
-0.0473472 -0.0954421 0.7409
-0.0480106 -0.0967342 0.741468
-0.0486697 -0.0980097 0.741869
-0.0493212 -0.09926 0.742029
-0.0499705 -0.100499 0.742085
-0.0506193 -0.101736 0.742125
-0.051268 -0.102974 0.742167
-0.0519204 -0.104223 0.742305
-0.0525731 -0.105473 0.742449
-0.0532261 -0.106723 0.742587
-0.0538783 -0.107972 0.74271
-0.0545371 -0.109241 0.742992
-0.05521 -0.110555 0.743622
-0.0558919 -0.111898 0.744467
-0.0565819 -0.113266 0.745493
-0.057283 -0.114668 0.746748
-0.057989 -0.116083 0.748077
-0.058696 -0.117498 0.749372
-0.0594134 -0.118941 0.750853
-0.0601364 -0.120401 0.752418
-0.0608687 -0.121885 0.75413
-0.061585 -0.123318 0.755436
-0.0623102 -0.124776 0.756891
-0.0630219 -0.126191 0.758008
-0.0637396 -0.127621 0.759209
-0.0644519 -0.129032 0.760249
-0.0651738 -0.130472 0.761469
-0.0659025 -0.131929 0.76278
-0.0666525 -0.133445 0.764455
-0.0674014 -0.134957 0.766078
-0.0682566 -0.136777 0.769689
-0.069141 -0.138674 0.773732
-0.0700163 -0.14054 0.77749
-0.0708767 -0.142358 0.780876
-0.0717252 -0.144135 0.783936
-0.0724514 -0.14556 0.784733
-0.0731682 -0.146959 0.785351
-0.073883 -0.148347 0.785891
-0.0745923 -0.149723 0.786346
-0.075313 -0.151127 0.786965
-0.0760503 -0.152579 0.787855
-0.0767825 -0.154013 0.788622
-0.0775373 -0.155509 0.789746
-0.0783101 -0.157055 0.791137
-0.0808045 -0.159078 0.799445
-0.0790647 -0.158546 0.792182
-0.01973 -0.045268 0.731309
-0.020369 -0.0464565 0.73082
-0.0210073 -0.0476413 0.730284
-0.0216461 -0.0487952 0.729184
-0.0222826 -0.0499458 0.728072
-0.0229191 -0.0510703 0.726555
-0.0235522 -0.0522072 0.725325
-0.0241844 -0.0533377 0.724058
-0.0248139 -0.0544631 0.722757
-0.0254426 -0.0556248 0.722114
-0.0260719 -0.0568042 0.721789
-0.0267015 -0.0579923 0.721614
-0.0273325 -0.0592172 0.722003
-0.0279681 -0.0604848 0.723018
-0.0286093 -0.0617905 0.724551
-0.0292539 -0.0631275 0.726455
-0.0299035 -0.0644768 0.728462
-0.0305551 -0.0658285 0.73041
-0.031211 -0.0671932 0.732459
-0.031865 -0.0685267 0.73401
-0.0325222 -0.0698667 0.735591
-0.0331816 -0.0712117 0.73717
-0.0338405 -0.0725408 0.738492
-0.0344915 -0.0738155 0.739095
-0.0351382 -0.0750538 0.739243
-0.0357808 -0.0762736 0.739159
-0.0364206 -0.0774734 0.738849
-0.037059 -0.0786685 0.738494
-0.0377063 -0.0799132 0.738705
-0.038356 -0.0811684 0.739026
-0.0390079 -0.0824343 0.739448
-0.0396547 -0.0836703 0.739539
-0.0402999 -0.0849013 0.739571
-0.0409378 -0.0860975 0.739242
-0.0415772 -0.0873004 0.738991
-0.0422138 -0.088491 0.738623
-0.0428574 -0.0897157 0.738602
-0.0435051 -0.0909556 0.738729
-0.0441548 -0.0922055 0.738947
-0.0448089 -0.0934735 0.739329
-0.0454671 -0.0947529 0.739809
-0.0461256 -0.0960355 0.740301
-0.0467855 -0.0973188 0.740788
-0.0474432 -0.0985927 0.741177
-0.048094 -0.0998412 0.741325
-0.0487427 -0.101078 0.74137
-0.0493908 -0.102314 0.741405
-0.0500417 -0.10356 0.741529
-0.0506967 -0.10482 0.741761
-0.0513523 -0.106084 0.742014
-0.0520081 -0.107345 0.742246
-0.0526662 -0.108614 0.74253
-0.0533243 -0.109884 0.742819
-0.0539966 -0.111199 0.743455
-0.0546772 -0.112543 0.744305
-0.0553657 -0.113912 0.745322
-0.0560616 -0.115305 0.746501
-0.0567663 -0.116721 0.74783
-0.0574746 -0.118147 0.749206
-0.0581894 -0.119594 0.750692
-0.0589105 -0.121054 0.752256
-0.0596395 -0.122539 0.753963
-0.0603537 -0.123973 0.755258
-0.0610729 -0.12542 0.75663
-0.0617839 -0.126835 0.757746
-0.0624993 -0.128266 0.75894
-0.0632055 -0.129666 0.759901
-0.0639257 -0.131105 0.761107
-0.0646528 -0.132563 0.762424
-0.065395 -0.134067 0.764006
-0.0661746 -0.135678 0.766279
-0.0670535 -0.137588 0.770455
-0.0679451 -0.139529 0.774752
-0.0688285 -0.141438 0.778754
-0.0696971 -0.143296 0.782359
-0.0705102 -0.144984 0.784832
-0.0712169 -0.146355 0.785272
-0.071928 -0.147737 0.785776
-0.0726354 -0.149108 0.786203
-0.0733381 -0.150466 0.786542
-0.0740575 -0.151869 0.787147
-0.074794 -0.153323 0.788037
-0.0755259 -0.154759 0.788817
-0.076275 -0.156246 0.789872
-0.0770404 -0.157777 0.791162
-0.0777865 -0.15925 0.792105
-0.080255 -0.161231 0.800055
-0.0785156 -0.160676 0.792756
-0.0185391 -0.0458487 0.730193
-0.0191779 -0.0470369 0.729733
-0.0198155 -0.0482202 0.729193
-0.0204556 -0.0493693 0.72804
-0.0210937 -0.0505132 0.726848
-0.0217315 -0.0516314 0.725264
-0.0223662 -0.0527609 0.723953
-0.0229987 -0.0538843 0.722602
-0.0236292 -0.0550009 0.721204
-0.0242586 -0.0561548 0.720479
-0.0248865 -0.0573276 0.720079
-0.0255142 -0.058504 0.719754
-0.0261438 -0.0597156 0.719982
-0.0267758 -0.0609745 0.720892
-0.0274116 -0.0622676 0.722259
-0.0280515 -0.0635861 0.72393
-0.0286949 -0.0649182 0.725718
-0.0293389 -0.0662411 0.727305
-0.0299917 -0.06762 0.729579
-0.0306436 -0.0689703 0.731387
-0.0313023 -0.070359 0.733618
-0.0319655 -0.0717612 0.735936
-0.0326309 -0.0731592 0.738112
-0.0332841 -0.0744554 0.738974
-0.0339338 -0.075719 0.739415
-0.0345764 -0.0769325 0.739256
-0.0352153 -0.0781257 0.738864
-0.0358534 -0.0793138 0.738428
-0.0364987 -0.0805512 0.73855
-0.0371469 -0.0817975 0.738771
-0.0377973 -0.0830612 0.739165
-0.038445 -0.0843042 0.739329
-0.0390923 -0.0855431 0.739446
-0.0397313 -0.0867416 0.739142
-0.0403725 -0.0879538 0.738981
-0.0410095 -0.0891452 0.738618
-0.0416522 -0.0903612 0.73851
-0.0422961 -0.0915861 0.738488
-0.0429432 -0.0928275 0.738621
-0.0435938 -0.0940789 0.738848
-0.044247 -0.0953423 0.739178
-0.0449017 -0.0966149 0.739578
-0.0455601 -0.0978955 0.740045
-0.0462164 -0.0991678 0.740422
-0.0468666 -0.100414 0.740558
-0.0475166 -0.101658 0.740675
-0.0481639 -0.102894 0.740708
-0.0488168 -0.10415 0.740915
-0.049474 -0.10542 0.741238
-0.0501348 -0.106704 0.741661
-0.0507959 -0.107986 0.742066
-0.0514588 -0.109277 0.742521
-0.0521197 -0.110559 0.742902
-0.0527917 -0.111877 0.743551
-0.053471 -0.113223 0.7444
-0.0541586 -0.114594 0.74543
-0.0548505 -0.115977 0.746521
-0.0555503 -0.117384 0.747772
-0.0562587 -0.118819 0.749199
-0.0569714 -0.120264 0.750671
-0.0576867 -0.121715 0.752152
-0.0584131 -0.1232 0.753847
-0.0591257 -0.124635 0.755145
-0.0598395 -0.126073 0.756439
-0.060545 -0.127479 0.757485
-0.061255 -0.128899 0.758597
-0.0619598 -0.130297 0.759545
-0.0626773 -0.131735 0.760737
-0.0634022 -0.133195 0.762052
-0.0641573 -0.134748 0.76396
-0.0649773 -0.1365 0.767139
-0.0658775 -0.138497 0.771844
-0.0667854 -0.140511 0.776571
-0.0676782 -0.142468 0.780841
-0.0685365 -0.144311 0.78432
-0.0693143 -0.145902 0.786143
-0.070006 -0.147228 0.786288
-0.0707026 -0.148568 0.786527
-0.0713998 -0.149912 0.786772
-0.0720933 -0.151242 0.786934
-0.0728067 -0.152631 0.787442
-0.0735374 -0.154071 0.788245
-0.0742725 -0.155523 0.789102
-0.0750207 -0.157009 0.790148
-0.0757791 -0.158525 0.791341
-0.0765174 -0.159981 0.792175
-0.0772401 -0.16139 0.792729
-0.0796793 -0.163316 0.800263
-0.077951 -0.162767 0.793079
-0.0167115 -0.0452368 0.729464
-0.0173497 -0.0464322 0.729161
-0.0179885 -0.0476194 0.728709
-0.0186274 -0.0487969 0.728093
-0.0192686 -0.0499397 0.726859
-0.0199079 -0.0510771 0.725591
-0.0205467 -0.0521919 0.723989
-0.0211828 -0.0533142 0.722598
-0.0218171 -0.0544308 0.721182
-0.0224482 -0.0555502 0.719873
-0.023077 -0.0566978 0.719075
-0.0237056 -0.0578634 0.718604
-0.0243328 -0.0590281 0.718132
-0.02496 -0.0602273 0.718196
-0.025589 -0.0614627 0.718787
-0.0262206 -0.0627347 0.719876
-0.0268545 -0.0640211 0.72112
-0.0274917 -0.0653308 0.722632
-0.0281291 -0.0666215 0.723825
-0.0287737 -0.0679695 0.725731
-0.0294183 -0.0692942 0.72726
-0.0300758 -0.0707289 0.730126
-0.0307398 -0.0721908 0.733224
-0.0314086 -0.0736653 0.73636
-0.0320688 -0.0750329 0.7381
-0.032727 -0.0763702 0.73942
-0.0333711 -0.0775957 0.739393
-0.0340108 -0.0787895 0.739004
-0.0346499 -0.0799785 0.738575
-0.0352942 -0.081209 0.738615
-0.0359389 -0.0824396 0.738653
-0.0365856 -0.0836793 0.73879
-0.0372329 -0.0849198 0.73893
-0.0378803 -0.0861626 0.739086
-0.038523 -0.0873798 0.738976
-0.0391668 -0.0886026 0.738924
-0.0398056 -0.0898018 0.738637
-0.0404462 -0.0910091 0.738437
-0.0410885 -0.0922248 0.738325
-0.0417321 -0.0934497 0.738299
-0.0423804 -0.0946919 0.738439
-0.0430303 -0.0959436 0.73866
-0.0436825 -0.097207 0.738979
-0.0443377 -0.0984787 0.739365
-0.0449931 -0.0997511 0.739746
-0.0456424 -0.100998 0.739887
-0.0462919 -0.102243 0.740013
-0.0469419 -0.103486 0.740123
-0.0475964 -0.104752 0.740418
-0.0482574 -0.106042 0.7409
-0.0489228 -0.107346 0.741493
-0.0495881 -0.10865 0.742066
-0.0502543 -0.109953 0.742616
-0.0509203 -0.111257 0.743161
-0.0515923 -0.112579 0.74383
-0.0522709 -0.113925 0.744675
-0.052957 -0.115298 0.745699
-0.0536445 -0.11667 0.7467
-0.0543361 -0.118057 0.747783
-0.0550389 -0.11948 0.749114
-0.0557436 -0.120904 0.750416
-0.0564525 -0.122343 0.751808
-0.0571761 -0.12383 0.7535
-0.0578867 -0.125266 0.754801
-0.0585993 -0.126705 0.756099
-0.0593062 -0.128124 0.757223
-0.0600147 -0.129543 0.758331
-0.0607213 -0.130954 0.759352
-0.0614376 -0.132394 0.760554
-0.0621634 -0.133866 0.761947
-0.0629183 -0.135427 0.763894
-0.063765 -0.137286 0.767747
-0.0646727 -0.139333 0.772752
-0.0655866 -0.14139 0.777713
-0.066474 -0.143351 0.781975
-0.0673309 -0.145208 0.785505
-0.0680814 -0.146721 0.786825
-0.0687686 -0.148034 0.786879
-0.0694659 -0.149375 0.787112
-0.0701592 -0.150705 0.787264
-0.0708485 -0.152024 0.787348
-0.0715565 -0.153399 0.787769
-0.0722815 -0.154825 0.788479
-0.0730097 -0.156261 0.789234
-0.0737503 -0.15773 0.790174
-0.0745009 -0.159229 0.791264
-0.0752327 -0.160669 0.791996
-0.0759496 -0.162064 0.792463
-0.0766598 -0.163438 0.792806
-0.0790979 -0.165389 0.800391
-0.0773701 -0.164812 0.793143
-0.0155233 -0.0458273 0.728575
-0.0161612 -0.0470203 0.728241
-0.0168002 -0.0482046 0.727757
-0.017441 -0.0493698 0.726936
-0.0180844 -0.0505052 0.725613
-0.0187264 -0.0516298 0.724165
-0.0193669 -0.0527362 0.722464
-0.0200046 -0.0538479 0.720945
-0.0206388 -0.0549625 0.719539
-0.021271 -0.0560889 0.718398
-0.0219001 -0.05724 0.717698
-0.0225276 -0.058405 0.71724
-0.0231549 -0.0595662 0.716749
-0.0237814 -0.060757 0.716715
-0.0244078 -0.0619742 0.717057
-0.0250359 -0.0632112 0.717671
-0.0256656 -0.0644639 0.718477
-0.0262972 -0.065736 0.719511
-0.026928 -0.0669826 0.720155
-0.0275643 -0.0682876 0.721545
-0.0282015 -0.0695795 0.722712
-0.0288498 -0.0709876 0.725295
-0.0295115 -0.0725094 0.729188
-0.0301807 -0.0740577 0.733261
-0.0308446 -0.0755116 0.736058
-0.0315094 -0.0769401 0.738463
-0.0321641 -0.0782532 0.739459
-0.0328042 -0.079441 0.739003
-0.033443 -0.0806303 0.738572
-0.0340864 -0.081846 0.738449
-0.0347288 -0.0830612 0.73832
-0.0353741 -0.0842992 0.738434
-0.0360219 -0.0855484 0.738663
-0.0366708 -0.0867998 0.738909
-0.0373181 -0.0880437 0.739068
-0.037964 -0.0892766 0.739111
-0.0386022 -0.0904679 0.738742
-0.0392418 -0.0916657 0.738448
-0.0398822 -0.0928704 0.738228
-0.0405198 -0.0940611 0.73788
-0.0411612 -0.0952756 0.73776
-0.0418063 -0.0965071 0.737798
-0.0424559 -0.0977581 0.738014
-0.0431064 -0.0990137 0.738262
-0.0437653 -0.100306 0.738825
-0.0444199 -0.10158 0.739215
-0.0450753 -0.102854 0.739589
-0.0457291 -0.104118 0.739879
-0.0463905 -0.105413 0.740411
-0.0470533 -0.106714 0.740984
-0.0477207 -0.10803 0.741661
-0.0483856 -0.109337 0.742248
-0.0490515 -0.110643 0.742812
-0.0497178 -0.111949 0.743365
-0.0503884 -0.11327 0.744019
-0.0510634 -0.114608 0.744791
-0.0517477 -0.115979 0.745795
-0.0524315 -0.117342 0.746716
-0.0531184 -0.118717 0.747701
-0.053816 -0.12013 0.748946
-0.054515 -0.121543 0.750158
-0.0552188 -0.122973 0.751469
-0.0559404 -0.124461 0.753166
-0.056649 -0.125897 0.754461
-0.0573594 -0.127338 0.755762
-0.0580681 -0.128768 0.756962
-0.0587716 -0.130177 0.757994
-0.0594701 -0.131565 0.758856
-0.0601799 -0.132992 0.759968
-0.0608978 -0.134443 0.761208
-0.0616859 -0.136133 0.764001
-0.0625752 -0.138156 0.768901
-0.0634958 -0.140274 0.774313
-0.0644114 -0.142362 0.779435
-0.0653035 -0.144361 0.7839
-0.0661133 -0.14608 0.786523
-0.0668193 -0.147456 0.78697
-0.0675075 -0.148769 0.787026
-0.0682037 -0.150111 0.787255
-0.0688925 -0.151428 0.787329
-0.0695863 -0.15276 0.78749
-0.0702985 -0.15415 0.787992
-0.0710182 -0.155562 0.788612
-0.071741 -0.156983 0.789276
-0.0724736 -0.158437 0.790114
-0.0732188 -0.159922 0.791115
-0.0739436 -0.161346 0.791756
-0.0746586 -0.162739 0.792209
-0.0753676 -0.164112 0.792542
-0.0760773 -0.165485 0.79287
-0.0785211 -0.16748 0.800604
-0.0767887 -0.166863 0.793221
-0.0143348 -0.0464265 0.727883
-0.014973 -0.0476187 0.727552
-0.0156133 -0.0487979 0.726993
-0.0162567 -0.0499505 0.725963
-0.0169025 -0.0510743 0.724461
