ply
format ascii 1.0
element vertex 1701
property float x
property float y
property float z
end_header
0.148503 -0.138109 0.841886
0.147996 -0.136759 0.842379
0.147489 -0.135409 0.842881
0.147107 -0.134212 0.844388
0.146775 -0.133073 0.846319
0.146481 -0.131979 0.848584
0.14624 -0.130945 0.851297
0.145967 -0.129868 0.853773
0.145576 -0.128647 0.855295
0.145142 -0.127374 0.856473
0.144655 -0.126035 0.857203
0.144109 -0.124626 0.857439
0.143567 -0.123225 0.857725
0.143002 -0.121794 0.857797
0.142415 -0.12034 0.857688
0.141821 -0.118878 0.857509
0.141217 -0.117407 0.857248
0.140615 -0.115937 0.856983
0.140021 -0.114477 0.856788
0.139429 -0.113022 0.856606
0.13884 -0.11157 0.856443
0.138301 -0.110174 0.856729
0.137737 -0.108749 0.856776
0.137171 -0.107325 0.856817
0.136583 -0.105876 0.856646
0.135994 -0.104429 0.856466
0.135361 -0.102934 0.855871
0.134746 -0.101461 0.855433
0.13412 -0.0999776 0.854885
0.133486 -0.0984877 0.854253
0.132807 -0.0969532 0.853182
0.132125 -0.095419 0.852072
0.131449 -0.0938932 0.851
0.130778 -0.0923744 0.849954
0.130124 -0.0908755 0.849061
0.129501 -0.0894092 0.848456
0.128913 -0.0879788 0.848186
0.128338 -0.0865608 0.848026
0.127919 -0.0852916 0.849409
0.1277 -0.0842061 0.852785
0.127585 -0.0832118 0.857256
0.127475 -0.0822137 0.861826
0.127346 -0.0811886 0.866249
0.127051 -0.0800073 0.869035
0.126555 -0.0786436 0.869793
0.126004 -0.0772315 0.869991
0.125452 -0.0758183 0.870173
0.12486 -0.0743715 0.869936
0.124259 -0.0729174 0.869592
0.123687 -0.0714891 0.869549
0.12311 -0.0700574 0.869449
0.122563 -0.0686513 0.86967
0.12206 -0.0672802 0.870367
0.121608 -0.0659484 0.871626
0.12115 -0.0646086 0.872816
0.120714 -0.0632844 0.874273
0.120276 -0.0619559 0.875721
0.119828 -0.0606186 0.877084
0.119363 -0.0592659 0.878261
0.118911 -0.0579206 0.879599
0.118444 -0.0565619 0.880778
0.117976 -0.0552016 0.881965
0.117508 -0.0538381 0.883156
0.117062 -0.0524879 0.884617
0.116608 -0.0511298 0.886001
0.116145 -0.0497634 0.887312
0.115703 -0.0484076 0.88887
0.115298 -0.0470713 0.8909
0.114891 -0.0457289 0.892923
0.114477 -0.0443792 0.894893
0.165803 -0.18146 0.868864
0.165123 -0.179846 0.868269
0.164446 -0.178237 0.867681
0.163676 -0.176499 0.866418
0.162884 -0.174732 0.864978
0.16207 -0.172938 0.863367
0.161298 -0.171203 0.862031
0.160504 -0.169441 0.860525
0.159713 -0.167686 0.859026
0.158936 -0.165952 0.85761
0.158184 -0.164257 0.856372
0.157416 -0.16254 0.85499
0.156652 -0.160832 0.853621
0.155897 -0.15914 0.852314
0.155167 -0.157483 0.851174
0.154434 -0.155822 0.849991
0.153738 -0.154216 0.849088
0.15308 -0.15266 0.848459
0.152411 -0.151091 0.847738
0.151756 -0.149542 0.847111
0.151123 -0.148024 0.846653
0.150408 -0.1464 0.845542
0.149699 -0.144786 0.844461
0.149038 -0.143236 0.843747
0.148365 -0.141673 0.842932
0.147735 -0.140166 0.842447
0.147267 -0.138866 0.843264
0.146803 -0.13757 0.844118
0.146344 -0.136278 0.845013
0.146015 -0.135149 0.846992
0.145718 -0.134055 0.849241
0.14544 -0.132984 0.851683
0.145182 -0.131931 0.8543
0.144878 -0.13082 0.856565
0.144458 -0.129564 0.857868
0.143987 -0.128247 0.858761
0.143446 -0.126842 0.85905
0.142875 -0.125403 0.859089
0.142312 -0.123974 0.859197
0.141728 -0.122519 0.85911
0.141113 -0.12103 0.858761
0.140507 -0.119552 0.858475
0.139883 -0.118054 0.858027
0.139259 -0.116558 0.857572
0.138645 -0.115075 0.857203
0.138054 -0.113618 0.85702
0.137466 -0.112166 0.856867
0.136919 -0.11076 0.857073
0.136343 -0.109323 0.857023
0.135766 -0.107884 0.85695
0.135158 -0.106412 0.85659
0.134532 -0.104924 0.856062
0.133853 -0.103378 0.855021
0.133181 -0.101843 0.854038
0.132499 -0.1003 0.852935
0.131818 -0.0987597 0.851828
0.131112 -0.0971975 0.850475
0.130413 -0.0956446 0.84916
0.129731 -0.0941121 0.847989
0.129072 -0.0926062 0.84703
0.128434 -0.0911227 0.846251
0.127844 -0.08969 0.845941
0.127297 -0.0883004 0.846049
0.126767 -0.086928 0.846324
0.126491 -0.0858001 0.849144
0.126402 -0.0848462 0.853889
0.126385 -0.0839517 0.859426
0.126329 -0.0830105 0.864633
0.126149 -0.0819448 0.868623
0.125763 -0.0806826 0.870519
0.125209 -0.0792656 0.870687
0.124614 -0.0778131 0.87043
0.124044 -0.0763828 0.870419
0.123443 -0.0749261 0.870073
0.122833 -0.0734636 0.86963
0.122262 -0.0720352 0.86959
0.121693 -0.0706098 0.869575
0.121154 -0.0692099 0.869886
0.120652 -0.0678396 0.870596
0.120205 -0.0665127 0.871921
0.119743 -0.0651724 0.873104
0.119306 -0.0638486 0.874565
0.118858 -0.0625149 0.875932
0.118417 -0.0611833 0.877382
0.117951 -0.059831 0.878566
0.117497 -0.058486 0.879911
0.117029 -0.0571286 0.8811
0.116568 -0.0557729 0.882375
0.11609 -0.0544044 0.88348
0.115633 -0.0530479 0.88483
0.115161 -0.051679 0.886025
0.114687 -0.0503074 0.887219
0.114228 -0.048942 0.88859
0.113804 -0.0475975 0.890425
0.113386 -0.0462515 0.892339
0.112968 -0.0449026 0.89429
0.164368 -0.182063 0.86905
0.16367 -0.18042 0.868311
0.162994 -0.178809 0.867721
0.162219 -0.17706 0.866407
0.161426 -0.175286 0.864937
0.160589 -0.173453 0.863131
0.159803 -0.171695 0.861677
0.158986 -0.169897 0.859983
0.158198 -0.168141 0.858479
0.157422 -0.166404 0.85705
0.156686 -0.164726 0.855906
0.155935 -0.163028 0.854627
0.155198 -0.161353 0.853447
0.154482 -0.159709 0.852414
0.15379 -0.158099 0.851547
0.153084 -0.156472 0.850562
0.152403 -0.154881 0.849763
0.151757 -0.153339 0.849221
0.15109 -0.151769 0.848503
0.150445 -0.15023 0.847953
0.149825 -0.148727 0.847592
0.149123 -0.147115 0.846571
0.148425 -0.145511 0.845566
0.147783 -0.143983 0.845005
0.147124 -0.142433 0.844286
0.146518 -0.140954 0.843997
0.146092 -0.139709 0.845176
0.145674 -0.138471 0.846423
0.145251 -0.137226 0.847642
0.144945 -0.136127 0.849838
0.144632 -0.135017 0.852006
0.144325 -0.133911 0.854239
0.144013 -0.132796 0.856452
0.143659 -0.131625 0.858326
0.143202 -0.130326 0.859347
0.142699 -0.128968 0.859968
0.142124 -0.127522 0.859983
0.141541 -0.126066 0.859915
0.140967 -0.124623 0.85993
0.140375 -0.123157 0.859772
0.139771 -0.121679 0.859515
0.139166 -0.1202 0.859236
0.138532 -0.118687 0.85869
0.137897 -0.117176 0.858133
0.137274 -0.11568 0.857668
0.136674 -0.114211 0.857402
0.136087 -0.112759 0.857255
0.13553 -0.111341 0.857375
0.134945 -0.109891 0.857229
0.134346 -0.108428 0.85696
0.133709 -0.106922 0.856315
0.133035 -0.105379 0.855322
0.132307 -0.103777 0.853791
0.131577 -0.102177 0.852228
0.130847 -0.10058 0.850639
0.130133 -0.0990037 0.849176
0.129424 -0.0974357 0.847741
0.128725 -0.0958825 0.846394
0.128052 -0.0943584 0.845271
0.127418 -0.0928773 0.844516
0.126811 -0.0914267 0.844024
0.126245 -0.0900186 0.843928
0.125726 -0.0886588 0.844302
0.125318 -0.0874092 0.845801
0.125186 -0.086429 0.850127
0.125235 -0.0856187 0.856371
0.1253 -0.0848123 0.862859
0.125256 -0.083889 0.868288
0.124974 -0.0827307 0.871296
0.124482 -0.0813709 0.872131
0.123841 -0.0798713 0.871381
0.123211 -0.0783847 0.870744
0.122631 -0.0769447 0.870627
0.122021 -0.0754782 0.870174
0.121411 -0.0740139 0.869717
0.120833 -0.0725785 0.869596
0.120266 -0.0711543 0.8696
0.119735 -0.069761 0.869999
0.119232 -0.0683901 0.870702
0.118776 -0.0670578 0.871949
0.118312 -0.0657171 0.873121
0.117872 -0.0643932 0.874572
0.117415 -0.0630542 0.875855
0.11698 -0.0617297 0.877401
0.116521 -0.0603842 0.878683
0.116076 -0.0590467 0.880142
0.115614 -0.0576947 0.881422
0.11515 -0.0563397 0.882697
0.11467 -0.0549702 0.883788
0.114203 -0.0536072 0.885043
0.113721 -0.0522335 0.886136
0.113239 -0.050857 0.887242
0.11277 -0.0494877 0.888522
0.112323 -0.0481297 0.890088
0.111894 -0.0467801 0.891893
0.111465 -0.0454275 0.893743
0.162995 -0.182758 0.869692
0.162305 -0.181123 0.869006
0.16163 -0.179511 0.868419
0.160821 -0.177707 0.866833
0.160009 -0.1759 0.865204
0.159121 -0.173988 0.862995
0.158279 -0.172144 0.861099
0.15747 -0.170351 0.859433
0.156695 -0.168609 0.858007
0.155947 -0.166907 0.856765
0.155237 -0.165261 0.855802
0.154513 -0.163599 0.854721
0.153825 -0.161986 0.853894
0.153146 -0.16039 0.853135
0.152482 -0.158814 0.852472
0.151812 -0.157233 0.851765
0.151146 -0.155659 0.851074
0.150489 -0.154098 0.850442
0.14982 -0.152522 0.849706
0.149176 -0.150981 0.849152
0.148557 -0.149476 0.848801
0.147879 -0.147892 0.847963
0.147204 -0.146314 0.847137
0.146586 -0.144814 0.846765
0.145949 -0.143289 0.846226
0.145357 -0.141825 0.846048
0.144941 -0.140593 0.847335
0.144544 -0.139384 0.848786
0.144142 -0.138166 0.8502
0.143825 -0.137057 0.852351
0.143473 -0.1359 0.854228
0.143112 -0.134728 0.856036
0.142736 -0.133535 0.85774
0.142306 -0.132273 0.858994
0.141809 -0.130923 0.859672
0.141285 -0.129539 0.860125
0.1407 -0.12808 0.860043
0.140116 -0.126621 0.859959
0.13954 -0.125175 0.859957
0.138948 -0.123708 0.859799
0.138356 -0.122242 0.859632
0.137753 -0.120764 0.859367
0.13711 -0.119239 0.858733
0.136476 -0.117726 0.858165
0.135852 -0.116226 0.857681
0.135242 -0.114746 0.857325
0.134657 -0.113293 0.857178
0.13409 -0.111864 0.857207
0.133495 -0.110403 0.856966
0.132877 -0.108916 0.856504
0.132204 -0.107368 0.855503
0.131474 -0.105758 0.853943
0.130697 -0.104099 0.851913
0.129918 -0.102442 0.849835
0.129163 -0.100814 0.847951
0.128444 -0.0992314 0.846406
0.127762 -0.0976906 0.84519
0.127107 -0.0961832 0.844237
0.126478 -0.0947043 0.843514
0.125876 -0.0932566 0.843058
0.125298 -0.0918356 0.842835
0.124749 -0.0904459 0.842904
0.124329 -0.089188 0.844277
0.124026 -0.0880486 0.846884
0.124004 -0.0871874 0.852426
0.124175 -0.085649 0.865993
0.124037 -0.0846415 0.870535
0.123662 -0.0833964 0.87261
0.123088 -0.0819573 0.872577
0.122434 -0.0804434 0.871682
0.121787 -0.0789376 0.870837
0.12119 -0.0774813 0.870534
0.120572 -0.0760064 0.869984
0.119963 -0.0745415 0.869524
0.119386 -0.0731066 0.869409
0.118829 -0.0716897 0.869508
0.118308 -0.0703051 0.870016
0.117804 -0.0689348 0.870727
0.117345 -0.0676019 0.871961
0.116879 -0.0662609 0.873124
0.116422 -0.0649254 0.874402
0.115963 -0.0635864 0.875675
0.115527 -0.062263 0.877223
0.115067 -0.0609187 0.878513
0.114629 -0.0595892 0.880081
0.114181 -0.0582499 0.88155
0.113717 -0.0568955 0.882842
0.113242 -0.0555305 0.884008
0.112772 -0.0541682 0.885258
0.112281 -0.0527882 0.886254
0.111798 -0.051412 0.887364
0.111328 -0.0500438 0.888647
0.110872 -0.0486818 0.890128
0.110439 -0.047332 0.891915
0.110014 -0.045984 0.893838
0.111716 -0.0444773 0.904306
0.109581 -0.0446267 0.895677
0.160257 -0.180204 0.869064
0.159398 -0.178319 0.867083
0.158537 -0.176436 0.865067
0.157577 -0.174411 0.862281
0.156733 -0.172559 0.860344
0.155941 -0.170785 0.858781
0.155183 -0.169063 0.85746
0.154474 -0.167413 0.856499
0.153794 -0.165806 0.855747
0.153098 -0.164178 0.854858
0.152457 -0.16263 0.854394
0.151816 -0.161083 0.85392
0.15119 -0.159559 0.853557
0.150548 -0.158012 0.853054
0.149903 -0.156463 0.852528
0.149243 -0.154895 0.851869
0.148583 -0.153326 0.851194
0.147938 -0.151781 0.850639
0.147333 -0.150292 0.850394
0.146679 -0.148737 0.849751
0.146028 -0.147187 0.849117
0.145423 -0.145701 0.848854
0.144798 -0.144189 0.84842
0.144226 -0.142748 0.848417
0.143809 -0.141515 0.84971
0.143418 -0.140315 0.851243
0.143 -0.139078 0.85256
0.142646 -0.137923 0.854428
0.142235 -0.136691 0.85583
0.141813 -0.135443 0.857143
0.14137 -0.134166 0.858286
0.140896 -0.132848 0.859173
0.140378 -0.131473 0.859678
0.139844 -0.130077 0.860045
0.13926 -0.128617 0.859961
0.138665 -0.127145 0.859785
0.138081 -0.125687 0.859696
0.137489 -0.124219 0.859528
0.136897 -0.122753 0.859363
0.136287 -0.121265 0.859024
0.135647 -0.119742 0.858398
0.135013 -0.118227 0.857818
0.13438 -0.116714 0.857238
0.133762 -0.115222 0.856791
0.133177 -0.113769 0.856638
0.132601 -0.112329 0.856575
0.13198 -0.110837 0.856077
0.131345 -0.109328 0.855424
0.130637 -0.107737 0.854062
0.129855 -0.106064 0.851962
0.129043 -0.104361 0.849542
0.128256 -0.102691 0.847333
0.12749 -0.101049 0.845298
0.126796 -0.0994915 0.843954
0.126163 -0.0980041 0.843194
0.125557 -0.0965489 0.842699
0.124959 -0.0951034 0.842272
0.124385 -0.0936852 0.84208
0.123904 -0.0923674 0.842838
0.123448 -0.0910755 0.843862
0.123129 -0.0899253 0.846311
0.122949 -0.088917 0.850255
0.123024 -0.0881649 0.856936
0.123039 -0.08734 0.863069
0.123026 -0.0864745 0.868969
0.122779 -0.0853645 0.872435
0.122297 -0.084015 0.873393
0.12164 -0.0824936 0.872462
0.120981 -0.0809713 0.871479
0.120327 -0.0794575 0.870548
0.119733 -0.0780023 0.870257
0.119117 -0.0765278 0.869714
0.118516 -0.0750689 0.86933
0.117948 -0.0736412 0.869305
0.117392 -0.0722255 0.86942
0.116864 -0.0708352 0.869854
0.116366 -0.0694714 0.870643
0.115899 -0.0681327 0.871792
0.115424 -0.0667863 0.87287
0.114958 -0.0654447 0.874052
0.114497 -0.0641059 0.875314
0.114056 -0.0627823 0.87684
0.113603 -0.0614451 0.878223
0.113171 -0.0601236 0.879897
0.112731 -0.0587921 0.881479
0.112273 -0.0574439 0.882867
0.111798 -0.0560802 0.884043
0.111326 -0.0547177 0.885289
0.110828 -0.0533341 0.886204
0.11035 -0.0519635 0.887396
0.109878 -0.0505947 0.888683
0.10942 -0.0492334 0.890158
0.108984 -0.0478838 0.891935
0.108555 -0.0465355 0.893845
0.10812 -0.04518 0.89569
0.158865 -0.180872 0.869578
0.157956 -0.178906 0.867198
0.156027 -0.174822 0.86151
0.155167 -0.172939 0.859412
0.154408 -0.171208 0.858077
0.153681 -0.169528 0.856978
0.153015 -0.167937 0.856329
0.152363 -0.166369 0.855789
0.151706 -0.164792 0.85519
0.151113 -0.163312 0.855099
0.150521 -0.161832 0.855004
0.149944 -0.160375 0.855032
0.149346 -0.158888 0.854887
0.148714 -0.157353 0.854456
0.148042 -0.155763 0.853696
0.147377 -0.154185 0.852989
0.146722 -0.152621 0.852343
0.146108 -0.151117 0.852034
0.145478 -0.149591 0.851578
0.144861 -0.148083 0.851223
0.144268 -0.146611 0.851066
0.143654 -0.14511 0.850726
0.14309 -0.143677 0.850799
0.142646 -0.142409 0.851899
0.142228 -0.141175 0.853225
0.141782 -0.139901 0.854325
0.141371 -0.138672 0.855731
0.140904 -0.137368 0.856666
0.140435 -0.136059 0.857589
0.139938 -0.134713 0.858274
0.139422 -0.133343 0.858799
0.138892 -0.131953 0.859199
0.138348 -0.130543 0.859465
0.137764 -0.129084 0.859387
0.137164 -0.127604 0.859144
0.136571 -0.126134 0.85897
0.135978 -0.124665 0.858788
0.135387 -0.123198 0.858613
0.13477 -0.1217 0.858193
0.134141 -0.120188 0.857654
0.133517 -0.118685 0.857156
0.132887 -0.117175 0.856588
0.132245 -0.115651 0.855897
0.131641 -0.114175 0.855551
0.13103 -0.112692 0.855131
0.130381 -0.111165 0.854345
0.129722 -0.109627 0.853437
0.128999 -0.108016 0.851889
0.128204 -0.106323 0.849609
0.127405 -0.104631 0.847259
0.126627 -0.102967 0.845086
0.125895 -0.101361 0.843347
0.125269 -0.0998778 0.842646
0.124708 -0.0984706 0.842596
0.124164 -0.0970837 0.842721
0.123624 -0.0957011 0.842881
0.123107 -0.0943442 0.843279
0.122704 -0.0931111 0.84486
0.122322 -0.0918992 0.846689
0.122072 -0.0908263 0.84993
0.121967 -0.0899033 0.854764
0.121955 -0.0890693 0.860648
0.121828 -0.0881043 0.86536
0.121667 -0.0870968 0.869774
0.121309 -0.0858789 0.872082
0.120748 -0.0844517 0.872189
0.120123 -0.0829601 0.871577
0.119486 -0.081458 0.870816
0.118861 -0.0799698 0.870173
0.118277 -0.0785237 0.869988
0.117678 -0.0770646 0.86963
0.117094 -0.0756205 0.869428
0.116527 -0.074193 0.869412
0.115972 -0.0727772 0.869531
0.115435 -0.0713791 0.869868
0.114922 -0.0700017 0.870479
0.114437 -0.0686491 0.871432
0.113953 -0.0672965 0.872414
0.113471 -0.0659431 0.873418
0.113008 -0.0646053 0.874671
0.112558 -0.0632763 0.876095
0.112102 -0.0619406 0.877474
0.111676 -0.0606264 0.87923
0.11125 -0.0593091 0.881014
0.1108 -0.0579701 0.882516
0.110338 -0.0566183 0.883879
0.109871 -0.0552614 0.885211
0.109372 -0.0538782 0.886127
0.108899 -0.0525124 0.887406
0.108427 -0.0511451 0.888699
0.107967 -0.0497846 0.890179
0.107528 -0.048435 0.891957
0.107104 -0.0470931 0.893962
0.10666 -0.0457338 0.895721
0.157475 -0.181546 0.870124
0.154471 -0.175218 0.860665
0.153635 -0.173365 0.858727
0.152932 -0.171714 0.857807
0.15226 -0.17011 0.857116
0.151629 -0.168569 0.856737
0.15103 -0.167076 0.856607
0.15042 -0.165566 0.856381
0.149885 -0.164168 0.856754
0.149352 -0.162771 0.857135
0.148823 -0.161381 0.857556
0.148261 -0.159943 0.857711
0.147619 -0.15839 0.857206
0.146911 -0.156744 0.85616
0.146222 -0.155126 0.855249
0.145534 -0.153512 0.854333
0.1449 -0.151975 0.853852
0.14428 -0.150459 0.853479
0.143682 -0.148976 0.85329
0.14308 -0.147488 0.853066
0.142465 -0.145982 0.852718
0.141896 -0.144542 0.852763
0.14142 -0.143229 0.8536
0.140956 -0.141933 0.854555
0.140474 -0.14061 0.855353
0.140016 -0.139321 0.856375
0.139506 -0.13796 0.856945
0.139005 -0.136609 0.857592
0.138476 -0.135222 0.857999
0.137918 -0.133795 0.858146
0.137357 -0.132363 0.858255
0.136783 -0.130917 0.858255
0.136192 -0.129447 0.858093
0.135585 -0.127957 0.857774
0.134994 -0.12649 0.857601
0.134401 -0.12502 0.857403
0.133811 -0.123555 0.857223
0.133186 -0.122047 0.856717
0.13256 -0.120538 0.856187
0.131948 -0.119048 0.855779
0.131313 -0.11753 0.855139
0.130664 -0.115996 0.854353
0.130051 -0.114509 0.853905
0.129429 -0.113011 0.853359
0.128763 -0.111462 0.852374
0.128112 -0.109933 0.851519
0.1274 -0.108332 0.850044
0.126631 -0.106666 0.847971
0.125866 -0.105008 0.845911
0.125155 -0.103418 0.844369
0.124501 -0.101898 0.84338
0.123958 -0.100511 0.843526
0.12347 -0.0991857 0.844227
0.122994 -0.0978746 0.845067
0.122497 -0.0965384 0.84569
0.122 -0.0952011 0.846312
0.121624 -0.094 0.848238
0.121283 -0.0928337 0.850547
0.121069 -0.0918039 0.854256
0.120935 -0.0908554 0.858878
0.120785 -0.0898812 0.863379
0.120512 -0.088768 0.86659
0.1202 -0.0876084 0.869414
0.119742 -0.0862898 0.870639
0.119188 -0.0848707 0.870809
0.118593 -0.083409 0.87051
0.117985 -0.0819357 0.870057
0.117395 -0.0804818 0.869801
0.116823 -0.0790462 0.869734
0.116235 -0.0775966 0.86949
0.115661 -0.076161 0.869393
0.115087 -0.0747263 0.869291
0.114524 -0.0733029 0.869316
0.113978 -0.0718965 0.869543
0.113455 -0.0705103 0.870033
0.112952 -0.0691433 0.870783
0.11246 -0.0677847 0.871666
0.111968 -0.0664252 0.872562
0.111497 -0.0650831 0.873732
0.111038 -0.0637495 0.875061
0.110581 -0.0624151 0.876428
0.11016 -0.061109 0.878273
0.10974 -0.0598007 0.880159
0.109303 -0.0584754 0.881856
0.108855 -0.0571381 0.883414
0.108401 -0.0557938 0.884931
0.107907 -0.0544153 0.885934
0.107441 -0.0530565 0.887313
0.106967 -0.0516898 0.888612
0.106507 -0.0503306 0.890107
0.106066 -0.0489827 0.89189
0.105646 -0.0476464 0.893989
0.105201 -0.0462881 0.895761
0.106218 -0.044372 0.897539
0.104762 -0.0449312 0.897665
0.151489 -0.172269 0.857795
0.150865 -0.170734 0.857471
0.15029 -0.169275 0.857534
0.149734 -0.167843 0.857743
0.149192 -0.166433 0.858067
0.148716 -0.165121 0.858923
0.148252 -0.163827 0.85989
0.147759 -0.162488 0.860624
0.14723 -0.161096 0.861062
0.146565 -0.159505 0.860378
0.145823 -0.157802 0.859043
0.145086 -0.156108 0.857724
0.14436 -0.154434 0.85649
0.143693 -0.152846 0.855733
0.143061 -0.15131 0.85526
0.142461 -0.149822 0.855063
0.141848 -0.148314 0.854735
0.141222 -0.146789 0.854295
0.140631 -0.145316 0.854156
0.140121 -0.143956 0.854714
0.139614 -0.142601 0.855306
0.139089 -0.14122 0.85574
0.138589 -0.139874 0.856396
0.138049 -0.13847 0.856694
0.137517 -0.137079 0.857071
0.136967 -0.135664 0.857288
0.136388 -0.134208 0.857235
0.135805 -0.132747 0.857137
0.13521 -0.131272 0.856933
0.13461 -0.12979 0.856671
0.133995 -0.128289 0.856261
0.133396 -0.126812 0.856004
0.132796 -0.125332 0.855717
0.132189 -0.123844 0.85536
0.131557 -0.122326 0.85476
0.130925 -0.120808 0.854149
0.130325 -0.119333 0.853832
0.129695 -0.117821 0.853216
0.129049 -0.11629 0.852435
0.128427 -0.114791 0.851875
0.127801 -0.113288 0.851265
0.127129 -0.111729 0.850183
0.126491 -0.110215 0.84943
0.125822 -0.108664 0.848347
0.125119 -0.107074 0.846901
0.124438 -0.105514 0.845654
0.123821 -0.104033 0.845049
0.123258 -0.102618 0.844993
0.122789 -0.101316 0.845909
0.122348 -0.100046 0.847133
0.121909 -0.0987768 0.848389
0.121438 -0.0974693 0.849324
0.120959 -0.0961503 0.85017
0.120599 -0.0949674 0.852317
0.120295 -0.0938449 0.855097
0.120079 -0.0928166 0.85887
0.119852 -0.0917708 0.862578
0.119576 -0.0906637 0.865782
0.119187 -0.0894279 0.867766
0.118744 -0.0881311 0.869172
0.118198 -0.0867198 0.869411
0.117646 -0.0853031 0.869591
0.117085 -0.0838777 0.86967
0.116504 -0.0824307 0.869502
0.11594 -0.0810027 0.869532
0.115384 -0.0795839 0.869658
0.114806 -0.0781428 0.869516
0.114234 -0.0767077 0.869431
0.11366 -0.0752728 0.869332
0.113096 -0.0738472 0.869334
0.112526 -0.0724174 0.86927
0.111986 -0.0710161 0.869558
0.11146 -0.0696286 0.870026
0.11095 -0.0682557 0.870698
0.110444 -0.0668853 0.871421
0.109972 -0.0655442 0.872575
0.109506 -0.0642074 0.873826
0.109054 -0.0628811 0.875274
0.108624 -0.0615715 0.877025
0.108208 -0.0602707 0.878991
0.107779 -0.0589557 0.8808
0.107344 -0.0576325 0.882561
0.106898 -0.0562976 0.884196
0.106423 -0.0549364 0.885467
0.105963 -0.0535848 0.886948
0.105495 -0.0522243 0.888347
0.10504 -0.0508714 0.889943
0.104603 -0.0495295 0.891812
0.104187 -0.0481984 0.894003
0.103752 -0.046851 0.895963
0.10332 -0.0455005 0.897989
0.149528 -0.17145 0.858304
0.148982 -0.170033 0.858601
0.148466 -0.168662 0.859142
0.148004 -0.167371 0.860124
0.147566 -0.166118 0.861318
0.147161 -0.164913 0.862795
0.146721 -0.163653 0.863989
0.146203 -0.162275 0.864538
0.145523 -0.160656 0.863735
0.144754 -0.158906 0.862164
0.143966 -0.15713 0.860413
0.143183 -0.155365 0.858683
0.14247 -0.153705 0.857527
0.141784 -0.152086 0.856593
0.141162 -0.150563 0.856199
0.140518 -0.149009 0.855606
0.13988 -0.147464 0.855058
0.139278 -0.145973 0.854817
0.138756 -0.144596 0.855276
0.138219 -0.143198 0.855605
0.137671 -0.141785 0.855838
0.13713 -0.140381 0.856128
0.136568 -0.138948 0.856229
0.135998 -0.137505 0.856261
0.135429 -0.136062 0.856293
0.13484 -0.134592 0.856132
0.134254 -0.133128 0.856006
0.133642 -0.131628 0.85562
0.133041 -0.130144 0.855338
0.132426 -0.128642 0.854908
0.13182 -0.127153 0.854556
0.131203 -0.125651 0.854102
0.130588 -0.124152 0.853647
0.129949 -0.122623 0.852951
0.129309 -0.121093 0.852234
0.128704 -0.119612 0.851852
0.128076 -0.118102 0.851235
0.127435 -0.116575 0.850467
0.126822 -0.115087 0.84997
0.126201 -0.11359 0.849391
0.125543 -0.112047 0.848418
0.124928 -0.11056 0.847869
0.124316 -0.109079 0.847338
0.123682 -0.107571 0.84657
0.123104 -0.106134 0.846365
0.122578 -0.104763 0.846702
0.122094 -0.103443 0.84749
0.121677 -0.102205 0.848994
0.121275 -0.100981 0.850672
0.120859 -0.0997389 0.852214
0.120412 -0.0984579 0.853442
0.119962 -0.097172 0.854652
0.119615 -0.0960047 0.857003
0.11931 -0.094882 0.859839
0.118992 -0.0937416 0.862582
0.118663 -0.0925831 0.865223
0.118278 -0.0913579 0.867273
0.117793 -0.0900166 0.868204
0.117254 -0.0886147 0.868531
0.116708 -0.0872044 0.868771
0.116157 -0.0857891 0.868956
0.115606 -0.0843732 0.869131
0.115034 -0.0829359 0.869064
0.114486 -0.0815247 0.869279
0.113945 -0.0801214 0.86958
0.113376 -0.0786877 0.869527
0.112803 -0.0772522 0.86944
0.112229 -0.0758152 0.86932
0.111657 -0.0743813 0.869222
0.111067 -0.0729304 0.868897
0.110511 -0.0715144 0.86899
0.109963 -0.0701057 0.869172
0.109431 -0.0687128 0.86956
0.108916 -0.0673358 0.870167
0.108435 -0.0659907 0.871231
0.107969 -0.0646574 0.872495
0.107516 -0.0633334 0.87394
0.107084 -0.0620259 0.875681
0.106666 -0.0607278 0.877631
0.106248 -0.0594269 0.879618
0.10582 -0.0581136 0.881494
0.105388 -0.056793 0.883343
0.104933 -0.0554511 0.884904
0.104485 -0.0541124 0.886574
0.104023 -0.0527588 0.888077
0.103572 -0.0514125 0.889764
0.103145 -0.0500802 0.891812
0.102733 -0.0487556 0.894103
0.102303 -0.0474142 0.896176
0.101876 -0.0460702 0.898318
0.148838 -0.173746 0.859672
0.148274 -0.172299 0.85983
0.147739 -0.170899 0.860232
0.147271 -0.169601 0.861179
0.146866 -0.168401 0.862659
0.146465 -0.167205 0.864184
0.146096 -0.166056 0.86599
0.145685 -0.164842 0.867462
0.145152 -0.16344 0.867906
0.144447 -0.161776 0.86689
0.143634 -0.159952 0.864937
0.142799 -0.158099 0.862774
0.141959 -0.15624 0.860537
0.1412 -0.154505 0.85897
0.140462 -0.152805 0.857574
0.139817 -0.151245 0.856973
0.139151 -0.149655 0.856176
0.138503 -0.148093 0.855529
0.137883 -0.146572 0.855115
0.137351 -0.145181 0.85549
0.136792 -0.143751 0.855625
0.136223 -0.142307 0.855661
0.13565 -0.140857 0.855661
0.135066 -0.139393 0.855557
0.134476 -0.13792 0.855393
0.133898 -0.136464 0.855329
0.133292 -0.134971 0.855006
0.132701 -0.133498 0.85481
0.132081 -0.131986 0.854335
0.131472 -0.130491 0.853961
0.130858 -0.128988 0.853521
0.130253 -0.127501 0.853168
0.12963 -0.125989 0.852632
0.129006 -0.124477 0.852067
0.128358 -0.122933 0.851258
0.127702 -0.121381 0.850356
0.127091 -0.119891 0.84989
0.126466 -0.118383 0.849272
0.125829 -0.116861 0.84852
0.125221 -0.115379 0.848055
0.124614 -0.113899 0.847588
0.124019 -0.112436 0.847229
0.123462 -0.111022 0.847256
0.122923 -0.109634 0.847476
0.122385 -0.108246 0.847703
0.121896 -0.10692 0.848446
0.12142 -0.105611 0.849335
0.12099 -0.104357 0.850716
0.120598 -0.103149 0.852529
0.120196 -0.101927 0.854259
0.119787 -0.100694 0.855933
0.119352 -0.0994257 0.857325
0.118922 -0.0981626 0.858798
0.118508 -0.0969168 0.860467
0.118127 -0.0957082 0.86253
0.117716 -0.0944608 0.864273
0.117293 -0.0931971 0.865902
0.116816 -0.0918687 0.86693
0.116322 -0.0905184 0.867763
0.115776 -0.0891084 0.867999
0.115237 -0.0877067 0.868322
0.114694 -0.0863008 0.8686
0.114158 -0.084902 0.868956
0.113602 -0.0834819 0.869078
0.11307 -0.0820868 0.869472
0.112529 -0.0806835 0.869779
0.111966 -0.0792553 0.869798
0.111386 -0.0778108 0.869614
0.110798 -0.0763581 0.869314
0.110212 -0.0749092 0.869038
0.109615 -0.07345 0.868611
0.109033 -0.0720067 0.868356
0.108462 -0.0705763 0.868247
0.107914 -0.0691689 0.868425
0.107385 -0.0677792 0.868836
0.106898 -0.0664308 0.86982
0.106431 -0.0650999 0.871083
0.105978 -0.0637793 0.872535
0.105542 -0.0624733 0.874256
0.105127 -0.0611826 0.876277
0.104713 -0.0598894 0.878338
0.104305 -0.0585974 0.880512
0.103886 -0.0572932 0.882564
0.10345 -0.0559705 0.884422
0.103013 -0.0546431 0.886276
0.102557 -0.0532976 0.88789
0.102105 -0.0519529 0.889587
0.101688 -0.0506319 0.891824
0.101286 -0.0493186 0.894302
0.100868 -0.0479881 0.896595
0.100458 -0.0466597 0.89904
0.14809 -0.175964 0.860602
0.147562 -0.174573 0.861064
0.147005 -0.173136 0.861283
0.1465 -0.171782 0.86194
0.146079 -0.170561 0.863304
0.145727 -0.169445 0.865251
0.14534 -0.168274 0.86693
0.144989 -0.167156 0.868926
0.144584 -0.165951 0.870473
0.144014 -0.164491 0.870626
0.143298 -0.162805 0.869513
0.142474 -0.160955 0.867445
0.141602 -0.159035 0.864936
0.140719 -0.157101 0.862293
0.139925 -0.155307 0.860407
0.139132 -0.153518 0.85851
0.138438 -0.151879 0.857458
0.137751 -0.150254 0.856466
0.137094 -0.148675 0.855721
0.136465 -0.147139 0.85522
0.135915 -0.145722 0.855434
0.135345 -0.144276 0.855467
0.134764 -0.142813 0.855388
0.13416 -0.141318 0.855097
0.133557 -0.139824 0.854806
0.132956 -0.138334 0.854524
0.13237 -0.136866 0.854373
0.131756 -0.135361 0.853963
0.131177 -0.133904 0.853865
0.130561 -0.132397 0.853418
0.129956 -0.130905 0.853059
0.129353 -0.129416 0.852709
0.12875 -0.12793 0.85236
0.12812 -0.126408 0.851739
0.127489 -0.124883 0.851082
0.126831 -0.123324 0.850158
0.12616 -0.121748 0.849077
0.12554 -0.120245 0.8485
0.124902 -0.118718 0.847727
0.12429 -0.117228 0.847206
0.123712 -0.115784 0.847023
0.123184 -0.114408 0.847356
0.122671 -0.113053 0.847852
0.122192 -0.111742 0.848704
0.121722 -0.110442 0.84966
0.12125 -0.109139 0.85061
0.12079 -0.10785 0.851693
0.120339 -0.10657 0.852876
0.11992 -0.105332 0.854435
0.119506 -0.104096 0.856053
0.119078 -0.102843 0.85755
0.118639 -0.101572 0.858932
0.118184 -0.10028 0.860145
0.117723 -0.0989793 0.861309
0.117268 -0.0976844 0.862553
0.116835 -0.0964154 0.864069
0.11637 -0.0951053 0.865229
0.115888 -0.0937729 0.866198
0.115386 -0.0924154 0.866944
0.114882 -0.0910553 0.867675
0.114342 -0.089653 0.867991
0.11381 -0.0882589 0.868394
0.113276 -0.0868627 0.868777
0.112748 -0.0854734 0.869237
0.112201 -0.084062 0.869462
0.111669 -0.0826675 0.86987
0.111129 -0.0812639 0.87018
0.110559 -0.0798277 0.870118
0.109972 -0.0783735 0.869832
0.109376 -0.0769116 0.869433
0.108784 -0.0754538 0.869057
0.108174 -0.0739794 0.86845
0.107577 -0.0725203 0.867998
0.106986 -0.0710675 0.867599
0.106422 -0.0696451 0.867568
0.105878 -0.0682422 0.867787
0.105391 -0.0668951 0.868763
0.104924 -0.0655676 0.870042
0.104475 -0.0642548 0.871576
0.104032 -0.062945 0.873209
0.103607 -0.06165 0.875124
0.103185 -0.0603534 0.877097
0.102781 -0.0590706 0.879363
0.102368 -0.0577762 0.881532
0.101951 -0.0564735 0.883681
0.10153 -0.0551646 0.885816
0.101086 -0.0538319 0.887622
0.100645 -0.0524982 0.889506
0.100238 -0.0511901 0.891945
0.099846 -0.0498881 0.894637
0.0994392 -0.0485701 0.897147
0.0990448 -0.0472568 0.899889
0.147499 -0.178446 0.862839
0.146868 -0.176888 0.862468
0.146304 -0.175439 0.86264
0.145752 -0.174008 0.862909
0.145262 -0.172678 0.863704
0.144882 -0.171525 0.865442
0.144548 -0.170442 0.867581
0.144159 -0.16927 0.869267
0.14378 -0.168112 0.871058
0.143348 -0.166868 0.87241
0.142742 -0.165349 0.872256
0.142026 -0.163658 0.871134
0.141186 -0.161775 0.868904
0.140309 -0.159837 0.86632
0.139417 -0.15788 0.863567
0.138603 -0.156045 0.861468
0.13777 -0.154187 0.859184
0.137045 -0.152496 0.85784
0.13633 -0.150824 0.856571
0.135662 -0.149226 0.855721
0.135017 -0.147663 0.855057
0.134457 -0.146231 0.855181
0.133869 -0.144756 0.855033
0.133277 -0.143276 0.854848
0.132647 -0.141739 0.854292
0.132035 -0.140232 0.853906
0.131426 -0.138729 0.853535
0.13084 -0.137261 0.853373
0.130246 -0.135781 0.853128
0.129686 -0.134353 0.853213
0.129091 -0.132873 0.852951
0.128498 -0.131398 0.852701
0.127913 -0.129935 0.852529
0.127313 -0.12845 0.85219
0.126677 -0.126916 0.851491
0.126039 -0.12538 0.850753
0.125382 -0.123819 0.849814
0.124704 -0.12223 0.848641
0.124069 -0.120702 0.847886
0.123439 -0.119183 0.847171
0.122876 -0.11776 0.847151
0.122352 -0.116389 0.847527
0.121888 -0.1151 0.848544
0.121446 -0.113841 0.849804
0.121019 -0.112601 0.851247
0.120569 -0.111328 0.85245
0.12012 -0.110054 0.853672
0.119676 -0.108786 0.854967
0.11922 -0.107501 0.856141
0.118786 -0.106242 0.857568
0.118349 -0.104979 0.858982
0.117892 -0.103688 0.860189
0.117411 -0.102365 0.861138
0.11693 -0.10104 0.862086
0.11645 -0.0997161 0.863065
0.11597 -0.0983912 0.864054
0.115497 -0.0970731 0.865127
0.114999 -0.095723 0.865919
0.114489 -0.0943579 0.866583
0.113962 -0.0929712 0.867045
0.113442 -0.0915925 0.867591
0.112911 -0.0901998 0.868005
0.112386 -0.0888155 0.868508
0.111861 -0.0874293 0.868998
0.111341 -0.0860494 0.869562
0.110802 -0.0846464 0.869884
0.11027 -0.0832522 0.870305
0.10973 -0.0818481 0.870619
0.10916 -0.0804108 0.870556
0.108572 -0.0789545 0.870259
0.107971 -0.0774839 0.869772
0.107364 -0.0760086 0.869198
0.106741 -0.0745173 0.868393
0.106124 -0.0730344 0.867652
0.105512 -0.0715592 0.866967
0.104941 -0.0701285 0.866819
0.104397 -0.0687257 0.867025
0.103915 -0.0673876 0.868102
0.103455 -0.0660683 0.869474
0.103011 -0.0647638 0.871104
0.102553 -0.0634426 0.872553
0.102118 -0.0621423 0.874362
0.10168 -0.0608357 0.876142
0.101273 -0.059555 0.878403
0.100859 -0.0582632 0.880592
0.100459 -0.0569811 0.88302
0.10005 -0.0556864 0.885359
0.0996156 -0.0543655 0.887357
0.0991851 -0.0530447 0.889443
0.0987944 -0.0517536 0.892168
0.0984125 -0.0504649 0.895079
0.0980209 -0.0491626 0.897888
0.0976414 -0.0478646 0.900939
0.146344 -0.179497 0.865312
0.145665 -0.177855 0.864535
0.145084 -0.176377 0.864581
0.144537 -0.174954 0.864905
0.144052 -0.173633 0.865763
0.143669 -0.172478 0.867504
0.14331 -0.171359 0.869462
0.142882 -0.170127 0.870843
0.142454 -0.168893 0.872236
0.141984 -0.167592 0.873277
0.141346 -0.166019 0.872837
0.14065 -0.164355 0.871876
0.139835 -0.162502 0.869835
0.138986 -0.160599 0.867468
0.138102 -0.158644 0.864746
0.137276 -0.156783 0.862519
0.136415 -0.154872 0.859944
0.13565 -0.153114 0.858218
0.134898 -0.151379 0.85659
0.134222 -0.149763 0.855635
0.133567 -0.148182 0.85487
0.13298 -0.146707 0.854732
0.132364 -0.145189 0.854315
0.131761 -0.143692 0.854014
0.131116 -0.142129 0.853294
0.130507 -0.140624 0.852916
0.12991 -0.139139 0.852653
0.129335 -0.137686 0.852583
0.128759 -0.136233 0.852508
0.128226 -0.134844 0.852848
0.12766 -0.133407 0.85287
0.127097 -0.131974 0.852911
0.126548 -0.130562 0.853086
0.125973 -0.129112 0.853001
0.125356 -0.127601 0.85248
0.124736 -0.126087 0.851917
0.124099 -0.12455 0.85117
0.123446 -0.122992 0.850242
0.12282 -0.121473 0.849579
0.122214 -0.119985 0.849119
0.121671 -0.118586 0.849312
0.121165 -0.11724 0.849904
0.120715 -0.115972 0.851104
0.120292 -0.114739 0.852599
0.119862 -0.113496 0.854046
0.119413 -0.112225 0.855297
0.118958 -0.110944 0.856495
0.118492 -0.109647 0.857583
0.118014 -0.108331 0.858536
0.117565 -0.107054 0.859836
0.1171 -0.105755 0.860974
0.116626 -0.104443 0.862018
0.116136 -0.103107 0.862878
0.115643 -0.101768 0.863724
0.115143 -0.100418 0.864484
0.114644 -0.0990696 0.865277
0.114131 -0.0977007 0.865892
0.113608 -0.09632 0.866405
0.113073 -0.0949237 0.866775
0.112531 -0.0935178 0.867054
0.111997 -0.0921228 0.867439
0.11148 -0.0907487 0.868037
0.110965 -0.0893759 0.868658
0.110448 -0.0879998 0.869257
0.109935 -0.0866287 0.869917
0.109401 -0.0852324 0.870319
0.108868 -0.0838364 0.870727
0.108327 -0.0824312 0.871038
0.107758 -0.0809929 0.870975
0.107172 -0.0795364 0.870689
0.10657 -0.0780635 0.870189
0.105951 -0.076572 0.869437
0.10532 -0.0750691 0.868507
0.10469 -0.073569 0.867564
0.104065 -0.072078 0.866685
0.103483 -0.0706339 0.866363
0.102945 -0.069238 0.866653
0.102458 -0.067896 0.867667
0.101997 -0.0665792 0.869056
0.101552 -0.0652772 0.870701
0.101091 -0.0639551 0.87212
0.100641 -0.062643 0.873736
0.100192 -0.0613293 0.875387
0.0997805 -0.0600489 0.87762
0.0993694 -0.0587651 0.879893
0.0989737 -0.057492 0.882439
0.0985759 -0.0562125 0.884991
0.0981575 -0.0549098 0.887271
0.0977485 -0.0536114 0.889735
0.0973672 -0.0523328 0.892674
0.0969953 -0.0510575 0.895808
0.0966116 -0.0497659 0.898814
0.0962401 -0.0484786 0.902071
0.0977765 -0.0469619 0.912235
0.0958274 -0.0471515 0.904717
0.145809 -0.182113 0.868123
0.145154 -0.180506 0.867557
0.144471 -0.178854 0.86675
0.143886 -0.177366 0.866765
0.143347 -0.175956 0.867178
0.142849 -0.174614 0.867942
0.142431 -0.173403 0.869408
0.142013 -0.172191 0.870886
0.141533 -0.170877 0.871839
0.141046 -0.16955 0.872731
0.140522 -0.168161 0.873297
0.139863 -0.166551 0.872661
0.139168 -0.164885 0.871694
0.13837 -0.163053 0.869771
0.137557 -0.161199 0.867691
0.13671 -0.159294 0.865269
0.1359 -0.15745 0.863154
0.13505 -0.155546 0.86064
0.134266 -0.153751 0.85871
0.133486 -0.151965 0.856792
0.13279 -0.150314 0.855638
0.132107 -0.148686 0.85459
0.131493 -0.147166 0.85418
0.130857 -0.145615 0.853559
0.130245 -0.144102 0.853155
0.129591 -0.142524 0.852333
0.128994 -0.141036 0.852057
0.128421 -0.139585 0.852002
0.127865 -0.138162 0.852127
0.12731 -0.13674 0.852249
0.126804 -0.135391 0.852856
0.126277 -0.134012 0.853266
0.125743 -0.132622 0.853602
0.125222 -0.131252 0.854078
0.124673 -0.129838 0.854252
0.124081 -0.128362 0.853993
0.123481 -0.126874 0.853634
0.122872 -0.125374 0.853172
0.122247 -0.123852 0.852541
0.121648 -0.122369 0.852167
0.12106 -0.120902 0.851898
0.12055 -0.119548 0.852462
0.120047 -0.118205 0.853118
0.119606 -0.11695 0.854449
0.119175 -0.115707 0.85591
0.118716 -0.114424 0.857078
0.118214 -0.113078 0.857769
0.117744 -0.111777 0.858831
0.117245 -0.110434 0.859571
0.116741 -0.109084 0.860265
0.116281 -0.107794 0.861475
0.115821 -0.106502 0.862689
0.115341 -0.105181 0.863683
0.114843 -0.103836 0.864482
0.11434 -0.102484 0.865231
0.113812 -0.101097 0.865681
0.113286 -0.0997116 0.866154
0.112739 -0.0982999 0.866384
0.112199 -0.0968966 0.866693
0.111648 -0.0954799 0.866874
0.111105 -0.094073 0.867145
0.110572 -0.0926791 0.867544
0.110063 -0.0913153 0.868246
0.109556 -0.0899523 0.86897
0.109045 -0.0885851 0.869663
0.108531 -0.0872134 0.870324
0.107997 -0.0858155 0.870716
0.107462 -0.0844176 0.871111
0.106921 -0.0830115 0.871419
0.106357 -0.0815794 0.871437
0.10578 -0.0801305 0.871252
0.105186 -0.0786647 0.870852
0.104575 -0.0771786 0.870185
0.103956 -0.0756867 0.869412
0.103326 -0.0741837 0.868458
0.102698 -0.0726838 0.867498
0.102109 -0.0712303 0.867081
0.101558 -0.0698205 0.867204
0.101052 -0.0684585 0.867958
0.100578 -0.0671297 0.869183
0.100124 -0.065821 0.870729
0.0996491 -0.0644875 0.871976
0.0991894 -0.063168 0.873471
0.0987307 -0.0618475 0.875005
0.0983092 -0.0605618 0.877128
0.0978949 -0.0592795 0.879398
0.0975028 -0.0580151 0.882047
0.0971087 -0.056744 0.884711
0.0967057 -0.0554598 0.887283
0.0963122 -0.0541802 0.890047
0.0959347 -0.0529103 0.893115
0.0955646 -0.0516411 0.896363
0.0951879 -0.0503604 0.899555
0.094811 -0.0490734 0.90281
0.094401 -0.0477525 0.905565
0.145224 -0.184669 0.870563
0.14457 -0.183058 0.870014
0.143915 -0.181448 0.869455
0.143253 -0.179826 0.868819
0.142671 -0.178343 0.868874
0.142123 -0.176915 0.869212
0.141619 -0.175564 0.869949
0.141163 -0.174292 0.871109
0.140695 -0.172998 0.872165
0.140166 -0.171602 0.872693
0.139623 -0.170183 0.873096
0.139035 -0.168689 0.873097
0.138356 -0.167043 0.872265
0.137652 -0.165357 0.871189
0.136878 -0.163559 0.869459
0.136097 -0.161748 0.867628
0.135288 -0.159897 0.865522
0.134501 -0.158083 0.86359
0.133663 -0.15619 0.861152
0.132864 -0.154362 0.859044
0.132067 -0.152541 0.856935
0.13136 -0.150869 0.855658
0.13065 -0.149191 0.854323
0.129999 -0.147612 0.85355
0.129344 -0.146028 0.852724
0.128721 -0.144496 0.852197
0.12806 -0.142904 0.851283
0.127476 -0.141434 0.851116
0.126931 -0.140027 0.851338
0.126398 -0.138639 0.851677
0.125879 -0.137273 0.852164
0.125401 -0.13597 0.853065
0.124911 -0.134648 0.853857
0.124407 -0.133303 0.854508
0.123914 -0.131975 0.855281
0.123383 -0.130589 0.855659
0.122818 -0.12915 0.855675
0.122245 -0.127699 0.855606
0.121672 -0.126251 0.855542
0.121093 -0.124793 0.855395
0.120529 -0.123358 0.855413
0.11996 -0.121915 0.855363
0.119455 -0.120568 0.856023
0.118949 -0.119218 0.856663
0.118486 -0.117932 0.857798
0.118014 -0.116631 0.858841
0.117512 -0.115286 0.85956
0.116977 -0.113892 0.859901
0.116471 -0.11254 0.860584
0.115944 -0.111157 0.861022
0.115426 -0.109788 0.861573
0.114965 -0.108497 0.862791
0.114504 -0.107206 0.864024
0.114031 -0.105896 0.865124
0.113526 -0.104541 0.865862
0.113022 -0.103186 0.866605
0.112477 -0.101775 0.866863
0.111924 -0.100355 0.867033
0.111353 -0.0989091 0.866963
0.110796 -0.0974826 0.867065
0.110237 -0.0960552 0.867151
0.109694 -0.0946477 0.867423
0.109162 -0.0932542 0.86783
0.108652 -0.091891 0.868541
0.10815 -0.0905358 0.869347
0.107645 -0.089176 0.870122
0.107124 -0.0877959 0.8707
0.106582 -0.0863888 0.871003
0.10604 -0.0849815 0.871302
0.105497 -0.0835737 0.871597
0.104935 -0.0821422 0.871627
0.104379 -0.0807174 0.871722
0.103808 -0.0792761 0.871622
0.103218 -0.077813 0.871247
0.102621 -0.0763431 0.870767
0.102006 -0.0748521 0.869999
0.101379 -0.0733504 0.869055
0.100778 -0.0718798 0.868458
0.100218 -0.070458 0.868457
0.0996896 -0.0690708 0.868901
0.0991937 -0.0677193 0.869836
0.0987187 -0.0663895 0.871096
0.0982294 -0.0650427 0.872156
0.0977502 -0.0637053 0.873388
0.097278 -0.0623736 0.874741
0.0968419 -0.0610769 0.87668
0.096424 -0.0597952 0.878941
0.0960347 -0.0585391 0.881689
0.0956431 -0.057276 0.884452
0.0952548 -0.0560114 0.887311
0.0948753 -0.0547497 0.890372
0.0945016 -0.0534889 0.893576
0.0941323 -0.052226 0.896921
0.0937547 -0.0509495 0.900183
0.0933608 -0.0496527 0.903233
0.0929404 -0.0483268 0.90588
0.143856 -0.185406 0.871399
0.143245 -0.183867 0.871219
0.142615 -0.182296 0.870867
0.14199 -0.180736 0.870558
0.141433 -0.179293 0.870836
0.140885 -0.177864 0.871184
0.140368 -0.17649 0.87182
0.139875 -0.175157 0.872673
0.13935 -0.173768 0.873241
0.138765 -0.172278 0.873275
0.138159 -0.17075 0.873105
0.137518 -0.169165 0.872619
0.136817 -0.167479 0.871566
0.136106 -0.165777 0.870398
0.135348 -0.163998 0.868778
0.1346 -0.162238 0.86723
0.133818 -0.160423 0.865338
0.133057 -0.158646 0.86362
0.132244 -0.156785 0.861378
0.131449 -0.154956 0.859275
0.130638 -0.153103 0.856988
0.129931 -0.151424 0.855684
0.129194 -0.149699 0.85407
0.128517 -0.148073 0.853014
0.127844 -0.146456 0.851987
0.127213 -0.144908 0.851363
0.126546 -0.143303 0.850365
0.125972 -0.14185 0.850294
0.125446 -0.140474 0.850702
0.124932 -0.139117 0.851236
0.124449 -0.137807 0.852086
0.123998 -0.13655 0.853288
0.123543 -0.135283 0.854448
0.123066 -0.133983 0.8554
0.122607 -0.132708 0.856539
0.122102 -0.131361 0.857201
0.121562 -0.12996 0.857501
0.121014 -0.128547 0.857715
0.120477 -0.127149 0.858033
0.119924 -0.125728 0.85819
0.119379 -0.124319 0.858425
0.118832 -0.122907 0.858642
0.11833 -0.121564 0.859361
0.117816 -0.120201 0.859947
0.117302 -0.118838 0.860543
0.116773 -0.117454 0.860974
0.116211 -0.116019 0.861017
0.115634 -0.114562 0.86088
0.115091 -0.113156 0.861144
0.114562 -0.111772 0.861575
0.114046 -0.110404 0.862146
0.11359 -0.109123 0.863451
0.113128 -0.107832 0.864693
0.112654 -0.106523 0.86581
0.112156 -0.10518 0.866649
0.111657 -0.103833 0.867478
0.111111 -0.10242 0.867728
0.110551 -0.100988 0.867809
0.109973 -0.0995313 0.867654
0.109408 -0.0980926 0.867654
0.108842 -0.0966531 0.867638
0.108291 -0.0952356 0.867823
0.107752 -0.093833 0.868147
0.107235 -0.0924603 0.86877
0.106724 -0.0910942 0.869467
0.106217 -0.0897333 0.870231
0.105689 -0.0883448 0.870724
0.105147 -0.0869382 0.871033
0.104605 -0.08553 0.871326
0.104061 -0.0841213 0.871611
0.103501 -0.0826904 0.871651
0.102958 -0.0812829 0.871947
0.10241 -0.0798686 0.872163
0.101838 -0.0784244 0.872026
0.101264 -0.0769789 0.871858
0.10067 -0.0755105 0.871395
0.100051 -0.0740146 0.87056
0.0994443 -0.0725335 0.869868
0.0988802 -0.0711042 0.869802
0.0983282 -0.0696894 0.869911
0.0978091 -0.0683122 0.870519
0.0973185 -0.0669665 0.87157
0.0968217 -0.0656128 0.87254
0.0963296 -0.0642628 0.873594
0.095855 -0.0629304 0.87494
0.0954102 -0.0616279 0.876785
0.0949842 -0.0603425 0.878963
0.0945851 -0.0590811 0.881618
0.0941897 -0.0578196 0.884376
0.0938086 -0.0565679 0.887425
0.093432 -0.0553151 0.890605
0.0930603 -0.0540619 0.89393
0.0926854 -0.0527994 0.897267
0.0923016 -0.0515229 0.900502
0.0918909 -0.0502156 0.903335
0.0914548 -0.0488802 0.905777
0.143013 -0.187537 0.871694
0.142434 -0.186053 0.871788
0.141851 -0.184562 0.871851
0.141248 -0.183038 0.871737
0.140667 -0.181552 0.871812
0.140132 -0.180147 0.872293
0.139585 -0.178719 0.872664
0.139046 -0.177307 0.873111
0.138511 -0.175901 0.873595
0.137923 -0.174403 0.873602
0.137286 -0.17282 0.873152
0.136637 -0.171217 0.87258
0.135964 -0.169575 0.871781
0.135253 -0.167867 0.870606
0.134552 -0.166177 0.869506
0.133826 -0.164448 0.868162
0.133113 -0.162742 0.866914
0.132356 -0.160962 0.865224
0.131626 -0.15923 0.863771
0.130827 -0.157384 0.861625
0.130029 -0.155542 0.859464
0.129214 -0.153674 0.857101
0.128509 -0.151993 0.855787
0.127756 -0.150236 0.853988
0.127054 -0.148564 0.852666
0.126373 -0.146929 0.851533
0.125734 -0.145365 0.850809
0.125063 -0.14375 0.849746
0.124492 -0.142299 0.849684
0.123982 -0.14095 0.85026
0.123484 -0.13962 0.85096
0.123019 -0.138343 0.852014
0.122594 -0.137129 0.853497
0.122171 -0.135918 0.855026
0.121717 -0.134655 0.856232
0.121282 -0.133421 0.857648
0.1208 -0.132112 0.858586
0.120285 -0.130749 0.85916
0.119762 -0.129373 0.859654
0.119247 -0.12801 0.86024
0.118717 -0.126623 0.860669
0.118194 -0.125246 0.861165
0.11766 -0.123853 0.861549
0.117126 -0.122459 0.861932
0.116576 -0.121041 0.862136
0.116019 -0.119611 0.862248
0.115445 -0.118156 0.862164
0.11484 -0.116655 0.861711
0.114255 -0.115186 0.861487
0.113704 -0.113766 0.861649
0.113174 -0.11238 0.862074
0.112661 -0.111018 0.862703
0.112203 -0.109737 0.864004
0.111732 -0.108435 0.865158
0.111248 -0.107114 0.866174
0.110749 -0.105768 0.867
0.110243 -0.104413 0.867757
0.109706 -0.103012 0.868122
0.109155 -0.101593 0.868319
0.108592 -0.100155 0.868348
0.108021 -0.098707 0.868277
0.107455 -0.0972663 0.868262
0.106896 -0.0958368 0.868343
0.106349 -0.0944231 0.86857
0.105817 -0.0930298 0.868996
0.105303 -0.091661 0.86967
0.104794 -0.0902997 0.87043
0.104261 -0.0889034 0.870848
0.10372 -0.0874978 0.871169
0.103182 -0.0860953 0.871526
0.102638 -0.0846856 0.871805
0.102084 -0.0832627 0.87194
0.101556 -0.081873 0.87244
0.101028 -0.080484 0.872956
0.100476 -0.0790641 0.87312
0.0999167 -0.0776345 0.873165
0.0993367 -0.0761802 0.872902
0.0987259 -0.0746891 0.872167
0.0981132 -0.0731975 0.871384
0.0975301 -0.0717432 0.871034
0.0969576 -0.0703024 0.870833
0.096413 -0.0688952 0.87106
0.095908 -0.0675341 0.871908
0.0954035 -0.0661729 0.872777
0.0949046 -0.0648166 0.873744
0.0944276 -0.0634838 0.875084
0.0939793 -0.0621809 0.876911
0.0935392 -0.0608842 0.878903
0.0931303 -0.0596179 0.881457
0.0927305 -0.0583571 0.88421
0.0923556 -0.057118 0.887437
0.0919809 -0.0558733 0.89073
0.0916051 -0.0546221 0.894066
0.0912198 -0.053356 0.897301
0.090819 -0.0520691 0.900319
0.0903822 -0.0507418 0.902757
0.0899272 -0.0493939 0.904902
0.141556 -0.188126 0.871793
0.140986 -0.186658 0.87197
0.14041 -0.185179 0.87209
0.139825 -0.183684 0.872128
0.139269 -0.182242 0.872429
0.138745 -0.180856 0.873012
0.138207 -0.179447 0.87348
0.137668 -0.178033 0.873931
0.13711 -0.176588 0.874216
0.13649 -0.17503 0.873918
0.135811 -0.173371 0.873067
0.13512 -0.17169 0.872088
0.134418 -0.169993 0.870995
0.1337 -0.168267 0.869724
0.133004 -0.166584 0.868653
0.132293 -0.164875 0.867421
0.131603 -0.163204 0.866367
0.130868 -0.161456 0.86486
0.13016 -0.159756 0.863588
0.129375 -0.157925 0.86154
0.128598 -0.156112 0.859553
0.127797 -0.154258 0.85728
0.127086 -0.152563 0.855893
0.126312 -0.15076 0.853838
0.125602 -0.149069 0.852404
0.124913 -0.147417 0.85117
0.124269 -0.145841 0.850369
0.12361 -0.144241 0.849407
0.123047 -0.142804 0.849431
0.122544 -0.141468 0.850086
0.122053 -0.14015 0.850863
0.121604 -0.138902 0.8521
0.121187 -0.137707 0.853697
0.120781 -0.136526 0.855419
0.120333 -0.135276 0.856715
0.119895 -0.13404 0.858126
0.119405 -0.13272 0.858989
0.118899 -0.131372 0.859672
0.118384 -0.13001 0.860265
0.117877 -0.128659 0.860944
0.117353 -0.127282 0.861447
0.116835 -0.125913 0.862015
0.116293 -0.124507 0.862316
0.115757 -0.12311 0.862685
0.115208 -0.121691 0.862894
0.11465 -0.12026 0.863007
0.11407 -0.118794 0.862849
0.113472 -0.117301 0.86247
0.112875 -0.11581 0.862094
0.112308 -0.114367 0.862076
0.11177 -0.112968 0.862402
0.111255 -0.111604 0.863016
0.110782 -0.110302 0.864147
0.110307 -0.108997 0.865277
0.10982 -0.107672 0.866265
0.10931 -0.106314 0.866978
0.108797 -0.104949 0.867651
0.108269 -0.103562 0.868131
0.107735 -0.102166 0.868542
0.107181 -0.100741 0.868698
0.106618 -0.0993035 0.868727
0.106058 -0.0978702 0.868791
0.105499 -0.0964384 0.868861
0.104937 -0.0950035 0.868894
0.104396 -0.093598 0.869207
0.10388 -0.0922277 0.869866
0.103372 -0.0908666 0.870631
0.102833 -0.0894633 0.870979
0.102292 -0.0880571 0.8713
0.101753 -0.0866537 0.871649
0.101202 -0.085235 0.871836
0.100649 -0.0838119 0.871973
0.100133 -0.0824388 0.872657
0.0996112 -0.0810582 0.873271
0.0990773 -0.0796608 0.873704
0.0985345 -0.0782516 0.874002
0.0979713 -0.0768166 0.873992
0.0973677 -0.0753313 0.873355
0.0967627 -0.0738453 0.872676
0.0961692 -0.0723754 0.87216
0.0955858 -0.070919 0.871786
0.0950231 -0.0694888 0.87173
0.0945057 -0.0681138 0.872402
0.0939949 -0.0667458 0.873187
0.0934899 -0.0653837 0.874077
0.0930105 -0.0640502 0.875405
0.0925532 -0.0627405 0.877127
0.0920986 -0.0614312 0.878923
0.0916748 -0.0601532 0.881282
0.0912651 -0.0588874 0.883928
0.0908807 -0.057645 0.887066
0.0904969 -0.0563976 0.890279
0.0901166 -0.0551491 0.893615
0.0897262 -0.0538845 0.896832
0.0893193 -0.0525973 0.899818
0.0888687 -0.0512612 0.902057
0.0884045 -0.0499084 0.904081
0.139524 -0.187237 0.872023
0.138955 -0.18577 0.872206
0.138375 -0.184283 0.872287
0.137832 -0.182865 0.872707
0.137349 -0.181556 0.873679
0.136845 -0.180208 0.874466
0.136303 -0.178791 0.874902
0.135729 -0.177314 0.875035
0.135081 -0.175704 0.874475
0.134349 -0.173944 0.873107
0.133609 -0.172172 0.871646
0.132892 -0.170441 0.870376
0.132169 -0.168704 0.86904
0.131479 -0.167026 0.868
0.130791 -0.165352 0.866961
0.130107 -0.163686 0.865935
0.129376 -0.16194 0.864444
0.12868 -0.160256 0.863267
0.127906 -0.158437 0.861292
0.127143 -0.15664 0.859398
0.126363 -0.154815 0.857306
0.125648 -0.153107 0.855848
0.124868 -0.151285 0.85369
0.124149 -0.149574 0.85214
0.123453 -0.147904 0.850803
