ply
format ascii 1.0
element vertex 1724
property float x
property float y
property float z
end_header
-0.231604 -0.143332 0.995812
-0.232952 -0.14306 0.995314
-0.234276 -0.142783 0.994728
-0.235637 -0.142515 0.994285
-0.237019 -0.142253 0.993924
-0.238432 -0.141999 0.993681
-0.239868 -0.14175 0.993524
-0.241366 -0.141516 0.993591
-0.242884 -0.141287 0.993733
-0.244432 -0.141063 0.993974
-0.245965 -0.140836 0.994158
-0.247644 -0.140641 0.994862
-0.249744 -0.14054 0.997059
-0.251956 -0.140462 0.999626
-0.254657 -0.140487 1.00388
-0.257445 -0.140526 1.00839
-0.260107 -0.14053 1.0124
-0.262305 -0.14043 1.01474
-0.264344 -0.140292 1.01651
-0.26592 -0.140055 1.01667
-0.267423 -0.139802 1.01656
-0.268903 -0.139543 1.01639
-0.270386 -0.139286 1.01621
-0.271968 -0.139048 1.01638
-0.273561 -0.138812 1.01657
-0.27516 -0.138576 1.01677
-0.276703 -0.138329 1.01679
-0.278236 -0.13808 1.01677
-0.279667 -0.137811 1.01642
-0.281124 -0.137546 1.01615
-0.282558 -0.137278 1.01581
-0.283962 -0.137004 1.01537
-0.285308 -0.13672 1.01475
-0.286618 -0.136429 1.01402
-0.287773 -0.136112 1.01281
-0.288812 -0.135775 1.01125
-0.2909 -0.135624 1.01296
-0.293497 -0.135558 1.01621
-0.296206 -0.135506 1.01977
-0.299575 -0.135562 1.02531
-0.302735 -0.135576 1.03014
-0.304887 -0.135417 1.03188
-0.309242 -0.135101 1.03544
-0.310983 -0.134869 1.03589
-0.312937 -0.13467 1.03696
-0.314941 -0.134477 1.03817
-0.316554 -0.134222 1.03822
-0.318277 -0.133984 1.03858
-0.320151 -0.133767 1.03938
-0.322077 -0.133558 1.04031
-0.203079 -0.151151 1.01168
-0.204359 -0.150842 1.01075
-0.205703 -0.150556 1.01012
-0.207057 -0.150274 1.00954
-0.208356 -0.149975 1.00872
-0.209726 -0.149699 1.00821
-0.211089 -0.149421 1.00769
-0.21245 -0.149144 1.00716
-0.213795 -0.148861 1.00656
-0.215216 -0.148603 1.00629
-0.21668 -0.148357 1.0062
-0.218209 -0.148131 1.00638
-0.219762 -0.147911 1.00665
-0.221239 -0.147669 1.00661
-0.222608 -0.147394 1.00612
-0.223819 -0.147075 1.00499
-0.224915 -0.146724 1.0034
-0.225929 -0.146353 1.00151
-0.226961 -0.145989 0.99972
-0.228057 -0.145645 0.998195
-0.229251 -0.14533 0.997076
-0.230514 -0.145034 0.996236
-0.231843 -0.144756 0.995657
-0.233235 -0.144496 0.995327
-0.234604 -0.14423 0.99491
-0.23601 -0.143973 0.994634
-0.237416 -0.143716 0.994362
-0.238853 -0.143468 0.994203
-0.240314 -0.143224 0.994129
-0.241856 -0.143001 0.994358
-0.243403 -0.142778 0.994595
-0.244998 -0.142566 0.995002
-0.246684 -0.142375 0.995731
-0.248537 -0.142221 0.997047
-0.250811 -0.142163 0.999846
-0.253268 -0.142143 1.00326
-0.255978 -0.142175 1.00752
-0.258578 -0.142177 1.01134
-0.260973 -0.142127 1.01439
-0.262901 -0.14197 1.01578
-0.264649 -0.141771 1.01653
-0.266152 -0.141519 1.01644
-0.26763 -0.14126 1.01625
-0.269111 -0.141002 1.01607
-0.270595 -0.140745 1.01591
-0.272158 -0.140504 1.016
-0.273725 -0.140263 1.01611
-0.275294 -0.140022 1.01622
-0.276808 -0.13977 1.01614
-0.278313 -0.139516 1.01603
-0.27974 -0.139246 1.01567
-0.281144 -0.138972 1.01523
-0.282522 -0.138693 1.01471
-0.283844 -0.138404 1.01402
-0.285075 -0.138098 1.01304
-0.286272 -0.137787 1.01196
-0.287384 -0.137461 1.01063
-0.288827 -0.137197 1.01034
-0.291455 -0.137146 1.01372
-0.294647 -0.137191 1.0188
-0.29805 -0.137267 1.02447
-0.301904 -0.137414 1.03145
-0.305251 -0.137465 1.03681
-0.30743 -0.137309 1.03859
-0.309266 -0.137094 1.03931
-0.311007 -0.136861 1.03975
-0.312342 -0.136561 1.03897
-0.313851 -0.136289 1.03871
-0.315452 -0.136033 1.03872
-0.317031 -0.135772 1.03866
-0.318627 -0.135514 1.03865
-0.320305 -0.135269 1.03888
-0.321969 -0.13502 1.03906
-0.202028 -0.152903 1.01243
-0.203272 -0.152579 1.01133
-0.20456 -0.152273 1.01043
-0.205897 -0.151984 1.00977
-0.207224 -0.151692 1.00907
-0.208504 -0.151386 1.00817
-0.209868 -0.151108 1.00764
-0.211207 -0.150822 1.00702
-0.212548 -0.150538 1.0064
-0.213893 -0.150255 1.0058
-0.215277 -0.149986 1.00538
-0.216698 -0.149728 1.00512
-0.21816 -0.149483 1.00502
-0.219648 -0.149245 1.00504
-0.221063 -0.148985 1.00474
-0.222408 -0.148704 1.00416
-0.223615 -0.148383 1.00303
-0.224752 -0.148044 1.00163
-0.225828 -0.147689 0.999998
-0.22693 -0.147344 0.998491
-0.228111 -0.147022 0.99731
-0.229369 -0.146723 0.996446
-0.230674 -0.146438 0.995773
-0.232044 -0.146171 0.995354
-0.233497 -0.145927 0.995258
-0.234913 -0.145673 0.99502
-0.236367 -0.145428 0.994922
-0.23786 -0.145194 0.994972
-0.239361 -0.144961 0.995046
-0.24089 -0.144735 0.995219
-0.242486 -0.144525 0.995633
-0.244105 -0.144319 0.996125
-0.245794 -0.14413 0.996862
-0.247608 -0.14397 0.998038
-0.249606 -0.143852 0.999856
-0.252035 -0.143834 1.00319
-0.254648 -0.143854 1.00713
-0.257162 -0.143845 1.01066
-0.259531 -0.143797 1.01365
-0.261642 -0.143686 1.01569
-0.263329 -0.143476 1.01624
-0.264832 -0.143224 1.01614
-0.266312 -0.142967 1.01596
-0.26779 -0.142708 1.01578
-0.269292 -0.142455 1.01567
-0.270775 -0.142198 1.01551
-0.272311 -0.141952 1.01551
-0.273874 -0.141711 1.0156
-0.275392 -0.14146 1.01554
-0.276876 -0.141203 1.01537
-0.278328 -0.140938 1.01509
-0.279725 -0.140662 1.01463
-0.2811 -0.140383 1.01411
-0.282472 -0.140103 1.01357
-0.28374 -0.139803 1.01271
-0.284942 -0.139491 1.01165
-0.286101 -0.139172 1.01046
-0.287591 -0.138916 1.01032
-0.289511 -0.138741 1.01151
-0.292736 -0.138806 1.01673
-0.296514 -0.138965 1.02359
-0.300436 -0.139142 1.03081
-0.303904 -0.139228 1.03657
-0.306886 -0.13922 1.04079
-0.308585 -0.138981 1.0411
-0.310021 -0.138696 1.04061
-0.311419 -0.138405 1.04001
-0.312885 -0.138125 1.03962
-0.314448 -0.137862 1.03951
-0.316056 -0.137606 1.03954
-0.317633 -0.137345 1.03947
-0.319164 -0.137076 1.03926
-0.32069 -0.136807 1.03905
-0.32217 -0.136529 1.03869
-0.195987 -0.154609 1.01901
-0.194765 -0.156316 1.01903
-0.196048 -0.155997 1.01802
-0.197238 -0.154279 1.01787
-0.197289 -0.155663 1.01683
-0.198464 -0.153943 1.01662
-0.198527 -0.155329 1.01564
-0.199609 -0.153578 1.015
-0.19972 -0.154981 1.01426
-0.200731 -0.153209 1.01331
-0.200907 -0.154633 1.01287
-0.202216 -0.154331 1.01205
-0.203481 -0.154013 1.01105
-0.204771 -0.153707 1.01016
-0.2061 -0.153414 1.00947
-0.207427 -0.153122 1.00876
-0.208689 -0.152808 1.00778
-0.210049 -0.152529 1.00724
-0.211369 -0.152236 1.00653
-0.212691 -0.151945 1.00583
-0.214018 -0.151657 1.00517
-0.215381 -0.15138 1.00466
-0.216742 -0.151104 1.00415
-0.218138 -0.150839 1.00378
-0.219579 -0.150588 1.0036
-0.220929 -0.150309 1.00305
-0.222248 -0.150021 1.00238
-0.223455 -0.1497 1.00126
-0.22463 -0.149371 1.00002
-0.225752 -0.149028 0.998585
-0.226938 -0.148706 0.997418
-0.228183 -0.148402 0.996496
-0.229507 -0.148121 0.995895
-0.230874 -0.147853 0.995462
-0.232287 -0.147598 0.995212
-0.233764 -0.147361 0.995209
-0.235227 -0.147119 0.995145
-0.236729 -0.146887 0.995227
-0.238272 -0.146666 0.995458
-0.239841 -0.146451 0.995783
-0.241463 -0.146249 0.996293
-0.243132 -0.146058 0.996968
-0.24487 -0.145882 0.997883
-0.246663 -0.145719 0.998982
-0.248585 -0.145587 1.00053
-0.250697 -0.145498 1.00274
-0.253081 -0.145473 1.00588
-0.255489 -0.145448 1.00907
-0.25778 -0.14539 1.0118
-0.25989 -0.145286 1.01387
-0.261761 -0.145122 1.01507
-0.263383 -0.144899 1.01539
-0.264888 -0.144647 1.01531
-0.26637 -0.144391 1.01514
-0.267894 -0.144144 1.01512
-0.269397 -0.143891 1.01502
-0.270902 -0.143639 1.01492
-0.272435 -0.143393 1.01492
-0.273994 -0.143152 1.015
-0.275455 -0.14289 1.01476
-0.276933 -0.142631 1.01456
-0.278334 -0.142356 1.01412
-0.279707 -0.142076 1.01359
-0.281054 -0.14179 1.01298
-0.282446 -0.141515 1.01252
-0.283735 -0.141218 1.01173
-0.28499 -0.140916 1.01084
-0.286459 -0.140656 1.01062
-0.288361 -0.140481 1.01177
-0.290797 -0.140407 1.01456
-0.294493 -0.140568 1.0212
-0.298283 -0.140738 1.02807
-0.301809 -0.14085 1.03405
-0.304836 -0.140863 1.03843
-0.30734 -0.140774 1.04119
-0.308677 -0.14047 1.04041
-0.310242 -0.140208 1.04031
-0.311746 -0.139934 1.04002
-0.313346 -0.139678 1.04003
-0.314984 -0.139428 1.04014
-0.316632 -0.139179 1.04027
-0.318214 -0.138919 1.04021
-0.319714 -0.138644 1.03991
-0.321179 -0.138363 1.03951
-0.322618 -0.138079 1.03904
-0.327155 -0.136807 1.04835
-0.324244 -0.137825 1.0391
-0.193363 -0.156591 1.01947
-0.193479 -0.157999 1.01872
-0.194851 -0.157712 1.01815
-0.196138 -0.157394 1.01717
-0.197379 -0.157059 1.01598
-0.198635 -0.156731 1.01488
-0.199859 -0.156393 1.01365
-0.201085 -0.156058 1.01244
-0.202403 -0.155758 1.01167
-0.203686 -0.155447 1.01075
-0.204981 -0.15514 1.00989
-0.206304 -0.154845 1.00916
-0.207631 -0.154552 1.00846
-0.208892 -0.154237 1.00748
-0.210253 -0.153957 1.00694
-0.211591 -0.15367 1.00631
-0.212915 -0.153379 1.00562
-0.214242 -0.15309 1.00495
-0.215567 -0.1528 1.00428
-0.216884 -0.15251 1.00359
-0.218199 -0.152219 1.00289
-0.219555 -0.151941 1.00236
-0.22084 -0.151642 1.00155
-0.222155 -0.151353 1.00087
-0.223362 -0.151032 0.999757
-0.224598 -0.150721 0.998775
-0.22578 -0.150395 0.997588
-0.227047 -0.150096 0.996747
-0.228356 -0.14981 0.996083
-0.229744 -0.149547 0.995732
-0.231137 -0.149286 0.995401
-0.232613 -0.149048 0.995391
-0.234116 -0.148818 0.995482
-0.235625 -0.148589 0.995591
-0.237192 -0.148375 0.995912
-0.238805 -0.148173 0.996399
-0.240448 -0.147978 0.99699
-0.242171 -0.147803 0.997864
-0.243939 -0.147638 0.998888
-0.245756 -0.147484 1.00008
-0.247627 -0.147341 1.00144
-0.249631 -0.147231 1.00327
-0.251792 -0.147156 1.00563
-0.253969 -0.147082 1.00801
-0.256125 -0.146999 1.01029
-0.258173 -0.146886 1.01215
-0.260029 -0.146723 1.01332
-0.26168 -0.146509 1.01376
-0.263302 -0.146287 1.01409
-0.264856 -0.146049 1.01418
-0.266345 -0.145794 1.01404
-0.267895 -0.145554 1.01411
-0.269397 -0.145302 1.01401
-0.270904 -0.145051 1.01392
-0.272436 -0.144806 1.01392
-0.274018 -0.144571 1.01408
-0.275452 -0.144303 1.01375
-0.276952 -0.14405 1.01363
-0.27837 -0.143779 1.01325
-0.279745 -0.143499 1.01273
-0.28109 -0.143213 1.01212
-0.282559 -0.142953 1.0119
-0.283906 -0.142668 1.0113
-0.285427 -0.142419 1.01125
-0.287254 -0.142231 1.01216
-0.289551 -0.142136 1.01453
-0.292385 -0.142143 1.01853
-0.295953 -0.142288 1.02475
-0.299333 -0.142388 1.03033
-0.302405 -0.142422 1.0349
-0.305009 -0.142361 1.03799
-0.307127 -0.142205 1.03958
-0.308669 -0.141939 1.03942
-0.310356 -0.1417 1.03968
-0.311963 -0.141446 1.03971
-0.313692 -0.141213 1.04009
-0.315431 -0.140981 1.04049
-0.317116 -0.140739 1.04074
-0.318759 -0.140489 1.04085
-0.320292 -0.14022 1.04064
-0.321787 -0.139944 1.04032
-0.323253 -0.139663 1.03992
-0.324968 -0.139423 1.04022
-0.196203 -0.158779 1.0162
-0.197445 -0.158444 1.01502
-0.198723 -0.158124 1.01404
-0.200017 -0.157812 1.01313
-0.2013 -0.157497 1.01219
-0.20264 -0.157204 1.01151
-0.203961 -0.156905 1.01076
-0.205275 -0.156604 1.00998
-0.206597 -0.156308 1.00926
-0.207925 -0.156014 1.00855
-0.209188 -0.155698 1.00758
-0.210552 -0.155419 1.00705
-0.211894 -0.155132 1.00643
-0.213203 -0.154835 1.00568
-0.214509 -0.154538 1.00492
-0.215793 -0.154234 1.00408
-0.217067 -0.153928 1.0032
-0.218321 -0.153616 1.00225
-0.219614 -0.153319 1.00147
-0.220837 -0.152999 1.0004
-0.222128 -0.152703 0.999633
-0.223335 -0.152381 0.99853
-0.224596 -0.152077 0.997655
-0.225821 -0.151764 0.996646
-0.227167 -0.151488 0.996123
-0.228538 -0.15122 0.995705
-0.229973 -0.150971 0.995537
-0.23143 -0.150728 0.995452
-0.232989 -0.150515 0.995759
-0.234539 -0.150298 0.996024
-0.236111 -0.150087 0.996366
-0.237765 -0.149898 0.997008
-0.239448 -0.149715 0.997748
-0.241128 -0.14953 0.998463
-0.242901 -0.149369 0.999511
-0.244723 -0.149219 1.00072
-0.246574 -0.149075 1.00202
-0.248478 -0.148942 1.00349
-0.250549 -0.14885 1.00553
-0.252571 -0.148743 1.00737
-0.254552 -0.148621 1.00905
-0.256474 -0.148482 1.01049
-0.2583 -0.148316 1.01156
-0.259946 -0.148104 1.012
-0.261548 -0.14788 1.01227
-0.263168 -0.14766 1.0126
-0.26475 -0.147429 1.01279
-0.266259 -0.147181 1.01273
-0.267836 -0.146948 1.01289
-0.269388 -0.146709 1.01297
-0.270923 -0.146465 1.01298
-0.272457 -0.146221 1.01299
-0.274066 -0.145993 1.01324
-0.275477 -0.145721 1.01284
-0.277001 -0.145473 1.01281
-0.278446 -0.145208 1.01251
-0.279873 -0.144939 1.01216
-0.281273 -0.144665 1.01173
-0.282824 -0.144423 1.01177
-0.28441 -0.144187 1.01193
-0.286232 -0.144001 1.01282
-0.288412 -0.143887 1.01483
-0.291086 -0.143871 1.01835
-0.294261 -0.143951 1.02339
-0.297378 -0.144013 1.02818
-0.300301 -0.14403 1.03233
-0.302911 -0.14398 1.03547
-0.305076 -0.143838 1.03722
-0.306827 -0.143615 1.0377
-0.30855 -0.143385 1.03809
-0.310388 -0.143176 1.03881
-0.31212 -0.142946 1.03921
-0.313976 -0.142738 1.03997
-0.315835 -0.142529 1.04073
-0.317612 -0.142304 1.04123
-0.319322 -0.142066 1.04154
-0.320927 -0.141809 1.04153
-0.322458 -0.141538 1.04131
-0.324022 -0.141274 1.04118
-0.325842 -0.141053 1.04178
-0.196234 -0.160149 1.01507
-0.197529 -0.159834 1.01415
-0.198861 -0.159535 1.01342
-0.200225 -0.159249 1.01284
-0.20156 -0.158953 1.01214
-0.202887 -0.158654 1.0114
-0.204228 -0.158362 1.01074
-0.205558 -0.158066 1.01004
-0.206882 -0.157769 1.00931
-0.208211 -0.157474 1.00861
-0.209509 -0.15717 1.00779
-0.210894 -0.156897 1.00735
-0.212241 -0.156611 1.00675
-0.213548 -0.156312 1.00598
-0.214852 -0.156012 1.00521
-0.216095 -0.155693 1.00419
-0.217311 -0.155367 1.00307
-0.218522 -0.155039 1.00194
-0.219753 -0.15472 1.0009
-0.22093 -0.154385 0.999656
-0.222218 -0.154087 0.998874
-0.223429 -0.153766 0.997791
-0.224695 -0.153463 0.996941
-0.225961 -0.153161 0.996096
-0.22735 -0.152898 0.995746
-0.228746 -0.152638 0.995429
-0.230286 -0.152421 0.995668
-0.231849 -0.15221 0.995994
-0.233518 -0.152029 0.996715
-0.235136 -0.151832 0.997233
-0.236778 -0.151641 0.997826
-0.238441 -0.151454 0.998491
-0.24013 -0.151274 0.999239
-0.241796 -0.151085 0.999889
-0.243548 -0.150919 1.00085
-0.24535 -0.150765 1.00197
-0.247223 -0.150628 1.00334
-0.249134 -0.150498 1.00481
-0.251118 -0.150386 1.00654
-0.253039 -0.150254 1.00801
-0.254912 -0.150107 1.00929
-0.256641 -0.14992 1.01004
-0.2583 -0.149714 1.01053
-0.25987 -0.149484 1.0107
-0.261423 -0.149249 1.01081
-0.263018 -0.149024 1.01106
-0.264618 -0.1488 1.01132
-0.266151 -0.148558 1.01135
-0.267753 -0.148333 1.0116
-0.269352 -0.148106 1.01184
-0.27089 -0.147865 1.01187
-0.272451 -0.147628 1.01197
-0.274107 -0.147412 1.01238
-0.27555 -0.147147 1.01209
-0.277104 -0.146907 1.01215
-0.278604 -0.146655 1.01204
-0.280086 -0.146398 1.01187
-0.281596 -0.146147 1.01179
-0.283311 -0.145941 1.01236
-0.285106 -0.145751 1.01317
-0.287225 -0.145629 1.01499
-0.289711 -0.145582 1.01794
-0.292597 -0.145614 1.0221
-0.295478 -0.14564 1.02619
-0.298197 -0.145626 1.02973
-0.300683 -0.145561 1.03253
-0.302882 -0.145432 1.0344
-0.304723 -0.14523 1.03518
-0.306571 -0.145028 1.03596
-0.308418 -0.144825 1.03673
-0.310328 -0.144632 1.03767
-0.312156 -0.144422 1.03836
-0.314072 -0.144228 1.0393
-0.315995 -0.144033 1.04024
-0.317865 -0.143826 1.04102
-0.319671 -0.143607 1.0416
-0.321378 -0.143369 1.04189
-0.323047 -0.143123 1.04206
-0.324782 -0.142888 1.04241
-0.326699 -0.142685 1.04328
-0.196291 -0.161527 1.01406
-0.197678 -0.161249 1.01359
-0.199092 -0.160982 1.01324
-0.200529 -0.160724 1.013
-0.20192 -0.160449 1.01255
-0.203231 -0.160142 1.01173
-0.204587 -0.159855 1.01114
-0.205917 -0.159557 1.01042
-0.207243 -0.15926 1.0097
-0.208576 -0.158966 1.00902
-0.20993 -0.15868 1.00843
-0.211317 -0.158406 1.008
-0.212664 -0.158119 1.00739
-0.21397 -0.157818 1.00661
-0.215272 -0.157516 1.00583
-0.216495 -0.157188 1.00472
-0.217675 -0.156846 1.00344
-0.218844 -0.156503 1.00213
-0.220013 -0.156162 1.00084
-0.221146 -0.15581 0.999411
-0.222394 -0.155498 0.998469
-0.223604 -0.155175 0.997381
-0.22489 -0.154878 0.996612
-0.226198 -0.154589 0.995935
-0.227627 -0.154338 0.995745
-0.229109 -0.154104 0.995757
-0.230759 -0.153921 0.996422
-0.232418 -0.15374 0.997111
-0.234184 -0.153589 0.998193
-0.235856 -0.153408 0.998904
-0.237507 -0.153219 0.999519
-0.239173 -0.153033 1.00018
-0.240826 -0.152842 1.00078
-0.242445 -0.15264 1.00124
-0.244146 -0.15246 1.002
-0.245893 -0.152292 1.00291
-0.247699 -0.152138 1.00402
-0.249544 -0.151992 1.00525
-0.251463 -0.151864 1.00673
-0.253315 -0.151716 1.00795
-0.255115 -0.151552 1.00897
-0.256751 -0.151342 1.00939
-0.258358 -0.151124 1.0097
-0.259877 -0.150882 1.0097
-0.261398 -0.15064 1.0097
-0.262969 -0.150411 1.00987
-0.264565 -0.150187 1.01012
-0.266122 -0.149952 1.01023
-0.267722 -0.149728 1.01049
-0.269349 -0.149509 1.01082
-0.270909 -0.149274 1.01093
-0.272517 -0.149049 1.01119
-0.274224 -0.148848 1.01178
-0.275768 -0.148606 1.01181
-0.277381 -0.148381 1.01207
-0.279061 -0.14817 1.01254
-0.280658 -0.147939 1.01273
-0.282287 -0.147714 1.01302
-0.284124 -0.147536 1.01397
-0.286094 -0.147385 1.01532
-0.288317 -0.147287 1.01746
-0.290956 -0.147277 1.02087
-0.29356 -0.147254 1.02412
-0.296123 -0.147217 1.02721
-0.298494 -0.147136 1.02968
-0.300628 -0.147001 1.03138
-0.302514 -0.146813 1.03231
-0.304434 -0.14663 1.03334
-0.306342 -0.146443 1.03431
-0.308308 -0.146266 1.03544
-0.310281 -0.146088 1.03657
-0.312173 -0.145893 1.03745
-0.314095 -0.145702 1.03841
-0.316074 -0.14552 1.03952
-0.31801 -0.145329 1.04049
-0.319894 -0.145126 1.0413
-0.321736 -0.144914 1.04197
-0.323599 -0.144704 1.04269
-0.32551 -0.144502 1.04354
-0.327509 -0.144315 1.04464
-0.196281 -0.162874 1.01274
-0.197759 -0.162634 1.0127
-0.199267 -0.162406 1.0128
-0.200783 -0.162181 1.01292
-0.202232 -0.161928 1.01273
-0.203561 -0.161627 1.012
-0.204947 -0.16135 1.01153
-0.206291 -0.161057 1.01087
-0.20764 -0.160767 1.01025
-0.208999 -0.16048 1.00968
-0.210429 -0.160222 1.00942
-0.211838 -0.159955 1.00906
-0.213187 -0.159666 1.00845
-0.214494 -0.159363 1.00767
-0.215777 -0.159053 1.0068
-0.216966 -0.15871 1.00554
-0.218089 -0.158346 1.00401
-0.219197 -0.157979 1.00245
-0.220284 -0.157608 1.00082
-0.221375 -0.15724 0.999215
-0.222581 -0.156913 0.998103
-0.223792 -0.156588 0.997022
-0.225096 -0.156296 0.996325
-0.226441 -0.156019 0.995799
-0.227969 -0.1558 0.995997
-0.22958 -0.155606 0.996509
-0.231368 -0.155468 0.997702
-0.233129 -0.155318 0.998771
-0.234993 -0.155198 1.00022
-0.236673 -0.155019 1.00094
-0.238306 -0.154825 1.00147
-0.23993 -0.154626 1.00195
-0.241535 -0.154421 1.00236
-0.243082 -0.154197 1.00254
-0.244711 -0.153996 1.00302
-0.246365 -0.153802 1.00358
-0.248097 -0.153628 1.00442
-0.249873 -0.153465 1.00539
-0.251728 -0.153322 1.00664
-0.253537 -0.153165 1.0077
-0.255294 -0.152991 1.00857
-0.256887 -0.15277 1.00884
-0.258469 -0.152547 1.00906
-0.259983 -0.152304 1.00904
-0.261455 -0.15205 1.00888
-0.262998 -0.151814 1.00895
-0.264592 -0.151591 1.0092
-0.266151 -0.151358 1.00932
-0.267776 -0.151141 1.00966
-0.269475 -0.150942 1.01024
-0.271106 -0.150725 1.01059
-0.272817 -0.150527 1.01119
-0.274627 -0.150351 1.01211
-0.276282 -0.150137 1.01251
-0.277981 -0.149931 1.01304
-0.2798 -0.149754 1.01395
-0.281488 -0.149543 1.01442
-0.283213 -0.149341 1.01501
-0.28512 -0.149179 1.01616
-0.287154 -0.149043 1.0177
-0.289396 -0.148952 1.01988
-0.291805 -0.148894 1.02255
-0.294172 -0.148824 1.02505
-0.296467 -0.148734 1.02731
-0.298576 -0.1486 1.02896
-0.300453 -0.148414 1.02988
-0.302306 -0.148221 1.03071
-0.304253 -0.148047 1.03182
-0.30621 -0.147873 1.03294
-0.308234 -0.147711 1.03425
-0.310239 -0.147542 1.03549
-0.312184 -0.14736 1.03653
-0.314074 -0.147165 1.03739
-0.316051 -0.146986 1.0385
-0.318022 -0.146804 1.03957
-0.320004 -0.146622 1.04066
-0.321984 -0.146438 1.04174
-0.324074 -0.146274 1.04311
-0.326217 -0.146117 1.04462
-0.328303 -0.145947 1.04595
-0.332248 -0.14462 1.05346
-0.330356 -0.14577 1.04717
-0.196299 -0.164231 1.01156
-0.197835 -0.164016 1.01179
-0.199427 -0.163824 1.01228
-0.201023 -0.163632 1.01278
-0.202535 -0.163405 1.01288
-0.20392 -0.163125 1.01239
-0.205375 -0.162875 1.01223
-0.206756 -0.162594 1.01173
-0.208151 -0.16232 1.0113
-0.209554 -0.162049 1.01091
-0.211029 -0.161806 1.01083
-0.212443 -0.161539 1.01049
-0.213777 -0.161243 1.00981
-0.215085 -0.160938 1.00902
-0.216353 -0.16062 1.00807
-0.217524 -0.160267 1.00672
-0.218589 -0.15988 1.00495
-0.219654 -0.159494 1.00319
-0.220654 -0.159089 1.0012
-0.22168 -0.158696 0.999334
-0.222827 -0.158347 0.997978
-0.224036 -0.158021 0.996893
-0.225343 -0.157729 0.996204
-0.226826 -0.157496 0.996222
-0.228489 -0.157322 0.996946
-0.23026 -0.15718 0.998076
-0.232172 -0.157082 0.999735
-0.234047 -0.156969 1.00123
-0.235856 -0.156832 1.00244
-0.23749 -0.156638 1.00297
-0.239054 -0.156422 1.00322
-0.240587 -0.156195 1.00335
-0.242105 -0.155963 1.00342
-0.243607 -0.155725 1.00343
-0.245172 -0.155506 1.00366
-0.246717 -0.15528 1.00382
-0.248399 -0.155093 1.00446
-0.2501 -0.154911 1.00517
-0.251881 -0.154749 1.00615
-0.253646 -0.154582 1.00705
-0.255403 -0.15441 1.00792
-0.256975 -0.154185 1.00811
-0.258558 -0.153962 1.00834
-0.260093 -0.153726 1.0084
-0.261587 -0.153478 1.00831
-0.263198 -0.153261 1.00862
-0.264842 -0.153052 1.00904
-0.266473 -0.152838 1.00941
-0.268129 -0.15263 1.00985
-0.269879 -0.152445 1.01059
-0.27152 -0.152231 1.01097
-0.273316 -0.152055 1.01185
-0.275195 -0.151898 1.01298
-0.27699 -0.151718 1.01383
-0.278805 -0.151541 1.01473
-0.280744 -0.151392 1.01601
-0.282495 -0.151197 1.01668
-0.284289 -0.15101 1.01747
-0.286196 -0.150848 1.01861
-0.288216 -0.15071 1.02009
-0.29029 -0.150583 1.02171
-0.292461 -0.150475 1.02363
-0.294589 -0.150354 1.02538
-0.296703 -0.150227 1.02706
-0.298636 -0.150058 1.02817
-0.30049 -0.149869 1.02902
-0.302341 -0.149678 1.02985
-0.304311 -0.149511 1.03103
-0.306239 -0.149333 1.03207
-0.308265 -0.149175 1.03339
-0.310238 -0.149003 1.03453
-0.312183 -0.148823 1.03557
-0.31403 -0.148622 1.03631
-0.315972 -0.148438 1.03731
-0.317935 -0.148257 1.03837
-0.319982 -0.148092 1.03965
-0.322122 -0.147942 1.04119
-0.324388 -0.147814 1.04306
-0.326705 -0.147694 1.04506
-0.328891 -0.147546 1.04667
-0.330978 -0.147377 1.04798
-0.335149 -0.146093 1.05606
-0.33288 -0.14717 1.04875
-0.194706 -0.165763 1.00977
-0.19631 -0.165581 1.01034
-0.197876 -0.165381 1.01073
-0.199491 -0.165201 1.01133
-0.201161 -0.165042 1.01217
-0.202756 -0.164849 1.01264
-0.204221 -0.164602 1.01253
-0.20574 -0.164377 1.01264
-0.207197 -0.164126 1.01248
-0.208636 -0.163868 1.01224
-0.210085 -0.163614 1.01204
-0.21162 -0.163392 1.01221
-0.213076 -0.16314 1.01204
-0.214434 -0.162851 1.01144
-0.215746 -0.162544 1.01065
-0.216992 -0.162215 1.0096
-0.218123 -0.161845 1.00807
-0.219126 -0.16143 1.00603
-0.220146 -0.161025 1.00408
-0.221063 -0.160587 1.00174
-0.222062 -0.160181 0.99976
-0.223184 -0.15982 0.998301
-0.224395 -0.159493 0.99722
-0.225823 -0.159241 0.997011
-0.227501 -0.159074 0.997795
-0.229296 -0.158943 0.99902
-0.231197 -0.158845 1.00064
-0.233224 -0.158785 1.00272
-0.235062 -0.15866 1.00405
-0.23676 -0.158487 1.00481
-0.238319 -0.158269 1.00504
-0.239786 -0.158021 1.00491
-0.241194 -0.157754 1.00456
-0.242624 -0.157494 1.00429
-0.244082 -0.157242 1.00412
-0.245587 -0.157005 1.00413
-0.247051 -0.156755 1.00398
-0.248686 -0.156556 1.00446
-0.250332 -0.156358 1.00496
-0.252042 -0.156178 1.00568
-0.253754 -0.155997 1.0064
-0.255505 -0.155825 1.00724
-0.257096 -0.155607 1.00751
-0.258704 -0.155392 1.00783
-0.260271 -0.155165 1.00799
-0.26184 -0.154939 1.00816
-0.263528 -0.154743 1.00874
-0.265252 -0.154556 1.00942
-0.266939 -0.154358 1.00997
-0.268652 -0.154166 1.0106
-0.270432 -0.153989 1.01144
-0.272109 -0.153785 1.01193
-0.273988 -0.153631 1.01307
-0.275939 -0.153493 1.01443
-0.277854 -0.153343 1.01566
-0.279761 -0.15319 1.01685
-0.281811 -0.153069 1.01847
-0.2836 -0.152883 1.01924
-0.285416 -0.152701 1.02009
-0.287322 -0.152539 1.0212
-0.289154 -0.152358 1.02207
-0.291027 -0.152184 1.02305
-0.292993 -0.152031 1.02431
-0.294945 -0.151872 1.02551
-0.2969 -0.151712 1.0267
-0.298825 -0.151543 1.02778
-0.300673 -0.151355 1.02862
-0.302494 -0.151159 1.02936
-0.304434 -0.150988 1.03044
-0.306366 -0.150814 1.03149
-0.308425 -0.150665 1.0329
-0.310344 -0.150484 1.03388
-0.312275 -0.150304 1.03488
-0.314083 -0.150096 1.03551
-0.315929 -0.149896 1.03624
-0.317825 -0.149703 1.0371
-0.319921 -0.149551 1.03853
-0.322131 -0.149419 1.04027
-0.32454 -0.149324 1.04256
-0.327001 -0.149236 1.04497
-0.32929 -0.149111 1.04686
-0.331435 -0.148955 1.04833
-0.333325 -0.148748 1.04906
-0.193111 -0.165947 1.00923
-0.19338 -0.167406 1.00923
-0.194876 -0.167179 1.00931
-0.196436 -0.166979 1.00967
-0.197974 -0.166769 1.00993
-0.199574 -0.166583 1.01046
-0.201264 -0.166435 1.01139
-0.202916 -0.166268 1.01214
-0.204465 -0.166056 1.01239
-0.206067 -0.165866 1.01288
-0.20761 -0.165649 1.0131
-0.209093 -0.165408 1.01304
-0.210599 -0.165175 1.01308
-0.212173 -0.164969 1.01342
-0.213636 -0.164718 1.01326
-0.214998 -0.164428 1.01267
-0.216309 -0.16412 1.01187
-0.217516 -0.163773 1.01064
-0.218604 -0.163383 1.00892
-0.219582 -0.162955 1.00677
-0.220561 -0.162532 1.00465
-0.221437 -0.162074 1.00214
-0.222429 -0.161662 1.00013
-0.223549 -0.161299 0.998658
-0.224878 -0.161011 0.998043
-0.226463 -0.160813 0.998451
-0.228333 -0.160711 0.999981
-0.230261 -0.160626 1.00171
-0.232285 -0.16057 1.00378
-0.234229 -0.160483 1.00552
-0.235973 -0.160327 1.00646
-0.23751 -0.160101 1.00659
-0.238955 -0.159845 1.00637
-0.240291 -0.159553 1.00573
-0.241629 -0.159263 1.00511
-0.243013 -0.158988 1.00467
-0.24447 -0.158736 1.0045
-0.245978 -0.158499 1.00451
-0.247444 -0.15825 1.00437
-0.249034 -0.158037 1.00467
-0.250629 -0.157825 1.00498
-0.252265 -0.157624 1.00544
-0.253904 -0.157423 1.00589
-0.25563 -0.157246 1.00665
-0.257239 -0.157034 1.00698
-0.258919 -0.156841 1.00755
-0.260588 -0.156644 1.00807
-0.262269 -0.156449 1.00862
-0.264046 -0.156279 1.0095
-0.265851 -0.156115 1.01045
-0.267553 -0.155921 1.01104
-0.269295 -0.155737 1.01176
-0.271082 -0.155563 1.01261
-0.272827 -0.155376 1.01331
-0.274791 -0.155246 1.01472
-0.276826 -0.155131 1.01635
-0.278858 -0.155012 1.01795
-0.28088 -0.154888 1.01948
-0.282968 -0.154778 1.02122
-0.284761 -0.154592 1.02198
-0.286523 -0.154396 1.02263
-0.288324 -0.154209 1.0234
-0.290048 -0.154001 1.02391
-0.291763 -0.153791 1.02438
-0.293564 -0.153599 1.02511
-0.295424 -0.153421 1.02602
-0.297264 -0.153235 1.02685
-0.299103 -0.153048 1.02767
-0.300919 -0.152855 1.0284
-0.302737 -0.15266 1.02913
-0.304651 -0.152486 1.03013
-0.306581 -0.152313 1.03117
-0.308667 -0.152173 1.03267
-0.310561 -0.151989 1.03357
-0.312494 -0.151811 1.03457
-0.314266 -0.151597 1.0351
-0.316042 -0.151383 1.03562
-0.31787 -0.151179 1.03629
-0.319988 -0.151033 1.03778
-0.322232 -0.150912 1.03961
-0.324688 -0.150832 1.04204
-0.327227 -0.150764 1.04466
-0.32955 -0.15065 1.04665
-0.331721 -0.150502 1.04819
-0.333577 -0.15029 1.04882
-0.192229 -0.169127 1.00953
-0.193633 -0.168859 1.00917
-0.195066 -0.168603 1.00894
-0.196587 -0.168387 1.00912
-0.198075 -0.168156 1.00914
-0.199632 -0.167953 1.00948
-0.201301 -0.167799 1.01032
-0.202986 -0.167648 1.01122
-0.204615 -0.167472 1.01184
-0.206281 -0.167309 1.01262
-0.207904 -0.167127 1.01319
-0.209442 -0.166908 1.01337
-0.210986 -0.16669 1.01357
-0.212566 -0.166486 1.01392
-0.214049 -0.166243 1.01385
-0.215378 -0.165939 1.01311
-0.216649 -0.165613 1.01213
-0.217812 -0.165247 1.01072
-0.218855 -0.164838 1.00881
-0.219833 -0.164407 1.00666
-0.220833 -0.163988 1.00463
-0.221752 -0.163542 1.00229
-0.222804 -0.163149 1.00052
-0.223984 -0.162805 0.999293
-0.225443 -0.162562 0.999193
-0.227191 -0.162421 1.00024
-0.229215 -0.162374 1.00235
-0.231229 -0.16232 1.0044
-0.233265 -0.162269 1.0065
-0.235089 -0.162142 1.00775
-0.236712 -0.161945 1.0082
-0.238098 -0.161667 1.00775
-0.239458 -0.161382 1.00719
-0.240728 -0.161067 1.0063
-0.241998 -0.160754 1.00542
-0.243336 -0.160463 1.0048
-0.244789 -0.16021 1.00461
-0.246279 -0.159967 1.00455
-0.247746 -0.159718 1.00441
-0.249334 -0.159505 1.0047
-0.250903 -0.159286 1.00492
-0.25249 -0.159071 1.0052
-0.254107 -0.158865 1.00558
-0.255808 -0.158682 1.00624
-0.257419 -0.158472 1.00658
-0.259174 -0.158302 1.00741
-0.26095 -0.158137 1.0083
-0.262742 -0.157974 1.00923
-0.264603 -0.157829 1.01039
-0.266488 -0.157688 1.0116
-0.268192 -0.157496 1.01219
-0.26996 -0.157319 1.01298
-0.271725 -0.15714 1.01375
-0.273496 -0.15696 1.01453
-0.275511 -0.156845 1.0161
-0.277603 -0.156747 1.0179
-0.279673 -0.15664 1.01961
-0.281777 -0.156539 1.0214
-0.28382 -0.156419 1.02297
-0.285588 -0.156226 1.02364
-0.287323 -0.156024 1.02419
-0.289074 -0.155824 1.02479
-0.290724 -0.155599 1.02506
-0.292407 -0.155381 1.02542
-0.294122 -0.155169 1.02588
-0.295897 -0.154971 1.02651
-0.29765 -0.154766 1.02707
-0.299409 -0.154562 1.02764
-0.301194 -0.154362 1.02827
-0.302982 -0.154162 1.02891
-0.304866 -0.153982 1.02982
-0.306821 -0.153818 1.03094
-0.30891 -0.153681 1.03243
-0.310779 -0.153493 1.03326
-0.31271 -0.153317 1.03426
-0.314483 -0.153104 1.03478
-0.316173 -0.152873 1.03505
-0.317936 -0.152657 1.03553
-0.320045 -0.152513 1.03699
-0.322285 -0.152395 1.03882
-0.324744 -0.15232 1.04125
-0.327343 -0.15227 1.04405
-0.329698 -0.152166 1.04613
-0.33187 -0.152021 1.04767
-0.333729 -0.151811 1.04831
-0.337935 -0.150566 1.05642
-0.335349 -0.151552 1.04828
-0.191104 -0.170863 1.00996
-0.192514 -0.170596 1.00962
-0.193932 -0.170334 1.00931
-0.195328 -0.170061 1.00891
-0.196831 -0.169837 1.00901
-0.198294 -0.169594 1.00891
-0.199797 -0.169369 1.00899
-0.201411 -0.169192 1.00959
-0.203074 -0.169034 1.01038
-0.204697 -0.168857 1.01098
-0.206365 -0.168698 1.01177
-0.208029 -0.168534 1.01252
-0.209607 -0.168333 1.01288
-0.211187 -0.168131 1.01325
-0.212767 -0.167928 1.01359
-0.214252 -0.167686 1.01353
-0.215558 -0.167372 1.01269
-0.216802 -0.167034 1.01161
-0.21796 -0.166665 1.01017
-0.219003 -0.166253 1.00827
-0.220022 -0.165835 1.00629
-0.221087 -0.165438 1.00453
-0.222113 -0.165029 1.00263
-0.223255 -0.164666 1.00123
-0.224584 -0.164374 1.00059
-0.226182 -0.16418 1.00103
-0.228052 -0.164084 1.00255
-0.230178 -0.164075 1.00505
-0.232164 -0.164012 1.00696
-0.234085 -0.163922 1.00859
-0.235748 -0.163739 1.00919
-0.237234 -0.163495 1.00911
-0.238459 -0.163161 1.00803
-0.239756 -0.162854 1.00724
-0.240984 -0.162524 1.00619
-0.242229 -0.162201 1.00521
-0.243543 -0.161902 1.0045
-0.245017 -0.161655 1.00439
-0.246508 -0.161414 1.00434
-0.247979 -0.161165 1.00421
-0.249543 -0.160946 1.00441
-0.251111 -0.160727 1.00463
-0.252674 -0.160506 1.00482
-0.254294 -0.160301 1.0052
-0.255997 -0.160121 1.00587
-0.257635 -0.15992 1.00631
-0.259465 -0.159774 1.0074
-0.26132 -0.159634 1.00856
-0.263223 -0.159505 1.00987
-0.265186 -0.15939 1.01136
-0.267141 -0.159271 1.0128
-0.268839 -0.159077 1.01336
-0.270579 -0.158893 1.01405
-0.272294 -0.1587 1.01464
-0.274024 -0.158511 1.01528
-0.275992 -0.158385 1.01669
-0.278093 -0.158292 1.01851
-0.280186 -0.158193 1.02028
-0.282325 -0.158104 1.02218
-0.284375 -0.157988 1.02376
-0.286189 -0.157808 1.02457
-0.287922 -0.157606 1.02511
-0.28965 -0.157401 1.02563
-0.291254 -0.157164 1.02574
-0.29291 -0.156939 1.02602
-0.29454 -0.156707 1.0262
-0.296253 -0.156495 1.02664
-0.29795 -0.156278 1.02702
-0.299681 -0.156067 1.0275
-0.301465 -0.155869 1.02813
-0.303253 -0.15567 1.02876
-0.305108 -0.155486 1.02959
-0.307064 -0.155323 1.0307
-0.309151 -0.155189 1.03219
-0.310992 -0.154996 1.03294
-0.312926 -0.154823 1.03394
-0.3147 -0.154613 1.03447
-0.316364 -0.154376 1.03466
-0.318095 -0.154154 1.03505
-0.320168 -0.154006 1.03641
-0.322375 -0.153884 1.03814
-0.324767 -0.153799 1.04038
-0.327326 -0.153746 1.04306
-0.32967 -0.153644 1.04511
-0.331843 -0.153504 1.04665
-0.333743 -0.153304 1.04741
-0.33544 -0.153061 1.0476
-0.189689 -0.171127 1.01029
-0.188423 -0.171464 1.01134
-0.189946 -0.172585 1.01024
-0.1914 -0.172339 1.01011
-0.192841 -0.172086 1.00991
-0.194283 -0.171834 1.00971
-0.195685 -0.171563 1.00933
-0.197193 -0.171341 1.00944
-0.19862 -0.171082 1.00917
-0.200054 -0.170826 1.00894
-0.201593 -0.170616 1.00918
-0.203193 -0.170432 1.00969
-0.204736 -0.170222 1.00993
-0.206347 -0.17004 1.01047
-0.208008 -0.169878 1.01122
-0.209585 -0.169679 1.01158
-0.211168 -0.16948 1.01196
-0.212765 -0.169286 1.01239
-0.214265 -0.169051 1.01239
-0.215548 -0.168727 1.01147
-0.216787 -0.168387 1.01037
-0.217957 -0.168022 1.00899
-0.219004 -0.16761 1.00711
-0.220107 -0.167223 1.00549
-0.221299 -0.166872 1.00426
-0.222456 -0.166511 1.00289
-0.223712 -0.166189 1.00195
-0.225233 -0.165967 1.00208
-0.226948 -0.165816 1.00298
-0.22889 -0.165747 1.00476
-0.230956 -0.165718 1.007
-0.232847 -0.165622 1.00852
-0.234565 -0.165461 1.00935
-0.23605 -0.165217 1.00926
-0.237392 -0.164922 1.00862
-0.238591 -0.164578 1.00745
-0.239888 -0.16427 1.00665
-0.241135 -0.163945 1.00568
-0.242383 -0.163623 1.00472
-0.243716 -0.163329 1.00408
-0.245172 -0.163077 1.0039
-0.246663 -0.162836 1.00385
-0.248137 -0.162589 1.00373
-0.249702 -0.162371 1.00394
-0.251293 -0.162161 1.00424
-0.252878 -0.161947 1.00451
-0.254523 -0.161751 1.00498
-0.256255 -0.161581 1.00575
-0.257964 -0.161402 1.00643
-0.259844 -0.161274 1.00769
-0.261753 -0.161151 1.00903
-0.263709 -0.16104 1.01052
-0.265679 -0.16093 1.01202
-0.267612 -0.160806 1.01339
-0.269254 -0.160596 1.01375
-0.270988 -0.160411 1.01441
-0.272679 -0.160213 1.01492
-0.274437 -0.160032 1.01564
-0.276382 -0.159902 1.01697
-0.27848 -0.159811 1.01877
-0.280549 -0.159709 1.02046
-0.282668 -0.159618 1.02229
-0.284695 -0.159499 1.0238
-0.286541 -0.159329 1.02471
-0.288301 -0.159134 1.02533
-0.290035 -0.158932 1.02586
-0.291642 -0.158696 1.02598
-0.293269 -0.158464 1.02616
-0.294866 -0.158224 1.02624
-0.296521 -0.157998 1.0265
-0.298189 -0.157774 1.02679
-0.299893 -0.157559 1.02718
-0.301677 -0.157362 1.02781
-0.303465 -0.157165 1.02844
-0.30535 -0.156989 1.02936
-0.30731 -0.15683 1.03048
-0.309369 -0.156692 1.03189
-0.311233 -0.156507 1.0327
-0.313193 -0.156342 1.03378
-0.314941 -0.156126 1.03422
-0.316609 -0.155891 1.03443
-0.318368 -0.155676 1.03489
-0.320378 -0.155516 1.03607
-0.322487 -0.155376 1.03752
-0.324779 -0.155274 1.03947
-0.327236 -0.155204 1.04186
-0.329509 -0.155092 1.04371
-0.331679 -0.154954 1.04525
-0.333647 -0.154771 1.04621
-0.335448 -0.154552 1.04669
-0.19174 -0.173838 1.01046
-0.193204 -0.173596 1.01036
-0.194664 -0.173351 1.01025
-0.196071 -0.173082 1.00988
-0.19753 -0.172837 1.00976
-0.198922 -0.17256 1.00932
-0.200319 -0.172286 1.00891
-0.201766 -0.172036 1.00873
-0.203285 -0.171817 1.00888
-0.204758 -0.171577 1.00881
-0.206304 -0.171369 1.00906
-0.207907 -0.171184 1.00956
-0.209467 -0.170979 1.00986
-0.211029 -0.170775 1.01015
-0.212622 -0.170582 1.01058
-0.214102 -0.17034 1.01051
-0.215365 -0.170009 1.00951
-0.216623 -0.169677 1.0085
-0.217848 -0.169333 1.00737
-0.218958 -0.168945 1.00576
-0.220165 -0.168598 1.00459
-0.221484 -0.168297 1.00388
-0.222843 -0.168012 1.00334
-0.224272 -0.167754 1.00309
-0.225955 -0.167593 1.00386
-0.227778 -0.167483 1.00517
-0.229686 -0.167401 1.00679
-0.231569 -0.167307 1.0083
-0.233296 -0.167153 1.00917
-0.234837 -0.166929 1.0093
-0.236161 -0.166627 1.00859
-0.237455 -0.166314 1.00777
-0.238645 -0.165967 1.00656
-0.239919 -0.16565 1.00569
-0.24115 -0.16532 1.00466
-0.242422 -0.165004 1.00379
-0.243759 -0.164712 1.00317
-0.245192 -0.164453 1.00291
-0.24668 -0.164212 1.00286
-0.248195 -0.163979 1.00289
-0.249787 -0.163771 1.0032
-0.251424 -0.163577 1.00367
-0.253058 -0.16338 1.00411
-0.254728 -0.163194 1.00467
-0.256463 -0.163026 1.00545
-0.258196 -0.162856 1.00621
-0.260101 -0.162738 1.00756
-0.262058 -0.162632 1.00906
-0.264064 -0.162538 1.01071
-0.26606 -0.162439 1.01231
-0.267971 -0.162311 1.01359
-0.269586 -0.162094 1.01386
-0.271292 -0.161902 1.01442
-0.272961 -0.161698 1.01486
-0.274722 -0.16152 1.01558
-0.276643 -0.161385 1.01683
-0.278732 -0.161295 1.0186
-0.280793 -0.161194 1.02026
-0.282915 -0.161106 1.02209
-0.284926 -0.160986 1.02355
-0.286802 -0.160826 1.02455
-0.288592 -0.160641 1.02526
-0.290333 -0.160442 1.02581
-0.29194 -0.160206 1.02593
-0.293568 -0.159974 1.02611
-0.295157 -0.159733 1.02617
-0.296783 -0.1595 1.02633
-0.298423 -0.15927 1.02654
-0.300101 -0.159049 1.02685
-0.301885 -0.158854 1.02748
-0.303676 -0.158659 1.02812
-0.305593 -0.158494 1.02913
-0.307557 -0.158337 1.03026
-0.309619 -0.158203 1.03167
-0.311507 -0.158025 1.03255
-0.313491 -0.157868 1.0337
-0.315245 -0.157655 1.03416
-0.316945 -0.157428 1.03446
-0.318733 -0.15722 1.035
-0.320681 -0.157049 1.036
-0.322724 -0.156896 1.03725
-0.324913 -0.156774 1.03891
-0.327233 -0.156679 1.04092
-0.329404 -0.156548 1.04248
-0.331534 -0.156405 1.04391
-0.333535 -0.156232 1.04496
-0.335413 -0.156031 1.04566
-0.193564 -0.175106 1.0108
-0.195037 -0.174867 1.01074
-0.196474 -0.174611 1.01051
-0.197958 -0.174377 1.01049
-0.19937 -0.174109 1.01015
-0.200767 -0.173833 1.00972
-0.202138 -0.173546 1.00919
-0.203558 -0.173283 1.00888
-0.204932 -0.172998 1.00837
-0.206365 -0.17274 1.00812
-0.207872 -0.172515 1.0082
-0.209405 -0.1723 1.00838
-0.210924 -0.172079 1.0085
-0.212495 -0.171879 1.00884
-0.213973 -0.171639 1.00877
-0.215259 -0.171317 1.00788
-0.216537 -0.170994 1.00697
-0.217843 -0.170683 1.00618
-0.219073 -0.170343 1.00509
-0.220407 -0.170046 1.00444
-0.221873 -0.169802 1.00433
-0.223403 -0.169583 1.00448
-0.224945 -0.169368 1.00468
-0.226701 -0.169235 1.00572
-0.228472 -0.169106 1.00681
-0.230272 -0.168985 1.00799
-0.231992 -0.168831 1.00884
-0.233579 -0.168625 1.00916
-0.234968 -0.168346 1.0087
-0.236245 -0.168026 1.00781
-0.237493 -0.167697 1.00682
-0.238679 -0.167346 1.00561
-0.239951 -0.167029 1.00473
-0.241188 -0.1667 1.00373
-0.242484 -0.166393 1.00296
-0.24382 -0.1661 1.00234
-0.245225 -0.165831 1.00198
-0.246731 -0.165597 1.00199
-0.248245 -0.165365 1.00203
-0.249867 -0.165168 1.00244
-0.251532 -0.164985 1.00301
-0.253212 -0.164805 1.00362
-0.254884 -0.16462 1.00419
-0.25664 -0.164461 1.00504
-0.258376 -0.164294 1.00581
-0.260281 -0.164178 1.00716
-0.26224 -0.164076 1.00867
-0.264267 -0.163992 1.01039
-0.266267 -0.163897 1.01199
-0.268179 -0.163772 1.01328
-0.269819 -0.163563 1.01363
-0.271524 -0.163372 1.01419
-0.273196 -0.16317 1.01463
-0.27496 -0.162994 1.01537
-0.27686 -0.162856 1.01654
-0.278916 -0.162759 1.0182
-0.280943 -0.162652 1.01975
-0.283033 -0.16256 1.02148
-0.285051 -0.162444 1.02296
-0.286958 -0.162295 1.02406
-0.288801 -0.162126 1.02494
-0.290567 -0.161935 1.02557
-0.29218 -0.161701 1.0257
-0.293807 -0.161471 1.02588
-0.2954 -0.16123 1.02594
-0.296969 -0.160984 1.02594
-0.298579 -0.160747 1.02605
-0.30025 -0.160525 1.02634
-0.302038 -0.160332 1.02698
-0.303831 -0.160139 1.02763
-0.305808 -0.159991 1.02881
-0.307831 -0.159852 1.03012
-0.309897 -0.159721 1.03154
-0.311816 -0.159552 1.03251
-0.313831 -0.159404 1.03375
-0.315592 -0.159194 1.03423
-0.317325 -0.158975 1.03462
-0.319145 -0.158777 1.03525
-0.321065 -0.1586 1.03616
-0.323041 -0.158435 1.03722
-0.325156 -0.158299 1.03866
-0.327341 -0.158177 1.04028
-0.329435 -0.158032 1.04163
-0.331499 -0.157877 1.04287
-0.333528 -0.157713 1.04401
-0.335442 -0.157522 1.04481
-0.340062 -0.156417 1.05399
-0.337253 -0.157307 1.04531
-0.193981 -0.176647 1.01152
-0.195442 -0.176402 1.01139
-0.196892 -0.176151 1.01121
-0.198389 -0.175922 1.01125
-0.199823 -0.175663 1.01099
-0.201186 -0.17537 1.01041
-0.202522 -0.175065 1.0097
-0.203848 -0.174757 1.00896
-0.205125 -0.174427 1.00801
-0.20646 -0.174125 1.00733
-0.207906 -0.173873 1.00714
-0.209377 -0.173633 1.00706
-0.210868 -0.173401 1.00706
-0.212414 -0.173192 1.0073
-0.213889 -0.172952 1.00723
-0.215232 -0.172655 1.00659
-0.216572 -0.172358 1.00595
-0.217963 -0.172083 1.00553
-0.219315 -0.171792 1.00494
-0.220778 -0.171546 1.00482
-0.222376 -0.171356 1.00525
-0.224035 -0.171188 1.00592
-0.225669 -0.171009 1.00647
-0.227473 -0.170895 1.00769
-0.229164 -0.170734 1.00844
-0.230805 -0.170552 1.00898
-0.232347 -0.170331 1.00912
-0.233776 -0.170066 1.00882
-0.23502 -0.169732 1.0078
-0.236234 -0.169388 1.00668
-0.237436 -0.169042 1.00552
-0.238619 -0.16869 1.0043
-0.239891 -0.168372 1.00343
-0.24115 -0.16805 1.00252
-0.242489 -0.167758 1.00191
-0.243842 -0.167472 1.00136
-0.245242 -0.167202 1.00099
-0.246762 -0.166974 1.00105
-0.248277 -0.166743 1.00109
-0.249925 -0.166557 1.00161
-0.251619 -0.166385 1.00228
-0.253346 -0.166222 1.00306
-0.255016 -0.166038 1.00362
-0.256791 -0.165888 1.00454
-0.258525 -0.165722 1.00531
-0.260408 -0.165601 1.00657
-0.262368 -0.165503 1.00809
-0.264416 -0.165429 1.00988
-0.266421 -0.165338 1.0115
-0.268339 -0.165218 1.0128
-0.27005 -0.165032 1.01339
-0.27178 -0.16485 1.01404
-0.273505 -0.164665 1.01465
-0.275301 -0.1645 1.01549
-0.27718 -0.164357 1.01659
-0.279182 -0.164248 1.01807
-0.281176 -0.164134 1.01951
-0.283187 -0.164022 1.02098
-0.28518 -0.163902 1.02238
-0.287111 -0.163762 1.02356
-0.288957 -0.163596 1.02445
-0.290696 -0.163399 1.02499
-0.292333 -0.163173 1.0252
-0.293964 -0.162944 1.02539
-0.295561 -0.162706 1.02547
-0.297131 -0.16246 1.02546
-0.298735 -0.162222 1.02555
-0.300401 -0.162 1.02583
-0.302186 -0.161808 1.02647
-0.303984 -0.161618 1.02713
-0.30602 -0.161487 1.02849
-0.308103 -0.161366 1.02998
-0.310178 -0.16124 1.03142
-0.31213 -0.161082 1.03248
-0.31418 -0.160945 1.03382
-0.315973 -0.160743 1.03439
-0.317746 -0.160535 1.03489
-0.319634 -0.160354 1.03572
-0.32156 -0.16018 1.03664
-0.323473 -0.160001 1.03752
-0.325484 -0.159843 1.03866
-0.327532 -0.159693 1.03989
-0.329526 -0.159527 1.04095
-0.33152 -0.15936 1.042
-0.333551 -0.159199 1.04314
-0.335494 -0.159017 1.04402
-0.337398 -0.158824 1.04478
-0.195848 -0.17794 1.01204
-0.197297 -0.177687 1.01184
-0.198812 -0.177467 1.01196
-0.200294 -0.17723 1.01191
-0.201699 -0.176955 1.01151
-0.203038 -0.176649 1.01081
-0.204325 -0.17632 1.00989
-0.205555 -0.175966 1.00872
-0.206795 -0.175619 1.0076
-0.208146 -0.175324 1.00699
-0.209522 -0.17504 1.00649
-0.210952 -0.174782 1.00624
-0.212439 -0.174548 1.00623
-0.213893 -0.1743 1.00607
-0.215291 -0.174027 1.00567
-0.216712 -0.173764 1.00537
-0.218191 -0.173527 1.00532
-0.219688 -0.173296 1.00534
-0.221298 -0.173111 1.00581
-0.22299 -0.172959 1.00662
-0.224703 -0.172814 1.00749
-0.226383 -0.172652 1.00821
-0.22808 -0.172496 1.00899
-0.22964 -0.172283 1.00921
-0.231144 -0.172048 1.0092
-0.232532 -0.171767 1.00874
-0.233831 -0.171452 1.00792
-0.235007 -0.171092 1.00665
-0.236194 -0.170737 1.00543
-0.237376 -0.170382 1.0042
-0.238599 -0.170045 1.00314
-0.239914 -0.169742 1.00244
-0.241216 -0.169436 1.00169
-0.242578 -0.169152 1.00117
-0.243951 -0.168873 1.0007
-0.245349 -0.168603 1.00033
-0.246848 -0.168368 1.00032
-0.248406 -0.168153 1.00051
-0.250081 -0.167977 1.00113
-0.251777 -0.167807 1.00181
-0.253525 -0.167653 1.00266
-0.255188 -0.167469 1.0032
-0.256943 -0.167314 1.00405
-0.258678 -0.16715 1.00481
-0.260539 -0.167025 1.00601
-0.262468 -0.16692 1.00741
-0.264537 -0.166856 1.00928
-0.266546 -0.16677 1.01091
-0.268472 -0.166655 1.01224
-0.27026 -0.166494 1.01309
-0.272042 -0.16633 1.0139
-0.273821 -0.166162 1.0147
-0.275649 -0.166009 1.01564
-0.27753 -0.165868 1.01674
-0.279482 -0.165747 1.01805
-0.281415 -0.165617 1.01929
-0.283343 -0.165484 1.02049
-0.285306 -0.165358 1.02179
-0.287213 -0.165214 1.02289
-0.289057 -0.16505 1.02378
-0.290819 -0.164861 1.02439
-0.292507 -0.16465 1.02477
-0.294142 -0.164424 1.02497
-0.29577 -0.164194 1.02514
-0.297342 -0.163949 1.02514
-0.29894 -0.16371 1.02521
-0.300574 -0.163481 1.0254
-0.30236 -0.163291 1.02603
-0.304164 -0.163104 1.02671
-0.30623 -0.162983 1.02816
-0.308347 -0.162874 1.02975
-0.310456 -0.16276 1.03129
-0.312445 -0.162612 1.03246
-0.314526 -0.162486 1.03388
-0.316381 -0.1623 1.03463
-0.318189 -0.162102 1.03523
-0.320118 -0.161932 1.03617
-0.322056 -0.161762 1.03712
-0.323938 -0.161577 1.0379
-0.32588 -0.161406 1.03884
-0.327823 -0.161232 1.03977
-0.32975 -0.161053 1.04064
-0.33168 -0.160873 1.04151
-0.33371 -0.160714 1.04265
-0.335684 -0.160541 1.04361
-0.337698 -0.160375 1.04468
-0.196113 -0.179408 1.01201
-0.197572 -0.179161 1.01187
-0.199115 -0.178955 1.01211
-0.200657 -0.178747 1.01233
-0.202105 -0.178492 1.01212
-0.203502 -0.178213 1.01168
-0.204822 -0.177897 1.0109
-0.206071 -0.177549 1.0098
-0.207252 -0.177171 1.00842
-0.208527 -0.176839 1.00746
-0.209821 -0.176517 1.00661
-0.211173 -0.176223 1.00601
-0.212565 -0.175947 1.00559
-0.214016 -0.175698 1.00542
-0.215506 -0.175466 1.00541
-0.217016 -0.175242 1.00549
-0.218605 -0.175051 1.00589
-0.220265 -0.174889 1.00657
-0.221963 -0.174741 1.0074
-0.223687 -0.174603 1.00832
-0.225427 -0.174468 1.00928
-0.227103 -0.174304 1.00998
-0.228675 -0.174097 1.01024
-0.23012 -0.173837 1.00999
-0.231488 -0.173547 1.00944
-0.232725 -0.173206 1.00838
-0.233895 -0.17284 1.00707
-0.235021 -0.172458 1.0056
-0.236183 -0.172094 1.00429
-0.237367 -0.171739 1.00308
-0.238654 -0.171425 1.00227
-0.240015 -0.17114 1.00174
-0.241344 -0.170843 1.0011
-0.24275 -0.170575 1.00075
-0.244151 -0.170305 1.00038
-0.245555 -0.170037 1.00002
-0.247056 -0.169803 1.00002
-0.248655 -0.169604 1.00037
-0.250309 -0.169422 1.00091
-0.252006 -0.169254 1.00159
-0.253752 -0.169101 1.00243
-0.255391 -0.16891 1.00288
-0.257124 -0.168749 1.00366
-0.258836 -0.168579 1.00434
-0.26065 -0.168441 1.00537
-0.262527 -0.168322 1.00659
-0.264587 -0.168259 1.00843
-0.266597 -0.168177 1.01007
-0.268553 -0.168075 1.0115
-0.270421 -0.167941 1.01262
-0.272282 -0.167803 1.0137
-0.274119 -0.167656 1.01468
-0.275977 -0.167513 1.01572
-0.277859 -0.167375 1.01682
-0.279755 -0.167239 1.01795
-0.281628 -0.167094 1.01899
-0.283495 -0.166945 1.01999
-0.285401 -0.166805 1.02111
-0.287306 -0.166663 1.0222
-0.289127 -0.166494 1.02302
-0.290888 -0.166307 1.02363
-0.292599 -0.166103 1.02408
-0.294235 -0.165878 1.02428
-0.295869 -0.165652 1.02448
-0.297495 -0.165422 1.02464
-0.299093 -0.165184 1.02472
-0.300727 -0.164956 1.0249
-0.302539 -0.164774 1.02561
-0.304372 -0.164597 1.02638
-0.306444 -0.164481 1.02785
-0.30862 -0.16439 1.02961
-0.310761 -0.164287 1.03124
-0.312781 -0.164149 1.03249
-0.314865 -0.164026 1.03392
-0.316778 -0.163857 1.03484
-0.318621 -0.163669 1.03554
-0.320591 -0.16351 1.03659
-0.322534 -0.163343 1.03755
-0.324385 -0.163152 1.03824
-0.32629 -0.162973 1.03907
-0.328168 -0.162785 1.03981
-0.330061 -0.1626 1.04058
-0.331962 -0.162414 1.04137
-0.334021 -0.162265 1.04258
-0.336033 -0.162102 1.04365
-0.338217 -0.161978 1.04518
-0.199175 -0.181313 1.0181
-0.200079 -0.180778 1.01532
-0.201603 -0.180558 1.01544
-0.203033 -0.18029 1.01511
-0.20412 -0.179855 1.01324
-0.205451 -0.179542 1.0125
-0.206671 -0.179177 1.01125
-0.207781 -0.178761 1.00955
-0.208995 -0.178398 1.00832
-0.210222 -0.178043 1.00716
-0.211511 -0.177718 1.00628
-0.212845 -0.177415 1.0056
-0.21435 -0.17719 1.00566
-0.215922 -0.176994 1.006
-0.217525 -0.176811 1.00646
-0.219208 -0.176661 1.00725
-0.220976 -0.176546 1.00836
-0.222697 -0.176408 1.00927
-0.224426 -0.17627 1.01019
-0.226087 -0.176102 1.01082
-0.227656 -0.175894 1.01107
-0.229096 -0.175631 1.01079
-0.230428 -0.175325 1.01009
-0.231689 -0.17499 1.00911
-0.232859 -0.174621 1.00779
-0.233979 -0.174234 1.00629
-0.235075 -0.173839 1.00471
-0.236214 -0.173464 1.00332
-0.237379 -0.173102 1.00204
-0.238716 -0.172806 1.00142
-0.240126 -0.17254 1.00109
-0.241503 -0.172261 1.00063
-0.242958 -0.172011 1.00046
-0.244403 -0.171757 1.00025
-0.245854 -0.171506 1.00006
-0.24738 -0.171281 1.00015
-0.249027 -0.171099 1.00067
-0.25068 -0.170918 1.0012
-0.252358 -0.170744 1.00181
-0.254054 -0.170575 1.00247
-0.25569 -0.170384 1.00291
-0.257399 -0.170216 1.00359
-0.259069 -0.170033 1.00413
-0.260856 -0.169888 1.00506
-0.262678 -0.169753 1.0061
-0.264683 -0.169676 1.00774
-0.266642 -0.16958 1.00921
-0.268625 -0.16949 1.01073
-0.270549 -0.169377 1.01204
-0.272494 -0.169268 1.01339
-0.274388 -0.169141 1.01457
-0.276298 -0.169016 1.01577
-0.278179 -0.16888 1.01687
-0.28002 -0.168729 1.01781
-0.281834 -0.168567 1.01866
-0.283615 -0.168395 1.01939
-0.285463 -0.16824 1.02031
-0.287343 -0.168093 1.02133
-0.289139 -0.167919 1.02207
-0.2909 -0.167734 1.02268
-0.292635 -0.16754 1.02321
-0.294274 -0.167316 1.02343
-0.295936 -0.167099 1.02371
-0.297592 -0.166879 1.02397
-0.299193 -0.166643 1.02406
-0.300881 -0.16643 1.0244
-0.302753 -0.166267 1.0253
-0.304619 -0.1661 1.02616
-0.306723 -0.165995 1.02772
-0.308953 -0.165922 1.02964
-0.311065 -0.165814 1.03118
-0.313086 -0.165679 1.03244
-0.315143 -0.165552 1.03379
-0.317088 -0.165393 1.03479
-0.318963 -0.165214 1.03558
-0.320966 -0.165066 1.03672
-0.322939 -0.164908 1.03777
-0.324791 -0.164719 1.03845
-0.326662 -0.164532 1.03918
-0.328508 -0.164338 1.03983
-0.330431 -0.164161 1.04069
-0.332308 -0.163972 1.0414
-0.334436 -0.163841 1.0428
-0.336549 -0.163704 1.04415
-0.33888 -0.163616 1.04607
-0.201584 -0.182889 1.02103
