ply
format ascii 1.0
element vertex 1615
property float x
property float y
property float z
end_header
-0.202867 -0.0567251 0.857098
-0.204518 -0.0564364 0.857868
-0.206191 -0.056152 0.858713
-0.207805 -0.0558493 0.8593
-0.209375 -0.0555333 0.859688
-0.210884 -0.0551996 0.859812
-0.212351 -0.0548532 0.859761
-0.213799 -0.0545022 0.85963
-0.215288 -0.0541624 0.859665
-0.216764 -0.0538172 0.859641
-0.218264 -0.053479 0.859713
-0.219803 -0.0531505 0.859938
-0.221407 -0.0528362 0.86041
-0.223149 -0.0525553 0.861417
-0.224891 -0.0522722 0.862411
-0.226705 -0.0520046 0.863664
-0.228466 -0.0517218 0.864695
-0.230158 -0.0514215 0.865444
-0.231717 -0.0510884 0.865673
-0.233296 -0.0507595 0.865976
-0.234856 -0.0504258 0.866202
-0.236424 -0.0500935 0.866446
-0.238015 -0.0497651 0.866777
-0.239583 -0.0494309 0.867012
-0.241453 -0.0491592 0.868346
-0.243316 -0.048885 0.869635
-0.245321 -0.0486377 0.871419
-0.247325 -0.048386 0.873174
-0.249404 -0.0481476 0.875174
-0.251256 -0.0478604 0.876339
-0.253191 -0.0475877 0.877783
-0.255162 -0.0473196 0.879329
-0.257267 -0.047074 0.881323
-0.259339 -0.04682 0.88318
-0.26137 -0.0465544 0.884865
-0.263417 -0.0462895 0.886585
-0.265447 -0.0460185 0.888224
-0.267528 -0.0457538 0.890013
-0.269929 -0.0455427 0.892858
-0.272509 -0.0453593 0.89626
-0.275145 -0.0451796 0.899807
-0.277839 -0.0450046 0.903507
-0.280418 -0.0448046 0.90678
-0.282698 -0.0445516 0.909039
-0.28489 -0.0442795 0.910982
-0.287414 -0.0440584 0.913975
-0.178036 -0.0664978 0.877577
-0.179344 -0.0660828 0.876662
-0.180596 -0.0656476 0.875481
-0.181739 -0.0651742 0.873776
-0.182771 -0.0646627 0.87156
-0.183845 -0.0641705 0.869579
-0.184805 -0.063642 0.867084
-0.185874 -0.063155 0.865138
-0.187006 -0.0626943 0.863516
-0.188249 -0.0622737 0.862441
-0.189509 -0.0618609 0.861452
-0.190798 -0.0614597 0.860607
-0.192045 -0.0610456 0.859588
-0.193274 -0.0606263 0.858493
-0.194497 -0.0602081 0.857388
-0.195717 -0.0597898 0.85628
-0.196987 -0.0593887 0.85541
-0.198285 -0.0589978 0.854668
-0.199718 -0.0586485 0.854526
-0.201238 -0.058326 0.854761
-0.202879 -0.058038 0.855505
-0.204571 -0.0577642 0.856457
-0.206306 -0.0575005 0.857573
-0.207968 -0.0572135 0.858359
-0.209581 -0.0569102 0.858929
-0.211109 -0.0565825 0.859139
-0.212576 -0.0562367 0.859086
-0.214003 -0.0558802 0.85887
-0.21547 -0.0555351 0.858817
-0.216941 -0.0551898 0.85878
-0.218456 -0.0548563 0.858912
-0.219996 -0.0545286 0.859139
-0.221579 -0.0542106 0.859533
-0.223343 -0.0539376 0.860627
-0.225127 -0.0536673 0.861781
-0.226949 -0.0534037 0.863067
-0.228758 -0.0531345 0.86428
-0.230515 -0.0528512 0.865275
-0.232097 -0.052524 0.865593
-0.233681 -0.0521974 0.86591
-0.235246 -0.0518653 0.86615
-0.236791 -0.0515273 0.866309
-0.238334 -0.0511888 0.866454
-0.239849 -0.0508429 0.866497
-0.241621 -0.0505535 0.867468
-0.243446 -0.0502728 0.868623
-0.245353 -0.0500085 0.870051
-0.247296 -0.049749 0.871593
-0.249322 -0.0495035 0.873404
-0.251164 -0.049217 0.874544
-0.253046 -0.0489375 0.875804
-0.255065 -0.0486825 0.877523
-0.257252 -0.0484581 0.87981
-0.259418 -0.0482256 0.881993
-0.261537 -0.0479807 0.883984
-0.26367 -0.0477345 0.885994
-0.265747 -0.047476 0.887794
-0.267771 -0.0472035 0.889386
-0.270029 -0.0469719 0.891741
-0.272505 -0.0467756 0.894797
-0.275071 -0.0465905 0.898115
-0.277769 -0.0464225 0.901826
-0.280504 -0.0462562 0.905613
-0.283063 -0.0460553 0.908783
-0.285478 -0.0458244 0.911446
-0.288188 -0.0456385 0.915025
-0.292056 -0.0441679 0.923733
-0.29071 -0.0454166 0.917961
-0.181689 -0.0664614 0.871693
-0.18272 -0.0659485 0.86949
-0.183807 -0.06546 0.867589
-0.184766 -0.0649284 0.8651
-0.185831 -0.0644397 0.863156
-0.186975 -0.0639826 0.861607
-0.188199 -0.0635557 0.860453
-0.189438 -0.0631362 0.859382
-0.190719 -0.0627321 0.858516
-0.19196 -0.0623168 0.857481
-0.193183 -0.0618958 0.856373
-0.194404 -0.0614774 0.855273
-0.19564 -0.0610644 0.854253
-0.196928 -0.0606695 0.853475
-0.198261 -0.0602899 0.852899
-0.199695 -0.0599432 0.852773
-0.201252 -0.0596335 0.853172
-0.202897 -0.0593492 0.853942
-0.204607 -0.059084 0.854977
-0.206364 -0.0588293 0.856189
-0.208084 -0.0585615 0.857224
-0.209744 -0.0582735 0.857996
-0.211335 -0.0579651 0.858465
-0.212842 -0.0576318 0.858582
-0.214288 -0.0572804 0.858444
-0.215734 -0.0569288 0.858307
-0.217183 -0.0565787 0.858175
-0.218674 -0.0562387 0.858218
-0.220213 -0.055912 0.858441
-0.221779 -0.0555907 0.858771
-0.223541 -0.0553193 0.859854
-0.225325 -0.0550512 0.861008
-0.227165 -0.0547947 0.862361
-0.228983 -0.0545311 0.86361
-0.230765 -0.0542554 0.864703
-0.232395 -0.0539409 0.865199
-0.234002 -0.0536206 0.865601
-0.235568 -0.0532892 0.865845
-0.23711 -0.0529514 0.865992
-0.238648 -0.0526115 0.866118
-0.240118 -0.0522564 0.865992
-0.241815 -0.0519513 0.86669
-0.243561 -0.0516568 0.867557
-0.245403 -0.0513798 0.868752
-0.247248 -0.0511031 0.869944
-0.249199 -0.0508462 0.871497
-0.251012 -0.0505571 0.872539
-0.252865 -0.0502749 0.873703
-0.25486 -0.0500193 0.875349
-0.25712 -0.0498147 0.877893
-0.259396 -0.0496086 0.880457
-0.261631 -0.0493909 0.88285
-0.26387 -0.0491694 0.885223
-0.266024 -0.0489287 0.887279
-0.268015 -0.048654 0.888762
-0.27013 -0.0483994 0.890634
-0.272501 -0.0481891 0.893339
-0.274944 -0.0479873 0.896249
-0.277507 -0.0478029 0.899518
-0.280416 -0.0476752 0.903882
-0.283309 -0.0475378 0.908135
-0.285995 -0.0473586 0.911672
-0.288818 -0.0471981 0.915611
-0.291464 -0.0470012 0.918932
-0.295222 -0.0455112 0.927208
-0.293762 -0.0467424 0.92111
-0.181404 -0.0676524 0.868468
-0.182469 -0.0671526 0.866456
-0.183608 -0.0666838 0.864826
-0.184617 -0.0661705 0.862603
-0.185732 -0.0656987 0.860913
-0.18691 -0.0652541 0.859539
-0.188132 -0.0648267 0.858389
-0.189364 -0.0644044 0.8573
-0.190605 -0.0639884 0.856267
-0.191808 -0.0635595 0.855075
-0.19303 -0.0631391 0.853982
-0.194291 -0.0627343 0.853076
-0.195532 -0.0623234 0.852094
-0.196859 -0.0619423 0.851499
-0.198225 -0.0615748 0.851084
-0.199662 -0.0612298 0.850979
-0.20122 -0.0609235 0.851395
-0.202899 -0.0606519 0.852316
-0.204624 -0.0603935 0.853418
-0.206397 -0.0601472 0.854707
-0.208158 -0.0598948 0.855919
-0.209879 -0.0596275 0.856946
-0.211515 -0.0593334 0.857608
-0.213067 -0.0590141 0.85791
-0.214554 -0.0586746 0.857941
-0.216 -0.058324 0.857803
-0.217427 -0.0579675 0.857587
-0.218897 -0.0576225 0.857543
-0.220434 -0.0572955 0.85776
-0.221982 -0.0569704 0.858016
-0.2237 -0.0566899 0.858931
-0.225476 -0.0564229 0.860056
-0.227331 -0.0561736 0.861467
-0.229153 -0.0559128 0.862731
-0.230965 -0.0556472 0.863937
-0.232687 -0.0553564 0.864783
-0.234337 -0.0550472 0.865349
-0.235925 -0.0547217 0.865668
-0.237467 -0.0543843 0.865812
-0.239004 -0.0540448 0.865933
-0.240451 -0.0536841 0.86572
-0.242078 -0.0533649 0.866164
-0.243729 -0.0530499 0.866683
-0.24549 -0.0527581 0.86759
-0.247282 -0.0524717 0.868595
-0.249134 -0.0521962 0.869795
-0.250924 -0.0519054 0.870764
-0.252771 -0.0516246 0.871916
-0.254755 -0.0513715 0.873527
-0.257038 -0.0511768 0.876154
-0.259436 -0.0510015 0.879142
-0.261756 -0.0508049 0.881827
-0.264084 -0.0506066 0.884503
-0.26632 -0.0503859 0.886835
-0.268285 -0.0501078 0.888225
-0.270288 -0.0498354 0.889723
-0.272539 -0.0496077 0.892027
-0.274855 -0.0493874 0.894515
-0.277267 -0.0491818 0.897287
-0.280367 -0.049097 0.902277
-0.283517 -0.0490143 0.90737
-0.286515 -0.048897 0.911911
-0.289544 -0.0487778 0.916498
-0.292389 -0.0486209 0.920446
-0.29458 -0.048345 0.922264
-0.180875 -0.0687392 0.864063
-0.182101 -0.068304 0.862865
-0.183335 -0.0678725 0.861719
-0.184405 -0.0673815 0.859814
-0.185576 -0.0669322 0.858407
-0.186789 -0.0665003 0.857218
-0.187992 -0.0660666 0.855995
-0.18922 -0.0656438 0.85491
-0.190439 -0.0652197 0.853789
-0.191605 -0.0647792 0.852446
-0.192811 -0.0643538 0.851299
-0.194092 -0.0639567 0.850501
-0.195354 -0.063554 0.849631
-0.196719 -0.0631869 0.849219
-0.198142 -0.0628397 0.849066
-0.199631 -0.0625138 0.8492
-0.201226 -0.0622212 0.849783
-0.20292 -0.0619574 0.850775
-0.204642 -0.0617014 0.851872
-0.206426 -0.0614612 0.85321
-0.208204 -0.0612169 0.854498
-0.209968 -0.0609658 0.855709
-0.211672 -0.0606936 0.856653
-0.213288 -0.0603943 0.857222
-0.214819 -0.0600682 0.857431
-0.216286 -0.0597232 0.857377
-0.217713 -0.0593667 0.857162
-0.21918 -0.0590215 0.857108
-0.220716 -0.0586951 0.857319
-0.222261 -0.0583705 0.857565
-0.223918 -0.0580747 0.858238
-0.225684 -0.0578075 0.859324
-0.227533 -0.0575585 0.860711
-0.229354 -0.0573009 0.861971
-0.231177 -0.0570406 0.863219
-0.232965 -0.0567689 0.864316
-0.234621 -0.0564624 0.864897
-0.236212 -0.056138 0.86523
-0.237754 -0.0558007 0.865375
-0.239294 -0.0554632 0.865507
-0.240742 -0.0551027 0.865296
-0.242325 -0.0547741 0.865577
-0.243924 -0.0544483 0.865911
-0.245607 -0.054141 0.86654
-0.247341 -0.053843 0.867338
-0.249146 -0.0535601 0.868374
-0.25093 -0.0532712 0.869324
-0.252774 -0.0529925 0.87047
-0.254752 -0.0527409 0.872064
-0.257026 -0.0525498 0.874662
-0.259445 -0.0523845 0.877722
-0.261798 -0.0522005 0.880523
-0.264164 -0.0520152 0.883327
-0.266457 -0.05181 0.885853
-0.26845 -0.0515413 0.887338
-0.270425 -0.0512662 0.888741
-0.272591 -0.0510255 0.890761
-0.274785 -0.050787 0.892844
-0.277057 -0.0505611 0.895166
-0.280012 -0.0504582 0.89968
-0.283356 -0.0504214 0.905407
-0.286698 -0.0503751 0.911057
-0.289981 -0.0503103 0.916455
-0.293055 -0.0501992 0.921124
-0.295479 -0.0499676 0.923675
-0.298832 -0.0484154 0.930578
-0.29752 -0.0496653 0.924984
-0.180496 -0.0698748 0.860402
-0.181793 -0.0694691 0.859577
-0.18307 -0.0690564 0.858662
-0.184198 -0.0685882 0.857056
-0.185411 -0.0681554 0.855867
-0.186612 -0.0677193 0.854643
-0.187778 -0.0672728 0.85327
-0.188984 -0.0668432 0.852098
-0.190178 -0.0664114 0.850886
-0.191341 -0.0659704 0.84955
-0.192575 -0.0655568 0.848552
-0.193904 -0.0651772 0.847987
-0.195222 -0.0647948 0.847379
-0.196626 -0.064443 0.847156
-0.198086 -0.0641088 0.847175
-0.199612 -0.063797 0.847478
-0.201206 -0.063506 0.848062
-0.202899 -0.0632463 0.849061
-0.204637 -0.0629978 0.850228
-0.206439 -0.0627674 0.851648
-0.208253 -0.0625374 0.853095
-0.210056 -0.0623008 0.854471
-0.211822 -0.0620503 0.855676
-0.213487 -0.0617674 0.856442
-0.215062 -0.0614551 0.856835
-0.216552 -0.0611175 0.856874
-0.217998 -0.0607669 0.856736
-0.219464 -0.0604213 0.856677
-0.220999 -0.060095 0.856885
-0.222544 -0.0597708 0.857127
-0.224177 -0.059471 0.857709
-0.225919 -0.0591981 0.858697
-0.227742 -0.0589457 0.859985
-0.229543 -0.0586848 0.861164
-0.231366 -0.0584267 0.862413
-0.233158 -0.0581583 0.863527
-0.234816 -0.0578544 0.864118
-0.23643 -0.057537 0.864538
-0.237999 -0.0572072 0.864782
-0.239543 -0.0568715 0.86493
-0.241011 -0.0565157 0.864793
-0.242615 -0.0561927 0.865149
-0.24421 -0.0558672 0.865466
-0.245844 -0.0555492 0.865919
-0.24757 -0.0552514 0.866688
-0.249343 -0.0549635 0.867613
-0.251081 -0.0546659 0.868397
-0.252877 -0.0543789 0.869376
-0.254851 -0.0541298 0.870958
-0.25705 -0.0539278 0.873295
-0.259441 -0.0537624 0.876262
-0.261817 -0.0535882 0.879138
-0.264208 -0.0534138 0.882034
-0.266533 -0.0532206 0.884662
-0.268605 -0.0529703 0.886416
-0.270584 -0.0526992 0.887831
-0.272695 -0.0524517 0.889669
-0.274769 -0.0521937 0.891358
-0.276906 -0.051945 0.893238
-0.279672 -0.0518146 0.897139
-0.283204 -0.0518247 0.903472
-0.286807 -0.0518382 0.90997
-0.290373 -0.0518346 0.916267
-0.293722 -0.0517827 0.921802
-0.296417 -0.0516033 0.9252
-0.298362 -0.0512851 0.926196
-0.301741 -0.0497347 0.933123
-0.300343 -0.0509703 0.927291
-0.180295 -0.0710731 0.857621
-0.18162 -0.0706806 0.856953
-0.182913 -0.0702757 0.856134
-0.184082 -0.069823 0.854738
-0.185295 -0.069391 0.853571
-0.186473 -0.0689475 0.852254
-0.187629 -0.0684969 0.85085
-0.188795 -0.0680527 0.849516
-0.189988 -0.067621 0.848318
-0.191181 -0.0671918 0.847135
-0.19243 -0.0667844 0.846219
-0.193753 -0.0664044 0.845643
-0.195101 -0.0660332 0.845182
-0.196525 -0.0656895 0.845058
-0.198008 -0.0653663 0.845189
-0.199553 -0.0650629 0.845584
-0.201143 -0.0647731 0.846163
-0.202816 -0.0645099 0.847084
-0.204535 -0.0642586 0.848184
-0.206337 -0.0640324 0.849611
-0.208189 -0.0638185 0.851224
-0.210052 -0.0636049 0.852857
-0.21188 -0.0633769 0.854319
-0.213625 -0.0631204 0.855419
-0.215263 -0.0628295 0.856069
-0.216795 -0.0625049 0.85628
-0.218264 -0.0621612 0.856232
-0.219751 -0.0618218 0.856257
-0.221287 -0.0614972 0.856467
-0.222853 -0.0611796 0.856791
-0.224487 -0.0608804 0.857376
-0.226211 -0.0606044 0.858292
-0.22801 -0.0603479 0.859485
-0.229766 -0.0600767 0.860491
-0.231519 -0.059802 0.861473
-0.233284 -0.0595297 0.862486
-0.234939 -0.0592263 0.863071
-0.236556 -0.0589111 0.863503
-0.238149 -0.0585892 0.863838
-0.239735 -0.0582642 0.86414
-0.241229 -0.0579154 0.864103
-0.242858 -0.0576 0.86455
-0.244432 -0.0572701 0.864794
-0.246061 -0.0569527 0.865227
-0.24776 -0.0566503 0.8659
-0.249507 -0.0563585 0.866731
-0.251222 -0.0560573 0.86744
-0.253039 -0.0557778 0.868492
-0.25499 -0.0555261 0.869994
-0.25716 -0.0553216 0.87223
-0.25952 -0.0551553 0.875089
-0.261885 -0.0549847 0.877928
-0.264275 -0.0548139 0.880813
-0.266622 -0.0546312 0.883524
-0.268749 -0.0543967 0.88546
-0.270758 -0.0541344 0.886977
-0.27282 -0.0538804 0.888651
-0.27478 -0.0536027 0.889966
-0.276716 -0.0533178 0.891185
-0.279574 -0.0532129 0.895389
-0.283255 -0.0532635 0.902208
-0.287034 -0.0533219 0.909258
-0.290931 -0.0533917 0.916607
-0.29461 -0.0534107 0.92318
-0.297252 -0.0532259 0.926396
-0.299107 -0.0528917 0.927094
-0.301022 -0.0525668 0.927975
-0.304435 -0.0510235 0.934951
-0.302887 -0.0522316 0.928686
-0.179037 -0.0727695 0.85682
-0.180381 -0.072384 0.856243
-0.181694 -0.0719871 0.85552
-0.182948 -0.0715663 0.854529
-0.184113 -0.071112 0.853125
-0.185302 -0.0706692 0.851853
-0.186417 -0.0702009 0.850259
-0.187542 -0.0697388 0.84873
-0.188665 -0.0692789 0.847206
-0.189808 -0.0688288 0.845803
-0.19097 -0.0683887 0.844496
-0.192199 -0.0679745 0.84351
-0.193499 -0.0675879 0.842851
-0.194862 -0.0672249 0.842476
-0.196323 -0.0668969 0.842531
-0.197843 -0.0665881 0.842835
-0.19942 -0.066299 0.843383
-0.201005 -0.0660111 0.84395
-0.202671 -0.0657485 0.844851
-0.204385 -0.0654992 0.84594
-0.206188 -0.0652771 0.847381
-0.208043 -0.0650694 0.849017
-0.209945 -0.0648726 0.850818
-0.211831 -0.0646665 0.852529
-0.213657 -0.0644389 0.853963
-0.215381 -0.0641762 0.854966
-0.217017 -0.063885 0.855599
-0.218569 -0.0635665 0.855886
-0.220102 -0.0632412 0.856089
-0.221661 -0.0629233 0.856389
-0.223252 -0.0626135 0.856808
-0.224869 -0.062311 0.857321
-0.226575 -0.0620312 0.858164
-0.22831 -0.0617588 0.859108
-0.230013 -0.0614746 0.859909
-0.231711 -0.061187 0.860683
-0.233425 -0.0609028 0.861503
-0.235056 -0.060594 0.862002
-0.236689 -0.0602852 0.862498
-0.238282 -0.0599649 0.862834
-0.239894 -0.0596476 0.863235
-0.241438 -0.0593131 0.86338
-0.243095 -0.0590056 0.863932
-0.244698 -0.0586838 0.864277
-0.246351 -0.0583725 0.864795
-0.24805 -0.058072 0.865468
-0.249798 -0.0577815 0.866304
-0.251515 -0.0574819 0.867016
-0.253332 -0.0572055 0.868068
-0.255283 -0.0569563 0.869564
-0.257425 -0.056749 0.871698
-0.25973 -0.056575 0.874366
-0.262037 -0.056396 0.877005
-0.264392 -0.0562239 0.879772
-0.266716 -0.0560404 0.8824
-0.268874 -0.0558162 0.88444
-0.270913 -0.0555642 0.886061
-0.272947 -0.0553073 0.887641
-0.274841 -0.055019 0.888739
-0.276711 -0.054723 0.889744
-0.279679 -0.0546487 0.894305
-0.283472 -0.0547323 0.901475
-0.287421 -0.0548367 0.909068
-0.291513 -0.0549566 0.917023
-0.295337 -0.0550131 0.924042
-0.297897 -0.0548178 0.926986
-0.299716 -0.0544774 0.927565
-0.301595 -0.054146 0.928323
-0.303425 -0.0538057 0.928921
-0.306859 -0.0522672 0.935906
-0.305301 -0.0534714 0.92965
-0.17927 -0.0741399 0.85615
-0.180608 -0.0737519 0.855546
-0.181915 -0.073351 0.854799
-0.183126 -0.0729119 0.853602
-0.184249 -0.0724396 0.852011
-0.185379 -0.0719735 0.850472
-0.186411 -0.0714707 0.848502
-0.187492 -0.07099 0.84678
-0.188576 -0.0705146 0.8451
-0.189703 -0.0700589 0.843635
-0.190863 -0.0696171 0.842336
-0.192089 -0.0692032 0.841352
-0.193337 -0.0687985 0.840472
-0.194694 -0.0684353 0.840086
-0.196136 -0.0681021 0.840072
-0.197655 -0.0677972 0.840389
-0.199216 -0.0675051 0.840881
-0.20081 -0.0672231 0.841502
-0.202412 -0.0669422 0.842142
-0.204059 -0.0666747 0.842961
-0.205797 -0.0664362 0.844148
-0.207662 -0.0662366 0.845841
-0.209548 -0.0660399 0.847593
-0.211455 -0.0658475 0.849405
-0.213436 -0.0656731 0.851486
-0.215322 -0.0654661 0.853156
-0.217097 -0.0652203 0.854353
-0.218803 -0.0649508 0.855254
-0.220478 -0.0646695 0.856023
-0.22204 -0.0643535 0.856332
-0.223633 -0.0640442 0.856754
-0.225252 -0.0637429 0.857268
-0.226938 -0.0634585 0.858034
-0.228607 -0.0631685 0.858717
-0.230273 -0.0628752 0.859381
-0.231918 -0.062575 0.859951
-0.233562 -0.0622732 0.86051
-0.235146 -0.0619534 0.860835
-0.236756 -0.06164 0.861247
-0.238343 -0.0613193 0.861568
-0.239978 -0.0610097 0.862055
-0.241596 -0.0606955 0.862475
-0.243312 -0.0604047 0.863239
-0.245009 -0.0601078 0.863926
-0.246713 -0.0598113 0.864622
-0.248437 -0.0595182 0.865381
-0.250192 -0.0592308 0.866235
-0.251934 -0.0589387 0.86703
-0.253732 -0.0586582 0.868011
-0.255654 -0.0584053 0.869406
-0.257748 -0.0581903 0.87137
-0.259947 -0.0579954 0.873671
-0.262172 -0.0578035 0.876026
-0.264445 -0.0576168 0.878515
-0.266691 -0.0574214 0.880881
-0.268848 -0.0572017 0.882921
-0.270914 -0.0569585 0.88463
-0.272947 -0.0567044 0.886211
-0.274833 -0.0564178 0.887289
-0.276683 -0.0561204 0.888235
-0.279765 -0.0560779 0.893162
-0.283701 -0.0562042 0.900785
-0.287814 -0.0563538 0.908892
-0.291989 -0.0565033 0.917099
-0.295909 -0.0565891 0.924404
-0.298402 -0.0563839 0.927127
-0.300191 -0.0560391 0.927609
-0.302068 -0.0557092 0.92836
-0.303899 -0.0553699 0.928955
-0.305779 -0.055038 0.92969
-0.179518 -0.0755163 0.85555
-0.18087 -0.0751336 0.85502
-0.18216 -0.0747252 0.85419
-0.183355 -0.0742779 0.852925
-0.184455 -0.0737942 0.851232
-0.185527 -0.0733028 0.849427
-0.186489 -0.0727693 0.847137
-0.18753 -0.0722726 0.845245
-0.188577 -0.0717808 0.843405
-0.189665 -0.0713096 0.841776
-0.190819 -0.0708658 0.840463
-0.192054 -0.0704557 0.839533
-0.193279 -0.0700423 0.838567
-0.194617 -0.0696735 0.838107
-0.196035 -0.0693342 0.837998
-0.197533 -0.0690224 0.838235
-0.199036 -0.0687128 0.838487
-0.200573 -0.0684146 0.83888
-0.202108 -0.0681138 0.839253
-0.203684 -0.0678261 0.83979
-0.205313 -0.0675546 0.840539
-0.207109 -0.0673379 0.841962
-0.208925 -0.0671244 0.843447
-0.210768 -0.0669165 0.845021
-0.212678 -0.0667271 0.846838
-0.214763 -0.0665904 0.849334
-0.216758 -0.0664202 0.851432
-0.218713 -0.066232 0.853338
-0.22063 -0.0660291 0.85507
-0.222423 -0.0657843 0.856286
-0.224011 -0.0654759 0.856687
-0.225629 -0.0651738 0.857195
-0.22727 -0.064878 0.857781
-0.228869 -0.0645681 0.858193
-0.230505 -0.064268 0.858741
-0.232101 -0.0639552 0.859129
-0.233684 -0.0636382 0.859459
-0.235245 -0.0633129 0.859702
-0.236847 -0.0629991 0.860087
-0.238428 -0.062678 0.860392
-0.240089 -0.0623772 0.860978
-0.24176 -0.0620789 0.861594
-0.24353 -0.0618042 0.862553
-0.24528 -0.0615226 0.863427
-0.247033 -0.0612398 0.864298
-0.248785 -0.0609553 0.865153
-0.250569 -0.0606764 0.866108
-0.252336 -0.0603923 0.866989
-0.254158 -0.0601193 0.868048
-0.25608 -0.059868 0.869434
-0.258149 -0.0596496 0.871307
-0.260271 -0.0594409 0.873336
-0.262436 -0.0592375 0.875484
-0.264622 -0.0590364 0.877678
-0.266782 -0.0588251 0.879755
-0.268937 -0.0586089 0.881787
-0.27103 -0.0583754 0.883585
-0.273068 -0.0581267 0.885184
-0.274982 -0.0578481 0.886357
-0.276801 -0.0575464 0.8872
-0.280291 -0.0575999 0.893445
-0.28436 -0.0577646 0.901481
-0.288571 -0.0579476 0.909882
-0.292798 -0.0581187 0.918233
-0.296825 -0.0582381 0.925857
-0.298928 -0.0579582 0.927337
-0.300722 -0.0576147 0.92783
-0.302604 -0.0572866 0.928591
-0.30444 -0.0569481 0.929195
-0.306294 -0.0566129 0.929846
-0.309743 -0.055089 0.936817
-0.308178 -0.0562816 0.930581
-0.179782 -0.0768989 0.855031
-0.181122 -0.0765103 0.854442
-0.182389 -0.0760911 0.853509
-0.183567 -0.0756362 0.852169
-0.184634 -0.0751369 0.850322
-0.185653 -0.0746206 0.848276
-0.186593 -0.0740766 0.845899
-0.187615 -0.0735701 0.843927
-0.188628 -0.0730642 0.841945
-0.189711 -0.0725894 0.840303
-0.190874 -0.0721489 0.839042
-0.192106 -0.0717368 0.838103
-0.193294 -0.0713098 0.836984
-0.194608 -0.0709327 0.836429
-0.195995 -0.0705826 0.836197
-0.197466 -0.0702641 0.836328
-0.19891 -0.0699352 0.836337
-0.200406 -0.0696243 0.836566
-0.201874 -0.0693019 0.836668
-0.203363 -0.0689868 0.836854
-0.204858 -0.0686738 0.837061
-0.206539 -0.0684226 0.838027
-0.208258 -0.0681822 0.839139
-0.210012 -0.0679519 0.840369
-0.211826 -0.0677376 0.841826
-0.213854 -0.0675904 0.84412
-0.216081 -0.0675027 0.847169
-0.218294 -0.0674052 0.850126
-0.220471 -0.0672891 0.852894
-0.222527 -0.0671307 0.855149
-0.224362 -0.0668994 0.856511
-0.225955 -0.0665908 0.856918
-0.227554 -0.0662829 0.857341
-0.229148 -0.0659727 0.857736
-0.230781 -0.0656733 0.858274
-0.232337 -0.0653499 0.858509
-0.2339 -0.0650274 0.858766
-0.235459 -0.064703 0.858999
-0.237013 -0.0643762 0.859211
-0.238569 -0.0640495 0.859425
-0.240249 -0.063757 0.860083
-0.24195 -0.0634675 0.860807
-0.243727 -0.0631967 0.861794
-0.245527 -0.0629302 0.862846
-0.247325 -0.0626614 0.863874
-0.249108 -0.0623862 0.864836
-0.250919 -0.0621159 0.865883
-0.252739 -0.0618464 0.866945
-0.254584 -0.0615805 0.868078
-0.256487 -0.0613275 0.869393
-0.258503 -0.0610988 0.871082
-0.260569 -0.0608799 0.872917
-0.262674 -0.0606663 0.874858
-0.264774 -0.060449 0.876755
-0.266898 -0.0602333 0.878714
-0.269043 -0.0600183 0.880712
-0.271162 -0.0597943 0.8826
-0.273213 -0.0595517 0.884239
-0.275162 -0.0592836 0.885524
-0.276936 -0.0589737 0.886223
-0.280836 -0.0591274 0.893787
-0.284972 -0.0593192 0.90202
-0.289295 -0.059538 0.910761
-0.293583 -0.0597355 0.919286
-0.297698 -0.0598842 0.92717
-0.299437 -0.0595296 0.927492
-0.301264 -0.0591938 0.928085
-0.303125 -0.0588632 0.92877
-0.304969 -0.0585278 0.929397
-0.306817 -0.0581914 0.930027
-0.308695 -0.0578594 0.930736
-0.312164 -0.0563424 0.93771
-0.310535 -0.0575199 0.931323
-0.178785 -0.0787069 0.855498
-0.180098 -0.0783044 0.854771
-0.181372 -0.0778859 0.853863
-0.182616 -0.0774558 0.852819
-0.183762 -0.0769852 0.851329
-0.184826 -0.0764834 0.849478
-0.185825 -0.0759564 0.84735
-0.186748 -0.075402 0.844899
-0.187734 -0.0748788 0.84277
-0.188742 -0.0743692 0.840772
-0.189789 -0.0738784 0.838981
-0.190919 -0.0734239 0.837578
-0.192151 -0.0730128 0.836649
-0.193338 -0.0725853 0.835535
-0.194631 -0.0722 0.834896
-0.195993 -0.0718423 0.834563
-0.197434 -0.0715142 0.834576
-0.198833 -0.0711696 0.834401
-0.200304 -0.0708516 0.83453
-0.201728 -0.0705161 0.834463
-0.203169 -0.0701866 0.83446
-0.204579 -0.069845 0.834324
-0.206147 -0.069559 0.83484
-0.207711 -0.0692701 0.835331
-0.20932 -0.0689955 0.835997
-0.21097 -0.0687327 0.836813
-0.212874 -0.0685524 0.838635
-0.215273 -0.068531 0.842403
-0.217776 -0.0685358 0.846527
-0.22023 -0.0685178 0.8504
-0.222647 -0.0684793 0.854075
-0.224814 -0.0683549 0.85673
-0.226372 -0.0680362 0.856995
-0.227972 -0.0677295 0.857416
-0.229605 -0.0674321 0.857957
-0.231222 -0.0671276 0.858424
-0.232743 -0.0667939 0.858525
-0.234306 -0.0664725 0.858779
-0.235816 -0.0661343 0.858829
-0.237297 -0.0657864 0.858769
-0.238806 -0.0654472 0.858808
-0.240443 -0.0651437 0.85931
-0.242144 -0.064856 0.860037
-0.243897 -0.064581 0.860934
-0.24569 -0.0643148 0.861965
-0.24751 -0.064054 0.863073
-0.249343 -0.0637947 0.864212
-0.251212 -0.0635418 0.86546
-0.25311 -0.0632944 0.86679
-0.25498 -0.0630376 0.868008
-0.25686 -0.0627801 0.869241
-0.258827 -0.0625419 0.870753
-0.260838 -0.0623127 0.872399
-0.262861 -0.0620818 0.87406
-0.264902 -0.0618537 0.87576
-0.266947 -0.0616226 0.877449
-0.269085 -0.0614104 0.879428
-0.271208 -0.0611917 0.881329
-0.273317 -0.0609654 0.883161
-0.275327 -0.0607144 0.88465
-0.277181 -0.0604247 0.885605
-0.281114 -0.0605981 0.893266
-0.285283 -0.0608098 0.901594
-0.289651 -0.0610531 0.910459
-0.293978 -0.0612722 0.919095
-0.298132 -0.0614417 0.927088
-0.299929 -0.0611004 0.92759
-0.301824 -0.0607788 0.928388
-0.303689 -0.0604505 0.929083
-0.305534 -0.0601157 0.929706
-0.307344 -0.0597723 0.930213
-0.30915 -0.0594277 0.930697
-0.310951 -0.059081 0.931164
-0.31448 -0.0575777 0.938272
-0.312731 -0.0587286 0.931555
-0.179185 -0.0801525 0.855641
-0.18044 -0.0797227 0.854628
-0.181647 -0.0792727 0.853397
-0.182842 -0.07882 0.852127
-0.183967 -0.0783385 0.850541
-0.185013 -0.0778255 0.848614
-0.185992 -0.0772887 0.846398
-0.186893 -0.0767221 0.843857
-0.187842 -0.0761813 0.841565
-0.188828 -0.0756605 0.83948
-0.18989 -0.0751747 0.837761
-0.191022 -0.0747199 0.83638
-0.192277 -0.0743175 0.835562
-0.193485 -0.0738972 0.834544
-0.19476 -0.0735062 0.833833
-0.196084 -0.0731333 0.83334
-0.197468 -0.072785 0.833108
-0.198808 -0.0724196 0.832692
-0.200236 -0.0720871 0.832651
-0.201621 -0.0717398 0.832427
-0.203005 -0.0713904 0.832194
-0.204354 -0.0710294 0.83182
-0.205834 -0.0707153 0.831989
-0.207286 -0.0703908 0.83204
-0.208758 -0.0700723 0.832164
-0.210243 -0.0697577 0.832335
-0.211987 -0.0695304 0.833541
-0.214213 -0.0694614 0.836645
-0.216555 -0.0694254 0.840162
-0.221283 -0.0693456 0.84722
-0.223788 -0.0693395 0.851218
-0.225744 -0.0691526 0.853049
-0.227761 -0.0689806 0.85509
-0.229825 -0.0688193 0.857273
-0.231842 -0.0686383 0.859252
-0.233344 -0.0682988 0.859272
-0.234861 -0.0679628 0.859345
-0.23632 -0.0676082 0.859199
-0.237706 -0.0672335 0.858783
-0.239163 -0.0668786 0.858631
-0.240728 -0.066555 0.858872
-0.242357 -0.0662488 0.859335
-0.244012 -0.0659482 0.859883
-0.24577 -0.0656757 0.860789
-0.247606 -0.0654214 0.861957
-0.249496 -0.0651797 0.863298
-0.251451 -0.0649533 0.864848
-0.253453 -0.0647354 0.866538
-0.255398 -0.0644999 0.868009
-0.257253 -0.0642381 0.869151
-0.259164 -0.0639889 0.870471
-0.261097 -0.0637416 0.871843
-0.263064 -0.0635001 0.873313
-0.265032 -0.0632572 0.874768
-0.267001 -0.0630113 0.876204
-0.269138 -0.0628029 0.87818
-0.271285 -0.0625936 0.880163
-0.27342 -0.0623775 0.882082
-0.27549 -0.0621434 0.883764
-0.277424 -0.061875 0.884983
-0.281389 -0.062067 0.892734
-0.285586 -0.0622992 0.901141
-0.28996 -0.0625578 0.910012
-0.294325 -0.0627991 0.918753
-0.298522 -0.0629903 0.926867
-0.300387 -0.0626655 0.927582
-0.302347 -0.0623588 0.928576
-0.304245 -0.0620379 0.929371
-0.306089 -0.0617042 0.929982
-0.307893 -0.0613608 0.930465
-0.309662 -0.0610085 0.930832
-0.311404 -0.0606506 0.931113
-0.313155 -0.0602932 0.931417
-0.178312 -0.0820255 0.856723
-0.179506 -0.0815633 0.855397
-0.180741 -0.0811222 0.854287
-0.181875 -0.0806369 0.852709
-0.183003 -0.0801531 0.851124
-0.184088 -0.0796527 0.849362
-0.185127 -0.0791353 0.847408
-0.186087 -0.0785876 0.845112
-0.186987 -0.0780186 0.842576
-0.187914 -0.0774667 0.840203
-0.188894 -0.0769413 0.838099
-0.18997 -0.0764593 0.836453
-0.191105 -0.076006 0.835093
-0.192362 -0.075604 0.834291
-0.193605 -0.0751983 0.833437
-0.194881 -0.0748059 0.832735
-0.19619 -0.0744287 0.832183
-0.197554 -0.0740729 0.831871
-0.198889 -0.0737064 0.831442
-0.200278 -0.0733608 0.83124
-0.201663 -0.0730135 0.831023
-0.203047 -0.0726656 0.830799
-0.204397 -0.0723054 0.830435
-0.205802 -0.0719663 0.8303
-0.20717 -0.0716124 0.830015
-0.208534 -0.0712583 0.829716
-0.20978 -0.0708632 0.82894
-0.211262 -0.0705503 0.829114
-0.213247 -0.0704087 0.831282
-0.215357 -0.0703044 0.833912
-0.218934 -0.0693937 0.843775
-0.2175 -0.0702046 0.836631
-0.22222 -0.0701319 0.843632
-0.224609 -0.0700949 0.847171
-0.227086 -0.0700781 0.850993
-0.229627 -0.0700744 0.85501
-0.232086 -0.0700367 0.85866
-0.233964 -0.0698123 0.860088
-0.23541 -0.0694545 0.859887
-0.236793 -0.0690767 0.859452
-0.2381 -0.0686764 0.858746
-0.239462 -0.068294 0.858244
-0.240928 -0.0679419 0.858121
-0.24241 -0.0675951 0.858059
-0.243954 -0.0672651 0.858211
-0.245607 -0.0669647 0.858752
-0.247508 -0.0667325 0.860155
-0.24948 -0.0665178 0.86179
-0.251595 -0.0663382 0.863902
-0.253705 -0.0661531 0.865969
-0.255747 -0.0659453 0.867775
-0.257573 -0.0656783 0.86881
-0.259455 -0.065423 0.870027
-0.261331 -0.0651641 0.871208
-0.263268 -0.0649182 0.872573
-0.265209 -0.0646711 0.873937
-0.26715 -0.0644206 0.875279
-0.269313 -0.0642232 0.87734
-0.271481 -0.0640224 0.879391
-0.273649 -0.0638183 0.88142
-0.275747 -0.0635932 0.883189
-0.277715 -0.0633352 0.884517
-0.281273 -0.0634453 0.890945
-0.294418 -0.0642693 0.917605
-0.298716 -0.0644968 0.926026
-0.301102 -0.0642881 0.928371
-0.30304 -0.0639788 0.929294
-0.30492 -0.0636533 0.93002
-0.30673 -0.0633127 0.930522
-0.308502 -0.0629637 0.930902
-0.310209 -0.0625992 0.931076
-0.31192 -0.0622344 0.931257
-0.313668 -0.0618768 0.931547
-0.317102 -0.0603677 0.938307
-0.315426 -0.0615204 0.931858
-0.177351 -0.0838618 0.857386
-0.17858 -0.0834121 0.856216
-0.179757 -0.0829409 0.854815
-0.180973 -0.0824903 0.853616
-0.18207 -0.0819859 0.851869
-0.183174 -0.0814889 0.850176
-0.184221 -0.0809702 0.848241
-0.185239 -0.0804411 0.846199
-0.18618 -0.0798829 0.843828
-0.187079 -0.079311 0.841295
-0.187991 -0.0787503 0.838861
-0.188968 -0.078222 0.836756
-0.190056 -0.0777446 0.835177
-0.191207 -0.0772969 0.833898
-0.192467 -0.0768961 0.833117
-0.193744 -0.0765038 0.832416
-0.195035 -0.0761176 0.831783
-0.196342 -0.0757399 0.831228
-0.197688 -0.0753772 0.830847
-0.199022 -0.0750107 0.830413
-0.20039 -0.0746577 0.830127
-0.201756 -0.074304 0.829834
-0.203121 -0.0739502 0.82954
-0.204471 -0.0735911 0.829183
-0.205856 -0.073245 0.828974
-0.207203 -0.0728845 0.828607
-0.208527 -0.0725161 0.828149
-0.209768 -0.0721194 0.827365
-0.211002 -0.0717217 0.826555
-0.212688 -0.0714818 0.827551
-0.214468 -0.071271 0.828899
-0.216258 -0.0710616 0.830261
-0.219756 -0.0701381 0.839753
-0.218175 -0.0708916 0.832101
-0.22634 -0.0711409 0.846645
-0.229389 -0.07131 0.852599
-0.232293 -0.071422 0.857926
-0.234574 -0.0713268 0.860858
-0.235924 -0.0709382 0.860296
-0.237235 -0.0705375 0.85959
-0.238427 -0.0701007 0.858459
-0.239624 -0.0696685 0.857357
-0.240894 -0.0692589 0.856529
-0.242195 -0.0688595 0.855817
-0.243603 -0.0684921 0.855501
-0.24522 -0.0681856 0.855923
-0.247264 -0.0679987 0.857845
-0.249416 -0.0678381 0.860118
-0.251718 -0.0677148 0.862888
-0.253953 -0.0675686 0.865387
-0.256046 -0.0673786 0.867362
-0.25782 -0.0670983 0.868221
-0.259652 -0.0668333 0.869268
-0.261495 -0.0665671 0.870331
-0.263376 -0.0663099 0.871514
-0.265309 -0.0660632 0.872849
-0.267272 -0.0658218 0.874267
-0.269436 -0.0656282 0.876332
-0.271605 -0.0654327 0.878386
-0.273826 -0.0652453 0.880582
-0.275953 -0.0650306 0.882447
-0.277956 -0.0647843 0.88389
-0.2811 -0.0648054 0.888977
-0.298231 -0.0658472 0.923057
-0.301203 -0.0657771 0.927242
-0.303624 -0.0655773 0.929664
-0.305476 -0.0652471 0.9303
-0.307256 -0.0649005 0.930707
-0.309029 -0.0645512 0.931083
-0.310706 -0.0641807 0.931164
-0.312417 -0.0638155 0.931337
-0.314163 -0.063459 0.931619
-0.315949 -0.0631087 0.932011
-0.319423 -0.06161 0.938842
-0.317743 -0.0627593 0.932422
-0.178793 -0.0847726 0.855443
-0.179962 -0.0842955 0.854007
-0.18117 -0.0838403 0.852776
-0.18224 -0.0833215 0.850905
-0.183308 -0.0828061 0.84905
-0.184334 -0.0822761 0.847025
-0.185349 -0.0817448 0.844981
-0.186291 -0.0811844 0.842624
-0.187211 -0.0806191 0.840201
-0.18814 -0.0800632 0.837854
-0.189134 -0.0795402 0.835834
-0.190206 -0.079055 0.834186
-0.19134 -0.0785981 0.832838
-0.19258 -0.0781896 0.831976
-0.193869 -0.0778022 0.831335
-0.195159 -0.0774159 0.830704
-0.196484 -0.0770449 0.830233
-0.197831 -0.0766836 0.829856
-0.199161 -0.0763155 0.829415
-0.200507 -0.0759545 0.829038
-0.20185 -0.0755922 0.828656
-0.203195 -0.0752315 0.82828
-0.204524 -0.0748648 0.827846
-0.205906 -0.0745187 0.827631
-0.207234 -0.074152 0.827193
-0.208537 -0.0737772 0.826658
-0.209757 -0.073373 0.825796
-0.210987 -0.0729732 0.824984
-0.212386 -0.0726356 0.824846
-0.213862 -0.0723231 0.825011
-0.215328 -0.0720075 0.825135
-0.216929 -0.0717367 0.825772
-0.220541 -0.0708665 0.835642
-0.218946 -0.0716054 0.828006
-0.228664 -0.0723813 0.848355
-0.232026 -0.072653 0.855418
-0.234758 -0.0727098 0.860038
-0.236438 -0.0724239 0.8607
-0.237611 -0.0719789 0.859484
-0.238623 -0.0714859 0.857694
-0.239623 -0.0709912 0.855879
-0.240691 -0.0705209 0.854326
-0.241803 -0.070066 0.852952
-0.243105 -0.0696688 0.852271
-0.244652 -0.0693455 0.852461
-0.246844 -0.0692069 0.854917
-0.249201 -0.0691112 0.857924
-0.251694 -0.0690489 0.861361
-0.254085 -0.0689508 0.864403
-0.25636 -0.0688153 0.867006
-0.258107 -0.06853 0.867771
-0.259887 -0.0682517 0.868637
-0.261704 -0.0679821 0.869613
-0.263533 -0.0677131 0.870616
-0.265436 -0.0674615 0.871852
-0.267374 -0.0672166 0.873186
-0.269535 -0.0670263 0.875242
-0.27171 -0.0668356 0.877316
-0.273983 -0.0666657 0.879685
-0.276142 -0.0664634 0.881651
-0.278226 -0.0662385 0.883355
-0.28092 -0.0661592 0.886991
-0.284892 -0.0649714 0.896075
-0.284205 -0.066216 0.892469
-0.297082 -0.0670343 0.91801
-0.300674 -0.0671179 0.924149
-0.303651 -0.067051 0.928306
-0.306041 -0.0668448 0.930607
-0.30782 -0.0664981 0.931002
-0.309559 -0.0661413 0.931271
-0.311203 -0.065764 0.931244
-0.312911 -0.0653997 0.931411
-0.314659 -0.0650427 0.931693
-0.316482 -0.0647011 0.93219
-0.318282 -0.0643532 0.932614
-0.321715 -0.0628494 0.939278
-0.32008 -0.0640045 0.933026
-0.180111 -0.0856222 0.852933
-0.181294 -0.0851538 0.85159
-0.182382 -0.0846427 0.849811
-0.183441 -0.0841214 0.847925
-0.184447 -0.0835795 0.845819
-0.185463 -0.0830463 0.843783
-0.186423 -0.0824926 0.84152
-0.187363 -0.0819348 0.839202
-0.188312 -0.0813842 0.836952
-0.189324 -0.0808669 0.835019
-0.190394 -0.0803795 0.83337
-0.191527 -0.0799211 0.832023
-0.192765 -0.079511 0.831153
-0.194054 -0.079123 0.830517
-0.195342 -0.0787366 0.829882
-0.196651 -0.0783589 0.829346
-0.19798 -0.0779899 0.828897
-0.19929 -0.0776145 0.828373
-0.200612 -0.0772443 0.827905
-0.201914 -0.0768667 0.827354
-0.203235 -0.0764971 0.826887
-0.204522 -0.076115 0.826287
-0.205881 -0.075761 0.825985
-0.207205 -0.0753943 0.825539
-0.208507 -0.0750201 0.82501
-0.209746 -0.074623 0.824233
-0.21101 -0.0742358 0.823566
-0.212163 -0.0738106 0.822464
-0.213353 -0.0733997 0.821518
-0.214541 -0.0729894 0.820576
-0.215788 -0.0726011 0.819872
-0.217411 -0.0723435 0.820621
-0.231131 -0.073671 0.850563
-0.234349 -0.0738976 0.857013
-0.236404 -0.0737369 0.859077
-0.23789 -0.0733907 0.859018
-0.238732 -0.0728416 0.856611
-0.239577 -0.0722973 0.854238
-0.240477 -0.071774 0.852095
-0.241411 -0.0712648 0.850094
-0.242613 -0.0708391 0.849073
-0.244116 -0.070505 0.849125
-0.246319 -0.0703772 0.851634
-0.248806 -0.0703274 0.855102
-0.251455 -0.0703168 0.859092
-0.253983 -0.0702655 0.86261
-0.256429 -0.070184 0.865806
-0.258293 -0.0699331 0.866973
-0.26007 -0.0696558 0.867826
-0.261886 -0.0693881 0.868801
-0.263708 -0.0691189 0.869781
-0.265587 -0.0688641 0.870942
-0.26755 -0.0686281 0.872357
-0.269691 -0.0684367 0.874343
-0.271893 -0.0682567 0.876505
-0.27419 -0.0680979 0.878948
-0.27638 -0.0679067 0.881016
-0.278499 -0.0676939 0.882829
-0.28081 -0.0675258 0.88523
-0.283588 -0.0674678 0.889094
-0.296569 -0.0683586 0.914968
-0.300732 -0.0685894 0.922892
-0.304231 -0.0686511 0.928665
-0.306597 -0.0684425 0.930882
-0.308341 -0.068088 0.931165
-0.310075 -0.0677312 0.931417
-0.311751 -0.0673608 0.931484
-0.313466 -0.0669971 0.931665
-0.315219 -0.0666424 0.931957
-0.317079 -0.0663085 0.932561
-0.318816 -0.0659488 0.932791
-0.320613 -0.0656 0.933195
-0.181028 -0.0873282 0.855561
-0.181725 -0.0866164 0.851873
-0.182515 -0.0859574 0.848681
-0.183562 -0.0854287 0.846744
-0.184545 -0.0848737 0.844541
-0.185575 -0.0843458 0.842581
-0.18654 -0.083792 0.840356
-0.187518 -0.0832489 0.838213
-0.188518 -0.0827198 0.836205
-0.189564 -0.0822154 0.834431
-0.190618 -0.0817185 0.832715
-0.191765 -0.0812656 0.831435
-0.192982 -0.0808457 0.830477
-0.19427 -0.0804569 0.829838
-0.195562 -0.0800713 0.829222
-0.196891 -0.0797022 0.828773
-0.198219 -0.079333 0.828323
-0.199525 -0.0789549 0.827783
-0.200808 -0.0785689 0.827153
-0.202069 -0.078175 0.826433
-0.203332 -0.0777822 0.825733
-0.204575 -0.0773835 0.824957
-0.205892 -0.0770143 0.824489
-0.207191 -0.0766387 0.823953
-0.208476 -0.0762581 0.823363
-0.209732 -0.0758681 0.822663
-0.211018 -0.0754897 0.822091
-0.212228 -0.0750844 0.821223
-0.213479 -0.0746961 0.820525
-0.214753 -0.0743157 0.819921
-0.216065 -0.07395 0.819472
-0.217339 -0.0735722 0.818877
-0.220138 -0.0724591 0.825575
-0.219613 -0.0735406 0.822105
-0.232926 -0.0747421 0.850228
-0.23538 -0.0747218 0.853803
-0.237199 -0.0744877 0.854998
-0.238303 -0.0740228 0.853572
-0.239346 -0.073541 0.851937
-0.240117 -0.0729759 0.849342
-0.240978 -0.0724433 0.847099
-0.242176 -0.0720176 0.846078
-0.243653 -0.071679 0.846053
-0.245905 -0.0715717 0.848747
-0.24852 -0.0715678 0.852672
-0.251304 -0.0716065 0.857135
-0.253952 -0.0715959 0.86107
-0.25653 -0.0715587 0.864718
-0.258451 -0.0713266 0.866079
-0.260201 -0.0710447 0.866847
-0.262038 -0.0707844 0.867891
-0.263862 -0.0705187 0.868881
-0.265745 -0.0702668 0.87005
-0.267734 -0.0700412 0.871556
-0.269847 -0.0698461 0.873448
-0.272016 -0.0696616 0.875503
-0.274314 -0.0695066 0.877945
-0.276531 -0.0693267 0.8801
-0.278661 -0.0691208 0.881947
-0.280644 -0.0688741 0.883302
-0.282966 -0.0687095 0.885714
-0.300296 -0.0699393 0.920097
-0.304374 -0.0701504 0.927668
-0.307207 -0.0700559 0.931323
-0.308915 -0.0696935 0.931493
-0.310617 -0.0693292 0.931639
-0.312266 -0.068952 0.931619
-0.313957 -0.0685839 0.931724
-0.315716 -0.0682298 0.93203
-0.317574 -0.0678975 0.932627
-0.319276 -0.0675296 0.932751
-0.321068 -0.0671806 0.933133
-0.32456 -0.0657003 0.939911
-0.322852 -0.0668282 0.933488
-0.183001 -0.088501 0.856184
-0.183349 -0.0876149 0.85087
-0.184057 -0.086915 0.847327
-0.184746 -0.0862149 0.843746
-0.185791 -0.0856926 0.841867
-0.186758 -0.0851365 0.839653
-0.187755 -0.0846001 0.837605
-0.188773 -0.0840766 0.835683
-0.18982 -0.0835706 0.833915
-0.190859 -0.0830652 0.832137
-0.192021 -0.0826173 0.830924
-0.193236 -0.0821953 0.829963
-0.194524 -0.0818064 0.829326
-0.195818 -0.0814215 0.828721
-0.197148 -0.081052 0.828279
-0.198457 -0.0806743 0.827745
-0.199723 -0.0802802 0.827039
-0.200966 -0.0798767 0.826244
-0.202172 -0.07946 0.8253
-0.203392 -0.0790507 0.824429
-0.204592 -0.0786351 0.823481
-0.205882 -0.0782561 0.822914
-0.207178 -0.0778795 0.822372
-0.20848 -0.0775069 0.821862
-0.209777 -0.0771323 0.821335
-0.211104 -0.0767704 0.820929
-0.212375 -0.0763871 0.820311
-0.21367 -0.0760147 0.819786
-0.215004 -0.075656 0.819419
-0.216358 -0.0753049 0.819134
-0.217675 -0.0749411 0.818705
-0.219525 -0.0747655 0.820306
-0.222411 -0.0736802 0.827269
-0.221853 -0.074752 0.823696
-0.233842 -0.0755205 0.84665
-0.235994 -0.0754047 0.849105
-0.237393 -0.0750395 0.84879
-0.238719 -0.0746508 0.848208
-0.239719 -0.0741584 0.84646
-0.240649 -0.0736467 0.844479
-0.241892 -0.0732365 0.843634
-0.243403 -0.0729103 0.843743
-0.245683 -0.0728176 0.846542
-0.248379 -0.0728462 0.850755
-0.251224 -0.0729112 0.855429
-0.253963 -0.072936 0.859679
-0.256631 -0.0729315 0.863634
-0.258605 -0.0727184 0.865178
-0.260359 -0.072439 0.865956
-0.262219 -0.0721875 0.867079
-0.264047 -0.0719251 0.868083
-0.265957 -0.0716829 0.86934
-0.267947 -0.0714607 0.870851
-0.270004 -0.0712538 0.872558
-0.272113 -0.0710577 0.874412
-0.274371 -0.0708968 0.876727
-0.276565 -0.0707151 0.878805
-0.278726 -0.0705215 0.880755
-0.280797 -0.0702998 0.882392
-0.282703 -0.0700333 0.883483
-0.286276 -0.0687857 0.891223
-0.285534 -0.0699991 0.887481
-0.303794 -0.0714725 0.924441
-0.307173 -0.0715173 0.929782
-0.309372 -0.0712731 0.931454
-0.311073 -0.0709081 0.931597
-0.312725 -0.0705317 0.931586
-0.314422 -0.0701654 0.931704
-0.316177 -0.0698109 0.931995
-0.317998 -0.0694709 0.932475
-0.319661 -0.0690952 0.93248
-0.321416 -0.0687388 0.932758
-0.323202 -0.0683881 0.933117
-0.18426 -0.0893184 0.853413
-0.18458 -0.0884188 0.848036
-0.184937 -0.0875504 0.842907
-0.185982 -0.0870261 0.841033
-0.186949 -0.0864684 0.838828
-0.187961 -0.085936 0.836855
-0.188995 -0.0854179 0.835011
-0.190063 -0.0849201 0.833344
-0.191102 -0.0844122 0.831571
-0.192264 -0.0839627 0.83036
-0.193477 -0.0835392 0.829388
-0.194764 -0.0831493 0.828752
-0.196059 -0.0827636 0.828155
-0.19739 -0.0823948 0.827716
-0.198696 -0.0820156 0.827172
-0.199941 -0.0816117 0.826381
-0.201161 -0.0811986 0.82549
-0.202327 -0.0807648 0.824386
-0.203522 -0.0803448 0.823417
-0.204684 -0.079913 0.822317
-0.205949 -0.079525 0.821654
-0.207226 -0.0791412 0.821045
-0.208546 -0.0787762 0.82061
-0.209866 -0.078411 0.820182
-0.211235 -0.0780646 0.81995
-0.212549 -0.0776982 0.819503
-0.213884 -0.0773401 0.81914
-0.21524 -0.0769903 0.81886
-0.216615 -0.076647 0.818652
-0.21797 -0.0762962 0.818372
-0.219424 -0.0759818 0.818467
-0.22131 -0.0758186 0.820189
-0.224776 -0.0749362 0.829273
-0.223763 -0.0758511 0.824014
-0.232219 -0.0762698 0.839212
-0.234708 -0.0762788 0.842937
-0.236479 -0.0760414 0.844005
-0.238182 -0.0757801 0.844813
-0.239518 -0.0753975 0.844293
-0.240577 -0.0749266 0.842789
-0.241915 -0.0745462 0.842287
-0.243406 -0.0742145 0.842329
-0.245701 -0.0741331 0.845183
-0.248397 -0.0741692 0.849392
-0.251278 -0.0742536 0.854189
-0.254059 -0.0742982 0.858581
-0.256814 -0.0743268 0.862829
-0.258787 -0.0741165 0.864371
-0.260542 -0.0738389 0.865153
-0.262378 -0.0735834 0.866198
-0.26423 -0.0733298 0.867282
-0.266146 -0.0730923 0.868558
-0.268111 -0.0728661 0.869983
-0.270135 -0.0726526 0.871579
-0.272179 -0.0724426 0.873222
-0.274369 -0.072268 0.875321
-0.276557 -0.0720895 0.87738
-0.278746 -0.0719071 0.879421
-0.280882 -0.0717064 0.881268
-0.28285 -0.071459 0.882558
-0.285255 -0.071321 0.885208
-0.303194 -0.0727805 0.921158
-0.307167 -0.0729813 0.928327
-0.309897 -0.0728697 0.931625
-0.311568 -0.0724981 0.93167
-0.313221 -0.0721212 0.931657
-0.31488 -0.0717462 0.931662
-0.3166 -0.0713845 0.931843
-0.318347 -0.071029 0.932104
-0.320002 -0.0706506 0.932084
-0.321761 -0.0702963 0.932372
-0.323589 -0.0699565 0.93285
-0.18451 -0.0949911 0.890706
-0.183105 -0.0954032 0.891313
-0.183206 -0.0967509 0.889901
-0.184636 -0.0963541 0.889429
-0.185024 -0.0941148 0.885759
-0.18571 -0.0957682 0.887227
-0.185181 -0.0930658 0.879161
-0.186427 -0.095001 0.883328
-0.185489 -0.0911915 0.857441
-0.185426 -0.0900878 0.850246
-0.185441 -0.0890392 0.843522
-0.186197 -0.08837 0.840312
-0.187195 -0.0878243 0.838254
-0.18822 -0.087296 0.83635
-0.189255 -0.0867761 0.83451
-0.19034 -0.0862848 0.832926
-0.191381 -0.0857745 0.83116
-0.192543 -0.0853239 0.829953
-0.193754 -0.084898 0.828975
-0.195041 -0.0845081 0.828339
-0.196319 -0.0841145 0.82767
-0.197631 -0.0837365 0.827148
-0.198916 -0.0833488 0.826521
-0.200139 -0.0829342 0.825637
-0.201322 -0.082506 0.824599
-0.202464 -0.0820606 0.823398
-0.203639 -0.0816322 0.82235
-0.204795 -0.0811971 0.821235
-0.206045 -0.0808025 0.820516
-0.20734 -0.0804269 0.819984
-0.208661 -0.080062 0.819561
-0.21 -0.0797051 0.819212
-0.211372 -0.0793605 0.818994
-0.212725 -0.0790091 0.818704
-0.214082 -0.0786595 0.818428
-0.215476 -0.0783237 0.818301
-0.216871 -0.077988 0.81817
-0.218264 -0.0776521 0.818034
-0.219738 -0.0773443 0.818206
-0.221224 -0.0770412 0.818416
-0.223228 -0.0769204 0.820559
-0.22629 -0.0758998 0.82806
-0.225334 -0.0768315 0.823055
-0.233582 -0.0771895 0.837371
-0.235808 -0.077113 0.840121
-0.237887 -0.076981 0.842303
-0.239428 -0.0766677 0.842529
-0.240639 -0.0762457 0.841575
-0.242054 -0.0758906 0.841352
-0.243702 -0.0756105 0.841949
-0.246023 -0.0755411 0.844888
-0.248711 -0.075582 0.849062
-0.25159 -0.0756722 0.853841
-0.254375 -0.0757258 0.858241
-0.256964 -0.0757111 0.861914
-0.25895 -0.0755072 0.8635
-0.260725 -0.0752382 0.864351
-0.262563 -0.0749851 0.865402
-0.264441 -0.0747417 0.866571
-0.266354 -0.0745064 0.86784
-0.268293 -0.0742745 0.869175
-0.270286 -0.0740571 0.870675
-0.272267 -0.0738319 0.87211
-0.27437 -0.0736379 0.873926
-0.276519 -0.0734526 0.875863
-0.278681 -0.0732673 0.87782
-0.280824 -0.0730722 0.87969
-0.282829 -0.0728384 0.881102
-0.285281 -0.0727186 0.883903
-0.288819 -0.0714744 0.891464
-0.288412 -0.0727695 0.888792
-0.303051 -0.0741955 0.919293
-0.307169 -0.0744454 0.926903
-0.310423 -0.0744697 0.931797
-0.312091 -0.0740964 0.931827
-0.313679 -0.0737046 0.931617
-0.315333 -0.0733283 0.931601
-0.317048 -0.0729657 0.931768
-0.31876 -0.0726014 0.931921
-0.320415 -0.0722242 0.931902
-0.322239 -0.071885 0.932373
-0.324081 -0.071549 0.932891
-0.327541 -0.0700835 0.939507
-0.325901 -0.0712063 0.933338
-0.181914 -0.098514 0.889149
-0.183366 -0.0981282 0.888787
-0.184821 -0.0977454 0.888444
-0.185965 -0.0971961 0.886588
-0.187101 -0.096646 0.884721
-0.18636 -0.0938372 0.87574
-0.187532 -0.0957305 0.879513
-0.18633 -0.0917931 0.85272
-0.186017 -0.0905679 0.844467
-0.186458 -0.0897361 0.839807
-0.187473 -0.089196 0.837828
-0.188516 -0.088674 0.836005
-0.189552 -0.0881522 0.834178
-0.190639 -0.0876592 0.832599
-0.191678 -0.0871464 0.830831
-0.192837 -0.0866928 0.829612
-0.194031 -0.0862577 0.828562
-0.195301 -0.0858588 0.827852
-0.196559 -0.0854563 0.827099
-0.19785 -0.0850687 0.826489
-0.199115 -0.0846714 0.825779
-0.200301 -0.0842408 0.824744
-0.201463 -0.083802 0.823625
-0.202602 -0.0833548 0.822417
-0.203776 -0.0829255 0.821372
-0.204933 -0.08249 0.820267
-0.206204 -0.0821037 0.819635
-0.207516 -0.0817352 0.819177
-0.208839 -0.0813714 0.818761
-0.210193 -0.08102 0.818479
-0.211582 -0.0806833 0.81833
-0.212954 -0.0803394 0.818116
-0.214332 -0.0799978 0.817923
-0.215748 -0.0796709 0.817877
-0.217144 -0.0793354 0.817755
-0.218538 -0.0789997 0.817625
-0.220013 -0.0786938 0.817796
-0.221499 -0.0783907 0.818005
-0.223115 -0.0781337 0.818695
-0.224863 -0.0779219 0.819864
-0.227939 -0.0769101 0.827357
-0.227228 -0.0779256 0.823293
-0.230799 -0.0770678 0.832538
-0.229912 -0.0780341 0.827841
-0.232595 -0.078132 0.832329
-0.235186 -0.0781898 0.836423
-0.237591 -0.0781754 0.839795
-0.239331 -0.0779319 0.840746
-0.24071 -0.0775655 0.840398
-0.242241 -0.0772489 0.84059
-0.244078 -0.0770323 0.841852
-0.246556 -0.0770183 0.84533
-0.249264 -0.0770712 0.84956
-0.252123 -0.0771617 0.854257
-0.254885 -0.0772144 0.858565
-0.257293 -0.0771491 0.861611
-0.259161 -0.0769121 0.862794
-0.260936 -0.0766449 0.863645
-0.262772 -0.0763938 0.864687
-0.264646 -0.0761514 0.865843
-0.266557 -0.0759178 0.867105
-0.268471 -0.0756817 0.868361
-0.270437 -0.0754583 0.869767
-0.272362 -0.0752212 0.871024
-0.274379 -0.0750056 0.87256
-0.27649 -0.0748145 0.874376
-0.278624 -0.0746256 0.876246
-0.280766 -0.0744354 0.878114
-0.282797 -0.0742108 0.879613
-0.284845 -0.0739887 0.881145
-0.287498 -0.0739245 0.884551
-0.306655 -0.0757754 0.923903
-0.310481 -0.0759533 0.930541
-0.312615 -0.0756979 0.931986
-0.314131 -0.0752875 0.931554
-0.315719 -0.0748947 0.931341
-0.317433 -0.0745324 0.931502
-0.319151 -0.0741704 0.931669
-0.320877 -0.0738103 0.931859
-0.322742 -0.0734805 0.932448
-0.324624 -0.0731547 0.93308
-0.326447 -0.0728137 0.93353
-0.327508 -0.0708154 0.933165
-0.328088 -0.0724297 0.933451
-0.180529 -0.10022 0.887924
-0.181963 -0.099826 0.88748
-0.183403 -0.0994362 0.887069
-0.184856 -0.0990535 0.886728
-0.186269 -0.0986493 0.886188
-0.187745 -0.0982797 0.885962
-0.188562 -0.0975602 0.882592
-0.186581 -0.0920937 0.845352
-0.186719 -0.0911018 0.839301
-0.187788 -0.0905857 0.837574
-0.188851 -0.0900713 0.835842
-0.189887 -0.0895468 0.834016
-0.190956 -0.0890424 0.832359
-0.191993 -0.0885266 0.830581
-0.193132 -0.0880622 0.829278
-0.194325 -0.0876248 0.828222
-0.19556 -0.0872092 0.827361
-0.196797 -0.0867966 0.826518
-0.198047 -0.0863906 0.825741
-0.199288 -0.0859822 0.824932
-0.200438 -0.085535 0.823752
-0.2016 -0.085095 0.822632
-0.202739 -0.0846476 0.821433
-0.203948 -0.084232 0.820538
-0.205111 -0.0837983 0.81946
-0.206402 -0.0834202 0.818914
-0.207716 -0.0830525 0.818467
-0.209034 -0.0826866 0.818034
-0.210386 -0.0823346 0.817745
-0.211791 -0.0820049 0.817662
-0.213183 -0.0816687 0.817528
-0.214582 -0.0813359 0.817416
-0.216039 -0.0810252 0.817532
-0.217457 -0.0806985 0.817493
-0.218893 -0.0803781 0.817517
-0.22039 -0.08008 0.817771
-0.221896 -0.0797848 0.818055
-0.223515 -0.0795304 0.818748
-0.225266 -0.079321 0.819923
-0.227323 -0.0792197 0.822209
-0.229848 -0.0792788 0.826172
-0.232439 -0.0793534 0.830326
-0.234938 -0.0793871 0.83409
-0.23731 -0.0793692 0.837348
-0.239339 -0.0792268 0.839339
-0.240855 -0.0789078 0.839485
