ply
format ascii 1.0
element vertex 1636
property float x
property float y
property float z
end_header
0.0178822 0.0238863 0.807911
0.0191654 0.0246732 0.807952
0.0204486 0.02546 0.807993
0.0217348 0.0262494 0.808122
0.0230155 0.0270343 0.808091
0.0243087 0.0278292 0.808398
0.0256132 0.0286334 0.80899
0.0269211 0.02944 0.809625
0.0282304 0.0302474 0.810254
0.0295646 0.0310743 0.811432
0.0308996 0.0319013 0.812551
0.0322284 0.0327227 0.813462
0.0335602 0.0335462 0.81439
0.0348872 0.0343656 0.815164
0.0361977 0.035172 0.815561
0.0375044 0.0359753 0.815865
0.0388129 0.0367798 0.816188
0.0401225 0.0375851 0.816516
0.0414275 0.0383868 0.816746
0.0427317 0.0391879 0.816954
0.0440166 0.0399743 0.816819
0.0453214 0.0407758 0.817029
0.0466289 0.0415791 0.817273
0.047949 0.0423917 0.817713
0.0492817 0.0432134 0.818332
0.0506329 0.0440484 0.819207
0.0519764 0.0448774 0.81993
0.0533395 0.0457206 0.820916
0.0546998 0.0465613 0.82182
0.0560439 0.0473902 0.822462
0.0573935 0.0482228 0.823154
0.0587248 0.049042 0.823576
0.0600646 0.0498673 0.824093
0.0614066 0.050694 0.824623
0.0627495 0.0515212 0.825152
0.0640794 0.0523391 0.825494
0.0654283 0.0531701 0.826057
0.0667735 0.0539986 0.82656
0.0681301 0.054835 0.827185
0.0694988 0.0556797 0.827931
0.0709056 0.0565511 0.829101
0.0723029 0.0574154 0.830119
0.0737206 0.0582938 0.831332
0.0751501 0.0591801 0.832645
0.0765759 0.0600636 0.833871
0.0779879 0.0609371 0.834915
0.0794691 0.0618584 0.836656
0.080972 0.0627945 0.838576
0.0824607 0.0637203 0.840296
0.0839403 0.0646393 0.841874
0.0854114 0.0655523 0.843321
0.0867892 0.0664007 0.843821
-0.0344417 -0.00636308 0.81349
-0.0331212 -0.0055628 0.812555
-0.0318115 -0.00476612 0.811929
-0.0305091 -0.00397184 0.811521
-0.0292229 -0.00318117 0.811757
-0.0279422 -0.00239119 0.812279
-0.0266584 -0.0016002 0.812711
-0.0253823 -0.000809365 0.813619
-0.0241028 -1.68497e-05 0.814464
-0.0228205 0.000777087 0.81529
-0.0215361 0.00157228 0.816124
-0.0202466 0.00236858 0.816732
-0.0189486 0.00316429 0.816761
-0.0176476 0.00395902 0.816482
-0.0163431 0.00475092 0.815692
-0.0150371 0.00553851 0.814371
-0.0137341 0.00632282 0.812893
-0.012433 0.00710055 0.810864
-0.0111381 0.00787521 0.808906
-0.00984891 0.00864602 0.80691
-0.00856554 0.00941855 0.805457
-0.00728599 0.0101924 0.804386
-0.00600829 0.0109696 0.803783
-0.00473265 0.0117451 0.803131
-0.00345509 0.0125283 0.80316
-0.00217824 0.0133107 0.803126
-0.000899136 0.014097 0.803366
0.00038052 0.0148835 0.803602
0.0016626 0.0156732 0.804
0.00294006 0.0164558 0.803961
0.00422064 0.0172425 0.804156
0.00549789 0.0180248 0.804108
0.00677922 0.0188123 0.80432
0.00806141 0.0196002 0.804546
0.00934612 0.0203909 0.804875
0.0106332 0.0211835 0.805271
0.0119252 0.0219811 0.805847
0.0132174 0.0227781 0.806362
0.0145115 0.0235763 0.806893
0.015806 0.0243746 0.807394
0.0170964 0.0251684 0.807701
0.018382 0.0259575 0.807823
0.0196652 0.0267443 0.807864
0.0209514 0.027534 0.807996
0.022235 0.0283213 0.80805
0.0235283 0.0291169 0.808365
0.0248379 0.0299266 0.809099
0.0261523 0.0307401 0.809906
0.0274657 0.0315523 0.810638
0.0287978 0.0323796 0.811769
0.0301324 0.0332084 0.812888
0.0314532 0.0340251 0.813624
0.0327759 0.0348428 0.814357
0.034098 0.0356598 0.815037
0.0354084 0.0364667 0.815438
0.0367155 0.0372709 0.815754
0.0380246 0.0380766 0.816094
0.0393304 0.0388794 0.816354
0.0406298 0.039677 0.816484
0.0419271 0.040473 0.816573
0.0432054 0.0412543 0.816332
0.0445093 0.0420553 0.816535
0.0458216 0.0428629 0.816871
0.047142 0.0436765 0.817326
0.048479 0.0445028 0.818025
0.0498342 0.0453426 0.818978
0.0511826 0.0461769 0.81979
0.052547 0.0470229 0.820801
0.053913 0.0478699 0.821806
0.0552561 0.0486992 0.822437
0.0566108 0.0495369 0.823205
0.0579418 0.0503567 0.823623
0.0592811 0.0511826 0.824141
0.0606228 0.05201 0.824667
0.0619662 0.0528385 0.825195
0.0632882 0.0536511 0.825444
0.0646309 0.0544788 0.825933
0.0659757 0.0553079 0.826438
0.0673246 0.0561399 0.826982
0.0686844 0.0569796 0.827624
0.0700727 0.05784 0.828594
0.0714504 0.058692 0.829396
0.0728401 0.0595527 0.830316
0.0742571 0.0604328 0.831516
0.0756717 0.0613107 0.832649
0.0770804 0.0621842 0.833685
0.0785584 0.0631071 0.835425
0.0800653 0.0640499 0.837422
0.0815502 0.0649766 0.83913
0.0830448 0.0659097 0.840889
0.0845325 0.0668373 0.842528
0.0859412 0.0677086 0.843348
-0.0366187 -0.00588371 0.816315
-0.0352917 -0.00508135 0.815383
-0.0339747 -0.00428215 0.814706
-0.0326638 -0.00348502 0.81418
-0.0313594 -0.00268951 0.813845
-0.0300674 -0.00189605 0.813978
-0.028781 -0.00110317 0.814377
-0.0274919 -0.000309406 0.814695
-0.02621 0.000484602 0.815419
-0.0249238 0.00127978 0.816015
-0.0236381 0.00207619 0.816736
-0.022348 0.00287335 0.817299
-0.0210507 0.00367019 0.817455
-0.019747 0.00446511 0.817112
-0.0184398 0.00525752 0.816368
-0.0171301 0.00604551 0.815111
-0.0158203 0.00682823 0.813403
-0.0145159 0.00760816 0.811736
-0.0132145 0.00838185 0.809689
-0.0119197 0.00915373 0.807835
-0.0106305 0.00992271 0.806027
-0.0093471 0.0106945 0.804767
-0.00806732 0.0114672 0.803783
-0.00679001 0.012242 0.803088
-0.00551552 0.0130122 0.802162
-0.00424063 0.0137902 0.801882
-0.00296608 0.0145694 0.801716
-0.00168827 0.0153564 0.802053
-0.000409192 0.0161448 0.802437
0.000874144 0.0169393 0.803123
0.00215384 0.0177261 0.803352
0.00343461 0.0185142 0.803626
0.00471132 0.0192961 0.803579
0.00599364 0.0200855 0.80389
0.00727728 0.0208762 0.804234
0.00856326 0.0216692 0.804652
0.00984987 0.0224623 0.805051
0.0111394 0.0232582 0.805533
0.0124305 0.0240553 0.806033
0.0137218 0.0248519 0.806484
0.0150157 0.0256508 0.806992
0.016308 0.0264474 0.807394
0.0175935 0.0272368 0.807525
0.0188765 0.0280235 0.807566
0.0201648 0.0288155 0.807774
0.0214484 0.0296027 0.807827
0.022738 0.0303956 0.80805
0.0240438 0.0312035 0.808703
0.0253566 0.0320173 0.809496
0.0266732 0.0328339 0.810334
0.0280023 0.0336612 0.811423
0.0293367 0.0344922 0.812565
0.0306634 0.0353157 0.813457
0.031984 0.0361332 0.81416
0.0333014 0.0369474 0.814751
0.0346148 0.0377579 0.815228
0.0359302 0.0385698 0.815719
0.0372447 0.0393806 0.816168
0.0385467 0.0401807 0.816352
0.0398414 0.0409746 0.816394
0.0411333 0.0417661 0.816384
0.0424056 0.0425417 0.81603
0.0437046 0.0433393 0.816157
0.0450211 0.0441509 0.816574
0.0463512 0.0449734 0.817199
0.0476932 0.045805 0.817988
0.0490535 0.0466507 0.81903
0.0504082 0.0474915 0.819944
0.0517715 0.0483389 0.820955
0.0531375 0.0491879 0.82196
0.0544856 0.0500222 0.822667
0.0558404 0.0508615 0.823437
0.0571719 0.0516823 0.823859
0.0585123 0.0525099 0.824384
0.0598461 0.0533323 0.824811
0.0611824 0.0541562 0.825242
0.0625036 0.0549687 0.825483
0.0638472 0.0557981 0.825988
0.0651929 0.0566287 0.826508
0.0665436 0.057463 0.827063
0.0679009 0.0583021 0.827685
0.0692732 0.0591522 0.828468
0.0706334 0.0599929 0.829078
0.0720043 0.0608414 0.829795
0.0734098 0.0617155 0.830882
0.0748134 0.0625877 0.831916
0.0762205 0.0634621 0.832948
0.0776869 0.0643799 0.834597
0.0791901 0.0653242 0.836572
0.0806633 0.0662459 0.838189
0.082147 0.0671747 0.839859
0.0836435 0.0681123 0.841621
0.0850806 0.069006 0.842737
-0.0361276 -0.00379089 0.816696
-0.0348121 -0.00299218 0.816166
-0.0335032 -0.0021949 0.81581
-0.0321975 -0.0013986 0.815534
-0.0309007 -0.000603291 0.81558
-0.0296143 0.000191656 0.816072
-0.0283251 0.000987371 0.81649
-0.0270366 0.00178389 0.817002
-0.0257468 0.0025812 0.817512
-0.0244573 0.00337969 0.818122
-0.0231593 0.00417748 0.8183
-0.0218539 0.00497343 0.818009
-0.0205448 0.00576676 0.817361
-0.0192317 0.00655587 0.816227
-0.0179168 0.00733921 0.814582
-0.0166036 0.00811664 0.812584
-0.0152978 0.00889257 0.810808
-0.0139957 0.00966275 0.808774
-0.0127011 0.0104325 0.807043
-0.0114117 0.0112005 0.805437
-0.0101282 0.0119724 0.804372
-0.00884795 0.0127449 0.803491
-0.00757028 0.0135174 0.802719
-0.00629554 0.0142843 0.801682
-0.00502212 0.0150567 0.801102
-0.00374948 0.0158316 0.80073
-0.00247385 0.0166164 0.800964
-0.0011954 0.0174065 0.80146
8.80958e-05 0.0182053 0.802359
0.00136965 0.0189973 0.802854
0.00265078 0.0197873 0.803213
0.00392831 0.0205706 0.803249
0.00521147 0.0213623 0.803648
0.00649486 0.0221535 0.804001
0.00778064 0.0229475 0.80444
0.009067 0.0237413 0.804845
0.0103538 0.024535 0.805226
0.011644 0.0253322 0.805712
0.0129323 0.0261264 0.806064
0.0142236 0.0269236 0.806501
0.0155151 0.0277205 0.806904
0.0167999 0.0285097 0.807034
0.0180823 0.0292961 0.807075
0.0193728 0.0300907 0.807368
0.0206589 0.0308808 0.80751
0.0219481 0.0316737 0.807732
0.0232529 0.0324824 0.808388
0.0245644 0.0332965 0.809168
0.0258806 0.0341147 0.81002
0.0272087 0.0349434 0.81111
0.0285387 0.0357729 0.812175
0.0298635 0.0365968 0.813051
0.0311792 0.0374113 0.813663
0.0324955 0.0382258 0.814252
0.0338086 0.0390372 0.814743
0.0351317 0.0398571 0.815412
0.0364495 0.0406719 0.815941
0.0377558 0.0414761 0.816215
0.0390505 0.04227 0.816256
0.040342 0.0430611 0.816237
0.0416196 0.0438403 0.815972
0.0429187 0.044638 0.816099
0.0442406 0.0454552 0.816615
0.0455763 0.0462834 0.817336
0.0469241 0.0471214 0.818224
0.0482851 0.04797 0.819287
0.0496507 0.0488215 0.820372
0.0510147 0.0496712 0.821386
0.0523808 0.0505221 0.82239
0.0537231 0.051353 0.82301
0.0550714 0.0521886 0.823689
0.0563912 0.0530007 0.823945
0.0577244 0.0538236 0.824382
0.0590527 0.0546423 0.824723
0.0603858 0.0554648 0.825134
0.0617139 0.056283 0.825453
0.0630638 0.0571182 0.82605
0.0644111 0.0579512 0.826586
0.0657614 0.0587862 0.827141
0.0671245 0.0596309 0.827839
0.0684895 0.0604768 0.828533
0.0698421 0.0613129 0.829062
0.0712055 0.062157 0.829693
0.0726005 0.0630251 0.830673
0.0739853 0.063885 0.831505
0.0753823 0.0647539 0.832441
0.0768388 0.0656676 0.834002
0.0783309 0.0666078 0.835888
0.0798015 0.0675307 0.837493
0.08129 0.0684667 0.839239
0.0827954 0.0694147 0.841109
0.084244 0.0703193 0.842354
-0.0369453 -0.00249397 0.817354
-0.035627 -0.00169518 0.816783
-0.0343155 -0.000897767 0.816388
-0.0330081 -0.000101274 0.816098
-0.0317171 0.000694543 0.816407
-0.0304377 0.00149129 0.817224
-0.0291509 0.00228896 0.817818
-0.0278615 0.00308755 0.818363
-0.0265696 0.00388675 0.818857
-0.0252715 0.00468565 0.819087
-0.0239639 0.00548222 0.818789
-0.022651 0.00627587 0.818096
-0.0213366 0.00706632 0.817143
-0.020017 0.00785008 0.815559
-0.0186989 0.0086287 0.813699
-0.0173838 0.00940147 0.811593
-0.0160776 0.0101739 0.809815
-0.0147753 0.0109409 0.807822
-0.0134817 0.0117107 0.806369
-0.012193 0.0124797 0.80505
-0.0109098 0.0132537 0.804263
-0.00962889 0.0140279 0.803582
-0.00835007 0.0148006 0.802897
-0.00707411 0.0155649 0.801776
-0.00580074 0.0163319 0.800925
-0.00452823 0.0171038 0.800432
-0.00325356 0.0178869 0.800564
-0.0019766 0.0186759 0.800981
-0.000693491 0.0194775 0.801973
0.000588221 0.0202719 0.802558
0.00186891 0.0210623 0.802923
0.00314734 0.0218475 0.803043
0.00443131 0.0226418 0.803531
0.00571458 0.0234338 0.803895
0.00700137 0.0242301 0.804404
0.00828724 0.0250242 0.8048
0.00957047 0.0258138 0.80501
0.0108582 0.0266089 0.805405
0.0121454 0.0274027 0.805736
0.0134339 0.0281976 0.806083
0.0147221 0.0289918 0.806388
0.0160086 0.0297833 0.8066
0.017293 0.0305721 0.806722
0.0185831 0.0313674 0.807028
0.0198749 0.0321641 0.807361
0.0211673 0.0329609 0.807683
0.0224718 0.0337705 0.808341
0.0237792 0.0345821 0.809021
0.0250901 0.0353969 0.809755
0.0264096 0.0362194 0.810653
0.0277309 0.0370428 0.811535
0.0290466 0.0378597 0.812227
0.0303605 0.0386742 0.812833
0.0316801 0.0394935 0.813528
0.0329973 0.0403101 0.814135
0.0343244 0.0411353 0.814912
0.0356452 0.0419541 0.81552
0.0369543 0.0427617 0.815865
0.0382487 0.0435554 0.815906
0.0395405 0.0443468 0.8159
0.0408284 0.0451347 0.815823
0.0421376 0.0459417 0.816134
0.0434658 0.0467653 0.81676
0.0448123 0.0476045 0.81767
0.0461766 0.0484587 0.818835
0.0475452 0.0493155 0.820012
0.0489116 0.0501699 0.821108
0.0502759 0.0510216 0.82212
0.051635 0.0518684 0.823016
0.0529661 0.0526907 0.823457
0.0543086 0.0535227 0.824052
0.0556284 0.0543352 0.824302
0.056955 0.0551532 0.824636
0.0582759 0.0559662 0.824876
0.0596022 0.0567838 0.825189
0.0609301 0.0576025 0.825508
0.062281 0.0584396 0.82611
0.063629 0.0592742 0.826667
0.0649783 0.0601094 0.82721
0.066341 0.0609551 0.827903
0.067691 0.0617904 0.828423
0.0690377 0.0626227 0.828881
0.0703914 0.0634605 0.829418
0.071785 0.0643295 0.830388
0.0731678 0.0651895 0.831208
0.0745716 0.0660658 0.832232
0.0760198 0.0669761 0.833713
0.0775012 0.0679118 0.835507
0.078967 0.0688346 0.83708
0.0804435 0.0697648 0.838724
0.0819727 0.0707351 0.840856
0.0835483 0.0717403 0.843399
-0.0364226 -0.000395152 0.816734
-0.0351153 0.000401625 0.8165
-0.0338236 0.00119807 0.816791
-0.0325438 0.00199567 0.817557
-0.0312724 0.00279538 0.818741
-0.0299891 0.00359602 0.81956
-0.0286999 0.00439738 0.820212
-0.0274 0.00519771 0.820442
-0.0260952 0.00599717 0.820441
-0.024778 0.00679188 0.819746
-0.0234564 0.00758243 0.818658
-0.0221331 0.00836824 0.817247
-0.0208067 0.00914653 0.815293
-0.0194828 0.00991865 0.813081
-0.0181656 0.010687 0.810882
-0.0168588 0.0114565 0.809118
-0.0155563 0.0122213 0.807237
-0.0142633 0.0129914 0.805981
-0.0129752 0.0137619 0.804926
-0.0116916 0.0145363 0.80424
-0.0104099 0.0153098 0.803579
-0.00913041 0.0160821 0.802915
-0.00785322 0.0168464 0.80188
-0.00657889 0.0176092 0.800874
-0.00530587 0.0183805 0.800375
-0.0040309 0.019165 0.800569
-0.00275421 0.0199541 0.800963
-0.0014718 0.0207571 0.801949
-0.000189662 0.0215544 0.80262
0.00109201 0.0223475 0.803075
0.00236976 0.0231312 0.80312
0.00365365 0.0239263 0.803604
0.00493565 0.0247164 0.803875
0.00622188 0.0255132 0.804373
0.00750607 0.0263053 0.804678
0.00878743 0.0270924 0.8048
0.0100727 0.0278852 0.805101
0.0113574 0.0286765 0.805338
0.0126447 0.029471 0.805667
0.0139302 0.0302623 0.805885
0.0152179 0.0310561 0.806167
0.0165042 0.031848 0.806382
0.017797 0.0326473 0.806794
0.0190919 0.0334483 0.807239
0.0203901 0.0342528 0.807753
0.0216945 0.0350636 0.808414
0.0229981 0.0358725 0.808997
0.0243038 0.0366829 0.809596
0.0256117 0.037495 0.810209
0.0269202 0.038307 0.810799
0.0282336 0.0391233 0.811466
0.0295495 0.0399418 0.812155
0.0308725 0.0407665 0.812963
0.0321942 0.041589 0.813691
0.033525 0.0424198 0.81457
0.0348408 0.0432352 0.815093
0.0361444 0.0440381 0.815339
0.0374425 0.0448357 0.815464
0.0387398 0.0456323 0.81557
0.0400384 0.0464301 0.815697
0.0413631 0.0472521 0.816289
0.0427072 0.0480914 0.817199
0.0440601 0.0489383 0.818219
0.0454364 0.0498055 0.819584
0.0468105 0.0506697 0.820851
0.0481731 0.0515225 0.821876
0.0495317 0.0523708 0.822789
0.0508845 0.0532137 0.823589
0.0522091 0.0540311 0.823925
0.0535393 0.0548531 0.824323
0.0548573 0.0556644 0.824543
0.0561771 0.0564773 0.824783
0.0574914 0.057285 0.824928
0.058811 0.0580973 0.825148
0.0601453 0.0589219 0.825552
0.0614896 0.0597547 0.826081
0.0628387 0.0605911 0.826643
0.0641868 0.0614266 0.827181
0.0655484 0.0622727 0.827863
0.0668899 0.063102 0.828285
0.0682431 0.0639405 0.828825
0.0695971 0.0647796 0.829366
0.0709906 0.0656504 0.830342
0.0723726 0.0665116 0.831161
0.0737762 0.0673897 0.832193
0.0752073 0.0682894 0.833497
0.0766776 0.0692198 0.835186
0.0781393 0.0701426 0.836738
0.0796125 0.0710737 0.838363
0.081194 0.0720902 0.841057
0.082879 0.0731872 0.844734
-0.0321235 0.00410609 0.820769
-0.0308375 0.00490969 0.821579
-0.0295415 0.00571282 0.822052
-0.0282326 0.00651337 0.821986
-0.0269198 0.00731226 0.821712
-0.0255944 0.0081048 0.820724
-0.0242635 0.00889121 0.81925
-0.0229319 0.00967193 0.817463
-0.0215978 0.0104437 0.815141
-0.0202697 0.0112105 0.812749
-0.0189496 0.0119743 0.810455
-0.0176419 0.0127411 0.80871
-0.0163397 0.0135056 0.80701
-0.0150466 0.0142752 0.805858
-0.0137584 0.0150469 0.804969
-0.0124742 0.0158217 0.804367
-0.0111919 0.0165959 0.803789
-0.00991118 0.0173676 0.803131
-0.00863252 0.0181339 0.802263
-0.00735659 0.0188977 0.801354
-0.00608214 0.0196691 0.800877
-0.00480671 0.0204528 0.800999
-0.00352951 0.0212428 0.801386
-0.00224785 0.0220454 0.802277
-0.000967014 0.0228396 0.802773
0.000314651 0.0236337 0.803229
0.0015929 0.0244175 0.803271
0.0028757 0.0252114 0.803679
0.00415633 0.0259992 0.803849
0.00544219 0.0267963 0.804334
0.0067247 0.0275862 0.80455
0.00800596 0.0283735 0.804672
0.0092908 0.0291663 0.804963
0.0105753 0.0299577 0.805198
0.0118621 0.0307524 0.805518
0.0131477 0.0315444 0.80575
0.0144353 0.0323386 0.806035
0.0157218 0.0331311 0.806258
0.0170146 0.0339315 0.806684
0.0183117 0.0347364 0.807215
0.0196132 0.0355458 0.80784
0.0209151 0.0363549 0.808429
0.0222154 0.0371611 0.808924
0.0235164 0.0379676 0.809406
0.0248129 0.038768 0.809727
0.0261097 0.0395685 0.810039
0.0274175 0.0403809 0.810606
0.0287283 0.0411955 0.811205
0.0300461 0.042017 0.811934
0.031374 0.0428483 0.812845
0.0327073 0.0436842 0.813822
0.034026 0.044504 0.814431
0.0353367 0.0453148 0.81484
0.0366468 0.0461249 0.815219
0.0379498 0.0469274 0.81544
0.0392591 0.047736 0.815771
0.0405943 0.0485693 0.816561
0.041944 0.0494159 0.817574
0.0433027 0.0502701 0.818696
0.0446843 0.0511451 0.820156
0.0460645 0.0520174 0.821526
0.0474274 0.0528725 0.822553
0.0487847 0.0537213 0.823447
0.0501311 0.0545596 0.824131
0.0514495 0.0553716 0.824358
0.0527674 0.0561831 0.824574
0.0540796 0.0569895 0.824701
0.0553925 0.0577963 0.824833
0.0567002 0.0585984 0.824885
0.0580131 0.0594052 0.825017
0.0593539 0.0602361 0.825506
0.0606983 0.0610701 0.826041
0.0620468 0.0619073 0.826605
0.0633946 0.0627435 0.827141
0.0647544 0.0635895 0.827808
0.0660811 0.0644068 0.828044
0.0674311 0.065244 0.82856
0.068784 0.0660832 0.829097
0.0701785 0.0669569 0.830094
0.0715618 0.0678208 0.830935
0.0729795 0.0687128 0.83214
0.0744013 0.0696075 0.833352
0.0758682 0.0705388 0.835021
0.0773274 0.0714628 0.836555
0.0788163 0.0724102 0.838365
0.0804379 0.0734649 0.841499
0.0822079 0.0746388 0.846074
-0.0329985 0.00542683 0.82355
-0.0316983 0.00623155 0.823937
-0.0303875 0.00703427 0.823926
-0.0290649 0.00783275 0.82339
-0.0277404 0.00862886 0.822684
-0.0264087 0.00941902 0.821503
-0.0250702 0.0102012 0.819756
-0.0237324 0.0109775 0.817752
-0.0223913 0.0117427 0.815144
-0.0210591 0.0125045 0.812629
-0.0197357 0.0132635 0.810237
-0.0184266 0.0140279 0.808492
-0.017124 0.0147911 0.806886
-0.0158305 0.0155606 0.805826
-0.0145413 0.016331 0.804943
-0.0132568 0.0171065 0.804414
-0.0119741 0.0178813 0.80391
-0.0106926 0.0186535 0.803321
-0.00941294 0.0194243 0.802711
-0.00813522 0.0201913 0.801989
-0.00685898 0.0209652 0.801627
-0.00558257 0.0217481 0.80168
-0.00430508 0.0225371 0.801977
-0.00302414 0.0233371 0.802689
-0.0017437 0.02413 0.803092
-0.000462384 0.0249229 0.803468
0.00081621 0.0257067 0.803498
0.00209812 0.0264988 0.803811
0.00337766 0.0272841 0.803886
0.00466206 0.0280794 0.804284
0.00594319 0.0288668 0.804415
0.00722454 0.0296545 0.804543
0.00850918 0.0304476 0.804835
0.00979516 0.0312423 0.805155
0.0110824 0.0320379 0.80549
0.0123681 0.0328307 0.805731
0.0136582 0.0336292 0.806121
0.0149447 0.0344219 0.806338
0.0162373 0.0352226 0.806755
0.0175363 0.0360314 0.807361
0.01884 0.036845 0.808063
0.0201399 0.0376527 0.80859
0.0214402 0.0384597 0.809084
0.0227353 0.0392597 0.809392
0.0240247 0.0400523 0.809524
0.0253144 0.0408451 0.809654
0.0266145 0.0416498 0.810042
0.027917 0.0424567 0.810468
0.0292295 0.0432744 0.811106
0.0305583 0.0441093 0.812078
0.0318898 0.044946 0.813054
0.0332118 0.0457709 0.813762
0.0345299 0.0465909 0.81435
0.0358525 0.0474151 0.815
0.037161 0.0482238 0.815335
0.0384848 0.0490479 0.815947
0.0398343 0.0498974 0.817012
0.0411932 0.0507552 0.818192
0.0425575 0.0516171 0.819411
0.043944 0.0524996 0.820954
0.0453194 0.0533698 0.822241
0.0466767 0.0542212 0.823168
0.048028 0.0550661 0.823965
0.0493631 0.0558944 0.82446
0.0506701 0.0566961 0.824509
0.0519874 0.0575073 0.824713
0.0532944 0.058309 0.824759
0.0546016 0.0591105 0.824805
0.0559152 0.0599181 0.824937
0.057234 0.0607303 0.825147
0.0585692 0.061557 0.825561
0.0599197 0.0623976 0.826181
0.0612678 0.0632356 0.826743
0.0626087 0.0640665 0.827189
0.0639608 0.0649071 0.827762
0.0652862 0.0657235 0.827981
0.0666287 0.0665549 0.828405
0.067981 0.0673949 0.828943
0.0693745 0.0682701 0.829945
0.0707584 0.0691362 0.830797
0.0721759 0.0700304 0.832005
0.0735952 0.0709257 0.833208
0.0750683 0.0718656 0.834958
0.0765439 0.0728067 0.836684
0.0780774 0.0737955 0.838983
0.0797499 0.0748994 0.842666
-0.0339246 0.00676664 0.82798
-0.032584 0.00756638 0.827071
-0.0312396 0.00836228 0.825907
-0.0299 0.00915655 0.824797
-0.0285628 0.00994842 0.823645
-0.0272267 0.0107369 0.822376
-0.0258813 0.0115151 0.820431
-0.0245358 0.0122856 0.818153
-0.023188 0.0130446 0.815331
-0.0218513 0.0138014 0.812698
-0.0205243 0.0145555 0.81021
-0.0192143 0.0153185 0.808538
-0.017911 0.0160813 0.807029
-0.016617 0.0168509 0.80606
-0.0153273 0.0176223 0.80527
-0.0140415 0.0183971 0.804732
-0.0127576 0.0191715 0.804225
-0.011475 0.0199434 0.803648
-0.0101944 0.0207158 0.803139
-0.00891507 0.0214847 0.802521
-0.00763755 0.022261 0.802258
-0.00636011 0.0230445 0.802309
-0.0050817 0.023834 0.802582
-0.00380132 0.0246304 0.803106
-0.00252157 0.0254198 0.80334
-0.00124088 0.0262105 0.803614
3.65067e-05 0.0269896 0.803475
0.00131721 0.0277791 0.80369
0.00259656 0.0285639 0.803748
0.00388061 0.0293598 0.804145
0.00516058 0.0301451 0.804203
0.00644312 0.0309355 0.804415
0.00772771 0.0317294 0.804715
0.00901525 0.0325276 0.805124
0.0103045 0.0333276 0.805569
0.0115927 0.0341245 0.805908
0.0128848 0.0349271 0.806381
0.0141737 0.0357234 0.806677
0.0154662 0.0365244 0.807077
0.0167674 0.0373373 0.807754
0.0180737 0.0381557 0.808535
0.0193769 0.0389685 0.809155
0.0206753 0.0397735 0.809573
0.0219706 0.0405738 0.809869
0.0232576 0.0413629 0.809907
0.0245447 0.0421523 0.809951
0.0258357 0.0429462 0.810094
0.0271338 0.0437486 0.810408
0.0284399 0.0445603 0.810902
0.0297633 0.0453912 0.811771
0.0310907 0.0462255 0.812675
0.0324174 0.0470576 0.813509
0.0337398 0.0478839 0.814203
0.0350671 0.0487146 0.81496
0.0363803 0.0495291 0.815394
0.0377093 0.05036 0.816112
0.0390679 0.0512213 0.817357
0.0404314 0.0520864 0.81863
0.0417998 0.0529549 0.819925
0.0431857 0.05384 0.821467
0.0445658 0.0547175 0.822836
0.0459183 0.0555657 0.823678
0.04727 0.0564121 0.824465
0.0485993 0.0572357 0.824868
0.0499122 0.0580427 0.824994
0.0512258 0.0588503 0.825127
0.0525335 0.0596524 0.825178
0.0538414 0.0604547 0.825226
0.0551551 0.0612622 0.825353
0.0564695 0.0620703 0.825486
0.0578044 0.0628976 0.8259
0.0591624 0.0637461 0.826613
0.0605116 0.0645859 0.82718
0.0618597 0.0654238 0.827707
0.0632186 0.0662717 0.828368
0.0645386 0.0670835 0.828511
0.0658736 0.067909 0.828844
0.067226 0.0687495 0.829369
0.0686116 0.0696196 0.830276
0.0699876 0.0704802 0.831038
0.0714114 0.0713827 0.832331
0.0728319 0.0722813 0.833543
0.0743148 0.0732334 0.835412
0.0758077 0.0741932 0.83734
0.077365 0.0752068 0.839891
0.0790815 0.0763566 0.844071
-0.0348477 0.0081166 0.832024
-0.0334703 0.00890894 0.830019
-0.0321001 0.00969823 0.828068
-0.0307422 0.0104868 0.826385
-0.029394 0.0112747 0.824907
-0.0280505 0.01206 0.823439
-0.0266962 0.0128329 0.821222
-0.0253423 0.013597 0.818679
-0.0239892 0.0143508 0.815747
-0.0226466 0.0151013 0.812931
-0.0213153 0.0158505 0.810341
-0.0200036 0.0166115 0.808687
-0.0186997 0.0173741 0.807274
-0.0174044 0.0181429 0.806317
-0.0161142 0.0189151 0.805614
-0.0148272 0.0196895 0.805082
-0.0135422 0.0204639 0.804585
-0.0122584 0.0212356 0.804022
-0.0109768 0.0220099 0.803606
-0.00969623 0.0227809 0.803093
-0.00841737 0.0235576 0.802834
-0.00713904 0.024339 0.802779
-0.00586021 0.0251285 0.803026
-0.00458028 0.0259206 0.803351
-0.00330116 0.0267053 0.803406
-0.00202109 0.0274938 0.803587
-0.000743455 0.0282725 0.803444
0.000536397 0.0290593 0.803562
0.0018157 0.0298444 0.803624
0.00309927 0.0306404 0.804011
0.00437917 0.0314257 0.804071
0.00566295 0.0322194 0.804368
0.00694912 0.0330171 0.804762
0.00823683 0.0338167 0.805191
0.00952793 0.0346208 0.805721
0.010818 0.0354216 0.806146
0.0121084 0.0362219 0.806537
0.0133975 0.0370188 0.806832
0.0146921 0.0378241 0.807317
0.0159961 0.0386423 0.80809
0.0173054 0.0394668 0.80898
0.0186142 0.0402885 0.809772
0.0199159 0.0410984 0.81027
0.0212147 0.0419034 0.810643
0.0225029 0.0426931 0.810679
0.0237913 0.0434834 0.810726
0.025083 0.0442775 0.810852
0.0263747 0.0450718 0.810979
0.0276735 0.0458746 0.811271
0.0289923 0.0467017 0.81203
0.0303124 0.0475289 0.812769
0.0316323 0.0483547 0.813458
0.0329546 0.0491825 0.814162
0.0342851 0.0500185 0.814996
0.0356027 0.0508387 0.81552
0.0369368 0.0516768 0.816346
0.0383001 0.0525461 0.817693
0.039673 0.053424 0.819148
0.0410417 0.0542955 0.820454
0.0424228 0.0551786 0.821917
0.0438024 0.0560583 0.823283
0.0451543 0.0569073 0.824112
0.0465007 0.0577498 0.824818
0.0478312 0.058575 0.825223
0.0491447 0.0593828 0.825356
0.0504589 0.0601911 0.825492
0.0517683 0.0609943 0.825545
0.0530776 0.0617975 0.825601
0.0543914 0.0626052 0.825723
0.0557065 0.063414 0.825859
0.0570424 0.0642429 0.826282
0.0584076 0.0650996 0.82709
0.0597636 0.0659467 0.827745
0.0611267 0.0667998 0.828467
0.0624878 0.0676507 0.829147
0.0638092 0.0684638 0.829295
0.0651387 0.0692839 0.829534
0.0664832 0.0701181 0.829953
0.0678527 0.0709748 0.830663
0.0692269 0.0718354 0.831408
0.0706512 0.0727407 0.832705
0.07208 0.0736492 0.834019
0.0735719 0.0746134 0.836001
0.0750773 0.0755879 0.838063
0.0766442 0.0766157 0.840739
0.0788425 0.078201 0.85011
-0.0371537 0.00867756 0.837571
-0.0357553 0.00947125 0.835298
-0.0343469 0.0102548 0.832428
-0.0329511 0.011035 0.829719
-0.0315762 0.0118165 0.827524
-0.0302132 0.0125971 0.825557
-0.0288602 0.0133767 0.823779
-0.0274993 0.0141438 0.821373
-0.026141 0.0149031 0.818739
-0.0247864 0.0156541 0.815881
-0.0234422 0.0164022 0.813153
-0.0221097 0.0171498 0.810669
-0.0207973 0.0179106 0.809114
-0.0194933 0.018675 0.807875
-0.0181953 0.0194416 0.806843
-0.0169034 0.020213 0.806134
-0.0156151 0.0209875 0.805609
-0.0143292 0.0217636 0.805198
-0.0130444 0.0225375 0.80473
-0.0117615 0.0233141 0.804403
-0.0104794 0.0240869 0.803961
-0.00919869 0.0248616 0.803614
-0.00791906 0.0256389 0.803385
-0.00663973 0.0264236 0.803436
-0.00535998 0.0272112 0.803576
-0.0040808 0.0279932 0.803534
-0.00280105 0.0287795 0.803628
-0.00152369 0.0295552 0.803396
-0.000244642 0.0303395 0.803433
0.00103461 0.0311242 0.803482
0.00231699 0.0319182 0.803801
0.00359796 0.0327065 0.803947
0.00488411 0.033507 0.804415
0.00617167 0.0343089 0.804903
0.00746108 0.0351127 0.805421
0.0087522 0.0359176 0.805948
0.0100422 0.0367191 0.806364
0.0113309 0.0375164 0.806665
0.0126222 0.0383177 0.807049
0.0139218 0.0391321 0.807727
0.0152315 0.0399613 0.808717
0.0165445 0.040793 0.809723
0.0178619 0.0416288 0.810787
0.0191677 0.0424446 0.811376
0.0204683 0.0432516 0.81176
0.021761 0.0440464 0.811877
0.0230546 0.0448423 0.812015
0.0243391 0.0456254 0.811894
0.0256219 0.0464068 0.811744
0.0269104 0.0471959 0.811749
0.0282182 0.04801 0.812232
0.0295277 0.0488254 0.812724
0.0308492 0.0496548 0.81346
0.0321743 0.0504875 0.814233
0.0335038 0.0513241 0.815054
0.0348253 0.05215 0.815662
0.0361677 0.0529996 0.816663
0.0375275 0.0538675 0.817948
0.0389006 0.0547489 0.819423
0.0402736 0.055628 0.820818
0.0416542 0.0565136 0.822281
0.0430291 0.0573909 0.823571
0.0443859 0.0582469 0.824487
0.0457337 0.0590918 0.825201
0.0470637 0.0599175 0.825612
0.0483787 0.0607264 0.825747
0.0496938 0.0615353 0.82588
0.0510032 0.0623386 0.825932
0.0523128 0.0631418 0.825979
0.0536272 0.0639502 0.826106
0.0549431 0.0647596 0.82624
0.056279 0.0655889 0.826654
0.0576514 0.066454 0.827556
0.0590155 0.0673106 0.828325
0.0603945 0.0681806 0.829257
0.0617591 0.0690357 0.829966
0.0630893 0.0698567 0.830204
0.0644176 0.0706761 0.830422
0.0657606 0.0715089 0.830802
0.067116 0.0723536 0.831338
0.0684978 0.0732224 0.832164
0.0699298 0.0741374 0.83355
0.0713682 0.0750572 0.83497
0.072862 0.0760269 0.836972
0.0743758 0.0770132 0.839131
0.0759383 0.0780425 0.84177
0.0780981 0.079613 0.850792
-0.0394711 0.00924075 0.842664
-0.0380537 0.010036 0.8402
-0.036649 0.0108288 0.837916
-0.0352177 0.0116039 0.834486
-0.0338018 0.0123754 0.83125
-0.0324096 0.0131485 0.828559
-0.0310331 0.0139213 0.826183
-0.0296703 0.0146944 0.824103
-0.0283027 0.0154555 0.821513
-0.0269412 0.0162109 0.818862
-0.0255856 0.0169596 0.816105
-0.0242388 0.0177043 0.813393
-0.0229053 0.0184507 0.81102
-0.0215922 0.0192118 0.809563
-0.0202864 0.0199751 0.808331
-0.0189865 0.0207401 0.807287
-0.017693 0.0215109 0.806567
-0.0164026 0.0222829 0.805953
-0.0151157 0.0230587 0.805542
-0.0138301 0.0238344 0.805154
-0.0125462 0.0246109 0.804827
-0.0112628 0.0253836 0.804383
-0.00998098 0.0261578 0.804026
-0.00870036 0.0269323 0.803701
-0.00742054 0.0277123 0.803576
-0.0061407 0.0284973 0.803622
-0.00486134 0.0292789 0.803567
-0.00358169 0.0300629 0.803587
-0.00230358 0.0308411 0.803435
-0.00102415 0.0316256 0.803475
0.000255346 0.0324105 0.803526
0.00153679 0.0332018 0.803755
0.00281876 0.0339935 0.803984
0.00410502 0.0347955 0.804474
0.00539278 0.0355988 0.804979
0.00668225 0.0364038 0.805505
0.00797279 0.0372088 0.80601
0.00926085 0.0380068 0.806326
0.0105491 0.0388042 0.806618
0.0118444 0.039614 0.807185
0.0131508 0.0404421 0.808147
0.0144661 0.0412829 0.809352
0.0157848 0.0421261 0.810566
0.0171081 0.0429733 0.811819
0.018418 0.0437956 0.812507
0.0197236 0.0446094 0.813
0.0210246 0.0454153 0.813314
0.0223235 0.0462173 0.813542
0.0236103 0.0470013 0.813414
0.0248949 0.047783 0.813246
0.026182 0.0485683 0.813155
0.0274804 0.0493692 0.813355
0.0287823 0.0501745 0.81363
0.0300961 0.0509946 0.814167
0.031413 0.0518177 0.81474
0.0327347 0.0526461 0.815387
0.0340606 0.0534785 0.816086
0.0354078 0.0543357 0.817184
0.0367681 0.0552069 0.818485
0.0381451 0.0560959 0.820039
0.0395178 0.0569772 0.821429
0.040894 0.0578606 0.822814
0.0422637 0.0587345 0.824012
0.043621 0.0595929 0.824938
0.0449632 0.060433 0.825561
0.0462944 0.0612603 0.825975
0.0476094 0.0620694 0.826109
0.0489301 0.0628842 0.82632
0.0502466 0.0636943 0.82646
0.051563 0.0645045 0.8266
0.0528844 0.0653199 0.826816
0.0542068 0.0661358 0.827028
0.055544 0.0669667 0.827444
0.0569164 0.0678336 0.828346
0.0582827 0.0686934 0.829132
0.0596719 0.0695749 0.830183
0.0610457 0.0704401 0.831001
0.0623835 0.0712688 0.831329
0.0637117 0.0720877 0.831519
0.0650559 0.0729221 0.831907
0.0663988 0.0737547 0.832261
0.0677751 0.0746194 0.833008
0.0691995 0.07553 0.834311
0.0706469 0.0764609 0.835827
0.0721333 0.0774275 0.837748
0.07366 0.0784306 0.840064
0.0752019 0.0794458 0.84248
0.0773262 0.0810028 0.85118
-0.040313 0.0105871 0.843272
-0.0388915 0.0113791 0.840783
-0.0374892 0.0121712 0.838673
-0.0360533 0.0129421 0.835233
-0.0346339 0.01371 0.83202
-0.0332321 0.0144767 0.829111
-0.0318517 0.0152462 0.826705
-0.0304816 0.0160135 0.824435
-0.0291107 0.016771 0.821839
-0.0277464 0.0175231 0.819191
-0.0263894 0.01827 0.816523
-0.0250396 0.0190115 0.813825
-0.023705 0.0197572 0.811558
-0.0223897 0.0205168 0.810106
-0.0210817 0.0212786 0.808866
-0.0197784 0.0220402 0.807715
-0.0184833 0.0228101 0.806984
-0.0171907 0.0235789 0.806268
-0.0159026 0.0243544 0.805851
-0.0146161 0.0251297 0.805462
-0.0133311 0.0259063 0.805141
-0.0120468 0.0266789 0.804708
-0.0107637 0.0274503 0.804259
-0.00948208 0.0282217 0.80384
-0.00820183 0.0289985 0.803616
-0.0069219 0.0297808 0.803575
-0.00564253 0.03056 0.803448
-0.00436295 0.0313442 0.803473
-0.00308444 0.0321226 0.803336
-0.00180507 0.0329067 0.803365
-0.000525752 0.0336913 0.803406
0.000755551 0.0344828 0.803631
0.00203758 0.035275 0.803867
0.0033246 0.0360812 0.804448
0.00461245 0.036886 0.804973
0.00590148 0.0376917 0.805494
0.00719308 0.0385004 0.806069
0.00848236 0.0393019 0.806455
0.00977108 0.0401003 0.806756
0.0110703 0.0409192 0.807505
0.012381 0.0417581 0.808663
0.013699 0.0426065 0.809984
0.0150227 0.0434607 0.811379
0.0163509 0.0443186 0.8128
0.0176649 0.045148 0.813594
0.0189778 0.0459736 0.814286
0.0202871 0.0467913 0.814801
0.0215916 0.0476004 0.815134
0.0228841 0.0483905 0.815097
0.0241746 0.0491777 0.815007
0.0254636 0.0499634 0.814895
0.0267575 0.0507561 0.814915
0.0280532 0.0515513 0.814979
0.0293598 0.0523615 0.815305
0.0306702 0.0531761 0.8157
0.0319825 0.0539925 0.816113
0.0333091 0.0548269 0.816815
0.0346524 0.0556809 0.817823
0.0360081 0.0565488 0.81903
0.0373805 0.0574352 0.8205
0.038747 0.058312 0.821779
0.0401175 0.0591914 0.823064
0.0414861 0.0600667 0.824252
0.0428435 0.0609268 0.82518
0.0441859 0.0617683 0.825802
0.0455216 0.0626015 0.826297
0.0468376 0.0634112 0.826424
0.0481586 0.0642269 0.826643
0.0494817 0.0650442 0.826879
0.0508054 0.0658622 0.827123
0.0521293 0.0666801 0.827358
0.0534529 0.0674974 0.827578
0.0547954 0.0683348 0.828069
0.0561681 0.0692033 0.828967
0.0575424 0.0700723 0.829846
0.0589443 0.0709694 0.83108
0.0603259 0.0718438 0.83199
0.0616727 0.0726816 0.832415
0.06301 0.0735094 0.832703
0.064358 0.0743477 0.833114
0.0656959 0.0751753 0.833387
0.0670727 0.0760415 0.834129
0.0684891 0.0769461 0.835319
0.0699288 0.0778726 0.836755
0.0713925 0.078821 0.838415
0.0728945 0.0798044 0.840449
0.0743834 0.0807736 0.842283
0.0764364 0.0822822 0.850285
-0.0411622 0.0119377 0.844049
-0.0397321 0.0127249 0.841409
-0.0383223 0.0135126 0.839162
-0.0368743 0.0142752 0.835452
-0.0354561 0.0150411 0.832397
-0.034054 0.0158058 0.829599
-0.0326763 0.016576 0.82741
-0.0312964 0.0173361 0.824882
-0.0299206 0.0180889 0.822207
-0.0285513 0.0188358 0.819476
-0.0271911 0.019579 0.816799
-0.0258401 0.0203188 0.814191
-0.0245042 0.0210633 0.812001
-0.0231866 0.0218211 0.810542
-0.0218764 0.0225813 0.809292
-0.0205711 0.0233413 0.808125
-0.0192735 0.0241082 0.807305
-0.0179785 0.0248739 0.806498
-0.0166887 0.0256465 0.805988
-0.0154013 0.0264212 0.805591
-0.0141157 0.0271977 0.805278
-0.0128303 0.0279679 0.804779
-0.0115466 0.0287387 0.804329
-0.0102643 0.0295093 0.803897
-0.00898339 0.0302826 0.803575
-0.00770337 0.0310618 0.803447
-0.00642359 0.0318438 0.803406
-0.00514385 0.0326284 0.803441
-0.00386454 0.0334098 0.803392
-0.0025844 0.0341974 0.803508
-0.00130453 0.0349824 0.803555
-2.39364e-05 0.0357706 0.803685
0.00125798 0.0365629 0.80391
0.00254371 0.0373663 0.8044
0.0038301 0.0381686 0.804844
0.00512001 0.0389783 0.805446
0.00641267 0.039792 0.806117
0.00770385 0.0405987 0.806603
0.0089964 0.0414061 0.807089
0.0102994 0.042235 0.808022
0.0116125 0.043081 0.809286
0.0129303 0.0439317 0.8106
0.0142556 0.044792 0.812067
0.0155836 0.0456522 0.813481
0.0169007 0.0464878 0.814363
0.0182176 0.0473209 0.815166
0.0195341 0.0481505 0.815877
0.0208436 0.0489671 0.816324
0.0221442 0.049768 0.816466
0.0234402 0.0505616 0.816472
0.0247326 0.0513496 0.816382
0.0260257 0.052139 0.816318
0.0273194 0.0529298 0.816282
0.0286201 0.0537306 0.816419
0.0299244 0.0545361 0.816633
0.0312298 0.055343 0.816865
0.0325569 0.0561785 0.817557
0.0338963 0.057029 0.818476
0.0352476 0.0578934 0.819588
0.0366143 0.0587755 0.820948
0.0379751 0.0596478 0.822123
0.0393397 0.0605226 0.823304
0.0407026 0.0613934 0.824395
0.0420544 0.0622487 0.825228
0.0433959 0.0630907 0.825848
0.0447372 0.0639311 0.826428
0.0460537 0.0647416 0.826565
0.047381 0.0655648 0.826884
0.0487111 0.0663903 0.827221
0.050037 0.0672109 0.827492
0.0513627 0.0680308 0.827743
0.0526928 0.0688555 0.828058
0.0540364 0.0696946 0.828556
0.0554091 0.070565 0.829455
0.0567951 0.0714484 0.830499
0.0582026 0.0723536 0.831806
0.0595801 0.073225 0.832648
0.0609415 0.0740788 0.833263
0.0622961 0.0749248 0.833761
0.0636405 0.0757592 0.834106
0.0649722 0.0765805 0.834289
0.0663542 0.0774529 0.835079
0.067762 0.0783506 0.836155
0.0691945 0.0792725 0.837499
0.0706424 0.0802083 0.838979
0.0721178 0.0811698 0.840723
0.0735708 0.0821072 0.842155
-0.0391397 0.0148482 0.839141
-0.0376885 0.0156055 0.835441
-0.0362773 0.0163726 0.832715
-0.0348786 0.0171377 0.830145
-0.0335058 0.0179107 0.828244
-0.0321224 0.018668 0.825718
-0.0307404 0.0194157 0.822945
-0.0293651 0.0201572 0.820112
-0.028001 0.0208968 0.81742
-0.0266463 0.0216331 0.814795
-0.0253056 0.0223729 0.812515
-0.0239856 0.0231289 0.811052
-0.0226732 0.0238874 0.809786
-0.0213648 0.024644 0.808535
-0.0200646 0.0254079 0.807633
-0.0187672 0.0261705 0.806745
-0.0174755 0.0269398 0.806142
-0.0161872 0.0277138 0.805729
-0.0149009 0.0284899 0.805416
-0.0136147 0.0292598 0.804924
-0.0123304 0.0300334 0.804573
-0.0110471 0.0308031 0.804129
-0.00976529 0.0315731 0.803714
-0.00848482 0.0323517 0.803569
-0.0072047 0.0331338 0.803528
-0.00592469 0.0339158 0.80349
-0.004645 0.0346976 0.803448
-0.00336422 0.0354886 0.803645
-0.002084 0.0362741 0.803698
-0.000803013 0.0370631 0.803838
0.000479168 0.0378555 0.804055
0.00176458 0.0386586 0.804516
0.00304942 0.0394569 0.80485
0.00433924 0.040268 0.805461
0.00563203 0.041084 0.806159
0.00692508 0.0418969 0.806764
0.00822138 0.0427147 0.807454
0.00952814 0.0435539 0.808567
0.0108409 0.0444021 0.809826
0.0121563 0.0452503 0.811041
0.0134806 0.046112 0.812485
0.0148057 0.0469695 0.813799
0.0161228 0.0478073 0.81469
0.0174424 0.0486467 0.815584
0.0187644 0.0494873 0.816476
0.0200778 0.0503105 0.817019
0.0213857 0.0511227 0.817349
0.0226902 0.0519286 0.817559
0.0239889 0.0527247 0.817592
0.0252849 0.0535166 0.817554
0.0265839 0.0543134 0.817602
0.0278859 0.0551145 0.817721
0.0291882 0.0559159 0.817842
0.0304948 0.0567234 0.81806
0.0318225 0.05756 0.818738
0.0331577 0.0584058 0.819542
0.0345054 0.0592665 0.820557
0.0358635 0.0601396 0.821737
0.0372161 0.0610031 0.822739
0.0385706 0.061867 0.823724
0.0399281 0.0627328 0.824713
0.0412744 0.0635831 0.825451
0.0426171 0.0644272 0.82608
0.043959 0.0652697 0.826677
0.0452817 0.0660877 0.826912
0.0466154 0.0669186 0.827327
0.0479517 0.0677519 0.827762
0.0492846 0.0685808 0.828129
0.0506168 0.0694084 0.828473
0.0519542 0.0702413 0.828879
0.0532997 0.0710827 0.829383
0.0546732 0.0719554 0.830288
0.0560603 0.0728419 0.831344
0.0574636 0.0737445 0.832579
0.0588539 0.0746316 0.833597
0.0602306 0.0755025 0.834399
0.0615964 0.0763604 0.835017
0.0629499 0.0772049 0.835469
0.0642905 0.0780346 0.835729
0.0656636 0.0788989 0.836402
0.0670641 0.0797907 0.837377
0.0684893 0.080707 0.838618
0.0699226 0.0816302 0.839914
0.0713793 0.0825759 0.841442
0.0731885 0.0838784 0.846954
-0.0370798 0.017694 0.832406
-0.0356888 0.0184613 0.830161
-0.0343214 0.0192369 0.828521
-0.0329411 0.0199956 0.826216
-0.0315569 0.0207409 0.823495
-0.0301776 0.0214783 0.820643
-0.0288101 0.0222145 0.817948
-0.027452 0.0229475 0.815321
-0.0261065 0.0236822 0.812946
-0.024783 0.0244342 0.811397
-0.0234657 0.0251864 0.809953
-0.022157 0.0259438 0.808787
-0.0208555 0.0267067 0.807888
-0.019558 0.0274714 0.8071
-0.018264 0.0282374 0.806409
-0.0169752 0.0290127 0.806048
-0.0156872 0.0297857 0.80564
-0.0144 0.0305553 0.805152
-0.0131151 0.0313292 0.80482
-0.0118308 0.0320988 0.80438
-0.010548 0.032868 0.803955
-0.00926679 0.0336463 0.8038
-0.0079861 0.0344254 0.803675
-0.00670585 0.0352043 0.803552
-0.00542561 0.0359889 0.803579
-0.00414452 0.0367804 0.803781
-0.0028638 0.0375668 0.80385
-0.0015823 0.0383574 0.804016
-0.000300855 0.039146 0.804134
0.000983396 0.0399453 0.804488
0.00226687 0.0407391 0.804711
0.00355608 0.0415509 0.805318
0.00484991 0.042373 0.806127
0.00614735 0.0432002 0.807017
0.0074468 0.0440282 0.80789
0.00875533 0.0448744 0.809104
0.0100665 0.0457209 0.810282
0.0113793 0.0465658 0.811391
0.0127004 0.0474242 0.812722
0.0140204 0.0482747 0.813861
0.0153349 0.0491094 0.814672
0.0166562 0.0499546 0.815647
0.0179803 0.0508013 0.816621
0.0192938 0.0516257 0.81717
0.0206105 0.0524541 0.817771
0.0219251 0.0532769 0.81826
0.0232324 0.054086 0.818503
0.0245372 0.0548905 0.818664
0.025848 0.0557047 0.818979
0.0271488 0.056502 0.819012
0.0284528 0.0573045 0.819129
0.0297611 0.0581129 0.819339
0.0310863 0.0589459 0.819926
0.0324109 0.0597771 0.820469
0.0337542 0.0606331 0.821381
0.0351037 0.0614962 0.82237
0.0364479 0.0623496 0.823195
0.0377934 0.0632033 0.824003
0.03915 0.06407 0.824979
0.0404957 0.0649208 0.825706
0.0418432 0.0657725 0.826429
0.0431922 0.0666246 0.827135
0.0445265 0.0674573 0.82757
0.045867 0.068297 0.828082
0.047209 0.0691377 0.8286
0.0485423 0.0699668 0.828951
0.0498752 0.0707953 0.829289
0.051214 0.0716298 0.829697
0.0525599 0.0724724 0.830203
0.0539361 0.0733493 0.831127
0.0553239 0.0742382 0.832188
0.0567223 0.0751374 0.833347
0.0581265 0.076042 0.834553
0.0595119 0.0769237 0.83546
0.0608866 0.0777922 0.836185
0.0622422 0.0786389 0.83664
0.0635903 0.0794768 0.836984
0.0649508 0.0803274 0.837468
0.0663447 0.0812137 0.838353
0.0677567 0.082118 0.839427
0.0691742 0.083027 0.840535
0.0706056 0.083949 0.841765
-0.0378847 0.0190165 0.832178
-0.0364927 0.0197812 0.829965
-0.0351221 0.0205528 0.828262
-0.0337377 0.0213061 0.825877
-0.0323551 0.0220506 0.8233
-0.0309779 0.0227883 0.820629
-0.0296103 0.0235233 0.818039
-0.0282535 0.0242573 0.815596
-0.0269087 0.0249933 0.813389
-0.025581 0.0257409 0.811742
-0.0242617 0.0264911 0.810286
-0.0229525 0.0272495 0.809204
-0.0216508 0.0280144 0.808397
-0.0203519 0.0287789 0.807628
-0.0190561 0.0295444 0.806931
-0.017766 0.0303193 0.80656
-0.0164765 0.0310915 0.80613
-0.0151874 0.0318583 0.805568
-0.0139014 0.0326324 0.805243
-0.012616 0.0334021 0.804814
-0.0113319 0.0341709 0.804382
-0.0100495 0.0349461 0.804141
-0.00876805 0.0357253 0.80401
-0.00748703 0.0365043 0.803886
-0.00620607 0.0372886 0.803899
-0.00492453 0.0380806 0.804096
-0.00364319 0.0388676 0.804168
-0.00236106 0.0396591 0.804344
-0.00107962 0.0404453 0.804392
0.00020477 0.0412448 0.804737
0.00148844 0.0420383 0.804941
0.00277875 0.0428554 0.805637
0.00407381 0.0436832 0.806532
0.00537532 0.044525 0.807685
0.00667695 0.0453598 0.808657
0.00798592 0.0462092 0.809883
0.00929386 0.047049 0.810887
0.0106027 0.0478862 0.811806
0.0119192 0.0487367 0.812945
0.0132345 0.0495796 0.813909
0.0145466 0.0504111 0.814636
0.0158673 0.0512576 0.815611
0.0171905 0.0521058 0.816588
0.0185036 0.0529308 0.817129
0.0198256 0.0537704 0.81791
0.0211465 0.0546058 0.818595
0.0224613 0.0554281 0.819044
0.0237735 0.0562448 0.819392
0.025092 0.0570709 0.819881
0.0263949 0.0578703 0.819934
0.0277043 0.05868 0.820149
0.0290149 0.059491 0.820377
0.0303414 0.060326 0.820967
0.0316636 0.0611533 0.821427
0.0330066 0.0620099 0.822312
0.0343522 0.0628685 0.823204
0.0356965 0.0637233 0.824019
0.0370383 0.0645725 0.824736
0.0383904 0.065435 0.825621
0.0397357 0.0662863 0.826335
0.0410854 0.0671413 0.827074
0.0424355 0.0679961 0.827801
0.0437764 0.0688378 0.828337
0.0451182 0.0696791 0.828849
0.0464551 0.0705139 0.829275
0.0477842 0.0713375 0.829533
0.0491114 0.0721592 0.829775
0.0504501 0.0729942 0.830176
0.0517971 0.0738387 0.830688
0.0531728 0.0747165 0.831605
0.054567 0.0756152 0.832757
0.0559645 0.076516 0.833915
0.0573693 0.0774232 0.835122
0.0587687 0.0783224 0.836212
0.0601593 0.0792099 0.837141
0.0615238 0.0800671 0.837704
0.0628875 0.0809221 0.838223
0.0642498 0.0817752 0.838714
0.0656387 0.0826567 0.839517
0.0670359 0.0835468 0.840408
0.0684308 0.0844329 0.841232
0.069823 0.0853148 0.841995
-0.0372948 0.0210995 0.829715
-0.0359165 0.0218637 0.827802
-0.034531 0.0226137 0.825437
-0.03315 0.0233573 0.822985
-0.0317766 0.0240969 0.820553
-0.0304123 0.0248344 0.818196
-0.0290594 0.0255729 0.816035
-0.0277138 0.0263087 0.813921
-0.026385 0.0270564 0.81234
-0.0250646 0.0278073 0.810959
-0.0237548 0.0285675 0.809963
-0.0224514 0.0293326 0.809179
-0.0211519 0.0301 0.808508
-0.0198541 0.0308652 0.807808
-0.0185621 0.0316405 0.807439
-0.017269 0.0324067 0.806837
-0.0159782 0.0331734 0.806273
-0.01469 0.0339441 0.805851
-0.0134027 0.0347104 0.805333
-0.0121172 0.0354788 0.804897
-0.0108337 0.0362544 0.80466
-0.00955102 0.0370309 0.804457
-0.00826898 0.0378098 0.804323
-0.00698728 0.0385942 0.804327
-0.00570523 0.039383 0.804432
-0.00442328 0.0401703 0.804501
-0.00314064 0.0409622 0.804672
-0.00185861 0.0417487 0.80472
-0.000573037 0.042553 0.80515
0.000712371 0.0433524 0.805459
0.00200422 0.0441756 0.806252
0.00329962 0.0450057 0.807156
0.00460241 0.0458539 0.80839
0.00590448 0.0466907 0.80936
0.00721376 0.0475429 0.810596
0.00851861 0.0483755 0.811421
0.00982541 0.0492085 0.812228
0.0111355 0.0500454 0.813082
0.012446 0.0508794 0.813856
0.0137532 0.0517022 0.814412
0.0150708 0.0525453 0.815303
0.0163928 0.0533942 0.816271
0.0177078 0.0542248 0.816901
0.0190319 0.0550714 0.817777
0.0203557 0.0559142 0.81857
0.0216763 0.0567485 0.819204
0.022995 0.0575772 0.819732
0.0243206 0.0584163 0.820409
0.0256283 0.0592229 0.820564
0.0269431 0.0600411 0.820894
0.0282618 0.0608647 0.821299
0.029594 0.0617086 0.821997
0.0309214 0.0625435 0.822545
0.0322654 0.0634027 0.823433
0.0336116 0.0642628 0.824312
0.0349521 0.0651124 0.825023
0.0362864 0.0659515 0.82557
0.0376345 0.066809 0.826359
0.0389809 0.0676625 0.827075
0.0403308 0.0685191 0.827814
0.0416817 0.0693761 0.82855
0.0430292 0.0702267 0.829183
0.0443665 0.0710627 0.829609
0.0456995 0.0718918 0.829934
0.0470218 0.0727071 0.830085
0.0483444 0.0735224 0.830229
0.0496837 0.0743584 0.830628
0.0510316 0.0752046 0.831147
0.0524017 0.0760772 0.831975
0.0537941 0.0769761 0.833108
0.0551898 0.077877 0.834244
0.0565944 0.0787864 0.835453
0.058001 0.0796968 0.836654
0.0594062 0.0806035 0.837787
0.0607816 0.0814733 0.838467
0.0621605 0.0823467 0.839185
0.0635315 0.0832096 0.839766
0.0649205 0.0840928 0.840569
0.0663185 0.0849844 0.841446
0.0677122 0.08587 0.842239
0.0694053 0.0870866 0.846606
-0.0353346 0.0239298 0.825368
-0.0339611 0.0246789 0.823262
-0.0325967 0.0254273 0.82127
-0.0312321 0.0261653 0.819033
-0.0298766 0.0269024 0.816906
-0.0285279 0.0276365 0.814808
-0.0271946 0.0283801 0.813141
-0.0258715 0.0291299 0.811763
-0.0245581 0.0298867 0.810683
-0.0232529 0.0306519 0.809913
-0.0219516 0.0314191 0.809244
-0.020653 0.0321872 0.808638
-0.0193593 0.0329626 0.808262
-0.0180643 0.0337289 0.807665
-0.0167713 0.0344949 0.807087
-0.0154813 0.0352653 0.806652
-0.014192 0.0360307 0.806112
-0.0129049 0.0367993 0.805674
-0.0116194 0.0375719 0.805357
-0.0103352 0.038345 0.805064
-0.00905198 0.0391206 0.804843
-0.00776925 0.0399057 0.804851
-0.00648666 0.0406915 0.804876
-0.00520386 0.0414792 0.804941
-0.00392029 0.0422744 0.805169
-0.00263674 0.0430651 0.805295
-0.00134964 0.0438761 0.805836
-6.22143e-05 0.0446825 0.806267
0.00123155 0.0455128 0.807164
0.00252779 0.0463454 0.808073
0.00383107 0.047196 0.809303
0.00513235 0.0480305 0.810188
0.0064405 0.0488807 0.811336
0.00774418 0.0497096 0.812059
0.00904919 0.0505379 0.812747
0.0103535 0.0513606 0.813318
0.0116596 0.0521848 0.813897
0.012964 0.0530022 0.814343
0.0142763 0.0538361 0.815057
0.0155928 0.0546762 0.815856
0.0169091 0.0555123 0.816566
0.0182348 0.0563654 0.817533
0.0195612 0.057216 0.818435
0.0208875 0.0580631 0.819257
0.022215 0.0589097 0.820051
0.0235472 0.059762 0.820912
0.0248627 0.0605818 0.821258
0.0261858 0.061414 0.82178
0.027513 0.0622515 0.822369
0.0288503 0.0631045 0.823169
0.0301872 0.0639542 0.823904
0.031534 0.064818 0.824822
0.032882 0.0656814 0.825712
0.0342239 0.0665331 0.82642
0.0355553 0.067367 0.826867
0.0368956 0.0682132 0.827471
0.0382425 0.0690679 0.828176
0.0395881 0.0699191 0.828821
0.0409366 0.0707726 0.829479
0.0422841 0.0716239 0.830099
0.0436177 0.0724539 0.830424
0.0449397 0.0732686 0.830558
0.0462573 0.0740765 0.830599
0.0475739 0.0748838 0.830641
0.0489087 0.0757142 0.830957
0.0502568 0.0765618 0.831482
0.051627 0.077436 0.832313
0.0530182 0.0783357 0.83343
0.0544127 0.0792374 0.83455
0.0558171 0.0801491 0.835761
0.057231 0.0810708 0.837067
0.0586448 0.0819899 0.838317
0.0600354 0.0828794 0.839208
0.0614242 0.0837652 0.840041
0.062811 0.0846475 0.84082
0.0642011 0.0855328 0.841624
0.0655918 0.0864169 0.842391
0.0669766 0.087294 0.843077
0.0689964 0.0888911 0.851415
-0.0361143 0.0252248 0.824503
-0.0347565 0.025986 0.822973
-0.0334038 0.0267452 0.821463
-0.0320459 0.0274904 0.819575
-0.030699 0.0282392 0.817919
-0.029349 0.0289742 0.815913
-0.0280104 0.0297137 0.814161
-0.0266844 0.030462 0.812774
-0.0253681 0.0312181 0.81169
-0.0240605 0.0319831 0.810919
-0.0227596 0.032756 0.810413
-0.0214599 0.0335276 0.809894
-0.0201639 0.0343039 0.809529
-0.0188674 0.0350738 0.809015
-0.0175708 0.0358364 0.808342
-0.0162767 0.0366 0.807724
-0.0149851 0.0373653 0.807174
-0.0136957 0.0381338 0.806725
-0.0124077 0.0388999 0.806244
-0.0111216 0.039673 0.805943
