ply
format ascii 1.0
element vertex 1744
property float x
property float y
property float z
end_header
0.339115 0.0523805 0.721634
0.338826 0.0533245 0.719667
0.338624 0.0543324 0.717932
0.338549 0.0554348 0.716526
0.338462 0.0565246 0.715091
0.338379 0.0576157 0.713671
0.33834 0.0587382 0.712365
0.338297 0.0598549 0.711051
0.338266 0.0609798 0.709774
0.338304 0.0621574 0.708675
0.338495 0.0634551 0.707964
0.338749 0.0648038 0.707417
0.339015 0.066163 0.706904
0.339193 0.0674477 0.70616
0.339291 0.0686685 0.705221
0.339397 0.0698941 0.704303
0.339457 0.0710793 0.703266
0.339624 0.0723519 0.702502
0.339836 0.0736618 0.701855
0.340127 0.0750366 0.701404
0.340295 0.0763082 0.700646
0.340539 0.0776442 0.700082
0.340615 0.0788365 0.699094
0.340627 0.0799724 0.697947
0.340708 0.081166 0.696976
0.340762 0.0823348 0.695939
0.340742 0.0834377 0.694718
0.340776 0.0845858 0.693635
0.340948 0.085851 0.692895
0.341037 0.0870439 0.691951
0.341316 0.0884022 0.69148
0.3417 0.0898518 0.691267
0.342304 0.0914973 0.691599
0.342921 0.0931568 0.691961
0.343661 0.0949269 0.692621
0.344341 0.0966456 0.693128
0.345139 0.0984752 0.693927
0.34592 0.100291 0.694676
0.346863 0.102259 0.695824
0.347791 0.104216 0.696926
0.34884 0.106288 0.698319
0.349799 0.108284 0.69949
0.35079 0.110313 0.700731
0.351629 0.112207 0.701599
0.352498 0.114132 0.702535
0.353202 0.115908 0.703069
0.338813 0.0477297 0.73091
0.338751 0.0488641 0.72951
0.338691 0.0499965 0.728116
0.338523 0.0510449 0.726447
0.338301 0.0520473 0.724637
0.338113 0.0530723 0.722921
0.337955 0.0541167 0.721285
0.337848 0.0551986 0.719789
0.337808 0.0563286 0.718464
0.337722 0.0574211 0.717027
0.337638 0.0585115 0.715595
0.337573 0.0596144 0.714216
0.337478 0.0606911 0.712763
0.337417 0.0617917 0.711399
0.337425 0.0629465 0.710219
0.337584 0.06422 0.709423
0.337807 0.0655462 0.708797
0.338045 0.0668823 0.708205
0.338219 0.0681668 0.707453
0.338229 0.0693153 0.706284
0.338273 0.0704891 0.705201
0.33826 0.0716138 0.703976
0.33839 0.0728568 0.703118
0.338534 0.0741094 0.702295
0.338852 0.0755085 0.701915
0.339044 0.0768003 0.701215
0.339294 0.0781406 0.700662
0.339401 0.0793593 0.699749
0.339504 0.0805731 0.698829
0.339653 0.081824 0.698021
0.339715 0.0830001 0.697001
0.339753 0.0841538 0.695922
0.339818 0.0853284 0.69491
0.339931 0.0865443 0.694022
0.339994 0.0877143 0.693008
0.340266 0.0890683 0.69252
0.340586 0.0904625 0.692146
0.341129 0.0920565 0.692329
0.341714 0.0936894 0.692613
0.342392 0.0954077 0.693126
0.343041 0.0971027 0.693563
0.343836 0.0989312 0.694357
0.344679 0.100807 0.695266
0.345659 0.102811 0.696508
0.34668 0.104859 0.697848
0.347792 0.106993 0.699403
0.348814 0.109052 0.700733
0.349811 0.111092 0.701997
0.350652 0.112991 0.702872
0.351477 0.11488 0.703707
0.352142 0.116624 0.704147
0.337186 0.0479531 0.730598
0.337197 0.0491409 0.729387
0.337275 0.0503773 0.728352
0.337246 0.0515294 0.727037
0.337188 0.0526576 0.725651
0.337218 0.0538508 0.724497
0.337191 0.0549983 0.723198
0.337193 0.0561654 0.721975
0.337193 0.0573296 0.720752
0.337111 0.0584257 0.719314
0.336965 0.0594684 0.717714
0.336892 0.0605665 0.716308
0.336738 0.061596 0.714693
0.336649 0.0626756 0.713251
0.336625 0.063805 0.71198
0.336749 0.0650524 0.711092
0.336915 0.0663329 0.710313
0.337087 0.0676174 0.709551
0.337227 0.0688742 0.708706
0.33717 0.0699677 0.707362
0.337152 0.0710914 0.706119
0.337047 0.0721388 0.704654
0.337113 0.0733272 0.703628
0.337163 0.0745002 0.702563
0.337474 0.0758942 0.702167
0.337693 0.0772084 0.701533
0.337976 0.0785773 0.701063
0.338145 0.0798481 0.700304
0.338336 0.0811376 0.699603
0.338518 0.0824176 0.698877
0.338618 0.0836267 0.697949
0.338719 0.0848349 0.697022
0.338817 0.0860395 0.696092
0.338912 0.0872396 0.695153
0.338976 0.0884112 0.694139
0.33922 0.0897408 0.693577
0.339512 0.0911126 0.693134
0.339996 0.0926557 0.69317
0.340547 0.0942607 0.693372
0.341186 0.0959471 0.693791
0.341798 0.0976108 0.694139
0.34256 0.0994129 0.694857
0.343432 0.101319 0.695844
0.344446 0.103359 0.697178
0.345504 0.105445 0.698617
0.346649 0.107615 0.700262
0.347734 0.109735 0.701751
0.348697 0.111749 0.702938
0.349501 0.113618 0.703728
0.350283 0.115471 0.704463
0.354052 0.12013 0.712496
0.335698 0.0494589 0.729405
0.33584 0.0507428 0.728535
0.335929 0.0519861 0.72753
0.336024 0.0532318 0.726541
0.336248 0.0545774 0.725895
0.336436 0.0558928 0.72515
0.336576 0.057171 0.724284
0.33665 0.0583941 0.723243
0.336565 0.0594908 0.721793
0.336344 0.0604745 0.719988
0.336173 0.0614944 0.718317
0.335921 0.0624457 0.716439
0.33577 0.0634755 0.71483
0.335712 0.0645774 0.713464
0.335775 0.065776 0.712414
0.335877 0.0670058 0.711469
0.335985 0.0682377 0.710537
0.336085 0.0694633 0.70959
0.335995 0.0705278 0.708152
0.335976 0.0716498 0.706902
0.335817 0.0726506 0.705291
0.335848 0.0738096 0.704174
0.335836 0.074929 0.702945
0.336111 0.0762929 0.702457
0.33631 0.0775901 0.701771
0.336628 0.0789888 0.701389
0.33686 0.0803141 0.70079
0.337085 0.0816332 0.700173
0.337274 0.0829204 0.699466
0.337406 0.0841562 0.698613
0.337541 0.0853934 0.697768
0.337672 0.0866272 0.696918
0.337829 0.0878833 0.696135
0.33796 0.0891133 0.695282
0.338209 0.0904488 0.694732
0.338499 0.0918204 0.694282
0.338917 0.0933078 0.694156
0.339431 0.0948808 0.694264
0.340005 0.0965121 0.694526
0.340581 0.0981452 0.694786
0.341307 0.0999179 0.69542
0.342204 0.10185 0.696474
0.343194 0.103872 0.697754
0.344257 0.105967 0.699214
0.345401 0.108142 0.700866
0.346509 0.110289 0.702422
0.347438 0.112275 0.70353
0.351408 0.117114 0.712129
0.334568 0.0524095 0.72791
0.3348 0.0537613 0.727279
0.335157 0.0552125 0.726982
0.335503 0.0566538 0.726652
0.33581 0.0580658 0.726221
0.335952 0.0593451 0.725355
0.335893 0.0604623 0.723961
0.335627 0.0614104 0.722029
0.335351 0.0623468 0.720077
0.334974 0.0631964 0.717864
0.334758 0.0641727 0.716077
0.334664 0.0652454 0.714612
0.334695 0.0664181 0.713475
0.334734 0.0675957 0.712361
0.334779 0.0687758 0.711263
0.334814 0.0699462 0.710142
0.334667 0.0709614 0.708551
0.334594 0.072037 0.707157
0.334411 0.0730153 0.705479
0.334411 0.0741474 0.70428
0.334393 0.0752611 0.703035
0.33464 0.0765993 0.702471
0.334873 0.0779256 0.701872
0.335229 0.0793572 0.701587
0.335503 0.0807186 0.701093
0.335756 0.0820624 0.700549
0.335973 0.083374 0.699911
0.336105 0.0846098 0.699056
0.336299 0.085899 0.69836
0.336524 0.0872159 0.697745
0.33672 0.088507 0.697058
0.336912 0.0897928 0.696359
0.337187 0.0911515 0.695868
0.337475 0.0925229 0.695413
0.337863 0.093985 0.69521
0.338342 0.0955297 0.695234
0.338852 0.0971035 0.695333
0.33939 0.0987059 0.695504
0.340057 0.100427 0.695992
0.340921 0.102333 0.696971
0.341905 0.104354 0.698245
0.342963 0.106448 0.699699
0.344071 0.108596 0.701273
0.34517 0.110738 0.702813
0.346094 0.112723 0.703918
0.333633 0.054339 0.728176
0.334079 0.0558608 0.728112
0.334498 0.0573625 0.727975
0.334875 0.0588314 0.727727
0.335074 0.0601593 0.72701
0.335043 0.0612993 0.725683
0.334747 0.0622221 0.723661
0.334373 0.0630787 0.721444
0.333926 0.0638694 0.719037
0.333617 0.0647684 0.716998
0.333435 0.0657676 0.715296
0.333437 0.066915 0.714076
0.333445 0.0680664 0.712878
0.333457 0.0692182 0.71169
0.333461 0.0703616 0.710485
0.333313 0.0713751 0.708888
0.333215 0.0724278 0.707424
0.333009 0.0733846 0.705681
0.332921 0.0744395 0.704249
0.332895 0.0755447 0.702979
0.333111 0.0768562 0.702336
0.333379 0.0782121 0.701827
0.333803 0.0797038 0.70172
0.334164 0.081141 0.701449
0.334451 0.082514 0.700988
0.334693 0.0838475 0.700413
0.334849 0.0851043 0.699617
0.335074 0.0864221 0.699
0.335366 0.0877976 0.69855
0.335629 0.0891489 0.698032
0.335884 0.0904925 0.697491
0.336163 0.0918566 0.69701
0.336448 0.0932267 0.696546
0.3368 0.0946586 0.696253
0.337249 0.0961782 0.696201
0.33773 0.097728 0.696229
0.338241 0.0993081 0.696334
0.338872 0.100998 0.696734
0.339699 0.102874 0.697627
0.340645 0.104864 0.698813
0.341665 0.106928 0.700179
0.342732 0.109041 0.701659
0.343826 0.111184 0.703197
0.344751 0.113174 0.704309
0.333468 0.0580561 0.729245
0.333842 0.0595246 0.728988
0.334038 0.0608512 0.72826
0.334073 0.0620446 0.727102
0.333812 0.0629963 0.725167
0.333473 0.0638791 0.723028
0.333083 0.0647153 0.72076
0.33274 0.0655849 0.71862
0.332497 0.0665333 0.71675
0.33241 0.067607 0.715291
0.33233 0.0686853 0.713858
0.332228 0.0697409 0.712367
0.332198 0.0708552 0.711069
0.332078 0.0718904 0.709536
0.332011 0.0729683 0.708148
0.331864 0.0739742 0.706551
0.33172 0.0749801 0.704968
0.331657 0.0760527 0.703598
0.331807 0.0773072 0.702782
0.332045 0.0786373 0.702194
0.332421 0.0800871 0.701962
0.332844 0.08158 0.701854
0.333159 0.0829784 0.701465
0.333398 0.0843104 0.700883
0.333587 0.0855955 0.700167
0.333874 0.0869682 0.699706
0.334232 0.0884054 0.699429
0.334566 0.0898211 0.699089
0.334885 0.0912233 0.698709
0.335191 0.0926133 0.698294
0.335475 0.0939846 0.697827
0.335802 0.0953939 0.697465
0.336223 0.0968918 0.697347
0.3367 0.0984411 0.697367
0.337182 0.0999949 0.697394
0.337782 0.101661 0.697722
0.338576 0.10351 0.698536
0.339454 0.105441 0.699558
0.340376 0.107418 0.700686
0.341378 0.109473 0.702007
0.342435 0.111587 0.703465
0.343333 0.113555 0.704517
0.33245 0.0587638 0.73056
0.332811 0.0602241 0.730267
0.33299 0.0615369 0.729488
0.333088 0.062783 0.728495
0.332877 0.0637735 0.72668
0.332583 0.0646933 0.724654
0.33226 0.0655835 0.722551
0.331866 0.0664098 0.720266
0.331561 0.0673061 0.718222
0.331399 0.0683175 0.716561
0.331224 0.0693145 0.714868
0.331031 0.0702931 0.713133
0.33103 0.0714303 0.711903
0.330969 0.072516 0.710523
0.330939 0.0736242 0.709223
0.330884 0.0747096 0.707863
0.330714 0.0756917 0.706202
0.330611 0.0767292 0.704722
0.330662 0.0778983 0.703645
0.330835 0.0791722 0.702887
0.331151 0.0805712 0.7025
0.331579 0.0820692 0.702405
0.331897 0.0834717 0.702025
0.332141 0.084806 0.701448
0.332331 0.0860946 0.700739
0.332625 0.0874735 0.700293
0.333021 0.0889464 0.700115
0.333416 0.0904178 0.69993
0.333798 0.0918794 0.699713
0.334141 0.0933043 0.699392
0.334427 0.0946784 0.698926
0.334778 0.0961126 0.698629
0.335197 0.097608 0.698498
0.33565 0.0991385 0.69846
0.33613 0.100694 0.698486
0.336726 0.10236 0.698807
0.337455 0.104152 0.69946
0.338242 0.106001 0.700255
0.339124 0.107944 0.701289
0.340089 0.109969 0.702526
0.341117 0.11206 0.703918
0.34201 0.114027 0.704965
0.331657 0.0608271 0.731226
0.331839 0.0621434 0.730453
0.332005 0.0634449 0.729636
0.331947 0.0645607 0.728222
0.33176 0.0655677 0.72647
0.331517 0.0665248 0.724572
0.331189 0.0674062 0.722452
0.33088 0.0682978 0.720385
0.33064 0.0692447 0.718509
0.330362 0.0701546 0.716535
0.330067 0.0710462 0.714521
0.330011 0.0721363 0.713139
0.329956 0.0732269 0.711769
0.329944 0.0743505 0.710511
0.329964 0.0755008 0.709342
0.329827 0.0765114 0.70776
0.329696 0.077525 0.7062
0.329639 0.0785999 0.704836
0.329739 0.0798102 0.703883
0.32996 0.0811264 0.703248
0.330328 0.0825733 0.702998
0.330648 0.0839772 0.70262
0.330925 0.0853422 0.702129
0.331147 0.0866597 0.701501
0.33147 0.0880669 0.701132
0.331892 0.0895633 0.701016
0.332291 0.0910407 0.700843
0.332678 0.0925079 0.700638
0.333053 0.0939642 0.7004
0.333343 0.095343 0.699943
0.333723 0.0968055 0.699718
0.33414 0.0983022 0.699585
0.33459 0.0998307 0.699536
0.335068 0.101387 0.699558
0.335695 0.103085 0.69996
0.336367 0.104827 0.700473
0.337145 0.106672 0.701251
0.337988 0.108582 0.702191
0.338886 0.110549 0.703267
0.339852 0.112586 0.70451
0.340712 0.114524 0.705477
0.331885 0.0625649 0.73592
0.331481 0.0634051 0.733561
0.331318 0.0644384 0.731853
0.331143 0.0654596 0.730121
0.330993 0.0664961 0.728455
0.330821 0.0675117 0.726735
0.330564 0.0684535 0.724796
0.330285 0.069371 0.722798
0.329979 0.0702615 0.720734
0.329601 0.0710859 0.718482
0.329209 0.0718947 0.716203
0.329086 0.072928 0.714637
0.32901 0.0739997 0.713203
0.329007 0.0751319 0.711963
0.329066 0.076317 0.710893
0.328968 0.0773612 0.709405
0.328813 0.0783531 0.707773
0.328695 0.0793754 0.706244
0.328722 0.0805218 0.705095
0.32884 0.0817473 0.704187
0.329145 0.0831389 0.70377
0.329463 0.0845431 0.703389
0.329741 0.0859107 0.702902
0.329994 0.0872554 0.702349
0.330315 0.088662 0.701974
0.33073 0.0901543 0.701843
0.331153 0.091655 0.701731
0.331569 0.0931497 0.701599
0.331979 0.0946404 0.701452
0.332299 0.0960493 0.701073
0.33268 0.0975135 0.700848
0.333066 0.0989842 0.700638
0.333516 0.100516 0.700591
0.333969 0.10205 0.700548
0.334596 0.103751 0.700951
0.335239 0.105468 0.701392
0.335982 0.107284 0.702087
0.336788 0.109164 0.702939
0.337653 0.111102 0.703933
0.338526 0.113054 0.704949
0.339318 0.11493 0.705751
0.331238 0.0647735 0.73701
0.330743 0.0655337 0.734396
0.330454 0.06646 0.732344
0.330269 0.0674678 0.730574
0.330104 0.0684905 0.728866
0.329914 0.0694877 0.727093
0.329666 0.0704328 0.72517
0.329318 0.0712878 0.722983
0.32885 0.0720347 0.720479
0.328393 0.0727852 0.71801
0.328225 0.0737806 0.71632
0.32814 0.0748448 0.714854
0.328113 0.0759562 0.713543
0.328224 0.0771871 0.712603
0.328184 0.0782828 0.711263
0.327981 0.0792327 0.709496
0.32779 0.0801894 0.707764
0.327749 0.0812769 0.706434
0.327744 0.0823929 0.705197
0.327949 0.0836973 0.70452
0.328267 0.0851004 0.704133
0.328552 0.086475 0.703662
0.328808 0.0878245 0.703119
0.329126 0.0892283 0.702732
0.329534 0.0907172 0.702586
0.329952 0.092214 0.702461
0.330369 0.0937124 0.702335
0.33081 0.0952331 0.702268
0.331161 0.096672 0.701969
0.331545 0.0981407 0.701751
0.331928 0.0996103 0.701533
0.332378 0.101143 0.701485
0.332858 0.102705 0.701514
0.333517 0.104439 0.702002
0.334163 0.106164 0.702456
0.334905 0.107983 0.703152
0.335676 0.109832 0.703917
0.336478 0.111714 0.704757
0.337253 0.113574 0.705526
0.337975 0.115388 0.706158
0.33168 0.0655451 0.743646
0.330709 0.0659168 0.739716
0.330042 0.0665329 0.736621
0.329613 0.0673402 0.734175
0.329336 0.0682717 0.732151
0.329114 0.0692457 0.73028
0.32898 0.0702899 0.728649
0.328767 0.0712635 0.72681
0.328428 0.0721249 0.724635
0.327973 0.072882 0.722156
0.327539 0.07365 0.719736
0.327306 0.0745886 0.717861
0.327184 0.0756206 0.716289
0.327065 0.0766512 0.714727
0.327109 0.0778239 0.713605
0.327115 0.0789608 0.712384
0.32689 0.0798902 0.710551
0.326629 0.0807828 0.708625
0.326556 0.0818393 0.7072
0.326508 0.0829165 0.705847
0.326594 0.0841134 0.704852
0.326887 0.0854944 0.7044
0.327204 0.0868987 0.704014
0.327493 0.0882781 0.703555
0.32781 0.0896824 0.703168
0.328217 0.0911701 0.703017
0.328634 0.092668 0.702892
0.329058 0.094173 0.702783
0.329502 0.0956986 0.702727
0.329883 0.0971656 0.702505
0.33029 0.0986579 0.702349
0.330705 0.100158 0.702213
0.331154 0.101692 0.702164
0.331664 0.103285 0.702272
0.332353 0.105051 0.702844
0.332971 0.106751 0.703226
0.333714 0.108574 0.703929
0.334481 0.110423 0.704689
0.335248 0.112276 0.705447
0.33596 0.114078 0.706057
0.336637 0.115851 0.70658
0.334199 0.0616512 0.757058
0.33229 0.0604847 0.757401
0.332495 0.0618526 0.756648
0.334322 0.0629533 0.756082
0.332595 0.0631331 0.755604
0.334238 0.0640835 0.754539
0.3325 0.064251 0.754025
0.333619 0.064772 0.751538
0.332198 0.0651966 0.751885
0.33264 0.0651555 0.747561
0.33155 0.0658484 0.748796
0.330752 0.066368 0.745306
0.329784 0.0667375 0.741363
0.329061 0.0673034 0.738099
0.32855 0.0680405 0.73542
0.328212 0.0689177 0.733218
0.327933 0.0698415 0.731183
0.327845 0.070925 0.729673
0.32769 0.0719463 0.72798
0.327388 0.0728386 0.725898
0.327001 0.073651 0.723587
0.326629 0.0744733 0.721327
0.326341 0.0753625 0.719294
0.326163 0.0763452 0.717566
0.325979 0.077318 0.715822
0.325932 0.0784087 0.714448
0.325927 0.0795349 0.713192
0.325702 0.0804624 0.711351
0.325416 0.0813301 0.709349
0.325311 0.0823584 0.707838
0.325226 0.0834003 0.706379
0.325251 0.08454 0.705216
0.325516 0.085898 0.704694
0.32584 0.087309 0.704326
0.326163 0.0887185 0.703953
0.326482 0.0901256 0.703572
0.326888 0.091614 0.703422
0.327307 0.093115 0.703303
0.327735 0.0946256 0.703207
0.328182 0.0961547 0.70316
0.328592 0.0976493 0.703012
0.328998 0.0991429 0.702857
0.329415 0.100646 0.702726
0.329868 0.102186 0.702691
0.330408 0.103809 0.702879
0.331125 0.105604 0.703525
0.331776 0.107339 0.703997
0.332577 0.109221 0.704854
0.333373 0.111103 0.705695
0.334138 0.112958 0.706452
0.334814 0.114729 0.706974
0.335483 0.116497 0.707479
0.330518 0.0594292 0.758122
0.330658 0.0607424 0.757181
0.330825 0.0620787 0.756323
0.33091 0.0633452 0.755236
0.330802 0.0644497 0.753616
0.330494 0.065386 0.751451
0.330074 0.0662235 0.748981
0.329409 0.0668489 0.745841
0.328534 0.0672912 0.742136
0.327852 0.067887 0.738969
0.327305 0.0685904 0.73618
0.326914 0.0694206 0.733824
0.326635 0.0703416 0.73178
0.326545 0.0714212 0.730256
0.326389 0.072441 0.728557
0.326152 0.0733871 0.726642
0.325831 0.0742541 0.724499
0.32553 0.0751349 0.722418
0.32528 0.0760572 0.720482
0.325075 0.0770136 0.718668
0.32483 0.0779316 0.716753
0.324693 0.0789413 0.715132
0.324626 0.0800116 0.713705
0.324374 0.0809119 0.711783
0.32406 0.0817524 0.7097
0.323926 0.0827523 0.708104
0.323832 0.0837843 0.706617
0.323854 0.0849208 0.705444
0.324121 0.0862792 0.704924
0.324479 0.0877225 0.704648
0.324832 0.0891614 0.704358
0.32518 0.0905948 0.70405
0.325586 0.0920839 0.703899
0.326004 0.0935858 0.70378
0.326432 0.095097 0.703684
0.326851 0.0966012 0.703564
0.327258 0.0980949 0.703412
0.327665 0.09959 0.703259
0.328086 0.101098 0.70314
0.328571 0.102669 0.703189
0.329141 0.104324 0.70346
0.329887 0.10615 0.704185
0.330569 0.107918 0.704742
0.331401 0.109835 0.705687
0.332202 0.111726 0.706547
0.333026 0.113642 0.707461
0.333706 0.115419 0.707996
0.334411 0.117226 0.708595
0.328868 0.0596727 0.757852
0.328979 0.0609614 0.75683
0.32909 0.0622492 0.755812
0.329128 0.0634755 0.754594
0.328933 0.0645046 0.752729
0.328628 0.0654386 0.750564
0.328238 0.0662961 0.748169
0.327584 0.0669245 0.745048
0.326808 0.0674431 0.741601
0.326231 0.0681218 0.738708
0.325752 0.0688788 0.736097
0.325371 0.0697131 0.733758
0.325144 0.0706766 0.731851
0.325033 0.0717353 0.730263
0.324855 0.072733 0.728496
0.324651 0.0737047 0.726664
0.324397 0.074628 0.724697
0.324163 0.0755654 0.722792
0.323984 0.0765469 0.721038
0.323837 0.0775541 0.719378
0.32359 0.0784676 0.717448
0.323419 0.079446 0.71573
0.323269 0.0804398 0.714072
0.322988 0.0813104 0.712062
0.322646 0.0821229 0.709896
0.322464 0.0830761 0.708165
0.322344 0.0840825 0.706603
0.322364 0.0852148 0.70542
0.322601 0.0865458 0.704821
0.32296 0.0879902 0.704549
0.323344 0.0894578 0.704343
0.323722 0.0909196 0.704116
0.324152 0.092432 0.704031
0.324566 0.0939312 0.703904
0.32499 0.0954388 0.703797
0.325404 0.0969402 0.703668
0.325836 0.0984579 0.703582
0.326273 0.0999814 0.703508
0.326723 0.101519 0.703469
0.327239 0.103121 0.703601
0.327837 0.104805 0.703947
0.328584 0.106635 0.704681
0.329295 0.108435 0.70532
0.330161 0.110388 0.706357
0.330998 0.112317 0.707316
0.331887 0.114302 0.708405
0.33263 0.116146 0.709109
0.333402 0.118022 0.709887
0.338042 0.121936 0.716749
0.334086 0.119814 0.71043
0.327114 0.0586319 0.758623
0.327225 0.0599209 0.757598
0.32734 0.0612116 0.756586
0.32738 0.0624391 0.755368
0.327331 0.0635899 0.753901
0.327104 0.0645884 0.751941
0.326766 0.0654899 0.749677
0.326349 0.0663203 0.7472
0.3257 0.0669457 0.744079
0.325018 0.0675371 0.740879
0.324481 0.0682452 0.738089
0.324048 0.0690358 0.735593
0.323701 0.0698954 0.73334
0.323534 0.0709068 0.731591
0.323427 0.0719669 0.73001
0.323258 0.0729702 0.728264
0.323117 0.0739938 0.726597
0.322919 0.0749638 0.724778
0.322697 0.0759087 0.722897
0.322527 0.0768951 0.721161
0.322386 0.0779052 0.719511
0.322141 0.078818 0.71758
0.321913 0.0797425 0.715701
0.321705 0.0806802 0.713878
0.321417 0.0815419 0.711844
0.321082 0.0823565 0.709688
0.320879 0.0832871 0.707894
0.320764 0.0842958 0.706341
0.320809 0.0854494 0.705223
0.321018 0.0867526 0.704546
0.321405 0.0882228 0.70435
0.32182 0.0897192 0.704227
0.322227 0.0912107 0.704086
0.32266 0.0927261 0.704009
0.323098 0.0942467 0.703943
0.323514 0.0957495 0.703822
0.323929 0.0972502 0.703693
0.32439 0.0987971 0.703687
0.324856 0.10035 0.703693
0.325307 0.10189 0.703658
0.325851 0.10352 0.703866
0.326448 0.105205 0.704215
0.327168 0.107013 0.704886
0.327905 0.108839 0.705594
0.328799 0.110825 0.706715
0.329666 0.112786 0.707757
0.330648 0.114867 0.709096
0.331457 0.116781 0.70998
0.332298 0.11873 0.710942
0.333042 0.120585 0.711645
0.325501 0.0589044 0.758451
0.325611 0.0601908 0.75742
0.325664 0.0614296 0.756234
0.325645 0.0626057 0.754846
0.325539 0.0637061 0.753217
0.32525 0.0646493 0.751078
0.324826 0.0654715 0.74856
0.324375 0.0662664 0.745978
0.323726 0.0668865 0.74285
0.323114 0.0675301 0.739831
0.322647 0.0682929 0.737228
0.322288 0.0691417 0.734926
0.321998 0.070047 0.732826
0.321866 0.0710859 0.731169
0.321734 0.0721203 0.729512
0.321545 0.0731021 0.727704
0.321429 0.0741448 0.726102
0.321232 0.0751122 0.72428
0.321014 0.0760568 0.722403
0.320903 0.0770933 0.720825
0.320771 0.0781092 0.719196
0.320555 0.0790445 0.717337
0.320303 0.0799424 0.715382
0.320063 0.0808483 0.713468
0.319771 0.0817027 0.711416
0.31949 0.082563 0.709401
0.3193 0.083501 0.707631
0.319246 0.084564 0.706242
0.319317 0.0857402 0.70519
0.319494 0.087014 0.704429
0.319849 0.0884548 0.70415
0.320268 0.0899543 0.704037
0.320655 0.0914265 0.703842
0.321091 0.0929447 0.703775
0.321555 0.0944924 0.703786
0.322002 0.0960238 0.703746
0.322448 0.0975554 0.703703
0.322971 0.0991635 0.703867
0.32347 0.100749 0.703963
0.323951 0.10232 0.70401
0.324519 0.103975 0.704283
0.325115 0.105661 0.704633
0.325806 0.107443 0.70523
0.326564 0.109293 0.706001
0.327451 0.111276 0.707111
0.328348 0.113271 0.70824
0.329365 0.115391 0.709679
0.330239 0.117374 0.71074
0.331137 0.119384 0.711856
0.331854 0.121217 0.712496
0.32404 0.0593028 0.758711
0.324116 0.0605598 0.75758
0.324088 0.0617294 0.75616
0.324005 0.0628494 0.754586
0.323863 0.0639174 0.752851
0.323511 0.0648018 0.750523
0.323025 0.0655674 0.747825
0.322545 0.0663324 0.745152
0.321871 0.0669245 0.741942
0.321301 0.0675984 0.73903
0.32085 0.068369 0.73646
0.320556 0.0692703 0.734334
0.320273 0.0701764 0.732243
0.320167 0.0712352 0.730654
0.320038 0.0722704 0.729004
0.319852 0.0732498 0.727194
0.319709 0.0742649 0.725511
0.319482 0.0752022 0.723602
0.319232 0.0761148 0.721633
0.319123 0.0771496 0.720055
0.318995 0.0781635 0.718427
0.318812 0.0791257 0.716656
0.318589 0.0800476 0.714779
0.318352 0.0809511 0.712863
0.318061 0.0818026 0.710809
0.317839 0.0827126 0.708947
0.317658 0.0836569 0.707199
0.317641 0.0847511 0.705905
0.317744 0.0859545 0.704937
0.317917 0.0872239 0.704163
0.318268 0.0886604 0.703874
0.31871 0.0901832 0.703829
0.319102 0.0916593 0.703647
0.319539 0.0931798 0.703588
0.320031 0.0947538 0.703674
0.32048 0.0962882 0.703643
0.320937 0.0978322 0.703635
0.321525 0.0995027 0.703972
0.322056 0.101122 0.704158
0.322567 0.102722 0.704286
0.32316 0.104405 0.704633
0.323783 0.10612 0.705057
0.32447 0.1079 0.70565
0.325225 0.109751 0.706418
0.326077 0.111701 0.70744
0.32697 0.113698 0.708567
0.327984 0.11582 0.710009
0.328862 0.11781 0.711086
0.329786 0.119851 0.71228
0.330499 0.121682 0.712912
0.32234 0.0583069 0.759638
0.32247 0.0596096 0.758658
0.322535 0.0608567 0.757494
0.322454 0.061979 0.755917
0.32234 0.0630699 0.754249
0.322163 0.0641047 0.752408
0.321756 0.0649384 0.749917
0.321207 0.0656454 0.747032
0.320671 0.0663566 0.744191
0.320002 0.0669448 0.740979
0.319441 0.0676212 0.738085
0.319033 0.0684242 0.735627
0.318774 0.0693512 0.733591
0.318523 0.0702823 0.731586
0.318417 0.071336 0.729987
0.318262 0.072345 0.728261
0.318074 0.0733195 0.726443
0.317903 0.074306 0.724677
0.317647 0.0752121 0.722679
0.317367 0.0760932 0.720621
0.317257 0.0771228 0.719035
0.317131 0.078136 0.717412
0.317014 0.0791533 0.715815
0.316853 0.0801277 0.714103
0.316681 0.0810879 0.712362
0.31645 0.0819905 0.710465
0.316293 0.0829578 0.708775
0.316122 0.0839081 0.707049
0.316111 0.0850063 0.705768
0.316188 0.0861842 0.704728
0.316305 0.0873993 0.7038
0.316599 0.0887802 0.703354
0.31701 0.0902732 0.703227
0.317369 0.0917181 0.70296
0.317831 0.0932631 0.702973
0.318375 0.0948877 0.703204
0.318884 0.0964811 0.703341
0.319403 0.0980841 0.703498
0.320076 0.0998395 0.70407
0.320639 0.101492 0.704347
0.32115 0.103094 0.704478
0.321742 0.104777 0.704825
0.322395 0.106523 0.705332
0.323029 0.108253 0.705786
0.323782 0.110105 0.706558
0.324623 0.112049 0.707561
0.325538 0.11407 0.708752
0.326521 0.116165 0.71012
0.327423 0.118183 0.711268
0.328315 0.120196 0.712386
0.328962 0.121962 0.712849
0.321069 0.0588654 0.760449
0.321003 0.0600041 0.758904
0.320986 0.0611802 0.757499
0.320845 0.0622491 0.755744
0.320646 0.0632658 0.75383
0.320384 0.0642248 0.751741
0.31992 0.065004 0.749076
0.319318 0.0656589 0.746029
0.318754 0.0663388 0.743095
0.318145 0.0669732 0.740044
0.317647 0.0676978 0.737315
0.317279 0.06853 0.73496
0.317023 0.069457 0.73293
0.31677 0.0703812 0.73091
0.316635 0.0714074 0.729229
0.316456 0.072389 0.727424
0.316274 0.0733665 0.725622
0.316132 0.0743745 0.72393
0.315876 0.0752772 0.721928
0.315569 0.0761278 0.719784
0.315431 0.0771282 0.718116
0.315308 0.0781407 0.716498
0.315224 0.0791854 0.71499
0.315108 0.0801971 0.713396
0.315032 0.0812429 0.711917
0.314897 0.0822313 0.710278
0.314829 0.0832783 0.708826
0.314717 0.0842823 0.707259
0.314764 0.0854332 0.706132
0.314864 0.0866325 0.705152
0.314952 0.0878189 0.704141
0.315185 0.0891424 0.703529
0.315534 0.0905775 0.703236
0.315836 0.0919669 0.702813
0.316241 0.0934566 0.702671
0.316784 0.0950808 0.702903
0.317321 0.0967027 0.70312
0.317868 0.0983356 0.703361
0.318569 0.100121 0.704015
0.319158 0.101799 0.704362
0.319697 0.10343 0.704572
0.320289 0.105114 0.704922
0.320969 0.10689 0.705509
0.321605 0.108625 0.705975
0.32236 0.11048 0.706753
0.3232 0.112426 0.707759
0.324132 0.11447 0.709008
0.325084 0.116538 0.710303
0.325983 0.118557 0.71145
0.326842 0.120538 0.712486
0.327449 0.122266 0.71285
0.33239 0.0608417 0.801541
0.328017 0.0576877 0.794926
0.32783 0.0587787 0.792958
0.329695 0.0598968 0.792295
0.327558 0.0597971 0.790751
0.326513 0.0601718 0.786296
0.319725 0.0593644 0.761054
0.319521 0.0603847 0.759103
0.319405 0.0614759 0.75741
0.319206 0.0624928 0.755483
0.318977 0.0634803 0.753475
0.31866 0.0643865 0.751215
0.318135 0.0651092 0.74837
0.317508 0.0657359 0.745238
0.316916 0.0663857 0.742215
0.316346 0.0670477 0.739262
0.315857 0.0677752 0.73655
0.315524 0.0686332 0.734285
0.315272 0.0695589 0.732257
0.315016 0.0704771 0.730225
0.314827 0.0714495 0.728382
0.314648 0.0724288 0.726576
0.314471 0.0734058 0.724779
0.314312 0.0743957 0.723038
0.314037 0.0752756 0.720973
0.313757 0.0761466 0.7189
0.313618 0.0771432 0.717227
0.313526 0.0781792 0.715688
0.313506 0.0792797 0.714355
0.313481 0.0803732 0.713011
0.313498 0.0815037 0.711787
0.313459 0.0825788 0.710407
0.313483 0.0837122 0.70921
0.313433 0.0847719 0.707806
0.313506 0.0859468 0.706746
0.313603 0.087143 0.705756
0.313661 0.0882995 0.704656
0.313808 0.0895402 0.703806
0.314119 0.090939 0.703409
0.314357 0.0922675 0.702812
0.314706 0.0937021 0.702515
0.315222 0.0953022 0.70268
0.315758 0.096923 0.702896
0.316304 0.0985555 0.703137
0.317004 0.100343 0.703796
0.317592 0.102021 0.704145
0.318155 0.103677 0.704425
0.31877 0.105387 0.704844
0.319451 0.107165 0.705436
0.32009 0.108904 0.705914
0.320839 0.110759 0.706689
0.321647 0.112674 0.707614
0.322607 0.114749 0.708945
0.323562 0.116824 0.710256
0.324491 0.118876 0.711492
0.32537 0.120884 0.712593
0.32597 0.122605 0.712939
0.330042 0.0568211 0.803718
0.326309 0.054201 0.798927
0.32639 0.0555161 0.797731
0.328096 0.056504 0.796579
0.326347 0.0567293 0.796175
0.326203 0.0578563 0.794324
0.325914 0.0588591 0.792048
0.325433 0.0596997 0.78922
0.324334 0.0600198 0.784589
0.32293 0.0600744 0.779082
0.319154 0.0593232 0.765288
0.318346 0.0598368 0.761566
0.318023 0.0607531 0.75926
0.317823 0.0617712 0.75732
0.317596 0.0627603 0.755302
0.317307 0.0636919 0.753111
0.316959 0.064568 0.750756
0.316402 0.0652569 0.747805
0.315774 0.0658763 0.744658
0.31519 0.0665272 0.741645
0.314659 0.0672187 0.738795
0.314187 0.0679543 0.736116
0.31386 0.0688144 0.733862
0.313581 0.0697107 0.731747
0.313267 0.070573 0.729542
0.313046 0.0715131 0.727604
0.312842 0.0724661 0.725722
0.312672 0.0734456 0.723941
0.312519 0.0744369 0.722211
0.312277 0.0753414 0.720229
0.312032 0.0762406 0.718249
0.311872 0.0772147 0.716513
0.311809 0.0782746 0.715051
0.311815 0.0793973 0.71379
0.311878 0.0805692 0.712686
0.311935 0.0817355 0.711572
0.312012 0.0829184 0.710513
0.312125 0.0841338 0.709558
0.312138 0.0852523 0.708325
0.312221 0.0864359 0.707289
0.31232 0.0876338 0.706301
0.312347 0.0887596 0.705112
0.312433 0.0899415 0.704092
0.31268 0.0912788 0.703519
0.312886 0.0925746 0.70283
0.313203 0.0939792 0.702449
0.313663 0.0955237 0.702459
0.314166 0.0971128 0.702588
0.314677 0.0987123 0.702739
0.315348 0.100473 0.703326
0.315938 0.102153 0.703683
0.316499 0.103809 0.703965
0.317113 0.105519 0.704386
0.317789 0.107294 0.704972
0.318396 0.109003 0.705369
0.319115 0.110826 0.706064
0.319888 0.112709 0.706904
0.320764 0.114701 0.70802
0.321715 0.116775 0.709332
0.322647 0.118834 0.710589
0.323527 0.120843 0.711697
0.324156 0.122596 0.712128
0.328169 0.0531782 0.80732
0.324579 0.0506858 0.802912
0.324496 0.0518741 0.801217
0.326259 0.052909 0.800217
0.32448 0.053114 0.799727
0.324529 0.0544036 0.798433
0.324578 0.0556898 0.797137
0.324504 0.0568747 0.795485
0.324356 0.0579945 0.793616
0.323978 0.0589201 0.791072
0.323385 0.0596612 0.787902
0.32224 0.0599332 0.783116
0.320924 0.0600489 0.777839
0.320763 0.0594735 0.77136
0.319254 0.0598527 0.771541
0.317765 0.0597945 0.765793
0.316878 0.0602341 0.76182
0.316429 0.0610389 0.759135
0.316105 0.0619463 0.756824
0.315848 0.0629066 0.754715
0.315502 0.0637852 0.752353
0.315124 0.0646295 0.7499
0.314569 0.0653135 0.746943
0.313973 0.0659552 0.743877
0.313429 0.0666347 0.740966
0.312965 0.067379 0.738295
0.312529 0.0681425 0.735712
0.312232 0.0690251 0.733536
0.311925 0.0698927 0.731333
0.311584 0.0707264 0.729043
0.311307 0.0716125 0.72694
0.311048 0.0725103 0.724893
0.310847 0.0734573 0.723017
0.310699 0.0744481 0.721293
0.310489 0.0753793 0.719401
0.310279 0.0763065 0.717513
0.310151 0.0773062 0.715861
0.310121 0.0783931 0.714488
0.310154 0.0795384 0.713299
0.310247 0.080738 0.712281
0.310359 0.0819539 0.711317
0.310499 0.083195 0.710434
0.310646 0.0844415 0.709571
0.310719 0.0856155 0.708501
0.310835 0.0868306 0.707557
0.310941 0.088034 0.706584
0.310968 0.0891588 0.705392
0.311023 0.0903092 0.704282
0.311213 0.0915899 0.703548
0.311389 0.0928562 0.702776
0.31168 0.0942345 0.702322
0.312078 0.0957201 0.702168
0.312542 0.0972708 0.702192
0.313045 0.0988619 0.702322
0.313658 0.100566 0.702755
0.314222 0.102222 0.703049
0.314754 0.103848 0.703254
0.315363 0.105554 0.703666
0.316009 0.1073 0.704178
0.316585 0.108978 0.704495
0.317265 0.110764 0.705095
0.317998 0.112606 0.705833
0.318832 0.114557 0.706842
0.319748 0.116597 0.708073
0.320681 0.118658 0.709339
0.321537 0.120645 0.710396
0.322225 0.122458 0.710989
0.326486 0.0509438 0.810065
0.322585 0.0482096 0.804689
0.322761 0.0496073 0.803762
0.322886 0.050964 0.802685
0.322808 0.0521528 0.800996
0.322738 0.053347 0.799341
0.322754 0.0546067 0.797943
0.32274 0.0558404 0.796461
0.322604 0.05697 0.794617
0.322426 0.0580607 0.792652
0.322081 0.0590094 0.7902
0.32142 0.0596865 0.786813
0.320264 0.0599391 0.781973
0.318946 0.0600437 0.776671
0.317542 0.0600602 0.771127
0.316263 0.0601693 0.765966
0.315331 0.0605638 0.761842
0.314805 0.061299 0.758923
0.314382 0.0621162 0.756312
0.314092 0.0630435 0.754098
0.313718 0.0638924 0.751643
0.313313 0.0647086 0.749105
0.312798 0.0654222 0.746253
0.312299 0.0661427 0.743454
0.311825 0.0668795 0.740736
0.311425 0.0676764 0.73824
0.311019 0.0684617 0.735731
0.310695 0.0693169 0.73347
0.310361 0.0701569 0.731182
0.309968 0.0709379 0.72873
0.309635 0.0717691 0.726458
0.309317 0.0726078 0.724232
0.309059 0.0734986 0.722188
0.308878 0.0744556 0.720366
0.308698 0.0754107 0.718554
0.308528 0.0763702 0.716773
0.308437 0.0774011 0.715222
0.30846 0.0785361 0.713998
0.308519 0.0797022 0.712876
0.308641 0.080928 0.71194
0.308762 0.0821504 0.710998
0.308931 0.0834179 0.710196
0.309126 0.0847099 0.709468
0.309257 0.0859385 0.70856
0.309407 0.0871852 0.707708
0.309546 0.0884188 0.706823
0.309599 0.0895682 0.705702
0.309625 0.090689 0.704506
0.309791 0.0919455 0.703703
0.309943 0.0931871 0.702862
0.310181 0.0945128 0.70226
0.310495 0.0959158 0.701876
0.310893 0.0974011 0.70172
0.311332 0.0989275 0.701674
0.311862 0.10055 0.701886
0.312395 0.102174 0.702098
0.312922 0.103795 0.702293
0.313498 0.105468 0.702622
0.314109 0.107179 0.703044
0.314707 0.108879 0.703428
0.315383 0.110662 0.704022
0.316079 0.112468 0.704669
0.316867 0.114373 0.705564
0.317735 0.116364 0.70667
0.318594 0.11835 0.707749
0.319401 0.120287 0.708683
0.320091 0.122103 0.709291
0.323919 0.0467375 0.811641
0.32173 0.0453685 0.811412
0.320219 0.0454371 0.805349
0.322346 0.0467595 0.805425
0.320697 0.0470751 0.805333
0.320899 0.0484951 0.804486
0.321043 0.0498662 0.80346
0.321143 0.051199 0.802299
0.321067 0.052389 0.800618
0.320971 0.0535582 0.798877
0.320984 0.0548125 0.797464
0.320936 0.0560154 0.795876
0.320768 0.0571152 0.793931
0.320594 0.0582064 0.791974
0.320287 0.0591812 0.789623
0.319471 0.0597206 0.785759
0.318318 0.0599659 0.780905
0.317008 0.0600658 0.775602
0.315614 0.0600793 0.770061
0.314328 0.0601721 0.764858
0.313566 0.0607056 0.761221
0.313071 0.0614612 0.75838
0.312648 0.0622736 0.755759
0.31233 0.0631718 0.753454
0.312008 0.0640617 0.751143
0.311639 0.0649049 0.7487
0.311196 0.0656775 0.746049
0.310802 0.0664867 0.743545
0.310398 0.0672811 0.741017
0.310005 0.0680803 0.73853
0.309545 0.0688136 0.735855
0.309163 0.0696121 0.733415
0.308774 0.0703979 0.730958
0.308356 0.0711512 0.728423
0.307973 0.0719316 0.725996
0.307648 0.0727611 0.723746
0.307356 0.0736157 0.721595
0.307145 0.0745409 0.719682
0.306973 0.0754987 0.717885
0.306834 0.0764842 0.716188
0.30678 0.0775471 0.714739
0.306832 0.0787067 0.713593
0.306922 0.0799005 0.712558
0.307073 0.0811518 0.711701
0.307198 0.0823781 0.710773
0.307368 0.0836449 0.709971
0.307588 0.0849589 0.70931
0.307741 0.0862082 0.708463
0.307897 0.0874591 0.707625
0.308043 0.088699 0.70676
0.308124 0.0898737 0.705712
0.30815 0.0909931 0.704514
0.308316 0.0922488 0.70371
0.308445 0.0934669 0.702803
0.308655 0.0947641 0.702123
0.30891 0.0961065 0.701571
0.30922 0.097504 0.701173
0.309572 0.0989432 0.70089
0.310013 0.100475 0.700857
0.310485 0.102039 0.700909
0.310949 0.103595 0.700935
0.311489 0.10523 0.701169
0.312069 0.106909 0.701513
0.312667 0.108609 0.701903
0.313345 0.110394 0.702512
0.314013 0.112171 0.703087
0.314732 0.114004 0.703802
0.315553 0.115948 0.704793
0.316372 0.117892 0.70577
0.317107 0.119753 0.706517
0.317785 0.121557 0.707104
0.319595 0.0440418 0.811339
0.317942 0.0439945 0.804803
0.318481 0.0456802 0.80498
0.318897 0.0472683 0.804777
0.319093 0.0486813 0.803908
0.319242 0.0500546 0.802896
0.319344 0.0513887 0.801745
0.319305 0.0526044 0.800166
0.319237 0.053793 0.798502
0.319247 0.055044 0.79708
0.319166 0.0562159 0.795385
0.319 0.0573137 0.793438
0.318826 0.0584009 0.791474
0.31856 0.0594063 0.789237
0.317674 0.0598795 0.785147
0.316473 0.060074 0.780127
0.315098 0.0601078 0.774605
0.313672 0.0600836 0.768947
0.312364 0.0601456 0.763652
0.311678 0.060737 0.760226
0.31125 0.0615458 0.757574
0.310864 0.0623841 0.75505
0.310547 0.0632791 0.752741
0.310228 0.0641668 0.75043
0.309925 0.0650638 0.748174
0.309581 0.0659184 0.745799
0.309261 0.0667905 0.743504
0.308925 0.0676417 0.741165
0.308534 0.06844 0.738676
0.308016 0.0691153 0.735818
0.307573 0.069853 0.733187
0.307152 0.0706052 0.730628
0.306685 0.0713094 0.727942
0.306279 0.0720641 0.725442
0.305957 0.0728905 0.723188
0.305639 0.0737166 0.720954
0.305429 0.0746386 0.719037
0.30531 0.0756431 0.717389
0.305208 0.0766593 0.71579
0.305188 0.0777517 0.714435
0.305269 0.0789367 0.713369
0.305385 0.0801555 0.71241
0.305515 0.0813847 0.711489
0.305645 0.0826127 0.71057
0.305812 0.0838766 0.70976
0.306029 0.0851882 0.709094
0.306184 0.0864367 0.708248
0.306346 0.0876922 0.707425
0.306492 0.0889306 0.706558
0.306574 0.0901053 0.705512
0.306599 0.0912212 0.704307
0.306715 0.0924258 0.70336
0.30684 0.0936392 0.702442
0.307046 0.0949308 0.70175
0.307271 0.096242 0.701113
0.307547 0.0976044 0.700621
0.307863 0.0990077 0.700242
0.308245 0.100477 0.700044
0.308653 0.101976 0.699921
0.309056 0.103469 0.69978
0.30951 0.105016 0.699782
0.310057 0.10666 0.70004
0.310628 0.108331 0.700361
0.311282 0.110091 0.700912
0.311954 0.111874 0.70151
0.31262 0.113652 0.702086
0.313374 0.115526 0.702902
0.31412 0.117394 0.703691
0.314755 0.119149 0.704174
0.315367 0.120881 0.704587
0.318676 0.123591 0.708269
0.31625 0.122905 0.70574
0.315289 0.0409961 0.804554
0.315742 0.0426107 0.804473
0.316228 0.0442538 0.804496
0.316704 0.0458894 0.804482
0.317114 0.0474736 0.804268
0.317312 0.0488859 0.803402
0.317464 0.0502602 0.802398
0.317572 0.0515962 0.80126
0.317566 0.0528368 0.799778
0.317496 0.0540223 0.798107
0.317513 0.0552752 0.796697
0.317434 0.056447 0.795006
0.317271 0.0575436 0.79306
0.317127 0.0586523 0.791177
0.316897 0.0596835 0.789038
0.315934 0.0600846 0.7847
0.314642 0.0601921 0.779385
0.313216 0.0601704 0.773682
0.311735 0.0600865 0.767832
0.310391 0.0601073 0.762409
0.309789 0.0607636 0.759217
0.309432 0.0616291 0.756767
0.309056 0.0624713 0.754264
0.308774 0.0633928 0.752051
0.308492 0.064308 0.74984
0.308253 0.0652582 0.747765
0.308003 0.0661939 0.745662
0.307746 0.0671175 0.74354
0.307416 0.0679716 0.741212
0.307024 0.0687633 0.738706
0.306446 0.0693797 0.735661
0.305917 0.0700333 0.732767
0.305464 0.0707498 0.730101
0.304999 0.0714512 0.727412
0.304577 0.0721852 0.724853
0.304267 0.0730185 0.722627
0.303978 0.073867 0.720468
0.303775 0.0747914 0.718564
0.303688 0.0758232 0.717003
0.30362 0.0768692 0.7155
0.303655 0.0780111 0.714297
0.303765 0.079223 0.713314
0.303909 0.0804664 0.712431
0.304014 0.0816708 0.711436
0.304142 0.0828957 0.710509
0.304256 0.0841066 0.709545
0.30442 0.0853651 0.708726
0.304548 0.0865861 0.707803
0.30471 0.0878407 0.706981
0.304858 0.0890801 0.70612
0.304967 0.0902779 0.705144
0.305016 0.0914166 0.704006
0.30513 0.0926173 0.703051
0.305255 0.0938282 0.70213
0.305458 0.0951163 0.70143
0.305681 0.096424 0.700787
0.305933 0.0977614 0.700227
0.306219 0.0991332 0.699764
0.306539 0.10054 0.699397
0.306886 0.101975 0.699105
0.30723 0.103406 0.698802
0.307626 0.104893 0.698645
0.308114 0.106476 0.698745
0.308675 0.108137 0.699045
0.309298 0.109865 0.699518
0.309968 0.111646 0.700117
0.31069 0.113482 0.700853
0.311417 0.115329 0.701605
0.312129 0.117163 0.70231
0.312725 0.118876 0.702691
0.313297 0.120565 0.703
0.31671 0.0395913 0.811915
0.312307 0.0364858 0.804737
0.312691 0.0380435 0.80445
0.314849 0.0393927 0.804672
0.313048 0.039581 0.80408
0.313486 0.0411828 0.80396
0.313933 0.0427932 0.803866
0.314386 0.0444092 0.803789
0.314803 0.0459962 0.803596
0.315208 0.0475757 0.80337
0.315432 0.0490079 0.802586
0.315589 0.0503842 0.801597
0.315735 0.0517495 0.800574
0.31579 0.0530374 0.799273
0.315758 0.0542506 0.797709
0.31578 0.0555062 0.796314
0.31571 0.0566811 0.79464
0.315522 0.057754 0.792614
0.315379 0.0588607 0.790729
0.315206 0.0599374 0.788756
0.314083 0.0601927 0.783913
0.312698 0.0602075 0.778287
0.311203 0.0601149 0.772353
0.309693 0.0599925 0.766386
0.308297 0.0599557 0.760782
0.307853 0.0607444 0.758054
0.307568 0.0616679 0.755811
0.307276 0.0625797 0.753552
0.307057 0.0635521 0.751517
0.306843 0.0645243 0.7495
0.30667 0.0655288 0.74761
0.306504 0.0665371 0.745749
0.306277 0.0674865 0.743713
0.305923 0.0683136 0.7413
0.305474 0.0690492 0.738615
0.304839 0.0696067 0.735386
0.304224 0.0701761 0.732229
0.303746 0.0708645 0.72948
0.303291 0.0715684 0.726806
0.302903 0.0723297 0.724339
0.30265 0.0732123 0.722272
0.302396 0.0740895 0.720207
0.302227 0.0750438 0.718397
0.302175 0.0761053 0.716931
0.302139 0.0771793 0.715514
0.302179 0.0783242 0.714323
0.302315 0.0795604 0.713413
0.302434 0.0807792 0.712457
0.30251 0.0819543 0.711377
0.302608 0.083148 0.710358
0.30269 0.0843255 0.709299
0.302826 0.0855553 0.708398
0.302951 0.0867732 0.707468
0.303087 0.0879988 0.706566
0.303236 0.0892379 0.705707
0.303343 0.0904322 0.704725
0.303398 0.0915743 0.7036
0.303512 0.0927729 0.702642
0.303637 0.0939831 0.701722
0.303841 0.095271 0.701024
0.30407 0.0965841 0.700399
0.304327 0.0979249 0.699852
0.30459 0.0992724 0.699324
0.304906 0.100675 0.698947
0.305222 0.102076 0.698568
0.305536 0.103476 0.698183
0.305877 0.104905 0.697875
0.306304 0.106425 0.697807
0.306795 0.108013 0.69792
0.307378 0.109699 0.698285
0.308042 0.111473 0.698874
0.308766 0.113313 0.699627
0.309496 0.115165 0.700395
0.310201 0.116991 0.701086
0.310792 0.118699 0.701459
0.311312 0.120332 0.701632
0.309997 0.0350194 0.804028
0.310398 0.0365886 0.803797
0.310781 0.0381449 0.803511
0.311154 0.039694 0.803194
0.311562 0.0412701 0.80298
0.312005 0.0428763 0.802878
0.312456 0.0444904 0.802801
0.312872 0.0460758 0.802609
0.313276 0.0476534 0.802383
0.313557 0.04913 0.801774
0.313746 0.0505302 0.800881
0.313928 0.0519232 0.799967
0.314021 0.0532409 0.798781
0.314052 0.0545048 0.797408
0.314076 0.05576 0.796016
0.314043 0.0569631 0.794447
0.31383 0.0580115 0.792337
0.313688 0.0591151 0.790447
0.313243 0.0599539 0.787637
0.31194 0.0600427 0.782223
0.31043 0.0599375 0.776195
0.308938 0.0598325 0.77024
0.307461 0.0597257 0.764347
0.306335 0.0599156 0.759539
0.306045 0.060834 0.757265
0.305815 0.0618012 0.755178
0.305579 0.0627589 0.753079
0.305369 0.0637355 0.751064
0.305192 0.0647375 0.749152
0.305083 0.0657968 0.747447
0.304976 0.066856 0.745756
0.304727 0.0677811 0.743643
0.304373 0.0686037 0.741219
0.303869 0.0692838 0.738359
0.303177 0.0697828 0.734949
0.302538 0.0703229 0.731704
0.302068 0.0710128 0.728967
0.30162 0.0717181 0.726304
0.301294 0.0725332 0.72401
0.301098 0.0734655 0.722102
0.300902 0.0743945 0.7202
0.300764 0.0753756 0.718475
0.300745 0.0764666 0.717101
0.300712 0.0775424 0.715689
0.300753 0.0786862 0.714495
0.300865 0.0798977 0.713512
0.300983 0.0811144 0.71255
0.301032 0.0822622 0.711389
0.301125 0.083449 0.710352
0.301177 0.0845964 0.709205
0.301255 0.085767 0.708134
0.301352 0.0869535 0.707116
0.301457 0.0881481 0.706127
0.301581 0.0893608 0.705195
0.301693 0.0905591 0.704228
0.301778 0.0917281 0.703184
0.301874 0.0929065 0.702172
0.302001 0.0941166 0.701256
0.302206 0.0954034 0.700558
0.302438 0.0967187 0.699942
0.302676 0.0980397 0.699344
0.302942 0.0993892 0.698825
0.303257 0.10079 0.698446
0.303546 0.102162 0.69799
0.303834 0.103534 0.697534
0.304172 0.10496 0.69722
0.304566 0.106445 0.697065
0.304996 0.107967 0.697006
0.30551 0.109582 0.697186
0.30614 0.111319 0.697684
0.306832 0.113128 0.698358
0.307563 0.114981 0.699136
0.308294 0.116836 0.699909
0.308961 0.118627 0.7005
0.309538 0.120323 0.700839
0.309585 0.0334417 0.80422
0.30724 0.031949 0.803377
0.30761 0.0334912 0.803054
0.308033 0.0350757 0.802898
0.308428 0.0366394 0.802654
0.308855 0.0382283 0.802505
0.309233 0.0397802 0.802207
0.309638 0.0413538 0.801991
0.310078 0.0429563 0.801882
0.310524 0.0445656 0.801793
0.310945 0.0461538 0.801619
0.311349 0.0477308 0.801397
0.311661 0.049231 0.800885
0.311881 0.0506554 0.80009
0.31213 0.052103 0.799384
0.312262 0.053451 0.798315
0.312358 0.0547667 0.797137
0.31244 0.0560684 0.795916
0.312463 0.0573189 0.794521
0.312308 0.0584135 0.79258
0.312259 0.0595952 0.790967
0.311503 0.0601594 0.787188
0.310035 0.0600941 0.781243
0.308393 0.059861 0.774784
0.306825 0.0596761 0.768569
0.305291 0.0595054 0.762475
0.304446 0.0599337 0.7585
0.304222 0.0609066 0.756421
0.304014 0.0618893 0.754394
0.30378 0.0628432 0.75229
0.303601 0.0638439 0.750363
0.303464 0.0648783 0.748565
0.303415 0.06599 0.747038
0.303367 0.0670992 0.745515
0.303124 0.0680265 0.743414
0.302774 0.068849 0.740993
0.302245 0.0695002 0.738046
0.301553 0.0699918 0.734618
0.300916 0.0705269 0.731364
0.300482 0.0712462 0.728724
0.300072 0.0719827 0.726164
0.299807 0.0728514 0.724041
0.299666 0.0738329 0.722287
0.299528 0.0748143 0.720548
0.299425 0.0758264 0.718919
0.299408 0.0769177 0.717543
0.299395 0.0780118 0.716187
0.299432 0.0791513 0.714978
0.299494 0.0803129 0.713844
0.299587 0.0815047 0.712807
0.299611 0.082624 0.711562
0.299672 0.0837797 0.710433
0.299675 0.0848771 0.709141
0.299702 0.0859942 0.707915
0.299768 0.0871499 0.70681
0.299844 0.088312 0.70573
0.299941 0.0894948 0.704717
0.300054 0.0906927 0.703752
0.300146 0.0918672 0.702727
0.300221 0.093022 0.701653
0.300371 0.094254 0.700801
0.300574 0.0955374 0.700098
0.300803 0.0968488 0.699474
0.301068 0.0981972 0.698954
0.30136 0.0995728 0.698509
0.301675 0.100973 0.698132
0.301964 0.102345 0.697676
0.302252 0.103717 0.697221
0.302567 0.105117 0.696842
0.30291 0.106547 0.696542
0.303309 0.108037 0.696399
0.303765 0.109589 0.696417
0.304332 0.111263 0.696751
0.304995 0.11304 0.697347
0.305746 0.114916 0.698191
0.306477 0.116774 0.698972
0.307174 0.118597 0.699653
0.307804 0.120352 0.700146
0.305461 0.0321479 0.802812
0.305757 0.0336315 0.802258
0.306112 0.0351618 0.801891
0.306466 0.0366907 0.801517
0.306878 0.0382667 0.801326
0.30726 0.0398201 0.801043
0.30769 0.0414132 0.80091
0.308154 0.0430352 0.800884
0.308601 0.0446429 0.800797
0.309024 0.0462336 0.800639
0.309462 0.0478365 0.800522
0.309776 0.0493386 0.800023
0.310056 0.0508107 0.799412
0.310369 0.0523102 0.798904
0.310567 0.0537134 0.798043
0.310756 0.0551064 0.79715
0.310927 0.0564839 0.796205
0.311014 0.0577867 0.794998
0.310956 0.0589621 0.793345
0.310956 0.060186 0.791879
0.3098 0.0603957 0.786849
0.308071 0.060089 0.780069
0.306204 0.0596441 0.772888
0.304479 0.0593058 0.766162
0.303176 0.0593267 0.76075
0.302616 0.0600001 0.757629
0.302449 0.0610194 0.755715
0.302217 0.0619763 0.753609
0.302011 0.0629517 0.751585
0.301838 0.0639532 0.749666
0.301732 0.0650133 0.74796
0.301688 0.0661253 0.746439
0.301671 0.0672612 0.74501
0.301437 0.0681913 0.742923
0.301094 0.0690169 0.740519
0.30057 0.069666 0.737571
0.299935 0.0702042 0.734299
0.299333 0.0707665 0.731136
0.298935 0.0715153 0.728594
0.298614 0.0723307 0.726286
0.298406 0.073251 0.724325
0.298299 0.0742632 0.722667
0.298222 0.0753004 0.7211
0.298149 0.0763405 0.719554
0.298134 0.077433 0.718181
0.298117 0.0785201 0.716802
0.298149 0.0796537 0.715573
0.298182 0.0807876 0.714353
0.298251 0.0819539 0.713238
0.298248 0.0830458 0.711912
0.298285 0.0841768 0.710709
0.298236 0.0852198 0.709258
0.298215 0.0862875 0.707889
0.298252 0.0874105 0.706691
0.298298 0.0885419 0.705525
0.298368 0.0896948 0.704428
0.298505 0.0909163 0.703533
0.2986 0.0920911 0.702512
0.298673 0.0932438 0.701434
0.298822 0.0944713 0.700572
0.299015 0.0957462 0.699846
0.29922 0.0970304 0.699149
0.299482 0.0983742 0.698619
0.299773 0.0997482 0.698172
0.300088 0.101147 0.697793
0.300376 0.102518 0.697338
0.300664 0.103889 0.696883
0.300979 0.105289 0.696507
0.301298 0.106694 0.69614
0.301673 0.108158 0.695932
0.3021 0.10968 0.695873
0.302612 0.111294 0.696051
0.303237 0.113032 0.696549
0.303959 0.114878 0.697316
0.304662 0.116707 0.698027
0.305333 0.118505 0.698647
0.305964 0.12026 0.699147
0.303507 0.0309596 0.80319
0.303737 0.0323902 0.802423
0.303993 0.0338395 0.801736
0.304291 0.0353236 0.801189
0.304582 0.0368013 0.800618
0.304996 0.0383777 0.800436
0.305376 0.0399295 0.800152
0.305807 0.0415224 0.800025
0.306271 0.0431424 0.799998
0.306717 0.0447503 0.799917
0.307139 0.0463391 0.799759
0.307578 0.0479431 0.799653
0.307921 0.049467 0.799242
0.308262 0.0509893 0.798824
0.308663 0.0525635 0.798596
0.308963 0.054051 0.798047
0.309248 0.0555264 0.797455
0.309488 0.0569627 0.796722
0.309668 0.0583458 0.795802
0.309717 0.0596128 0.794473
0.309417 0.0605733 0.792068
0.307886 0.0604438 0.785849
0.305972 0.0599598 0.778464
0.303914 0.0593292 0.770657
0.302049 0.0588506 0.76347
0.301072 0.0591503 0.759039
0.30081 0.0600846 0.756822
0.300671 0.0611251 0.754987
0.300445 0.0620823 0.75289
0.300242 0.0630569 0.75087
0.300073 0.0640587 0.748959
0.299943 0.0650918 0.74717
0.299875 0.0661789 0.745575
0.299859 0.0673117 0.744142
0.299651 0.0682617 0.742128
0.299346 0.0691177 0.739829
0.298861 0.0697973 0.736987
