ply
format ascii 1.0
element vertex 1695
property float x
property float y
property float z
end_header
0.209826 -0.105123 0.843191
0.20993 -0.103613 0.842712
0.2101 -0.10214 0.842538
0.210286 -0.100678 0.842447
0.210501 -0.0992302 0.842476
0.210702 -0.0977768 0.842449
0.210952 -0.0963482 0.842645
0.211145 -0.094892 0.842579
0.211353 -0.0934439 0.842584
0.211657 -0.0920413 0.843023
0.211995 -0.0906536 0.843618
0.212323 -0.0892593 0.844159
0.21271 -0.0878906 0.844973
0.213092 -0.0865175 0.845761
0.213389 -0.0851063 0.846168
0.213707 -0.0837026 0.846661
0.214091 -0.0823256 0.847459
0.214478 -0.0809475 0.848264
0.214855 -0.0795633 0.849024
0.218688 -0.0792169 0.858767
0.21523 -0.0781767 0.849778
0.210644 -0.147097 0.878655
0.210403 -0.145223 0.876477
0.210304 -0.143462 0.874976
0.210149 -0.141666 0.873212
0.209979 -0.139868 0.871387
0.209755 -0.138038 0.869309
0.209556 -0.136235 0.867355
0.209293 -0.134394 0.865101
0.209107 -0.132617 0.863223
0.20892 -0.130846 0.861339
0.20885 -0.12916 0.860003
0.208777 -0.127478 0.858663
0.208718 -0.125811 0.857392
0.208588 -0.124104 0.855794
0.208476 -0.122415 0.854275
0.208307 -0.120697 0.852507
0.208154 -0.118995 0.850809
0.207979 -0.117288 0.849018
0.207827 -0.1156 0.847335
0.207734 -0.113955 0.84593
0.207739 -0.112373 0.84498
0.20777 -0.110809 0.844154
0.207853 -0.10928 0.843581
0.207987 -0.107781 0.84323
0.208105 -0.106276 0.842815
0.208226 -0.104774 0.842413
0.208327 -0.103264 0.841918
0.208477 -0.101782 0.841657
0.208648 -0.100312 0.841486
0.208831 -0.0988504 0.841373
0.208995 -0.0973803 0.841177
0.209206 -0.0959342 0.841191
0.209374 -0.0944687 0.841016
0.209585 -0.093024 0.841028
0.20991 -0.0916338 0.841567
0.210284 -0.0902653 0.842329
0.210645 -0.0888888 0.84303
0.211049 -0.0875298 0.843927
0.211413 -0.0861509 0.844638
0.211727 -0.0847487 0.845124
0.212042 -0.0833457 0.845609
0.212427 -0.0819709 0.846413
0.212815 -0.0805952 0.847232
0.213212 -0.0792207 0.848084
0.213606 -0.0778432 0.848927
0.217513 -0.0775119 0.859061
0.214052 -0.0764829 0.850001
0.208429 -0.144598 0.874196
0.208463 -0.142938 0.873316
0.2084 -0.141211 0.87198
0.2083 -0.139463 0.87047
0.208135 -0.137676 0.868658
0.207979 -0.135901 0.866886
0.207761 -0.134091 0.864828
0.207585 -0.132319 0.862979
0.207384 -0.130537 0.861015
0.207294 -0.128837 0.859577
0.207202 -0.127142 0.858133
0.207127 -0.125464 0.856772
0.207017 -0.12377 0.855254
0.206908 -0.122082 0.853745
0.206723 -0.120353 0.851884
0.206567 -0.118649 0.850153
0.206395 -0.116943 0.848361
0.206233 -0.11525 0.846622
0.206163 -0.113619 0.845315
0.20617 -0.112038 0.844368
0.206182 -0.110464 0.843444
0.206262 -0.108932 0.842841
0.206396 -0.107435 0.842495
0.206502 -0.105923 0.842016
0.206622 -0.104423 0.841613
0.206742 -0.102923 0.8412
0.206875 -0.101434 0.840856
0.207017 -0.0999494 0.840544
0.207196 -0.0984871 0.840416
0.207358 -0.0970173 0.840207
0.20755 -0.0955632 0.840131
0.207719 -0.0940997 0.839959
0.207964 -0.0926733 0.840131
0.208275 -0.0912783 0.840609
0.20865 -0.089912 0.84138
0.209008 -0.0885358 0.842071
0.209408 -0.0871766 0.842952
0.209733 -0.0857825 0.843493
0.210045 -0.0843815 0.843971
0.210341 -0.0829725 0.844375
0.210725 -0.0815995 0.845179
0.211132 -0.0802337 0.846089
0.211548 -0.0788694 0.847041
0.211982 -0.0775093 0.848069
0.212464 -0.0761646 0.849314
0.214406 -0.0750855 0.850659
0.21284 -0.0747764 0.850072
0.216598 -0.0743579 0.859581
0.213232 -0.0733925 0.850908
0.206656 -0.144119 0.872841
0.206683 -0.142456 0.871926
0.206686 -0.140779 0.870893
0.20662 -0.139056 0.869531
0.20649 -0.137293 0.86787
0.206373 -0.135547 0.866276
0.206199 -0.133767 0.864413
0.206029 -0.131997 0.862571
0.205847 -0.130227 0.860683
0.205739 -0.128514 0.859146
0.20561 -0.126794 0.857515
0.205519 -0.125105 0.856068
0.205396 -0.123402 0.854475
0.205255 -0.121694 0.852801
0.205073 -0.119967 0.850935
0.204934 -0.118275 0.849281
0.204771 -0.116573 0.847512
0.204633 -0.114895 0.845868
0.204601 -0.113286 0.844726
0.204606 -0.111704 0.84376
0.204597 -0.110119 0.842735
0.204663 -0.10858 0.842064
0.204781 -0.107074 0.841637
0.204871 -0.105555 0.841084
0.204994 -0.104057 0.840683
0.205131 -0.102568 0.840346
0.205267 -0.101081 0.840014
0.205408 -0.099598 0.839702
0.205585 -0.0981355 0.839557
0.205729 -0.0966572 0.839257
0.205883 -0.0951863 0.839011
0.206072 -0.093734 0.838928
0.206306 -0.0923037 0.839046
0.206617 -0.090911 0.83953
0.206989 -0.0895453 0.840295
0.207341 -0.0881682 0.84096
0.207703 -0.0867942 0.841672
0.208041 -0.0854081 0.842277
0.208351 -0.0840084 0.84275
0.208664 -0.0826088 0.843234
0.209064 -0.0812447 0.844121
0.209489 -0.0798879 0.845113
0.20992 -0.0785314 0.846141
0.210391 -0.0771875 0.847347
0.210894 -0.0758523 0.848695
0.21131 -0.0744802 0.849641
0.211737 -0.0731099 0.850638
0.205012 -0.142053 0.871034
0.205111 -0.140447 0.870457
0.205066 -0.138739 0.869188
0.204955 -0.13699 0.867607
0.204841 -0.135244 0.866012
0.204673 -0.133466 0.864158
0.204472 -0.131674 0.862157
0.204276 -0.129893 0.860179
0.204162 -0.128176 0.858606
0.204001 -0.126434 0.856807
0.203879 -0.124724 0.855199
0.203758 -0.123023 0.853604
0.203602 -0.121305 0.851844
0.203423 -0.11958 0.849977
0.203325 -0.117913 0.8485
0.203205 -0.116238 0.846922
0.203094 -0.114575 0.84539
0.203097 -0.112988 0.844408
0.203084 -0.111395 0.84335
0.20306 -0.1098 0.842241
0.20309 -0.108242 0.841396
0.203193 -0.106728 0.840894
0.203283 -0.105209 0.840332
0.203423 -0.103721 0.840011
0.203563 -0.102235 0.839687
0.203703 -0.10075 0.839364
0.203842 -0.0992674 0.839041
0.203981 -0.0977862 0.838718
0.204104 -0.0962988 0.83832
0.204244 -0.0948216 0.837999
0.204436 -0.0933725 0.837929
0.204653 -0.0919364 0.837978
0.20498 -0.0905523 0.83853
0.205347 -0.0891862 0.839277
0.205695 -0.0878096 0.839932
0.206039 -0.0864295 0.840567
0.206377 -0.0850449 0.841171
0.206667 -0.0836387 0.841558
0.206962 -0.0822335 0.84196
0.207342 -0.0808632 0.84276
0.207781 -0.0795152 0.84383
0.20823 -0.0781682 0.844947
0.208737 -0.0768406 0.846324
0.209276 -0.0755212 0.847845
0.209743 -0.0741706 0.849042
0.210207 -0.0728152 0.850217
0.213884 -0.0723569 0.859482
0.21058 -0.0714233 0.850967
0.203523 -0.140107 0.869962
0.203495 -0.13841 0.86876
0.203424 -0.136688 0.867357
0.203291 -0.134928 0.865659
0.203108 -0.133138 0.863715
0.202878 -0.131325 0.861556
0.202683 -0.129543 0.859566
0.202551 -0.127814 0.857896
0.202392 -0.126072 0.856085
0.202255 -0.124353 0.854395
0.202137 -0.122653 0.852798
0.202 -0.120947 0.851112
0.201839 -0.119233 0.849316
0.201768 -0.117583 0.847957
0.201693 -0.115936 0.846582
0.201607 -0.114288 0.84516
0.201614 -0.112702 0.844188
0.201601 -0.111109 0.843119
0.201578 -0.109514 0.842009
0.201594 -0.107947 0.841081
0.201695 -0.106432 0.840566
0.201779 -0.104911 0.839978
0.201921 -0.103423 0.839656
0.202065 -0.101939 0.839347
0.202208 -0.100457 0.839038
0.202348 -0.0989742 0.838713
0.202484 -0.0974918 0.838372
0.202605 -0.0960036 0.837962
0.202729 -0.0945188 0.837564
0.20292 -0.0930697 0.837487
0.203134 -0.0916322 0.837516
0.203442 -0.0902403 0.837986
0.203771 -0.0888573 0.838555
0.204121 -0.0874831 0.839227
0.204445 -0.0860954 0.839775
0.204769 -0.084706 0.840315
0.205058 -0.0833003 0.840693
0.20535 -0.081896 0.841093
0.205712 -0.0805198 0.841813
0.206133 -0.0791659 0.842803
0.20658 -0.0778199 0.843914
0.2071 -0.0764997 0.845367
0.207641 -0.0751835 0.846915
0.208128 -0.0738421 0.848208
0.208629 -0.0725017 0.849557
0.209019 -0.0711174 0.850395
0.201893 -0.139733 0.869248
0.201879 -0.138047 0.868105
0.201811 -0.136327 0.866702
0.201689 -0.134574 0.865042
0.201471 -0.132758 0.862914
0.201246 -0.130948 0.860761
0.20107 -0.129179 0.858852
0.200941 -0.127451 0.857172
0.200767 -0.125699 0.85528
0.200619 -0.123972 0.853518
0.200502 -0.122273 0.851915
0.200366 -0.120568 0.850223
0.200246 -0.118879 0.848606
0.200199 -0.117245 0.847357
0.200165 -0.115624 0.846168
0.200119 -0.114 0.844924
0.200163 -0.112436 0.844117
0.200138 -0.110834 0.842981
0.200133 -0.10925 0.841947
0.200131 -0.107671 0.840932
0.200213 -0.106145 0.840319
0.200282 -0.104615 0.839646
0.200441 -0.103137 0.839401
0.200588 -0.101655 0.839105
0.200751 -0.100183 0.838886
0.200891 -0.0987007 0.838559
0.201029 -0.0972186 0.838219
0.20115 -0.0957302 0.837804
0.201257 -0.0942369 0.837322
0.201431 -0.0927794 0.837164
0.201641 -0.0913403 0.83717
0.201927 -0.0899388 0.837543
0.202238 -0.0885482 0.83803
0.202589 -0.0871753 0.838707
0.202914 -0.0857891 0.839265
0.203237 -0.0844001 0.839803
0.203506 -0.0829871 0.840096
0.203779 -0.0815749 0.840398
0.204137 -0.0801983 0.841104
0.204538 -0.0788376 0.842008
0.204966 -0.0774858 0.843044
0.205485 -0.0761669 0.844497
0.206038 -0.0748571 0.846112
0.206527 -0.073518 0.847421
0.207047 -0.0721867 0.848875
0.207458 -0.0708108 0.84981
0.211102 -0.0703318 0.859059
0.207789 -0.0694046 0.85038
0.200227 -0.139332 0.868348
0.20016 -0.137606 0.86693
0.200104 -0.135895 0.865576
0.199989 -0.134147 0.863938
0.199744 -0.132313 0.861658
0.199542 -0.130518 0.859601
0.199406 -0.128778 0.857871
0.1993 -0.127066 0.856292
0.199132 -0.125317 0.854412
0.198987 -0.123592 0.852647
0.198873 -0.121895 0.851044
0.198757 -0.120203 0.849438
0.198677 -0.118541 0.848009
0.198671 -0.116932 0.846943
0.198677 -0.115335 0.845936
0.198665 -0.113732 0.844848
0.198711 -0.112169 0.844044
0.198689 -0.110568 0.842912
0.198687 -0.108985 0.841883
0.198671 -0.107397 0.84079
0.198738 -0.105862 0.840095
0.198791 -0.104322 0.839336
0.198948 -0.102844 0.839085
0.199082 -0.101354 0.838719
0.199264 -0.0998932 0.83859
0.199424 -0.0984214 0.838354
0.199578 -0.096948 0.838091
0.199687 -0.095453 0.837612
0.199795 -0.0939603 0.837131
0.19995 -0.0924932 0.836878
0.200125 -0.0910377 0.836719
0.200408 -0.0896353 0.837078
0.200706 -0.088239 0.837501
0.201035 -0.0868572 0.838081
0.20136 -0.0854714 0.838633
0.201693 -0.0840886 0.839229
0.201947 -0.0826697 0.839449
0.202251 -0.081272 0.839901
0.202623 -0.0799026 0.840681
0.203005 -0.0785348 0.8415
0.203412 -0.0771754 0.842439
0.203905 -0.0758475 0.84378
0.204437 -0.0745312 0.84531
0.204925 -0.0731934 0.846624
0.205461 -0.0718694 0.848161
0.205891 -0.0705022 0.849195
0.206256 -0.069109 0.849927
0.20985 -0.0685991 0.858996
0.20658 -0.0676998 0.850466
0.198547 -0.137242 0.866266
0.198468 -0.135514 0.864786
0.198321 -0.133742 0.862968
0.198047 -0.131886 0.860529
0.197872 -0.130111 0.858587
0.197761 -0.128388 0.856966
0.197678 -0.126692 0.855492
0.19755 -0.124971 0.853791
0.197424 -0.123258 0.852111
0.197346 -0.121585 0.850672
0.19727 -0.119918 0.849242
0.197217 -0.118272 0.84793
0.197217 -0.116667 0.846887
0.197241 -0.11508 0.84596
0.197243 -0.113485 0.844934
0.197293 -0.111923 0.844137
0.197291 -0.110333 0.843095
0.197294 -0.108751 0.842075
0.19728 -0.107163 0.840976
0.197329 -0.105617 0.840193
0.197365 -0.104066 0.839344
0.197506 -0.102579 0.839013
0.197625 -0.10108 0.838568
0.197808 -0.0996194 0.838436
0.197969 -0.0981482 0.838204
0.198128 -0.0966775 0.837963
0.198254 -0.0951913 0.837563
0.198381 -0.0937074 0.837164
0.198521 -0.0922322 0.836832
0.198711 -0.0907841 0.836745
0.198976 -0.0893731 0.837021
0.19924 -0.0879609 0.837285
0.19955 -0.0865702 0.837772
0.199901 -0.0851976 0.838458
0.200203 -0.083801 0.838906
0.20046 -0.0823835 0.839135
0.200765 -0.0809869 0.839597
0.201119 -0.0796105 0.840295
0.201465 -0.0782287 0.84095
0.201851 -0.0768616 0.841793
0.20232 -0.0755257 0.843032
0.202828 -0.0742013 0.844453
0.20331 -0.0728631 0.845751
0.203828 -0.0715344 0.847216
0.204271 -0.0701737 0.848321
0.204673 -0.0687952 0.849231
0.205052 -0.0674063 0.850029
0.19687 -0.136829 0.865274
0.196787 -0.135098 0.86376
0.196622 -0.133313 0.86184
0.19634 -0.131451 0.859336
0.196206 -0.129705 0.857583
0.196151 -0.128022 0.856227
0.196094 -0.126344 0.854866
0.196008 -0.12465 0.853359
0.19592 -0.122963 0.851857
0.19588 -0.121314 0.850592
0.195828 -0.119662 0.849264
0.195797 -0.11803 0.848054
0.195802 -0.116426 0.847025
0.195825 -0.114837 0.84608
0.195829 -0.113242 0.845056
0.19588 -0.11168 0.844256
0.195915 -0.110112 0.843387
0.195939 -0.10854 0.842458
0.195927 -0.106952 0.841358
0.195958 -0.105394 0.840478
0.195974 -0.10383 0.839524
0.196082 -0.102323 0.839023
0.196182 -0.100814 0.838482
0.196365 -0.0993534 0.838352
0.196525 -0.0978813 0.838109
0.196702 -0.0964198 0.83795
0.196848 -0.0949435 0.837643
0.19698 -0.0934615 0.837263
0.197119 -0.0919855 0.836924
0.197325 -0.0905447 0.836911
0.197575 -0.0891256 0.83711
0.197804 -0.0876969 0.837208
0.198094 -0.0862971 0.837603
0.198424 -0.0849151 0.838191
0.19871 -0.0835116 0.838562
0.198971 -0.0820968 0.838816
0.199296 -0.0807094 0.839376
0.199652 -0.079334 0.840083
0.199995 -0.0779515 0.840729
0.200358 -0.0765756 0.841469
0.200805 -0.075232 0.842615
0.201276 -0.0738941 0.843868
0.201737 -0.0725487 0.845071
0.202233 -0.0712129 0.846437
0.202672 -0.0698525 0.847533
0.203092 -0.068482 0.848535
0.203526 -0.0671139 0.849605
0.207169 -0.066611 0.85903
0.20397 -0.0657457 0.850712
0.195304 -0.138173 0.865935
0.195153 -0.136384 0.864061
0.195056 -0.134642 0.862459
0.19492 -0.13288 0.860673
0.194699 -0.131061 0.858456
0.194602 -0.129341 0.85687
0.194568 -0.127674 0.855611
0.194535 -0.126011 0.854354
0.194487 -0.124345 0.853034
0.194425 -0.122674 0.85164
0.194426 -0.121051 0.850566
0.194394 -0.119412 0.849339
0.194381 -0.117791 0.848206
0.194388 -0.116186 0.847169
0.194408 -0.114595 0.846205
0.194415 -0.112999 0.845175
0.194468 -0.111438 0.844387
0.194545 -0.109894 0.84371
0.19459 -0.108334 0.84288
0.194595 -0.106754 0.84186
0.194624 -0.105193 0.840952
0.194621 -0.103617 0.839897
0.194695 -0.102089 0.839218
0.194778 -0.10057 0.838588
0.194941 -0.0990973 0.838356
0.195084 -0.0976159 0.838028
0.195261 -0.096154 0.837866
0.19541 -0.0946791 0.837567
0.195544 -0.0931982 0.837198
0.195687 -0.0917239 0.836874
0.195876 -0.0902742 0.836773
0.196124 -0.0888544 0.836962
0.196336 -0.0874176 0.836978
0.196606 -0.0860089 0.837278
0.196934 -0.0846263 0.837855
0.197235 -0.0832305 0.838305
0.1975 -0.0818177 0.838579
0.197842 -0.0804382 0.839224
0.198196 -0.0790622 0.839926
0.198519 -0.0776716 0.840477
0.198863 -0.0762884 0.841129
0.199278 -0.0749325 0.842125
0.19973 -0.0735881 0.843293
0.200171 -0.0722361 0.844407
0.200641 -0.0708925 0.845666
0.201077 -0.0695323 0.846753
0.20153 -0.068175 0.847917
0.202005 -0.0668224 0.84919
0.202522 -0.0654809 0.850663
0.193649 -0.137773 0.865034
0.193495 -0.135981 0.863125
0.193404 -0.134244 0.861543
0.193246 -0.132465 0.859629
0.193086 -0.130691 0.857704
0.193005 -0.128983 0.856191
0.192991 -0.127329 0.855015
0.192979 -0.125682 0.853859
0.192988 -0.124054 0.852807
0.192979 -0.122419 0.851675
0.193018 -0.120821 0.850784
0.193008 -0.119194 0.849648
0.192998 -0.117573 0.84852
0.193001 -0.115965 0.847455
0.193021 -0.114372 0.846478
0.193044 -0.112785 0.845524
0.19312 -0.111236 0.844836
0.193235 -0.109714 0.844344
0.193286 -0.108156 0.843536
0.193297 -0.106577 0.842528
0.193308 -0.105003 0.84153
0.193273 -0.103407 0.840298
0.193312 -0.101858 0.839439
0.193377 -0.100328 0.838718
0.193508 -0.0988363 0.838317
0.193634 -0.0973451 0.837899
0.193809 -0.0958824 0.837726
0.19396 -0.0944081 0.837432
0.194095 -0.0929279 0.837066
0.194256 -0.0914622 0.836822
0.194428 -0.0900042 0.836639
0.194674 -0.0885835 0.836817
0.194867 -0.0871377 0.83674
0.195123 -0.0857222 0.836967
0.195433 -0.0843322 0.837462
0.195748 -0.0829433 0.837981
0.195995 -0.081523 0.838168
0.196339 -0.0801451 0.838824
0.19669 -0.0787687 0.839519
0.19701 -0.0773776 0.840058
0.197336 -0.0759878 0.840629
0.19775 -0.0746321 0.841621
0.198183 -0.0732819 0.842713
0.198604 -0.0719234 0.843739
0.199054 -0.070573 0.8449
0.199501 -0.0692188 0.846055
0.199989 -0.0678754 0.847394
0.200518 -0.0665433 0.84894
0.201108 -0.0652274 0.85077
0.204845 -0.064743 0.860772
0.203355 -0.0644662 0.860594
0.19183 -0.133904 0.861021
0.191667 -0.132119 0.859058
0.191571 -0.130392 0.857445
0.19149 -0.128683 0.855915
0.191479 -0.12703 0.854748
0.191473 -0.125386 0.853608
0.191518 -0.123784 0.852735
0.191546 -0.122173 0.851776
0.191605 -0.120588 0.850979
0.191599 -0.118962 0.849852
0.191607 -0.117351 0.848799
0.191595 -0.115731 0.847651
0.191616 -0.114137 0.84667
0.191658 -0.112562 0.845803
0.191771 -0.111034 0.84529
0.191922 -0.109534 0.844978
0.19201 -0.107996 0.844345
0.192039 -0.106426 0.843419
0.192038 -0.104842 0.842343
0.191988 -0.103234 0.841024
0.191993 -0.101664 0.839992
0.192042 -0.100122 0.839171
0.192155 -0.0986203 0.838683
0.192268 -0.0971204 0.838189
0.192424 -0.095647 0.837923
0.192573 -0.0941711 0.837616
0.192693 -0.0926816 0.837163
0.192839 -0.0912082 0.836845
0.19301 -0.0897491 0.836653
0.193254 -0.0883274 0.836822
0.193432 -0.0868738 0.836666
0.193688 -0.0854588 0.836896
0.193981 -0.0840605 0.837306
0.194279 -0.0826643 0.837745
0.194508 -0.0812362 0.837843
0.194816 -0.0798429 0.838326
0.195134 -0.0784532 0.838859
0.195435 -0.0770554 0.839313
0.195759 -0.0756659 0.839872
0.196168 -0.0743103 0.840856
0.196602 -0.0729616 0.841956
0.197019 -0.0716031 0.842969
0.197466 -0.0702533 0.844127
0.197929 -0.0689059 0.845359
0.198434 -0.0675704 0.846798
0.199001 -0.0662534 0.848541
0.199643 -0.0649566 0.850638
0.200219 -0.0636309 0.85241
0.190104 -0.133446 0.859692
0.190045 -0.13174 0.858253
0.190026 -0.13007 0.857022
0.189962 -0.128372 0.855566
0.189967 -0.126731 0.854472
0.189967 -0.125091 0.853355
0.190034 -0.123502 0.852581
0.190081 -0.121904 0.851711
0.190172 -0.12034 0.851074
0.190187 -0.118727 0.850039
0.190231 -0.117139 0.849162
0.190223 -0.11552 0.848026
0.190262 -0.113937 0.847126
0.190292 -0.112351 0.846183
0.190425 -0.110835 0.845768
0.19058 -0.109336 0.845472
0.190718 -0.107827 0.845086
0.190796 -0.106284 0.844399
0.190815 -0.10471 0.843413
0.19075 -0.103091 0.84201
0.190739 -0.101508 0.840875
0.190752 -0.0999436 0.839871
0.190819 -0.0984137 0.839137
0.190901 -0.0968959 0.838485
0.191042 -0.095413 0.838133
0.191172 -0.0939263 0.837727
0.19129 -0.0924353 0.83726
0.191421 -0.0909537 0.836865
0.191579 -0.0894873 0.836597
0.191821 -0.0880645 0.836759
0.191998 -0.0866103 0.836593
0.192238 -0.0851881 0.836749
0.192501 -0.0837759 0.837009
0.192795 -0.0823781 0.837427
0.193002 -0.0809405 0.837417
0.193276 -0.0795332 0.837737
0.193573 -0.0781356 0.838173
0.193888 -0.0767446 0.838693
0.194212 -0.0753563 0.839258
0.194622 -0.0740019 0.840248
0.195068 -0.0726595 0.841417
0.195485 -0.0713021 0.842436
0.195929 -0.0699522 0.843591
0.196407 -0.0686118 0.844909
0.196932 -0.0672848 0.846454
0.197519 -0.0659754 0.848301
0.198194 -0.0646911 0.850582
0.198818 -0.0633819 0.852597
0.18837 -0.13298 0.858303
0.188438 -0.131372 0.85752
0.188498 -0.129761 0.856689
0.188451 -0.128075 0.855309
0.188459 -0.126435 0.854219
0.188464 -0.124797 0.853113
0.188549 -0.123221 0.85243
0.188615 -0.121635 0.851646
0.188709 -0.120073 0.851015
0.188742 -0.118472 0.850069
0.188825 -0.116907 0.849377
0.188824 -0.115292 0.848264
0.188883 -0.11372 0.847459
0.188926 -0.112142 0.846578
0.189075 -0.110635 0.846239
0.189234 -0.109136 0.845955
0.189409 -0.107649 0.845754
0.189541 -0.106137 0.845333
0.189596 -0.104581 0.844521
0.189535 -0.102961 0.843122
0.189506 -0.101365 0.841885
0.189498 -0.0997864 0.84076
0.189515 -0.0982267 0.839771
0.18955 -0.0966804 0.838865
0.189659 -0.0951794 0.838349
0.18977 -0.0936814 0.837839
0.189873 -0.0921818 0.837289
0.189989 -0.0906917 0.83681
0.190148 -0.0892256 0.836546
0.190374 -0.0877951 0.836628
0.190549 -0.0863401 0.836453
0.190774 -0.0849099 0.836523
0.191019 -0.0834898 0.836698
0.191294 -0.082084 0.837025
0.191498 -0.0806454 0.836996
0.191737 -0.0792228 0.837137
0.192032 -0.0778254 0.837565
0.192345 -0.0764348 0.838082
0.192668 -0.0750472 0.838646
0.193079 -0.0736948 0.839652
0.193543 -0.0723605 0.840915
0.193958 -0.0710037 0.841937
0.194401 -0.0696543 0.84309
0.194894 -0.0683209 0.844492
0.195434 -0.0670002 0.846123
0.196037 -0.0656973 0.848064
0.196726 -0.0644188 0.850426
0.197364 -0.0631155 0.852534
0.201126 -0.0626264 0.862863
0.197962 -0.0617923 0.85444
0.186886 -0.132705 0.858208
0.186957 -0.131098 0.857432
0.187021 -0.129489 0.856617
0.186977 -0.127804 0.855241
0.186989 -0.126165 0.854154
0.186995 -0.124528 0.853049
0.187082 -0.122952 0.852365
0.18715 -0.121367 0.851582
0.187246 -0.119805 0.850954
0.187298 -0.118216 0.850097
0.187403 -0.116666 0.849519
0.187424 -0.115064 0.848506
0.187501 -0.113503 0.847785
0.187558 -0.111931 0.846961
0.18772 -0.110432 0.846692
0.187897 -0.108943 0.846496
0.188096 -0.107469 0.846413
0.188265 -0.105979 0.84618
0.18833 -0.104426 0.845406
0.188259 -0.102798 0.843941
0.188212 -0.101188 0.842596
0.188168 -0.0995865 0.841276
0.188149 -0.0980045 0.840087
0.188165 -0.0964466 0.839078
0.188257 -0.094935 0.838466
0.188351 -0.0934276 0.837867
0.188454 -0.0919273 0.837311
0.188555 -0.0904291 0.836751
0.188716 -0.0889639 0.836495
0.188925 -0.0875247 0.836487
0.1891 -0.0860689 0.836301
0.189306 -0.0846303 0.836281
0.189519 -0.0831952 0.836291
0.189775 -0.0817812 0.836525
0.189978 -0.0803429 0.83649
0.190201 -0.078914 0.836552
0.190497 -0.0775178 0.836984
0.190839 -0.0761409 0.837654
0.191166 -0.0747557 0.83824
0.19158 -0.073405 0.839263
0.192042 -0.072071 0.840526
0.192455 -0.0707142 0.841544
0.192895 -0.0693649 0.842696
0.193403 -0.0680377 0.84418
0.193956 -0.0667231 0.845892
0.194573 -0.0654259 0.847913
0.195257 -0.0641464 0.850271
0.195893 -0.0628427 0.852378
0.196455 -0.0615081 0.854122
0.198678 -0.0605013 0.856917
0.197186 -0.0602231 0.856693
0.185401 -0.132429 0.858114
0.185488 -0.130834 0.857412
0.185562 -0.129231 0.856642
0.18554 -0.127561 0.855364
0.185553 -0.125922 0.854277
0.18556 -0.124283 0.853161
0.185631 -0.122695 0.852387
0.185684 -0.121098 0.851517
0.185781 -0.119536 0.850886
0.185851 -0.117958 0.850113
0.185988 -0.11643 0.849694
0.186032 -0.114841 0.848791
0.186113 -0.113281 0.848083
0.186169 -0.111709 0.847251
0.18633 -0.110207 0.846966
0.186494 -0.108709 0.846698
0.186711 -0.107246 0.84671
0.186933 -0.105787 0.846748
0.187018 -0.104245 0.846069
0.186951 -0.102616 0.844611
0.186904 -0.101004 0.843253
0.186828 -0.0993818 0.841751
0.186775 -0.0977783 0.840371
0.186774 -0.0962099 0.839267
0.186851 -0.0946888 0.838566
0.186916 -0.0931649 0.83781
0.187017 -0.0916633 0.837239
0.187104 -0.0901571 0.836598
0.187264 -0.0886916 0.836337
0.187459 -0.0872454 0.836256
0.187648 -0.0857967 0.836139
0.187836 -0.0843491 0.836024
0.188032 -0.0829065 0.83595
0.188271 -0.0814849 0.836094
0.188491 -0.0800545 0.836138
0.188717 -0.0786279 0.836221
0.189017 -0.077234 0.836676
0.189377 -0.0758652 0.837436
0.189718 -0.0744865 0.8381
0.190115 -0.0731294 0.839044
0.190574 -0.0717948 0.840302
0.191015 -0.0704496 0.841467
0.19147 -0.0691063 0.842701
0.191979 -0.0677801 0.844204
0.19253 -0.0664651 0.84592
0.193141 -0.0651662 0.847926
0.193789 -0.063874 0.850112
0.194403 -0.0625637 0.852131
0.194947 -0.0612236 0.853791
0.195704 -0.0599481 0.856516
0.184014 -0.13223 0.858545
0.184099 -0.130631 0.857819
0.18419 -0.12904 0.85713
0.184154 -0.127356 0.855765
0.184154 -0.125705 0.854594
0.184143 -0.124051 0.853371
0.184196 -0.122449 0.852492
0.184218 -0.120829 0.851453
0.184315 -0.119267 0.850816
0.184401 -0.117699 0.850119
0.184554 -0.116181 0.84978
0.184619 -0.114605 0.848973
0.184717 -0.113056 0.848351
0.184796 -0.111496 0.847623
0.184955 -0.109992 0.847329
0.185105 -0.108484 0.84698
0.185319 -0.107019 0.846977
0.185556 -0.105568 0.847089
0.185658 -0.104035 0.846494
0.185611 -0.102416 0.845122
0.185566 -0.100804 0.84376
0.185475 -0.0991706 0.842168
0.185393 -0.0975486 0.840623
0.185363 -0.0959625 0.839357
0.185412 -0.0944251 0.838503
0.185463 -0.0928928 0.837664
0.185563 -0.0913901 0.837079
0.185649 -0.0898833 0.836429
0.185811 -0.0884186 0.836171
0.185978 -0.0869581 0.835942
0.186166 -0.0855094 0.835819
0.186337 -0.0840538 0.835614
0.186517 -0.0826039 0.835454
0.186757 -0.0811833 0.835601
0.187008 -0.0797684 0.835811
0.187254 -0.0783508 0.835992
0.187572 -0.0769655 0.836544
0.187964 -0.0756112 0.837474
0.188304 -0.074232 0.838134
0.188683 -0.0728671 0.838989
0.189151 -0.0715368 0.840302
0.189603 -0.0701964 0.841539
0.190064 -0.0688553 0.842804
0.190575 -0.06753 0.84433
0.191141 -0.0662203 0.846126
0.191729 -0.0649136 0.84804
0.192337 -0.0636078 0.850045
0.192929 -0.06229 0.85196
0.193482 -0.0609535 0.853678
0.194237 -0.0596783 0.856417
0.182756 -0.130466 0.85849
0.182854 -0.128878 0.857828
0.182801 -0.127178 0.856353
0.182771 -0.125502 0.855008
0.182742 -0.123833 0.853678
0.182776 -0.122216 0.852688
0.182767 -0.120571 0.851468
0.182836 -0.118988 0.850672
0.182908 -0.11741 0.84989
0.183046 -0.115881 0.849465
0.183127 -0.114316 0.84874
0.183232 -0.112771 0.848147
0.18333 -0.111223 0.847514
0.183506 -0.10973 0.847303
0.183667 -0.108229 0.847013
0.183864 -0.106752 0.846914
0.184098 -0.105299 0.847007
0.184217 -0.103776 0.846493
0.184189 -0.102168 0.845211
0.184164 -0.100566 0.843944
0.184093 -0.0989423 0.842437
0.184014 -0.0973204 0.840892
0.183985 -0.0957334 0.839619
0.18402 -0.0941872 0.838684
0.184057 -0.0926457 0.837756
0.18414 -0.091134 0.837084
0.184225 -0.0896259 0.836419
0.184375 -0.0881545 0.836093
0.184514 -0.0866792 0.835711
0.184685 -0.0852222 0.835499
0.184839 -0.0837584 0.8352
0.185004 -0.0823017 0.834961
0.185231 -0.0808759 0.835043
0.185498 -0.0794693 0.835338
0.185777 -0.0780673 0.835685
0.186112 -0.0766901 0.836328
0.18652 -0.0753433 0.837348
0.186874 -0.0739704 0.838086
0.187263 -0.0726104 0.839003
0.187714 -0.0712732 0.840236
0.188182 -0.0699395 0.84156
0.18866 -0.0686057 0.842929
0.18919 -0.0672875 0.844558
0.189755 -0.0659774 0.846363
0.190335 -0.0646677 0.848249
0.190904 -0.0633479 0.850066
0.191458 -0.0620173 0.851801
0.192007 -0.0606799 0.853514
0.192744 -0.0593994 0.856177
0.195019 -0.0584029 0.859281
0.193558 -0.0581351 0.859225
0.181398 -0.131962 0.860292
0.181457 -0.130337 0.859411
0.18155 -0.128742 0.858713
0.181446 -0.127 0.856947
0.181403 -0.125312 0.855517
0.181357 -0.123626 0.854071
0.181357 -0.121982 0.852889
0.181332 -0.120325 0.85157
0.181388 -0.118731 0.850693
0.181461 -0.117152 0.849907
0.181584 -0.115612 0.849398
0.181678 -0.114056 0.848737
0.181772 -0.112502 0.848073
0.181874 -0.110957 0.847454
0.18204 -0.109456 0.847184
0.182198 -0.107953 0.846875
0.182376 -0.106465 0.846675
0.182594 -0.105002 0.846681
0.182716 -0.103481 0.84618
0.182724 -0.101893 0.845076
0.182739 -0.100314 0.844003
0.182689 -0.0987019 0.842596
0.182626 -0.0970881 0.841126
0.182612 -0.0955079 0.839916
0.182632 -0.0939519 0.838889
0.182653 -0.092401 0.837874
0.182724 -0.0908809 0.837119
0.182809 -0.0893723 0.836448
0.182944 -0.0878927 0.836041
0.183067 -0.0864091 0.835572
0.18322 -0.084943 0.835261
0.183369 -0.0834768 0.834932
0.183534 -0.0820206 0.834692
0.18375 -0.0805897 0.834715
0.184019 -0.0791842 0.835016
0.184325 -0.0777953 0.835511
0.184661 -0.0764187 0.83616
0.18507 -0.0750731 0.837196
0.185441 -0.0737078 0.838022
0.185844 -0.0723541 0.839022
0.18628 -0.0710107 0.840184
0.186764 -0.0696837 0.841597
0.18726 -0.068357 0.843065
0.187789 -0.0670386 0.844702
0.18835 -0.0657273 0.846502
0.188925 -0.0644159 0.848374
0.189457 -0.0630831 0.850017
0.189989 -0.0617455 0.851656
0.190569 -0.060419 0.853537
0.191289 -0.0591332 0.856134
0.192134 -0.05788 0.859367
0.180044 -0.131793 0.86094
0.180093 -0.130158 0.859989
0.180163 -0.128543 0.859158
0.180039 -0.126784 0.857267
0.179984 -0.125083 0.855748
0.179924 -0.123386 0.854217
0.179894 -0.121717 0.852852
0.179868 -0.120057 0.851515
0.179895 -0.118441 0.85047
0.179939 -0.116842 0.849522
0.180059 -0.115301 0.848991
0.180167 -0.113753 0.848391
0.180261 -0.112199 0.847726
0.180383 -0.110667 0.847207
0.180562 -0.109176 0.847008
0.180707 -0.107663 0.84662
0.180872 -0.106166 0.84634
0.181074 -0.104694 0.846263
0.181213 -0.103184 0.845849
0.181259 -0.101618 0.844932
0.18131 -0.100061 0.844054
0.181298 -0.09847 0.842835
0.181256 -0.0968663 0.841457
0.181243 -0.0952849 0.840237
0.181245 -0.0937175 0.839107
0.18124 -0.0921507 0.837938
0.181293 -0.0906208 0.837087
0.181381 -0.0891124 0.836414
0.181486 -0.0876169 0.835846
0.181592 -0.0861245 0.83528
0.181726 -0.0846489 0.834865
0.181857 -0.0831744 0.834441
0.182024 -0.0817188 0.834198
0.18224 -0.0802891 0.834226
0.18251 -0.0788847 0.834531
0.182842 -0.0775087 0.835166
0.183191 -0.0761389 0.835891
0.183605 -0.0747955 0.836951
0.183992 -0.0734381 0.837874
0.184427 -0.0720981 0.839045
0.184892 -0.0707674 0.840372
0.185408 -0.0694533 0.841963
0.185916 -0.0681311 0.843505
0.186459 -0.0668175 0.845227
0.187 -0.0654984 0.846938
0.187544 -0.0641746 0.848651
0.188055 -0.0628344 0.8502
0.188584 -0.0614957 0.851839
0.189181 -0.0601754 0.853823
0.189885 -0.058884 0.856353
0.190726 -0.0576296 0.859593
0.193033 -0.0566324 0.862866
0.191583 -0.0563688 0.862903
0.193847 -0.0553485 0.865926
0.192374 -0.0550777 0.865863
0.178696 -0.131632 0.861637
0.178739 -0.129989 0.86064
0.178805 -0.128368 0.859775
0.178657 -0.126586 0.857727
0.178587 -0.124872 0.856113
0.1785 -0.123152 0.854414
0.17844 -0.121459 0.852872
0.178401 -0.119788 0.851445
0.178399 -0.118149 0.850225
0.178415 -0.116529 0.849114
0.178517 -0.114975 0.848477
0.178639 -0.113438 0.847954
0.178735 -0.111885 0.847287
0.178875 -0.110365 0.846865
0.179071 -0.108885 0.84675
0.17923 -0.107382 0.846436
0.179378 -0.105874 0.846063
0.179567 -0.104394 0.845913
0.179722 -0.102893 0.845578
0.1798 -0.101348 0.844827
0.179875 -0.0998039 0.844065
0.179903 -0.0982348 0.843044
0.179893 -0.0966488 0.841829
0.179882 -0.0950672 0.84061
0.179872 -0.0934909 0.839399
0.179866 -0.0919225 0.838216
0.179904 -0.0903829 0.837273
0.179977 -0.0888656 0.836515
0.180065 -0.0873605 0.835846
0.180158 -0.0858606 0.835203
0.180262 -0.0843694 0.834623
0.180378 -0.0828873 0.83411
0.180543 -0.0814316 0.83386
0.180761 -0.080003 0.833894
0.181045 -0.078606 0.834279
0.181393 -0.0772377 0.835001
0.181757 -0.0758749 0.835808
0.18217 -0.0745318 0.836874
0.182572 -0.0731811 0.837882
0.183023 -0.0718484 0.839149
0.18352 -0.0705307 0.840649
0.184054 -0.0692236 0.842342
0.184575 -0.0679067 0.843969
0.185115 -0.0665917 0.84569
0.185636 -0.0652645 0.847306
0.186144 -0.0639272 0.848843
0.186653 -0.0625859 0.85039
0.187182 -0.0612472 0.852039
0.187794 -0.059932 0.85412
0.188482 -0.0586354 0.856585
0.189315 -0.0573777 0.859805
0.190128 -0.0561044 0.862918
0.190893 -0.054806 0.865768
0.193054 -0.0537452 0.868254
0.19154 -0.0534638 0.867998
0.177236 -0.13138 0.861714
0.177297 -0.129749 0.860803
0.177373 -0.128136 0.859986
0.177256 -0.126375 0.85809
0.177204 -0.124672 0.856557
0.177121 -0.122952 0.854861
0.177047 -0.121246 0.853227
0.176992 -0.119561 0.8517
0.176957 -0.117898 0.850288
0.176944 -0.116255 0.848997
0.177017 -0.114679 0.84819
0.177139 -0.113141 0.847661
0.177227 -0.111583 0.846942
0.177357 -0.110056 0.84646
0.177554 -0.108578 0.846349
0.177713 -0.107074 0.846026
0.177846 -0.105556 0.845565
0.178033 -0.104075 0.845404
0.178187 -0.102575 0.845061
0.178282 -0.10104 0.8444
0.17839 -0.0995165 0.843807
0.178451 -0.0979672 0.84296
0.178479 -0.0964022 0.841935
0.178501 -0.0948384 0.840884
0.178508 -0.0932707 0.839754
0.178504 -0.0917014 0.838565
0.178542 -0.0901604 0.837612
0.178613 -0.0886409 0.836835
0.17869 -0.0871283 0.836094
0.178783 -0.0856277 0.835446
0.178887 -0.0841355 0.834857
0.179005 -0.0826535 0.834351
0.17917 -0.081197 0.834095
0.179404 -0.0797754 0.834212
0.179677 -0.0783728 0.834542
0.180025 -0.0770044 0.835271
0.18039 -0.0756415 0.836085
0.180786 -0.0742909 0.837071
0.181187 -0.0729395 0.838077
0.181665 -0.0716181 0.839494
0.18215 -0.0702954 0.840945
0.182686 -0.0689888 0.842659
0.183209 -0.0676725 0.84431
0.183744 -0.0663554 0.846012
0.184231 -0.065015 0.84746
0.184732 -0.0636752 0.848975
0.185237 -0.0623326 0.850511
0.185765 -0.0609934 0.852165
0.186362 -0.0596733 0.854184
0.187031 -0.0583705 0.856566
0.187835 -0.057105 0.859666
0.188606 -0.0558189 0.862579
0.189361 -0.0545179 0.865395
0.190005 -0.0531748 0.867629
0.17572 -0.131082 0.861473
0.175811 -0.129476 0.860727
0.175911 -0.12788 0.860034
0.175832 -0.126147 0.858333
0.175784 -0.124445 0.856812
0.175716 -0.122734 0.855179
0.17563 -0.121016 0.853455
0.175574 -0.119329 0.851906
0.175526 -0.117652 0.850401
0.175511 -0.116007 0.849089
0.17557 -0.11442 0.848193
0.175692 -0.112882 0.847659
0.175769 -0.111315 0.846869
0.175901 -0.109789 0.84639
0.176085 -0.108301 0.846205
0.176228 -0.106787 0.845793
0.176345 -0.105258 0.845235
0.176502 -0.103759 0.844906
0.17664 -0.102249 0.844471
0.17675 -0.100724 0.843884
0.176876 -0.0992107 0.843382
0.176971 -0.0976817 0.842711
0.177048 -0.0961456 0.841948
0.177104 -0.0946009 0.841076
0.177148 -0.0930525 0.84013
0.177159 -0.0914907 0.839019
0.177215 -0.0899577 0.83815
0.177289 -0.0884387 0.837383
0.177366 -0.0869243 0.836634
0.177446 -0.0854153 0.835906
0.177553 -0.0839231 0.835322
0.177658 -0.0824329 0.834734
0.177825 -0.0809764 0.834486
0.178073 -0.0795612 0.834683
0.178364 -0.0781657 0.835103
0.178715 -0.0767978 0.835851
0.179078 -0.0754335 0.836663
0.179468 -0.0740792 0.837622
0.179865 -0.0727253 0.838613
0.180328 -0.0713969 0.839957
0.180828 -0.0700801 0.8415
0.181375 -0.0687779 0.843292
0.181898 -0.0674605 0.844947
0.182401 -0.0661302 0.846491
0.182883 -0.0647875 0.847925
0.183348 -0.0634339 0.849261
0.183835 -0.0620845 0.850711
0.184347 -0.0607395 0.852288
0.184923 -0.0594123 0.854212
0.185554 -0.0580972 0.856413
0.186333 -0.0568245 0.859401
0.187065 -0.0555264 0.86213
0.18783 -0.0542299 0.865028
0.188504 -0.0528974 0.86744
0.174145 -0.130736 0.860895
0.174267 -0.129154 0.860312
0.174401 -0.127586 0.859812
0.17439 -0.125906 0.858481
0.174364 -0.124219 0.857068
0.174315 -0.12252 0.855527
0.174232 -0.120802 0.8538
0.174163 -0.119101 0.852157
0.174101 -0.117414 0.850564
0.174059 -0.115747 0.849083
0.174104 -0.114149 0.848101
0.174211 -0.112599 0.847473
0.174286 -0.111029 0.846658
0.174416 -0.109503 0.846168
0.174614 -0.108024 0.846057
0.174744 -0.106501 0.845562
0.17486 -0.104971 0.844993
0.175 -0.10346 0.844562
0.175138 -0.10195 0.844119
0.17525 -0.100426 0.843536
0.175392 -0.0989234 0.843121
0.175521 -0.0974148 0.842633
0.175647 -0.0959071 0.842131
0.175725 -0.0943743 0.84137
0.175802 -0.0928442 0.840605
0.175849 -0.0913001 0.83967
0.17594 -0.0897848 0.838986
0.176019 -0.0882658 0.838231
0.1761 -0.0867517 0.837497
0.176178 -0.0852395 0.836748
0.176282 -0.0837442 0.836146
0.176362 -0.0822391 0.83541
0.176517 -0.0807751 0.835091
0.176781 -0.0793658 0.835368
0.177069 -0.0779684 0.835781
0.177405 -0.0765925 0.836453
0.177779 -0.075232 0.837326
0.178168 -0.0738765 0.838284
0.178576 -0.0725268 0.839346
0.179038 -0.0711966 0.84069
0.17955 -0.0698841 0.84231
0.180097 -0.0685807 0.844106
0.180611 -0.067259 0.845732
0.181081 -0.0659146 0.847109
0.181544 -0.0645638 0.848449
0.18198 -0.0631985 0.849632
0.182447 -0.0618417 0.850993
0.182939 -0.0604894 0.852473
0.18348 -0.0591498 0.854218
0.184069 -0.0578214 0.856219
0.184809 -0.0565359 0.859022
0.185521 -0.055233 0.861664
0.186304 -0.0539434 0.86468
0.186997 -0.0526175 0.867214
0.189203 -0.0515638 0.869971
0.187729 -0.0512951 0.869945
0.172569 -0.130388 0.860303
0.17273 -0.128838 0.859938
0.172905 -0.127303 0.859667
0.172957 -0.125671 0.858679
0.172966 -0.12401 0.857453
0.172936 -0.122323 0.856006
0.172854 -0.120604 0.854269
0.172775 -0.118893 0.852554
0.172718 -0.117206 0.850964
0.17268 -0.11554 0.849494
0.172697 -0.113919 0.848337
0.172773 -0.112346 0.84752
0.172828 -0.110762 0.846591
0.172943 -0.109224 0.846004
0.173115 -0.107727 0.845741
0.173245 -0.106204 0.845243
0.173362 -0.104675 0.844669
0.173486 -0.103153 0.844143
0.17361 -0.101634 0.84362
0.173737 -0.10012 0.843113
0.173899 -0.0986298 0.842802
0.174061 -0.0971415 0.842496
0.174235 -0.0956623 0.842257
0.174363 -0.0941578 0.841765
0.174474 -0.0926454 0.841174
0.174569 -0.0911274 0.840503
0.174695 -0.0896294 0.84
0.174778 -0.0881109 0.839267
0.174876 -0.0866033 0.838616
0.174951 -0.0850867 0.837839
0.175055 -0.0835888 0.837227
0.175134 -0.0820808 0.836475
0.17529 -0.0806147 0.836153
0.175538 -0.0791962 0.836347
0.175823 -0.0777954 0.836742
0.176143 -0.0764102 0.837327
0.176519 -0.0750491 0.838211
0.176922 -0.0736986 0.839252
0.177362 -0.0723613 0.840493
0.177841 -0.0710375 0.841946
0.178338 -0.0697167 0.843491
0.178848 -0.0683966 0.845104
0.179328 -0.0670593 0.846548
0.179733 -0.0656884 0.847584
0.180163 -0.0643243 0.848753
0.18058 -0.0629515 0.849844
0.181032 -0.0615887 0.851123
0.181487 -0.0602236 0.852422
0.182006 -0.0588767 0.85406
0.182558 -0.057536 0.855871
0.183276 -0.0562443 0.858576
0.184014 -0.0549513 0.861389
0.184845 -0.0536776 0.864691
0.185591 -0.0523676 0.867526
0.186374 -0.0510602 0.870554
0.170961 -0.130011 0.859506
0.171149 -0.128486 0.859307
0.171362 -0.126981 0.859242
0.171474 -0.125397 0.858597
0.171518 -0.123763 0.857561
0.171521 -0.1221 0.85629
0.171458 -0.120392 0.85464
0.171383 -0.118681 0.852922
0.171328 -0.116993 0.851332
0.171293 -0.115327 0.849859
0.171296 -0.113695 0.848614
0.171342 -0.112099 0.847618
0.171381 -0.110502 0.846581
0.17148 -0.108952 0.845898
0.171628 -0.107437 0.845486
0.171746 -0.105907 0.84492
0.171863 -0.104377 0.844338
0.171972 -0.102846 0.84372
0.172083 -0.101319 0.843119
0.172228 -0.0998156 0.842702
0.172407 -0.098337 0.842493
0.172603 -0.0968691 0.842366
0.172794 -0.0954005 0.842224
0.172968 -0.0939226 0.841983
0.173112 -0.0924287 0.841574
0.17324 -0.090928 0.841077
0.173398 -0.0894465 0.840747
0.173527 -0.0879514 0.840263
0.173627 -0.0864425 0.839613
0.173719 -0.0849322 0.838918
0.173835 -0.0834382 0.838366
0.173915 -0.0819283 0.837614
0.174087 -0.0804677 0.83737
0.174346 -0.0790525 0.837626
0.174617 -0.0776424 0.837939
0.174935 -0.0762542 0.838512
0.17531 -0.074891 0.839401
0.175702 -0.0735338 0.840391
0.176149 -0.0721979 0.841676
0.176644 -0.0708791 0.843222
0.177114 -0.0695448 0.844628
0.177588 -0.0682088 0.846061
0.178016 -0.066849 0.847226
0.178369 -0.0654562 0.84798
0.178765 -0.0640785 0.848971
0.179163 -0.0626986 0.849969
0.179584 -0.0613242 0.851085
0.180019 -0.0599523 0.852287
0.180518 -0.0585988 0.853826
0.181035 -0.057247 0.855465
0.181732 -0.0559496 0.858079
0.182499 -0.0546667 0.861062
0.183359 -0.0534035 0.86455
0.184157 -0.0521102 0.867693
0.184956 -0.0508075 0.870833
0.169583 -0.128143 0.858737
0.169817 -0.126657 0.858799
0.169964 -0.125101 0.858354
0.170041 -0.123492 0.857501
0.170063 -0.121843 0.856321
0.170017 -0.120146 0.854757
0.169959 -0.118446 0.853119
0.169921 -0.116769 0.851608
0.169888 -0.115102 0.850134
0.169893 -0.11347 0.848887
0.169912 -0.111852 0.847718
0.169934 -0.110241 0.846574
0.170021 -0.108682 0.845808
0.170141 -0.107149 0.845239
0.170262 -0.105619 0.844672
0.170376 -0.104088 0.844076
0.170474 -0.102548 0.843381
0.170585 -0.101021 0.84277
0.170746 -0.0995286 0.842446
0.170914 -0.0980425 0.842162
0.171137 -0.0965927 0.8422
0.171346 -0.0951342 0.84215
0.171538 -0.0936666 0.842005
0.171699 -0.0921827 0.841691
0.171886 -0.0907154 0.841524
0.172047 -0.0892341 0.841205
0.172194 -0.0877473 0.840811
0.172309 -0.086245 0.840237
0.172418 -0.0847423 0.839631
0.172526 -0.0832424 0.839028
0.172651 -0.0817539 0.838517
0.172868 -0.0803143 0.838525
0.173148 -0.078907 0.838893
0.173447 -0.0775085 0.839367
0.173777 -0.0761234 0.840007
0.174136 -0.0747509 0.840816
0.17453 -0.0733916 0.841814
0.174977 -0.0720541 0.843112
0.175446 -0.0707218 0.844524
0.175897 -0.0693775 0.845831
0.176337 -0.0680249 0.847076
0.176713 -0.0666426 0.847966
0.17703 -0.0652344 0.848523
0.177406 -0.063848 0.849409
0.177773 -0.0624557 0.850241
0.178161 -0.0610689 0.851186
0.178578 -0.0596903 0.852293
0.179073 -0.0583356 0.853822
0.179575 -0.0569791 0.855392
0.180254 -0.0556768 0.85793
0.181031 -0.0543972 0.860996
0.181885 -0.0531335 0.86448
0.18267 -0.0518364 0.86757
0.183436 -0.0505244 0.870559
0.168056 -0.127833 0.858398
0.168302 -0.126358 0.858534
0.16847 -0.124818 0.858201
0.168579 -0.123233 0.857522
0.168604 -0.121585 0.856352
0.168562 -0.119891 0.8548
0.168507 -0.118191 0.85316
0.168485 -0.116524 0.851728
0.168456 -0.114858 0.850259
0.168466 -0.113227 0.849025
0.168473 -0.111599 0.847774
0.168496 -0.109988 0.846618
0.168566 -0.108415 0.845747
0.168658 -0.106862 0.845008
0.168779 -0.105332 0.844436
0.168893 -0.1038 0.843828
0.168992 -0.102261 0.84313
0.169104 -0.100734 0.842517
0.16928 -0.0992512 0.842273
0.169448 -0.0977651 0.841987
0.169686 -0.0963242 0.842106
0.169894 -0.0948655 0.842051
0.1701 -0.0934066 0.841991
0.170264 -0.0919232 0.841681
0.170483 -0.0904743 0.841695
0.170633 -0.0889863 0.84131
0.170809 -0.0875149 0.841075
0.17094 -0.0860203 0.840585
0.171096 -0.0845419 0.840238
0.171224 -0.0830509 0.839739
0.171427 -0.0816011 0.839666
0.171681 -0.0801779 0.839878
0.171981 -0.0787784 0.84036
0.172287 -0.0773808 0.840873
0.17263 -0.0759995 0.841593
0.172971 -0.0746156 0.8423
0.173347 -0.0732463 0.843206
0.173774 -0.0718971 0.844395
0.174222 -0.0705538 0.845698
0.174624 -0.0691869 0.846741
0.175015 -0.0678126 0.847722
0.175343 -0.0664093 0.848342
0.175641 -0.064993 0.8488
0.175988 -0.0635947 0.849525
0.176339 -0.0621964 0.850277
0.176709 -0.0608029 0.851128
0.177107 -0.0594175 0.852135
0.177595 -0.0580612 0.853645
0.178114 -0.0567109 0.855316
0.17878 -0.055405 0.857799
0.179565 -0.0541288 0.86094
0.180408 -0.0528615 0.864392
0.181151 -0.0515524 0.86728
0.181863 -0.0502259 0.869993
0.166529 -0.127523 0.858058
0.166788 -0.126058 0.858269
0.166974 -0.124533 0.858038
0.167101 -0.122962 0.85746
0.167128 -0.121315 0.856292
0.167106 -0.119633 0.85483
0.167054 -0.117934 0.853191
0.16705 -0.11628 0.851856
0.167039 -0.114625 0.850474
0.167056 -0.112997 0.849263
0.167052 -0.111359 0.847932
0.167072 -0.109745 0.846754
0.167114 -0.108151 0.845702
0.167178 -0.106577 0.844787
0.167297 -0.105046 0.8442
0.167413 -0.103514 0.843592
0.167514 -0.101976 0.842903
0.167629 -0.100451 0.842296
0.167804 -0.0989678 0.842047
0.167958 -0.0974723 0.841672
0.168181 -0.0960227 0.841705
0.168374 -0.0945547 0.841558
0.168594 -0.0931052 0.841578
0.168786 -0.0916391 0.841429
0.169036 -0.0902082 0.841618
0.169191 -0.0887225 0.841255
0.169396 -0.0872675 0.841187
0.169553 -0.0857862 0.840835
0.169727 -0.084317 0.840591
0.169878 -0.0828368 0.840213
0.170157 -0.0814258 0.840575
0.170459 -0.0800257 0.841062
0.170797 -0.0786432 0.841764
0.171133 -0.0772577 0.842446
0.171504 -0.0758874 0.843329
0.17183 -0.0744934 0.843952
0.172201 -0.0731187 0.84483
0.172593 -0.0717515 0.845829
0.172991 -0.0703837 0.846854
0.173341 -0.0689926 0.847611
0.173683 -0.0675964 0.848322
0.173951 -0.0661675 0.848608
0.174236 -0.0647451 0.848988
0.174568 -0.0633409 0.849638
0.174907 -0.0619378 0.850325
0.175259 -0.0605376 0.851079
0.17565 -0.0591501 0.852057
0.176136 -0.0577931 0.85356
0.17667 -0.0564484 0.855333
0.177338 -0.0551429 0.85785
0.178101 -0.053861 0.860894
0.178901 -0.0525809 0.864133
0.179596 -0.0512583 0.86678
0.180237 -0.0499108 0.869115
0.165049 -0.127251 0.857993
0.165308 -0.125787 0.858204
0.165489 -0.124257 0.857936
0.165615 -0.122685 0.857347
0.165652 -0.121044 0.856222
0.165645 -0.119373 0.854836
0.165611 -0.117686 0.853291
0.165626 -0.116044 0.852048
0.165648 -0.114413 0.850849
0.165682 -0.112796 0.849728
0.165667 -0.111147 0.848316
0.165675 -0.109521 0.847043
0.1657 -0.107913 0.845882
0.165736 -0.106319 0.844792
0.165844 -0.104778 0.844124
0.165975 -0.103257 0.843604
0.166092 -0.10173 0.843005
0.166225 -0.100215 0.842493
0.166402 -0.0987316 0.842247
0.166555 -0.0972346 0.841859
0.166762 -0.0957741 0.841794
0.166927 -0.0942889 0.841487
0.167119 -0.0928213 0.841332
0.167312 -0.0913557 0.841184
0.167579 -0.0899351 0.841472
0.167736 -0.0884511 0.841124
0.16797 -0.0870124 0.84122
0.168155 -0.0855469 0.841034
0.168361 -0.0840938 0.840963
0.16853 -0.0826222 0.840687
0.168856 -0.0812349 0.841317
0.1692 -0.0798557 0.842057
0.169581 -0.0784931 0.843006
0.169947 -0.0771203 0.843865
0.170334 -0.0757555 0.844843
0.170646 -0.0743523 0.845386
0.170988 -0.0729621 0.846107
0.171333 -0.0715716 0.846842
0.17167 -0.0701748 0.84752
0.171971 -0.0687616 0.848003
0.17228 -0.0673502 0.848523
0.17253 -0.0659136 0.848709
0.172829 -0.0644969 0.849174
0.173178 -0.0630991 0.849922
0.173533 -0.0617013 0.8507
0.173868 -0.0602944 0.851368
0.17424 -0.0588995 0.852244
0.174722 -0.0575412 0.853736
0.175256 -0.0561964 0.855522
0.175912 -0.0548876 0.857993
0.176641 -0.0535944 0.860866
0.177365 -0.0522911 0.86371
0.17797 -0.0509412 0.865873
0.178525 -0.0495701 0.867746
0.163828 -0.125516 0.858139
0.16398 -0.123961 0.85769
0.164102 -0.122385 0.857066
0.164143 -0.120747 0.855959
0.16417 -0.1191 0.854755
0.164155 -0.117428 0.853314
0.164203 -0.11581 0.852254
0.164256 -0.1142 0.851227
0.164293 -0.112584 0.85011
0.164267 -0.110924 0.848612
0.16426 -0.109286 0.84724
0.164271 -0.107666 0.845981
0.164295 -0.106061 0.844801
0.164416 -0.104529 0.84421
0.164566 -0.10302 0.843794
0.164702 -0.101504 0.843293
0.164852 -0.0999998 0.842882
0.165029 -0.0985157 0.842631
0.165183 -0.0970177 0.84224
0.165374 -0.0955463 0.84208
0.165524 -0.0940502 0.841672
0.1657 -0.0925723 0.84142
0.165893 -0.0911065 0.841272
0.166159 -0.0896853 0.84156
0.166337 -0.0882124 0.841323
0.166586 -0.0867818 0.841507
0.166787 -0.0853244 0.84141
0.167007 -0.0838783 0.841422
0.167193 -0.0824145 0.841236
0.167558 -0.0810474 0.842104
0.167919 -0.079675 0.842937
0.168313 -0.078318 0.843969
0.168691 -0.0769502 0.84491
0.169079 -0.0755842 0.845897
0.169365 -0.0741669 0.846296
0.169706 -0.0727745 0.847009
0.170038 -0.0713763 0.847669
0.170331 -0.0699588 0.848101
0.170615 -0.0685367 0.84848
0.170904 -0.0671161 0.848888
0.17114 -0.0656728 0.84899
0.171454 -0.0642615 0.849542
0.171818 -0.0628694 0.850387
0.172174 -0.0614714 0.851177
0.172509 -0.0600634 0.851843
0.172892 -0.0586719 0.852787
0.173372 -0.0573124 0.854285
0.173908 -0.0559676 0.85609
0.174531 -0.0546465 0.858392
0.175192 -0.0533318 0.860908
0.175815 -0.0519963 0.863198
0.177893 -0.0511017 0.873741
0.162448 -0.123645 0.857299
0.162549 -0.122051 0.856536
0.162595 -0.120416 0.85544
0.162641 -0.118785 0.854348
0.16266 -0.117138 0.853093
0.162726 -0.115534 0.852134
0.162797 -0.113937 0.851205
0.162848 -0.112329 0.85016
0.162838 -0.110681 0.848745
0.162832 -0.109041 0.847362
0.162846 -0.107421 0.846101
0.162883 -0.105824 0.844991
0.163009 -0.104295 0.844416
0.163175 -0.102796 0.844089
0.163328 -0.10129 0.843688
0.163494 -0.0997956 0.843367
0.163673 -0.0983114 0.843123
0.16384 -0.0968208 0.842807
0.164006 -0.0953311 0.842484
0.164155 -0.0938336 0.84207
0.164329 -0.0923531 0.841798
0.164519 -0.0908845 0.84163
0.164772 -0.0894547 0.841836
0.164977 -0.0879971 0.841761
0.165244 -0.0865757 0.842048
0.165463 -0.085127 0.842053
0.165696 -0.0836868 0.842141
0.165896 -0.082229 0.842031
0.166246 -0.0808525 0.842814
0.166592 -0.0794718 0.843571
0.166972 -0.0781067 0.844526
0.167337 -0.0767314 0.845392
0.167708 -0.0753563 0.846286
0.167993 -0.0739381 0.846681
0.168334 -0.0725445 0.84739
0.168665 -0.0711455 0.848052
0.168943 -0.069721 0.848403
0.169227 -0.0682982 0.84878
0.169514 -0.0668766 0.849183
0.169752 -0.0654331 0.849292
0.170067 -0.0640221 0.849859
0.170448 -0.062636 0.850803
0.170804 -0.0612375 0.851599
0.171139 -0.0598288 0.852266
0.17155 -0.0584468 0.853379
0.17203 -0.0570866 0.854887
0.172563 -0.0557403 0.856694
0.173152 -0.0544071 0.858815
0.17377 -0.0530774 0.861102
0.174292 -0.0517102 0.862835
0.161027 -0.121743 0.856189
0.161086 -0.120117 0.855164
0.161165 -0.118513 0.854261
0.16121 -0.116885 0.853154
0.161299 -0.115297 0.852326
0.16137 -0.113699 0.851387
0.161425 -0.112092 0.850346
0.16142 -0.110446 0.848948
0.161431 -0.108817 0.847656
0.161461 -0.107207 0.846479
0.161502 -0.105611 0.845376
0.16163 -0.104081 0.844808
0.161812 -0.102592 0.844572
0.161981 -0.101096 0.844261
0.162161 -0.099609 0.844015
0.162355 -0.0981328 0.843854
0.162524 -0.096642 0.843546
0.162679 -0.0951436 0.843152
0.162815 -0.093636 0.842651
0.162961 -0.0921366 0.842207
0.163137 -0.090658 0.841945
0.163376 -0.0892193 0.842069
0.163596 -0.0877693 0.842074
0.163864 -0.086348 0.84237
0.164099 -0.0849078 0.84247
0.164333 -0.0834675 0.842565
0.164544 -0.0820146 0.842518
0.164881 -0.0806305 0.843226
0.165226 -0.0792488 0.843983
0.165604 -0.077882 0.844931
0.165965 -0.076504 0.845775
0.166318 -0.0751201 0.846575
0.1666 -0.0736997 0.846952
0.166938 -0.0723048 0.847653
0.167269 -0.0709053 0.848317
0.167549 -0.0694807 0.848675
0.167847 -0.0680638 0.84914
0.168137 -0.0666424 0.849558
0.168392 -0.0652057 0.849769
0.168724 -0.0638005 0.850431
0.169118 -0.0624189 0.85146
0.169488 -0.0610246 0.852337
0.169834 -0.0596196 0.853085
