ply
format ascii 1.0
element vertex 1671
property float x
property float y
property float z
end_header
0.283385 -0.0492232 0.898126
0.283516 -0.0504129 0.901445
0.283596 -0.0516147 0.904618
0.283623 -0.0528272 0.907641
0.283664 -0.054045 0.910725
0.283633 -0.0552755 0.913596
0.284153 -0.0564792 0.918268
0.327602 0.0319845 0.845701
0.32676 0.0307178 0.845904
0.325944 0.0294596 0.846171
0.324975 0.0281536 0.846039
0.324148 0.0268934 0.846273
0.323122 0.0255722 0.845986
0.322086 0.0242497 0.845666
0.321042 0.0229274 0.845323
0.320077 0.0216298 0.845181
0.31918 0.0203544 0.845218
0.318515 0.019148 0.845871
0.317885 0.0179519 0.846619
0.317334 0.0167774 0.847582
0.316783 0.0156016 0.848545
0.316197 0.0144152 0.849419
0.297235 -0.000748742 0.82186
0.296517 -0.00193333 0.822283
0.295943 -0.00308347 0.823108
0.29524 -0.00426448 0.823577
0.294527 -0.00544816 0.824015
0.293722 -0.00665334 0.82419
0.292918 -0.00785777 0.824369
0.292097 -0.00906451 0.824499
0.29134 -0.010257 0.824808
0.290609 -0.0114431 0.825191
0.289929 -0.0126187 0.82572
0.289302 -0.0137829 0.8264
0.288765 -0.0149295 0.827342
0.288319 -0.0160588 0.828551
0.287981 -0.017169 0.830076
0.287881 -0.0182355 0.8323
0.287743 -0.0193139 0.834427
0.287794 -0.0203608 0.837116
0.288143 -0.0213599 0.840691
0.288687 -0.0223321 0.844858
0.289244 -0.0233112 0.849091
0.289874 -0.0242875 0.853563
0.290229 -0.0253201 0.857242
0.290309 -0.0264067 0.860117
0.290119 -0.027542 0.862206
0.28971 -0.028716 0.863644
0.289294 -0.029893 0.865069
0.288904 -0.0310696 0.866576
0.28855 -0.0322428 0.868202
0.288233 -0.0334144 0.869945
0.287942 -0.0345855 0.871777
0.287586 -0.0357695 0.87342
0.287137 -0.0369674 0.874783
0.28657 -0.0381828 0.875787
0.285915 -0.0394102 0.876524
0.285201 -0.0406451 0.877081
0.284402 -0.0418892 0.877378
0.283654 -0.043128 0.877826
0.282992 -0.0443576 0.878549
0.282599 -0.045561 0.880112
0.282407 -0.0467486 0.882314
0.282837 -0.0478849 0.886493
0.283377 -0.0490211 0.891045
0.283996 -0.050161 0.895876
0.284369 -0.0513333 0.899946
0.284685 -0.0525193 0.903861
0.284769 -0.05373 0.907054
0.28488 -0.0549466 0.910351
0.284939 -0.0561739 0.913496
0.285028 -0.0574074 0.916758
0.328801 0.0321286 0.842996
0.32799 0.0308736 0.843275
0.3272 0.0296254 0.843606
0.326427 0.0283838 0.843984
0.325451 0.0270787 0.843831
0.324619 0.0258192 0.844048
0.323631 0.0245127 0.843858
0.322607 0.0231973 0.84357
0.321638 0.0218996 0.843421
0.320771 0.0206342 0.843539
0.319982 0.0193925 0.843859
0.319382 0.0182055 0.844681
0.318817 0.017029 0.845602
0.318278 0.0158573 0.846591
0.317724 0.0146812 0.847545
0.317138 0.0134943 0.848413
0.316487 0.0122893 0.849112
0.299862 -0.00019605 0.823228
0.299169 -0.00137772 0.823728
0.298432 -0.00256931 0.824108
0.297736 -0.00375178 0.824596
0.296938 -0.00495748 0.824806
0.296135 -0.00616442 0.824996
0.295251 -0.00738843 0.824957
0.294419 -0.00860036 0.825062
0.293572 -0.00981442 0.825122
0.292839 -0.0110025 0.825504
0.292115 -0.0121891 0.825908
0.291437 -0.0133653 0.826448
0.290811 -0.0145313 0.827134
0.290268 -0.0156814 0.828061
0.289764 -0.0168245 0.829102
0.289397 -0.0179427 0.830544
0.289322 -0.0190087 0.832833
0.289245 -0.020079 0.835133
0.289421 -0.0211075 0.838179
0.289907 -0.0220879 0.842146
0.290557 -0.0230487 0.846614
0.291129 -0.0240328 0.850882
0.291646 -0.0250364 0.855007
0.291819 -0.0261054 0.85814
0.29171 -0.0272265 0.860449
0.29137 -0.0283881 0.862087
0.290853 -0.0295806 0.863198
0.290382 -0.0307674 0.864456
0.289937 -0.0319524 0.865793
0.289524 -0.0331351 0.867234
0.289174 -0.0343123 0.86887
0.28883 -0.0354913 0.870533
0.288452 -0.0366777 0.8721
0.288004 -0.0378761 0.87346
0.287438 -0.0390913 0.874463
0.286757 -0.0403201 0.87512
0.286047 -0.0415538 0.875681
0.285223 -0.0428001 0.875898
0.284393 -0.0440455 0.876091
0.283582 -0.045288 0.876345
0.283002 -0.0465094 0.877313
0.282584 -0.0477156 0.878796
0.282809 -0.0488692 0.882303
0.283455 -0.0499962 0.887158
0.28432 -0.0511185 0.892734
0.284905 -0.0522746 0.897452
0.285441 -0.0534462 0.902043
0.285703 -0.054647 0.905787
0.285926 -0.0558584 0.909425
0.286121 -0.0570806 0.912996
0.286376 -0.0583079 0.916779
0.327608 0.0285291 0.841245
0.326719 0.0272538 0.841318
0.325712 0.0259415 0.841077
0.32472 0.0246372 0.840878
0.323696 0.0233235 0.840587
0.322672 0.0220126 0.840294
0.321833 0.0207579 0.84048
0.321102 0.0195357 0.840949
0.32053 0.0183598 0.841839
0.320084 0.0172182 0.843061
0.319638 0.0160752 0.844291
0.319165 0.0149231 0.845453
0.318628 0.0137516 0.846447
0.318004 0.0125543 0.847212
0.31732 0.0113408 0.847817
0.316651 0.0101308 0.848464
0.301268 -0.00095675 0.823619
0.300564 -0.00214186 0.824091
0.299842 -0.00333122 0.824513
0.299081 -0.00453041 0.824823
0.298227 -0.00574927 0.824881
0.297369 -0.0069694 0.82492
0.296482 -0.00819412 0.824876
0.295653 -0.00940485 0.824993
0.294859 -0.0106072 0.825206
0.294152 -0.0117907 0.825662
0.293449 -0.0129736 0.826131
0.292772 -0.0141507 0.826673
0.29217 -0.0153133 0.827429
0.291602 -0.0164695 0.828286
0.291095 -0.0176155 0.829316
0.290778 -0.0187266 0.830898
0.290764 -0.0197836 0.833363
0.290813 -0.0208352 0.836017
0.291152 -0.0218396 0.839531
0.291768 -0.0228037 0.843867
0.292439 -0.023769 0.848386
0.292924 -0.0247751 0.852388
0.293286 -0.0258114 0.856048
0.293275 -0.0269151 0.858631
0.292963 -0.0280716 0.860338
0.292512 -0.0292526 0.861638
0.29196 -0.0304506 0.862646
0.29144 -0.0316454 0.863752
0.290941 -0.0328384 0.864926
0.290494 -0.034027 0.866258
0.290112 -0.0352091 0.867793
0.289739 -0.0363926 0.869358
0.289339 -0.0375821 0.870852
0.288893 -0.0387801 0.872213
0.288329 -0.0399944 0.873218
0.287623 -0.041226 0.873793
0.286914 -0.0424581 0.874358
0.286093 -0.0437025 0.874581
0.285237 -0.0449495 0.874691
0.284317 -0.0462012 0.874604
0.283556 -0.0474377 0.875005
0.282865 -0.0486675 0.875627
0.282813 -0.0498435 0.878246
0.283525 -0.0509657 0.883275
0.284531 -0.0520782 0.889257
0.28533 -0.0532205 0.894624
0.286092 -0.0543777 0.899909
0.28654 -0.0555681 0.904221
0.286794 -0.0567798 0.907942
0.287072 -0.0579994 0.911758
0.287463 -0.059223 0.915964
0.329276 0.0288288 0.839777
0.328193 0.0274926 0.83935
0.327003 0.0261268 0.838646
0.325796 0.0247581 0.83789
0.324603 0.0233966 0.837163
0.323459 0.022052 0.836553
0.322404 0.0207375 0.836173
0.321636 0.019508 0.836534
0.321086 0.018343 0.837471
0.320717 0.017228 0.838883
0.320448 0.0161388 0.840563
0.320168 0.0150434 0.84222
0.319838 0.0139311 0.843751
0.319357 0.0127757 0.84489
0.318687 0.011567 0.845528
0.317812 0.0103037 0.845619
0.317062 0.0090747 0.846045
0.303099 -0.000601574 0.822765
0.302314 -0.00180612 0.823016
0.301617 -0.00298968 0.823507
0.300929 -0.00417124 0.824021
0.300163 -0.00537051 0.824322
0.299336 -0.00658402 0.82445
0.298504 -0.0077966 0.824568
0.297647 -0.00901468 0.824609
0.296848 -0.010219 0.824812
0.296081 -0.0114158 0.825102
0.295373 -0.0125999 0.825558
0.294668 -0.0137834 0.826023
0.293988 -0.014962 0.826556
0.293387 -0.0161251 0.827316
0.292822 -0.0172824 0.828177
0.29232 -0.0184283 0.829224
0.292085 -0.0195257 0.831037
0.292221 -0.0205588 0.833925
0.292457 -0.021581 0.83711
0.292962 -0.0225623 0.841094
0.293699 -0.0235134 0.845769
0.294307 -0.0244966 0.850098
0.294635 -0.0255368 0.853629
0.294789 -0.0266119 0.856674
0.294633 -0.0277422 0.858829
0.294186 -0.028922 0.860133
0.293682 -0.0301124 0.861274
0.293103 -0.0313152 0.8622
0.292555 -0.032515 0.863218
0.291999 -0.0337167 0.86422
0.291521 -0.0349101 0.865456
0.29108 -0.0361001 0.86681
0.290681 -0.037288 0.868291
0.290282 -0.0384787 0.86978
0.289838 -0.0396763 0.871138
0.289272 -0.0408906 0.872135
0.288591 -0.0421193 0.872784
0.287881 -0.04335 0.873346
0.287036 -0.0445958 0.873493
0.286127 -0.0458476 0.873442
0.285127 -0.0471049 0.873109
0.284147 -0.0483592 0.87283
0.28318 -0.0496103 0.872589
0.282822 -0.0508099 0.874239
0.283586 -0.0519283 0.879397
0.284663 -0.0530368 0.885567
0.285742 -0.054161 0.891778
0.286784 -0.0553032 0.897911
0.287441 -0.0564827 0.902866
0.287681 -0.0576986 0.906522
0.287982 -0.0589187 0.910396
0.288435 -0.0601427 0.914775
0.328543 0.0263884 0.836868
0.327083 0.0249445 0.835471
0.325728 0.023536 0.834331
0.32435 0.0221246 0.833121
0.323128 0.020763 0.832305
0.322101 0.0194626 0.831991
0.321405 0.0182589 0.832531
0.320942 0.0171214 0.83368
0.320715 0.0160495 0.835451
0.32065 0.0150185 0.83765
0.320519 0.0139664 0.839692
0.320302 0.0128863 0.841512
0.319906 0.011754 0.842864
0.319263 0.0105547 0.843569
0.318239 0.00925455 0.843263
0.317175 0.00794553 0.842843
0.305153 -0.000191756 0.822517
0.304127 -0.0014552 0.822115
0.303277 -0.00267483 0.822189
0.30255 -0.00386498 0.822596
0.301885 -0.00504093 0.823171
0.301145 -0.00623374 0.823545
0.300346 -0.0074398 0.82375
0.299545 -0.0086455 0.823953
0.298746 -0.00985003 0.824159
0.297979 -0.0110473 0.824452
0.297218 -0.012243 0.824758
0.29651 -0.0134273 0.825215
0.295802 -0.0146116 0.825671
0.295094 -0.0157959 0.826127
0.294495 -0.0169591 0.826891
0.293934 -0.018116 0.827762
0.293463 -0.019257 0.828894
0.293346 -0.0203351 0.831037
0.293746 -0.0213249 0.834669
0.294211 -0.0223114 0.838507
0.2949 -0.0232687 0.843006
0.295696 -0.0242182 0.84784
0.296196 -0.0252276 0.851846
0.29626 -0.0263158 0.854609
0.296179 -0.0274332 0.856963
0.295887 -0.0285879 0.858711
0.295363 -0.0297802 0.85979
0.294836 -0.0309747 0.860863
0.294257 -0.0321782 0.861786
0.293679 -0.0333831 0.862714
0.293065 -0.0345937 0.863539
0.292555 -0.0357914 0.864677
0.292058 -0.0369898 0.865858
0.291632 -0.0381816 0.867253
0.291231 -0.0393716 0.868731
0.290789 -0.0405697 0.870091
0.290224 -0.0417845 0.871084
0.289568 -0.0430094 0.871809
0.288856 -0.0442403 0.872363
0.287985 -0.0454878 0.872429
0.287046 -0.0467403 0.872286
0.285985 -0.0480019 0.871768
0.284896 -0.0492632 0.871154
0.283815 -0.0505212 0.870559
0.283143 -0.0517443 0.871225
0.28394 -0.0528624 0.876457
0.285076 -0.0539692 0.882777
0.286299 -0.0550874 0.88941
0.287475 -0.0562256 0.89593
0.288349 -0.0573968 0.901539
0.288546 -0.0586158 0.905043
0.288848 -0.059839 0.908901
0.289314 -0.0610646 0.9133
0.325448 0.0222597 0.830253
0.32405 0.0208494 0.828991
0.322869 0.0195062 0.828275
0.321873 0.0182195 0.828033
0.321186 0.0170224 0.828585
0.320724 0.0158889 0.829725
0.320529 0.0148279 0.831564
0.320579 0.013831 0.83405
0.3206 0.0128212 0.836471
0.320528 0.0117814 0.838659
0.32023 0.0106775 0.840262
0.31961 0.00948631 0.841021
0.318529 0.00817467 0.840558
0.317347 0.00683983 0.839824
0.315378 0.0053091 0.836982
0.306325 0.00110972 0.823307
0.30972 0.0018494 0.82663
0.307635 0.000321188 0.823405
0.306268 -0.00102588 0.822097
0.305207 -0.00229652 0.821605
0.304296 -0.00352967 0.821516
0.303519 -0.00473112 0.821785
0.302809 -0.00591671 0.822239
0.302069 -0.0071092 0.822608
0.301301 -0.0083074 0.822902
0.300533 -0.00950519 0.823195
0.299768 -0.0107019 0.823494
0.299032 -0.0118924 0.823873
0.298299 -0.013082 0.824257
0.297617 -0.0142611 0.824786
0.296911 -0.0154451 0.825248
0.296204 -0.0166295 0.825706
0.295631 -0.0177882 0.826541
0.295069 -0.0189459 0.827411
0.294576 -0.020092 0.828478
0.29468 -0.0211327 0.831241
0.29533 -0.0220835 0.835571
0.296005 -0.02304 0.839997
0.296833 -0.0239812 0.844884
0.297646 -0.0249362 0.849758
0.297912 -0.025991 0.853079
0.297731 -0.0271231 0.855129
0.297448 -0.0282749 0.856893
0.297068 -0.0294449 0.858382
0.296546 -0.0306382 0.859465
0.296025 -0.0318328 0.860552
0.295446 -0.0330371 0.861475
0.29486 -0.0342434 0.862379
0.294187 -0.0354623 0.863028
0.293647 -0.0366652 0.864074
0.293121 -0.0378672 0.865164
0.292666 -0.0390633 0.866471
0.29221 -0.0402613 0.867778
0.291742 -0.0414629 0.869055
0.291124 -0.0426825 0.869886
0.290445 -0.0439094 0.870534
0.289708 -0.0451424 0.871009
0.288832 -0.0463883 0.871063
0.287862 -0.0476408 0.870826
0.286767 -0.0489038 0.870202
0.285587 -0.0501692 0.869315
0.284416 -0.0514313 0.868442
0.283479 -0.0526723 0.868287
0.284383 -0.0537844 0.873819
0.28564 -0.0548872 0.880479
0.287052 -0.0559985 0.887666
0.288363 -0.0571334 0.894575
0.289164 -0.0583124 0.899929
0.289329 -0.0595361 0.903315
0.289664 -0.0607594 0.907255
0.290157 -0.0619865 0.911722
0.324911 0.0209181 0.825549
0.323752 0.0195848 0.824893
0.322773 0.0183059 0.824691
0.321844 0.017043 0.824615
0.321163 0.0158513 0.825176
0.320701 0.01472 0.826302
0.320488 0.0136557 0.82808
0.32052 0.0126547 0.830502
0.320523 0.0116412 0.832861
0.320533 0.0106247 0.835247
0.320344 0.0095513 0.837122
0.31977 0.00837467 0.837992
0.318706 0.00707223 0.837574
0.317502 0.00573626 0.836776
0.315569 0.00422233 0.834039
0.313163 0.00260004 0.830022
0.310779 0.000994391 0.826038
0.308864 -0.000487919 0.823286
0.307489 -0.00183523 0.821962
0.306367 -0.00311913 0.821311
0.305393 -0.00436619 0.821055
0.304565 -0.0055788 0.821188
0.303796 -0.00677762 0.821479
0.303003 -0.00798118 0.821704
0.302266 -0.00917214 0.82208
0.301529 -0.0103626 0.822459
0.300795 -0.0115525 0.822844
0.300087 -0.0127368 0.8233
0.299406 -0.0139159 0.823828
0.298754 -0.0150892 0.82444
0.298077 -0.0162677 0.824985
0.297399 -0.0174469 0.825524
0.296825 -0.0186067 0.826356
0.296235 -0.0197705 0.827145
0.295947 -0.0208809 0.828787
0.296318 -0.0218787 0.832296
0.29718 -0.0227999 0.837216
0.298055 -0.0237304 0.8422
0.298981 -0.0246645 0.847355
0.299602 -0.0256599 0.851666
0.299604 -0.0267626 0.854228
0.299208 -0.0279319 0.855657
0.298746 -0.0291137 0.856902
0.298301 -0.0302949 0.858202
0.297754 -0.031493 0.859206
0.297209 -0.032692 0.860224
0.29663 -0.033897 0.861147
0.29604 -0.0351047 0.862036
0.295335 -0.036328 0.862593
0.294767 -0.0375349 0.863554
0.294214 -0.0387412 0.86456
0.293729 -0.0399408 0.865772
0.293241 -0.0411433 0.866979
0.292743 -0.0423484 0.868162
0.292071 -0.0435741 0.86883
0.291364 -0.0448027 0.869392
0.290598 -0.0460376 0.86978
0.289668 -0.0472876 0.869669
0.288616 -0.0485459 0.869185
0.28746 -0.0498097 0.868375
0.286193 -0.0510793 0.867224
0.284931 -0.0523445 0.866078
0.284317 -0.0535596 0.866908
0.285372 -0.0546662 0.872879
0.28673 -0.0557693 0.879824
0.288271 -0.05688 0.887374
0.289673 -0.058018 0.894541
0.290169 -0.0592176 0.898923
0.290234 -0.0604469 0.901979
0.290538 -0.0616748 0.905806
0.290972 -0.0629068 0.910062
0.3248 0.0197121 0.82196
0.324042 0.0184993 0.822322
0.32325 0.0172773 0.822597
0.322387 0.0160355 0.822686
0.321674 0.0148364 0.82316
0.32113 0.0136836 0.824068
0.320721 0.0125666 0.82533
0.320609 0.011527 0.827365
0.320501 0.0104846 0.829419
0.320508 0.00946812 0.831781
0.320369 0.00840937 0.833772
0.319845 0.00724877 0.834766
0.318879 0.00597542 0.834599
0.317712 0.00465361 0.833899
0.315919 0.00318101 0.831534
0.313914 0.00166466 0.828597
0.311927 0.000160716 0.825682
0.310089 -0.00129931 0.823148
0.308707 -0.00264607 0.821817
0.307548 -0.00393755 0.821071
0.30657 -0.00518501 0.820808
0.30568 -0.00641119 0.820777
0.304876 -0.00761733 0.820975
0.304055 -0.00882678 0.821123
0.303318 -0.0100173 0.821502
0.302584 -0.0112072 0.821886
0.301876 -0.0123915 0.822343
0.301194 -0.0135706 0.822871
0.300543 -0.0147438 0.823482
0.299924 -0.0159112 0.824185
0.29928 -0.0170839 0.824821
0.298633 -0.0182578 0.825447
0.298031 -0.0194239 0.826199
0.297409 -0.0205941 0.8269
0.297371 -0.0216624 0.829238
0.297945 -0.0226304 0.833308
0.298991 -0.023528 0.838733
0.300012 -0.0244428 0.844115
0.301001 -0.0253758 0.849435
0.301355 -0.0264214 0.85298
0.301172 -0.0275575 0.855009
0.300593 -0.0287572 0.855913
0.300009 -0.0299587 0.856806
0.299503 -0.03115 0.857928
0.298954 -0.0323494 0.858926
0.298386 -0.0335525 0.859875
0.297808 -0.0347581 0.860798
0.297215 -0.0359669 0.861679
0.296482 -0.0371941 0.862151
0.295862 -0.0384078 0.862957
0.295253 -0.0396211 0.863799
0.294708 -0.0408285 0.86483
0.294159 -0.042037 0.865852
0.293599 -0.0432493 0.866846
0.292869 -0.0444793 0.867336
0.292103 -0.0457124 0.867719
0.291227 -0.0469554 0.86777
0.290209 -0.0482099 0.867394
0.289072 -0.0494723 0.866654
0.288342 -0.0506986 0.867134
0.287501 -0.0519333 0.867282
0.286726 -0.0531632 0.867626
0.286631 -0.0543469 0.870046
0.287793 -0.0554577 0.876332
0.289947 -0.0577372 0.888494
0.291018 -0.0589006 0.89461
0.291194 -0.0601206 0.897981
0.291154 -0.0613568 0.900702
0.291365 -0.0625901 0.904216
0.2917 -0.0638275 0.908142
0.326621 0.0200642 0.821006
0.325762 0.0188225 0.821112
0.324963 0.0175987 0.821368
0.324116 0.0163619 0.821502
0.323303 0.0151355 0.821721
0.322584 0.0139352 0.822177
0.321895 0.0127431 0.822711
0.321325 0.0115829 0.823553
0.321007 0.0104881 0.825045
0.320718 0.00939843 0.826619
0.320584 0.00834595 0.828601
0.320415 0.0072809 0.830502
0.31997 0.0061426 0.831689
0.319133 0.00490533 0.831856
0.318021 0.00360158 0.831299
0.316442 0.00218743 0.829507
0.314679 0.00073502 0.827215
0.312915 -0.000710777 0.824903
0.311266 -0.00212274 0.822882
0.309852 -0.00347476 0.821473
0.3087 -0.00476317 0.820752
0.307751 -0.00600346 0.820569
0.306886 -0.00722394 0.820608
0.306054 -0.00843631 0.820732
0.305252 -0.00964142 0.820936
0.304511 -0.0108331 0.821305
0.303776 -0.0120236 0.821687
0.303069 -0.013208 0.822148
0.302416 -0.0143819 0.822754
0.301768 -0.0155552 0.823376
0.30118 -0.0167176 0.824164
0.300571 -0.0178847 0.824896
0.299928 -0.0190587 0.825533
0.299512 -0.0201924 0.826805
0.299165 -0.0213161 0.828274
0.299389 -0.0223441 0.831339
0.300151 -0.0232881 0.835929
0.301322 -0.0241757 0.84169
0.302183 -0.025127 0.846611
0.302899 -0.0261128 0.851149
0.302976 -0.0272077 0.853901
0.302582 -0.0283793 0.855328
0.301884 -0.0295981 0.855893
0.30121 -0.0308135 0.856531
0.300648 -0.0320139 0.857486
0.300072 -0.0332174 0.858407
0.299505 -0.034421 0.859357
0.298928 -0.0356271 0.860279
0.298335 -0.0368364 0.861159
0.297602 -0.0380636 0.861632
0.296953 -0.0392809 0.862354
0.296314 -0.0404979 0.863102
0.295681 -0.0417151 0.863872
0.295041 -0.0429334 0.864622
0.294391 -0.0441543 0.865346
0.293546 -0.0453938 0.865495
0.292638 -0.0466386 0.865451
0.291662 -0.0478876 0.865202
0.291032 -0.0491058 0.865983
0.29035 -0.050329 0.86661
0.290214 -0.0515109 0.868882
0.289678 -0.0527268 0.869959
0.289447 -0.0539242 0.871965
0.289498 -0.0551077 0.874834
0.290356 -0.05625 0.880185
0.290944 -0.0574211 0.88474
0.291773 -0.0585907 0.890056
0.292448 -0.0597814 0.894935
0.292252 -0.0610208 0.897146
0.292067 -0.0622645 0.899405
0.292085 -0.0635063 0.902305
0.292198 -0.0647518 0.905515
0.291949 -0.0650766 0.911818
0.327698 0.0192077 0.82045
0.326852 0.0179701 0.820589
0.326038 0.0167424 0.820809
0.32518 0.0155032 0.820916
0.324374 0.0142788 0.821151
0.323593 0.013062 0.82145
0.322841 0.0118534 0.821824
0.32212 0.0106532 0.822275
0.321583 0.00950084 0.823199
0.321122 0.00836704 0.824321
0.320854 0.00728039 0.825944
0.320587 0.00619139 0.827578
0.320136 0.00505374 0.828741
0.319363 0.00383551 0.829068
0.318343 0.00255822 0.828749
0.316843 0.0011685 0.827167
0.315236 -0.000241209 0.825292
0.313639 -0.00164276 0.823429
0.312175 -0.00300787 0.821906
0.31089 -0.00432777 0.820845
0.309874 -0.00558438 0.82049
0.308957 -0.00681724 0.820396
0.308125 -0.00803052 0.820525
0.307266 -0.00924856 0.82058
0.306459 -0.0104549 0.820772
0.305714 -0.0116478 0.821131
0.304979 -0.0128384 0.821516
0.304276 -0.0140227 0.821986
0.303651 -0.0151916 0.822672
0.303031 -0.0163604 0.823369
0.302474 -0.0175181 0.824242
0.301893 -0.018681 0.825052
0.301278 -0.0198512 0.825769
0.301147 -0.0209368 0.827825
0.301116 -0.0220092 0.83017
0.301651 -0.0229911 0.834096
0.30259 -0.0239153 0.839171
0.30373 -0.0248194 0.844834
0.304266 -0.0258323 0.848834
0.304631 -0.0268809 0.852375
0.304378 -0.0280304 0.854193
0.303788 -0.0292331 0.855064
0.303086 -0.0304527 0.855619
0.302411 -0.0316689 0.856251
0.301825 -0.0328735 0.857138
0.301249 -0.0340776 0.858059
0.30068 -0.0352824 0.858999
0.300074 -0.0364929 0.859837
0.299455 -0.0377058 0.86064
0.298722 -0.038933 0.861113
0.298044 -0.040154 0.861748
0.297344 -0.0413777 0.86232
0.296617 -0.0426049 0.862811
0.295856 -0.0438345 0.863204
0.295088 -0.0450656 0.863575
0.294153 -0.0463118 0.863454
0.293102 -0.0475664 0.862985
0.292544 -0.0487763 0.863972
0.292425 -0.0499532 0.866275
0.292295 -0.0511356 0.868555
0.292773 -0.0522791 0.87267
0.29298 -0.0534507 0.875992
0.292899 -0.0546492 0.878463
0.293069 -0.0558382 0.881707
0.293505 -0.0570191 0.885774
0.293522 -0.0582327 0.888591
0.293764 -0.0594417 0.892109
0.293984 -0.0606594 0.895577
0.29338 -0.0619178 0.896529
0.293016 -0.0631691 0.898227
0.292807 -0.0644197 0.900412
0.292701 -0.0656721 0.902927
0.329695 0.01961 0.819935
0.328789 0.0183551 0.819928
0.327934 0.0171157 0.820048
0.32711 0.0158856 0.820243
0.32621 0.0146352 0.820243
0.325402 0.0134111 0.820475
0.324592 0.012187 0.820702
0.323808 0.0109703 0.820992
0.323025 0.00975421 0.821284
0.322367 0.00857066 0.821894
0.32175 0.00739747 0.822613
0.321319 0.00626993 0.823809
0.320926 0.0051501 0.825109
0.320386 0.00399213 0.826031
0.319611 0.00277659 0.826349
0.318599 0.00150478 0.826045
0.317272 0.000161141 0.824917
0.315827 -0.00120574 0.82347
0.314393 -0.00256514 0.822043
0.313087 -0.00389116 0.82094
0.311968 -0.00517165 0.820325
0.310985 -0.00641991 0.82006
0.310101 -0.00764518 0.820054
0.309303 -0.00885097 0.820278
0.308475 -0.0100625 0.820416
0.307698 -0.0112627 0.820692
0.306951 -0.0124564 0.821046
0.306247 -0.0136415 0.821516
0.305573 -0.0148205 0.822069
0.30498 -0.0159846 0.82284
0.304413 -0.0171446 0.823683
0.303882 -0.0182992 0.824625
0.303328 -0.0194589 0.825511
0.302959 -0.0205872 0.826906
0.303118 -0.0216269 0.829758
0.303405 -0.0226513 0.832977
0.304285 -0.0235848 0.837854
0.305245 -0.024517 0.842981
0.306024 -0.0254902 0.847627
0.306213 -0.0265653 0.850654
0.306194 -0.0276786 0.853115
0.305609 -0.0288802 0.853998
0.304935 -0.0300959 0.854629
0.304233 -0.0313158 0.855184
0.303533 -0.0325356 0.855747
0.30295 -0.0337403 0.85664
0.302375 -0.034945 0.85756
0.301804 -0.0361505 0.858495
0.301169 -0.0373649 0.859247
0.300519 -0.0385818 0.85996
0.299756 -0.0398121 0.860347
0.299021 -0.0410391 0.860814
0.298261 -0.0422687 0.86121
0.29747 -0.043501 0.861512
0.296615 -0.0447398 0.861631
0.295724 -0.0459806 0.86164
0.294673 -0.0472341 0.861173
0.293502 -0.0484956 0.86035
0.293437 -0.0496634 0.862788
0.293889 -0.0507972 0.866773
0.294436 -0.0519336 0.871064
0.29564 -0.0530349 0.877337
0.296598 -0.0541691 0.882916
0.29652 -0.0553793 0.885408
0.29638 -0.0578164 0.890484
0.295867 -0.0590646 0.891697
0.295557 -0.0603062 0.893531
0.29529 -0.0615491 0.895507
0.294639 -0.0628106 0.896315
0.294091 -0.0640694 0.897443
0.293683 -0.0653265 0.899006
0.293319 -0.0665851 0.90071
0.330811 0.0187637 0.819473
0.329838 0.0174909 0.819302
0.328977 0.0162503 0.819407
0.328137 0.0150163 0.819562
0.327208 0.0137592 0.819493
0.326399 0.0125353 0.819721
0.325581 0.0113099 0.819929
0.324763 0.0100847 0.820131
0.323918 0.00885355 0.820266
0.323198 0.00765485 0.820717
0.322546 0.00647304 0.821341
0.321994 0.00531561 0.822223
0.321476 0.00416552 0.823195
0.320839 0.00298549 0.823862
0.320036 0.00176535 0.824101
0.318996 0.000490399 0.823726
0.317791 -0.000820638 0.822916
0.316474 -0.00215381 0.821807
0.315195 -0.00347445 0.820789
0.314017 -0.00476911 0.820027
0.31299 -0.00602777 0.819654
0.312066 -0.00726213 0.819549
0.311238 -0.00847486 0.819695
0.310502 -0.00966787 0.820081
0.309733 -0.0108671 0.820382
0.309017 -0.0120555 0.820821
0.308301 -0.0132438 0.821262
0.307627 -0.0144239 0.821814
0.306983 -0.0155985 0.822448
0.306448 -0.0167534 0.823376
0.305915 -0.0179089 0.824315
0.305442 -0.019055 0.825417
0.305084 -0.0201825 0.826837
0.304934 -0.0212768 0.828829
0.305309 -0.0222861 0.832271
0.305899 -0.0232678 0.836319
0.306781 -0.0242114 0.841196
0.307503 -0.0251922 0.845655
0.307946 -0.0262265 0.849365
0.307802 -0.0273581 0.85146
0.307428 -0.0285279 0.852926
0.306756 -0.029743 0.853563
0.306052 -0.0309631 0.854111
0.305351 -0.0321829 0.854668
0.304653 -0.0334026 0.855237
0.304047 -0.0346108 0.856063
0.303443 -0.0358195 0.856899
0.302839 -0.0370294 0.857737
0.302171 -0.0382476 0.858394
0.301491 -0.0394677 0.859018
0.300725 -0.0406978 0.859393
0.299933 -0.0419301 0.859697
0.299113 -0.043165 0.859916
0.298233 -0.044405 0.859962
0.297258 -0.0456527 0.859727
0.29625 -0.0469013 0.85939
0.295155 -0.0481554 0.858797
0.294416 -0.0493775 0.859239
0.29492 -0.0505026 0.863343
0.295991 -0.051596 0.869145
0.297252 -0.0526909 0.875543
0.298944 -0.0537738 0.883259
0.300083 -0.0549111 0.889369
0.300015 -0.0561332 0.891908
0.299593 -0.0573793 0.893395
0.299072 -0.0586331 0.89459
0.298147 -0.0599072 0.894572
0.297394 -0.061173 0.895071
0.296733 -0.0624348 0.895847
0.296047 -0.0636988 0.89655
0.295377 -0.0649626 0.897304
0.294783 -0.0662256 0.898292
0.294174 -0.0674902 0.899237
0.332932 0.0192002 0.819256
0.33189 0.0179072 0.81892
0.330929 0.0166385 0.818781
0.330057 0.0153957 0.818861
0.329172 0.0141499 0.818904
0.32821 0.0128851 0.818755
0.327393 0.0116596 0.818963
0.326537 0.0104248 0.819073
0.325685 0.009192 0.819193
0.324843 0.00796246 0.819334
0.324065 0.00674972 0.819637
0.323348 0.00555241 0.820093
0.322694 0.00437068 0.820712
0.32208 0.00319797 0.821432
0.321351 0.00199724 0.821859
0.320516 0.000771972 0.822012
0.319477 -0.000499686 0.821638
0.318336 -0.00179231 0.820995
0.317115 -0.00310007 0.820138
0.315941 -0.00439424 0.819394
0.314889 -0.00565872 0.818964
0.313955 -0.00689569 0.818837
0.313091 -0.00811613 0.818892
0.312322 -0.00931612 0.819193
0.311671 -0.0104916 0.819805
0.310968 -0.0116778 0.82028
0.310315 -0.0128541 0.82089
0.309717 -0.0140203 0.821645
0.309126 -0.0151859 0.822422
0.308572 -0.0163456 0.823298
0.308103 -0.0174905 0.824407
0.307661 -0.0186323 0.825593
0.307307 -0.0197606 0.827019
0.307109 -0.0208645 0.828874
0.307138 -0.0219335 0.831358
0.307707 -0.0229185 0.835323
0.308485 -0.0238787 0.839883
0.309115 -0.0248733 0.844059
0.309542 -0.025909 0.847701
0.309631 -0.0270044 0.850425
0.309188 -0.0281841 0.851693
0.308517 -0.0293988 0.852329
0.307816 -0.030618 0.852886
0.307112 -0.0318381 0.853434
0.306437 -0.0330543 0.854063
0.305739 -0.0342741 0.854629
0.305101 -0.0354863 0.855367
0.304493 -0.036696 0.856188
0.303832 -0.0379126 0.856861
0.303131 -0.0391343 0.857423
0.302394 -0.0403604 0.857881
0.301595 -0.0415929 0.858162
0.300772 -0.0428273 0.858375
0.299947 -0.0440613 0.858579
0.299011 -0.0453046 0.858462
0.298005 -0.0465532 0.858138
0.296958 -0.0478032 0.85769
0.29627 -0.0490208 0.85828
0.296036 -0.0502035 0.860201
0.297168 -0.0512875 0.866134
0.298847 -0.0523487 0.873711
0.300638 -0.0534222 0.881662
0.301925 -0.0545471 0.888166
0.302683 -0.05572 0.893138
0.302121 -0.0569768 0.894208
0.301291 -0.0582489 0.894482
0.300425 -0.0595213 0.894645
0.299627 -0.0607903 0.895012
0.298925 -0.0620555 0.895669
0.298267 -0.0633193 0.896457
0.297577 -0.0645855 0.897151
0.296842 -0.065853 0.897708
0.296102 -0.0671204 0.898252
0.295318 -0.068389 0.89866
0.338571 0.025822 0.821916
0.340423 0.0261817 0.820993
0.339411 0.0248865 0.82076
0.337506 0.0245112 0.821549
0.338328 0.0235726 0.820351
0.336401 0.0231907 0.821078
0.337247 0.0222613 0.819941
0.335158 0.0218331 0.820265
0.336092 0.0209312 0.819346
0.333887 0.0204704 0.819373
0.334936 0.0196037 0.818743
0.334002 0.0183399 0.818677
0.332996 0.0170581 0.818434
0.332039 0.0157913 0.818307
0.331153 0.0145452 0.818353
0.330267 0.0132999 0.818396
0.329274 0.0120275 0.818171
0.32845 0.0108009 0.818364
0.327562 0.00955848 0.818395
0.32668 0.0083188 0.81844
0.32581 0.00708291 0.818511
0.325 0.00586291 0.818732
0.32419 0.0046435 0.818951
0.323435 0.00343804 0.81931
0.322751 0.00224947 0.819849
0.321926 0.00102786 0.820027
0.321056 -0.000203257 0.820091
0.320019 -0.0014716 0.81972
0.318941 -0.00274686 0.81924
0.317791 -0.00403565 0.818568
0.316742 -0.00529961 0.818151
0.315785 -0.00654153 0.817969
0.314948 -0.00775671 0.818095
0.314172 -0.00895808 0.818382
0.313465 -0.0101453 0.818845
0.312848 -0.0113142 0.819548
0.312209 -0.0124882 0.820191
0.311622 -0.0136526 0.820976
0.311089 -0.0148074 0.821906
0.31059 -0.0159572 0.822928
0.310158 -0.0170963 0.824131
0.309784 -0.0182269 0.825495
0.309495 -0.0193446 0.827094
0.309271 -0.0204542 0.828873
0.309208 -0.0215401 0.831094
0.309379 -0.0225918 0.833959
0.309882 -0.0235958 0.837741
0.310396 -0.0246069 0.841572
0.310742 -0.0256531 0.844963
0.310844 -0.0267438 0.847705
0.310637 -0.0278863 0.849609
0.310116 -0.029078 0.850655
0.309448 -0.0302916 0.851301
0.308752 -0.0315097 0.851868
0.308106 -0.0327214 0.852574
0.307433 -0.0339372 0.853207
0.306761 -0.0351532 0.853846
0.306121 -0.0363658 0.854575
0.30551 -0.0375758 0.855384
0.304785 -0.0387996 0.855876
0.304078 -0.0400215 0.856419
0.303284 -0.0412529 0.856715
0.302459 -0.0424869 0.856922
0.301607 -0.043723 0.857048
0.300807 -0.0449532 0.857324
0.299895 -0.0461931 0.857274
0.298948 -0.0474343 0.857123
0.298236 -0.048655 0.857646
0.297988 -0.0498384 0.859514
0.2983 -0.0509837 0.863023
0.299925 -0.0520439 0.870381
0.301611 -0.0531188 0.877962
0.302987 -0.0542327 0.884674
0.303815 -0.0553973 0.889811
0.304085 -0.0566042 0.893327
0.303154 -0.0578817 0.893302
0.302455 -0.0591463 0.893965
0.301693 -0.0604148 0.894444
0.301028 -0.0616786 0.895208
0.3004 -0.062942 0.896085
0.299778 -0.0642067 0.896984
0.299089 -0.0654746 0.897686
0.298323 -0.0667442 0.898151
0.297521 -0.0680149 0.89851
0.296695 -0.0692852 0.898796
0.29782 -0.0696197 0.909167
0.296048 -0.0705534 0.899624
0.341216 0.027413 0.820695
0.342152 0.0265052 0.819776
0.341305 0.0252588 0.819944
0.340302 0.0239679 0.819734
0.33922 0.0226563 0.81933
0.338173 0.0213565 0.819004
0.337075 0.0200445 0.818551
0.335988 0.0187378 0.818119
0.33507 0.0174797 0.818097
0.334097 0.0162076 0.817935
0.333147 0.0149436 0.817828
0.332249 0.0136947 0.817846
0.331362 0.0124498 0.817889
0.330368 0.0111782 0.817663
0.329546 0.0099525 0.817862
0.328687 0.00871793 0.817968
0.327808 0.00747944 0.818022
0.326937 0.00624386 0.818093
0.326065 0.00500897 0.818159
0.325185 0.00377307 0.818202
0.324304 0.0025382 0.818242
0.32349 0.0013199 0.818448
0.322568 7.75934e-05 0.818379
0.321694 -0.00115254 0.81843
0.320661 -0.00241733 0.81807
0.319678 -0.00366895 0.817834
0.318619 -0.00493531 0.817399
0.317691 -0.00617147 0.817295
0.316829 -0.00739215 0.81736
0.316084 -0.00858754 0.817727
0.315346 -0.00978122 0.818113
0.314727 -0.010951 0.818808
0.314145 -0.0121139 0.819602
0.313568 -0.0132768 0.820413
0.31307 -0.0144257 0.82143
0.312631 -0.0155649 0.822608
0.312229 -0.0166992 0.823889
0.311929 -0.0178172 0.825445
0.311682 -0.0189289 0.827149
0.311493 -0.0200337 0.829016
0.311366 -0.0211318 0.831055
0.311403 -0.0222067 0.833547
0.31163 -0.0232563 0.836562
0.311862 -0.0243116 0.839606
0.31205 -0.0253805 0.842546
0.312089 -0.0264789 0.845094
0.311874 -0.0276203 0.846961
0.311395 -0.0288035 0.848114
0.310878 -0.0299939 0.849166
0.310273 -0.031198 0.84998
0.309587 -0.0324138 0.850572
0.308975 -0.0336203 0.851371
0.308302 -0.0348352 0.852003
0.307636 -0.0360498 0.852653
0.306997 -0.0372618 0.853382
0.306414 -0.0384679 0.854268
0.30566 -0.0396943 0.854675
0.30498 -0.0409125 0.855291
0.304207 -0.0421406 0.855646
0.303386 -0.0433733 0.855863
0.302533 -0.0446082 0.855988
0.301819 -0.0458295 0.856507
0.300971 -0.0470623 0.856643
0.300315 -0.0482786 0.857329
0.299989 -0.0494693 0.858964
0.300161 -0.050625 0.862048
0.300893 -0.0517474 0.866767
0.302379 -0.0528304 0.873704
0.303632 -0.0539466 0.880003
0.304534 -0.0550998 0.88531
0.304927 -0.0562946 0.889153
0.304804 -0.0575255 0.8915
0.304084 -0.0587902 0.892098
0.30351 -0.0600492 0.893128
0.302853 -0.0613129 0.893914
0.302316 -0.0625725 0.895062
0.301785 -0.0638346 0.896229
0.3012 -0.0650989 0.897238
0.300569 -0.0663671 0.898114
0.299832 -0.0676371 0.898672
0.299057 -0.0689087 0.899114
0.298254 -0.0701801 0.899475
0.297687 -0.0714502 0.900549
0.341146 0.0230376 0.8186
0.340068 0.0217288 0.818206
0.339064 0.020443 0.817985
0.338093 0.019168 0.817842
0.337107 0.0178905 0.817659
0.336227 0.0166432 0.817731
0.335318 0.0153893 0.81773
0.334399 0.0141337 0.817701
0.3335 0.0128848 0.817719
0.332611 0.0116397 0.817762
0.331618 0.0103687 0.817542
0.330799 0.00914372 0.817752
0.329945 0.00791032 0.817871
0.32904 0.00666547 0.817863
0.328133 0.0054212 0.817846
0.327195 0.00417055 0.817748
0.326245 0.00291884 0.817619
0.325268 0.00166203 0.817416
0.324356 0.000422182 0.817377
0.323339 -0.000840472 0.817066
0.322432 -0.00207638 0.817032
0.321402 -0.00333829 0.816681
0.320459 -0.00457916 0.816546
0.319466 -0.00582915 0.816282
0.318656 -0.00703887 0.816484
0.317886 -0.0082396 0.816787
0.317208 -0.00942104 0.817329
0.316561 -0.0105964 0.817951
0.31606 -0.0117438 0.818953
0.315542 -0.0128956 0.819914
0.315052 -0.0140434 0.820952
0.314672 -0.0151724 0.82228
0.314326 -0.0162972 0.823705
0.313969 -0.0174264 0.825106
0.313734 -0.0185369 0.826833
0.313554 -0.0196408 0.828717
0.313406 -0.0207434 0.83069
0.313317 -0.0218399 0.832833
0.313435 -0.0229073 0.835539
0.313477 -0.0239926 0.838053
0.313453 -0.0250937 0.840403
0.313342 -0.0262129 0.842529
0.313099 -0.0273562 0.844305
0.312623 -0.0285368 0.845456
0.312087 -0.0297276 0.846449
0.311571 -0.0309169 0.847499
0.311004 -0.0321149 0.848411
0.310346 -0.0333257 0.849078
0.309769 -0.0345267 0.849969
0.30916 -0.035733 0.850772
0.308529 -0.0369427 0.851517
0.307894 -0.0381536 0.852254
0.307345 -0.0393557 0.853232
0.306565 -0.0405839 0.853566
0.305915 -0.0417983 0.854265
0.305175 -0.0430225 0.854708
0.304413 -0.0442486 0.855093
0.303622 -0.045477 0.855394
0.303 -0.0466901 0.856173
0.302414 -0.0479007 0.857059
0.302085 -0.0490927 0.858681
0.302139 -0.0502574 0.861408
0.302713 -0.0513911 0.865641
0.303802 -0.0524999 0.871387
0.304803 -0.0536281 0.876906
0.305571 -0.0547851 0.881783
0.305989 -0.0559741 0.885667
0.305927 -0.057198 0.888172
0.305429 -0.0584489 0.88941
0.304899 -0.0597026 0.890561
0.304481 -0.0609548 0.892044
0.303952 -0.0622129 0.893208
0.303542 -0.0634695 0.894728
0.303132 -0.0647283 0.896251
0.302635 -0.0659927 0.897524
0.302069 -0.0672605 0.898594
0.301397 -0.0685318 0.899351
0.300654 -0.0698047 0.899894
0.299942 -0.0710771 0.900532
0.299472 -0.0723491 0.901902
0.341927 0.0220908 0.817317
0.340949 0.0208125 0.817166
0.340043 0.0195554 0.817183
0.339199 0.0183164 0.817349
0.338306 0.017065 0.817395
0.337401 0.0158113 0.817407
0.336526 0.0145666 0.81749
0.335634 0.0133187 0.817532
0.334735 0.0120698 0.817552
0.333848 0.0108253 0.817601
0.332913 0.00956949 0.817528
0.332126 0.00835202 0.817818
0.331277 0.00711986 0.817955
0.330367 0.00587356 0.817936
0.329454 0.00462771 0.817909
0.328446 0.00336075 0.81764
0.327403 0.00208746 0.81728
0.326355 0.000815199 0.816904
0.325347 -0.000445946 0.816622
0.324259 -0.00172301 0.816136
0.323348 -0.00295854 0.816093
0.322325 -0.00421741 0.81576
0.32139 -0.00545513 0.815649
0.320458 -0.00669087 0.815542
0.319713 -0.00788647 0.81591
0.31898 -0.00907928 0.816309
0.318455 -0.0102304 0.817244
0.317962 -0.0113763 0.818264
0.317614 -0.0124954 0.819664
0.31719 -0.0136317 0.820871
0.316793 -0.0147649 0.822152
0.316421 -0.0158956 0.823503
0.316078 -0.0170233 0.824937
0.315698 -0.0181603 0.826277
0.31543 -0.0192802 0.827918
0.315219 -0.0203932 0.829719
0.315097 -0.0214952 0.83176
0.315013 -0.0225952 0.833913
0.315016 -0.0236858 0.836308
0.314924 -0.0247963 0.83846
0.314759 -0.0259224 0.840425
0.314402 -0.0270811 0.841881
0.313948 -0.0282563 0.843085
0.31338 -0.0294499 0.843981
0.312786 -0.0306479 0.84481
0.312242 -0.0318403 0.845779
0.311702 -0.0330334 0.846761
0.311077 -0.0342389 0.847512
0.310534 -0.0354349 0.848492
0.309983 -0.0366332 0.849452
0.309358 -0.0378415 0.850211
0.308758 -0.0390477 0.851039
0.308268 -0.0402431 0.852176
0.307526 -0.0414665 0.852615
0.306912 -0.0426769 0.853412
0.306234 -0.0438945 0.854031
0.305535 -0.0451144 0.854593
0.304868 -0.0463317 0.855245
0.304429 -0.0475302 0.85654
0.304072 -0.0487241 0.858076
0.304066 -0.049894 0.860617
0.30445 -0.0510403 0.864282
0.305247 -0.0521674 0.869151
0.306015 -0.0533089 0.873962
0.306588 -0.0544738 0.878238
0.306896 -0.055664 0.881771
0.306883 -0.0568812 0.884395
0.30649 -0.0581222 0.885924
0.306098 -0.0593663 0.887462
0.3057 -0.0606136 0.888989
0.305358 -0.0618622 0.89069
0.304929 -0.0631168 0.892141
0.304583 -0.0643714 0.893841
0.304237 -0.06563 0.895551
0.303832 -0.0668932 0.897093
0.303361 -0.0681598 0.898446
0.302789 -0.0694306 0.899498
0.302177 -0.0707033 0.900436
0.301625 -0.0719774 0.90156
0.301245 -0.0732524 0.903204
0.342753 0.0211591 0.81615
0.341948 0.01993 0.816411
0.341192 0.018715 0.816792
0.340479 0.0175117 0.817274
0.339685 0.0162865 0.817559
0.338749 0.0150245 0.817502
0.337897 0.0137858 0.817645
0.337001 0.0125364 0.81768
0.336103 0.0112877 0.817706
0.335221 0.010044 0.81777
0.334376 0.00881066 0.817922
0.333589 0.00759233 0.818217
0.332736 0.00635829 0.818346
0.33182 0.00511015 0.818317
0.330901 0.0038625 0.818279
0.329857 0.00258705 0.817927
0.328751 0.0012994 0.817415
0.327634 1.18739e-05 0.816872
0.326527 -0.00127103 0.816346
0.325369 -0.00256241 0.815689
0.324397 -0.00381079 0.815492
0.323371 -0.00506906 0.815155
0.322466 -0.00629968 0.815122
0.321597 -0.00752159 0.815177
0.320911 -0.00870501 0.815698
0.320301 -0.00987351 0.816414
0.319937 -0.0109944 0.817759
0.319579 -0.0121162 0.819128
0.319367 -0.0132126 0.820879
0.319015 -0.0143386 0.822273
0.318625 -0.0154738 0.823576
0.318252 -0.0166085 0.824926
0.317854 -0.0177498 0.826216
0.317403 -0.0189024 0.827374
0.317061 -0.0200385 0.82882
0.316775 -0.0211678 0.830419
0.31656 -0.0222884 0.832214
0.316388 -0.0234058 0.834129
0.316303 -0.0245134 0.836286
0.316122 -0.0256402 0.838193
0.315863 -0.0267825 0.839903
0.315387 -0.0279597 0.841036
0.31487 -0.0291444 0.842064
0.314238 -0.0303464 0.842787
0.313607 -0.0315491 0.843514
0.313037 -0.0327443 0.844407
0.312494 -0.0339373 0.845377
0.311902 -0.035138 0.846213
0.311359 -0.0363334 0.847189
0.310845 -0.037527 0.848245
0.310249 -0.0387314 0.84908
0.309706 -0.039931 0.850065
0.309278 -0.04112 0.851368
0.308654 -0.042331 0.852133
0.308109 -0.0435353 0.853121
0.307637 -0.044734 0.854315
0.307066 -0.0459436 0.855237
0.306531 -0.0471515 0.85626
0.306223 -0.0483421 0.857928
0.306057 -0.0495248 0.860005
0.306162 -0.0506923 0.862856
0.306709 -0.0518346 0.866979
0.307196 -0.0529916 0.870955
0.30762 -0.0541623 0.874772
0.307821 -0.0553552 0.877969
0.307758 -0.05657 0.880422
0.307422 -0.0578038 0.8821
0.307117 -0.0590398 0.883874
0.306791 -0.0602797 0.885597
0.306519 -0.0615216 0.887484
0.306246 -0.062768 0.889375
0.305885 -0.0640199 0.891019
0.305548 -0.065275 0.892739
0.30526 -0.066533 0.894613
0.304924 -0.0677951 0.896351
0.304531 -0.0690616 0.897928
0.304091 -0.0703316 0.899373
0.303665 -0.0716047 0.900867
0.30328 -0.0728806 0.902491
0.302976 -0.0741596 0.904362
0.343454 0.0201947 0.814689
0.34282 0.0190139 0.815358
0.342239 0.0178469 0.816156
0.34167 0.016682 0.816982
0.340978 0.0154839 0.817515
0.340072 0.0142296 0.817532
0.33927 0.0130035 0.817799
0.338396 0.0117595 0.81789
0.337535 0.0105199 0.818011
0.336692 0.00928543 0.818174
0.335973 0.00808219 0.818638
0.335217 0.00686997 0.819011
0.334363 0.0056346 0.819144
0.333443 0.00438441 0.81911
0.332488 0.00312735 0.818988
0.331384 0.00183779 0.818495
0.330182 0.000528405 0.817752
0.328965 -0.000781234 0.816964
0.327725 -0.00209288 0.816112
0.326499 -0.00339803 0.815288
0.32546 -0.00465972 0.814929
0.324435 -0.00591643 0.814598
0.323557 -0.00714076 0.814635
0.322745 -0.00835075 0.814834
0.322206 -0.00950512 0.815728
0.321784 -0.0106374 0.816925
0.321619 -0.0117222 0.818779
0.321405 -0.0128198 0.820516
0.32133 -0.0138947 0.822619
0.32098 -0.0150244 0.824023
0.32056 -0.0161694 0.825248
0.32012 -0.0173197 0.826429
0.319651 -0.0184771 0.827536
0.319096 -0.0196507 0.828425
0.318651 -0.020807 0.829604
0.318235 -0.0219608 0.83086
0.31792 -0.0231004 0.832388
0.317655 -0.024235 0.834055
0.317486 -0.0253581 0.835983
0.317249 -0.0264954 0.837737
0.316937 -0.0276469 0.8393
0.316406 -0.0288326 0.840285
0.315858 -0.0300219 0.841229
0.315221 -0.0312245 0.841935
0.314529 -0.032435 0.842495
0.313926 -0.0336344 0.843296
0.313384 -0.0348272 0.844262
0.312795 -0.0360268 0.845107
0.312285 -0.0372185 0.846166
0.311861 -0.0384018 0.847465
0.311351 -0.0395969 0.848533
0.310931 -0.040784 0.849854
0.310624 -0.0419622 0.851486
0.310128 -0.0431619 0.852608
0.30968 -0.0443589 0.853864
0.309365 -0.045546 0.855495
0.308895 -0.0467497 0.856699
0.308461 -0.0479525 0.858013
0.308228 -0.0491418 0.85989
0.308127 -0.0503253 0.862151
0.308248 -0.0514977 0.865047
0.308538 -0.0526652 0.868436
0.308766 -0.0538453 0.871665
0.308903 -0.0550378 0.874652
0.308826 -0.0562493 0.877045
0.308491 -0.0574799 0.87871
0.308126 -0.0587149 0.880295
0.307852 -0.0599491 0.882152
0.307582 -0.0611871 0.884026
0.307375 -0.0624262 0.886091
0.307138 -0.0636717 0.88808
0.306834 -0.0649226 0.88988
0.306466 -0.0661789 0.891505
0.306182 -0.0674364 0.89338
0.305883 -0.0686985 0.89522
0.305587 -0.0699649 0.89708
0.305284 -0.0712348 0.898925
0.305081 -0.0725081 0.901076
0.304919 -0.0737867 0.90336
0.304695 -0.0750698 0.905469
0.305256 -0.0754637 0.914027
0.304432 -0.0763571 0.907472
0.344205 0.0192469 0.813355
0.343682 0.0180964 0.814283
0.343258 0.0169714 0.815452
0.342836 0.015845 0.816628
0.342257 0.0146759 0.817432
0.341448 0.0134469 0.817686
0.340765 0.0122505 0.818242
0.339951 0.0110209 0.818482
0.339164 0.0097986 0.818787
0.338392 0.00858026 0.819125
0.337743 0.0073921 0.819764
0.33699 0.00617859 0.820149
0.336105 0.00493435 0.820212
0.335179 0.00368144 0.820171
0.334192 0.00241602 0.819978
0.333053 0.00111782 0.819405
0.331752 -0.000213984 0.818424
0.330461 -0.00153967 0.817463
0.329078 -0.00288182 0.816262
0.327749 -0.00420804 0.815188
0.326616 -0.00548906 0.814596
0.325588 -0.0067456 0.814262
0.324712 -0.00796913 0.814307
0.324105 -0.00913766 0.815028
0.323766 -0.0102541 0.816428
0.323579 -0.0113436 0.81822
0.323591 -0.0123989 0.820523
0.323536 -0.0134713 0.822668
0.323373 -0.0145679 0.824547
0.322952 -0.0157149 0.82577
0.322426 -0.0168826 0.826726
0.321853 -0.0180595 0.827567
0.321257 -0.0192414 0.828349
0.320637 -0.0204283 0.829069
0.320101 -0.021602 0.83001
0.319535 -0.0227817 0.830877
0.319151 -0.0239343 0.83222
0.318786 -0.025086 0.833621
0.318522 -0.0262253 0.835292
0.31823 -0.027372 0.836894
0.317919 -0.0285243 0.838455
0.317363 -0.0297136 0.839369
0.316817 -0.0309027 0.840315
0.316208 -0.0321014 0.841094
0.315546 -0.0333077 0.841733
0.315028 -0.0344966 0.842761
0.314548 -0.0356823 0.843895
0.314049 -0.0368722 0.844979
0.313576 -0.0380608 0.846138
0.313212 -0.0392393 0.847598
0.312713 -0.0404347 0.848695
0.312393 -0.0416136 0.850287
0.312165 -0.0427865 0.852136
0.311831 -0.0439733 0.853701
0.311514 -0.0451614 0.855322
0.311333 -0.046341 0.857323
0.310928 -0.0475433 0.858716
0.310567 -0.0487448 0.860232
0.310327 -0.0499401 0.862095
0.310206 -0.0511304 0.864299
0.310136 -0.0523222 0.866654
0.310162 -0.0535127 0.869292
0.310128 -0.0547137 0.871775
0.310068 -0.0559215 0.874198
0.309805 -0.0571447 0.876051
0.309448 -0.0583767 0.877647
0.309082 -0.0596125 0.879226
0.308837 -0.060846 0.881153
0.308539 -0.062086 0.882941
0.308337 -0.0633259 0.885012
0.308071 -0.0645727 0.886908
0.307769 -0.065824 0.888708
0.307362 -0.0670815 0.890211
0.307044 -0.0683405 0.891978
0.306741 -0.0696026 0.893801
0.306515 -0.0708677 0.895854
0.306371 -0.0721382 0.898161
0.30634 -0.0734133 0.900814
0.306349 -0.0746949 0.903597
0.306221 -0.0759814 0.905986
0.305989 -0.0772724 0.908078
0.306743 -0.0776885 0.917224
0.305575 -0.0785643 0.909633
0.345326 0.0194086 0.810745
0.344941 0.0182971 0.811991
0.344479 0.0171635 0.813061
0.3441 0.0160501 0.814332
0.343816 0.0149592 0.815831
0.343387 0.0138287 0.816991
0.342722 0.0126365 0.81759
0.342149 0.0114668 0.81841
0.341466 0.0102693 0.81897
0.340752 0.00906372 0.819452
0.340055 0.0078621 0.819976
0.339502 0.00669496 0.820852
0.338814 0.00549476 0.821398
0.337961 0.00425627 0.821546
0.337034 0.0030015 0.82151
0.336004 0.00172481 0.821219
0.334793 0.000409621 0.820477
0.333383 -0.000946026 0.81924
0.332014 -0.00228849 0.818094
0.330496 -0.00365867 0.816567
0.329118 -0.00499407 0.815381
0.327943 -0.00628322 0.814692
0.326915 -0.00753958 0.814362
0.326222 -0.0087268 0.814868
0.325907 -0.00983954 0.816324
0.325759 -0.0109226 0.818207
0.325759 -0.0119812 0.820473
0.325932 -0.0130123 0.823185
0.325813 -0.0141028 0.82517
0.325481 -0.0152358 0.826619
0.324944 -0.0164076 0.827551
0.324273 -0.017604 0.828142
0.323519 -0.0188149 0.828518
0.322796 -0.0200205 0.828975
0.32211 -0.0212198 0.829529
0.321491 -0.0224088 0.830254
0.320812 -0.0236078 0.830827
0.320364 -0.0247716 0.832003
0.319926 -0.025936 0.833208
0.319568 -0.0270907 0.834627
0.319207 -0.0282482 0.836046
0.31889 -0.0294023 0.837585
0.318361 -0.030588 0.838567
0.317849 -0.0317728 0.839601
0.317281 -0.0329664 0.840486
0.316714 -0.0341609 0.841379
0.316294 -0.0353389 0.842665
0.315912 -0.0365144 0.844061
0.31548 -0.0376983 0.845324
0.315075 -0.0388814 0.846666
0.314746 -0.0400587 0.848221
0.314287 -0.0412524 0.849426
0.314064 -0.0424247 0.851281
0.313917 -0.0435935 0.853352
0.313721 -0.0447713 0.855294
0.313506 -0.0459547 0.857197
0.313448 -0.0471289 0.859539
0.31308 -0.0483332 0.861034
0.312737 -0.0495383 0.862607
0.312491 -0.0507391 0.864454
0.312153 -0.0519504 0.866053
0.311854 -0.0531624 0.867769
0.31165 -0.054372 0.86976
0.311424 -0.0555869 0.871695
0.311193 -0.0568065 0.873627
0.310922 -0.058032 0.875452
0.31056 -0.0592656 0.87703
0.310165 -0.0605028 0.878519
0.309889 -0.0617391 0.880353
0.309597 -0.0629799 0.882151
0.309432 -0.0642202 0.884319
0.309111 -0.06547 0.886053
0.308799 -0.0667223 0.887814
0.308353 -0.067981 0.889201
0.307943 -0.0692411 0.890692
0.307574 -0.070505 0.892314
0.307401 -0.0717701 0.894514
0.307331 -0.0730403 0.897026
0.307445 -0.0743174 0.900092
0.307596 -0.0756022 0.903284
0.307567 -0.0768932 0.905962
0.307391 -0.0781869 0.908214
0.306964 -0.0794808 0.909728
0.345724 0.0205211 0.809531
0.346944 0.0197054 0.809317
0.34636 0.0185412 0.810091
0.345893 0.0174071 0.811142
0.345379 0.0162595 0.812086
0.344975 0.0151392 0.813294
0.34473 0.0140576 0.814881
0.344409 0.012954 0.816293
0.343893 0.011799 0.817246
0.343468 0.0106654 0.818419
0.342934 0.00950324 0.819334
0.342292 0.00831391 0.819993
0.341688 0.00713327 0.820745
0.341198 0.00597868 0.821774
0.340517 0.00477813 0.822342
0.339665 0.00353848 0.822497
0.338731 0.00228083 0.82245
0.33763 0.000987351 0.82199
0.336343 -0.000344481 0.821072
0.334888 -0.00170908 0.819733
0.333448 -0.00306561 0.818423
0.331859 -0.00444917 0.816732
0.330467 -0.00578616 0.815519
0.329286 -0.00707589 0.814821
0.328436 -0.00829648 0.814937
0.327978 -0.00943875 0.816034
0.327949 -0.0104996 0.818208
0.327993 -0.0115512 0.820573
0.328167 -0.0125833 0.823278
0.328208 -0.0136458 0.825658
0.327944 -0.0147684 0.827277
0.327372 -0.0159487 0.82812
0.326664 -0.0171535 0.828621
0.325802 -0.0183848 0.828725
0.324945 -0.0196142 0.828842
0.324154 -0.0208319 0.829128
0.323466 -0.0220326 0.829677
0.322847 -0.0232227 0.830406
0.32217 -0.0244224 0.830985
0.32166 -0.0255975 0.831997
0.321152 -0.0267736 0.833019
0.320696 -0.0279439 0.83418
0.320239 -0.0291161 0.835343
0.319892 -0.0302753 0.836796
0.319386 -0.0314581 0.83784
0.318968 -0.0326313 0.839117
0.318532 -0.0338087 0.840352
0.318105 -0.0349874 0.841614
0.317795 -0.0361544 0.843193
0.317513 -0.0373211 0.844854
0.317096 -0.038506 0.84616
0.316724 -0.0396884 0.84759
0.316399 -0.0408684 0.849155
0.316019 -0.0420572 0.850576
0.315894 -0.043224 0.852694
0.315844 -0.0443883 0.855028
0.31578 -0.0455591 0.857333
0.315693 -0.0467369 0.859584
0.315672 -0.0479143 0.86203
0.315302 -0.0491239 0.863526
0.31489 -0.0503396 0.864911
0.314519 -0.0515546 0.866413
0.314051 -0.0527798 0.867658
0.313572 -0.0540071 0.868873
0.313184 -0.0552312 0.870345
0.312855 -0.0564547 0.871991
0.312497 -0.0576836 0.873561
0.312133 -0.0589153 0.875122
0.31174 -0.0601508 0.876605
0.311342 -0.0613897 0.878081
0.311039 -0.062629 0.879834
0.310747 -0.063871 0.881626
0.310611 -0.0651126 0.88387
0.310267 -0.0663632 0.885531
0.309956 -0.0676178 0.887291
0.309476 -0.0688776 0.888573
0.308995 -0.0701399 0.889857
0.308563 -0.0714034 0.891287
0.308413 -0.0726705 0.893546
0.308379 -0.0739424 0.896154
0.308543 -0.0752219 0.899356
0.308773 -0.0765099 0.902767
0.30878 -0.0778033 0.905539
0.308631 -0.0790998 0.907863
0.308172 -0.080394 0.90928
0.348896 0.0200931 0.808671
0.348136 0.0188813 0.809035
0.34743 0.0176839 0.809523
0.34689 0.0165301 0.810401
0.346285 0.0153584 0.811129
0.345804 0.0142179 0.812151
0.345526 0.0131272 0.813654
