ply
format ascii 1.0
element vertex 1626
property float x
property float y
property float z
end_header
-0.168286 -0.0826045 0.949854
-0.16799 -0.0841355 0.951187
-0.167605 -0.0856263 0.952014
-0.167217 -0.0871188 0.952836
-0.166793 -0.0885953 0.953451
-0.166322 -0.0900483 0.953796
-0.165833 -0.0914926 0.954042
-0.165345 -0.0929379 0.954287
-0.164858 -0.0943844 0.954542
-0.164371 -0.0958324 0.954804
-0.163958 -0.0973242 0.955502
-0.163597 -0.0988502 0.956511
-0.163274 -0.100403 0.957753
-0.16298 -0.101979 0.959181
-0.162695 -0.103566 0.960667
-0.16233 -0.105106 0.961682
-0.161931 -0.106628 0.962502
-0.161516 -0.108141 0.963225
-0.16106 -0.109629 0.963706
-0.160658 -0.111157 0.964525
-0.160333 -0.112742 0.965811
-0.160031 -0.114349 0.967255
-0.159777 -0.115996 0.969
-0.159575 -0.117691 0.971093
-0.159313 -0.119346 0.972815
-0.159403 -0.121281 0.976742
-0.159659 -0.123364 0.981752
-0.160054 -0.125577 0.987665
-0.160403 -0.127778 0.993334
-0.160708 -0.129964 0.998765
-0.160606 -0.131832 1.00164
-0.181318 -0.0335377 0.924276
-0.179269 -0.0343903 0.92361
-0.178578 -0.0357427 0.922696
-0.177845 -0.0370843 0.921562
-0.177085 -0.0384165 0.920282
-0.176303 -0.0397398 0.91887
-0.175625 -0.0410793 0.917996
-0.174983 -0.0424234 0.917314
-0.174402 -0.0437785 0.916942
-0.173838 -0.045136 0.916658
-0.173277 -0.0464931 0.916392
-0.172749 -0.047857 0.9163
-0.172251 -0.0492286 0.916371
-0.17177 -0.0506044 0.916524
-0.171333 -0.051993 0.916928
-0.170916 -0.0533885 0.917434
-0.170503 -0.0547867 0.917964
-0.170072 -0.0561811 0.918397
-0.169708 -0.0575979 0.919201
-0.169348 -0.059019 0.920038
-0.169013 -0.060451 0.921011
-0.168679 -0.0618868 0.921992
-0.168333 -0.0633215 0.92292
-0.167952 -0.0647464 0.923658
-0.167543 -0.0661632 0.924245
-0.167155 -0.06759 0.92495
-0.166798 -0.0690312 0.925827
-0.166496 -0.0704985 0.927035
-0.166311 -0.0720185 0.928898
-0.166453 -0.0736856 0.932631
-0.166701 -0.0754134 0.936994
-0.167035 -0.0771955 0.941875
-0.167263 -0.0789468 0.946184
-0.167306 -0.080627 0.949463
-0.167049 -0.0821739 0.951026
-0.166701 -0.0836813 0.952074
-0.16627 -0.0851512 0.952652
-0.165851 -0.0866285 0.953292
-0.16541 -0.0880965 0.953815
-0.164922 -0.0895408 0.954059
-0.164418 -0.0909777 0.954223
-0.163931 -0.0924239 0.954478
-0.163461 -0.0938805 0.954837
-0.162992 -0.0953392 0.955205
-0.162625 -0.0968594 0.956186
-0.162294 -0.0984048 0.957383
-0.161985 -0.0999687 0.958726
-0.161688 -0.101545 0.960151
-0.161396 -0.103129 0.961612
-0.160999 -0.104651 0.962446
-0.160585 -0.106164 0.96318
-0.160138 -0.107658 0.963724
-0.159677 -0.109143 0.964176
-0.159257 -0.11066 0.964893
-0.158928 -0.112243 0.966168
-0.158639 -0.113861 0.967709
-0.158413 -0.115531 0.96965
-0.158243 -0.11725 0.97195
-0.15804 -0.118954 0.974064
-0.158006 -0.120799 0.977267
-0.15811 -0.122764 0.981355
-0.158333 -0.124843 0.986238
-0.158548 -0.126934 0.9911
-0.158752 -0.129036 0.995934
-0.158728 -0.130965 0.99933
-0.177859 -0.0338794 0.923573
-0.177142 -0.0352275 0.922516
-0.176376 -0.036563 0.921197
-0.175568 -0.037886 0.919642
-0.174771 -0.0392056 0.918142
-0.174096 -0.0405446 0.917277
-0.173476 -0.0418922 0.916697
-0.172931 -0.043254 0.916514
-0.172401 -0.0446188 0.91641
-0.171872 -0.045983 0.916317
-0.171362 -0.0473513 0.916312
-0.170865 -0.0487227 0.916383
-0.170368 -0.0500942 0.916454
-0.169915 -0.0514779 0.916768
-0.169481 -0.0528681 0.91719
-0.169053 -0.0542612 0.91764
-0.168635 -0.0556589 0.918151
-0.168286 -0.0570798 0.919041
-0.167927 -0.0585006 0.919883
-0.167602 -0.0599358 0.920927
-0.167278 -0.0613744 0.921972
-0.166934 -0.0628096 0.922912
-0.166569 -0.0642402 0.923745
-0.16619 -0.0656685 0.924504
-0.165802 -0.0670957 0.925219
-0.165456 -0.0685419 0.926172
-0.165154 -0.0700094 0.92738
-0.165117 -0.071592 0.930109
-0.165374 -0.0733115 0.934546
-0.165696 -0.0750757 0.939378
-0.166036 -0.0768654 0.944347
-0.166266 -0.0786231 0.948716
-0.166142 -0.0802291 0.951062
-0.165775 -0.0817258 0.952005
-0.165365 -0.0832047 0.952702
-0.164904 -0.0846597 0.9531
-0.164452 -0.0861212 0.953565
-0.163995 -0.0875812 0.953996
-0.163491 -0.0890175 0.954151
-0.162989 -0.0904548 0.954318
-0.162516 -0.0919095 0.954668
-0.162064 -0.0933767 0.955136
-0.161613 -0.0948457 0.955608
-0.161274 -0.0963839 0.956769
-0.160956 -0.0979389 0.958064
-0.160661 -0.0995128 0.959504
-0.160361 -0.101089 0.960925
-0.160065 -0.102673 0.962381
-0.159653 -0.104186 0.963129
-0.159219 -0.105688 0.963758
-0.158743 -0.107163 0.964117
-0.158263 -0.108636 0.964467
-0.157828 -0.110142 0.965086
-0.157497 -0.111725 0.966366
-0.157236 -0.113364 0.968093
-0.157038 -0.115057 0.970237
-0.156896 -0.1168 0.972741
-0.156736 -0.11854 0.975151
-0.156591 -0.120301 0.977676
-0.156561 -0.122165 0.98096
-0.156623 -0.124114 0.98485
-0.156707 -0.126099 0.988915
-0.156804 -0.128109 0.993089
-0.156802 -0.130055 0.996666
-0.17711 -0.0320084 0.924297
-0.176404 -0.0333618 0.923297
-0.175654 -0.034704 0.922053
-0.174879 -0.0360374 0.920671
-0.174056 -0.0373572 0.91903
-0.173265 -0.038677 0.917544
-0.17261 -0.0400193 0.91677
-0.172023 -0.0413727 0.916359
-0.171509 -0.042741 0.916346
-0.170997 -0.0441094 0.916335
-0.170486 -0.0454774 0.916329
-0.169989 -0.0468489 0.9164
-0.169491 -0.0482203 0.916471
-0.168994 -0.0495917 0.916542
-0.168526 -0.0509712 0.916772
-0.168075 -0.0523564 0.9171
-0.167642 -0.0537474 0.917524
-0.167224 -0.0551448 0.91804
-0.166862 -0.0565612 0.918866
-0.166503 -0.0579813 0.919715
-0.166177 -0.0594157 0.920757
-0.165851 -0.0608532 0.921799
-0.165506 -0.0622878 0.922748
-0.16517 -0.0637284 0.923746
-0.164807 -0.0651624 0.9246
-0.164444 -0.0665995 0.925465
-0.16411 -0.0680507 0.926492
-0.163956 -0.0695795 0.928569
-0.164081 -0.0712326 0.932257
-0.164442 -0.073001 0.937338
-0.164809 -0.0747905 0.942487
-0.165121 -0.0765738 0.947347
-0.165186 -0.0782612 0.950808
-0.164903 -0.0797957 0.952243
-0.164458 -0.081257 0.952742
-0.164002 -0.0827142 0.953175
-0.163521 -0.0841607 0.95347
-0.163053 -0.0856138 0.953834
-0.162579 -0.0870654 0.95417
-0.162061 -0.0884941 0.954244
-0.161558 -0.0899313 0.954407
-0.161086 -0.0913862 0.954761
-0.160646 -0.0928605 0.955307
-0.16021 -0.094339 0.955879
-0.159899 -0.0958948 0.957223
-0.159596 -0.0974597 0.958617
-0.159313 -0.0990431 0.960149
-0.159012 -0.10062 0.96158
-0.158715 -0.102205 0.963041
-0.158285 -0.103708 0.963693
-0.157836 -0.105201 0.964228
-0.157342 -0.106664 0.964484
-0.15686 -0.108137 0.964821
-0.156424 -0.109643 0.965445
-0.156096 -0.111229 0.966753
-0.155847 -0.112879 0.96858
-0.155678 -0.114595 0.970921
-0.155547 -0.11635 0.973533
-0.155414 -0.118114 0.976144
-0.155292 -0.119896 0.978846
-0.155157 -0.121679 0.981479
-0.155064 -0.123507 0.98441
-0.155015 -0.125383 0.987653
-0.154985 -0.127288 0.991036
-0.177654 -0.0306289 0.924445
-0.176177 -0.0301088 0.924064
-0.175606 -0.0314838 0.923765
-0.174883 -0.0328337 0.922663
-0.174122 -0.0341733 0.921349
-0.17334 -0.0355049 0.919913
-0.172526 -0.0368251 0.918296
-0.171771 -0.038151 0.91699
-0.171161 -0.0395014 0.916459
-0.170605 -0.040861 0.916205
-0.170108 -0.0422325 0.916276
-0.169596 -0.0436005 0.916272
-0.169084 -0.0449684 0.91626
-0.168572 -0.0463357 0.916247
-0.16806 -0.047703 0.916237
-0.167549 -0.0490701 0.916233
-0.167066 -0.0504448 0.916379
-0.166612 -0.0518281 0.91669
-0.166176 -0.0532176 0.9171
-0.165757 -0.0546133 0.917609
-0.165395 -0.0560289 0.91844
-0.165037 -0.0574485 0.919303
-0.164696 -0.0588765 0.920263
-0.164366 -0.0603119 0.921299
-0.164034 -0.0617499 0.922325
-0.163714 -0.0631955 0.923422
-0.163379 -0.0646397 0.924447
-0.163059 -0.0660926 0.925555
-0.162877 -0.0676047 0.927472
-0.162881 -0.0691998 0.930478
-0.163166 -0.070924 0.935141
-0.163564 -0.0727143 0.940499
-0.163932 -0.0745106 0.945713
-0.164094 -0.0762324 0.949748
-0.164008 -0.0778546 0.952355
-0.163588 -0.0793271 0.953004
-0.163112 -0.0807746 0.953326
-0.162624 -0.0822172 0.953576
-0.162111 -0.0836471 0.953674
-0.16161 -0.0850839 0.953846
-0.161105 -0.0865192 0.954
-0.160572 -0.0879393 0.953985
-0.160069 -0.0893752 0.954143
-0.15961 -0.0908369 0.954575
-0.159169 -0.0923105 0.955124
-0.158745 -0.0937962 0.955778
-0.158461 -0.0953676 0.957292
-0.158158 -0.0969336 0.958704
-0.15789 -0.0985266 0.960342
-0.157615 -0.100121 0.961947
-0.157316 -0.101706 0.963415
-0.156872 -0.103201 0.963979
-0.15642 -0.104692 0.964502
-0.155923 -0.106154 0.964746
-0.155444 -0.107628 0.965094
-0.155022 -0.109145 0.965819
-0.154706 -0.110742 0.967223
-0.154458 -0.112394 0.969069
-0.154271 -0.114099 0.971328
-0.154123 -0.115843 0.97385
-0.153999 -0.117615 0.976545
-0.153832 -0.119365 0.978985
-0.153633 -0.121099 0.981236
-0.153427 -0.122835 0.983445
-0.153272 -0.124623 0.986019
-0.153128 -0.126431 0.98868
-0.17523 -0.0282089 0.923744
-0.174685 -0.0295873 0.923589
-0.174106 -0.0309603 0.923247
-0.173374 -0.0323081 0.922081
-0.172612 -0.0336471 0.92075
-0.171842 -0.0349799 0.919362
-0.171052 -0.0363038 0.91786
-0.170321 -0.0376338 0.916664
-0.169729 -0.0389871 0.916223
-0.169173 -0.0403463 0.91597
-0.168662 -0.0417144 0.915966
-0.16815 -0.0430814 0.915955
-0.167637 -0.0444483 0.915936
-0.167122 -0.0458145 0.915911
-0.16661 -0.0471807 0.915892
-0.166098 -0.0485471 0.915881
-0.165602 -0.0499172 0.915952
-0.165147 -0.0512992 0.916257
-0.16471 -0.0526875 0.916666
-0.164291 -0.0540825 0.917179
-0.16393 -0.0554975 0.918021
-0.163583 -0.0569195 0.918949
-0.163223 -0.0583405 0.919814
-0.162906 -0.059779 0.920919
-0.162586 -0.0612205 0.922022
-0.162283 -0.0626719 0.923229
-0.161979 -0.064127 0.924437
-0.161826 -0.0656453 0.926536
-0.161803 -0.0672225 0.929396
-0.161976 -0.0688907 0.933429
-0.162387 -0.0706735 0.938879
-0.162802 -0.0724783 0.944398
-0.163003 -0.0742085 0.948687
-0.163003 -0.0758627 0.951814
-0.162768 -0.0774194 0.953567
-0.162251 -0.0788477 0.953643
-0.161733 -0.0802759 0.953715
-0.161214 -0.0817034 0.953782
-0.160668 -0.0831173 0.953685
-0.160134 -0.0845368 0.95366
-0.159599 -0.0859554 0.953631
-0.159066 -0.0873743 0.953606
-0.158548 -0.0888017 0.95368
-0.158074 -0.090254 0.954024
-0.157632 -0.0917258 0.954564
-0.157221 -0.0932176 0.955296
-0.156953 -0.0947981 0.956922
-0.156678 -0.0963812 0.958524
-0.156451 -0.0979998 0.96043
-0.156188 -0.0996032 0.96213
-0.155888 -0.101188 0.9636
-0.155442 -0.102682 0.964163
-0.154988 -0.104172 0.96468
-0.154493 -0.105635 0.964931
-0.154026 -0.107119 0.965375
-0.153621 -0.108649 0.96621
-0.153319 -0.110257 0.967718
-0.153067 -0.111908 0.969556
-0.152858 -0.113599 0.971694
-0.152688 -0.115328 0.974101
-0.152556 -0.117097 0.976778
-0.15236 -0.118824 0.979047
-0.152131 -0.120534 0.981117
-0.151821 -0.122187 0.982671
-0.152893 -0.125002 0.993427
-0.17371 -0.027685 0.923113
-0.173137 -0.0290587 0.922804
-0.172529 -0.0304263 0.922298
-0.171763 -0.0317676 0.920938
-0.17102 -0.0331078 0.919689
-0.170301 -0.0344479 0.918563
-0.16955 -0.0357778 0.917257
-0.168867 -0.0371162 0.916318
-0.168293 -0.0384724 0.91596
-0.16775 -0.0398337 0.915776
-0.167239 -0.041201 0.915772
-0.166742 -0.0425713 0.915843
-0.166243 -0.0439413 0.9159
-0.165741 -0.0453102 0.915939
-0.165227 -0.046676 0.915915
-0.164701 -0.0480384 0.915826
-0.164204 -0.0494082 0.915891
-0.163736 -0.0507863 0.916125
-0.163287 -0.0521705 0.916467
-0.162856 -0.0535612 0.916913
-0.162492 -0.0549744 0.917744
-0.162129 -0.0563908 0.918589
-0.161754 -0.0578056 0.919367
-0.161431 -0.0592412 0.920455
-0.161123 -0.0606862 0.921639
-0.160823 -0.0621377 0.922869
-0.160537 -0.0635987 0.924193
-0.160574 -0.0651904 0.927416
-0.160742 -0.0668456 0.931432
-0.161087 -0.0685885 0.936527
-0.161541 -0.0703956 0.942296
-0.16193 -0.0721956 0.947719
-0.161949 -0.0738514 0.950977
-0.161766 -0.0754272 0.953047
-0.161396 -0.0769231 0.954002
-0.160878 -0.0783519 0.954076
-0.160332 -0.0797668 0.953979
-0.159783 -0.0811798 0.953867
-0.159218 -0.0825839 0.953655
-0.158653 -0.083987 0.953438
-0.158089 -0.0853893 0.953224
-0.157555 -0.0868068 0.953195
-0.157038 -0.0882334 0.953269
-0.156564 -0.0896848 0.953611
-0.156123 -0.0911561 0.954158
-0.155724 -0.0926549 0.954979
-0.155455 -0.0942351 0.956616
-0.155182 -0.0958189 0.958243
-0.154955 -0.0974375 0.960164
-0.154704 -0.0990481 0.96195
-0.154402 -0.100632 0.963427
-0.15397 -0.102135 0.964082
-0.15353 -0.103634 0.964689
-0.153049 -0.105107 0.965033
-0.152584 -0.106593 0.965491
-0.152193 -0.108134 0.966431
-0.151877 -0.109732 0.967855
-0.151605 -0.111369 0.969588
-0.151373 -0.113044 0.971597
-0.151179 -0.114756 0.973867
-0.151015 -0.1165 0.97636
-0.150815 -0.118225 0.978625
-0.150585 -0.119935 0.980709
-0.150273 -0.121586 0.982257
-0.172258 -0.0271702 0.922839
-0.171662 -0.0285404 0.922395
-0.171036 -0.0299046 0.921793
-0.170243 -0.0312416 0.920263
-0.169506 -0.0325819 0.919035
-0.168823 -0.033927 0.918098
-0.168108 -0.0352629 0.916979
-0.167459 -0.0366073 0.916211
-0.166897 -0.0379656 0.915921
-0.166368 -0.0393298 0.915811
-0.165858 -0.0406973 0.915807
-0.165363 -0.0420679 0.915892
-0.164866 -0.0434382 0.915963
-0.164368 -0.0448081 0.91602
-0.163855 -0.0461742 0.916001
-0.163316 -0.0475332 0.915833
-0.162817 -0.0489021 0.915889
-0.162348 -0.0502797 0.916118
-0.161898 -0.0516637 0.916459
-0.161454 -0.05305 0.916829
-0.161073 -0.0544576 0.917577
-0.16068 -0.0558635 0.918251
-0.160275 -0.0572675 0.918856
-0.159923 -0.0586921 0.919785
-0.159603 -0.0601311 0.920896
-0.159491 -0.0616502 0.923245
-0.159406 -0.0631883 0.92577
-0.159661 -0.0648675 0.93032
-0.160031 -0.0666093 0.935587
-0.160562 -0.068436 0.94184
-0.160829 -0.0701744 0.94657
-0.16102 -0.0718972 0.950878
-0.160839 -0.0734698 0.952963
-0.160483 -0.074971 0.954021
-0.159965 -0.0763997 0.954094
-0.159447 -0.0778285 0.954168
-0.158901 -0.0792431 0.954063
-0.158337 -0.0806484 0.953853
-0.157754 -0.0820432 0.953529
-0.157173 -0.083437 0.953212
-0.156596 -0.0848319 0.952914
-0.15605 -0.086242 0.952807
-0.155533 -0.0876679 0.952881
-0.155045 -0.0891107 0.953142
-0.154589 -0.090572 0.953591
-0.15419 -0.0920694 0.954412
-0.153907 -0.0936404 0.955976
-0.153634 -0.0952231 0.957608
-0.153415 -0.0968467 0.959608
-0.153175 -0.0984641 0.961481
-0.152886 -0.100056 0.963051
-0.152482 -0.101577 0.963891
-0.152056 -0.103086 0.964601
-0.151589 -0.104569 0.965042
-0.151138 -0.106064 0.965584
-0.150746 -0.107604 0.966524
-0.1504 -0.109181 0.967771
-0.150096 -0.110796 0.969311
-0.149831 -0.112445 0.971116
-0.149604 -0.114131 0.97319
-0.149423 -0.115863 0.975588
-0.149235 -0.117596 0.977949
-0.149016 -0.119316 0.980129
-0.148715 -0.120976 0.981771
-0.17082 -0.0266574 0.922637
-0.170183 -0.0280218 0.921966
-0.169543 -0.0293835 0.921271
-0.168763 -0.0307221 0.919803
-0.16803 -0.0320625 0.918579
-0.167359 -0.0334089 0.917693
-0.166692 -0.0347528 0.916828
-0.16606 -0.0361001 0.916148
-0.165497 -0.0374582 0.915852
-0.164982 -0.038825 0.915819
-0.164472 -0.0401923 0.915821
-0.163983 -0.0415642 0.915931
-0.163502 -0.0429382 0.916091
-0.163005 -0.0443085 0.916162
-0.162481 -0.0456717 0.916075
-0.161927 -0.0470268 0.915823
-0.161413 -0.0483916 0.91579
-0.16094 -0.0497675 0.915994
-0.160477 -0.051147 0.916262
-0.160042 -0.0525359 0.916692
-0.15966 -0.0539427 0.917431
-0.159249 -0.0553424 0.918007
-0.158828 -0.0567403 0.918523
-0.158459 -0.058158 0.919357
-0.158296 -0.0596522 0.921409
-0.15838 -0.0612443 0.924939
-0.158517 -0.0628694 0.92881
-0.158959 -0.0646273 0.934536
-0.159487 -0.0664399 0.940812
-0.159839 -0.0682034 0.946081
-0.159906 -0.0698649 0.949654
-0.159897 -0.0715066 0.952794
-0.159543 -0.0730065 0.953868
-0.159054 -0.074448 0.954113
-0.158536 -0.0758767 0.954187
-0.158018 -0.0773055 0.954261
-0.15747 -0.0787198 0.954155
-0.156906 -0.0801248 0.953939
-0.15631 -0.0815126 0.953529
-0.155715 -0.0828992 0.953121
-0.155124 -0.084286 0.952734
-0.154566 -0.0856886 0.952541
-0.154036 -0.0871065 0.952533
-0.153548 -0.0885482 0.952787
-0.153075 -0.0899996 0.953144
-0.152661 -0.0914872 0.953875
-0.152345 -0.0930372 0.955238
-0.152066 -0.0946152 0.956846
-0.15183 -0.0962267 0.958743
-0.1516 -0.0978499 0.960703
-0.151325 -0.0994501 0.962376
-0.150964 -0.100998 0.9635
-0.150555 -0.102519 0.964323
-0.150116 -0.10402 0.964945
-0.149662 -0.105514 0.965486
-0.149266 -0.107051 0.966398
-0.148889 -0.108606 0.967455
-0.148542 -0.110187 0.968715
-0.148232 -0.111802 0.970239
-0.147976 -0.113465 0.972133
-0.147791 -0.115192 0.974524
-0.147628 -0.116946 0.977082
-0.147435 -0.118686 0.979458
-0.147163 -0.120369 0.981308
-0.169417 -0.0261488 0.922614
-0.168751 -0.0275097 0.921778
-0.168106 -0.0288705 0.92105
-0.167328 -0.0302092 0.919576
-0.166598 -0.0315501 0.918361
-0.165944 -0.0328993 0.917562
-0.165308 -0.0342484 0.916858
-0.164678 -0.0355963 0.916185
-0.164117 -0.0369547 0.915896
-0.163603 -0.0383217 0.915868
-0.163083 -0.0396867 0.915804
-0.162591 -0.0410577 0.915903
-0.162123 -0.0424347 0.916139
-0.161627 -0.0438049 0.91621
-0.161102 -0.0451681 0.916123
-0.160561 -0.0465265 0.915937
-0.160044 -0.0478906 0.915893
-0.159556 -0.0492624 0.916013
-0.159079 -0.0506375 0.916192
-0.158643 -0.0520258 0.91662
-0.158246 -0.0534275 0.917278
-0.15782 -0.0548218 0.917769
-0.157395 -0.0562177 0.918264
-0.157008 -0.0576287 0.918998
-0.157013 -0.0591821 0.922068
-0.157286 -0.0608449 0.926771
-0.157627 -0.0625503 0.931911
-0.158238 -0.0643796 0.938717
-0.158786 -0.0662085 0.945194
-0.158918 -0.0678894 0.949191
-0.158789 -0.0694741 0.951618
-0.158603 -0.0710428 0.953715
-0.158128 -0.0724897 0.954049
-0.157623 -0.0739246 0.954205
-0.157105 -0.0753533 0.954279
-0.156587 -0.0767821 0.954353
-0.156042 -0.0781974 0.954256
-0.15548 -0.0796036 0.954052
-0.154888 -0.0809931 0.953657
-0.154305 -0.082386 0.953322
-0.153715 -0.0837732 0.952933
-0.153154 -0.0851749 0.952732
-0.152624 -0.0865925 0.952714
-0.15212 -0.0880257 0.952876
-0.151632 -0.0894678 0.953133
-0.151199 -0.0909443 0.953749
-0.150837 -0.092466 0.954825
-0.150524 -0.0940228 0.956232
-0.150255 -0.0956126 0.957932
-0.149999 -0.0972175 0.959729
-0.149724 -0.0988162 0.961418
-0.14939 -0.100382 0.962731
-0.149012 -0.101922 0.963761
-0.148601 -0.103442 0.964575
-0.148161 -0.104945 0.965203
-0.147747 -0.106469 0.966016
-0.147337 -0.107999 0.966858
-0.146958 -0.109555 0.96791
-0.146617 -0.111145 0.969236
-0.146319 -0.112774 0.970858
-0.146117 -0.114486 0.973153
-0.145989 -0.116268 0.975978
-0.145866 -0.118064 0.978848
-0.145678 -0.119819 0.981304
-0.16801 -0.0256399 0.922576
-0.167336 -0.0270001 0.921685
-0.166688 -0.0283604 0.920928
-0.165921 -0.029701 0.919508
-0.165194 -0.0310425 0.918297
-0.164542 -0.0323918 0.917498
-0.163936 -0.0337464 0.916958
-0.163321 -0.035097 0.916362
-0.162762 -0.0364562 0.91608
-0.162247 -0.0378229 0.916044
-0.161726 -0.0391881 0.915975
-0.161218 -0.0405558 0.915984
-0.160748 -0.0419319 0.916206
-0.160249 -0.0433015 0.916263
-0.159723 -0.0446645 0.916168
-0.159183 -0.0460232 0.915986
-0.158666 -0.047387 0.915935
-0.158166 -0.0487555 0.915987
-0.157673 -0.0501257 0.916076
-0.157225 -0.0515099 0.916436
-0.156814 -0.0529065 0.917014
-0.156364 -0.0542924 0.917364
-0.155935 -0.0556864 0.917843
-0.15552 -0.0570866 0.918409
-0.155707 -0.0587036 0.922606
-0.156169 -0.0604368 0.928495
-0.156719 -0.0622247 0.934963
-0.157331 -0.0640601 0.941854
-0.157883 -0.0658963 0.948424
-0.157794 -0.0674922 0.951115
-0.157476 -0.0690003 0.952407
-0.157132 -0.0705015 0.953545
-0.156655 -0.0719474 0.953873
-0.156151 -0.0733821 0.954035
-0.155648 -0.0748174 0.9542
-0.155144 -0.0762526 0.954363
-0.154626 -0.0776812 0.954437
-0.15408 -0.0790954 0.954334
-0.153491 -0.080487 0.953955
-0.152924 -0.0818886 0.953718
-0.152346 -0.0832826 0.953398
-0.151772 -0.0846775 0.953107
-0.15124 -0.086095 0.953084
-0.150748 -0.087535 0.95332
-0.150246 -0.0889701 0.95349
-0.149797 -0.0904374 0.95401
-0.149403 -0.0919403 0.954889
-0.149055 -0.0934753 0.95608
-0.148755 -0.0950453 0.957587
-0.148481 -0.0966388 0.959292
-0.148191 -0.0982273 0.960893
-0.147883 -0.09981 0.962389
-0.147518 -0.101359 0.963513
-0.147112 -0.102882 0.964369
-0.146673 -0.104385 0.965012
-0.146244 -0.105898 0.965725
-0.145792 -0.107396 0.966284
-0.14538 -0.108926 0.967124
-0.145007 -0.110491 0.968239
-0.144663 -0.112082 0.969562
-0.144405 -0.113748 0.971488
-0.144321 -0.115564 0.974639
-0.144268 -0.117419 0.978028
-0.144173 -0.119251 0.981148
-0.166596 -0.0251303 0.922491
-0.165931 -0.0264917 0.921643
-0.165302 -0.0278547 0.92099
-0.164555 -0.0291984 0.91966
-0.163842 -0.0305427 0.918521
-0.163163 -0.0318883 0.917564
-0.162559 -0.0332432 0.917027
-0.161932 -0.0345918 0.916351
-0.161374 -0.035951 0.916072
-0.160844 -0.0373149 0.915955
-0.160321 -0.0386792 0.915868
-0.159797 -0.040043 0.915782
-0.15931 -0.0414149 0.915911
-0.158798 -0.0427806 0.915887
-0.158273 -0.0441429 0.915792
-0.157748 -0.0455048 0.915696
-0.157235 -0.0468692 0.915666
-0.156737 -0.0482373 0.915726
-0.156242 -0.0496067 0.915808
-0.155804 -0.0509929 0.916222
-0.15538 -0.052385 0.916727
-0.154931 -0.0537705 0.917086
-0.154503 -0.0551641 0.917574
-0.154073 -0.0565587 0.918054
-0.154436 -0.0582378 0.923363
-0.155091 -0.0600431 0.930488
-0.155812 -0.0618995 0.938076
-0.156429 -0.0637427 0.945077
-0.156959 -0.065576 0.951586
-0.156651 -0.0670871 0.952954
-0.156152 -0.0685219 0.953146
-0.155653 -0.0699569 0.953329
-0.155178 -0.0714031 0.953668
-0.154689 -0.0728442 0.953925
-0.154201 -0.0742862 0.954188
-0.1537 -0.0757225 0.954366
-0.153209 -0.0771645 0.954611
-0.152678 -0.0785865 0.954604
-0.152105 -0.0799863 0.95432
-0.151554 -0.081397 0.954182
-0.150989 -0.082799 0.953954
-0.150417 -0.084196 0.953674
-0.149885 -0.0856138 0.953645
-0.14938 -0.0870477 0.953803
-0.148866 -0.0884759 0.953896
-0.148402 -0.0899351 0.954323
-0.147982 -0.0914226 0.95504
-0.147605 -0.0929397 0.956043
-0.14727 -0.0944882 0.957346
-0.146977 -0.0960682 0.958925
-0.146669 -0.0976448 0.960422
-0.146359 -0.0992254 0.961916
-0.145995 -0.100774 0.963055
-0.145599 -0.102305 0.963993
-0.145149 -0.103799 0.964565
-0.144706 -0.105301 0.965187
-0.144238 -0.106786 0.965637
-0.143808 -0.108301 0.966361
-0.143407 -0.109843 0.967286
-0.143032 -0.111408 0.968408
-0.142738 -0.113043 0.970091
-0.142694 -0.114893 0.973558
-0.14271 -0.116804 0.97746
-0.14272 -0.118728 0.981366
-0.144028 -0.121054 0.98395
-0.142696 -0.120639 0.985057
-0.184403 -0.0161732 1.00025
-0.183567 -0.0141189 1.00097
-0.182882 -0.0156206 1.00028
-0.183781 -0.0176757 0.999914
-0.182207 -0.0171202 0.999647
-0.183202 -0.0191799 0.999806
-0.18161 -0.0186227 0.999437
-0.165128 -0.0246149 0.922098
-0.164455 -0.0259748 0.921194
-0.163847 -0.0273398 0.920649
-0.163116 -0.0286858 0.919405
-0.162408 -0.0300304 0.918273
-0.161717 -0.031374 0.91724
-0.161126 -0.0327305 0.916769
-0.160486 -0.0340765 0.916014
-0.159929 -0.0354353 0.915733
-0.159398 -0.0367983 0.915607
-0.158873 -0.0381616 0.915508
-0.158349 -0.0395245 0.91542
-0.157864 -0.0408959 0.915553
-0.157352 -0.0422612 0.915533
-0.156829 -0.0436232 0.915447
-0.156319 -0.0449882 0.915435
-0.155809 -0.0463528 0.915422
-0.155325 -0.0477243 0.915563
-0.154843 -0.049097 0.915721
-0.154415 -0.0504859 0.9162
-0.154003 -0.0518814 0.916782
-0.153578 -0.0532748 0.917291
-0.15314 -0.0546652 0.917722
-0.152696 -0.0560547 0.918116
-0.153244 -0.0577999 0.924616
-0.153889 -0.0596039 0.931757
-0.154594 -0.0614563 0.939321
-0.155193 -0.0632947 0.946282
-0.155705 -0.0651237 0.952756
-0.155201 -0.0665555 0.952909
-0.154701 -0.0679894 0.95309
-0.154201 -0.0694242 0.953278
-0.15374 -0.0708765 0.953707
-0.153254 -0.0723185 0.953978
-0.152769 -0.0737619 0.954263
-0.152269 -0.0751988 0.954449
-0.151779 -0.0766411 0.954703
-0.151261 -0.0780699 0.954777
-0.150703 -0.0794777 0.954589
-0.150167 -0.0808968 0.954552
-0.149619 -0.0823083 0.954428
-0.149075 -0.0837211 0.954326
-0.148558 -0.0851489 0.9544
-0.148066 -0.0865913 0.954644
-0.147552 -0.0880214 0.954743
-0.147089 -0.0894826 0.95518
-0.146629 -0.0909469 0.955639
-0.146209 -0.0924388 0.956377
-0.145819 -0.0939518 0.957313
-0.145493 -0.0955109 0.958691
-0.145144 -0.09706 0.959924
-0.144828 -0.0986365 0.961396
-0.144461 -0.100182 0.962523
-0.144077 -0.10172 0.963541
-0.143624 -0.103212 0.964098
-0.143191 -0.10472 0.964794
-0.142722 -0.106203 0.965242
-0.142292 -0.107719 0.965971
-0.141878 -0.109249 0.966812
-0.141489 -0.110803 0.967836
-0.141161 -0.11241 0.969302
-0.141123 -0.114264 0.972839
-0.141183 -0.116214 0.977102
-0.141281 -0.118217 0.981677
-0.141354 -0.120216 0.986114
-0.182642 -0.0120596 1.00119
-0.182018 -0.0135653 1.00084
-0.181307 -0.0150657 1.00001
-0.180598 -0.0165632 0.999175
-0.179926 -0.0180605 0.99854
-0.1791 -0.019544 0.997035
-0.164109 -0.0241489 0.924262
-0.162909 -0.02545 0.920337
-0.162335 -0.0268181 0.919979
-0.161638 -0.0281679 0.918913
-0.160947 -0.0295146 0.917869
-0.160271 -0.0308599 0.916905
-0.159679 -0.0322157 0.916424
-0.159051 -0.0335635 0.915733
-0.158495 -0.034922 0.915455
-0.157955 -0.0362823 0.915269
-0.157417 -0.0376424 0.915094
-0.156893 -0.0390046 0.914999
-0.156383 -0.0403695 0.914987
-0.155861 -0.0417311 0.914903
-0.155365 -0.0430986 0.914971
-0.154882 -0.0444695 0.915117
-0.154387 -0.0458376 0.915196
-0.153931 -0.0472164 0.915506
-0.153476 -0.0485964 0.915824
-0.153048 -0.0499856 0.916311
-0.152649 -0.0513852 0.916977
-0.152239 -0.0527835 0.917583
-0.151994 -0.0542387 0.919204
-0.151755 -0.0557019 0.920881
-0.152324 -0.057459 0.927578
-0.152944 -0.0592591 0.934648
-0.153605 -0.0611002 0.942023
-0.153974 -0.0628537 0.947621
-0.154282 -0.0646031 0.952878
-0.153761 -0.0660283 0.952929
-0.15326 -0.0674615 0.953102
-0.152761 -0.0688963 0.953292
-0.152313 -0.0703546 0.953813
-0.151825 -0.0717957 0.954075
-0.15134 -0.073239 0.954357
-0.150839 -0.0746756 0.954542
-0.150349 -0.0761179 0.954795
-0.149843 -0.077553 0.954953
-0.1493 -0.0789689 0.954862
-0.148793 -0.0804032 0.955005
-0.148274 -0.0818316 0.955075
-0.147757 -0.0832607 0.955154
-0.147255 -0.0846982 0.955332
-0.146777 -0.0861509 0.955675
-0.146262 -0.0875818 0.955767
-0.145796 -0.0890436 0.956197
-0.14532 -0.0904996 0.956553
-0.14486 -0.0919673 0.957024
-0.144424 -0.0934527 0.957666
-0.144041 -0.0949751 0.958672
-0.143648 -0.0964944 0.959614
-0.143296 -0.0980455 0.960846
-0.142926 -0.0995885 0.961964
-0.142538 -0.101123 0.962968
-0.142096 -0.102621 0.963596
-0.141663 -0.104129 0.9643
-0.141207 -0.105621 0.964839
-0.140792 -0.107148 0.965679
-0.14038 -0.108679 0.966542
-0.140004 -0.110243 0.967669
-0.139662 -0.111839 0.969049
-0.13963 -0.1137 0.972665
-0.13972 -0.11568 0.9772
-0.139877 -0.117736 0.982252
-0.140012 -0.119794 0.987187
-0.183289 -0.0105528 1.00167
-0.181737 -0.00999926 1.00154
-0.181068 -0.0115055 1.00093
-0.180425 -0.0130105 1.00047
-0.179676 -0.014509 0.999411
-0.178907 -0.0160029 0.998232
-0.178104 -0.0174908 0.996844
-0.177163 -0.0189643 0.994669
-0.163074 -0.0236794 0.926366
-0.161409 -0.0249314 0.919725
-0.16085 -0.0263003 0.919449
-0.160196 -0.0276554 0.918622
-0.159511 -0.0290026 0.9176
-0.158837 -0.0303482 0.916642
-0.158245 -0.0317035 0.916151
-0.157632 -0.0330535 0.915541
-0.157053 -0.0344073 0.915122
-0.156502 -0.0357649 0.914865
-0.155963 -0.037124 0.914681
-0.155439 -0.0384853 0.914581
-0.154917 -0.0398466 0.914494
-0.154409 -0.0412104 0.914488
-0.153926 -0.0425804 0.914635
-0.153444 -0.0439509 0.914787
-0.152963 -0.0453218 0.914948
-0.152535 -0.0467079 0.915432
-0.15211 -0.0480963 0.915935
-0.1517 -0.049491 0.916539
-0.151327 -0.0508988 0.917371
-0.150929 -0.0523016 0.91806
-0.150889 -0.0538259 0.920974
-0.150875 -0.0553698 0.924074
-0.151475 -0.0571437 0.931052
-0.152082 -0.0589451 0.938122
-0.152683 -0.0607696 0.945203
-0.152803 -0.0624318 0.949294
-0.152876 -0.0640895 0.953109
-0.152339 -0.0655083 0.95306
-0.151826 -0.0669367 0.953158
-0.151328 -0.0683716 0.953356
-0.150879 -0.0698296 0.953873
-0.150402 -0.071276 0.954212
-0.149913 -0.0727175 0.954471
-0.14941 -0.0741531 0.954643
-0.148931 -0.0756008 0.954971
-0.14844 -0.0770436 0.955223
-0.147925 -0.0784744 0.955316
-0.147434 -0.0799178 0.955568
-0.146941 -0.0813616 0.955815
-0.146451 -0.0828073 0.956079
-0.145963 -0.0842548 0.956356
-0.145501 -0.0857182 0.956809
-0.144985 -0.0871511 0.956905
-0.144503 -0.0886049 0.957231
-0.143995 -0.0900429 0.957377
-0.143504 -0.0914924 0.957643
-0.143025 -0.0929505 0.957993
-0.142612 -0.0944537 0.9588
-0.142177 -0.095945 0.959463
-0.141794 -0.0974745 0.96049
-0.141397 -0.0989986 0.961433
-0.140999 -0.100524 0.962368
-0.140558 -0.102023 0.963013
-0.140151 -0.103549 0.9639
-0.139709 -0.105052 0.964552
-0.13932 -0.106598 0.965581
-0.138921 -0.10814 0.966544
-0.138581 -0.109734 0.967948
-0.138243 -0.111335 0.969373
-0.13822 -0.113207 0.973098
-0.138291 -0.115174 0.97754
-0.138432 -0.11722 0.982535
-0.13856 -0.119276 0.987478
-0.180819 -0.00793798 1.00181
-0.180126 -0.0094457 1.00106
-0.179446 -0.0109512 1.00039
-0.178786 -0.0124546 0.999833
-0.177991 -0.0139508 0.998495
-0.177196 -0.0154426 0.997152
-0.176325 -0.0169253 0.995364
-0.175345 -0.0183947 0.992936
-0.161911 -0.023195 0.927769
-0.159861 -0.0244079 0.918827
-0.159311 -0.0257765 0.918596
-0.158691 -0.0271347 0.917951
-0.158033 -0.0284851 0.91708
-0.157366 -0.0298308 0.916146
-0.156763 -0.0311837 0.915588
-0.156166 -0.0325354 0.915056
-0.1556 -0.0338908 0.914711
-0.155051 -0.0352481 0.914463
-0.154524 -0.0366088 0.914346
-0.154009 -0.0379714 0.9143
-0.153486 -0.0393317 0.9142
-0.152966 -0.0406924 0.914124
-0.152483 -0.0420614 0.914266
-0.152014 -0.0434342 0.914497
-0.151548 -0.0448088 0.914754
-0.151149 -0.0462023 0.915417
-0.150753 -0.047599 0.916106
-0.150383 -0.0490056 0.916962
-0.150025 -0.0504187 0.917897
-0.149843 -0.0518918 0.919942
-0.150021 -0.0534923 0.92427
-0.150244 -0.0551237 0.92891
-0.150861 -0.0569119 0.936078
-0.151437 -0.058711 0.943044
-0.151751 -0.0604354 0.948384
-0.151628 -0.0620079 0.950966
-0.151488 -0.0635832 0.95346
-0.150965 -0.0650083 0.953502
-0.150453 -0.0664378 0.953611
-0.149969 -0.0678796 0.953899
-0.149507 -0.0693323 0.954336
-0.149016 -0.0707728 0.954585
-0.148511 -0.0722075 0.954743
-0.147994 -0.0736365 0.954824
-0.147502 -0.0750781 0.955069
-0.147025 -0.0765281 0.955417
-0.146537 -0.0779736 0.955696
-0.146063 -0.079427 0.956066
-0.145597 -0.0808858 0.956492
-0.145146 -0.0823546 0.957023
-0.144671 -0.0838118 0.9574
-0.14421 -0.0852774 0.957864
-0.143705 -0.0867191 0.958041
-0.143208 -0.0881654 0.958268
-0.142661 -0.0895807 0.958149
-0.142127 -0.0910039 0.958122
-0.141594 -0.0924281 0.958108
-0.141124 -0.0938935 0.958526
-0.140647 -0.0953555 0.958898
-0.140234 -0.0968629 0.959719
-0.139824 -0.0983761 0.960574
-0.139436 -0.0999085 0.961592
-0.139012 -0.101418 0.962357
-0.138631 -0.102963 0.963441
-0.138216 -0.104485 0.964287
-0.137851 -0.10605 0.965499
-0.137475 -0.107611 0.966638
-0.137171 -0.109235 0.968319
-0.136883 -0.11088 0.970129
-0.13686 -0.112756 0.9739
-0.13691 -0.11471 0.978243
-0.137022 -0.116736 0.983085
-0.137125 -0.118774 0.987897
-0.138757 -0.121414 0.992967
-0.137241 -0.120844 0.99285
-0.138655 -0.123302 0.996291
-0.137109 -0.122706 0.995987
-0.1785 -0.00889235 1.0005
-0.177785 -0.0103965 0.999624
-0.177093 -0.0118982 0.998869
-0.176264 -0.0133924 0.997319
-0.17544 -0.0148815 0.995794
-0.174532 -0.0163607 0.993768
-0.173563 -0.0178292 0.991377
-0.158346 -0.0238888 0.918099
-0.15779 -0.0252555 0.917828
-0.1572 -0.0266164 0.917348
-0.156559 -0.0279683 0.916565
-0.155908 -0.0293159 0.915717
-0.155308 -0.0306685 0.915167
-0.154725 -0.032022 0.914715
-0.15416 -0.0333771 0.91437
-0.153611 -0.0347337 0.914117
-0.153084 -0.0360935 0.913995
-0.15257 -0.0374557 0.913953
-0.152046 -0.0388153 0.913849
-0.151526 -0.0401748 0.913762
-0.151043 -0.0415432 0.913909
-0.150587 -0.0429187 0.914219
-0.150135 -0.044296 0.914558
-0.149762 -0.0456963 0.915392
-0.149394 -0.0471009 0.916263
-0.14905 -0.0485155 0.917294
-0.148704 -0.0499326 0.918314
-0.148733 -0.0514741 0.921713
-0.149129 -0.0531502 0.927475
-0.149579 -0.0548653 0.933622
-0.150191 -0.0566601 0.940849
-0.150718 -0.0584497 0.947592
-0.150786 -0.0600887 0.951415
-0.150437 -0.0615786 0.952577
-0.150096 -0.0630752 0.95379
-0.149589 -0.0645075 0.953937
-0.149076 -0.0659372 0.954041
-0.148592 -0.0673799 0.954336
-0.148116 -0.0688269 0.954686
-0.147612 -0.0702619 0.95485
-0.147094 -0.0716906 0.954924
-0.146576 -0.0731194 0.954998
-0.146072 -0.074555 0.955164
-0.145608 -0.0760118 0.955603
-0.145137 -0.0774658 0.955993
-0.144676 -0.0789273 0.956461
-0.144226 -0.0803955 0.956998
-0.143798 -0.0818785 0.957697
-0.143337 -0.0833444 0.958169
-0.142888 -0.0848196 0.958734
-0.142397 -0.0862707 0.959007
-0.141898 -0.087718 0.959228
-0.141324 -0.0891181 0.958925
-0.140762 -0.0905244 0.958702
-0.140202 -0.0919307 0.958491
-0.13968 -0.0933617 0.958544
-0.139162 -0.0947957 0.958631
-0.13873 -0.0962899 0.959329
-0.138304 -0.0977908 0.960072
-0.137917 -0.0993232 0.961105
-0.137529 -0.100859 0.962138
-0.137175 -0.102424 0.963429
-0.136785 -0.103967 0.964464
-0.136432 -0.105542 0.965775
-0.136065 -0.107111 0.967001
-0.135784 -0.108756 0.968869
-0.135533 -0.110433 0.970973
-0.135486 -0.112293 0.974612
-0.135515 -0.114233 0.97885
-0.1356 -0.116241 0.98355
-0.135664 -0.118249 0.988132
-0.135713 -0.120263 0.99264
-0.135563 -0.12211 0.995675
-0.136935 -0.124541 0.998826
-0.135356 -0.123916 0.998295
-0.176793 -0.00833952 0.999467
-0.176063 -0.00984226 0.998489
-0.175355 -0.011342 0.997628
-0.174513 -0.0128344 0.995984
-0.173679 -0.0143216 0.994375
-0.172773 -0.0157996 0.992342
-0.171844 -0.0172692 0.990154
-0.156881 -0.0233759 0.917649
-0.156313 -0.0247403 0.917304
-0.155739 -0.0261025 0.916916
-0.155124 -0.0274576 0.91628
-0.154476 -0.0288052 0.915437
-0.153879 -0.0301579 0.914896
-0.153308 -0.031513 0.914515
-0.152744 -0.0328677 0.914166
-0.152183 -0.0342218 0.91384
-0.151661 -0.035582 0.913741
-0.151135 -0.0369412 0.913625
-0.150613 -0.0383004 0.913528
-0.150093 -0.0396595 0.913441
-0.149622 -0.04103 0.913661
-0.149179 -0.0424081 0.914054
-0.148741 -0.0437887 0.914483
-0.148381 -0.0451924 0.915408
-0.148023 -0.0465995 0.91635
-0.147679 -0.0480138 0.917387
-0.14732 -0.0494267 0.918331
-0.14755 -0.0510327 0.923054
-0.14816 -0.052782 0.93025
-0.148841 -0.0545816 0.937963
-0.14943 -0.0563756 0.945132
-0.149929 -0.0581622 0.951772
-0.149762 -0.05972 0.954127
-0.149217 -0.0611376 0.954023
-0.148682 -0.0625586 0.953985
-0.148179 -0.0639924 0.954153
-0.147677 -0.0654272 0.954333
-0.147191 -0.0668692 0.954614
-0.1467 -0.06831 0.954872
-0.146195 -0.0697448 0.955032
-0.145676 -0.0711732 0.9551
-0.145146 -0.0725961 0.95509
-0.144641 -0.0740315 0.955254
-0.144176 -0.0754879 0.95569
-0.143704 -0.0769416 0.956078
-0.143257 -0.0784103 0.956641
-0.14282 -0.0798861 0.957275
-0.142393 -0.0813705 0.957991
-0.141945 -0.0828448 0.958562
-0.141507 -0.0843269 0.959205
-0.141017 -0.0857796 0.95949
-0.140509 -0.0872214 0.959645
-0.139947 -0.0886295 0.959423
-0.139371 -0.0900279 0.959104
-0.138796 -0.0914245 0.958782
-0.138248 -0.0928383 0.958652
-0.137714 -0.0942616 0.958627
-0.137257 -0.0957379 0.959146
-0.136816 -0.0972279 0.959791
-0.136427 -0.0987591 0.960821
-0.136063 -0.100312 0.962037
-0.135723 -0.101888 0.963438
-0.135357 -0.10345 0.964665
-0.135026 -0.105044 0.966155
-0.134682 -0.106633 0.967564
-0.134411 -0.108289 0.969535
-0.134195 -0.109999 0.971929
-0.134144 -0.111859 0.975583
-0.134153 -0.113789 0.979732
-0.134203 -0.115769 0.984218
-0.134232 -0.11775 0.988588
-0.134236 -0.119728 0.992813
-0.134057 -0.121551 0.995656
-0.13382 -0.12333 0.99808
-0.135128 -0.125712 1.00078
-0.133573 -0.12511 1.00045
-0.175037 -0.00778797 0.998125
-0.174322 -0.00928912 0.997219
-0.173656 -0.0107881 0.996587
-0.172817 -0.0122797 0.994944
-0.171972 -0.0137654 0.993252
-0.171059 -0.0152421 0.991148
-0.170152 -0.016712 0.989065
-0.155881 -0.0229131 0.919986
-0.154936 -0.0242373 0.917369
-0.154362 -0.0255998 0.916981
-0.153749 -0.0269553 0.916347
-0.153088 -0.0283013 0.915418
-0.152467 -0.0296503 0.914728
-0.151884 -0.0310031 0.914265
-0.151295 -0.0323529 0.913756
-0.150734 -0.0337061 0.91342
-0.150225 -0.0350683 0.913402
-0.149693 -0.0364252 0.913239
-0.149196 -0.0377893 0.913301
-0.1487 -0.0391535 0.913362
-0.148231 -0.0405241 0.913593
-0.147791 -0.0419025 0.914006
-0.147377 -0.0432894 0.914591
-0.147016 -0.0446925 0.915516
-0.146656 -0.0460989 0.916453
-0.146297 -0.0475088 0.917405
-0.145921 -0.0489165 0.918255
-0.146341 -0.0505827 0.92425
-0.14696 -0.0523365 0.931584
-0.147629 -0.0541339 0.939302
-0.148206 -0.0559262 0.946477
-0.148685 -0.0577077 0.953062
-0.148322 -0.0591931 0.954154
-0.147804 -0.060621 0.954224
-0.147287 -0.0620494 0.9543
-0.146795 -0.0634883 0.954547
-0.146306 -0.064929 0.954812
-0.145816 -0.0663704 0.955078
-0.1453 -0.0678002 0.955163
-0.144792 -0.069234 0.955306
-0.144259 -0.0706562 0.95528
-0.143716 -0.0720729 0.955182
-0.14321 -0.0735076 0.95534
-0.142731 -0.0749569 0.955684
-0.142256 -0.0764088 0.956052
-0.141795 -0.0778701 0.956527
-0.141345 -0.0793384 0.957076
-0.140918 -0.0808221 0.957792
-0.14048 -0.0823023 0.958443
-0.140045 -0.0837855 0.959108
-0.139568 -0.0852459 0.959487
-0.139071 -0.0866953 0.95973
-0.138511 -0.0881042 0.959515
-0.137936 -0.0895028 0.959196
-0.137361 -0.0908997 0.958875
-0.136813 -0.0923136 0.958745
-0.13628 -0.0937369 0.958719
-0.135822 -0.0952129 0.959238
-0.13538 -0.0967026 0.959883
-0.13499 -0.0982333 0.960914
-0.134637 -0.0997952 0.962222
-0.134307 -0.101381 0.963722
-0.133966 -0.102963 0.965148
-0.133646 -0.104567 0.966737
-0.133325 -0.106178 0.968341
-0.133052 -0.107835 0.970318
-0.132845 -0.109555 0.972812
-0.132777 -0.111406 0.97639
-0.132756 -0.113312 0.98035
-0.13276 -0.115258 0.984549
-0.132755 -0.117212 0.988709
-0.132705 -0.119143 0.992563
-0.132484 -0.120928 0.995114
-0.132228 -0.122689 0.997416
-0.131975 -0.124464 0.99976
-0.173337 -0.00723803 0.997084
-0.172621 -0.00873788 0.996153
-0.17196 -0.0102354 0.995546
-0.171162 -0.0117272 0.994121
-0.170305 -0.013212 0.99234
-0.169426 -0.0146897 0.99041
-0.168522 -0.0161594 0.988319
-0.154888 -0.0224491 0.922404
-0.153583 -0.0237371 0.917581
-0.153023 -0.0251017 0.917273
-0.152435 -0.0264611 0.916786
-0.151774 -0.0278081 0.915849
-0.151128 -0.029154 0.914995
-0.150505 -0.0305008 0.914283
-0.149887 -0.0318455 0.913591
-0.149299 -0.0331933 0.91308
-0.14879 -0.0345548 0.91306
-0.14826 -0.0359116 0.912907
-0.14779 -0.0372807 0.913131
-0.147308 -0.0386476 0.913281
-0.146864 -0.040024 0.913675
-0.146438 -0.0414062 0.914183
-0.146039 -0.0427968 0.914867
-0.145663 -0.0441961 0.915707
-0.145287 -0.0455979 0.916549
-0.14491 -0.0470023 0.917395
-0.144702 -0.048462 0.919347
-0.145295 -0.050185 0.926537
-0.14592 -0.0519444 0.933994
-0.146574 -0.0537406 0.941707
-0.147121 -0.0555259 0.948764
-0.147397 -0.0572368 0.954081
-0.146881 -0.0586655 0.954167
-0.146391 -0.0601043 0.954424
-0.1459 -0.0615438 0.954682
-0.145421 -0.0629886 0.955018
-0.144932 -0.0644303 0.95529
-0.144429 -0.0658664 0.955467
-0.1439 -0.0672907 0.955463
-0.143376 -0.0687177 0.955502
-0.14283 -0.0701334 0.955382
-0.142286 -0.0715496 0.955274
-0.141768 -0.0729783 0.955348
-0.141274 -0.0744199 0.955594
-0.140783 -0.0758633 0.955857
-0.140306 -0.0773149 0.956219
-0.139841 -0.0787746 0.956668
-0.139401 -0.0802503 0.957301
-0.138963 -0.0817286 0.957945
-0.138525 -0.0832099 0.958603
-0.13805 -0.0846703 0.958995
-0.137567 -0.0861268 0.95933
-0.13703 -0.0875502 0.959285
-0.13647 -0.0889577 0.959069
-0.135912 -0.0903651 0.95886
-0.135378 -0.091788 0.958827
-0.134859 -0.0932208 0.958901
-0.134401 -0.0946976 0.95943
-0.133971 -0.0961966 0.96017
-0.13358 -0.0977274 0.961207
-0.133236 -0.0992976 0.962601
-0.132905 -0.100884 0.964107
-0.132586 -0.102485 0.965721
-0.132277 -0.104101 0.967419
-0.131991 -0.105742 0.969305
-0.131729 -0.107411 0.971392
-0.13153 -0.109142 0.973979
-0.131419 -0.110961 0.977275
-0.131365 -0.112842 0.981034
-0.131324 -0.114752 0.984933
-0.131276 -0.116671 0.988812
-0.131182 -0.118565 0.992372
-0.130966 -0.120355 0.994986
-0.130693 -0.122102 0.99718
-0.130436 -0.123875 0.999525
-0.171733 -0.00668884 0.996583
-0.171001 -0.00818829 0.99555
-0.170332 -0.00968503 0.994883
-0.169544 -0.0111766 0.993498
-0.168646 -0.0126598 0.991449
-0.167782 -0.0141377 0.989592
-0.166878 -0.0156071 0.987481
-0.166329 -0.0175389 0.978513
-0.165106 -0.0170157 0.980113
-0.153898 -0.0219836 0.924891
-0.152257 -0.0232399 0.917962
-0.151751 -0.0246118 0.917988
-0.151192 -0.0259763 0.917677
-0.150559 -0.027329 0.916907
-0.149921 -0.0286782 0.916099
-0.149281 -0.0300239 0.915268
-0.148607 -0.0313607 0.914224
-0.14799 -0.0327041 0.913524
-0.147454 -0.0340609 0.913332
-0.1469 -0.0354132 0.91303
-0.146431 -0.0367827 0.913264
-0.145962 -0.0381525 0.913497
-0.145534 -0.039533 0.913995
-0.145109 -0.0409157 0.914519
-0.14471 -0.0423066 0.915208
-0.144307 -0.0436988 0.91588
-0.143902 -0.0450926 0.916547
-0.143679 -0.0465422 0.918401
-0.143663 -0.0480625 0.921637
-0.144256 -0.0497893 0.928918
-0.144873 -0.0515496 0.936409
-0.145487 -0.0533358 0.943943
-0.145846 -0.0550582 0.949834
-0.145935 -0.056702 0.953957
-0.145449 -0.0581415 0.95424
-0.144974 -0.0595864 0.954605
-0.144497 -0.0610312 0.954953
-0.144019 -0.0624772 0.955304
-0.14353 -0.0639189 0.955574
-0.143016 -0.0653506 0.95568
-0.142484 -0.0667741 0.95566
-0.141959 -0.0682004 0.955686
-0.1414 -0.0696101 0.955475
-0.140855 -0.0710263 0.955367
-0.140337 -0.072455 0.955441
-0.139831 -0.0738899 0.955598
-0.139326 -0.0753256 0.95576
-0.138833 -0.0767686 0.956017
-0.138342 -0.0782127 0.956279
-0.137874 -0.0796715 0.956715
-0.137421 -0.0811404 0.95726
-0.136971 -0.0826129 0.957832
-0.136483 -0.0840638 0.95813
-0.136012 -0.0855259 0.958551
-0.135502 -0.0869652 0.9587
-0.13497 -0.0883898 0.958683
-0.13444 -0.0898148 0.958673
-0.133943 -0.0912627 0.958914
-0.13346 -0.0927213 0.959261
-0.133015 -0.0942083 0.959894
-0.132599 -0.0957187 0.960747
-0.132217 -0.0972572 0.96186
-0.13187 -0.0988276 0.963255
-0.131524 -0.100404 0.964667
-0.131216 -0.102016 0.966377
-0.130919 -0.103643 0.968191
-0.130644 -0.105297 0.970194
-0.130391 -0.106977 0.972377
-0.130198 -0.108717 0.975048
-0.130057 -0.110513 0.978153
-0.129969 -0.112371 0.981703
-0.129893 -0.114253 0.985377
-0.1298 -0.116135 0.988947
-0.129665 -0.117991 0.992214
-0.129443 -0.119779 0.994819
-0.129166 -0.121525 0.997013
-0.12891 -0.123298 0.999382
-0.130173 -0.12565 1.00183
-0.128658 -0.125086 1.00181
-0.169457 -0.00763953 0.99538
-0.168746 -0.00913582 0.994452
-0.167977 -0.0106277 0.993174
-0.167068 -0.0121112 0.991035
-0.166206 -0.0135892 0.989168
-0.165258 -0.0150567 0.986761
-0.163883 -0.016491 0.981737
-0.151633 -0.0228193 0.922708
-0.150814 -0.0241614 0.920796
-0.149976 -0.0254943 0.91875
-0.149427 -0.0268608 0.9185
-0.148866 -0.0282244 0.918173
-0.148236 -0.0295754 0.917404
-0.147518 -0.0309084 0.916075
-0.146843 -0.0322446 0.915012
-0.146239 -0.0335906 0.914388
-0.145622 -0.0349316 0.913676
-0.145141 -0.0362992 0.913833
-0.14466 -0.0376673 0.913994
-0.144232 -0.0390484 0.914501
-0.143795 -0.0404287 0.914948
-0.143381 -0.0418162 0.915552
-0.14295 -0.0432011 0.916047
-0.142708 -0.0446413 0.917793
-0.142674 -0.046149 0.920927
-0.142878 -0.0477412 0.925667
-0.14348 -0.049477 0.933095
-0.144086 -0.0512409 0.940613
-0.144442 -0.0529454 0.946511
-0.144573 -0.0545908 0.950931
-0.144462 -0.0561629 0.953751
-0.143991 -0.0576079 0.954142
-0.143531 -0.059058 0.954606
-0.143065 -0.0605076 0.95504
-0.142587 -0.0619532 0.95539
-0.142098 -0.063395 0.955661
-0.141584 -0.0648265 0.955766
-0.141039 -0.066244 0.955652
-0.140514 -0.0676704 0.955681
-0.139943 -0.0690742 0.955384
-0.1394 -0.0704906 0.955282
-0.138883 -0.0719193 0.95536
-0.138377 -0.0733541 0.955518
-0.13786 -0.0747831 0.955599
-0.137365 -0.0762244 0.955838
-0.136859 -0.0776603 0.956001
-0.136366 -0.0791038 0.956257
-0.135898 -0.0805627 0.956694
-0.135432 -0.0820242 0.957149
-0.134932 -0.083466 0.957356
-0.134461 -0.0849272 0.957784
-0.133977 -0.086381 0.958116
-0.133474 -0.0878235 0.95831
-0.132982 -0.0892736 0.958584
-0.132533 -0.0907545 0.959186
-0.132087 -0.0922398 0.959815
-0.131656 -0.0937384 0.960564
-0.131262 -0.0952667 0.961598
-0.130889 -0.0968145 0.962797
-0.130528 -0.0983764 0.964103
-0.130179 -0.0999526 0.965508
-0.129878 -0.101573 0.9673
-0.129579 -0.103202 0.969125
-0.129303 -0.104858 0.971147
-0.129049 -0.10654 0.973353
-0.128851 -0.10828 0.976026
-0.128682 -0.110056 0.978947
-0.128561 -0.111888 0.982281
-0.12844 -0.113733 0.985645
-0.128315 -0.115588 0.989001
-0.128138 -0.117409 0.99198
-0.127901 -0.119184 0.994493
-0.127614 -0.120918 0.996617
-0.127367 -0.122704 0.999102
-0.127124 -0.124503 1.00163
-0.168676 -0.00559076 0.996452
-0.167962 -0.00709091 0.995505
-0.167217 -0.00858764 0.99436
-0.166419 -0.0100795 0.992889
-0.165494 -0.0115631 0.990633
-0.164605 -0.0130405 0.988581
-0.163618 -0.0145063 0.985908
-0.162606 -0.0159619 0.983065
-0.15061 -0.0237949 0.928274
-0.14951 -0.0251075 0.92458
-0.148759 -0.0264557 0.923064
-0.147932 -0.0277873 0.92106
-0.14748 -0.0291719 0.921432
-0.146948 -0.0305438 0.921294
-0.146193 -0.0318744 0.919719
-0.145475 -0.0332065 0.918371
-0.144806 -0.034544 0.917333
-0.144054 -0.0358595 0.915742
-0.143329 -0.0371754 0.914313
-0.142912 -0.0385593 0.914896
-0.142484 -0.0399424 0.915411
-0.142076 -0.0413322 0.91606
-0.141618 -0.0427105 0.916384
-0.14155 -0.0442002 0.919309
-0.141716 -0.0457691 0.923815
-0.142127 -0.0474296 0.930013
-0.142731 -0.0491732 0.937551
-0.14328 -0.0509256 0.944784
-0.143386 -0.0525513 0.94906
-0.143294 -0.0541214 0.952014
-0.142993 -0.0556252 0.953565
-0.142536 -0.0570751 0.954057
-0.142088 -0.0585298 0.954609
-0.141634 -0.0599837 0.955123
-0.141154 -0.0614287 0.955463
-0.140651 -0.0628646 0.955645
-0.140136 -0.0642956 0.955741
-0.139579 -0.0657073 0.955543
-0.139043 -0.0671278 0.955487
-0.138461 -0.0685258 0.955105
-0.137918 -0.0699416 0.955003
-0.137401 -0.0713698 0.955082
-0.136898 -0.072805 0.955256
-0.136393 -0.0742401 0.955425
-0.135899 -0.0756816 0.955674
-0.135393 -0.0771167 0.955832
-0.134887 -0.0785524 0.955996
-0.134405 -0.0800023 0.95633
-0.133913 -0.0814471 0.956595
-0.13342 -0.0828922 0.956857
-0.132961 -0.08436 0.957373
-0.132493 -0.0858235 0.957826
-0.132016 -0.0872827 0.958217
-0.131559 -0.0887566 0.95876
-0.131135 -0.0902557 0.95956
-0.130715 -0.0917601 0.960393
-0.1303 -0.093271 0.961268
-0.129926 -0.0948166 0.962476
-0.129562 -0.0963735 0.963763
-0.129198 -0.0979352 0.965059
-0.128859 -0.0995222 0.966566
-0.128575 -0.10116 0.968524
-0.128274 -0.102791 0.970357
-0.127983 -0.104438 0.972287
-0.127712 -0.10611 0.974395
-0.127477 -0.10782 0.9768
-0.127268 -0.109566 0.979449
-0.12712 -0.111375 0.982605
-0.12697 -0.113197 0.985774
-0.126814 -0.115027 0.988926
-0.126619 -0.116833 0.991793
-0.126366 -0.118593 0.994205
-0.126086 -0.120337 0.996423
-0.125849 -0.122134 0.999014
-0.125616 -0.123946 1.00166
-0.167872 -0.0035379 0.997402
-0.167128 -0.00504232 0.996264
-0.16641 -0.00654269 0.995286
-0.165644 -0.00803951 0.993999
-0.164833 -0.00953138 0.992429
-0.163906 -0.0110153 0.990135
-0.163004 -0.0124924 0.98798
-0.162023 -0.0139588 0.985314
-0.161018 -0.0154151 0.982483
-0.160568 -0.0173402 0.973861
-0.159388 -0.0168225 0.975724
-0.149323 -0.0247513 0.932307
-0.148332 -0.0260802 0.929267
-0.147283 -0.0273902 0.92584
-0.146594 -0.0287452 0.924702
-0.146306 -0.0301639 0.926158
-0.145744 -0.0315377 0.925834
-0.14521 -0.0329158 0.925698
-0.144704 -0.0342988 0.925745
-0.143112 -0.036934 0.921998
-0.142417 -0.0382652 0.920773
-0.141693 -0.0395848 0.919342
-0.140987 -0.040904 0.918023
-0.140454 -0.042265 0.917851
-0.140579 -0.0438116 0.922113
-0.140956 -0.0454472 0.92811
-0.141574 -0.0471778 0.935791
-0.14213 -0.0489158 0.94311
-0.142434 -0.0505965 0.948767
-0.14231 -0.05215 0.951525
-0.142001 -0.0536472 0.953027
-0.141515 -0.0550845 0.953315
-0.14107 -0.056538 0.953887
-0.140621 -0.0579919 0.954438
-0.140166 -0.0594454 0.954954
-0.139685 -0.0608894 0.95529
-0.139181 -0.0623242 0.955462
-0.138664 -0.0637538 0.955544
-0.138108 -0.0651655 0.955348
-0.13756 -0.06658 0.955206
-0.136977 -0.0679764 0.954807
-0.136434 -0.0693911 0.954696
-0.135916 -0.0708182 0.954768
-0.135427 -0.0722602 0.955046
-0.134936 -0.0737023 0.955317
-0.134456 -0.0751509 0.955664
-0.133962 -0.0765927 0.955915
-0.133445 -0.078022 0.955998
-0.13295 -0.0794645 0.956244
-0.132444 -0.0809007 0.956407
-0.131939 -0.0823379 0.956579
-0.13148 -0.083805 0.957099
-0.131025 -0.0852762 0.95765
-0.130561 -0.0867435 0.958141
-0.130127 -0.0882335 0.958869
-0.129738 -0.089757 0.959941
-0.129333 -0.0912732 0.960899
-0.128929 -0.0927942 0.96188
-0.128564 -0.0943473 0.963165
-0.128208 -0.0959125 0.964535
-0.127855 -0.0974855 0.965941
-0.127528 -0.0990851 0.967569
