ply
format ascii 1.0
element vertex 1622
property float x
property float y
property float z
end_header
0.0097356 -0.0109139 0.941135
0.00999296 -0.0124051 0.941471
0.010254 -0.0138957 0.941861
0.0105029 -0.0153914 0.942064
0.0107459 -0.0168892 0.942176
0.0109889 -0.0183871 0.942288
0.0112382 -0.0198833 0.942493
0.0115057 -0.0213757 0.942974
0.0117702 -0.0228698 0.943406
0.0120401 -0.0243643 0.943916
0.0123149 -0.0258592 0.944497
0.0126009 -0.0273542 0.94524
0.0128719 -0.028853 0.945755
0.0131494 -0.0303526 0.946364
0.0134069 -0.0318549 0.946677
0.013661 -0.0333581 0.946938
0.0138787 -0.034862 0.946669
0.0141018 -0.0363646 0.94648
0.0143256 -0.0378663 0.946303
0.0145678 -0.0393684 0.946394
0.0148124 -0.0408705 0.946519
0.0151003 -0.0423775 0.947263
0.0153918 -0.043887 0.948052
0.0157043 -0.045402 0.949135
0.0160173 -0.0469203 0.950217
0.0163495 -0.0484454 0.951562
0.0166637 -0.0499706 0.952647
0.0169984 -0.0515038 0.954011
0.0173277 -0.0530395 0.95529
0.0177044 -0.0545928 0.957218
0.0180993 -0.0561574 0.959385
0.0186083 -0.0577665 0.963108
0.0191631 -0.0594032 0.967436
0.0197546 -0.061067 0.972233
0.0203397 -0.0627428 0.976911
0.0209216 -0.0644307 0.981515
0.0213956 -0.0660851 0.984626
0.0203314 -0.0679891 0.988227
0.0218401 -0.0677359 0.987319
0.00422404 0.0537601 0.985136
0.0044204 0.0520837 0.984189
0.00462284 0.0504217 0.983359
0.0047801 0.0486925 0.981739
0.00493828 0.0469722 0.980154
0.00507133 0.045221 0.978141
0.00519419 0.0434638 0.97597
0.0021453 0.0300984 0.902963
0.00235411 0.0286282 0.90265
0.00256012 0.0271562 0.902294
0.00275085 0.0256681 0.901687
0.00292892 0.024168 0.900871
0.00312463 0.0226915 0.900361
0.00332985 0.0212277 0.900011
0.00353672 0.0197674 0.899694
0.00374482 0.01831 0.899401
0.00396671 0.0168678 0.899336
0.00418744 0.0154251 0.899255
0.00440927 0.0139842 0.899192
0.00463148 0.0125443 0.89914
0.00487294 0.0111217 0.899397
0.00512549 0.00970771 0.89983
0.00538035 0.00829456 0.900298
0.00566689 0.00690449 0.901269
0.0059551 0.00551254 0.902256
0.00624977 0.00412195 0.903339
0.00653892 0.00272395 0.904328
0.00707252 0.00148402 0.909137
0.00776886 0.000329583 0.916444
0.00850266 -0.000828349 0.924274
0.00920512 -0.00203246 0.931556
0.0098765 -0.00327937 0.938303
0.010269 -0.00469493 0.94072
0.0105002 -0.0061981 0.940651
0.0107357 -0.00769849 0.940651
0.0109848 -0.00919264 0.940857
0.0112348 -0.0106868 0.941076
0.0114916 -0.0121786 0.941398
0.0117471 -0.0136716 0.941696
0.0119958 -0.0151676 0.941894
0.0122385 -0.0166657 0.942
0.0124758 -0.0181654 0.942027
0.012725 -0.0196616 0.942229
0.012993 -0.0211538 0.942708
0.0132578 -0.022648 0.943137
0.0135349 -0.0241411 0.943743
0.0138172 -0.0256351 0.944421
0.0141056 -0.0271301 0.945183
0.0143841 -0.0286284 0.945797
0.0146679 -0.030128 0.946485
0.0149269 -0.0316308 0.946811
0.0151767 -0.0331347 0.947004
0.0153996 -0.0346391 0.946817
0.0156155 -0.0361425 0.946532
0.015831 -0.0376444 0.946243
0.01606 -0.039146 0.946149
0.0162964 -0.0406475 0.94616
0.0165724 -0.0421529 0.946723
0.0168578 -0.0436607 0.947412
0.0171716 -0.045175 0.948492
0.0174995 -0.0466946 0.949759
0.0178416 -0.0482207 0.951214
0.0181716 -0.0497485 0.952493
0.0185217 -0.0512848 0.954038
0.0188666 -0.0528242 0.955501
0.019254 -0.0543801 0.957533
0.0196742 -0.0559517 0.959994
0.0201902 -0.0575619 0.96373
0.0207457 -0.0591972 0.967967
0.0213287 -0.0608543 0.972546
0.0219052 -0.0625233 0.977007
0.022473 -0.0642026 0.981322
0.0229374 -0.0658507 0.984239
0.0233708 -0.0674928 0.986731
0.0222758 -0.0693892 0.989875
0.0238012 -0.0691408 0.989166
0.00570718 0.0538569 0.98341
0.00590542 0.0521894 0.982535
0.0061194 0.0505505 0.981937
0.00627347 0.0488229 0.980318
0.00642378 0.0470968 0.97865
0.00654869 0.045341 0.976566
0.00667373 0.0435944 0.974503
0.0037108 0.0304834 0.904981
0.00378062 0.0288393 0.902375
0.00398574 0.0273673 0.90202
0.00417551 0.0258793 0.901415
0.00434665 0.024373 0.900514
0.00453226 0.0228865 0.899853
0.00473141 0.0214174 0.89942
0.00492742 0.0199473 0.898943
0.00513416 0.01849 0.898639
0.00536068 0.0170535 0.898657
0.00557801 0.0156087 0.898527
0.00580951 0.0141777 0.898625
0.00604101 0.0127468 0.898723
0.00628343 0.0113251 0.898991
0.00653761 0.00991254 0.899443
0.00680323 0.0085075 0.900069
0.00709122 0.00711775 0.901039
0.00738046 0.00572567 0.902022
0.00767112 0.00433133 0.903018
0.00795566 0.00292959 0.903913
0.00858104 0.00174555 0.910004
0.0092987 0.000596736 0.917447
0.0100459 -0.000561318 0.925279
0.0107606 -0.00176564 0.932564
0.0114397 -0.00301493 0.939253
0.011751 -0.00447543 0.940394
0.0119936 -0.00597278 0.940501
0.0122367 -0.00747002 0.940615
0.0124915 -0.00896211 0.940902
0.0127476 -0.0104543 0.941207
0.0130037 -0.0119472 0.941513
0.0132476 -0.0134451 0.941636
0.0134955 -0.0149417 0.941817
0.0137315 -0.0164421 0.941828
0.0139626 -0.0179436 0.941767
0.0142116 -0.0194398 0.941963
0.0144736 -0.0209335 0.942348
0.0147376 -0.0224277 0.942757
0.0150092 -0.0239216 0.943274
0.0152864 -0.0254159 0.943866
0.0155756 -0.0269104 0.944627
0.0158608 -0.0284075 0.945323
0.0161471 -0.0299064 0.946032
0.0164129 -0.0314085 0.946452
0.0166693 -0.032912 0.946736
0.0168922 -0.0344165 0.946555
0.0171075 -0.03592 0.94627
0.0173223 -0.037422 0.945982
0.017551 -0.0389235 0.945888
0.0177874 -0.0404251 0.945899
0.018064 -0.0419304 0.946461
0.0183503 -0.0434381 0.94715
0.0186656 -0.0449521 0.94823
0.0190024 -0.0464727 0.94959
0.0193543 -0.0479999 0.951145
0.0197012 -0.0495308 0.952625
0.0200612 -0.0510692 0.954269
0.0204232 -0.052613 0.95593
0.0208144 -0.0541694 0.957967
0.0212464 -0.055744 0.960528
0.0217628 -0.057353 0.964185
0.0223104 -0.0589827 0.968229
0.0228787 -0.0606325 0.972515
0.023446 -0.0622945 0.976764
0.0239918 -0.0639619 0.980701
0.0244377 -0.0655985 0.983322
0.0248654 -0.0672347 0.985689
0.0252976 -0.0688811 0.9881
0.00720329 0.0539818 0.981989
0.00739825 0.0523137 0.981089
0.00761215 0.0506787 0.980515
0.00777626 0.0489724 0.979118
0.00791796 0.0472395 0.97736
0.00804965 0.0455001 0.975453
0.00817038 0.0437536 0.973383
0.00528886 0.0308758 0.90708
0.00521629 0.0290616 0.90225
0.00542572 0.0275951 0.901974
0.00562374 0.0261171 0.90152
0.00579276 0.0246094 0.900609
0.00596665 0.0231109 0.899784
0.00614905 0.0216249 0.899101
0.00633227 0.0201428 0.898438
0.00652694 0.0186747 0.897958
0.0067531 0.0172388 0.897973
0.00697053 0.0157953 0.897855
0.0072125 0.0143744 0.898116
0.00744977 0.012949 0.898303
0.00770322 0.0115366 0.898736
0.00796427 0.0101291 0.899285
0.00823729 0.00872928 0.900011
0.00852115 0.00733516 0.900894
0.00880539 0.00593854 0.901779
0.0090905 0.00453951 0.902669
0.00945056 0.00318731 0.904675
0.0101673 0.00205461 0.911971
0.0109061 0.000908917 0.919537
0.0116661 -0.000251291 0.927361
0.0123852 -0.00146221 0.934524
0.012988 -0.00275988 0.939929
0.0132317 -0.00425647 0.940053
0.0134874 -0.00574749 0.94035
0.0137432 -0.00723921 0.940648
0.0140046 -0.00872908 0.941025
0.0142615 -0.0102218 0.941336
0.0145118 -0.0117176 0.941552
0.0147495 -0.0132181 0.941585
0.0149901 -0.0147174 0.941662
0.0152195 -0.01622 0.941578
0.0154495 -0.0177218 0.941506
0.0156925 -0.0192196 0.941618
0.0159479 -0.0207146 0.941904
0.0162047 -0.02221 0.942206
0.0164687 -0.0237047 0.942609
0.0167392 -0.0251995 0.943099
0.0170234 -0.0266937 0.943776
0.0173087 -0.0281897 0.944464
0.0175953 -0.0296875 0.945167
0.0178626 -0.0311885 0.9456
0.0181258 -0.0326907 0.945976
0.0183608 -0.0341942 0.945968
0.0185831 -0.0356972 0.945786
0.0188055 -0.0371994 0.945612
0.0190412 -0.0387012 0.945616
0.0192849 -0.0402032 0.945729
0.0195631 -0.0417085 0.946301
0.0198576 -0.0432173 0.947085
0.0201751 -0.0447313 0.948171
0.0205205 -0.0462529 0.949617
0.0208753 -0.0477804 0.951178
0.021239 -0.0493145 0.952847
0.0216101 -0.0508551 0.954602
0.0219966 -0.0524047 0.956546
0.0224 -0.0539645 0.958694
0.0228433 -0.055542 0.961348
0.0233436 -0.0571451 0.964718
0.023882 -0.0587702 0.968558
0.0244336 -0.0604119 0.97254
0.0249854 -0.0620654 0.976501
0.0255141 -0.0637223 0.98014
0.025969 -0.0653599 0.982823
0.0263916 -0.0669918 0.985081
0.0268276 -0.0686366 0.987492
0.00872876 0.0541576 0.981112
0.00891558 0.0524808 0.98011
0.00912446 0.0508414 0.979477
0.00928839 0.0491395 0.97812
0.00941013 0.0473837 0.976093
0.0095427 0.0456517 0.97426
0.00965836 0.0439045 0.97217
0.00781575 0.0413705 0.963531
0.00944101 0.0417247 0.96478
0.00687901 0.0312746 0.909247
0.00666322 0.0292967 0.902295
0.00689378 0.0278542 0.902357
0.00710246 0.0263876 0.902079
0.00728097 0.0248902 0.901338
0.00745648 0.0233928 0.900559
0.00763003 0.0218969 0.899756
0.00778901 0.0203902 0.898739
0.0079703 0.0189091 0.898068
0.00818503 0.017462 0.897911
0.00839208 0.0160091 0.897641
0.00863514 0.0145889 0.897913
0.00887808 0.013168 0.898183
0.00913908 0.0117612 0.898721
0.00940202 0.0103543 0.899285
0.00967642 0.00895444 0.900016
0.00995013 0.00755169 0.90073
0.0102237 0.00614666 0.901438
0.0105796 0.00479503 0.903345
0.011032 0.00349958 0.906647
0.0117674 0.00236877 0.914032
0.0125212 0.00122249 0.921628
0.013282 5.30709e-05 0.929269
0.0139313 -0.00120437 0.935252
0.0144589 -0.00254606 0.939451
0.0147165 -0.00403552 0.939774
0.0149801 -0.00552287 0.940179
0.0152426 -0.00701176 0.940568
0.0155055 -0.00850158 0.94096
0.0157628 -0.00999449 0.941269
0.0160082 -0.0114924 0.941413
0.0162446 -0.0129936 0.94143
0.0164842 -0.0144935 0.941494
0.0167066 -0.0159981 0.941317
0.0169363 -0.0175 0.941246
0.0171793 -0.0189978 0.941357
0.0174285 -0.0204942 0.941554
0.0176781 -0.021991 0.941755
0.0179347 -0.0234866 0.942051
0.0181919 -0.0249829 0.942352
0.0184621 -0.0264781 0.94283
0.0187407 -0.0279737 0.943418
0.0190216 -0.0294706 0.944033
0.0192821 -0.0309706 0.944371
0.0195521 -0.0324708 0.944834
0.0198014 -0.0339727 0.945022
0.0200381 -0.0354747 0.945041
0.0202754 -0.0369765 0.945069
0.0205318 -0.0384787 0.945349
0.0207966 -0.0399822 0.945737
0.0210837 -0.0414885 0.946415
0.0213882 -0.0429987 0.947314
0.0217134 -0.0445141 0.948476
0.0220612 -0.0460363 0.949923
0.022411 -0.0475633 0.951387
0.022785 -0.0490991 0.953153
0.023168 -0.0506422 0.955024
0.023567 -0.0521947 0.957086
0.0239815 -0.0537572 0.95933
0.024436 -0.0553375 0.962068
0.0249264 -0.0569363 0.965245
0.0254546 -0.0585577 0.968871
0.0259944 -0.060193 0.972624
0.0265276 -0.0618374 0.976272
0.0270381 -0.0634839 0.979613
0.0274965 -0.0651207 0.982286
0.0279225 -0.0667522 0.984542
0.0283641 -0.0683963 0.986977
0.0272619 -0.0702874 0.989867
0.0288117 -0.0700501 0.989473
0.0104581 0.0526883 0.979568
0.010649 0.051025 0.978672
0.0108172 0.0493335 0.977424
0.0109295 0.0475697 0.975307
0.0110581 0.0458373 0.973464
0.0111509 0.0440651 0.971077
0.0110728 0.0420818 0.966053
0.00839972 0.0298615 0.906739
0.00850278 0.028268 0.904848
0.00859594 0.0266717 0.902822
0.00880801 0.0252089 0.902605
0.00901489 0.023742 0.902312
0.0091916 0.0222467 0.901572
0.0093301 0.0207177 0.900267
0.00948589 0.0192103 0.899231
0.00967098 0.0177339 0.898637
0.0098497 0.0162545 0.897955
0.0100877 0.0148289 0.898149
0.010326 0.0134031 0.898347
0.0105886 0.0119962 0.898894
0.010847 0.0105846 0.89938
0.0111168 0.00917997 0.900025
0.011379 0.00776796 0.90056
0.0117296 0.00641537 0.902357
0.0121791 0.0051224 0.905555
0.012744 0.00389153 0.910371
0.0135029 0.00276239 0.917902
0.0142721 0.00161218 0.925524
0.0149289 0.000371838 0.93151
0.0154827 -0.000945028 0.936008
0.015923 -0.00233547 0.93889
0.0161888 -0.00382054 0.939322
0.01646 -0.00530423 0.939827
0.0167293 -0.00679008 0.940302
0.0169925 -0.00827981 0.940692
0.0172501 -0.0097727 0.941004
0.0174956 -0.0112706 0.941147
0.0177249 -0.0127742 0.941069
0.0179646 -0.0142739 0.941135
0.01818 -0.0157803 0.940872
0.0184099 -0.0172817 0.940806
0.0186532 -0.0187792 0.940922
0.0189025 -0.0202754 0.941119
0.019146 -0.0217729 0.941238
0.0194016 -0.0232684 0.941517
0.0196513 -0.0247654 0.941718
0.0199084 -0.0262616 0.942014
0.0201794 -0.0277571 0.942492
0.0204519 -0.0292536 0.942989
0.0207055 -0.0307526 0.943236
0.0209763 -0.0322513 0.943705
0.0212398 -0.0337513 0.944077
0.0214927 -0.0352522 0.944311
0.0217519 -0.0367537 0.944625
0.022037 -0.0382569 0.94527
0.0223245 -0.039762 0.945942
0.0226218 -0.0412698 0.946736
0.022942 -0.0427823 0.947817
0.023276 -0.0442995 0.949067
0.0236191 -0.0458217 0.950423
0.0239707 -0.0473496 0.95188
0.0243542 -0.0488875 0.953728
0.0247413 -0.0504317 0.95561
0.0251453 -0.0519855 0.95769
0.0255653 -0.0535494 0.959957
0.0260244 -0.0551305 0.962696
0.0265052 -0.0567265 0.965685
0.0270213 -0.0583418 0.969092
0.0275417 -0.0599684 0.97253
0.0280632 -0.0616064 0.975961
0.028555 -0.0632442 0.97901
0.0290098 -0.0648765 0.981588
0.0294334 -0.0665035 0.983774
0.0298884 -0.068151 0.986324
0.0303482 -0.0698076 0.98892
0.01183 0.0545922 0.980238
0.0120187 0.0529235 0.979324
0.0121938 0.0512398 0.978209
0.0123471 0.0495307 0.976767
0.0124481 0.0477566 0.974533
0.012561 0.0460083 0.972505
0.0126319 0.044214 0.969851
0.01269 0.0424145 0.967025
0.0104386 0.0290292 0.912043
0.0104175 0.0273005 0.908356
0.0105439 0.0257385 0.906865
0.0106359 0.0241482 0.904881
0.0108908 0.0227248 0.905292
0.0111105 0.021267 0.905189
0.0112302 0.0197179 0.903637
0.0113647 0.0181886 0.902314
0.0115204 0.0166827 0.901304
0.0116364 0.0151481 0.899736
0.011763 0.0136282 0.898331
0.0120315 0.0122253 0.898954
0.0122956 0.0108169 0.899509
0.0125695 0.00941405 0.900199
0.0128203 0.0079928 0.900562
0.0132587 0.00669788 0.903547
0.0138128 0.00546784 0.908126
0.0144921 0.00429992 0.914412
0.0152721 0.00317008 0.92205
0.016034 0.00200239 0.929382
0.0165827 0.000690986 0.933731
0.0170362 -0.000685793 0.936747
0.0173877 -0.00212422 0.938349
0.0176614 -0.00360512 0.938883
0.0179398 -0.00508547 0.939477
0.0182155 -0.00656864 0.940032
0.0184785 -0.00805857 0.940412
0.0187298 -0.00955386 0.940634
0.0189746 -0.011052 0.940768
0.0191972 -0.0125574 0.940605
0.0194304 -0.0140586 0.940586
0.0196386 -0.0155668 0.940237
0.019868 -0.0170676 0.940172
0.0201112 -0.0185644 0.940288
0.0203619 -0.0200596 0.940502
0.0206121 -0.0215553 0.940709
0.0208686 -0.0230502 0.940997
0.0211182 -0.0245467 0.941194
0.0213682 -0.0260435 0.941397
0.0216316 -0.0275391 0.941772
0.0218897 -0.029036 0.942076
0.0221476 -0.0305335 0.942377
0.0224259 -0.0320309 0.942936
0.0226992 -0.0335299 0.94343
0.022968 -0.0350301 0.943863
0.023249 -0.0365315 0.944448
0.0235509 -0.0380353 0.945293
0.0238559 -0.0395417 0.946171
0.0241646 -0.041051 0.947092
0.0245006 -0.0425657 0.948349
0.0248437 -0.0440848 0.949685
0.0251883 -0.0456081 0.951032
0.0255508 -0.0471383 0.952592
0.0259509 -0.0486799 0.954606
0.026342 -0.0502257 0.956496
0.0267417 -0.0517792 0.958482
0.0271574 -0.0533424 0.960649
0.0275988 -0.0549186 0.963116
0.0280618 -0.0565089 0.96583
0.0285683 -0.058119 0.969056
0.0290779 -0.0597407 0.972296
0.0295876 -0.0613717 0.975519
0.0300748 -0.0630057 0.978453
0.0305249 -0.0646331 0.980929
0.0309598 -0.0662625 0.983209
0.0314276 -0.0679122 0.985865
0.0319013 -0.0695722 0.988575
0.0131969 0.0564883 0.980784
0.0133717 0.0547976 0.979678
0.0135566 0.0531261 0.978732
0.0137201 0.0514295 0.977476
0.0138641 0.0497117 0.975934
0.0139584 0.0479347 0.973663
0.0140608 0.0461779 0.971532
0.0141275 0.0443847 0.968887
0.0141812 0.0425867 0.966074
0.0123223 0.0401001 0.957791
0.013965 0.0404735 0.959306
0.012391 0.0280699 0.915798
0.0124097 0.0263866 0.912773
0.0123995 0.0246869 0.909356
0.0125494 0.0231537 0.908246
0.0128828 0.0217954 0.909749
0.0130902 0.0203183 0.909458
0.0133107 0.0188542 0.909358
0.0135444 0.017402 0.909441
0.0137336 0.014277 0.905738
0.0138738 0.0127605 0.904539
0.0139982 0.0112371 0.903132
0.01413 0.0097247 0.90184
0.0143454 0.00827528 0.901702
0.0148874 0.00704431 0.906034
0.0155598 0.00588143 0.912114
0.0163604 0.00477579 0.919893
0.0171381 0.00362863 0.927308
0.0177954 0.00238666 0.933047
0.0182383 0.00100794 0.935865
0.0185879 -0.000428683 0.937416
0.0188466 -0.00191551 0.937744
0.019127 -0.00339293 0.938358
0.0194059 -0.00487275 0.938951
0.0196826 -0.00635536 0.939509
0.0199457 -0.00784484 0.939884
0.0201962 -0.00933989 0.940095
0.02044 -0.0108379 0.940215
0.020662 -0.012343 0.940054
0.0208883 -0.0138459 0.939948
0.0210944 -0.0153538 0.939584
0.0213228 -0.0168541 0.939509
0.0215653 -0.0183504 0.939619
0.0218242 -0.0198432 0.939936
0.0220825 -0.0213367 0.940247
0.0223471 -0.0228299 0.940634
0.0226042 -0.024325 0.940925
0.0228478 -0.0258226 0.941046
0.0231046 -0.0273188 0.941331
0.0233547 -0.0288162 0.941532
0.0236058 -0.0303138 0.941744
0.0238849 -0.0318103 0.942306
0.0241668 -0.0333083 0.942899
0.024444 -0.0348079 0.943431
0.0247409 -0.0363092 0.944203
0.0250662 -0.0378137 0.945322
0.0253827 -0.039321 0.946327
0.0257016 -0.0408314 0.947354
0.0260462 -0.0423471 0.948689
0.0263984 -0.0438677 0.950109
0.0267543 -0.0453931 0.951566
0.0271294 -0.0469258 0.953247
0.0275421 -0.0484701 0.955373
0.0279432 -0.0500185 0.957344
0.0283443 -0.051573 0.959306
0.0287536 -0.0531351 0.961353
0.0291822 -0.0547083 0.963618
0.0296254 -0.0562921 0.966043
0.0301209 -0.0578983 0.969073
0.0306201 -0.0595152 0.972128
0.03112 -0.0611405 0.975177
0.0316118 -0.0627727 0.978111
0.0320797 -0.0644057 0.980747
0.0325337 -0.0660408 0.983207
0.0330143 -0.0676933 0.985962
0.0335016 -0.0693573 0.988779
0.0149179 0.0550105 0.979198
0.0151075 0.0533483 0.978351
0.0152674 0.0516496 0.977073
0.0153895 0.0499063 0.975253
0.0154835 0.0481344 0.973039
0.0155744 0.0463677 0.970795
0.0156384 0.0445771 0.96818
0.0156892 0.0427814 0.965397
0.0156235 0.0408593 0.960961
0.013768 0.0384101 0.95287
0.0155735 0.0389732 0.95678
0.0142367 0.0269789 0.917846
0.01421 0.025258 0.914265
0.0143711 0.023727 0.913319
0.0152395 0.0211595 0.918992
0.0158828 0.0134098 0.912122
0.0158541 0.0117617 0.908653
0.015934 0.0102033 0.906671
0.0161226 0.00872651 0.906163
0.0166707 0.00748739 0.910465
0.0174574 0.00638323 0.917919
0.0182636 0.00526409 0.925582
0.0189296 0.00403581 0.931335
0.0194719 0.00271814 0.935418
0.0198033 0.00127361 0.936704
0.0200583 -0.00021428 0.936981
0.0203164 -0.00170117 0.937296
0.0205963 -0.00317868 0.937895
0.0208761 -0.00465808 0.938487
0.0211545 -0.0061396 0.93906
0.0214122 -0.00763103 0.939361
0.0216621 -0.00912603 0.939562
0.0218982 -0.0106262 0.939585
0.0221127 -0.012133 0.939334
0.0223317 -0.0136372 0.939143
0.0225428 -0.0151426 0.938853
0.022769 -0.0166428 0.938756
0.0230187 -0.0181365 0.938956
0.0232848 -0.019627 0.939363
0.0235526 -0.0211181 0.939788
0.0238249 -0.0226096 0.940268
0.0240903 -0.0241034 0.940658
0.0243344 -0.0256008 0.940783
0.0245847 -0.0270978 0.940986
0.0248277 -0.0285957 0.941098
0.0250784 -0.0300929 0.941303
0.0253584 -0.0315891 0.941867
0.0256425 -0.0330867 0.942478
0.0259271 -0.0345858 0.943091
0.026239 -0.036087 0.944034
0.0265813 -0.0375919 0.945336
0.0269082 -0.0390998 0.946447
0.0272436 -0.0406116 0.947653
0.0276049 -0.0421293 0.949162
0.027974 -0.0436525 0.950757
0.0283429 -0.0451804 0.952338
0.0287388 -0.0467171 0.954232
0.0291593 -0.0482635 0.956405
0.029564 -0.0498138 0.958379
0.0299527 -0.0513666 0.960155
0.0303477 -0.0529262 0.961993
0.0307613 -0.0544957 0.964038
0.0311899 -0.0560749 0.966247
0.0316722 -0.0576765 0.969067
0.0321679 -0.05929 0.972025
0.0326658 -0.0609138 0.974991
0.0331628 -0.0625458 0.97793
0.0336436 -0.0641802 0.980668
0.0341273 -0.0658251 0.983422
0.0346315 -0.0674848 0.986396
0.035135 -0.0691537 0.989343
0.0346685 -0.0713236 0.99943
0.0355987 -0.0708152 0.991824
0.0164384 0.0551886 0.978357
0.0166356 0.0535398 0.977644
0.0168002 0.0518511 0.976471
0.0169188 0.0501076 0.974648
0.0170215 0.0483516 0.972613
0.0171082 0.0465844 0.970368
0.0171694 0.0447954 0.967778
0.0172171 0.0430014 0.96502
0.0173019 0.0412618 0.962803
0.0173885 0.0395334 0.960628
0.016269 0.0260503 0.922325
0.0164457 0.0245191 0.921588
0.0180181 0.0108668 0.914968
0.0181851 0.00936025 0.91416
0.0187238 0.00809643 0.918221
0.0194182 0.00691483 0.924284
0.0200945 0.00570056 0.930072
0.0206321 0.00438624 0.934025
0.021057 0.00299612 0.936498
0.0212854 0.00149418 0.936428
0.0215341 3.11995e-06 0.936622
0.0217849 -0.00148724 0.93684
0.0220636 -0.00296518 0.937412
0.022344 -0.00444407 0.938004
0.0226253 -0.00592431 0.938603
0.0228843 -0.00741499 0.938918
0.0231404 -0.00890737 0.939195
0.023375 -0.0104078 0.939203
0.0235888 -0.0119146 0.938951
0.0238077 -0.0134185 0.938764
0.0240255 -0.0149218 0.938567
0.0242514 -0.0164219 0.938471
0.0245016 -0.0179155 0.938676
0.0247685 -0.0194058 0.939087
0.0250377 -0.0208967 0.939522
0.0253118 -0.0223878 0.940015
0.0255775 -0.0238815 0.940404
0.0258211 -0.0253791 0.940525
0.0260715 -0.026876 0.940726
0.0263146 -0.0283739 0.940838
0.0265651 -0.0298712 0.94104
0.0268456 -0.0313672 0.941602
0.0271369 -0.0328643 0.942288
0.0274307 -0.0343635 0.943
0.0277593 -0.0358648 0.944124
0.028112 -0.0373702 0.945524
0.0284481 -0.038879 0.946723
0.0287859 -0.0403914 0.947933
0.0291572 -0.0419105 0.949532
0.0295309 -0.0434344 0.951148
0.0299196 -0.0449653 0.952931
0.0303366 -0.0465054 0.955031
0.030778 -0.048056 0.957404
0.0311868 -0.0496079 0.959386
0.0315706 -0.051161 0.961069
0.0319521 -0.0527185 0.962717
0.0323446 -0.0542833 0.964481
0.0327431 -0.0558552 0.966304
0.0332017 -0.0574482 0.968802
0.0336904 -0.0590586 0.971625
0.0341844 -0.0606779 0.974496
0.034697 -0.0623124 0.977558
0.0352105 -0.0639564 0.980614
0.0357364 -0.0656136 0.983792
0.0362683 -0.0672834 0.987019
0.0367876 -0.0689569 0.990089
0.0179213 0.0553177 0.977012
0.0181262 0.053683 0.976431
0.0183131 0.0520277 0.975603
0.0184299 0.0502866 0.973802
0.0185361 0.0485403 0.971871
0.0186201 0.0467748 0.969643
0.0186779 0.0449875 0.967072
0.0187209 0.0431936 0.964316
0.0188003 0.0414525 0.96208
0.0188623 0.0397013 0.959623
0.0173452 0.0376702 0.956658
0.0189591 0.037998 0.957659
0.0173342 0.0358581 0.953169
0.0191052 0.0363548 0.956377
0.01725 0.033983 0.948692
0.0191849 0.0346488 0.95421
0.0178173 0.0206529 0.930724
0.0196459 0.0228657 0.938188
0.0199731 0.0214348 0.939401
0.0201342 0.011537 0.923308
0.0202855 0.010005 0.922289
0.0207181 0.00865562 0.924881
0.0212725 0.00737122 0.929007
0.021809 0.00606186 0.93288
0.0222206 0.00466831 0.935147
0.0225335 0.00321358 0.936149
0.0227549 0.00170837 0.935996
0.0230038 0.000217629 0.93619
0.0232534 -0.00127299 0.936392
0.0235249 -0.00275416 0.936866
0.0238057 -0.00423255 0.937452
0.0240885 -0.00571185 0.938062
0.024349 -0.00720151 0.938393
0.0246122 -0.00869092 0.938755
0.0248522 -0.0101892 0.938829
0.0250726 -0.0116935 0.938667
0.0252929 -0.013197 0.938504
0.0255263 -0.0146958 0.938502
0.0257536 -0.0161959 0.938425
0.0260038 -0.0176898 0.938629
0.0262639 -0.019182 0.938951
0.0265324 -0.0206733 0.939371
0.0268136 -0.0221634 0.939941
0.0270801 -0.0236574 0.940333
0.0273241 -0.0251552 0.940457
0.0275808 -0.0266517 0.94073
0.0278302 -0.0281494 0.940918
0.0280742 -0.0296477 0.941039
0.0283701 -0.0311434 0.941772
0.0286705 -0.0326408 0.942553
0.0289739 -0.0341406 0.943365
0.0293062 -0.0356427 0.944509
0.0296544 -0.0371487 0.945832
0.0299848 -0.0386578 0.946941
0.0303236 -0.0401708 0.948142
0.0306988 -0.0416903 0.949754
0.0310855 -0.0432157 0.951488
0.0315015 -0.04475 0.95355
0.0319308 -0.0462923 0.955751
0.0323832 -0.0478451 0.958203
0.0328038 -0.0493998 0.96028
0.03319 -0.0509541 0.961957
0.0335599 -0.0525102 0.963442
0.0339383 -0.0540725 0.965014
0.034321 -0.0556402 0.966626
0.0347571 -0.0572276 0.968825
0.0352309 -0.0588312 0.971433
0.0357283 -0.06045 0.97429
0.0362556 -0.0620873 0.977459
0.0368039 -0.0637406 0.980844
0.0373675 -0.0654096 0.984381
0.0379269 -0.0670883 0.987852
0.0384532 -0.0687632 0.990941
0.0194504 0.0555128 0.976354
0.0196537 0.0538781 0.97577
0.0198451 0.0522309 0.975025
0.0199666 0.0505 0.973334
0.0200777 0.0487635 0.971514
0.0201518 0.0469906 0.969208
0.0201987 0.0451953 0.96655
0.0202344 0.0433983 0.963762
0.0203011 0.0416474 0.96141
0.0203577 0.0398951 0.958941
0.0204592 0.0382007 0.957086
0.0206109 0.036566 0.955911
0.0207932 0.0349674 0.95515
0.0188749 0.0325597 0.946804
0.0206004 0.0330021 0.949453
0.0186836 0.0306161 0.941047
0.020542 0.0311883 0.94556
0.018636 0.0253943 0.931013
0.0184542 0.0269383 0.931698
0.0205318 0.027704 0.939246
0.0206266 0.0260691 0.937422
0.0192971 0.0242735 0.93668
0.021115 0.0247805 0.940709
0.0214432 0.0233456 0.941905
0.0217819 0.0219154 0.94323
0.0200971 0.0198368 0.937945
0.0220118 0.0203948 0.943152
0.0202282 0.0182502 0.936592
0.02224 0.0188736 0.943052
0.0202251 0.016568 0.933501
0.022355 0.0172695 0.941513
0.0222354 0.0121824 0.9311
0.0223799 0.0106323 0.929993
0.0226748 0.00918035 0.930779
0.0231033 0.0078063 0.933229
0.0235164 0.00641462 0.935473
0.0238126 0.00495048 0.936252
0.0240173 0.00343516 0.935895
0.0242379 0.00192958 0.935736
0.0244803 0.000435622 0.935848
0.0247227 -0.00105834 0.93596
0.0249933 -0.00253973 0.936417
0.0252746 -0.00401777 0.937001
0.0255589 -0.00549643 0.937618
0.025827 -0.00698296 0.938037
0.0260978 -0.00846954 0.938486
0.026339 -0.0099673 0.938578
0.0265673 -0.0114691 0.938513
0.0267959 -0.0129702 0.938456
0.0270385 -0.0144668 0.938565
0.0272738 -0.0159653 0.938587
0.0275241 -0.0174601 0.938788
0.0277828 -0.0189533 0.939088
0.0280497 -0.0204455 0.939481
0.0283388 -0.021935 0.940135
0.0285996 -0.0234305 0.940454
0.0288439 -0.0249291 0.940579
0.0291001 -0.0264262 0.940843
0.0293642 -0.0279232 0.941196
0.0296101 -0.0294222 0.941339
0.029925 -0.0309176 0.942276
0.0302427 -0.0324156 0.943241
0.0305556 -0.0339166 0.944146
0.0308764 -0.0354202 0.945137
0.0312187 -0.0369271 0.946365
0.0315416 -0.0384371 0.947368
0.031873 -0.0399503 0.948463
0.0322517 -0.0414704 0.950084
0.0326495 -0.0429974 0.951913
0.0330785 -0.0445333 0.954081
0.0335198 -0.0460777 0.956375
0.0339841 -0.0476325 0.958914
0.0344086 -0.0491883 0.960995
0.0347983 -0.0507441 0.96268
0.0351699 -0.0523013 0.964154
0.0355505 -0.0538646 0.965721
0.0359192 -0.0554302 0.967149
0.0363405 -0.0570128 0.969145
0.0368082 -0.0586147 0.971639
0.0373011 -0.0602307 0.974394
0.0378356 -0.061868 0.977588
0.0384263 -0.0635334 0.981372
0.0390171 -0.0652102 0.985141
0.0395947 -0.0668934 0.988742
0.040125 -0.0685708 0.991817
0.0209708 0.0556978 0.975595
0.021179 0.0540717 0.975094
0.0213719 0.0524289 0.974391
0.0215025 0.0507131 0.972864
0.0216168 0.0489842 0.971131
0.0216938 0.047219 0.968917
0.0217272 0.0454129 0.966143
0.0217497 0.0436061 0.963245
0.0218048 0.0418467 0.960795
0.0218647 0.0401026 0.958427
0.0219655 0.0384109 0.956608
0.0221238 0.0367852 0.955547
0.0223044 0.0351863 0.954784
0.0222292 0.0333429 0.950728
0.0222937 0.0316475 0.948496
0.0204609 0.0293688 0.941397
0.0223489 0.0299525 0.946159
0.022437 0.0282963 0.94426
0.0225506 0.02667 0.942697
0.0228832 0.0252353 0.943923
0.023073 0.023679 0.943336
0.023284 0.0221422 0.943021
0.0234887 0.0206023 0.942632
0.0236844 0.0190574 0.942132
0.0239075 0.0175347 0.941977
0.0223067 0.0155544 0.937911
0.023979 0.0159062 0.93994
0.022221 0.0138272 0.933859
0.0240432 0.0142806 0.937825
0.0241963 0.0127218 0.936822
0.0243621 0.0111753 0.935985
0.024527 0.00963163 0.935142
0.0248255 0.00817045 0.935939
0.0251087 0.00669806 0.936545
0.025296 0.00517139 0.935982
0.0255003 0.00365611 0.935629
0.0257209 0.00215078 0.935477
0.0259633 0.00065682 0.935588
0.0262056 -0.00083714 0.9357
0.0264767 -0.00231842 0.936155
0.0267515 -0.00379947 0.936652
0.0270284 -0.00528108 0.937171
0.0272903 -0.00676965 0.937511
0.0275618 -0.0082557 0.937963
0.0278111 -0.00975026 0.938151
0.028063 -0.0112444 0.938369
0.0283083 -0.0127407 0.938509
0.0285661 -0.0142339 0.938795
0.0288083 -0.0157315 0.938898
0.0290507 -0.017229 0.939004
0.0293014 -0.0187247 0.939205
0.0295752 -0.0202163 0.939672
0.0298818 -0.0217035 0.940516
0.0301459 -0.0231997 0.940866
0.0303997 -0.0246981 0.941098
0.0306685 -0.0261951 0.9415
0.0309414 -0.0276927 0.941948
0.0311918 -0.0291931 0.942138
0.0315201 -0.0306894 0.943208
0.0318482 -0.0321889 0.94427
0.0321553 -0.0336919 0.94509
0.0324666 -0.0351973 0.945955
0.0327947 -0.0367054 0.947
0.0331088 -0.0382163 0.947887
0.0334397 -0.0397304 0.948955
0.0338204 -0.0412514 0.950569
0.0342226 -0.0427793 0.952413
0.0346576 -0.0443162 0.954606
0.0351108 -0.0458624 0.956988
0.0355806 -0.0474183 0.95954
0.0360082 -0.0489751 0.961618
0.0364021 -0.0505322 0.963316
0.0367768 -0.0520907 0.964798
0.0371593 -0.0536547 0.966357
0.0375208 -0.055219 0.967681
0.0379371 -0.056801 0.969587
0.0383933 -0.0583992 0.971912
0.0388898 -0.0600151 0.974658
0.0394289 -0.0616524 0.977844
0.0400367 -0.0633216 0.981744
0.0406341 -0.0649981 0.985515
0.0412161 -0.0666818 0.989101
0.0417297 -0.0683506 0.991946
0.0224982 0.0558936 0.97495
0.0227088 0.0542725 0.974496
0.0229033 0.0526339 0.973835
0.0230439 0.0509334 0.972473
0.0231487 0.0491967 0.970657
0.0232277 0.0474381 0.968521
0.0232482 0.0456224 0.965643
0.0232645 0.0438141 0.962734
0.0233159 0.0420551 0.960292
0.0233881 0.040328 0.958134
0.0234883 0.0386385 0.956348
0.0236524 0.0370203 0.955386
0.0238236 0.0354132 0.954523
0.0238723 0.0336932 0.952118
0.0240773 0.0321279 0.951697
0.0242769 0.0305598 0.951212
0.0243849 0.0289134 0.949585
0.0244978 0.0272777 0.948031
0.0246878 0.0257126 0.947445
0.0247302 0.0240308 0.945037
0.0248089 0.022387 0.943093
0.024991 0.0208296 0.942433
0.0251609 0.0192661 0.94163
0.025364 0.0177298 0.941237
0.0255443 0.0161796 0.940571
0.0257314 0.0146368 0.939991
0.0258981 0.0130832 0.939168
0.0260794 0.0115424 0.938528
0.0262394 0.00999128 0.937636
0.0264052 0.00844735 0.936821
0.0265692 0.00690569 0.935989
0.0267636 0.00538388 0.935526
0.0269683 0.0038695 0.935188
0.0271899 0.00236501 0.935052
0.0274315 0.000871125 0.935156
0.0276731 -0.000622934 0.935259
0.027938 -0.00210683 0.935634
0.0282133 -0.00358738 0.93613
0.0284979 -0.00506555 0.936734
0.0287731 -0.00654899 0.937224
0.0290533 -0.00803208 0.937769
0.0293264 -0.00951903 0.93823
0.0295953 -0.0110084 0.938641
0.0298571 -0.0125009 0.938969
0.0301163 -0.013995 0.939266
0.0303577 -0.015494 0.939357
0.0305839 -0.0169965 0.939276
0.0308337 -0.0184934 0.939465
0.0311178 -0.0199839 0.940041
0.0314452 -0.0214686 0.941103
0.0317294 -0.0229631 0.941672
0.0319917 -0.0244622 0.941993
0.0322678 -0.0259602 0.942469
0.0325345 -0.0274605 0.942837
0.0327796 -0.0289634 0.942963
0.0330982 -0.0304618 0.943905
0.0334346 -0.0319624 0.945039
0.0337313 -0.0334673 0.945729
0.0340426 -0.034974 0.946575
0.0343627 -0.0364833 0.947516
0.0346768 -0.037995 0.948385
0.0350013 -0.0395099 0.949363
0.0353753 -0.041031 0.950875
0.0357731 -0.0425586 0.952638
0.0362117 -0.0440959 0.954833
0.0366698 -0.0456425 0.957226
0.0371526 -0.0471997 0.959873
0.0375938 -0.0487588 0.962058
0.0380005 -0.0503184 0.963863
0.038378 -0.0518778 0.965348
0.0387629 -0.053443 0.966904
0.0391181 -0.055007 0.968138
0.0395124 -0.056583 0.969778
0.0399612 -0.0581778 0.971987
0.0404627 -0.0597948 0.974735
0.0410072 -0.0614319 0.977924
0.0416306 -0.0631037 0.98192
0.042242 -0.0647831 0.985771
0.0428098 -0.0664592 0.989149
0.043314 -0.0681233 0.991847
0.0242434 0.0544804 0.973974
0.0244309 0.0528352 0.97324
0.0245784 0.0511459 0.971999
0.0246662 0.0493934 0.97001
0.0247409 0.0476342 0.967868
0.0247559 0.0458181 0.964987
0.0247833 0.0440269 0.962279
0.0248395 0.0422774 0.959955
0.0249308 0.0405735 0.958085
0.0250355 0.0388907 0.956393
0.025198 0.0372718 0.955433
0.0253518 0.0356487 0.954373
0.0255199 0.0340435 0.953496
0.0257254 0.0324762 0.953087
0.0259276 0.0309078 0.952639
0.0260495 0.0292723 0.951215
0.0261799 0.0276498 0.949902
0.0262618 0.0259929 0.948009
0.0263177 0.024323 0.945814
0.026401 0.0226828 0.943964
0.0265517 0.0211005 0.942938
0.0266804 0.0195066 0.941656
0.0268437 0.0179421 0.940795
0.0269912 0.0163704 0.939752
0.0271622 0.0148186 0.938996
0.0273283 0.013267 0.938189
0.0275249 0.0117374 0.937746
0.0276906 0.0101914 0.936943
0.0278681 0.00865563 0.936284
0.0280371 0.00711786 0.935531
0.028238 0.00560017 0.935155
0.028436 0.00408283 0.934747
0.0286567 0.00257839 0.934608
0.0288903 0.00108095 0.934619
0.0291307 -0.000412966 0.934709
0.0293892 -0.00189919 0.935008
0.0296726 -0.00337592 0.935591
0.0299661 -0.00485045 0.936286
0.0302491 -0.0063309 0.936859
0.0305379 -0.00781096 0.937494
0.0308281 -0.00929226 0.938143
0.0311081 -0.0107787 0.938672
0.0313805 -0.0122687 0.939115
0.0316401 -0.0137634 0.939411
0.0318796 -0.0152635 0.939481
0.0320965 -0.0167689 0.939298
0.032354 -0.0182646 0.93957
0.0326573 -0.0197521 0.940349
0.0330139 -0.0212328 0.941716
0.0333037 -0.0227279 0.942337
0.0335743 -0.0242274 0.942744
0.0338575 -0.0257264 0.943287
0.0341157 -0.0272294 0.943555
0.0343622 -0.0287336 0.943693
0.0346866 -0.0302333 0.944679
0.0350229 -0.0317355 0.945791
0.0353103 -0.0332421 0.946367
0.0356149 -0.0347502 0.947125
0.0359294 -0.0362605 0.947988
0.0362391 -0.0377732 0.948795
0.0365723 -0.0392892 0.94985
0.0369492 -0.0408114 0.951365
0.0373502 -0.0423398 0.95313
0.037783 -0.0438769 0.955224
0.0382527 -0.0454248 0.957698
0.038732 -0.0469818 0.96026
0.0391787 -0.0485415 0.962466
0.0395984 -0.0501036 0.964376
0.0399881 -0.0516657 0.965963
0.040369 -0.0532312 0.967449
0.0407241 -0.0547947 0.968661
0.04111 -0.0563696 0.970184
0.0415433 -0.0579604 0.972195
0.0420389 -0.0595741 0.974837
0.0425973 -0.0612147 0.978114
0.0432303 -0.0628866 0.982141
0.043832 -0.0645605 0.985828
0.0444014 -0.0662354 0.989165
0.0448982 -0.0678953 0.991744
0.0257544 0.0546605 0.973165
0.0259382 0.0530134 0.972403
0.02609 0.0513327 0.971249
0.0261736 0.0495798 0.969253
0.0262523 0.0478296 0.967209
0.0262776 0.04603 0.964518
0.0263184 0.0442577 0.962036
0.0263879 0.0425255 0.959925
0.0264927 0.0408376 0.95826
0.0265928 0.039152 0.956549
0.0267448 0.0375237 0.955482
0.026895 0.035898 0.9544
0.0270537 0.0342848 0.953428
0.0272433 0.0327036 0.952838
0.0274366 0.0311281 0.952295
0.0275847 0.0295169 0.951216
0.0277391 0.0279153 0.950217
0.0278588 0.0262899 0.948813
0.0279432 0.0246427 0.946999
0.028037 0.0230098 0.945307
0.0281532 0.0214002 0.943892
0.0282396 0.0197749 0.942136
0.0283536 0.0181758 0.940713
0.0284686 0.016583 0.939313
0.028631 0.0150266 0.938474
0.0287971 0.013476 0.937686
0.0290001 0.0119512 0.937329
0.0291645 0.0104054 0.936528
0.0293466 0.00887308 0.935939
0.0295131 0.00733465 0.935174
0.0297127 0.00581681 0.934792
0.0299104 0.00429982 0.934393
0.03013 0.00279515 0.934244
0.0303543 0.00129369 0.934152
0.0305925 -0.000200966 0.934218
0.0308509 -0.00168697 0.934512
0.0311449 -0.00315923 0.935207
0.0314485 -0.00462973 0.936006
0.0317579 -0.00610071 0.936865
0.0320573 -0.00757779 0.937608
0.0323578 -0.00905657 0.938361
0.0326387 -0.0105436 0.938892
0.0329195 -0.0120322 0.939419
0.0331721 -0.0135297 0.939633
0.0334046 -0.0150325 0.939625
0.0336112 -0.0165409 0.939334
0.0338765 -0.0180354 0.939687
0.0341981 -0.0195201 0.940653
0.0345617 -0.0210006 0.942072
0.034862 -0.0224952 0.942795
0.0351393 -0.0239951 0.943267
0.0354154 -0.0254961 0.943723
0.0356548 -0.0270021 0.943784
0.0359072 -0.0285067 0.943985
0.0362225 -0.0300078 0.944856
0.0365592 -0.0315105 0.945953
0.0368469 -0.0330178 0.946522
0.0371553 -0.0345263 0.947309
0.0374736 -0.0360373 0.948197
0.0377945 -0.0375509 0.949109
0.0381393 -0.039068 0.950267
0.0385196 -0.0405908 0.951791
0.0389229 -0.0421201 0.953549
0.0393495 -0.043657 0.955543
0.0398305 -0.0452061 0.958091
0.0403139 -0.0467634 0.960651
0.0407744 -0.0483252 0.962962
0.0412075 -0.0498899 0.964978
0.0416104 -0.051455 0.966673
0.0419929 -0.053021 0.96815
0.042341 -0.0545846 0.969268
0.0427175 -0.0561579 0.97067
0.0431426 -0.0577468 0.97256
0.0436215 -0.0593558 0.974989
0.0441884 -0.0609955 0.978299
0.0448295 -0.0626681 0.982341
0.0454311 -0.0643407 0.985964
0.0459884 -0.0660094 0.989124
0.0464858 -0.0676678 0.991668
0.0272313 0.0548021 0.971958
0.0274194 0.0531633 0.971272
0.0275893 0.0515071 0.970368
0.0276694 0.0497549 0.968375
0.027767 0.0480298 0.966606
0.0278049 0.0462485 0.964126
0.0278595 0.0444949 0.961866
0.0279442 0.042781 0.959981
0.028061 0.041107 0.958494
0.028151 0.0394131 0.956698
0.0282985 0.0377812 0.955601
0.0284459 0.0361538 0.954508
0.028596 0.0345335 0.953454
0.0287701 0.0329388 0.952694
0.0289619 0.0313627 0.952146
0.029123 0.0297634 0.951242
0.0292954 0.0281772 0.950477
0.0294496 0.0265797 0.949503
0.0295508 0.0249456 0.947919
0.0296472 0.0233143 0.946291
0.0297402 0.0216869 0.944632
0.0298099 0.0200497 0.942716
0.0299034 0.0184364 0.941086
0.0300302 0.0168515 0.939847
0.0301986 0.0152983 0.939094
0.0303559 0.0137413 0.938217
0.0305428 0.0122058 0.937685
0.0306964 0.0106533 0.936778
0.0308552 0.00910747 0.935937
0.031006 0.00756071 0.93501
0.031198 0.00603903 0.934553
0.0313927 0.0045208 0.93413
0.0316032 0.00301199 0.933885
0.0318254 0.00150979 0.933773
0.0320645 1.58288e-05 0.93385
0.0323301 -0.00146705 0.934221
0.0326344 -0.00293531 0.935018
0.0329416 -0.00440506 0.935843
0.0332627 -0.00587218 0.936817
0.0335725 -0.00734629 0.937663
0.033883 -0.00882267 0.938511
0.0341643 -0.0103105 0.939038
0.034452 -0.0117978 0.939631
0.0347041 -0.0132963 0.939836
0.0349441 -0.0147981 0.93991
0.0351589 -0.0163053 0.939713
0.0354421 -0.0177973 0.940253
0.0357736 -0.0192817 0.941308
0.0361397 -0.0207634 0.942726
0.0364317 -0.0222609 0.943348
0.0366995 -0.0237633 0.94371
0.0369646 -0.0252669 0.944042
0.0371889 -0.0267752 0.943943
0.0374335 -0.0282813 0.944058
0.037742 -0.0297832 0.944844
0.0380809 -0.0312861 0.945946
0.0383639 -0.0327938 0.946458
0.0386906 -0.0343024 0.947424
0.0390214 -0.0358138 0.948427
0.0393525 -0.0373281 0.949428
0.0397091 -0.0388465 0.950689
0.0400926 -0.0403701 0.952221
0.0404831 -0.041899 0.953818
0.0409035 -0.0434354 0.955712
0.0413859 -0.0449844 0.958234
0.0418738 -0.0465417 0.960796
0.0423498 -0.0481054 0.963227
0.0428047 -0.0496734 0.96543
0.043229 -0.0512426 0.967313
0.0436137 -0.05281 0.968787
0.0439641 -0.0543751 0.969907
0.044323 -0.0559449 0.971109
0.0447318 -0.0575296 0.972805
0.045186 -0.0591315 0.974947
0.0457456 -0.0607677 0.97813
0.0463666 -0.0624318 0.981907
0.0469748 -0.0641039 0.985537
0.047527 -0.0657687 0.988597
0.0480373 -0.0674286 0.991228
0.0476523 -0.069572 1.00089
0.0484489 -0.0690622 0.992875
0.0287376 0.0549811 0.971145
0.028923 0.0533418 0.970445
0.0290909 0.0516859 0.969537
0.0291685 0.0499352 0.967558
0.0292728 0.0482214 0.965909
0.0293319 0.046467 0.963735
0.0293998 0.0447307 0.96168
0.0294982 0.0430334 0.959997
0.0296132 0.0413592 0.958521
0.0296999 0.0396642 0.956722
0.0298371 0.0380235 0.955525
0.0299823 0.0363954 0.954431
0.0301309 0.034775 0.953385
0.0303052 0.0331811 0.952642
0.0305103 0.0316165 0.952259
0.0306921 0.0300347 0.951612
0.0308817 0.0284619 0.951059
0.0310635 0.0268855 0.950421
0.0311961 0.0252747 0.949225
0.031314 0.0236581 0.947871
0.0314168 0.0220359 0.946351
0.0314743 0.0203884 0.94433
0.0315478 0.0187596 0.942501
0.0316633 0.0171655 0.941157
0.031807 0.0155944 0.940137
0.0319467 0.0140251 0.93908
0.0321388 0.0124909 0.938613
0.0322822 0.0109311 0.937608
0.0324234 0.00937431 0.936586
0.0325634 0.00782079 0.935557
0.0327301 0.00628519 0.934829
0.0329002 0.00475416 0.934143
0.0331015 0.00324074 0.933803
0.0333165 0.00173505 0.933617
0.0335479 0.000237604 0.93361
0.033815 -0.00124484 0.933993
0.0341361 -0.00270685 0.934959
0.0344531 -0.00417347 0.935878
0.0347933 -0.00563468 0.937041
0.0351131 -0.00710642 0.937978
0.0354247 -0.00858369 0.938824
0.035689 -0.0100776 0.939159
0.0359753 -0.0115662 0.939728
0.0362194 -0.0130674 0.939846
0.0364693 -0.0145672 0.940025
0.0367111 -0.016069 0.940119
0.0370125 -0.0175585 0.94084
0.0373474 -0.0190437 0.941911
0.0377057 -0.0205283 0.943222
0.0379855 -0.0220289 0.943706
0.0382346 -0.0235349 0.943868
0.0384829 -0.0250411 0.94402
0.0386998 -0.0265506 0.943846
0.0389443 -0.0280569 0.94396
0.0392484 -0.0295594 0.944689
0.0395903 -0.0310621 0.945804
0.0398921 -0.0325693 0.946502
0.0402302 -0.0340781 0.947569
0.0405718 -0.0355901 0.948666
0.0409124 -0.0371052 0.949749
0.0412707 -0.0386242 0.951005
0.0416484 -0.040148 0.952452
0.0420414 -0.0416773 0.954047
0.0424559 -0.0432133 0.955851
0.0429426 -0.0447624 0.958374
0.0434443 -0.046321 0.961034
0.0439435 -0.0478876 0.963656
0.0444157 -0.0494583 0.965995
0.0448631 -0.0510317 0.968076
0.0452502 -0.0526004 0.969549
0.0456005 -0.0541658 0.970651
0.0459359 -0.0557318 0.9716
0.0463376 -0.057316 0.973197
0.0467649 -0.0589101 0.97504
0.0472883 -0.0605358 0.977815
0.0478804 -0.0621896 0.981248
0.0484804 -0.0638548 0.984744
0.0490281 -0.0655159 0.987713
0.0495641 -0.0671814 0.990554
0.0500376 -0.0688341 0.992778
0.0302253 0.0551406 0.970134
0.0304148 0.0535087 0.9695
0.0305763 0.0518487 0.96854
0.0306676 0.0501175 0.966765
0.0307874 0.0484236 0.965334
0.0308683 0.0466957 0.963458
0.0309493 0.0449756 0.961597
0.0310595 0.0432922 0.960087
0.0311653 0.0416105 0.958533
0.0312483 0.0399141 0.95673
0.0313752 0.0382651 0.955438
0.0315184 0.0366363 0.954344
0.0316664 0.0350163 0.953312
0.0318329 0.0334164 0.952496
0.0320357 0.0318502 0.952097
0.0322311 0.0302801 0.951619
0.0324358 0.0287195 0.951248
0.0326432 0.0271627 0.95091
0.0328167 0.0255824 0.950196
0.032968 0.0239889 0.949237
0.0330956 0.0223828 0.94802
0.0331766 0.0207498 0.946295
0.0332417 0.0191129 0.944403
0.0333473 0.0175095 0.942971
0.0334707 0.0159229 0.941743
0.0335902 0.0143388 0.940479
0.0337561 0.0127868 0.939732
0.0338807 0.0112148 0.938538
0.0340096 0.00964974 0.937399
0.0341379 0.00808892 0.93626
0.0342759 0.00653746 0.935234
0.0344189 0.00499268 0.934267
0.0346168 0.00347716 0.9339
0.0348331 0.00197153 0.933731
0.0350902 0.000484494 0.934001
0.0353847 -0.00098801 0.934669
0.0357239 -0.00244502 0.93581
0.0360346 -0.00391617 0.936644
0.0363732 -0.00538008 0.937769
0.0366692 -0.00686177 0.938438
0.0369654 -0.00834541 0.939107
0.0372139 -0.009845 0.93927
0.0375075 -0.0113322 0.939907
0.0377515 -0.0128342 0.940022
0.03802 -0.0143303 0.940392
0.0382836 -0.0158284 0.940712
0.0386 -0.0173163 0.941575
0.0389286 -0.0188045 0.942563
0.0392679 -0.0202939 0.943654
0.0395106 -0.0218012 0.943748
0.0397403 -0.0233104 0.943709
0.039989 -0.0248168 0.943864
0.040216 -0.0263255 0.943799
0.0404793 -0.0278306 0.944102
0.0408095 -0.0293319 0.945085
0.0411531 -0.0308354 0.946199
0.0414648 -0.0323434 0.946985
0.0418061 -0.0338531 0.948065
0.042149 -0.035366 0.949158
0.0424923 -0.0368822 0.950249
0.0428592 -0.0384025 0.951569
0.0432303 -0.0399268 0.952928
0.0436249 -0.0414569 0.954511
0.0440327 -0.0429929 0.95622
0.0445225 -0.0445424 0.958731
0.045031 -0.0461018 0.961415
0.0455481 -0.0476706 0.964169
0.0460376 -0.0492439 0.96664
0.0465077 -0.0508217 0.96891
0.0468898 -0.0523905 0.970307
0.047242 -0.0539576 0.971409
0.0475774 -0.0555249 0.972341
0.0479633 -0.0571057 0.973759
0.0483526 -0.0586909 0.975205
0.0488346 -0.0603047 0.977537
0.0493832 -0.0619438 0.980499
0.0499547 -0.0635985 0.983667
0.0505067 -0.0652571 0.986633
0.0510626 -0.0669256 0.989623
0.0516052 -0.0685985 0.992472
0.0512756 -0.0707649 1.00238
0.0520966 -0.0702622 0.994823
0.0317329 0.055325 0.969382
0.0319218 0.0536944 0.968756
0.0320695 0.0520222 0.967661
0.0321756 0.0503106 0.966094
0.032304 0.0486288 0.964792
0.0324004 0.0469199 0.963133
0.0324937 0.045215 0.96145
0.0326174 0.0435465 0.960123
0.0327196 0.0418632 0.95856
0.0328075 0.0401731 0.956847
0.032939 0.0385295 0.955636
0.0330797 0.036899 0.954534
0.0332261 0.035278 0.953503
0.0333913 0.0336773 0.952689
0.0335941 0.0321108 0.952298
0.0337956 0.0305453 0.951897
0.0339998 0.0289838 0.951529
0.0342143 0.0274319 0.951277
0.0344051 0.0258638 0.950765
0.0345835 0.0242894 0.950121
0.0347432 0.0227046 0.949278
0.0348687 0.0211003 0.948067
0.0349512 0.0194728 0.946396
0.0350584 0.0178674 0.945
0.0351749 0.0162734 0.943716
0.0352807 0.0146782 0.942325
0.0354299 0.0131134 0.941406
0.0355613 0.0115424 0.940305
0.035679 0.00996852 0.939063
0.0358005 0.00840137 0.937868
0.0359338 0.00684496 0.936808
0.0360644 0.00529136 0.935723
0.0362372 0.00376162 0.935094
0.0364512 0.00225252 0.934901
0.0367103 0.000763617 0.935186
0.0370019 -0.000712774 0.935811
0.0373381 -0.00217379 0.936898
0.0376484 -0.00364783 0.937712
0.0379775 -0.00511775 0.938716
0.0382467 -0.00661045 0.939095
0.0385262 -0.00810103 0.939577
0.0387653 -0.00960466 0.939642
0.0390518 -0.0110952 0.940195
0.0393042 -0.0125959 0.940395
0.0395849 -0.0140902 0.940884
0.0398692 -0.0155849 0.941408
0.04019 -0.0170737 0.942302
0.0405199 -0.0185633 0.943284
0.0408403 -0.0200577 0.944166
0.0410794 -0.0215671 0.944221
0.0413004 -0.0230786 0.944095
0.0415526 -0.0245857 0.944284
0.0417893 -0.0260945 0.944316
0.0420526 -0.027601 0.944615
0.0423749 -0.029104 0.945502
0.0427197 -0.0306084 0.946609
0.0430325 -0.0321173 0.947393
0.0433763 -0.0336278 0.94848
0.0437223 -0.0351417 0.949585
0.0440664 -0.0366587 0.950665
0.0444262 -0.0381796 0.951896
0.0447981 -0.0397047 0.953239
0.0451859 -0.0412347 0.954731
0.0455955 -0.0427711 0.956431
0.0460813 -0.0443198 0.958862
0.0466022 -0.0458801 0.961623
0.0471348 -0.0474506 0.964485
0.0476407 -0.049026 0.967073
0.0481188 -0.050605 0.969383
0.0485113 -0.0521766 0.970858
0.0488633 -0.0537443 0.97194
0.049189 -0.05531 0.972766
0.0495574 -0.0568874 0.973994
0.0499175 -0.0584664 0.975139
0.0503476 -0.0600661 0.976942
0.0508432 -0.0616885 0.979358
0.0513814 -0.0633297 0.982167
0.0519206 -0.0649802 0.98497
0.0525054 -0.0666532 0.98819
0.0531021 -0.0683405 0.991505
0.0536435 -0.0700186 0.994288
0.0525833 -0.0719319 0.997115
0.0541689 -0.0716991 0.99691
0.03314 0.0572424 0.970272
0.0333134 0.0555918 0.969478
0.0334946 0.0539532 0.968778
0.0336293 0.0522684 0.967557
0.0337414 0.0505653 0.96609
0.0338691 0.0488843 0.964807
0.0339646 0.0471766 0.963171
0.0340632 0.0454786 0.96158
0.0341776 0.0438024 0.960174
0.0342777 0.0421186 0.958619
0.0343625 0.0404274 0.956905
0.0345 0.0387901 0.955782
0.0346303 0.0371513 0.954588
0.034774 0.0355288 0.953548
0.0349366 0.0339262 0.952722
0.0351389 0.0323594 0.952334
0.0353408 0.0307941 0.951945
0.0355448 0.0292324 0.951583
0.0357574 0.0276788 0.951315
0.0359546 0.0261155 0.950884
0.0361579 0.0245585 0.950521
0.0363541 0.0229984 0.950086
0.0365252 0.0214237 0.949384
0.036642 0.0198168 0.948105
0.0367646 0.0182187 0.946898
0.0368745 0.0166177 0.945562
0.036968 0.0150124 0.94406
0.0370984 0.0134341 0.942958
0.0372293 0.0118604 0.941867
0.0373382 0.0102793 0.940551
0.0374574 0.00870875 0.939352
0.0375819 0.00714555 0.938214
0.0377096 0.00558823 0.937117
0.0378714 0.00405081 0.936381
0.0380905 0.00254129 0.936242
0.0383509 0.0010501 0.936534
0.0386462 -0.00042796 0.937183
0.0389718 -0.00189624 0.938141
0.0392636 -0.00337989 0.938748
0.0395644 -0.00486205 0.939444
0.0397963 -0.00636889 0.939435
0.0400589 -0.00786582 0.939739
0.0402884 -0.00937302 0.939705
0.0405757 -0.0108639 0.940257
0.0408372 -0.0123629 0.940546
0.0411457 -0.0138513 0.941309
0.0414501 -0.0153428 0.942026
0.0417813 -0.016831 0.943008
0.0421102 -0.0183226 0.943964
0.0424204 -0.0198204 0.944728
0.0426507 -0.0213324 0.944695
0.0428737 -0.022845 0.94459
0.0431466 -0.0243508 0.944979
0.0433937 -0.0258603 0.945114
0.0436668 -0.0273677 0.945504
0.0439886 -0.0288725 0.94637
0.0443352 -0.0303786 0.947476
0.0446411 -0.0318895 0.94818
0.0449862 -0.0334016 0.949261
0.045325 -0.0349171 0.950276
0.0456611 -0.0364353 0.951261
0.046006 -0.0379568 0.952328
0.0463711 -0.0394822 0.953584
0.0467522 -0.0410125 0.954988
0.0471547 -0.0425484 0.956591
0.047643 -0.0440973 0.959009
0.0481684 -0.0456577 0.961769
0.0487057 -0.0472281 0.96463
0.0492152 -0.0488035 0.967213
0.0497062 -0.0503842 0.969609
0.0500917 -0.0519546 0.970996
0.0504452 -0.0535223 0.972075
0.0507606 -0.0550867 0.97279
0.0511094 -0.0566589 0.973818
0.0514496 -0.0582329 0.97476
0.0518484 -0.0598239 0.976244
0.0523035 -0.0614339 0.978249
0.0528217 -0.0630669 0.980829
0.0533637 -0.0647148 0.98362
0.0539665 -0.0663891 0.98696
0.0546032 -0.0680843 0.9906
0.055174 -0.0697688 0.993614
0.0557169 -0.0714537 0.996357
0.0554397 -0.0736626 1.00646
0.0562169 -0.0731299 0.998697
0.0347288 0.0575163 0.97043
0.0348966 0.0558601 0.969589
0.0350809 0.0542255 0.968939
0.0352031 0.0525288 0.967603
0.0353205 0.0508328 0.966222
0.0354462 0.0491509 0.964942
0.0355461 0.0474492 0.963387
0.0356344 0.0457428 0.961713
0.0357373 0.0440568 0.960208
0.0358349 0.0423724 0.958655
0.035918 0.0406813 0.956955
0.0360555 0.0390449 0.955855
0.0361843 0.0374056 0.954666
0.0363325 0.0357876 0.953696
0.0364916 0.0341826 0.952848
0.0366933 0.032615 0.952462
0.0368887 0.0310445 0.952012
0.0370921 0.0294821 0.95165
0.0372864 0.0279148 0.951194
0.0374863 0.0263537 0.950801
0.0376959 0.0248011 0.950512
0.0379164 0.0232575 0.950341
0.038107 0.0216952 0.949858
