ply
format ascii 1.0
element vertex 1795
property float x
property float y
property float z
end_header
0.399019 -0.390977 1.11035
0.400781 -0.390538 1.10907
0.39953 -0.389245 1.10903
0.403556 -0.391157 1.11283
0.400216 -0.387702 1.1081
0.397812 -0.398934 1.12052
0.396799 -0.39553 1.11565
0.397228 -0.393683 1.1141
0.397614 -0.3918 1.11246
0.397938 -0.389863 1.1107
0.398338 -0.388015 1.10912
0.398952 -0.386396 1.10803
0.386976 -0.401124 1.11079
0.381862 -0.397848 1.10422
0.383311 -0.397131 1.10506
0.395959 -0.399323 1.12169
0.395438 -0.39643 1.11791
0.39604 -0.394759 1.11675
0.396425 -0.392864 1.11509
0.396685 -0.390846 1.11316
0.396857 -0.388748 1.11104
0.39711 -0.386746 1.10912
0.397649 -0.385051 1.10786
0.40174 -0.387025 1.11184
0.398315 -0.383496 1.10689
0.382239 -0.400619 1.1077
0.377301 -0.397492 1.10146
0.378588 -0.396605 1.10193
0.380016 -0.395874 1.10273
0.381408 -0.395098 1.10344
0.387043 -0.398936 1.11124
0.383305 -0.394879 1.10534
0.394009 -0.39955 1.11975
0.391873 -0.399565 1.11736
0.388303 -0.395726 1.11191
0.3907 -0.396013 1.11493
0.392983 -0.39616 1.11767
0.394481 -0.395448 1.11857
0.395062 -0.393753 1.11735
0.395417 -0.391825 1.11562
0.395633 -0.389761 1.11358
0.395718 -0.387571 1.11125
0.395891 -0.385487 1.10914
0.396359 -0.38372 1.10772
0.396953 -0.382091 1.10658
0.398889 -0.381851 1.10572
0.397491 -0.380412 1.10533
0.399632 -0.380386 1.10495
0.398194 -0.378907 1.10446
0.400496 -0.379047 1.10444
0.399029 -0.377542 1.10389
0.401496 -0.377849 1.10425
0.399958 -0.376275 1.10354
0.370904 -0.404326 1.10181
0.36988 -0.405519 1.10197
0.368402 -0.40393 1.10131
0.369391 -0.402699 1.10107
0.372001 -0.403221 1.10182
0.370468 -0.401574 1.10104
0.372939 -0.401932 1.10145
0.371415 -0.400298 1.10069
0.373957 -0.400737 1.10128
0.372437 -0.399112 1.10053
0.374972 -0.39954 1.1011
0.373459 -0.397926 1.10037
0.376093 -0.398467 1.10118
0.374546 -0.396817 1.10037
0.375674 -0.395755 1.10047
0.376875 -0.394775 1.10074
0.378178 -0.393908 1.10125
0.379484 -0.393043 1.10177
0.381186 -0.392614 1.10322
0.385715 -0.395213 1.10843
0.38371 -0.393081 1.10659
0.386382 -0.393692 1.11029
0.388943 -0.394162 1.11371
0.391399 -0.3945 1.11686
0.393192 -0.39411 1.11846
0.393814 -0.392459 1.11733
0.394213 -0.390579 1.11569
0.394472 -0.388561 1.11375
0.394588 -0.386406 1.11149
0.394791 -0.384352 1.10943
0.395221 -0.382546 1.10792
0.395771 -0.380873 1.10668
0.396341 -0.379226 1.1055
0.397048 -0.377727 1.10464
0.397859 -0.376338 1.10401
0.398719 -0.375002 1.1035
0.403029 -0.377152 1.10797
0.399557 -0.373647 1.10295
0.367809 -0.400991 1.10015
0.368904 -0.39989 1.10017
0.369891 -0.398665 1.09992
0.370944 -0.397517 1.09984
0.372005 -0.39638 1.09978
0.373123 -0.395309 1.09985
0.374175 -0.394163 1.09977
0.375266 -0.393061 1.09978
0.376397 -0.392007 1.09989
0.377634 -0.391069 1.10025
0.379143 -0.390432 1.10125
0.381516 -0.390739 1.10429
0.383998 -0.391151 1.10756
0.386577 -0.391649 1.11105
0.389136 -0.392107 1.11446
0.39119 -0.392005 1.11668
0.392109 -0.390678 1.11624
0.392834 -0.389148 1.11536
0.393285 -0.387334 1.11385
0.393521 -0.385305 1.11186
0.39377 -0.3833 1.10991
0.394202 -0.381496 1.10839
0.394681 -0.379749 1.10699
0.395241 -0.378093 1.10578
0.395907 -0.376552 1.10482
0.396727 -0.375172 1.10421
0.397524 -0.373773 1.10356
0.398388 -0.372445 1.10306
0.402787 -0.374673 1.10774
0.399347 -0.371215 1.10278
0.366129 -0.399167 1.09899
0.367288 -0.398145 1.09917
0.36841 -0.39708 1.09925
0.36952 -0.396002 1.09931
0.370659 -0.394957 1.09944
0.371779 -0.39389 1.09952
0.372787 -0.392696 1.09933
0.373805 -0.391515 1.09917
0.374899 -0.390422 1.0992
0.376175 -0.38953 1.09965
0.377456 -0.388643 1.10012
0.379586 -0.388688 1.1026
0.381768 -0.388777 1.10518
0.384184 -0.389106 1.1083
0.386595 -0.389413 1.11139
0.388865 -0.389553 1.11413
0.390063 -0.388532 1.11435
0.391133 -0.387375 1.11427
0.391796 -0.385789 1.11326
0.392235 -0.383975 1.11173
0.392611 -0.382103 1.11006
0.393058 -0.380315 1.10858
0.393533 -0.378564 1.10716
0.394081 -0.376897 1.10592
0.394713 -0.375322 1.10488
0.395496 -0.373906 1.10419
0.396324 -0.37254 1.1036
0.397186 -0.371211 1.1031
0.39811 -0.369946 1.10274
0.400348 -0.370029 1.10259
0.399109 -0.368759 1.10255
0.365857 -0.396617 1.09861
0.367033 -0.395617 1.09883
0.36816 -0.394561 1.09893
0.369272 -0.393486 1.099
0.370357 -0.392383 1.099
0.371327 -0.391148 1.09872
0.372336 -0.38996 1.09854
0.373427 -0.388865 1.09856
0.374701 -0.387974 1.09901
0.376016 -0.387128 1.09957
0.377883 -0.386886 1.10143
0.379722 -0.386604 1.10321
0.381766 -0.386536 1.10547
0.384025 -0.386687 1.10822
0.386261 -0.3868 1.1109
0.387792 -0.386145 1.11191
0.389225 -0.385381 1.11269
0.390255 -0.384188 1.11253
0.390901 -0.382594 1.11148
0.391437 -0.380891 1.11018
0.39193 -0.379151 1.1088
0.392406 -0.377402 1.10738
0.392949 -0.37573 1.10612
0.393541 -0.374115 1.10499
0.394291 -0.372666 1.10422
0.39512 -0.371302 1.10364
0.396015 -0.370007 1.10321
0.39691 -0.368714 1.10278
0.397914 -0.367533 1.1026
0.364586 -0.395275 1.09843
0.365785 -0.394304 1.09871
0.366944 -0.393285 1.0989
0.368018 -0.39217 1.09887
0.369035 -0.390989 1.09871
0.369969 -0.389715 1.09834
0.370938 -0.388483 1.09807
0.371962 -0.387316 1.09793
0.373167 -0.386352 1.09822
0.374417 -0.385436 1.09862
0.375954 -0.384835 1.09971
0.377405 -0.384134 1.10058
0.379206 -0.38381 1.10228
0.381255 -0.383745 1.10456
0.383396 -0.383767 1.10703
0.385221 -0.383438 1.10876
0.387027 -0.38308 1.11042
0.388336 -0.382188 1.11092
0.38928 -0.380913 1.11057
0.390073 -0.379481 1.10986
0.390673 -0.377855 1.10872
0.391222 -0.376182 1.10747
0.391767 -0.374512 1.10621
0.392364 -0.372902 1.10508
0.39308 -0.37142 1.10423
0.393939 -0.370087 1.10372
0.394839 -0.368798 1.1033
0.395742 -0.367515 1.10289
0.396786 -0.366373 1.1028
0.401232 -0.368624 1.10761
0.397839 -0.365241 1.10273
0.363366 -0.393993 1.09838
0.36456 -0.393017 1.09865
0.365669 -0.391943 1.09872
0.366753 -0.39084 1.09872
0.367694 -0.389574 1.09837
0.368534 -0.388194 1.09777
0.369435 -0.386889 1.09734
0.37045 -0.385714 1.09718
0.371612 -0.384706 1.09737
0.372821 -0.383748 1.09768
0.374086 -0.382851 1.09812
0.375277 -0.381871 1.09838
0.376903 -0.381363 1.09968
0.378791 -0.381133 1.10159
0.380843 -0.381068 1.10388
0.382917 -0.381016 1.1062
0.384966 -0.380923 1.10845
0.386473 -0.380248 1.10942
0.387578 -0.379145 1.10945
0.388488 -0.37784 1.10902
0.389163 -0.376295 1.10805
0.389751 -0.374665 1.10688
0.390339 -0.373042 1.10573
0.391012 -0.371512 1.10477
0.391733 -0.370037 1.10393
0.392627 -0.368741 1.1035
0.393562 -0.367488 1.10316
0.394501 -0.366242 1.10283
0.395585 -0.365141 1.10284
0.396674 -0.364046 1.10285
0.401271 -0.366431 1.108
0.397809 -0.362996 1.10297
0.361903 -0.392426 1.09773
0.363082 -0.391436 1.09796
0.364242 -0.390423 1.09816
0.365283 -0.389273 1.09805
0.366157 -0.387933 1.09754
0.367018 -0.386582 1.097
0.367919 -0.38528 1.09657
0.368959 -0.384136 1.09647
0.370087 -0.383092 1.09659
0.371278 -0.382119 1.09686
0.372504 -0.381182 1.09721
0.373722 -0.380235 1.09754
0.375284 -0.379661 1.09869
0.377065 -0.379319 1.10036
0.379032 -0.379168 1.10246
0.381069 -0.37908 1.10471
0.383082 -0.378955 1.10689
0.384676 -0.378376 1.10807
0.385903 -0.377407 1.10838
0.386923 -0.37622 1.10822
0.387641 -0.374722 1.10735
0.388307 -0.373176 1.10636
0.388908 -0.371569 1.10523
0.389624 -0.370085 1.10438
0.390345 -0.368612 1.10354
0.391309 -0.367388 1.10326
0.392282 -0.366175 1.10301
0.393299 -0.365008 1.10286
0.394457 -0.363981 1.10303
0.395582 -0.362922 1.10313
0.396681 -0.361836 1.10316
0.360379 -0.390786 1.09691
0.361555 -0.389796 1.09715
0.362729 -0.388804 1.09738
0.363711 -0.387588 1.09713
0.364576 -0.386243 1.0966
0.36541 -0.384864 1.096
0.366279 -0.38353 1.09548
0.367285 -0.382353 1.09531
0.368378 -0.381274 1.09535
0.369539 -0.380271 1.09555
0.37076 -0.379334 1.0959
0.372012 -0.378429 1.09631
0.373515 -0.377796 1.09734
0.375225 -0.377381 1.09884
0.377072 -0.377106 1.10066
0.37908 -0.376994 1.10286
0.381049 -0.376828 1.10495
0.382738 -0.376356 1.10637
0.384104 -0.375539 1.10702
0.385297 -0.374537 1.10726
0.386124 -0.373155 1.10665
0.386869 -0.371693 1.10584
0.387508 -0.370127 1.1048
0.38826 -0.368683 1.10403
0.389019 -0.36725 1.10328
0.38999 -0.366035 1.10302
0.391 -0.364861 1.10285
0.39206 -0.363738 1.1028
0.393225 -0.362719 1.10299
0.394325 -0.361636 1.10303
0.395412 -0.36054 1.10304
0.357873 -0.390361 1.09633
0.359041 -0.389365 1.09655
0.360192 -0.388348 1.09673
0.361307 -0.387289 1.09681
0.362258 -0.386042 1.09649
0.36307 -0.384638 1.09583
0.363876 -0.38323 1.09516
0.36471 -0.381859 1.09456
0.36569 -0.380657 1.09433
0.366776 -0.379574 1.09435
0.367943 -0.378582 1.09458
0.369167 -0.377652 1.09494
0.370424 -0.376756 1.09537
0.371985 -0.376189 1.09654
0.37359 -0.375665 1.0978
0.375321 -0.375269 1.09936
0.377209 -0.375033 1.10128
0.379088 -0.374777 1.10317
0.380675 -0.374204 1.10436
0.382141 -0.373498 1.10526
0.383478 -0.372653 1.10584
0.384484 -0.371461 1.10565
0.385343 -0.370121 1.10512
0.386088 -0.368666 1.10432
0.38687 -0.367254 1.10362
0.387624 -0.365818 1.10285
0.388563 -0.364573 1.10252
0.389582 -0.36341 1.10238
0.390685 -0.362332 1.10243
0.391854 -0.361319 1.10263
0.392948 -0.360232 1.10266
0.394027 -0.359131 1.10266
0.398778 -0.361654 1.10821
0.395065 -0.357991 1.10256
0.356583 -0.388995 1.09609
0.357717 -0.387959 1.09622
0.358844 -0.386916 1.09634
0.359892 -0.385782 1.09626
0.360834 -0.384527 1.09592
0.361615 -0.38309 1.09518
0.362385 -0.381646 1.09443
0.363157 -0.380207 1.09368
0.364153 -0.379026 1.09348
0.365271 -0.377982 1.09359
0.366507 -0.37707 1.09398
0.367803 -0.376222 1.09452
0.369154 -0.375432 1.09519
0.370675 -0.374823 1.09626
0.372198 -0.374211 1.09734
0.373811 -0.373691 1.09862
0.37558 -0.373332 1.10027
0.377313 -0.372925 1.10182
0.378859 -0.372313 1.10292
0.38036 -0.371648 1.10391
0.381781 -0.370895 1.1047
0.382916 -0.369842 1.10482
0.383893 -0.368626 1.10456
0.384711 -0.367249 1.10394
0.385486 -0.365831 1.10322
0.386239 -0.364397 1.10245
0.387109 -0.363084 1.10196
0.388091 -0.361887 1.10173
0.389182 -0.3608 1.10176
0.390313 -0.359752 1.10187
0.391403 -0.358664 1.1019
0.392518 -0.357601 1.10198
0.393557 -0.356465 1.10189
0.356522 -0.386705 1.09621
0.35757 -0.385572 1.09613
0.358593 -0.38441 1.09599
0.359467 -0.383078 1.09548
0.360207 -0.381597 1.09464
0.360972 -0.380148 1.09387
0.361732 -0.378699 1.09309
0.362693 -0.377481 1.09282
0.36381 -0.37644 1.09293
0.365076 -0.375564 1.0934
0.366383 -0.37473 1.09397
0.367765 -0.373977 1.09471
0.369216 -0.373294 1.09562
0.370689 -0.372632 1.09659
0.372216 -0.372021 1.09767
0.37387 -0.371543 1.09905
0.375489 -0.37102 1.10034
0.377014 -0.37039 1.1014
0.378581 -0.3698 1.10255
0.380117 -0.369171 1.10363
0.381447 -0.368324 1.10421
0.382578 -0.36727 1.10432
0.383476 -0.365976 1.10388
0.384216 -0.364525 1.10307
0.384929 -0.363051 1.10221
0.385716 -0.361657 1.10153
0.386656 -0.36042 1.1012
0.387702 -0.35929 1.10113
0.388788 -0.3582 1.10114
0.389908 -0.357145 1.10124
0.391065 -0.356126 1.10142
0.392121 -0.355008 1.10137
0.355495 -0.385648 1.09662
0.356492 -0.384455 1.09642
0.35742 -0.383184 1.09604
0.358225 -0.381772 1.09535
0.358897 -0.380214 1.09434
0.359594 -0.378691 1.0934
0.360318 -0.377204 1.09253
0.361244 -0.375949 1.09217
0.36236 -0.374909 1.09228
0.363632 -0.374042 1.09277
0.36497 -0.373246 1.09342
0.366355 -0.372498 1.09418
0.367769 -0.371779 1.09501
0.369202 -0.371075 1.09588
0.370652 -0.370386 1.09678
0.372194 -0.36979 1.0979
0.373698 -0.369149 1.09893
0.375176 -0.368475 1.09988
0.376701 -0.367846 1.10095
0.378242 -0.367228 1.10204
0.379683 -0.366502 1.10289
0.38093 -0.36557 1.10328
0.381971 -0.364427 1.10318
0.382815 -0.363085 1.10262
0.383622 -0.361708 1.10198
0.384408 -0.360315 1.10129
0.385336 -0.359067 1.10094
0.386336 -0.357894 1.10076
0.387381 -0.356766 1.10068
0.388504 -0.355715 1.10079
0.389671 -0.354708 1.10099
0.390736 -0.353601 1.10096
0.354388 -0.384497 1.09683
0.355351 -0.383265 1.09654
0.356233 -0.381941 1.09604
0.356971 -0.380454 1.09519
0.357583 -0.378828 1.09402
0.358276 -0.377301 1.09307
0.358974 -0.375787 1.09214
0.359905 -0.37454 1.09179
0.36105 -0.373535 1.09197
0.36235 -0.372701 1.09254
0.363684 -0.371902 1.09318
0.365102 -0.371192 1.09403
0.366515 -0.370472 1.09486
0.367917 -0.369737 1.09565
0.369328 -0.369008 1.09647
0.370803 -0.368342 1.09743
0.372201 -0.367591 1.09821
0.373566 -0.3668 1.0989
0.374697 -0.365761 1.09902
0.375823 -0.364717 1.09914
0.376914 -0.363637 1.09917
0.377923 -0.362471 1.09901
0.378788 -0.361161 1.09851
0.380092 -0.360299 1.09905
0.381382 -0.359422 1.09955
0.382592 -0.358462 1.09986
0.383831 -0.35753 1.10024
0.385117 -0.356643 1.10073
0.38609 -0.355445 1.10048
0.387178 -0.354362 1.10051
0.388311 -0.353323 1.10064
0.389375 -0.352217 1.10061
0.353226 -0.383282 1.0969
0.354137 -0.38199 1.09647
0.355011 -0.380657 1.09596
0.355689 -0.379102 1.09495
0.356297 -0.377473 1.09377
0.356968 -0.375924 1.09276
0.357669 -0.374414 1.09184
0.358571 -0.373136 1.09142
0.359713 -0.37213 1.09159
0.360976 -0.371257 1.09207
0.36231 -0.37046 1.09272
0.363756 -0.369783 1.09364
0.36517 -0.369067 1.09448
0.36657 -0.368332 1.09527
0.367946 -0.367567 1.09601
0.369413 -0.366896 1.09696
0.370743 -0.366074 1.09758
0.371758 -0.364917 1.09743
0.372484 -0.363458 1.09659
0.373205 -0.361998 1.09575
0.37386 -0.360476 1.09475
0.374577 -0.359023 1.0939
0.375493 -0.35778 1.09354
0.376941 -0.35708 1.09444
0.37839 -0.356376 1.09533
0.380076 -0.355907 1.09678
0.381736 -0.355404 1.09815
0.383432 -0.35493 1.0996
0.384745 -0.354072 1.10015
0.386146 -0.353298 1.10091
0.387269 -0.352249 1.10102
0.388325 -0.351135 1.10097
0.352087 -0.382094 1.09703
0.352941 -0.380734 1.09645
0.353804 -0.379391 1.09591
0.354446 -0.377795 1.0948
0.355055 -0.376169 1.09363
0.355757 -0.374656 1.0927
0.356495 -0.373189 1.09186
0.357365 -0.371876 1.09136
0.358438 -0.370794 1.09137
0.359662 -0.36988 1.09175
0.360931 -0.369014 1.09224
0.362347 -0.368306 1.09309
0.363731 -0.36756 1.09386
0.365122 -0.366818 1.09464
0.36643 -0.365982 1.09522
0.367792 -0.365201 1.09592
0.368806 -0.364048 1.09578
0.369468 -0.362524 1.09478
0.369771 -0.360629 1.09293
0.370085 -0.358756 1.09112
0.370387 -0.356881 1.08929
0.37108 -0.35542 1.0884
0.372085 -0.354283 1.08827
0.373721 -0.353789 1.08963
0.375336 -0.353268 1.09093
0.377273 -0.353062 1.09299
0.379343 -0.35298 1.09534
0.38143 -0.352903 1.09773
0.383093 -0.352396 1.0991
0.384819 -0.351943 1.10062
0.386159 -0.351108 1.10123
0.387207 -0.349987 1.10117
0.351056 -0.381032 1.09743
0.351886 -0.379645 1.09679
0.35271 -0.378255 1.09614
0.353366 -0.376676 1.09507
0.353981 -0.375057 1.0939
0.354657 -0.373514 1.0929
0.355366 -0.372015 1.09199
0.356196 -0.370658 1.09139
0.357199 -0.369498 1.09122
0.358349 -0.368504 1.09142
0.35958 -0.367597 1.09182
0.360931 -0.366821 1.09252
0.362248 -0.366005 1.09313
0.363539 -0.365157 1.09367
0.364554 -0.364009 1.09353
0.365612 -0.362909 1.0935
0.366331 -0.36145 1.09265
0.366692 -0.359618 1.09093
0.366673 -0.357396 1.08831
0.366824 -0.355367 1.08611
0.367033 -0.35341 1.08407
0.367663 -0.351899 1.08305
0.368706 -0.350816 1.08302
0.370462 -0.350459 1.08469
0.37216 -0.350036 1.08621
0.37418 -0.349928 1.08848
0.376361 -0.349969 1.09112
0.378493 -0.349949 1.09364
0.380153 -0.34945 1.09502
0.381846 -0.348977 1.09648
0.383482 -0.348441 1.0978
0.384875 -0.347664 1.09855
0.350013 -0.379956 1.09779
0.35083 -0.378553 1.09712
0.351648 -0.377157 1.09645
0.352336 -0.375615 1.09546
0.352953 -0.373997 1.0943
0.35363 -0.372456 1.09329
0.354307 -0.37092 1.09229
0.355103 -0.369526 1.0916
0.356031 -0.368282 1.09125
0.357108 -0.367207 1.09127
0.358234 -0.366186 1.09141
0.359455 -0.365269 1.09179
0.360574 -0.36424 1.09192
0.361567 -0.363073 1.09173
0.362261 -0.361588 1.09081
0.362989 -0.360143 1.08998
0.36344 -0.35841 1.08848
0.363612 -0.35639 1.08631
0.363547 -0.354134 1.08358
0.363733 -0.352155 1.08148
0.363987 -0.350258 1.07955
0.36465 -0.348794 1.07862
0.365709 -0.34774 1.07865
0.367432 -0.347362 1.08026
0.369081 -0.346902 1.08168
0.371038 -0.346744 1.08383
0.373131 -0.346711 1.08629
0.375164 -0.346606 1.08859
0.376805 -0.346102 1.08996
0.378462 -0.345608 1.09135
0.380124 -0.345112 1.09275
0.381584 -0.344414 1.09367
0.349764 -0.377451 1.09743
0.350587 -0.37606 1.09677
0.351341 -0.374594 1.09594
0.351988 -0.37301 1.09485
0.35264 -0.371439 1.09378
0.353312 -0.369898 1.09276
0.354043 -0.368429 1.0919
0.354844 -0.367044 1.09123
0.355789 -0.365824 1.09092
0.356807 -0.364686 1.0908
0.357826 -0.36355 1.09068
0.358706 -0.362264 1.09021
0.359412 -0.360793 1.08932
0.359808 -0.358993 1.08767
0.360209 -0.357209 1.08605
0.360429 -0.355241 1.08399
0.360518 -0.353147 1.08162
0.360751 -0.351217 1.07963
0.361283 -0.349611 1.07837
0.361943 -0.348145 1.07743
0.362923 -0.347014 1.07727
0.36425 -0.346239 1.07794
0.365615 -0.3455 1.0787
0.366856 -0.344632 1.07916
0.368396 -0.344063 1.08034
0.370123 -0.343674 1.08194
0.3718 -0.343228 1.08342
0.373413 -0.342712 1.08475
0.375075 -0.342237 1.08617
0.376757 -0.341775 1.08764
0.378234 -0.341107 1.08862
0.383094 -0.343759 1.0947
0.379835 -0.340555 1.08989
0.348633 -0.376272 1.09756
0.349442 -0.374865 1.09687
0.350287 -0.373505 1.09627
0.350994 -0.37199 1.09533
0.351674 -0.370451 1.09432
0.352346 -0.368909 1.09331
0.353045 -0.367403 1.09236
0.353718 -0.365874 1.09136
0.354499 -0.364472 1.09064
0.355349 -0.363151 1.09009
0.356131 -0.361758 1.08938
0.356736 -0.360177 1.08824
0.357153 -0.358399 1.08663
0.357296 -0.356334 1.08436
0.35745 -0.354296 1.08213
0.357539 -0.3522 1.07976
0.357856 -0.35036 1.07796
0.358385 -0.348752 1.07669
0.359211 -0.347461 1.07615
0.360212 -0.346356 1.07605
0.361466 -0.345511 1.07655
0.36276 -0.344706 1.07715
0.364113 -0.343958 1.07789
0.365337 -0.343076 1.07832
0.366522 -0.342153 1.07865
0.367888 -0.34141 1.07941
0.369175 -0.340584 1.07998
0.370401 -0.339697 1.0804
0.371713 -0.338892 1.08102
0.373358 -0.338407 1.08242
0.374836 -0.337755 1.08342
0.376407 -0.337188 1.08464
0.34756 -0.37516 1.09785
0.348394 -0.373783 1.09722
0.349302 -0.372495 1.09678
0.350051 -0.371028 1.09594
0.350673 -0.369422 1.09478
0.351288 -0.367816 1.09362
0.351887 -0.366197 1.09241
0.352433 -0.364528 1.09109
0.353014 -0.362904 1.08986
0.353661 -0.361361 1.0888
0.354206 -0.359713 1.0875
0.354578 -0.357884 1.08578
0.354791 -0.355892 1.08367
0.354836 -0.353732 1.08115
0.35494 -0.35165 1.0788
0.355227 -0.349775 1.07692
0.355787 -0.348199 1.07572
0.356589 -0.346885 1.07513
0.357641 -0.345836 1.07515
0.358825 -0.344923 1.07549
0.360021 -0.344022 1.07586
0.361247 -0.343149 1.0763
0.362498 -0.3423 1.0768
0.363653 -0.341353 1.07706
0.364769 -0.340365 1.07724
0.365851 -0.339343 1.07732
0.366838 -0.338227 1.07719
0.367791 -0.337078 1.07697
0.368803 -0.335989 1.0769
0.370165 -0.335242 1.07765
0.371627 -0.334587 1.07863
0.373201 -0.334036 1.07987
0.34829 -0.371455 1.09722
0.349115 -0.370076 1.09658
0.349764 -0.368498 1.09548
0.350349 -0.366856 1.09423
0.350761 -0.365027 1.09254
0.351078 -0.363101 1.09063
0.351418 -0.361212 1.08879
0.351769 -0.359346 1.08698
0.352084 -0.357452 1.08511
0.352357 -0.355521 1.08313
0.352518 -0.353483 1.0809
0.352668 -0.351444 1.07865
0.352951 -0.349561 1.07674
0.353415 -0.34788 1.0753
0.354147 -0.346492 1.07453
0.355132 -0.345374 1.07439
0.356187 -0.34433 1.07442
0.357395 -0.343446 1.07482
0.358614 -0.342571 1.07525
0.359808 -0.341669 1.07562
0.360963 -0.340725 1.07589
0.362135 -0.339798 1.0762
0.363189 -0.338751 1.07623
0.364184 -0.337646 1.07611
0.365202 -0.336565 1.07605
0.366217 -0.335481 1.07599
0.367205 -0.334372 1.07586
0.368227 -0.333297 1.07581
0.369402 -0.332371 1.07613
0.37062 -0.331484 1.07654
0.346381 -0.371716 1.09813
0.347341 -0.370488 1.09783
0.348224 -0.369173 1.09732
0.348834 -0.367552 1.09612
0.349381 -0.365865 1.09477
0.349606 -0.363824 1.0926
0.349683 -0.36163 1.09006
0.349752 -0.359442 1.08753
0.34986 -0.357312 1.08511
0.349988 -0.355218 1.08276
0.350234 -0.353267 1.08072
0.350503 -0.351351 1.07875
0.350802 -0.34948 1.07688
0.351264 -0.347794 1.07542
0.351869 -0.346268 1.07433
0.352726 -0.345016 1.07386
0.353743 -0.343935 1.07381
0.354799 -0.342895 1.07384
0.355947 -0.341951 1.0741
0.357155 -0.341066 1.07451
0.358277 -0.340094 1.07471
0.359364 -0.339084 1.07482
0.360502 -0.338127 1.07505
0.361521 -0.337049 1.075
0.36248 -0.335911 1.0748
0.363491 -0.334827 1.07473
0.364499 -0.333742 1.07465
0.365482 -0.332632 1.07451
0.36653 -0.331587 1.07453
0.367738 -0.330697 1.07494
0.368959 -0.329818 1.07536
0.374847 -0.333469 1.08402
0.370414 -0.329161 1.07634
0.345472 -0.370795 1.09885
0.346441 -0.369576 1.09856
0.347333 -0.368271 1.09808
0.347884 -0.36658 1.09672
0.348307 -0.364753 1.09503
0.348335 -0.362491 1.09235
0.348174 -0.360031 1.0892
0.348001 -0.357578 1.08604
0.347915 -0.355237 1.08312
0.347979 -0.35308 1.08061
0.348261 -0.351174 1.07866
0.348667 -0.349414 1.07704
0.349107 -0.347701 1.07552
0.349737 -0.346199 1.07448
0.350438 -0.344779 1.07363
0.351357 -0.343595 1.07332
0.352378 -0.34252 1.07327
0.353404 -0.341451 1.07324
0.354516 -0.340472 1.07342
0.355683 -0.339549 1.07373
0.35677 -0.338544 1.07384
0.357793 -0.337473 1.0738
0.358921 -0.336508 1.07402
0.359901 -0.335395 1.07387
0.360822 -0.334224 1.07359
0.361793 -0.333104 1.07342
0.362789 -0.332011 1.07332
0.363766 -0.3309 1.07317
0.36481 -0.329856 1.07319
0.366019 -0.328971 1.0736
0.367241 -0.328097 1.07404
0.368634 -0.327384 1.07488
0.371946 -0.328571 1.07749
0.370092 -0.32673 1.07586
0.373549 -0.328044 1.07881
0.371654 -0.326168 1.07709
0.375063 -0.327426 1.0799
0.373187 -0.325574 1.07824
0.344653 -0.369979 1.09979
0.345622 -0.36876 1.09951
0.346465 -0.367397 1.09889
0.346892 -0.365562 1.0972
0.347126 -0.36352 1.09503
0.346931 -0.361006 1.09175
0.346543 -0.358296 1.08801
0.346181 -0.355636 1.08436
0.346031 -0.353231 1.08128
0.346098 -0.351082 1.07877
0.346481 -0.349293 1.07708
0.346985 -0.347644 1.07571
0.347524 -0.346042 1.07443
0.348219 -0.344613 1.07356
0.348953 -0.343232 1.07279
0.349872 -0.342051 1.07249
0.350886 -0.340972 1.07242
0.35191 -0.339904 1.07239
0.352985 -0.33889 1.07248
0.354117 -0.337935 1.07271
0.355166 -0.336894 1.07273
0.356157 -0.335795 1.07262
0.357253 -0.334801 1.07276
0.358226 -0.333685 1.0726
0.359108 -0.332481 1.07223
0.360072 -0.331358 1.07205
0.361071 -0.330272 1.07196
0.362047 -0.329165 1.07182
0.363093 -0.328127 1.07184
0.364326 -0.327269 1.07231
0.365543 -0.326395 1.07274
0.366836 -0.325592 1.07336
0.368223 -0.324875 1.07419
0.369714 -0.324252 1.07525
0.371247 -0.323663 1.07642
0.374822 -0.32507 1.07963
0.372953 -0.323229 1.07798
0.343734 -0.369049 1.10049
0.344718 -0.367844 1.10024
0.345466 -0.366371 1.09937
0.345793 -0.364422 1.09741
0.345834 -0.36216 1.09472
0.345465 -0.359452 1.09099
0.344922 -0.35657 1.08684
0.344476 -0.353821 1.08297
0.344343 -0.35144 1.07992
0.344482 -0.349375 1.07759
0.344935 -0.347665 1.07607
0.345479 -0.346064 1.0748
0.346051 -0.3445 1.07361
0.346741 -0.34307 1.07273
0.347468 -0.341685 1.07194
0.348383 -0.340503 1.07163
0.349396 -0.339426 1.07157
0.350386 -0.338326 1.07145
0.351425 -0.337279 1.07146
0.352549 -0.336319 1.07167
0.353572 -0.335254 1.07164
0.354533 -0.334129 1.07145
0.355628 -0.333139 1.07159
0.356596 -0.332022 1.07143
0.35745 -0.330793 1.07099
0.35842 -0.329681 1.07083
0.359422 -0.328602 1.07075
0.360405 -0.327506 1.07063
0.361481 -0.326501 1.07073
0.36271 -0.325643 1.0712
0.363919 -0.324765 1.07162
0.365197 -0.323951 1.0722
0.366544 -0.3232 1.07294
0.367988 -0.322536 1.07391
0.369514 -0.321946 1.07507
0.371284 -0.321576 1.07679
0.341804 -0.369292 1.10137
0.34268 -0.36796 1.10083
0.343638 -0.366725 1.1005
0.344165 -0.364998 1.09906
0.344323 -0.362858 1.09665
0.344189 -0.3604 1.0935
0.343742 -0.357609 1.08955
0.34318 -0.35471 1.08534
0.342869 -0.352115 1.08181
0.342844 -0.349857 1.07903
0.343086 -0.347908 1.07696
0.34355 -0.346215 1.07547
0.34407 -0.34459 1.07414
0.344666 -0.343055 1.07301
0.345349 -0.341619 1.0721
0.346048 -0.340207 1.07125
0.346961 -0.339026 1.07093
0.34797 -0.337948 1.07087
0.348929 -0.336818 1.07067
0.34991 -0.335713 1.07054
0.351002 -0.334724 1.07068
0.352016 -0.333655 1.07062
0.352977 -0.332532 1.07044
0.354044 -0.331518 1.07052
0.355047 -0.33044 1.07045
0.355934 -0.329246 1.07009
0.356937 -0.328171 1.07001
0.357972 -0.327127 1.07002
0.359021 -0.326098 1.07006
0.360131 -0.325129 1.07024
0.361329 -0.324244 1.07064
0.362503 -0.323334 1.07098
0.363709 -0.322454 1.0714
0.364979 -0.321633 1.07196
0.366347 -0.320901 1.07275
0.367864 -0.320306 1.0739
0.369596 -0.319905 1.07554
0.373313 -0.321437 1.0791
0.371621 -0.319766 1.07786
0.375329 -0.321275 1.08138
0.373733 -0.319696 1.08037
0.340717 -0.368164 1.10162
0.34161 -0.366852 1.10112
0.342341 -0.365355 1.1002
0.34263 -0.363356 1.09812
0.342611 -0.361017 1.09524
0.342335 -0.358402 1.09171
0.341821 -0.35554 1.08758
0.341448 -0.352859 1.08385
0.341318 -0.350471 1.08078
0.341426 -0.348364 1.07835
0.341764 -0.346524 1.07652
0.34226 -0.344867 1.07511
0.342775 -0.343238 1.07376
0.343369 -0.341703 1.07262
0.344051 -0.340269 1.07171
0.344728 -0.338835 1.0708
0.345614 -0.337627 1.07042
0.346593 -0.33652 1.07028
0.347547 -0.335388 1.07007
0.348525 -0.334283 1.06993
0.349558 -0.333236 1.06993
0.350567 -0.332163 1.06987
0.351524 -0.33104 1.06968
0.352558 -0.329996 1.06968
0.353565 -0.328925 1.06962
0.354513 -0.327795 1.06941
0.355548 -0.326754 1.06942
0.356644 -0.325773 1.06957
0.35775 -0.324802 1.06975
0.358893 -0.323867 1.07002
0.360095 -0.322987 1.07043
0.361268 -0.322078 1.07077
0.362438 -0.321165 1.0711
0.36364 -0.320281 1.07151
0.364909 -0.319458 1.07207
0.366345 -0.318789 1.07303
0.368001 -0.31832 1.0745
0.369911 -0.318078 1.07656
0.372012 -0.318002 1.07906
0.37585 -0.319618 1.08288
0.37425 -0.318039 1.08187
0.339553 -0.366946 1.10166
0.340221 -0.365372 1.10056
0.340779 -0.363677 1.09918
0.340847 -0.361427 1.09651
0.340713 -0.358962 1.09333
0.340377 -0.356286 1.08963
0.340045 -0.353635 1.08598
0.339891 -0.351206 1.08281
0.339964 -0.349046 1.08026
0.340173 -0.347054 1.07808
0.340545 -0.345252 1.07633
0.341034 -0.343589 1.0749
0.341518 -0.341928 1.07347
0.342079 -0.34036 1.07225
0.342743 -0.338908 1.07129
0.343424 -0.33748 1.07038
0.34431 -0.336275 1.07001
0.345284 -0.335164 1.06985
0.346261 -0.334059 1.06971
0.347215 -0.33293 1.06951
0.348217 -0.331852 1.06943
0.349161 -0.330716 1.06921
0.350104 -0.329581 1.06899
0.351081 -0.328482 1.06885
0.352088 -0.327414 1.06879
0.353037 -0.32629 1.06859
0.354127 -0.325306 1.06874
0.355253 -0.324357 1.06897
0.356425 -0.323454 1.06931
0.357633 -0.322583 1.06974
0.358924 -0.321791 1.07037
0.360124 -0.320909 1.07078
0.361265 -0.319969 1.07104
0.362463 -0.319082 1.07144
0.363698 -0.318229 1.07192
0.365006 -0.317441 1.07258
0.366548 -0.316868 1.07379
0.368329 -0.31651 1.07556
0.37031 -0.316327 1.07779
0.372487 -0.316312 1.08046
0.376296 -0.317888 1.08421
0.374645 -0.316266 1.08308
0.338432 -0.365779 1.10182
0.338803 -0.363859 1.09992
0.339103 -0.361868 1.09785
0.338971 -0.359391 1.09464
0.338813 -0.356904 1.09139
0.338588 -0.35436 1.08798
0.338412 -0.351891 1.08473
0.338477 -0.349711 1.08213
0.338765 -0.347795 1.08013
0.338989 -0.34582 1.07799
0.339362 -0.34402 1.07624
0.339817 -0.34232 1.07471
0.340266 -0.340624 1.07319
0.340774 -0.338999 1.07182
0.34147 -0.337584 1.07095
0.34221 -0.336221 1.07019
0.343098 -0.33502 1.06982
0.344066 -0.333904 1.06965
0.345014 -0.332769 1.06944
0.345908 -0.33158 1.06909
0.346852 -0.330445 1.06886
0.347758 -0.329273 1.06855
0.348663 -0.328102 1.06824
0.349605 -0.32697 1.06802
0.350609 -0.325902 1.06795
0.351585 -0.324808 1.06782
0.352706 -0.323857 1.06805
0.353869 -0.322948 1.06837
0.355077 -0.322082 1.06881
0.35635 -0.321277 1.0694
0.357675 -0.32052 1.07012
0.358909 -0.319671 1.07061
0.36008 -0.318762 1.07095
0.361308 -0.317904 1.07142
0.362545 -0.317053 1.07191
0.363786 -0.316204 1.07241
0.365217 -0.315529 1.07336
0.366821 -0.31501 1.07472
0.368649 -0.314689 1.07659
0.370708 -0.31457 1.07901
0.372921 -0.314578 1.08177
0.376663 -0.316082 1.08535
0.375082 -0.314527 1.08439
0.33716 -0.362082 1.09867
0.337182 -0.359773 1.09585
0.337007 -0.357254 1.09253
0.336941 -0.354879 1.08951
0.336935 -0.352589 1.08668
0.336908 -0.350293 1.08381
0.33716 -0.348326 1.0817
0.337571 -0.346548 1.08002
0.337832 -0.344615 1.07796
0.338177 -0.342786 1.07614
0.338599 -0.341051 1.07452
0.339041 -0.339348 1.07297
0.339524 -0.337699 1.07154
0.340252 -0.336319 1.07075
0.340995 -0.334961 1.07
0.34188 -0.333758 1.06962
0.34282 -0.332614 1.06938
0.343765 -0.331478 1.06916
0.344629 -0.33026 1.06873
0.34554 -0.329092 1.06843
0.346409 -0.327884 1.06802
0.347281 -0.326682 1.06763
0.348159 -0.325489 1.06725
0.349135 -0.324396 1.06712
0.350138 -0.323331 1.06705
0.35129 -0.322415 1.06736
0.352516 -0.32157 1.06785
0.353793 -0.320773 1.06846
0.35513 -0.320032 1.06921
0.356489 -0.319309 1.07002
0.357756 -0.318494 1.07059
0.358934 -0.317591 1.07094
0.360193 -0.316764 1.07149
0.361425 -0.315909 1.07198
0.362639 -0.315036 1.07241
0.364003 -0.3143 1.07321
0.365502 -0.313684 1.07432
0.367181 -0.313229 1.07585
0.369115 -0.312999 1.07798
0.371272 -0.312959 1.08062
0.373419 -0.312898 1.08322
0.377154 -0.314383 1.08679
0.375599 -0.312855 1.08589
0.379053 -0.314075 1.08877
0.377574 -0.312616 1.08806
0.335142 -0.355229 1.09065
0.335227 -0.353033 1.08804
0.335401 -0.350953 1.08568
0.335543 -0.34885 1.08325
0.335954 -0.347065 1.08156
0.336371 -0.345295 1.07989
0.336666 -0.343401 1.07791
0.33702 -0.341582 1.0761
0.337431 -0.339837 1.07446
0.33787 -0.338131 1.07289
0.338302 -0.336427 1.07132
0.339003 -0.335021 1.07046
0.33975 -0.333668 1.06972
0.340606 -0.332437 1.06927
0.341489 -0.331235 1.06888
0.342427 -0.330094 1.06864
0.343259 -0.328844 1.06814
0.344138 -0.327647 1.06776
0.344976 -0.32641 1.06727
0.345844 -0.325207 1.06687
0.346694 -0.323988 1.06642
0.347667 -0.322895 1.06629
0.348699 -0.321863 1.0663
0.349885 -0.320982 1.0667
0.351145 -0.320174 1.06727
0.352451 -0.319408 1.06796
0.353843 -0.318722 1.06885
0.355263 -0.318059 1.06981
0.356597 -0.31731 1.07055
0.357836 -0.316466 1.07106
0.359186 -0.315726 1.07183
0.360451 -0.314903 1.0724
0.361669 -0.314033 1.07284
0.363034 -0.313297 1.07364
0.364468 -0.312622 1.0746
0.365982 -0.312016 1.07574
0.36773 -0.311617 1.07744
0.369761 -0.311466 1.07979
0.371765 -0.311278 1.08207
0.37388 -0.31118 1.08459
0.375919 -0.311002 1.08692
0.333368 -0.353309 1.089
0.333668 -0.351363 1.08696
0.334049 -0.349523 1.08515
0.334417 -0.347678 1.08332
0.334776 -0.345835 1.08148
0.335199 -0.344073 1.07982
0.33553 -0.342219 1.07794
0.335887 -0.340405 1.07613
0.336271 -0.338631 1.07441
0.336708 -0.336924 1.07283
0.337084 -0.335161 1.07111
0.337762 -0.333731 1.07019
0.338504 -0.332376 1.06944
0.339328 -0.331111 1.0689
0.340176 -0.329875 1.06843
0.341114 -0.328735 1.06819
0.341917 -0.327459 1.06761
0.342795 -0.326262 1.06723
0.343633 -0.325028 1.06674
0.344501 -0.323827 1.06634
0.345351 -0.32261 1.0659
0.346352 -0.321548 1.06583
0.347387 -0.32052 1.06586
0.348573 -0.319642 1.06626
0.349806 -0.31881 1.06677
0.351075 -0.318009 1.06737
0.352492 -0.317351 1.06833
0.353969 -0.316745 1.06943
0.355371 -0.316062 1.07034
0.356678 -0.315285 1.07102
0.358118 -0.314631 1.07202
0.359416 -0.313839 1.07266
0.360636 -0.312971 1.07312
0.361976 -0.312212 1.07386
0.363404 -0.311531 1.0748
0.36482 -0.310835 1.07572
0.366402 -0.310287 1.07702
0.368286 -0.310004 1.07903
0.370138 -0.309683 1.08096
0.372132 -0.30948 1.08322
0.374158 -0.309295 1.08553
0.37779 -0.310665 1.08885
0.376124 -0.309045 1.08769
0.332119 -0.349706 1.08591
0.332744 -0.348146 1.08475
0.333153 -0.34635 1.08302
0.333516 -0.344512 1.08119
0.333977 -0.342794 1.07962
0.334403 -0.341048 1.07798
0.33482 -0.3393 1.07633
0.335236 -0.337561 1.07468
0.335675 -0.335857 1.07311
0.336049 -0.334092 1.07138
0.336696 -0.332629 1.07037
0.337402 -0.331235 1.06952
0.338167 -0.329909 1.06883
0.338981 -0.328639 1.06827
0.339861 -0.327441 1.06788
0.340636 -0.326137 1.06723
0.341489 -0.324916 1.06678
0.342328 -0.323684 1.06631
0.343197 -0.322487 1.06591
0.34408 -0.321305 1.06555
0.345112 -0.320276 1.06556
0.346177 -0.31928 1.06566
0.34736 -0.318401 1.06606
0.348555 -0.317532 1.06648
0.349757 -0.316669 1.06692
0.351133 -0.315972 1.06778
0.352582 -0.315342 1.06882
0.353992 -0.314669 1.06976
0.355369 -0.31396 1.07061
0.356874 -0.313369 1.07177
0.358205 -0.31261 1.0725
0.359456 -0.311772 1.07303
0.360821 -0.311037 1.07384
0.362216 -0.310327 1.07471
0.363594 -0.309598 1.07554
0.365138 -0.309015 1.07676
0.366916 -0.308638 1.07852
0.368656 -0.308219 1.0802
0.370558 -0.307936 1.08224
0.37256 -0.307732 1.08451
0.374522 -0.307482 1.08667
0.330827 -0.348342 1.08553
0.331437 -0.346768 1.08433
0.331884 -0.345016 1.0827
0.33229 -0.343228 1.08098
0.332766 -0.341529 1.07945
0.333281 -0.339881 1.07804
0.333759 -0.338202 1.07654
0.334213 -0.336505 1.07499
0.33466 -0.33481 1.07343
0.335063 -0.333075 1.07177
0.335674 -0.331574 1.07066
0.336292 -0.330087 1.06958
0.337022 -0.328724 1.0688
0.337779 -0.327395 1.06809
0.338628 -0.326165 1.06762
0.339401 -0.324861 1.06697
0.340279 -0.323668 1.06658
0.341094 -0.322414 1.06604
0.341966 -0.321221 1.06565
0.342849 -0.320041 1.06529
0.343854 -0.318986 1.06524
0.34492 -0.317993 1.06535
0.346101 -0.317114 1.06574
0.347287 -0.316238 1.06614
0.348449 -0.315336 1.06648
0.349782 -0.3146 1.06725
0.351169 -0.313912 1.06814
0.352551 -0.313215 1.06902
0.353988 -0.312567 1.07002
0.355558 -0.31204 1.07135
0.356954 -0.311342 1.07224
0.358264 -0.310562 1.07292
0.359681 -0.309876 1.07385
0.361074 -0.309165 1.07472
0.362449 -0.308433 1.07555
0.363992 -0.307851 1.07677
0.365701 -0.307412 1.07838
0.367336 -0.3069 1.07981
0.369095 -0.306492 1.08152
0.371052 -0.30625 1.08369
0.373012 -0.306001 1.08586
0.329579 -0.347028 1.08527
0.330085 -0.345337 1.08379
0.330591 -0.343655 1.08231
0.331034 -0.34191 1.08068
0.331575 -0.340285 1.07933
0.332157 -0.338713 1.07809
0.332696 -0.337102 1.07675
0.333217 -0.335478 1.07537
0.333675 -0.333794 1.07383
0.33411 -0.332095 1.07224
0.334689 -0.330559 1.07105
0.335277 -0.32904 1.06989
0.335946 -0.327612 1.06894
0.336647 -0.326224 1.06809
0.337433 -0.324931 1.06746
0.338201 -0.323623 1.06679
0.339078 -0.32243 1.0664
0.339896 -0.32118 1.06587
0.340797 -0.320017 1.06555
0.341703 -0.318862 1.06525
0.342707 -0.317808 1.0652
0.343745 -0.316788 1.06523
0.344926 -0.315909 1.06563
0.346082 -0.315006 1.06596
0.347182 -0.314045 1.06615
0.348449 -0.313247 1.06675
0.349789 -0.312515 1.06753
0.351099 -0.311752 1.06824
0.35256 -0.311129 1.06931
0.354162 -0.310635 1.07072
0.355624 -0.310002 1.07178
0.356998 -0.309283 1.07262
0.358476 -0.308655 1.07371
0.359869 -0.307946 1.07458
0.361306 -0.307272 1.07556
0.36285 -0.30669 1.07679
0.364559 -0.306253 1.07841
0.36613 -0.305683 1.07969
0.367786 -0.305184 1.08116
0.36967 -0.304879 1.08317
0.371623 -0.304626 1.08533
0.374937 -0.305711 1.08793
0.373586 -0.304371 1.0875
0.328308 -0.34797 1.08782
0.328564 -0.345981 1.08564
0.32903 -0.344244 1.08404
0.32947 -0.342488 1.08238
0.329894 -0.340722 1.08069
0.330443 -0.339107 1.07935
0.331079 -0.337596 1.07826
0.331621 -0.335988 1.07692
0.332151 -0.334375 1.07556
0.332646 -0.332731 1.07411
0.333116 -0.33107 1.07262
0.333697 -0.329536 1.07142
0.334283 -0.328014 1.07024
0.334952 -0.326587 1.0693
0.335621 -0.325166 1.06836
0.336376 -0.32384 1.06764
0.337138 -0.322526 1.06695
0.338016 -0.321335 1.06657
0.338813 -0.320064 1.06598
0.339715 -0.318903 1.06567
0.340615 -0.317743 1.06535
0.341583 -0.316653 1.06521
0.34259 -0.315603 1.06517
0.343745 -0.3147 1.0655
0.344879 -0.313775 1.06577
0.34595 -0.312788 1.06589
0.347182 -0.311957 1.06641
0.348451 -0.311159 1.06702
0.349713 -0.310352 1.06761
0.351132 -0.309691 1.06859
0.352729 -0.309195 1.06999
0.354206 -0.308579 1.0711
0.355616 -0.307896 1.07203
0.357129 -0.307304 1.07321
0.35858 -0.306649 1.07424
0.360055 -0.306011 1.07531
0.361635 -0.305464 1.07663
0.363373 -0.305053 1.07833
0.364968 -0.304506 1.07967
0.366588 -0.303976 1.08106
0.368396 -0.303605 1.0829
0.370306 -0.303315 1.08497
0.37226 -0.303054 1.08713
0.327748 -0.34962 1.08919
0.3271 -0.351173 1.09032
0.325972 -0.349995 1.0904
0.326713 -0.34855 1.08952
0.327259 -0.346885 1.0881
0.327517 -0.344898 1.08592
0.327901 -0.343068 1.08409
0.328256 -0.341216 1.0822
0.328679 -0.339451 1.0805
0.329259 -0.337871 1.07924
0.329922 -0.336391 1.07821
0.330518 -0.334844 1.07701
0.331103 -0.333291 1.0758
0.33163 -0.331683 1.07443
0.332135 -0.330059 1.07302
0.332722 -0.328531 1.07183
0.33331 -0.327012 1.07066
0.333953 -0.325557 1.06964
0.334595 -0.324107 1.06862
0.33532 -0.322751 1.06783
0.336079 -0.321433 1.06713
0.336933 -0.320218 1.06669
0.337707 -0.318924 1.06604
0.338609 -0.317764 1.06572
0.339507 -0.316603 1.0654
0.340416 -0.315454 1.0651
0.341389 -0.314371 1.06498
0.342537 -0.313463 1.06529
0.34364 -0.312509 1.06549
0.344714 -0.311526 1.06562
0.345918 -0.31067 1.06608
0.347124 -0.309813 1.06653
0.348291 -0.308917 1.06689
0.349637 -0.30819 1.06769
0.35114 -0.307609 1.06888
0.352582 -0.306963 1.0699
0.354021 -0.30631 1.07091
0.355626 -0.305806 1.07233
0.357172 -0.305242 1.07359
0.358773 -0.304722 1.07498
0.360475 -0.304287 1.0766
0.362281 -0.303939 1.07847
0.363873 -0.303389 1.07981
0.365483 -0.30285 1.08118
0.367211 -0.302409 1.08284
0.369077 -0.302081 1.08481
0.371021 -0.301812 1.08695
0.374245 -0.302809 1.08934
0.373007 -0.301569 1.08918
0.323957 -0.350096 1.09096
0.32489 -0.348871 1.0906
0.325698 -0.347504 1.0899
0.326261 -0.345859 1.08853
0.326576 -0.343936 1.08648
0.326948 -0.342092 1.08462
0.327244 -0.340171 1.08255
0.327643 -0.338379 1.08079
0.328191 -0.336764 1.07944
0.328794 -0.335218 1.07824
0.329364 -0.333643 1.07697
0.329925 -0.332065 1.07569
0.330483 -0.330492 1.0744
0.331017 -0.3289 1.07306
0.331635 -0.327407 1.07196
0.332227 -0.325892 1.07079
0.3329 -0.324469 1.06984
0.333519 -0.322995 1.06876
0.334245 -0.321641 1.06797
0.335003 -0.320323 1.06727
0.335855 -0.319107 1.06682
0.33663 -0.317814 1.06616
0.337533 -0.316656 1.06585
0.338404 -0.315467 1.06546
0.339254 -0.314261 1.06501
0.340165 -0.313118 1.06473
0.341221 -0.312119 1.06481
0.342256 -0.311101 1.06485
0.34335 -0.310141 1.06503
0.344531 -0.309264 1.06543
0.345744 -0.308416 1.0659
0.346908 -0.30752 1.06626
0.34824 -0.306783 1.06703
0.349673 -0.306137 1.06805
0.351095 -0.305476 1.06903
0.352559 -0.304849 1.07011
0.35419 -0.304372 1.0716
0.355804 -0.303873 1.07304
0.357472 -0.303417 1.0746
0.359215 -0.303021 1.07633
0.36105 -0.302699 1.07827
0.362672 -0.302178 1.07969
0.36425 -0.301611 1.081
0.365881 -0.301085 1.08242
0.367755 -0.300766 1.08442
0.369656 -0.30046 1.08647
0.371638 -0.300216 1.0887
0.322825 -0.348912 1.09102
0.323762 -0.347693 1.09067
0.324601 -0.346363 1.09005
0.325155 -0.344707 1.08865
0.325556 -0.342883 1.08684
0.325936 -0.341048 1.08498
0.326265 -0.339166 1.08301
0.326637 -0.337342 1.08116
0.327154 -0.335693 1.07972
0.327725 -0.33411 1.07843
0.328269 -0.332508 1.07709
0.328807 -0.330905 1.07573
0.329396 -0.329365 1.07452
0.329959 -0.327806 1.07326
0.330579 -0.326315 1.07215
0.331227 -0.32486 1.07113
0.331932 -0.323472 1.07027
0.332554 -0.322001 1.06919
0.333283 -0.320648 1.0684
0.33404 -0.31933 1.06769
0.334863 -0.318084 1.06716
0.335637 -0.31679 1.06651
0.336537 -0.315629 1.06618
0.33741 -0.314442 1.06579
0.338232 -0.313208 1.06528
0.339083 -0.312005 1.06483
0.340039 -0.310909 1.06467
0.341002 -0.309821 1.06452
0.342066 -0.308833 1.06463
0.343219 -0.307932 1.06496
0.344468 -0.30712 1.06553
0.345688 -0.30628 1.06603
0.346962 -0.305489 1.06666
0.348325 -0.304778 1.06751
0.349701 -0.304076 1.06839
0.351095 -0.303387 1.0693
0.352666 -0.302857 1.07065
0.354315 -0.302393 1.07218
0.356016 -0.301969 1.07383
0.357791 -0.301605 1.07565
0.359655 -0.301311 1.07767
0.361305 -0.300818 1.07917
0.362908 -0.300276 1.08054
0.364538 -0.29975 1.08197
0.366381 -0.299405 1.0839
0.368271 -0.299093 1.08594
0.370275 -0.298869 1.08823
0.321818 -0.347876 1.09143
0.322764 -0.346667 1.0911
0.323596 -0.345328 1.09046
0.324161 -0.343684 1.08908
0.324599 -0.341904 1.08737
0.325042 -0.340139 1.08568
0.32538 -0.338265 1.08371
0.325722 -0.336408 1.08178
0.32615 -0.334657 1.08009
0.326659 -0.333006 1.07863
0.327172 -0.331369 1.07719
0.32769 -0.329745 1.07578
0.328308 -0.328239 1.07465
0.328875 -0.326684 1.07339
0.329524 -0.325224 1.07236
0.330204 -0.323804 1.07141
0.330942 -0.32245 1.07063
0.331569 -0.320985 1.06956
0.332324 -0.31966 1.06884
0.333079 -0.318339 1.06812
0.333874 -0.317063 1.06752
0.334648 -0.315771 1.06686
0.335549 -0.31461 1.06654
0.336395 -0.313397 1.06608
0.337186 -0.312131 1.06548
0.338 -0.310892 1.06494
0.338868 -0.309709 1.06454
0.339764 -0.308556 1.06423
0.340817 -0.30756 1.06431
0.341971 -0.30666 1.06465
0.343228 -0.305859 1.06525
0.344533 -0.305101 1.06596
0.345784 -0.304289 1.06654
0.347113 -0.303547 1.0673
0.348453 -0.302813 1.0681
0.349809 -0.302091 1.06892
0.35129 -0.301479 1.07005
0.352957 -0.301034 1.07163
0.354619 -0.300577 1.0732
0.356386 -0.300206 1.07501
0.358214 -0.299884 1.07696
0.359918 -0.29944 1.07859
0.361529 -0.298907 1.07999
0.363193 -0.298414 1.08151
0.365003 -0.298042 1.08337
0.366885 -0.297723 1.08539
0.368825 -0.297446 1.08755
0.372297 -0.29865 1.09056
0.370965 -0.29733 1.09016
0.320767 -0.346788 1.09171
0.321725 -0.345593 1.09142
0.322551 -0.344247 1.09076
0.323147 -0.342639 1.08946
0.323618 -0.340897 1.08783
0.324073 -0.339144 1.08617
0.324412 -0.337271 1.0842
0.324754 -0.335412 1.08225
0.325147 -0.333623 1.08046
0.325597 -0.331906 1.07883
0.326105 -0.330265 1.07738
0.326622 -0.32864 1.07596
0.327245 -0.327139 1.07484
0.327844 -0.325619 1.07366
0.328499 -0.324166 1.07263
0.329181 -0.322748 1.0717
0.329923 -0.321399 1.07092
0.330556 -0.31994 1.06987
0.331311 -0.318615 1.06914
0.332092 -0.317321 1.06849
0.332888 -0.316047 1.06788
0.333665 -0.314756 1.06723
0.33457 -0.3136 1.06692
0.335385 -0.312355 1.06637
0.336146 -0.311059 1.06569
0.336931 -0.309791 1.06508
0.337738 -0.308549 1.06452
0.338606 -0.30737 1.06413
0.33968 -0.306396 1.06427
0.340837 -0.305501 1.06462
0.342091 -0.304697 1.06522
0.343458 -0.303999 1.06609
0.34471 -0.303188 1.06667
0.345986 -0.302397 1.06731
0.347324 -0.301662 1.0681
0.348674 -0.300934 1.06891
0.350061 -0.300237 1.06981
0.351653 -0.299724 1.07122
0.353295 -0.29925 1.07274
0.354988 -0.298815 1.07438
0.356751 -0.298436 1.07618
0.358482 -0.298019 1.07788
0.360117 -0.29751 1.07935
0.361815 -0.297049 1.08096
0.363658 -0.296707 1.08291
0.365537 -0.296389 1.08494
0.367428 -0.29607 1.08698
0.369693 -0.296063 1.08991
0.318967 -0.347144 1.09289
0.319873 -0.345885 1.09244
0.320809 -0.344663 1.09208
0.32159 -0.343264 1.09129
0.322213 -0.341686 1.09006
0.322714 -0.339977 1.08851
0.323205 -0.338265 1.08694
0.323549 -0.336396 1.08497
0.323889 -0.334534 1.08301
0.324198 -0.33265 1.08098
0.324561 -0.330835 1.07911
0.324986 -0.329102 1.07742
0.325473 -0.327446 1.07591
0.326078 -0.325926 1.07474
0.326732 -0.324467 1.07371
0.32739 -0.323018 1.07269
0.3281 -0.321631 1.07182
0.32887 -0.320312 1.07112
0.329533 -0.318884 1.07014
0.330291 -0.317563 1.06942
0.331102 -0.3163 1.06884
0.3319 -0.315028 1.06824
0.33268 -0.31374 1.06759
0.333586 -0.312585 1.06728
0.334373 -0.311313 1.06666
0.335131 -0.310014 1.06597
0.335887 -0.308717 1.06528
0.336643 -0.307425 1.0646
0.337513 -0.306249 1.06421
0.338613 -0.3053 1.06441
0.339777 -0.304412 1.06478
0.34106 -0.303637 1.06545
0.342513 -0.303021 1.06655
0.343763 -0.302208 1.06712
0.345041 -0.301419 1.06777
0.346401 -0.300704 1.06862
0.347751 -0.299976 1.06943
0.349052 -0.299199 1.07012
0.350545 -0.298595 1.07128
0.352105 -0.298047 1.07261
0.353667 -0.297495 1.07393
0.355393 -0.297083 1.07564
0.357153 -0.296695 1.07743
0.358815 -0.296211 1.07897
0.360515 -0.295753 1.08059
0.362347 -0.295403 1.08253
0.364157 -0.295025 1.08439
0.365972 -0.294644 1.08626
0.368354 -0.29474 1.08949
0.371761 -0.295876 1.09235
0.370562 -0.294671 1.09228
0.318053 -0.346218 1.09357
0.318969 -0.344971 1.09315
0.319887 -0.343727 1.09273
0.320659 -0.342316 1.09191
0.321279 -0.340734 1.09067
0.32178 -0.339024 1.08911
0.322274 -0.337314 1.08754
0.322627 -0.335455 1.08559
0.322944 -0.333566 1.08355
0.323196 -0.331616 1.08135
0.323497 -0.329733 1.0793
0.323864 -0.327936 1.07745
0.324352 -0.326282 1.07594
0.324959 -0.324765 1.07477
0.325644 -0.323341 1.07382
0.326305 -0.321895 1.07281
0.32704 -0.320535 1.072
0.327806 -0.319213 1.07129
0.328499 -0.317818 1.07039
0.329266 -0.316505 1.06969
0.330109 -0.315276 1.06919
0.330936 -0.314033 1.06866
0.331717 -0.312747 1.06801
0.332624 -0.311593 1.0677
0.333437 -0.310346 1.06715
0.334195 -0.309047 1.06646
0.334926 -0.307725 1.0657
0.335682 -0.306433 1.06501
0.336577 -0.305281 1.06468
0.337659 -0.304314 1.06484
0.338855 -0.303457 1.06529
0.340145 -0.302689 1.06598
0.341622 -0.302096 1.06715
0.342872 -0.301282 1.06772
0.344148 -0.30049 1.06836
0.345507 -0.299773 1.06921
0.346858 -0.299045 1.07003
0.3481 -0.298213 1.07057
0.349499 -0.297523 1.07151
0.351015 -0.296934 1.07272
0.352508 -0.29632 1.07388
0.354174 -0.295856 1.07545
0.355902 -0.295439 1.07717
0.357562 -0.294955 1.07871
0.359223 -0.294464 1.08024
0.360959 -0.294032 1.08195
0.362722 -0.293615 1.08371
0.364518 -0.293219 1.08555
0.366956 -0.293364 1.08892
0.36927 -0.293389 1.09198
0.317015 -0.345146 1.09389
0.317889 -0.343847 1.09335
0.318784 -0.342577 1.09287
0.319548 -0.341158 1.09202
0.320182 -0.339593 1.09082
0.320711 -0.337915 1.08933
0.321211 -0.336213 1.08776
0.321597 -0.334391 1.0859
0.321889 -0.332473 1.08379
0.322109 -0.330489 1.08149
0.322353 -0.328542 1.07928
0.32271 -0.326735 1.07739
0.323202 -0.325085 1.07589
0.32381 -0.323571 1.07472
0.324504 -0.322158 1.07379
0.325188 -0.320738 1.07283
0.325924 -0.31938 1.07203
0.326666 -0.318032 1.07125
0.327389 -0.31667 1.07043
0.328186 -0.315391 1.06981
0.329062 -0.314196 1.0694
0.329919 -0.312985 1.06895
0.330727 -0.311726 1.06837
0.331632 -0.310569 1.06805
0.332424 -0.309301 1.06743
0.333183 -0.308004 1.06674
0.333912 -0.306681 1.06597
0.334667 -0.305388 1.06528
0.33556 -0.304234 1.06495
0.336699 -0.303323 1.06526
0.337927 -0.302496 1.06579
0.339224 -0.301734 1.0665
0.340726 -0.301165 1.06773
0.342003 -0.300376 1.06838
0.343251 -0.299557 1.06895
0.344583 -0.298814 1.06973
0.345929 -0.298081 1.07054
0.34714 -0.29722 1.071
0.348479 -0.296474 1.07179
0.349965 -0.295858 1.07294
0.35142 -0.295209 1.074
0.353052 -0.294716 1.0755
0.354746 -0.294269 1.07714
0.356377 -0.293759 1.07861
0.357965 -0.293205 1.07997
0.359625 -0.292708 1.0815
0.361278 -0.292198 1.08301
0.363066 -0.291797 1.08483
0.365534 -0.29197 1.08829
0.367916 -0.292053 1.09152
0.371508 -0.293334 1.09483
0.370217 -0.292054 1.09454
0.316774 -0.342683 1.09345
0.317633 -0.341372 1.09287
0.318409 -0.339967 1.09205
0.319073 -0.338438 1.09093
0.319607 -0.336767 1.08945
0.320083 -0.335037 1.08781
0.320471 -0.333218 1.08595
0.320736 -0.331271 1.08375
0.320956 -0.329287 1.08145
0.321224 -0.327368 1.07929
0.321587 -0.325568 1.07742
0.322108 -0.323952 1.07599
0.322721 -0.322443 1.07482
0.323417 -0.321031 1.07389
0.324075 -0.319586 1.07287
0.324813 -0.31823 1.07207
0.32553 -0.316857 1.07122
0.326281 -0.315525 1.07047
0.327109 -0.314278 1.06993
0.328014 -0.313115 1.0696
0.328902 -0.311936 1.06923
0.329766 -0.310735 1.0688
0.330676 -0.309584 1.06849
0.331495 -0.308342 1.06794
0.332257 -0.307048 1.06725
0.332987 -0.305725 1.06649
0.333741 -0.30443 1.06578
0.334633 -0.303276 1.06545
0.335772 -0.302363 1.06576
0.337001 -0.301537 1.0663
0.338323 -0.300799 1.06707
0.339798 -0.300203 1.06823
0.341103 -0.299441 1.06896
0.342327 -0.298598 1.06946
0.343659 -0.297855 1.07025
0.344941 -0.297062 1.0709
0.346146 -0.296195 1.07135
0.347426 -0.295395 1.07199
0.348881 -0.294752 1.07306
0.350305 -0.294075 1.07405
0.351933 -0.293578 1.07554
0.35359 -0.293099 1.0771
0.355211 -0.292582 1.07856
0.356732 -0.291969 1.07976
0.358316 -0.291407 1.08111
0.359891 -0.29083 1.08243
0.361738 -0.290482 1.0844
0.364149 -0.290607 1.08774
0.366565 -0.290721 1.09107
0.368875 -0.29073 1.09412
0.372394 -0.291936 1.09724
0.371038 -0.290603 1.0968
0.316349 -0.340011 1.09248
0.317143 -0.338629 1.09172
0.317843 -0.337143 1.09069
0.318413 -0.335513 1.08931
0.31889 -0.333787 1.08767
0.3193 -0.331993 1.08586
0.319562 -0.330044 1.08365
0.319794 -0.328074 1.08137
0.320072 -0.326168 1.07924
0.320444 -0.324379 1.07738
0.320993 -0.322794 1.07603
0.321614 -0.321296 1.07488
0.32231 -0.319885 1.07395
0.322994 -0.318467 1.07299
0.323755 -0.317137 1.07225
0.32445 -0.315741 1.07134
0.325228 -0.314438 1.07066
0.326082 -0.313218 1.07018
