ply
format ascii 1.0
element vertex 1621
property float x
property float y
property float z
end_header
0.0147897 -0.170606 0.739168
0.0136719 -0.170986 0.737596
0.012557 -0.171341 0.73593
0.011446 -0.171686 0.734231
0.0103396 -0.172029 0.732539
0.00924056 -0.172432 0.731113
0.00814818 -0.172914 0.730029
0.00706014 -0.173447 0.729167
0.00597509 -0.174009 0.72843
0.0048917 -0.174567 0.727684
0.00380985 -0.17511 0.726879
0.00273039 -0.175705 0.726295
0.00165233 -0.176304 0.72573
0.000574965 -0.176988 0.725515
-0.000502373 -0.177694 0.725391
-0.00157996 -0.178422 0.725356
-0.00265831 -0.179168 0.725394
-0.00373844 -0.179966 0.725638
-0.00481809 -0.180717 0.72569
-0.00589817 -0.181466 0.725734
-0.0069825 -0.1823 0.726114
-0.00806847 -0.183138 0.726505
-0.00916226 -0.18409 0.727342
-0.0102743 -0.185295 0.729165
-0.0113999 -0.186623 0.731455
-0.0125336 -0.187969 0.733792
-0.0136736 -0.189312 0.736102
-0.0148108 -0.190541 0.737951
-0.0159309 -0.191515 0.738806
-0.0170449 -0.192395 0.739291
-0.0181528 -0.193196 0.73947
-0.0192512 -0.193898 0.739269
-0.0203426 -0.194537 0.738831
-0.0214409 -0.195245 0.738658
-0.0225338 -0.195907 0.738309
-0.0236364 -0.196653 0.738279
-0.0247468 -0.197458 0.738468
-0.0258637 -0.198304 0.738807
-0.0269712 -0.199075 0.738862
-0.0280867 -0.199898 0.739109
-0.0292032 -0.200721 0.739355
-0.0303156 -0.201511 0.739475
-0.0314228 -0.202264 0.739461
-0.032522 -0.202966 0.739258
-0.0335996 -0.20354 0.738592
-0.0346537 -0.203985 0.737467
-0.0356935 -0.204364 0.736106
-0.0367295 -0.204739 0.734744
-0.0377438 -0.205015 0.733034
-0.0387668 -0.205358 0.731572
-0.0397839 -0.205687 0.730073
-0.0408027 -0.206042 0.728676
-0.041832 -0.206465 0.727526
-0.0428993 -0.207082 0.727066
-0.0439705 -0.207722 0.726688
-0.0451158 -0.208706 0.727512
-0.0464094 -0.210351 0.730627
-0.0478542 -0.212629 0.735915
-0.0493361 -0.215014 0.741535
-0.0508295 -0.217385 0.747065
-0.0521761 -0.219083 0.75025
-0.0534431 -0.220419 0.752172
-0.0545672 -0.221153 0.752033
-0.0556732 -0.221818 0.75166
-0.0567725 -0.222457 0.751199
-0.0578817 -0.223139 0.750888
-0.058993 -0.223829 0.750603
-0.0601303 -0.224617 0.750649
-0.0613122 -0.225571 0.751245
-0.0625254 -0.226631 0.75219
-0.0637698 -0.227793 0.753464
-0.0650571 -0.229097 0.755203
-0.066366 -0.230458 0.757115
-0.0676768 -0.231812 0.758991
-0.0689736 -0.233102 0.760642
-0.0702582 -0.234335 0.762098
0.0358608 -0.16189 0.755698
0.0347239 -0.162514 0.755073
0.0335961 -0.163176 0.754632
0.0324674 -0.163829 0.754148
0.0313425 -0.164496 0.753736
0.0302122 -0.165127 0.753156
0.0290849 -0.165767 0.752627
0.0279451 -0.166316 0.751693
0.026797 -0.166792 0.750436
0.0256491 -0.167244 0.749084
0.0245097 -0.16773 0.747897
0.0233704 -0.168192 0.74661
0.0222446 -0.168737 0.745696
0.0211173 -0.169247 0.744637
0.0199903 -0.169733 0.743482
0.0188612 -0.170165 0.7421
0.0177338 -0.170574 0.740632
0.016609 -0.170965 0.739098
0.0154935 -0.17142 0.737848
0.0143768 -0.171813 0.736343
0.0132641 -0.172203 0.734835
0.0121569 -0.172617 0.733447
0.0110529 -0.173017 0.732004
0.00995441 -0.173456 0.730735
0.0088625 -0.17397 0.729791
0.00777414 -0.174519 0.728999
0.00668817 -0.175084 0.728278
0.00560428 -0.175659 0.727606
0.00452176 -0.17622 0.726876
0.00344138 -0.176833 0.726367
0.00236228 -0.177451 0.725879
0.00128412 -0.178139 0.72568
0.0002061 -0.178845 0.725554
-0.000872345 -0.179573 0.725518
-0.00195126 -0.180319 0.725549
-0.00303182 -0.181116 0.725786
-0.00411253 -0.181881 0.725893
-0.00519392 -0.182648 0.726003
-0.00628374 -0.183606 0.726866
-0.00737647 -0.184567 0.727734
-0.00847864 -0.185653 0.729086
-0.00960052 -0.187012 0.731491
-0.0107343 -0.188452 0.734186
-0.0118648 -0.189727 0.736226
-0.0129989 -0.190971 0.738127
-0.0141259 -0.192055 0.739399
-0.0152342 -0.192871 0.739636
-0.0163387 -0.193633 0.739663
-0.0174417 -0.194375 0.739614
-0.0185372 -0.195038 0.739267
-0.0196311 -0.195693 0.738889
-0.0207303 -0.196402 0.738717
-0.0218216 -0.197045 0.738296
-0.0229244 -0.197789 0.738254
-0.0240348 -0.198592 0.738434
-0.0251468 -0.199402 0.738634
-0.0262517 -0.200152 0.738615
-0.0273668 -0.200974 0.738854
-0.0284773 -0.201757 0.73895
-0.0295804 -0.202486 0.738848
-0.0306772 -0.203174 0.738597
-0.0317655 -0.20381 0.738159
-0.0328223 -0.204259 0.737046
-0.033854 -0.204573 0.735457
-0.0348688 -0.20481 0.733603
-0.0358851 -0.20508 0.731879
-0.0368796 -0.205254 0.729822
-0.0378991 -0.205587 0.728346
-0.0389204 -0.205949 0.72698
-0.0399515 -0.206377 0.725855
-0.0409896 -0.206853 0.724906
-0.0420639 -0.207516 0.724616
-0.0432026 -0.208491 0.725412
-0.0444329 -0.209887 0.727663
-0.0458185 -0.21197 0.732278
-0.0487943 -0.216892 0.743998
-0.0502209 -0.218988 0.748551
-0.0514932 -0.220375 0.750647
-0.0526912 -0.221428 0.751598
-0.0538141 -0.222161 0.751454
-0.0549144 -0.2228 0.750995
-0.0560135 -0.223437 0.750532
-0.0571171 -0.224098 0.750149
-0.0582215 -0.224763 0.749786
-0.0593565 -0.225545 0.749809
-0.0605417 -0.226516 0.750462
-0.0617428 -0.227538 0.751276
-0.0629799 -0.228682 0.752487
-0.0642584 -0.229966 0.754151
-0.0655623 -0.231323 0.756043
-0.0668715 -0.232683 0.757928
-0.0681813 -0.234028 0.759751
-0.0694797 -0.235318 0.761388
-0.071544 -0.235561 0.763519
-0.0707784 -0.236596 0.762971
0.0343245 -0.164197 0.7541
0.033193 -0.164835 0.753551
0.0320673 -0.165498 0.753121
0.0309359 -0.166121 0.752514
0.0298092 -0.166764 0.752
0.0286691 -0.167314 0.751074
0.0275205 -0.167789 0.749824
0.026374 -0.168254 0.748541
0.0252359 -0.168755 0.747423
0.0240978 -0.169233 0.746212
0.0229716 -0.169779 0.745312
0.0218432 -0.170287 0.744249
0.0207131 -0.170751 0.743006
0.0195805 -0.171158 0.741524
0.0184487 -0.171529 0.739902
0.0173212 -0.171898 0.738285
0.0162041 -0.172337 0.736976
0.0150883 -0.172748 0.735558
0.0139776 -0.173174 0.734214
0.0128721 -0.173627 0.732995
0.011769 -0.174062 0.731708
0.0106719 -0.174551 0.730654
0.00958011 -0.175095 0.729839
0.00849055 -0.175645 0.729055
0.00740396 -0.176226 0.7284
0.00631925 -0.176819 0.727802
0.00523556 -0.177398 0.727146
0.00415402 -0.178013 0.726646
0.00307375 -0.17865 0.726236
0.00199438 -0.179322 0.72597
0.000915379 -0.180029 0.725843
-0.000163886 -0.180756 0.725797
-0.00124361 -0.181502 0.725828
-0.00232493 -0.182301 0.726068
-0.00340813 -0.183136 0.726447
-0.00449403 -0.184012 0.72698
-0.0055895 -0.185095 0.728325
-0.00668952 -0.186188 0.729696
-0.00780002 -0.187413 0.731572
-0.00892531 -0.188811 0.734101
-0.0100556 -0.190168 0.736447
-0.0111791 -0.191311 0.737956
-0.0123037 -0.192409 0.739279
-0.0134209 -0.193351 0.739995
-0.014524 -0.194089 0.73993
-0.0156258 -0.19481 0.7398
-0.0167274 -0.195531 0.739668
-0.0178236 -0.196193 0.739313
-0.0189184 -0.196848 0.738938
-0.0200165 -0.197541 0.738701
-0.0211087 -0.198183 0.73828
-0.0222096 -0.198907 0.738164
-0.0233174 -0.199689 0.738261
-0.0244267 -0.200477 0.738379
-0.0255291 -0.201208 0.738285
-0.0266388 -0.201992 0.738385
-0.0277405 -0.202714 0.738261
-0.028831 -0.203359 0.737854
-0.0299107 -0.203938 0.737209
-0.0309814 -0.204466 0.736387
-0.0320197 -0.2048 0.734875
-0.0330351 -0.205019 0.732958
-0.0340356 -0.205174 0.730831
-0.0350373 -0.205367 0.728849
-0.0360266 -0.205517 0.726729
-0.0370494 -0.20588 0.725374
-0.0380823 -0.206313 0.724273
-0.0391265 -0.206818 0.723432
-0.0401765 -0.207363 0.722733
-0.0412522 -0.208044 0.722512
-0.0424599 -0.209374 0.72454
-0.0437686 -0.211162 0.728136
-0.0452366 -0.213657 0.734136
-0.0467395 -0.216241 0.740399
-0.0482472 -0.218778 0.74646
-0.0495966 -0.220542 0.749846
-0.0507938 -0.221607 0.750837
-0.0519289 -0.222392 0.750872
-0.0530509 -0.22312 0.750713
-0.0541453 -0.223735 0.750177
-0.0552437 -0.224373 0.749719
-0.056348 -0.225036 0.749346
-0.0574466 -0.225677 0.748905
-0.0585729 -0.226429 0.748831
-0.0597489 -0.227372 0.749386
-0.060953 -0.228412 0.75026
-0.0621838 -0.229543 0.751422
-0.0634599 -0.230829 0.753085
-0.064761 -0.23219 0.75498
-0.0660733 -0.233572 0.756932
-0.0673746 -0.234899 0.758691
-0.0686849 -0.236241 0.760485
-0.0699956 -0.237571 0.762227
0.035057 -0.16524 0.753668
0.0339151 -0.165823 0.752879
0.032785 -0.166461 0.752336
0.0316525 -0.167077 0.751702
0.0305276 -0.167728 0.751228
0.0293898 -0.168292 0.750374
0.0282459 -0.1688 0.749279
0.0271033 -0.169297 0.748142
0.0259664 -0.169812 0.747092
0.0248297 -0.170307 0.745963
0.0237028 -0.170855 0.745073
0.0225713 -0.171344 0.743935
0.0214377 -0.171787 0.742605
0.0202996 -0.172151 0.740954
0.0191632 -0.172486 0.739184
0.0180334 -0.172837 0.737501
0.0169172 -0.173292 0.736268
0.0158035 -0.173737 0.735004
0.0146947 -0.174201 0.733826
0.013593 -0.174724 0.732908
0.0124916 -0.175213 0.731848
0.0113948 -0.175736 0.730944
0.0103031 -0.176314 0.730268
0.00921233 -0.176881 0.729552
0.00812341 -0.177446 0.728833
0.0070376 -0.178057 0.728306
0.00595253 -0.178651 0.727714
0.00486928 -0.179269 0.727222
0.00378734 -0.179907 0.726816
0.0027064 -0.180577 0.726537
0.00162598 -0.181281 0.726397
0.000545453 -0.182024 0.726411
-0.000536161 -0.18281 0.726595
-0.00161965 -0.183671 0.72707
-0.00270623 -0.184591 0.727775
-0.00379635 -0.185553 0.728637
-0.00489582 -0.186714 0.730268
-0.00600072 -0.187884 0.731923
-0.00711624 -0.189187 0.734074
-0.00823833 -0.190493 0.736223
-0.00936224 -0.191716 0.738034
-0.0104786 -0.192723 0.739007
-0.0115943 -0.193676 0.739764
-0.0127013 -0.194471 0.739914
-0.0138048 -0.195209 0.739845
-0.0149053 -0.195909 0.739633
-0.0160057 -0.19661 0.739427
-0.0171022 -0.197272 0.739074
-0.0181995 -0.197949 0.738778
-0.0192965 -0.198627 0.738488
-0.0203896 -0.19927 0.738072
-0.0214881 -0.199971 0.737868
-0.0225908 -0.20071 0.737805
-0.0236945 -0.201455 0.737767
-0.0247939 -0.202165 0.737596
-0.0258976 -0.202908 0.737548
-0.02699 -0.203566 0.737192
-0.0280647 -0.204103 0.736399
-0.0291242 -0.204547 0.735278
-0.030173 -0.204937 0.73397
-0.0311958 -0.205178 0.732141
-0.0322024 -0.205348 0.730067
-0.0331986 -0.205483 0.727885
-0.0342 -0.20568 0.725938
-0.0351995 -0.205894 0.724062
-0.0362334 -0.206326 0.722965
-0.0372813 -0.20685 0.722193
-0.0383469 -0.207477 0.721787
-0.0394679 -0.208399 0.722404
-0.0406063 -0.2094 0.72329
-0.0418814 -0.211072 0.726484
-0.0432625 -0.213225 0.731302
-0.0447401 -0.215781 0.737467
-0.0461708 -0.218042 0.742586
-0.0476092 -0.220279 0.747586
-0.0488885 -0.221736 0.749907
-0.050028 -0.222549 0.75004
-0.0511618 -0.223331 0.750066
-0.0522879 -0.22408 0.749978
-0.0533869 -0.224715 0.749513
-0.0544922 -0.225378 0.749141
-0.0555972 -0.226043 0.748776
-0.0566899 -0.226661 0.748259
-0.0578023 -0.227361 0.748017
-0.0589646 -0.228253 0.748403
-0.0601596 -0.229269 0.749191
-0.0613826 -0.23038 0.750287
-0.0626501 -0.231645 0.751874
-0.0639408 -0.23298 0.753676
-0.0652459 -0.234352 0.755588
-0.0665383 -0.235659 0.757277
-0.0678463 -0.237008 0.759087
-0.0691611 -0.238364 0.760908
-0.0712697 -0.238762 0.763515
-0.0704395 -0.239578 0.762263
0.0335018 -0.167422 0.751549
0.0323647 -0.16801 0.750797
0.0312458 -0.168694 0.750472
0.0301134 -0.16929 0.749765
0.0289758 -0.169842 0.748867
0.027838 -0.170376 0.747898
0.0267022 -0.170905 0.746917
0.0255642 -0.171399 0.745786
0.0244343 -0.171931 0.744832
0.0232997 -0.172403 0.74363
0.0221644 -0.172841 0.742285
0.0210228 -0.173185 0.740555
0.0198812 -0.173482 0.738636
0.01875 -0.173829 0.736948
0.0176344 -0.1743 0.735788
0.0165229 -0.17478 0.734676
0.0154184 -0.175313 0.733793
0.0143219 -0.175928 0.733258
0.0132244 -0.176509 0.732585
0.0121296 -0.177107 0.731986
0.0110382 -0.177742 0.731544
0.00994628 -0.178346 0.730974
0.00885408 -0.178911 0.730253
0.00776397 -0.179486 0.729576
0.00667606 -0.180079 0.728975
0.00558926 -0.180663 0.728343
0.00450454 -0.181284 0.727861
0.00342141 -0.181952 0.72757
0.002339 -0.18267 0.727482
0.00125642 -0.183418 0.727507
0.000172519 -0.184284 0.728002
-0.000913923 -0.185214 0.728737
-0.00200364 -0.186188 0.729639
-0.00309731 -0.187205 0.730703
-0.00420013 -0.188419 0.73252
-0.0053072 -0.189599 0.734189
-0.00642148 -0.190834 0.736059
-0.00753909 -0.192017 0.737712
-0.00865676 -0.193105 0.73899
-0.00976532 -0.193963 0.739385
-0.010873 -0.19478 0.739617
-0.0119752 -0.195503 0.739491
-0.0130801 -0.196262 0.739504
-0.0141811 -0.196968 0.739315
-0.0152821 -0.197674 0.739124
-0.0163805 -0.198353 0.738837
-0.0174801 -0.199049 0.738612
-0.0185741 -0.19969 0.738189
-0.0196674 -0.200333 0.73777
-0.0207616 -0.200991 0.737411
-0.0218571 -0.201667 0.737117
-0.0229526 -0.202347 0.736839
-0.0240483 -0.203031 0.736579
-0.0251408 -0.203693 0.736241
-0.0262186 -0.204247 0.735514
-0.0272787 -0.204683 0.73437
-0.02832 -0.205006 0.732826
-0.0293505 -0.20528 0.731118
-0.0303651 -0.205476 0.729146
-0.0313717 -0.20565 0.727108
-0.0323727 -0.205822 0.725076
-0.033388 -0.20611 0.723467
-0.0344484 -0.206688 0.722883
-0.0355449 -0.207482 0.723053
-0.0366633 -0.208393 0.723631
-0.0378005 -0.209399 0.724532
-0.0389894 -0.210668 0.726332
-0.040144 -0.211732 0.727413
-0.0414356 -0.21348 0.730834
-0.0428152 -0.215625 0.735586
-0.0442223 -0.217845 0.740557
-0.045572 -0.219727 0.744352
-0.0469325 -0.221615 0.748136
-0.0481418 -0.222758 0.749383
-0.0492815 -0.223574 0.749525
-0.0504147 -0.224354 0.749544
-0.0515412 -0.225105 0.749464
-0.0526473 -0.225769 0.749094
-0.053764 -0.226479 0.74888
-0.0548695 -0.227146 0.748525
-0.0559573 -0.227741 0.747933
-0.057063 -0.228413 0.747597
-0.0582061 -0.229233 0.747745
-0.0593811 -0.230176 0.748293
-0.0605891 -0.231238 0.749225
-0.0618408 -0.232455 0.750653
-0.0631073 -0.233713 0.7522
-0.0644008 -0.235057 0.754013
-0.0656862 -0.236354 0.755664
-0.0669852 -0.237683 0.757403
-0.068297 -0.239044 0.759237
-0.0695792 -0.240284 0.760672
0.0330827 -0.16898 0.750061
0.0319762 -0.169733 0.750043
0.030852 -0.170381 0.749564
0.0297218 -0.170986 0.748899
0.0285892 -0.171562 0.748117
0.0274517 -0.172091 0.747138
0.0263114 -0.17258 0.745992
0.0251775 -0.173093 0.74496
0.0240392 -0.17355 0.743693
0.022902 -0.173985 0.742346
0.0217579 -0.174326 0.740608
0.0206121 -0.174602 0.738612
0.0194786 -0.174946 0.736919
0.01836 -0.175398 0.735687
0.0172485 -0.175894 0.734648
0.0161474 -0.176483 0.734001
0.0150555 -0.177177 0.73379
0.0139629 -0.177858 0.733525
0.012873 -0.178575 0.73341
0.0117828 -0.179288 0.733279
0.0106892 -0.17993 0.732859
0.00959316 -0.180496 0.732135
0.00849841 -0.181049 0.731365
0.00740618 -0.181621 0.730675
0.00631531 -0.182185 0.729954
0.00522662 -0.18277 0.729329
0.00414073 -0.183438 0.729031
0.00305555 -0.184159 0.728945
0.00197049 -0.18493 0.729053
0.000884342 -0.185827 0.729656
-0.0002048 -0.186807 0.730576
-0.0012971 -0.187812 0.731583
-0.0023937 -0.188869 0.732783
-0.00349739 -0.190058 0.734485
-0.00460459 -0.19119 0.73595
-0.00571553 -0.192302 0.737331
-0.00682833 -0.193359 0.738488
-0.00794047 -0.194324 0.739285
-0.0090455 -0.195105 0.739381
-0.010149 -0.195849 0.739338
-0.0112515 -0.196572 0.739212
-0.0123565 -0.197334 0.739231
-0.0134567 -0.198023 0.73898
-0.0145564 -0.198712 0.73873
-0.0156567 -0.199411 0.738514
-0.0167565 -0.200107 0.738293
-0.017849 -0.200728 0.737791
-0.0189403 -0.201348 0.737292
-0.0200279 -0.20194 0.736696
-0.0211137 -0.202528 0.736086
-0.0221987 -0.203121 0.735497
-0.0232832 -0.203721 0.734935
-0.0243614 -0.204277 0.734223
-0.0254261 -0.204741 0.733182
-0.0264725 -0.205084 0.731716
-0.0275048 -0.205352 0.729992
-0.0285295 -0.205593 0.728188
-0.029549 -0.205831 0.726381
-0.0305711 -0.206115 0.724748
-0.0316291 -0.206654 0.724022
-0.032704 -0.207309 0.723704
-0.0338331 -0.208296 0.724544
-0.0349914 -0.209441 0.725922
-0.0361656 -0.210655 0.727534
-0.0373217 -0.211743 0.728695
-0.03853 -0.213098 0.730766
-0.0397041 -0.214241 0.732096
-0.0410159 -0.216085 0.735805
-0.0423494 -0.217989 0.739696
-0.0436839 -0.219848 0.743406
-0.0449682 -0.221413 0.746096
-0.0462577 -0.222971 0.748743
-0.0474062 -0.223833 0.749038
-0.0485507 -0.224669 0.749244
-0.0496894 -0.225475 0.749348
-0.0508173 -0.226232 0.749288
-0.0519304 -0.226924 0.749012
-0.0530535 -0.22766 0.748884
-0.0541608 -0.228328 0.74853
-0.0552492 -0.228921 0.747932
-0.0563498 -0.22957 0.747523
-0.0574739 -0.230315 0.747424
-0.058635 -0.231204 0.747795
-0.0598204 -0.232185 0.748459
-0.0610446 -0.233308 0.749576
-0.0622819 -0.234467 0.7508
-0.0635624 -0.235776 0.752494
-0.0648366 -0.237044 0.754045
-0.0661249 -0.23835 0.755711
-0.0674345 -0.239716 0.757551
-0.0687191 -0.240979 0.759054
0.0327161 -0.170826 0.749847
0.0316032 -0.171545 0.749676
0.0304824 -0.172214 0.749294
0.0293549 -0.172835 0.748706
0.028215 -0.173362 0.747718
0.0270686 -0.173825 0.746463
0.0259273 -0.1743 0.745268
0.0247846 -0.174737 0.743924
0.0236435 -0.175156 0.742513
0.0224972 -0.175496 0.740781
0.0213466 -0.17575 0.738702
0.0202108 -0.17609 0.736999
0.0190886 -0.176522 0.73569
0.0179787 -0.177052 0.734791
0.0168824 -0.177714 0.734446
0.0157954 -0.17849 0.73457
0.0147096 -0.179293 0.734798
0.0136249 -0.180127 0.735154
0.0125365 -0.180925 0.735355
0.0114402 -0.181592 0.73503
0.0103413 -0.182191 0.734431
0.00924194 -0.182741 0.733642
0.00814446 -0.183291 0.732857
0.00704873 -0.183832 0.732044
0.0059559 -0.184417 0.731406
0.00486576 -0.185068 0.731035
0.00377713 -0.185778 0.730894
0.00268894 -0.186555 0.731018
0.00159996 -0.187439 0.731555
0.000508747 -0.188404 0.732403
-0.000585249 -0.189369 0.733238
-0.00168338 -0.190416 0.734387
-0.00278515 -0.191467 0.73554
-0.00388941 -0.192475 0.736518
-0.00499676 -0.193482 0.737488
-0.00610544 -0.194442 0.738268
-0.00721152 -0.195285 0.738598
-0.00831609 -0.196069 0.738704
-0.00941916 -0.196813 0.73866
-0.0105201 -0.197517 0.738465
-0.0116255 -0.198294 0.738543
-0.0127266 -0.199 0.738356
-0.0138262 -0.199689 0.738107
-0.0149263 -0.200388 0.737894
-0.016024 -0.201063 0.737593
-0.0171126 -0.20164 0.736939
-0.0181995 -0.202215 0.736277
-0.0192819 -0.202759 0.735509
-0.0203602 -0.203281 0.734667
-0.0214366 -0.203803 0.73383
-0.0225097 -0.204312 0.732949
-0.0235733 -0.204759 0.731854
-0.0246252 -0.205132 0.730502
-0.0256637 -0.205425 0.728875
-0.0266945 -0.205691 0.727161
-0.027725 -0.205986 0.725563
-0.0287616 -0.20635 0.724218
-0.0298398 -0.207019 0.723945
-0.0309584 -0.207958 0.724618
-0.0320938 -0.20899 0.725609
-0.0332865 -0.210362 0.727767
-0.0344988 -0.211817 0.730197
-0.0356895 -0.213104 0.732032
-0.0368591 -0.214242 0.733343
-0.0380811 -0.215654 0.735579
-0.0392689 -0.216844 0.737046
-0.0405245 -0.218376 0.739658
-0.041797 -0.219959 0.742427
-0.0430645 -0.221479 0.744963
-0.0442852 -0.222733 0.746591
-0.0455114 -0.223989 0.748209
-0.0466644 -0.224876 0.748588
-0.0478135 -0.225737 0.748875
-0.0489571 -0.226566 0.749054
-0.0500911 -0.227351 0.749084
-0.0512107 -0.228069 0.748894
-0.0523395 -0.228829 0.748845
-0.0534529 -0.22952 0.748566
-0.0545472 -0.230135 0.748039
-0.0556435 -0.230761 0.747554
-0.0567503 -0.231433 0.747219
-0.0578969 -0.232265 0.7474
-0.0590608 -0.233164 0.747796
-0.0602635 -0.234209 0.748659
-0.0614851 -0.235319 0.749719
-0.062761 -0.236623 0.751394
-0.0640256 -0.237867 0.752863
-0.0653104 -0.239171 0.754516
-0.0666099 -0.240516 0.756283
-0.0678845 -0.241753 0.757699
0.0323756 -0.172828 0.750297
0.0312549 -0.173508 0.74996
0.0301258 -0.174132 0.749381
0.0289865 -0.174679 0.748479
0.027834 -0.175118 0.747124
0.0266872 -0.17557 0.745837
0.0255394 -0.175988 0.744414
0.0243935 -0.176387 0.742927
0.0232422 -0.176707 0.741115
0.0220864 -0.176938 0.738952
0.0209479 -0.177276 0.737243
0.0198253 -0.177723 0.736
0.0187203 -0.178322 0.735391
0.0176288 -0.179059 0.73535
0.016548 -0.179934 0.735869
0.0154674 -0.180837 0.736497
0.0143857 -0.181756 0.73718
0.0132966 -0.182596 0.737544
0.0121984 -0.183302 0.737363
0.0110952 -0.183904 0.736768
0.00999047 -0.184438 0.735909
0.00888776 -0.184969 0.735044
0.00778697 -0.185493 0.734152
0.00668995 -0.186074 0.733496
0.00559609 -0.18673 0.733133
0.00450371 -0.187441 0.732989
0.00341187 -0.188201 0.733036
0.00232006 -0.189059 0.73346
0.00122656 -0.189961 0.73405
0.00013138 -0.190803 0.734403
-0.000965951 -0.191714 0.735015
-0.00206587 -0.192644 0.735696
-0.00316707 -0.193535 0.736224
-0.00427079 -0.194448 0.736828
-0.00537773 -0.195394 0.737551
-0.00648379 -0.196259 0.737964
-0.00758893 -0.197067 0.738162
-0.00869287 -0.197836 0.738207
-0.0097937 -0.198538 0.738007
-0.0108973 -0.19929 0.73799
-0.0119954 -0.199953 0.737646
-0.0130929 -0.200616 0.737302
-0.014191 -0.201296 0.737023
-0.0152867 -0.20195 0.736648
-0.0163731 -0.202504 0.735915
-0.0174571 -0.203049 0.735153
-0.0185331 -0.203531 0.734164
-0.0196024 -0.203966 0.733018
-0.0206686 -0.2044 0.731874
-0.0217302 -0.204817 0.730674
-0.0227838 -0.20519 0.729326
-0.0238306 -0.205532 0.72788
-0.0248707 -0.205849 0.726351
-0.0259097 -0.206187 0.724909
-0.0269523 -0.206578 0.72366
-0.0280341 -0.207272 0.723481
-0.0291665 -0.208323 0.724541
-0.0303456 -0.209669 0.726617
-0.0315434 -0.2111 0.728973
-0.0327966 -0.212845 0.73239
-0.0340232 -0.214366 0.735018
-0.0352161 -0.21564 0.736781
-0.0363922 -0.216787 0.738097
-0.0376182 -0.218199 0.740303
-0.0388142 -0.219409 0.741812
-0.0400201 -0.220651 0.743416
-0.0412331 -0.221908 0.745057
-0.0424377 -0.223098 0.746464
-0.0436005 -0.224051 0.747067
-0.0447653 -0.225007 0.747676
-0.0459237 -0.225922 0.748146
-0.0470814 -0.226828 0.748578
-0.0482295 -0.227683 0.748843
-0.0493685 -0.22849 0.748947
-0.0504939 -0.229232 0.748833
-0.0516282 -0.230014 0.748853
-0.0527476 -0.230728 0.748648
-0.0538439 -0.231347 0.748136
-0.0549424 -0.231976 0.74766
-0.0560384 -0.232601 0.747173
-0.0571707 -0.233375 0.747166
-0.0583201 -0.234218 0.747379
-0.0595084 -0.235213 0.748077
-0.0607234 -0.236303 0.749069
-0.0619993 -0.237614 0.750757
-0.063261 -0.238858 0.752222
-0.064531 -0.240117 0.753722
-0.06582 -0.241433 0.75539
-0.0670777 -0.242618 0.756638
0.0331787 -0.174277 0.751616
0.0320455 -0.174901 0.751033
0.0309047 -0.175469 0.750212
0.0297624 -0.176013 0.749298
0.0286141 -0.176499 0.748146
0.027454 -0.17688 0.746562
0.0262942 -0.177229 0.744853
0.0251406 -0.177587 0.743198
0.0239835 -0.177877 0.741274
0.0228204 -0.178068 0.738953
0.0216802 -0.178407 0.737257
0.0205618 -0.178909 0.736247
0.0194643 -0.179601 0.736016
0.0183816 -0.180453 0.736436
0.0173047 -0.181394 0.737213
0.0162295 -0.182392 0.73821
0.0151492 -0.183366 0.739105
0.0140584 -0.184227 0.739536
0.0129557 -0.184916 0.739283
0.0118496 -0.185536 0.738754
0.01074 -0.186056 0.737834
0.00963327 -0.186592 0.736981
0.00852841 -0.187117 0.736092
0.00742753 -0.187699 0.73543
0.00632994 -0.188354 0.735058
0.00523388 -0.189049 0.734843
0.00413822 -0.189751 0.734655
0.00304318 -0.190508 0.734679
0.00194773 -0.191301 0.734842
0.000851715 -0.192021 0.734723
-0.000244984 -0.192814 0.73488
-0.00134332 -0.193666 0.735259
-0.0024434 -0.194537 0.735707
-0.00354574 -0.195432 0.73624
-0.00465166 -0.19638 0.736966
-0.00575776 -0.197269 0.737466
-0.00686325 -0.198098 0.73774
-0.00796708 -0.198867 0.737786
-0.00906795 -0.199569 0.737584
-0.0101692 -0.200283 0.737428
-0.0112645 -0.2009 0.736917
-0.0123601 -0.201538 0.736486
-0.0134562 -0.202194 0.736121
-0.0145483 -0.202808 0.735605
-0.0156342 -0.20336 0.734868
-0.0167176 -0.203901 0.734096
-0.0177899 -0.20434 0.732963
-0.0188529 -0.204712 0.731599
-0.0199123 -0.205081 0.730232
-0.0209657 -0.205424 0.728783
-0.0220111 -0.20573 0.727208
-0.0230547 -0.20605 0.725698
-0.0241014 -0.206431 0.724406
-0.0251541 -0.206882 0.723372
-0.0262393 -0.207603 0.723284
-0.0273699 -0.20866 0.724366
-0.0285563 -0.210097 0.726753
-0.0297872 -0.211798 0.730031
-0.031036 -0.21356 0.733499
-0.0322962 -0.215334 0.736984
-0.0335281 -0.216868 0.739623
-0.0347216 -0.21812 0.741285
-0.0358974 -0.219237 0.742475
-0.0370753 -0.220346 0.74363
-0.0382245 -0.221273 0.74416
-0.0393798 -0.222224 0.74477
-0.040541 -0.223196 0.745444
-0.0416998 -0.224146 0.74604
-0.0428658 -0.225121 0.746712
-0.0440347 -0.226102 0.747402
-0.045197 -0.227041 0.747945
-0.0463646 -0.227996 0.748538
-0.047514 -0.228857 0.748816
-0.0486585 -0.229688 0.748996
-0.0497885 -0.230451 0.748951
-0.0509239 -0.231235 0.748972
-0.0520394 -0.231929 0.748702
-0.0531424 -0.232572 0.74827
-0.0542425 -0.233204 0.747801
-0.0553355 -0.233809 0.747252
-0.0564556 -0.234534 0.747087
-0.0575981 -0.235349 0.747207
-0.0587801 -0.23632 0.747824
-0.0599961 -0.237418 0.748838
-0.0612667 -0.238719 0.750483
-0.0625346 -0.239993 0.752031
-0.0638015 -0.241248 0.753511
-0.0650738 -0.24251 0.755003
-0.0663216 -0.243666 0.756154
0.0328185 -0.176178 0.751598
0.0316637 -0.176674 0.750472
0.0305174 -0.177203 0.749497
0.0293796 -0.17777 0.748689
0.0282236 -0.178196 0.747297
0.0270698 -0.17861 0.745866
0.025905 -0.178909 0.743968
0.0247381 -0.179148 0.74184
0.0235643 -0.179275 0.739266
0.0224292 -0.179681 0.737851
0.0213162 -0.180255 0.737132
0.0202308 -0.181088 0.737471
0.0191555 -0.182045 0.738305
0.0180828 -0.183065 0.739382
0.0170006 -0.184013 0.740167
0.0159136 -0.184933 0.740829
0.0148147 -0.185717 0.740944
0.0137065 -0.186365 0.740519
0.0125965 -0.186967 0.739915
0.0114848 -0.187506 0.739068
0.0103754 -0.188047 0.738233
0.00926873 -0.188607 0.73748
0.00816538 -0.18921 0.736894
0.00706393 -0.18983 0.736383
0.00596446 -0.190489 0.73602
0.00486536 -0.191128 0.735586
0.00376708 -0.191766 0.735149
0.00266997 -0.192436 0.734838
0.00157339 -0.193091 0.734469
0.000477204 -0.193806 0.734329
-0.000619877 -0.194605 0.734506
-0.00171852 -0.195451 0.734861
-0.00282005 -0.196363 0.735453
-0.00392452 -0.197313 0.736184
-0.0050302 -0.198223 0.736763
-0.0061364 -0.199093 0.737185
-0.00724053 -0.19988 0.737297
-0.00834033 -0.200562 0.737022
-0.00943838 -0.201217 0.736651
-0.0105308 -0.201788 0.735978
-0.0116244 -0.202401 0.735455
-0.0127194 -0.20305 0.735069
-0.0138099 -0.20365 0.734509
-0.0148987 -0.204241 0.733918
-0.015982 -0.204782 0.733154
-0.0170526 -0.205199 0.731949
-0.0181105 -0.205509 0.730372
-0.0191672 -0.205847 0.728905
-0.020214 -0.206126 0.727238
-0.021257 -0.206408 0.725593
-0.0223031 -0.206752 0.724178
-0.0233848 -0.207434 0.72395
-0.0244776 -0.208208 0.724045
-0.0256103 -0.209296 0.725224
-0.0267916 -0.21073 0.727593
-0.0280272 -0.212517 0.731161
-0.0292782 -0.214343 0.734837
-0.0305363 -0.216151 0.738424
-0.0317632 -0.217683 0.741046
-0.0329539 -0.21893 0.742682
-0.0341018 -0.219877 0.743289
-0.0352231 -0.220648 0.743297
-0.0363467 -0.22143 0.743342
-0.0374937 -0.222347 0.743836
-0.038648 -0.223296 0.744435
-0.0398009 -0.224228 0.74497
-0.0409672 -0.225222 0.745706
-0.0421351 -0.226215 0.746436
-0.0432989 -0.227175 0.747053
-0.0444612 -0.228115 0.747597
-0.0456372 -0.229119 0.748344
-0.046783 -0.22996 0.748556
-0.047928 -0.230797 0.748752
-0.0490631 -0.231582 0.748777
-0.050194 -0.232344 0.748727
-0.0513097 -0.233038 0.748456
-0.0524239 -0.233727 0.748171
-0.0535304 -0.234384 0.747784
-0.0546243 -0.234991 0.74724
-0.0557464 -0.235719 0.747083
-0.0568888 -0.236533 0.7472
-0.0580707 -0.237506 0.747818
-0.0592998 -0.238661 0.749003
-0.0605708 -0.239971 0.750668
-0.0618388 -0.241251 0.752225
-0.0631024 -0.2425 0.753676
-0.0643661 -0.243733 0.755071
-0.0656005 -0.244843 0.75607
-0.0675338 -0.24468 0.756856
-0.0668064 -0.245838 0.756709
0.0323935 -0.177698 0.749967
0.0312464 -0.178226 0.74899
0.0301153 -0.178839 0.748376
0.0289503 -0.179212 0.746771
0.0277912 -0.179594 0.745217
0.0266209 -0.179859 0.743191
0.0254489 -0.180066 0.740944
0.0242859 -0.180291 0.738789
0.023174 -0.180904 0.738225
0.0220826 -0.181692 0.738373
0.0210124 -0.182693 0.73938
0.019946 -0.18377 0.740679
0.0188658 -0.184743 0.741553
0.0177754 -0.185632 0.742083
0.0166775 -0.186451 0.742331
0.0155689 -0.187136 0.742049
0.014454 -0.187721 0.741371
0.0133414 -0.188317 0.740741
0.0122261 -0.188839 0.739826
0.0111144 -0.189382 0.738999
0.0100065 -0.189963 0.738327
0.00890156 -0.190583 0.737808
0.00779722 -0.191187 0.737227
0.00669505 -0.191824 0.736782
0.00559283 -0.192403 0.736116
0.00449194 -0.192976 0.735429
0.00339293 -0.193565 0.734807
0.00229531 -0.194162 0.73422
0.00119893 -0.19482 0.733865
0.000102265 -0.195616 0.734031
-0.000995713 -0.19646 0.734373
-0.00209644 -0.197373 0.734967
-0.0032 -0.198327 0.73571
-0.00430497 -0.199241 0.736297
-0.00540989 -0.200091 0.736643
-0.00651339 -0.200874 0.736743
-0.00761314 -0.201555 0.736466
-0.00871014 -0.202189 0.73602
-0.00980271 -0.202758 0.735339
-0.0108958 -0.203361 0.734788
-0.0119894 -0.203992 0.734338
-0.0130802 -0.204594 0.733788
-0.0141694 -0.205191 0.733221
-0.0152533 -0.205735 0.732471
-0.016326 -0.206167 0.731328
-0.0173863 -0.206491 0.729808
-0.0184457 -0.206846 0.72841
-0.0194999 -0.207183 0.726956
-0.0205532 -0.207546 0.725602
-0.0216274 -0.208134 0.725041
-0.0227421 -0.209093 0.725772
-0.0238693 -0.210137 0.726793
-0.0250365 -0.211485 0.728855
-0.0262484 -0.213141 0.731958
-0.027493 -0.21498 0.735667
-0.028711 -0.216547 0.738424
-0.0299323 -0.218086 0.741063
-0.0311208 -0.219345 0.742734
-0.0322746 -0.220341 0.743504
-0.0333865 -0.221049 0.743299
-0.0345085 -0.221821 0.743308
-0.0356284 -0.222579 0.743267
-0.0367746 -0.223493 0.74375
-0.0379285 -0.224442 0.744344
-0.0390776 -0.225355 0.744811
-0.0402394 -0.22633 0.74548
-0.0414025 -0.2273 0.746129
-0.0425612 -0.228235 0.746657
-0.0437175 -0.229151 0.747121
-0.0448936 -0.230159 0.747878
-0.0460394 -0.231004 0.748102
-0.047189 -0.231864 0.748371
-0.0483286 -0.23267 0.748463
-0.0494592 -0.233434 0.748417
-0.0505756 -0.234129 0.748151
-0.0516946 -0.234837 0.747927
-0.052807 -0.235518 0.747617
-0.0539033 -0.236131 0.747093
-0.0550264 -0.236863 0.746949
-0.0561795 -0.237722 0.747207
-0.0573673 -0.23872 0.747895
-0.0586081 -0.239929 0.749242
-0.05988 -0.241249 0.75093
-0.0611462 -0.242528 0.752475
-0.0624084 -0.243774 0.753904
-0.0636645 -0.244984 0.755216
-0.0648935 -0.246078 0.75616
-0.0661012 -0.247079 0.75681
0.0319364 -0.179012 0.7475
0.0308252 -0.179742 0.74738
0.0296665 -0.180159 0.745966
0.0285171 -0.180611 0.744709
0.0273544 -0.180941 0.742962
0.0261973 -0.181274 0.741242
0.0250458 -0.181613 0.739555
0.0239498 -0.182378 0.739604
0.0228711 -0.183302 0.740289
0.0218086 -0.184401 0.741672
0.0207382 -0.185468 0.742912
0.0196504 -0.186394 0.743585
0.0185495 -0.187199 0.743769
0.0174406 -0.187918 0.743611
0.0163226 -0.188516 0.742981
0.0152007 -0.189037 0.742051
0.0140822 -0.189573 0.741188
0.012963 -0.190059 0.740135
0.0118495 -0.190601 0.739303
0.0107398 -0.19118 0.738623
0.00963348 -0.1918 0.738103
0.00852778 -0.192405 0.737527
0.00742448 -0.193043 0.737084
0.00631959 -0.19358 0.736258
0.0052167 -0.19411 0.73541
0.00411604 -0.194655 0.734627
0.00301751 -0.19523 0.733959
0.00192065 -0.195853 0.733472
0.000824339 -0.196648 0.733633
-0.000273448 -0.19751 0.734038
-0.00137348 -0.198423 0.734631
-0.00247611 -0.199361 0.735309
-0.00358088 -0.200299 0.73598
-0.00468597 -0.201168 0.736391
-0.0057889 -0.201932 0.736421
-0.00688964 -0.202631 0.736211
-0.00798701 -0.203262 0.735755
-0.00908026 -0.20383 0.735072
-0.0101739 -0.204433 0.73452
-0.0112695 -0.205086 0.734152
-0.0123624 -0.20571 0.733683
-0.0134542 -0.206331 0.733203
-0.0145421 -0.206913 0.73259
-0.0156182 -0.207366 0.731522
-0.0166842 -0.207729 0.730149
-0.0177501 -0.20813 0.728914
-0.0188152 -0.208553 0.727764
-0.0198906 -0.20911 0.727089
-0.0209896 -0.209907 0.727247
-0.0221319 -0.211094 0.728754
-0.0232868 -0.212355 0.730504
-0.0244787 -0.213887 0.73317
-0.0256964 -0.215567 0.736325
-0.0269086 -0.217136 0.739078
-0.028091 -0.21842 0.740844
-0.0292723 -0.21966 0.742446
-0.0304277 -0.220683 0.743305
-0.0315498 -0.221459 0.743328
-0.0326656 -0.22219 0.743197
-0.0337853 -0.222945 0.743149
-0.0349051 -0.223701 0.743104
-0.0360512 -0.224617 0.743586
-0.0372049 -0.225569 0.744186
-0.0383552 -0.22649 0.744678
-0.0395173 -0.227468 0.745352
-0.040679 -0.228434 0.745984
-0.041832 -0.229344 0.746425
-0.0429833 -0.230234 0.7468
-0.0441546 -0.23122 0.74748
-0.0453 -0.232066 0.747704
-0.0464487 -0.232926 0.747971
-0.0475885 -0.233733 0.748066
-0.0487192 -0.234496 0.748017
-0.0498399 -0.235214 0.747825
-0.0509594 -0.235924 0.74761
-0.052083 -0.236653 0.747451
-0.0531914 -0.237315 0.747085
-0.0543211 -0.238074 0.747025
-0.0554863 -0.238984 0.747436
-0.0566907 -0.240055 0.748348
-0.0579386 -0.241296 0.749786
-0.059206 -0.242602 0.751417
-0.0604716 -0.243882 0.752954
-0.0617255 -0.2451 0.754287
-0.0629747 -0.246287 0.755521
-0.0641997 -0.247367 0.756414
-0.0654151 -0.2484 0.757156
0.0326041 -0.179674 0.745511
0.0315175 -0.180542 0.745964
0.0303673 -0.181009 0.74477
0.0292285 -0.181531 0.743806
0.0280759 -0.181935 0.742372
0.0269393 -0.182428 0.741307
0.0258069 -0.182931 0.74029
0.0247304 -0.183869 0.741029
0.0236652 -0.184927 0.742242
0.0226058 -0.186078 0.74381
0.0215282 -0.187102 0.744865
0.0204311 -0.187963 0.745263
0.0193179 -0.188666 0.745037
0.0181963 -0.189266 0.744407
0.0170682 -0.189766 0.743391
0.0159397 -0.190222 0.742211
0.0148169 -0.190716 0.741186
0.013695 -0.191182 0.740058
0.0125804 -0.191722 0.739223
0.0114714 -0.192334 0.738672
0.0103641 -0.192954 0.738154
0.00925732 -0.193561 0.737585
0.00815237 -0.194182 0.737077
0.00704589 -0.1947 0.73618
0.0059408 -0.195186 0.735172
0.00483922 -0.195727 0.734374
0.00373979 -0.196282 0.733636
0.00264265 -0.196923 0.73322
0.0015463 -0.197721 0.733386
0.000448727 -0.198603 0.733863
-0.000650951 -0.199521 0.73447
-0.00175317 -0.200464 0.735158
-0.00285755 -0.201398 0.735811
-0.00396286 -0.202286 0.736289
-0.0050661 -0.203052 0.736322
-0.00616819 -0.203774 0.736193
-0.00726672 -0.20441 0.735757
-0.00836304 -0.205019 0.735224
-0.00945812 -0.205625 0.734686
-0.0105547 -0.206281 0.734325
-0.0116489 -0.206905 0.733855
-0.0127443 -0.207562 0.733505
-0.013834 -0.208148 0.732904
-0.0149168 -0.208663 0.732058
-0.0159942 -0.209135 0.731066
-0.0170765 -0.209692 0.730376
-0.018162 -0.2103 0.729869
-0.0192596 -0.211045 0.729839
-0.0203804 -0.212021 0.730602
-0.0215402 -0.213345 0.732557
-0.0227073 -0.214684 0.734551
-0.0239035 -0.216228 0.73723
-0.0250969 -0.217683 0.739587
-0.0262772 -0.218981 0.741392
-0.0274263 -0.219993 0.742221
-0.0285739 -0.220975 0.74294
-0.0296957 -0.221752 0.742966
-0.0308177 -0.222527 0.742983
-0.0319338 -0.22326 0.742861
-0.0330538 -0.224018 0.74282
-0.034174 -0.224776 0.742779
-0.0353198 -0.225695 0.743269
-0.0364697 -0.226627 0.7438
-0.0376199 -0.227552 0.7443
-0.0387814 -0.228531 0.744975
-0.0399422 -0.2295 0.74561
-0.04109 -0.23038 0.745954
-0.0422441 -0.231291 0.746391
-0.0434136 -0.232274 0.74706
-0.0445585 -0.233121 0.747286
-0.0457071 -0.233979 0.747546
-0.0468503 -0.234809 0.747711
-0.0479766 -0.23555 0.747593
-0.0491033 -0.236294 0.747483
-0.0502337 -0.237053 0.747422
-0.0513732 -0.237857 0.747503
-0.0525004 -0.238598 0.747382
-0.0536482 -0.239434 0.747559
-0.0548311 -0.24042 0.748205
-0.056049 -0.241549 0.749288
-0.0572942 -0.242781 0.750686
-0.0585509 -0.244044 0.752171
-0.0598022 -0.24527 0.75353
-0.061048 -0.246458 0.754761
-0.0622922 -0.247627 0.755928
-0.0635258 -0.248741 0.75692
-0.0647422 -0.249779 0.75767
0.0332582 -0.18027 0.743269
0.0321877 -0.181216 0.744047
0.0310697 -0.181877 0.743655
0.0299513 -0.182531 0.743234
0.0288219 -0.183101 0.742479
0.0277072 -0.183765 0.742106
0.0265944 -0.184436 0.741763
0.0255315 -0.185501 0.742997
0.0244695 -0.186609 0.744389
0.023403 -0.187719 0.745776
0.0223157 -0.188677 0.746554
0.0212075 -0.189456 0.746619
0.020081 -0.190047 0.745947
0.0189484 -0.190552 0.744944
0.0178115 -0.19097 0.743612
0.0166777 -0.191382 0.742264
0.0155506 -0.191837 0.741092
0.0144261 -0.192281 0.739884
0.0133092 -0.192801 0.738977
0.0122006 -0.19343 0.738491
0.0110926 -0.19405 0.737976
0.00998522 -0.19466 0.737421
0.00887972 -0.195283 0.73692
0.00777255 -0.195816 0.736085
0.00666611 -0.196299 0.735068
0.00556353 -0.19684 0.734275
0.0044631 -0.197396 0.733539
0.00336543 -0.198057 0.7332
0.0022688 -0.198857 0.733371
0.00117125 -0.199725 0.733792
7.19092e-05 -0.200625 0.734325
-0.0010296 -0.201547 0.734936
-0.00213342 -0.20248 0.735577
-0.00323843 -0.20337 0.736059
-0.0043425 -0.20416 0.736176
-0.00544578 -0.204909 0.736145
-0.00654666 -0.205587 0.735858
-0.00764596 -0.20624 0.735484
-0.00874372 -0.206873 0.73504
-0.00984283 -0.20755 0.734753
-0.0109406 -0.208211 0.734414
-0.0120375 -0.208868 0.734061
-0.0131306 -0.209477 0.733538
-0.0142206 -0.210059 0.732929
-0.0153081 -0.210628 0.732275
-0.0164032 -0.211305 0.731999
-0.017508 -0.212099 0.732129
-0.0186249 -0.213017 0.732681
-0.0197635 -0.214141 0.733941
-0.0209373 -0.215575 0.736249
-0.0221105 -0.216941 0.738309
-0.0232837 -0.218254 0.740174
-0.0244508 -0.219468 0.741688
-0.0256017 -0.220508 0.742607
-0.0267233 -0.22129 0.742649
-0.0278422 -0.222048 0.742611
-0.0289638 -0.222823 0.74263
-0.0300824 -0.223574 0.742566
-0.0311988 -0.224309 0.742451
-0.0323187 -0.225067 0.742411
-0.033442 -0.225847 0.742441
-0.0345871 -0.226764 0.742923
-0.0357364 -0.227698 0.743454
-0.0368858 -0.228622 0.74395
-0.0380462 -0.2296 0.744616
-0.0392027 -0.230548 0.745181
-0.040346 -0.231407 0.745453
-0.0414953 -0.232296 0.745819
-0.0426549 -0.233232 0.746332
-0.0437991 -0.234077 0.746551
-0.0449464 -0.234937 0.746815
-0.0460903 -0.23577 0.746989
-0.0472205 -0.236534 0.746947
-0.0483609 -0.237346 0.747053
-0.0494971 -0.238137 0.747091
-0.05065 -0.239002 0.747361
-0.0517939 -0.239822 0.747487
-0.0529655 -0.240764 0.747993
-0.0541626 -0.241813 0.748826
-0.0553941 -0.243001 0.750087
-0.0566405 -0.244239 0.751489
-0.0578897 -0.245474 0.752878
-0.0591215 -0.246621 0.753983
-0.0603589 -0.247778 0.755111
-0.0616034 -0.248949 0.756276
-0.0628381 -0.250071 0.757284
-0.0640565 -0.251117 0.758051
0.0339381 -0.18103 0.741722
0.0328635 -0.181937 0.742336
0.0317602 -0.182678 0.742276
0.0306485 -0.183367 0.742002
0.0295485 -0.184131 0.742034
0.0284619 -0.184994 0.742459
0.0273732 -0.185855 0.742871
0.0263145 -0.186962 0.744257
0.0252563 -0.188114 0.745805
0.0241786 -0.189141 0.746852
0.0230809 -0.190019 0.747302
0.0219619 -0.190709 0.747017
0.0208332 -0.191295 0.746327
0.0196967 -0.191778 0.745239
0.018554 -0.192153 0.743746
0.0174149 -0.192521 0.742235
0.0162832 -0.192932 0.740896
0.0151546 -0.193338 0.73955
0.0140358 -0.193839 0.738575
0.012927 -0.19447 0.738099
0.0118196 -0.19511 0.737658
0.0107136 -0.195759 0.737257
0.00960816 -0.196401 0.736829
0.00850112 -0.196973 0.73614
0.0073944 -0.197493 0.735264
0.00629084 -0.198056 0.734554
0.00518881 -0.198616 0.733833
0.00409024 -0.1993 0.733577
0.00299281 -0.200099 0.733743
0.00189461 -0.200969 0.734163
0.000795028 -0.201828 0.734541
-0.000306382 -0.202708 0.734991
-0.00140978 -0.203618 0.735546
-0.00251436 -0.20449 0.735959
-0.00361874 -0.205289 0.736104
-0.00472376 -0.206081 0.736227
-0.00582773 -0.206825 0.736172
-0.00693007 -0.207522 0.735954
-0.00803036 -0.208178 0.735588
-0.00913121 -0.208858 0.735313
-0.0102314 -0.209537 0.73503
-0.01133 -0.210194 0.734677
-0.0124278 -0.210848 0.734312
-0.0135291 -0.211564 0.734161
-0.0146295 -0.212268 0.733973
-0.0157355 -0.213045 0.734035
-0.0168568 -0.213999 0.734707
-0.0179892 -0.215056 0.735723
-0.0191373 -0.216247 0.737192
-0.0202945 -0.217486 0.73881
-0.0214486 -0.218651 0.740166
-0.0225939 -0.219694 0.7411
-0.0237312 -0.220639 0.741697
-0.0248542 -0.221444 0.741821
-0.0259779 -0.222249 0.741943
-0.0270995 -0.223033 0.741989
-0.0282237 -0.223832 0.742089
-0.0293423 -0.224585 0.742033
-0.030461 -0.225338 0.741975
-0.0315802 -0.226093 0.741925
-0.0327034 -0.226873 0.741958
-0.0338444 -0.227769 0.742366
-0.0349922 -0.228699 0.742883
-0.0361394 -0.229615 0.743349
-0.0372945 -0.230571 0.743941
-0.038451 -0.231521 0.744506
-0.0395938 -0.232385 0.744797
-0.0407428 -0.233274 0.74516
-0.0418919 -0.234162 0.745518
-0.0430387 -0.235027 0.745801
-0.0441867 -0.23589 0.746073
-0.0453296 -0.236728 0.746265
-0.0464648 -0.237519 0.746305
-0.0476142 -0.238379 0.74656
-0.0487565 -0.239198 0.746686
-0.0499158 -0.240097 0.747061
-0.051077 -0.241 0.747445
-0.0522667 -0.242027 0.748212
-0.0534768 -0.243136 0.749223
-0.0547155 -0.24436 0.750585
-0.0559549 -0.245572 0.7519
-0.0571899 -0.24675 0.7531
-0.0584068 -0.247835 0.754007
-0.0596423 -0.248988 0.755119
-0.0608869 -0.250168 0.756302
-0.0621365 -0.251351 0.757488
-0.063368 -0.252451 0.758412
-0.0659363 -0.254714 0.766529
-0.0646062 -0.253567 0.759383
0.0357756 -0.181374 0.741561
0.0346593 -0.182034 0.741176
0.0335851 -0.182938 0.741776
0.0325024 -0.183805 0.742219
0.0314119 -0.184633 0.742503
0.0303351 -0.185561 0.743184
0.0292657 -0.186558 0.744132
0.0281756 -0.187429 0.744573
0.0271017 -0.188437 0.74555
0.0260301 -0.189492 0.746704
0.0249373 -0.190401 0.747277
0.0238269 -0.191175 0.747314
0.0227072 -0.191865 0.747029
0.0215757 -0.192435 0.746275
0.0204356 -0.192894 0.745104
0.0192892 -0.193244 0.74352
0.0181465 -0.193587 0.741919
0.0170103 -0.193956 0.740428
0.0158807 -0.194357 0.739071
0.014761 -0.194855 0.738092
0.0136532 -0.195506 0.737693
0.0125458 -0.19615 0.737269
0.0114414 -0.19684 0.737017
0.0103364 -0.197503 0.736671
0.00923024 -0.198116 0.736139
0.00812289 -0.198662 0.735359
0.00701914 -0.199269 0.734814
0.00591581 -0.199832 0.734107
0.00481637 -0.200534 0.733913
0.00371797 -0.201315 0.734008
0.00261914 -0.202142 0.734267
0.00151919 -0.202958 0.734485
0.000418098 -0.203809 0.734827
-0.000684771 -0.204697 0.735297
-0.00178906 -0.205571 0.735712
-0.00289388 -0.206393 0.735941
-0.00399957 -0.207209 0.736144
-0.00510522 -0.207994 0.736236
-0.00620914 -0.208714 0.736097
-0.00731157 -0.209396 0.735823
-0.00841438 -0.210098 0.735618
-0.0095169 -0.210799 0.735414
-0.0106181 -0.211478 0.735135
-0.0117212 -0.212198 0.734995
-0.0128287 -0.212985 0.735089
-0.0139364 -0.213764 0.735156
-0.0150495 -0.21461 0.735448
-0.0161758 -0.215607 0.736256
-0.0173129 -0.216701 0.737384
-0.0184512 -0.21777 0.738423
-0.0195957 -0.218871 0.73956
-0.0207356 -0.219891 0.740415
-0.0218658 -0.22079 0.740859
-0.0229868 -0.221589 0.740965
-0.024109 -0.222393 0.741083
-0.0252325 -0.223203 0.741218
-0.0263538 -0.223989 0.741275
-0.0274775 -0.22479 0.741379
-0.0285931 -0.225523 0.741258
-0.0297141 -0.226297 0.741271
-0.0308327 -0.227052 0.741221
-0.0319584 -0.227854 0.741324
-0.0330987 -0.228751 0.741735
-0.0342455 -0.229682 0.742252
-0.0353874 -0.23057 0.742627
-0.0365442 -0.231545 0.743277
-0.0376998 -0.232497 0.74385
-0.038843 -0.233367 0.744152
-0.0399942 -0.234277 0.744584
-0.0411467 -0.235184 0.745
-0.0422921 -0.236047 0.745273
-0.0434393 -0.236913 0.745554
-0.0445839 -0.237757 0.745765
-0.0457193 -0.23855 0.745811
-0.0468684 -0.239411 0.746068
-0.0480149 -0.240254 0.746269
-0.0491787 -0.241181 0.746727
-0.0503508 -0.242137 0.747272
-0.0515517 -0.24322 0.748205
-0.0527622 -0.244335 0.749231
-0.0539948 -0.245539 0.750519
-0.0552254 -0.246717 0.751724
-0.056452 -0.247865 0.752825
-0.057661 -0.248922 0.753646
-0.0588969 -0.250082 0.75477
-0.0601476 -0.251294 0.756043
-0.0613978 -0.252487 0.757251
-0.0626293 -0.253591 0.758186
-0.0638609 -0.254686 0.759086
-0.0664169 -0.256893 0.766974
-0.0650255 -0.255508 0.759163
0.0368969 -0.180735 0.742038
0.03882 -0.181502 0.743605
0.0376851 -0.18209 0.742915
0.0365612 -0.182726 0.742427
0.0354393 -0.183368 0.741963
0.0343548 -0.184221 0.742347
0.0332714 -0.18509 0.742793
0.0321805 -0.185923 0.743093
0.0311075 -0.186882 0.743887
0.0300334 -0.187854 0.744725
0.0289445 -0.188742 0.745226
0.0278667 -0.189727 0.7461
0.0267893 -0.19074 0.74708
0.0256886 -0.19159 0.747416
0.0245773 -0.192362 0.747442
0.0234523 -0.193014 0.747008
0.0223159 -0.193546 0.746114
0.0211728 -0.193987 0.744875
0.0200211 -0.194297 0.743145
0.0188735 -0.194597 0.741391
0.0177327 -0.194921 0.739738
0.0166005 -0.195297 0.738295
0.0154793 -0.195774 0.737241
0.0143719 -0.196425 0.736844
0.013265 -0.19707 0.736429
0.0121632 -0.197798 0.736324
0.0110598 -0.198489 0.736079
0.00995598 -0.199165 0.735783
0.00885031 -0.199775 0.735246
0.00774775 -0.200446 0.734933
0.00664408 -0.20105 0.734376
0.00554431 -0.201788 0.734313
0.00444439 -0.20253 0.73426
0.00334457 -0.203312 0.734356
0.00224403 -0.204082 0.734402
0.00114303 -0.204888 0.73458
4.08143e-05 -0.205736 0.734904
-0.00106296 -0.206608 0.735312
-0.00216787 -0.207451 0.73561
-0.00327383 -0.208288 0.735887
-0.00438007 -0.209098 0.736062
-0.00548505 -0.20984 0.735999
-0.00658883 -0.210544 0.735802
-0.0076923 -0.211247 0.735604
-0.00879657 -0.211971 0.735476
-0.00989975 -0.212673 0.735275
-0.0110064 -0.213439 0.735296
-0.0121178 -0.214278 0.735564
-0.013231 -0.215126 0.735859
-0.0143485 -0.216018 0.736304
-0.0154781 -0.217047 0.737213
-0.0166101 -0.218072 0.738096
-0.0177425 -0.219069 0.738881
-0.0188768 -0.22006 0.73964
-0.0200063 -0.220973 0.740132
-0.0211279 -0.22179 0.740295
-0.0222481 -0.222587 0.740391
-0.0233695 -0.223389 0.740502
-0.0244921 -0.224194 0.740625
-0.0256152 -0.224999 0.740741
-0.026736 -0.225781 0.740782
-0.0278485 -0.226492 0.740589
-0.0289691 -0.227267 0.740605
-0.0300903 -0.228043 0.740626
-0.0312166 -0.228853 0.740753
-0.0323535 -0.229733 0.741106
-0.0334989 -0.230661 0.741611
-0.0346398 -0.231549 0.741983
-0.0357962 -0.232526 0.742638
-0.0369511 -0.233484 0.743225
-0.0380977 -0.234377 0.743603
-0.0392478 -0.235287 0.74403
-0.0403948 -0.236169 0.744366
-0.0415393 -0.23703 0.744634
-0.0426867 -0.237898 0.744919
-0.0438345 -0.238768 0.745209
-0.0449741 -0.239586 0.745332
-0.0461225 -0.240444 0.74558
-0.0472724 -0.241308 0.745842
-0.0484348 -0.24223 0.746285
-0.0496068 -0.243189 0.746834
-0.0508104 -0.244293 0.747826
-0.0520188 -0.245406 0.748842
-0.0532378 -0.246555 0.749955
-0.0544546 -0.24768 0.750993
-0.0556679 -0.248776 0.751932
-0.0568651 -0.249789 0.752614
-0.0581001 -0.250957 0.753759
-0.0593565 -0.252203 0.755131
-0.0606116 -0.253426 0.756423
-0.0618532 -0.254581 0.757507
-0.0630898 -0.255702 0.75848
-0.0642612 -0.256552 0.758641
0.0396625 -0.183105 0.745476
0.0385035 -0.183591 0.744366
0.0373627 -0.184155 0.74358
0.0362371 -0.184791 0.743089
0.0351458 -0.185617 0.743357
0.0340628 -0.186499 0.743847
0.0329688 -0.187326 0.744114
0.0318939 -0.188283 0.74489
0.0308138 -0.189225 0.745598
0.0297233 -0.190113 0.74609
0.0286364 -0.19104 0.74673
0.0275476 -0.191972 0.747384
0.0264363 -0.192744 0.747412
0.0253193 -0.193473 0.74727
0.0241892 -0.194084 0.746678
0.0230476 -0.194575 0.745633
0.0219013 -0.194991 0.744307
0.0207463 -0.195278 0.742499
0.0195957 -0.195555 0.740668
0.0184508 -0.195839 0.738874
0.0173176 -0.196209 0.737417
0.0161958 -0.19668 0.736346
0.0150865 -0.197294 0.735816
0.0139779 -0.1979 0.735261
0.0128784 -0.198647 0.735226
0.0117766 -0.199354 0.735046
0.0106758 -0.200078 0.734931
0.00957393 -0.200776 0.734716
0.00847353 -0.201511 0.734639
0.00737035 -0.202153 0.734224
0.00627026 -0.202892 0.734163
0.00516988 -0.203628 0.734089
0.00406977 -0.204392 0.734115
0.00296913 -0.205158 0.734148
0.0018682 -0.205945 0.734252
0.000766465 -0.20677 0.734493
-0.000336682 -0.207623 0.734829
-0.00144096 -0.208465 0.735123
-0.00254649 -0.209304 0.735404
-0.00365293 -0.210135 0.735655
-0.00475844 -0.210901 0.735673
-0.0058631 -0.211625 0.735547
-0.0069677 -0.212349 0.735421
-0.00807318 -0.213095 0.73537
-0.00917701 -0.213802 0.735183
-0.0102853 -0.214592 0.735283
-0.0113981 -0.215453 0.735624
-0.0125131 -0.216325 0.736
-0.0136293 -0.217197 0.736372
-0.014757 -0.218207 0.737207
-0.0158864 -0.219204 0.737993
-0.0170142 -0.220151 0.738602
-0.0181444 -0.221103 0.739225
-0.0192733 -0.222018 0.739718
-0.0203948 -0.222838 0.739892
-0.0215149 -0.223635 0.739987
-0.022636 -0.224437 0.740098
-0.0237581 -0.225241 0.740213
-0.0248781 -0.22602 0.740246
-0.0259977 -0.226794 0.740259
-0.0271069 -0.227479 0.739984
-0.028227 -0.228254 0.739999
-0.0293488 -0.229038 0.740043
-0.0304779 -0.229873 0.740252
-0.0316145 -0.230756 0.740612
-0.0327624 -0.231707 0.741188
-0.0339063 -0.232619 0.741635
-0.0350624 -0.233602 0.742304
-0.0362175 -0.234564 0.742903
-0.0373635 -0.235459 0.743281
-0.0385134 -0.236367 0.743702
-0.0396524 -0.237205 0.743894
-0.040797 -0.238068 0.744167
-0.0419433 -0.238936 0.744449
-0.0430903 -0.239804 0.744732
-0.0442296 -0.240622 0.744856
-0.0453812 -0.241501 0.745166
-0.0465307 -0.242365 0.745426
-0.0476878 -0.243262 0.745789
-0.0488531 -0.244194 0.746252
-0.0500434 -0.245243 0.747072
-0.0512283 -0.246252 0.747764
-0.0524272 -0.247316 0.748618
-0.0536345 -0.24841 0.749557
-0.0548402 -0.249482 0.750423
-0.0560373 -0.250505 0.751135
-0.0572812 -0.251725 0.752431
-0.0585406 -0.252997 0.753878
-0.0597913 -0.254216 0.755156
-0.0610368 -0.255397 0.756314
-0.0622775 -0.256545 0.757362
-0.0634551 -0.257426 0.757615
0.0404709 -0.184527 0.746585
0.0393162 -0.185049 0.745625
0.0381765 -0.185636 0.744928
0.0370471 -0.186269 0.744417
0.0359435 -0.187039 0.744457
0.0348499 -0.187872 0.744741
0.033752 -0.188686 0.744948
