ply
format ascii 1.0
element vertex 1641
property float x
property float y
property float z
end_header
0.0798746 0.0791345 0.902515
0.0798602 0.0808479 0.903216
0.0797965 0.0824831 0.903475
0.0797446 0.0841403 0.903841
0.079722 0.0858475 0.904473
0.0796788 0.0875236 0.904926
0.0796058 0.089148 0.9051
0.0795472 0.0907996 0.905409
0.0794892 0.0924545 0.905726
0.0818276 0.0956312 0.913394
0.079405 0.0940621 0.905795
0.0824782 -0.065421 0.867127
0.0823308 -0.0639258 0.866616
0.0821781 -0.0624333 0.866063
0.0819824 -0.0609538 0.86514
0.0817545 -0.059486 0.863935
0.0814867 -0.0580338 0.862388
0.0812192 -0.0565864 0.860845
0.0809732 -0.0551375 0.859478
0.0807401 -0.0536885 0.858228
0.0805308 -0.0522356 0.857173
0.0803629 -0.0507708 0.856479
0.0802473 -0.0492888 0.856223
0.0800872 -0.0478247 0.855592
0.0799527 -0.0463521 0.855181
0.0798229 -0.0448789 0.854807
0.0797061 -0.0434014 0.854538
0.079625 -0.0419081 0.854585
0.0796477 -0.0403659 0.855532
0.0796859 -0.0388127 0.856615
0.0798157 -0.0372102 0.858491
0.0800197 -0.035563 0.861013
0.0803953 -0.0338167 0.865026
0.0807372 -0.0320742 0.868758
0.081062 -0.0303282 0.872346
0.081253 -0.028646 0.874775
0.0813522 -0.0270091 0.87641
0.0812353 -0.0254965 0.876165
0.0811191 -0.0239839 0.875928
0.0810325 -0.0224532 0.875949
0.0809077 -0.0209475 0.875629
0.0807591 -0.0194581 0.875107
0.0805761 -0.0179941 0.874275
0.0803798 -0.0165416 0.873334
0.0801556 -0.0151118 0.872148
0.0799856 -0.0136472 0.871429
0.0798297 -0.0121745 0.870834
0.0797046 -0.0106799 0.870513
0.0795995 -0.00917123 0.870363
0.0795135 -0.00764768 0.870382
0.0794287 -0.00612247 0.870419
0.0793953 -0.00455534 0.870903
0.0793261 -0.00301646 0.871067
0.079253 -0.00147944 0.871206
0.0791655 4.48671e-05 0.871208
0.079066 0.00155996 0.871115
0.0789215 0.00303405 0.870618
0.078826 0.00455085 0.87055
0.0787208 0.00605922 0.870402
0.0786165 0.00756803 0.87026
0.0785216 0.00908546 0.870202
0.0784267 0.0106029 0.870144
0.0783318 0.0121204 0.870086
0.0782369 0.0136378 0.870028
0.078142 0.0151554 0.86997
0.0780471 0.0166728 0.869912
0.0779521 0.0181903 0.869854
0.0778666 0.0197178 0.86988
0.0777919 0.0212573 0.870002
0.0777286 0.0228102 0.870228
0.0776861 0.0243876 0.870642
0.0776456 0.0259689 0.871076
0.0776431 0.0275957 0.871851
0.0776332 0.0292169 0.87256
0.0776449 0.0308656 0.873459
0.077646 0.0325063 0.874274
0.0776766 0.0341847 0.875346
0.0776875 0.0358438 0.876248
0.0777194 0.0375335 0.877349
0.0777513 0.0392263 0.878443
0.0778135 0.0409622 0.879815
0.0778472 0.0426656 0.880924
0.0778506 0.0443341 0.881767
0.0778672 0.0460238 0.882734
0.0778742 0.0477051 0.88362
0.0778961 0.0494092 0.884637
0.0779618 0.0511774 0.886053
0.0780793 0.0530244 0.887947
0.0782414 0.0549399 0.890238
0.0784151 0.0568831 0.892657
0.0785605 0.0587924 0.894811
0.0786594 0.0606427 0.896547
0.0787497 0.0624855 0.898206
0.078812 0.0642939 0.899613
0.0788704 0.0661029 0.900991
0.07888 0.0678418 0.901926
0.0788699 0.0695534 0.902678
0.0787681 0.0711225 0.90258
0.0786301 0.0726371 0.902163
0.0785179 0.0741888 0.901969
0.0784443 0.0758053 0.902146
0.0783862 0.077447 0.902459
0.078354 0.0791314 0.903009
0.0783167 0.0808109 0.903515
0.0782404 0.0824259 0.903657
0.0781751 0.0840617 0.903906
0.07814 0.0857515 0.904443
0.0780974 0.0874288 0.904903
0.0780353 0.089074 0.905183
0.0779787 0.0907296 0.905514
0.07792 0.0923832 0.905826
0.0778327 0.093987 0.905876
0.0801857 0.0972277 0.913805
0.0777764 0.0956489 0.906216
0.0807835 -0.0640308 0.866249
0.0806191 -0.062542 0.865582
0.0804193 -0.0610645 0.86461
0.0801729 -0.0596031 0.863234
0.0798991 -0.0581543 0.861612
0.0796256 -0.0567108 0.859989
0.0793718 -0.0552662 0.85854
0.0791312 -0.053822 0.8572
0.0789224 -0.0523709 0.856136
0.0787453 -0.0509118 0.855344
0.0786093 -0.0494391 0.854919
0.0784384 -0.0479818 0.854182
0.0782835 -0.0465205 0.853579
0.0781337 -0.0450586 0.853027
0.0779872 -0.0435971 0.852498
0.0778652 -0.0421258 0.852188
0.0778423 -0.0406085 0.852748
0.0778261 -0.039086 0.853364
0.0778781 -0.0375268 0.854582
0.0780205 -0.0359163 0.856597
0.0783555 -0.034196 0.860307
0.0786725 -0.0324722 0.86387
0.0790889 -0.03068 0.868313
0.0794175 -0.0289224 0.871997
0.0796553 -0.0272065 0.874876
0.0796612 -0.0256215 0.875715
0.0796684 -0.0240327 0.876564
0.0795922 -0.0224943 0.876675
0.0794464 -0.0210006 0.876177
0.0792784 -0.0195243 0.875466
0.079083 -0.0180684 0.874521
0.0788578 -0.0166369 0.873306
0.0786056 -0.0152287 0.871851
0.0784041 -0.0137878 0.87085
0.078217 -0.01234 0.869969
0.0780615 -0.0108709 0.869367
0.0779457 -0.00937271 0.869117
0.0778691 -0.00784343 0.869224
0.0778158 -0.00629436 0.869543
0.0778042 -0.00471018 0.870226
0.0777734 -0.00313913 0.870745
0.0777404 -0.00156835 0.871239
0.0776738 -2.48839e-05 0.871436
0.0775868 0.00150114 0.871448
0.0774519 0.0029841 0.871031
0.0773446 0.00449119 0.870862
0.0772184 0.00598074 0.870527
0.077104 0.00747957 0.87029
0.0769997 0.00898818 0.870148
0.0769048 0.0105056 0.87009
0.0768099 0.0120231 0.870031
0.076715 0.0135406 0.869973
0.07662 0.0150581 0.869915
0.0765345 0.0165852 0.869942
0.0764403 0.0181036 0.86989
0.0763648 0.0196424 0.870008
0.0763008 0.0211942 0.870229
0.0762481 0.0227599 0.870557
0.0761973 0.0243298 0.870906
0.076164 0.0259198 0.871403
0.0761488 0.0275343 0.872078
0.0761263 0.029143 0.872687
0.0761161 0.0307675 0.873401
0.0761041 0.0323936 0.874106
0.0761096 0.0340444 0.874977
0.0761094 0.0356908 0.875791
0.0761389 0.0373781 0.876879
0.0761718 0.0390734 0.877997
0.0762412 0.0408209 0.879456
0.0762932 0.0425514 0.88076
0.0763152 0.0442466 0.881789
0.0763426 0.0459535 0.882872
0.0763882 0.0476889 0.884122
0.0764413 0.0494396 0.885443
0.0765295 0.0512442 0.887089
0.076667 0.0531262 0.889201
0.0768246 0.0550448 0.891499
0.076984 0.0569732 0.893813
0.0771125 0.058866 0.895853
0.0771972 0.0607013 0.897483
0.0772766 0.0625346 0.899069
0.0773561 0.0643754 0.900667
0.0774145 0.0661882 0.902065
0.0774334 0.0679465 0.903098
0.0774319 0.0696752 0.903941
0.07734 0.071265 0.903949
0.0771947 0.072768 0.903452
0.0770809 0.0743191 0.903245
0.0769849 0.0759012 0.903213
0.0769036 0.0775073 0.903316
0.0768488 0.0791586 0.903663
0.0767985 0.080819 0.90406
0.0767011 0.0824004 0.904014
0.0766335 0.0840334 0.904245
0.0765969 0.0857217 0.904772
0.0765548 0.0874015 0.905244
0.0764932 0.0890491 0.905532
0.0764371 0.090708 0.905873
0.0763669 0.0923433 0.906089
0.0762685 0.0939283 0.906036
0.076191 0.0955501 0.906173
0.0777121 0.097295 0.906473
0.0761131 0.0971741 0.906317
0.0784593 0.100454 0.914309
0.0760259 0.0987786 0.906362
0.0792652 -0.0641292 0.866126
0.0790838 -0.062645 0.865299
0.0788565 -0.0611755 0.864074
0.0786049 -0.0597171 0.862623
0.0783331 -0.0582691 0.861001
0.0780535 -0.056829 0.859305
0.0778036 -0.055385 0.857861
0.0775544 -0.0539452 0.856432
0.0773379 -0.0524986 0.855283
0.0771523 -0.0510444 0.854403
0.0770061 -0.0495775 0.853882
0.076826 -0.0481261 0.853049
0.0766511 -0.046675 0.852266
0.0764824 -0.0452238 0.851536
0.0763072 -0.043778 0.850742
0.0761558 -0.0423235 0.850166
0.0760908 -0.0408296 0.850351
0.0760395 -0.0393278 0.850668
0.0760196 -0.0378092 0.851255
0.0761013 -0.0362343 0.852761
0.0763618 -0.0345577 0.855863
0.0766025 -0.0328813 0.858789
0.0769899 -0.0311102 0.863041
0.0773426 -0.0293445 0.866988
0.0776953 -0.0275652 0.870938
0.0778416 -0.0258989 0.873052
0.0779943 -0.0242216 0.875219
0.0780173 -0.022621 0.876221
0.0779534 -0.0210741 0.876449
0.0777648 -0.0196114 0.875551
0.0775414 -0.0181761 0.874336
0.0772764 -0.0167743 0.872745
0.0769855 -0.015397 0.870916
0.0767423 -0.0139902 0.86952
0.076522 -0.0125703 0.868329
0.0763451 -0.0111214 0.867523
0.0762288 -0.00962699 0.867265
0.0761821 -0.00807645 0.867645
0.0761704 -0.00649577 0.86834
0.07621 -0.00486904 0.869505
0.07624 -0.00324648 0.870582
0.0762573 -0.00163071 0.871549
0.0762138 -6.59903e-05 0.871957
0.0761382 0.00147187 0.872079
0.0759949 0.00294709 0.871573
0.0758652 0.00443423 0.8712
0.0757173 0.00590345 0.870665
0.0755923 0.00739185 0.870324
0.0754778 0.0088909 0.870093
0.0753829 0.0104083 0.870035
0.0752879 0.0119259 0.869977
0.0752025 0.0134527 0.870003
0.0751177 0.0149806 0.870034
0.0750419 0.0165196 0.870159
0.0749577 0.0180494 0.8702
0.074893 0.0196001 0.870414
0.0748379 0.0211639 0.870728
0.0747957 0.0227432 0.871156
0.0747441 0.0243135 0.871501
0.0747088 0.0259044 0.871997
0.074682 0.0275068 0.87257
0.0746385 0.0290923 0.872995
0.0745971 0.030682 0.873439
0.0745628 0.032282 0.873947
0.0745361 0.0338936 0.874528
0.0745223 0.0355229 0.875223
0.0745305 0.0371851 0.876137
0.0745522 0.0388673 0.877171
0.0746104 0.0406017 0.878548
0.0746695 0.0423434 0.87994
0.074692 0.0440395 0.880985
0.0747378 0.045773 0.882259
0.0748025 0.0475369 0.883709
0.0748838 0.0493297 0.885315
0.0749907 0.0511647 0.887163
0.0751462 0.0530774 0.889476
0.0753005 0.0549973 0.891779
0.0754542 0.056925 0.894087
0.0755886 0.0588326 0.896214
0.0756928 0.0607012 0.898052
0.0757914 0.0625698 0.899849
0.0759106 0.0644764 0.901843
0.0759966 0.066339 0.903528
0.0760147 0.0681007 0.904575
0.0760105 0.0698308 0.905407
0.0759173 0.0714199 0.905398
0.0757621 0.0729097 0.904808
0.0756399 0.0744503 0.904521
0.0755409 0.0760302 0.904464
0.0754359 0.0775992 0.904345
0.075367 0.0792287 0.904564
0.0752965 0.0808566 0.904772
0.0751789 0.0824055 0.904539
0.0751016 0.0840223 0.904678
0.0750538 0.085692 0.905104
0.0749994 0.0873541 0.905472
0.0749367 0.0890027 0.905764
0.0748892 0.0906787 0.906196
0.07481 0.0922991 0.906326
0.074711 0.0938818 0.906265
0.0746216 0.0954837 0.906295
0.0745328 0.0970868 0.906333
0.0744344 0.098672 0.906281
0.0767281 0.101894 0.913913
0.0743062 0.100199 0.905934
0.0778968 -0.0657213 0.86655
0.0777268 -0.0642326 0.865816
0.0775208 -0.0627551 0.864764
0.0773069 -0.0612834 0.863637
0.0770574 -0.0598253 0.862186
0.0767893 -0.0583777 0.860571
0.0765119 -0.0569382 0.85887
0.0762617 -0.0554953 0.85741
0.0760066 -0.0540591 0.855901
0.0757913 -0.0526134 0.854747
0.0755905 -0.0511663 0.853717
0.0754261 -0.0497079 0.853021
0.0752262 -0.0482662 0.852002
0.0750244 -0.0468288 0.850963
0.0748295 -0.0453919 0.84998
0.074645 -0.0439531 0.849097
0.074474 -0.0425109 0.848334
0.0743876 -0.0410303 0.848327
0.0743248 -0.0395377 0.848537
0.0742559 -0.0380471 0.848695
0.0742659 -0.0365139 0.849568
0.0744405 -0.034887 0.851937
0.074581 -0.0332713 0.853997
0.0748625 -0.0315658 0.857353
0.0751833 -0.0298258 0.86106
0.0755339 -0.0280538 0.865055
0.0758062 -0.0263173 0.868336
0.076099 -0.0245559 0.871809
0.0762744 -0.0228589 0.874227
0.0763182 -0.0212429 0.875432
0.076209 -0.0197278 0.875248
0.0759443 -0.0183229 0.873644
0.0756387 -0.0169537 0.871653
0.0752803 -0.0156303 0.869176
0.0749987 -0.014257 0.867403
0.0747666 -0.012851 0.866088
0.0745795 -0.0114152 0.865171
0.0744634 -0.00992463 0.864914
0.0744465 -0.00835305 0.865573
0.074486 -0.00673201 0.866752
0.0745789 -0.00506149 0.868419
0.0746704 -0.00338535 0.870086
0.0747473 -0.00171649 0.871615
0.0747359 -0.00012139 0.872333
0.0746718 0.00142755 0.872558
0.0745264 0.00290147 0.872032
0.0743854 0.00437796 0.871545
0.0742162 0.00582643 0.870804
0.0740805 0.00730438 0.870362
0.0739568 0.00879369 0.870038
0.0738619 0.0103111 0.86998
0.073767 0.0118286 0.869922
0.0736907 0.0133657 0.870037
0.0736156 0.0149051 0.870169
0.0735522 0.0164568 0.870401
0.0734786 0.0179991 0.870544
0.0734226 0.0195621 0.870855
0.0733751 0.021136 0.871246
0.0733327 0.0227166 0.871678
0.07328 0.0242878 0.872023
0.0732446 0.0258798 0.87252
0.0732059 0.0274712 0.872998
0.073144 0.0290349 0.87325
0.0730804 0.0305989 0.873495
0.0730238 0.0321724 0.873804
0.0729667 0.0337456 0.874101
0.072938 0.0353584 0.874681
0.0729249 0.036993 0.875402
0.0729343 0.0386594 0.87633
0.0729798 0.040379 0.877613
0.0730431 0.0421282 0.87907
0.0730735 0.0438363 0.880208
0.0731393 0.0455984 0.881686
0.073222 0.047391 0.883335
0.07332 0.0492105 0.885125
0.0734323 0.0510576 0.887055
0.0735731 0.0529552 0.889272
0.0737144 0.054861 0.891489
0.0738651 0.0567885 0.893796
0.0740262 0.0587409 0.896213
0.0741611 0.0606632 0.898384
0.0743123 0.0626176 0.900713
0.0744816 0.0646102 0.903223
0.0745868 0.0665101 0.905117
0.0746013 0.0682731 0.906151
0.0745931 0.0700011 0.90696
0.0744892 0.0715768 0.906855
0.0743163 0.0730375 0.906084
0.0741828 0.0745623 0.90569
0.0740632 0.0761091 0.905432
0.0739376 0.0776431 0.90511
0.0738464 0.079237 0.905119
0.0737645 0.0808484 0.90523
0.073648 0.0823972 0.904992
0.0735695 0.0840152 0.905136
0.0735104 0.0856672 0.905459
0.0734449 0.0873107 0.905726
0.0733698 0.088937 0.905899
0.073312 0.0905955 0.906232
0.0732223 0.0921976 0.906268
0.0731233 0.0937803 0.906208
0.0730243 0.0953641 0.906147
0.0729252 0.0969478 0.906087
0.0728262 0.0985316 0.906026
0.0727081 0.100078 0.905779
0.0764605 -0.0658009 0.867177
0.076228 -0.0643264 0.865864
0.075986 -0.0628584 0.864467
0.0757694 -0.0613881 0.863303
0.0755139 -0.0599329 0.861772
0.075239 -0.0584883 0.860076
0.0749641 -0.0570498 0.858363
0.0747152 -0.0556079 0.856893
0.0744615 -0.0541726 0.855376
0.0742666 -0.0527207 0.854397
0.0740589 -0.0512772 0.853288
0.073886 -0.0498233 0.8525
0.0736681 -0.0483905 0.851301
0.0734378 -0.0469668 0.84999
0.0732154 -0.0455443 0.848741
0.0730218 -0.0441123 0.847761
0.0728352 -0.0426804 0.846837
0.072732 -0.0412106 0.846676
0.0726669 -0.0397215 0.846872
0.0725965 -0.0382342 0.847022
0.0725614 -0.0367273 0.847493
0.0726509 -0.0351494 0.849112
0.0726968 -0.0335905 0.850332
0.0728758 -0.0319492 0.852781
0.0731076 -0.0302673 0.855721
0.0734527 -0.0285045 0.859718
0.0737756 -0.0267413 0.863522
0.0741437 -0.0249353 0.867748
0.0743835 -0.0232002 0.870791
0.074483 -0.0215505 0.872533
0.0743829 -0.0200343 0.872428
0.0741359 -0.0186232 0.870962
0.0738459 -0.0172492 0.869085
0.0734868 -0.0159336 0.866559
0.0732069 -0.0145656 0.864774
0.0729866 -0.0131564 0.863546
0.0728124 -0.0117155 0.862736
0.0727082 -0.0102197 0.862584
0.0727202 -0.00862771 0.863518
0.0727981 -0.0069757 0.865077
0.0729312 -0.0052705 0.867153
0.0730648 -0.00355774 0.869232
0.0731913 -0.00184338 0.871251
0.073216 -0.000214339 0.872325
0.0731611 0.00134378 0.872642
0.0730236 0.00282526 0.872188
0.0728814 0.00430029 0.871683
0.0727033 0.0057389 0.870842
0.0725583 0.00720772 0.870314
0.0724349 0.00869641 0.869983
0.07234 0.0102138 0.869925
0.0722451 0.0117314 0.869867
0.0721694 0.0132694 0.869992
0.0721051 0.01482 0.870222
0.0720528 0.0163851 0.870567
0.0719896 0.0179401 0.870816
0.0719505 0.0195234 0.871292
0.0719119 0.0211092 0.871774
0.0718687 0.0226901 0.872202
0.0718165 0.0242637 0.872558
0.0717791 0.0258562 0.873052
0.071731 0.0274376 0.873445
0.0716568 0.0289882 0.873589
0.0715819 0.0305387 0.873726
0.0715046 0.0320875 0.873846
0.0714261 0.0336347 0.873949
0.0713685 0.0352103 0.874257
0.0713424 0.0368286 0.874865
0.0713296 0.0384668 0.875598
0.0713605 0.040168 0.87676
0.0714206 0.0419136 0.878202
0.0714572 0.0436328 0.879427
0.071523 0.0453969 0.880928
0.071614 0.0472037 0.882682
0.0717083 0.0490215 0.884469
0.0718064 0.0508514 0.886294
0.0719226 0.0527162 0.888305
0.0720394 0.0545881 0.890317
0.0721658 0.0564838 0.892435
0.072362 0.0584938 0.895226
0.0725471 0.0604974 0.897919
0.0727707 0.0625724 0.901002
0.073003 0.064672 0.904163
0.0731626 0.0666683 0.90663
0.0731759 0.0684334 0.907667
0.073163 0.0701588 0.908443
0.0730464 0.0717171 0.908218
0.0728738 0.0731785 0.907437
0.072733 0.0746917 0.906963
0.0726032 0.0762218 0.9066
0.0724555 0.0777212 0.906063
0.0723442 0.0792815 0.905882
0.0722424 0.0808591 0.905796
0.0721168 0.0823941 0.905474
0.072029 0.0839945 0.905516
0.071958 0.0856277 0.905732
0.0718808 0.0872501 0.905887
0.071794 0.0888563 0.905949
0.0717249 0.0904953 0.906182
0.0716346 0.0920961 0.906211
0.0715356 0.0936788 0.906151
0.0714365 0.0952626 0.90609
0.0713375 0.0968463 0.90603
0.0712384 0.0984301 0.905969
0.0711307 0.0999958 0.905819
0.0733825 0.103199 0.913312
0.0710034 0.101522 0.905476
0.0752428 -0.0673629 0.869016
0.0750358 -0.0658776 0.867923
0.0747775 -0.0644083 0.86636
0.0745084 -0.0629468 0.864696
0.0742822 -0.0614793 0.863417
0.074019 -0.0600265 0.861797
0.0737374 -0.0585845 0.860014
0.0734461 -0.057152 0.858125
0.0731897 -0.0557136 0.856564
0.0729381 -0.0542787 0.855044
0.0727395 -0.0528295 0.854006
0.0725245 -0.0513895 0.852826
0.0723433 -0.0499403 0.851943
0.0721127 -0.0485144 0.850608
0.0718639 -0.0471005 0.849105
0.0716245 -0.045688 0.847676
0.0714313 -0.044258 0.846689
0.0712467 -0.0428276 0.845767
0.0711362 -0.0413631 0.845539
0.0710718 -0.0398753 0.845745
0.071003 -0.038389 0.845909
0.0709688 -0.0368834 0.846387
0.0709589 -0.0353616 0.847108
0.0708988 -0.0338669 0.847348
0.0709937 -0.0322783 0.849048
0.0711327 -0.0306567 0.851165
0.0713941 -0.0289502 0.854438
0.0717485 -0.0271722 0.858594
0.0721503 -0.0253486 0.863192
0.0724225 -0.0235963 0.866583
0.0725715 -0.0219173 0.868822
0.0725056 -0.0203828 0.869042
0.0722801 -0.018964 0.867746
0.0720123 -0.0175813 0.866046
0.0716773 -0.0162545 0.863719
0.0714162 -0.0148795 0.862072
0.0712211 -0.0134564 0.861064
0.0710704 -0.0120014 0.860467
0.0709876 -0.0104926 0.860506
0.0710077 -0.0088953 0.861538
0.0711276 -0.00720889 0.863514
0.0712879 -0.00547983 0.865879
0.0714568 -0.00373367 0.868338
0.0716176 -0.00198693 0.870713
0.0716768 -0.000325067 0.872133
0.0716233 0.00123432 0.872468
0.0714959 0.00272494 0.872105
0.0713552 0.00420091 0.871609
0.0711798 0.00564057 0.870779
0.0710451 0.00711865 0.870336
0.0709317 0.00861775 0.870102
0.0708458 0.0101456 0.870137
0.07076 0.0116735 0.870169
0.0706927 0.0132215 0.870376
0.0706291 0.0147736 0.870613
0.070584 0.0163494 0.871044
0.0705315 0.017917 0.871392
0.0704936 0.0195032 0.871885
0.0704545 0.0210912 0.872377
0.0704094 0.0226726 0.8728
0.0703478 0.0242369 0.873073
0.0703003 0.025819 0.873477
0.0702513 0.0274008 0.873867
0.0701671 0.0289402 0.873918
0.0700814 0.0304785 0.873957
0.0699946 0.0320143 0.873975
0.0698969 0.0335378 0.873901
0.0698114 0.0350762 0.873935
0.0697722 0.0366788 0.874433
0.069739 0.0382897 0.874976
0.0697492 0.0399638 0.875953
0.0698049 0.0417063 0.877385
0.0698487 0.0434364 0.878694
0.069913 0.0452012 0.880209
0.0700115 0.0470217 0.882065
0.0700932 0.0488239 0.883755
0.070175 0.0506337 0.885455
0.0702662 0.0524636 0.887249
0.0703488 0.054287 0.888957
0.0704307 0.0561174 0.890674
0.0706929 0.0582347 0.89417
0.0709478 0.0603527 0.897592
0.0712474 0.0625585 0.901478
0.0715485 0.064779 0.905381
0.0717795 0.0669006 0.908597
0.0717701 0.0686353 0.909425
0.0717359 0.0703311 0.910012
0.0716113 0.0718764 0.909698
0.0714394 0.0733419 0.908918
0.0712876 0.0748382 0.908334
0.0711475 0.0763526 0.907864
0.0709804 0.0778168 0.907122
0.0708494 0.0793441 0.906739
0.0707278 0.0808879 0.906457
0.0705923 0.0824031 0.906027
0.0704931 0.083987 0.905969
0.0704124 0.085604 0.906094
0.0703237 0.0872052 0.906132
0.0702258 0.0887917 0.906088
0.0701459 0.0904108 0.906215
0.0700468 0.0919946 0.906154
0.0699478 0.0935773 0.906094
0.0698488 0.0951611 0.906033
0.0697497 0.0967449 0.905973
0.0696507 0.0983286 0.905912
0.0695516 0.0999123 0.905851
0.0694526 0.101495 0.905792
0.0740097 -0.0689335 0.870767
0.0737694 -0.0674508 0.869352
0.0735532 -0.0659673 0.868155
0.0733007 -0.0644964 0.866624
0.0730405 -0.0630327 0.865015
0.0728072 -0.0615667 0.863657
0.0725275 -0.0601189 0.861863
0.0722468 -0.0586773 0.860053
0.0719377 -0.0572511 0.857974
0.0716755 -0.0558157 0.856332
0.0714195 -0.0543835 0.854744
0.0712228 -0.0529345 0.853709
0.0710011 -0.0514983 0.852444
0.0708186 -0.0500504 0.851543
0.0705798 -0.0486292 0.850112
0.0703247 -0.0472204 0.848514
0.0700761 -0.0458134 0.846987
0.0698939 -0.0443803 0.846078
0.069711 -0.0429504 0.845167
0.0696022 -0.0414862 0.844949
0.0695464 -0.0399946 0.845241
0.069485 -0.0385052 0.845473
0.0694503 -0.0369997 0.845964
0.0694498 -0.0354729 0.846777
0.0693996 -0.0339721 0.847123
0.0694154 -0.0324302 0.848096
0.069468 -0.0308619 0.84942
0.0696354 -0.0292154 0.851846
0.069908 -0.0274914 0.855279
0.0702252 -0.025725 0.85915
0.070486 -0.0239835 0.86249
0.070659 -0.0222924 0.864987
0.0706217 -0.0207442 0.865474
0.0704271 -0.0193094 0.864462
0.0702086 -0.0178971 0.863204
0.0699313 -0.0165342 0.861384
0.0697132 -0.0151304 0.860132
0.0695613 -0.0136776 0.859516
0.0694426 -0.0121998 0.859215
0.0693695 -0.0106838 0.859362
0.0694122 -0.00906789 0.860625
0.0695557 -0.00736005 0.862856
0.069729 -0.00561655 0.865391
0.0699124 -0.00385447 0.86803
0.0700856 -0.00209321 0.870565
0.0701436 -0.000431135 0.87199
0.0700719 0.00111191 0.87216
0.0699475 0.00260472 0.871824
0.0698093 0.00408181 0.871343
0.0696464 0.00553233 0.870619
0.0695139 0.00701228 0.870195
0.0694195 0.00853122 0.870147
0.0693443 0.0100703 0.870283
0.0692691 0.0116099 0.870417
0.0692101 0.0131681 0.870712
0.0691524 0.0147289 0.871019
0.0691058 0.0163039 0.871438
0.0690613 0.017883 0.871877
0.0690245 0.0194723 0.872389
0.0689859 0.0210626 0.872893
0.0689406 0.0226453 0.873318
0.0688761 0.0242071 0.873563
0.0688094 0.0257674 0.873788
0.0687586 0.027349 0.874172
0.0686659 0.0288786 0.874143
0.0685725 0.0304075 0.874106
0.0684751 0.0319305 0.874026
0.0683769 0.0334526 0.873939
0.0682799 0.0349772 0.873871
0.0682318 0.0365672 0.874278
0.0681861 0.0381635 0.874719
0.0681778 0.0398135 0.875529
0.0682135 0.0415299 0.876781
0.0682463 0.0432462 0.878004
0.0682988 0.0449961 0.879425
0.0683849 0.0468009 0.881184
0.0684613 0.0485991 0.882858
0.0685389 0.0504051 0.884545
0.0686075 0.0522022 0.886133
0.068656 0.0539765 0.88754
0.0686942 0.0557391 0.888837
0.0689306 0.0578221 0.892134
0.0692507 0.0600509 0.896276
0.069634 0.0623997 0.901066
0.0700321 0.0647905 0.906012
0.0703561 0.0670763 0.910222
0.0703391 0.0688044 0.910997
0.0702956 0.0704893 0.911497
0.070171 0.0720365 0.91118
0.0700022 0.0735069 0.910418
0.0698329 0.0749739 0.909648
0.0696812 0.07647 0.909061
0.069494 0.0778987 0.908103
0.0693405 0.0793869 0.907495
0.0691908 0.0808785 0.906915
0.0690533 0.0823916 0.906461
0.0689361 0.083941 0.906213
0.0688451 0.0855396 0.906239
0.0687469 0.0871235 0.906182
0.0686485 0.0887086 0.906128
0.0685582 0.0903094 0.906157
0.0684505 0.0918751 0.906007
0.0683507 0.0934575 0.90594
0.0682509 0.0950401 0.905876
0.0681527 0.096624 0.905819
0.0680543 0.0982091 0.905765
0.0679639 0.0998109 0.905794
0.0678741 0.101414 0.905832
0.0724105 -0.069047 0.869937
0.0722056 -0.0675583 0.868835
0.0719993 -0.0660734 0.867723
0.0717615 -0.0645999 0.866308
0.0715198 -0.0631323 0.864845
0.071307 -0.0616613 0.863661
0.0710217 -0.0602159 0.86178
0.0707481 -0.0587727 0.860019
0.0704496 -0.0573439 0.858004
0.0701807 -0.0559114 0.856273
0.0699355 -0.0544759 0.854769
0.0697568 -0.0530204 0.85389
0.0695363 -0.051584 0.852618
0.0693462 -0.0501394 0.85163
0.0691031 -0.048721 0.850128
0.068841 -0.0473156 0.848451
0.068589 -0.0459115 0.846859
0.0684077 -0.0444785 0.845952
0.0682276 -0.0430482 0.845046
0.0681267 -0.04158 0.844908
0.0680711 -0.0400885 0.845197
0.0680078 -0.0385993 0.845423
0.0679714 -0.0370943 0.845909
0.0679777 -0.0355628 0.846802
0.0679453 -0.0340508 0.847329
0.0679649 -0.0325051 0.848357
0.068027 -0.030929 0.849795
0.0681174 -0.0293291 0.851515
0.0683026 -0.02766 0.854158
0.0685196 -0.0259597 0.857117
0.0686987 -0.0242756 0.859708
0.068801 -0.0226369 0.86156
0.0687852 -0.0210778 0.862267
0.0686354 -0.0196168 0.861664
0.0684714 -0.0181689 0.860917
0.0682589 -0.0167613 0.859698
0.0680915 -0.0153213 0.858921
0.0679863 -0.0138327 0.858756
0.0678855 -0.0123412 0.858628
0.0678218 -0.0108183 0.858865
0.0678798 -0.00918865 0.860294
0.0680368 -0.00746539 0.862703
0.0682074 -0.00572063 0.865257
0.068389 -0.00395721 0.867913
0.0685536 -0.00219954 0.870416
0.0685981 -0.000548118 0.871734
0.0685088 0.000977337 0.87173
0.0683945 0.00247881 0.871485
0.0682656 0.00396447 0.871093
0.0681136 0.00542467 0.870465
0.0679827 0.00690567 0.870053
0.067899 0.00843547 0.870106
0.0678258 0.00997714 0.870266
0.0677518 0.0115187 0.870419
0.0676851 0.0130683 0.870636
0.0676249 0.0146277 0.87093
0.0675769 0.0162012 0.871338
0.0675306 0.0177795 0.871771
0.067495 0.0193708 0.872301
0.0674638 0.0209711 0.872889
0.0674152 0.022552 0.873299
0.0673484 0.0241117 0.873527
0.0672802 0.0256705 0.873739
0.0672378 0.0272627 0.874207
0.0671457 0.0287937 0.874188
0.067053 0.0303235 0.874156
0.0669548 0.0318459 0.874071
0.066856 0.0333669 0.873974
0.06675 0.0348794 0.873816
0.0667009 0.0364694 0.874223
0.0666542 0.0380655 0.874664
0.066636 0.0397027 0.875382
0.0666592 0.0414043 0.876534
0.0666799 0.0431047 0.877648
0.0667183 0.044838 0.878962
0.0667836 0.0466152 0.88054
0.0668394 0.0483848 0.882031
0.0669046 0.050174 0.883615
0.0669515 0.0519415 0.885023
0.0669718 0.0536708 0.886152
0.0669764 0.0553821 0.887135
0.0671664 0.0573949 0.890011
0.0675259 0.0596965 0.894625
0.067962 0.0621414 0.900035
0.0684116 0.0646313 0.905602
0.0688 0.0670363 0.91054
0.0688563 0.0688937 0.912087
0.0688123 0.0705819 0.912596
0.068699 0.0721514 0.912397
0.0685407 0.0736401 0.911729
0.0683716 0.0751078 0.910951
0.0682013 0.0765709 0.91016
0.0680024 0.0779776 0.909066
0.0678303 0.0794319 0.908256
0.0676598 0.0808857 0.907457
0.0675117 0.0823778 0.906889
0.0673847 0.0839083 0.906531
0.0672763 0.0854737 0.906373
0.0671685 0.0870404 0.906221
0.0670695 0.0886241 0.906161
0.0669704 0.0902079 0.9061
0.0668621 0.0917723 0.905943
0.0667615 0.0933536 0.905872
0.0666618 0.0949361 0.905806
0.0665634 0.0965211 0.905751
0.0664659 0.0981063 0.905701
0.0663762 0.0997094 0.905737
0.0662863 0.101313 0.905777
0.0685815 0.104698 0.914108
0.0662248 0.102978 0.906115
0.0704738 -0.066173 0.867549
0.0702433 -0.0646984 0.86618
0.0700265 -0.0632247 0.864936
0.0698184 -0.0617524 0.863785
0.0695359 -0.0603063 0.861907
0.0692656 -0.0588628 0.86014
0.0689686 -0.057434 0.85811
0.0686953 -0.0560036 0.85631
0.0684529 -0.0545677 0.854811
0.0682754 -0.0531121 0.853927
0.0680642 -0.0516725 0.852724
0.0678775 -0.0502269 0.851752
0.0676385 -0.0488071 0.850272
0.0673888 -0.0473969 0.848687
0.0671476 -0.0459883 0.847176
0.0669682 -0.0445543 0.846273
0.0667896 -0.0431229 0.845376
0.0666903 -0.0416534 0.845248
0.0666313 -0.0401623 0.84552
0.0665682 -0.0386728 0.845742
0.0665302 -0.0371678 0.846214
0.066536 -0.0356351 0.84712
0.0665285 -0.0341069 0.847902
0.0665647 -0.0325485 0.849116
0.0666352 -0.0309639 0.850666
0.0667522 -0.0293436 0.852671
0.0668579 -0.0277233 0.854575
0.0669686 -0.026092 0.856539
0.0670241 -0.0244936 0.857953
0.0670464 -0.0229139 0.859042
0.066965 -0.0214075 0.859103
0.0668707 -0.0199105 0.859037
0.0667647 -0.0184219 0.858863
0.0666433 -0.0169465 0.858531
0.066532 -0.0154643 0.858293
0.0664547 -0.0139539 0.8584
0.0663786 -0.0124415 0.858524
0.0663383 -0.0108984 0.858994
0.0664124 -0.00925177 0.860613
0.0665782 -0.00751672 0.863149
0.0667495 -0.00576652 0.865754
0.0669162 -0.00401181 0.868313
0.0670572 -0.00227291 0.870612
0.0670783 -0.00064114 0.871724
0.0669694 0.000864606 0.87152
0.0668538 0.00236428 0.871259
0.0667251 0.00384917 0.870862
0.0665815 0.00531799 0.87032
0.0664524 0.00679936 0.869912
0.0663763 0.00833755 0.870046
0.0663025 0.00987834 0.870198
0.0662376 0.0114301 0.870442
0.066162 0.0129713 0.870584
0.0661019 0.0145305 0.870878
0.0660521 0.0161034 0.87128
0.0660049 0.0176812 0.87171
0.065959 0.0192626 0.872157
0.065927 0.0208622 0.87274
0.0658767 0.0224417 0.873142
0.06581 0.0240012 0.873369
0.0657415 0.0255605 0.873588
0.0656986 0.0271543 0.874069
0.0656241 0.0287069 0.874217
0.0655311 0.0302375 0.874192
0.0654338 0.0317606 0.874109
0.0653424 0.0332925 0.874094
0.065238 0.0348066 0.873945
0.0651802 0.0363865 0.874277
0.0651341 0.037984 0.874726
0.0651121 0.0396174 0.875417
0.0651149 0.0412918 0.876378
0.0651129 0.0429617 0.877283
0.0651304 0.0446651 0.878396
0.0651735 0.0464124 0.87978
0.0652 0.0481389 0.88099
0.0652447 0.0498983 0.88239
0.0652888 0.0516636 0.883797
0.0652981 0.0533775 0.884839
0.065277 0.055045 0.885557
0.0654106 0.0569708 0.887898
0.0658091 0.0593454 0.892999
0.0667586 0.0644144 0.904834
0.0672101 0.0669425 0.910532
0.0673379 0.0689269 0.912843
0.0672845 0.0706034 0.913272
0.0671923 0.0722106 0.913288
0.0670529 0.0737338 0.912812
0.0668856 0.0752037 0.912036
0.0667236 0.0766823 0.91132
0.0665156 0.0780722 0.910119
0.066326 0.0794915 0.909103
0.0661379 0.0809105 0.908106
0.065972 0.0823689 0.907339
0.0658255 0.0838624 0.90678
0.0657063 0.0854078 0.90651
0.0655885 0.0869559 0.906255
0.0654818 0.0885226 0.906104
0.0653827 0.0901064 0.906043
0.0652734 0.0916707 0.905883
0.065174 0.0932519 0.905809
0.0650727 0.0948319 0.905734
0.064976 0.0964184 0.905688
0.0648774 0.0980037 0.905641
0.0647885 0.0996079 0.90568
0.0646977 0.101211 0.905717
0.064644 0.102893 0.906143
0.069105 -0.0677675 0.868044
0.0689037 -0.0662833 0.866936
0.0687126 -0.0648 0.865933
0.0685241 -0.0633194 0.864945
0.0683232 -0.0618454 0.863842
0.0680546 -0.0603956 0.862073
0.0677996 -0.0589474 0.86043
0.0675064 -0.0575177 0.858405
0.067236 -0.0560865 0.856606
0.0669981 -0.0546492 0.855121
0.0668133 -0.053196 0.854163
0.0666216 -0.0517487 0.853131
0.0664374 -0.0503018 0.852169
0.0662011 -0.0488807 0.850696
0.0659543 -0.0474694 0.849113
0.0657216 -0.0460569 0.847665
0.065537 -0.0446256 0.846688
0.0653603 -0.0431931 0.845793
0.06526 -0.041723 0.845663
0.0652018 -0.0402309 0.845938
0.0651368 -0.0387409 0.846157
0.0650977 -0.0372352 0.84663
0.0651014 -0.0357017 0.847538
0.0651102 -0.0341624 0.848488
0.0651452 -0.0326027 0.849705
0.0652126 -0.0310172 0.851255
0.0652913 -0.029419 0.852916
0.0653725 -0.0278129 0.854605
0.065443 -0.0262076 0.856202
0.0654702 -0.0246286 0.857351
0.0654641 -0.0230692 0.858178
0.0653961 -0.0215538 0.858378
0.065302 -0.0200581 0.858309
0.0651976 -0.0185698 0.858148
0.0651047 -0.0170728 0.858098
0.0650141 -0.0155744 0.858065
0.0649636 -0.0140415 0.858446
0.064923 -0.0124987 0.858925
0.0649244 -0.0109166 0.859836
0.0650181 -0.00924875 0.86168
0.0651909 -0.00750143 0.864334
0.0653419 -0.00576447 0.866776
0.0654748 -0.00403578 0.869039
0.0655667 -0.00233906 0.870885
0.0655488 -0.000744087 0.871612
0.0654283 0.000750962 0.871301
0.0653133 0.00224931 0.871029
0.0651845 0.00373407 0.870633
0.0650511 0.00521209 0.870182
0.0649297 0.00670141 0.869851
0.0648607 0.00824713 0.870056
0.0647852 0.00978692 0.870197
0.0647265 0.0113461 0.870509
0.0646501 0.0128872 0.870647
0.0645898 0.014447 0.870946
0.0645315 0.0160106 0.871265
0.0644833 0.0175885 0.871696
0.0644193 0.019148 0.871957
0.0643774 0.0207361 0.872448
0.064317 0.0223041 0.87276
0.0642432 0.0238547 0.872921
0.0641761 0.0254156 0.873156
0.0641336 0.0270101 0.87365
0.064068 0.0285745 0.873893
0.0639924 0.0301273 0.874042
0.0639037 0.0316631 0.874057
0.063822 0.0332086 0.874142
0.0637353 0.034748 0.874178
0.0636774 0.0363285 0.874512
0.063622 0.0379147 0.874876
0.0635885 0.0395344 0.875468
0.0635711 0.0411806 0.876231
0.063548 0.0428216 0.876938
0.0635534 0.0445088 0.877944
0.0635755 0.0462259 0.879127
0.06359 0.0479349 0.880229
0.0636123 0.0496613 0.88142
0.0636437 0.0514073 0.88271
0.0636437 0.0531072 0.883675
0.0636228 0.0547755 0.884413
0.063702 0.0566152 0.886218
0.0640414 0.0589004 0.89078
0.0644031 0.0612428 0.895597
0.0649156 0.0638648 0.902024
0.0653952 0.0664529 0.908116
0.0656107 0.0685968 0.911413
0.0656396 0.0704184 0.912723
0.0656402 0.0721936 0.913732
0.0655118 0.0737357 0.913363
0.0653481 0.075212 0.912617
0.0651956 0.0767077 0.911995
0.0649997 0.0781174 0.910895
0.064819 0.0795536 0.909968
0.0646253 0.0809614 0.908894
0.0644591 0.082418 0.90811
0.0643014 0.08389 0.907426
0.064164 0.0853984 0.90695
0.0640287 0.0869095 0.906493
0.063911 0.0884565 0.906235
0.0638026 0.0900219 0.906077
0.0636866 0.0915693 0.905829
0.063586 0.0931506 0.905758
0.0634786 0.0947161 0.905602
0.0633796 0.0962988 0.90554
0.0632813 0.0978829 0.905487
0.0631914 0.0994871 0.905526
0.0631017 0.101089 0.905563
0.0630548 0.102789 0.906075
0.065385 0.106329 0.915084
0.0630391 0.104563 0.906929
0.0671346 -0.0649141 0.865209
0.0669888 -0.0634231 0.864634
0.066806 -0.0619446 0.86369
0.0665637 -0.0604875 0.862152
0.0663282 -0.0590335 0.86068
0.0660713 -0.0575915 0.85899
0.0658119 -0.0561562 0.857269
0.0655766 -0.0547174 0.855791
0.0653937 -0.0532627 0.854835
0.0652204 -0.0518071 0.853973
0.0650388 -0.0503582 0.853019
0.0647974 -0.0489389 0.851467
0.0645742 -0.0475162 0.8501
0.0643436 -0.046102 0.848646
0.0641511 -0.044673 0.847585
0.0639763 -0.0432389 0.84669
0.0638824 -0.0417638 0.846624
0.0637994 -0.040283 0.846662
0.0637343 -0.0387916 0.846881
0.0636965 -0.0372837 0.847371
0.063699 -0.0357489 0.84828
0.0637135 -0.0342033 0.849311
0.0637376 -0.0326476 0.850446
0.0638024 -0.0310614 0.851988
0.0638585 -0.0294747 0.853459
0.0639105 -0.0278862 0.854877
0.0639443 -0.0263053 0.856118
0.0639477 -0.0247414 0.85706
0.0639154 -0.0232019 0.857621
0.0638389 -0.0216936 0.857737
0.0637523 -0.0201924 0.857754
0.0636588 -0.0186967 0.857696
0.0635907 -0.0171803 0.857898
0.0635252 -0.0156603 0.858134
0.0635102 -0.0140959 0.858891
0.0635064 -0.012519 0.859762
0.0635631 -0.0108856 0.861249
0.0636827 -0.00918778 0.863406
0.0638357 -0.00745172 0.865906
0.063952 -0.00574184 0.868024
0.0640395 -0.00405119 0.869859
0.0640653 -0.00241478 0.871056
0.0640046 -0.000861618 0.87135
0.0638844 0.000632582 0.871032
0.0637693 0.00213074 0.870763
0.0636436 0.00361744 0.870389
0.063521 0.00510544 0.870037
0.0634078 0.00660413 0.869797
0.0633388 0.00814985 0.870001
0.0632542 0.00967981 0.870052
0.0631853 0.0112288 0.870274
0.0631001 0.0127585 0.870313
0.0630313 0.0143087 0.870531
0.0629549 0.0158505 0.870668
0.0628978 0.0174166 0.871006
0.0628224 0.0189624 0.871162
0.0627707 0.0205376 0.871556
0.0627099 0.0221031 0.871858
0.0626427 0.0236623 0.8721
0.0625932 0.0252458 0.872528
0.0625595 0.026852 0.873119
0.0625099 0.0284388 0.873545
0.0624433 0.0300035 0.873788
0.0623738 0.0315656 0.874004
0.0623013 0.0331253 0.874195
0.0622323 0.0346903 0.874419
0.0621748 0.036273 0.874765
0.0621166 0.0378562 0.875104
0.0620732 0.0394627 0.8756
0.062037 0.0410831 0.87618
0.0619967 0.0426991 0.876714
0.0619899 0.0443703 0.877613
0.0619926 0.0460588 0.878607
0.061987 0.0477378 0.879513
0.061995 0.049444 0.880579
0.0620219 0.0511839 0.881839
0.0620194 0.0528807 0.882795
0.0620162 0.05458 0.883738
0.0620253 0.0563047 0.884825
0.0622766 0.0584489 0.888519
0.0625664 0.0606761 0.892643
0.0630561 0.0632707 0.898942
0.0635254 0.0658519 0.905027
0.0638446 0.0681868 0.909505
0.0639749 0.0701928 0.911933
0.0640291 0.072071 0.913553
0.0639129 0.0736346 0.913308
0.0637689 0.0751448 0.912762
0.0636373 0.0766793 0.912358
0.0634537 0.0781103 0.911377
0.0632945 0.0795874 0.910671
0.06312 0.0810296 0.909784
0.0629625 0.0825042 0.909089
0.062798 0.0839613 0.908313
0.0626417 0.0854321 0.907622
0.0624857 0.0869035 0.906946
0.0623492 0.088411 0.906473
0.0622233 0.0899387 0.906117
0.0620995 0.0914692 0.905778
0.0619911 0.0930346 0.905621
0.0618746 0.0945787 0.905364
0.0617744 0.0961587 0.905287
0.0616753 0.0977415 0.905227
0.0615862 0.0993459 0.905272
0.061496 0.10095 0.905319
0.0614568 0.102668 0.90592
0.061431 0.10442 0.906673
0.0630461 0.106389 0.908032
0.0614193 0.106207 0.907587
0.0652881 -0.0620442 0.863527
0.0650878 -0.0605747 0.862388
0.0648796 -0.0591116 0.861173
0.0646553 -0.0576583 0.859783
0.0644145 -0.0562155 0.858227
0.064197 -0.0547688 0.856908
0.0640168 -0.0533117 0.855958
0.0638618 -0.0518471 0.855267
0.0636881 -0.0503926 0.85439
0.0634407 -0.0489744 0.852755
0.0632268 -0.0475462 0.851454
0.0629894 -0.0461336 0.849915
0.0627753 -0.0447144 0.848608
0.0625912 -0.0432835 0.847615
0.0624961 -0.0418078 0.847527
0.0623965 -0.0403345 0.847399
0.0623311 -0.0388416 0.847624
0.0622999 -0.0373274 0.848197
0.0622933 -0.0357959 0.849031
0.0623066 -0.0342488 0.850065
0.0623202 -0.0326974 0.851111
0.0623741 -0.0311156 0.852569
0.0624111 -0.0295394 0.853868
0.0624494 -0.0279579 0.855175
0.0624621 -0.0263903 0.856217
0.0624556 -0.0248333 0.857061
0.0624128 -0.0233003 0.857533
0.0623283 -0.0217976 0.857575
0.0622425 -0.0202961 0.857598
0.062149 -0.0188006 0.85754
0.062096 -0.017271 0.85791
0.0620565 -0.015729 0.858414
0.0620846 -0.0141256 0.859635
0.0621256 -0.0125059 0.860994
0.0622363 -0.0108183 0.863084
0.0623492 -0.00912066 0.865206
0.0624631 -0.00741439 0.867342
0.0625299 -0.00574582 0.868985
0.0625561 -0.00411135 0.870201
0.0625186 -0.00253552 0.870756
0.0624404 -0.000999994 0.870871
0.0623287 0.000501936 0.87064
0.0622166 0.00200183 0.870393
0.062103 0.00350012 0.870137
0.0619901 0.00499852 0.869889
0.0618877 0.00650759 0.869748
0.0618106 0.00804572 0.869882
0.0617175 0.0095666 0.869851
0.0616412 0.0111062 0.869989
0.0615455 0.0126237 0.869924
0.0614671 0.0141618 0.870039
0.0613811 0.0156911 0.870074
0.0613135 0.0172442 0.87031
0.0612287 0.0187767 0.870364
0.0611665 0.0203382 0.870655
0.0611041 0.0219013 0.87095
0.0610443 0.0234692 0.871274
0.0610104 0.0250732 0.871875
0.0609853 0.0266914 0.872569
0.0609522 0.0283022 0.873189
0.0609025 0.0298905 0.873616
0.0608497 0.0314772 0.874021
0.0607895 0.0330546 0.874342
0.0607292 0.0346329 0.874663
0.0606699 0.0362152 0.875003
0.0606094 0.0377966 0.875325
0.0605643 0.0394026 0.875815
0.0605197 0.041012 0.876314
0.0604695 0.042615 0.876756
0.060461 0.0442849 0.877646
0.0604449 0.0459468 0.87846
0.0604213 0.0475991 0.879189
0.0604107 0.049277 0.880069
0.0604327 0.0510123 0.881307
0.0604281 0.052706 0.882244
0.0604402 0.0544337 0.883378
0.0604669 0.0561903 0.884672
0.0606346 0.058201 0.887528
0.060844 0.0602938 0.890835
0.0612215 0.0627032 0.896015
0.0616429 0.0652116 0.901691
0.0620243 0.0676667 0.906931
0.0622319 0.0698205 0.910263
0.0623425 0.0718039 0.912527
0.0622844 0.073477 0.912926
0.0621585 0.0750197 0.91257
0.0620568 0.0766095 0.912487
0.0619103 0.0781124 0.911911
0.0617826 0.0796491 0.911533
0.061637 0.0811503 0.910962
0.061491 0.0826471 0.910382
0.0613261 0.0841045 0.909591
0.0611527 0.0855419 0.908706
0.0609712 0.0869579 0.907724
0.0608062 0.088405 0.906926
0.0606607 0.0898919 0.906349
0.0605281 0.0914027 0.905902
0.0604121 0.0929501 0.905654
0.0602863 0.0944757 0.905297
0.0601841 0.0960509 0.9052
0.0600839 0.0976309 0.905121
0.0599883 0.0992202 0.905096
0.0599001 0.100828 0.905162
0.0598681 0.102567 0.905863
0.0598323 0.104297 0.906515
0.0598175 0.10608 0.907409
0.0621201 0.109657 0.916447
0.0598099 0.107886 0.908396
0.0636389 -0.0606531 0.862916
0.063448 -0.0591838 0.861851
0.0632413 -0.0577235 0.860627
0.0630421 -0.0562645 0.859475
0.0628353 -0.0548122 0.858242
0.0626557 -0.0533527 0.857296
0.0625016 -0.0518856 0.856604
0.0623374 -0.050425 0.855814
0.0620852 -0.049008 0.854092
0.0618729 -0.047577 0.852798
0.0616375 -0.0461621 0.851254
0.0614173 -0.0447444 0.849868
0.0612238 -0.0433173 0.848755
0.0611272 -0.0418406 0.848648
0.0610184 -0.0403706 0.848422
0.0609528 -0.0388758 0.848647
0.0609197 -0.0373603 0.849215
0.0609034 -0.035832 0.849964
0.0609061 -0.0342888 0.850909
0.0609097 -0.032741 0.851875
0.0609452 -0.0311689 0.853167
0.0609646 -0.0296024 0.854302
0.060984 -0.0280323 0.855433
0.0609779 -0.0264769 0.856295
0.0609593 -0.0249267 0.857039
0.0609086 -0.0233993 0.857435
0.0608259 -0.0218963 0.857482
0.0607475 -0.0203881 0.857594
0.0606611 -0.0188869 0.857608
0.0606246 -0.0173424 0.858163
0.0606166 -0.0157712 0.859021
0.0606795 -0.0141341 0.860634
0.0607638 -0.0124724 0.862472
0.0609055 -0.0107492 0.864945
0.061 -0.00906294 0.866904
0.0610655 -0.00739697 0.86856
0.0610793 -0.00577542 0.869668
0.0610481 -0.00419491 0.870293
0.0609591 -0.00267024 0.870308
0.0608727 -0.00114409 0.870333
0.0607692 0.00036591 0.870191
0.0606661 0.00187496 0.870043
0.0605631 0.00338351 0.869892
0.0604599 0.00489201 0.869745
0.0603656 0.00641062 0.869696
0.0602969 0.00795797 0.869916
0.0602051 0.00948061 0.8699
0.0601275 0.0110188 0.870024
0.0600303 0.0125352 0.869947
0.0599407 0.0140604 0.869949
0.0598384 0.0155693 0.869807
0.0597596 0.0171088 0.86993
0.0596669 0.0186295 0.869888
0.0595874 0.020169 0.870003
0.0595243 0.0217306 0.870295
0.0594645 0.0232977 0.870621
0.059439 0.0249139 0.871328
0.0594147 0.0265345 0.872049
0.0593979 0.0281676 0.872847
0.0593633 0.0297789 0.873456
0.059327 0.0313907 0.874052
0.0592753 0.0329818 0.874475
0.059224 0.0345755 0.874907
0.0591633 0.0361566 0.875234
0.0591013 0.0377367 0.875545
0.0590543 0.0393428 0.876031
0.0590027 0.0409427 0.876462
0.0589532 0.0425469 0.87691
0.0589408 0.044214 0.877778
0.0589141 0.0458614 0.878491
0.0588812 0.0475015 0.879139
0.0588621 0.0491674 0.879941
0.0588831 0.0509028 0.881179
0.0588762 0.0525973 0.882124
0.058895 0.054339 0.883353
0.0589196 0.0560966 0.884647
0.0590136 0.0579841 0.886733
0.0591493 0.0599517 0.889275
0.059439 0.0622132 0.893562
0.0598147 0.0646489 0.898826
0.0601644 0.067056 0.903807
0.0604319 0.0693291 0.907882
0.0605952 0.0714164 0.910781
0.0606051 0.0732186 0.911957
0.0605141 0.0748276 0.911992
0.0604548 0.0765016 0.912392
0.060348 0.0780807 0.912248
0.0602504 0.0796774 0.91221
0.0601323 0.0812351 0.911945
0.0599976 0.0827552 0.911483
0.0598357 0.0842175 0.910709
0.059655 0.0856385 0.909723
0.0594629 0.0870306 0.908605
0.0592793 0.088438 0.907585
0.0591161 0.0898855 0.906791
0.0589653 0.0913571 0.90614
0.0588404 0.0928848 0.905782
0.0586981 0.0943718 0.905228
0.0585862 0.0959261 0.905021
0.058486 0.0975051 0.904945
0.0583909 0.0990968 0.904928
0.0583041 0.100708 0.905008
0.0582717 0.102447 0.905716
0.058225 0.104156 0.906263
0.0581995 0.105916 0.907049
0.0581895 0.107719 0.908024
0.0621673 -0.0607381 0.863226
0.0619912 -0.0592638 0.862297
0.0618128 -0.0577929 0.861355
0.0616503 -0.0563191 0.860576
0.0614768 -0.0548524 0.859673
0.061317 -0.0533829 0.858912
0.0611706 -0.0519097 0.858302
0.0610169 -0.0504423 0.857599
0.0607657 -0.0490223 0.855872
0.0605562 -0.0475881 0.854579
0.0603298 -0.0461665 0.853107
0.0601029 -0.0447499 0.85163
0.0599021 -0.0433247 0.850415
0.0597952 -0.0418504 0.85021
0.0596701 -0.0403873 0.849807
0.0595808 -0.0389035 0.849792
0.0595461 -0.0373869 0.850347
0.0595201 -0.0358617 0.851008
0.0595045 -0.0343275 0.851779
0.0594971 -0.0327846 0.852645
0.0595213 -0.0312174 0.853839
0.0595149 -0.0296669 0.854718
0.0595161 -0.0281076 0.855678
0.0595073 -0.0265524 0.856531
0.0594815 -0.0250069 0.857204
0.0594315 -0.0234785 0.857608
0.0593468 -0.0219753 0.857654
0.0592824 -0.0204555 0.857914
0.0592118 -0.01894 0.858103
0.0592008 -0.0173722 0.858939
0.0592199 -0.0157742 0.860111
0.0593151 -0.0141038 0.862103
0.0594125 -0.0124236 0.864132
0.0595572 -0.0106918 0.866675
0.0596219 -0.00902729 0.868355
0.0596394 -0.00740268 0.869524
0.0596071 -0.00582356 0.870151
0.0595322 -0.00428555 0.870311
0.0594051 -0.00280121 0.869896
0.0593102 -0.00128378 0.869838
0.0592153 0.000233749 0.86978
0.0591204 0.00175118 0.869722
0.0590255 0.00326861 0.869664
0.0589306 0.00478614 0.869606
0.0588513 0.00632179 0.869721
0.0587815 0.00786931 0.869943
0.0586901 0.00939127 0.869919
0.0586024 0.0109193 0.86995
0.0585054 0.0124351 0.869869
0.0584003 0.0139407 0.869698
0.0582899 0.0154387 0.869463
0.0582023 0.0169666 0.869491
0.058108 0.0184856 0.86944
0.0580205 0.0200135 0.869465
0.0579581 0.0215752 0.869763
0.057898 0.0231425 0.870098
0.0578803 0.0247698 0.870901
0.0578638 0.0264022 0.871721
0.0578464 0.0280367 0.872534
0.0578253 0.0296697 0.873313
0.057804 0.0313052 0.874089
0.0577542 0.0328996 0.874537
0.0577019 0.0344935 0.87497
0.0576471 0.0360844 0.875366
0.057576 0.0376526 0.87559
0.0575224 0.0392479 0.875998
0.0574712 0.0408498 0.876442
0.0574191 0.0424527 0.876883
0.057404 0.0441184 0.877742
0.0573759 0.045764 0.878443
0.0573493 0.0474163 0.879172
0.0573377 0.0490974 0.880075
0.0573584 0.0508373 0.881342
0.0573496 0.052531 0.882283
0.0573727 0.0542861 0.883593
0.0573874 0.0560296 0.884798
0.0574008 0.057777 0.886001
0.0574646 0.0596207 0.88778
0.057665 0.0617252 0.89112
0.0579494 0.0640019 0.895444
0.058245 0.0663151 0.899893
0.0585562 0.0686772 0.904547
0.0587761 0.0708782 0.90815
0.058865 0.0728352 0.910254
0.0588488 0.0745911 0.911153
0.0588032 0.0762902 0.911713
0.0587646 0.0780069 0.912356
0.0586941 0.0796614 0.912631
0.0586006 0.0812696 0.912651
0.0584783 0.0828168 0.912328
0.0583304 0.0843076 0.911699
0.0581493 0.085727 0.910699
0.057959 0.0871213 0.909582
0.0577691 0.0885124 0.90846
0.0575964 0.0899387 0.90755
0.0574294 0.0913724 0.906691
0.0572866 0.0928598 0.906124
0.0571288 0.0943092 0.905371
0.0570084 0.0958452 0.905068
0.0569 0.097405 0.904894
0.056804 0.0989955 0.904873
0.0567174 0.100606 0.904951
0.0566747 0.102326 0.905561
0.0566189 0.104014 0.906007
0.0565828 0.105751 0.906685
0.0565626 0.107533 0.907565
0.060558 -0.0593349 0.863019
0.0604107 -0.057852 0.862388
0.0602791 -0.056365 0.861927
0.0601378 -0.0548834 0.861356
0.0599878 -0.0534069 0.860699
0.0598432 -0.0519305 0.86009
0.0596972 -0.0504565 0.859468
0.0594627 -0.0490262 0.857898
0.0592627 -0.0475845 0.856688
0.0590477 -0.0461548 0.855306
0.0588367 -0.044727 0.853978
0.0586383 -0.0432971 0.852773
0.0585227 -0.0418236 0.852476
0.0583829 -0.0403655 0.851906
0.058276 -0.0388891 0.851697
0.0582214 -0.0373799 0.852065
0.058172 -0.0358666 0.852477
0.0581306 -0.0343459 0.852988
0.0581124 -0.0328078 0.853742
0.0581162 -0.0312511 0.854745
0.0580843 -0.0297165 0.855359
0.0580666 -0.0281685 0.856138
0.0580475 -0.0266191 0.856896
0.0580132 -0.0250791 0.857482
0.0579626 -0.0235493 0.8579
0.0578796 -0.022045 0.857952
0.0578293 -0.0205118 0.85838
0.0577827 -0.0189745 0.858839
0.0577898 -0.0173881 0.859894
0.0578351 -0.0157632 0.861376
0.0579351 -0.0140826 0.863469
0.0580285 -0.0124007 0.865491
0.0581423 -0.0106924 0.867737
0.058177 -0.00905201 0.869123
0.0581598 -0.00745943 0.86992
0.0581094 -0.00589681 0.870358
0.0580178 -0.00437507 0.870339
0.0578832 -0.00289849 0.869841
0.0577883 -0.00138106 0.869783
0.0576934 0.000136471 0.869725
0.0575985 0.0016539 0.869667
0.0575036 0.00317133 0.869609
0.0574086 0.00468886 0.869551
0.0573368 0.00623331 0.869751
0.0572595 0.00777225 0.869891
0.0571673 0.00929376 0.869862
0.0570731 0.0108127 0.86981
0.0569738 0.0123266 0.869713
0.0568547 0.0138137 0.86938
0.0567368 0.0153016 0.869063
0.0566348 0.0168086 0.868915
0.0565319 0.018315 0.868765
0.0564289 0.0198213 0.868618
0.0563719 0.0213914 0.868999
0.0563281 0.0229798 0.869514
0.0563245 0.0246292 0.870501
0.0563222 0.0262836 0.8715
0.0563185 0.0279391 0.872479
0.0562888 0.0295618 0.873181
0.056274 0.0312077 0.874037
0.0562229 0.032803 0.874492
0.0561705 0.0343973 0.874927
0.0561147 0.035988 0.875324
0.0560503 0.0375663 0.875618
0.0559948 0.0391616 0.876028
0.0559433 0.0407645 0.876478
0.055891 0.0423681 0.876921
0.0558741 0.0440334 0.877777
0.0558432 0.0456781 0.878472
0.0558093 0.0473184 0.87912
0.0558034 0.0490134 0.880117
0.05583 0.050767 0.881473
0.0558214 0.0524642 0.882431
0.0558497 0.0542328 0.883825
0.0558609 0.0559737 0.885019
0.0558724 0.0577209 0.88622
0.0559395 0.0595778 0.888078
0.0560596 0.0615431 0.890556
0.0562546 0.0636599 0.893915
0.0564659 0.0658212 0.897464
0.0567119 0.068065 0.901437
0.0568818 0.0701742 0.904531
0.0570333 0.0722558 0.907407
0.0570989 0.0741754 0.909279
0.0571508 0.0760757 0.911009
0.0571929 0.0779617 0.912618
0.0571294 0.0796309 0.912977
0.0570558 0.0812824 0.91323
0.0569421 0.0828466 0.912999
0.0568005 0.0843529 0.91245
0.0566305 0.0857929 0.91155
0.056451 0.087209 0.910541
0.0562633 0.0886038 0.909433
0.056086 0.090019 0.908449
0.0559103 0.0914328 0.907477
0.0557507 0.0928798 0.906694
0.0555837 0.0943069 0.90582
0.0554475 0.0958056 0.905326
0.0553309 0.097346 0.905051
0.0552267 0.0989171 0.904931
0.0551379 0.100524 0.90499
0.0550864 0.102223 0.905494
0.0550281 0.103908 0.905933
0.054982 0.105624 0.906506
0.0549524 0.107387 0.90729
0.0572301 0.111027 0.916573
0.0556023 0.110874 0.916274
0.0590068 -0.0579106 0.863442
0.0588963 -0.0564135 0.863213
0.0587776 -0.0549206 0.862884
0.0586443 -0.053435 0.862389
0.0584932 -0.0519586 0.861709
0.0583482 -0.0504818 0.861083
0.0581321 -0.0490411 0.859682
0.0579267 -0.0475995 0.8584
0.0577217 -0.0461622 0.857114
0.0575297 -0.0447224 0.855962
0.0573341 -0.0432878 0.854783
0.0572115 -0.041815 0.854402
0.0570782 -0.0403504 0.853891
0.05696 -0.0388775 0.853556
0.0568891 -0.0373752 0.853748
0.056821 -0.0358704 0.853971
0.0567625 -0.0343579 0.854303
0.0567179 -0.0328346 0.854786
0.056688 -0.0312993 0.855427
0.0566292 -0.0297823 0.855758
0.0566001 -0.0282413 0.856422
0.0565785 -0.0266922 0.857168
0.056543 -0.0251515 0.857759
0.0564929 -0.0236205 0.858186
0.0564226 -0.0221041 0.858393
0.056382 -0.0205621 0.858927
0.0563529 -0.0190076 0.859593
0.0563845 -0.0173959 0.860953
