ply
format ascii 1.0
element vertex 1675
property float x
property float y
property float z
end_header
-0.134292 0.0497905 0.764773
-0.133618 0.051042 0.765111
-0.132947 0.0522964 0.765489
-0.132287 0.0535588 0.765959
-0.13163 0.0548248 0.766464
-0.130962 0.0560848 0.766879
-0.130304 0.0573532 0.767383
-0.129695 0.0586566 0.768307
-0.1291 0.0599726 0.769358
-0.128538 0.0613171 0.770724
-0.128001 0.0626848 0.772316
-0.127455 0.0640521 0.773851
-0.126881 0.065404 0.775164
-0.12632 0.0667709 0.776603
-0.125754 0.0681403 0.778034
-0.125182 0.0695099 0.779423
-0.124613 0.0708867 0.780843
-0.124056 0.0722809 0.782415
-0.123513 0.0736937 0.78413
-0.122961 0.0751053 0.785787
-0.122435 0.0765481 0.78771
-0.121899 0.0779898 0.789575
-0.121389 0.0794647 0.79171
-0.157813 0.0247978 0.819099
-0.158622 0.0234956 0.81939
-0.159797 0.0242261 0.81838
-0.159017 0.025535 0.818294
-0.157054 0.0261127 0.819149
-0.158259 0.0268498 0.818352
-0.155917 0.0273169 0.816508
-0.156988 0.0280123 0.814793
-0.151457 0.0308517 0.791499
-0.150242 0.0319601 0.788087
-0.149432 0.0332011 0.787581
-0.148501 0.0343945 0.786172
-0.147442 0.0355341 0.783809
-0.146254 0.0366132 0.78045
-0.145041 0.0376696 0.776872
-0.14385 0.0387219 0.773404
-0.142741 0.0397968 0.770506
-0.141752 0.040915 0.768486
-0.140872 0.0420762 0.767277
-0.140022 0.0432473 0.766284
-0.139187 0.0444214 0.765388
-0.138396 0.0456137 0.764811
-0.137639 0.0468216 0.764501
-0.136894 0.0480348 0.764288
-0.136168 0.049257 0.76422
-0.13546 0.0504887 0.76429
-0.134775 0.0517336 0.764538
-0.134095 0.0529823 0.764834
-0.133424 0.0542374 0.765208
-0.132759 0.0554972 0.765636
-0.132082 0.0567507 0.765971
-0.131417 0.0580125 0.766396
-0.130799 0.059309 0.767245
-0.130186 0.0606114 0.768133
-0.129609 0.0619427 0.769336
-0.129073 0.0633086 0.770911
-0.128547 0.0646886 0.772597
-0.127987 0.0660495 0.774012
-0.127458 0.0674395 0.775712
-0.126914 0.068825 0.777311
-0.126353 0.0702021 0.778768
-0.125773 0.0715697 0.780091
-0.125217 0.072963 0.781642
-0.124651 0.0743543 0.783124
-0.124083 0.0757493 0.784608
-0.123538 0.0771725 0.786338
-0.122987 0.0785961 0.788018
-0.12251 0.0800993 0.790427
-0.161727 0.0236415 0.817312
-0.16099 0.0249612 0.81751
-0.160238 0.0262768 0.817613
-0.15948 0.027591 0.817675
-0.158117 0.028724 0.813508
-0.156339 0.0297133 0.806374
-0.154492 0.0306555 0.798665
-0.152732 0.0315994 0.791487
-0.151385 0.0326611 0.787169
-0.150571 0.0338994 0.786633
-0.149625 0.035086 0.785125
-0.148552 0.036218 0.782685
-0.14735 0.0372893 0.779255
-0.146128 0.0383398 0.775647
-0.144944 0.0393924 0.772258
-0.14384 0.0404679 0.769435
-0.142871 0.0415935 0.767591
-0.142011 0.0427627 0.766534
-0.141172 0.0439381 0.765633
-0.140346 0.0451158 0.764816
-0.139565 0.0463133 0.764334
-0.138809 0.0475215 0.764035
-0.138076 0.0487403 0.763906
-0.13735 0.0499628 0.763839
-0.136643 0.051195 0.763917
-0.135947 0.0524334 0.764079
-0.135255 0.053675 0.764284
-0.134573 0.054923 0.764565
-0.13389 0.0561705 0.764831
-0.133194 0.0574109 0.765007
-0.132518 0.0586649 0.765342
-0.131891 0.0599532 0.766094
-0.131271 0.0612489 0.766904
-0.130694 0.0625783 0.768095
-0.13016 0.0639441 0.769661
-0.129646 0.065331 0.771422
-0.1291 0.0667005 0.772939
-0.128595 0.0681076 0.774819
-0.128065 0.0695024 0.776511
-0.127514 0.0708868 0.778044
-0.126925 0.0722458 0.779266
-0.126369 0.073638 0.780798
-0.125786 0.075012 0.782104
-0.125202 0.0763911 0.783425
-0.124634 0.0777902 0.78491
-0.124064 0.0791931 0.786391
-0.123557 0.0806632 0.788484
-0.163643 0.0230547 0.816164
-0.162928 0.0243788 0.816508
-0.162185 0.0256961 0.816663
-0.161443 0.027014 0.816836
-0.160545 0.0282868 0.815928
-0.159035 0.0293717 0.810783
-0.157314 0.0303719 0.804102
-0.155541 0.0313317 0.79699
-0.153838 0.03229 0.790272
-0.1525 0.0333521 0.78606
-0.151683 0.0345877 0.785507
-0.150738 0.035773 0.784023
-0.149663 0.0369021 0.781585
-0.14848 0.0379787 0.77833
-0.147258 0.0390269 0.774749
-0.146071 0.040077 0.771384
-0.144975 0.0411542 0.768641
-0.144024 0.0422868 0.766946
-0.143162 0.0434548 0.765891
-0.142344 0.0446393 0.76515
-0.141537 0.0458265 0.764492
-0.140777 0.0470344 0.764172
-0.140021 0.048243 0.763883
-0.139288 0.0494625 0.76376
-0.138552 0.0506797 0.763622
-0.137836 0.0519074 0.763628
-0.137122 0.0531358 0.763652
-0.13642 0.0543705 0.763766
-0.135717 0.0556055 0.763881
-0.135003 0.0568335 0.763905
-0.134287 0.0580594 0.763906
-0.133591 0.0592985 0.764071
-0.132946 0.0605726 0.764656
-0.132325 0.0618653 0.765446
-0.131751 0.0631942 0.766633
-0.13121 0.0645529 0.768128
-0.130718 0.0659533 0.770041
-0.130202 0.0673432 0.771786
-0.129713 0.0687613 0.773779
-0.129205 0.070172 0.775638
-0.128665 0.0715641 0.777247
-0.128077 0.072922 0.778454
-0.127505 0.074299 0.779824
-0.126906 0.0756568 0.780962
-0.126313 0.0770258 0.782185
-0.125728 0.0784061 0.783482
-0.125133 0.0797829 0.784717
-0.12461 0.0812347 0.786634
-0.123393 0.0824819 0.793828
-0.124497 0.0830968 0.792361
-0.123287 0.0843828 0.799799
-0.124443 0.0850436 0.798726
-0.123198 0.0863281 0.806022
-0.124359 0.0869894 0.804915
-0.123041 0.088231 0.811703
-0.124216 0.0889017 0.810644
-0.164713 0.0237599 0.814496
-0.164048 0.0250949 0.815171
-0.163327 0.0264165 0.815474
-0.162474 0.0277018 0.814886
-0.161434 0.0289302 0.813012
-0.159844 0.0299839 0.80736
-0.158182 0.0309951 0.801137
-0.156492 0.031975 0.794654
-0.154961 0.0329856 0.789195
-0.153639 0.0340507 0.78513
-0.15277 0.0352663 0.784214
-0.151833 0.0364524 0.7828
-0.150767 0.0375832 0.780451
-0.149615 0.0386698 0.777446
-0.148396 0.0397176 0.773926
-0.147242 0.04078 0.770831
-0.146144 0.0418554 0.76811
-0.1452 0.0429909 0.76648
-0.144327 0.0441529 0.765355
-0.143529 0.0453468 0.764772
-0.142734 0.04654 0.764209
-0.141994 0.0477584 0.764053
-0.141248 0.048973 0.763843
-0.140532 0.0502023 0.763857
-0.139796 0.0514203 0.763721
-0.13907 0.0526428 0.76365
-0.138344 0.053865 0.763589
-0.137621 0.055088 0.763541
-0.136888 0.0563046 0.763418
-0.136143 0.057513 0.763192
-0.135396 0.0587182 0.762946
-0.134677 0.0599408 0.762925
-0.134022 0.0612065 0.763416
-0.133395 0.0624929 0.764141
-0.132824 0.0638225 0.765341
-0.132296 0.0651877 0.766908
-0.131815 0.0665948 0.768894
-0.131313 0.0679931 0.770723
-0.130835 0.0694182 0.772792
-0.130333 0.0708319 0.774672
-0.129805 0.0722316 0.776356
-0.12921 0.0735829 0.77749
-0.128631 0.0749516 0.778773
-0.128023 0.0763004 0.779824
-0.127422 0.0776597 0.78095
-0.126819 0.0790215 0.782069
-0.126215 0.0803869 0.783197
-0.12565 0.0817945 0.784698
-0.125438 0.0835537 0.78944
-0.12538 0.0854869 0.79566
-0.125309 0.0874362 0.801869
-0.125189 0.0893633 0.80772
-0.123907 0.0906628 0.814873
-0.124937 0.0911765 0.812412
-0.165764 0.0244589 0.812741
-0.1651 0.0257922 0.813403
-0.164385 0.0271132 0.813732
-0.163413 0.028362 0.812345
-0.162239 0.0295463 0.809585
-0.160661 0.0305962 0.804045
-0.159005 0.0316017 0.797917
-0.157357 0.032588 0.791767
-0.15595 0.033635 0.787208
-0.154739 0.0347353 0.783949
-0.153847 0.0359405 0.782875
-0.152908 0.037124 0.781455
-0.151861 0.0382596 0.779262
-0.150741 0.0393573 0.776514
-0.149555 0.0404169 0.773269
-0.148436 0.0414932 0.770455
-0.147356 0.042576 0.767892
-0.146409 0.0437099 0.766255
-0.145533 0.0448706 0.765123
-0.144736 0.0460651 0.764559
-0.143954 0.0472651 0.764101
-0.143226 0.0484904 0.764036
-0.14249 0.0497105 0.763905
-0.141772 0.0509397 0.763914
-0.141043 0.0521624 0.763833
-0.140305 0.0533791 0.763683
-0.139568 0.0545956 0.763532
-0.138822 0.0558058 0.763314
-0.138066 0.0570082 0.763011
-0.13728 0.0581902 0.762466
-0.136509 0.0593796 0.762036
-0.135761 0.0605816 0.761775
-0.135088 0.0618336 0.762113
-0.134452 0.063112 0.762756
-0.133893 0.0644481 0.764036
-0.133371 0.0658151 0.765622
-0.132902 0.067229 0.76768
-0.13242 0.0686409 0.769653
-0.131956 0.0700742 0.771799
-0.131457 0.071489 0.773688
-0.130931 0.072889 0.775366
-0.130347 0.0742471 0.776574
-0.12976 0.0756074 0.777769
-0.129145 0.0769486 0.778744
-0.128535 0.0782982 0.779776
-0.127924 0.0796503 0.780802
-0.127312 0.081006 0.781842
-0.126743 0.0824068 0.783281
-0.126424 0.0840568 0.786987
-0.126248 0.0858654 0.792051
-0.126176 0.087802 0.798135
-0.126062 0.0897231 0.803929
-0.125837 0.0915541 0.808788
-0.124329 0.092624 0.813795
-0.12534 0.0931144 0.811177
-0.167497 0.0238315 0.810472
-0.166785 0.0251488 0.810806
-0.166107 0.026476 0.811365
-0.165361 0.027786 0.811477
-0.164335 0.0290157 0.809739
-0.163034 0.030157 0.806147
-0.161477 0.0312058 0.800788
-0.159874 0.032221 0.795058
-0.158294 0.0332232 0.789424
-0.156968 0.0342935 0.785445
-0.155889 0.0354373 0.78312
-0.154983 0.0366362 0.781962
-0.154043 0.0378179 0.780552
-0.153005 0.0389554 0.778436
-0.151905 0.0400598 0.775859
-0.150741 0.0411271 0.772798
-0.149633 0.0422073 0.770091
-0.148561 0.0432932 0.767609
-0.147618 0.0444289 0.766036
-0.146739 0.0455887 0.764894
-0.145953 0.0467885 0.764412
-0.145183 0.0479949 0.764051
-0.144467 0.0492265 0.764077
-0.14374 0.0504526 0.764024
-0.143022 0.0516825 0.764033
-0.142284 0.0529013 0.763888
-0.141545 0.0541183 0.763731
-0.140795 0.0553277 0.76349
-0.140035 0.0565302 0.76317
-0.139255 0.0577186 0.762692
-0.138436 0.0588796 0.761894
-0.137634 0.0600487 0.761229
-0.136874 0.0612419 0.760871
-0.136181 0.0624791 0.761049
-0.135546 0.0637573 0.761693
-0.134999 0.0651001 0.763047
-0.134488 0.0664739 0.764707
-0.134016 0.0678836 0.766709
-0.133537 0.0692961 0.768677
-0.133066 0.0707225 0.770738
-0.132568 0.0721359 0.772608
-0.132036 0.073529 0.774215
-0.131463 0.0748939 0.775486
-0.130877 0.0762538 0.776681
-0.130263 0.0775937 0.777645
-0.129638 0.078928 0.77853
-0.129019 0.0802704 0.779468
-0.128389 0.0816073 0.780338
-0.127753 0.0829407 0.781147
-0.127315 0.0844705 0.783749
-0.127017 0.0861492 0.78763
-0.126927 0.0880555 0.793449
-0.126839 0.0899891 0.799367
-0.126704 0.0919022 0.804949
-0.126337 0.0935917 0.80848
-0.168133 0.0224974 0.809659
-0.169289 0.0232223 0.808641
-0.168586 0.0245394 0.809019
-0.167835 0.0258452 0.809095
-0.167107 0.0271566 0.809314
-0.166292 0.028445 0.808969
-0.165196 0.0296496 0.80678
-0.163796 0.0307552 0.802551
-0.162298 0.0318146 0.797623
-0.160766 0.0328459 0.792412
-0.159271 0.033871 0.787384
-0.15804 0.0349694 0.78408
-0.157088 0.0361564 0.782634
-0.156168 0.0373498 0.781396
-0.155238 0.0385345 0.780065
-0.154221 0.0396795 0.778121
-0.153142 0.0407915 0.775712
-0.151998 0.0418673 0.772822
-0.150885 0.0429456 0.77012
-0.149808 0.0440295 0.767634
-0.148861 0.0451635 0.766042
-0.147979 0.0463221 0.764897
-0.147202 0.0475275 0.764496
-0.146453 0.048745 0.764293
-0.145748 0.0499837 0.764399
-0.145031 0.051216 0.764423
-0.144313 0.0524477 0.764438
-0.143575 0.0536677 0.7643
-0.142826 0.0548807 0.764081
-0.142065 0.0560854 0.763768
-0.141281 0.0572749 0.763278
-0.140478 0.0584499 0.762629
-0.139635 0.0595968 0.761666
-0.138821 0.0607582 0.760913
-0.13804 0.0619379 0.760403
-0.137327 0.0631614 0.760417
-0.136681 0.0644309 0.760959
-0.136126 0.0657666 0.762228
-0.135609 0.0671358 0.763831
-0.135141 0.068547 0.765837
-0.134673 0.069966 0.767871
-0.134203 0.0713918 0.769912
-0.133708 0.0728058 0.771777
-0.133168 0.0741917 0.773303
-0.132596 0.075556 0.774569
-0.132003 0.0769082 0.77568
-0.131381 0.07824 0.776569
-0.130748 0.0795646 0.777364
-0.130121 0.0808984 0.778223
-0.129483 0.0822253 0.779002
-0.128837 0.0835473 0.779719
-0.128288 0.084966 0.781299
-0.127936 0.0865844 0.784635
-0.127818 0.0884539 0.790117
-0.12771 0.0903568 0.795755
-0.127599 0.0922836 0.801461
-0.127351 0.0940906 0.806
-0.125816 0.0951279 0.810621
-0.126873 0.0956682 0.808503
-0.125112 0.0964707 0.811082
-0.126199 0.0970395 0.809218
-0.170422 0.0239412 0.80749
-0.169671 0.0252451 0.80756
-0.168888 0.0265408 0.807422
-0.168085 0.02783 0.807152
-0.167185 0.0290908 0.806249
-0.166028 0.0302731 0.803674
-0.164686 0.0313898 0.799851
-0.163268 0.0324686 0.795488
-0.161815 0.0335206 0.790837
-0.160412 0.0345725 0.78647
-0.159279 0.0357036 0.783851
-0.158311 0.0368843 0.782314
-0.157379 0.038073 0.781008
-0.15646 0.0392615 0.779769
-0.155466 0.0404154 0.777997
-0.154408 0.041536 0.775762
-0.153293 0.0426239 0.773108
-0.152186 0.0437053 0.770482
-0.151114 0.0447925 0.76806
-0.150162 0.0459254 0.766458
-0.149277 0.0470839 0.76531
-0.14849 0.0482857 0.764846
-0.147752 0.0495098 0.764724
-0.147036 0.0507445 0.764765
-0.146317 0.0519771 0.764775
-0.145597 0.0532092 0.764784
-0.144858 0.0544304 0.764652
-0.14411 0.0556455 0.764443
-0.143349 0.0568513 0.764135
-0.142554 0.0580354 0.763573
-0.141738 0.0592036 0.762835
-0.140892 0.0603498 0.761865
-0.140066 0.0615047 0.761032
-0.139283 0.0626847 0.76052
-0.138558 0.0639007 0.760446
-0.1379 0.0651629 0.760896
-0.137324 0.0664848 0.761993
-0.1368 0.0678479 0.763512
-0.136315 0.0692466 0.765366
-0.135831 0.0706525 0.767244
-0.13536 0.0720772 0.769264
-0.134858 0.0734845 0.771042
-0.134312 0.0748637 0.772495
-0.133734 0.0762222 0.7737
-0.133149 0.0775803 0.77487
-0.13252 0.0789037 0.775674
-0.131877 0.0802191 0.776381
-0.131241 0.0815422 0.777145
-0.130602 0.0828667 0.777903
-0.129948 0.0841797 0.77854
-0.129284 0.0854849 0.779092
-0.12888 0.087047 0.781924
-0.128742 0.0888882 0.787143
-0.128621 0.0907695 0.792582
-0.128516 0.0926921 0.798244
-0.128374 0.0946018 0.803665
-0.12795 0.0962311 0.806602
-0.12729 0.0976146 0.807436
-0.172294 0.0233533 0.806215
-0.171534 0.0246539 0.806221
-0.170749 0.0259479 0.806073
-0.169925 0.0272309 0.805674
-0.169052 0.0284986 0.804951
-0.168083 0.0297366 0.803611
-0.166984 0.0309305 0.801418
-0.165721 0.0320665 0.798136
-0.164377 0.0331653 0.794289
-0.163006 0.0342407 0.790217
-0.161696 0.0353226 0.786502
-0.160532 0.0364425 0.783713
-0.159538 0.037614 0.782021
-0.158615 0.0388055 0.780787
-0.157717 0.0400021 0.779698
-0.156736 0.0411613 0.778039
-0.155701 0.0422915 0.775989
-0.154629 0.0433984 0.773662
-0.153542 0.0444893 0.771197
-0.152486 0.0455853 0.768926
-0.151541 0.0467237 0.767403
-0.150665 0.0478889 0.766335
-0.149866 0.0490869 0.765797
-0.149126 0.0503127 0.765676
-0.148387 0.0515378 0.765554
-0.147655 0.0527661 0.765484
-0.146921 0.053993 0.765402
-0.14618 0.0552145 0.765258
-0.14542 0.0564248 0.764978
-0.144658 0.0576317 0.764671
-0.143861 0.0588165 0.764104
-0.143042 0.0599851 0.763365
-0.142184 0.0611256 0.76232
-0.141357 0.0622816 0.761497
-0.140564 0.0634563 0.760919
-0.139827 0.0646661 0.760761
-0.139157 0.0659211 0.761116
-0.13856 0.0672289 0.762041
-0.138016 0.0685783 0.76339
-0.137511 0.0699627 0.765072
-0.137017 0.0713611 0.766852
-0.13653 0.0727725 0.768718
-0.136031 0.0741813 0.7705
-0.135478 0.0755547 0.771882
-0.134899 0.0769117 0.77307
-0.134298 0.0782548 0.774084
-0.133667 0.0795759 0.774865
-0.133016 0.0808819 0.775488
-0.13237 0.0821957 0.776167
-0.131724 0.0835112 0.776843
-0.131077 0.0848292 0.777532
-0.130415 0.0861351 0.778092
-0.129958 0.0876434 0.780437
-0.129799 0.0894575 0.785396
-0.129661 0.0913148 0.790602
-0.12952 0.0931941 0.79587
-0.129366 0.0950829 0.801097
-0.128986 0.0967537 0.804383
-0.12835 0.0981584 0.805407
-0.126612 0.0989802 0.808106
-0.127703 0.0995536 0.806335
-0.125894 0.100304 0.808426
-0.126998 0.100887 0.806749
-0.173416 0.0240695 0.80503
-0.172615 0.0253586 0.804782
-0.171793 0.0266413 0.80439
-0.17093 0.0279114 0.803749
-0.170016 0.0291647 0.80277
-0.169019 0.0303909 0.801255
-0.167989 0.0316013 0.799507
-0.166795 0.0327544 0.796694
-0.165543 0.0338794 0.793475
-0.164269 0.0349846 0.790071
-0.163042 0.0360945 0.786937
-0.161853 0.0372056 0.784012
-0.160851 0.0383749 0.782289
-0.1599 0.0395565 0.780882
-0.159 0.0407528 0.779798
-0.158029 0.0419165 0.778227
-0.15704 0.0430663 0.776513
-0.156005 0.0441899 0.774466
-0.154951 0.0452976 0.772268
-0.153929 0.0464106 0.770254
-0.152992 0.0475557 0.76881
-0.152113 0.0487224 0.767746
-0.151309 0.0499217 0.767194
-0.150555 0.0511435 0.766984
-0.149789 0.0523585 0.766692
-0.149043 0.0535819 0.766528
-0.148294 0.0548031 0.766347
-0.14754 0.05602 0.76612
-0.146777 0.0572308 0.765829
-0.146013 0.0584392 0.765521
-0.145214 0.0596251 0.764954
-0.144391 0.0607941 0.764207
-0.143541 0.0619421 0.76324
-0.142723 0.0631062 0.762497
-0.141939 0.0642898 0.762006
-0.141202 0.0655025 0.761859
-0.14052 0.0667522 0.76213
-0.139891 0.0680402 0.76281
-0.139304 0.0693613 0.763825
-0.138758 0.0707162 0.76517
-0.138234 0.0720929 0.766702
-0.13772 0.0734833 0.768333
-0.137202 0.0748773 0.769954
-0.136652 0.0762513 0.771334
-0.136064 0.0776009 0.772438
-0.135454 0.078935 0.773364
-0.134822 0.0802544 0.774129
-0.134172 0.0815609 0.774753
-0.133519 0.0828667 0.775358
-0.132864 0.0841737 0.77596
-0.132218 0.0854911 0.776643
-0.131556 0.086796 0.7772
-0.131171 0.0883713 0.780119
-0.130978 0.0901492 0.784726
-0.130823 0.0919861 0.789721
-0.130653 0.0938309 0.794665
-0.130467 0.0956815 0.799548
-0.130012 0.097266 0.802111
-0.129407 0.0986987 0.803382
-0.128773 0.100106 0.804418
-0.128078 0.101448 0.804911
-0.175291 0.0234848 0.80381
-0.174499 0.0247754 0.803614
-0.173668 0.0260551 0.80318
-0.17281 0.0273263 0.802575
-0.171924 0.0285877 0.801783
-0.170994 0.0298334 0.800708
-0.170009 0.0310592 0.799272
-0.168995 0.032271 0.797636
-0.16788 0.0334454 0.795347
-0.166702 0.0345909 0.792623
-0.165511 0.0357223 0.789787
-0.164338 0.0368494 0.78703
-0.163193 0.037976 0.784421
-0.162162 0.0391353 0.78253
-0.16119 0.0403099 0.781004
-0.160274 0.0415005 0.779831
-0.159323 0.0426724 0.77841
-0.158372 0.0438388 0.776974
-0.157384 0.0449839 0.775272
-0.156379 0.0461142 0.773426
-0.155401 0.0472503 0.771752
-0.154476 0.0484037 0.770408
-0.153593 0.0495725 0.769346
-0.152772 0.0507667 0.768691
-0.152 0.0519833 0.768373
-0.151208 0.0531876 0.767908
-0.150436 0.0544008 0.767581
-0.149674 0.0556173 0.767314
-0.148916 0.0568349 0.767075
-0.148141 0.0580413 0.766707
-0.147375 0.0592509 0.766396
-0.146572 0.0604371 0.765817
-0.145758 0.0616137 0.765148
-0.144925 0.0627754 0.76433
-0.144118 0.0639493 0.763685
-0.143333 0.0651355 0.763201
-0.142603 0.0663568 0.763127
-0.14191 0.0676018 0.763318
-0.14125 0.0688714 0.76377
-0.14063 0.0701708 0.764528
-0.14005 0.0715027 0.765603
-0.139493 0.0728562 0.766871
-0.138959 0.0742315 0.768328
-0.138423 0.075612 0.769795
-0.137862 0.0769778 0.771079
-0.137266 0.0783199 0.7721
-0.136635 0.0796372 0.772859
-0.135995 0.0809487 0.773545
-0.135345 0.082255 0.774167
-0.134686 0.0835551 0.774718
-0.134033 0.0848624 0.775321
-0.133396 0.0861877 0.776073
-0.13278 0.0875349 0.777002
-0.132457 0.0891693 0.780412
-0.132236 0.0909184 0.784727
-0.132051 0.0927241 0.789419
-0.131839 0.0945226 0.793935
-0.131571 0.0962836 0.798042
-0.131041 0.0977839 0.799911
-0.130458 0.0992373 0.801358
-0.129847 0.100663 0.802558
-0.129165 0.102017 0.803154
-0.127366 0.102771 0.805251
-0.128464 0.10335 0.803584
-0.177265 0.0229234 0.803205
-0.176414 0.0242005 0.802664
-0.175582 0.02548 0.802225
-0.174704 0.0267464 0.801505
-0.173809 0.0280053 0.800664
-0.172907 0.0292593 0.799776
-0.171979 0.0305024 0.798716
-0.17101 0.0317296 0.797388
-0.170027 0.0329476 0.795958
-0.168984 0.0341411 0.794129
-0.167902 0.0353155 0.792038
-0.166795 0.0364735 0.789757
-0.165689 0.0376235 0.787461
-0.164577 0.0387632 0.785104
-0.163527 0.0399165 0.783111
-0.162521 0.0410793 0.781386
-0.161574 0.0422588 0.780028
-0.16062 0.0434302 0.778606
-0.159694 0.0446075 0.777349
-0.158755 0.0457745 0.775994
-0.157798 0.0469279 0.774499
-0.156865 0.0480865 0.773149
-0.155949 0.0492477 0.771898
-0.155073 0.0504227 0.7709
-0.154236 0.0516127 0.770155
-0.153436 0.0528187 0.769662
-0.152618 0.0540126 0.769031
-0.15183 0.0552203 0.768608
-0.151056 0.0564329 0.768269
-0.150286 0.0576465 0.767957
-0.14951 0.0588545 0.767591
-0.148741 0.0600655 0.767279
-0.147947 0.061259 0.766774
-0.147142 0.062444 0.766187
-0.146319 0.0636146 0.765458
-0.145521 0.0647977 0.764899
-0.144745 0.0659933 0.764501
-0.144015 0.0672171 0.764428
-0.143308 0.0684571 0.764537
-0.142626 0.0697136 0.764822
-0.141973 0.0709922 0.765333
-0.141349 0.0722941 0.766073
-0.140748 0.073616 0.766996
-0.140182 0.0749679 0.768197
-0.139626 0.0763328 0.769494
-0.139056 0.0776911 0.770694
-0.13845 0.0790249 0.771628
-0.13781 0.0803339 0.772304
-0.137169 0.0816447 0.77298
-0.136521 0.0829512 0.773601
-0.135864 0.0842526 0.774162
-0.135221 0.0855687 0.774844
-0.134604 0.0869117 0.775749
-0.13403 0.0882982 0.777015
-0.133688 0.0899135 0.780229
-0.133442 0.0916364 0.784286
-0.133218 0.0934004 0.788591
-0.132961 0.0951497 0.792674
-0.132622 0.0968324 0.796114
-0.132092 0.0983293 0.797957
-0.131513 0.0997805 0.799402
-0.130914 0.101218 0.800695
-0.130246 0.102582 0.801392
-0.129558 0.103926 0.801922
-0.178465 0.0236572 0.802528
-0.177584 0.0249267 0.801809
-0.176689 0.02619 0.800998
-0.175769 0.0274438 0.800022
-0.174809 0.0286832 0.798792
-0.173879 0.0299266 0.797737
-0.172954 0.0311672 0.796693
-0.172015 0.0323997 0.795553
-0.171077 0.0336283 0.794408
-0.170103 0.0348411 0.793025
-0.169103 0.0360404 0.791465
-0.168077 0.0372246 0.789716
-0.167037 0.0383975 0.787863
-0.165951 0.0395471 0.785699
-0.164895 0.0406994 0.783695
-0.16387 0.041856 0.781867
-0.162901 0.043028 0.780387
-0.161933 0.0441947 0.778892
-0.161017 0.0453771 0.777718
-0.160103 0.0465561 0.776548
-0.15919 0.0477302 0.775362
-0.15828 0.0489014 0.774188
-0.157374 0.0500698 0.773027
-0.156494 0.0512452 0.772018
-0.155652 0.0524358 0.771262
-0.154815 0.0536255 0.770526
-0.153982 0.0548142 0.76981
-0.153193 0.0560231 0.769387
-0.152416 0.0572368 0.769043
-0.151646 0.058452 0.768738
-0.150879 0.0596677 0.768451
-0.150109 0.0608805 0.768141
-0.149315 0.0620766 0.76765
-0.148519 0.0632694 0.767142
-0.147707 0.0644499 0.766511
-0.146919 0.0656425 0.766041
-0.146152 0.0668472 0.765724
-0.145428 0.0680785 0.765709
-0.144709 0.0693133 0.765736
-0.144015 0.0705648 0.765943
-0.143339 0.0718302 0.766289
-0.142682 0.0731101 0.766778
-0.142057 0.0744162 0.767519
-0.141458 0.0757449 0.768466
-0.140872 0.0770871 0.769522
-0.140283 0.0784311 0.770567
-0.139667 0.0797568 0.771413
-0.138998 0.0810414 0.771852
-0.138355 0.0823507 0.772511
-0.137707 0.0836571 0.773128
-0.137051 0.084959 0.773691
-0.136411 0.0862768 0.774384
-0.135824 0.0876471 0.775524
-0.135295 0.0890759 0.777146
-0.134944 0.0906823 0.780254
-0.134668 0.0923747 0.784016
-0.134405 0.0940979 0.787947
-0.134087 0.0957816 0.791464
-0.13368 0.0973909 0.794282
-0.133133 0.0988651 0.795953
-0.132567 0.100325 0.797474
-0.131981 0.101772 0.798851
-0.131334 0.103155 0.799717
-0.13067 0.104524 0.800441
-0.128836 0.105233 0.802154
-0.129969 0.105852 0.800852
-0.180489 0.0231073 0.802228
-0.179624 0.0243815 0.801611
-0.178708 0.0256414 0.800687
-0.177777 0.0268941 0.799666
-0.176806 0.0281327 0.798391
-0.175829 0.029365 0.797064
-0.174885 0.0306017 0.795928
-0.173973 0.0318431 0.794966
-0.173048 0.0330771 0.793919
-0.172152 0.0343162 0.79304
-0.171219 0.0355396 0.791916
-0.170275 0.0367553 0.790711
-0.169316 0.0379613 0.789401
-0.168332 0.0391535 0.787919
-0.167274 0.0403131 0.785949
-0.166215 0.0414648 0.783951
-0.165181 0.0426189 0.782094
-0.164171 0.0437748 0.780361
-0.163198 0.0449399 0.778856
-0.162303 0.0461317 0.777835
-0.161414 0.0473216 0.776834
-0.160524 0.0485072 0.77582
-0.159636 0.0496899 0.774811
-0.158738 0.0508634 0.773718
-0.157845 0.0520346 0.772641
-0.156999 0.053225 0.771871
-0.156148 0.0544097 0.771059
-0.155312 0.0555985 0.770337
-0.15451 0.0568021 0.769833
-0.153733 0.058017 0.769496
-0.152962 0.0592334 0.769193
-0.152205 0.0604565 0.768985
-0.151445 0.0616768 0.768755
-0.150671 0.0628871 0.768419
-0.149897 0.0640962 0.768083
-0.149116 0.0652987 0.767689
-0.148348 0.0665075 0.76738
-0.147601 0.0677284 0.767215
-0.146876 0.0689631 0.767211
-0.146155 0.0702001 0.767231
-0.145447 0.0714458 0.767346
-0.144748 0.0726988 0.767536
-0.144059 0.0739585 0.767791
-0.143401 0.0752427 0.768288
-0.14277 0.0765485 0.768985
-0.142142 0.0778601 0.769722
-0.141522 0.0791801 0.770522
-0.140885 0.0804895 0.771203
-0.140214 0.081773 0.771625
-0.139563 0.0830746 0.772208
-0.138924 0.0843894 0.772895
-0.138279 0.0857007 0.773538
-0.137659 0.0870376 0.774391
-0.137087 0.0884216 0.775638
-0.136594 0.0898845 0.777536
-0.13622 0.0914689 0.780424
-0.135904 0.0931225 0.783826
-0.13559 0.0947927 0.787286
-0.13522 0.0964226 0.790334
-0.134747 0.0979597 0.792562
-0.134193 0.099423 0.794145
-0.133618 0.10087 0.795569
-0.133026 0.102304 0.796862
-0.132392 0.103698 0.797817
-0.131758 0.105097 0.798784
-0.131082 0.10645 0.799396
-0.129261 0.107174 0.801199
-0.130424 0.107828 0.800176
-0.128538 0.10848 0.801425
-0.129752 0.109191 0.800838
-0.181676 0.0238384 0.801475
-0.180781 0.0251049 0.800692
-0.179832 0.0263557 0.799585
-0.178855 0.0275951 0.798297
-0.177869 0.0288275 0.796938
-0.176874 0.0300526 0.795516
-0.175916 0.0312828 0.794298
-0.175002 0.032521 0.793328
-0.174091 0.0337566 0.79237
-0.173222 0.0350012 0.79165
-0.172318 0.0362323 0.790716
-0.171416 0.0374598 0.789774
-0.170511 0.0386828 0.788808
-0.169568 0.0398888 0.787597
-0.16855 0.0410625 0.785899
-0.167515 0.0422232 0.784072
-0.166491 0.0433812 0.782296
-0.165451 0.0445263 0.7804
-0.164472 0.0456888 0.778868
-0.163565 0.0468758 0.777779
-0.162673 0.0480654 0.776781
-0.161785 0.0492522 0.775791
-0.160908 0.0504398 0.774859
-0.16002 0.051619 0.77385
-0.159124 0.0527896 0.772768
-0.158276 0.05398 0.771999
-0.157434 0.0551698 0.771256
-0.156596 0.0563587 0.770533
-0.155782 0.0575568 0.769956
-0.155003 0.0587721 0.769617
-0.15423 0.0599883 0.769308
-0.153472 0.061212 0.769102
-0.152724 0.0624403 0.768959
-0.151974 0.0636659 0.768795
-0.151222 0.0648899 0.768622
-0.150463 0.0661082 0.768392
-0.149707 0.0673265 0.768176
-0.148971 0.0685575 0.768106
-0.148247 0.0697952 0.768112
-0.147524 0.071034 0.768135
-0.146814 0.0722812 0.768245
-0.146114 0.0735353 0.768427
-0.145413 0.0747891 0.768603
-0.144734 0.0760596 0.768941
-0.144078 0.0773489 0.769459
-0.143426 0.0786433 0.770011
-0.142772 0.0799375 0.770551
-0.142123 0.0812375 0.771133
-0.141451 0.0825212 0.771551
-0.140791 0.0838161 0.772064
-0.140154 0.0851327 0.77276
-0.139529 0.0864623 0.773557
-0.138932 0.0878201 0.774584
-0.138376 0.0892189 0.775942
-0.137913 0.0907113 0.77807
-0.137502 0.092261 0.780632
-0.137143 0.0938722 0.783648
-0.136766 0.0954794 0.786561
-0.136346 0.0970571 0.789168
-0.135821 0.0985387 0.790938
-0.135269 0.0999985 0.792504
-0.134678 0.101424 0.793764
-0.134085 0.102854 0.79503
-0.133462 0.104256 0.796056
-0.132843 0.105667 0.797127
-0.132191 0.107044 0.797931
-0.131577 0.108471 0.799079
-0.130949 0.109885 0.800114
-0.183724 0.0232935 0.801308
-0.182874 0.0245717 0.8008
-0.181947 0.0258297 0.799833
-0.180972 0.0270729 0.798583
-0.179954 0.0283002 0.797061
-0.178952 0.0295263 0.79562
-0.177943 0.0307452 0.794122
-0.176968 0.0319683 0.792807
-0.176039 0.0332 0.791755
-0.175114 0.0344287 0.790713
-0.174247 0.0356717 0.790011
-0.17337 0.0369089 0.789245
-0.17251 0.0381483 0.788564
-0.17165 0.0393849 0.787876
-0.170761 0.0406087 0.787006
-0.169771 0.0417915 0.785494
-0.168747 0.0429561 0.783761
-0.167708 0.0441081 0.781909
-0.166664 0.0452506 0.779999
-0.16567 0.0464067 0.778392
-0.16476 0.0475922 0.777299
-0.163881 0.0487867 0.776391
-0.163005 0.0499787 0.775487
-0.162138 0.0511712 0.774633
-0.16125 0.0523503 0.773634
-0.160362 0.0535253 0.772623
-0.159516 0.0547163 0.771866
-0.158672 0.0559058 0.771124
-0.157833 0.0570944 0.770401
-0.157028 0.0582981 0.769899
-0.156248 0.0595129 0.769552
-0.155473 0.0607293 0.769242
-0.154726 0.0619592 0.769108
-0.153989 0.0631951 0.769051
-0.153252 0.0644295 0.768982
-0.152514 0.0656633 0.768912
-0.151768 0.0668908 0.768778
-0.151033 0.0681246 0.76872
-0.150309 0.0693651 0.768741
-0.149586 0.0706058 0.768764
-0.148863 0.0718467 0.768792
-0.148151 0.0730947 0.768895
-0.147439 0.0743425 0.768997
-0.146727 0.0755904 0.7691
-0.146036 0.0768539 0.769355
-0.145357 0.0781271 0.769701
-0.144679 0.0794024 0.770059
-0.144001 0.0806778 0.770412
-0.14334 0.0819688 0.770903
-0.14267 0.0832543 0.771333
-0.142022 0.0845599 0.771936
-0.141408 0.0858967 0.772805
-0.140805 0.0872459 0.773764
-0.140232 0.0886263 0.774972
-0.139689 0.0900385 0.776426
-0.139199 0.091506 0.778316
-0.138733 0.0930045 0.780424
-0.138327 0.0945693 0.783032
-0.137889 0.0961151 0.785424
-0.137435 0.0976545 0.787709
-0.136902 0.0991242 0.78939
-0.136343 0.100574 0.790875
-0.135741 0.101985 0.792028
-0.135139 0.103402 0.793196
-0.134507 0.10479 0.794124
-0.13391 0.10622 0.795357
-0.133303 0.107645 0.796525
-0.132727 0.109112 0.797975
-0.132153 0.110587 0.79946
-0.185812 0.0227562 0.801358
-0.184918 0.0240263 0.800605
-0.184047 0.0252988 0.799978
-0.183098 0.0265507 0.798895
-0.182085 0.0277827 0.797436
-0.181036 0.0290004 0.795748
-0.180004 0.0302161 0.794137
-0.178964 0.0314241 0.792468
-0.177972 0.0326395 0.79106
-0.177028 0.033864 0.789925
-0.176116 0.0350937 0.788963
-0.175253 0.0363351 0.78828
-0.174406 0.0375793 0.787692
-0.173562 0.038822 0.787113
-0.172729 0.040066 0.786594
-0.171872 0.041299 0.785917
-0.170922 0.042495 0.784665
-0.169925 0.0436683 0.783108
-0.168897 0.0448236 0.781345
-0.167861 0.0459686 0.779505
-0.166863 0.0471224 0.777885
-0.165952 0.0483069 0.776795
-0.165073 0.0495011 0.775898
-0.164207 0.0506973 0.775069
-0.163339 0.051889 0.774217
-0.162449 0.0530667 0.773212
-0.161562 0.0542419 0.772217
-0.160715 0.0554326 0.771467
-0.159871 0.0566221 0.770733
-0.159031 0.05781 0.77001
-0.158225 0.0590132 0.769508
-0.157444 0.0602275 0.769162
-0.156669 0.0614436 0.768852
-0.155932 0.0626796 0.768792
-0.155208 0.0639229 0.768821
-0.154484 0.0651654 0.768843
-0.153759 0.0664074 0.768863
-0.153034 0.0676495 0.768886
-0.152311 0.0688919 0.768914
-0.151598 0.0701409 0.769017
-0.150886 0.0713901 0.769119
-0.150173 0.0726391 0.769222
-0.14946 0.0738883 0.769324
-0.148748 0.0751374 0.769427
-0.148035 0.0763864 0.769529
-0.147333 0.0776432 0.769706
-0.146631 0.0789007 0.769888
-0.14594 0.0801666 0.770148
-0.145248 0.0814333 0.770411
-0.144579 0.0827179 0.770834
-0.143911 0.084006 0.77128
-0.143276 0.085323 0.771977
-0.142674 0.0866702 0.772928
-0.142084 0.088032 0.773983
-0.141525 0.0894256 0.775289
-0.140985 0.0908416 0.776757
-0.140475 0.092291 0.778472
-0.139954 0.0937381 0.78013
-0.139493 0.0952498 0.782281
-0.139013 0.0967515 0.784303
-0.13852 0.0982501 0.786253
-0.137981 0.0997098 0.787855
-0.137423 0.101158 0.789327
-0.136821 0.102566 0.790462
-0.136211 0.103969 0.791537
-0.135579 0.105354 0.792449
-0.134986 0.106785 0.793691
-0.134411 0.108244 0.795111
-0.133871 0.109748 0.796841
-0.133343 0.111273 0.798691
-0.131606 0.112102 0.801202
-0.132829 0.112825 0.800693
-0.186948 0.0234775 0.800329
-0.186047 0.0247447 0.799545
-0.185156 0.0260113 0.79881
-0.184183 0.0272553 0.797594
-0.183127 0.0284745 0.795895
-0.182046 0.0296809 0.794031
-0.180983 0.0308853 0.79225
-0.179926 0.0320854 0.790494
-0.178918 0.0332928 0.788997
-0.177972 0.0345132 0.78785
-0.177077 0.0357447 0.786987
-0.176227 0.0369876 0.786389
-0.175397 0.0382342 0.785894
-0.174581 0.0394834 0.785479
-0.173764 0.040731 0.785061
-0.172924 0.0419678 0.784487
-0.171989 0.0431671 0.783332
-0.171019 0.0443486 0.781953
-0.170002 0.0455062 0.780267
-0.168978 0.0466544 0.778518
-0.168004 0.0478165 0.777059
-0.167106 0.0490055 0.776059
-0.166239 0.050204 0.775243
-0.165371 0.0513988 0.774411
-0.164514 0.0525951 0.77364
-0.163623 0.0537714 0.772633
-0.162747 0.0549518 0.771722
-0.161899 0.0561414 0.77097
-0.161078 0.0573425 0.770394
-0.160249 0.0585362 0.769753
-0.159444 0.0597396 0.769257
-0.158663 0.0609546 0.768921
-0.157887 0.0621702 0.768609
-0.157139 0.0634001 0.768477
-0.156415 0.0646434 0.768505
-0.155702 0.0658931 0.768607
-0.154989 0.0671428 0.76871
-0.154276 0.0683924 0.768812
-0.153563 0.0696421 0.768915
-0.15285 0.0708918 0.769017
-0.152137 0.0721415 0.76912
-0.151424 0.0733911 0.769222
-0.150711 0.0746408 0.769325
-0.149998 0.0758905 0.769427
-0.149285 0.0771401 0.76953
-0.148572 0.0783898 0.769633
-0.147869 0.0796473 0.76981
-0.147179 0.0809143 0.770073
-0.146489 0.0821828 0.770347
-0.145821 0.08347 0.770787
-0.145165 0.0847674 0.771312
-0.144531 0.0860861 0.772013
-0.143941 0.0874438 0.773043
-0.143364 0.0888179 0.774191
-0.142818 0.0902235 0.775584
-0.142269 0.0916325 0.776973
-0.141727 0.0930539 0.778434
-0.141162 0.0944599 0.779737
-0.140649 0.0959199 0.781451
-0.140106 0.0973597 0.782965
-0.139584 0.0988257 0.784656
-0.139036 0.100272 0.786155
-0.138471 0.10171 0.787552
-0.137874 0.103118 0.788693
-0.137264 0.104518 0.789755
-0.136634 0.105902 0.790664
-0.136041 0.107328 0.791886
-0.135489 0.108809 0.793471
-0.134975 0.110338 0.795386
-0.134482 0.1119 0.797503
-0.134002 0.113489 0.799761
-0.187157 0.025458 0.798385
-0.186265 0.0267226 0.797646
-0.185265 0.0279583 0.796289
-0.184207 0.0291745 0.794589
-0.183094 0.0303702 0.792555
-0.182011 0.0315666 0.790674
-0.180922 0.0327545 0.788735
-0.179897 0.033954 0.787149
-0.178925 0.0351636 0.785855
-0.178045 0.0363967 0.785083
-0.177199 0.0376379 0.784504
-0.176371 0.0388824 0.784022
-0.175554 0.0401286 0.783599
-0.174751 0.0413779 0.783255
-0.173924 0.042617 0.782764
-0.173018 0.0438245 0.78179
-0.172103 0.0450243 0.780746
-0.171114 0.0461913 0.779248
-0.17013 0.047354 0.777756
-0.169182 0.048526 0.776472
-0.168298 0.0497201 0.775562
-0.167431 0.0509186 0.774759
-0.166563 0.0521127 0.773932
-0.165705 0.0533079 0.773157
-0.16481 0.0544829 0.772146
-0.163935 0.0556626 0.771241
-0.163085 0.0568516 0.770493
-0.162277 0.0580582 0.769995
-0.161459 0.0592578 0.769436
-0.160655 0.0604621 0.768955
-0.159874 0.0616771 0.768624
-0.159097 0.0628923 0.768308
-0.158347 0.0641214 0.768167
-0.157611 0.0653576 0.768115
-0.156898 0.0666073 0.768217
-0.156185 0.067857 0.76832
-0.155472 0.0691067 0.768422
-0.154759 0.0703563 0.768525
-0.154046 0.071606 0.768627
-0.153333 0.0728557 0.76873
-0.15262 0.0741053 0.768832
-0.151907 0.075355 0.768935
-0.151194 0.0766047 0.769037
-0.150481 0.0778543 0.76914
-0.149768 0.079104 0.769243
-0.149077 0.0803701 0.7695
-0.148398 0.081647 0.769854
-0.147723 0.0829267 0.770227
-0.147068 0.0842248 0.770761
-0.146411 0.0855229 0.771281
-0.145776 0.0868403 0.771963
-0.145185 0.0881984 0.772985
-0.14461 0.089574 0.774134
-0.144056 0.0909732 0.775458
-0.143507 0.0923821 0.776834
-0.142944 0.0937842 0.778122
-0.142348 0.0951604 0.77917
-0.141792 0.0965795 0.780543
-0.141217 0.0979851 0.781778
-0.140653 0.0994069 0.783115
-0.140085 0.100831 0.784446
-0.139503 0.102246 0.785675
-0.13891 0.103655 0.786832
-0.138314 0.105066 0.78798
-0.137697 0.106459 0.788973
-0.137105 0.107884 0.790189
-0.136575 0.109385 0.791922
-0.136063 0.110912 0.793826
-0.135586 0.112488 0.796043
-0.135122 0.114091 0.798403
-0.133494 0.115054 0.801814
-0.13464 0.115684 0.800642
-0.188191 0.0261536 0.796823
-0.187295 0.0274147 0.796058
-0.186296 0.0286479 0.794714
-0.185237 0.029861 0.793017
-0.184107 0.0310491 0.790899
-0.183008 0.0322382 0.788937
-0.1819 0.0334178 0.786905
-0.180874 0.0346137 0.785321
-0.179889 0.035816 0.783952
-0.178997 0.0370425 0.78311
-0.178125 0.0382724 0.782382
-0.177296 0.0395132 0.781888
-0.176466 0.0407517 0.781386
-0.175663 0.0419975 0.781034
-0.17485 0.0432383 0.780623
-0.173972 0.0444529 0.779818
-0.173099 0.045666 0.779032
-0.172158 0.0468486 0.777822
-0.171231 0.0480325 0.77669
-0.170326 0.0492209 0.775675
-0.169468 0.0504257 0.774941
-0.168614 0.0516287 0.774217
-0.167757 0.0528274 0.773466
-0.166897 0.0540219 0.772692
-0.165991 0.0551907 0.771615
-0.165125 0.0563745 0.770777
-0.164274 0.0575628 0.77003
-0.163466 0.0587693 0.769541
-0.162662 0.0599758 0.769072
-0.16187 0.0611871 0.768681
-0.16109 0.0624022 0.768353
-0.160309 0.0636156 0.768019
-0.159555 0.0648429 0.767859
-0.158806 0.0660718 0.767725
-0.158093 0.0673215 0.767827
-0.15738 0.0685712 0.76793
-0.156667 0.0698208 0.768032
-0.155954 0.0710705 0.768135
-0.155241 0.0723202 0.768237
-0.154539 0.0735771 0.768414
-0.153827 0.0748276 0.768523
-0.153114 0.0760775 0.768627
-0.152412 0.0773347 0.768802
-0.151709 0.0785924 0.768979
-0.150997 0.0798432 0.76909
-0.150319 0.0811193 0.769436
-0.149653 0.082406 0.769876
-0.148979 0.0836886 0.770267
-0.148314 0.084979 0.770721
-0.147656 0.0862766 0.77123
-0.147019 0.0875933 0.771897
-0.146428 0.0889521 0.772913
-0.145844 0.0903202 0.773986
-0.14528 0.0917105 0.775223
-0.14471 0.0931006 0.776431
-0.144126 0.0944823 0.777542
-0.143499 0.0958292 0.778347
-0.142912 0.0972165 0.77946
-0.142305 0.0985898 0.780438
-0.141716 0.099984 0.781563
-0.141137 0.101394 0.782784
-0.140548 0.102799 0.783939
-0.139969 0.104218 0.785182
-0.139396 0.10565 0.786496
-0.138783 0.107043 0.787502
-0.138185 0.108459 0.788642
-0.137656 0.109956 0.790363
-0.137146 0.111482 0.792251
-0.136673 0.113059 0.794472
-0.136225 0.114675 0.796921
-0.135758 0.116282 0.799259
-0.134094 0.117209 0.80237
-0.135226 0.11782 0.801078
-0.190074 0.0255757 0.795766
-0.189189 0.0268396 0.795076
-0.188291 0.0280975 0.794302
-0.187306 0.0293312 0.793039
-0.186234 0.0305379 0.79128
-0.185104 0.0317227 0.789174
-0.184004 0.0329084 0.787221
-0.182896 0.0340845 0.785195
-0.181869 0.0352773 0.783615
-0.180882 0.0364761 0.782242
-0.179975 0.0376952 0.781316
-0.179085 0.0389165 0.780484
-0.17824 0.0401489 0.779893
-0.177395 0.0413795 0.779303
-0.17658 0.0426178 0.778876
-0.175768 0.0438558 0.778469
-0.174919 0.0450776 0.77783
-0.174092 0.0463054 0.777319
-0.173211 0.0475092 0.776473
-0.172344 0.0487155 0.775707
-0.171494 0.0499259 0.775035
-0.170677 0.0511473 0.77455
-0.169835 0.0523557 0.773909
-0.168978 0.0535545 0.773169
-0.168116 0.0547476 0.772386
-0.167206 0.0559151 0.771303
-0.166326 0.0570923 0.77039
-0.165476 0.0582806 0.769651
-0.164678 0.0594924 0.769234
-0.163887 0.0607057 0.768853
-0.163097 0.0619177 0.768473
-0.162315 0.0631327 0.768144
-0.161531 0.0643449 0.767798
-0.160764 0.0655644 0.767549
-0.160002 0.066786 0.767335
-0.159289 0.0680357 0.767437
-0.158576 0.0692853 0.76754
-0.157863 0.070535 0.767642
-0.15715 0.0717847 0.767745
-0.156437 0.0730343 0.767847
-0.155736 0.0742919 0.76803
-0.155024 0.0755427 0.768142
-0.154312 0.0767929 0.768248
-0.15361 0.0780505 0.768426
-0.152919 0.0793167 0.768684
-0.152219 0.0805767 0.76888
-0.151554 0.081863 0.769317
-0.150899 0.0831593 0.769837
-0.150236 0.08445 0.770294
-0.149559 0.0857316 0.770662
-0.1489 0.0870291 0.771164
-0.148252 0.0883376 0.771749
-0.147652 0.0896887 0.77269
-0.147048 0.0910397 0.773608
-0.146472 0.0924193 0.774746
-0.14588 0.093789 0.775778
-0.145274 0.0951494 0.776712
-0.144627 0.0964764 0.777355
-0.144018 0.0978418 0.778293
-0.143389 0.0991913 0.779085
-0.142769 0.100554 0.779961
-0.142179 0.101949 0.781077
-0.141591 0.10335 0.782213
-0.141024 0.104778 0.783536
-0.140477 0.106233 0.785027
-0.139888 0.10765 0.786203
-0.139294 0.109066 0.787357
-0.138756 0.110551 0.788981
-0.138236 0.112062 0.790763
-0.137754 0.113624 0.792876
-0.13731 0.11524 0.795325
-0.136859 0.11686 0.797753
-0.13633 0.118397 0.799566
-0.191036 0.026255 0.793848
-0.190173 0.027521 0.793277
-0.189293 0.0287806 0.792604
-0.188285 0.0300055 0.791218
-0.187211 0.0312084 0.789454
-0.186109 0.0323974 0.78752
-0.185026 0.0335846 0.785668
-0.183936 0.0347629 0.783757
-0.182923 0.0359573 0.782264
-0.181934 0.0371533 0.780889
-0.180994 0.0383601 0.779783
-0.180086 0.0395727 0.778841
-0.179222 0.0407968 0.77815
-0.178363 0.0420195 0.777474
-0.177538 0.0432514 0.776986
-0.176728 0.0444872 0.776585
-0.175892 0.0457113 0.776026
-0.175095 0.0469481 0.775689
-0.17426 0.0481679 0.77512
-0.173454 0.0493973 0.77472
-0.172661 0.0506302 0.774391
-0.171872 0.0518631 0.774077
-0.17103 0.0530713 0.773445
-0.17017 0.0542685 0.772694
-0.169307 0.055461 0.771914
-0.168396 0.0566271 0.770831
-0.167515 0.0578035 0.769919
-0.166674 0.0589962 0.769247
-0.165889 0.0602144 0.768912
-0.16511 0.0614343 0.768614
-0.16432 0.062647 0.768245
-0.163538 0.0638619 0.767916
-0.162752 0.0650733 0.767562
-0.161972 0.0662856 0.767234
-0.161198 0.0675002 0.766945
-0.160485 0.0687498 0.767047
-0.159772 0.0699995 0.76715
-0.159059 0.0712492 0.767252
-0.158346 0.0724988 0.767355
-0.157633 0.0737485 0.767457
-0.156932 0.0750065 0.767642
-0.156221 0.0762573 0.767756
-0.15551 0.0775084 0.767871
-0.154807 0.0787656 0.768044
-0.154118 0.0800328 0.768309
-0.153421 0.0812949 0.768524
-0.152757 0.0825824 0.768968
-0.152103 0.0838788 0.769486
-0.151437 0.0851678 0.769925
-0.150758 0.0864482 0.770279
-0.1501 0.0877461 0.770781
-0.149443 0.089047 0.771298
-0.148834 0.0903904 0.772166
-0.148218 0.09173 0.772985
-0.14762 0.0930895 0.773951
-0.147005 0.0944377 0.774804
-0.146377 0.095777 0.775566
-0.145717 0.0970898 0.776101
-0.14509 0.0984354 0.776885
-0.144451 0.0997727 0.77759
-0.143821 0.101122 0.778374
-0.143232 0.102515 0.779474
-0.142637 0.103906 0.780541
-0.142083 0.105344 0.781941
-0.141551 0.106811 0.783525
-0.140975 0.108239 0.784793
-0.140394 0.109667 0.786031
-0.139857 0.111148 0.787627
-0.139327 0.112643 0.789306
-0.138835 0.11419 0.791308
-0.138384 0.115794 0.793667
-0.137925 0.1174 0.795995
-0.137388 0.118923 0.797713
-0.192014 0.0269361 0.792037
-0.191176 0.0282053 0.791598
-0.19032 0.0294681 0.791057
-0.189304 0.0306886 0.789639
-0.188244 0.0318922 0.787962
-0.187173 0.0330866 0.786206
-0.186119 0.0342797 0.784532
-0.185047 0.0354612 0.782737
-0.184037 0.0366546 0.781266
-0.183033 0.0378444 0.779817
-0.182061 0.0390389 0.778533
-0.181107 0.0402347 0.777338
-0.180212 0.041446 0.776471
-0.179341 0.0426619 0.775725
-0.178516 0.0438916 0.775241
-0.177721 0.0451301 0.774921
-0.176924 0.0463665 0.774588
-0.176156 0.0476123 0.774415
-0.175365 0.0488481 0.774108
-0.174589 0.0500887 0.773887
-0.173826 0.0513336 0.773739
-0.173051 0.052572 0.773512
-0.172209 0.0537797 0.772886
-0.171348 0.054976 0.772137
-0.170495 0.0561726 0.771423
-0.169583 0.0573377 0.77034
-0.168701 0.0585137 0.769438
-0.167872 0.0597121 0.768845
-0.167087 0.06093 0.768513
-0.166307 0.0621499 0.768217
-0.165518 0.0633627 0.767854
-0.164735 0.0645772 0.767526
-0.163949 0.0657882 0.767172
-0.163168 0.0670001 0.766843
-0.162393 0.0682144 0.766555
-0.16168 0.0694641 0.766657
-0.160967 0.0707137 0.76676
-0.160254 0.0719634 0.766862
-0.159541 0.0732131 0.766965
-0.158829 0.0744627 0.767067
-0.158128 0.0757205 0.76725
-0.157416 0.0769712 0.767362
-0.156703 0.0782214 0.767468
-0.156002 0.0794791 0.767646
-0.155313 0.0807464 0.767911
-0.154615 0.0820081 0.768121
-0.153941 0.0832879 0.768493
-0.153276 0.0845756 0.76893
-0.152599 0.0858554 0.769287
-0.15192 0.0871353 0.769637
-0.151264 0.0884342 0.770147
-0.150609 0.0897359 0.770671
-0.14999 0.0910696 0.771455
-0.14936 0.092397 0.77217
-0.148729 0.0937263 0.772886
-0.148091 0.0950519 0.773556
-0.147453 0.0963802 0.774235
-0.146783 0.0976817 0.774688
-0.146156 0.0990244 0.775457
-0.145528 0.10037 0.776236
-0.144902 0.101721 0.777034
-0.144317 0.103114 0.778144
-0.143733 0.104514 0.779279
-0.143183 0.105953 0.780688
-0.142665 0.107432 0.782359
-0.142104 0.108872 0.783715
-0.141536 0.110311 0.785036
-0.141001 0.111792 0.786632
-0.140471 0.113287 0.788291
-0.13996 0.114809 0.790114
-0.139488 0.116385 0.792278
-0.139001 0.117953 0.794344
-0.138445 0.11945 0.795887
-0.19373 0.0263256 0.790152
-0.192958 0.0276082 0.79007
-0.192149 0.0288813 0.789786
-0.191291 0.0301408 0.78923
-0.190296 0.0313636 0.787933
-0.189267 0.0325722 0.78643
-0.188225 0.0337719 0.784846
-0.187189 0.0349676 0.783279
-0.186149 0.0361559 0.781666
-0.185139 0.0373477 0.780212
-0.184132 0.0385349 0.778757
-0.183142 0.039722 0.777381
-0.182158 0.0409059 0.776023
-0.181249 0.0421102 0.775077
-0.18039 0.0433285 0.774406
-0.179566 0.0445566 0.773926
-0.178759 0.0457889 0.773537
-0.177976 0.0470285 0.773281
-0.177208 0.0482728 0.77311
-0.176432 0.049513 0.772889
-0.175672 0.0507584 0.772757
-0.174924 0.0520085 0.7727
-0.174149 0.0532456 0.772472
-0.173318 0.0544566 0.771911
-0.172455 0.0556507 0.771154
-0.171603 0.0568465 0.770452
-0.170705 0.0580173 0.769463
-0.169849 0.0592046 0.768719
-0.169021 0.0604031 0.768142
-0.168248 0.0616267 0.767886
-0.167481 0.0628526 0.767669
-0.166703 0.0640714 0.767383
-0.165921 0.0652859 0.767061
-0.165146 0.066503 0.766781
-0.164364 0.0677146 0.766453
-0.163589 0.0689285 0.766165
-0.162876 0.0701782 0.766267
-0.162163 0.0714279 0.76637
-0.16145 0.0726776 0.766472
-0.160737 0.0739272 0.766575
-0.160024 0.0751769 0.766677
-0.159323 0.0764341 0.766854
-0.15861 0.0776845 0.766963
-0.157887 0.0789269 0.766994
-0.157184 0.0801836 0.767163
-0.156493 0.0814497 0.767417
-0.155795 0.0827105 0.767619
-0.155108 0.0839804 0.767901
-0.154441 0.0852666 0.768323
-0.153753 0.0865371 0.768599
-0.153066 0.0878096 0.768889
-0.152412 0.0891089 0.769403
-0.151747 0.0904024 0.769857
-0.151116 0.0917242 0.770542
-0.150473 0.0930393 0.771157
-0.149829 0.0943554 0.771767
-0.149161 0.095653 0.772216
-0.148522 0.0969783 0.772878
-0.147854 0.0982785 0.773329
-0.147218 0.0996113 0.774026
-0.146594 0.100958 0.774818
-0.145981 0.102317 0.77569
-0.1454 0.103712 0.77682
-0.14483 0.105123 0.778041
-0.144303 0.106584 0.779604
-0.143797 0.108073 0.781347
-0.14325 0.109526 0.782794
-0.142694 0.110975 0.784191
-0.142155 0.112449 0.78573
-0.141618 0.113933 0.787308
-0.141087 0.11543 0.788956
-0.140604 0.116992 0.791008
-0.140097 0.118533 0.792888
-0.139531 0.120013 0.794321
-0.195438 0.0257166 0.788265
-0.194704 0.0270053 0.788373
-0.193918 0.0282824 0.788214
-0.193112 0.0295533 0.787937
-0.192259 0.0308118 0.787414
-0.191298 0.0320398 0.786297
-0.190305 0.0332553 0.785
-0.189309 0.0344652 0.783675
-0.188318 0.0356715 0.78236
-0.187292 0.0368624 0.780838
-0.186282 0.0380527 0.779392
-0.18527 0.0392369 0.777919
-0.184261 0.0404167 0.776452
-0.18326 0.0415935 0.77501
-0.182352 0.0427966 0.774074
-0.181506 0.0440181 0.773478
-0.18067 0.0452406 0.772932
-0.179862 0.0464713 0.772537
-0.179067 0.0477052 0.772214
-0.178272 0.0489377 0.77189
-0.177482 0.0501706 0.771588
-0.176721 0.0514138 0.771446
-0.175974 0.052662 0.771384
-0.175196 0.0538967 0.771146
-0.174378 0.0551119 0.770664
-0.173528 0.05631 0.769986
-0.172691 0.0575111 0.769373
-0.171821 0.0586937 0.768558
-0.17098 0.0598878 0.767916
-0.170166 0.0610921 0.767421
-0.169393 0.0623152 0.76717
-0.168626 0.0635402 0.766951
-0.167849 0.0647585 0.766668
-0.167079 0.0659796 0.766429
-0.166318 0.0672039 0.766237
-0.165549 0.0684222 0.765989
-0.164773 0.0696359 0.765701
-0.164047 0.0708778 0.765724
-0.163322 0.0721193 0.765744
-0.162597 0.0733608 0.765767
-0.161872 0.0746027 0.765796
-0.16116 0.0758518 0.765898
-0.160447 0.0771009 0.766001
-0.159734 0.07835 0.766103
-0.15901 0.0795907 0.766126
-0.158296 0.0808387 0.76622
-0.157594 0.0820953 0.766393
-0.156894 0.0833536 0.766579
-0.156206 0.0846212 0.766847
-0.15554 0.0859067 0.767269
-0.154863 0.0871846 0.767617
-0.154187 0.0884644 0.767975
-0.153533 0.0897632 0.768489
-0.152859 0.0910471 0.768867
-0.152205 0.0923487 0.769386
-0.15155 0.0936517 0.769906
-0.150894 0.0949551 0.77042
-0.150227 0.0962512 0.770865
-0.149591 0.0975767 0.771536
-0.148936 0.0988873 0.772076
-0.148313 0.100229 0.77285
-0.147702 0.101585 0.773719
-0.147101 0.102956 0.774682
-0.146523 0.104352 0.775812
-0.145966 0.105774 0.777113
-0.145442 0.107235 0.778678
-0.144939 0.108724 0.780421
-0.144405 0.110188 0.781947
-0.143875 0.111664 0.783519
-0.143339 0.11314 0.785071
-0.142794 0.114614 0.786572
-0.142243 0.116085 0.788039
-0.141739 0.11762 0.789901
-0.141201 0.119122 0.791512
-0.140617 0.120578 0.792781
-0.138909 0.121431 0.795317
-0.139984 0.12198 0.793675
-0.196537 0.0264241 0.787166
-0.195773 0.0277051 0.787117
-0.194967 0.0289757 0.786847
-0.194136 0.030239 0.786441
-0.193285 0.0314954 0.785921
-0.192372 0.0327336 0.785069
-0.191428 0.0339603 0.784041
-0.190465 0.0351778 0.782902
-0.189506 0.036392 0.781769
-0.188478 0.0375814 0.780252
-0.187437 0.0387611 0.778645
-0.186405 0.0399378 0.777076
-0.185391 0.0411145 0.775589
-0.184376 0.0422851 0.77408
-0.183455 0.0434826 0.773081
-0.182609 0.0447029 0.77249
-0.181771 0.0459235 0.771936
-0.180949 0.0471476 0.771465
-0.18014 0.0483745 0.771059
-0.179329 0.0495989 0.770638
-0.178534 0.0508283 0.77031
-0.177745 0.0520584 0.770008
-0.176984 0.0532987 0.769861
-0.176195 0.054526 0.769553
-0.175375 0.055738 0.769059
-0.174528 0.0569351 0.768398
-0.173708 0.0581418 0.767887
-0.172866 0.059336 0.767243
-0.172055 0.0605424 0.766774
-0.171268 0.0617592 0.766447
-0.170508 0.062988 0.766276
-0.169752 0.0642177 0.766123
-0.168988 0.0654423 0.765922
-0.168233 0.0666707 0.765774
-0.167488 0.0679032 0.765678
