ply
format ascii 1.0
element vertex 1613
property float x
property float y
property float z
end_header
-0.157856 -0.015546 0.816641
-0.159326 -0.0154102 0.816941
-0.160807 -0.0152752 0.817311
-0.162272 -0.0151385 0.817559
-0.163738 -0.0150017 0.817807
-0.165203 -0.0148646 0.818042
-0.166667 -0.0147273 0.818259
-0.168084 -0.0145865 0.818182
-0.1695 -0.0144457 0.818095
-0.170925 -0.0143055 0.818064
-0.17238 -0.0141669 0.818206
-0.173868 -0.0140301 0.818532
-0.175439 -0.0138978 0.819331
-0.177017 -0.0137654 0.820153
-0.178597 -0.0136326 0.820965
-0.180245 -0.0135028 0.822137
-0.181919 -0.0133737 0.82343
-0.183624 -0.0132453 0.824864
-0.185381 -0.0131187 0.826552
-0.18714 -0.0129913 0.828221
-0.188856 -0.0128609 0.829618
-0.190499 -0.0127266 0.830606
-0.192051 -0.0125878 0.831092
-0.193554 -0.0124465 0.831307
-0.195009 -0.0123032 0.83127
-0.19639 -0.0121568 0.83085
-0.197754 -0.0120099 0.830352
-0.199113 -0.011863 0.829833
-0.200474 -0.0117164 0.829327
-0.201852 -0.0115704 0.828912
-0.20328 -0.0114262 0.828746
-0.204742 -0.0112832 0.828745
-0.206256 -0.0111417 0.828993
-0.207773 -0.0110001 0.829248
-0.20934 -0.0108598 0.829734
-0.210912 -0.0107194 0.830233
-0.212557 -0.0105806 0.831058
-0.214227 -0.010442 0.831985
-0.215975 -0.0103049 0.833249
-0.219154 -0.0102019 0.841004
-0.0993437 -0.0239376 0.860608
-0.100252 -0.0236454 0.853467
-0.101737 -0.023509 0.85377
-0.103228 -0.0233736 0.854127
-0.104695 -0.0232317 0.854173
-0.106167 -0.0230905 0.854261
-0.107593 -0.0229388 0.853825
-0.108958 -0.0227737 0.852707
-0.110271 -0.0225984 0.851055
-0.111567 -0.0224212 0.849276
-0.112828 -0.0222382 0.84718
-0.114111 -0.0220616 0.845376
-0.115406 -0.021889 0.843759
-0.116738 -0.0217249 0.842559
-0.118091 -0.0215656 0.841609
-0.119446 -0.0214073 0.840694
-0.120765 -0.0212434 0.839464
-0.12205 -0.0210748 0.837954
-0.123283 -0.0208987 0.835991
-0.124508 -0.0207228 0.834022
-0.125715 -0.0205457 0.831942
-0.126964 -0.0203765 0.830285
-0.128252 -0.0202147 0.829019
-0.129538 -0.0200535 0.827772
-0.130832 -0.0198942 0.826612
-0.13214 -0.0197377 0.825604
-0.133457 -0.0195832 0.824693
-0.134756 -0.0194269 0.82366
-0.136051 -0.0192707 0.822615
-0.137329 -0.0191129 0.821456
-0.13864 -0.01896 0.820582
-0.139945 -0.0188069 0.819686
-0.141265 -0.0186562 0.818915
-0.142621 -0.0185101 0.818433
-0.143973 -0.0183638 0.817934
-0.145314 -0.0182164 0.817354
-0.146664 -0.0180702 0.816855
-0.148047 -0.0179279 0.816599
-0.149422 -0.0177847 0.816285
-0.150817 -0.0176438 0.816119
-0.152243 -0.0175057 0.81616
-0.153686 -0.0173693 0.816313
-0.155146 -0.0172342 0.816578
-0.156641 -0.017102 0.817063
-0.158115 -0.0169675 0.817391
-0.159574 -0.0168315 0.817615
-0.161045 -0.0166961 0.817904
-0.162497 -0.0165589 0.818062
-0.163951 -0.0164217 0.818233
-0.165418 -0.0162853 0.818471
-0.166884 -0.0161484 0.818693
-0.168315 -0.0160089 0.818697
-0.169744 -0.0158691 0.818687
-0.171186 -0.0157299 0.818745
-0.172667 -0.0155936 0.819032
-0.17417 -0.0154584 0.819438
-0.175732 -0.0153269 0.820175
-0.177324 -0.0151967 0.821064
-0.178946 -0.0150681 0.822105
-0.180616 -0.0149416 0.823388
-0.182299 -0.0148151 0.824717
-0.184035 -0.014691 0.826312
-0.18579 -0.0145671 0.827972
-0.187563 -0.0144431 0.829697
-0.1893 -0.0143162 0.831193
-0.19098 -0.0141854 0.832359
-0.192571 -0.0140492 0.833031
-0.194109 -0.0139099 0.833411
-0.19554 -0.0137651 0.833234
-0.196909 -0.0136172 0.832734
-0.198242 -0.0134678 0.83206
-0.199555 -0.0133178 0.831291
-0.200865 -0.0131679 0.830523
-0.202209 -0.0130198 0.82993
-0.203606 -0.0128741 0.829601
-0.20507 -0.0127312 0.829603
-0.206602 -0.0125909 0.829932
-0.208156 -0.0124512 0.830353
-0.209747 -0.0123126 0.830941
-0.211355 -0.0121744 0.831597
-0.213003 -0.0120371 0.832426
-0.214675 -0.0119001 0.83335
-0.216392 -0.0117642 0.83446
-0.219612 -0.0116757 0.842384
-0.0997145 -0.025477 0.86351
-0.100404 -0.0251096 0.853565
-0.101924 -0.0249835 0.854294
-0.103447 -0.024857 0.855021
-0.104954 -0.0247252 0.855516
-0.106456 -0.0245913 0.855929
-0.107878 -0.0244371 0.855411
-0.109231 -0.0242666 0.854129
-0.110536 -0.0240863 0.852368
-0.111826 -0.0239043 0.850504
-0.113076 -0.023715 0.848265
-0.114351 -0.0235333 0.846366
-0.115638 -0.0233561 0.844648
-0.116953 -0.0231862 0.843265
-0.118291 -0.0230222 0.842154
-0.119645 -0.0228624 0.84123
-0.120973 -0.0226982 0.840075
-0.122277 -0.0225304 0.838728
-0.123529 -0.0223543 0.836937
-0.124765 -0.022177 0.835052
-0.125982 -0.0219979 0.833045
-0.127232 -0.021826 0.831388
-0.128515 -0.0216609 0.83006
-0.129796 -0.0214966 0.828751
-0.131089 -0.0213351 0.827573
-0.132396 -0.0211767 0.826547
-0.133705 -0.0210192 0.82555
-0.135003 -0.0208608 0.824497
-0.136298 -0.0207027 0.82344
-0.137567 -0.0205418 0.822204
-0.13886 -0.020385 0.821181
-0.140155 -0.020229 0.820197
-0.141474 -0.0200769 0.819416
-0.14283 -0.01993 0.818927
-0.144184 -0.0197832 0.818432
-0.145536 -0.0196362 0.817927
-0.146899 -0.019491 0.817513
-0.148285 -0.0193485 0.817266
-0.149661 -0.019205 0.816955
-0.151066 -0.0190649 0.816851
-0.152493 -0.0189271 0.816889
-0.153938 -0.0187911 0.817049
-0.155389 -0.0186554 0.817237
-0.156886 -0.0185244 0.817729
-0.15836 -0.0183904 0.818048
-0.159821 -0.018255 0.818276
-0.161294 -0.0181203 0.818569
-0.162746 -0.0179835 0.818724
-0.164202 -0.0178468 0.818891
-0.165667 -0.0177106 0.819112
-0.167147 -0.0175755 0.819415
-0.168582 -0.0174363 0.819434
-0.170039 -0.0172989 0.819582
-0.171496 -0.0171611 0.819722
-0.172993 -0.0170264 0.820093
-0.174501 -0.0168923 0.820518
-0.176078 -0.0167632 0.821328
-0.177702 -0.0166369 0.822387
-0.179359 -0.0165123 0.823606
-0.181052 -0.0163896 0.825005
-0.182741 -0.0162656 0.826347
-0.184475 -0.0161439 0.827912
-0.186215 -0.0160216 0.829476
-0.187992 -0.0159007 0.831205
-0.189737 -0.0157767 0.83273
-0.191458 -0.0156502 0.834094
-0.193088 -0.0155174 0.834956
-0.194652 -0.01538 0.835451
-0.196074 -0.015234 0.835206
-0.197444 -0.0150852 0.834696
-0.198744 -0.0149326 0.833837
-0.200022 -0.0147791 0.832879
-0.201295 -0.0146258 0.831909
-0.20262 -0.0144756 0.831212
-0.203999 -0.0143284 0.830784
-0.205464 -0.0141856 0.830784
-0.207001 -0.0140461 0.831123
-0.208576 -0.0139081 0.831632
-0.210188 -0.0137714 0.832309
-0.211804 -0.0136345 0.832987
-0.213453 -0.0134986 0.833808
-0.215127 -0.0133633 0.834729
-0.216825 -0.0132285 0.835741
-0.220012 -0.0131521 0.8435
-0.101278 -0.0267939 0.862751
-0.10258 -0.0265985 0.860593
-0.10391 -0.0264138 0.858855
-0.105229 -0.0262279 0.857046
-0.106741 -0.0260968 0.857546
-0.108164 -0.0259413 0.857008
-0.109517 -0.025768 0.8557
-0.110825 -0.0255847 0.853938
-0.112117 -0.0253995 0.852071
-0.113368 -0.0252062 0.849822
-0.114636 -0.0250193 0.847827
-0.115902 -0.0248337 0.845863
-0.117193 -0.0246558 0.844222
-0.118506 -0.0244843 0.84285
-0.119852 -0.024321 0.841832
-0.121175 -0.0241537 0.840617
-0.122489 -0.0239857 0.839355
-0.12376 -0.0238104 0.837731
-0.125013 -0.023633 0.83599
-0.12624 -0.0234522 0.834061
-0.1275 -0.0232793 0.832481
-0.128785 -0.0231121 0.831158
-0.130068 -0.0229456 0.829848
-0.131355 -0.022781 0.828609
-0.132655 -0.0226194 0.827507
-0.133955 -0.0224586 0.826424
-0.135262 -0.0222998 0.825431
-0.136549 -0.0221385 0.824298
-0.137818 -0.0219753 0.82305
-0.139111 -0.0218166 0.822015
-0.140397 -0.0216578 0.820954
-0.141696 -0.0215014 0.820009
-0.143052 -0.0213537 0.819511
-0.144405 -0.0212059 0.819005
-0.145759 -0.0210585 0.818511
-0.147135 -0.0209142 0.818179
-0.148533 -0.0207729 0.818008
-0.149911 -0.0206292 0.817704
-0.151319 -0.0204891 0.817606
-0.152738 -0.0203504 0.81758
-0.154171 -0.0202132 0.817651
-0.155621 -0.020078 0.817828
-0.157128 -0.0199488 0.818373
-0.158615 -0.0198169 0.818771
-0.160092 -0.0196836 0.819093
-0.161578 -0.0195509 0.819462
-0.163033 -0.0194145 0.819621
-0.164477 -0.0192767 0.819702
-0.165932 -0.01914 0.819852
-0.167413 -0.0190056 0.820153
-0.168862 -0.0188678 0.820247
-0.170338 -0.0187322 0.820496
-0.171799 -0.0185952 0.820653
-0.173312 -0.0184625 0.821105
-0.174859 -0.0183324 0.821744
-0.176469 -0.0182074 0.822734
-0.178129 -0.0180858 0.823982
-0.179821 -0.0179661 0.825382
-0.181533 -0.0178469 0.826867
-0.183197 -0.0177229 0.828051
-0.184901 -0.0176012 0.829435
-0.18664 -0.0174813 0.830977
-0.188425 -0.0173639 0.832731
-0.190182 -0.017243 0.834303
-0.191929 -0.0171206 0.835789
-0.193577 -0.0169904 0.836729
-0.195129 -0.0168527 0.837145
-0.196537 -0.0167052 0.836813
-0.197908 -0.0165554 0.83629
-0.199207 -0.0164011 0.835412
-0.20047 -0.0162449 0.834366
-0.201743 -0.0160898 0.833384
-0.203082 -0.0159391 0.832741
-0.204431 -0.0157893 0.832157
-0.205882 -0.0156455 0.832071
-0.207433 -0.0155073 0.832466
-0.209013 -0.0153705 0.832992
-0.210631 -0.0152351 0.833683
-0.212285 -0.0151013 0.834529
-0.213938 -0.0149669 0.835354
-0.215597 -0.0148323 0.836191
-0.217262 -0.0146974 0.837035
-0.104628 -0.0280621 0.865756
-0.105719 -0.0278004 0.861112
-0.107034 -0.0276104 0.859256
-0.108444 -0.0274493 0.858529
-0.109792 -0.0272716 0.857132
-0.111109 -0.0270874 0.85545
-0.112411 -0.0269008 0.853657
-0.113672 -0.0267058 0.851495
-0.11495 -0.026517 0.849565
-0.116214 -0.0263274 0.847571
-0.117482 -0.0261405 0.84567
-0.118779 -0.0259623 0.844107
-0.1201 -0.0257912 0.842831
-0.121414 -0.0256197 0.841516
-0.122723 -0.0254483 0.840196
-0.124005 -0.0252724 0.838662
-0.12527 -0.0250944 0.837014
-0.126507 -0.0249121 0.835159
-0.127767 -0.0247361 0.83356
-0.129045 -0.0245651 0.832159
-0.130328 -0.0243963 0.830842
-0.131607 -0.0242279 0.829521
-0.132909 -0.0240645 0.828419
-0.134201 -0.0239005 0.827266
-0.13552 -0.0237421 0.826357
-0.136808 -0.0235789 0.825221
-0.138081 -0.023414 0.823989
-0.139374 -0.0232535 0.822943
-0.140658 -0.0230923 0.821855
-0.141947 -0.0229326 0.820821
-0.143285 -0.0227812 0.820178
-0.144639 -0.0226328 0.81967
-0.146004 -0.0224862 0.819248
-0.147392 -0.0223428 0.818989
-0.148794 -0.0222017 0.818839
-0.150195 -0.0220606 0.818685
-0.151616 -0.021922 0.818661
-0.153026 -0.021782 0.818565
-0.154449 -0.0216435 0.818555
-0.155886 -0.0215068 0.818634
-0.157382 -0.021377 0.819091
-0.158861 -0.0212448 0.819427
-0.160342 -0.0211126 0.819768
-0.161833 -0.0209811 0.820161
-0.163289 -0.0208451 0.820316
-0.164733 -0.0207076 0.820393
-0.166188 -0.020571 0.82053
-0.167684 -0.0204388 0.820914
-0.169149 -0.0203028 0.821098
-0.170652 -0.0201706 0.821505
-0.17214 -0.0200364 0.821808
-0.173683 -0.0199074 0.822422
-0.175261 -0.0197813 0.823226
-0.176893 -0.0196598 0.824325
-0.178572 -0.0195419 0.825666
-0.180271 -0.0194249 0.827088
-0.181957 -0.0193056 0.828409
-0.18359 -0.0191807 0.829405
-0.185295 -0.0190613 0.830775
-0.18704 -0.0189443 0.832333
-0.188848 -0.0188315 0.8342
-0.190642 -0.0187163 0.835951
-0.192403 -0.0185973 0.837495
-0.194049 -0.0184682 0.838409
-0.195597 -0.0183308 0.838788
-0.196991 -0.0181814 0.838367
-0.198348 -0.0180294 0.837761
-0.199636 -0.0178726 0.836813
-0.200887 -0.0177138 0.835696
-0.202151 -0.0175563 0.834657
-0.203482 -0.0174039 0.833966
-0.204835 -0.0172532 0.833389
-0.206286 -0.0171093 0.833295
-0.207838 -0.0169717 0.83368
-0.209418 -0.0168356 0.834192
-0.211041 -0.0167017 0.834896
-0.2127 -0.0165696 0.835754
-0.214356 -0.0164368 0.836584
-0.215999 -0.0163026 0.837335
-0.217665 -0.0161692 0.838174
-0.103522 -0.028325 0.870389
-0.105542 -0.0297974 0.874985
-0.106399 -0.0294473 0.867411
-0.10748 -0.029177 0.862714
-0.10871 -0.0289581 0.859882
-0.110065 -0.0287796 0.858541
-0.111387 -0.0285933 0.85689
-0.112702 -0.0284068 0.85521
-0.113988 -0.0282142 0.853279
-0.115282 -0.0280262 0.851503
-0.116543 -0.0278311 0.849432
-0.117805 -0.0276387 0.84744
-0.119083 -0.0274525 0.845669
-0.120378 -0.0272721 0.844109
-0.121665 -0.0270916 0.842526
-0.122966 -0.0269159 0.841114
-0.124251 -0.0267379 0.839593
-0.125519 -0.0265576 0.837966
-0.126759 -0.0263726 0.83612
-0.128019 -0.0261937 0.834508
-0.129286 -0.0260178 0.832997
-0.13056 -0.0258447 0.831589
-0.131838 -0.0256738 0.830253
-0.133151 -0.0255107 0.829229
-0.134453 -0.0253464 0.828147
-0.135776 -0.025187 0.827259
-0.137068 -0.0250225 0.826141
-0.138352 -0.0248574 0.824984
-0.139636 -0.0246934 0.823859
-0.140922 -0.0245305 0.822771
-0.142221 -0.0243707 0.821805
-0.143569 -0.0242197 0.821224
-0.144916 -0.024069 0.820649
-0.146292 -0.0239232 0.820295
-0.147683 -0.0237799 0.820046
-0.149087 -0.0236386 0.819896
-0.150502 -0.0234991 0.819826
-0.151936 -0.0233623 0.819882
-0.153349 -0.0232221 0.819783
-0.154762 -0.0230819 0.819689
-0.156188 -0.0229435 0.819678
-0.157661 -0.0228115 0.819982
-0.159132 -0.0226787 0.820252
-0.160605 -0.0225458 0.820528
-0.162098 -0.0224152 0.820924
-0.163566 -0.022281 0.821148
-0.165012 -0.0221437 0.821223
-0.166481 -0.0220092 0.821442
-0.167992 -0.0218792 0.821902
-0.169472 -0.0217452 0.82217
-0.170992 -0.0216155 0.822662
-0.17251 -0.021485 0.82313
-0.174082 -0.0213601 0.823902
-0.175693 -0.0212387 0.824882
-0.177358 -0.0211223 0.826154
-0.179046 -0.0210072 0.827524
-0.18073 -0.0208906 0.828839
-0.182371 -0.0207688 0.829892
-0.183961 -0.020641 0.830632
-0.18564 -0.0205213 0.831848
-0.187393 -0.0204076 0.833437
-0.189224 -0.0203002 0.835416
-0.191023 -0.0201882 0.83718
-0.19278 -0.0200714 0.838689
-0.194392 -0.0199406 0.839407
-0.19589 -0.0197996 0.839521
-0.197254 -0.019647 0.838938
-0.198597 -0.0194929 0.838254
-0.199902 -0.0193361 0.837391
-0.201189 -0.0191782 0.836446
-0.202491 -0.019022 0.835592
-0.203844 -0.01887 0.834997
-0.205218 -0.01872 0.834517
-0.206671 -0.0185759 0.834417
-0.208207 -0.0184378 0.834719
-0.209772 -0.0183015 0.835151
-0.211397 -0.018169 0.835854
-0.213056 -0.0180384 0.836703
-0.214717 -0.0179073 0.837548
-0.216362 -0.0177745 0.838299
-0.218029 -0.0176427 0.839135
-0.219997 -0.0160722 0.842022
-0.219669 -0.0175085 0.839835
-0.108088 -0.030809 0.868041
-0.109121 -0.0305183 0.862876
-0.110301 -0.0302809 0.859537
-0.111655 -0.0301013 0.858217
-0.112999 -0.0299199 0.856821
-0.11432 -0.0297336 0.855233
-0.115628 -0.0295454 0.853561
-0.116891 -0.0293467 0.851489
-0.118132 -0.0291444 0.849257
-0.119387 -0.0289481 0.847229
-0.120654 -0.0287571 0.845371
-0.121922 -0.0285687 0.843588
-0.123213 -0.0283878 0.842069
-0.124516 -0.0282113 0.840699
-0.125796 -0.0280308 0.839162
-0.127037 -0.0278427 0.837314
-0.128299 -0.027661 0.835697
-0.129546 -0.0274779 0.834004
-0.130801 -0.027298 0.832419
-0.132062 -0.0271208 0.830918
-0.133366 -0.026954 0.829815
-0.13467 -0.0267884 0.828741
-0.136012 -0.0266313 0.828002
-0.137316 -0.0264672 0.82697
-0.138621 -0.0263042 0.82597
-0.139909 -0.0261387 0.824861
-0.141206 -0.0259757 0.823838
-0.142517 -0.0258163 0.822952
-0.143879 -0.0256666 0.822462
-0.14523 -0.0255153 0.821899
-0.146627 -0.0253722 0.821681
-0.14802 -0.0252284 0.821429
-0.149417 -0.0250854 0.821212
-0.150825 -0.0249442 0.821072
-0.15226 -0.0248074 0.821124
-0.153654 -0.0246638 0.820881
-0.155058 -0.0245219 0.820711
-0.156473 -0.0243817 0.820617
-0.157936 -0.0242484 0.820834
-0.159405 -0.0241157 0.821085
-0.160878 -0.0239833 0.821353
-0.162372 -0.0238534 0.821741
-0.163841 -0.0237197 0.821963
-0.1653 -0.0235842 0.82211
-0.166774 -0.0234505 0.822348
-0.168302 -0.0233234 0.822903
-0.169811 -0.0231935 0.823333
-0.171371 -0.0230694 0.824053
-0.172922 -0.0229435 0.824699
-0.174515 -0.022822 0.825576
-0.176147 -0.0227045 0.826661
-0.177815 -0.0225902 0.82793
-0.179463 -0.0224723 0.829048
-0.18109 -0.0223515 0.830033
-0.1827 -0.0222277 0.830891
-0.184273 -0.0220994 0.831533
-0.185942 -0.0219807 0.832681
-0.187716 -0.0218719 0.834375
-0.189552 -0.0217681 0.836367
-0.191336 -0.0216577 0.838041
-0.193064 -0.0215405 0.839386
-0.194629 -0.0214065 0.839852
-0.196081 -0.0212613 0.839718
-0.197442 -0.0211077 0.839122
-0.198785 -0.0209527 0.838437
-0.200094 -0.020795 0.837592
-0.201413 -0.0206385 0.836804
-0.202748 -0.0204839 0.836113
-0.20412 -0.0203327 0.835608
-0.205512 -0.0201834 0.835207
-0.206983 -0.0200406 0.835189
-0.208522 -0.0199034 0.835499
-0.210087 -0.0197678 0.835921
-0.211712 -0.0196366 0.836618
-0.213371 -0.0195075 0.837462
-0.215035 -0.019378 0.838308
-0.216666 -0.0192456 0.83899
-0.218337 -0.0191155 0.839837
-0.219977 -0.0189827 0.84053
-0.109708 -0.0321484 0.867842
-0.1107 -0.0318397 0.86233
-0.111891 -0.0316035 0.859192
-0.113264 -0.0314285 0.858088
-0.11462 -0.03125 0.856851
-0.115948 -0.031064 0.855351
-0.117223 -0.0308645 0.853369
-0.118466 -0.0306578 0.851122
-0.119714 -0.0304554 0.848997
-0.120956 -0.0302539 0.846885
-0.122206 -0.0300568 0.844902
-0.12348 -0.0298683 0.843204
-0.124775 -0.0296871 0.841745
-0.126067 -0.0295065 0.840294
-0.127319 -0.0293176 0.838529
-0.128581 -0.029133 0.836901
-0.129811 -0.0289426 0.835046
-0.131056 -0.0287573 0.833354
-0.132289 -0.028571 0.831612
-0.133574 -0.0283981 0.830343
-0.134879 -0.0282308 0.829271
-0.136232 -0.0280747 0.828605
-0.137538 -0.0279093 0.827582
-0.138862 -0.0277486 0.82673
-0.140172 -0.0275854 0.825774
-0.141482 -0.0274234 0.824852
-0.142808 -0.027265 0.824058
-0.144184 -0.0271168 0.823658
-0.145548 -0.0269666 0.823174
-0.146951 -0.0268238 0.822977
-0.148343 -0.0266793 0.822711
-0.149741 -0.0265357 0.822484
-0.151149 -0.0263939 0.822327
-0.152566 -0.0262537 0.822233
-0.153949 -0.0261077 0.821906
-0.155343 -0.0259637 0.821655
-0.156747 -0.0258214 0.821478
-0.158188 -0.0256849 0.82154
-0.159645 -0.0255506 0.821698
-0.161104 -0.0254165 0.821866
-0.162585 -0.0252854 0.822169
-0.164056 -0.0251523 0.822394
-0.16553 -0.0250195 0.822635
-0.16702 -0.0248885 0.822965
-0.168575 -0.0247661 0.823675
-0.170126 -0.0246426 0.824347
-0.171717 -0.0245238 0.825241
-0.173301 -0.0244031 0.82607
-0.174927 -0.0242871 0.827124
-0.176575 -0.0241731 0.828285
-0.178218 -0.0240574 0.82939
-0.179835 -0.0239376 0.830323
-0.181433 -0.0238144 0.831121
-0.183027 -0.0236902 0.831883
-0.18459 -0.0235616 0.832455
-0.186276 -0.0234467 0.833687
-0.188039 -0.0233395 0.835309
-0.18986 -0.0232374 0.83721
-0.191599 -0.0231248 0.838637
-0.193282 -0.0230051 0.839736
-0.194802 -0.0228673 0.839962
-0.196241 -0.0227208 0.83976
-0.197586 -0.0225648 0.839077
-0.198928 -0.0224089 0.838392
-0.200252 -0.0222514 0.83762
-0.201587 -0.0220955 0.836917
-0.20294 -0.0219415 0.836307
-0.204327 -0.0217911 0.835876
-0.205735 -0.0216427 0.835548
-0.207223 -0.0215018 0.835612
-0.208765 -0.0213654 0.835931
-0.210318 -0.0212298 0.836295
-0.211941 -0.0210996 0.836974
-0.213615 -0.0209733 0.837882
-0.215265 -0.0208443 0.83866
-0.2169 -0.0207135 0.839354
-0.218587 -0.0205864 0.840274
-0.220227 -0.0204549 0.840961
-0.111082 -0.0334021 0.86493
-0.112097 -0.0330986 0.859827
-0.113495 -0.0329302 0.858987
-0.114879 -0.0327582 0.858026
-0.116224 -0.0325749 0.85669
-0.117524 -0.0323791 0.854937
-0.118784 -0.0321732 0.852837
-0.120043 -0.0319697 0.850795
-0.12128 -0.031762 0.848597
-0.12254 -0.0315637 0.846684
-0.123799 -0.0313673 0.844818
-0.125079 -0.0311788 0.843201
-0.126364 -0.0309933 0.841664
-0.127626 -0.0308037 0.839976
-0.128883 -0.0306143 0.838276
-0.130098 -0.0304163 0.836266
-0.131331 -0.030225 0.834466
-0.132553 -0.0300328 0.832616
-0.133819 -0.0298531 0.83118
-0.135115 -0.0296816 0.83002
-0.136469 -0.0295244 0.829353
-0.137786 -0.0293595 0.828404
-0.139124 -0.0292001 0.827645
-0.140446 -0.029038 0.82678
-0.14177 -0.028877 0.825944
-0.143117 -0.0287212 0.825294
-0.144508 -0.0285751 0.824989
-0.145886 -0.0284266 0.824596
-0.147293 -0.0282838 0.824411
-0.148698 -0.0281406 0.82421
-0.150086 -0.0279943 0.823896
-0.151482 -0.0278498 0.823643
-0.152888 -0.027707 0.823457
-0.154271 -0.0275602 0.823114
-0.155655 -0.0274136 0.822779
-0.157049 -0.027269 0.822522
-0.158468 -0.0271287 0.822425
-0.159901 -0.0269907 0.822423
-0.161338 -0.026853 0.822435
-0.162797 -0.0267188 0.822588
-0.164268 -0.0265864 0.822814
-0.165768 -0.0264579 0.823207
-0.167287 -0.0263319 0.823702
-0.168884 -0.0262171 0.824665
-0.170477 -0.0261006 0.825576
-0.172114 -0.0259897 0.826731
-0.173731 -0.0258749 0.827743
-0.175376 -0.025763 0.828891
-0.176986 -0.0256452 0.829809
-0.178598 -0.0255267 0.830717
-0.180185 -0.0254042 0.831464
-0.181758 -0.025279 0.832109
-0.183345 -0.0251551 0.832825
-0.184941 -0.0250316 0.833566
-0.186633 -0.0249192 0.834816
-0.188353 -0.0248094 0.836195
-0.190126 -0.0247046 0.837828
-0.191814 -0.0245885 0.838974
-0.19345 -0.0244654 0.839821
-0.194942 -0.0243249 0.839896
-0.196365 -0.0241766 0.839613
-0.197707 -0.0240194 0.838919
-0.19905 -0.0238627 0.838235
-0.200374 -0.0237043 0.837465
-0.201727 -0.0235494 0.836853
-0.203095 -0.0233963 0.836319
-0.204483 -0.0232455 0.835894
-0.205905 -0.0230984 0.835636
-0.207395 -0.0229579 0.835706
-0.208923 -0.0228209 0.835956
-0.210477 -0.0226862 0.836322
-0.212098 -0.0225574 0.836995
-0.213776 -0.0224333 0.837918
-0.215426 -0.0223058 0.838692
-0.217063 -0.0221767 0.839397
-0.218748 -0.0220512 0.840302
-0.220369 -0.0219195 0.840901
-0.112585 -0.0346976 0.863525
-0.113848 -0.0344778 0.861179
-0.115109 -0.0342607 0.858896
-0.116456 -0.0340753 0.857562
-0.117766 -0.0338795 0.855895
-0.119044 -0.0336756 0.853963
-0.120325 -0.0334748 0.852111
-0.121583 -0.0332695 0.850099
-0.122862 -0.0330731 0.848349
-0.12413 -0.0328755 0.846545
-0.125412 -0.0326839 0.844914
-0.12669 -0.032493 0.84329
-0.127945 -0.0322978 0.841513
-0.129203 -0.0321054 0.839811
-0.130411 -0.0319015 0.837718
-0.131645 -0.0317068 0.835906
-0.132857 -0.0315084 0.833952
-0.134104 -0.0313209 0.83234
-0.135381 -0.0311423 0.831006
-0.136726 -0.0309816 0.830256
-0.138026 -0.0308108 0.82916
-0.139376 -0.0306527 0.828483
-0.140711 -0.0304919 0.827706
-0.142047 -0.0303319 0.826952
-0.143406 -0.0301776 0.826383
-0.144827 -0.030037 0.826285
-0.14623 -0.0298927 0.826055
-0.147642 -0.02975 0.825885
-0.149051 -0.029607 0.825699
-0.150438 -0.0294594 0.825357
-0.151815 -0.0293101 0.824948
-0.1532 -0.0291626 0.824603
-0.154573 -0.029013 0.824182
-0.155944 -0.0288633 0.82375
-0.157328 -0.0287161 0.823408
-0.158725 -0.0285714 0.823156
-0.160136 -0.0284294 0.822999
-0.161559 -0.0282894 0.822919
-0.163017 -0.0281554 0.823059
-0.164502 -0.0280256 0.823364
-0.16602 -0.0279007 0.823859
-0.167566 -0.02778 0.824518
-0.169193 -0.0276715 0.825653
-0.170804 -0.0275594 0.826664
-0.172462 -0.0274534 0.827928
-0.174096 -0.0273425 0.829019
-0.175743 -0.0272326 0.830169
-0.177338 -0.0271139 0.830988
-0.178936 -0.0269947 0.831799
-0.180509 -0.0268711 0.832451
-0.182085 -0.0267474 0.833107
-0.183682 -0.0266259 0.833865
-0.185286 -0.0265045 0.834638
-0.186967 -0.0263928 0.835821
-0.188641 -0.026279 0.836936
-0.19035 -0.0261688 0.838215
-0.19197 -0.0260461 0.838996
-0.193569 -0.0259199 0.839647
-0.195042 -0.0257777 0.839628
-0.196451 -0.0256276 0.839273
-0.197794 -0.0254698 0.838587
-0.199149 -0.0253137 0.837968
-0.200472 -0.0251542 0.837196
-0.201828 -0.0249989 0.836597
-0.203216 -0.0248475 0.836164
-0.204621 -0.0246983 0.835824
-0.206044 -0.024551 0.835569
-0.207532 -0.0244108 0.835633
-0.20906 -0.0242745 0.835879
-0.210613 -0.0241406 0.83624
-0.212235 -0.0240133 0.836913
-0.213913 -0.0238911 0.837837
-0.215548 -0.0237639 0.838547
-0.217168 -0.0236346 0.839171
-0.218833 -0.023509 0.839985
-0.220433 -0.0233767 0.840491
-0.113255 -0.0363777 0.869179
-0.114356 -0.0360901 0.865015
-0.115457 -0.0358087 0.860991
-0.116654 -0.0355668 0.858082
-0.117973 -0.0353713 0.856501
-0.119264 -0.0351685 0.854691
-0.120574 -0.034974 0.853112
-0.121862 -0.0347744 0.851369
-0.12317 -0.0345838 0.849877
-0.124459 -0.0343888 0.848241
-0.12576 -0.0341995 0.846762
-0.127047 -0.0340076 0.845193
-0.128303 -0.0338087 0.843395
-0.129545 -0.0336079 0.841522
-0.130745 -0.0333974 0.839338
-0.13198 -0.0331993 0.837514
-0.133185 -0.032995 0.835482
-0.134408 -0.0327975 0.833645
-0.135664 -0.0326109 0.832129
-0.136996 -0.0324454 0.831262
-0.138266 -0.0322649 0.829918
-0.139599 -0.0321014 0.829099
-0.140947 -0.0319421 0.828405
-0.142293 -0.0317832 0.827723
-0.143654 -0.031628 0.827153
-0.145075 -0.0314873 0.827051
-0.146493 -0.0313455 0.826912
-0.147907 -0.031203 0.82675
-0.149319 -0.03106 0.826574
-0.150706 -0.0309117 0.82622
-0.152084 -0.0307617 0.825808
-0.153458 -0.0306113 0.825381
-0.154834 -0.0304613 0.824961
-0.156206 -0.0303109 0.824531
-0.15759 -0.0301632 0.824183
-0.158987 -0.0300178 0.823918
-0.160397 -0.0298753 0.823747
-0.16182 -0.029735 0.823656
-0.163278 -0.0296012 0.823792
-0.164778 -0.0294744 0.824177
-0.166311 -0.029353 0.824758
-0.167876 -0.0292365 0.825523
-0.169533 -0.0291348 0.826827
-0.171173 -0.0290289 0.827997
-0.172847 -0.0289273 0.82934
-0.174484 -0.0288184 0.830435
-0.17612 -0.0287083 0.831501
-0.177689 -0.0285866 0.832156
-0.17926 -0.0284644 0.832799
-0.180822 -0.0283401 0.833379
-0.182405 -0.0282184 0.834064
-0.184021 -0.0281009 0.834917
-0.185628 -0.0279811 0.835698
-0.187281 -0.0278671 0.83671
-0.188893 -0.0277464 0.837481
-0.190522 -0.0276272 0.838323
-0.192076 -0.027497 0.838751
-0.193611 -0.0273638 0.839067
-0.195068 -0.0272199 0.838968
-0.196475 -0.0270696 0.838614
-0.197819 -0.0269111 0.837933
-0.199171 -0.0267542 0.837304
-0.200524 -0.0265977 0.836692
-0.201897 -0.0264439 0.836182
-0.203305 -0.0262946 0.835851
-0.204744 -0.0261492 0.835676
-0.206183 -0.0260037 0.835501
-0.207654 -0.0258619 0.835482
-0.209179 -0.0257261 0.835717
-0.210728 -0.0255927 0.83606
-0.212336 -0.0254653 0.836667
-0.214013 -0.0253449 0.837588
-0.215647 -0.0252192 0.838294
-0.217248 -0.0250893 0.838828
-0.218875 -0.0249616 0.839473
-0.114983 -0.0377609 0.87009
-0.115903 -0.0374008 0.864102
-0.11694 -0.0370927 0.8595
-0.118173 -0.0368627 0.857032
-0.119499 -0.036669 0.855556
-0.120837 -0.0364814 0.854244
-0.122146 -0.0362858 0.852693
-0.123477 -0.0360992 0.851384
-0.124779 -0.035905 0.849849
-0.126075 -0.0357109 0.848304
-0.127373 -0.035519 0.84681
-0.128639 -0.0353192 0.845075
-0.129889 -0.0351171 0.843256
-0.13109 -0.0349024 0.841058
-0.132347 -0.0347063 0.839385
-0.133556 -0.0344989 0.837363
-0.134782 -0.0342986 0.835532
-0.136009 -0.0341006 0.833757
-0.137319 -0.0339267 0.832685
-0.138556 -0.0337348 0.831063
-0.139859 -0.0335617 0.829992
-0.141197 -0.0333987 0.829221
-0.142547 -0.033239 0.828546
-0.143899 -0.0330808 0.827907
-0.145323 -0.0329401 0.827806
-0.14675 -0.0328002 0.827729
-0.148158 -0.0326558 0.827513
-0.149582 -0.0325152 0.827416
-0.150982 -0.0323689 0.827139
-0.15237 -0.0322202 0.826787
-0.153749 -0.0320698 0.826377
-0.155138 -0.0319217 0.82604
-0.156504 -0.0317689 0.825551
-0.157899 -0.0316226 0.825264
-0.159286 -0.0314747 0.824927
-0.160686 -0.0313295 0.824677
-0.162099 -0.0311869 0.824512
-0.163571 -0.0310556 0.824718
-0.165086 -0.0309324 0.825194
-0.166637 -0.0308151 0.825876
-0.168232 -0.030705 0.826807
-0.169904 -0.0306078 0.828183
-0.171547 -0.0305039 0.829355
-0.173208 -0.0304021 0.830608
-0.174846 -0.0302949 0.831696
-0.176471 -0.0301844 0.83268
-0.178043 -0.030064 0.833339
-0.179618 -0.0299432 0.833993
-0.181183 -0.0298201 0.834577
-0.182768 -0.0296996 0.835257
-0.184372 -0.0295813 0.836029
-0.185951 -0.0294583 0.836643
-0.187555 -0.0293385 0.837382
-0.189104 -0.0292097 0.837806
-0.19064 -0.0290784 0.838148
-0.192116 -0.028938 0.838163
-0.193587 -0.0287967 0.838147
-0.195012 -0.0286487 0.837889
-0.196406 -0.0284965 0.837469
-0.197765 -0.0283398 0.836879
-0.199146 -0.0281863 0.836406
-0.200545 -0.0280356 0.836032
-0.201951 -0.0278858 0.835694
-0.203394 -0.0277409 0.835539
-0.204866 -0.0275997 0.835528
-0.206321 -0.0274563 0.835434
-0.207776 -0.0273127 0.835334
-0.209283 -0.0271755 0.835485
-0.210814 -0.0270409 0.835742
-0.212403 -0.0269128 0.836265
-0.214046 -0.0267903 0.837026
-0.21566 -0.026664 0.837642
-0.217237 -0.0265329 0.838073
-0.219103 -0.0264333 0.839807
-0.116489 -0.0390586 0.868658
-0.1174 -0.0386908 0.862695
-0.118524 -0.0384132 0.859079
-0.119775 -0.0381879 0.85683
-0.121042 -0.0379717 0.854806
-0.122395 -0.0377889 0.853666
-0.123761 -0.0376121 0.852678
-0.125093 -0.0374249 0.851401
-0.126429 -0.0372405 0.850192
-0.127742 -0.0370499 0.848803
-0.129012 -0.0368475 0.847078
-0.130265 -0.0366418 0.84525
-0.131466 -0.0364225 0.843028
-0.132716 -0.0362207 0.841275
-0.133948 -0.0360157 0.839417
-0.13517 -0.03581 0.837526
-0.136371 -0.0356006 0.835514
-0.137656 -0.0354169 0.834215
-0.138868 -0.0352148 0.83238
-0.140141 -0.0350311 0.831057
-0.141471 -0.0348641 0.830205
-0.142822 -0.0347034 0.829529
-0.144164 -0.0345412 0.828805
-0.145588 -0.0344003 0.828695
-0.147016 -0.0342602 0.828613
-0.148437 -0.0341182 0.828474
-0.149874 -0.0339802 0.828457
-0.151278 -0.0338341 0.828196
-0.152668 -0.033685 0.827846
-0.154061 -0.0335366 0.827514
-0.155465 -0.0333909 0.827265
-0.156835 -0.0332381 0.826796
-0.158257 -0.0330965 0.82667
-0.159658 -0.0329504 0.826405
-0.161062 -0.0328051 0.826162
-0.162478 -0.0326625 0.826004
-0.163966 -0.0325344 0.826296
-0.165486 -0.0324123 0.826782
-0.167042 -0.0322965 0.827471
-0.168641 -0.0321883 0.828412
-0.170303 -0.032091 0.829712
-0.171947 -0.0319888 0.830872
-0.173598 -0.0318867 0.832044
-0.175226 -0.0317791 0.833056
-0.17684 -0.0316679 0.833964
-0.178416 -0.0315489 0.834629
-0.17998 -0.0314269 0.835205
-0.181535 -0.0313029 0.83572
-0.183106 -0.0311809 0.83631
-0.184666 -0.0310564 0.836827
-0.186196 -0.0309264 0.837165
-0.187738 -0.0307978 0.837558
-0.189225 -0.0306599 0.837641
-0.190681 -0.0305171 0.837558
-0.192134 -0.0303737 0.837456
-0.193572 -0.0302278 0.837268
-0.19498 -0.0300776 0.836932
-0.196373 -0.0299253 0.836518
-0.197761 -0.0297724 0.836084
-0.199162 -0.0296216 0.835717
-0.200595 -0.0294755 0.835518
-0.202037 -0.0293307 0.835365
-0.203499 -0.0291886 0.835308
-0.204972 -0.0290479 0.835303
-0.206426 -0.0289045 0.835203
-0.207865 -0.028759 0.835028
-0.209355 -0.0286203 0.835101
-0.210885 -0.0284862 0.835352
-0.21247 -0.028359 0.835858
-0.214076 -0.0282338 0.836453
-0.215668 -0.0281062 0.836968
-0.217225 -0.0279739 0.837311
-0.117963 -0.0403412 0.866935
-0.118982 -0.0400127 0.862189
-0.120135 -0.0397437 0.858929
-0.12131 -0.0394878 0.855976
-0.122598 -0.0392786 0.854202
-0.124003 -0.0391139 0.853566
-0.125381 -0.0389405 0.8527
-0.126757 -0.0387673 0.851834
-0.1281 -0.038584 0.850699
-0.129384 -0.0383821 0.849066
-0.130651 -0.038177 0.847333
-0.131873 -0.0379594 0.845258
-0.133136 -0.0377576 0.843587
-0.134381 -0.0375522 0.841806
-0.135588 -0.0373374 0.83976
-0.136761 -0.0371149 0.837489
-0.138007 -0.0369166 0.835855
-0.139187 -0.0367013 0.833745
-0.14043 -0.0365064 0.832177
-0.141752 -0.0363353 0.831248
-0.143113 -0.0361759 0.830635
-0.144445 -0.0360093 0.82982
-0.145859 -0.035865 0.829622
-0.147277 -0.0357218 0.829451
-0.14871 -0.0355825 0.829392
-0.150141 -0.0354427 0.829318
-0.151558 -0.0352991 0.829138
-0.152972 -0.0351549 0.828942
-0.154377 -0.0350086 0.828684
-0.155787 -0.0348634 0.828459
-0.157171 -0.0347125 0.828065
-0.158608 -0.0345737 0.828022
-0.160011 -0.0344273 0.82776
-0.161432 -0.0342849 0.827614
-0.162865 -0.034145 0.827541
-0.164368 -0.0340202 0.827914
-0.165891 -0.0338988 0.828395
-0.167449 -0.0337841 0.829085
-0.169051 -0.0336774 0.830021
-0.170703 -0.0335797 0.831242
-0.172337 -0.033477 0.832324
-0.173976 -0.0333741 0.833409
-0.175595 -0.0332659 0.83435
-0.177199 -0.0331541 0.835187
-0.178778 -0.0330363 0.835851
-0.18033 -0.0329129 0.836349
-0.181858 -0.0327846 0.8367
-0.183399 -0.0326579 0.837109
-0.184912 -0.0325259 0.837356
-0.186396 -0.0323885 0.837435
-0.187878 -0.0322505 0.837496
-0.189316 -0.0321049 0.837316
-0.190722 -0.0319541 0.836969
-0.192155 -0.0318077 0.836762
-0.193559 -0.0316566 0.836406
-0.194965 -0.0315061 0.836064
-0.196371 -0.0313558 0.835724
-0.197759 -0.0312028 0.835299
-0.199148 -0.0310502 0.834879
-0.200601 -0.0309074 0.834785
-0.202063 -0.0307658 0.834737
-0.203525 -0.0306242 0.834686
-0.205013 -0.030486 0.834755
-0.206495 -0.030347 0.834797
-0.20795 -0.0302039 0.834703
-0.209441 -0.0300658 0.83478
-0.210969 -0.0299325 0.835029
-0.212549 -0.0298057 0.835513
-0.214121 -0.0296774 0.835947
-0.215693 -0.0295485 0.836373
-0.217229 -0.0294147 0.836627
-0.119568 -0.0416753 0.866576
-0.120629 -0.0413605 0.862338
-0.121712 -0.041061 0.858445
-0.122918 -0.0408151 0.855844
-0.124253 -0.040622 0.85453
-0.125671 -0.0404615 0.85402
-0.127079 -0.0402978 0.853424
-0.128446 -0.0401201 0.852477
-0.129761 -0.0399254 0.851093
-0.131039 -0.0397198 0.849426
-0.132265 -0.039499 0.847359
-0.133522 -0.0392912 0.845609
-0.134787 -0.0390881 0.843967
-0.135986 -0.038866 0.841823
-0.13716 -0.0386389 0.839535
-0.138404 -0.0384363 0.837861
-0.139586 -0.0382168 0.835739
-0.140795 -0.0380081 0.83388
-0.142099 -0.0378294 0.832792
-0.14345 -0.0376653 0.832085
-0.144751 -0.0374879 0.831017
-0.146146 -0.0373373 0.830658
-0.147544 -0.0371882 0.830335
-0.148978 -0.0370487 0.83027
-0.150412 -0.0369091 0.830201
-0.151842 -0.0367684 0.830105
-0.153271 -0.0366273 0.829998
-0.1547 -0.0364862 0.829892
-0.156123 -0.0363435 0.82974
-0.157532 -0.0361974 0.829497
-0.158995 -0.0360644 0.829616
-0.160427 -0.0359235 0.829517
-0.161876 -0.0357867 0.829535
-0.163337 -0.0356522 0.829618
-0.164857 -0.0355308 0.830073
-0.166383 -0.0354102 0.830555
-0.167945 -0.0352966 0.831241
-0.169535 -0.0351881 0.832083
-0.171167 -0.0350871 0.833152
-0.172777 -0.0349807 0.834073
-0.174395 -0.0348745 0.835012
-0.17599 -0.0347625 0.835793
-0.177569 -0.0346466 0.836467
-0.179121 -0.0345243 0.836964
-0.180647 -0.0343965 0.837302
-0.182159 -0.0342654 0.837549
-0.183657 -0.0341314 0.837715
-0.185139 -0.033994 0.83778
-0.186592 -0.0338512 0.837684
-0.188016 -0.0337028 0.837423
-0.189393 -0.0335466 0.836919
-0.190752 -0.0333872 0.836318
-0.19215 -0.0332351 0.835935
-0.193511 -0.0330768 0.83536
-0.194902 -0.0329241 0.834953
-0.196304 -0.0327733 0.834603
-0.197705 -0.0326224 0.834249
-0.199077 -0.0324672 0.833756
-0.200544 -0.032327 0.833738
-0.202019 -0.0321881 0.833762
-0.203495 -0.0320492 0.833786
-0.204997 -0.0319141 0.833936
-0.20651 -0.0317802 0.83413
-0.207998 -0.0316425 0.8342
-0.209508 -0.0315078 0.834373
-0.211037 -0.0313753 0.834625
-0.2126 -0.0312474 0.835031
-0.214165 -0.0311194 0.83544
-0.215721 -0.0309895 0.835793
-0.217257 -0.0308566 0.836049
-0.118637 -0.0420521 0.872286
-0.117813 -0.0424841 0.879291
-0.118228 -0.0441133 0.882026
-0.119223 -0.0437417 0.876715
-0.120155 -0.0433529 0.87096
-0.121149 -0.0429996 0.865995
-0.122183 -0.0426705 0.861567
-0.123338 -0.0423976 0.858435
-0.12463 -0.0421834 0.856678
-0.126039 -0.0420171 0.85605
-0.127451 -0.0418526 0.85546
-0.128794 -0.0416632 0.854271
-0.130119 -0.0414687 0.852951
-0.13141 -0.0412637 0.851365
-0.13265 -0.0410431 0.849391
-0.133919 -0.0408351 0.847709
-0.135196 -0.0406323 0.846143
-0.136403 -0.040408 0.844037
-0.137589 -0.0401797 0.841817
-0.138838 -0.0399744 0.840151
-0.140033 -0.0397544 0.838106
-0.141244 -0.0395416 0.836226
-0.14252 -0.0393512 0.834897
-0.143841 -0.0391759 0.833937
-0.145121 -0.0389895 0.832689
-0.146496 -0.0388318 0.832164
-0.147875 -0.0386758 0.831678
-0.149298 -0.0385327 0.831521
-0.150732 -0.0383926 0.831439
-0.152155 -0.0382492 0.831276
-0.153599 -0.0381113 0.831255
-0.155044 -0.0379738 0.831246
-0.156481 -0.0378339 0.831174
-0.157905 -0.0376905 0.831011
-0.159383 -0.0375608 0.83121
-0.160832 -0.0374234 0.831208
-0.162299 -0.03729 0.831316
-0.163789 -0.037162 0.831568
-0.165327 -0.0370447 0.832111
-0.166858 -0.0369251 0.8326
-0.16841 -0.0368093 0.833199
-0.169989 -0.036699 0.833954
-0.171586 -0.0365914 0.83479
-0.173172 -0.0364805 0.835545
-0.174764 -0.0363699 0.836315
-0.17633 -0.0362527 0.836913
-0.177896 -0.0361348 0.837498
-0.179433 -0.0360101 0.837898
-0.180931 -0.0358768 0.838065
-0.182428 -0.0357431 0.83822
-0.183897 -0.0356035 0.838213
-0.185337 -0.035458 0.838039
-0.186761 -0.0353096 0.837781
-0.188154 -0.0351553 0.837353
-0.189486 -0.0349899 0.836603
-0.190809 -0.0348236 0.835819
-0.192177 -0.0346658 0.835279
-0.193507 -0.0345016 0.834547
-0.194883 -0.0343462 0.83407
-0.196284 -0.0341952 0.833719
-0.197682 -0.0340439 0.83336
-0.199048 -0.0338875 0.832845
-0.200508 -0.033747 0.8328
-0.201992 -0.0336102 0.832873
-0.203484 -0.0334746 0.832984
-0.205004 -0.0333432 0.833228
-0.206539 -0.0332137 0.833533
-0.208061 -0.0330819 0.833771
-0.209576 -0.0329486 0.833967
-0.211105 -0.0328172 0.834227
-0.212667 -0.0326902 0.834629
-0.214215 -0.0325607 0.834957
-0.215919 -0.0324536 0.836
-0.217726 -0.0323601 0.837488
-0.119633 -0.0453668 0.879352
-0.120681 -0.0450178 0.874716
-0.121703 -0.0446653 0.869966
-0.122727 -0.0443216 0.865385
-0.123878 -0.044039 0.862162
-0.12516 -0.0438146 0.860247
-0.126559 -0.0436408 0.859477
-0.127936 -0.0434587 0.858515
-0.129262 -0.0432585 0.857125
-0.130572 -0.0430539 0.855626
-0.131847 -0.0428387 0.853872
-0.133071 -0.0426074 0.851728
-0.134323 -0.042389 0.849872
-0.135591 -0.0421789 0.848198
-0.136793 -0.0419482 0.846025
-0.137996 -0.0417206 0.843914
-0.139262 -0.0415171 0.842358
-0.140472 -0.0412969 0.840395
-0.141683 -0.0410799 0.838494
-0.142947 -0.0408821 0.837041
-0.144235 -0.0406938 0.835808
-0.145505 -0.0405011 0.834461
-0.14686 -0.0403357 0.833769
-0.148218 -0.0401719 0.833111
-0.149631 -0.0400247 0.832858
-0.151064 -0.0398833 0.832749
-0.152479 -0.039737 0.832516
-0.153937 -0.0396026 0.832582
-0.155399 -0.039469 0.832666
-0.156851 -0.0393323 0.832676
-0.158302 -0.0391953 0.832681
-0.159786 -0.0390665 0.832894
-0.161253 -0.0389328 0.832988
-0.162734 -0.0388027 0.833172
-0.164242 -0.0386786 0.833515
-0.165774 -0.03856 0.834003
-0.167301 -0.038439 0.834437
-0.168842 -0.0383211 0.834952
-0.170397 -0.0382056 0.835537
-0.171967 -0.0380926 0.836195
-0.173528 -0.0379766 0.836782
-0.175092 -0.0378605 0.837371
-0.176629 -0.0377377 0.837789
-0.178178 -0.0376168 0.838265
-0.17969 -0.0374871 0.838508
-0.181161 -0.0373484 0.838517
-0.182643 -0.0372118 0.838582
-0.184082 -0.0370661 0.838404
-0.185494 -0.0369149 0.838076
-0.186902 -0.036763 0.837728
-0.188279 -0.0366051 0.837213
-0.189579 -0.0364325 0.83629
-0.190883 -0.0362615 0.835405
-0.192244 -0.0361022 0.834837
-0.193542 -0.0359313 0.833945
-0.194903 -0.0357727 0.83339
-0.196301 -0.0356212 0.833029
-0.197681 -0.0354667 0.832584
-0.199001 -0.0353017 0.831839
-0.200441 -0.0351585 0.831708
-0.201919 -0.0350215 0.831759
-0.203426 -0.0348895 0.831955
-0.204968 -0.034763 0.832312
-0.206557 -0.0346436 0.832884
-0.208114 -0.0345185 0.833296
-0.20966 -0.034391 0.83364
-0.211192 -0.0342608 0.833913
-0.212768 -0.0341373 0.834385
-0.214315 -0.0340086 0.834713
-0.216214 -0.0339334 0.836649
-0.122116 -0.0462808 0.872548
-0.123254 -0.0459777 0.869026
-0.124399 -0.0456843 0.865691
-0.125667 -0.0454481 0.863594
-0.127044 -0.0452609 0.862565
-0.128389 -0.0450621 0.861272
-0.129703 -0.0448524 0.859729
-0.131012 -0.0446435 0.858193
-0.132283 -0.0444219 0.856364
-0.133518 -0.0441891 0.85427
-0.134769 -0.0439658 0.852378
-0.136019 -0.0437445 0.850519
-0.137215 -0.0435062 0.84826
-0.138442 -0.0432824 0.846316
-0.139708 -0.0430747 0.844729
-0.140921 -0.0428512 0.842769
-0.142132 -0.0426294 0.840833
-0.143385 -0.042424 0.839264
-0.144654 -0.0422261 0.837859
-0.145925 -0.0420302 0.836491
-0.147271 -0.0418596 0.835706
-0.148621 -0.0416913 0.83497
-0.150023 -0.0415392 0.834613
-0.151436 -0.0413911 0.834348
-0.15284 -0.0412402 0.834017
-0.15429 -0.0411028 0.834005
-0.155744 -0.0409663 0.834018
-0.157201 -0.0408305 0.834047
-0.158679 -0.0407002 0.834213
-0.160168 -0.0405725 0.834442
-0.161661 -0.0404452 0.834687
-0.163169 -0.0403216 0.835022
-0.164694 -0.0402017 0.835454
-0.16622 -0.0400814 0.83588
-0.167749 -0.039961 0.836308
-0.169265 -0.0398367 0.836646
-0.170795 -0.0397153 0.837059
-0.17234 -0.0395967 0.837546
-0.173864 -0.0394724 0.837899
-0.175399 -0.0393502 0.838304
-0.176922 -0.0392243 0.838623
-0.178445 -0.0390981 0.838939
-0.179933 -0.0389634 0.83904
-0.181405 -0.0388249 0.839048
-0.182873 -0.0386853 0.839029
-0.184296 -0.0385358 0.838755
-0.185693 -0.0383809 0.838338
-0.187085 -0.0382252 0.8379
-0.188433 -0.0380606 0.837227
-0.189701 -0.0378803 0.836136
-0.190973 -0.0377017 0.835081
-0.1923 -0.0375351 0.834337
-0.193567 -0.0373569 0.833282
-0.194907 -0.037194 0.832625
-0.196287 -0.0370392 0.832183
-0.197651 -0.0368815 0.831662
-0.198955 -0.0367132 0.830846
-0.200377 -0.0365671 0.830632
-0.201854 -0.0364309 0.83069
-0.203378 -0.0363029 0.830974
-0.204941 -0.0361814 0.83144
-0.206548 -0.0360668 0.832106
-0.208136 -0.0359484 0.832672
-0.209696 -0.0358245 0.833089
-0.211228 -0.0356952 0.833362
-0.212804 -0.035573 0.833841
-0.214367 -0.0354479 0.834244
-0.216452 -0.0354064 0.837034
-0.12366 -0.047591 0.8715
-0.12491 -0.0473366 0.869112
-0.126167 -0.0470894 0.866861
-0.127518 -0.0468866 0.865542
-0.128835 -0.0466713 0.863949
-0.130131 -0.0464499 0.862212
-0.131434 -0.0462338 0.860583
-0.132699 -0.0460053 0.858672
-0.133925 -0.0457638 0.856471
-0.135177 -0.0455359 0.85455
-0.136415 -0.0453057 0.852566
-0.13763 -0.0450698 0.850445
-0.138871 -0.0448461 0.848578
-0.14015 -0.0446389 0.847063
-0.141365 -0.0444114 0.845089
-0.142567 -0.0441817 0.843055
-0.143801 -0.0439661 0.841319
-0.145064 -0.0437621 0.839832
-0.146338 -0.0435641 0.838471
-0.147688 -0.0433923 0.837689
-0.149052 -0.043226 0.837028
-0.150457 -0.0430733 0.836671
-0.151874 -0.0429244 0.836401
-0.15329 -0.0427754 0.836127
-0.154731 -0.0426344 0.836034
-0.156186 -0.0424971 0.836029
-0.157646 -0.042361 0.836052
-0.159128 -0.042231 0.836218
-0.160599 -0.0420975 0.836304
-0.162106 -0.0419738 0.836622
-0.163619 -0.0418509 0.836962
-0.165136 -0.0417286 0.83732
-0.166664 -0.0416087 0.837737
-0.168192 -0.0414877 0.838138
-0.169683 -0.0413567 0.838301
-0.171188 -0.0412289 0.838543
-0.172709 -0.0411045 0.838871
-0.174194 -0.0409706 0.838976
-0.175691 -0.0408393 0.839142
-0.177187 -0.0407074 0.839298
-0.178685 -0.0405756 0.83946
-0.180162 -0.0404384 0.839492
-0.181621 -0.040297 0.839422
-0.183088 -0.0401572 0.839392
-0.184511 -0.0400072 0.839111
-0.185905 -0.0398511 0.838677
-0.187285 -0.0396919 0.838166
-0.188617 -0.039523 0.837406
-0.189855 -0.0393345 0.83615
-0.191094 -0.0391476 0.834925
-0.192363 -0.0389677 0.833869
-0.193595 -0.0387814 0.832641
-0.194902 -0.0386113 0.831821
-0.196262 -0.0384523 0.83128
-0.197623 -0.0382941 0.830754
-0.198958 -0.0381309 0.830099
-0.200383 -0.0379857 0.829906
-0.201876 -0.0378532 0.830046
-0.203412 -0.0377285 0.830395
-0.204975 -0.0376082 0.830863
-0.206567 -0.0374928 0.831463
-0.208153 -0.0373755 0.832024
-0.209695 -0.0372496 0.832361
-0.211221 -0.0371204 0.832612
-0.212817 -0.0370029 0.833184
-0.214416 -0.0368853 0.833758
-0.216685 -0.0368802 0.837398
-0.126589 -0.0487062 0.869396
-0.12792 -0.0484903 0.867855
-0.129223 -0.0482645 0.866102
-0.130514 -0.0480363 0.86429
-0.131813 -0.0478144 0.862596
-0.133081 -0.0475823 0.860679
-0.13432 -0.0473412 0.858564
-0.135583 -0.0471131 0.856709
-0.136815 -0.0468756 0.854645
-0.138049 -0.0466417 0.852643
-0.139289 -0.0464136 0.850752
-0.14056 -0.0461992 0.849139
-0.141767 -0.045964 0.847075
-0.142977 -0.0457327 0.84508
-0.144205 -0.0455105 0.843267
-0.145453 -0.0452978 0.841649
-0.146752 -0.0451049 0.840447
-0.148118 -0.0449362 0.839763
-0.149498 -0.0447727 0.83919
-0.150911 -0.0446207 0.83886
-0.152342 -0.0444747 0.838665
-0.153763 -0.0443255 0.838399
-0.155206 -0.0441833 0.838287
-0.156652 -0.0440421 0.838195
-0.158111 -0.0439047 0.838189
-0.159583 -0.0437707 0.838263
-0.161034 -0.0436303 0.838193
-0.162533 -0.0435036 0.838432
-0.164036 -0.0433779 0.838694
-0.165532 -0.0432491 0.838892
-0.167036 -0.0431226 0.839143
-0.168538 -0.0429946 0.839366
-0.170004 -0.0428564 0.839357
-0.171483 -0.0427218 0.839431
-0.172979 -0.0425911 0.839597
-0.17445 -0.0424535 0.839605
-0.175934 -0.042319 0.839689
-0.177428 -0.0421869 0.839828
-0.178928 -0.0420558 0.839996
-0.180417 -0.0419216 0.840092
-0.181878 -0.0417803 0.840024
-0.183331 -0.041637 0.839908
-0.184755 -0.0414868 0.839628
-0.186138 -0.0413272 0.839126
-0.187491 -0.0411613 0.838467
-0.188806 -0.0409872 0.837611
-0.19004 -0.0407959 0.836331
-0.191248 -0.0406003 0.83494
-0.192485 -0.0404121 0.833719
-0.1937 -0.0402203 0.832401
-0.194987 -0.040045 0.83148
-0.19633 -0.0398822 0.830858
-0.197692 -0.0397234 0.830334
-0.199044 -0.0395631 0.829771
-0.200471 -0.0394185 0.829591
-0.201978 -0.0392895 0.829806
-0.203512 -0.0391654 0.830144
-0.205056 -0.0390426 0.83052
-0.206627 -0.0389247 0.831023
-0.208195 -0.0388052 0.831494
-0.2097 -0.0386736 0.831658
-0.211209 -0.0385423 0.831837
-0.212836 -0.0384321 0.83256
-0.214491 -0.0383261 0.833398
-0.216918 -0.0383555 0.837763
-0.129491 -0.0498105 0.867167
-0.130813 -0.0495923 0.865611
-0.132124 -0.049372 0.864007
-0.133404 -0.0491408 0.862173
-0.134647 -0.0488967 0.860071
-0.135915 -0.0486665 0.858236
-0.137141 -0.0484225 0.856107
-0.138378 -0.0481857 0.854114
-0.139609 -0.0479496 0.852127
-0.140881 -0.0477321 0.850504
-0.142086 -0.047492 0.848409
-0.143308 -0.0472609 0.846488
-0.144547 -0.0470391 0.844748
-0.145817 -0.0468309 0.843279
-0.147133 -0.0466407 0.842174
-0.148525 -0.0464787 0.841657
-0.149932 -0.0463227 0.841259
-0.151373 -0.0461781 0.841101
-0.152822 -0.0460363 0.841003
-0.154282 -0.0458983 0.840983
-0.155721 -0.0457531 0.840814
-0.157161 -0.0456082 0.84065
-0.158609 -0.0454656 0.840538
-0.160058 -0.0453234 0.840431
-0.161485 -0.0451743 0.840177
-0.162962 -0.0450404 0.840253
-0.164442 -0.0449072 0.840344
-0.165901 -0.0447673 0.840292
-0.16738 -0.0446332 0.840366
-0.168845 -0.0444945 0.840342
-0.170311 -0.0443562 0.84033
-0.171781 -0.0442184 0.840329
-0.173264 -0.0440843 0.84041
-0.174733 -0.043946 0.840401
-0.176215 -0.0438108 0.84046
-0.177698 -0.043676 0.84053
-0.179199 -0.0435452 0.840694
-0.180703 -0.0434146 0.840864
-0.182178 -0.0432767 0.840869
-0.183621 -0.0431303 0.840685
-0.185046 -0.0429798 0.840406
-0.186416 -0.0428162 0.839827
-0.187741 -0.0426423 0.839007
-0.189013 -0.0424567 0.837913
-0.190241 -0.042262 0.836602
-0.191419 -0.0420571 0.835045
-0.192626 -0.0418603 0.833663
-0.193823 -0.0416627 0.832255
-0.19509 -0.0414817 0.831233
-0.196404 -0.0413119 0.830462
-0.197781 -0.0411561 0.830024
-0.199167 -0.0410024 0.82963
-0.200613 -0.0408617 0.829544
-0.202121 -0.0407335 0.82976
-0.20365 -0.0406093 0.830076
-0.205157 -0.0404801 0.830276
-0.206693 -0.0403564 0.830609
-0.208226 -0.0402313 0.830916
-0.209709 -0.0400963 0.830982
-0.211228 -0.0399678 0.83121
-0.212889 -0.0398658 0.832093
-0.214589 -0.0397701 0.833143
-0.216889 -0.0397838 0.836922
-0.133634 -0.050663 0.862858
-0.134897 -0.0504241 0.860923
-0.13618 -0.0501969 0.859203
-0.137418 -0.0499536 0.857159
-0.138657 -0.0497137 0.855171
-0.139879 -0.0494702 0.853098
-0.141144 -0.0492467 0.85141
-0.142351 -0.0490033 0.849321
-0.143585 -0.0487732 0.84748
-0.144846 -0.0485561 0.84589
-0.14615 -0.0483576 0.844664
-0.14749 -0.0481736 0.843722
-0.148906 -0.0480188 0.843363
-0.15034 -0.0478703 0.843133
-0.151796 -0.0477299 0.843065
-0.153263 -0.0475928 0.843066
-0.154752 -0.0474632 0.843222
-0.156188 -0.0473152 0.843002
-0.157622 -0.0471665 0.842768
-0.159059 -0.0470192 0.842563
-0.160473 -0.0468644 0.8422
-0.161876 -0.0467064 0.841769
-0.163329 -0.046564 0.841666
-0.164783 -0.0464222 0.841572
-0.166214 -0.0462732 0.841328
-0.167679 -0.0461344 0.8413
-0.169119 -0.0459884 0.841119
-0.170575 -0.0458467 0.841031
-0.172034 -0.0457056 0.840956
-0.173504 -0.0455678 0.84095
-0.174974 -0.0454296 0.840939
-0.176456 -0.0452948 0.840999
-0.177943 -0.0451605 0.841076
-0.179459 -0.0450341 0.841322
-0.180981 -0.0449084 0.841591
-0.182473 -0.0447747 0.841681
-0.183919 -0.0446286 0.84151
-0.185357 -0.0444808 0.841296
-0.186712 -0.0443121 0.840623
-0.188021 -0.0441325 0.839705
-0.189246 -0.0439336 0.838354
-0.190457 -0.0437327 0.836948
-0.191606 -0.0435183 0.835233
-0.192783 -0.0433125 0.8337
-0.193977 -0.0431119 0.832272
-0.195244 -0.0429295 0.831247
-0.196556 -0.0427581 0.830466
-0.197951 -0.0426059 0.83012
-0.19937 -0.0424591 0.829892
-0.200821 -0.0423194 0.82983
-0.202344 -0.0421949 0.830117
-0.203843 -0.0420649 0.830278
-0.20533 -0.041932 0.830379
-0.206832 -0.0418018 0.830544
-0.208329 -0.0416705 0.830683
-0.209763 -0.0415259 0.830514
-0.211294 -0.0414007 0.830804
-0.21294 -0.0412978 0.831621
-0.214644 -0.0412051 0.83269
-0.216769 -0.041192 0.835669
-0.137601 -0.0514474 0.857431
-0.138868 -0.0512165 0.855673
-0.140091 -0.0509696 0.8536
-0.141355 -0.0507431 0.851906
-0.142555 -0.050493 0.849749
-0.143802 -0.0502649 0.848006
-0.145068 -0.050047 0.846449
-0.146386 -0.0498519 0.845323
-0.147748 -0.0496745 0.844539
-0.149189 -0.0495278 0.844347
-0.150625 -0.0493793 0.844121
-0.152095 -0.0492432 0.844138
-0.153597 -0.049118 0.844373
-0.155103 -0.0489936 0.844622
-0.156543 -0.0488461 0.844419
-0.15799 -0.0487007 0.844256
-0.159416 -0.0485483 0.843956
-0.160794 -0.0483802 0.84334
-0.162174 -0.0482134 0.842744
-0.163601 -0.0480621 0.842461
-0.16503 -0.0479119 0.842198
