ply
format ascii 1.0
element vertex 1677
property float x
property float y
property float z
end_header
0.38992 0.0417123 0.963018
0.38851 0.0409082 0.963196
0.386987 0.0400532 0.963089
0.385558 0.0392408 0.96321
0.384069 0.0384014 0.963175
0.382588 0.037566 0.963155
0.381301 0.0368176 0.963619
0.380044 0.036083 0.964158
0.353176 0.0230976 0.917052
0.351925 0.0223761 0.917372
0.350587 0.0216162 0.917462
0.349279 0.02087 0.917626
0.347971 0.0201243 0.917789
0.346261 0.0192009 0.916875
0.344849 0.0184095 0.916744
0.34349 0.0176422 0.916752
0.34214 0.0168787 0.916776
0.340804 0.0161216 0.916833
0.339631 0.0154363 0.917331
0.33844 0.014743 0.917777
0.337277 0.0140618 0.918297
0.336111 0.0133796 0.918811
0.33497 0.0127083 0.919394
0.33386 0.0120507 0.920064
0.332729 0.0113836 0.920674
0.331648 0.0107383 0.921426
0.330531 0.0100772 0.922076
0.329412 0.00941522 0.922722
0.328269 0.00874329 0.923302
0.327104 0.0080615 0.923817
0.325911 0.00736775 0.92425
0.324765 0.00669407 0.924817
0.323596 0.00601087 0.925319
0.322409 0.00531968 0.925766
0.321269 0.0046491 0.926352
0.320127 0.0039774 0.926931
0.318962 0.0032959 0.927441
0.317799 0.00261526 0.927957
0.31666 0.00194486 0.928543
0.315498 0.00126449 0.929059
0.314308 0.000572585 0.929492
0.31309 -0.000131255 0.929836
0.311868 -0.000836466 0.930167
0.310624 -0.00155125 0.930426
0.309408 -0.0022538 0.930769
0.308125 -0.00298413 0.930904
0.306693 -0.00377706 0.930567
0.304981 -0.00468693 0.929341
0.30307 -0.00567933 0.927467
0.301075 -0.00670554 0.925303
0.299021 -0.00775479 0.922923
0.297143 -0.00872969 0.921074
0.295517 -0.00959824 0.920016
0.29405 -0.0104005 0.919452
0.292644 -0.0111772 0.919074
0.291371 -0.0118983 0.919122
0.290143 -0.0126003 0.919315
0.288943 -0.0132908 0.919596
0.287811 -0.0139535 0.920098
0.286704 -0.0146057 0.920683
0.285701 -0.0152157 0.921616
0.284724 -0.015815 0.922644
0.283752 -0.0164124 0.923694
0.282802 -0.0170015 0.924821
0.282158 -0.0174665 0.927007
0.281827 -0.0178058 0.930293
0.28186 -0.0179996 0.934872
0.28228 -0.0180398 0.940848
0.282708 -0.0180793 0.946913
0.282939 -0.0182011 0.952339
0.282758 -0.0184898 0.956357
0.282291 -0.0188946 0.959397
0.281594 -0.0193918 0.961635
0.281091 -0.0198129 0.964594
0.280838 -0.0201366 0.968486
0.28139 -0.0201439 0.975358
0.282388 -0.0199787 0.983939
0.283322 -0.0198429 0.992381
0.283951 -0.0198308 0.999775
0.284133 -0.0199976 1.00558
0.28355 -0.0204655 1.00857
0.282449 -0.0211359 1.00963
0.281427 -0.0217764 1.01099
0.392337 0.0412671 0.963363
0.391056 0.0405206 0.963863
0.389646 0.0397169 0.964045
0.38809 0.0388487 0.963863
0.386627 0.0380218 0.963904
0.385078 0.0371571 0.963725
0.383564 0.0363082 0.963626
0.382261 0.0355531 0.964053
0.38098 0.0348076 0.964533
0.352507 0.020874 0.920563
0.351193 0.020125 0.920726
0.349799 0.0193418 0.920677
0.347857 0.0183197 0.919163
0.34613 0.0173924 0.918206
0.344537 0.0165239 0.917593
0.34301 0.0156846 0.917147
0.341552 0.0148756 0.916878
0.34027 0.0141428 0.917077
0.339043 0.0134346 0.917428
0.33782 0.0127277 0.917783
0.336593 0.0120194 0.918126
0.335415 0.0113325 0.918605
0.334275 0.0106617 0.919186
0.333122 0.00998549 0.919732
0.332044 0.00934113 0.920486
0.330961 0.00869478 0.92123
0.329875 0.00804705 0.921966
0.328765 0.00738905 0.922635
0.327655 0.00673097 0.923305
0.326515 0.0060603 0.92389
0.325399 0.00539976 0.924545
0.324288 0.00474075 0.925212
0.32313 0.00406235 0.925745
0.321991 0.0033921 0.926334
0.320846 0.00271925 0.926906
0.319677 0.00203578 0.927402
0.318488 0.00134443 0.927841
0.317349 0.000674032 0.928427
0.31621 3.58516e-06 0.929014
0.315047 -0.000676646 0.929529
0.313857 -0.00136815 0.929962
0.312665 -0.00206066 0.930386
0.311473 -0.00275322 0.930806
0.310284 -0.00344423 0.931236
0.309072 -0.00414443 0.931595
0.307741 -0.00489434 0.931576
0.306158 -0.0057477 0.930765
0.304385 -0.0066784 0.929344
0.302547 -0.00763542 0.927692
0.300599 -0.00863617 0.925671
0.298768 -0.00958757 0.923997
0.297163 -0.0104457 0.923023
0.295476 -0.0113362 0.92177
0.293837 -0.0122066 0.92065
0.292316 -0.0130276 0.919902
0.290873 -0.013817 0.919392
0.289474 -0.0145873 0.91902
0.288386 -0.0152322 0.919663
0.287303 -0.0158747 0.920327
0.286305 -0.0164828 0.921279
0.285331 -0.0170818 0.922313
0.28436 -0.0176799 0.923361
0.283705 -0.0181515 0.925494
0.283428 -0.0184736 0.928937
0.283515 -0.0186525 0.933661
0.28396 -0.0186911 0.939676
0.284625 -0.0186458 0.946514
0.284887 -0.0187626 0.952012
0.28485 -0.0190001 0.956513
0.284407 -0.0193998 0.959615
0.28366 -0.0199197 0.961669
0.28286 -0.0204611 0.963545
0.282246 -0.0209306 0.966109
0.28241 -0.0210983 0.971511
0.28336 -0.0209635 0.979832
0.28446 -0.0207748 0.98879
0.285407 -0.02065 0.997277
0.286001 -0.0206655 1.00455
0.285677 -0.0210374 1.00848
0.284689 -0.0216658 1.00996
0.283528 -0.0223605 1.0108
0.393823 0.0402255 0.96505
0.392481 0.0394525 0.965412
0.39106 0.0386445 0.965575
0.389405 0.0377337 0.965156
0.387873 0.0368773 0.965032
0.386284 0.0359968 0.964763
0.384676 0.0351079 0.964436
0.383313 0.0343268 0.964718
0.382024 0.0335782 0.965182
0.380656 0.032795 0.965444
0.355448 0.0205598 0.926315
0.353624 0.0195905 0.925168
0.351845 0.0186412 0.924123
0.349691 0.0175314 0.92207
0.347758 0.0165177 0.920581
0.345937 0.0155532 0.919374
0.344249 0.0146464 0.918506
0.342641 0.0137747 0.917841
0.34124 0.0129916 0.917725
0.3399 0.0122351 0.917768
0.338561 0.0114795 0.917812
0.337218 0.0107221 0.917837
0.335957 0.0100001 0.918085
0.334733 0.00929393 0.918431
0.333548 0.00860413 0.918883
0.332444 0.00794893 0.919563
0.33139 0.00731492 0.920385
0.33034 0.00668216 0.921219
0.329266 0.00603919 0.921987
0.328211 0.0054044 0.922812
0.327125 0.00475642 0.92355
0.326063 0.0041179 0.924356
0.325007 0.00348217 0.925184
0.323904 0.00282703 0.92588
0.322768 0.00215758 0.926476
0.321617 0.00148215 0.927031
0.320418 0.000786513 0.927441
0.3192 8.34916e-05 0.927796
0.318037 -0.000596794 0.928311
0.316898 -0.00126724 0.928898
0.315759 -0.00193773 0.929484
0.314596 -0.00261779 0.93
0.313432 -0.00329856 0.930509
0.312267 -0.00397941 0.931017
0.311104 -0.00465986 0.931526
0.309917 -0.00534955 0.931964
0.30868 -0.00605967 0.932246
0.307274 -0.00683891 0.931992
0.305689 -0.00769005 0.931171
0.304068 -0.00855485 0.930225
0.30231 -0.00947433 0.928827
0.30058 -0.0103821 0.927493
0.298978 -0.0112367 0.926555
0.297171 -0.012173 0.924939
0.295534 -0.0130399 0.923851
0.294044 -0.0138475 0.92322
0.292366 -0.014729 0.921967
0.290733 -0.0155921 0.920838
0.289598 -0.0162557 0.921341
0.288239 -0.0170086 0.921095
0.286972 -0.0177246 0.921149
0.28598 -0.0183313 0.922124
0.285328 -0.0188046 0.924247
0.285035 -0.0191371 0.927609
0.285157 -0.0193085 0.932418
0.285644 -0.0193392 0.938525
0.286471 -0.0192405 0.945864
0.286941 -0.0192843 0.952045
0.287015 -0.019485 0.956902
0.286602 -0.0198771 0.960098
0.285845 -0.0204038 0.962105
0.284819 -0.0210347 0.963179
0.283891 -0.0216284 0.964606
0.28312 -0.0221623 0.966605
0.283757 -0.0221581 0.973702
0.285154 -0.0218675 0.983632
0.286432 -0.0216277 0.993238
0.287391 -0.0215139 1.00177
0.287961 -0.0215519 1.00896
0.287189 -0.0221007 1.01124
0.285819 -0.0228751 1.01131
0.284583 -0.0235989 1.01187
0.395177 0.0391196 0.966411
0.393853 0.038354 0.96682
0.392421 0.0375421 0.966966
0.390816 0.0366549 0.966679
0.389209 0.0357673 0.96638
0.387576 0.0348686 0.966007
0.385885 0.0339458 0.965483
0.384409 0.0331162 0.965487
0.383073 0.0323473 0.965837
0.381695 0.0315602 0.966077
0.358283 0.0201774 0.931764
0.356088 0.0190518 0.929673
0.353971 0.0179609 0.927764
0.351687 0.0168002 0.925393
0.349616 0.0157312 0.923558
0.347626 0.0146975 0.921915
0.345773 0.0137232 0.920622
0.343984 0.0127766 0.919482
0.342399 0.0119175 0.918881
0.340881 0.0110866 0.918448
0.339398 0.0102711 0.918101
0.337946 0.00946898 0.917831
0.336623 0.00872139 0.917908
0.335313 0.00797992 0.918019
0.334094 0.00727626 0.918376
0.332959 0.00660802 0.918966
0.331904 0.00597322 0.919782
0.330882 0.00535144 0.920691
0.329865 0.00473219 0.921619
0.328843 0.00411049 0.922535
0.327787 0.00347465 0.923359
0.326777 0.00285732 0.924314
0.325749 0.00223293 0.925224
0.324675 0.00158913 0.926002
0.323568 0.000931695 0.926685
0.322417 0.000255994 0.927239
0.321212 -0.000441574 0.927636
0.31999 -0.00114602 0.927981
0.318825 -0.00182696 0.928493
0.317664 -0.00250645 0.929014
0.316523 -0.00317794 0.929595
0.315357 -0.00385924 0.930102
0.314192 -0.00454002 0.930612
0.31303 -0.00521994 0.931127
0.311891 -0.00589039 0.931714
0.310728 -0.00657003 0.932229
0.30954 -0.00726041 0.932661
0.308277 -0.00798017 0.932863
0.306895 -0.0087477 0.932686
0.305484 -0.00952643 0.93241
0.303959 -0.0103501 0.931765
0.302409 -0.0111831 0.931027
0.300907 -0.0119961 0.930431
0.29921 -0.0128858 0.929195
0.297637 -0.0137259 0.928338
0.296192 -0.0145141 0.927885
0.294563 -0.0153745 0.92682
0.292991 -0.0162118 0.925922
0.291496 -0.017018 0.925264
0.2898 -0.0179017 0.923929
0.288177 -0.0187564 0.922812
0.28718 -0.0193663 0.923778
0.286573 -0.0198254 0.926059
0.286675 -0.0200109 0.930762
0.287213 -0.0200306 0.93699
0.288081 -0.0199264 0.94441
0.288578 -0.0199685 0.950627
0.288661 -0.0201727 0.955477
0.288364 -0.0205239 0.959052
0.287594 -0.0210578 0.961001
0.286554 -0.0216947 0.962019
0.285574 -0.022309 0.96325
0.284719 -0.0228767 0.964935
0.28397 -0.0234049 0.967014
0.285067 -0.0232398 0.975749
0.286584 -0.0229222 0.986095
0.287925 -0.0226759 0.995915
0.288895 -0.0225738 1.00448
0.289477 -0.0226204 1.01171
0.288305 -0.0233209 1.01253
0.286886 -0.024113 1.01242
0.285622 -0.0248475 1.01288
0.396632 0.038051 0.968008
0.395274 0.0372708 0.968342
0.393809 0.0364452 0.968415
0.392241 0.0355753 0.968228
0.39056 0.0346574 0.967756
0.388844 0.0337251 0.967187
0.387108 0.0327846 0.966558
0.385548 0.0319203 0.966359
0.384157 0.0311281 0.966575
0.382685 0.0303017 0.966585
0.362482 0.0205444 0.937067
0.360384 0.0194632 0.935276
0.358201 0.0183472 0.93324
0.356046 0.0172443 0.931254
0.353671 0.0160504 0.928666
0.351501 0.0149438 0.926589
0.349433 0.0138811 0.92476
0.347507 0.012879 0.923288
0.345614 0.011892 0.921887
0.343895 0.0109783 0.920937
0.342215 0.0100818 0.920079
0.340548 0.00919119 0.919242
0.338918 0.00831681 0.918494
0.337431 0.00750209 0.918125
0.336007 0.00671406 0.917922
0.334728 0.00598634 0.918114
0.333537 0.00529472 0.918546
0.332454 0.00464812 0.919283
0.331454 0.0040352 0.920252
0.330463 0.00342563 0.921249
0.329473 0.00281668 0.922256
0.328473 0.00220292 0.923235
0.327542 0.0016175 0.924418
0.326569 0.0010146 0.925486
0.325553 0.000393928 0.926434
0.324473 -0.000253102 0.927197
0.323322 -0.000928677 0.927756
0.322088 -0.00163782 0.92807
0.320839 -0.00235255 0.92834
0.31965 -0.00304358 0.92878
0.318487 -0.00372368 0.929299
0.317344 -0.00439587 0.929878
0.316174 -0.00507868 0.930375
0.315007 -0.00576068 0.930877
0.313841 -0.00644169 0.931386
0.312702 -0.00711246 0.931973
0.311539 -0.00779235 0.932488
0.310351 -0.00848197 0.932927
0.309137 -0.00918216 0.933281
0.307895 -0.00989296 0.933547
0.306677 -0.0105944 0.933884
0.305377 -0.0113278 0.93396
0.304055 -0.0120698 0.933959
0.302772 -0.0127961 0.934077
0.301265 -0.0136092 0.933475
0.299801 -0.014405 0.932999
0.29697 -0.0159573 0.932328
0.295444 -0.0167756 0.931616
0.293858 -0.0176159 0.930694
0.292148 -0.0185036 0.929343
0.290457 -0.0193825 0.928038
0.289462 -0.019994 0.929037
0.288873 -0.0204509 0.931403
0.289027 -0.0206259 0.936297
0.289632 -0.0206326 0.942765
0.290138 -0.0206794 0.948964
0.290283 -0.0208665 0.953984
0.290002 -0.0212169 0.957581
0.289397 -0.0216902 0.960089
0.288343 -0.0223329 0.961054
0.287371 -0.0229451 0.962308
0.286418 -0.023551 0.963637
0.285611 -0.0241028 0.965493
0.284867 -0.0246321 0.967586
0.286345 -0.0243418 0.977667
0.28794 -0.0240139 0.988275
0.289302 -0.0237776 0.998154
0.290278 -0.0236884 1.00673
0.290868 -0.0237451 1.01398
0.289348 -0.0245734 1.01352
0.287882 -0.0253811 1.01325
0.286618 -0.0261157 1.01373
0.396744 0.0362022 0.969978
0.395235 0.0353582 0.96995
0.393658 0.0344859 0.969751
0.391896 0.0335355 0.96909
0.390103 0.0325727 0.96834
0.388258 0.0315881 0.967447
0.386616 0.0306904 0.96705
0.385058 0.0298285 0.966853
0.383419 0.0289331 0.966446
0.36447 0.0215804 0.938554
0.366889 0.0227998 0.941128
0.36812 0.0216946 0.942328
0.365429 0.0203672 0.939067
0.363721 0.0194523 0.938312
0.361829 0.0184612 0.937067
0.359805 0.0174162 0.935461
0.357727 0.0163498 0.933694
0.355551 0.015244 0.931648
0.353335 0.0141228 0.92947
0.351244 0.0130548 0.927601
0.349263 0.0120332 0.926
0.347325 0.0110309 0.924498
0.345504 0.0100774 0.923288
0.343686 0.00912618 0.922071
0.34183 0.00816072 0.920736
0.340039 0.00722238 0.919558
0.338399 0.00634669 0.918777
0.336858 0.00551232 0.918259
0.335498 0.0047519 0.918227
0.334276 0.00404824 0.918576
0.333139 0.00337928 0.919161
0.332112 0.00275455 0.920053
0.331119 0.00214376 0.921046
0.330156 0.00154463 0.922126
0.329188 0.000943212 0.923196
0.328316 0.000380382 0.924547
0.327375 -0.000210942 0.925705
0.326413 -0.000810489 0.926811
0.325361 -0.00144661 0.927659
0.324213 -0.00212123 0.928228
0.323003 -0.00282057 0.928616
0.321774 -0.00352695 0.928948
0.320586 -0.00421746 0.929396
0.319424 -0.00489735 0.929921
0.318303 -0.00556088 0.930569
0.317104 -0.00625522 0.930983
0.315908 -0.00694843 0.931404
0.314715 -0.00764021 0.931833
0.313549 -0.00832146 0.932343
0.312361 -0.00901151 0.932781
0.311193 -0.0096934 0.933282
0.310001 -0.0103846 0.933708
0.308761 -0.0110941 0.933985
0.307568 -0.0117857 0.934401
0.306449 -0.0124482 0.935052
0.305294 -0.0131249 0.935588
0.304209 -0.0137746 0.936346
0.303022 -0.0144634 0.93678
0.301827 -0.0151553 0.937187
0.300694 -0.0158233 0.937793
0.299298 -0.0165915 0.937546
0.297911 -0.0173558 0.93732
0.296336 -0.0181913 0.936467
0.294686 -0.0190541 0.935353
0.292945 -0.0199501 0.93392
0.291935 -0.0205696 0.934902
0.29132 -0.0210416 0.937205
0.291485 -0.0212223 0.942155
0.291676 -0.0213959 0.947242
0.291827 -0.0215873 0.952238
0.291601 -0.0219212 0.955995
0.291005 -0.0223943 0.958509
0.29016 -0.0229601 0.960189
0.289179 -0.0235769 0.961405
0.288259 -0.0241714 0.962842
0.287379 -0.0247521 0.964429
0.286621 -0.0252884 0.96646
0.285881 -0.0258194 0.968571
0.287294 -0.0255703 0.978395
0.2888 -0.0252931 0.988657
0.290119 -0.0250898 0.998351
0.291087 -0.025018 1.00688
0.291693 -0.0250809 1.01417
0.290252 -0.025879 1.01401
0.288833 -0.0266691 1.01391
0.287611 -0.0273887 1.01455
0.398288 0.035157 0.971782
0.396618 0.0342468 0.971375
0.394988 0.0333534 0.971054
0.393149 0.0323729 0.970212
0.391281 0.0313808 0.969285
0.389356 0.0303658 0.968203
0.387607 0.0294254 0.967546
0.38596 0.0285278 0.967131
0.383994 0.0274982 0.965907
0.380907 0.0260034 0.961839
0.372325 0.0220235 0.947455
0.369114 0.020486 0.942916
0.366475 0.0191879 0.939803
0.364702 0.0182482 0.938885
0.362802 0.0172574 0.937627
0.360823 0.0162351 0.936148
0.35883 0.0152079 0.934611
0.356792 0.0141634 0.932936
0.354784 0.0131324 0.931321
0.352835 0.012127 0.929844
0.350909 0.0111316 0.928407
0.348975 0.0101342 0.926931
0.34715 0.00918186 0.925726
0.345185 0.00817396 0.924129
0.343162 0.00714382 0.922355
0.341204 0.00614094 0.920734
0.339403 0.00520264 0.919523
0.337745 0.00432306 0.918689
0.336325 0.00353988 0.918499
0.335075 0.00282524 0.918773
0.33391 0.00214493 0.91928
0.332855 0.00150858 0.920096
0.331836 0.000886353 0.921013
0.330898 0.000296038 0.922162
0.329933 -0.000304802 0.923243
0.32912 -0.000846082 0.924759
0.328214 -0.00142457 0.926018
0.327306 -0.00200403 0.927279
0.326257 -0.00263972 0.928137
0.325106 -0.00331533 0.928703
0.323869 -0.00402496 0.929016
0.322665 -0.00472153 0.929423
0.321477 -0.00541169 0.929875
0.320341 -0.00608131 0.930482
0.319248 -0.00673433 0.931216
0.318074 -0.00741904 0.931708
0.316876 -0.00811315 0.932126
0.315679 -0.00880642 0.932547
0.314485 -0.00949841 0.932977
0.313268 -0.0101996 0.933331
0.312071 -0.0108923 0.933749
0.310872 -0.0115861 0.934157
0.309632 -0.0122956 0.934434
0.308462 -0.012978 0.934928
0.307368 -0.0136314 0.935659
0.30626 -0.0142901 0.936349
0.305208 -0.0149281 0.937213
0.304312 -0.0155067 0.938581
0.303413 -0.0160875 0.939944
0.302566 -0.0166488 0.941484
0.301443 -0.0173142 0.942143
0.300342 -0.0179716 0.942872
0.298748 -0.0188127 0.941994
0.29715 -0.0196549 0.941085
0.295479 -0.020523 0.939919
0.294497 -0.0211348 0.941025
0.293843 -0.0216261 0.943228
0.293598 -0.0219678 0.946822
0.293379 -0.022302 0.950533
0.293153 -0.0226405 0.954258
0.292565 -0.0231127 0.956781
0.291682 -0.023694 0.958317
0.290889 -0.0242433 0.960167
0.289981 -0.0248345 0.961636
0.289115 -0.0254114 0.963259
0.28831 -0.025967 0.965113
0.287582 -0.0264956 0.967248
0.286868 -0.0270206 0.969449
0.288169 -0.0268284 0.978853
0.289623 -0.0265877 0.988903
0.290891 -0.0264187 0.998389
0.291843 -0.0263671 1.00683
0.292441 -0.0264452 1.01407
0.29112 -0.0272 1.01435
0.289748 -0.0279724 1.01444
0.288552 -0.0286829 1.01517
0.399466 0.0339524 0.972694
0.397646 0.0329812 0.971928
0.396007 0.0320858 0.97159
0.394155 0.0311029 0.970723
0.392213 0.0300833 0.969621
0.390216 0.0290418 0.968368
0.388393 0.0280731 0.96753
0.38647 0.0270641 0.966431
0.384218 0.0259203 0.96449
0.38102 0.0243898 0.96015
0.376704 0.0240479 0.954904
0.377333 0.0226612 0.954529
0.373542 0.0208933 0.948589
0.370356 0.0193761 0.944133
0.367611 0.0180414 0.940762
0.3657 0.0170484 0.939498
0.363727 0.0160313 0.93806
0.361776 0.0150241 0.936658
0.359872 0.0140372 0.935363
0.357956 0.0130463 0.934018
0.356064 0.0120664 0.93272
0.354231 0.0111112 0.93156
0.352391 0.0101536 0.930363
0.350512 0.00918193 0.929049
0.34869 0.00823407 0.927869
0.34667 0.00720774 0.926139
0.344549 0.00614245 0.924116
0.342459 0.00509058 0.92215
0.340526 0.0041028 0.920591
0.338751 0.00317937 0.919446
0.337245 0.0023632 0.919024
0.335988 0.00164601 0.919281
0.33482 0.000964537 0.919784
0.333743 0.000318784 0.920539
0.332719 -0.000306143 0.921445
0.331803 -0.00088883 0.922658
0.330813 -0.00150079 0.923669
0.32998 -0.00205162 0.925129
0.329074 -0.00263161 0.926389
0.32819 -0.00320321 0.927719
0.32714 -0.00383981 0.928577
0.326016 -0.00450523 0.929223
0.324804 -0.00520463 0.929614
0.323622 -0.00589251 0.930089
0.322436 -0.00658197 0.930552
0.321305 -0.00725027 0.931175
0.320239 -0.00789326 0.931994
0.31907 -0.00857602 0.932507
0.317872 -0.00926981 0.932931
0.316671 -0.00996474 0.933344
0.315471 -0.0106591 0.933759
0.314226 -0.0113707 0.934034
0.313003 -0.0120735 0.934374
0.311802 -0.0127678 0.934781
0.310581 -0.0134695 0.935123
0.309412 -0.0141516 0.935625
0.308319 -0.0148053 0.936361
0.307259 -0.0154467 0.937204
0.306251 -0.0160688 0.938214
0.305338 -0.0166558 0.93953
0.304405 -0.0172507 0.94079
0.30349 -0.017839 0.942116
0.302594 -0.0184213 0.943508
0.301722 -0.0189952 0.944987
0.300458 -0.019713 0.945201
0.299195 -0.0204308 0.945409
0.297846 -0.0211796 0.945333
0.296894 -0.0217832 0.946565
0.2959 -0.0224027 0.947663
0.295259 -0.0228946 0.949948
0.294692 -0.0233611 0.952498
0.294149 -0.0238201 0.955149
0.29327 -0.0244008 0.956685
0.29244 -0.0249647 0.958395
0.291713 -0.0254928 0.960475
0.29086 -0.0260665 0.962132
0.290067 -0.0266194 0.964012
0.289316 -0.0271584 0.966053
0.288615 -0.027681 0.968283
0.287879 -0.0282166 0.970409
0.28904 -0.0280897 0.979294
0.290368 -0.0279104 0.988868
0.291534 -0.0277937 0.997959
0.292439 -0.0277723 1.00621
0.293052 -0.0278567 1.01348
0.29186 -0.0285664 1.01422
0.290567 -0.0293108 1.0146
0.289469 -0.029988 1.0157
0.288379 -0.0290389 1.01972
0.288395 -0.0306577 1.0169
0.400175 0.0325506 0.972469
0.398387 0.0315955 0.971783
0.396732 0.0306952 0.971408
0.39488 0.0297151 0.970544
0.392897 0.0286823 0.969344
0.390891 0.0276408 0.968072
0.389 0.0266474 0.967069
0.386885 0.0255636 0.965494
0.384462 0.0243561 0.963132
0.381274 0.0228396 0.958821
0.377944 0.0212681 0.954109
0.37464 0.0197102 0.949417
0.371572 0.0182503 0.945278
0.368825 0.0169224 0.941917
0.366807 0.0158898 0.94039
0.364794 0.0148603 0.938856
0.362833 0.0138527 0.937438
0.360953 0.0128789 0.936213
0.359092 0.0119135 0.935021
0.35723 0.010949 0.933812
0.355452 0.0100184 0.932804
0.353664 0.00908509 0.931758
0.351867 0.00814911 0.930673
0.350102 0.00722681 0.929658
0.348161 0.00623549 0.928154
0.34604 0.00517471 0.926147
0.343908 0.00411088 0.924085
0.341884 0.00309086 0.922293
0.339986 0.00212174 0.920823
0.338363 0.00126124 0.920089
0.337046 0.000521398 0.920189
0.335822 -0.000182155 0.920541
0.334719 -0.000838701 0.921227
0.333696 -0.00146413 0.922139
0.332777 -0.00204919 0.923347
0.331782 -0.00266422 0.924345
0.330945 -0.00321871 0.925794
0.330034 -0.00380207 0.927042
0.329147 -0.00437615 0.928368
0.328096 -0.00501425 0.929223
0.326973 -0.00567939 0.929877
0.32576 -0.00637921 0.930267
0.32458 -0.0070663 0.930754
0.323391 -0.00775672 0.931212
0.322286 -0.00841544 0.931916
0.321249 -0.00904861 0.932821
0.320107 -0.00972112 0.933421
0.318936 -0.010405 0.93393
0.317736 -0.0110995 0.934352
0.316508 -0.0118043 0.93469
0.315233 -0.0125263 0.934883
0.31398 -0.0132402 0.935137
0.312756 -0.0139432 0.935475
0.311536 -0.0146444 0.935825
0.310369 -0.0153259 0.936337
0.309277 -0.0159797 0.937081
0.308237 -0.0166144 0.937991
0.307252 -0.0172291 0.939076
0.306315 -0.0178263 0.940321
0.305354 -0.0184331 0.941494
0.304412 -0.0190332 0.942734
0.303466 -0.0196353 0.943966
0.302521 -0.0202372 0.945211
0.301555 -0.020847 0.946396
0.300634 -0.0214415 0.947729
0.299637 -0.0220633 0.948824
0.298681 -0.0226708 0.95006
0.297658 -0.0233027 0.951079
0.296682 -0.0239182 0.952259
0.295773 -0.0245101 0.953672
0.294917 -0.0250841 0.955271
0.294068 -0.025656 0.956907
0.293286 -0.0262054 0.958778
0.292589 -0.0267256 0.960955
0.291807 -0.0272766 0.962857
0.291066 -0.0278142 0.96492
0.290365 -0.0283389 0.967135
0.289665 -0.0288646 0.969371
0.289218 -0.0293038 0.972516
0.290234 -0.0292425 0.980875
0.291393 -0.029138 0.989827
0.292437 -0.0290782 0.998461
0.293254 -0.029101 1.00637
0.293529 -0.029312 1.0124
0.292424 -0.0299922 1.01346
0.291236 -0.0307003 1.01422
0.290198 -0.0313587 1.01554
0.289182 -0.0320098 1.01694
0.402342 0.0319677 0.972124
0.400646 0.0310521 0.97167
0.398823 0.0300856 0.9709
0.397147 0.0291793 0.970474
0.395297 0.0282032 0.969615
0.393316 0.027175 0.968421
0.391309 0.026137 0.967147
0.389314 0.0251053 0.965888
0.387089 0.0239819 0.964039
0.384578 0.0227451 0.961457
0.381623 0.0213321 0.957736
0.378529 0.0198657 0.953625
0.375476 0.0184185 0.949578
0.372644 0.017062 0.94605
0.370076 0.015813 0.943159
0.367925 0.0147313 0.941302
0.365854 0.0136826 0.939629
0.363886 0.0126761 0.938203
0.361969 0.0116908 0.936889
0.360125 0.0107357 0.935751
0.358291 0.00978524 0.934622
0.356517 0.00885928 0.933634
0.354753 0.00793846 0.93266
0.353002 0.00702341 0.931705
0.351263 0.00611359 0.930766
0.349407 0.00515952 0.929503
0.347402 0.00414852 0.927821
0.345331 0.00311294 0.925939
0.343354 0.00211503 0.924288
0.341439 0.00114271 0.922787
0.339745 0.000257021 0.921873
0.33836 -0.000508717 0.921795
0.33708 -0.00123418 0.921999
0.335921 -0.00191246 0.922539
0.33487 -0.00254969 0.923378
0.333922 -0.00314764 0.924509
0.332874 -0.00378392 0.925363
0.331979 -0.00436251 0.926651
0.331005 -0.0049709 0.927725
0.330062 -0.00556836 0.928889
0.328984 -0.00621721 0.92967
0.327867 -0.0068806 0.930342
0.326681 -0.00756996 0.930816
0.325527 -0.0082473 0.93138
0.324359 -0.00892978 0.931905
0.323249 -0.00959077 0.932598
0.32221 -0.0102254 0.933502
0.321069 -0.0108978 0.934108
0.319902 -0.0115804 0.934633
0.318699 -0.0122757 0.935053
0.317471 -0.0129806 0.935392
0.316217 -0.0136944 0.935654
0.314988 -0.014399 0.935987
0.313787 -0.0150934 0.936402
0.31259 -0.0157859 0.93683
0.311449 -0.0164585 0.937426
0.310332 -0.0171218 0.9381
0.309267 -0.0177666 0.938935
0.308252 -0.0183933 0.939932
0.307289 -0.0190017 0.941096
0.306306 -0.0196177 0.942201
0.305337 -0.0202288 0.943359
0.304365 -0.0208417 0.944509
0.303392 -0.0214548 0.945668
0.302403 -0.0220745 0.946774
0.301453 -0.0226805 0.948017
0.300453 -0.0233043 0.949103
0.299495 -0.023914 0.950331
0.298472 -0.0245467 0.951351
0.297518 -0.0251557 0.952606
0.296614 -0.0257476 0.954034
0.29576 -0.0263228 0.955641
0.294917 -0.0268952 0.957293
0.294179 -0.0274316 0.959313
0.293512 -0.0279447 0.961596
0.29278 -0.0284811 0.963672
0.292072 -0.0290104 0.965844
0.291393 -0.029531 0.968137
0.290623 -0.0300835 0.97013
0.290102 -0.0305528 0.973013
0.290954 -0.0305612 0.980773
0.291964 -0.0305218 0.989169
0.292895 -0.0305141 0.997374
0.293654 -0.030569 1.00505
0.293921 -0.0307923 1.01102
0.292901 -0.0314444 1.01238
0.291821 -0.0321171 1.01353
0.290838 -0.0327582 1.01505
0.289875 -0.0333936 1.01664
0.288139 -0.0326708 1.01826
0.288862 -0.0340458 1.01806
0.402668 0.0304112 0.970982
0.400868 0.0294562 0.970276
0.398958 0.0284577 0.969292
0.397278 0.0275527 0.968854
0.39544 0.0265848 0.968022
0.393495 0.0255749 0.966914
0.391591 0.0245822 0.965891
0.389632 0.0235689 0.964721
0.387474 0.0224773 0.96304
0.384969 0.0212494 0.960477
0.382309 0.0199619 0.957497
0.379437 0.0185928 0.953956
0.376609 0.0172432 0.950487
0.373921 0.0159511 0.947338
0.371547 0.0147844 0.944952
0.369261 0.0136542 0.942766
0.367095 0.0125724 0.940862
0.365031 0.0115323 0.939201
0.363071 0.0105337 0.937787
0.36119 0.00956688 0.936558
0.359324 0.00860699 0.935353
0.357579 0.00769533 0.934451
0.355866 0.00679709 0.93362
0.354114 0.00588426 0.932671
0.352393 0.00498423 0.931789
0.350623 0.00406648 0.930765
0.348741 0.00310633 0.929423
0.346769 0.00211307 0.927823
0.344877 0.00115155 0.926417
0.342979 0.000189053 0.924978
0.341265 -0.000702212 0.924023
0.339788 -0.00150228 0.923706
0.338443 -0.00225197 0.923742
0.337246 -0.00294544 0.924183
0.336164 -0.00359522 0.924944
0.335163 -0.0042146 0.925933
0.334085 -0.00486321 0.92671
0.33313 -0.00546584 0.927835
0.332073 -0.00610702 0.928676
0.331043 -0.00673806 0.929598
0.329909 -0.00740851 0.93022
0.328761 -0.00808348 0.930809
0.327557 -0.00877959 0.931232
0.326402 -0.00945744 0.931797
0.325236 -0.0101396 0.932327
0.32412 -0.0108029 0.933007
0.323078 -0.0114395 0.933903
0.321984 -0.0120949 0.934651
0.320841 -0.0127684 0.935253
0.319666 -0.0134536 0.935759
0.31846 -0.0141501 0.936172
0.317203 -0.0148652 0.936426
0.315952 -0.0155777 0.936696
0.314752 -0.0162715 0.93712
0.313581 -0.0169546 0.937633
0.312437 -0.0176282 0.938227
0.311318 -0.018293 0.938897
0.310248 -0.0189401 0.939722
0.30923 -0.019569 0.940712
0.308244 -0.0201869 0.941807
0.307257 -0.0208055 0.942903
0.306265 -0.0214263 0.943987
0.305289 -0.0220416 0.94513
0.304294 -0.0226639 0.946217
0.303278 -0.0232941 0.94724
0.302305 -0.0239094 0.948409
0.301304 -0.0245348 0.949493
0.300327 -0.0251526 0.950658
0.299326 -0.0257785 0.951754
0.298373 -0.0263884 0.953013
0.297493 -0.0269743 0.95452
0.296642 -0.0275503 0.956134
0.295816 -0.0281187 0.957846
0.295079 -0.0286577 0.959872
0.294438 -0.0291652 0.962242
0.293739 -0.0296935 0.964427
0.293055 -0.0302181 0.966687
0.292357 -0.0307483 0.968911
0.291532 -0.031322 0.970711
0.291236 -0.0317211 0.974381
0.291948 -0.0317893 0.981633
0.29287 -0.0317932 0.9897
0.29368 -0.031839 0.997454
0.29436 -0.0319327 1.00482
0.294315 -0.032267 1.00966
0.29337 -0.0328959 1.01128
0.29234 -0.033553 1.0126
0.291386 -0.0341862 1.01421
0.290449 -0.0348146 1.0159
0.289457 -0.0354612 1.01739
0.402474 0.0286521 0.968604
0.400724 0.0277204 0.968012
0.398901 0.02676 0.967231
0.397181 0.0258416 0.96669
0.39542 0.0249075 0.966039
0.393552 0.0239319 0.965114
0.391729 0.022975 0.964287
0.389851 0.0219973 0.963313
0.387748 0.0209322 0.961768
0.385453 0.0197932 0.959728
0.383142 0.0186493 0.957624
0.38056 0.0174018 0.954821
0.377979 0.0161561 0.951988
0.375443 0.0149298 0.949236
0.373039 0.0137571 0.946793
0.370606 0.0125748 0.944248
0.368329 0.0114546 0.942074
0.366139 0.0103695 0.940097
0.364165 0.00936921 0.938657
0.3623 0.00841179 0.937479
0.36043 0.00745386 0.936274
0.358662 0.00653595 0.935319
0.357006 0.0056616 0.934644
0.355274 0.00475914 0.933756
0.353525 0.00385108 0.932811
0.351838 0.0029673 0.932014
0.350071 0.0020543 0.930994
0.348197 0.00110169 0.929669
0.346398 0.000178777 0.928531
0.344551 -0.000761536 0.927244
0.342831 -0.00165272 0.926288
0.341317 -0.00246561 0.925883
0.339908 -0.00323892 0.925755
0.338673 -0.00394706 0.9261
0.337577 -0.00460305 0.926832
0.336519 -0.00524489 0.927671
0.335413 -0.00590488 0.928377
0.334401 -0.00653003 0.92935
0.333255 -0.00720494 0.929945
0.332132 -0.0078716 0.930605
0.330958 -0.00855656 0.931124
0.329781 -0.00924291 0.93163
0.328578 -0.00993874 0.932061
0.3274 -0.0106252 0.932564
0.326202 -0.0113188 0.933008
0.325031 -0.0120027 0.933529
0.323961 -0.0126499 0.934346
0.322871 -0.0133046 0.935106
0.321755 -0.0139686 0.935792
0.320607 -0.0146444 0.936381
0.319448 -0.0153238 0.93694
0.318218 -0.0160287 0.937282
0.316992 -0.0167318 0.937636
0.315818 -0.0174164 0.938144
0.31467 -0.0180919 0.938732
0.313501 -0.0187751 0.939252
0.312354 -0.0194501 0.939842
0.311254 -0.0201084 0.94058
0.31021 -0.0207476 0.941491
0.309222 -0.0213675 0.942582
0.308238 -0.0219861 0.943692
0.307269 -0.0226 0.944855
0.306316 -0.0232088 0.946074
0.305318 -0.0238335 0.947155
0.304278 -0.0244729 0.948106
0.303329 -0.0250815 0.949356
0.30233 -0.0257075 0.95045
0.301331 -0.0263339 0.951549
0.300355 -0.026953 0.952727
0.299427 -0.027556 0.954074
0.298547 -0.0281435 0.955585
0.297672 -0.0287302 0.957125
0.296862 -0.0292957 0.958893
0.296124 -0.0298381 0.960915
0.295486 -0.0303484 0.963291
0.294793 -0.0308779 0.965507
0.294156 -0.0313903 0.967924
0.293501 -0.0319102 0.9703
0.292695 -0.0324802 0.972175
0.292571 -0.0328297 0.976441
0.293151 -0.0329531 0.983222
0.293856 -0.0330413 0.990512
0.294488 -0.0331575 0.997615
0.295013 -0.033313 1.00441
0.294688 -0.0337441 1.00823
0.293747 -0.0343729 1.00985
0.292764 -0.035016 1.01134
0.291829 -0.0356446 1.01301
0.290872 -0.0362807 1.01461
0.289856 -0.0369358 1.01601
0.402283 0.0269029 0.966243
0.400586 0.0259947 0.965768
0.39884 0.0250682 0.965169
0.397159 0.024168 0.964717
0.395434 0.023251 0.964147
0.393647 0.0223108 0.963417
0.391943 0.0214034 0.962877
0.390191 0.020478 0.962209
0.388337 0.0195139 0.961279
0.386297 0.018479 0.959876
0.384209 0.0174265 0.958334
0.381875 0.0162805 0.956159
0.379528 0.0151312 0.953927
0.377018 0.0139213 0.951262
0.374624 0.0127574 0.948858
0.372098 0.0115449 0.946093
0.369669 0.0103715 0.943546
0.367334 0.00923579 0.941211
0.365255 0.0081994 0.939512
0.363265 0.00719785 0.93802
0.361394 0.00624246 0.936817
0.359651 0.00533681 0.935935
0.358002 0.00446743 0.935284
0.356302 0.0035796 0.934488
0.354602 0.00269296 0.933682
0.352965 0.0018303 0.933027
0.351258 0.000942268 0.932174
0.349495 3.46829e-05 0.93116
0.347789 -0.000850947 0.930283
0.346029 -0.00175598 0.929245
0.344361 -0.00262574 0.928442
0.342846 -0.00343809 0.928045
0.341405 -0.00422243 0.927843
0.34016 -0.00493419 0.928174
0.33903 -0.00560343 0.928822
0.33789 -0.00627669 0.929441
0.336749 -0.00695011 0.930058
0.335677 -0.00759867 0.930868
0.334442 -0.00830626 0.931222
0.333203 -0.00901533 0.931561
0.331987 -0.00971605 0.931962
0.330752 -0.0104235 0.932308
0.329521 -0.0111291 0.932664
0.328342 -0.011816 0.933167
0.327163 -0.0125028 0.93367
0.325987 -0.0131886 0.93418
0.324891 -0.013846 0.934923
0.323803 -0.0145005 0.935692
0.322692 -0.015163 0.936396
0.321548 -0.0158375 0.937002
0.320392 -0.0165164 0.937571
0.319186 -0.0172124 0.937991
0.317985 -0.0179067 0.938424
0.316813 -0.0185908 0.938943
0.315665 -0.0192667 0.939534
0.314491 -0.0199515 0.940047
0.31334 -0.0206282 0.940629
0.312214 -0.0212963 0.941289
0.311167 -0.0219374 0.942194
0.310202 -0.0225503 0.943363
0.309223 -0.0231687 0.94449
0.30828 -0.0237751 0.945737
0.307354 -0.0243763 0.947044
0.30638 -0.024994 0.948209
0.305342 -0.0256341 0.949169
0.304413 -0.0262373 0.95049
0.303414 -0.0268648 0.951588
0.302417 -0.027492 0.952697
0.301442 -0.0281121 0.953885
0.300535 -0.02871 0.955304
0.299658 -0.0292989 0.956834
0.298805 -0.0298805 0.958449
0.297998 -0.0304475 0.960232
0.29728 -0.0309865 0.962326
0.296621 -0.0315073 0.964636
0.295924 -0.0320416 0.966836
0.295288 -0.0325576 0.969262
0.294708 -0.0330567 0.971901
0.294055 -0.0335811 0.974307
0.294155 -0.0338662 0.979355
0.29464 -0.0340325 0.985802
0.295189 -0.0341829 0.992536
0.295563 -0.034393 0.998719
0.295779 -0.0346568 1.0044
0.295114 -0.0352001 1.00699
0.294151 -0.0358369 1.00853
0.293164 -0.0364824 1.00999
0.292206 -0.0371191 1.01157
0.291224 -0.0377642 1.01307
0.290211 -0.0384197 1.01447
0.288734 -0.0376249 1.01702
0.28909 -0.0391083 1.01547
0.402276 0.0252339 0.964328
0.400638 0.0243515 0.963991
0.398908 0.0234342 0.963426
0.397267 0.022552 0.963065
0.395579 0.0216519 0.96258
0.39387 0.0207446 0.962035
0.392253 0.0198732 0.961704
0.390649 0.0190079 0.9614
0.389004 0.018127 0.960984
0.387179 0.0171781 0.960115
0.385308 0.0162124 0.959118
0.38325 0.0151769 0.957643
0.381105 0.0141093 0.95593
0.378693 0.0129419 0.953525
0.376322 0.011792 0.951198
0.373735 0.0105627 0.948299
0.371158 0.00933881 0.945392
0.36867 0.00815057 0.942682
0.366452 0.00706589 0.940637
0.364324 0.00601642 0.9388
0.362387 0.00503987 0.937436
0.360644 0.00413671 0.936559
0.359024 0.00328012 0.93599
0.357352 0.00240522 0.935276
0.355713 0.00154349 0.934637
0.354074 0.000682347 0.933986
0.352411 -0.000187162 0.933257
0.350676 -0.00108192 0.932327
0.349022 -0.00194606 0.9316
0.347347 -0.00281695 0.930804
0.345794 -0.00364274 0.930324
0.344338 -0.00443234 0.930099
0.342924 -0.0052058 0.929985
0.341677 -0.00591874 0.93032
0.340516 -0.00660016 0.930892
0.339317 -0.00729548 0.931356
0.338116 -0.00799138 0.931815
0.336981 -0.00866341 0.932457
0.335683 -0.00939388 0.932641
0.33438 -0.0101256 0.932809
0.333133 -0.0108375 0.933129
0.331894 -0.0115463 0.93347
0.330661 -0.0122525 0.933827
0.329479 -0.0129407 0.934329
0.328294 -0.0136302 0.934818
0.327063 -0.0143355 0.935175
0.325886 -0.0150216 0.935688
0.324742 -0.0156964 0.936295
0.323578 -0.0163779 0.936846
0.32241 -0.0170609 0.937383
0.321283 -0.0177297 0.938042
0.320105 -0.0184162 0.938548
0.318929 -0.0191019 0.939061
0.317779 -0.0197784 0.939652
0.31663 -0.0204549 0.940244
0.315454 -0.0211404 0.940755
0.314302 -0.021818 0.941336
0.313148 -0.0224957 0.941915
0.3121 -0.023138 0.942822
0.311185 -0.0237356 0.944146
0.310233 -0.0243462 0.945361
0.309326 -0.0249421 0.946726
0.30845 -0.0255284 0.948194
0.307502 -0.0261389 0.949447
0.306438 -0.0267886 0.950331
0.305509 -0.0273937 0.951655
0.304508 -0.0280234 0.952751
0.303507 -0.028653 0.953856
0.302555 -0.0292675 0.955122
0.301649 -0.029867 0.95655
0.300775 -0.0304571 0.958091
0.299948 -0.0310327 0.959799
0.299145 -0.031601 0.9616
0.298408 -0.0321491 0.963633
0.297747 -0.0326744 0.965941
0.297045 -0.0332139 0.968125
0.296388 -0.0337404 0.970477
0.295908 -0.034212 0.973463
0.295477 -0.0346705 0.976641
0.295515 -0.0349841 0.981473
0.295908 -0.0351902 0.987595
0.296288 -0.0354047 0.993728
0.296379 -0.0357128 0.998901
0.296244 -0.0360939 1.00333
0.295554 -0.0366473 1.00582
0.29455 -0.0372984 1.0072
0.293565 -0.0379441 1.00866
0.292608 -0.038582 1.01023
0.291628 -0.0392275 1.01173
0.290615 -0.0398834 1.01311
0.289519 -0.040565 1.0142
0.407182 0.0257114 0.970488
0.402309 0.0235874 0.962517
0.400792 0.0227537 0.962463
0.399141 0.0218696 0.962084
0.397536 0.021003 0.961805
0.395883 0.020119 0.961403
0.394249 0.019243 0.961039
0.392674 0.0183898 0.960809
0.391208 0.0175782 0.960837
0.389703 0.0167528 0.960768
0.388086 0.015885 0.960413
0.386429 0.015003 0.959951
0.38461 0.0140611 0.95908
0.382663 0.0130719 0.957874
0.380448 0.0119835 0.95598
0.378182 0.0108775 0.953934
0.375596 0.00965416 0.951058
0.372937 0.00840612 0.947965
0.370315 0.00717392 0.944934
0.367857 0.00600457 0.942289
0.365526 0.00488442 0.939944
0.363449 0.00385938 0.938226
0.361631 0.00293128 0.937163
0.359955 0.00205632 0.936455
0.358346 0.00120695 0.935913
0.356768 0.000369212 0.935438
0.355157 -0.00047949 0.934869
0.353491 -0.00134759 0.934143
0.351797 -0.00222494 0.933329
0.350167 -0.00307824 0.932674
0.348526 -0.00393475 0.931978
0.347032 -0.00473747 0.931668
0.345636 -0.00550449 0.931615
0.344252 -0.00626663 0.93159
0.343007 -0.00697882 0.93194
0.341847 -0.00766032 0.932523
0.340639 -0.00835925 0.932971
0.339428 -0.00905892 0.933411
0.338257 -0.00974434 0.933961
0.336928 -0.0104854 0.934067
0.335624 -0.0112176 0.934238
0.334349 -0.0119391 0.934488
0.333083 -0.0126573 0.934759
0.331824 -0.0133729 0.935048
0.330665 -0.0140534 0.935622
0.329483 -0.0147417 0.936131
0.32825 -0.0154478 0.936489
0.327064 -0.0161376 0.936981
0.325878 -0.0168272 0.937474
0.324648 -0.0175319 0.937834
0.323421 -0.0182354 0.938202
0.322267 -0.0189138 0.938786
0.321065 -0.0196084 0.939227
0.319891 -0.0202937 0.939747
0.31874 -0.0209709 0.940339
0.31759 -0.0216481 0.940931
0.31639 -0.0223418 0.941373
0.315235 -0.0230204 0.941951
0.314082 -0.0236982 0.942536
0.313033 -0.0243416 0.943441
0.312146 -0.0249314 0.944856
0.311248 -0.0255257 0.946242
0.310347 -0.0261214 0.947628
0.309496 -0.0267014 0.949181
0.30855 -0.027313 0.950441
0.307485 -0.0279639 0.951328
0.306557 -0.0285706 0.952657
0.305599 -0.0291875 0.953898
0.304598 -0.0298186 0.955008
0.303691 -0.0304202 0.956426
0.302788 -0.0310207 0.957869
0.301934 -0.0316067 0.959483
0.301114 -0.0321825 0.961216
0.300338 -0.0327455 0.963108
0.299584 -0.0333025 0.965091
0.298896 -0.0338397 0.967311
0.298166 -0.0343912 0.969405
0.297482 -0.0349296 0.97167
0.297202 -0.0353444 0.975341
0.297046 -0.0357233 0.979465
0.297397 -0.0359498 0.985385
0.297749 -0.0361799 0.991367
0.297982 -0.0364505 0.99699
0.297683 -0.0368861 1.0008
0.297147 -0.0373952 1.00381
0.296069 -0.0380689 1.00491
0.295011 -0.038737 1.0061
0.293983 -0.0393964 1.00739
0.293006 -0.0400414 1.00889
0.292026 -0.0406881 1.01037
0.29104 -0.0413371 1.01185
0.289975 -0.0420096 1.01304
0.288853 -0.0411195 1.0169
0.288759 -0.0427266 1.01368
0.410822 0.0256844 0.973591
0.406556 0.0238038 0.96712
0.402583 0.022039 0.961284
0.401171 0.0212467 0.961476
0.399617 0.0204013 0.961327
0.39798 0.0195247 0.96097
0.396365 0.0186574 0.96066
0.394766 0.0177965 0.96038
0.393191 0.0169453 0.96015
0.39176 0.0161482 0.960263
0.390355 0.0153614 0.960437
0.388885 0.0145504 0.960445
0.387378 0.0137262 0.960358
0.385769 0.0128649 0.960012
0.38406 0.0119668 0.959408
0.382117 0.0109831 0.958206
0.380029 0.0099475 0.956627
0.377584 0.00878166 0.954126
0.375029 0.00757761 0.951317
0.372329 0.006323 0.948113
0.369645 0.00507622 0.944912
0.367065 0.00386998 0.941945
0.364793 0.00277807 0.939741
0.362716 0.00175875 0.938019
0.360937 0.000848781 0.93705
0.359333 2.83737e-06 0.936524
0.357793 -0.000819097 0.936157
0.356215 -0.00165419 0.935681
0.354574 -0.00251088 0.93503
0.3529 -0.00337896 0.934276
0.351269 -0.00423061 0.933626
0.349678 -0.00506693 0.933074
0.348218 -0.00585627 0.932864
0.346878 -0.0066026 0.932971
0.345548 -0.00734519 0.9331
0.344302 -0.00805773 0.933456
0.34311 -0.00875111 0.933958
0.341871 -0.00946091 0.93433
0.340628 -0.0101723 0.934686
0.339403 -0.0108766 0.935094
0.3381 -0.0116085 0.935278
0.336825 -0.01233 0.93554
0.335555 -0.0130496 0.935811
0.334313 -0.0137595 0.936159
0.333076 -0.0144675 0.936518
0.33192 -0.0151476 0.937108
0.330742 -0.0158349 0.937636
0.329535 -0.0165322 0.938078
0.328293 -0.0172415 0.938416
0.327012 -0.0179637 0.938637
0.32571 -0.0186927 0.938794
0.324417 -0.0194183 0.938973
0.323208 -0.0201153 0.939399
0.322006 -0.0208102 0.93984
0.320854 -0.0214881 0.940433
0.319702 -0.0221659 0.941026
0.31855 -0.0228437 0.941619
0.317349 -0.0235379 0.942061
0.316217 -0.0242093 0.942712
0.315089 -0.0248793 0.943377
0.314067 -0.0255147 0.944371
0.313207 -0.0260977 0.945872
0.312336 -0.026685 0.947347
0.311437 -0.0272822 0.948742
0.310586 -0.0278644 0.950297
0.309635 -0.0284793 0.951546
0.308566 -0.0291323 0.952428
0.307637 -0.0297411 0.953758
0.306707 -0.0303508 0.955094
0.305736 -0.0309739 0.956304
0.304834 -0.031576 0.957744
0.303952 -0.0321723 0.959262
0.3031 -0.0327599 0.960885
0.302275 -0.0333399 0.96261
0.301477 -0.0339125 0.964431
0.300721 -0.0344727 0.966412
0.300032 -0.035014 0.968632
0.299303 -0.0355687 0.970731
0.298757 -0.0360683 0.97347
0.298667 -0.036432 0.977784
0.298749 -0.0367465 0.98273
0.29902 -0.037008 0.988378
0.299288 -0.0372739 0.994071
0.299208 -0.0376479 0.998601
0.298588 -0.0381846 1.00129
0.297707 -0.0388002 1.00307
0.296589 -0.039486 1.00403
0.295455 -0.0401768 1.00494
0.294403 -0.040844 1.00614
0.293399 -0.0414979 1.00753
0.292399 -0.0421512 1.00893
0.291414 -0.0428011 1.0104
0.290425 -0.0434527 1.01187
0.289293 -0.0441455 1.01281
0.409736 0.0236018 0.969158
0.406235 0.0220237 0.964485
0.403172 0.0206127 0.960799
0.401751 0.0198179 0.960968
0.400129 0.0189489 0.960658
0.398493 0.0180749 0.960304
0.39688 0.0172102 0.959998
0.39528 0.016351 0.959716
0.393703 0.0155005 0.959479
0.392337 0.0147288 0.95975
0.391007 0.0139706 0.960106
0.389648 0.013202 0.960389
0.388258 0.0124218 0.96059
0.386799 0.0116169 0.960618
0.385265 0.0107851 0.960456
0.383596 0.00990465 0.959949
0.381754 0.00896177 0.958997
0.379551 0.00788932 0.957125
0.377219 0.00677167 0.954905
0.374719 0.0055949 0.952229
0.371778 0.00426182 0.948403
0.36891 0.00295772 0.944723
0.366355 0.00176874 0.94181
0.363987 0.000648952 0.93935
0.361901 -0.000368061 0.937594
0.360323 -0.00120262 0.937143
0.358839 -0.00200306 0.936929
0.357269 -0.00283372 0.936479
0.355656 -0.00367865 0.935907
0.354012 -0.00453374 0.935243
0.352404 -0.00537503 0.934664
0.350844 -0.00619903 0.934201
0.349436 -0.00696908 0.934138
0.348092 -0.00771629 0.934243
0.346784 -0.00845076 0.93444
0.345533 -0.00916514 0.934789
0.344311 -0.0098693 0.935215
0.343038 -0.0105907 0.935501
0.341765 -0.0113123 0.935781
0.340516 -0.0120252 0.936128
0.339215 -0.0127557 0.936325
0.337944 -0.0134757 0.936603
0.336672 -0.0141961 0.936874
0.335456 -0.0148969 0.937304
0.33424 -0.0155978 0.937729
0.33311 -0.0162696 0.938399
0.33196 -0.0169479 0.939014
0.330785 -0.017635 0.939555
0.329541 -0.0183448 0.939898
0.328205 -0.0190851 0.939967
0.326839 -0.0198349 0.939946
0.32548 -0.0205821 0.939938
0.324213 -0.0212986 0.940195
0.322981 -0.0220031 0.940556
0.321829 -0.0226816 0.941149
0.320676 -0.0233601 0.941743
0.319547 -0.0240308 0.942409
0.318369 -0.0247174 0.942927
0.317264 -0.0253806 0.943665
0.31616 -0.0260432 0.944411
0.315167 -0.0266706 0.945498
0.314261 -0.0272708 0.946857
0.313363 -0.0278687 0.948252
0.31243 -0.0284783 0.949544
0.311552 -0.029071 0.951018
0.310571 -0.0296968 0.952176
0.309551 -0.0303355 0.953213
0.308647 -0.030938 0.954628
0.307751 -0.0315387 0.956076
0.306831 -0.0321477 0.957455
0.30596 -0.0327421 0.959
0.305081 -0.0333397 0.96053
0.304226 -0.0339308 0.962148
0.303418 -0.0345081 0.96393
0.302617 -0.0350843 0.96575
0.301883 -0.0356414 0.967805
0.301221 -0.0361776 0.97012
0.300564 -0.0367139 0.972466
0.300081 -0.0371998 0.975418
0.300083 -0.0375434 0.980047
0.300255 -0.0378401 0.985303
0.300471 -0.0381276 0.99076
0.300578 -0.0384508 0.995891
0.300301 -0.0388898 0.999739
0.299466 -0.0394932 1.00167
0.298344 -0.0401805 1.00261
0.297143 -0.0408908 1.00328
0.295952 -0.041598 1.00398
0.294846 -0.0422812 1.00498
0.293797 -0.0429487 1.00619
0.292813 -0.0435986 1.00765
0.291854 -0.0442419 1.0092
0.290923 -0.0448783 1.01087
0.289895 -0.0455427 1.01219
0.288651 -0.0447006 1.01558
0.288784 -0.0462302 1.01322
0.288007 -0.0452578 1.01837
0.287626 -0.0469309 1.01407
0.408723 0.0215628 0.964914
0.406011 0.0202887 0.962084
0.403761 0.0191879 0.960315
0.402336 0.0183928 0.960476
0.40068 0.0175131 0.960085
0.399044 0.0166412 0.959731
0.397397 0.0157658 0.959343
0.39579 0.0149061 0.959044
0.394215 0.0140584 0.958813
0.392888 0.0133018 0.959177
0.391602 0.0125601 0.959638
0.390349 0.0118308 0.96018
0.389065 0.01109 0.960643
0.387747 0.0103368 0.96102
0.386358 0.00955874 0.961222
0.384933 0.00876788 0.961329
0.383307 0.00790522 0.960929
0.381374 0.00693324 0.959749
0.379284 0.0059065 0.958156
0.37702 0.00481906 0.956102
0.37429 0.00356797 0.95284
0.371206 0.00219432 0.948641
0.368325 0.000895418 0.944917
0.365606 -0.000343546 0.941571
0.363198 -0.00147014 0.938998
0.361287 -0.00242003 0.93769
0.359833 -0.00320893 0.937557
0.358318 -0.00401819 0.937261
0.356764 -0.00484068 0.936852
0.355154 -0.00568215 0.936283
0.353576 -0.00651138 0.935792
0.352071 -0.00731449 0.935486
0.35066 -0.00808499 0.935422
0.349314 -0.00883261 0.935528
0.348 -0.00956878 0.935717
0.346687 -0.0103041 0.935906
0.345404 -0.0110293 0.93617
0.344121 -0.0117542 0.936433
0.342844 -0.0124768 0.936709
0.341594 -0.0131899 0.937057
0.340318 -0.0139115 0.937332
0.339071 -0.0146236 0.937681
0.337796 -0.0153442 0.937954
0.336577 -0.0160465 0.938379
0.335359 -0.0167481 0.938806
0.33423 -0.01742 0.939485
0.333078 -0.0180996 0.9401
0.331902 -0.0187871 0.940645
0.330662 -0.0194957 0.941004
0.329331 -0.020234 0.941095
0.327939 -0.0209917 0.941003
0.326575 -0.0217399 0.940988
0.325301 -0.0224582 0.941233
0.324066 -0.0231637 0.941591
0.322914 -0.0238426 0.942191
0.321784 -0.0245143 0.942858
0.320656 -0.0251853 0.943532
0.319478 -0.0258723 0.944056
0.318399 -0.0265278 0.944881
0.317302 -0.0271893 0.945652
0.316311 -0.0278174 0.946751
0.315373 -0.0284292 0.948019
0.314464 -0.0290325 0.949383
0.313472 -0.0296624 0.950496
0.312542 -0.0302733 0.951809
0.311537 -0.0309081 0.952893
0.310517 -0.0315474 0.953937
0.309618 -0.0321506 0.955367
0.308774 -0.0327375 0.956982
0.307912 -0.0333306 0.95855
0.307092 -0.0339116 0.960265
0.306238 -0.0345038 0.96188
0.305378 -0.0350987 0.963487
0.304547 -0.0356856 0.965199
0.303789 -0.0362519 0.967165
0.303063 -0.0368095 0.969254
0.302432 -0.0373407 0.971671
0.301853 -0.0378579 0.974283
0.301462 -0.0383217 0.977551
0.301481 -0.0386686 0.982239
0.3016 -0.0389898 0.987312
0.301679 -0.0393259 0.992296
0.301617 -0.0397066 0.996842
0.301147 -0.0402068 1.00002
0.300142 -0.0408609 1.00136
0.298945 -0.0415699 1.00203
0.297717 -0.0422875 1.00259
0.296479 -0.0430077 1.00313
0.295347 -0.0436987 1.00403
0.294267 -0.0443757 1.00512
0.293279 -0.0450274 1.00656
0.292322 -0.0456714 1.00811
0.291444 -0.046295 1.00996
0.290504 -0.0469362 1.0116
0.289521 -0.0475901 1.0131
0.288539 -0.0482441 1.0146
0.286892 -0.0475168 1.01651
0.287504 -0.0489132 1.01592
0.411041 0.0210361 0.964936
0.407976 0.019638 0.96131
0.405956 0.0186249 0.960092
0.404418 0.0177894 0.959994
0.402928 0.0169714 0.96
0.401238 0.0160812 0.959528
0.3996 0.015211 0.959172
0.397912 0.0143228 0.958686
0.396273 0.0134534 0.958309
0.394729 0.012619 0.958154
0.393444 0.011878 0.958617
0.392201 0.0111523 0.959182
0.391053 0.0104606 0.959977
0.389868 0.00975548 0.960683
0.388618 0.00902736 0.961231
0.387334 0.00828731 0.961695
0.386048 0.00754639 0.96215
0.384597 0.0067473 0.962193
0.382876 0.00585319 0.961554
0.381094 0.00493849 0.96075
0.379144 0.00396586 0.959511
0.376729 0.00283141 0.957072
0.373508 0.0014174 0.952553
0.370396 4.49129e-05 0.948266
0.367329 -0.00130872 0.944051
0.364556 -0.00255672 0.940554
0.362289 -0.00362695 0.938333
0.360862 -0.00440508 0.938278
0.359371 -0.00520491 0.938048
0.357849 -0.00601481 0.93773
0.356295 -0.00683519 0.937317
0.35478 -0.00764151 0.936999
0.353332 -0.00842412 0.936852
0.351924 -0.0091926 0.936806
0.350546 -0.00995041 0.936836
0.349195 -0.0106988 0.936933
0.347816 -0.0114562 0.936948
0.34647 -0.0122023 0.937048
0.345158 -0.0129368 0.937235
0.343874 -0.0136612 0.937498
0.342593 -0.0143845 0.937766
0.341312 -0.0151078 0.938029
0.340059 -0.0158216 0.938367
0.338782 -0.0165427 0.938638
0.337561 -0.0172453 0.939063
0.33632 -0.0179546 0.939428
0.335158 -0.0186377 0.940017
0.334001 -0.0193192 0.94062
0.332847 -0.0199999 0.94123
0.331636 -0.020699 0.941677
0.330363 -0.0214177 0.941943
0.329028 -0.022156 0.942026
0.327693 -0.0228942 0.942102
0.32642 -0.0236124 0.942356
0.325186 -0.0243175 0.942723
0.324033 -0.0249971 0.943327
0.322903 -0.0256693 0.944
0.321798 -0.0263337 0.944751
0.320648 -0.0270125 0.945364
0.3196 -0.0276594 0.946289
0.318526 -0.0283144 0.947138
0.317532 -0.0289452 0.948234
0.316513 -0.0295837 0.94926
0.31554 -0.0302088 0.950429
0.314466 -0.030865 0.951293
0.313484 -0.0314935 0.952446
0.312459 -0.0321354 0.95347
0.311486 -0.0327619 0.954663
0.310617 -0.0333578 0.95619
0.309825 -0.0339312 0.957974
0.309015 -0.0345109 0.959712
0.30822 -0.0350871 0.96151
0.307417 -0.0356666 0.963295
0.306583 -0.0362564 0.964993
0.305776 -0.0368388 0.966792
0.305052 -0.0373983 0.968871
0.304357 -0.0379503 0.971065
0.303736 -0.0384826 0.973524
0.303238 -0.0389808 0.976411
