ply
format ascii 1.0
element vertex 1636
property float x
property float y
property float z
end_header
-0.0692097 0.0646781 0.812521
-0.0686931 0.0633157 0.812375
-0.0681888 0.0619605 0.812409
-0.0676859 0.0606062 0.812458
-0.0671992 0.0592603 0.812754
-0.0667234 0.0579192 0.813219
-0.0662595 0.0565825 0.813874
-0.0658059 0.0552488 0.814699
-0.0653627 0.0539177 0.815702
-0.0649132 0.052582 0.816615
-0.064452 0.0512404 0.817356
-0.0639835 0.049895 0.817987
-0.0635041 0.048545 0.818447
-0.0630198 0.0471929 0.818829
-0.0625359 0.0458405 0.81922
-0.0620521 0.0444875 0.819619
-0.0615677 0.043134 0.820012
-0.0610874 0.0417802 0.820478
-0.0606125 0.0404275 0.821041
-0.0601472 0.0390746 0.821782
-0.0596868 0.0377203 0.822623
-0.05923 0.0363649 0.823541
-0.0587724 0.035007 0.824461
-0.0583138 0.0336467 0.825378
-0.0578549 0.0322849 0.826298
-0.0573993 0.0309202 0.827305
-0.0569349 0.0295535 0.82816
-0.0564472 0.0281875 0.828573
-0.0559558 0.0268204 0.828929
-0.0554633 0.025454 0.829259
-0.054965 0.0240878 0.82948
-0.0544812 0.0227184 0.829991
-0.0540291 0.0213398 0.831157
-0.05361 0.0199487 0.833023
-0.0532058 0.0185468 0.835239
-0.0528344 0.0171256 0.838201
-0.0524772 0.0156892 0.841533
-0.0521129 0.0142451 0.844785
-0.0517094 0.012809 0.847252
-0.05128 0.0113766 0.849215
-0.0522856 0.00942319 0.851671
-0.0508189 0.00995691 0.850496
-0.110097 0.165961 0.901818
-0.109238 0.164038 0.899091
-0.108338 0.162066 0.895939
-0.1075 0.16018 0.893344
-0.106679 0.158323 0.890896
-0.105945 0.156583 0.889262
-0.105256 0.154904 0.888055
-0.104629 0.153307 0.887454
-0.104015 0.151729 0.886971
-0.10343 0.150189 0.886776
-0.102838 0.148641 0.886507
-0.102237 0.147082 0.886131
-0.101663 0.145557 0.886029
-0.101008 0.143934 0.885088
-0.100353 0.142312 0.88412
-0.0996731 0.140662 0.882887
-0.0990042 0.139028 0.881748
-0.0983076 0.137364 0.880298
-0.0977069 0.135816 0.879852
-0.096789 0.133896 0.87598
-0.0956302 0.131701 0.869444
-0.0928404 0.126806 0.850919
-0.0918973 0.1249 0.846465
-0.0911411 0.123213 0.844026
-0.0904637 0.121619 0.842435
-0.0897556 0.119995 0.840473
-0.0890294 0.118355 0.838277
-0.0883405 0.11676 0.836473
-0.0876578 0.115176 0.834712
-0.0870285 0.113652 0.833546
-0.086388 0.112119 0.832226
-0.0857705 0.110614 0.831158
-0.0851498 0.109107 0.830032
-0.0845576 0.107632 0.829227
-0.0839692 0.106163 0.828454
-0.083397 0.104712 0.827862
-0.0827933 0.103231 0.826874
-0.0821802 0.101744 0.825754
-0.0815567 0.10025 0.824486
-0.0809438 0.0987691 0.823327
-0.0803306 0.0972906 0.822145
-0.079761 0.095855 0.821493
-0.0792053 0.0944338 0.821004
-0.0786623 0.0930254 0.820668
-0.0781221 0.0916207 0.820358
-0.0775964 0.0902296 0.82023
-0.077053 0.0888244 0.819867
-0.076514 0.0874239 0.81955
-0.0759487 0.0860029 0.818873
-0.0753781 0.0845798 0.818113
-0.0747906 0.0831455 0.817109
-0.0742168 0.0817243 0.816269
-0.0736434 0.080306 0.815421
-0.0730843 0.0789008 0.814754
-0.0725275 0.0774993 0.814104
-0.0719842 0.0761092 0.813628
-0.0714525 0.0747291 0.813308
-0.0709164 0.073347 0.812914
-0.0703926 0.0719745 0.812688
-0.0698697 0.0706039 0.81247
-0.0693426 0.0692314 0.81218
-0.0688152 0.0678601 0.811877
-0.068287 0.0664896 0.811556
-0.0677601 0.0651211 0.811244
-0.0672401 0.0637578 0.811027
-0.0667366 0.0624043 0.811055
-0.0662344 0.0610521 0.811102
-0.0657482 0.059708 0.811394
-0.0652724 0.0583688 0.811854
-0.0648075 0.0570338 0.812492
-0.0643535 0.0557025 0.813314
-0.0639095 0.0543739 0.814311
-0.0634603 0.0530409 0.815238
-0.0629998 0.0517019 0.815989
-0.0625365 0.0503604 0.816706
-0.0620627 0.0490142 0.817254
-0.0615843 0.0476656 0.81773
-0.0611055 0.0463162 0.818207
-0.060626 0.0449659 0.818675
-0.0601462 0.0436147 0.819141
-0.059671 0.0422637 0.819699
-0.0592057 0.0409135 0.820437
-0.058745 0.0395626 0.821271
-0.0582882 0.0382104 0.822189
-0.0578346 0.0368557 0.823188
-0.0573802 0.0354994 0.824182
-0.056921 0.0341403 0.825105
-0.0564654 0.0327784 0.826115
-0.0560086 0.0314145 0.827116
-0.0555388 0.0300491 0.827878
-0.0550505 0.0286827 0.828293
-0.0545552 0.0273166 0.828571
-0.0540591 0.0259511 0.82883
-0.0535607 0.0245851 0.829045
-0.0530761 0.0232167 0.829546
-0.0526107 0.0218421 0.830459
-0.0521768 0.0204565 0.832057
-0.0517564 0.0190619 0.833979
-0.051372 0.0176477 0.836735
-0.051003 0.0162191 0.839889
-0.050635 0.0147785 0.843148
-0.0502332 0.0133436 0.845717
-0.0498094 0.0119108 0.847849
-0.0493483 0.0104925 0.84916
-0.110939 0.167865 0.904342
-0.110054 0.170072 0.904999
-0.10936 0.16836 0.90388
-0.108613 0.166578 0.902231
-0.107823 0.164741 0.900143
-0.106951 0.162797 0.897218
-0.106115 0.160906 0.894613
-0.105283 0.159025 0.892013
-0.10454 0.157266 0.890265
-0.103843 0.155572 0.888963
-0.103208 0.153963 0.888275
-0.102586 0.152371 0.887708
-0.101993 0.150819 0.887428
-0.101392 0.149257 0.887059
-0.100782 0.147684 0.886579
-0.100207 0.146157 0.886464
-0.0995448 0.144521 0.885431
-0.0988881 0.142894 0.884436
-0.0982012 0.141232 0.883102
-0.0975245 0.139584 0.881857
-0.0968334 0.137922 0.880439
-0.0961151 0.136229 0.878701
-0.0950052 0.134068 0.872647
-0.0941363 0.12913 0.859163
-0.0921935 0.129077 0.853716
-0.0911115 0.126989 0.847678
-0.0903526 0.125289 0.845189
-0.0897203 0.12374 0.844098
-0.0890262 0.122122 0.842285
-0.0883203 0.120495 0.840308
-0.087597 0.118853 0.8381
-0.0869041 0.117249 0.836212
-0.0862168 0.115655 0.834361
-0.085588 0.114129 0.83317
-0.0849418 0.112587 0.831753
-0.0843141 0.111068 0.830533
-0.0836952 0.10956 0.8294
-0.0831057 0.108087 0.828605
-0.0825129 0.106611 0.827753
-0.0819433 0.105162 0.827173
-0.081348 0.103688 0.826263
-0.0807374 0.102201 0.825144
-0.0801174 0.100708 0.823884
-0.0795128 0.0992322 0.8228
-0.0789032 0.0977546 0.821631
-0.0783353 0.0963192 0.820979
-0.0777865 0.0949037 0.820564
-0.0772518 0.0935021 0.820321
-0.0767137 0.0920986 0.820028
-0.0761892 0.0907082 0.819906
-0.0756467 0.0893027 0.819538
-0.0751018 0.0878964 0.819128
-0.074538 0.0864755 0.818452
-0.0739693 0.0850524 0.817694
-0.0733902 0.083623 0.816775
-0.0728179 0.0822015 0.815933
-0.0722405 0.0807784 0.815001
-0.0716764 0.079368 0.814239
-0.0711213 0.0779668 0.813589
-0.0705687 0.0765693 0.812963
-0.0700331 0.0751861 0.812567
-0.0694976 0.0738042 0.812163
-0.0689689 0.0724284 0.811849
-0.0684368 0.0710518 0.811476
-0.0679101 0.06968 0.811173
-0.0673828 0.0683089 0.810851
-0.0668564 0.0669399 0.810534
-0.0663312 0.0655727 0.810226
-0.0658169 0.0642133 0.81008
-0.0653144 0.0628612 0.810113
-0.0648133 0.0615102 0.810162
-0.064327 0.0601676 0.810449
-0.0638462 0.0588272 0.810825
-0.0633757 0.0574914 0.811374
-0.0629165 0.0561598 0.812114
-0.0624665 0.0548311 0.813023
-0.0620123 0.0534985 0.813869
-0.0615508 0.0521616 0.814607
-0.0610876 0.0508224 0.815325
-0.0606145 0.0494786 0.815882
-0.0601418 0.0481338 0.816452
-0.0596683 0.046788 0.817017
-0.0591936 0.0454408 0.817566
-0.058718 0.0440924 0.818109
-0.0582472 0.0427438 0.818743
-0.0577814 0.0413953 0.819484
-0.0573211 0.0400463 0.820331
-0.0568678 0.038696 0.821332
-0.0564178 0.0373442 0.822406
-0.055967 0.0359889 0.82349
-0.0555116 0.0346316 0.824502
-0.0550589 0.0332714 0.825585
-0.0546016 0.0319088 0.826593
-0.0541307 0.0305441 0.82735
-0.0536423 0.0291791 0.82776
-0.0531474 0.0278141 0.828039
-0.052652 0.0264485 0.828312
-0.0521538 0.0250834 0.828528
-0.0516687 0.023716 0.829021
-0.0511986 0.0223437 0.829847
-0.050755 0.0209615 0.831278
-0.050324 0.0195711 0.833017
-0.0499241 0.0181645 0.835496
-0.0495388 0.0167443 0.83837
-0.0491618 0.0153095 0.841515
-0.0487605 0.0138774 0.844158
-0.0483391 0.0124459 0.846393
-0.0478879 0.0110243 0.847961
-0.0488589 0.0090875 0.849829
-0.047409 0.00961399 0.848895
-0.108462 0.17055 0.904416
-0.107815 0.168902 0.903748
-0.107117 0.167183 0.90255
-0.10636 0.165385 0.900754
-0.105512 0.163464 0.898021
-0.104675 0.161564 0.89537
-0.103848 0.159681 0.892779
-0.103097 0.157905 0.890921
-0.102401 0.156208 0.889616
-0.101758 0.154584 0.888828
-0.101137 0.152991 0.888261
-0.100544 0.151437 0.887977
-0.0999344 0.149861 0.887506
-0.0993157 0.148275 0.886933
-0.0987302 0.146733 0.886705
-0.0980688 0.145095 0.885657
-0.0974048 0.143455 0.884562
-0.0967195 0.14179 0.883222
-0.0960361 0.14013 0.881878
-0.0953609 0.138483 0.880606
-0.0944986 0.136606 0.877241
-0.0896524 0.12748 0.84739
-0.0889204 0.125806 0.845158
-0.0882753 0.124239 0.843897
-0.0875741 0.122608 0.841963
-0.086871 0.120979 0.839976
-0.086151 0.119335 0.83776
-0.085455 0.117723 0.835792
-0.0847707 0.116128 0.833936
-0.0841372 0.114593 0.832659
-0.0834925 0.113049 0.831223
-0.0828603 0.111522 0.829919
-0.082244 0.110015 0.828786
-0.0816572 0.108542 0.828002
-0.0810726 0.107074 0.827228
-0.0805047 0.105625 0.826649
-0.0799116 0.104151 0.82574
-0.079309 0.10267 0.824693
-0.078699 0.101184 0.82353
-0.0781042 0.0997156 0.822543
-0.0774977 0.0982384 0.821386
-0.0769309 0.0968025 0.820729
-0.076383 0.0953865 0.820309
-0.0758492 0.093985 0.820068
-0.0753067 0.0925766 0.819703
-0.0747825 0.091186 0.819576
-0.0742395 0.0897791 0.819186
-0.0736883 0.0883664 0.818674
-0.0731266 0.0869459 0.818004
-0.0725597 0.085523 0.817247
-0.0719841 0.0840948 0.816349
-0.0714132 0.0826728 0.815499
-0.0708328 0.0812456 0.814497
-0.0702645 0.0798307 0.813648
-0.0697054 0.0784253 0.812916
-0.0691487 0.0770238 0.812202
-0.0686086 0.0756369 0.811721
-0.0680797 0.0742596 0.811392
-0.0675475 0.0728815 0.811008
-0.0670162 0.071505 0.810624
-0.0664903 0.070134 0.810314
-0.0659641 0.0687637 0.80999
-0.0654387 0.0673954 0.809669
-0.0649203 0.0660326 0.809448
-0.0644134 0.0646779 0.809403
-0.0639169 0.0633299 0.809523
-0.0634211 0.0619823 0.809651
-0.0629303 0.0606377 0.809861
-0.0624445 0.0592959 0.810154
-0.0619641 0.0579562 0.810538
-0.0614937 0.0566212 0.811098
-0.0610335 0.0552897 0.811838
-0.0605772 0.0539585 0.812655
-0.0601152 0.0526234 0.813386
-0.0596561 0.0512881 0.81418
-0.0591877 0.0499478 0.814819
-0.0587152 0.0486049 0.815394
-0.0582377 0.0472595 0.815883
-0.0577589 0.0459129 0.816358
-0.0572835 0.0445665 0.816899
-0.0568128 0.0432201 0.817538
-0.0563518 0.0418748 0.818367
-0.0558947 0.0405286 0.819287
-0.0554492 0.0391815 0.82045
-0.0549991 0.0378313 0.821541
-0.0545477 0.0364783 0.822632
-0.0540958 0.0351226 0.823731
-0.0536427 0.0337642 0.824825
-0.0531807 0.0324025 0.825759
-0.052709 0.0310391 0.826508
-0.0522239 0.029675 0.826987
-0.0517298 0.0283112 0.827275
-0.0512385 0.0269462 0.827631
-0.0507451 0.0255824 0.827934
-0.0502633 0.0242146 0.828508
-0.0497926 0.0228432 0.82934
-0.0493403 0.0214645 0.830607
-0.0488996 0.0200787 0.832168
-0.0484842 0.0186786 0.834363
-0.0480831 0.017266 0.836945
-0.0476945 0.015839 0.839899
-0.0472922 0.014409 0.842594
-0.0468722 0.0129797 0.844916
-0.0464302 0.0115545 0.84675
-0.0459619 0.0101393 0.847968
-0.106219 0.16937 0.903096
-0.10555 0.167688 0.902164
-0.104807 0.165905 0.900482
-0.104007 0.164044 0.898188
-0.103207 0.162185 0.89586
-0.102402 0.160325 0.893456
-0.101654 0.158548 0.891603
-0.100959 0.156847 0.890282
-0.100307 0.155208 0.889394
-0.0996853 0.153611 0.888805
-0.0990825 0.152041 0.888411
-0.0984637 0.150451 0.887836
-0.0978445 0.148862 0.887248
-0.0972507 0.147307 0.886923
-0.0965828 0.145656 0.885782
-0.0959119 0.144004 0.884591
-0.0952288 0.142337 0.883246
-0.09454 0.140666 0.881817
-0.0937635 0.138886 0.879383
-0.0927397 0.136795 0.874124
-0.088795 0.129494 0.847839
-0.088085 0.127837 0.845839
-0.0874659 0.126296 0.844871
-0.0868156 0.124719 0.843519
-0.0861191 0.123089 0.841596
-0.0854137 0.121452 0.839539
-0.0847051 0.119816 0.837409
-0.0840131 0.118203 0.835448
-0.083333 0.116608 0.833597
-0.082695 0.115065 0.832236
-0.082053 0.11352 0.830799
-0.0814161 0.111985 0.829404
-0.0808021 0.110478 0.82827
-0.0802229 0.109011 0.827558
-0.0796413 0.107544 0.826799
-0.0790747 0.106095 0.826217
-0.0784892 0.104627 0.82538
-0.077896 0.103153 0.824427
-0.0772897 0.101668 0.823284
-0.0767044 0.100207 0.822396
-0.0761065 0.0987358 0.821323
-0.0755408 0.0972991 0.820663
-0.0749934 0.0958823 0.820237
-0.0744603 0.0944806 0.819995
-0.0739182 0.0930713 0.819622
-0.073388 0.0916744 0.819407
-0.072844 0.0902655 0.818988
-0.0722882 0.0888472 0.818393
-0.0717274 0.0874259 0.817713
-0.071158 0.0859991 0.816897
-0.0705845 0.0845708 0.816001
-0.0700104 0.0831444 0.815078
-0.0694318 0.0817167 0.814069
-0.0688596 0.080297 0.813135
-0.068296 0.0788866 0.812309
-0.0677402 0.0774847 0.811582
-0.0671964 0.0760943 0.81102
-0.0666633 0.0747138 0.810612
-0.0661275 0.0733326 0.810148
-0.0655978 0.0719574 0.80977
-0.0650732 0.0705873 0.809461
-0.0645533 0.0692214 0.809216
-0.0640355 0.067858 0.808996
-0.0635242 0.0664999 0.808874
-0.0630234 0.0651492 0.808918
-0.0625278 0.063802 0.809047
-0.0620327 0.0624554 0.809181
-0.0615421 0.0611114 0.809391
-0.061056 0.0597699 0.809677
-0.060575 0.0584306 0.81005
-0.0600986 0.0570937 0.810512
-0.0596274 0.0557583 0.811065
-0.0591603 0.054424 0.811704
-0.0586893 0.0530868 0.812277
-0.0582213 0.0517499 0.812914
-0.0577486 0.0504099 0.813472
-0.0572754 0.049069 0.814031
-0.0568017 0.0477269 0.814588
-0.0563278 0.0463839 0.815149
-0.0558533 0.0450396 0.815705
-0.0553825 0.0436952 0.816343
-0.0549242 0.0423522 0.817233
-0.0544667 0.0410081 0.818153
-0.054021 0.0396635 0.819331
-0.0535782 0.0383162 0.820588
-0.0531307 0.0369655 0.821778
-0.0526781 0.0356115 0.82288
-0.0522276 0.0342551 0.824047
-0.0517645 0.0328955 0.824972
-0.0512892 0.0315334 0.825652
-0.0508042 0.0301711 0.826129
-0.0503101 0.0288084 0.826411
-0.0498157 0.027446 0.826687
-0.0493229 0.0260823 0.827006
-0.048845 0.0247158 0.827666
-0.0483776 0.0233447 0.828589
-0.0479241 0.021968 0.829854
-0.0474775 0.0205853 0.831316
-0.0470545 0.0191893 0.833389
-0.0466386 0.0177839 0.835687
-0.0462382 0.0163643 0.838433
-0.0458292 0.0149391 0.841041
-0.0454101 0.0135115 0.84345
-0.0449741 0.0120847 0.845488
-0.0445155 0.0106654 0.846985
-0.0454723 0.00873653 0.848651
-0.0440362 0.00925642 0.847955
-0.105257 0.171468 0.90301
-0.104647 0.169869 0.902669
-0.103993 0.168208 0.901882
-0.103284 0.166466 0.900501
-0.102509 0.164634 0.898429
-0.101734 0.162804 0.896322
-0.100952 0.160969 0.89412
-0.100206 0.159188 0.89226
-0.0995125 0.157484 0.89093
-0.0988438 0.155817 0.889845
-0.0982119 0.154204 0.88914
-0.0975992 0.152619 0.88863
-0.0969805 0.151026 0.888044
-0.0963544 0.149425 0.887367
-0.0957613 0.14787 0.887043
-0.095103 0.146228 0.885986
-0.0944263 0.144563 0.884706
-0.0937466 0.142897 0.883372
-0.0930768 0.141246 0.882129
-0.092193 0.139318 0.878426
-0.0910307 0.137033 0.87147
-0.0900967 0.131896 0.856572
-0.0884029 0.13211 0.853725
-0.0872481 0.129874 0.846526
-0.0866372 0.128338 0.845647
-0.0859948 0.126764 0.844377
-0.0853335 0.12517 0.842859
-0.0846488 0.123549 0.841035
-0.0839545 0.121921 0.839065
-0.083252 0.120286 0.836961
-0.0825638 0.118673 0.835001
-0.0818948 0.117087 0.833246
-0.0812535 0.115536 0.831808
-0.0806212 0.113999 0.830458
-0.0799861 0.112462 0.829051
-0.079381 0.110962 0.828001
-0.078804 0.109496 0.827296
-0.0782247 0.108029 0.826546
-0.0776534 0.106573 0.825885
-0.0770754 0.105111 0.825123
-0.0764908 0.103644 0.824258
-0.0758944 0.102167 0.823217
-0.075319 0.100714 0.82244
-0.0747342 0.0992532 0.82152
-0.0741694 0.0978153 0.820855
-0.0736165 0.096391 0.82034
-0.0730781 0.0949829 0.820015
-0.0725308 0.0935669 0.819556
-0.0719894 0.0921583 0.819172
-0.0714405 0.0907436 0.818668
-0.0708804 0.0893197 0.81799
-0.0703158 0.0878935 0.817233
-0.0697432 0.086462 0.81634
-0.0691708 0.085033 0.815431
-0.0685984 0.0836064 0.814503
-0.0680211 0.082178 0.81348
-0.0674467 0.0807546 0.812478
-0.0668793 0.07934 0.811565
-0.0663195 0.0779337 0.810746
-0.0657707 0.0765388 0.810081
-0.0652348 0.0751559 0.809604
-0.0647008 0.0737758 0.809144
-0.0641823 0.0724091 0.808922
-0.0636641 0.0710436 0.808695
-0.0631518 0.0696832 0.808556
-0.0626453 0.0683276 0.808508
-0.062145 0.0669769 0.808555
-0.0616498 0.0656299 0.80869
-0.0611593 0.064286 0.8089
-0.0606687 0.062942 0.80911
-0.0601782 0.0615981 0.80932
-0.0596876 0.0602541 0.80953
-0.0592014 0.0589125 0.809815
-0.0587154 0.0575708 0.810107
-0.058234 0.0562313 0.810483
-0.0577572 0.0548936 0.81095
-0.0572807 0.0535552 0.811426
-0.0568044 0.0522163 0.811912
-0.0563269 0.0508762 0.812382
-0.0558488 0.0495351 0.812844
-0.0553705 0.0481933 0.813309
-0.0548962 0.0468521 0.813859
-0.0544261 0.0455113 0.8145
-0.0539558 0.044169 0.815147
-0.0535014 0.04283 0.81612
-0.0530467 0.0414879 0.817114
-0.0526003 0.0401454 0.818297
-0.052157 0.0388003 0.819568
-0.051716 0.0374524 0.820915
-0.0512624 0.036101 0.82201
-0.0508103 0.0347454 0.823172
-0.0503464 0.0333872 0.824097
-0.0498706 0.0320276 0.824764
-0.049382 0.0306666 0.825159
-0.0488878 0.0293046 0.825438
-0.0483974 0.0279429 0.825796
-0.0479085 0.0265807 0.826196
-0.0474344 0.0252143 0.826955
-0.0469704 0.0238447 0.827972
-0.0465151 0.0224689 0.829231
-0.04606 0.0210897 0.830524
-0.0456268 0.0196989 0.832399
-0.0451973 0.0182999 0.834424
-0.0447835 0.0168885 0.836902
-0.0443681 0.0154688 0.83942
-0.0439531 0.0140406 0.842008
-0.0435255 0.0126111 0.84433
-0.0430822 0.0111841 0.846282
-0.042618 0.009765 0.847704
-0.103665 0.171938 0.902389
-0.103066 0.170353 0.902144
-0.102427 0.168711 0.90149
-0.101746 0.167007 0.900377
-0.100999 0.165209 0.898557
-0.100246 0.163404 0.896646
-0.099478 0.161582 0.89455
-0.0987351 0.159799 0.892691
-0.0980444 0.158094 0.891368
-0.0973672 0.156411 0.890172
-0.096727 0.154783 0.889362
-0.0961051 0.153182 0.88874
-0.0954875 0.151589 0.888154
-0.0948556 0.149977 0.887396
-0.0942639 0.148422 0.887078
-0.0936153 0.14679 0.88611
-0.0929407 0.145123 0.884827
-0.0922629 0.143455 0.883488
-0.0916083 0.141821 0.882395
-0.0906046 0.13972 0.877227
-0.0893517 0.137296 0.869068
-0.0880482 0.134818 0.860196
-0.086772 0.132391 0.851516
-0.0857984 0.130374 0.846327
-0.0851655 0.128807 0.845161
-0.0845047 0.127206 0.843637
-0.0838388 0.125602 0.842025
-0.0831726 0.124 0.840382
-0.0824911 0.122382 0.838522
-0.0818003 0.120757 0.836515
-0.0811158 0.119143 0.834554
-0.0804501 0.117556 0.832799
-0.0798052 0.115997 0.831278
-0.0791826 0.114468 0.830018
-0.0785515 0.112932 0.828625
-0.0779554 0.11144 0.827667
-0.0773867 0.109982 0.827048
-0.0768098 0.108515 0.826308
-0.0762399 0.107059 0.825647
-0.0756693 0.105603 0.824962
-0.0750929 0.104143 0.824184
-0.0745057 0.102673 0.823242
-0.0739386 0.101227 0.822559
-0.0733617 0.0997715 0.821725
-0.072798 0.0983326 0.821058
-0.0722405 0.0969016 0.820463
-0.0716906 0.0954801 0.819964
-0.0711378 0.094057 0.819411
-0.0705911 0.0926419 0.818935
-0.0700389 0.0912225 0.818365
-0.0694749 0.089793 0.817605
-0.0689119 0.0883668 0.816847
-0.0683396 0.0869336 0.81593
-0.0677632 0.085499 0.814931
-0.0671922 0.0840717 0.813992
-0.0666172 0.0826434 0.81297
-0.0660403 0.0812158 0.811896
-0.0654698 0.0797968 0.810899
-0.0649062 0.0783862 0.809992
-0.064349 0.0769833 0.809163
-0.0638139 0.0756005 0.808671
-0.0632859 0.0742252 0.808285
-0.0627746 0.0728642 0.808161
-0.0622684 0.0715076 0.808116
-0.0617717 0.0701587 0.808227
-0.0612715 0.0688076 0.808274
-0.0607765 0.0674606 0.808408
-0.0602859 0.0661166 0.808618
-0.0597954 0.0647727 0.808828
-0.0593048 0.0634287 0.809038
-0.0588143 0.0620848 0.809248
-0.0583237 0.0607408 0.809458
-0.0578332 0.0593969 0.809668
-0.0573426 0.0580529 0.809878
-0.0568562 0.0567111 0.810164
-0.0563743 0.0553715 0.810537
-0.0558928 0.0540315 0.810922
-0.0554111 0.0526912 0.81131
-0.0549288 0.0513499 0.811686
-0.0544459 0.0500081 0.812055
-0.0539632 0.0486659 0.812432
-0.053485 0.0473248 0.812904
-0.0530152 0.0459857 0.813555
-0.052545 0.0446455 0.814205
-0.0520894 0.0433074 0.815175
-0.0516344 0.0419678 0.816171
-0.0511904 0.0406277 0.817429
-0.0507464 0.0392851 0.818708
-0.0503072 0.0379391 0.820126
-0.0498529 0.0365891 0.821228
-0.0493996 0.0352358 0.822382
-0.0489309 0.0338788 0.823213
-0.0484543 0.0325199 0.823877
-0.0479624 0.0311604 0.82419
-0.0474687 0.0298005 0.824463
-0.0469782 0.0284402 0.824817
-0.0464926 0.0270784 0.825296
-0.0460188 0.025714 0.826068
-0.0455573 0.0243449 0.82717
-0.0451048 0.0229703 0.828526
-0.0446508 0.0215915 0.829886
-0.0442123 0.0202034 0.831684
-0.0437794 0.0188076 0.83368
-0.0433558 0.0174008 0.835985
-0.042934 0.0159863 0.838397
-0.0425127 0.0145626 0.840903
-0.0420887 0.0131318 0.843405
-0.0416536 0.0116999 0.84566
-0.0412004 0.0102718 0.847464
-0.101607 0.171021 0.902884
-0.100952 0.16935 0.902043
-0.10023 0.167581 0.900483
-0.0994862 0.165781 0.898661
-0.0987463 0.16399 0.896857
-0.0979924 0.162181 0.894873
-0.0972617 0.160409 0.893114
-0.0965728 0.158702 0.891788
-0.0958882 0.157004 0.890489
-0.0952488 0.155373 0.889671
-0.0946276 0.153771 0.889044
-0.0940126 0.152179 0.888474
-0.0933825 0.150566 0.887723
-0.0927839 0.149 0.887318
-0.0921353 0.147364 0.886329
-0.0914547 0.145685 0.884952
-0.0907803 0.144017 0.883624
-0.0900194 0.142231 0.881258
-0.0888937 0.139949 0.874537
-0.0863857 0.135068 0.857712
-0.0851581 0.132685 0.849433
-0.084329 0.130847 0.845885
-0.0836901 0.129269 0.844615
-0.0830304 0.127665 0.843066
-0.0823693 0.126062 0.841474
-0.081714 0.12447 0.839926
-0.0810379 0.122854 0.83809
-0.0803513 0.121228 0.836087
-0.0796697 0.119613 0.834118
-0.0790054 0.118023 0.832336
-0.078357 0.116456 0.830733
-0.0777443 0.114936 0.829569
-0.0771238 0.113409 0.828279
-0.0765375 0.111926 0.827422
-0.075977 0.110475 0.826895
-0.0754075 0.109016 0.826235
-0.0748391 0.107559 0.825574
-0.0742699 0.106103 0.824889
-0.0737007 0.104648 0.824189
-0.0731164 0.103179 0.823262
-0.0725513 0.101732 0.822587
-0.0719825 0.100284 0.821845
-0.0714195 0.098843 0.82117
-0.0708577 0.0974055 0.820496
-0.0703021 0.0959763 0.8199
-0.0697492 0.0945516 0.819327
-0.0691976 0.0931295 0.818759
-0.0686462 0.0917094 0.818183
-0.0680843 0.0902802 0.817434
-0.0675223 0.0888528 0.816664
-0.0669462 0.0874137 0.81566
-0.0663657 0.0859727 0.814564
-0.0657912 0.0845402 0.813541
-0.0652194 0.0831126 0.812535
-0.0646449 0.0816852 0.811464
-0.0640723 0.0802622 0.810399
-0.0635047 0.0788462 0.809391
-0.0629435 0.0774384 0.808465
-0.0624 0.0760481 0.807811
-0.06187 0.0746707 0.807365
-0.0613651 0.0733151 0.807333
-0.0608698 0.0719678 0.807462
-0.0603841 0.0706276 0.807752
-0.0598941 0.0692844 0.80797
-0.0594083 0.0679441 0.808262
-0.058922 0.0666033 0.808547
-0.0584315 0.0652593 0.808757
-0.0579409 0.0639154 0.808967
-0.0574504 0.0625715 0.809177
-0.0569598 0.0612275 0.809387
-0.0564693 0.0598836 0.809597
-0.0559787 0.0585396 0.809807
-0.0554882 0.0571958 0.810017
-0.0550015 0.0558538 0.810302
-0.0545151 0.0545119 0.810594
-0.0540287 0.0531698 0.810889
-0.0535459 0.051829 0.811256
-0.0530592 0.0504862 0.811549
-0.0525724 0.0491431 0.811843
-0.0520935 0.0478028 0.812302
-0.0516226 0.0464644 0.812937
-0.0511493 0.0451244 0.813528
-0.0506931 0.0437877 0.814505
-0.0502369 0.0424495 0.815493
-0.0497877 0.0411102 0.816662
-0.049338 0.039768 0.817847
-0.0488945 0.0384237 0.819197
-0.0484423 0.0370757 0.820373
-0.0479883 0.0357238 0.82154
-0.0475193 0.0343692 0.822366
-0.0470416 0.0330113 0.823012
-0.0465526 0.0316531 0.82339
-0.0460565 0.0302951 0.823593
-0.0455666 0.0289359 0.823955
-0.0450842 0.0275754 0.824511
-0.0446097 0.0262122 0.825283
-0.0441471 0.0248439 0.826387
-0.0436967 0.0234707 0.827833
-0.0432451 0.0220928 0.829287
-0.0428045 0.0207055 0.831099
-0.042372 0.0193102 0.833175
-0.0419421 0.0179079 0.835377
-0.0415129 0.0164968 0.837676
-0.0410874 0.0150756 0.840154
-0.0406601 0.0136471 0.842656
-0.0402289 0.0122129 0.845113
-0.0397836 0.0107798 0.84722
-0.0994612 0.16997 0.902458
-0.0987247 0.168172 0.900709
-0.0979742 0.166355 0.898781
-0.0972478 0.164578 0.89709
-0.0965151 0.162795 0.895304
-0.0957969 0.161036 0.893651
-0.09511 0.159327 0.892323
-0.0944271 0.157626 0.891019
-0.0937883 0.155992 0.890193
-0.093161 0.154378 0.889484
-0.0925471 0.152785 0.888917
-0.0919103 0.151159 0.888075
-0.0913032 0.149578 0.887561
-0.0906549 0.147939 0.886554
-0.0899836 0.146268 0.885259
-0.0893281 0.144623 0.88413
-0.08846 0.142677 0.880433
-0.0872369 0.140238 0.872397
-0.0847551 0.135349 0.855527
-0.0835528 0.132978 0.847375
-0.08285 0.131305 0.845307
-0.0822085 0.129719 0.843971
-0.0815538 0.128118 0.842445
-0.0809039 0.126526 0.840954
-0.0802585 0.124943 0.839494
-0.0795932 0.123336 0.837753
-0.0789107 0.12171 0.835757
-0.0782323 0.120093 0.83378
-0.0775697 0.1185 0.831977
-0.0769236 0.116931 0.830362
-0.0763133 0.115411 0.829199
-0.0757035 0.113893 0.828019
-0.0751261 0.112419 0.82726
-0.0745734 0.110976 0.826822
-0.0740053 0.109516 0.826161
-0.0734382 0.108059 0.825501
-0.0728704 0.106602 0.824816
-0.0723027 0.105147 0.824116
-0.0717258 0.103683 0.823267
-0.0711624 0.102237 0.822599
-0.0706007 0.100794 0.821937
-0.0700392 0.0993527 0.821267
-0.0694785 0.097914 0.820589
-0.068913 0.0964719 0.819825
-0.0683597 0.095045 0.81923
-0.0678031 0.0936159 0.818568
-0.0672534 0.0921957 0.817995
-0.0666937 0.0907668 0.817254
-0.0661334 0.0893391 0.816487
-0.0655536 0.0878936 0.815391
-0.064975 0.0864519 0.814293
-0.0643981 0.0850147 0.813196
-0.0638289 0.0835872 0.812198
-0.0632568 0.0821598 0.811132
-0.0626863 0.0807363 0.810064
-0.0621107 0.0793111 0.808889
-0.061546 0.0778983 0.807869
-0.0609942 0.0764994 0.807045
-0.060465 0.0751223 0.806589
-0.0599619 0.0737684 0.806573
-0.0594727 0.0724267 0.8068
-0.0589967 0.0710953 0.807259
-0.0585162 0.0697599 0.807645
-0.0580355 0.0684238 0.808027
-0.0575539 0.0670869 0.8084
-0.0570676 0.065746 0.808686
-0.056577 0.0644021 0.808896
-0.0560865 0.0630581 0.809106
-0.0555959 0.0617142 0.809316
-0.0551054 0.0603703 0.809526
-0.0546148 0.0590263 0.809736
-0.0541243 0.0576825 0.809945
-0.0536338 0.0563385 0.810155
-0.0531432 0.0549946 0.810365
-0.0526527 0.0536506 0.810575
-0.052166 0.0523085 0.810867
-0.0516758 0.0509647 0.811086
-0.051189 0.0496222 0.811377
-0.0507096 0.0482824 0.811827
-0.0502379 0.046945 0.812455
-0.0497635 0.0456053 0.813034
-0.0493032 0.0442689 0.813938
-0.0488419 0.0429304 0.814837
-0.0483874 0.0415917 0.815908
-0.047936 0.0402513 0.817073
-0.0474911 0.0389089 0.818425
-0.0470415 0.0375626 0.819693
-0.0465903 0.036213 0.820951
-0.0461235 0.0348593 0.821856
-0.0456456 0.0335031 0.822499
-0.0451566 0.0321452 0.822878
-0.0446608 0.0307875 0.823084
-0.0441681 0.0294295 0.823371
-0.0436852 0.0280697 0.823925
-0.0432095 0.0267076 0.82468
-0.0427464 0.0253416 0.825791
-0.042297 0.0239686 0.827316
-0.0418501 0.0225895 0.828959
-0.0414112 0.0212033 0.830871
-0.0409794 0.0198076 0.833056
-0.0405434 0.0184075 0.835169
-0.0401045 0.0170005 0.837279
-0.0396713 0.0155839 0.839624
-0.0392375 0.0141596 0.842021
-0.0388031 0.0127273 0.844482
-0.038364 0.0112897 0.84687
-0.0986795 0.172355 0.904342
-0.0979399 0.170544 0.902552
-0.0971935 0.168724 0.90066
-0.0964712 0.166945 0.899009
-0.0957677 0.165197 0.897539
-0.0950496 0.16343 0.895886
-0.0943512 0.161695 0.894427
-0.0936652 0.159982 0.893085
-0.0929761 0.158267 0.891688
-0.0923297 0.156618 0.89076
-0.0917038 0.155002 0.890055
-0.0910822 0.153395 0.889387
-0.0904457 0.151766 0.888531
-0.0898369 0.15018 0.887988
-0.0891969 0.148549 0.88706
-0.0885364 0.146889 0.885869
-0.0879077 0.145278 0.885044
-0.0869278 0.143159 0.879913
-0.0856812 0.140662 0.871421
-0.0844248 0.138164 0.862679
-0.0831827 0.135701 0.853983
-0.0819681 0.13329 0.845498
-0.0813723 0.131762 0.844725
-0.0807429 0.130189 0.843508
-0.0800863 0.128581 0.841919
-0.0794401 0.126989 0.840437
-0.0788041 0.125414 0.839061
-0.0781487 0.123816 0.837407
-0.0774709 0.12219 0.835424
-0.0767965 0.120573 0.833452
-0.0761367 0.118978 0.831642
-0.075493 0.117408 0.830018
-0.0748854 0.115888 0.828858
-0.0742846 0.114379 0.82777
-0.0737153 0.112912 0.827101
-0.0731697 0.111477 0.826748
-0.072603 0.110017 0.826088
-0.0720319 0.108552 0.825349
-0.0714651 0.107094 0.824657
-0.0708934 0.105632 0.823877
-0.0703178 0.104167 0.823022
-0.069756 0.102721 0.822355
-0.0692006 0.101283 0.821767
-0.0686417 0.0998429 0.82111
-0.0680877 0.0984101 0.820514
-0.0675235 0.0969671 0.819747
-0.0669663 0.0955338 0.81907
-0.0664107 0.0941039 0.8184
-0.0658573 0.0926781 0.817751
-0.0652994 0.091249 0.817012
-0.0647366 0.0898167 0.816179
-0.0641641 0.0883761 0.815166
-0.0635875 0.0869337 0.814063
-0.0630173 0.0855005 0.813043
-0.0624504 0.0840729 0.812049
-0.0618759 0.0826405 0.810908
-0.0613024 0.0812115 0.809754
-0.0607193 0.0797764 0.808408
-0.0601512 0.0783585 0.807292
-0.0595962 0.0769552 0.806376
-0.0590724 0.0755822 0.805993
-0.0585694 0.0742285 0.805968
-0.0580847 0.0728912 0.80627
-0.057609 0.071561 0.806736
-0.0571338 0.0702307 0.807219
-0.0566582 0.0688995 0.807699
-0.0561816 0.0675668 0.808166
-0.0556997 0.0662298 0.808539
-0.0552131 0.0648888 0.808824
-0.0547226 0.0635448 0.809034
-0.054232 0.0622009 0.809244
-0.0537415 0.0608569 0.809454
-0.0532509 0.059513 0.809664
-0.0527604 0.0581691 0.809874
-0.0522698 0.0568252 0.810084
-0.0517829 0.0554833 0.81037
-0.0512961 0.0541412 0.810661
-0.0508133 0.052801 0.81104
-0.0503269 0.0514588 0.811343
-0.0498402 0.050116 0.811642
-0.0493559 0.0487741 0.812
-0.0488796 0.0474348 0.81254
-0.0484012 0.0460939 0.81304
-0.0479327 0.044756 0.813778
-0.0474628 0.0434152 0.814505
-0.0470023 0.042076 0.815463
-0.046546 0.0407363 0.816537
-0.0460963 0.0393942 0.817811
-0.0456464 0.0380495 0.819103
-0.045197 0.0367018 0.820439
-0.04473 0.0353489 0.821362
-0.0442518 0.0339936 0.82201
-0.0437631 0.0326368 0.822397
-0.0432704 0.0312794 0.822681
-0.0427778 0.0299224 0.822968
-0.0422947 0.0285636 0.82352
-0.0418179 0.0272022 0.824264
-0.0413531 0.0258369 0.825368
-0.0409017 0.0244645 0.826893
-0.040459 0.0230857 0.828713
-0.040021 0.0216995 0.830731
-0.0395897 0.0203037 0.83302
-0.0391502 0.0189037 0.835132
-0.0387059 0.0175007 0.837144
-0.0382635 0.0160883 0.839302
-0.037823 0.0146678 0.84159
-0.0373846 0.0132378 0.844029
-0.0369445 0.0118004 0.846493
-0.0379079 0.00985761 0.84878
-0.0364888 0.0103669 0.848504
-0.0993634 0.174081 0.905504
-0.0986146 0.176545 0.907796
-0.0978671 0.174708 0.905938
-0.0971754 0.172965 0.904669
-0.0964255 0.17113 0.90273
-0.0956689 0.169287 0.900689
-0.0949681 0.167536 0.899245
-0.094288 0.16582 0.898013
-0.0935832 0.164068 0.896479
-0.0929042 0.162358 0.895218
-0.0922204 0.160643 0.893879
-0.0915315 0.158922 0.89246
-0.0908863 0.157272 0.891531
-0.0902603 0.155652 0.890812
-0.0896305 0.154028 0.890035
-0.0890014 0.152407 0.889252
-0.0883931 0.150819 0.888705
-0.0877557 0.149188 0.887792
-0.0871137 0.147551 0.886806
-0.0865048 0.145966 0.886213
-0.0854057 0.143652 0.879499
-0.0841522 0.14112 0.870745
-0.0828931 0.138592 0.861782
-0.0816565 0.136111 0.852967
-0.0804547 0.133694 0.844461
-0.0798713 0.132182 0.843821
-0.0792595 0.130631 0.842798
-0.0786206 0.129043 0.841398
-0.0779827 0.127459 0.839987
-0.0773488 0.125883 0.838603
-0.0766963 0.124284 0.836944
-0.0760243 0.12266 0.834989
-0.0753608 0.121052 0.833114
-0.0747054 0.119458 0.831318
-0.0740703 0.117895 0.829771
-0.0734653 0.116374 0.828616
-0.0728725 0.114872 0.827611
-0.0723052 0.113406 0.826947
-0.071766 0.111978 0.826675
-0.0712008 0.110517 0.826015
-0.0706253 0.109044 0.82519
-0.0700595 0.107586 0.82449
-0.0694834 0.106116 0.823621
-0.0689039 0.104643 0.822681
-0.0683435 0.103196 0.82201
-0.0677956 0.101766 0.821515
-0.0672385 0.100326 0.820864
-0.0666918 0.0989001 0.820359
-0.0661349 0.0974632 0.81968
-0.0655793 0.0960296 0.819007
-0.0650251 0.0945993 0.818339
-0.064473 0.0931729 0.817687
-0.0639167 0.0917435 0.816951
-0.0633556 0.0903104 0.816116
-0.0627854 0.0888695 0.815111
-0.0622109 0.0874265 0.814009
-0.0616431 0.0859928 0.812994
-0.0610733 0.0845595 0.811919
-0.060496 0.0831213 0.81069
-0.0599192 0.0816864 0.809441
-0.0593336 0.0802457 0.808004
-0.0587632 0.0788231 0.806807
-0.0582057 0.0774156 0.805811
-0.0576829 0.0760427 0.805422
-0.0571799 0.0746892 0.805385
-0.0566953 0.0733525 0.805684
-0.0562193 0.0720232 0.806149
-0.0557517 0.0707006 0.806779
-0.055281 0.0693743 0.807357
-0.0548091 0.0680463 0.807922
-0.0543317 0.0667131 0.808386
-0.0538491 0.0653755 0.808753
-0.0533585 0.0640315 0.808963
-0.052868 0.0626876 0.809173
-0.0523774 0.0613437 0.809383
-0.0518869 0.0599997 0.809593
-0.0513964 0.0586559 0.809803
-0.0509058 0.0573119 0.810013
-0.050419 0.0559702 0.810304
-0.0499361 0.0546303 0.810681
-0.049457 0.0532924 0.81115
-0.0489744 0.0519517 0.811543
-0.0484908 0.0506104 0.811923
-0.0480064 0.049268 0.812285
-0.0475256 0.0479269 0.812738
-0.0470425 0.0465843 0.81314
-0.0465659 0.0452431 0.81371
-0.0460885 0.0439016 0.814262
-0.0456229 0.0425617 0.815121
-0.0451615 0.0412211 0.816109
-0.0447073 0.0398799 0.817303
-0.0442562 0.0385368 0.818595
-0.043808 0.0371905 0.820012
-0.0433437 0.0358396 0.821023
-0.0428681 0.0344846 0.821762
-0.0423796 0.0331281 0.822158
-0.0418868 0.0317713 0.822439
-0.0413911 0.0304146 0.822638
-0.0409045 0.0290562 0.823102
-0.0404245 0.0276967 0.823768
-0.039961 0.0263318 0.824946
-0.0395105 0.0249603 0.826554
-0.0390706 0.0235806 0.82854
-0.0386357 0.022194 0.830735
-0.0382064 0.020797 0.833194
-0.0377643 0.0193979 0.835319
-0.0373166 0.0179951 0.837325
-0.0368659 0.0165862 0.839313
-0.0364171 0.0151707 0.841421
-0.0359678 0.0137474 0.843595
-0.0355211 0.0123137 0.84595
-0.0350604 0.0108853 0.847858
-0.0970408 0.177052 0.907422
-0.0963289 0.175269 0.905923
-0.0956498 0.173542 0.904768
-0.0949142 0.171723 0.902953
-0.09416 0.169876 0.900898
-0.0934722 0.168141 0.899576
-0.092813 0.166455 0.898562
-0.0921215 0.164718 0.897154
-0.091453 0.16302 0.895994
-0.09077 0.161301 0.89464
-0.0900831 0.159577 0.893218
-0.0894383 0.157923 0.892278
-0.0888127 0.156301 0.891552
-0.0881758 0.154662 0.890676
-0.0875551 0.15305 0.889981
-0.0869491 0.151463 0.889453
-0.0863159 0.149834 0.888576
-0.0856923 0.148221 0.887802
-0.0850996 0.146658 0.887403
-0.0838929 0.144158 0.87919
-0.0826361 0.141594 0.870208
-0.0813759 0.139037 0.861039
-0.0801485 0.136544 0.852152
-0.0789572 0.134117 0.843594
-0.0783745 0.132604 0.842939
-0.0777726 0.131064 0.842014
-0.0771422 0.129485 0.84069
-0.0764993 0.127889 0.83917
-0.0758679 0.126313 0.837778
-0.0752203 0.124715 0.836138
-0.0745595 0.123102 0.834284
-0.0739068 0.121504 0.832511
-0.0732671 0.119926 0.830885
-0.0726417 0.118372 0.829434
-0.0720455 0.11686 0.82837
-0.0714612 0.115367 0.827457
-0.0709007 0.113907 0.826874
-0.070357 0.112472 0.826522
-0.0697928 0.11101 0.825856
-0.0692131 0.109529 0.824942
-0.068643 0.108062 0.824155
-0.0680622 0.106583 0.823186
-0.0674846 0.105111 0.822243
-0.0669254 0.103663 0.821564
-0.06638 0.102235 0.821087
-0.0658305 0.100802 0.820531
-0.0652908 0.0993832 0.820118
-0.0647411 0.0979532 0.819532
-0.0641877 0.0965201 0.81887
-0.0636357 0.09509 0.818213
-0.0630841 0.0936622 0.817546
-0.0625288 0.0922318 0.816802
-0.061969 0.0907978 0.81596
-0.0614013 0.0893568 0.814963
-0.0608336 0.0879184 0.813942
-0.0602683 0.0864848 0.812938
-0.0596955 0.0850455 0.811776
-0.0591157 0.0836012 0.81046
-0.0585353 0.0821594 0.809103
-0.0579473 0.080713 0.807572
-0.0573757 0.0792865 0.806308
-0.0568169 0.0778753 0.805245
-0.0562914 0.0764993 0.804784
-0.055785 0.0751426 0.804668
-0.0553001 0.0738065 0.804958
-0.0548239 0.0724782 0.805419
-0.0543602 0.0711605 0.80613
-0.0538928 0.0698384 0.806781
-0.0534289 0.0685184 0.807509
-0.0529558 0.0671897 0.808066
-0.0524776 0.065856 0.808525
-0.051991 0.0645154 0.808816
-0.0515041 0.0631743 0.809101
-0.0510135 0.0618303 0.809311
-0.050523 0.0604864 0.809521
-0.0500325 0.0591426 0.809731
-0.0495453 0.0578008 0.810017
-0.0490622 0.0564614 0.810393
-0.0485829 0.0551239 0.810864
-0.0481076 0.0537881 0.811431
-0.0476283 0.0524492 0.811914
-0.0471446 0.0511074 0.812302
-0.0466597 0.0497645 0.812668
-0.0461748 0.0484212 0.813036
-0.0456874 0.0470765 0.813345
-0.0452029 0.0457324 0.813733
-0.0447178 0.0443878 0.81411
-0.0442448 0.0430466 0.814805
-0.043782 0.0417068 0.815782
-0.0433237 0.0403662 0.816901
-0.0428708 0.0390245 0.818184
-0.0424234 0.0376792 0.819671
-0.0419604 0.036329 0.820752
-0.0414853 0.0349756 0.821516
-0.0409967 0.0336196 0.821915
-0.0405062 0.0322629 0.822264
-0.0400099 0.030906 0.822446
-0.0395206 0.0295488 0.822836
-0.0390401 0.0281898 0.823503
-0.0385775 0.0268251 0.824755
-0.0381254 0.0254545 0.826378
-0.037683 0.0240764 0.828368
-0.0372474 0.0226886 0.830658
-0.0368148 0.0212933 0.833119
-0.0363698 0.0198955 0.835246
-0.0359193 0.0184937 0.837252
-0.0354658 0.0170858 0.839239
-0.0350097 0.0156745 0.841185
-0.0345521 0.0142559 0.84317
-0.0340974 0.0128288 0.845328
-0.0336289 0.0114058 0.84704
-0.0345911 0.0094562 0.849535
-0.0331511 0.00998583 0.848446
-0.0341061 0.00803792 0.850667
-0.0326631 0.00857314 0.849475
-0.0947995 0.175845 0.90601
-0.0941182 0.17411 0.904805
-0.0933837 0.172286 0.902966
-0.0926504 0.170467 0.901113
-0.0919751 0.168747 0.899907
-0.0913189 0.167061 0.898908
-0.0906456 0.165349 0.897688
-0.0899872 0.163663 0.896626
-0.0893143 0.161955 0.89537
-0.0886302 0.16023 0.893956
-0.0879868 0.158574 0.893014
-0.087355 0.156938 0.8922
-0.0867116 0.155285 0.891226
-0.0860923 0.153672 0.890534
-0.0854966 0.152098 0.890126
-0.0848809 0.150493 0.889453
-0.0842814 0.148915 0.888974
-0.0837106 0.147383 0.888855
-0.0799402 0.139604 0.861341
-0.0786887 0.137046 0.851942
-0.0774711 0.134553 0.842845
-0.076885 0.133032 0.842119
-0.0762732 0.131475 0.841029
-0.0756446 0.129894 0.839688
-0.0749987 0.128289 0.83808
-0.0743706 0.126714 0.836692
-0.0737332 0.125127 0.835144
-0.0730827 0.123523 0.833382
-0.0724406 0.121935 0.831707
-0.0718158 0.120374 0.830247
-0.0712065 0.118838 0.828986
-0.0706146 0.117329 0.827953
-0.0700439 0.115852 0.827212
-0.0694851 0.114393 0.826633
-0.0689365 0.112949 0.826194
-0.0683683 0.111479 0.825443
-0.0677897 0.109997 0.824516
-0.0672159 0.108523 0.823643
-0.0666368 0.107044 0.822666
-0.0660661 0.105577 0.821799
-0.0655089 0.104131 0.821128
-0.0649653 0.102703 0.820657
-0.0644224 0.101277 0.820185
-0.0638891 0.0998648 0.819858
-0.0633418 0.0984357 0.819288
-0.0627951 0.097009 0.818713
-0.0622446 0.0955786 0.818057
-0.0616894 0.0941443 0.817304
-0.0611303 0.092707 0.816466
-0.060572 0.0912725 0.815619
-0.0600066 0.0898316 0.814626
-0.0594461 0.0883987 0.813696
-0.0588871 0.0869695 0.812768
-0.0583168 0.0855298 0.81161
-0.0577341 0.0840789 0.810196
-0.0571513 0.0826312 0.808745
-0.056562 0.0811796 0.807138
-0.0559888 0.0797486 0.805794
-0.0554328 0.078338 0.804742
-0.0549086 0.0769623 0.80428
-0.0544025 0.0756056 0.804156
-0.0539144 0.0742669 0.804378
-0.0534343 0.0729359 0.804763
-0.0529663 0.0716159 0.805396
-0.0524982 0.0702947 0.806038
-0.0520341 0.0689764 0.806774
-0.0515685 0.0676555 0.807492
-0.0510984 0.0663296 0.808123
-0.0506196 0.0649958 0.808582
-0.0501367 0.0636582 0.808955
-0.0496496 0.062317 0.80924
-0.0491591 0.0609731 0.80945
-0.0486718 0.0596316 0.809735
-0.0481885 0.0582924 0.810109
-0.0477087 0.0569554 0.810576
-0.0472329 0.0556202 0.811137
-0.0467568 0.0542841 0.811705
-0.0462771 0.052945 0.812197
-0.0457929 0.0516026 0.812584
-0.0453048 0.0502579 0.812879
-0.0448163 0.0489126 0.813165
-0.044328 0.0475678 0.813458
-0.0438394 0.0462213 0.813752
-0.0433508 0.0448755 0.814045
-0.0428769 0.0435347 0.814734
-0.0424101 0.0421947 0.81563
-0.04195 0.0408545 0.816741
-0.0414949 0.0395132 0.818008
-0.041046 0.0381696 0.819502
-0.0405817 0.0368197 0.820589
-0.040111 0.0354671 0.821513
-0.0396221 0.0341106 0.821915
-0.0391315 0.0327544 0.822267
-0.0386351 0.0313975 0.822442
-0.0381447 0.0300399 0.822813
-0.0376612 0.0286808 0.823411
-0.0371973 0.027317 0.824671
-0.0367432 0.0259471 0.826302
-0.0362985 0.0245704 0.828303
-0.0358598 0.0231845 0.83059
-0.0354235 0.0217901 0.833048
-0.0349775 0.0203919 0.835253
-0.0345243 0.0189911 0.837266
-0.0340682 0.0175844 0.839255
-0.0336068 0.0161749 0.841111
-0.033142 0.0147618 0.842908
-0.0326774 0.0133419 0.844785
-0.0322017 0.0119247 0.84629
-0.0317165 0.0105134 0.847431
-0.0312231 0.00910608 0.848275
-0.0321571 0.00717548 0.849815
-0.0307157 0.00771407 0.848517
-0.0316363 0.00579825 0.8495
-0.0301927 0.00634246 0.84804
-0.0311022 0.00443987 0.848593
-0.0296635 0.0049835 0.847231
-0.0305588 0.00310148 0.8472
-0.0291288 0.00363729 0.846104
-0.0300157 0.00177109 0.845721
-0.0285947 0.00229741 0.844923
-0.0294807 0.000434163 0.844557
-0.0280676 0.000950622 0.844038
-0.0291686 -0.00130116 0.854227
-0.0939055 0.17753 0.913467
-0.0925892 0.174682 0.904876
-0.0918753 0.172887 0.903241
-0.0911531 0.17108 0.901482
-0.0904865 0.16937 0.900358
-0.0898379 0.167693 0.89943
-0.0891671 0.16598 0.898216
-0.0885183 0.164305 0.897248
-0.0878486 0.162597 0.896009
-0.0871672 0.160871 0.8946
-0.086518 0.159201 0.893569
-0.0858869 0.157563 0.892747
-0.085245 0.155907 0.891771
-0.0846415 0.154317 0.891267
-0.0840619 0.152767 0.891059
-0.0834559 0.151174 0.890501
-0.0828646 0.149607 0.890123
-0.0822933 0.148072 0.889999
-0.0784768 0.14013 0.861287
-0.0772168 0.137528 0.851565
-0.0759933 0.134997 0.842181
-0.0754022 0.133466 0.841359
-0.0747804 0.131889 0.840096
-0.0741538 0.130307 0.838739
-0.0735108 0.128702 0.837125
-0.0728811 0.12712 0.835669
-0.0722485 0.125536 0.834143
-0.0716081 0.123942 0.832473
-0.0709744 0.122361 0.830868
-0.0703542 0.120803 0.829432
-0.06976 0.119286 0.828353
-0.0691779 0.117788 0.827434
-0.0686207 0.116328 0.826871
-0.0680637 0.114869 0.826295
-0.0675155 0.113424 0.825843
-0.0669431 0.111946 0.825
-0.0663658 0.110463 0.824062
-0.0657893 0.108982 0.823115
-0.0652129 0.107504 0.822148
-0.0646443 0.106038 0.821283
-0.0640895 0.104592 0.820623
-0.0635469 0.103164 0.820146
-0.06301 0.101745 0.819754
-0.0624824 0.100339 0.819503
-0.0619465 0.0989227 0.819103
-0.0614023 0.097497 0.818547
-0.0608523 0.0960654 0.817878
-0.0602936 0.0946242 0.817035
-0.0597305 0.0931792 0.816093
-0.0591703 0.0917399 0.815178
-0.0586154 0.0903093 0.814337
-0.0580629 0.0888832 0.813518
-0.0575106 0.0874591 0.812678
-0.0569424 0.0860187 0.811521
-0.0563577 0.0845616 0.810018
-0.0557691 0.0831037 0.808407
-0.0551786 0.0816467 0.806716
-0.054604 0.0802108 0.805292
-0.0540462 0.078796 0.804163
-0.0535186 0.0774157 0.803605
-0.0530095 0.0760557 0.803402
-0.0525173 0.0747137 0.803535
-0.0520304 0.073377 0.803773
-0.0515619 0.0720582 0.8044
-0.0510934 0.0707386 0.805036
-0.0506286 0.0694216 0.805763
-0.0501668 0.0681061 0.806568
-0.049708 0.066792 0.807453
-0.0492375 0.0654664 0.808097
-0.0487624 0.0641361 0.808646
-0.0482824 0.0628011 0.809093
-0.0477952 0.0614598 0.809379
-0.0473081 0.0601185 0.80967
-0.046828 0.0587821 0.810131
-0.0463518 0.0574478 0.810689
-0.0458789 0.0561151 0.811346
-0.0454052 0.0547806 0.81199
-0.0449272 0.0534425 0.812538
-0.044442 0.0520993 0.812914
-0.0439535 0.0507541 0.813208
-0.0434617 0.0494068 0.813418
-0.0429701 0.04806 0.813629
-0.0424782 0.0467123 0.813839
-0.0419863 0.0453647 0.81405
-0.0415089 0.0440228 0.814662
-0.0410382 0.0426825 0.815479
-0.0405767 0.0413428 0.816582
-0.0401173 0.0400011 0.817782
-0.0396664 0.0386584 0.819269
-0.0392012 0.0373097 0.820363
-0.0387347 0.0359585 0.82145
-0.0382462 0.0346026 0.82187
-0.0377577 0.0332455 0.822304
-0.0372637 0.031889 0.822556
-0.0367732 0.0305307 0.822936
-0.0362888 0.0291725 0.823524
-0.0358232 0.0278087 0.824787
-0.0353668 0.02644 0.826413
-0.0349189 0.025063 0.828412
-0.0344786 0.023677 0.83077
-0.0340387 0.0222829 0.833236
-0.0335917 0.0208845 0.835527
-0.0331356 0.0194842 0.837543
-0.0326746 0.0180794 0.83945
-0.0322062 0.0166741 0.841123
-0.0317322 0.0152662 0.84265
-0.0312587 0.0138539 0.844239
-0.0307753 0.0124442 0.845477
-0.0302828 0.0110411 0.846336
-0.0297852 0.00964093 0.846996
-0.0292778 0.0082509 0.847217
-0.0287566 0.00688076 0.84674
-0.028233 0.00551724 0.846107
-0.0277067 0.00416416 0.845259
-0.0271801 0.00281512 0.844353
-0.0266589 0.00146196 0.843675
-0.0275526 -0.000411976 0.843706
-0.0261481 9.20915e-05 0.843534
-0.027043 -0.00178432 0.843656
-0.0256406 -0.00128392 0.843575
-0.0267184 -0.00356771 0.854001
-0.0910461 0.175231 0.904785
-0.0903683 0.173494 0.903548
-0.0896721 0.171725 0.902066
-0.0890056 0.170011 0.900922
-0.0883576 0.168331 0.899983
-0.0876956 0.166627 0.898853
-0.0870418 0.16494 0.897807
-0.0863759 0.163233 0.896588
-0.0857039 0.161517 0.89527
-0.0850623 0.159855 0.894315
-0.0844244 0.158201 0.89339
-0.0837907 0.156555 0.892501
-0.0831957 0.154976 0.892098
-0.0826165 0.153425 0.891894
-0.0820121 0.151832 0.891348
-0.0814282 0.150274 0.891064
-0.0808513 0.148728 0.890864
-0.0757416 0.138003 0.851128
-0.0745191 0.135443 0.841538
-0.0739236 0.133903 0.840629
-0.0732977 0.132315 0.839267
-0.0726783 0.13074 0.837972
-0.0720389 0.129135 0.83636
-0.0714084 0.127547 0.834848
-0.0707797 0.125964 0.833331
-0.070142 0.124369 0.831651
-0.0695115 0.122789 0.830045
-0.0688948 0.121231 0.828614
-0.0683104 0.119725 0.827647
-0.0677368 0.118237 0.826824
-0.0671869 0.116786 0.826349
-0.0666308 0.115327 0.825766
-0.0660793 0.113875 0.82524
-0.0655075 0.112395 0.824375
-0.064938 0.11092 0.823526
-0.0643636 0.10944 0.822579
-0.0637959 0.107971 0.821718
-0.0632395 0.106519 0.821024
-0.0626911 0.10508 0.820449
-0.0621449 0.103645 0.819892
-0.061613 0.102231 0.819563
-0.0610865 0.100826 0.819318
-0.0605478 0.0994043 0.81885
-0.0600008 0.0979731 0.818223
-0.0594518 0.0965406 0.817543
-0.0588896 0.0950922 0.816605
-0.0583236 0.093641 0.815574
-0.0577692 0.0922066 0.814729
-0.057222 0.0907831 0.813995
-0.0566768 0.0893635 0.813277
-0.0561313 0.0879455 0.812535
-0.0555656 0.0865045 0.811382
-0.0549831 0.085046 0.80987
-0.0543933 0.0835823 0.808176
-0.0538052 0.0821237 0.806473
-0.053233 0.0806868 0.805042
-0.052673 0.0792667 0.803823
-0.052139 0.0778775 0.803104
-0.0516258 0.0765128 0.802798
-0.051126 0.0751629 0.802759
-0.0506317 0.0738195 0.802833
-0.0501588 0.0724979 0.803366
-0.0496863 0.0711763 0.803919
-0.0492209 0.0698606 0.804635
-0.0487628 0.0685511 0.805532
-0.0483077 0.0672429 0.806516
-0.0478488 0.0659296 0.807429
-0.0473845 0.0646099 0.808235
-0.0469118 0.0632818 0.808859
-0.046428 0.0619439 0.809232
-0.0459441 0.0606053 0.809601
-0.045464 0.0592692 0.81007
-0.0449878 0.0579357 0.810645
-0.0445142 0.0566032 0.8113
-0.0440397 0.0552689 0.811941
-0.0435608 0.0539307 0.812481
-0.0430751 0.0525874 0.812849
-0.0425862 0.051242 0.813136
-0.0420944 0.0498947 0.813347
-0.0416028 0.0485479 0.813557
-0.0411109 0.0472002 0.813768
-0.040619 0.0458525 0.813978
-0.040141 0.0445109 0.81459
-0.0396668 0.0431701 0.815327
-0.0392035 0.0418309 0.816423
-0.0387423 0.0404897 0.817614
-0.0382899 0.0391484 0.819115
-0.0378239 0.0378006 0.820225
-0.0373608 0.03645 0.821469
-0.0368746 0.0350941 0.821984
-0.0363888 0.0337374 0.822523
-0.0358974 0.0323806 0.822869
-0.0354085 0.0310217 0.823325
-0.0349231 0.0296624 0.82391
-0.034458 0.028299 0.825253
-0.0339986 0.0269298 0.826868
-0.0335454 0.0255537 0.828784
-0.0331014 0.0241687 0.831134
-0.0326576 0.0227749 0.833599
-0.0322058 0.0213783 0.835828
-0.0317447 0.0199783 0.837773
-0.0312807 0.0185746 0.839673
-0.0308053 0.0171725 0.841151
-0.0303253 0.0157695 0.842481
-0.0298434 0.0143627 0.843796
-0.029355 0.0129594 0.844844
-0.0288564 0.0115638 0.845434
-0.0283545 0.010169 0.845905
-0.0278444 0.00878566 0.845941
-0.0273249 0.00741771 0.845454
-0.0268049 0.00605343 0.844908
-0.0262839 0.00469389 0.844258
-0.0257647 0.00333684 0.843642
-0.0252499 0.00197466 0.843245
-0.0247425 0.00059858 0.843286
-0.0242369 -0.000780515 0.843421
-0.025135 -0.00266202 0.843711
-0.0237327 -0.00216164 0.843637
-0.0247892 -0.00445646 0.854087
-0.0232306 -0.00355057 0.844021
-0.0895109 0.175795 0.904792
-0.0888722 0.174123 0.904003
-0.0882128 0.172414 0.902944
-0.0875479 0.170698 0.901799
-0.0869013 0.169015 0.900861
-0.0862401 0.167308 0.899723
-0.0855888 0.16562 0.898687
-0.0849243 0.16391 0.897463
-0.0842535 0.16219 0.896138
-0.0836049 0.160512 0.895075
-0.0829669 0.158853 0.894131
-0.0823346 0.157206 0.893243
-0.0817343 0.155615 0.892763
-0.0811634 0.154076 0.892665
-0.0805597 0.152481 0.892119
-0.0799621 0.150898 0.891644
-0.0793701 0.149324 0.891233
-0.0796139 0.146094 0.881718
-0.0781329 0.146659 0.881885
-0.0742562 0.138458 0.850529
-0.0730368 0.135872 0.840757
-0.0724374 0.134322 0.839757
-0.0718085 0.132725 0.838309
-0.0711923 0.131151 0.837017
-0.0705565 0.129547 0.835408
-0.0699349 0.127968 0.833979
-0.06931 0.126386 0.83247
-0.0686808 0.1248 0.830867
-0.0680534 0.123219 0.829257
-0.067445 0.12167 0.827906
-0.0668634 0.120165 0.826948
-0.0662966 0.118685 0.8262
-0.0657489 0.117235 0.825739
-0.0651943 0.115776 0.825152
-0.0646344 0.11431 0.824466
-0.0640591 0.112822 0.82351
