ply
format ascii 1.0
element vertex 1646
property float x
property float y
property float z
end_header
0.0264298 -0.0121567 0.82051
0.0264342 -0.0136479 0.821272
0.0264284 -0.0151365 0.821791
0.0264327 -0.016631 0.822555
0.026451 -0.018137 0.823655
0.026479 -0.0196521 0.824986
0.026516 -0.0211776 0.826538
0.0265817 -0.022728 0.828781
0.0266559 -0.0242921 0.83123
0.0267315 -0.0258647 0.833717
0.0268076 -0.0274458 0.836219
0.0268752 -0.029028 0.838519
0.0269271 -0.0306024 0.840445
0.0269593 -0.0321642 0.841899
0.0269765 -0.0337149 0.842993
0.0270032 -0.035279 0.844317
0.0270315 -0.0368494 0.84568
0.0271295 -0.038501 0.848732
0.027282 -0.0402272 0.85311
0.0274464 -0.0419817 0.857782
0.0277248 -0.0438941 0.865222
0.0279981 -0.0458243 0.872549
0.028208 -0.047695 0.87835
0.0283648 -0.0495114 0.882867
0.0285177 -0.0513379 0.887298
0.0295747 0.104535 0.808234
0.0295371 0.103019 0.808028
0.0294894 0.101479 0.807603
0.0294121 0.0998695 0.80653
0.0293336 0.0982618 0.805431
0.02925 0.0966461 0.804219
0.0291402 0.0949754 0.802436
0.0290305 0.0933107 0.800649
0.0289201 0.0916512 0.798847
0.0288188 0.0900174 0.797238
0.0287231 0.0884016 0.795751
0.0286362 0.0868094 0.794453
0.0285558 0.0852354 0.793295
0.028457 0.0836286 0.791736
0.0283431 0.0819968 0.789839
0.0282344 0.0803821 0.788056
0.0281168 0.0787562 0.786071
0.0280009 0.0771408 0.784124
0.0279132 0.0755844 0.782793
0.0278349 0.0740499 0.781666
0.0277614 0.0725283 0.780647
0.0277029 0.0710363 0.779953
0.0276478 0.0695532 0.779335
0.0275929 0.0680726 0.778717
0.0275384 0.0665954 0.77811
0.0274805 0.0651149 0.777424
0.027429 0.0636474 0.776882
0.0273813 0.0621877 0.776419
0.0273383 0.0607372 0.776062
0.0273106 0.0593102 0.77604
0.027287 0.05789 0.776114
0.0272701 0.056479 0.776333
0.0272594 0.0550762 0.776693
0.0272535 0.0536789 0.777158
0.0272483 0.0522813 0.777638
0.0272395 0.0508781 0.778038
0.0272187 0.0494599 0.778175
0.0271971 0.0480404 0.778289
0.0271789 0.046625 0.778481
0.0271595 0.0452081 0.778648
0.0271639 0.0438161 0.779347
0.0271867 0.0424409 0.780456
0.0272043 0.0410574 0.781448
0.0272324 0.0396809 0.78268
0.0272704 0.0383097 0.784135
0.0272889 0.0369173 0.785153
0.0273345 0.0355442 0.786779
0.0274193 0.0341974 0.789289
0.0281727 0.0275441 0.809308
0.0281787 0.0260927 0.810066
0.0281719 0.0246326 0.810539
0.0281504 0.0231641 0.810679
0.0281289 0.0216956 0.810819
0.0281074 0.0202271 0.810959
0.0280783 0.0187558 0.810928
0.0280484 0.0172847 0.810876
0.0280251 0.0158162 0.810976
0.0280037 0.0143484 0.811116
0.0279839 0.0128809 0.811295
0.0279708 0.0114147 0.811627
0.0279569 0.0099475 0.811938
0.0279354 0.008479 0.812078
0.0279139 0.00701051 0.812218
0.0279068 0.0055426 0.812688
0.0278907 0.00407357 0.812948
0.0278889 0.00260356 0.813538
0.0278871 0.00113205 0.814126
0.0278881 -0.0003413 0.814785
0.0278792 -0.00181477 0.815212
0.0278948 -0.00329401 0.816202
0.0278973 -0.00477312 0.816896
0.0279006 -0.00625409 0.817603
0.0279023 -0.00773659 0.818278
0.0279066 -0.00922179 0.819013
0.0279009 -0.0107052 0.819519
0.0278964 -0.0121903 0.820052
0.0279021 -0.0136811 0.820822
0.0278965 -0.0151693 0.821335
0.0278981 -0.0166621 0.822011
0.0279106 -0.0181624 0.822937
0.0279361 -0.0196739 0.824169
0.0279711 -0.021195 0.825618
0.0280361 -0.0227421 0.82776
0.0281099 -0.0243013 0.830112
0.0281896 -0.0258726 0.832602
0.028273 -0.0274556 0.835182
0.0283444 -0.0290363 0.837487
0.0284032 -0.0306125 0.839501
0.0284381 -0.0321734 0.840965
0.0284566 -0.0337236 0.842054
0.0284741 -0.0352753 0.843116
0.0310482 0.104488 0.807985
0.031016 0.102986 0.807903
0.0309674 0.101446 0.807479
0.0308933 0.0998492 0.806517
0.0308208 0.0982593 0.805586
0.0307356 0.0966448 0.80439
0.0306235 0.0949757 0.802628
0.0305143 0.0933187 0.800921
0.0304044 0.0916663 0.799197
0.0302999 0.0900313 0.797584
0.030201 0.0884137 0.796088
0.0301112 0.0868199 0.794781
0.0300281 0.0852443 0.793615
0.0299233 0.0836302 0.791986
0.0298088 0.0820033 0.790151
0.0296969 0.0803879 0.788369
0.0295824 0.078774 0.786529
0.0294669 0.0771648 0.784666
0.0293778 0.0756092 0.783359
0.0292936 0.074067 0.782153
0.029218 0.0725439 0.78113
0.0291468 0.071032 0.780195
0.0290863 0.0695412 0.779489
0.0290295 0.0680593 0.77886
0.0289704 0.0665763 0.778182
0.0289114 0.0650959 0.777502
0.0288623 0.0636333 0.777035
0.0288142 0.062174 0.776586
0.0287711 0.0607239 0.776245
0.02875 0.0593062 0.776372
0.0287296 0.0578896 0.776515
0.0287166 0.0564826 0.776816
0.0287104 0.0550839 0.777263
0.0287085 0.0536898 0.777802
0.0287005 0.0522867 0.77821
0.0286886 0.0508781 0.778535
0.0286639 0.0494541 0.778588
0.0286414 0.0480328 0.778684
0.02862 0.0466129 0.778808
0.0286011 0.0451956 0.778983
0.0286072 0.0438035 0.779698
0.0286279 0.0424238 0.780726
0.0286393 0.0410322 0.781555
0.0286643 0.0396508 0.78268
0.0287001 0.0382754 0.784038
0.0287162 0.0368796 0.784972
0.0287929 0.0355294 0.78722
0.0280777 0.0289361 0.806546
0.0295741 0.0289191 0.807115
0.0296438 0.0275084 0.809231
0.02965 0.0260564 0.809972
0.02964 0.0245941 0.810361
0.0296185 0.0231256 0.810501
0.029597 0.0216571 0.810641
0.0295719 0.0201872 0.810703
0.0295422 0.0187159 0.810666
0.0295119 0.0172448 0.81061
0.0294887 0.0157766 0.810714
0.0294674 0.014309 0.81086
0.0294514 0.0128424 0.811117
0.0294387 0.0113762 0.811449
0.0294286 0.00990963 0.811839
0.029411 0.00844139 0.812064
0.0293934 0.00697294 0.812291
0.0293875 0.00550455 0.812773
0.0293712 0.00403506 0.813028
0.0293663 0.00256477 0.813531
0.0293607 0.00109326 0.814023
0.0293558 -0.000379434 0.814528
0.0293429 -0.0018522 0.81486
0.0293518 -0.00332956 0.81567
0.0293473 -0.00480627 0.816184
0.0293471 -0.00628549 0.816798
0.0293499 -0.00776693 0.817476
0.0293558 -0.00925132 0.818224
0.0293587 -0.0107366 0.818904
0.029362 -0.0122238 0.819597
0.0293693 -0.0137149 0.820377
0.0293643 -0.0152019 0.820891
0.0293698 -0.0166957 0.821631
0.02938 -0.0181945 0.822478
0.0294035 -0.019703 0.823625
0.02944 -0.0212237 0.825058
0.0295076 -0.022769 0.827187
0.0295774 -0.0243226 0.829365
0.0296528 -0.0258874 0.83167
0.0297355 -0.0274645 0.834142
0.0298026 -0.029038 0.83627
0.0298605 -0.0306094 0.838196
0.029898 -0.0321684 0.83967
0.0299179 -0.0337164 0.84075
0.0299367 -0.0352657 0.841807
0.0284965 -0.036835 0.844295
0.0299679 -0.0368307 0.843143
0.0325052 0.104404 0.807404
0.0324774 0.102913 0.80742
0.0324318 0.101382 0.807074
0.0323675 0.0998119 0.806351
0.0322978 0.0982322 0.805514
0.0322186 0.0966355 0.804486
0.0321114 0.0949831 0.802887
0.0320068 0.0933417 0.801339
0.0318941 0.0916891 0.799622
0.0317898 0.0900596 0.798075
0.03168 0.0884249 0.796415
0.0315792 0.0868133 0.794932
0.0314856 0.0852214 0.793598
0.031373 0.0835982 0.791874
0.0312521 0.0819655 0.789976
0.0311408 0.0803572 0.788272
0.0310311 0.0787578 0.786599
0.0309166 0.0771557 0.784823
0.0308295 0.0756074 0.783608
0.0307432 0.0740646 0.782405
0.030665 0.0725399 0.781369
0.0305839 0.0710142 0.780269
0.0305177 0.0695164 0.779477
0.030456 0.0680285 0.778773
0.0303954 0.0665451 0.778091
0.030335 0.0650647 0.777413
0.0302889 0.0636078 0.777028
0.030244 0.0621543 0.776666
0.0302038 0.0607089 0.776401
0.0301898 0.0593004 0.776677
0.0301734 0.057888 0.776901
0.0301652 0.056486 0.777295
0.0301603 0.0550872 0.777758
0.0301592 0.053692 0.778299
0.030148 0.0522835 0.778633
0.0301318 0.0508686 0.778864
0.0301067 0.0494436 0.77891
0.0300872 0.0480247 0.779072
0.0300659 0.046604 0.779197
0.0300502 0.045189 0.779437
0.0300614 0.0437999 0.780238
0.0300805 0.0424158 0.7812
0.0300894 0.04102 0.781956
0.0301153 0.0396369 0.783065
0.030145 0.0382537 0.784253
0.0301648 0.0368591 0.785238
0.0302582 0.0355183 0.787758
0.0310695 0.0288998 0.807607
0.0311271 0.0274793 0.809402
0.0311258 0.0260223 0.809966
0.0311118 0.0245576 0.810263
0.0310865 0.0230872 0.810323
0.031065 0.0216187 0.810463
0.0310395 0.0201486 0.810519
0.0310099 0.0186773 0.810487
0.0309796 0.0172065 0.810444
0.0309573 0.0157385 0.810565
0.0309363 0.014271 0.810715
0.0309199 0.0128043 0.810961
0.0309068 0.0113378 0.811279
0.0309008 0.00987173 0.811746
0.0308877 0.00840389 0.812065
0.0308713 0.00693512 0.812312
0.0308662 0.00546641 0.812797
0.0308492 0.0039966 0.813035
0.0308364 0.00252624 0.813359
0.0308232 0.00105543 0.813675
0.0308183 -0.000417012 0.814169
0.0307985 -0.00188848 0.814345
0.0308006 -0.003364 0.814989
0.0307956 -0.0048396 0.815479
0.0307954 -0.00631765 0.816074
0.0307961 -0.00779749 0.816688
0.0308072 -0.00928218 0.817525
0.030819 -0.0107693 0.818375
0.0308277 -0.012258 0.819165
0.0308359 -0.0137488 0.819941
0.0308354 -0.0152365 0.820533
0.0308453 -0.016732 0.821351
0.0308532 -0.0182289 0.822122
0.0308749 -0.0197348 0.823191
0.0309133 -0.0212549 0.82462
0.0309798 -0.0227972 0.826653
0.0310487 -0.0243475 0.828739
0.0311229 -0.0259081 0.83094
0.0312005 -0.0274784 0.83322
0.0312652 -0.0290455 0.835224
0.0313174 -0.0306087 0.836962
0.0313524 -0.0321615 0.838332
0.0313744 -0.0337076 0.839422
0.0313985 -0.0352589 0.840563
0.0314356 -0.0368262 0.84198
0.0299861 -0.0383865 0.844194
0.0314592 -0.0383846 0.843111
0.033989 0.104382 0.807375
0.0339594 0.102888 0.807359
0.0339118 0.101354 0.806991
0.03385 0.0997923 0.806344
0.0337787 0.0982127 0.805512
0.0337022 0.0966254 0.804574
0.0336006 0.0949899 0.803142
0.0334979 0.0933573 0.801686
0.0333822 0.0917045 0.799975
0.0332711 0.0900665 0.798351
0.0331536 0.0884222 0.7966
0.0330405 0.0867919 0.794929
0.0329354 0.0851829 0.793418
0.0328148 0.083551 0.791598
0.0326904 0.0819186 0.7897
0.0325767 0.0803115 0.788008
0.0324733 0.0787284 0.78652
0.0323682 0.0771479 0.784995
0.0322839 0.0756074 0.783881
0.0321947 0.0740633 0.782669
0.0321168 0.0725414 0.781676
0.0320286 0.0710071 0.78048
0.0319573 0.069503 0.779613
0.0318942 0.0680149 0.778913
0.0318359 0.0665365 0.778305
0.0317742 0.0650554 0.777627
0.0317309 0.063603 0.777314
0.0316853 0.062149 0.776957
0.031641 0.0606982 0.776623
0.0316274 0.0592893 0.776903
0.0316153 0.0578817 0.777212
0.031605 0.0564758 0.777556
0.0316017 0.0550774 0.778037
0.0316045 0.0536852 0.778644
0.0315923 0.0522743 0.778951
0.0315722 0.0508541 0.779102
0.0315468 0.0494283 0.779148
0.0315278 0.0480094 0.779319
0.03151 0.0465915 0.779513
0.0315023 0.0451832 0.779912
0.0315187 0.0437967 0.780791
0.0315434 0.0424154 0.78184
0.0315573 0.0410216 0.782675
0.0315849 0.039637 0.783786
0.0316087 0.0382461 0.784821
0.03163 0.0368503 0.785806
0.031725 0.0355063 0.788278
0.0325964 0.0288975 0.808694
0.0326199 0.0274547 0.809741
0.0326069 0.0259905 0.810053
0.0325883 0.024523 0.810253
0.0325586 0.0230505 0.810224
0.0325332 0.0215802 0.810285
0.0325074 0.0201102 0.810338
0.0324813 0.0186403 0.810388
0.0324551 0.0171706 0.81043
0.0324339 0.0157027 0.810575
0.0324129 0.0142347 0.810726
0.0323961 0.0127676 0.810961
0.0323788 0.0113001 0.811186
0.0323734 0.0098339 0.811655
0.0323654 0.00836623 0.812073
0.0323507 0.0068974 0.812348
0.0323458 0.00542821 0.812829
0.0323242 0.00395812 0.812968
0.0323058 0.00248779 0.813171
0.032288 0.0010172 0.813387
0.0322836 -0.000454941 0.813879
0.0322642 -0.00192625 0.814061
0.032267 -0.00340156 0.8147
0.032258 -0.00487611 0.8151
0.032258 -0.00635371 0.815681
0.032259 -0.00783302 0.816286
0.0322725 -0.00931776 0.817147
0.0322901 -0.0108063 0.818093
0.0323041 -0.0122963 0.818967
0.0323101 -0.0137855 0.819677
0.0323139 -0.0152751 0.820345
0.0323253 -0.016771 0.821168
0.0323347 -0.0182672 0.821947
0.0323581 -0.0197746 0.823022
0.0324027 -0.021297 0.824533
0.0324642 -0.0228344 0.826396
0.0325279 -0.0243781 0.828308
0.0325963 -0.0259328 0.830317
0.0326637 -0.027492 0.83231
0.0327172 -0.029047 0.834018
0.0327623 -0.0306004 0.835552
0.0327943 -0.0321481 0.836816
0.0328179 -0.0336922 0.837907
0.0328447 -0.035242 0.839065
0.0328843 -0.0368075 0.840491
0.0329137 -0.0383676 0.84171
0.0354936 0.104405 0.80773
0.0354581 0.102897 0.807608
0.0354052 0.101354 0.807157
0.0353415 0.0997901 0.806498
0.0352638 0.0982003 0.805575
0.0351776 0.0965968 0.80449
0.035078 0.0949706 0.803147
0.0349779 0.0933483 0.801793
0.0348602 0.0916969 0.800102
0.0347463 0.0900588 0.798481
0.0346242 0.0884113 0.796703
0.0344945 0.0867563 0.794778
0.0343767 0.0851294 0.793077
0.0342438 0.0834817 0.791084
0.0341152 0.0818486 0.789171
0.0339996 0.0802445 0.787506
0.0339064 0.0786836 0.786264
0.0338086 0.0771199 0.784933
0.0337309 0.0755933 0.783984
0.0336432 0.0740545 0.782844
0.0335671 0.0725379 0.781922
0.0334763 0.0710024 0.780719
0.0334032 0.0694977 0.779854
0.0333388 0.068009 0.779156
0.0332794 0.0665301 0.77855
0.0332161 0.0650481 0.777869
0.033172 0.0635952 0.777558
0.0331256 0.0621404 0.777199
0.0330805 0.060689 0.776867
0.0330671 0.0592792 0.777143
0.0330555 0.0578711 0.777456
0.0330457 0.0564646 0.777803
0.0330427 0.0550655 0.778283
0.0330422 0.0536678 0.778809
0.0330256 0.0522511 0.779026
0.0330051 0.0508301 0.779167
0.0329798 0.0494042 0.779217
0.0329623 0.0479862 0.779416
0.0329496 0.0465727 0.779708
0.0329504 0.0451715 0.780264
0.0329683 0.0437844 0.781152
0.0329993 0.0424064 0.782293
0.0330188 0.0410151 0.783211
0.0330526 0.0396331 0.784411
0.0330746 0.0382382 0.785383
0.0331017 0.0368444 0.786454
0.0331917 0.0354926 0.788753
0.0341274 0.0288946 0.809773
0.0341244 0.0274352 0.810276
0.034106 0.025967 0.810478
0.0340789 0.0244947 0.810508
0.0340397 0.0230175 0.810302
0.0340095 0.0215451 0.810271
0.0339795 0.0200732 0.810242
0.0339534 0.0186032 0.810293
0.0339317 0.0171348 0.810428
0.0339104 0.0156665 0.810573
0.0338894 0.0141982 0.810722
0.0338722 0.0127308 0.810946
0.0338507 0.0112623 0.811086
0.0338462 0.00979598 0.811562
0.0338435 0.00832869 0.812074
0.0338335 0.00685978 0.81244
0.0338293 0.00539015 0.812922
0.0338105 0.00391957 0.813117
0.0337874 0.00244886 0.813226
0.0337656 0.000978196 0.81336
0.0337574 -0.000493799 0.813765
0.0337376 -0.00196517 0.81394
0.0337338 -0.00343932 0.81443
0.0337206 -0.00491277 0.814736
0.033717 -0.00638914 0.815232
0.0337185 -0.00786784 0.81583
0.0337373 -0.00935336 0.816773
0.0337616 -0.0108435 0.817825
0.0337815 -0.0123352 0.818794
0.0337925 -0.0138261 0.819583
0.0338014 -0.0153182 0.820332
0.0338104 -0.0168118 0.821084
0.0338251 -0.0183106 0.821952
0.0338503 -0.0198179 0.823029
0.0338966 -0.0213405 0.824528
0.0339568 -0.0228757 0.826307
0.0340186 -0.0244175 0.828123
0.0340769 -0.0259621 0.829867
0.0341374 -0.0275143 0.831659
0.0341792 -0.0290582 0.833081
0.0342122 -0.0305991 0.834323
0.0342412 -0.0321409 0.83549
0.034266 -0.0336828 0.836572
0.0342955 -0.0352316 0.837751
0.0343424 -0.0368004 0.839282
0.034383 -0.0383672 0.840684
0.032947 -0.0399351 0.843009
0.0344241 -0.0399386 0.842102
0.0369816 0.104389 0.807746
0.0369435 0.102876 0.807584
0.0368873 0.101328 0.807091
0.0368212 0.0997621 0.806416
0.0367369 0.0981624 0.805403
0.0366482 0.0965583 0.804312
0.0365464 0.0949327 0.802975
0.0364443 0.0933114 0.80163
0.0363279 0.0916684 0.800021
0.0362113 0.0900308 0.798406
0.0360859 0.0883829 0.796626
0.0359476 0.0867189 0.794609
0.0358213 0.0850825 0.792807
0.0356756 0.0834193 0.790644
0.0355427 0.0817853 0.788716
0.0354285 0.080189 0.787132
0.0353462 0.0786501 0.786136
0.035256 0.0771023 0.784992
0.0351859 0.0755901 0.784219
0.0351015 0.0740591 0.78318
0.0350231 0.0725408 0.78225
0.0349304 0.0710052 0.781054
0.0348606 0.0695068 0.780281
0.0347954 0.068018 0.779593
0.0347346 0.0665379 0.778987
0.0346689 0.0650537 0.778289
0.0346203 0.0635947 0.777906
0.0345729 0.0621389 0.777546
0.034531 0.0606918 0.77729
0.0345174 0.0592804 0.777557
0.0345054 0.0578705 0.777856
0.0344947 0.0564616 0.778181
0.0344838 0.0550518 0.778502
0.0344755 0.0536443 0.77887
0.0344547 0.0522227 0.779005
0.0344339 0.0508009 0.779141
0.0344091 0.0493754 0.779203
0.0344006 0.0479658 0.779568
0.0343935 0.0465568 0.77996
0.0344044 0.0451635 0.780692
0.0344244 0.043776 0.781596
0.0344612 0.0424004 0.782816
0.0344821 0.0410082 0.783738
0.0345226 0.0396288 0.785031
0.0345468 0.0382331 0.786016
0.034584 0.0368442 0.787249
0.0346628 0.0354803 0.789267
0.0356571 0.028889 0.810749
0.0356454 0.0274229 0.811076
0.035614 0.0259468 0.811028
0.0355808 0.0244705 0.810948
0.0355277 0.0229869 0.810489
0.0354919 0.0215119 0.810358
0.0354566 0.0200379 0.810238
0.035426 0.0185663 0.810204
0.0354002 0.0170966 0.810262
0.0353788 0.0156282 0.810404
0.0353577 0.0141599 0.81055
0.0353402 0.0126923 0.810768
0.0353229 0.0112245 0.810987
0.0353234 0.00975852 0.811547
0.035326 0.00829144 0.812147
0.0353207 0.00682226 0.812597
0.0353172 0.00535221 0.813082
0.0352987 0.00388092 0.81328
0.035272 0.00240987 0.813321
0.0352458 0.000939062 0.813373
0.0352341 -0.000532937 0.813701
0.0352139 -0.00200446 0.813867
0.0352058 -0.00347802 0.814264
0.0351889 -0.00495068 0.814494
0.0351848 -0.00642666 0.81497
0.0351868 -0.00790514 0.815561
0.0352076 -0.00939097 0.816518
0.0352337 -0.010881 0.817576
0.0352599 -0.0123743 0.818637
0.0352757 -0.0138669 0.819499
0.0352902 -0.0153606 0.820337
0.0353048 -0.0168571 0.821176
0.0353258 -0.0183596 0.822144
0.0353563 -0.019869 0.823293
0.0354008 -0.02139 0.824714
0.0354584 -0.0229221 0.826389
0.0355136 -0.0244591 0.828022
0.0355605 -0.0259953 0.829494
0.0356091 -0.0275371 0.831003
0.0356437 -0.0290733 0.83224
0.0356647 -0.0306033 0.833214
0.0356901 -0.0321399 0.834279
0.0357164 -0.0336789 0.835359
0.0357475 -0.0352263 0.836532
0.035802 -0.0367977 0.838163
0.0358537 -0.0383709 0.839743
0.035907 -0.039951 0.841356
0.0384937 0.10442 0.808181
0.0384477 0.102892 0.807886
0.038379 0.101321 0.807192
0.0383056 0.0997426 0.806411
0.0382142 0.0981327 0.805306
0.0381185 0.096519 0.804126
0.0380135 0.0948922 0.802777
0.0379077 0.0932689 0.801413
0.0377844 0.0916189 0.799733
0.0376648 0.0899815 0.798118
0.0375367 0.088335 0.79635
0.0373951 0.0866716 0.794336
0.0372617 0.0850289 0.792466
0.0371107 0.083364 0.79028
0.0369701 0.0817234 0.788276
0.0368525 0.0801266 0.786681
0.0367696 0.0785904 0.78571
0.0366823 0.0770509 0.784657
0.0366202 0.0755536 0.784057
0.0365429 0.074036 0.78318
0.0364687 0.0725261 0.782358
0.0363829 0.0710032 0.781329
0.0363201 0.0695159 0.78071
0.036254 0.0680269 0.780032
0.0361961 0.0665513 0.779499
0.036133 0.0650712 0.778874
0.0360826 0.0636098 0.778477
0.0360347 0.0621533 0.778122
0.0359966 0.0607102 0.777945
0.0359793 0.0592929 0.778144
0.0359585 0.0578713 0.77828
0.0359381 0.0564501 0.778423
0.0359175 0.0550288 0.778563
0.0359007 0.0536114 0.778772
0.0358759 0.0521854 0.778833
0.0358551 0.0507637 0.778968
0.0358343 0.0493421 0.779104
0.0358307 0.0479368 0.779553
0.0358289 0.046532 0.780036
0.0358499 0.0451462 0.780932
0.0358758 0.043762 0.781918
0.035923 0.0423926 0.783294
0.0359496 0.0410027 0.784297
0.0359967 0.0396255 0.785673
0.0360225 0.0382287 0.786664
0.0360655 0.0368409 0.787968
0.0361511 0.035478 0.790052
0.0372017 0.0288887 0.811927
0.0371757 0.0274133 0.811987
0.0371291 0.0259286 0.811667
0.0370862 0.0244471 0.811417
0.0370267 0.0229602 0.810858
0.0369851 0.0214824 0.810629
0.0369485 0.0200073 0.810492
0.0369125 0.0185334 0.810366
0.0368817 0.0170618 0.810334
0.0368599 0.015593 0.810468
0.0368344 0.0141234 0.810536
0.0368131 0.0126547 0.810678
0.0368002 0.0111873 0.810978
0.0368016 0.00972121 0.811542
0.0368011 0.0082534 0.812068
0.0367964 0.0067841 0.812522
0.0367937 0.00531382 0.813009
0.0367761 0.00384233 0.813223
0.0367498 0.00237104 0.813274
0.0367241 0.000899961 0.813339
0.0367118 -0.000572147 0.813648
0.036691 -0.0020438 0.813804
0.0366784 -0.00351679 0.81411
0.0366656 -0.00499024 0.814412
0.0366622 -0.00646624 0.81489
0.0366648 -0.00794514 0.815481
0.036691 -0.0094321 0.81651
0.036719 -0.0109227 0.817576
0.0367427 -0.0124148 0.818561
0.0367638 -0.0139086 0.819501
0.0367842 -0.0154052 0.820425
0.0368007 -0.0169023 0.82128
0.036824 -0.0184053 0.822263
0.0368605 -0.0199182 0.823493
0.0369023 -0.0214367 0.824824
0.0369574 -0.0229675 0.826406
0.0370055 -0.0244987 0.827857
0.0370484 -0.0260309 0.829212
0.0370894 -0.0275662 0.830534
0.0371202 -0.0290983 0.831667
0.0371338 -0.0306207 0.832478
0.0371605 -0.0321561 0.833533
0.0371875 -0.0336947 0.834597
0.0372159 -0.0352368 0.835688
0.0372723 -0.0368062 0.837308
0.0373266 -0.0383792 0.838891
0.0373817 -0.0399576 0.84049
0.0400115 0.104459 0.808676
0.0399564 0.102914 0.808239
0.0398749 0.101319 0.807348
0.0397903 0.0997224 0.8064
0.0396917 0.0981029 0.805209
0.0395843 0.0964716 0.803864
0.0394712 0.0948352 0.802421
0.0393571 0.0932018 0.800955
0.0392248 0.0915419 0.799174
0.0391024 0.0899053 0.79756
0.038977 0.0882696 0.795894
0.0388376 0.0866166 0.793983
0.0387062 0.0849832 0.792207
0.0385515 0.0833187 0.790025
0.0384067 0.0816775 0.788012
0.0382858 0.0800805 0.786412
0.0382013 0.0785449 0.785446
0.0381208 0.0770187 0.784546
0.0380672 0.0755354 0.784113
0.0379933 0.0740248 0.783328
0.0379223 0.0725214 0.78259
0.0378433 0.07101 0.781714
0.0377801 0.069523 0.781112
0.0377139 0.0680346 0.780456
0.0376591 0.0665635 0.779998
0.0375985 0.0650872 0.779439
0.037547 0.0636244 0.779039
0.0374988 0.0621673 0.778694
0.0374649 0.0607286 0.778601
0.0374444 0.0593061 0.778742
0.0374142 0.0578726 0.778712
0.0373837 0.0564394 0.778678
0.0373528 0.0550064 0.778637
0.0373266 0.0535788 0.778678
0.0373013 0.0521524 0.778735
0.037285 0.050735 0.778949
0.0372689 0.0493175 0.779166
0.0372702 0.0479158 0.779694
0.0372732 0.0465142 0.780251
0.0372955 0.0451277 0.781147
0.0373187 0.0437394 0.78206
0.0373722 0.0423727 0.78351
0.0374049 0.0409857 0.784595
0.037459 0.0396114 0.78606
0.0374868 0.038214 0.787061
0.0375266 0.0368218 0.788274
0.0376399 0.0354738 0.790791
0.0387372 0.0288817 0.812864
0.0387001 0.0273992 0.812727
0.0386416 0.0259081 0.81221
0.0385883 0.0244213 0.811785
0.038527 0.0229334 0.811219
0.0384809 0.0214532 0.810919
0.0384386 0.0199757 0.81069
0.0383968 0.0184995 0.810468
0.0383601 0.017026 0.810335
0.0383333 0.0155556 0.81038
0.0383032 0.014085 0.810367
0.038282 0.0126164 0.810512
0.0382741 0.0111496 0.810897
0.0382767 0.00968344 0.811469
0.0382771 0.00821539 0.812001
0.0382771 0.00674617 0.812527
0.038279 0.00527556 0.81309
0.0382621 0.00380373 0.813313
0.0382404 0.00233187 0.81345
0.038219 0.000859868 0.813593
0.038202 -0.000612555 0.813815
0.0381808 -0.00208466 0.813961
0.0381637 -0.00355738 0.814181
0.0381511 -0.00503135 0.814485
0.0381489 -0.00650802 0.814972
0.0381571 -0.00798841 0.815651
0.0381854 -0.00947627 0.816692
0.0382144 -0.0109673 0.817747
0.0382342 -0.0124584 0.818638
0.0382567 -0.0139524 0.819576
0.0382785 -0.0154495 0.820506
0.0382978 -0.016948 0.821389
0.0383271 -0.0184543 0.822454
0.0383707 -0.0199693 0.823779
0.0384093 -0.0214866 0.825016
0.0384624 -0.0230151 0.826518
0.0385021 -0.0245413 0.827777
0.0385367 -0.0260672 0.828944
0.0385741 -0.0275981 0.830164
0.0386019 -0.0291271 0.831212
0.038612 -0.0306464 0.831939
0.03864 -0.0321803 0.83299
0.038668 -0.0337177 0.834045
0.0386931 -0.0352563 0.835046
0.0387513 -0.0368249 0.836654
0.0388028 -0.038392 0.83814
0.0388588 -0.039969 0.839713
0.037445 -0.0415494 0.842246
0.0389239 -0.0415576 0.841449
0.0415804 0.106032 0.809484
0.0415344 0.104503 0.809219
0.04147 0.102941 0.808643
0.0413782 0.101329 0.807608
0.0412811 0.0997123 0.806482
0.0411699 0.0980736 0.805117
0.0410451 0.0964157 0.803522
0.0409192 0.0947616 0.801907
0.0407921 0.0931114 0.800272
0.0406557 0.091451 0.798476
0.0405348 0.0898228 0.796937
0.0404114 0.0881962 0.795356
0.0402798 0.0865621 0.793636
0.0401511 0.0849386 0.791961
0.0399981 0.083283 0.789873
0.0398491 0.081641 0.787851
0.0397249 0.0800436 0.786247
0.0396381 0.0785073 0.785272
0.0395518 0.0769752 0.784303
0.0395014 0.0754981 0.783942
0.0394306 0.073994 0.783236
0.0393585 0.0724911 0.782507
0.0392785 0.0709802 0.78164
0.0392225 0.0695044 0.781181
0.0391551 0.0680158 0.780528
0.0391002 0.0665455 0.780087
0.0390437 0.0650751 0.779616
0.0389965 0.063618 0.779303
0.0389519 0.0621654 0.779037
0.0389226 0.0607316 0.779029
0.038902 0.0593079 0.779168
0.0388671 0.0578688 0.779065
0.0388306 0.0564286 0.778933
0.0387888 0.054984 0.778711
0.0387572 0.0535506 0.778661
0.0387318 0.0521241 0.77872
0.038721 0.0507115 0.779026
0.0387102 0.0492983 0.779332
0.0387125 0.0478962 0.779863
0.0387158 0.0464937 0.780412
0.0387342 0.0451023 0.781221
0.0387623 0.0437166 0.782197
0.0388187 0.0423499 0.78366
0.0388583 0.0409661 0.784835
0.0389161 0.0395921 0.786324
0.0389447 0.0381935 0.787314
0.0389766 0.0367941 0.788359
0.0390929 0.035445 0.79086
0.0402742 0.0288733 0.813758
0.0402195 0.0273812 0.813329
0.04015 0.0258846 0.812639
0.0400855 0.0243927 0.812039
0.0400236 0.0229043 0.811481
0.0399771 0.0214235 0.811189
0.0399351 0.0199456 0.810974
0.0398879 0.0184673 0.81067
0.039849 0.0169928 0.810509
0.0398167 0.0155206 0.810462
0.0397813 0.0140485 0.810359
0.0397604 0.0125797 0.81051
0.0397574 0.0111133 0.810972
0.0397521 0.00964557 0.811396
0.0397528 0.00817743 0.811922
0.0397571 0.00670815 0.812512
0.0397554 0.00523725 0.812997
0.0397386 0.0037652 0.813222
0.0397216 0.00229299 0.813441
0.0397001 0.000820808 0.813582
0.0396831 -0.000651817 0.813801
0.0396663 -0.00212495 0.814026
0.0396498 -0.00359812 0.814255
0.0396431 -0.00507342 0.814654
0.039642 -0.00655095 0.815152
0.0396519 -0.00803214 0.815845
0.0396767 -0.00951926 0.816799
0.0397022 -0.0110093 0.817765
0.0397224 -0.0125005 0.81864
0.0397505 -0.013997 0.819654
0.0397742 -0.0154943 0.820592
0.0398001 -0.0169959 0.82157
0.0398309 -0.0185022 0.822636
0.0398765 -0.0200183 0.823961
0.039912 -0.0215338 0.82511
0.0399624 -0.0230604 0.826526
0.0399987 -0.0245833 0.827693
0.0400298 -0.0261068 0.828768
0.0400637 -0.0276345 0.829894
0.040093 -0.0291629 0.83094
0.0400996 -0.0306786 0.831587
0.0401243 -0.0322093 0.832555
0.0401535 -0.0337466 0.833601
0.0401746 -0.03528 0.834508
0.0402306 -0.0368436 0.836031
0.0402781 -0.038406 0.837407
0.0403359 -0.0399811 0.838968
0.0404069 -0.0415714 0.840762
0.0429892 0.102975 0.809107
0.0428891 0.101351 0.807968
0.0427791 0.0997136 0.806667
0.0426588 0.098063 0.805197
0.0425245 0.0963933 0.803495
0.0423805 0.0947133 0.801634
0.0422401 0.0930457 0.799828
0.0420951 0.0913771 0.797945
0.0419714 0.0897497 0.796409
0.041846 0.0881251 0.794841
0.0417312 0.086523 0.793449
0.0416102 0.0849161 0.79195
0.0414641 0.0832767 0.790038
0.0413162 0.0816414 0.788095
0.0411887 0.0800427 0.786484
0.04109 0.0784913 0.785345
0.0409966 0.0769517 0.784293
0.0409402 0.0754671 0.783847
0.0408641 0.0739576 0.783075
0.0407856 0.0724481 0.782264
0.040703 0.0709363 0.781384
0.0406455 0.06946 0.780917
0.0405768 0.0679717 0.780266
0.0405262 0.066508 0.779911
0.0404785 0.0650494 0.779604
0.0404365 0.0635988 0.779389
0.0403963 0.0621516 0.779206
0.0403714 0.0607222 0.779273
0.0403507 0.0592978 0.779411
0.0403108 0.057853 0.779231
0.0402687 0.0564072 0.779014
0.0402209 0.0549568 0.778705
0.040184 0.0535184 0.778573
0.0401545 0.0520879 0.778565
0.0401449 0.050676 0.778885
0.04014 0.0492678 0.779287
0.0401435 0.047866 0.779826
0.0401473 0.0464631 0.780371
0.0401655 0.0450704 0.781158
0.0402035 0.043691 0.782277
0.0402631 0.0423245 0.783754
0.0403147 0.0409478 0.785102
0.0403802 0.0395767 0.786679
0.0404149 0.0381802 0.787749
0.0404384 0.0367735 0.788628
0.040552 0.0354195 0.791017
0.0417969 0.0288565 0.814354
0.0417306 0.0273584 0.813744
0.0416542 0.0258584 0.812964
0.0415881 0.0243657 0.812358
0.0415306 0.0228785 0.811894
0.0414887 0.0213985 0.811693
0.041447 0.0199197 0.811494
0.0413989 0.0184403 0.811188
0.0413545 0.0169632 0.810942
0.0413162 0.0154888 0.810799
0.0412749 0.0140149 0.810608
0.0412534 0.0125452 0.810748
0.0412515 0.0110782 0.811218
0.0412371 0.00960873 0.811478
0.0412328 0.0081396 0.81191
0.0412323 0.00666992 0.812405
0.0412261 0.00519869 0.812804
0.04121 0.00372669 0.813038
0.0412031 0.00225402 0.813427
0.0411868 0.000781254 0.813655
0.0411752 -0.000692371 0.813966
0.0411639 -0.00216651 0.81428
0.0411482 -0.00364064 0.81452
0.0411424 -0.00511678 0.814928
0.0411465 -0.00659599 0.815506
0.0411579 -0.00807813 0.816205
0.0411792 -0.00956492 0.817077
0.0412009 -0.0110543 0.817956
0.0412209 -0.0125456 0.818807
0.0412457 -0.0140409 0.81974
0.0412711 -0.0155395 0.820685
0.0413037 -0.0170428 0.821752
0.0413407 -0.0185517 0.822897
0.0413926 -0.0200708 0.824296
0.0414298 -0.0215871 0.825448
0.0414775 -0.0231126 0.82678
0.0415103 -0.0246329 0.827857
0.0415373 -0.0261534 0.828837
0.041563 -0.027676 0.829795
0.0415891 -0.029202 0.830759
0.0415965 -0.0307178 0.831406
0.0416222 -0.0322491 0.832367
0.0416526 -0.0337849 0.833409
0.0416748 -0.0353188 0.83431
0.0417331 -0.0368833 0.835834
0.0417732 -0.0384371 0.837047
0.0418327 -0.0400105 0.838595
0.041906 -0.0416014 0.840383
0.0445196 0.103025 0.809711
0.0444138 0.101393 0.808519
0.0442897 0.0997347 0.807034
0.0441553 0.0980638 0.805383
0.0440054 0.0963724 0.803483
0.0438465 0.0946731 0.801439
0.0436974 0.0929967 0.799547
0.0435437 0.0913198 0.79758
0.0434177 0.0896937 0.796053
0.0432947 0.0880777 0.794571
0.0431931 0.0865 0.793429
0.0430758 0.0849027 0.792035
0.0429371 0.083279 0.790297
0.0427909 0.0816505 0.788437
0.0426604 0.0800511 0.786827
0.0425489 0.0784841 0.78552
0.0424522 0.0769421 0.784445
0.0423893 0.0754495 0.783911
0.0423058 0.0739319 0.783046
0.042221 0.0724163 0.782161
0.0421311 0.0708974 0.781191
0.042067 0.0694141 0.780635
0.0419963 0.067925 0.77997
0.0419502 0.066468 0.779702
0.041908 0.0650166 0.779494
0.0418756 0.0635776 0.779445
0.0418356 0.0621308 0.779272
0.0418147 0.0607056 0.779408
0.0417939 0.0592804 0.779544
0.041749 0.0578307 0.779293
0.0417017 0.0563798 0.779002
0.0416528 0.0549287 0.778686
0.0416106 0.0534856 0.778477
0.0415764 0.0520508 0.778396
0.0415676 0.0506394 0.778725
0.0415676 0.0492351 0.779198
0.041572 0.0478334 0.779743
0.0415768 0.0464304 0.780293
0.041596 0.0450375 0.781077
0.0416458 0.0436656 0.78236
0.0417082 0.0422991 0.783847
0.041769 0.0409269 0.78531
0.0418409 0.0395577 0.786954
0.0418818 0.0381635 0.788096
0.0418968 0.0367498 0.788818
0.0420037 0.0353888 0.791036
0.0432963 0.0288277 0.814526
0.0432339 0.0273312 0.814
0.0431564 0.0258308 0.813229
0.0430899 0.0243377 0.812635
0.0430406 0.022853 0.812325
0.0429988 0.0213722 0.812135
0.0429573 0.0198926 0.811948
0.0429086 0.0184122 0.811643
0.0428634 0.016934 0.811398
0.0428188 0.0154574 0.811159
0.0427724 0.0139816 0.810892
0.0427503 0.0125111 0.811022
0.0427439 0.0110427 0.81141
0.0427238 0.00957196 0.811575
0.0427136 0.00810192 0.811901
0.0427072 0.00663154 0.812289
0.0427014 0.00516009 0.81269
0.0426915 0.00368803 0.813022
0.0426915 0.00221506 0.813516
0.0426811 0.00074135 0.813841
0.0426754 -0.000733292 0.814243
0.0426649 -0.0022084 0.814568
0.0426551 -0.00368414 0.814901
0.0426547 -0.00516207 0.815391
0.0426598 -0.00664239 0.815973
0.0426709 -0.00812556 0.816656
0.0426877 -0.00961195 0.817431
0.0426998 -0.0110991 0.818131
0.042711 -0.012588 0.818817
0.0427317 -0.0140823 0.81966
0.0427594 -0.0155806 0.82062
0.0427935 -0.0170848 0.821688
0.042838 -0.0185958 0.822928
0.0428964 -0.020118 0.824401
0.0429408 -0.0216368 0.825644
0.0429857 -0.0231608 0.826896
0.0430195 -0.0246811 0.827964
0.0430418 -0.0261992 0.828841
0.0430631 -0.027719 0.829701
0.0430851 -0.0292412 0.830577
0.0430935 -0.030757 0.831224
0.0431204 -0.0322875 0.832183
0.0431521 -0.0338246 0.833222
0.0431752 -0.035358 0.834118
0.0432363 -0.0369218 0.835651
0.0432781 -0.0384759 0.836861
0.0433407 -0.040051 0.838422
0.0434176 -0.0416428 0.840222
0.046039 0.103051 0.810107
0.0459352 0.101426 0.808979
0.0457976 0.099748 0.807329
0.0456483 0.0980565 0.805494
0.0454889 0.096355 0.803503
0.0453199 0.0946447 0.801358
0.0451608 0.0929582 0.799367
0.0450031 0.0912806 0.797394
0.0448744 0.0896546 0.795867
0.0447541 0.0880471 0.794471
0.0446567 0.0864787 0.793428
0.0445481 0.0848978 0.792209
0.0444178 0.0832902 0.790652
0.0442788 0.0816759 0.788958
0.0441404 0.0800685 0.787271
0.0440207 0.0784926 0.785873
0.0439146 0.0769401 0.784687
0.0438397 0.0754325 0.783983
0.0437444 0.0739018 0.782961
0.0436572 0.072385 0.782065
0.04356 0.0708592 0.781009
0.0434886 0.0693688 0.780359
0.0434165 0.06788 0.779695
0.0433697 0.066423 0.779426
0.043328 0.0649731 0.779236
0.0433007 0.0635401 0.77927
0.0432603 0.0620935 0.7791
0.0432394 0.0606683 0.779235
0.0432185 0.0592431 0.779371
0.0431731 0.0577934 0.779121
0.043125 0.0563426 0.77883
0.0430754 0.0548915 0.778513
0.0430371 0.0534525 0.778375
0.043007 0.0520217 0.778365
0.0430023 0.0506132 0.778753
0.0430074 0.0492123 0.779297
0.0430128 0.0478103 0.779845
0.0430141 0.0464037 0.780331
0.0430346 0.0450105 0.781118
0.0430919 0.0436423 0.782489
0.0431536 0.0422731 0.783929
0.0432269 0.0409075 0.785553
0.0433061 0.0395408 0.787273
0.0433494 0.038146 0.788425
0.0433603 0.0367284 0.789068
0.0434136 0.0353337 0.790382
0.0447817 0.0287921 0.814455
0.04473 0.0273004 0.814119
0.0446565 0.0258017 0.813435
0.0445947 0.0243101 0.812938
0.0445449 0.0228247 0.81263
0.0445027 0.0213432 0.812442
0.0444653 0.0198641 0.812331
0.044416 0.0183828 0.81203
0.0443698 0.0169038 0.811777
0.0443196 0.0154251 0.811461
0.0442714 0.0139483 0.811176
0.0442447 0.0124764 0.811233
0.0442332 0.0110065 0.811536
0.0442073 0.00953476 0.811604
0.0441956 0.00806418 0.811903
0.0441886 0.00659348 0.812275
0.0441837 0.00512187 0.812682
0.0441803 0.00364945 0.813113
0.0441872 0.00217569 0.81371
0.0441835 0.000700994 0.814136
0.0441786 -0.000774591 0.814546
0.0441685 -0.0022504 0.814869
0.0441633 -0.00372756 0.815274
0.0441638 -0.00520651 0.815769
0.04417 -0.00668779 0.816357
0.0441815 -0.00817184 0.817032
0.0441938 -0.00965775 0.817718
0.044195 -0.0111426 0.818227
0.0442008 -0.01263 0.818811
0.0442169 -0.0141225 0.819561
0.0442414 -0.0156198 0.820447
0.0442772 -0.0171238 0.821517
0.0443292 -0.0186382 0.822849
0.0443961 -0.0201621 0.824422
0.0444493 -0.0216854 0.825777
0.0444965 -0.0232088 0.827035
0.0445309 -0.0247304 0.82809
0.0445524 -0.0262476 0.828934
0.0445689 -0.0277644 0.829698
0.0445868 -0.0292839 0.830487
0.0445957 -0.0308 0.83113
0.0446238 -0.0323309 0.832085
0.0446573 -0.0338677 0.833128
0.0446879 -0.0354047 0.834125
0.0447515 -0.0369702 0.83566
0.0448008 -0.0385294 0.836965
0.0448704 -0.0401078 0.838599
0.0449557 -0.0417048 0.840494
0.0475623 0.10308 0.810528
0.0474573 0.101456 0.809417
0.047305 0.0997576 0.807591
0.0471413 0.0980475 0.805591
0.0469726 0.0963365 0.803514
0.0467941 0.0946172 0.801285
0.0466261 0.0929223 0.799214
0.0464694 0.0912518 0.797311
0.0463376 0.0896256 0.795782
0.0462203 0.0880261 0.79447
0.0461317 0.0864729 0.793588
0.0460327 0.0849087 0.792553
0.0459106 0.0833158 0.791163
0.045775 0.0817093 0.789567
0.0456327 0.0800997 0.787869
0.0454993 0.0785078 0.786303
0.0453796 0.0769395 0.784945
0.045287 0.0754105 0.783994
0.0451839 0.0738724 0.782886
0.0450896 0.0723488 0.781907
0.0449901 0.0708228 0.780849
0.0449176 0.0693325 0.7802
0.0448438 0.0678432 0.779531
0.0447968 0.0663868 0.779268
0.0447538 0.0649361 0.779068
0.044726 0.063503 0.779099
0.044685 0.0620562 0.778927
0.0446642 0.060631 0.779063
0.0446433 0.0592058 0.779198
0.0446019 0.0577608 0.779021
0.0445584 0.0563148 0.77881
0.0445132 0.0548683 0.778574
0.0444798 0.0534336 0.778516
0.0444493 0.0520021 0.778505
0.0444398 0.0505889 0.778814
0.0444404 0.0491833 0.779278
0.0444412 0.0477767 0.779746
0.0444381 0.0463661 0.780153
0.0444647 0.0449766 0.781018
0.0445342 0.0436156 0.782543
0.0446041 0.04225 0.784075
0.0446856 0.0408875 0.785786
0.0447675 0.0395201 0.787507
0.0448162 0.0381269 0.788718
0.0448339 0.0367121 0.789451
0.0448452 0.0352916 0.790087
0.0462766 0.0287603 0.814527
0.0462367 0.0272734 0.814386
0.0461738 0.0257786 0.813888
0.0461163 0.0242879 0.813475
0.0460711 0.0228031 0.81325
0.0460333 0.0213218 0.813139
0.0459953 0.0198412 0.813027
0.0459453 0.0183585 0.812726
0.0458978 0.0168778 0.812465
0.0458467 0.0153977 0.812146
0.0457976 0.0139196 0.811858
0.0457704 0.0124461 0.811911
0.0457539 0.0109742 0.81213
0.0457173 0.00950003 0.812036
0.0456998 0.00802808 0.81224
0.045688 0.00655613 0.812534
0.0456789 0.00508374 0.812867
0.0456819 0.00361057 0.813392
0.0456956 0.00213585 0.814082
0.0456976 0.00065999 0.814589
0.0456979 -0.000817131 0.815073
0.0456926 -0.00229463 0.815467
0.045688 -0.00377311 0.815875
0.0456895 -0.00525341 0.816376
0.0456919 -0.00673531 0.816895
0.0456939 -0.00821815 0.817406
0.0456952 -0.00970223 0.817907
0.0456852 -0.0111844 0.81823
0.0456851 -0.0126702 0.818709
0.0456963 -0.0141607 0.819366
0.045721 -0.0156575 0.820236
0.0457588 -0.0171619 0.821313
0.0458134 -0.0186764 0.822655
0.0458839 -0.0202015 0.824248
0.0459454 -0.0217268 0.825699
0.0459953 -0.0232519 0.826972
0.0460314 -0.0247733 0.828028
0.0460535 -0.0262904 0.828863
0.0460701 -0.0278065 0.829614
0.0460838 -0.029324 0.830317
0.0460935 -0.0308393 0.830959
0.0461231 -0.0323699 0.831917
0.0461635 -0.0339107 0.833044
0.0462019 -0.0354532 0.834143
0.046274 -0.0370228 0.835775
0.0463312 -0.0385871 0.837175
0.0464082 -0.0401702 0.838886
0.0465024 -0.0417725 0.840874
0.049154 0.10467 0.811465
0.0490721 0.103084 0.810725
0.0489689 0.101465 0.809671
0.0488237 0.0997832 0.807998
0.0486613 0.0980801 0.806072
0.0484836 0.0963599 0.803919
0.0482957 0.0946315 0.801611
0.0481183 0.0929271 0.799457
0.0479531 0.0912486 0.797481
0.0478077 0.089606 0.795793
0.047693 0.0880136 0.794556
0.0476077 0.0864674 0.793751
0.0475184 0.0849187 0.792886
0.0473905 0.0833205 0.791448
0.0472576 0.0817209 0.789937
0.0471114 0.0801093 0.788227
0.0469634 0.0785016 0.78649
0.0468344 0.0769242 0.785031
0.0467391 0.0753939 0.78407
0.0466289 0.073849 0.782885
0.0465273 0.072319 0.781828
0.0464307 0.0707986 0.780843
0.0463527 0.0693033 0.780132
0.0462778 0.0678142 0.779468
0.0462298 0.0663571 0.7792
0.0461851 0.0649052 0.778983
0.0461517 0.063466 0.778932
0.0461097 0.0620189 0.778754
0.0460889 0.0605937 0.77889
0.046068 0.0591685 0.779026
0.0460313 0.0577285 0.778927
0.0459932 0.0562878 0.778804
0.0459537 0.0548467 0.778661
0.0459209 0.0534124 0.778619
0.0458906 0.0519808 0.778613
0.0458768 0.0505632 0.778853
0.0458772 0.0491568 0.779308
0.0458782 0.0477496 0.779771
0.0458844 0.0463453 0.780311
0.0459227 0.0449628 0.781331
0.0459999 0.0436045 0.782936
0.0460733 0.0422388 0.784487
0.0461566 0.0408748 0.786186
0.0462308 0.0394999 0.787751
0.0462814 0.038106 0.788961
0.0463054 0.0366934 0.789776
0.0463242 0.0352756 0.790511
0.0477567 0.0287221 0.814363
0.0477392 0.0272442 0.814567
0.0476921 0.0257551 0.814324
0.0476396 0.0242655 0.814001
0.0475998 0.0227814 0.813868
0.0475667 0.0213002 0.813835
0.0475286 0.0198183 0.813726
0.0474778 0.0183341 0.813426
0.047425 0.0168509 0.813095
0.0473721 0.0153693 0.812762
0.0473219 0.0138898 0.812468
0.0472892 0.0124142 0.812441
0.0472676 0.0109405 0.812581
0.0472352 0.00946581 0.812558
0.0472128 0.00799233 0.812684
0.0472017 0.00651933 0.812983
0.0471983 0.00504596 0.813401
0.0472081 0.00357165 0.814017
0.0472221 0.00209546 0.8147
0.0472295 0.000617962 0.815281
0.0472249 -0.000860086 0.815682
0.0472144 -0.00233831 0.815992
0.0472048 -0.00381732 0.816316
0.0472016 -0.00529788 0.816738
0.0471991 -0.00677959 0.817171
0.0471958 -0.00826205 0.817592
0.0471914 -0.00974518 0.817996
0.0471753 -0.0112261 0.818223
0.0471641 -0.0127088 0.818523
0.0471703 -0.0141974 0.819091
0.0471901 -0.0156922 0.819866
0.0472291 -0.0171961 0.820937
0.0472903 -0.0187121 0.822349
0.0473748 -0.0202416 0.824119
0.0474447 -0.0217709 0.825667
0.0475028 -0.0232981 0.827035
0.0475404 -0.0248207 0.828089
0.0475585 -0.0263351 0.828847
0.047571 -0.0278495 0.829519
0.047581 -0.0293628 0.83015
0.0475962 -0.0308823 0.830865
0.0476328 -0.0324169 0.831908
0.0476812 -0.0339616 0.833134
0.0477331 -0.0355129 0.834417
0.0478148 -0.0370881 0.836159
0.0478799 -0.0386572 0.837647
0.04796 -0.0402425 0.839368
0.0480572 -0.0418461 0.841354
0.0506687 0.104677 0.811689
0.0505832 0.103087 0.810921
0.0504835 0.101477 0.809946
0.0503404 0.0998025 0.808349
0.0501752 0.0980997 0.806433
0.0499934 0.0963781 0.804276
0.0498061 0.0946561 0.802037
0.049624 0.0929497 0.799873
0.0494498 0.0912626 0.79782
0.0492956 0.0896109 0.79605
0.0491781 0.0880172 0.794807
0.0490851 0.0864618 0.793914
0.0489947 0.0849133 0.793057
0.0488595 0.0833086 0.791555
0.0487228 0.0817074 0.790031
0.0485728 0.0800945 0.788311
0.0484148 0.0784778 0.786475
0.0482837 0.0769009 0.785024
0.0481914 0.0753762 0.784133
0.048084 0.0738372 0.783024
0.0479858 0.0723128 0.782044
0.0478933 0.0707987 0.781147
0.0478144 0.0693031 0.780443
0.0477336 0.0678083 0.779712
0.0476782 0.0663435 0.779349
0.0476219 0.0648794 0.778972
0.047582 0.0634339 0.778833
0.0475344 0.0619815 0.778581
0.0475135 0.0605563 0.778717
0.0474927 0.0591311 0.778853
0.0474613 0.0576963 0.778836
0.047429 0.0562612 0.778805
0.0473962 0.0548261 0.778767
0.0473744 0.053401 0.778889
0.0473545 0.0519775 0.779038
0.0473507 0.0505668 0.779423
0.0473573 0.0491634 0.779959
0.0473691 0.0477626 0.780571
0.0473822 0.0463612 0.781202
0.0474229 0.0449776 0.782237
0.047493 0.0436109 0.783703
0.0475629 0.0422396 0.785166
0.0476323 0.0408636 0.786623
0.047692 0.0394773 0.787942
0.0477377 0.038079 0.789055
0.0477687 0.0366692 0.789955
0.0478017 0.0352578 0.790883
0.0492428 0.0286863 0.814287
0.0492365 0.0272125 0.814655
0.0492008 0.0257274 0.814588
0.0491495 0.0242376 0.814294
0.0491158 0.0227548 0.814257
0.0490829 0.0212728 0.814231
0.0490494 0.0197913 0.814198
0.0489982 0.0183061 0.813904
0.0489448 0.0168219 0.813576
0.0488915 0.0153393 0.813248
0.0488398 0.0138585 0.812944
0.0488007 0.0123809 0.812828
0.0487791 0.0109063 0.812968
0.0487575 0.00943169 0.813107
0.048741 0.00795738 0.813323
0.0487359 0.00648329 0.813708
0.0487386 0.00500842 0.814209
0.0487429 0.00353243 0.814733
0.0487467 0.00205519 0.815251
0.0487546 0.000576397 0.815829
0.0487498 -0.000902814 0.816221
0.0487356 -0.00238191 0.816472
0.0487258 -0.00386187 0.81679
0.0487218 -0.00534342 0.817191
0.048707 -0.00682375 0.817434
0.048692 -0.00830447 0.817675
0.0486869 -0.00978773 0.818062
0.048671 -0.0112692 0.818289
0.0486553 -0.0127509 0.818518
0.0486622 -0.0142398 0.819087
0.048682 -0.015735 0.819846
0.0487221 -0.0172387 0.820909
0.0487801 -0.0187522 0.822241
0.0488674 -0.0202827 0.824012
0.0489389 -0.0218111 0.825548
0.0489989 -0.0233393 0.826916
0.0490334 -0.0248596 0.8279
0.0490582 -0.0263771 0.828742
0.0490722 -0.0278909 0.829421
0.0490823 -0.0294048 0.830045
0.0491049 -0.0309285 0.830855
0.0491489 -0.0324669 0.831987
0.0492059 -0.0340157 0.833316
0.049267 -0.0355721 0.834705
0.0493578 -0.0371542 0.836547
0.0494317 -0.0387282 0.838132
0.0495151 -0.0403156 0.839863
0.0520829 0.103071 0.810938
0.0519943 0.10148 0.810146
0.0518556 0.0998165 0.808651
0.0517055 0.098141 0.806997
0.0515317 0.0964361 0.805007
0.0513452 0.0947198 0.802839
0.0511521 0.0930016 0.800574
0.0509669 0.0913027 0.798419
0.0507914 0.0896247 0.796397
0.0506591 0.088013 0.794978
0.0505576 0.0864482 0.793993
0.050465 0.0848987 0.79313
0.0503319 0.0833 0.791697
0.0501975 0.0817047 0.790243
0.0500431 0.0800898 0.788508
0.0498873 0.0784793 0.78675
0.049754 0.0769024 0.785308
0.0496562 0.0753725 0.784363
0.049553 0.0738402 0.783343
0.0494585 0.0723213 0.782442
0.0493649 0.070807 0.781554
0.0492794 0.0693049 0.780779
0.0491958 0.067808 0.78003
0.049128 0.0663302 0.779503
0.0490643 0.064859 0.779034
0.049013 0.0634021 0.778739
0.0489696 0.0619543 0.778556
0.0489439 0.0605242 0.778623
0.0489232 0.0590992 0.778762
0.048897 0.0576691 0.778822
0.0488754 0.0562433 0.778947
0.0488492 0.0548135 0.779006
0.0488392 0.0533977 0.779298
0.0488305 0.0519821 0.779606
0.0488433 0.0505829 0.780219
0.0488573 0.0491829 0.780852
0.0488775 0.0477859 0.781572
0.0488991 0.046388 0.782315
0.0489422 0.0450026 0.783361
0.0489992 0.0436237 0.78461
0.0490576 0.0422418 0.785878
0.0491155 0.0408559 0.787141
0.0491587 0.0394575 0.788194
0.0491945 0.0380518 0.789143
0.0492266 0.0366413 0.790039
0.0492621 0.0352302 0.790986
0.0507405 0.0271829 0.814824
0.0507165 0.0257014 0.814932
0.0506715 0.0242131 0.814737
0.0506391 0.0227298 0.814724
0.0506111 0.0212482 0.814775
0.0505767 0.0197654 0.814732
0.0505248 0.018279 0.814439
0.0504719 0.0167938 0.81413
0.0504232 0.015311 0.813881
0.0503759 0.0138297 0.813652
0.0503362 0.0123507 0.813531
0.0503146 0.0108745 0.813672
0.0502937 0.0093985 0.813823
0.0502783 0.00792282 0.814053
0.0502744 0.00644715 0.814451
0.0502774 0.00497071 0.814947
0.0502822 0.00349321 0.81547
0.0502805 0.00201457 0.815898
0.0502881 0.00053445 0.816463
0.0502845 -0.000946219 0.816866
0.0502704 -0.0024265 0.817115
0.0502552 -0.00390729 0.817351
0.0502443 -0.00538884 0.817648
0.0502218 -0.00686891 0.817776
0.0501945 -0.00834788 0.817835
0.0501839 -0.00983045 0.818137
0.050169 -0.0113126 0.818377
0.05016 -0.0127965 0.818702
0.0501682 -0.0142867 0.819279
0.0501949 -0.015784 0.820123
0.0502362 -0.0172881 0.821183
0.0502907 -0.0188012 0.822434
0.0503747 -0.0203299 0.824117
0.0504428 -0.0218562 0.82557
0.0504984 -0.0233815 0.826841
0.0505275 -0.0248989 0.827727
0.0505587 -0.0264193 0.828645
0.0505737 -0.0279338 0.829328
0.0505849 -0.0294476 0.829954
0.0506147 -0.0309739 0.830852
0.0506668 -0.0325165 0.832079
0.0507336 -0.0340718 0.833522
0.0508089 -0.0356373 0.835091
0.0509151 -0.0372274 0.837114
0.0509918 -0.0388039 0.838706
0.0510834 -0.0403956 0.840519
0.0536559 0.10462 0.811508
0.0535754 0.103042 0.810849
0.0534961 0.101468 0.810206
0.053377 0.0998374 0.809017
0.0532437 0.0981904 0.807635
0.0530747 0.0964965 0.805762
0.05289 0.0947867 0.803671
0.0526866 0.0930583 0.801322
0.0524891 0.0913463 0.799054
0.0522903 0.0896402 0.796762
0.0521407 0.0880084 0.795145
0.0520302 0.0864334 0.794061
0.0519351 0.0848826 0.793187
0.0518 0.0832843 0.791762
0.0516691 0.0816966 0.790396
0.0515228 0.0800948 0.788814
0.0513705 0.0784917 0.787149
0.0512357 0.0769152 0.785724
0.0511368 0.0753854 0.784791
0.0510372 0.0738583 0.783847
0.0509421 0.0723396 0.782962
0.050847 0.0708246 0.782079
0.0507542 0.0693152 0.781225
0.0506669 0.0678149 0.780446
0.0505904 0.0663286 0.779815
0.0505194 0.0648504 0.77926
0.0504565 0.0633823 0.778816
0.0504176 0.0619388 0.778702
0.0503861 0.0605031 0.778691
0.0503707 0.0590823 0.778903
0.0503555 0.0576615 0.779117
0.0503512 0.0562496 0.779482
0.050337 0.054829 0.779711
0.0503394 0.0534213 0.78017
0.0503315 0.0520045 0.780486
0.0503469 0.0506048 0.781124
0.0503636 0.0492045 0.781783
0.0503878 0.0478077 0.782546
0.050417 0.0464123 0.78338
0.0504616 0.0450249 0.784427
0.0505067 0.0436348 0.785484
0.0505528 0.0422424 0.786555
0.0505935 0.0408434 0.787551
0.0506198 0.0394334 0.788348
0.0506446 0.0380202 0.789124
0.0506764 0.0366087 0.789999
0.0507133 0.0351973 0.790945
0.0522642 0.0271601 0.815252
0.0522461 0.0256796 0.815444
0.0522018 0.0241906 0.815267
0.0521755 0.0227081 0.815345
0.0521521 0.0212265 0.815463
0.0521168 0.0197419 0.815413
0.0520644 0.0182541 0.815121
0.0520111 0.0167677 0.814819
0.051963 0.0152837 0.814587
0.0519148 0.0138009 0.814355
0.0518742 0.0123203 0.81423
0.0518526 0.0108427 0.814371
0.0518325 0.00936518 0.814533
0.0518185 0.00788809 0.814781
0.0518155 0.00641098 0.815184
0.0518191 0.00493302 0.815682
0.0518237 0.00345389 0.816192
0.0518218 0.0019737 0.816613
0.0518301 0.00049207 0.817177
0.051827 -0.000990025 0.817582
0.0518133 -0.00247202 0.817835
0.0517927 -0.00395345 0.817991
0.051775 -0.0054352 0.818188
0.0517454 -0.0069154 0.818218
0.051711 -0.00839408 0.81818
0.0516953 -0.00987632 0.818405
0.0516811 -0.0113591 0.818652
0.0516738 -0.0128443 0.818998
0.0516833 -0.0143354 0.819581
0.0517176 -0.0158349 0.820518
0.0517607 -0.0173408 0.821581
0.0518179 -0.0188548 0.822845
0.0518983 -0.0203818 0.82444
0.0519606 -0.0219068 0.825779
0.0520047 -0.0234269 0.826859
0.0520335 -0.0249433 0.827725
0.0520608 -0.0264618 0.828567
0.052077 -0.0279761 0.829252
0.0520895 -0.0294911 0.829887
0.0521254 -0.0310209 0.830855
0.0521803 -0.0325642 0.832095
0.0522564 -0.0341241 0.833639
0.0523475 -0.0356986 0.835401
0.0524694 -0.0372979 0.837604
0.0525486 -0.0388754 0.839196
0.0526426 -0.0404686 0.841005
0.0551431 0.104581 0.811325
0.0550671 0.103012 0.810745
0.0549976 0.101454 0.81025
0.0548979 0.0998549 0.809351
0.0547829 0.0982369 0.808247
0.0546186 0.0965533 0.806482
0.0544382 0.0948537 0.804503
0.0542295 0.093122 0.80214
0.0540142 0.0913898 0.799688
0.0537963 0.0896628 0.797197
0.0536296 0.0880115 0.795392
0.0535036 0.0864188 0.794129
0.0534009 0.08486 0.793176
0.0532644 0.0832632 0.791769
0.0531388 0.0816847 0.790508
0.0530036 0.0800995 0.789116
0.0528609 0.0785103 0.787621
0.0527237 0.0769331 0.786198
0.0526338 0.0754144 0.785412
0.0525369 0.0738909 0.784528
0.05244 0.072371 0.783645
0.0523385 0.0708494 0.782698
0.0522368 0.0693314 0.781747
0.0521408 0.0678226 0.780873
