ply
format ascii 1.0
element vertex 1672
property float x
property float y
property float z
end_header
0.115659 -0.06776 0.66445
0.115002 -0.0687447 0.664473
0.114355 -0.0697328 0.664546
0.113716 -0.070725 0.664671
0.11307 -0.0717131 0.664746
0.112425 -0.0727019 0.664833
0.111838 -0.0737183 0.665247
0.111231 -0.0747257 0.665548
0.110647 -0.0757458 0.665989
0.110074 -0.0767719 0.666489
0.109499 -0.0777987 0.666985
0.108913 -0.0788209 0.66742
0.108338 -0.0798499 0.66792
0.107773 -0.0808865 0.668489
0.107198 -0.0819187 0.669001
0.106645 -0.0829642 0.669642
0.106102 -0.0840191 0.670358
0.105595 -0.0850969 0.671291
0.105079 -0.0861726 0.672181
0.104595 -0.0872718 0.673274
0.104142 -0.0883939 0.674568
0.103712 -0.0895361 0.676018
0.103274 -0.0906784 0.677438
0.102889 -0.0918617 0.679201
0.10249 -0.0930423 0.680895
0.1021 -0.0942351 0.682662
0.101589 -0.0953473 0.68368
0.101065 -0.0964534 0.684619
0.100562 -0.0975797 0.685714
0.100103 -0.0987423 0.687097
0.0996816 -0.0999406 0.688747
0.0993676 -0.101228 0.691115
0.171356 0.0108003 0.670356
0.170667 0.00977456 0.67036
0.16994 0.00874432 0.670216
0.169163 0.00770873 0.669876
0.168383 0.00667417 0.66952
0.167602 0.00564071 0.669154
0.166737 0.00459964 0.668452
0.165853 0.00355898 0.667672
0.164981 0.00252208 0.66693
0.164131 0.00148947 0.666269
0.163309 0.000461624 0.665713
0.162544 -0.000559726 0.665385
0.161813 -0.00157718 0.665186
0.161064 -0.00259489 0.664914
0.16036 -0.00360855 0.66482
0.159631 -0.00462304 0.664623
0.158971 -0.00563285 0.664705
0.158347 -0.00664089 0.664935
0.15779 -0.0076463 0.66544
0.157202 -0.00865388 0.665822
0.156645 -0.00966112 0.666336
0.15605 -0.0106703 0.666696
0.155438 -0.0116804 0.666981
0.154778 -0.0126915 0.667069
0.154118 -0.0137023 0.667152
0.153394 -0.0147129 0.666963
0.15268 -0.0157226 0.666816
0.152026 -0.0167322 0.666925
0.151414 -0.0177425 0.667212
0.150843 -0.0187543 0.66768
0.15041 -0.0197714 0.668748
0.150008 -0.0207925 0.669961
0.149615 -0.021817 0.671218
0.149236 -0.0228457 0.672552
0.148806 -0.0238749 0.673667
0.148288 -0.0249012 0.674399
0.147686 -0.0259233 0.674763
0.146971 -0.0269372 0.674623
0.146164 -0.0279424 0.674067
0.14529 -0.0289393 0.673205
0.14434 -0.0299255 0.671986
0.143386 -0.0309071 0.670736
0.142452 -0.0318866 0.669567
0.141544 -0.0328652 0.668505
0.140701 -0.0338482 0.667733
0.139918 -0.0348365 0.667233
0.13917 -0.0358275 0.666884
0.138397 -0.0368134 0.666418
0.13765 -0.0378014 0.66607
0.136858 -0.0387803 0.665501
0.136065 -0.0397569 0.664926
0.135276 -0.0407318 0.664356
0.134534 -0.0417131 0.664009
0.133784 -0.0426913 0.663617
0.133059 -0.0436729 0.663343
0.132346 -0.0446557 0.663125
0.131622 -0.0456347 0.662848
0.130915 -0.0466162 0.662648
0.130223 -0.0475999 0.662517
0.129545 -0.0485862 0.662455
0.128827 -0.0495618 0.662194
0.128107 -0.0505355 0.661918
0.127359 -0.0515003 0.661496
0.126613 -0.0524638 0.661082
0.125883 -0.0534301 0.660745
0.125196 -0.054407 0.660617
0.124536 -0.0553913 0.660627
0.123893 -0.0563801 0.66072
0.123285 -0.0573803 0.660998
0.122692 -0.0583855 0.661351
0.122101 -0.059392 0.661714
0.121497 -0.0603953 0.66202
0.120927 -0.0614108 0.662501
0.120334 -0.062419 0.662861
0.119717 -0.0634191 0.663098
0.119095 -0.0644179 0.663313
0.118469 -0.0654152 0.663505
0.117809 -0.0663986 0.663509
0.117161 -0.0673868 0.663581
0.116527 -0.0683804 0.663726
0.115881 -0.0693693 0.663812
0.115236 -0.0703578 0.663894
0.114611 -0.0713556 0.664093
0.113965 -0.0723437 0.664173
0.11332 -0.0733318 0.664257
0.112733 -0.074348 0.664669
0.112138 -0.0753611 0.665038
0.111547 -0.0763769 0.66543
0.110973 -0.0774027 0.665924
0.110399 -0.0784292 0.666417
0.109789 -0.0794383 0.666712
0.109191 -0.0804541 0.667072
0.108603 -0.0814768 0.6675
0.108006 -0.0824951 0.667873
0.107443 -0.0835336 0.668449
0.10689 -0.0845809 0.669094
0.10636 -0.085643 0.66988
0.105832 -0.0867093 0.670684
0.105323 -0.0877905 0.671615
0.104836 -0.0888885 0.672685
0.104386 -0.0900151 0.673993
0.10394 -0.0911477 0.675335
0.103546 -0.0923216 0.677019
0.103161 -0.0935078 0.678776
0.102786 -0.0947075 0.680613
0.1023 -0.0958347 0.681773
0.101791 -0.096949 0.682795
0.101283 -0.098068 0.683835
0.100813 -0.0992202 0.685136
0.100415 -0.100431 0.686908
0.10012 -0.101731 0.68937
0.0990892 -0.102554 0.693745
0.0998923 -0.103093 0.6923
0.0987412 -0.103834 0.695946
0.0996151 -0.104429 0.694941
0.1731 0.0111732 0.670352
0.17242 0.0101479 0.670393
0.171752 0.00912451 0.670479
0.17105 0.00809713 0.670436
0.170293 0.00706372 0.670177
0.169492 0.0060263 0.669743
0.168706 0.00499217 0.669365
0.167838 0.00395097 0.66866
0.166954 0.00291059 0.667887
0.166082 0.0018737 0.667153
0.165213 0.000839636 0.666425
0.164351 -0.00019148 0.665716
0.163565 -0.0012144 0.665305
0.162817 -0.00223311 0.665043
0.16207 -0.00325058 0.664779
0.161385 -0.00426314 0.664766
0.16067 -0.005277 0.664627
0.159992 -0.00628811 0.664638
0.159362 -0.00729685 0.664845
0.158786 -0.00830369 0.665274
0.158184 -0.00931221 0.665598
0.157611 -0.0103204 0.666045
0.157017 -0.0113299 0.666405
0.156389 -0.0123404 0.666624
0.155745 -0.0133513 0.666775
0.1551 -0.0143621 0.666927
0.154377 -0.0153726 0.666745
0.153678 -0.0163823 0.666663
0.153024 -0.0173922 0.666772
0.152414 -0.018403 0.667068
0.151843 -0.0194154 0.667535
0.151442 -0.0204348 0.668735
0.151045 -0.0214575 0.669962
0.150654 -0.0224838 0.671227
0.150275 -0.0235139 0.672552
0.149815 -0.0245426 0.673532
0.149253 -0.0255668 0.674067
0.148616 -0.0265864 0.674274
0.147868 -0.0275972 0.673989
0.147011 -0.028597 0.673214
0.146117 -0.0295903 0.672266
0.14516 -0.0305739 0.671024
0.144192 -0.0315519 0.669716
0.143273 -0.032531 0.668621
0.142367 -0.033508 0.667574
0.141537 -0.0344911 0.666864
0.140742 -0.0354764 0.66631
0.139992 -0.0364661 0.665957
0.13919 -0.0374461 0.665356
0.138441 -0.0384322 0.664996
0.137634 -0.039407 0.664361
0.136856 -0.0403843 0.663852
0.136081 -0.0413602 0.663356
0.135367 -0.0423456 0.663144
0.134619 -0.0433229 0.66276
0.133908 -0.0443063 0.662554
0.133195 -0.045288 0.662335
0.13247 -0.0462658 0.662053
0.131751 -0.0472436 0.661797
0.131058 -0.0482263 0.661665
0.130367 -0.0492083 0.661536
0.129636 -0.0501795 0.66121
0.128903 -0.0511485 0.660869
0.128142 -0.0521083 0.660386
0.127382 -0.0530663 0.6599
0.126636 -0.0540262 0.65948
0.125934 -0.054997 0.659275
0.125263 -0.0559761 0.659225
0.12462 -0.0569632 0.659314
0.124027 -0.0579664 0.659662
0.123449 -0.0589749 0.660085
0.122873 -0.0599854 0.660527
0.122283 -0.0609919 0.660895
0.121727 -0.062011 0.66144
0.121145 -0.0630226 0.66186
0.120542 -0.0640266 0.662164
0.119935 -0.0650302 0.662455
0.119325 -0.0660326 0.662725
0.118677 -0.0670206 0.6628
0.118031 -0.0680085 0.662877
0.117397 -0.0690018 0.663024
0.116765 -0.0699958 0.66318
0.116121 -0.0709847 0.663273
0.1155 -0.0719833 0.663486
0.114855 -0.0729714 0.663571
0.11421 -0.0739591 0.663654
0.113623 -0.0749746 0.66406
0.113029 -0.075988 0.664433
0.112438 -0.0770035 0.664823
0.111866 -0.0780296 0.665323
0.11129 -0.079055 0.665803
0.110669 -0.0800574 0.666029
0.110069 -0.0810719 0.666379
0.109481 -0.0820935 0.666797
0.108871 -0.0831041 0.667098
0.108296 -0.0841355 0.667599
0.107731 -0.0851744 0.668164
0.10718 -0.0862228 0.668815
0.106628 -0.0872726 0.669467
0.106096 -0.0883375 0.670246
0.105586 -0.0894193 0.671164
0.105101 -0.0905196 0.672241
0.104641 -0.0916417 0.673487
0.104226 -0.092798 0.675017
0.103831 -0.0939733 0.676686
0.103448 -0.0951643 0.678451
0.102976 -0.0962973 0.679676
0.102473 -0.0974124 0.680718
0.101958 -0.0985228 0.6817
0.101469 -0.0996556 0.68285
0.10107 -0.100862 0.68459
0.100776 -0.102159 0.687032
0.100592 -0.103551 0.690206
0.100381 -0.104936 0.693245
0.0992649 -0.105714 0.697129
0.100105 -0.106279 0.69589
0.173543 0.00950225 0.670648
0.172907 0.00848226 0.670862
0.172214 0.00745511 0.670856
0.171478 0.00642345 0.670682
0.170658 0.00538341 0.670182
0.169866 0.00434815 0.669787
0.16898 0.00330511 0.669021
0.168096 0.00226466 0.668255
0.167223 0.00122776 0.667527
0.166333 0.000191828 0.666723
0.16545 -0.000840965 0.665937
0.164639 -0.00186591 0.665435
0.163871 -0.00288614 0.665095
0.163107 -0.0039048 0.664767
0.162424 -0.00491763 0.664764
0.161709 -0.00593157 0.664631
0.160998 -0.00694455 0.664511
0.160349 -0.00795442 0.664641
0.159754 -0.00896236 0.664989
0.159135 -0.0099716 0.665243
0.158548 -0.0109804 0.665627
0.15797 -0.0119898 0.666052
0.15734 -0.0130004 0.666267
0.156696 -0.0140112 0.666418
0.156067 -0.0150221 0.666633
0.155359 -0.0160325 0.66652
0.154677 -0.0170425 0.666511
0.154024 -0.0180527 0.666625
0.153428 -0.0190643 0.666983
0.152863 -0.0200775 0.667469
0.152469 -0.0210985 0.668696
0.152077 -0.022123 0.66994
0.151686 -0.0231506 0.671198
0.151291 -0.0241814 0.67245
0.150811 -0.0252098 0.673334
0.15023 -0.0262333 0.673788
0.14956 -0.0272505 0.67385
0.148793 -0.0282592 0.673484
0.147898 -0.0292544 0.672546
0.14697 -0.030243 0.67145
0.145994 -0.0312227 0.670127
0.145025 -0.0321986 0.668824
0.144109 -0.0331764 0.667751
0.143218 -0.0341534 0.666775
0.142403 -0.0351373 0.666138
0.14159 -0.036119 0.665505
0.140824 -0.0371051 0.66508
0.140006 -0.0380814 0.664411
0.139242 -0.0390636 0.66398
0.138435 -0.040037 0.663349
0.137673 -0.0410156 0.662916
0.136915 -0.0419931 0.662499
0.136204 -0.0429781 0.662304
0.135469 -0.0439569 0.661984
0.134758 -0.0449393 0.661777
0.134044 -0.0459198 0.661552
0.133309 -0.0468944 0.661222
0.132588 -0.0478709 0.660961
0.13187 -0.0488463 0.660703
0.131162 -0.0498233 0.660496
0.130416 -0.0507891 0.660096
0.12967 -0.0517531 0.659691
0.128909 -0.0527113 0.65921
0.128159 -0.0536703 0.658774
0.127413 -0.0546284 0.658352
0.126709 -0.0555971 0.658137
0.12605 -0.0565785 0.658144
0.125408 -0.0575645 0.658233
0.124818 -0.0585674 0.658592
0.124241 -0.0595753 0.659016
0.123668 -0.0605855 0.659463
0.12308 -0.0615914 0.659836
0.122524 -0.06261 0.660381
0.121944 -0.0636207 0.660801
0.121344 -0.064625 0.661118
0.120741 -0.0656286 0.661422
0.120134 -0.0666312 0.661707
0.119501 -0.0676238 0.661855
0.118868 -0.0686165 0.662003
0.118247 -0.0696143 0.662218
0.11764 -0.0706182 0.662505
0.117021 -0.0716173 0.662728
0.116413 -0.0726222 0.663019
0.11578 -0.0736153 0.663166
0.115147 -0.0746087 0.663316
0.114547 -0.0756181 0.66365
0.113942 -0.0766255 0.663954
0.113338 -0.0776342 0.664269
0.112754 -0.078654 0.664699
0.112178 -0.0796792 0.665177
0.111558 -0.0806819 0.665409
0.11096 -0.0816966 0.665764
0.110371 -0.0827176 0.666177
0.10976 -0.083727 0.666463
0.109162 -0.0847435 0.666822
0.108596 -0.0857814 0.667381
0.108035 -0.0868227 0.667964
0.107462 -0.0878592 0.668485
0.106907 -0.0889087 0.66912
0.106372 -0.0899727 0.66988
0.105841 -0.0910415 0.670669
0.105347 -0.0921379 0.67169
0.104908 -0.0932747 0.673052
0.104492 -0.0944329 0.674573
0.104098 -0.0956124 0.676246
0.10364 -0.0967512 0.677534
0.103139 -0.0978638 0.678571
0.102606 -0.0989571 0.67942
0.102082 -0.10006 0.680335
0.101645 -0.101233 0.681809
0.10132 -0.102498 0.684008
0.101113 -0.103867 0.686997
0.100966 -0.105297 0.690406
0.100781 -0.106709 0.693601
0.174323 0.0078699 0.672229
0.173632 0.00684083 0.672238
0.172872 0.0058045 0.671981
0.172006 0.00475812 0.671313
0.171139 0.00371383 0.670636
0.170197 0.00266484 0.669664
0.169294 0.00162231 0.668832
0.168437 0.000586287 0.668173
0.167529 -0.000451367 0.667308
0.166622 -0.00148622 0.666441
0.165771 -0.00251445 0.665786
0.164963 -0.00353766 0.665293
0.164162 -0.00455868 0.664826
0.163462 -0.00557285 0.664756
0.162749 -0.00658684 0.664633
0.162021 -0.00760081 0.664446
0.161371 -0.00861104 0.664574
0.160756 -0.00962025 0.664842
0.16012 -0.0106302 0.665027
0.159515 -0.0116398 0.665338
0.158936 -0.0126495 0.665758
0.158292 -0.0136604 0.66591
0.157647 -0.0146712 0.666061
0.157019 -0.0156822 0.666281
0.156328 -0.0166925 0.666238
0.155664 -0.0177028 0.666304
0.155013 -0.0187132 0.666428
0.154449 -0.0197262 0.666919
0.153914 -0.0207413 0.667536
0.153541 -0.0217649 0.668846
0.153156 -0.0227914 0.670116
0.152765 -0.0238208 0.671367
0.152333 -0.024851 0.672455
0.151816 -0.025878 0.67318
0.151188 -0.0268983 0.673423
0.150485 -0.0279129 0.673344
0.1497 -0.0289192 0.6729
0.148772 -0.0299101 0.671824
0.14781 -0.0308936 0.670583
0.146832 -0.0318712 0.669261
0.145863 -0.0328452 0.667964
0.144936 -0.0338198 0.666845
0.144058 -0.034797 0.665937
0.143242 -0.0357793 0.665299
0.142413 -0.0367572 0.664593
0.141618 -0.0377376 0.664035
0.140794 -0.0387112 0.663342
0.140015 -0.0396895 0.662845
0.139223 -0.0406636 0.662283
0.138465 -0.0416415 0.661872
0.137725 -0.042621 0.661541
0.13703 -0.0436077 0.661413
0.136307 -0.0445879 0.661157
0.135584 -0.0455666 0.66089
0.13487 -0.046546 0.660666
0.134146 -0.0475221 0.660392
0.133413 -0.0484944 0.660068
0.132679 -0.0494652 0.65974
0.131967 -0.0504397 0.659511
0.131232 -0.051407 0.659164
0.130473 -0.0523663 0.658698
0.129712 -0.0533229 0.658215
0.128963 -0.0542808 0.657788
0.128217 -0.0552374 0.657366
0.127503 -0.0562019 0.657099
0.126845 -0.0571824 0.657111
0.126203 -0.0581673 0.6572
0.125612 -0.0591689 0.657547
0.125037 -0.0601761 0.657975
0.124464 -0.0611856 0.658421
0.123878 -0.062191 0.658797
0.123312 -0.0632047 0.659282
0.122732 -0.0642145 0.659699
0.122143 -0.0652216 0.660069
0.121555 -0.06623 0.660447
0.120963 -0.0672374 0.660805
0.120355 -0.0682394 0.661084
0.119735 -0.0692367 0.661299
0.119117 -0.0702347 0.661521
0.118522 -0.0712438 0.661876
0.117917 -0.0722486 0.662172
0.117322 -0.0732587 0.662527
0.116691 -0.0742525 0.662684
0.116067 -0.0752502 0.662886
0.115457 -0.0762545 0.66316
0.11485 -0.0772608 0.663454
0.114233 -0.078263 0.663698
0.113647 -0.079281 0.664108
0.11306 -0.0803001 0.664523
0.112454 -0.0813093 0.664827
0.111859 -0.0823257 0.6652
0.111273 -0.0833478 0.665624
0.110663 -0.0843569 0.665912
0.110061 -0.0853722 0.666255
0.109485 -0.0864029 0.666743
0.108912 -0.087437 0.667257
0.108342 -0.0884738 0.667786
0.107776 -0.0895161 0.668354
0.107219 -0.0905654 0.668974
0.106664 -0.0916167 0.669608
0.106136 -0.0926889 0.67041
0.105663 -0.0938013 0.671556
0.105226 -0.0949421 0.672928
0.104811 -0.0961036 0.67445
0.10434 -0.097231 0.675647
0.103839 -0.0983409 0.676668
0.103286 -0.0994148 0.677371
0.102717 -0.10048 0.677991
0.102242 -0.101619 0.6792
0.101867 -0.102841 0.681057
0.101606 -0.104161 0.683659
0.101447 -0.105574 0.686937
0.101335 -0.10704 0.690565
0.10043 -0.107996 0.695758
0.101063 -0.108387 0.693199
0.175808 0.00726178 0.673835
0.175056 0.00622336 0.673621
0.174256 0.0051809 0.673219
0.173342 0.00412847 0.672383
0.172429 0.00307862 0.671538
0.17146 0.00202662 0.670473
0.170518 0.000980133 0.669502
0.169657 -5.66752e-05 0.668835
0.168728 -0.00109631 0.667898
0.167787 -0.00213373 0.666906
0.166898 -0.00316474 0.666108
0.166048 -0.00419075 0.66546
0.165206 -0.00521402 0.664835
0.164469 -0.00623019 0.66462
0.163754 -0.00724436 0.664491
0.163026 -0.00825826 0.664308
0.162361 -0.00926923 0.664377
0.161712 -0.0102796 0.664509
0.161072 -0.0112897 0.664675
0.160449 -0.0122998 0.664911
0.159855 -0.0133097 0.66527
0.159228 -0.0143204 0.665489
0.158599 -0.0153312 0.665704
0.157987 -0.0163424 0.66599
0.157314 -0.017353 0.666024
0.156654 -0.0183635 0.666112
0.156019 -0.0193746 0.666304
0.155485 -0.0203892 0.666917
0.154982 -0.0214066 0.667668
0.154614 -0.0224322 0.668996
0.154245 -0.0234612 0.670329
0.153837 -0.0244914 0.671504
0.153355 -0.0255198 0.672369
0.152788 -0.0265441 0.672877
0.152124 -0.0275618 0.672966
0.151378 -0.0285721 0.672698
0.150575 -0.029576 0.672181
0.149632 -0.0305637 0.671043
0.148639 -0.0315422 0.669673
0.14766 -0.0325176 0.668353
0.14669 -0.0334895 0.66706
0.145762 -0.0344623 0.665944
0.144884 -0.0354377 0.665039
0.144066 -0.0364184 0.664396
0.143222 -0.0373926 0.663626
0.142423 -0.0383709 0.663054
0.141598 -0.0393427 0.662357
0.140832 -0.0403218 0.661921
0.14007 -0.0412997 0.661499
0.139329 -0.0422795 0.661165
0.138604 -0.0432611 0.660906
0.137894 -0.0442442 0.660712
0.137156 -0.0452205 0.660385
0.136416 -0.0461945 0.660041
0.135703 -0.0471734 0.659825
0.134968 -0.0481456 0.659495
0.134233 -0.0491164 0.659166
0.133495 -0.0500847 0.658815
0.132769 -0.0510547 0.658521
0.132033 -0.0520203 0.65817
0.131276 -0.0529786 0.657712
0.13053 -0.053938 0.657305
0.129795 -0.0548986 0.656945
0.129064 -0.0558587 0.656602
0.128353 -0.0568232 0.656352
0.127709 -0.0578071 0.65643
0.127067 -0.0587916 0.656521
0.126463 -0.0597883 0.656798
0.125874 -0.0607903 0.657151
0.125286 -0.0617938 0.657517
0.124688 -0.0627943 0.657831
0.12411 -0.0638024 0.658244
0.123531 -0.0648113 0.658659
0.122941 -0.0658172 0.659023
0.122364 -0.0668288 0.659454
0.121786 -0.0678406 0.659877
0.121192 -0.0688473 0.660226
0.120585 -0.0698494 0.660509
0.11998 -0.0708521 0.660797
0.1194 -0.0718668 0.661223
0.118809 -0.0728776 0.661594
0.118228 -0.0738939 0.662022
0.117598 -0.074888 0.662185
0.116974 -0.0758854 0.662386
0.116351 -0.0768832 0.662589
0.115731 -0.0778829 0.66281
0.115103 -0.0788782 0.662984
0.114517 -0.0798961 0.663396
0.11393 -0.0809143 0.663804
0.113336 -0.0819294 0.664172
0.112756 -0.0829534 0.664625
0.112173 -0.0839771 0.665066
0.111576 -0.0849935 0.665425
0.110975 -0.0860084 0.665767
0.110387 -0.0870323 0.666187
0.109814 -0.088066 0.666696
0.109244 -0.0891032 0.667227
0.10867 -0.0901389 0.667736
0.108103 -0.091181 0.668288
0.107524 -0.0922166 0.66878
0.106971 -0.0932712 0.669428
0.106478 -0.0943677 0.670435
0.106029 -0.0954992 0.671723
0.105594 -0.0966459 0.673111
0.105123 -0.0977708 0.674291
0.104611 -0.0988704 0.675231
0.104035 -0.0999253 0.675784
0.103423 -0.100955 0.676123
0.102901 -0.102054 0.677019
0.102466 -0.103226 0.678475
0.102142 -0.10449 0.680645
0.101944 -0.105866 0.683636
0.101844 -0.107335 0.68729
0.101633 -0.108725 0.690267
0.100683 -0.109652 0.695153
0.101314 -0.110035 0.692584
0.17736 0.00665685 0.675672
0.176556 0.00561031 0.675273
0.175686 0.0045585 0.674616
0.174725 0.00350009 0.673611
0.173763 0.00244467 0.672592
0.172733 0.00138669 0.671304
0.171746 0.000336095 0.67017
0.170846 -0.00070419 0.669363
0.169896 -0.00174541 0.668355
0.168935 -0.00278419 0.667294
0.168025 -0.00381641 0.666424
0.167152 -0.00484386 0.66569
0.166287 -0.00586833 0.664982
0.165509 -0.0068866 0.664612
0.164774 -0.00790176 0.664406
0.164044 -0.00891576 0.66422
0.163364 -0.00992746 0.664227
0.162699 -0.0109384 0.664297
0.162054 -0.0119489 0.664444
0.161413 -0.0129593 0.664607
0.160804 -0.0139696 0.664901
0.160178 -0.0149802 0.665128
0.159565 -0.0159913 0.66541
0.158971 -0.0170029 0.665767
0.158316 -0.018014 0.665877
0.157672 -0.0190252 0.666032
0.157055 -0.0200373 0.666298
0.156522 -0.021053 0.666918
0.156037 -0.0220722 0.667739
0.155673 -0.0230997 0.669077
0.155289 -0.0241295 0.67034
0.154863 -0.02516 0.671433
0.154344 -0.0261868 0.672142
0.153744 -0.027209 0.672504
0.153062 -0.0282252 0.672518
0.152314 -0.0292349 0.672245
0.151495 -0.0302364 0.67166
0.150551 -0.0312228 0.670525
0.14954 -0.032198 0.669086
0.148543 -0.0331697 0.667697
0.147556 -0.034138 0.666338
0.146624 -0.0351086 0.66521
0.145747 -0.0360827 0.664312
0.144913 -0.0370599 0.663601
0.144055 -0.0380306 0.662772
0.143238 -0.0390048 0.662124
0.142401 -0.0399731 0.661374
0.141622 -0.0409485 0.660879
0.140877 -0.041928 0.660537
0.140151 -0.0429094 0.660274
0.139427 -0.0438899 0.660019
0.138712 -0.0448709 0.659803
0.137984 -0.0458481 0.659522
0.13723 -0.0468181 0.659117
0.136506 -0.0477931 0.658845
0.135768 -0.0487633 0.658505
0.135032 -0.0497326 0.658171
0.134295 -0.0506999 0.657826
0.133584 -0.0516721 0.657598
0.132865 -0.052641 0.657331
0.132123 -0.0536023 0.656949
0.131391 -0.0545646 0.656613
0.130669 -0.0555283 0.656321
0.129953 -0.056492 0.65605
0.129256 -0.0574602 0.655872
0.128614 -0.0584445 0.655958
0.127984 -0.0594325 0.656106
0.127366 -0.0604245 0.656315
0.126762 -0.0614216 0.656595
0.12616 -0.0624198 0.656884
0.125559 -0.0634184 0.657176
0.124955 -0.0644169 0.657458
0.124363 -0.0654202 0.657802
0.12376 -0.0664201 0.658093
0.123172 -0.0674266 0.658463
0.122595 -0.0684379 0.658889
0.122016 -0.0694497 0.659311
0.121424 -0.0704569 0.659667
0.120832 -0.0714647 0.660021
0.120264 -0.0724838 0.660505
0.119687 -0.0735002 0.660945
0.11911 -0.0745181 0.661394
0.118493 -0.0755179 0.661626
0.11787 -0.076515 0.661826
0.117244 -0.0775109 0.662011
0.116613 -0.0785048 0.662173
0.115985 -0.0794998 0.662346
0.11539 -0.0805121 0.662702
0.114803 -0.0815299 0.663107
0.114209 -0.0825445 0.663473
0.113628 -0.0835677 0.663919
0.113059 -0.0845986 0.664433
0.112476 -0.0856221 0.664869
0.111878 -0.0866385 0.665223
0.11129 -0.087662 0.665639
0.110716 -0.0886946 0.666137
0.110146 -0.0897315 0.666661
0.109574 -0.0907676 0.667177
0.109007 -0.09181 0.667733
0.108429 -0.092846 0.668222
0.107874 -0.0938982 0.668852
0.107369 -0.094987 0.669783
0.106901 -0.0961041 0.670943
0.106456 -0.0972428 0.67226
0.105965 -0.0983518 0.673304
0.105441 -0.0994416 0.67416
0.104855 -0.100488 0.67465
0.104234 -0.101509 0.674923
0.103669 -0.102574 0.675545
0.103197 -0.103714 0.676753
0.1028 -0.104917 0.678438
0.102528 -0.106229 0.680933
0.102392 -0.107661 0.684309
0.102191 -0.109054 0.687312
0.10191 -0.110392 0.68984
0.100793 -0.111183 0.693622
0.101448 -0.111583 0.691227
0.100067 -0.112152 0.693322
0.100774 -0.112594 0.691261
0.100354 -0.114024 0.699679
0.100158 -0.113657 0.69167
0.178704 0.00602449 0.676705
0.177897 0.00497633 0.676301
0.177019 0.00392278 0.675629
0.176064 0.0028642 0.674655
0.175062 0.00180465 0.673497
0.174003 0.000744033 0.672112
0.172973 -0.000310004 0.670828
0.17203 -0.00135389 0.669865
0.171074 -0.00239557 0.668843
0.170108 -0.00343451 0.667773
0.16918 -0.00446796 0.66684
0.168287 -0.0054965 0.666039
0.167384 -0.00652288 0.665189
0.166552 -0.00754354 0.664609
0.165778 -0.00856022 0.664256
0.16503 -0.00957465 0.663999
0.164333 -0.0105868 0.663944
0.163669 -0.0115978 0.664014
0.16302 -0.0126084 0.664148
0.162377 -0.0136189 0.664304
0.161753 -0.0146294 0.664538
0.161144 -0.0156403 0.664832
0.16055 -0.0166517 0.66519
0.159974 -0.0176641 0.665621
0.159337 -0.0186758 0.665803
0.158709 -0.019688 0.666026
0.158091 -0.0207007 0.66629
0.15756 -0.0217174 0.666913
0.157079 -0.0227379 0.667751
0.156701 -0.0237661 0.669023
0.156302 -0.0247965 0.670219
0.155856 -0.0258267 0.671223
0.155304 -0.0268519 0.671789
0.154671 -0.0278717 0.672011
0.153973 -0.028886 0.671954
0.153208 -0.0298935 0.671609
0.152373 -0.0308925 0.67096
0.151424 -0.0318769 0.669813
0.150425 -0.0328514 0.668434
0.149425 -0.0338212 0.667037
0.148435 -0.0347874 0.665674
0.147501 -0.0357564 0.664547
0.146621 -0.0367288 0.663641
0.145759 -0.0377006 0.662808
0.144897 -0.0386693 0.661966
0.144081 -0.0396424 0.661323
0.143242 -0.0406091 0.660573
0.142466 -0.0415838 0.660095
0.141737 -0.0425651 0.659823
0.141011 -0.0435456 0.659562
0.140272 -0.0445225 0.659242
0.139542 -0.0454994 0.658954
0.138811 -0.0464748 0.658662
0.138042 -0.0474402 0.658185
0.137304 -0.0484108 0.657849
0.136567 -0.04938 0.657515
0.135844 -0.0503509 0.657241
0.135095 -0.0513142 0.656844
0.134402 -0.0522897 0.656701
0.1337 -0.053262 0.656515
0.132973 -0.0542263 0.656206
0.132255 -0.0551918 0.655941
0.13156 -0.0561622 0.655776
0.130857 -0.0571296 0.655574
0.130173 -0.0581014 0.655461
0.129543 -0.0590895 0.655609
0.128914 -0.0600775 0.655757
0.128284 -0.0610656 0.655905
0.127666 -0.0620579 0.656114
0.127049 -0.0630506 0.656328
0.126433 -0.0640437 0.656544
0.125816 -0.0650368 0.656758
0.125211 -0.0660347 0.657033
0.124595 -0.0670289 0.657255
0.123993 -0.0680288 0.657548
0.123405 -0.0690348 0.657912
0.12283 -0.0700472 0.658348
0.122253 -0.0710599 0.658778
0.121675 -0.0720728 0.659202
0.121132 -0.0731025 0.659815
0.120579 -0.0741295 0.660382
0.120018 -0.0751539 0.660903
0.119415 -0.07616 0.661209
0.118803 -0.0771625 0.661469
0.118164 -0.0781523 0.661587
0.117532 -0.0791449 0.661736
0.116904 -0.0801403 0.661915
0.116299 -0.0811474 0.662215
0.115702 -0.0821594 0.662561
0.115106 -0.0831726 0.662912
0.114512 -0.0841881 0.663282
0.113933 -0.0852123 0.663731
0.113362 -0.0862423 0.664231
0.112777 -0.0872668 0.664661
0.112191 -0.0882906 0.665083
0.111617 -0.0893229 0.665578
0.111044 -0.0903573 0.666083
0.110473 -0.0913944 0.6666
0.109899 -0.0924308 0.667104
0.109322 -0.0934671 0.667597
0.108768 -0.0945192 0.668225
0.108261 -0.0956066 0.66914
0.107784 -0.0967174 0.67024
0.107341 -0.0978559 0.671553
0.10684 -0.0989579 0.672529
0.106316 -0.100046 0.673377
0.105731 -0.101093 0.673866
0.105112 -0.102114 0.67415
0.104528 -0.103164 0.67465
0.104035 -0.104285 0.675711
0.103571 -0.105435 0.676972
0.10323 -0.106687 0.679001
0.103045 -0.108076 0.68204
0.102829 -0.109452 0.684913
0.102549 -0.110785 0.687408
0.102145 -0.112022 0.689146
0.101554 -0.113102 0.6897
0.101212 -0.114405 0.691866
0.100409 -0.115506 0.697763
0.101519 -0.116304 0.698272
0.100769 -0.117483 0.704655
0.101919 -0.118318 0.705369
0.101259 -0.11961 0.712484
0.102399 -0.120437 0.713071
0.101693 -0.121721 0.720043
0.102794 -0.122509 0.720304
0.101802 -0.123551 0.725509
0.102695 -0.124138 0.724337
0.102001 -0.125494 0.731649
0.101946 -0.125148 0.724065
0.179999 0.00538394 0.677543
0.179163 0.00433184 0.677036
0.178287 0.00327788 0.67638
0.177329 0.0022188 0.675408
0.176319 0.00115837 0.67423
0.175237 9.60596e-05 0.672772
0.174182 -0.000959767 0.671402
0.173179 -0.00200794 0.670218
0.1722 -0.00305079 0.669118
0.171229 -0.00408966 0.668042
0.1703 -0.00512288 0.667113
0.169393 -0.00615206 0.666265
0.168485 -0.00717837 0.665405
0.167616 -0.00820045 0.664689
0.166802 -0.0092185 0.664181
0.166032 -0.0102334 0.663843
0.165318 -0.0112459 0.66372
0.164639 -0.0122574 0.663733
0.163992 -0.013268 0.663873
0.163347 -0.0142786 0.664024
0.162706 -0.0152893 0.664187
0.162113 -0.0163004 0.664545
0.161538 -0.0173125 0.664979
0.160982 -0.0183258 0.665492
0.160364 -0.0193384 0.665751
0.15975 -0.0203515 0.666033
0.159132 -0.0213648 0.666293
0.158599 -0.0223824 0.666911
0.158119 -0.0234041 0.667749
0.157726 -0.024433 0.668956
0.157311 -0.0254636 0.670077
0.156832 -0.0264926 0.670939
0.156248 -0.0275156 0.671365
0.155581 -0.0285326 0.671441
0.154865 -0.0295449 0.671315
0.154084 -0.03055 0.670903
0.153249 -0.0315478 0.670258
0.152298 -0.0325303 0.669106
0.151311 -0.0335045 0.667786
0.150309 -0.0344725 0.666394
0.149333 -0.0354389 0.665101
0.148401 -0.0364067 0.663984
0.147518 -0.0373777 0.663074
0.146638 -0.0383459 0.66217
0.145772 -0.0393127 0.661317
0.144941 -0.0402821 0.660607
0.144102 -0.0412475 0.65986
0.143326 -0.0422213 0.659383
0.142594 -0.0432013 0.659102
0.141868 -0.0441809 0.658843
0.141115 -0.045154 0.658458
0.140386 -0.0461301 0.658177
0.139653 -0.0471042 0.657879
0.138872 -0.0480657 0.657347
0.138119 -0.0490317 0.656943
0.137392 -0.0500022 0.656659
0.13667 -0.0509724 0.65639
0.135939 -0.0519386 0.656072
0.135275 -0.0529213 0.656072
0.134588 -0.0538969 0.655958
0.133874 -0.0548644 0.655715
0.13317 -0.0558329 0.65551
0.132475 -0.0568035 0.655354
0.131774 -0.0577707 0.655159
0.131103 -0.0587465 0.655112
0.130473 -0.0597346 0.65526
0.129843 -0.0607226 0.655408
0.129213 -0.0617107 0.655556
0.128584 -0.0626987 0.655704
0.127954 -0.0636867 0.655852
0.127324 -0.0646747 0.656
0.126694 -0.0656628 0.656148
0.126076 -0.0666555 0.656357
0.125459 -0.0676486 0.656571
0.124856 -0.0686474 0.656853
0.124266 -0.0696523 0.657208
0.123691 -0.0706639 0.657637
0.123105 -0.0716724 0.658019
0.122529 -0.0726855 0.658449
0.121988 -0.0737156 0.659068
0.121438 -0.0747431 0.659641
0.120878 -0.0757676 0.660167
0.1203 -0.0767849 0.660601
0.11969 -0.077788 0.660871
0.119065 -0.0787841 0.661061
0.118443 -0.0797817 0.661266
0.117827 -0.0807827 0.661504
0.117222 -0.0817897 0.661803
0.116614 -0.0827957 0.662086
0.116004 -0.0838009 0.662359
0.115396 -0.0848082 0.662647
0.114802 -0.0858238 0.663013
0.114221 -0.0868476 0.663453
0.11365 -0.0878789 0.663956
0.113066 -0.0889037 0.664385
0.112493 -0.0899356 0.664879
0.11192 -0.0909689 0.665377
0.111348 -0.092005 0.665885
0.110775 -0.0930425 0.666397
0.1102 -0.0940792 0.666896
0.109648 -0.0951323 0.66753
0.109143 -0.0962198 0.668448
0.108667 -0.0973302 0.669541
0.108215 -0.0984618 0.670786
0.107712 -0.0995611 0.671744
0.107201 -0.100657 0.672657
0.106628 -0.101712 0.673212
0.106024 -0.102745 0.673587
0.105453 -0.103803 0.674159
0.104961 -0.104926 0.675222
0.104488 -0.106068 0.676414
0.104084 -0.107269 0.678043
0.103844 -0.108611 0.680702
0.10359 -0.109952 0.683309
0.103282 -0.111258 0.685602
0.102891 -0.112503 0.687398
0.10239 -0.113659 0.688516
0.102343 -0.115221 0.692543
0.102712 -0.117177 0.699303
0.103162 -0.119236 0.70666
0.103586 -0.121306 0.713943
0.103914 -0.123315 0.720678
0.103587 -0.124726 0.723182
0.102855 -0.125751 0.72302
0.102173 -0.127128 0.730367
0.102145 -0.126796 0.723001
0.180138 0.00365734 0.676682
0.179312 0.00260872 0.676216
0.178382 0.00155288 0.675351
0.177412 0.000496722 0.674337
0.176344 -0.000563522 0.67294
0.175282 -0.00161905 0.671553
0.174225 -0.00266994 0.670177
0.173241 -0.00371225 0.669068
0.172285 -0.00474955 0.668052
0.171357 -0.00578207 0.667138
0.170466 -0.00681012 0.666357
0.169575 -0.00783547 0.665572
0.168683 -0.0088582 0.664774
0.16783 -0.00987715 0.664117
0.167037 -0.0108926 0.663693
0.166288 -0.0119057 0.663436
0.165593 -0.0129171 0.663388
0.164947 -0.0139278 0.663532
0.164302 -0.0149385 0.663684
0.16366 -0.0159491 0.663842
0.163083 -0.0169607 0.664263
0.162527 -0.0179735 0.664769
0.162008 -0.0189883 0.665432
0.161424 -0.0200025 0.665829
0.160829 -0.0210171 0.666186
0.160224 -0.0220318 0.666505
0.159675 -0.0230499 0.667057
0.159159 -0.0240709 0.667744
0.158732 -0.0250992 0.668804
0.158299 -0.0261297 0.669846
0.157773 -0.0271561 0.67051
0.157171 -0.0281778 0.67086
0.156484 -0.0291926 0.670853
0.155766 -0.0302041 0.670715
0.154969 -0.0312067 0.670237
0.154134 -0.0322035 0.669596
0.153182 -0.0331844 0.668449
0.15221 -0.0341588 0.667202
0.151212 -0.0351257 0.665833
0.150255 -0.0360933 0.664631
0.149337 -0.0370619 0.663584
0.148452 -0.0380318 0.662673
0.147568 -0.0389984 0.661756
0.146686 -0.0399618 0.660837
0.145851 -0.0409299 0.66012
0.144998 -0.0418919 0.65931
0.144218 -0.0428642 0.658824
0.14347 -0.0438405 0.65847
0.142756 -0.0448218 0.658266
0.141989 -0.0457912 0.657822
0.141262 -0.0467671 0.65755
0.14053 -0.0477405 0.657255
0.139747 -0.0487009 0.656722
0.138979 -0.0496626 0.656253
0.138252 -0.0506322 0.655969
0.137543 -0.0516048 0.655761
0.136826 -0.052574 0.655513
0.136179 -0.0535604 0.655586
0.13549 -0.0545354 0.655469
0.134789 -0.0555058 0.655285
0.134082 -0.0564734 0.655072
0.13339 -0.0574443 0.654927
0.13269 -0.0584117 0.654742
0.132033 -0.0593916 0.654763
0.131403 -0.0603797 0.654911
0.130773 -0.0613677 0.655059
0.130143 -0.0623557 0.655207
0.129513 -0.0633438 0.655355
0.128883 -0.0643318 0.655503
0.128254 -0.0653198 0.655651
0.127624 -0.0663079 0.655799
0.126994 -0.0672959 0.655947
0.126364 -0.0682839 0.656095
0.125746 -0.0692769 0.656304
0.125142 -0.0702756 0.656583
0.124553 -0.0712812 0.656941
0.123966 -0.0722882 0.657309
0.123391 -0.0733016 0.657745
0.122852 -0.0743319 0.658367
0.122304 -0.0753596 0.658944
0.121744 -0.0763838 0.659467
0.12118 -0.0774071 0.65997
0.120573 -0.078411 0.66025
0.119963 -0.0794138 0.660517
0.119355 -0.0804185 0.660798
0.118751 -0.0814252 0.661096
0.118145 -0.082432 0.661392
0.117536 -0.0834374 0.661669
0.116912 -0.0844352 0.661867
0.11629 -0.0854343 0.662077
0.115683 -0.086442 0.662367
0.11509 -0.0874585 0.662738
0.114519 -0.0884889 0.663234
0.113927 -0.0895075 0.663612
0.113343 -0.0905324 0.664042
0.11277 -0.0915654 0.664536
0.112198 -0.0926004 0.665039
0.111627 -0.0936368 0.665548
0.111065 -0.0946812 0.66612
0.110525 -0.0957421 0.66682
0.110012 -0.0968231 0.667677
0.109525 -0.0979256 0.668699
0.109073 -0.0990555 0.669932
0.108571 -0.100155 0.670885
0.108073 -0.10126 0.671872
0.107525 -0.102332 0.67257
0.106956 -0.103391 0.673152
0.10641 -0.104469 0.673869
0.105942 -0.10561 0.675071
0.105483 -0.106761 0.676332
0.10508 -0.107965 0.677961
0.104777 -0.109255 0.680212
0.104466 -0.110549 0.682443
0.1041 -0.111804 0.684355
0.103899 -0.113209 0.687321
0.103631 -0.114569 0.689896
0.103884 -0.116401 0.695809
0.104318 -0.118422 0.702941
0.10478 -0.120499 0.710336
0.104971 -0.122357 0.716066
0.105063 -0.124149 0.721232
0.104522 -0.125355 0.722317
0.103805 -0.126393 0.72225
0.103131 -0.127473 0.722472
0.102427 -0.12884 0.729645
0.102473 -0.128571 0.722801
0.180345 0.00193977 0.676077
0.179433 0.000886152 0.675288
0.178481 -0.000167847 0.674346
0.177409 -0.00122731 0.672944
0.176342 -0.00228205 0.671549
0.175263 -0.0033331 0.6701
0.174279 -0.00437458 0.668999
0.173356 -0.00540937 0.668119
0.172446 -0.0064407 0.667278
0.171573 -0.00746779 0.666576
0.170698 -0.00849249 0.665859
0.169803 -0.00951524 0.665055
0.168929 -0.0105349 0.664327
0.168113 -0.0115509 0.663816
0.167343 -0.0125646 0.663482
0.166629 -0.0135765 0.663363
0.165966 -0.0145877 0.663444
0.165304 -0.0155986 0.663527
0.164644 -0.0166094 0.663616
0.164067 -0.0176214 0.664037
0.163513 -0.0186348 0.664551
0.163016 -0.0196508 0.665293
0.162467 -0.0206669 0.665836
0.161909 -0.0216837 0.666343
0.161307 -0.0226995 0.666674
0.160756 -0.0237185 0.667216
0.160218 -0.0247396 0.667813
0.159754 -0.0257668 0.668717
0.159287 -0.026796 0.669614
0.158728 -0.0278203 0.670136
0.158092 -0.0288393 0.670343
0.157385 -0.0298521 0.670253
0.156648 -0.0308611 0.670039
0.155851 -0.0318628 0.669564
0.155018 -0.0328585 0.668934
0.154082 -0.0338399 0.66786
0.153141 -0.0348167 0.666757
0.15216 -0.0357845 0.665471
0.151222 -0.0367535 0.664355
0.150319 -0.0377237 0.663383
0.149434 -0.0386928 0.662475
0.148531 -0.0396561 0.661487
0.147646 -0.0406185 0.660564
0.146797 -0.0415834 0.659786
0.145926 -0.0425417 0.658907
0.145129 -0.0435104 0.65835
0.144363 -0.0444827 0.657921
0.143648 -0.0454632 0.657712
0.142868 -0.0464292 0.657212
0.142154 -0.0474072 0.657004
0.141436 -0.0483832 0.656774
0.140653 -0.049343 0.656244
0.139871 -0.0503007 0.655713
0.139156 -0.0512726 0.655484
0.138447 -0.0522446 0.655278
0.137731 -0.0532137 0.655037
0.137098 -0.0542037 0.655179
0.13641 -0.0551786 0.655063
0.135705 -0.0561477 0.654866
0.134996 -0.0571145 0.654647
0.134305 -0.0580852 0.654505
0.133606 -0.0590526 0.654327
0.132963 -0.0600367 0.654414
0.132333 -0.0610248 0.654562
0.131703 -0.0620128 0.65471
0.131073 -0.0630008 0.654858
0.130443 -0.0639889 0.655006
0.129813 -0.0649769 0.655154
0.129183 -0.0659649 0.655302
0.128553 -0.066953 0.65545
0.127923 -0.067941 0.655598
0.127294 -0.068929 0.655746
0.126664 -0.069917 0.655893
0.126046 -0.0709101 0.656103
0.125442 -0.0719092 0.656382
0.12484 -0.0729094 0.656671
0.124251 -0.0739161 0.657031
0.1237 -0.0749404 0.657584
0.123152 -0.0759678 0.65816
0.122591 -0.0769909 0.658674
0.12204 -0.0780197 0.65924
0.121448 -0.0790301 0.659596
0.120866 -0.0800465 0.660008
0.120273 -0.0810581 0.660361
0.119683 -0.0820722 0.660737
0.119079 -0.0830799 0.66104
0.118469 -0.0840849 0.661311
0.117833 -0.0850761 0.661444
0.117198 -0.0860674 0.661578
0.116579 -0.0870681 0.661803
0.115973 -0.0880769 0.662102
0.11539 -0.0890997 0.662528
0.114796 -0.0901163 0.662891
0.1142 -0.0911342 0.663254
0.113629 -0.0921668 0.66375
0.113058 -0.0932015 0.664252
0.112487 -0.0942376 0.664761
0.111927 -0.0952823 0.665334
0.111399 -0.0963503 0.666096
0.110876 -0.0974233 0.66689
0.110377 -0.0985165 0.667834
0.109914 -0.099638 0.668991
0.109403 -0.10073 0.669883
0.108908 -0.101836 0.670875
0.108387 -0.102927 0.671727
0.107857 -0.104013 0.672525
0.107348 -0.105119 0.673463
0.106917 -0.106288 0.674877
0.106471 -0.107451 0.67621
0.106069 -0.108655 0.67783
0.105733 -0.109919 0.679864
0.105387 -0.111183 0.681864
0.105236 -0.112618 0.685082
0.105296 -0.114249 0.689648
0.105306 -0.115856 0.693957
0.105829 -0.117936 0.701542
0.106289 -0.119992 0.708811
0.10649 -0.121842 0.714518
0.106417 -0.123464 0.718539
0.106265 -0.125031 0.722105
0.105522 -0.126045 0.721876
0.104814 -0.127094 0.72188
0.104164 -0.128197 0.722257
0.103532 -0.129321 0.722755
0.102855 -0.13073 0.7301
0.102963 -0.13051 0.723678
0.181411 0.00127305 0.676057
0.180508 0.000220668 0.675308
0.179491 -0.000837295 0.674133
0.178428 -0.00189471 0.672776
0.177357 -0.00294847 0.671374
0.176279 -0.00399812 0.669937
0.175297 -0.00503843 0.668852
0.174409 -0.00607091 0.66811
0.173515 -0.00710113 0.667338
0.172661 -0.00812731 0.666713
0.171805 -0.0091513 0.666075
0.170929 -0.0101735 0.665354
0.170052 -0.0111932 0.66462
0.169215 -0.0122099 0.664038
0.168423 -0.013224 0.663623
0.167688 -0.0142365 0.663423
0.167006 -0.0152481 0.663433
0.166342 -0.0162595 0.663509
0.16568 -0.0172706 0.663592
0.165119 -0.0182837 0.664077
0.164567 -0.019298 0.664595
0.164087 -0.0203158 0.665408
0.163559 -0.0213338 0.666033
0.163021 -0.0223526 0.666619
0.162408 -0.023369 0.666909
0.161856 -0.0243892 0.667445
0.161284 -0.0254093 0.667902
0.160781 -0.0264351 0.668646
0.160278 -0.0274627 0.669391
0.1597 -0.028486 0.669836
0.159031 -0.0295023 0.669905
0.158306 -0.030513 0.669743
0.157536 -0.0315182 0.66939
0.156706 -0.0325153 0.668781
0.155856 -0.033508 0.668085
0.154936 -0.0344895 0.667083
0.154027 -0.0354688 0.666121
0.15308 -0.0364395 0.664986
0.152173 -0.0374117 0.66401
0.151283 -0.038383 0.663102
0.150381 -0.039349 0.662131
0.149462 -0.0403087 0.661078
0.148575 -0.0412699 0.660153
0.147724 -0.042234 0.659375
0.146867 -0.0431937 0.65856
0.146084 -0.0441646 0.658068
0.145303 -0.0451337 0.657576
0.144571 -0.0461107 0.657299
0.143788 -0.0470754 0.656787
0.14306 -0.0480501 0.656519
0.142344 -0.0490258 0.656295
0.141574 -0.049988 0.655831
0.140805 -0.0509483 0.655363
0.140089 -0.0519199 0.655134
0.13938 -0.0528916 0.654928
0.138664 -0.0538606 0.654692
0.138032 -0.0548508 0.654836
0.137331 -0.0558218 0.654661
0.136624 -0.0567901 0.654458
0.135914 -0.0577562 0.654235
0.135221 -0.0587263 0.65409
0.134523 -0.0596937 0.653917
0.133893 -0.0606817 0.654065
0.133263 -0.0616698 0.654213
0.132633 -0.0626578 0.654361
0.132003 -0.0636459 0.654509
0.131361 -0.0646294 0.654596
0.13073 -0.0656171 0.654739
0.130099 -0.0666048 0.654885
0.12947 -0.0675929 0.655035
0.128841 -0.0685813 0.655188
0.128223 -0.0695741 0.655396
0.127593 -0.0705621 0.655544
0.126963 -0.0715501 0.655692
0.126346 -0.0725433 0.655902
0.125729 -0.0735371 0.656116
0.125125 -0.074537 0.656398
0.124548 -0.0755491 0.656814
0.123986 -0.0765692 0.65731
0.123426 -0.0775916 0.657821
0.122876 -0.0786202 0.658388
0.122298 -0.0796368 0.658814
0.121743 -0.0806658 0.659361
0.121177 -0.081691 0.659858
0.120602 -0.0827127 0.66031
0.120012 -0.0837275 0.660684
0.119403 -0.084733 0.660961
0.118768 -0.0857243 0.661093
0.118132 -0.0867155 0.661228
0.117502 -0.0877098 0.661391
0.116883 -0.088711 0.661618
0.116287 -0.089726 0.661968
0.115667 -0.0907273 0.662191
0.115059 -0.0917352 0.662475
0.114474 -0.09276 0.662898
0.113904 -0.0937936 0.6634
0.113337 -0.0948309 0.663921
0.112789 -0.0958834 0.664559
0.112252 -0.096944 0.665261
0.111727 -0.0980154 0.666038
0.111217 -0.0990992 0.666904
0.11074 -0.100211 0.667976
0.110231 -0.101302 0.668865
0.109751 -0.102417 0.669933
0.109246 -0.103519 0.670869
0.108753 -0.104632 0.67188
0.108284 -0.105768 0.673045
0.107884 -0.10696 0.674628
0.107463 -0.108144 0.676107
0.107084 -0.109366 0.67785
0.106724 -0.110611 0.679728
0.106355 -0.111855 0.681566
0.10621 -0.113296 0.6848
0.106309 -0.11496 0.689573
0.106373 -0.116612 0.694176
0.106955 -0.118745 0.702069
0.107438 -0.120821 0.709425
0.107586 -0.122624 0.714752
0.107471 -0.124208 0.718481
0.107291 -0.125746 0.72183
0.106546 -0.126761 0.721602
0.105824 -0.127795 0.721514
0.105186 -0.12891 0.721964
0.104578 -0.130058 0.722619
0.104037 -0.131275 0.723718
0.182561 0.000612163 0.67634
0.181571 -0.000446532 0.67528
0.180499 -0.00150737 0.67391
0.179414 -0.00256478 0.67248
0.178337 -0.00361729 0.671067
0.177259 -0.00466546 0.669639
0.176279 -0.00570452 0.668567
0.175411 -0.00673537 0.667905
0.174532 -0.00776428 0.667198
0.173713 -0.00878892 0.666712
0.172896 -0.00981166 0.666225
0.172057 -0.010833 0.665654
0.1712 -0.0118525 0.665005
0.170361 -0.0128695 0.664421
0.169547 -0.0138843 0.663925
0.168774 -0.0148973 0.663586
0.16807 -0.0159093 0.663511
0.167388 -0.016921 0.663519
0.166725 -0.0179326 0.663601
0.166165 -0.0189467 0.664086
0.165613 -0.0199618 0.664605
0.16515 -0.0209814 0.665482
0.164639 -0.0220011 0.666174
0.164103 -0.0230212 0.666771
0.163507 -0.0240393 0.667127
0.162957 -0.0250608 0.667669
0.16235 -0.0260799 0.667989
0.161815 -0.0271045 0.668598
0.16129 -0.0281314 0.669256
0.160678 -0.0291524 0.669557
0.159975 -0.0301656 0.669491
0.159249 -0.0311758 0.669324
0.158476 -0.0321801 0.668959
0.157642 -0.0331763 0.668341
0.156789 -0.0341676 0.667635
0.155884 -0.03515 0.666705
0.154975 -0.0361285 0.66575
0.154029 -0.0370983 0.664625
0.15312 -0.0380694 0.663649
0.152228 -0.0390396 0.662739
0.151309 -0.040002 0.6617
0.150386 -0.0409601 0.660638
0.149497 -0.04192 0.659709
0.148646 -0.0428833 0.658939
0.147805 -0.0438453 0.6582
0.147039 -0.0448189 0.657785
0.146257 -0.0457875 0.657296
0.145509 -0.0467608 0.656947
0.144721 -0.0477242 0.65642
0.143977 -0.0486951 0.656083
0.143248 -0.0496675 0.655805
0.142479 -0.0506295 0.655349
0.141723 -0.0515924 0.654944
0.140994 -0.0525602 0.654657
0.140271 -0.0535279 0.65439
0.139567 -0.0544995 0.654209
0.138922 -0.0554858 0.654292
0.138221 -0.0564564 0.654119
0.137527 -0.0574281 0.65398
0.13683 -0.0583977 0.65382
0.136138 -0.0593677 0.65368
0.135452 -0.0603388 0.653568
0.134823 -0.0613268 0.653716
0.134193 -0.0623149 0.653864
0.133563 -0.0633029 0.654012
0.132933 -0.0642909 0.65416
0.132276 -0.0652696 0.654181
0.131632 -0.066252 0.654257
0.130987 -0.0672343 0.654333
0.130345 -0.0682172 0.65442
0.129717 -0.0692053 0.654575
0.129114 -0.0702033 0.654853
0.128485 -0.0711918 0.655008
0.127868 -0.0721846 0.655217
0.12725 -0.0731775 0.655424
0.12662 -0.0741656 0.655574
0.126004 -0.0751593 0.655787
0.125412 -0.0761645 0.656128
0.124823 -0.0771719 0.656485
0.124249 -0.0781869 0.656919
0.1237 -0.079215 0.657485
0.123125 -0.0802324 0.657924
0.122598 -0.0812741 0.658607
0.122071 -0.0823186 0.659305
0.121524 -0.0833541 0.659894
0.120948 -0.0843763 0.660341
0.120352 -0.0853888 0.660683
0.119716 -0.08638 0.660815
0.11907 -0.0873657 0.660896
0.118438 -0.0883593 0.661051
0.117807 -0.0893533 0.661212
0.117186 -0.0903536 0.661427
0.11654 -0.0913385 0.661504
0.115906 -0.0923301 0.661644
0.115308 -0.0933456 0.661989
0.114729 -0.0943722 0.662432
0.114163 -0.0954098 0.662959
0.113629 -0.0964689 0.663663
0.113092 -0.0975293 0.664361
0.112545 -0.0985844 0.665002
0.112033 -0.0996666 0.665854
0.111545 -0.100768 0.666847
0.111025 -0.10185 0.667666
0.110546 -0.102964 0.668725
0.110065 -0.104081 0.669788
0.1096 -0.105214 0.670951
0.109183 -0.106387 0.672406
0.108823 -0.107612 0.674217
0.108441 -0.108825 0.675916
0.108089 -0.110068 0.677803
0.107729 -0.111314 0.67967
0.107337 -0.11254 0.681362
0.107201 -0.113988 0.684622
0.107302 -0.115653 0.689365
0.107386 -0.117323 0.694056
0.107954 -0.119441 0.701796
0.108461 -0.121536 0.709233
0.108598 -0.123329 0.714452
0.108501 -0.124929 0.718262
0.108337 -0.126481 0.721688
0.107592 -0.127495 0.721459
0.106869 -0.12853 0.721367
0.106253 -0.129667 0.72196
0.105658 -0.130828 0.722696
0.105131 -0.132061 0.723883
0.104466 -0.133496 0.731246
0.104604 -0.133298 0.725081
0.184586 0.00100243 0.677243
0.183698 -5.10095e-05 0.676572
0.182631 -0.00111454 0.67524
0.181473 -0.00217988 0.673562
0.180365 -0.003237 0.672054
0.179265 -0.00428904 0.670568
0.178205 -0.00533454 0.669214
0.177244 -0.00637145 0.668218
0.176392 -0.00740086 0.667624
0.17553 -0.00842851 0.666982
0.174746 -0.00945175 0.666632
0.17395 -0.0104737 0.66623
0.173153 -0.0114942 0.665822
0.172331 -0.0125133 0.665314
0.171509 -0.0135305 0.664801
0.170691 -0.0145458 0.664296
0.169898 -0.0155593 0.663886
0.169175 -0.0165719 0.663743
0.168474 -0.017584 0.663681
0.167794 -0.018596 0.663696
0.167217 -0.0196104 0.664118
0.166665 -0.0206265 0.664637
0.166203 -0.0216473 0.665515
0.165692 -0.0226681 0.666201
0.165154 -0.0236891 0.66679
0.164571 -0.0247087 0.667198
0.164021 -0.0257313 0.667744
0.163399 -0.02675 0.668002
0.162846 -0.0277742 0.66854
0.162302 -0.0288004 0.669114
0.161672 -0.0298203 0.669345
0.160954 -0.0308321 0.669217
0.160229 -0.0318422 0.669056
0.159452 -0.0328459 0.668681
0.158615 -0.0338412 0.668052
0.157758 -0.0348315 0.667336
0.156866 -0.0358148 0.666468
0.155974 -0.0367948 0.66559
0.155027 -0.0377639 0.664473
0.154099 -0.0387318 0.663426
0.153173 -0.039696 0.662374
0.152216 -0.0406516 0.661183
0.151261 -0.0416031 0.65999
0.150368 -0.0425613 0.659054
0.149534 -0.0435263 0.658358
0.148712 -0.044491 0.657708
0.147964 -0.0454676 0.657375
0.147199 -0.046439 0.656962
0.146432 -0.0474082 0.656534
0.145639 -0.0483698 0.655988
0.144892 -0.0493395 0.65564
0.144164 -0.0503119 0.65537
0.143397 -0.0512736 0.654923
0.142655 -0.0522395 0.654585
0.141925 -0.0532067 0.654295
0.1412 -0.0541738 0.654023
0.140495 -0.0551448 0.653839
0.139834 -0.0561269 0.653853
0.139131 -0.0570967 0.653676
0.138439 -0.0580684 0.653542
0.137744 -0.0590383 0.653393
0.137054 -0.0600087 0.653265
0.136382 -0.0609838 0.653219
0.135752 -0.0619719 0.653367
0.135122 -0.06296 0.653515
0.134492 -0.063948 0.653663
0.133863 -0.064936 0.653811
0.133192 -0.0659095 0.653765
0.132531 -0.0668861 0.653766
0.131882 -0.0678664 0.653821
0.131227 -0.0688441 0.653845
0.1306 -0.0698321 0.654004
0.130013 -0.0708361 0.654356
0.129386 -0.0718247 0.654516
0.128769 -0.0728179 0.65473
0.128164 -0.0738159 0.654998
0.127535 -0.0748042 0.655152
0.126908 -0.0757931 0.655311
0.126316 -0.0767979 0.655647
0.125712 -0.0777982 0.655927
0.125123 -0.078806 0.656284
0.124561 -0.0798275 0.656779
0.124001 -0.0808512 0.657288
0.123489 -0.0819005 0.658048
0.122992 -0.0829596 0.658889
0.122472 -0.0840093 0.659618
0.121921 -0.0850454 0.660196
0.121339 -0.0860655 0.660609
0.120702 -0.0870571 0.660741
0.120043 -0.0880358 0.660751
0.119398 -0.0890219 0.660835
0.118754 -0.0900088 0.660927
0.118109 -0.0909943 0.66101
0.117437 -0.0919641 0.66095
0.116775 -0.0929392 0.660943
0.116151 -0.0939362 0.661137
0.11556 -0.0949549 0.661512
0.114996 -0.0959922 0.662039
0.114476 -0.0970601 0.662819
0.113953 -0.0981285 0.663583
0.113406 -0.0991826 0.664222
0.112871 -0.100248 0.664934
0.112371 -0.10134 0.665851
0.111827 -0.102403 0.666524
0.111327 -0.103501 0.667453
0.110847 -0.104616 0.668509
0.110417 -0.105773 0.669862
0.110039 -0.106975 0.67153
0.109733 -0.10824 0.673638
0.109404 -0.109494 0.675631
0.10909 -0.110768 0.677735
0.108737 -0.112019 0.679624
0.108336 -0.113238 0.681249
0.108182 -0.114672 0.684382
0.108233 -0.116293 0.688784
0.108235 -0.117891 0.692937
0.109099 -0.121908 0.706675
0.109303 -0.123755 0.712251
0.109283 -0.125419 0.71649
0.109187 -0.127032 0.720306
0.108661 -0.128252 0.721458
0.107951 -0.1293 0.721453
0.107349 -0.130452 0.722134
0.106756 -0.131617 0.722884
0.10623 -0.132851 0.724068
0.105704 -0.13409 0.725263
0.186662 0.00139782 0.678303
0.185762 0.000340867 0.677601
0.184851 -0.000714285 0.676854
0.18374 -0.00178008 0.675372
0.182521 -0.00284783 0.673485
0.181368 -0.00390626 0.671821
0.180228 -0.00495878 0.670197
0.179166 -0.00600283 0.668843
0.178205 -0.00703855 0.667856
0.177355 -0.00806721 0.667271
0.176525 -0.00909312 0.666755
0.175758 -0.0101156 0.666473
0.174983 -0.011137 0.666152
0.174224 -0.0121568 0.665891
0.17344 -0.0131756 0.665534
0.172634 -0.0141931 0.665088
0.171833 -0.0152086 0.664656
0.171037 -0.0162226 0.664239
0.170314 -0.017236 0.664097
0.169611 -0.0182489 0.664031
0.168912 -0.0192613 0.66398
0.168317 -0.0202764 0.664329
0.167747 -0.021293 0.664778
0.167268 -0.0223145 0.665588
0.166723 -0.0233347 0.666142
0.1662 -0.0243573 0.666783
0.165616 -0.0253777 0.667192
0.165067 -0.0264011 0.667738
0.164447 -0.0274206 0.668003
0.163891 -0.0284455 0.668528
0.163312 -0.0294696 0.668965
0.16268 -0.0304897 0.669187
0.161947 -0.0315 0.668997
0.161206 -0.0325086 0.668777
0.160429 -0.0335119 0.668405
0.15959 -0.0345065 0.667775
0.158719 -0.0354946 0.667006
0.157843 -0.0364791 0.666207
0.15695 -0.0374584 0.665334
0.156 -0.0384263 0.664213
0.155053 -0.0393905 0.663092
0.154104 -0.0403504 0.661952
0.15311 -0.0412988 0.660614
0.152135 -0.0422457 0.659342
0.151241 -0.0432023 0.658406
0.150423 -0.0441694 0.657786
0.149618 -0.0451365 0.657215
0.148887 -0.0461158 0.656956
0.148138 -0.0470899 0.656612
0.147355 -0.0480553 0.656121
0.146561 -0.0490162 0.655574
0.145811 -0.0499848 0.655216
0.145082 -0.0509566 0.654946
0.144315 -0.0519178 0.654502
0.143586 -0.0528866 0.654224
0.142856 -0.0538536 0.653939
0.142117 -0.0548166 0.653604
