ply
format ascii 1.0
element vertex 1561
property float x
property float y
property float z
end_header
0.0653678 -0.0272017 0.0476883
0.0653991 -0.027447 0.0474508
0.065292 -0.0278186 0.047745
0.0654258 -0.0276901 0.0471962
0.0656555 -0.0305173 0.0438643
0.065703 -0.0307607 0.0437041
0.0657649 -0.0310101 0.0436006
0.0658413 -0.0312658 0.0435536
0.0659349 -0.0315292 0.0435731
0.066055 -0.0318051 0.0436954
0.0662005 -0.032093 0.0439138
0.0663704 -0.0323934 0.0442263
0.0665493 -0.0326988 0.0445709
0.0667455 -0.0330136 0.0449805
0.0669427 -0.0333302 0.0453924
0.06715 -0.0336529 0.0458402
0.0673796 -0.0339881 0.0463713
0.0676015 -0.0343208 0.0468708
0.0677742 -0.03463 0.0471817
0.0665705 -0.019339 0.0653811
0.066493 -0.0189136 0.0641942
0.0665464 -0.0191978 0.0639984
0.0665771 -0.0194781 0.0637068
0.0666051 -0.019757 0.0634044
0.066651 -0.0200382 0.0631804
0.0667195 -0.0203227 0.0630535
0.0667895 -0.0206073 0.0629335
0.0668727 -0.020894 0.0628699
0.0669513 -0.0211797 0.0627868
0.0670204 -0.0214633 0.0626638
0.0670963 -0.0217481 0.0625708
0.0671692 -0.0220321 0.0624647
0.0672431 -0.0223159 0.0623634
0.067326 -0.0226016 0.0622998
0.0674254 -0.0228912 0.0623061
0.0675098 -0.0231771 0.0622486
0.0676112 -0.0234671 0.0622625
0.0677214 -0.0237596 0.0623132
0.067833 -0.0240526 0.0623684
0.0679495 -0.0243472 0.0624441
0.0680832 -0.0246467 0.0625897
0.068209 -0.0249446 0.0627026
0.0683389 -0.0252441 0.0628314
0.0682443 -0.0254787 0.0620412
0.0681114 -0.0256998 0.0610979
0.0682312 -0.026171 0.0623876
0.0655683 -0.0263897 0.0484969
0.0654748 -0.0265952 0.0477565
0.0655177 -0.0268456 0.0475655
0.0655417 -0.0270889 0.0473004
0.0655434 -0.0273236 0.0469475
0.0655383 -0.0275549 0.0465683
0.0654476 -0.0279307 0.0469226
0.0655268 -0.0277827 0.046165
0.065474 -0.0281723 0.0466689
0.0655222 -0.0280122 0.0457918
0.0656097 -0.0302741 0.0440311
0.0657153 -0.0299075 0.0437522
0.0657637 -0.0301518 0.0435965
0.0658178 -0.0303981 0.0434629
0.0658737 -0.0306449 0.043337
0.0659479 -0.0308993 0.0432817
0.066029 -0.0311569 0.043254
0.0661189 -0.0314184 0.0432594
0.0662297 -0.0316895 0.0433452
0.0663542 -0.0319672 0.043483
0.0664909 -0.0322511 0.0436666
0.0666353 -0.0325391 0.0438782
0.0667992 -0.0328372 0.0441638
0.0669636 -0.0331364 0.04445
0.0671493 -0.0334468 0.0448148
0.0673728 -0.0337768 0.0453212
0.0676377 -0.0341291 0.0459813
0.0678652 -0.0344643 0.0464982
0.0664327 -0.0186278 0.0643596
0.0663522 -0.0183389 0.0644387
0.0666096 -0.0182412 0.0642744
0.0666823 -0.0185289 0.0641623
0.0667329 -0.0188133 0.0639559
0.0667809 -0.0190968 0.0637398
0.0668064 -0.0193762 0.0634279
0.0668295 -0.0196543 0.0631072
0.0668752 -0.0199353 0.0628839
0.0669437 -0.0202196 0.0627584
0.0670138 -0.0205039 0.0626395
0.0670967 -0.0207904 0.0625752
0.0671703 -0.0210749 0.0624724
0.0672337 -0.0213572 0.0623271
0.0673043 -0.0216406 0.0622124
0.0673716 -0.021923 0.0620839
0.067441 -0.0222055 0.0619647
0.0675226 -0.0224905 0.061897
0.0676221 -0.0227796 0.061904
0.0677103 -0.0230661 0.0618638
0.0678127 -0.0233559 0.0618818
0.0679277 -0.023649 0.0619516
0.0680435 -0.0239427 0.0620249
0.0681692 -0.0242393 0.0621379
0.0682996 -0.0245375 0.0622696
0.0684209 -0.0248335 0.0623626
0.0685364 -0.0251286 0.0624331
0.0684114 -0.0253548 0.061525
0.0681131 -0.0255277 0.0599179
0.0679599 -0.0259125 0.060083
0.0677719 -0.0256832 0.0581454
0.0659759 -0.0262846 0.0505082
0.0661252 -0.0259217 0.0503707
0.06586 -0.0260775 0.048939
0.0656126 -0.0262352 0.0475854
0.0656563 -0.0264861 0.0473991
0.0656791 -0.0267295 0.04713
0.0656783 -0.026964 0.0467684
0.0656479 -0.0271871 0.0462909
0.0656101 -0.0274062 0.0457863
0.0655683 -0.0276226 0.0452679
0.0655463 -0.0278448 0.0448303
0.0655156 -0.0282398 0.0454121
0.0655364 -0.0280704 0.0444417
0.0655354 -0.0284764 0.0451372
0.0655629 -0.0283087 0.0441969
0.0655669 -0.0287171 0.0449104
0.0656051 -0.0285523 0.0440144
0.0655931 -0.028955 0.0446632
0.0656487 -0.0287961 0.0438384
0.0656203 -0.0291927 0.0444214
0.0656965 -0.0290412 0.0436796
0.065658 -0.0294339 0.044221
0.0657554 -0.0292904 0.0435648
0.0656851 -0.0296703 0.0439798
0.065803 -0.0295345 0.0434056
0.0658496 -0.0297781 0.0432439
0.0659137 -0.0300284 0.0431501
0.0659796 -0.0302794 0.0430636
0.0660472 -0.030531 0.0429844
0.0661298 -0.0307888 0.0429624
0.0662157 -0.031048 0.0429523
0.0663018 -0.0313076 0.0429442
0.0664002 -0.0315727 0.0429826
0.0665079 -0.0318421 0.0430556
0.0666192 -0.0321136 0.0431425
0.0667338 -0.0323868 0.0432408
0.0668675 -0.0326694 0.043411
0.0670037 -0.0329537 0.0435898
0.0671582 -0.0332475 0.043837
0.0673601 -0.0335652 0.0442606
0.0676133 -0.0339093 0.0448744
0.0667682 -0.0178525 0.0641114
0.0668567 -0.0181423 0.0640674
0.0669285 -0.0184298 0.0639524
0.0669744 -0.0187135 0.0637271
0.0670217 -0.0189969 0.0635094
0.0670429 -0.0192756 0.0631816
0.067069 -0.0195542 0.0628759
0.0671146 -0.0198352 0.062654
0.0671833 -0.0201194 0.0625299
0.0672493 -0.0204029 0.0623953
0.0673314 -0.0206891 0.0623289
0.0673999 -0.0209724 0.0622046
0.0674587 -0.0212536 0.0620411
0.0675213 -0.0215353 0.0618946
0.0675841 -0.0218165 0.0617489
0.0676488 -0.0220977 0.0616113
0.0677258 -0.0223814 0.0615254
0.0678212 -0.0226691 0.0615151
0.067909 -0.0229551 0.0614745
0.068015 -0.0232452 0.0615072
0.0681334 -0.0235388 0.0615919
0.0682536 -0.0238331 0.0616823
0.0683839 -0.0241304 0.061814
0.0685192 -0.0244293 0.0619642
0.068641 -0.0247252 0.0620598
0.068752 -0.0250185 0.0621112
0.0686151 -0.0252421 0.0611622
0.0681706 -0.0253739 0.0589779
0.0663868 -0.0255935 0.050683
0.0660243 -0.0257232 0.0488693
0.0659169 -0.0259286 0.0480783
0.0658121 -0.0261326 0.0473014
0.0658422 -0.026379 0.047062
0.0658398 -0.0266139 0.0466964
0.0658127 -0.0268392 0.0462334
0.0657491 -0.0270507 0.0456294
0.0656882 -0.0272613 0.0450382
0.0656324 -0.0274722 0.0444696
0.0656036 -0.0276915 0.0440095
0.0655962 -0.0279172 0.0436341
0.0656354 -0.0281595 0.0434424
0.0656863 -0.0284059 0.0432969
0.0657456 -0.028655 0.0431837
0.0658086 -0.0289054 0.0430857
0.0658824 -0.0291598 0.0430297
0.0659415 -0.0294082 0.0429172
0.0659996 -0.029656 0.0428014
0.066068 -0.0299078 0.0427255
0.0661381 -0.0301601 0.042656
0.0662102 -0.0304131 0.0425944
0.0663003 -0.0306739 0.042602
0.0663866 -0.030933 0.0425948
0.0664728 -0.0311921 0.0425868
0.0665664 -0.0314546 0.042607
0.0666644 -0.0317191 0.0426436
0.0667634 -0.0319843 0.0426834
0.0668622 -0.0322496 0.0427225
0.0669789 -0.0325235 0.0428291
0.0670894 -0.0327948 0.0429116
0.0672125 -0.0330723 0.0430401
0.0673804 -0.033372 0.0433356
0.0676073 -0.0337013 0.0438493
0.0669267 -0.0174641 0.0639484
0.0670137 -0.0177536 0.063898
0.0670966 -0.0180426 0.0638305
0.0671628 -0.0183293 0.0636923
0.0672044 -0.0186124 0.0634519
0.0672478 -0.018895 0.0632182
0.0672729 -0.0191743 0.0629101
0.0673037 -0.0194536 0.0626264
0.0673488 -0.0197344 0.0624039
0.0674129 -0.0200178 0.0622621
0.067478 -0.020301 0.0621248
0.0675555 -0.020586 0.062039
0.0676198 -0.0208684 0.061899
0.0676787 -0.0211495 0.0617376
0.0677409 -0.0214308 0.0615901
0.0678042 -0.0217119 0.0614478
0.0678683 -0.0219929 0.0613096
0.0679457 -0.0222764 0.061226
0.0680406 -0.0225636 0.0612137
0.0681283 -0.0228492 0.0611726
0.0682291 -0.0231379 0.0611851
0.0683432 -0.02343 0.0612515
0.0684628 -0.0237237 0.0613395
0.0685935 -0.0240205 0.061472
0.0687294 -0.0243192 0.061625
0.068856 -0.024616 0.0617394
0.0689711 -0.02491 0.0618072
0.0688373 -0.0251348 0.0608761
0.0663218 -0.0254089 0.0493275
0.0659677 -0.025541 0.0475611
0.066003 -0.0257903 0.0473426
0.0660224 -0.026034 0.0470625
0.0660316 -0.0262735 0.0467427
0.066 -0.0264986 0.0462642
0.0659461 -0.026715 0.0457007
0.0658544 -0.0269168 0.044991
0.0657832 -0.0271238 0.044365
0.0657268 -0.0273341 0.0437986
0.0657121 -0.027558 0.0433971
0.0657248 -0.0277909 0.0431036
0.0657864 -0.0280411 0.0430004
0.0658488 -0.0282913 0.0429002
0.0659182 -0.028544 0.0428275
0.0659839 -0.0287951 0.0427409
0.0660531 -0.0290474 0.0426677
0.0661115 -0.0292953 0.042554
0.0661731 -0.0295442 0.0424525
0.066242 -0.0297959 0.0423794
0.0663122 -0.0300479 0.042311
0.0663837 -0.0303004 0.042248
0.0664735 -0.0305606 0.0422548
0.0665561 -0.0308177 0.0422338
0.066638 -0.0310747 0.0422108
0.0667275 -0.0313349 0.0422157
0.0668212 -0.031597 0.0422361
0.0669123 -0.031858 0.0422468
0.0670145 -0.0321244 0.0422991
0.0671213 -0.032393 0.0423681
0.0672131 -0.032655 0.0423814
0.0673079 -0.0329183 0.0424048
0.0674437 -0.0332014 0.0425803
0.0676246 -0.0335071 0.0429224
0.0671626 -0.0173645 0.063695
0.0672464 -0.0176535 0.063632
0.0673279 -0.0179421 0.0635593
0.0673921 -0.0182284 0.0634144
0.0674333 -0.0185113 0.0631731
0.0674732 -0.0187933 0.0629279
0.0675031 -0.0190732 0.0626415
0.0675384 -0.0193532 0.0623792
0.0675834 -0.0196339 0.0621577
0.0676428 -0.0199164 0.0619971
0.0677027 -0.0201985 0.0618392
0.0677707 -0.0204817 0.0617155
0.0678294 -0.0207629 0.0615544
0.0678928 -0.0210445 0.0614117
0.0679558 -0.0213257 0.0612691
0.0680276 -0.0216084 0.061163
0.0680996 -0.0218908 0.0610579
0.0681814 -0.022175 0.0609928
0.0682718 -0.0224612 0.0609637
0.0683593 -0.0227465 0.0609217
0.0684554 -0.0230339 0.0609153
0.0685608 -0.0233234 0.0609457
0.068672 -0.0236147 0.0609998
0.068802 -0.0239109 0.0611292
0.068938 -0.0242091 0.0612817
0.0690654 -0.0245055 0.0613986
0.0691814 -0.0247993 0.0614696
0.0691884 -0.0250635 0.0611066
0.0663273 -0.0254879 0.0479081
0.0662295 -0.0256968 0.0471667
0.0662363 -0.0259366 0.0468386
0.0662279 -0.0261706 0.0464525
0.0661771 -0.0263898 0.0459033
0.0661025 -0.0265993 0.0452623
0.0660192 -0.0268042 0.044591
0.065965 -0.0270172 0.0440351
0.0659299 -0.0272355 0.0435563
0.0659327 -0.0274657 0.0432246
0.0659593 -0.0277038 0.0429867
0.066009 -0.0279496 0.0428379
0.0660594 -0.0281953 0.0426923
0.066121 -0.028445 0.0425906
0.0661825 -0.0286944 0.0424888
0.0662481 -0.0289451 0.0424023
0.0663024 -0.0291912 0.0422736
0.0663595 -0.0294382 0.0421564
0.0664237 -0.0296877 0.0420659
0.0664895 -0.0299377 0.0419822
0.0665603 -0.0301896 0.0419169
0.0666497 -0.0304492 0.041922
0.0667314 -0.0307057 0.0418991
0.0668097 -0.0309607 0.0418626
0.0668948 -0.0312186 0.0418513
0.0669846 -0.0314786 0.0418577
0.0670758 -0.0317393 0.0418695
0.067179 -0.0320056 0.0419255
0.0672935 -0.0322773 0.0420232
0.0674012 -0.0325461 0.0420948
0.0675128 -0.032817 0.0421809
0.067616 -0.0330843 0.0422353
0.0677644 -0.0333735 0.0424557
0.0673837 -0.0172637 0.0633818
0.0674676 -0.0175524 0.0633204
0.067545 -0.0178402 0.0632315
0.0676048 -0.0181257 0.0630693
0.0676508 -0.018409 0.0628504
0.0676947 -0.0186914 0.0626229
0.0677299 -0.018972 0.0623609
0.0677696 -0.0192524 0.0621187
0.0678148 -0.0195331 0.0619002
0.0678689 -0.0198146 0.061719
0.0679226 -0.0200956 0.0615374
0.0679853 -0.0203776 0.0613924
0.0680438 -0.0206585 0.0612314
0.0681112 -0.0209407 0.0611075
0.0681784 -0.0212225 0.0609831
0.0682508 -0.021505 0.0608798
0.0683233 -0.0217874 0.0607779
0.068409 -0.0220723 0.0607298
0.0684958 -0.0223573 0.0606853
0.0685874 -0.0226434 0.0606612
0.0686878 -0.0229314 0.0606718
0.0687926 -0.0232207 0.0607003
0.0688985 -0.0235104 0.060733
0.0690276 -0.023806 0.0608576
0.0691592 -0.0241026 0.0609916
0.0692825 -0.0243976 0.0610921
0.0693991 -0.0246912 0.0611655
0.0695272 -0.0249882 0.0612836
0.0665809 -0.0254021 0.0478343
0.0664685 -0.0256073 0.0470408
0.0664778 -0.0258482 0.0467248
0.0664533 -0.0260774 0.0462785
0.0663817 -0.0262903 0.0456517
0.0662926 -0.0264956 0.04496
0.0662081 -0.0267003 0.0442879
0.0661547 -0.0269139 0.0437392
0.0661323 -0.0271367 0.0433123
0.0661504 -0.0273725 0.0430415
0.0661836 -0.0276129 0.0428298
0.066232 -0.0278584 0.0426778
0.0662774 -0.0281024 0.0425146
0.0663388 -0.0283519 0.0424125
0.0664009 -0.0286015 0.0423131
0.0664631 -0.0288508 0.0422146
0.0665166 -0.0290966 0.042084
0.0665688 -0.0293416 0.0419489
0.0666249 -0.0295878 0.0418283
0.0666786 -0.0298329 0.0417003
0.0667407 -0.0300809 0.0416033
0.0668182 -0.0303352 0.041564
0.0668917 -0.0305879 0.0415104
0.066966 -0.0308407 0.0414596
0.0670544 -0.0310996 0.0414614
0.067148 -0.0313608 0.0414824
0.0672432 -0.0316229 0.0415093
0.0673541 -0.0318922 0.0415938
0.0674767 -0.032167 0.0417209
0.0675969 -0.0324412 0.0418391
0.0677214 -0.0327178 0.0419718
0.0678379 -0.032991 0.0420742
0.0679534 -0.0332641 0.0421732
0.0676097 -0.0171636 0.0630921
0.0676936 -0.017452 0.0630313
0.0677719 -0.0177397 0.0629468
0.0678359 -0.0180255 0.062803
0.0678859 -0.0183092 0.0626025
0.0679298 -0.0185916 0.0623773
0.0679694 -0.0188727 0.0621357
0.0680133 -0.0191538 0.0619121
0.0680543 -0.0194338 0.0616774
0.0681031 -0.0197144 0.0614763
0.0681515 -0.0199944 0.061274
0.0682086 -0.0202753 0.0611077
0.0682663 -0.020556 0.0609452
0.0683383 -0.0208388 0.0608407
0.0684111 -0.0211215 0.0607401
0.0684841 -0.021404 0.0606402
0.0685565 -0.0216862 0.0605383
0.0686419 -0.0219708 0.0604892
0.0687289 -0.0222557 0.0604462
0.0688212 -0.0225417 0.060425
0.0689263 -0.0228307 0.0604546
0.0690309 -0.0231196 0.0604821
0.0691314 -0.0234078 0.0604933
0.0692508 -0.0237007 0.0605787
0.0693765 -0.0239954 0.0606886
0.0694994 -0.0242899 0.0607872
0.0696208 -0.0245844 0.0608789
0.0697625 -0.0248846 0.06105
0.0668471 -0.0253201 0.0478096
0.0667302 -0.0255248 0.0470036
0.0667439 -0.0257674 0.0467061
0.066707 -0.0259933 0.0462146
0.0666223 -0.0262026 0.0455411
0.0665192 -0.026404 0.0447995
0.0664328 -0.0266088 0.0441249
0.0663714 -0.0268202 0.0435495
0.0663569 -0.0270459 0.0431552
0.0663823 -0.0272843 0.0429138
0.0664152 -0.0275249 0.0427027
0.0664594 -0.027769 0.0425354
0.0665041 -0.0280127 0.04237
0.0665651 -0.0282621 0.0422669
0.0666274 -0.0285118 0.0421697
0.06669 -0.0287613 0.0420732
0.0667398 -0.0290058 0.0419291
0.0667869 -0.0292488 0.0417757
0.0668302 -0.02949 0.0416084
0.0668714 -0.0297299 0.0414342
0.0669251 -0.0299743 0.0413066
0.0669974 -0.0302263 0.0412491
0.0670635 -0.0304755 0.0411683
0.0671367 -0.0307276 0.0411145
0.0672254 -0.0309862 0.0411178
0.0673191 -0.0312471 0.0411394
0.0674107 -0.0315072 0.0411531
0.0675251 -0.0317775 0.0412504
0.0676522 -0.0320538 0.0413934
0.0677813 -0.0323315 0.0415428
0.0679195 -0.0326139 0.0417252
0.0680532 -0.0328948 0.0418905
0.0681852 -0.0331755 0.0420488
0.0678684 -0.0170669 0.0629407
0.0679446 -0.0173545 0.0628484
0.0680167 -0.0176415 0.0627388
0.0680799 -0.0179271 0.0625934
0.0681252 -0.0182102 0.062374
0.0681695 -0.0184925 0.0621524
0.0682129 -0.0187741 0.0619276
0.0682567 -0.0190553 0.0617058
0.0682927 -0.0193346 0.0614525
0.0683362 -0.0196143 0.0612308
0.0683839 -0.0198941 0.061027
0.0684403 -0.0201748 0.0608597
0.0684993 -0.0204555 0.0607029
0.0685763 -0.020739 0.0606193
0.0686582 -0.0210234 0.0605561
0.0687314 -0.0213058 0.0604578
0.0688034 -0.0215879 0.0603549
0.0688919 -0.0218731 0.0603188
0.0689831 -0.0221588 0.0602928
0.0690768 -0.022445 0.060277
0.069183 -0.0227341 0.0603107
0.0692878 -0.023023 0.0603388
0.0693833 -0.0233099 0.0603297
0.0694973 -0.0236013 0.0603934
0.0696179 -0.0238946 0.060483
0.0697404 -0.0241886 0.0605789
0.0698615 -0.0244828 0.0606695
0.0699998 -0.0247818 0.060826
0.0670987 -0.0252335 0.0477274
0.0669854 -0.0254401 0.0469398
0.067007 -0.0256854 0.0466749
0.0669617 -0.0259094 0.0461542
0.0668758 -0.0261191 0.0454802
0.0667614 -0.0263176 0.0446998
0.0666728 -0.0265224 0.0440213
0.0665985 -0.0267299 0.0433997
0.0665878 -0.0269573 0.0430226
0.0666097 -0.0271948 0.0427698
0.0666429 -0.0274355 0.0425604
0.0666832 -0.0276783 0.0423794
0.0667313 -0.0279233 0.042228
0.0667923 -0.0281728 0.042126
0.066855 -0.0284227 0.0420305
0.0669174 -0.0286722 0.0419341
0.0669665 -0.0289164 0.0417882
0.0670091 -0.0291578 0.041619
0.0670444 -0.0293958 0.041423
0.0670802 -0.0296336 0.0412293
0.0671286 -0.029876 0.0410837
0.0671923 -0.0301242 0.0409943
0.0672501 -0.0303699 0.0408841
0.0673192 -0.03062 0.0408155
0.0674039 -0.0308766 0.0408045
0.0674939 -0.0311356 0.0408128
0.0675859 -0.0313954 0.0408279
0.0677039 -0.0316669 0.0409382
0.0678349 -0.0319443 0.0410946
0.0679729 -0.0322256 0.0412764
0.0681243 -0.0325135 0.0415054
0.0682713 -0.0328001 0.0417179
0.0684167 -0.0330866 0.0419232
0.0683014 -0.033449 0.0421487
0.0685458 -0.0333662 0.0420689
0.0680371 -0.0166813 0.0628255
0.0681243 -0.01697 0.0627784
0.0681989 -0.0172574 0.0626797
0.0682672 -0.0175439 0.0625549
0.0683335 -0.0178299 0.0624229
0.0683781 -0.0181129 0.0622029
0.0684224 -0.0183953 0.061983
0.0684657 -0.018677 0.0617594
0.0685092 -0.018958 0.0615367
0.0685394 -0.0192365 0.0612617
0.0685824 -0.0195162 0.0610397
0.0686208 -0.0197947 0.0608008
0.0686736 -0.0200747 0.0606198
0.0687327 -0.0203553 0.0604644
0.0688102 -0.0206388 0.0603836
0.0688927 -0.0209231 0.0603236
0.0689701 -0.0212062 0.0602424
0.0690457 -0.0214888 0.0601547
0.0691339 -0.0217738 0.0601173
0.0692292 -0.0220603 0.0601083
0.0693277 -0.0223474 0.0601119
0.0694394 -0.0226375 0.0601663
0.0695491 -0.0229274 0.0602137
0.0696448 -0.0232143 0.0602047
0.0697495 -0.0235034 0.0602322
0.0698651 -0.0237953 0.0603009
0.0699823 -0.0240879 0.0603761
0.0700998 -0.0243809 0.060452
0.0702344 -0.0246785 0.0605933
0.0673379 -0.0251434 0.0475971
0.067229 -0.025352 0.046832
0.0672386 -0.025594 0.0465225
0.0671838 -0.0258154 0.0459686
0.0670929 -0.0260239 0.0452796
0.0669806 -0.0262239 0.0445129
0.066891 -0.0264289 0.043835
0.0668225 -0.0266389 0.0432393
0.0668148 -0.0268675 0.0428753
0.0668323 -0.0271037 0.0426081
0.0668695 -0.0273459 0.0424156
0.0669136 -0.0275901 0.0422496
0.0669658 -0.0278367 0.0421144
0.0670235 -0.0280851 0.0420004
0.0670858 -0.0283348 0.041904
0.0671475 -0.0285841 0.0418056
0.0671925 -0.0288269 0.0416454
0.0672313 -0.0290669 0.041463
0.0672619 -0.0293033 0.0412511
0.0672933 -0.0295393 0.0410424
0.0673367 -0.0297797 0.0408789
0.0673965 -0.0300263 0.0407763
0.06745 -0.0302702 0.0406511
0.0675185 -0.0305199 0.0405807
0.0675986 -0.0307743 0.0405525
0.0676808 -0.0310297 0.0405332
0.0677718 -0.0312888 0.0405449
0.0678864 -0.0315583 0.0406421
0.0680175 -0.0318354 0.0407986
0.0681673 -0.0321214 0.0410218
0.0683315 -0.0324145 0.0412958
0.0684884 -0.0327052 0.0415427
0.068651 -0.0329993 0.0418087
0.0687926 -0.0332844 0.0419986
0.0683141 -0.0165863 0.0627502
0.068399 -0.0168749 0.0626931
0.0684683 -0.0171619 0.0625734
0.0685266 -0.0174473 0.0624088
0.0685878 -0.0177328 0.0622568
0.0686274 -0.0180153 0.0620183
0.0686676 -0.0182972 0.061782
0.0687105 -0.0185788 0.0615588
0.068749 -0.0188593 0.0613187
0.0687781 -0.0191377 0.061041
0.0688207 -0.0194172 0.0608187
0.0688588 -0.0196956 0.0605794
0.0689115 -0.0199756 0.0603999
0.0689741 -0.0202567 0.0602601
0.0690514 -0.02054 0.0601785
0.0691337 -0.0208241 0.0601174
0.0692112 -0.0211072 0.0600376
0.069287 -0.0213898 0.059952
0.0693754 -0.0216747 0.0599158
0.0694754 -0.0219619 0.0599251
0.0695789 -0.0222499 0.0599475
0.0696955 -0.0225409 0.0600213
0.0698102 -0.0228318 0.0600875
0.0699104 -0.0231197 0.0600968
0.0700152 -0.0234088 0.0601234
0.0700395 -0.0236788 0.0598383
0.0700588 -0.0239467 0.0595341
0.0700663 -0.024211 0.0591864
0.0700847 -0.0244769 0.0588812
0.0674734 -0.0250238 0.0470726
0.067483 -0.025267 0.0467637
0.0674884 -0.0255079 0.0464394
0.0674239 -0.0257271 0.0458529
0.0673324 -0.0259361 0.045166
0.0672223 -0.0261374 0.044412
0.0671321 -0.0263428 0.0437353
0.0670549 -0.0265506 0.0431111
0.0670417 -0.0267777 0.0427289
0.0670475 -0.0270102 0.0424193
0.0670917 -0.0272549 0.0422546
0.0671396 -0.0275004 0.0421034
0.0671927 -0.0277474 0.0419726
0.0672504 -0.0279957 0.0418588
0.067312 -0.0282452 0.0417603
0.0673729 -0.0284943 0.0416596
0.0674172 -0.0287369 0.041498
0.0674605 -0.0289786 0.0413329
0.0674912 -0.0292152 0.0411226
0.0675224 -0.0294515 0.0409147
0.0675615 -0.0296902 0.0407363
0.0676139 -0.0299339 0.0406073
0.0676593 -0.0301745 0.0404537
0.0677233 -0.0304223 0.0403674
0.0677982 -0.0306745 0.0403215
0.0678757 -0.0309276 0.0402842
0.0679626 -0.0311848 0.0402817
0.0680768 -0.0314537 0.040377
0.0682041 -0.0317287 0.040519
0.068354 -0.0320142 0.0407417
0.0685231 -0.0323088 0.0410313
0.0686928 -0.0326047 0.0413224
0.0688691 -0.0329045 0.0416363
0.0686293 -0.0164944 0.0628294
0.0687031 -0.0167823 0.0627275
0.0687502 -0.0170675 0.0625181
0.0687991 -0.0173522 0.062316
0.0688507 -0.0176368 0.0621268
0.0688856 -0.0179189 0.0618702
0.0689208 -0.0182003 0.0616159
0.0689634 -0.0184819 0.0613922
0.0689969 -0.0187617 0.0611335
0.0690256 -0.0190401 0.060856
0.0690635 -0.019319 0.0606168
0.0691013 -0.0195973 0.0603779
0.0691533 -0.0198772 0.0601964
0.0692146 -0.0201581 0.0600527
0.0692911 -0.0204411 0.0599685
0.0693726 -0.020725 0.0599054
0.0694546 -0.0210088 0.0598444
0.069536 -0.0212923 0.05978
0.0696257 -0.0215773 0.0597491
0.0697305 -0.0218654 0.0597772
0.0698381 -0.0221542 0.0598157
0.0699555 -0.0224453 0.0598921
0.070071 -0.0227362 0.0599608
0.0700891 -0.0230057 0.0596521
0.0700958 -0.0232716 0.0593003
0.0700147 -0.023516 0.0586123
0.069923 -0.0237558 0.0578861
0.0677498 -0.0249446 0.0470862
0.0677449 -0.0251841 0.0467244
0.0677301 -0.0254195 0.0463259
0.0676636 -0.0256386 0.045735
0.0675706 -0.0258478 0.0450472
0.0674635 -0.0260508 0.0443091
0.0673704 -0.026256 0.0436259
0.0672957 -0.0264652 0.0430148
0.0672725 -0.0266894 0.0425979
0.0672695 -0.0269192 0.042257
0.0673138 -0.0271639 0.0420935
0.0673621 -0.0274097 0.0419451
0.0674152 -0.0276567 0.0418149
0.0674723 -0.0279049 0.0417004
0.0675333 -0.0281541 0.0415996
0.0675897 -0.0284015 0.0414835
0.0676307 -0.0286429 0.0413105
0.0676742 -0.0288847 0.041147
0.0677049 -0.0291215 0.0409387
0.0677364 -0.0293578 0.0407325
0.0677754 -0.0295967 0.0405553
0.0678311 -0.0298417 0.040439
0.0678763 -0.0300822 0.040285
0.0679398 -0.0303297 0.0401976
0.0680103 -0.0305801 0.0401363
0.0680831 -0.0308311 0.0400823
0.0681652 -0.031086 0.0400626
0.068275 -0.0313528 0.0401416
0.068391 -0.0316225 0.0402429
0.0685363 -0.0319055 0.0404479
0.068705 -0.0321992 0.0407348
0.0688836 -0.0324985 0.0410565
0.0690746 -0.0328042 0.0414196
0.0689459 -0.0164023 0.062912
0.0690082 -0.0166896 0.0627639
0.0690381 -0.0169736 0.0624857
0.0690726 -0.0172572 0.0622274
0.069114 -0.0175408 0.0619975
0.0691391 -0.0178219 0.0617036
0.0691682 -0.0181027 0.0614268
0.0692106 -0.0183843 0.0612042
0.0692435 -0.0186641 0.0609443
0.069277 -0.0189432 0.0606877
0.0693184 -0.0192227 0.0604642
0.0693565 -0.0195012 0.0602284
0.0694037 -0.0197803 0.0600288
0.0694643 -0.0200611 0.0598833
0.0695356 -0.0203433 0.0597795
0.0696128 -0.0206262 0.0596997
0.0696994 -0.0209107 0.0596568
0.0697859 -0.0211951 0.0596126
0.0698763 -0.0214802 0.0595848
0.0699859 -0.021769 0.059631
0.0700149 -0.0220418 0.0593653
0.070043 -0.0223136 0.0590969
0.0700625 -0.0225829 0.0587961
0.0699834 -0.0228296 0.0581181
0.0698903 -0.0230711 0.0573889
0.0689819 -0.024542 0.0528218
0.0691596 -0.0241794 0.0527816
0.068878 -0.0243577 0.0513593
0.068543 -0.0246742 0.0507946
0.0685776 -0.0245267 0.049871
0.0681461 -0.0248121 0.0489359
0.0683059 -0.0246991 0.0484973
0.0680164 -0.0248625 0.0470621
0.0679845 -0.0250948 0.0466008
0.0679474 -0.0253242 0.0461214
0.067875 -0.0255419 0.0455123
0.0677836 -0.025752 0.0448344
0.0676951 -0.0259612 0.0441703
0.0676097 -0.0261695 0.0435207
0.0675443 -0.0263822 0.0429474
0.0675158 -0.0266051 0.042513
0.0675037 -0.0268322 0.0421407
0.0675435 -0.0270756 0.0419609
0.0675883 -0.0273203 0.0418008
0.0676374 -0.0275659 0.0416566
0.0676939 -0.027814 0.0415407
0.0677502 -0.0280615 0.0414236
0.0678027 -0.0283075 0.0412938
0.0678435 -0.0285489 0.0411214
0.0678868 -0.0287907 0.0409586
0.0679216 -0.029029 0.0407657
0.0679566 -0.0292668 0.0405737
0.0679957 -0.0295057 0.0403977
0.068047 -0.0297491 0.0402669
0.0680915 -0.0299893 0.0401112
0.068147 -0.0302336 0.0399957
0.0682143 -0.0304825 0.0399229
0.0682831 -0.0307318 0.0398555
0.0683646 -0.0309863 0.039834
0.0684701 -0.0312509 0.0398975
0.068581 -0.0315182 0.0399799
0.0687257 -0.0318003 0.0401817
0.0688857 -0.0320897 0.0404364
0.0690605 -0.0323865 0.0407429
0.0692725 -0.0327007 0.041178
0.0691843 -0.0160208 0.0630764
0.0692452 -0.0163087 0.0629222
0.0692935 -0.0165951 0.0627184
0.0693146 -0.0168786 0.0624072
0.0693421 -0.0171617 0.062122
0.0693685 -0.0174439 0.0618343
0.069387 -0.0177244 0.0615157
0.0694104 -0.0180046 0.0612182
0.0694527 -0.0182862 0.0609964
0.069486 -0.018566 0.0607399
0.0695283 -0.0188464 0.0605203
0.0695743 -0.0191266 0.0603158
0.0696169 -0.0194058 0.060099
0.0696596 -0.0196843 0.0598829
0.0697205 -0.0199652 0.0597392
0.0697869 -0.0202466 0.0596173
0.0698595 -0.0205287 0.0595198
0.0699461 -0.0208131 0.059477
0.070037 -0.0210982 0.0594511
0.0701279 -0.0213833 0.0594252
0.0701585 -0.0216568 0.059167
0.070095 -0.0219108 0.0585474
0.0700199 -0.0221605 0.0578865
0.0699317 -0.0224056 0.0571779
0.0691766 -0.0237771 0.0521343
0.0689763 -0.0239783 0.051025
0.0688259 -0.0241892 0.0501085
0.0686567 -0.0243923 0.0491245
0.0685075 -0.0245979 0.0482198
0.0683039 -0.024786 0.0471154
0.0682355 -0.0250087 0.0465203
0.0681615 -0.025228 0.0459059
0.0680742 -0.0254418 0.0452459
0.0679743 -0.0256498 0.0445404
0.0679093 -0.0258665 0.0439684
0.0678364 -0.0260791 0.0433684
0.0677866 -0.0262971 0.0428561
0.0677568 -0.0265201 0.0424197
0.0677431 -0.0267471 0.0420439
0.067778 -0.0269891 0.0418475
0.0678185 -0.0272324 0.0416723
0.0678633 -0.0274766 0.041513
0.0679152 -0.0277231 0.0413809
0.0679671 -0.0279691 0.0412485
0.0680117 -0.0282122 0.0410907
0.0680519 -0.0284534 0.0409171
0.0680942 -0.028695 0.0407524
0.0681325 -0.0289346 0.0405733
0.0681677 -0.0291725 0.0403833
0.0682108 -0.029413 0.0402227
0.0682576 -0.0296546 0.0400765
0.0683013 -0.0298946 0.0399193
0.0683567 -0.0301388 0.0398038
0.0684207 -0.0303862 0.0397196
0.0684858 -0.0306339 0.0396398
0.0685669 -0.030888 0.0396167
0.0686681 -0.0311506 0.039665
0.0687709 -0.0314141 0.0397186
0.0689112 -0.0316937 0.0399033
0.0690615 -0.0319784 0.040123
0.0692314 -0.0322723 0.0404101
0.069464 -0.0325949 0.040916
0.0694848 -0.0159268 0.0630895
0.0695415 -0.0162146 0.0629192
0.0695794 -0.0165005 0.0626749
0.0695937 -0.0167837 0.0623384
0.069611 -0.0170661 0.0620145
0.0696226 -0.0173471 0.0616695
0.0696338 -0.017627 0.0613246
0.0696522 -0.0179066 0.0610089
0.0696941 -0.0181882 0.0607873
0.0697288 -0.0184683 0.0605387
0.0697804 -0.0187497 0.0603564
0.0698312 -0.0190307 0.0601723
0.0698829 -0.0193112 0.0599919
0.0699308 -0.0195907 0.0597979
0.0699963 -0.0198723 0.0596719
0.0700623 -0.0201538 0.059549
0.0701338 -0.020436 0.0594485
0.0702154 -0.0207195 0.0593862
0.070302 -0.0210039 0.0593434
0.0703097 -0.0212737 0.0589982
0.0702392 -0.0215276 0.0583548
0.0700644 -0.0217592 0.0573158
0.0698749 -0.0219847 0.0562253
0.0689044 -0.023559 0.0500542
0.0688235 -0.0237878 0.0494031
0.0687964 -0.0240285 0.0489562
0.0687543 -0.0242639 0.048455
0.0686878 -0.0244914 0.0478649
0.0685678 -0.0247028 0.0470789
0.0684601 -0.0249153 0.0463413
0.0683627 -0.0251285 0.0456443
0.06826 -0.0253382 0.0449311
0.068187 -0.0255545 0.0443302
0.0681397 -0.0257768 0.0438262
0.0680836 -0.025995 0.0432919
0.0680361 -0.0262143 0.0427916
0.0680028 -0.0264367 0.0423445
0.0679876 -0.0266636 0.0419657
0.0680134 -0.0269028 0.0417368
0.0680415 -0.0271421 0.0415175
0.0680779 -0.0273836 0.0413291
0.0681286 -0.0276296 0.0411932
0.0681723 -0.0278728 0.0410323
0.0682122 -0.0281143 0.0408587
0.0682551 -0.0283564 0.040696
0.0683011 -0.0285992 0.0405451
0.0683398 -0.0288389 0.0403685
0.0683788 -0.0290784 0.0401943
0.0684259 -0.0293204 0.0400486
0.0684687 -0.0295604 0.0398885
0.0685079 -0.0297987 0.0397165
0.0685583 -0.0300409 0.0395844
0.0686215 -0.030288 0.0394982
0.0686867 -0.0305356 0.0394194
0.0687643 -0.0307882 0.0393844
0.0688653 -0.0310504 0.0394315
0.0689677 -0.0313133 0.0394832
0.0690963 -0.0315876 0.0396265
0.0692345 -0.0318665 0.0398029
0.0694022 -0.0321588 0.0400809
0.0696466 -0.0324856 0.0406251
0.0697084 -0.0155429 0.0631902
0.0697625 -0.0158312 0.06301
0.0698199 -0.0161192 0.0628433
0.0698562 -0.0164052 0.0625947
0.0698664 -0.0166883 0.0622434
0.0698788 -0.0169705 0.0619023
0.0698802 -0.0172507 0.0615198
0.0698857 -0.0175301 0.0611544
0.0699026 -0.0178098 0.0608352
0.069945 -0.0180914 0.0606174
0.0699852 -0.0183722 0.0603911
0.0700419 -0.0186544 0.0602299
0.0700975 -0.018936 0.0600654
0.070154 -0.0192174 0.0599046
0.0702072 -0.0194978 0.0597318
0.0702778 -0.0197804 0.059627
0.0702926 -0.020054 0.0593074
0.0703122 -0.0203275 0.0590081
0.0703032 -0.0205953 0.0586004
0.0702989 -0.0208626 0.0582115
0.0702077 -0.0211132 0.0574938
0.0700789 -0.0213546 0.056636
0.0692244 -0.0228784 0.0523147
0.0690629 -0.0224429 0.0509991
0.0690356 -0.0226894 0.050546
0.0690932 -0.0231018 0.0514653
0.0690044 -0.0229338 0.0500801
0.0689596 -0.0233222 0.050611
0.0689832 -0.0231792 0.049654
0.0690326 -0.0234402 0.0494927
0.0690677 -0.0236973 0.0492787
0.0690642 -0.0239442 0.0489224
0.0690461 -0.0241863 0.0485132
0.0689527 -0.0244076 0.0478268
0.0688131 -0.0246145 0.0469727
0.0686685 -0.0248176 0.0461038
0.0685365 -0.0250216 0.0452841
0.0684127 -0.0252257 0.0444986
0.0683614 -0.0254483 0.0439813
0.0683367 -0.0256774 0.0435635
0.0683031 -0.0259026 0.0431148
0.0682734 -0.0261277 0.0426821
0.068248 -0.026353 0.0422665
0.0682394 -0.0265823 0.0419132
0.0682525 -0.0268177 0.0416398
0.0682679 -0.0270531 0.041376
0.068299 -0.027293 0.0411696
0.068341 -0.0275361 0.0410033
0.068376 -0.0277763 0.0408124
0.0684113 -0.0280161 0.0406226
0.0684577 -0.0282595 0.0404744
0.0685041 -0.0285023 0.0403257
0.0685475 -0.0287438 0.0401673
0.068591 -0.0289849 0.0400098
0.0686415 -0.0292282 0.0398774
0.0686843 -0.0294683 0.0397184
0.0687191 -0.0297049 0.0395317
0.0687646 -0.0299452 0.0393833
0.0688267 -0.0301917 0.0392935
0.0688876 -0.0304376 0.0392004
0.0689615 -0.0306884 0.0391525
0.0690624 -0.0309503 0.0391992
0.0691647 -0.031213 0.0392507
0.0692855 -0.0314836 0.0393659
0.0694195 -0.0317602 0.0395263
0.0695781 -0.032048 0.039772
0.0698309 -0.0323775 0.0403421
0.069984 -0.015447 0.0631013
0.0700384 -0.0157354 0.0629232
0.0700803 -0.0160225 0.0626965
0.07011 -0.0163081 0.0624235
0.0701241 -0.0165917 0.0620904
0.0701372 -0.0168741 0.0617541
0.0701382 -0.0171544 0.0613717
0.0701433 -0.017434 0.0610076
0.0701593 -0.0177137 0.0606873
0.0702019 -0.0179954 0.0604708
0.0702509 -0.0182772 0.0602801
0.0703084 -0.0185596 0.0601228
0.0703728 -0.0188425 0.059993
0.0703788 -0.0191172 0.0596388
0.0703772 -0.0193897 0.0592572
0.0703912 -0.0196634 0.0589371
0.0703467 -0.0199272 0.0583948
0.0703078 -0.0201902 0.0578756
0.0702633 -0.0204507 0.0573364
0.070217 -0.0207094 0.0567942
0.0700726 -0.020949 0.0558817
0.0698862 -0.0211782 0.054815
0.0698399 -0.0215722 0.0553635
0.0691839 -0.0222147 0.0518067
0.0691126 -0.0218033 0.0508347
0.0689888 -0.0220314 0.0500219
0.068965 -0.0222784 0.0495855
0.0690316 -0.0225438 0.0494885
0.0690918 -0.0228077 0.0493684
0.0691646 -0.023074 0.0492943
0.0692231 -0.0233369 0.0491686
0.0692758 -0.0235981 0.0490213
0.0692994 -0.0238518 0.0487676
0.0693092 -0.0241011 0.0484631
0.0691918 -0.0243169 0.0476925
0.0690241 -0.0245172 0.0467406
0.0688431 -0.0247111 0.0457442
0.0686885 -0.0249093 0.0448476
0.0685453 -0.0251081 0.0439966
0.0685221 -0.0253387 0.0435854
0.0685307 -0.0255774 0.0432917
0.0685225 -0.0258103 0.0429379
0.068506 -0.0260397 0.0425553
0.0684887 -0.0262677 0.0421713
0.0684868 -0.0264996 0.0418445
0.0684911 -0.0267325 0.0415412
0.0684976 -0.0269652 0.0412468
0.068523 -0.0272035 0.0410213
0.0685562 -0.0274436 0.0408241
0.0685826 -0.0276809 0.0406036
0.0686136 -0.0279194 0.0404007
0.0686637 -0.0281639 0.0402659
0.0687114 -0.0284073 0.0401234
0.0687597 -0.0286504 0.0399831
0.0688113 -0.0288945 0.0398548
0.0688693 -0.0291407 0.0397499
0.0689088 -0.0293795 0.0395796
0.0689392 -0.0296146 0.0393789
0.0689797 -0.029853 0.0392136
0.0690325 -0.0300959 0.039092
0.0690851 -0.0303384 0.0389702
0.0691553 -0.0305876 0.03891
0.0692559 -0.0308491 0.0389559
0.0693616 -0.0311129 0.0390189
0.069482 -0.031383 0.0391322
0.0696127 -0.0316579 0.0392813
0.0697633 -0.0319416 0.0394972
0.0700001 -0.0322632 0.0400091
0.0700773 -0.0327058 0.040888
0.0702498 -0.032592 0.0405634
0.0702736 -0.0153518 0.0630668
0.070326 -0.0156404 0.0628822
0.070352 -0.0159267 0.0625948
0.0703697 -0.0162115 0.0622761
0.0703827 -0.0164951 0.0619408
0.0703955 -0.0167776 0.0616051
0.0703968 -0.0170582 0.0612269
0.0704067 -0.0173384 0.0608836
0.0704271 -0.0176187 0.0605813
0.0704691 -0.0179005 0.0603644
0.0705224 -0.018183 0.0601914
0.0705843 -0.0184661 0.0600518
0.0705895 -0.0187416 0.0596964
0.0705307 -0.0190075 0.0590969
0.07046 -0.0192699 0.058455
0.0704054 -0.0195328 0.0578771
0.0702971 -0.0197859 0.057098
0.0702556 -0.0200471 0.0565751
0.0701737 -0.0203 0.0559007
0.0700871 -0.0205502 0.055212
0.0698909 -0.0207793 0.0541139
0.0695827 -0.021382 0.0533108
0.0696547 -0.0209977 0.0528699
0.0694037 -0.0212095 0.0515753
0.0693488 -0.0215947 0.0520741
0.0692512 -0.0214365 0.0506548
0.0691045 -0.0216618 0.0497603
0.0690692 -0.0219072 0.0492833
0.0691352 -0.0221723 0.0491847
0.0692062 -0.0224383 0.0491055
0.0692708 -0.0227027 0.0490018
0.0693479 -0.0229697 0.048945
0.0694157 -0.0232344 0.0488544
0.0694823 -0.0234988 0.0487601
0.0695274 -0.0237576 0.0485867
0.0695636 -0.0240138 0.0483809
0.0694219 -0.024224 0.0475261
0.0692421 -0.024422 0.046536
0.0690439 -0.024612 0.0454828
0.0688672 -0.024805 0.0445124
0.0687083 -0.0249998 0.0436094
0.0687155 -0.0252389 0.0433118
0.0687368 -0.0254812 0.0430653
0.0687419 -0.0257182 0.0427617
0.0687375 -0.0259514 0.0424257
0.0687245 -0.026181 0.0420588
0.0687263 -0.0264143 0.0417472
0.0687224 -0.0266449 0.0414159
0.0687235 -0.0268762 0.0411045
0.0687399 -0.0271117 0.0408483
0.0687641 -0.0273489 0.0406204
0.0687819 -0.0275835 0.0403713
0.0688121 -0.0278216 0.0401663
0.0688627 -0.0280662 0.0400344
0.0689146 -0.028311 0.0399074
0.0689636 -0.0285544 0.0397708
0.0690192 -0.0287998 0.0396574
0.0690812 -0.0290473 0.0395671
0.0691206 -0.0292863 0.039398
0.0691474 -0.02952 0.0391853
0.0691906 -0.0297596 0.0390309
0.0692426 -0.0300021 0.0389071
0.0692945 -0.0302443 0.038784
0.0693645 -0.0304933 0.0387234
0.0694687 -0.0307561 0.0387811
0.0695748 -0.0310197 0.0388448
0.0696912 -0.031288 0.0389445
0.0698217 -0.0315624 0.0390913
0.0699687 -0.0318442 0.039294
0.0701759 -0.0321524 0.0397017
0.0704151 -0.0324758 0.0402174
0.0704904 -0.0329182 0.0410837
0.070663 -0.0328041 0.0407599
0.0705427 -0.0149687 0.0633419
0.0705785 -0.0152573 0.0630918
0.070624 -0.0155458 0.0628812
0.0706285 -0.0158311 0.0625113
0.0706397 -0.0161157 0.0621691
0.0706462 -0.016399 0.0618106
0.0706534 -0.0166812 0.0614557
0.0706597 -0.0169624 0.0610992
0.070675 -0.0172433 0.0607778
0.0707003 -0.0175243 0.060497
0.0707458 -0.0178067 0.0602945
0.0708034 -0.0180898 0.0601392
0.0708659 -0.0183731 0.0600021
0.0708072 -0.018641 0.0594056
0.0706732 -0.0188972 0.0585247
0.0705211 -0.0191483 0.0575798
0.070384 -0.0193987 0.0566953
0.0702085 -0.0196406 0.0556697
0.0701491 -0.0198973 0.0550847
0.0700509 -0.0201461 0.0543572
0.0699316 -0.0203892 0.053553
0.0696977 -0.0206102 0.0523239
0.0695026 -0.0208342 0.0512442
0.0693229 -0.0210579 0.0502271
0.0692445 -0.0212977 0.0495899
0.0691764 -0.0215375 0.0489935
0.069218 -0.0217977 0.0488061
0.069285 -0.0220625 0.0487123
0.0693609 -0.022329 0.0486515
0.0694335 -0.0225947 0.0485794
0.069519 -0.0228632 0.0485548
0.0695962 -0.0231297 0.0484994
0.0696767 -0.0233969 0.048456
0.0697396 -0.0236598 0.0483489
0.0697537 -0.0239104 0.0480641
0.0695814 -0.0241136 0.0471039
0.0693928 -0.0243096 0.0460885
0.0691838 -0.0244974 0.0450038
0.0690005 -0.0246888 0.0440155
0.0688706 -0.0248918 0.0432237
0.0689099 -0.0251397 0.0430431
0.0689395 -0.0253843 0.0428282
0.0689524 -0.0256236 0.042555
0.0689567 -0.0258595 0.0422514
0.0689516 -0.0260919 0.0419158
0.0689539 -0.0263255 0.0416078
0.0689454 -0.0265549 0.0412621
0.0689415 -0.0267848 0.0409347
0.0689487 -0.0270174 0.0406477
0.0689643 -0.027252 0.0403908
0.0689777 -0.0274851 0.0401273
0.0690072 -0.027723 0.0399219
0.0690573 -0.0279672 0.0397888
0.0691086 -0.0282117 0.0396604
0.0691615 -0.0284564 0.0395385
0.0692206 -0.028703 0.0394386
0.0692873 -0.0289522 0.0393651
0.0693307 -0.0291926 0.0392111
0.0693612 -0.0294278 0.0390123
0.0694045 -0.0296674 0.0388593
0.0694563 -0.0299098 0.0387357
0.0695081 -0.030152 0.0386127
0.0695777 -0.0304008 0.0385514
0.0696827 -0.0306636 0.0386114
0.0697888 -0.0309272 0.0386753
0.0699059 -0.0311954 0.0387762
0.0700364 -0.0314694 0.0389217
0.0701828 -0.0317507 0.0391216
0.0703591 -0.0320452 0.0394219
0.0705827 -0.0323609 0.0398818
0.0708218 -0.0326846 0.0403922
0.0709153 -0.0331363 0.0413155
0.0710786 -0.0330174 0.0409597
0.0708496 -0.0148737 0.0633716
0.0708813 -0.0151625 0.0631064
0.0709068 -0.0154502 0.0628192
0.0708961 -0.0157349 0.0623928
0.0709003 -0.0160193 0.0620263
0.0709005 -0.0163023 0.0616456
0.0709061 -0.0165845 0.0612864
0.0709217 -0.0168666 0.060968
0.0709422 -0.0171482 0.060669
0.0709777 -0.0174303 0.0604281
0.0710324 -0.0177138 0.060262
0.0710993 -0.0179982 0.0601419
0.0710853 -0.0182729 0.0597164
0.0709408 -0.0185304 0.058799
0.0707148 -0.0187748 0.0575784
0.0704652 -0.0190122 0.0562737
0.0702427 -0.0192494 0.0550764
0.0700577 -0.0194884 0.0540251
0.0699898 -0.0197418 0.0534156
0.0698805 -0.019987 0.052654
0.0697391 -0.0202246 0.051776
0.0695641 -0.0204538 0.050777
0.0694336 -0.0206878 0.0499468
0.0693228 -0.0209228 0.0491925
0.0693132 -0.0211745 0.0488158
0.0693259 -0.0214293 0.0485222
0.0693719 -0.0216898 0.0483515
0.0694484 -0.0219561 0.0482939
0.0695333 -0.0222241 0.0482677
0.0696144 -0.0224912 0.0482269
0.0697042 -0.0227602 0.0482186
0.0697862 -0.0230274 0.048181
0.0698679 -0.0232946 0.0481428
0.0699359 -0.0235585 0.0480555
0.0699115 -0.0237999 0.047634
0.0697377 -0.0240029 0.0466746
0.0695453 -0.0241985 0.0456522
0.0693411 -0.0243879 0.0445917
0.0691642 -0.0245814 0.0436329
0.0690765 -0.0247962 0.0429977
0.0691116 -0.0250428 0.042803
0.0691415 -0.0252875 0.0425909
0.0691577 -0.0255278 0.0423313
0.0691623 -0.0257639 0.0420309
0.0691654 -0.0259988 0.0417263
0.0691721 -0.0262339 0.0414356
0.0691632 -0.0264634 0.041091
0.0691582 -0.0266932 0.0407611
0.0691637 -0.0269254 0.0404696
0.0691713 -0.0271574 0.0401865
0.0691838 -0.0273904 0.0399219
0.0692133 -0.0276282 0.0397169
0.0692581 -0.0278708 0.0395671
0.069305 -0.0281137 0.0394246
0.0693608 -0.0283592 0.0393133
0.0694206 -0.028606 0.039216
0.0694914 -0.0288565 0.0391577
0.0695391 -0.0290984 0.0390191
0.0695774 -0.0293366 0.0388491
0.0696253 -0.0295779 0.0387122
0.0696779 -0.0298207 0.0385922
0.0697343 -0.0300647 0.0384858
0.0698119 -0.0303167 0.0384519
0.0699177 -0.0305796 0.038514
0.0700245 -0.0308434 0.0385799
0.0701459 -0.0311132 0.0386946
0.070272 -0.0313853 0.0388247
0.0704104 -0.0316629 0.0389957
0.0705604 -0.0319461 0.039206
0.0707599 -0.0322508 0.0395815
0.0709836 -0.0325669 0.040037
0.071239 -0.0328981 0.0405973
0.0711557 -0.0147786 0.0633962
0.0711827 -0.0150676 0.0631145
0.0711901 -0.0153546 0.0627587
0.071165 -0.0156388 0.0622801
0.0711591 -0.0159227 0.0618766
0.0711581 -0.0162058 0.0614939
0.0711631 -0.0164882 0.0611351
0.071188 -0.0167711 0.0608531
0.0712139 -0.0170533 0.0605764
0.0712595 -0.0173367 0.0603758
0.0713202 -0.0176209 0.0602323
0.0713148 -0.0178978 0.0598406
0.0712117 -0.0181624 0.0590824
0.0709702 -0.0184082 0.0578079
0.0706514 -0.0186405 0.0562494
0.0703153 -0.0188656 0.0546316
0.0700792 -0.0190994 0.0533947
0.0699403 -0.0193432 0.0525244
0.0699107 -0.0196006 0.0520636
0.0698649 -0.0198542 0.0515446
0.0697876 -0.0201011 0.0509115
0.0696879 -0.0203425 0.050198
0.0695733 -0.0205791 0.0494323
0.0694844 -0.020818 0.0487643
0.0694706 -0.0210686 0.0483743
0.0694872 -0.0213239 0.0480978
0.0695382 -0.021585 0.0479475
0.0696199 -0.0218519 0.0479099
0.0697098 -0.0221204 0.0479021
0.0697995 -0.022389 0.0478935
0.0698938 -0.0226586 0.0479014
0.0699843 -0.0229274 0.0478954
0.070075 -0.0231963 0.04789
0.0701156 -0.0234536 0.0477042
0.0700484 -0.0236847 0.0471319
0.0698711 -0.0238872 0.0461666
0.0696671 -0.0240802 0.0451101
0.0694712 -0.0242721 0.044086
0.0693303 -0.0244753 0.0432625
0.0692824 -0.0247007 0.0427724
0.0693092 -0.0249452 0.0425504
0.0693376 -0.0251894 0.0423346
0.0693499 -0.0254285 0.042062
0.0693575 -0.0256655 0.0417745
0.0693653 -0.0259017 0.0414884
0.0693766 -0.0261383 0.0412161
0.0693676 -0.026368 0.0408731
0.069361 -0.0265974 0.0405402
0.0693621 -0.0268282 0.0402346
0.0693686 -0.0270601 0.03995
0.0693856 -0.0272945 0.0397022
0.0694149 -0.0275324 0.0394987
0.0694598 -0.0277748 0.0393492
0.0695055 -0.0280171 0.0392032
0.0695606 -0.0282624 0.0390904
0.0696206 -0.0285092 0.0389954
0.0696965 -0.0287613 0.0389544
0.0697525 -0.0290063 0.0388456
0.0698031 -0.029249 0.0387183
0.0698598 -0.0294936 0.0386126
0.0699178 -0.0297386 0.0385118
0.0699822 -0.0299857 0.038433
0.0700642 -0.0302395 0.0384141
0.0701666 -0.0305011 0.038464
0.070274 -0.0307649 0.0385309
0.0703954 -0.0310346 0.0386447
0.0705132 -0.0313034 0.0387464
0.0706473 -0.031579 0.0389017
0.070773 -0.0318518 0.0390287
0.0709455 -0.0321445 0.0393115
0.0711408 -0.0324479 0.0396697
0.0713845 -0.032773 0.0401881
0.0714317 -0.0143931 0.0636883
0.0714591 -0.0146832 0.0634087
0.0714688 -0.0149717 0.0630624
0.0714582 -0.0152583 0.06264
0.0714269 -0.0155423 0.06214
0.0714159 -0.0158262 0.0617202
0.0714111 -0.0161091 0.0613248
0.071416 -0.0163916 0.0609683
0.071445 -0.016675 0.0607038
0.0714766 -0.0169578 0.06045
0.0715372 -0.0172425 0.0603068
0.0716136 -0.0175285 0.0602233
0.0715253 -0.0177971 0.0595226
0.071329 -0.0180516 0.0584215
0.0709843 -0.0182855 0.0567711
0.070615 -0.0185113 0.0550357
0.0702555 -0.0187328 0.0533436
0.0700753 -0.0189732 0.0523242
0.0699831 -0.0192226 0.0516339
0.0699843 -0.0194836 0.0512913
0.0699359 -0.0197361 0.0507671
0.0698671 -0.0199837 0.05017
0.069784 -0.0202274 0.0495235
0.0696893 -0.0204671 0.0488368
0.0696311 -0.0207111 0.0482859
0.0696224 -0.0209623 0.0479179
0.0696488 -0.021219 0.0476785
0.0697087 -0.0214815 0.0475623
0.0697954 -0.0217489 0.0475431
0.0698897 -0.022018 0.047552
0.0699883 -0.0222879 0.0475756
0.0700914 -0.0225591 0.0476158
0.070187 -0.0228287 0.0476285
0.0702817 -0.0230983 0.0476375
0.0702871 -0.0233475 0.0473278
0.070171 -0.023567 0.0465839
0.0699858 -0.0237678 0.0455974
0.0697818 -0.023961 0.044548
0.069592 -0.0241546 0.0435522
0.06949 -0.0243679 0.0428721
0.0694802 -0.0246035 0.042521
0.0695017 -0.0248464 0.0422814
0.069529 -0.0250902 0.0420628
0.0695399 -0.0253289 0.0417877
0.0695475 -0.0255659 0.0415018
0.0695597 -0.0258035 0.041233
0.0695671 -0.0260388 0.0409485
0.0695579 -0.0262686 0.0406078
0.0695508 -0.0264978 0.0402747
0.0695512 -0.0267286 0.0399692
0.0695619 -0.0269618 0.0397011
0.0695836 -0.0271977 0.0394713
0.0696171 -0.0274369 0.0392835
0.0696623 -0.0276794 0.0391361
0.0697114 -0.0279228 0.0390028
0.0697666 -0.0281681 0.0388913
0.0698308 -0.0284162 0.0388104
0.0699074 -0.0286685 0.0387727
0.0699718 -0.0289164 0.0386931
0.0700312 -0.0291624 0.0385971
0.0700972 -0.0294104 0.0385228
0.0701642 -0.0296588 0.0384528
0.0702408 -0.0299107 0.038416
0.0703312 -0.0301676 0.0384249
0.0704341 -0.0304295 0.038476
0.0705415 -0.0306936 0.0385427
0.070658 -0.0309613 0.0386389
0.0707675 -0.0312267 0.0387115
0.0708928 -0.0314987 0.0388366
0.0710146 -0.0317696 0.0389488
0.071162 -0.0320518 0.0391467
0.0713337 -0.0323445 0.039424
0.0715526 -0.0326582 0.0398573
0.0716453 -0.0331073 0.0407614
0.0717945 -0.0329833 0.0403649
0.0717466 -0.0142975 0.0637411
0.0717685 -0.0145878 0.0634422
0.0717637 -0.0148762 0.0630425
0.0717322 -0.0151622 0.0625434
0.0716945 -0.0154462 0.0620227
0.0716784 -0.0157299 0.0615857
0.071669 -0.0160128 0.0611759
0.0716695 -0.0162951 0.0608043
0.0717028 -0.0165789 0.0605581
0.0717386 -0.0168622 0.0603214
0.0718055 -0.0171475 0.060202
0.0718103 -0.0174267 0.0598518
0.0716327 -0.0176863 0.0588242
0.071331 -0.0179293 0.0573393
0.0709348 -0.0181569 0.05551
0.0705467 -0.0183798 0.053718
0.0702482 -0.0186083 0.0522647
0.0701246 -0.0188553 0.0514616
0.0700783 -0.0191104 0.0509459
0.0700609 -0.019368 0.0505385
0.0700163 -0.0196204 0.0500326
0.0699536 -0.0198685 0.0494628
0.0698857 -0.0201141 0.0488767
0.0698146 -0.0203573 0.0482804
0.0697781 -0.0206048 0.0478128
0.0697709 -0.020856 0.0474531
0.0698022 -0.0211132 0.047234
0.0698663 -0.021376 0.0471341
0.0699565 -0.0216436 0.047128
0.0700552 -0.021913 0.0471528
0.0701585 -0.0221835 0.0471943
0.070271 -0.0224561 0.047268
0.070372 -0.0227266 0.0473006
0.0704351 -0.0229887 0.0471969
0.0704013 -0.0232287 0.0467498
0.0702415 -0.023438 0.0458566
0.070047 -0.0236365 0.0448439
0.0698535 -0.0238322 0.0438393
0.069706 -0.0240363 0.0430001
0.0696471 -0.0242605 0.0424764
0.0696731 -0.0245052 0.0422538
0.0696928 -0.0247476 0.0420097
0.0697153 -0.0249901 0.041776
0.0697258 -0.0252286 0.0415011
0.0697337 -0.0254656 0.0412181
0.0697493 -0.0257041 0.0409633
0.0697528 -0.0259384 0.040667
0.0697463 -0.026169 0.0403379
0.0697388 -0.0263982 0.0400058
0.0697437 -0.0266303 0.0397177
0.0697591 -0.0268649 0.0394672
0.0697892 -0.0271036 0.0392683
0.0698278 -0.0273443 0.0390984
0.0698771 -0.0275883 0.0389666
0.0699266 -0.0278318 0.0388353
0.0699857 -0.0280784 0.0387376
0.0700542 -0.028328 0.0386723
0.0701351 -0.0285818 0.0386492
0.070208 -0.0288327 0.0385987
0.070284 -0.0290846 0.038559
0.0703599 -0.0293364 0.0385188
0.0704362 -0.0295884 0.0384806
0.0705218 -0.0298437 0.0384729
0.0706159 -0.0301024 0.0384946
0.0707108 -0.0303614 0.0385181
0.0708141 -0.0306238 0.0385696
0.0709217 -0.0308882 0.0386355
0.071022 -0.0311499 0.0386765
0.0711422 -0.0314198 0.0387838
0.0712597 -0.0316889 0.0388812
0.071395 -0.0319657 0.0390371
0.0715443 -0.032249 0.0392394
0.0717388 -0.0325517 0.0395891
0.0719557 -0.0328652 0.0400119
0.0720228 -0.0139097 0.0640281
0.0720402 -0.0142012 0.063712
0.0720626 -0.0144918 0.063416
0.0720492 -0.0147802 0.0629862
0.0720045 -0.015066 0.0624402
0.0719659 -0.0153503 0.0619191
0.0719485 -0.0156342 0.0614797
0.0719333 -0.0159169 0.0610504
0.0719273 -0.0161991 0.0606576
0.0719593 -0.0164828 0.060407
0.0720041 -0.0167669 0.060206
0.0720815 -0.0170532 0.0601269
0.0720031 -0.0173249 0.0594698
0.0717307 -0.0175753 0.0580979
0.0713232 -0.0178072 0.0562324
0.07088 -0.0180294 0.054244
0.0704624 -0.0182482 0.0523567
0.0702289 -0.0184838 0.0511537
0.0701671 -0.0187377 0.0505837
0.0701732 -0.0189989 0.0502639
0.0701639 -0.0192571 0.0498895
0.0701237 -0.0195097 0.0494044
0.0700663 -0.0197582 0.0488581
0.0700074 -0.0200047 0.0483086
0.0699525 -0.0202504 0.0477757
0.0699206 -0.0204983 0.0473286
0.0699229 -0.0207509 0.0470055
0.069967 -0.0210101 0.0468345
0.0700389 -0.0212739 0.0467637
0.0701327 -0.0215418 0.0467715
0.0702275 -0.0218099 0.0467822
0.070327 -0.0220791 0.0468097
0.0704361 -0.0223505 0.0468716
0.070537 -0.0226204 0.0469038
0.070566 -0.0228747 0.0466806
0.0704929 -0.0231056 0.0460977
0.0703385 -0.0233162 0.0452302
0.0701515 -0.0235165 0.0442512
0.0699714 -0.0237156 0.0433002
0.0698666 -0.0239303 0.0426172
0.0698466 -0.0241643 0.0422335
0.069868 -0.0244077 0.0419954
0.0698837 -0.024649 0.0417387
0.0699016 -0.0248902 0.0414907
0.0699126 -0.0251289 0.0412198
0.0699207 -0.025366 0.0409397
0.0699321 -0.0256032 0.0406717
0.0699376 -0.0258381 0.0403846
0.0699305 -0.0260683 0.0400548
0.0699269 -0.0262988 0.0397388
0.0699406 -0.0265337 0.0394834
0.069965 -0.0267711 0.0392651
0.0699996 -0.0270112 0.0390825
0.0700421 -0.0272532 0.0389272
0.0700913 -0.027497 0.0387955
0.0701452 -0.0277422 0.0386804
0.0702088 -0.0279902 0.0385982
0.070282 -0.0282413 0.038549
0.0703671 -0.0284964 0.0385401
0.070452 -0.0287515 0.0385304
0.0705372 -0.0290068 0.0385217
0.0706229 -0.0292623 0.0385145
0.0707088 -0.0295179 0.0385081
0.0708028 -0.0297765 0.0385289
0.0708973 -0.0300354 0.0385509
0.0709884 -0.0302932 0.0385613
0.071087 -0.030554 0.0385965
0.0711856 -0.0308149 0.0386315
0.071276 -0.0310728 0.0386397
0.0713874 -0.0313391 0.0387167
0.0715003 -0.0316063 0.0387983
0.0716278 -0.0318797 0.0389275
0.0717643 -0.0321574 0.0390859
0.0719397 -0.0324516 0.0393713
0.0721407 -0.0327577 0.0397394
0.0722128 -0.0331972 0.0405651
0.0723824 -0.0330822 0.0402392
0.0723122 -0.0138129 0.0639797
0.0723299 -0.0141046 0.0636665
0.0723552 -0.0143957 0.0633837
0.0723374 -0.0146843 0.0629397
0.0722927 -0.0149704 0.0623966
0.0722537 -0.0152552 0.0618772
0.0722345 -0.0155393 0.0614332
0.0722076 -0.0158217 0.0609628
0.0721898 -0.0161033 0.0605282
0.0722153 -0.0163867 0.0602558
0.0722598 -0.0166707 0.060054
0.0722514 -0.0169498 0.0596584
0.072074 -0.0172124 0.0586415
0.0717 -0.0174528 0.0569061
0.0708052 -0.0179013 0.0529186
0.0704626 -0.0181281 0.0513201
0.070303 -0.0183719 0.0503952
0.0703066 -0.0186334 0.0500681
0.0703083 -0.0188936 0.0497352
