ply
format ascii 1.0
element vertex 1714
property float x
property float y
property float z
end_header
0.162623 -0.0840631 0.836438
0.162605 -0.0854115 0.835076
0.162575 -0.0867506 0.833658
0.162595 -0.0881076 0.83248
0.162633 -0.0894699 0.831395
0.162676 -0.0908316 0.830338
0.162687 -0.0921752 0.82913
0.16272 -0.0935259 0.828029
0.16275 -0.0948722 0.826918
0.162819 -0.0962342 0.825991
0.162951 -0.0976256 0.825369
0.163105 -0.0990265 0.824851
0.163273 -0.100433 0.824399
0.163431 -0.101834 0.823905
0.163658 -0.10327 0.823736
0.163883 -0.104705 0.823552
0.164181 -0.106179 0.823717
0.164491 -0.107661 0.823934
0.164811 -0.10915 0.824202
0.165118 -0.110632 0.824404
0.165449 -0.11213 0.824718
0.165819 -0.11365 0.825208
0.166185 -0.115171 0.825684
0.166529 -0.116681 0.826054
0.166819 -0.118159 0.82617
0.167089 -0.119626 0.826193
0.167257 -0.121031 0.825748
0.167401 -0.12242 0.82519
0.167471 -0.123761 0.824287
0.167518 -0.125085 0.823288
0.167551 -0.126397 0.822221
0.16764 -0.127743 0.821416
0.167699 -0.129067 0.820476
0.167789 -0.130409 0.819683
0.167892 -0.131758 0.818946
0.16798 -0.133094 0.818144
0.16807 -0.134431 0.817356
0.168194 -0.135789 0.816721
0.168351 -0.137168 0.816241
0.168478 -0.138525 0.815625
0.168589 -0.139869 0.814934
0.168676 -0.141194 0.814142
0.168743 -0.142503 0.813258
0.168829 -0.143823 0.812462
0.168904 -0.145133 0.811618
0.169066 -0.146506 0.811166
0.169209 -0.147864 0.810634
0.169419 -0.149271 0.810401
0.169699 -0.150732 0.810483
0.170042 -0.152242 0.810846
0.170396 -0.153762 0.811259
0.170833 -0.15535 0.812041
0.171252 -0.156926 0.812739
0.171584 -0.158434 0.813046
0.17191 -0.15994 0.813325
0.172179 -0.161399 0.813351
0.172408 -0.162826 0.813202
0.172602 -0.164225 0.812892
0.172756 -0.165589 0.812409
0.172927 -0.166967 0.812003
0.173064 -0.168314 0.811445
0.173259 -0.169711 0.811145
0.173565 -0.171202 0.811335
0.173939 -0.172753 0.811824
0.174414 -0.174395 0.812749
0.174941 -0.176085 0.813904
0.175703 -0.177987 0.81608
0.17678 -0.180177 0.819628
0.178021 -0.182525 0.823877
0.179266 -0.18489 0.828137
0.180499 -0.187256 0.832327
0.181476 -0.1894 0.835396
0.182136 -0.191261 0.837081
0.182781 -0.193112 0.838695
0.183365 -0.194912 0.840046
0.184007 -0.196772 0.841639
0.184546 -0.198536 0.84278
0.183463 -0.0562233 0.962063
0.182939 -0.0576932 0.957984
0.182324 -0.0591271 0.953472
0.181659 -0.0605336 0.948728
0.181106 -0.0619554 0.944542
0.180659 -0.063394 0.940889
0.180399 -0.0648753 0.938165
0.180342 -0.0664082 0.936438
0.180576 -0.0680248 0.936139
0.181192 -0.0697597 0.937696
0.182395 -0.0716877 0.942101
0.182732 -0.0757319 0.949034
0.183574 -0.0736228 0.946381
0.184675 -0.0755455 0.950263
0.164481 -0.077124 0.844569
0.164403 -0.0784722 0.842904
0.164306 -0.079808 0.841155
0.164217 -0.081142 0.839449
0.16413 -0.0824721 0.837761
0.164145 -0.0838394 0.836557
0.164143 -0.0851965 0.835279
0.164127 -0.0865442 0.833941
0.164161 -0.0879095 0.832839
0.164229 -0.0892873 0.831902
0.164253 -0.0906426 0.830761
0.164278 -0.0919952 0.829628
0.164331 -0.0933576 0.828627
0.164368 -0.0947097 0.827555
0.164442 -0.096077 0.826661
0.164591 -0.0974787 0.82612
0.164745 -0.0988818 0.825603
0.164912 -0.10029 0.825147
0.165087 -0.101702 0.824733
0.165315 -0.10314 0.824563
0.165536 -0.104575 0.824366
0.165813 -0.106039 0.824428
0.166106 -0.107513 0.82456
0.166426 -0.109002 0.824821
0.166733 -0.110486 0.82502
0.167062 -0.111983 0.82532
0.167413 -0.113494 0.82572
0.167777 -0.115014 0.826178
0.16809 -0.116506 0.826397
0.168363 -0.117975 0.826437
0.168618 -0.119434 0.826388
0.168785 -0.120839 0.825939
0.168913 -0.122219 0.825307
0.168999 -0.123572 0.824489
0.169046 -0.124898 0.82349
0.169077 -0.126211 0.822424
0.16916 -0.127555 0.821598
0.169215 -0.128878 0.820644
0.169286 -0.130209 0.819766
0.169403 -0.131569 0.819099
0.169492 -0.132908 0.818309
0.1696 -0.134259 0.817607
0.169744 -0.135631 0.817065
0.16992 -0.137025 0.81667
0.170064 -0.138396 0.816134
0.170226 -0.139779 0.815681
0.170371 -0.141148 0.815149
0.170514 -0.142514 0.814609
0.170675 -0.143892 0.814151
0.170805 -0.145247 0.813557
0.171001 -0.146649 0.813258
0.171162 -0.148025 0.812806
0.171354 -0.149422 0.812491
0.171599 -0.15086 0.812413
0.171906 -0.152345 0.812608
0.172242 -0.153854 0.812932
0.172646 -0.155417 0.81356
0.173068 -0.156997 0.814261
0.173419 -0.158522 0.814646
0.173784 -0.16006 0.815091
0.174095 -0.161556 0.815298
0.174369 -0.163024 0.815342
0.174604 -0.16446 0.815211
0.174797 -0.165861 0.814901
0.174967 -0.167243 0.814488
0.175084 -0.168579 0.813844
0.175256 -0.16996 0.813441
0.175508 -0.171409 0.813387
0.175809 -0.172899 0.813547
0.176244 -0.174507 0.81429
0.176733 -0.176164 0.815266
0.177495 -0.178065 0.817423
0.178582 -0.180259 0.820981
0.179848 -0.182625 0.825308
0.181091 -0.184982 0.829519
0.182332 -0.187351 0.833711
0.183304 -0.189487 0.836732
0.183967 -0.191349 0.838414
0.184622 -0.193209 0.840057
0.18525 -0.195049 0.841577
0.185919 -0.196933 0.843271
0.186486 -0.198725 0.844522
0.18463 -0.05741 0.957934
0.18429 -0.0589168 0.954796
0.183834 -0.0603839 0.951104
0.183431 -0.0618538 0.947683
0.182972 -0.0632975 0.943997
0.182707 -0.064785 0.941266
0.182603 -0.066311 0.939319
0.182835 -0.0679322 0.939005
0.183469 -0.0696764 0.940628
0.18451 -0.071555 0.944212
0.185543 -0.0734428 0.947743
0.186506 -0.0753196 0.950932
0.166106 -0.0769282 0.845116
0.166044 -0.0782853 0.843539
0.165905 -0.0796078 0.841602
0.165777 -0.0809292 0.839726
0.165671 -0.0822536 0.837956
0.165702 -0.0836296 0.836836
0.165719 -0.084997 0.835659
0.165727 -0.0863569 0.834439
0.165775 -0.0877312 0.833414
0.165857 -0.0891172 0.832545
0.165876 -0.0904726 0.831385
0.165882 -0.0918191 0.83017
0.165952 -0.0931919 0.829257
0.166005 -0.094554 0.828264
0.166081 -0.0959249 0.827386
0.166245 -0.097336 0.826915
0.166413 -0.0987481 0.826466
0.166578 -0.100158 0.826005
0.166757 -0.101573 0.825605
0.166999 -0.103021 0.825503
0.167204 -0.104449 0.825229
0.167481 -0.105916 0.825286
0.167773 -0.10739 0.825413
0.168079 -0.108874 0.825604
0.168371 -0.11035 0.825729
0.168682 -0.111838 0.825943
0.168997 -0.113329 0.826167
0.169344 -0.11484 0.826545
0.169659 -0.116334 0.826773
0.169921 -0.117797 0.826753
0.170175 -0.119257 0.826703
0.170356 -0.120672 0.826317
0.170464 -0.122042 0.825599
0.170549 -0.123395 0.824778
0.170613 -0.124734 0.823866
0.170642 -0.126048 0.822796
0.170706 -0.127382 0.82189
0.170755 -0.128703 0.820914
0.170804 -0.130022 0.819942
0.170904 -0.131372 0.819203
0.171007 -0.132722 0.818479
0.171134 -0.134087 0.817863
0.171279 -0.135462 0.817331
0.171457 -0.136859 0.816947
0.171635 -0.138254 0.816563
0.171817 -0.139652 0.816199
0.172017 -0.141062 0.815914
0.172232 -0.142483 0.815701
0.172464 -0.143915 0.81556
0.172629 -0.145298 0.815122
0.17286 -0.146729 0.814977
0.173038 -0.14812 0.814597
0.173234 -0.149524 0.814297
0.173466 -0.150955 0.81416
0.173756 -0.15243 0.814273
0.174072 -0.153926 0.814506
0.174442 -0.155464 0.814971
0.174847 -0.157032 0.81559
0.175201 -0.158561 0.815985
0.175608 -0.160135 0.816609
0.175964 -0.161669 0.817004
0.176302 -0.163191 0.817324
0.176599 -0.164681 0.817464
0.176856 -0.166139 0.817426
0.177053 -0.167547 0.817128
0.177175 -0.168893 0.816506
0.177326 -0.170261 0.816009
0.177532 -0.171675 0.815752
0.177767 -0.173113 0.815623
0.17812 -0.174652 0.816001
0.178567 -0.176274 0.816784
0.179351 -0.178193 0.819018
0.180456 -0.180399 0.822621
0.181739 -0.182774 0.826983
0.183014 -0.185156 0.831299
0.184263 -0.187527 0.835488
0.185187 -0.189617 0.838278
0.185839 -0.191469 0.839895
0.186518 -0.19335 0.841623
0.187149 -0.195192 0.843142
0.187838 -0.197094 0.844907
0.188446 -0.198926 0.846319
0.185663 -0.0601413 0.951766
0.185423 -0.0616587 0.949159
0.185083 -0.0631405 0.946073
0.184886 -0.0646528 0.943683
0.184721 -0.0661673 0.941455
0.184843 -0.0677601 0.940611
0.185356 -0.0694693 0.941639
0.186163 -0.0712741 0.944071
0.187018 -0.0731025 0.946724
0.167759 -0.076741 0.845781
0.167699 -0.0781021 0.844226
0.167586 -0.0794377 0.842421
0.167432 -0.0807521 0.840433
0.16732 -0.0820776 0.838648
0.167348 -0.0834552 0.837524
0.167368 -0.0848264 0.836367
0.167395 -0.0861972 0.835244
0.167467 -0.0875842 0.834332
0.167532 -0.088966 0.833394
0.167531 -0.0903157 0.83215
0.167546 -0.0916685 0.830978
0.16761 -0.0930411 0.830041
0.167661 -0.0944054 0.829049
0.167752 -0.0957854 0.828238
0.16791 -0.0971964 0.827746
0.168075 -0.0986092 0.827284
0.16824 -0.100021 0.826822
0.168421 -0.10144 0.826434
0.168653 -0.102884 0.826283
0.168858 -0.104314 0.826006
0.169116 -0.105772 0.825977
0.169392 -0.107239 0.826025
0.169701 -0.108725 0.826225
0.169995 -0.110204 0.826358
0.17031 -0.111696 0.826585
0.170657 -0.113206 0.826953
0.171041 -0.114738 0.827488
0.171376 -0.116245 0.827802
0.171642 -0.117713 0.827802
0.171892 -0.119172 0.82773
0.172034 -0.120566 0.827164
0.172102 -0.121914 0.826271
0.17215 -0.123248 0.82529
0.172215 -0.12459 0.824385
0.172228 -0.125897 0.823252
0.172273 -0.12722 0.822261
0.172318 -0.128542 0.821278
0.172346 -0.129849 0.820216
0.172428 -0.131189 0.819399
0.172546 -0.132551 0.818747
0.172691 -0.133929 0.818213
0.172835 -0.135305 0.81768
0.17303 -0.136715 0.817373
0.173225 -0.138124 0.817067
0.173424 -0.139535 0.81678
0.173644 -0.14096 0.816582
0.17388 -0.142397 0.81646
0.174133 -0.143846 0.816409
0.174333 -0.145256 0.816125
0.174565 -0.14669 0.815985
0.174763 -0.148099 0.815695
0.17498 -0.149521 0.815484
0.175215 -0.150956 0.815356
0.175488 -0.152421 0.815397
0.1758 -0.153915 0.815603
0.17615 -0.155439 0.815977
0.176558 -0.157009 0.816601
0.176934 -0.158558 0.817084
0.177365 -0.160151 0.817804
0.177761 -0.161719 0.818369
0.178158 -0.163289 0.818936
0.178517 -0.164831 0.81934
0.178856 -0.166359 0.819656
0.179119 -0.167825 0.819639
0.179282 -0.169209 0.819192
0.17943 -0.17058 0.818681
0.179592 -0.171962 0.818233
0.179747 -0.173337 0.817758
0.180019 -0.17481 0.81778
0.180478 -0.176445 0.818606
0.181318 -0.17841 0.821054
0.18245 -0.180636 0.824745
0.183764 -0.183035 0.829202
0.185052 -0.185424 0.833535
0.186231 -0.187727 0.837388
0.187081 -0.18975 0.839838
0.187722 -0.19159 0.841394
0.188385 -0.193457 0.843041
0.189527 -0.195766 0.846707
0.190774 -0.198183 0.850804
0.186892 -0.0628985 0.946666
0.186766 -0.0644337 0.944631
0.186619 -0.0659573 0.942507
0.169406 -0.0765498 0.846399
0.169368 -0.0779217 0.844955
0.169261 -0.0792632 0.843195
0.169084 -0.0805722 0.841112
0.168946 -0.0818906 0.83922
0.168968 -0.0832683 0.838075
0.168989 -0.0846423 0.836928
0.169033 -0.0860223 0.835888
0.16914 -0.087427 0.835147
0.169223 -0.0888189 0.834294
0.169222 -0.0901715 0.833055
0.169232 -0.0915259 0.831875
0.169275 -0.0928917 0.830845
0.169303 -0.0942476 0.829748
0.169356 -0.0956123 0.82877
0.169481 -0.0970088 0.828124
0.169641 -0.0984207 0.827641
0.169808 -0.099835 0.82719
0.169989 -0.101256 0.826807
0.170241 -0.102711 0.826743
0.170462 -0.104151 0.826542
0.170722 -0.105611 0.826518
0.171013 -0.107087 0.82663
0.171342 -0.108585 0.826919
0.171658 -0.110077 0.827145
0.171992 -0.11158 0.827455
0.172377 -0.113112 0.827987
0.172766 -0.114649 0.828542
0.173106 -0.116161 0.828873
0.173355 -0.117621 0.828794
0.173586 -0.11907 0.828629
0.173684 -0.120441 0.827873
0.173728 -0.121778 0.826878
0.173757 -0.123102 0.825814
0.173819 -0.124445 0.824902
0.173831 -0.125753 0.823767
0.173858 -0.127068 0.822707
0.1739 -0.12839 0.821712
0.17391 -0.129689 0.820579
0.173972 -0.131017 0.819676
0.174073 -0.13237 0.818953
0.174214 -0.133747 0.818408
0.17436 -0.135125 0.817882
0.174572 -0.136548 0.817652
0.174801 -0.137981 0.817495
0.175019 -0.139407 0.817291
0.175276 -0.140859 0.817253
0.175531 -0.14231 0.817211
0.175804 -0.143775 0.817249
0.17599 -0.145178 0.816904
0.176223 -0.146614 0.816765
0.176419 -0.148023 0.816466
0.176638 -0.149448 0.816265
0.176876 -0.150887 0.816148
0.177167 -0.152366 0.816263
0.177478 -0.153861 0.81646
0.177828 -0.155386 0.816829
0.178236 -0.156958 0.817448
0.178617 -0.158511 0.817946
0.179067 -0.160118 0.818737
0.179499 -0.161715 0.819453
0.179934 -0.163318 0.820177
0.18037 -0.164922 0.820904
0.180807 -0.166531 0.821634
0.18115 -0.168065 0.821955
0.181372 -0.169503 0.821762
0.181541 -0.170896 0.82134
0.181649 -0.172237 0.820658
0.181781 -0.173598 0.820082
0.182053 -0.175075 0.820101
0.182562 -0.176754 0.821129
0.183463 -0.178771 0.823815
0.184637 -0.181031 0.827647
0.185928 -0.183407 0.831968
0.187142 -0.185727 0.835952
0.188243 -0.18796 0.839442
0.189015 -0.18991 0.841542
0.189618 -0.191719 0.842923
0.190738 -0.193995 0.846471
0.192461 -0.196829 0.852545
0.170992 -0.0763345 0.846718
0.170999 -0.0777257 0.845496
0.170941 -0.0790886 0.843973
0.170776 -0.0804059 0.841961
0.170649 -0.0817321 0.84013
0.17065 -0.0831042 0.838895
0.170665 -0.0844787 0.837729
0.170706 -0.0858603 0.83668
0.170843 -0.08728 0.83608
0.170929 -0.0886762 0.835247
0.170929 -0.0900325 0.834021
0.170939 -0.0913895 0.832841
0.170976 -0.0927556 0.831791
0.170987 -0.0941067 0.830622
0.171019 -0.095465 0.829557
0.171142 -0.0968624 0.828902
0.171267 -0.0982599 0.828262
0.171413 -0.0996656 0.827716
0.171577 -0.101079 0.827257
0.17183 -0.102536 0.827196
0.172036 -0.10397 0.826924
0.17231 -0.105438 0.826961
0.172619 -0.106925 0.827156
0.172967 -0.108434 0.827525
0.173324 -0.109948 0.827929
0.173717 -0.111485 0.828498
0.174127 -0.113033 0.829139
0.174521 -0.114574 0.829705
0.174866 -0.11609 0.830055
0.175077 -0.11753 0.8298
0.175269 -0.118959 0.829463
0.175358 -0.120328 0.828671
0.175382 -0.121655 0.827591
0.175389 -0.122969 0.826435
0.175432 -0.124302 0.825444
0.175436 -0.125609 0.824282
0.175425 -0.126903 0.823058
0.175447 -0.128215 0.821983
0.175456 -0.129514 0.820849
0.175516 -0.130844 0.819946
0.175598 -0.132186 0.81914
0.175737 -0.133563 0.818587
0.175915 -0.134964 0.818208
0.176132 -0.136391 0.817997
0.176386 -0.137842 0.817948
0.176623 -0.139282 0.817827
0.176895 -0.140746 0.817858
0.177152 -0.1422 0.817823
0.177427 -0.143667 0.817865
0.17763 -0.145084 0.817594
0.177881 -0.146534 0.817529
0.178094 -0.147957 0.817303
0.17831 -0.149382 0.817091
0.178548 -0.150823 0.816972
0.178823 -0.152292 0.817012
0.179135 -0.153788 0.817211
0.179488 -0.155317 0.817588
0.179902 -0.156894 0.818225
0.180302 -0.158461 0.818795
0.180771 -0.160084 0.819664
0.181205 -0.161683 0.820378
0.181658 -0.1633 0.821173
0.182119 -0.164925 0.821997
0.182598 -0.166567 0.822894
0.182986 -0.16814 0.823404
0.18325 -0.169614 0.823386
0.183441 -0.171029 0.823058
0.183586 -0.172405 0.822536
0.183778 -0.173819 0.82221
0.184116 -0.175354 0.822505
0.184719 -0.177114 0.823916
0.185731 -0.179226 0.827045
0.18689 -0.181472 0.830781
0.188119 -0.183791 0.834802
0.18925 -0.186036 0.838402
0.19025 -0.188178 0.841441
0.190894 -0.190017 0.842984
0.191476 -0.191806 0.844263
0.193092 -0.194521 0.849854
0.173398 -0.0750132 0.852067
0.173384 -0.0764085 0.850747
0.17311 -0.0777042 0.84823
0.173041 -0.0790694 0.846667
0.17274 -0.0803413 0.844042
0.17253 -0.0816406 0.841839
0.172408 -0.0829684 0.840048
0.172388 -0.0843318 0.838724
0.172404 -0.0857062 0.837568
0.1725 -0.0871113 0.836784
0.172532 -0.0884867 0.835707
0.172531 -0.089845 0.834486
0.172578 -0.0912209 0.833483
0.172635 -0.0925985 0.832529
0.172679 -0.0939672 0.831514
0.172729 -0.0953363 0.830533
0.172833 -0.0967278 0.829797
0.172935 -0.0981166 0.829055
0.173057 -0.0995134 0.828407
0.173201 -0.100919 0.827854
0.173452 -0.102376 0.827786
0.173659 -0.103812 0.82752
0.173968 -0.1053 0.827712
0.174317 -0.106808 0.828078
0.174706 -0.10834 0.828625
0.17509 -0.109871 0.829146
0.175524 -0.11143 0.829885
0.175942 -0.112984 0.830553
0.176319 -0.114519 0.831041
0.176661 -0.116034 0.831367
0.176848 -0.117464 0.831005
0.177019 -0.118884 0.830576
0.177091 -0.120245 0.82971
0.177096 -0.121565 0.828552
0.177049 -0.122851 0.827167
0.177065 -0.12417 0.826063
0.177047 -0.125466 0.824808
0.177011 -0.126748 0.823483
0.177033 -0.128061 0.822412
0.177054 -0.129372 0.821343
0.177113 -0.130703 0.820439
0.177209 -0.132056 0.819698
0.177365 -0.133446 0.819221
0.177564 -0.134863 0.818933
0.177803 -0.136306 0.818816
0.178062 -0.137762 0.818787
0.178284 -0.139193 0.818599
0.17854 -0.140648 0.818557
0.178776 -0.142089 0.818427
0.179034 -0.143546 0.818396
0.179238 -0.144964 0.818128
0.179487 -0.146415 0.818057
0.179698 -0.147838 0.817821
0.17993 -0.149276 0.817676
0.180187 -0.150732 0.817634
0.180481 -0.152216 0.817758
0.180799 -0.153718 0.817979
0.181172 -0.155261 0.818431
0.18157 -0.156826 0.818992
0.181973 -0.158397 0.819571
0.182428 -0.16001 0.82037
0.182882 -0.161624 0.821161
0.183342 -0.163246 0.821975
0.183823 -0.164887 0.822876
0.184309 -0.166535 0.823797
0.184738 -0.168141 0.824471
0.185044 -0.169651 0.824624
0.185276 -0.171102 0.82447
0.185463 -0.172515 0.824123
0.185734 -0.173998 0.824134
0.186164 -0.175612 0.824806
0.18687 -0.177458 0.82663
0.187885 -0.179571 0.829742
0.189017 -0.181793 0.833336
0.190194 -0.184064 0.837107
0.191245 -0.186238 0.840342
0.192137 -0.188285 0.842906
0.192744 -0.190091 0.84428
0.193779 -0.192277 0.847426
0.195911 -0.195443 0.855103
0.176055 -0.0765735 0.855978
0.175488 -0.0777741 0.852136
0.175212 -0.0790706 0.849632
0.174791 -0.0803048 0.846475
0.174452 -0.0815612 0.843702
0.174199 -0.0828423 0.841321
0.174158 -0.0842012 0.839913
0.174148 -0.0855688 0.838647
0.174202 -0.086959 0.837674
0.174207 -0.0883263 0.836484
0.174189 -0.0896796 0.835187
0.174251 -0.0910647 0.834259
0.174312 -0.0924468 0.833329
0.174378 -0.0938282 0.83242
0.174431 -0.0952014 0.831456
0.174532 -0.0965946 0.830713
0.174629 -0.0979834 0.829949
0.174745 -0.0993797 0.829275
0.174901 -0.100793 0.828778
0.175155 -0.102254 0.828721
0.175398 -0.10371 0.828614
0.17575 -0.105221 0.82899
0.176139 -0.106753 0.829532
0.176558 -0.108302 0.830202
0.176984 -0.109857 0.830898
0.17744 -0.111431 0.83173
0.177857 -0.112986 0.832383
0.178214 -0.114512 0.832774
0.178514 -0.116007 0.832909
0.178679 -0.117428 0.832453
0.178813 -0.11883 0.831859
0.178851 -0.120175 0.830848
0.178837 -0.121487 0.829611
0.178768 -0.122763 0.828135
0.178724 -0.124051 0.826779
0.178679 -0.125334 0.825415
0.17862 -0.126604 0.823997
0.178623 -0.127909 0.82285
0.178644 -0.129222 0.821784
0.178721 -0.130566 0.820961
0.1788 -0.131911 0.820155
0.178955 -0.133302 0.819674
0.179174 -0.134733 0.819468
0.179434 -0.136191 0.819446
0.1797 -0.137653 0.819443
0.179954 -0.139107 0.81939
0.180205 -0.14056 0.819325
0.18042 -0.141989 0.819108
0.180658 -0.143433 0.818984
0.180877 -0.144864 0.818785
0.181112 -0.146305 0.818648
0.181326 -0.147732 0.818426
0.18156 -0.149173 0.818289
0.181818 -0.150631 0.818251
0.182115 -0.152118 0.818381
0.182451 -0.153634 0.818675
0.182827 -0.155181 0.819137
0.183245 -0.156761 0.819773
0.183666 -0.158346 0.820423
0.184127 -0.159963 0.821238
0.184605 -0.161597 0.822123
0.185088 -0.163237 0.823026
0.185574 -0.164882 0.823936
0.186062 -0.166532 0.824853
0.186507 -0.168152 0.825591
0.186819 -0.169668 0.825764
0.187074 -0.17114 0.825705
0.187303 -0.172589 0.825531
0.187677 -0.174158 0.825964
0.188218 -0.175866 0.827093
0.189035 -0.177805 0.82936
0.190041 -0.17991 0.832407
0.19113 -0.182094 0.835793
0.192225 -0.184292 0.839191
0.19316 -0.186366 0.841919
0.19395 -0.188322 0.844039
0.19504 -0.190545 0.847389
0.19659 -0.19318 0.852628
0.17862 -0.0766914 0.860642
0.177947 -0.0778656 0.856344
0.177497 -0.0791079 0.853066
0.176931 -0.0802969 0.849272
0.176438 -0.0815015 0.845814
0.176056 -0.0827391 0.842872
0.175957 -0.0840793 0.84121
0.175886 -0.085426 0.839677
0.175896 -0.0868009 0.838507
0.175876 -0.0881607 0.837212
0.175847 -0.0895126 0.835877
0.175894 -0.0908934 0.834884
0.175975 -0.0922863 0.834046
0.17606 -0.0936792 0.833231
0.176132 -0.0950635 0.832355
0.176232 -0.0964589 0.831611
0.176347 -0.0978586 0.830929
0.176461 -0.0992567 0.830249
0.17662 -0.100675 0.82977
0.176895 -0.102148 0.8298
0.17716 -0.103616 0.829789
0.177556 -0.105151 0.830351
0.17799 -0.106707 0.831081
0.178436 -0.108272 0.831863
0.178863 -0.10983 0.832555
0.17932 -0.111406 0.83338
0.179677 -0.112932 0.833763
0.179977 -0.114429 0.833899
0.180235 -0.115903 0.833846
0.180379 -0.117314 0.833299
0.180495 -0.118708 0.832628
0.18055 -0.120066 0.831697
0.180532 -0.121379 0.83045
0.180454 -0.122654 0.828944
0.180367 -0.123919 0.827407
0.180297 -0.12519 0.825944
0.18022 -0.126453 0.824455
0.180221 -0.127759 0.82331
0.180244 -0.129075 0.822257
0.180338 -0.130433 0.821515
0.180399 -0.131768 0.820632
0.180557 -0.133163 0.820165
0.180776 -0.134595 0.819962
0.181038 -0.136056 0.819942
0.181299 -0.137516 0.819918
0.181571 -0.138983 0.819942
0.181817 -0.140434 0.819855
0.182031 -0.141863 0.81963
0.182266 -0.143307 0.819495
0.182487 -0.14474 0.819298
0.182722 -0.146183 0.819164
0.182939 -0.147614 0.818953
0.183176 -0.149058 0.818828
0.183453 -0.150531 0.818869
0.183773 -0.152035 0.819091
0.18413 -0.153568 0.819469
0.184526 -0.15513 0.82001
0.184943 -0.15671 0.820638
0.185367 -0.158298 0.821291
0.185829 -0.159917 0.8221
0.186315 -0.161555 0.823007
0.186802 -0.163199 0.823919
0.187309 -0.164861 0.82491
0.187795 -0.16651 0.825811
0.188243 -0.168132 0.826549
0.18857 -0.169662 0.826784
0.188867 -0.171168 0.826892
0.18916 -0.172672 0.826985
0.189657 -0.174342 0.82792
0.190322 -0.176152 0.829547
0.191173 -0.178119 0.831934
0.19215 -0.180198 0.834834
0.193178 -0.182329 0.83794
0.194158 -0.184429 0.840834
0.194984 -0.186408 0.843093
0.195721 -0.188318 0.844977
0.197314 -0.190969 0.850362
0.179036 -0.0739898 0.865043
0.181673 -0.0741036 0.869937
0.18156 -0.0755001 0.868166
0.18125 -0.0768233 0.865521
0.180521 -0.0779894 0.860993
0.17985 -0.0791627 0.856741
0.179125 -0.0803027 0.852259
0.178473 -0.081456 0.848111
0.177961 -0.0826503 0.844603
0.177792 -0.0839683 0.84264
0.17766 -0.0852944 0.84084
0.17763 -0.0866572 0.839505
0.177571 -0.0880039 0.838041
0.177519 -0.0893494 0.836613
0.17756 -0.0907302 0.8356
0.17762 -0.0921164 0.834671
0.177721 -0.0935185 0.833931
0.17781 -0.0949128 0.833135
0.177931 -0.0963198 0.832483
0.178066 -0.0977318 0.831897
0.178205 -0.099144 0.831327
0.178387 -0.100575 0.830948
0.178684 -0.102061 0.831073
0.178973 -0.103544 0.831164
0.179391 -0.105091 0.831816
0.17985 -0.106662 0.832645
0.180299 -0.108231 0.833431
0.180707 -0.109781 0.834031
0.181157 -0.111355 0.834815
0.181457 -0.112853 0.834945
0.181736 -0.11434 0.834984
0.181974 -0.115805 0.834842
0.182116 -0.117218 0.834287
0.182212 -0.118604 0.833532
0.182283 -0.119974 0.832676
0.18226 -0.121287 0.831413
0.18216 -0.122554 0.829826
0.182068 -0.123819 0.828272
0.181975 -0.12508 0.826719
0.181875 -0.126333 0.825143
0.181858 -0.127631 0.823924
0.181898 -0.12896 0.822952
0.181975 -0.13031 0.822137
0.182035 -0.131647 0.821256
0.182188 -0.133041 0.820772
0.182419 -0.134482 0.820617
0.182666 -0.135934 0.82053
0.182909 -0.137383 0.820427
0.183181 -0.138852 0.820449
0.18341 -0.140293 0.820289
0.18359 -0.141701 0.819921
0.183808 -0.143133 0.819712
0.184045 -0.144579 0.819583
0.184281 -0.146024 0.819455
0.184536 -0.147482 0.819402
0.184812 -0.148954 0.819436
0.185109 -0.150443 0.819562
0.185448 -0.151962 0.819857
0.185845 -0.153523 0.820397
0.186249 -0.155092 0.820965
0.186671 -0.156677 0.821605
0.18713 -0.158292 0.822399
0.187594 -0.159912 0.823207
0.188063 -0.161539 0.824036
0.188554 -0.163186 0.824953
0.189046 -0.164837 0.825869
0.189494 -0.166457 0.826606
0.18994 -0.168078 0.827327
0.190285 -0.169622 0.827635
0.190628 -0.171167 0.827929
0.191004 -0.172739 0.828359
0.191591 -0.17448 0.829653
0.192291 -0.176319 0.831406
0.193152 -0.178294 0.833816
0.194111 -0.180356 0.836617
0.195085 -0.18244 0.839473
0.196006 -0.184488 0.842103
0.196791 -0.186431 0.844176
0.197927 -0.188677 0.847667
0.200017 -0.191745 0.855024
0.184814 -0.0729223 0.878264
0.184162 -0.0741594 0.874081
0.183793 -0.0754789 0.871177
0.183599 -0.0768491 0.869058
0.182934 -0.0780479 0.864846
0.1822 -0.0792091 0.860342
0.181317 -0.0803015 0.855182
0.18051 -0.0814063 0.850376
0.179852 -0.0825526 0.846244
0.179612 -0.0838478 0.843974
0.179454 -0.0851681 0.842072
0.179388 -0.08652 0.840582
0.17929 -0.0878544 0.838956
0.179234 -0.0892016 0.837519
0.17925 -0.0905749 0.836402
0.179271 -0.091947 0.835308
0.179367 -0.0933488 0.834546
0.179469 -0.0947515 0.833815
0.179576 -0.0961542 0.833103
0.179753 -0.0975872 0.832701
0.179934 -0.099021 0.832315
0.180156 -0.100473 0.83211
0.180457 -0.101964 0.832251
0.180798 -0.103474 0.832564
0.181237 -0.105033 0.833299
0.181683 -0.106599 0.834061
0.182129 -0.108168 0.834824
0.182533 -0.109717 0.8354
0.182944 -0.111274 0.836009
0.183208 -0.112754 0.835976
0.183486 -0.114243 0.836006
0.183706 -0.115701 0.835787
0.183847 -0.117116 0.835231
0.183943 -0.118504 0.83448
0.183995 -0.119866 0.833545
0.183954 -0.121173 0.832211
0.18385 -0.12244 0.830613
0.183755 -0.123708 0.829062
0.183643 -0.124962 0.827436
0.183556 -0.126225 0.825923
0.183552 -0.127534 0.824767
0.183573 -0.128855 0.823718
0.183648 -0.130206 0.822901
0.183721 -0.131554 0.822077
0.183871 -0.132947 0.821577
0.184065 -0.134368 0.821269
0.184307 -0.135818 0.821161
0.184532 -0.137258 0.820982
0.184788 -0.138717 0.820932
0.185003 -0.14015 0.820711
0.185183 -0.141559 0.820345
0.185401 -0.142993 0.820136
0.185637 -0.144439 0.820005
0.185875 -0.145886 0.819879
0.186133 -0.147347 0.819838
0.186428 -0.148834 0.819949
0.186745 -0.150337 0.820156
0.187106 -0.151872 0.820539
0.18753 -0.153454 0.821185
0.187957 -0.155041 0.82184
0.188404 -0.156644 0.822577
0.188867 -0.158262 0.823377
0.189312 -0.159868 0.8241
0.189781 -0.161496 0.824917
0.190252 -0.163128 0.825744
0.190743 -0.164779 0.826651
0.191176 -0.166387 0.827313
0.191643 -0.168025 0.828116
0.192012 -0.169589 0.828516
0.192417 -0.171183 0.829058
0.192847 -0.172798 0.829702
0.193508 -0.174599 0.831287
0.194257 -0.176477 0.833224
0.195144 -0.178471 0.835717
0.196089 -0.180521 0.838437
0.197026 -0.182573 0.841118
0.197885 -0.184568 0.843475
0.198605 -0.186456 0.845266
0.200133 -0.189026 0.850315
0.186629 -0.0727455 0.879314
0.185806 -0.0739326 0.874401
0.185504 -0.0752778 0.871816
0.185315 -0.0766532 0.869734
0.184767 -0.0778978 0.866071
0.18407 -0.0790786 0.86176
0.183218 -0.0801895 0.856773
0.182367 -0.0812857 0.851809
0.181709 -0.0824383 0.847702
0.181382 -0.0837052 0.845067
0.181179 -0.0850122 0.842979
0.181112 -0.0863669 0.841493
0.181032 -0.0877121 0.839956
0.180973 -0.089061 0.83851
0.180949 -0.0904211 0.837228
0.180925 -0.0917767 0.835941
0.18098 -0.0931634 0.835008
0.181063 -0.0945591 0.834192
0.181188 -0.095972 0.833567
0.181403 -0.0974238 0.83333
0.181623 -0.0988771 0.833113
0.181867 -0.100341 0.833
0.182166 -0.101832 0.83313
0.182526 -0.103353 0.83352
0.182965 -0.104913 0.834243
0.183393 -0.106472 0.834923
0.183821 -0.108032 0.835601
0.184222 -0.109582 0.836158
0.184598 -0.11112 0.836607
0.184845 -0.112594 0.836503
0.185127 -0.114086 0.836548
0.185347 -0.115545 0.836326
0.185488 -0.116961 0.835769
0.185584 -0.118352 0.835023
0.185635 -0.119716 0.83409
0.185611 -0.121035 0.832835
0.185525 -0.122316 0.831327
0.185452 -0.1236 0.829872
0.185339 -0.124856 0.828254
0.185267 -0.126133 0.826815
0.18524 -0.127431 0.825565
0.185254 -0.128751 0.824493
0.185326 -0.130103 0.823668
0.185384 -0.131443 0.822782
0.185494 -0.132814 0.822119
0.185667 -0.134223 0.821723
0.185868 -0.135649 0.821441
0.186075 -0.137078 0.821188
0.186347 -0.138548 0.821202
0.186582 -0.139995 0.821063
0.186779 -0.141417 0.820769
0.187014 -0.142863 0.820632
0.18725 -0.144311 0.820499
0.187489 -0.145759 0.820375
0.187766 -0.147235 0.820414
0.188066 -0.148726 0.820543
0.188408 -0.150247 0.820844
0.18879 -0.151799 0.821313
0.189236 -0.153396 0.822041
0.18967 -0.154989 0.822718
0.190141 -0.156609 0.823543
0.190589 -0.158217 0.824272
0.191016 -0.159811 0.824916
0.191464 -0.161424 0.82564
0.191932 -0.163053 0.826448
0.192406 -0.164691 0.827274
0.192862 -0.166316 0.828023
0.193371 -0.167987 0.828991
0.193786 -0.169587 0.829571
0.194243 -0.171222 0.830316
0.194761 -0.172908 0.831309
0.195473 -0.174749 0.833084
0.196231 -0.176634 0.835043
0.197123 -0.178631 0.837531
0.19803 -0.180649 0.840078
0.198891 -0.182637 0.842431
0.19967 -0.184566 0.844447
0.200325 -0.186398 0.845959
0.202243 -0.189284 0.852533
0.188418 -0.0725581 0.880226
0.187461 -0.0737084 0.874761
0.18716 -0.0750568 0.872193
0.186954 -0.0764295 0.870053
0.186489 -0.0777071 0.866784
0.185852 -0.078914 0.862764
0.185037 -0.0800448 0.857977
0.184218 -0.0811595 0.853187
0.183586 -0.0823284 0.849224
0.183177 -0.0835695 0.846244
0.18295 -0.0848713 0.844064
0.182861 -0.0862212 0.842494
0.182779 -0.087569 0.840955
0.182717 -0.0889204 0.839507
0.182671 -0.090274 0.838131
0.182605 -0.0916156 0.836674
0.182616 -0.0929856 0.835551
0.182676 -0.0943738 0.834643
0.182781 -0.0957794 0.833932
0.182999 -0.0972336 0.833707
0.183236 -0.0986961 0.833565
0.18348 -0.100162 0.833452
0.18376 -0.101645 0.833499
0.1841 -0.103156 0.833795
0.184502 -0.104699 0.834358
0.184896 -0.10624 0.834882
0.185306 -0.107792 0.835477
0.185688 -0.109331 0.835948
0.186067 -0.110871 0.836406
0.186335 -0.112355 0.836389
0.186638 -0.113858 0.83652
0.186897 -0.115339 0.836468
0.187058 -0.116767 0.835997
0.187172 -0.118169 0.835333
0.187223 -0.119535 0.8344
0.187214 -0.120865 0.833219
0.187126 -0.122148 0.83171
0.187091 -0.123456 0.830424
0.186982 -0.124718 0.828833
0.186927 -0.126007 0.827474
0.186914 -0.127316 0.826289
0.186945 -0.128649 0.825294
0.187037 -0.130016 0.824553
0.18715 -0.131393 0.823905
0.187283 -0.132781 0.82334
0.187456 -0.134193 0.82294
0.187632 -0.135605 0.822557
0.187794 -0.137008 0.822112
0.188009 -0.138444 0.821892
0.188225 -0.13988 0.821672
0.188404 -0.141292 0.821303
0.188639 -0.142739 0.821163
0.188873 -0.144187 0.821021
0.189114 -0.145638 0.820905
0.189393 -0.147116 0.82095
0.189695 -0.14861 0.821085
0.190056 -0.150145 0.821463
0.190443 -0.1517 0.821945
0.190912 -0.153314 0.822757
0.191365 -0.15492 0.823504
0.191838 -0.156542 0.82433
0.192269 -0.158138 0.824982
0.192696 -0.159733 0.82562
0.193123 -0.16133 0.826252
0.193594 -0.162962 0.827061
0.194111 -0.164631 0.828055
0.194612 -0.166292 0.82898
0.195172 -0.168001 0.830141
0.195654 -0.169652 0.830981
0.196176 -0.171339 0.831984
0.196743 -0.173064 0.833165
0.197464 -0.174913 0.83496
0.198206 -0.176784 0.836831
0.199056 -0.178747 0.839135
0.199906 -0.180718 0.841427
0.200709 -0.182658 0.843531
0.201451 -0.184554 0.84538
0.202082 -0.186367 0.846787
0.204381 -0.189557 0.854826
0.190266 -0.0716649 0.889653
0.192193 -0.0707646 0.899448
0.193104 -0.0702957 0.896344
0.191532 -0.0713069 0.888181
0.190067 -0.0723253 0.880507
0.189013 -0.07345 0.874655
0.188702 -0.0747979 0.872067
0.188473 -0.0761651 0.869842
0.188048 -0.0774588 0.866765
0.18745 -0.0786833 0.862946
0.186681 -0.0798355 0.858394
0.185919 -0.0809762 0.853887
0.185321 -0.0821629 0.8501
0.184883 -0.0833977 0.847015
0.184667 -0.0847076 0.844898
0.184556 -0.0860519 0.84324
0.184473 -0.0874024 0.841705
0.184411 -0.088757 0.840268
0.184361 -0.0901118 0.83888
0.184251 -0.091438 0.837243
0.184234 -0.0927988 0.836007
0.18425 -0.0941704 0.834919
0.184334 -0.095568 0.834117
0.184533 -0.097015 0.833815
0.184772 -0.0984792 0.83368
0.184995 -0.0999363 0.83348
0.185255 -0.10141 0.833434
0.185573 -0.102911 0.833634
0.185938 -0.104436 0.834033
0.186293 -0.105957 0.83439
0.186684 -0.107498 0.834898
0.187047 -0.109027 0.835286
0.187427 -0.110566 0.835744
0.187716 -0.112061 0.835816
0.188061 -0.113584 0.83612
0.188363 -0.115087 0.836247
0.188564 -0.116538 0.835949
0.188699 -0.117952 0.835373
0.188784 -0.119338 0.834589
0.188792 -0.12068 0.833489
0.188741 -0.121985 0.832142
0.188746 -0.123318 0.831031
0.188673 -0.124604 0.8296
0.188642 -0.12591 0.828344
0.188647 -0.127234 0.827243
0.188697 -0.128581 0.826332
0.188812 -0.129964 0.825689
0.188971 -0.131372 0.82523
0.18913 -0.132779 0.824774
0.189318 -0.134202 0.824436
0.189471 -0.135604 0.823959
0.189605 -0.136992 0.823399
0.189778 -0.138404 0.823006
0.189954 -0.139817 0.822622
0.190095 -0.141207 0.822096
0.190329 -0.142655 0.82195
0.190547 -0.144094 0.82174
0.190786 -0.145546 0.821618
0.191085 -0.147038 0.821737
0.191405 -0.148546 0.821943
0.191771 -0.150085 0.822335
0.192178 -0.151655 0.822892
0.192629 -0.153257 0.823627
0.193063 -0.15485 0.824288
0.193533 -0.156471 0.825095
0.193945 -0.158053 0.825663
0.194353 -0.159635 0.826215
0.194782 -0.161233 0.826847
0.195295 -0.162897 0.827819
0.195843 -0.164589 0.828927
0.196418 -0.166304 0.83014
0.197048 -0.168065 0.83157
0.197597 -0.16977 0.832672
0.198146 -0.171479 0.833771
0.198718 -0.173208 0.834958
0.199402 -0.175028 0.836587
0.2001 -0.176865 0.838271
0.200886 -0.178777 0.840298
0.201692 -0.18071 0.842401
0.202477 -0.182634 0.844412
0.203203 -0.184516 0.846182
0.203966 -0.186434 0.848097
0.206624 -0.189906 0.857497
0.191525 -0.0720327 0.879951
0.190409 -0.0731423 0.873871
0.190106 -0.074494 0.871334
0.189907 -0.0758724 0.869258
0.189539 -0.0771874 0.866452
0.188988 -0.0784312 0.862863
0.188301 -0.0796166 0.8587
0.187614 -0.0807886 0.854543
0.187034 -0.0819868 0.850859
0.186589 -0.0832236 0.847767
0.186387 -0.0845425 0.845724
0.186252 -0.0858807 0.843971
0.186147 -0.0872259 0.842355
0.186081 -0.0885814 0.840905
0.186011 -0.0899315 0.839447
0.185897 -0.0912588 0.837799
0.185838 -0.0926045 0.836392
0.185825 -0.0939656 0.835183
0.185884 -0.0953545 0.834284
0.186044 -0.0967853 0.833817
0.186247 -0.098234 0.833529
0.186448 -0.0996814 0.833235
0.186668 -0.101136 0.833017
0.186961 -0.102626 0.833114
0.187305 -0.10414 0.833419
0.187619 -0.105641 0.833602
0.187988 -0.107169 0.83401
0.188346 -0.108694 0.834376
0.188688 -0.110213 0.834669
0.18898 -0.111707 0.834753
0.189367 -0.113252 0.835236
0.189715 -0.114777 0.835549
0.189961 -0.11625 0.835441
0.190156 -0.117697 0.835118
0.190282 -0.119105 0.83451
0.190311 -0.12046 0.833502
0.190298 -0.121789 0.83232
0.190323 -0.123135 0.831301
0.19029 -0.124446 0.830042
0.190298 -0.125777 0.828958
0.190363 -0.127138 0.828109
0.190438 -0.128502 0.827304
0.190596 -0.129913 0.826841
0.190779 -0.131338 0.82648
0.190961 -0.132762 0.82612
0.191138 -0.134182 0.825737
0.191287 -0.135584 0.825242
0.191396 -0.13696 0.824583
0.191543 -0.138358 0.824081
0.191695 -0.139759 0.8236
0.191833 -0.141149 0.823062
0.192066 -0.142599 0.822913
0.192284 -0.144039 0.8227
0.192524 -0.145494 0.822578
0.192823 -0.146988 0.822699
0.193144 -0.148497 0.822903
0.19351 -0.150038 0.823287
0.1939 -0.151597 0.823771
0.194332 -0.153187 0.824419
0.194745 -0.154766 0.824991
0.195196 -0.156373 0.825713
0.195568 -0.157928 0.826113
0.195975 -0.159508 0.826655
0.196424 -0.161122 0.827365
0.196987 -0.162821 0.828526
0.197589 -0.164552 0.829839
0.198297 -0.166365 0.831569
0.199023 -0.168199 0.833369
0.199622 -0.169942 0.834657
0.200174 -0.171654 0.835758
0.200742 -0.173382 0.836916
0.201342 -0.175139 0.8382
0.201957 -0.176911 0.839539
0.202677 -0.178769 0.841287
0.203458 -0.180682 0.843272
0.204227 -0.182591 0.845205
0.205068 -0.184564 0.847413
0.206008 -0.186624 0.85001
0.208455 -0.189912 0.858506
0.192448 -0.0715778 0.877084
0.191553 -0.0727573 0.87201
0.191451 -0.0741722 0.870357
0.191248 -0.0755497 0.868276
0.190935 -0.0768844 0.865728
0.190426 -0.0781447 0.862345
0.189837 -0.0793674 0.858634
0.189228 -0.0805711 0.854843
0.188702 -0.0817926 0.851413
0.188255 -0.0830328 0.848332
0.188049 -0.0843537 0.846288
0.18787 -0.0856783 0.84436
0.187758 -0.0870231 0.842721
0.187669 -0.0883721 0.841184
0.187598 -0.0897239 0.839729
0.187483 -0.0910535 0.83809
0.187403 -0.0923928 0.836603
0.187347 -0.0937376 0.835219
0.187379 -0.0951166 0.834213
0.187479 -0.0965219 0.833493
0.187641 -0.0979524 0.833033
0.187819 -0.0993893 0.832642
0.187996 -0.100825 0.83225
0.188248 -0.102294 0.83217
0.18855 -0.103788 0.832303
0.188841 -0.105276 0.832385
0.189166 -0.106781 0.832608
0.189501 -0.108293 0.832875
0.18984 -0.109808 0.833155
0.190151 -0.111309 0.833317
0.190544 -0.112854 0.83382
0.190916 -0.11439 0.834235
0.191207 -0.115885 0.834311
0.191446 -0.117354 0.834174
0.191619 -0.118787 0.833764
0.19171 -0.120175 0.833018
0.191779 -0.12155 0.832182
0.191882 -0.122941 0.831487
0.191913 -0.12429 0.8305
0.19198 -0.125656 0.82966
0.19209 -0.127045 0.829
0.192204 -0.128435 0.828358
0.192382 -0.129861 0.827979
0.192585 -0.1313 0.827701
0.192787 -0.132738 0.827421
0.192966 -0.134162 0.827046
0.193099 -0.135557 0.826483
0.193188 -0.136924 0.825747
0.193312 -0.138311 0.825152
0.193442 -0.1397 0.824584
0.193596 -0.141103 0.82411
0.193828 -0.142555 0.823957
0.194046 -0.143997 0.823744
0.194288 -0.145455 0.823627
0.194586 -0.14695 0.823738
0.194892 -0.148451 0.823878
0.195258 -0.149993 0.824259
0.195648 -0.151554 0.824736
0.196061 -0.153131 0.825303
0.196472 -0.15471 0.82586
0.196903 -0.156303 0.826491
0.197275 -0.157859 0.826888
0.197687 -0.159445 0.827446
0.19818 -0.161089 0.828319
0.198791 -0.162822 0.82966
0.199464 -0.164605 0.831242
0.20025 -0.166476 0.833268
0.201032 -0.16835 0.835271
0.201641 -0.170102 0.836589
0.202172 -0.1718 0.837591
0.202694 -0.173494 0.838557
0.203227 -0.175201 0.839564
0.203796 -0.176938 0.84071
0.204495 -0.17878 0.842362
0.205304 -0.180713 0.844441
0.206189 -0.182712 0.84681
0.207165 -0.184791 0.849529
0.208272 -0.186983 0.852753
0.21045 -0.190045 0.860142
0.193791 -0.0712533 0.876057
0.193086 -0.0724937 0.87183
0.192895 -0.0738825 0.86981
0.192664 -0.0752524 0.867628
0.192369 -0.0765943 0.865171
0.191881 -0.0778644 0.861905
0.191352 -0.0791102 0.858471
0.19082 -0.0803445 0.855036
0.190349 -0.0815897 0.851865
0.189923 -0.0828414 0.848893
0.189713 -0.0841639 0.846845
0.189491 -0.0854753 0.844745
0.189346 -0.0868103 0.842982
0.189212 -0.088144 0.841265
0.189121 -0.0894896 0.839732
0.188989 -0.0908146 0.838034
0.18891 -0.0921559 0.836558
0.18883 -0.0934929 0.835087
0.188818 -0.0948539 0.833899
0.188873 -0.0962405 0.832995
0.188989 -0.0976516 0.832351
0.189124 -0.0990692 0.831784
0.189256 -0.100484 0.831207
0.189489 -0.101943 0.831047
0.189751 -0.103416 0.831011
0.19004 -0.104902 0.831088
0.190343 -0.106395 0.831218
0.190656 -0.107894 0.831391
0.190974 -0.109396 0.831583
0.191303 -0.110905 0.831822
0.191696 -0.112447 0.832322
0.19209 -0.113991 0.83282
0.192421 -0.115505 0.833062
0.192704 -0.116995 0.833106
0.192924 -0.118452 0.832892
0.193061 -0.119865 0.832338
0.193214 -0.121285 0.831851
0.193383 -0.122713 0.83143
0.193499 -0.124111 0.830797
0.193614 -0.125506 0.830157
0.193784 -0.126931 0.829742
0.193915 -0.128333 0.829171
0.194093 -0.12976 0.828791
0.19431 -0.13121 0.828569
0.194549 -0.132672 0.828436
0.194747 -0.13411 0.828138
0.194901 -0.135521 0.827665
0.195029 -0.136915 0.827087
0.195155 -0.138305 0.8265
0.195286 -0.139698 0.825937
0.195442 -0.141106 0.825474
0.195678 -0.142562 0.82533
0.195896 -0.144008 0.825119
0.196137 -0.145468 0.824995
0.196418 -0.146954 0.825035
0.196703 -0.148443 0.825088
0.197091 -0.150002 0.825549
0.197504 -0.151579 0.826111
0.19792 -0.15316 0.826684
0.198354 -0.154756 0.827323
0.198806 -0.156366 0.828032
0.19916 -0.157912 0.828354
0.199575 -0.1595 0.828911
0.200115 -0.16118 0.829965
0.200779 -0.162952 0.831499
0.201523 -0.164786 0.833347
0.202362 -0.166696 0.835562
0.203172 -0.168592 0.83766
0.20377 -0.170337 0.838919
0.204238 -0.17199 0.839663
0.204669 -0.173619 0.840265
0.205235 -0.175352 0.84139
0.205879 -0.177147 0.842813
0.206664 -0.179055 0.844786
0.207579 -0.18107 0.847257
0.208588 -0.183167 0.850089
0.209589 -0.185266 0.852881
0.210703 -0.187463 0.8561
0.194583 -0.0722194 0.8715
0.19434 -0.0735936 0.869275
0.194102 -0.0749624 0.867073
0.1938 -0.0763038 0.864607
0.193331 -0.0775825 0.861444
0.192846 -0.0788458 0.85822
0.192374 -0.0801041 0.855063
0.191946 -0.0813676 0.852095
0.191537 -0.0826289 0.849216
0.191306 -0.0839463 0.847089
0.191052 -0.0852488 0.844872
0.190859 -0.0865677 0.842916
0.190678 -0.0878855 0.841017
0.190564 -0.0892236 0.839399
0.190448 -0.0905565 0.837779
0.190368 -0.0918989 0.83631
0.190287 -0.0932367 0.834841
0.190251 -0.0945893 0.833566
0.190262 -0.0959577 0.832482
0.190312 -0.0973403 0.831566
0.190402 -0.098738 0.830818
0.190493 -0.100134 0.830077
0.190706 -0.101583 0.829838
0.190947 -0.103045 0.829716
0.191218 -0.104521 0.829715
0.19152 -0.106011 0.829842
0.191837 -0.10751 0.830031
0.192137 -0.109002 0.830149
0.192464 -0.110507 0.830378
0.192855 -0.112045 0.830865
0.193245 -0.113585 0.831347
0.193594 -0.115106 0.83166
0.193919 -0.116616 0.831875
0.194201 -0.118105 0.831914
0.194403 -0.119551 0.83163
0.194639 -0.121016 0.83148
0.194879 -0.122482 0.831351
0.195086 -0.12393 0.831084
0.195267 -0.125364 0.830717
0.195496 -0.126824 0.83054
0.195647 -0.128239 0.830051
0.195821 -0.129667 0.829656
0.196019 -0.131107 0.829356
0.196256 -0.132571 0.829216
0.196435 -0.133999 0.828841
0.196591 -0.135412 0.828373
0.196738 -0.13682 0.827875
0.196888 -0.138228 0.827385
0.197024 -0.139627 0.826844
0.197203 -0.141051 0.826473
0.19744 -0.14251 0.826336
0.197661 -0.14396 0.82613
0.19794 -0.145446 0.826157
0.198281 -0.146974 0.826433
0.198628 -0.148506 0.826728
0.199062 -0.150096 0.827364
0.19952 -0.151706 0.828093
0.199923 -0.153282 0.828607
0.200322 -0.154855 0.829101
0.200734 -0.156441 0.829646
0.20107 -0.157975 0.829889
0.201468 -0.159554 0.830375
0.202059 -0.16127 0.831614
0.202771 -0.163078 0.833327
0.203572 -0.164953 0.835379
0.204479 -0.166911 0.837839
0.205338 -0.168843 0.840106
0.205911 -0.170572 0.841255
0.206312 -0.172178 0.841732
0.206713 -0.173788 0.84221
0.207289 -0.175528 0.843359
0.207995 -0.177372 0.845012
0.208903 -0.179374 0.847443
0.209936 -0.181481 0.850347
0.211008 -0.183627 0.853397
0.211995 -0.185715 0.856109
0.213059 -0.187874 0.85911
0.196021 -0.071927 0.870917
0.195769 -0.0732999 0.86867
0.195543 -0.0746739 0.866537
0.195256 -0.0760219 0.864153
0.194825 -0.0773152 0.861169
0.19438 -0.0785951 0.85814
0.193953 -0.0798712 0.855186
0.193564 -0.0811518 0.852404
0.193171 -0.0824222 0.84961
0.192897 -0.0837274 0.847321
0.192611 -0.085021 0.844986
0.19237 -0.0863241 0.842842
0.192143 -0.0876263 0.840762
0.192005 -0.0889568 0.839057
0.191904 -0.0902968 0.837507
0.191819 -0.091639 0.836032
0.191737 -0.0929778 0.834569
0.191683 -0.0943236 0.833222
0.19165 -0.095675 0.83197
0.191635 -0.0970304 0.830793
0.19168 -0.0984081 0.829863
0.191727 -0.0997848 0.828947
0.191921 -0.101224 0.82863
0.192164 -0.102685 0.828516
0.192434 -0.104159 0.828514
0.192738 -0.105649 0.828648
0.193058 -0.107147 0.828847
0.193341 -0.108629 0.828896
0.193648 -0.110123 0.829042
0.194014 -0.111647 0.829425
0.194384 -0.113174 0.829822
0.194732 -0.114692 0.830133
0.195098 -0.116221 0.830512
0.195422 -0.117729 0.830719
0.195685 -0.119207 0.830684
0.196025 -0.120726 0.830956
0.196373 -0.122249 0.831255
0.196689 -0.123758 0.83143
0.196979 -0.125253 0.831499
0.197293 -0.126761 0.831662
0.197464 -0.128191 0.831256
0.197638 -0.129621 0.830859
0.197796 -0.131041 0.830401
0.197993 -0.132483 0.830097
0.198131 -0.13389 0.829561
0.198266 -0.135293 0.82901
0.198396 -0.136692 0.828443
0.198566 -0.138114 0.828037
0.198743 -0.13954 0.827659
0.198966 -0.140993 0.827462
0.199227 -0.14247 0.827414
0.199525 -0.14397 0.827517
0.19985 -0.145488 0.82772
0.200221 -0.147037 0.828107
0.200597 -0.148591 0.828512
0.201077 -0.150214 0.829322
0.201524 -0.151818 0.83
0.201934 -0.153401 0.830533
0.202334 -0.154979 0.831023
0.202744 -0.156565 0.831553
0.203078 -0.158101 0.831782
0.203537 -0.159724 0.832496
0.204199 -0.161492 0.834
0.20495 -0.163327 0.835848
0.205786 -0.165229 0.838017
0.206719 -0.167206 0.840557
0.207561 -0.169126 0.842739
0.208093 -0.170829 0.843716
0.208473 -0.172424 0.844106
0.208893 -0.174049 0.844647
0.209496 -0.175813 0.845891
0.210251 -0.177693 0.847713
0.211265 -0.179777 0.850529
0.212347 -0.181922 0.853598
0.213404 -0.184056 0.856563
0.214344 -0.186109 0.859069
0.215183 -0.188092 0.861187
0.197197 -0.0730062 0.868065
0.19697 -0.0743811 0.865942
0.196699 -0.0757357 0.863642
0.196323 -0.0770493 0.860912
0.195921 -0.0783456 0.858077
0.195536 -0.079639 0.855321
0.195203 -0.0809422 0.852792
0.194806 -0.0822146 0.849998
0.194462 -0.0834979 0.847435
0.194129 -0.0847771 0.844921
0.193859 -0.086072 0.842673
0.193589 -0.0873598 0.840428
0.193447 -0.0886903 0.838718
0.193343 -0.0900306 0.837168
0.193256 -0.0913732 0.835693
0.193156 -0.0927059 0.834165
0.193077 -0.0940431 0.83273
0.193002 -0.0953775 0.831311
0.19296 -0.096722 0.830033
0.192959 -0.0980802 0.828923
0.192986 -0.0994477 0.82793
0.19314 -0.100868 0.827452
0.193342 -0.10231 0.827177
0.193606 -0.103779 0.827149
0.19393 -0.105277 0.827364
0.194254 -0.106775 0.827576
0.194561 -0.108266 0.82772
0.194902 -0.109775 0.828004
0.195227 -0.111277 0.828219
0.195574 -0.112791 0.828522
0.195924 -0.114308 0.828835
0.196314 -0.115847 0.829311
0.196664 -0.117367 0.829622
0.19701 -0.118886 0.829916
0.197436 -0.120449 0.830531
0.197891 -0.122029 0.831258
0.198319 -0.123598 0.831875
0.19874 -0.125165 0.83246
0.199127 -0.126716 0.832911
0.199346 -0.128175 0.832694
0.19954 -0.129619 0.832378
0.199693 -0.13104 0.831896
0.199865 -0.13247 0.831496
0.19998 -0.133866 0.830866
0.200109 -0.13527 0.830297
0.200234 -0.136669 0.82971
0.200404 -0.138094 0.829303
0.200603 -0.139536 0.82901
0.200868 -0.141017 0.828978
0.201154 -0.142512 0.829026
0.201479 -0.144032 0.82923
0.20183 -0.14557 0.829532
0.202213 -0.147129 0.829956
0.202604 -0.148694 0.830412
0.203093 -0.150326 0.831251
0.203542 -0.151934 0.831925
0.203946 -0.153515 0.832429
0.204343 -0.155093 0.832902
0.204776 -0.156697 0.83351
0.20515 -0.158263 0.833889
0.205658 -0.159923 0.834789
0.206374 -0.161729 0.836484
0.207139 -0.163576 0.838367
0.207983 -0.165484 0.840549
0.208861 -0.167422 0.842856
0.209665 -0.169317 0.844872
0.210162 -0.170996 0.845705
0.210544 -0.172594 0.846093
0.210952 -0.174213 0.84658
0.211603 -0.176014 0.847996
0.212434 -0.177952 0.850094
0.213522 -0.18009 0.853167
0.214613 -0.182241 0.856246
0.215668 -0.184373 0.859176
0.216435 -0.186295 0.861009
0.198369 -0.0740806 0.865241
0.198121 -0.0754434 0.86305
0.197824 -0.0767839 0.860663
0.197465 -0.0780971 0.85803
0.197124 -0.079408 0.855473
0.196806 -0.0807187 0.853017
0.196399 -0.0819912 0.850202
0.195985 -0.0832528 0.84737
0.195624 -0.0845245 0.844758
0.195309 -0.085805 0.84234
0.195014 -0.0870856 0.84001
0.194851 -0.0884094 0.838226
0.194746 -0.0897505 0.836683
0.19466 -0.0910942 0.835218
0.194556 -0.0924268 0.833687
0.194473 -0.0937633 0.832244
0.194391 -0.095096 0.830808
0.194307 -0.0964237 0.829367
0.194263 -0.0977639 0.828088
0.194265 -0.0991209 0.827004
0.194354 -0.100513 0.826271
0.194515 -0.101935 0.825827
0.194755 -0.103391 0.825704
0.195058 -0.104877 0.825834
0.195382 -0.106373 0.826049
0.195709 -0.107871 0.826273
0.196072 -0.109388 0.826641
0.196435 -0.110906 0.827004
0.19682 -0.112438 0.827461
0.197213 -0.113974 0.827943
0.197628 -0.115524 0.828512
0.198023 -0.117065 0.828999
0.198417 -0.118609 0.829483
0.198892 -0.120196 0.830286
0.1994 -0.121803 0.831214
0.19994 -0.123431 0.832271
0.200476 -0.125061 0.833308
0.200963 -0.126667 0.834144
0.201272 -0.128178 0.834282
0.201529 -0.129661 0.83421
0.201676 -0.131082 0.833707
0.201822 -0.132502 0.833203
0.201907 -0.133885 0.832459
0.202011 -0.135277 0.831791
0.202114 -0.136666 0.831118
0.202299 -0.138104 0.830773
0.20252 -0.139562 0.830565
0.202814 -0.141063 0.830639
0.203126 -0.142577 0.830787
0.203477 -0.144116 0.831084
0.203833 -0.145659 0.831398
0.204222 -0.147224 0.831841
0.204611 -0.148792 0.832285
0.205078 -0.150411 0.833024
0.205521 -0.152018 0.833671
0.205946 -0.153615 0.834247
0.206366 -0.15521 0.834802
0.206828 -0.156836 0.835515
0.207254 -0.15844 0.836088
0.207819 -0.160141 0.837193
0.208526 -0.161943 0.838843
0.20926 -0.163768 0.840588
0.210055 -0.165643 0.842565
0.210885 -0.167549 0.844668
0.21165 -0.169414 0.846515
0.212154 -0.1711 0.847365
0.212548 -0.172709 0.847798
0.212986 -0.174352 0.84839
0.213617 -0.176139 0.849717
0.214375 -0.178024 0.851521
0.215385 -0.180102 0.854276
0.199485 -0.0751336 0.862224
0.199257 -0.0764969 0.860134
0.198947 -0.0778276 0.857718
0.198631 -0.0791491 0.855283
0.198308 -0.0804604 0.852824
0.197887 -0.0817307 0.849971
0.197423 -0.0829773 0.846955
0.197056 -0.0842491 0.844337
0.196737 -0.0855301 0.84192
0.196457 -0.0868183 0.839668
0.196311 -0.0881499 0.837962
0.196226 -0.0894999 0.836508
0.196142 -0.0908461 0.835063
0.196014 -0.0921708 0.833445
0.195923 -0.0935057 0.83198
0.195796 -0.094821 0.830368
0.195672 -0.0961332 0.828776
0.195605 -0.0974647 0.827416
0.195583 -0.0988117 0.82624
0.195606 -0.100175 0.82525
0.195717 -0.101574 0.824608
0.195911 -0.103009 0.824305
0.196171 -0.104473 0.82426
0.196499 -0.105968 0.824491
