ply
format ascii 1.0
element vertex 1677
property float x
property float y
property float z
end_header
0.232725 0.00782936 0.881276
0.234076 0.0076866 0.880207
0.235973 0.013851 0.879189
0.235871 0.0122733 0.879326
0.235751 0.0106958 0.879383
0.235595 0.00911947 0.879293
0.235454 0.00754336 0.879261
0.233849 0.00611357 0.879804
0.235239 0.00597033 0.878912
0.233679 0.00453975 0.879649
0.23504 0.00439825 0.878631
0.234897 0.00282473 0.878592
0.237539 0.015283 0.878471
0.237479 0.0137053 0.878786
0.237328 0.0121277 0.878714
0.237179 0.0105508 0.878655
0.237 0.00897502 0.87846
0.236859 0.00739925 0.878434
0.236641 0.00582679 0.878072
0.236441 0.00425515 0.877791
0.236261 0.00268383 0.877595
0.226905 -0.00746069 0.848139
0.227233 -0.0059599 0.848998
0.228656 -0.00763683 0.849029
0.226717 -0.00897356 0.847886
0.228439 -0.00914904 0.848655
0.226603 -0.0104938 0.84795
0.228243 -0.010662 0.848371
0.226509 -0.0120163 0.848103
0.228135 -0.0121846 0.848463
0.226444 -0.0135427 0.848379
0.228063 -0.0137118 0.848708
0.237706 0.0168615 0.87861
0.239237 0.016717 0.878309
0.239025 0.0151377 0.877982
0.238935 0.0135598 0.878168
0.238737 0.0119826 0.8779
0.238565 0.0104063 0.877745
0.238387 0.00883093 0.877559
0.238268 0.00725506 0.877622
0.238069 0.0056822 0.877348
0.237845 0.00411183 0.876968
0.237581 0.00254529 0.876418
0.237119 0.000992555 0.875029
0.230462 -0.0078187 0.850132
0.230114 -0.0093195 0.849208
0.229852 -0.0108267 0.848639
0.229707 -0.0123461 0.848576
0.229617 -0.0138722 0.848745
0.228075 -0.015251 0.849313
0.229604 -0.0154091 0.84924
0.22814 -0.0167998 0.850152
0.229669 -0.0169586 0.850071
0.240757 0.0165722 0.87796
0.240553 0.0149926 0.877668
0.24045 0.0134142 0.877801
0.24025 0.0118366 0.877527
0.240054 0.0102602 0.877272
0.239853 0.00868524 0.876991
0.239716 0.00710975 0.876979
0.239496 0.00553775 0.876625
0.239226 0.00396961 0.876056
0.238891 0.00240731 0.875209
0.238329 0.000861489 0.873409
0.237643 -0.00066947 0.871086
0.233009 -0.00653058 0.853787
0.232333 -0.00800714 0.851485
0.231858 -0.00949733 0.850028
0.23152 -0.0109983 0.849153
0.231289 -0.012509 0.848726
0.231149 -0.0140298 0.848682
0.23109 -0.0155611 0.848981
0.231114 -0.0171053 0.849633
0.229763 -0.0185151 0.851026
0.231212 -0.0186626 0.850598
0.229936 -0.0200872 0.852325
0.231408 -0.0202384 0.851981
0.242206 0.0164266 0.877309
0.242029 0.0148471 0.877135
0.241919 0.0132686 0.877239
0.241724 0.0116908 0.876991
0.241525 0.0101144 0.876719
0.241322 0.00853943 0.876437
0.241163 0.00696445 0.876333
0.240922 0.00539338 0.875892
0.24059 0.00382826 0.87507
0.240174 0.00227083 0.873893
0.239542 0.000730486 0.871818
0.238787 -0.000794127 0.869217
0.236693 -0.00217272 0.867645
0.237904 -0.00230014 0.866084
0.236803 -0.00377733 0.862036
0.235699 -0.00524011 0.857969
0.23475 -0.00670333 0.854546
0.234072 -0.00818198 0.852255
0.23354 -0.00966837 0.850571
0.233155 -0.0111659 0.849506
0.232875 -0.012672 0.848876
0.232707 -0.0141906 0.848718
0.232624 -0.0157198 0.848913
0.232627 -0.0172617 0.849474
0.232726 -0.0188199 0.850441
0.232881 -0.02039 0.851643
0.231693 -0.0218337 0.853747
0.233102 -0.0219748 0.853125
0.243658 0.016281 0.876672
0.243512 0.0147016 0.876625
0.243379 0.0131229 0.876634
0.243168 0.0115453 0.876319
0.24296 0.00996923 0.876022
0.24273 0.00839497 0.875626
0.242525 0.0068218 0.875336
0.24228 0.00525162 0.87488
0.241919 0.00368854 0.873945
0.241405 0.0021371 0.872374
0.240717 0.000601851 0.870077
0.239921 -0.000918031 0.867329
0.239074 -0.00242434 0.86437
0.238137 -0.00391284 0.861029
0.237251 -0.0053941 0.857898
0.236422 -0.00686946 0.855002
0.235776 -0.0083533 0.852859
0.235218 -0.009839 0.851081
0.234794 -0.0113338 0.849859
0.234446 -0.0128335 0.848958
0.23425 -0.0143494 0.848683
0.234144 -0.0158764 0.848784
0.234128 -0.0174165 0.849263
0.234211 -0.0189729 0.850155
0.23434 -0.0205392 0.85124
0.234493 -0.0221129 0.852426
0.233424 -0.0235816 0.855031
0.234744 -0.0237071 0.854024
0.233732 -0.0251925 0.856884
0.234985 -0.0253046 0.855581
0.233982 -0.026798 0.858494
0.235192 -0.0269009 0.856999
0.234224 -0.0284073 0.86007
0.235413 -0.0285043 0.858481
0.234477 -0.0300235 0.861691
0.235669 -0.0301194 0.860104
0.245025 0.0145562 0.87624
0.244879 0.0129771 0.876197
0.244664 0.0113993 0.875867
0.244417 0.00982365 0.875415
0.244157 0.0082502 0.8749
0.243902 0.00667881 0.874406
0.243608 0.005111 0.873754
0.243177 0.00355208 0.872537
0.242611 0.00200492 0.870759
0.24189 0.000473459 0.868347
0.241035 -0.00104047 0.865375
0.24019 -0.00254447 0.862443
0.239399 -0.0040425 0.859734
0.238688 -0.00553787 0.857345
0.238001 -0.00702687 0.855055
0.237364 -0.00851277 0.852969
0.236794 -0.00999849 0.851153
0.236343 -0.0114914 0.849832
0.23595 -0.0129864 0.848746
0.235711 -0.0144975 0.848302
0.235603 -0.0160247 0.848396
0.235571 -0.0175627 0.848801
0.235632 -0.0191159 0.849597
0.23574 -0.0206789 0.850587
0.235862 -0.0222473 0.851639
0.236025 -0.0238259 0.852862
0.236216 -0.0254134 0.854202
0.236419 -0.0270073 0.855592
0.236623 -0.0286059 0.856991
0.236861 -0.0302156 0.858528
0.23582 -0.0317177 0.86129
0.237035 -0.0318168 0.859803
0.23593 -0.0333107 0.862308
0.237145 -0.0334084 0.860811
0.246547 0.0144107 0.875891
0.246379 0.0128312 0.875754
0.246124 0.0112537 0.87527
0.245829 0.00967883 0.874617
0.24551 0.00810736 0.873868
0.24518 0.00653902 0.873076
0.244814 0.00497539 0.872134
0.244355 0.00341958 0.870812
0.243763 0.00187566 0.868948
0.24306 0.000345276 0.866619
0.242222 -0.00116764 0.863742
0.241442 -0.00267469 0.861095
0.240725 -0.00417738 0.858705
0.240105 -0.00567995 0.856708
0.239467 -0.00717366 0.854638
0.23887 -0.00866395 0.852731
0.238318 -0.0101522 0.851004
0.237862 -0.0116452 0.84967
0.237444 -0.0131383 0.848494
0.237202 -0.0146495 0.848035
0.23709 -0.0161768 0.848118
0.237041 -0.0177128 0.848451
0.237061 -0.0192603 0.849073
0.237166 -0.0208228 0.850047
0.237245 -0.0223841 0.850913
0.237344 -0.0239514 0.851863
0.237491 -0.0255301 0.85301
0.237689 -0.0271221 0.854376
0.237874 -0.0287156 0.855682
0.238116 -0.0303247 0.857226
0.238312 -0.0319292 0.858585
0.238445 -0.033524 0.859684
0.247706 0.0126863 0.874611
0.247436 0.0111098 0.874069
0.247105 0.00953674 0.873283
0.24674 0.00796763 0.872348
0.246355 0.00640283 0.871341
0.245961 0.00484214 0.870291
0.245455 0.00329072 0.868787
0.24484 0.00175069 0.866837
0.244178 0.000220494 0.864698
0.243389 -0.00129336 0.862041
0.24268 -0.00280376 0.859699
0.242055 -0.00431244 0.8577
0.241502 -0.00582026 0.855991
0.24091 -0.00731811 0.85412
0.240331 -0.00881042 0.852304
0.239775 -0.0102986 0.850574
0.239313 -0.0117915 0.849229
0.238912 -0.0132867 0.848127
0.238666 -0.0147981 0.847662
0.238558 -0.0163262 0.847755
0.238504 -0.017862 0.848069
0.238481 -0.0194033 0.848514
0.238563 -0.0209622 0.849383
0.238602 -0.0225166 0.850079
0.238662 -0.0240768 0.850864
0.238787 -0.0256507 0.851915
0.238983 -0.0272413 0.853263
0.239148 -0.0288299 0.854477
0.239396 -0.0304392 0.85604
0.239616 -0.0320474 0.857487
0.239751 -0.0336419 0.858583
0.238554 -0.035118 0.860683
0.23988 -0.0352384 0.859662
0.248673 0.010967 0.872579
0.248326 0.00939582 0.871728
0.247934 0.00782909 0.870697
0.247499 0.00626783 0.869493
0.247075 0.00471056 0.868332
0.246564 0.00316175 0.866818
0.24595 0.00162411 0.864887
0.245318 9.4446e-05 0.862882
0.244599 -0.00142196 0.860521
0.243943 -0.00293454 0.858417
0.243388 -0.00444774 0.856712
0.242883 -0.00595919 0.855211
0.242329 -0.00746031 0.853511
0.241748 -0.0089525 0.851697
0.241208 -0.0104424 0.850044
0.240724 -0.0119329 0.848617
0.240323 -0.0134281 0.847527
0.24008 -0.01494 0.847076
0.23997 -0.016468 0.847166
0.239896 -0.0180008 0.847392
0.239845 -0.0195377 0.847723
0.2399 -0.0210922 0.848482
0.239938 -0.0226459 0.849169
0.23998 -0.0242022 0.849876
0.240107 -0.0257759 0.850927
0.240326 -0.0273696 0.852356
0.240492 -0.0289579 0.853569
0.240744 -0.0305673 0.855138
0.240971 -0.032176 0.856597
0.241105 -0.0337697 0.857688
0.241214 -0.0353618 0.858673
0.240186 -0.036879 0.861467
0.241452 -0.0369856 0.86019
0.240808 -0.0386003 0.864569
0.242006 -0.0386885 0.862998
0.249851 0.0108252 0.870864
0.24952 0.00925564 0.870083
0.249147 0.00769042 0.869137
0.248665 0.00613229 0.867754
0.248172 0.00457983 0.866319
0.247654 0.00303386 0.864792
0.247057 0.00149783 0.862947
0.246454 -3.10414e-05 0.861069
0.245811 -0.00155038 0.859029
0.245229 -0.00306699 0.857232
0.244719 -0.00458284 0.855721
0.244234 -0.00609543 0.854315
0.243701 -0.007598 0.852709
0.243119 -0.00908975 0.850905
0.242599 -0.0105817 0.849345
0.242135 -0.0120743 0.84801
0.241756 -0.0135724 0.847016
0.241497 -0.0150822 0.846505
0.241369 -0.0166077 0.846519
0.241268 -0.0181367 0.846638
0.241189 -0.0196693 0.846856
0.241221 -0.0212194 0.847512
0.2413 -0.0227793 0.848363
0.241367 -0.0243395 0.849166
0.241498 -0.0259136 0.850228
0.241738 -0.0275111 0.851732
0.241905 -0.0290994 0.852943
0.24214 -0.0307048 0.85443
0.242369 -0.032314 0.855894
0.242505 -0.0339082 0.856984
0.242612 -0.0354991 0.857955
0.242826 -0.0371166 0.859362
0.243333 -0.038808 0.861963
0.242759 -0.0404492 0.866625
0.244084 -0.0405669 0.865558
0.250734 0.0106876 0.867991
0.250483 0.00912038 0.867535
0.250204 0.00755595 0.86697
0.249748 0.00599992 0.865696
0.249272 0.00444934 0.864345
0.248773 0.00290495 0.862897
0.248175 0.00137127 0.861059
0.247617 -0.00015814 0.859374
0.247044 -0.00168028 0.85763
0.246528 -0.00320047 0.85611
0.246065 -0.00471925 0.854801
0.245622 -0.00623491 0.853566
0.245112 -0.00773951 0.852063
0.24453 -0.00923108 0.85027
0.244009 -0.010723 0.848723
0.243566 -0.012218 0.84748
0.243209 -0.013719 0.846583
0.242971 -0.0152319 0.846162
0.242843 -0.0167579 0.846175
0.242737 -0.0182868 0.846279
0.242636 -0.0198163 0.846401
0.242645 -0.021363 0.846964
0.242729 -0.0229238 0.847829
0.242822 -0.0244884 0.84873
0.24296 -0.026064 0.849815
0.243202 -0.0276622 0.851322
0.243368 -0.0292504 0.852518
0.24358 -0.0308515 0.853904
0.243789 -0.0324563 0.855276
0.243927 -0.0340507 0.856365
0.244034 -0.0356409 0.857333
0.244227 -0.0372548 0.858649
0.244687 -0.0389339 0.861037
0.245438 -0.0406915 0.864612
0.244943 -0.0423643 0.869591
0.246297 -0.0424871 0.868616
0.251703 0.0105495 0.865494
0.251539 0.00898381 0.865383
0.251321 0.00742027 0.865054
0.250914 0.00586488 0.863991
0.25044 0.00431632 0.862653
0.249935 0.00277406 0.861197
0.249356 0.00124137 0.859444
0.24882 -0.000287621 0.857861
0.248299 -0.00181171 0.85633
0.24783 -0.00333411 0.855007
0.247412 -0.00485566 0.853883
0.246991 -0.00637261 0.852743
0.2465 -0.00787877 0.851331
0.245919 -0.00937043 0.849557
0.245421 -0.0108644 0.848106
0.244975 -0.0123593 0.846866
0.244639 -0.0138627 0.846054
0.244401 -0.0153758 0.845636
0.244272 -0.0169019 0.845647
0.244162 -0.0184304 0.845737
0.244059 -0.0199597 0.845853
0.244052 -0.0215039 0.846346
0.244162 -0.0230688 0.847313
0.244285 -0.0246389 0.848329
0.244451 -0.0262196 0.849517
0.244698 -0.0278187 0.851026
0.244858 -0.0294063 0.852195
0.245044 -0.0310027 0.853472
0.24523 -0.0326029 0.854743
0.245348 -0.034193 0.855747
0.245436 -0.0357793 0.856631
0.245633 -0.0373931 0.857952
0.24603 -0.039057 0.860075
0.246759 -0.0408076 0.863536
0.247571 -0.042591 0.867327
0.247126 -0.0442889 0.872511
0.248404 -0.0443919 0.871212
0.252821 0.0119753 0.863075
0.252687 0.0104115 0.863075
0.252585 0.00884765 0.863211
0.252427 0.00728523 0.863124
0.252096 0.00572956 0.862356
0.251649 0.00418165 0.861133
0.251189 0.00263895 0.859866
0.250631 0.00110645 0.858208
0.250097 -0.000421398 0.856639
0.249597 -0.00194593 0.855208
0.249158 -0.00346949 0.854008
0.248764 -0.00499251 0.852989
0.248366 -0.00651104 0.851951
0.247898 -0.00801897 0.850636
0.247313 -0.00951003 0.848862
0.246833 -0.011006 0.847494
0.246385 -0.0125006 0.846253
0.246047 -0.0140038 0.845441
0.24581 -0.015517 0.845026
0.245681 -0.0170433 0.845043
0.245575 -0.0185721 0.845144
0.245494 -0.0201047 0.845343
0.245507 -0.0216525 0.845923
0.245644 -0.0232219 0.846986
0.245794 -0.0247969 0.848103
0.245985 -0.0263827 0.849384
0.246212 -0.0279789 0.850809
0.246349 -0.0295625 0.851878
0.246511 -0.0311545 0.853047
0.246673 -0.03275 0.854216
0.246769 -0.0343355 0.855128
0.246837 -0.0359169 0.855926
0.247036 -0.0375309 0.857246
0.247346 -0.0391747 0.859013
0.248052 -0.040918 0.862352
0.248816 -0.042687 0.865932
0.249673 -0.0444916 0.869882
0.249227 -0.0462023 0.875055
0.25048 -0.0462973 0.873639
0.253934 0.0133958 0.860658
0.253891 0.0118341 0.861015
0.25378 0.0102726 0.861111
0.253689 0.00871074 0.861283
0.253558 0.00714981 0.861298
0.253279 0.00559439 0.860742
0.252859 0.00404719 0.859638
0.252402 0.00250595 0.858386
0.251862 0.000974121 0.856812
0.251353 -0.000554007 0.855353
0.250901 -0.00208046 0.854114
0.250511 -0.00360695 0.853115
0.250163 -0.00513306 0.852286
0.249788 -0.00665354 0.851343
0.24934 -0.0081634 0.850117
0.248775 -0.00965674 0.84843
0.248315 -0.0111552 0.847154
0.247865 -0.01265 0.845913
0.247524 -0.0141534 0.845095
0.247263 -0.0156641 0.844594
0.247136 -0.0171907 0.844613
0.247032 -0.0187202 0.844727
0.246976 -0.0202571 0.845026
0.247036 -0.0218125 0.845783
0.247197 -0.0233865 0.846933
0.247369 -0.0249662 0.848131
0.247564 -0.0265535 0.84942
0.24777 -0.0281468 0.850752
0.247864 -0.0297233 0.851647
0.247999 -0.0313104 0.852705
0.248117 -0.0328971 0.853693
0.248191 -0.034478 0.85451
0.248257 -0.036059 0.855298
0.248454 -0.0376718 0.856605
0.248716 -0.0393039 0.858165
0.249376 -0.0410363 0.861302
0.250089 -0.0427909 0.864657
0.250948 -0.044594 0.868588
0.251766 -0.0463994 0.872359
0.25104 -0.0480486 0.876412
0.252384 -0.0481654 0.875346
0.255083 0.0132525 0.858923
0.255042 0.0116927 0.85929
0.25496 0.0101326 0.859495
0.254849 0.00857284 0.859588
0.254719 0.00701365 0.859609
0.254515 0.0054576 0.859347
0.254119 0.00391075 0.858345
0.253661 0.00237087 0.857095
0.25312 0.000840268 0.855526
0.252609 -0.000686312 0.85407
0.252159 -0.00221184 0.85285
0.251814 -0.00374053 0.852036
0.251514 -0.00526981 0.851395
0.251186 -0.00679394 0.850639
0.250784 -0.00830798 0.849598
0.250263 -0.00980582 0.848097
0.249826 -0.0113074 0.846919
0.249354 -0.0128004 0.845605
0.249009 -0.0143039 0.844777
0.248742 -0.0158142 0.844254
0.248634 -0.017344 0.844354
0.248536 -0.018875 0.844486
0.248529 -0.0204196 0.844977
0.248616 -0.0219804 0.845837
0.24876 -0.0235526 0.84691
0.248908 -0.0251291 0.848012
0.2491 -0.0267165 0.849279
0.249263 -0.0283028 0.850436
0.249334 -0.0298754 0.851237
0.249468 -0.0314623 0.852279
0.24956 -0.0330442 0.853165
0.249612 -0.0346204 0.853891
0.249656 -0.0361969 0.854587
0.249828 -0.0378041 0.855787
0.250039 -0.0394235 0.857139
0.250625 -0.0411363 0.859964
0.251245 -0.042867 0.862928
0.252061 -0.0446568 0.866665
0.252884 -0.0464607 0.870434
0.253566 -0.0482398 0.87365
0.256431 0.013109 0.857967
0.256429 0.0115493 0.858477
0.256332 0.00998975 0.858626
0.256181 0.00843124 0.858568
0.256026 0.00687363 0.858494
0.255777 0.00531999 0.858061
0.255357 0.00377551 0.856969
0.25489 0.00223738 0.8557
0.254369 0.000707203 0.854217
0.253854 -0.000817988 0.85276
0.253431 -0.00234398 0.851647
0.253132 -0.00387521 0.851013
0.252836 -0.00540404 0.850394
0.252531 -0.00692957 0.849739
0.252155 -0.00844562 0.848805
0.251682 -0.00994807 0.847498
0.251275 -0.0114529 0.846444
0.250827 -0.0129489 0.84523
0.250478 -0.0144525 0.844397
0.250222 -0.0159646 0.843923
0.250113 -0.0174948 0.844016
0.250019 -0.0190268 0.844164
0.250066 -0.0205799 0.844859
0.250181 -0.0221457 0.845822
0.250324 -0.0237189 0.846889
0.250473 -0.0252962 0.847982
0.25066 -0.0268839 0.849229
0.250781 -0.0284633 0.850212
0.250826 -0.0300313 0.850906
0.250934 -0.0316137 0.851846
0.251002 -0.0331909 0.852632
0.251033 -0.0347629 0.853272
0.251056 -0.0363344 0.853882
0.251205 -0.0379355 0.854983
0.251368 -0.0395442 0.856141
0.251859 -0.0412338 0.858579
0.252403 -0.0429431 0.861227
0.253121 -0.0447061 0.864555
0.253878 -0.0464891 0.868037
0.254567 -0.0482661 0.871261
0.253985 -0.0499584 0.87584
0.255018 -0.0499908 0.873557
0.257537 0.0145227 0.855583
0.257525 0.0129664 0.856049
0.25753 0.0114088 0.856586
0.25744 0.00985135 0.856759
0.257307 0.00829468 0.85677
0.257148 0.00673917 0.856682
0.256894 0.00518776 0.856233
0.256514 0.00364377 0.855299
0.256067 0.00210663 0.854112
0.255564 0.000577136 0.852713
0.255075 -0.000948095 0.851361
0.254694 -0.00247551 0.85042
0.254419 -0.00400752 0.849884
0.254148 -0.00553752 0.849363
0.253871 -0.00706479 0.84882
0.253521 -0.00858274 0.847989
0.253095 -0.0100897 0.846871
0.252714 -0.0115974 0.845927
0.252292 -0.0130966 0.844821
0.251941 -0.0146002 0.843988
0.251704 -0.0161153 0.843589
0.251595 -0.0176458 0.843683
0.251504 -0.0191788 0.843845
0.2516 -0.0207397 0.844727
0.251742 -0.0223103 0.845782
0.251888 -0.0238849 0.846858
0.252034 -0.0254629 0.847937
0.252199 -0.0270473 0.849086
0.252273 -0.0286189 0.849887
0.252294 -0.0301828 0.85048
0.252377 -0.0317606 0.851319
0.252423 -0.0333333 0.852014
0.252454 -0.0349053 0.852654
0.252478 -0.036477 0.853263
0.252607 -0.0380742 0.854278
0.252747 -0.0396765 0.855342
0.253166 -0.0413474 0.857484
0.253633 -0.0430381 0.859819
0.254268 -0.0447776 0.862799
0.254968 -0.0465437 0.866044
0.255627 -0.0483102 0.869127
0.256063 -0.0500265 0.871349
0.257456 0.0160768 0.854763
0.258647 0.0159313 0.853233
0.258677 0.0143785 0.853859
0.258622 0.0128243 0.854167
0.258603 0.011269 0.854607
0.258474 0.00971456 0.85463
0.258313 0.00816111 0.854535
0.258126 0.00660927 0.854342
0.257843 0.00506184 0.853784
0.257485 0.00352007 0.852942
0.257088 0.00198361 0.851953
0.256642 0.000453709 0.850773
0.256203 -0.00107224 0.849624
0.255891 -0.00260246 0.848949
0.255641 -0.00413491 0.848513
0.255395 -0.00566561 0.848087
0.255143 -0.00719394 0.847642
0.254832 -0.00871461 0.846971
0.254453 -0.0102258 0.84604
0.254118 -0.0117379 0.845276
0.253725 -0.0132406 0.84429
0.253397 -0.0147472 0.843548
0.253183 -0.0162655 0.843242
0.253075 -0.0177966 0.843342
0.25299 -0.019331 0.843525
0.25311 -0.0208958 0.84449
0.253252 -0.022467 0.845542
0.253377 -0.0240387 0.846531
0.253523 -0.0256171 0.847604
0.25367 -0.0271988 0.848678
0.253719 -0.0287662 0.849379
0.253738 -0.0303298 0.849962
0.253797 -0.0319029 0.850701
0.25382 -0.033471 0.851304
0.253852 -0.0350423 0.851941
0.253876 -0.0366148 0.852553
0.254008 -0.0382118 0.853573
0.25415 -0.0398142 0.854636
0.254476 -0.0414629 0.856406
0.254865 -0.0431331 0.858426
0.255369 -0.044839 0.860885
0.255944 -0.0465699 0.863621
0.256499 -0.0483049 0.866285
0.256902 -0.0500086 0.868365
0.256542 -0.051762 0.873741
0.257337 -0.051728 0.870573
0.259797 0.0173356 0.851058
0.259776 0.0157857 0.85149
0.259741 0.0142345 0.851865
0.259647 0.0126828 0.852021
0.259566 0.0111308 0.852229
0.259367 0.00958053 0.851989
0.259183 0.00803122 0.851807
0.258972 0.00648369 0.851525
0.258713 0.00493932 0.851065
0.258409 0.00339895 0.85043
0.258095 0.0018617 0.849754
0.25771 0.00033109 0.848818
0.257346 -0.0011971 0.847955
0.257063 -0.00272772 0.847397
0.256837 -0.00426009 0.847053
0.256593 -0.00578957 0.846641
0.256363 -0.00731841 0.846281
0.256052 -0.00883791 0.845613
0.255693 -0.0103496 0.844765
0.25536 -0.0118611 0.844014
0.255015 -0.013368 0.843212
0.254713 -0.014877 0.842578
0.25457 -0.0164039 0.842546
0.25449 -0.0179385 0.842745
0.254428 -0.0194761 0.843016
0.254547 -0.0210411 0.843976
0.254688 -0.0226122 0.845018
0.254791 -0.0241805 0.845916
0.254938 -0.025759 0.846988
0.255087 -0.0273408 0.848062
0.255137 -0.0289083 0.848762
0.255179 -0.0304762 0.84943
0.255239 -0.0320495 0.850168
0.255262 -0.0336177 0.85077
0.255293 -0.0351891 0.851401
0.255318 -0.0367609 0.85201
0.255429 -0.0383537 0.852948
0.25555 -0.0399513 0.853924
0.255804 -0.0415836 0.855409
0.256141 -0.0432396 0.857211
0.256523 -0.0449134 0.85919
0.25697 -0.0466097 0.86142
0.257426 -0.0483152 0.863684
0.257748 -0.0499938 0.86544
0.258087 -0.0516815 0.867264
0.257814 -0.0534651 0.872941
0.258515 -0.0534006 0.869429
0.259867 0.0188857 0.850818
0.26118 0.0202872 0.849267
0.26095 0.0187356 0.848918
0.260833 0.0171871 0.848986
0.260752 0.0156392 0.849192
0.260675 0.0140908 0.84941
0.260521 0.0125426 0.84934
0.260382 0.0109948 0.849332
0.26013 0.00944961 0.848896
0.259899 0.00790559 0.848537
0.25964 0.0063643 0.848077
0.259384 0.0048247 0.847629
0.259134 0.00328678 0.847199
0.258884 0.00175083 0.84677
0.258583 0.000219724 0.846147
0.25832 -0.00131126 0.845669
0.258106 -0.00284365 0.845372
0.257884 -0.00437399 0.845047
0.257667 -0.00590333 0.844737
0.257456 -0.00743161 0.844453
0.257147 -0.00894913 0.843795
0.256808 -0.0104611 0.843027
0.256525 -0.0119758 0.842469
0.25625 -0.0134893 0.841939
0.256 -0.0150034 0.841504
0.255952 -0.0165416 0.841825
0.2559 -0.0180798 0.842131
0.255862 -0.0196209 0.842495
0.255958 -0.0211825 0.843362
0.256096 -0.0227532 0.844387
0.256174 -0.0243173 0.845186
0.256302 -0.0258921 0.846172
0.256449 -0.0274733 0.847237
0.256526 -0.0290452 0.848036
0.256595 -0.030618 0.848804
0.256662 -0.0321924 0.849565
0.256709 -0.0337654 0.850253
0.256737 -0.0353365 0.85087
0.256762 -0.0369085 0.851476
0.256829 -0.0384915 0.852239
0.256926 -0.0400829 0.853117
0.257107 -0.0416976 0.854318
0.257411 -0.0433454 0.855988
0.257746 -0.0450056 0.857773
0.258101 -0.0466771 0.859639
0.25848 -0.0483596 0.861593
0.258766 -0.0500249 0.863201
0.259004 -0.0516828 0.864626
0.259306 -0.0533625 0.866297
0.262251 0.0201352 0.847341
0.261976 0.018585 0.846825
0.261757 0.0170378 0.846521
0.261633 0.0154926 0.846561
0.261475 0.0139477 0.846479
0.26126 0.0124039 0.846183
0.261019 0.0108617 0.845797
0.260713 0.0093225 0.845163
0.260431 0.00778523 0.844624
0.26017 0.0062496 0.844154
0.25994 0.00471486 0.843803
0.259737 0.00318057 0.843552
0.259545 0.00164701 0.843337
0.259318 0.000116482 0.842997
0.259129 -0.00141484 0.842793
0.258967 -0.00294693 0.842688
0.258769 -0.00447562 0.842456
0.258597 -0.00600502 0.842317
0.258415 -0.00753272 0.842136
0.258151 -0.00905176 0.841655
0.257864 -0.0105661 0.841086
0.257629 -0.0120839 0.840709
0.257405 -0.0136011 0.840372
0.257228 -0.0151228 0.840215
0.257215 -0.0166642 0.840668
0.257214 -0.0182084 0.841163
0.257226 -0.0197556 0.841706
0.25732 -0.0213167 0.842565
0.257459 -0.0228869 0.843584
0.257532 -0.0244499 0.844361
0.257638 -0.0260207 0.845261
0.257786 -0.0276016 0.846321
0.257889 -0.0291774 0.847213
0.257966 -0.0307511 0.848004
0.25804 -0.0323267 0.848789
0.258114 -0.0339046 0.849575
0.258142 -0.0354758 0.850187
0.258164 -0.0370464 0.850781
0.258206 -0.038624 0.851447
0.258299 -0.0402148 0.852303
0.258429 -0.0418162 0.853303
0.258708 -0.0434563 0.854865
0.259019 -0.0451103 0.856553
0.259332 -0.0467691 0.858244
0.25966 -0.0484381 0.860001
0.259916 -0.0500929 0.861481
0.260072 -0.0517253 0.862587
0.26022 -0.0533603 0.863664
0.263326 0.0215251 0.844948
0.263026 0.0199762 0.844346
0.262704 0.0184293 0.843664
0.262465 0.0168863 0.843286
0.262302 0.0153455 0.843182
0.26213 0.0138053 0.84305
0.26192 0.0122662 0.842776
0.261652 0.0107294 0.842287
0.261295 0.00919621 0.841473
0.260985 0.0076651 0.840827
0.260697 0.00613585 0.840264
0.260484 0.00460618 0.839973
0.260281 0.0030774 0.839723
0.26011 0.00154835 0.839589
0.259932 2.0411e-05 0.83943
0.259772 -0.00150757 0.839333
0.259637 -0.00303659 0.839329
0.259488 -0.00456422 0.839276
0.259365 -0.00609326 0.83932
0.259188 -0.00761731 0.83916
0.258977 -0.00913728 0.838875
0.258741 -0.0106532 0.838501
0.258558 -0.0121733 0.838318
0.258412 -0.0136964 0.838274
0.258336 -0.0152275 0.838488
0.258377 -0.0167739 0.839141
0.258429 -0.0183234 0.839826
0.258488 -0.0198763 0.840545
0.258563 -0.0214333 0.841324
0.258702 -0.0230026 0.842341
0.258776 -0.0245646 0.843117
0.25888 -0.0261339 0.844004
0.25903 -0.0277138 0.845065
0.259157 -0.0292926 0.846036
0.259261 -0.0308705 0.846929
0.259362 -0.0324503 0.84781
0.259463 -0.0340328 0.848691
0.259515 -0.0356084 0.84939
0.259562 -0.0371842 0.850071
0.259604 -0.0387611 0.850733
0.259719 -0.0403564 0.851668
0.259821 -0.0419511 0.85256
0.260103 -0.0435915 0.85412
0.260392 -0.0452391 0.855713
0.260662 -0.0468867 0.857236
0.260943 -0.0485419 0.858801
0.261169 -0.0501886 0.860164
0.261253 -0.0518 0.860991
0.261254 -0.0533913 0.861507
0.263627 0.0198138 0.84075
0.263314 0.0182724 0.840104
0.263063 0.0167344 0.839678
0.26283 0.0151984 0.839327
0.26264 0.0136639 0.839124
0.262411 0.0121308 0.838782
0.26214 0.0105998 0.838287
0.261782 0.00907257 0.837471
0.26147 0.00754741 0.836821
0.261186 0.006024 0.836276
0.260993 0.00449947 0.836063
0.260791 0.0029763 0.835813
0.260614 0.00145323 0.835659
0.260483 -7.1457e-05 0.835668
0.260351 -0.00159596 0.835677
0.260245 -0.0031217 0.835782
0.260147 -0.00464811 0.835911
0.260072 -0.00617636 0.836127
0.259901 -0.00769653 0.835993
0.259742 -0.00921689 0.8359
0.259558 -0.0107342 0.835719
0.259407 -0.0122538 0.835657
0.259312 -0.0137793 0.835798
0.259289 -0.0153136 0.836209
0.259361 -0.0168609 0.836964
0.259463 -0.0184147 0.837836
0.259569 -0.0199715 0.838725
0.259651 -0.0215276 0.839524
0.259816 -0.0230985 0.840626
0.259916 -0.0246625 0.84149
0.259998 -0.0262264 0.842293
0.260149 -0.0278044 0.843352
0.260298 -0.0293854 0.844401
0.260448 -0.0309699 0.84546
0.260599 -0.0325578 0.84652
0.260774 -0.0341535 0.847666
0.260878 -0.0357382 0.848555
0.260977 -0.0373251 0.849427
0.261002 -0.0388981 0.85002
0.261142 -0.040499 0.851049
0.261249 -0.0420945 0.851947
0.261534 -0.0437357 0.853515
0.261826 -0.0453834 0.855107
0.262093 -0.0470302 0.856612
0.262326 -0.0486725 0.857986
0.262528 -0.0503122 0.859249
0.262565 -0.0519108 0.859897
0.262494 -0.0534807 0.860141
0.26411 0.0196499 0.836765
0.263857 0.0181156 0.836339
0.263618 0.0165831 0.83596
0.263253 0.0150518 0.835128
0.263009 0.0135237 0.834734
0.262751 0.0119973 0.834285
0.262484 0.010473 0.833803
0.262149 0.00895217 0.833077
0.261867 0.007433 0.832542
0.261611 0.00591499 0.832101
0.261427 0.00439621 0.831917
0.261225 0.00287938 0.83167
0.261048 0.00136231 0.831513
0.26094 -0.000157672 0.831607
0.260813 -0.00167635 0.831632
0.260738 -0.0031984 0.831848
0.260687 -0.00472266 0.832148
0.260663 -0.00624978 0.83255
0.26052 -0.00776718 0.832515
0.260433 -0.00928955 0.832688
0.260297 -0.0108071 0.83268
0.260172 -0.0123255 0.832713
0.260105 -0.01385 0.832956
0.260132 -0.0153864 0.833541
0.260184 -0.0169278 0.834226
0.260309 -0.0184808 0.835175
0.26044 -0.0200375 0.836145
0.260526 -0.0215906 0.836953
0.260696 -0.0231589 0.838067
0.260819 -0.0247234 0.839015
0.260881 -0.0262804 0.839736
0.261031 -0.0278549 0.840785
0.261183 -0.0294328 0.841836
0.261358 -0.0310183 0.842976
0.261562 -0.0326128 0.844224
0.26184 -0.034226 0.845747
0.262049 -0.0358301 0.847015
0.262252 -0.0374367 0.848264
0.26233 -0.0390205 0.849052
0.262546 -0.0406371 0.850352
0.262684 -0.0422402 0.851364
0.262952 -0.0438767 0.852858
0.263245 -0.0455241 0.854445
0.263506 -0.0471689 0.855917
0.263712 -0.0488043 0.857186
0.263914 -0.0504434 0.858442
0.263977 -0.0520481 0.859179
0.263907 -0.0536186 0.85943
0.264795 0.019492 0.833549
0.264463 0.0179608 0.832838
0.2642 0.0164332 0.832377
0.263697 0.0149066 0.831052
0.263347 0.0133846 0.830276
0.263033 0.0118655 0.829632
0.262745 0.0103486 0.829078
0.262439 0.00883442 0.828455
0.262193 0.00732118 0.828052
0.262012 0.00580753 0.82788
0.261881 0.0042929 0.827891
0.261728 0.00277972 0.827822
0.261578 0.001267 0.827763
0.26152 -0.000250446 0.828033
0.261396 -0.00176418 0.828073
0.261325 -0.00328142 0.828296
0.261297 -0.00480225 0.828679
0.261275 -0.00632473 0.829087
0.261135 -0.00783749 0.82906
0.261075 -0.00935743 0.829331
0.260964 -0.0108728 0.829412
0.260841 -0.0123866 0.829449
0.260792 -0.0139087 0.829755
0.260839 -0.015443 0.830413
0.260867 -0.0169769 0.831003
0.261015 -0.0185283 0.832025
0.26117 -0.020084 0.833079
0.261257 -0.0216329 0.833885
0.261429 -0.0231972 0.835001
0.261576 -0.0247611 0.836027
0.261637 -0.0263139 0.836741
0.261766 -0.0278803 0.8377
0.261913 -0.0294531 0.83873
0.262095 -0.0310353 0.839887
0.262332 -0.0326318 0.841247
0.262697 -0.0342577 0.843076
0.263038 -0.0358849 0.844823
0.263352 -0.0375121 0.846468
0.263555 -0.0391201 0.847712
0.263873 -0.0407583 0.849374
0.264061 -0.0423719 0.85057
0.264336 -0.04401 0.852077
0.264652 -0.0456621 0.853739
0.264914 -0.0473066 0.855202
0.265096 -0.0489353 0.85638
0.2653 -0.0505738 0.857632
0.265387 -0.0521846 0.858458
0.265344 -0.0537626 0.858804
0.264582 0.0177992 0.827638
0.264779 0.0162844 0.828826
0.264191 0.0147627 0.827201
0.263757 0.0132467 0.826129
0.26337 0.0117344 0.825225
0.263105 0.0102238 0.824754
0.262831 0.00871547 0.82425
0.262657 0.00720656 0.824107
0.262533 0.00569688 0.824139
0.262454 0.00418562 0.824333
0.262331 0.00267618 0.824371
0.262185 0.00116814 0.824327
0.262105 -0.000343158 0.82452
0.261959 -0.00185043 0.824475
0.26186 -0.00336049 0.824599
0.261811 -0.00487438 0.824901
0.261809 -0.00639291 0.825373
0.261695 -0.00790271 0.825445
0.261663 -0.00942013 0.825809
0.261577 -0.0109329 0.825982
0.261475 -0.0124441 0.826094
0.261444 -0.0139634 0.826462
0.261513 -0.0154959 0.827193
0.261567 -0.0170284 0.827871
0.261715 -0.0185755 0.828893
0.261866 -0.0201261 0.829921
0.26195 -0.02167 0.830708
0.262099 -0.0232264 0.831735
0.262225 -0.0247821 0.832677
0.262284 -0.0263298 0.833377
0.262408 -0.0278905 0.834313
0.262531 -0.0294541 0.835251
0.262714 -0.0310314 0.836402
0.26298 -0.032628 0.837855
0.263378 -0.0342555 0.839797
0.263784 -0.0358906 0.841764
0.264205 -0.0375362 0.843792
0.264542 -0.0391692 0.845514
0.264968 -0.0408278 0.847559
0.265259 -0.042463 0.849118
0.265605 -0.0441149 0.850877
0.265946 -0.0457724 0.852624
0.266233 -0.0474222 0.854172
0.266424 -0.049052 0.855368
0.266655 -0.0506972 0.856716
0.266771 -0.0523146 0.857638
0.266779 -0.053906 0.858172
0.252503 0.0504525 0.774119
0.253684 0.0517131 0.772629
0.253471 0.0502667 0.77233
0.252299 0.0490065 0.773848
0.253267 0.0488231 0.772061
0.250948 0.0332619 0.773997
0.251923 0.0345189 0.771782
0.251965 0.0331057 0.772379
0.250892 0.0318375 0.774243
0.251929 0.0316847 0.772696
0.250719 0.0304047 0.774081
0.251824 0.0302582 0.772773
0.250557 0.0289731 0.773952
0.251701 0.0288308 0.772787
0.251704 0.0274108 0.773244
0.26509 0.016134 0.824355
0.264906 0.0146206 0.824176
0.264396 0.0131092 0.822841
0.263961 0.0116021 0.821771
0.263672 0.0100968 0.821217
0.263424 0.00859317 0.820807
0.263255 0.007089 0.82068
0.263159 0.0055833 0.820813
0.263081 0.00407675 0.821008
0.262985 0.00257073 0.821142
0.262863 0.00106609 0.821183
0.262783 -0.0004408 0.821372
0.262633 -0.00194354 0.821313
0.262505 -0.00344705 0.821331
0.262404 -0.00495237 0.821444
0.262375 -0.00646362 0.821818
0.262285 -0.00797046 0.821972
0.262282 -0.00948566 0.822436
0.262228 -0.0109969 0.822723
0.262171 -0.0125084 0.822993
0.262142 -0.0140237 0.82337
0.262213 -0.0155519 0.824103
0.262273 -0.0170809 0.824797
0.262447 -0.018627 0.825902
0.262598 -0.0201735 0.826925
0.262702 -0.0217163 0.827779
0.262826 -0.0232646 0.828707
0.262927 -0.0248121 0.829552
0.26296 -0.026351 0.830155
0.263058 -0.0279028 0.830993
0.263157 -0.0294572 0.831833
0.263311 -0.0310242 0.832872
0.263573 -0.0326147 0.834303
0.263943 -0.0342314 0.836128
0.264327 -0.0358564 0.838004
0.264781 -0.0375024 0.840134
0.26518 -0.0391433 0.842072
0.26567 -0.040811 0.844333
0.266092 -0.042471 0.846358
0.266563 -0.044149 0.848559
0.267009 -0.045828 0.850671
0.267402 -0.0475007 0.852595
0.267671 -0.049149 0.854067
0.267957 -0.0508064 0.855608
0.268122 -0.0524359 0.856706
0.268188 -0.0540428 0.857445
0.257498 0.0637769 0.782386
0.257692 0.0652445 0.782612
0.25868 0.0650377 0.780842
0.258483 0.0635714 0.780603
0.25724 0.0622974 0.781934
0.25824 0.0620974 0.780207
0.256882 0.0608002 0.781133
0.257857 0.0605977 0.779326
0.256345 0.0592718 0.779706
0.257318 0.059072 0.777903
0.255766 0.0577411 0.778132
0.256721 0.0575405 0.776272
0.255133 0.0562062 0.776364
0.256087 0.0560089 0.774518
0.254532 0.0546834 0.774706
0.255489 0.0544893 0.772878
0.253993 0.053177 0.773266
0.254956 0.0529869 0.771469
0.25465 0.0515258 0.770846
0.254441 0.0500821 0.770559
0.254236 0.0486406 0.770291
0.253103 0.0473863 0.771929
0.254092 0.0472087 0.770228
0.252912 0.0459467 0.771702
0.253922 0.045774 0.770077
0.252721 0.0445081 0.771477
0.253733 0.0443378 0.769861
0.252557 0.0430742 0.771345
0.253567 0.0429054 0.769721
0.252398 0.0416417 0.771231
0.253431 0.0414776 0.769688
0.252218 0.0402075 0.771041
0.253251 0.0400451 0.7695
0.252073 0.0387781 0.770975
0.253066 0.0386132 0.769296
0.251991 0.0373557 0.771132
0.252936 0.0371879 0.769283
0.25192 0.0359342 0.771329
0.252837 0.0357661 0.76938
0.252795 0.034349 0.769675
0.252841 0.0329386 0.770281
0.252863 0.0315246 0.770799
0.252831 0.0301055 0.771132
0.25277 0.0286838 0.771362
0.252867 0.0272708 0.772146
0.265612 0.0144792 0.82115
0.2651 0.0129723 0.819814
0.26469 0.0114692 0.818837
0.264428 0.00996788 0.818383
0.264203 0.00846748 0.818058
0.264032 0.00696714 0.817925
0.263932 0.00546526 0.818042
0.263833 0.0039634 0.818162
0.263736 0.00246129 0.818287
0.263613 0.000960518 0.818322
0.263507 -0.000540878 0.818423
0.263328 -0.00203762 0.818259
0.263171 -0.00353484 0.818173
0.263039 -0.00503345 0.818177
0.262985 -0.00653799 0.818459
0.26292 -0.00804207 0.818698
0.262923 -0.00955345 0.819182
0.262898 -0.0110629 0.819567
0.26287 -0.0125731 0.819941
0.262869 -0.0140872 0.820411
0.262969 -0.015615 0.821241
0.263058 -0.0171437 0.822036
0.263216 -0.0186839 0.823078
0.263366 -0.0202263 0.82409
0.263467 -0.0217646 0.824928
0.263568 -0.0233053 0.825762
0.263669 -0.0248488 0.826605
0.263721 -0.0263867 0.82727
0.263817 -0.0279341 0.828095
0.263915 -0.0294842 0.828927
0.264021 -0.0310383 0.829787
0.264224 -0.0326133 0.830996
0.264506 -0.0342076 0.832492
0.264827 -0.0358146 0.834126
0.265226 -0.0374431 0.836048
0.265654 -0.0390843 0.838073
0.26616 -0.0407488 0.840378
0.266666 -0.0424216 0.842693
0.267203 -0.0441084 0.845114
0.267758 -0.0458084 0.847604
0.268288 -0.0475111 0.850009
0.268712 -0.0491943 0.852034
0.269134 -0.050883 0.854051
0.269425 -0.0525447 0.855605
0.269594 -0.0541779 0.856711
0.259538 0.0648045 0.778639
0.259319 0.063337 0.778328
0.259073 0.0618653 0.777922
0.258648 0.0603608 0.776899
0.258111 0.0588392 0.77549
0.257514 0.0573118 0.773872
0.256929 0.0557925 0.772293
0.256379 0.054285 0.770834
0.255916 0.0527972 0.769675
0.25566 0.0513462 0.769226
0.255494 0.0499112 0.769092
0.25529 0.0484712 0.768824
0.255144 0.0470409 0.768759
0.254953 0.045605 0.768537
0.254764 0.0441705 0.768319
0.254557 0.0427351 0.768043
0.254414 0.0413083 0.767985
0.254209 0.039875 0.767711
0.254019 0.038445 0.767493
0.253846 0.0370177 0.767332
0.253745 0.0355977 0.767416
0.253697 0.0341826 0.76769
0.253747 0.0327748 0.768305
0.253776 0.0313637 0.768845
0.253819 0.0299521 0.769435
0.253808 0.0285354 0.769839
0.253954 0.0271266 0.770792
0.254172 0.0257185 0.771997
0.253418 0.0244537 0.774971
0.254568 0.0243145 0.773824
0.265952 0.0128355 0.817336
0.265569 0.0113357 0.81646
0.26531 0.00983722 0.816018
0.265085 0.00833998 0.815695
0.264911 0.00684284 0.815553
0.264784 0.00534495 0.815571
0.264634 0.00384834 0.815512
0.264506 0.0023513 0.815529
0.264357 0.000855667 0.815477
0.264231 -0.000640665 0.815499
0.264033 -0.00213206 0.815269
0.263895 -0.0036265 0.815251
0.263714 -0.00511726 0.81508
0.263657 -0.00661724 0.815347
0.263614 -0.00811904 0.815665
0.263645 -0.0096286 0.816244
0.263649 -0.0111371 0.816728
0.263692 -0.0126512 0.817354
0.263718 -0.014165 0.817912
0.263824 -0.01569 0.818762
0.263935 -0.0172182 0.819629
0.264071 -0.0187522 0.820583
0.26422 -0.0202912 0.821588
0.264325 -0.0218267 0.822435
0.264427 -0.0233644 0.823269
0.264528 -0.0249045 0.824106
0.264627 -0.0264467 0.824932
0.264728 -0.0279917 0.825765
0.26483 -0.0295395 0.826607
0.264909 -0.0310855 0.827365
0.265056 -0.0326468 0.828369
0.26523 -0.0342164 0.829471
0.26546 -0.0358006 0.830772
0.265771 -0.0374055 0.832361
0.26614 -0.0390286 0.834162
0.266595 -0.0406753 0.836271
0.267107 -0.0423434 0.838587
0.267679 -0.0440322 0.84112
0.268255 -0.0457302 0.843667
0.268894 -0.0474529 0.846449
0.269508 -0.0491778 0.84914
0.270095 -0.0509058 0.851739
0.270533 -0.0526029 0.853804
0.26062 0.0660401 0.776781
0.260401 0.064574 0.776472
0.260125 0.0630976 0.775967
0.25983 0.0616196 0.775396
0.259422 0.0601223 0.774438
0.258903 0.0586081 0.7731
0.258331 0.0570891 0.771578
0.257795 0.0555821 0.770178
0.257295 0.0540863 0.768898
0.256858 0.0526056 0.767834
0.256622 0.0511603 0.767459
0.256458 0.0497276 0.76733
0.256254 0.0482898 0.767064
0.256129 0.0468646 0.767073
0.255942 0.0454314 0.766867
0.255754 0.0439988 0.766652
0.255523 0.0425623 0.766291
0.255348 0.0411339 0.766126
0.255094 0.0396981 0.765689
0.254882 0.038268 0.76539
0.25469 0.0368416 0.765165
0.254586 0.0354244 0.765242
0.254538 0.0340118 0.765512
0.254589 0.0326067 0.766123
0.25464 0.0311999 0.766739
0.254731 0.0297941 0.767492
0.254793 0.0283842 0.768146
0.255023 0.0269818 0.769384
0.255321 0.0255788 0.770856
0.255743 0.0241765 0.772762
0.255027 0.0229069 0.775872
0.256188 0.0227689 0.774751
0.266488 0.0112021 0.814249
0.266259 0.00970608 0.813913
0.266037 0.00821148 0.813601
0.265883 0.00671626 0.81353
0.265704 0.00522277 0.813368
0.2655 0.00373113 0.813121
0.265319 0.00223965 0.812953
0.265144 0.000748889 0.812803
0.264975 -0.000741347 0.812673
0.264755 -0.00222746 0.812374
0.264621 -0.00371814 0.812364
0.264439 -0.0052048 0.812195
0.264408 -0.00670312 0.812552
0.264392 -0.00820338 0.81296
0.26447 -0.00971393 0.813699
0.264522 -0.0112239 0.814346
0.264614 -0.01274 0.815141
0.264644 -0.0142515 0.815714
0.264747 -0.0157733 0.816546
0.264876 -0.017301 0.817469
0.264985 -0.0188287 0.818323
0.265112 -0.0203617 0.819241
0.265215 -0.0218937 0.820072
0.26532 -0.0234287 0.820916
0.265404 -0.024963 0.821683
0.265533 -0.026507 0.822615
0.265661 -0.0280536 0.823541
0.26579 -0.0296031 0.824471
0.265874 -0.0311473 0.825243
0.265997 -0.0327013 0.826154
0.266072 -0.0342486 0.826895
0.266196 -0.0358078 0.827808
0.266398 -0.0373856 0.829003
0.266683 -0.0389854 0.830494
0.26705 -0.0406086 0.832278
0.267551 -0.0422673 0.834536
0.268112 -0.0439464 0.837015
0.268663 -0.0456324 0.83946
0.269311 -0.0473508 0.842253
0.26997 -0.0490802 0.845083
0.270702 -0.0508374 0.848182
0.27129 -0.0525683 0.85077
0.261985 0.0673349 0.775897
0.261707 0.0658559 0.77539
0.261433 0.0643803 0.7749
0.261093 0.0628931 0.774182
0.260722 0.0614025 0.773355
0.260312 0.0599077 0.772395
0.259771 0.0583925 0.77099
0.259198 0.0568767 0.76947
0.258666 0.0553737 0.768093
0.258187 0.0538846 0.766893
0.257772 0.0524102 0.76591
0.257558 0.0509712 0.765617
0.257395 0.049541 0.765494
0.257191 0.0481057 0.765229
0.257046 0.0466796 0.765166
0.256854 0.0452482 0.764945
0.256647 0.0438157 0.764668
0.256391 0.042379 0.764224
0.256194 0.0409507 0.763982
0.255932 0.0395166 0.763516
0.255697 0.0380874 0.763145
0.255487 0.0366622 0.76286
0.255387 0.0352482 0.762949
0.25536 0.0338406 0.763291
0.255408 0.0324378 0.763887
0.255483 0.0310355 0.764579
0.255615 0.0296349 0.765469
0.255769 0.028233 0.766435
0.256018 0.0268333 0.767729
0.256323 0.0254323 0.769219
0.256768 0.0240324 0.771193
0.257242 0.0226273 0.773269
0.267403 0.011069 0.812039
0.267174 0.00957585 0.811708
0.266951 0.00808411 0.811393
0.266776 0.00659246 0.811249
0.266575 0.00510259 0.811014
0.266346 0.00361501 0.810677
0.266133 0.00212825 0.8104
0.26595 0.000641466 0.810222
0.26578 -0.000845348 0.810093
0.265564 -0.00232825 0.809806
0.265456 -0.00381742 0.809891
0.265299 -0.00530264 0.809807
0.265295 -0.00680008 0.810252
0.265304 -0.00829976 0.810748
0.265415 -0.00981051 0.8116
0.265495 -0.0113207 0.812339
0.265611 -0.0128371 0.813212
0.265639 -0.0143459 0.813776
0.265718 -0.0158625 0.814513
0.265823 -0.0173846 0.815348
0.265901 -0.0189056 0.816088
0.266024 -0.020435 0.816987
0.266102 -0.0219607 0.81773
0.26621 -0.0234931 0.818576
0.266295 -0.0250243 0.819342
0.26645 -0.0265694 0.820359
0.266562 -0.0281102 0.82122
0.266721 -0.0296619 0.822249
0.26683 -0.0312079 0.823105
0.26698 -0.0327639 0.824104
0.267036 -0.0343051 0.824776
0.267159 -0.0358614 0.825683
0.267287 -0.037422 0.826608
0.26747 -0.0389959 0.827726
0.267728 -0.0405906 0.829114
0.268138 -0.0422241 0.831039
0.268613 -0.0438779 0.833192
0.269125 -0.045549 0.83548
0.269762 -0.0472577 0.83822
0.270414 -0.0489788 0.841007
0.271138 -0.0507282 0.844056
0.271723 -0.0524512 0.846613
0.263577 0.0686803 0.775786
0.26323 0.0671847 0.775052
0.262886 0.0656925 0.774325
0.262534 0.0642017 0.773573
0.262134 0.0627042 0.772656
0.261661 0.0611959 0.771492
0.261248 0.0597031 0.770525
0.260702 0.05819 0.769113
0.260151 0.056681 0.767677
0.259617 0.0551805 0.766304
0.259161 0.0536977 0.765186
0.258741 0.0522251 0.764192
0.258526 0.0507878 0.763895
0.258343 0.0493566 0.763701
0.258138 0.0479235 0.763438
0.25799 0.0464994 0.763368
0.257775 0.0450671 0.763069
0.257565 0.0436368 0.762784
0.257288 0.0422 0.762273
0.25707 0.040772 0.761963
0.256807 0.0393405 0.761496
0.256593 0.0379159 0.761196
0.256386 0.0364935 0.760921
0.25631 0.035084 0.76109
0.256306 0.0336805 0.76151
0.256332 0.0322782 0.762032
0.256406 0.0308778 0.762714
0.256538 0.0294792 0.763596
0.256717 0.0280808 0.764644
0.256974 0.0266834 0.765959
0.257309 0.0252854 0.767539
0.257778 0.0238882 0.769585
0.258252 0.0224844 0.77165
0.257631 0.0212125 0.775054
0.258639 0.0210711 0.773415
0.268106 0.00944581 0.809581
0.267883 0.00795673 0.809268
0.267706 0.00646775 0.809119
0.267483 0.00498137 0.808804
0.267229 0.00349779 0.808389
0.266994 0.00201509 0.808034
0.266809 0.000531318 0.807853
0.266634 -0.000951924 0.807707
0.266441 -0.00243325 0.807497
0.266357 -0.00392119 0.807667
0.266228 -0.00540562 0.807676
0.266251 -0.0069027 0.808216
0.26629 -0.0084026 0.808811
0.266405 -0.00991151 0.80967
0.26651 -0.0114219 0.810498
0.266631 -0.0129366 0.811379
0.266662 -0.0144436 0.811948
0.266715 -0.015955 0.812596
0.266814 -0.0174739 0.813403
0.266845 -0.0189864 0.813976
0.266948 -0.0205103 0.814794
0.267002 -0.0220295 0.815446
0.267103 -0.023558 0.816268
0.267185 -0.0250858 0.817016
0.267341 -0.0266278 0.818029
0.267452 -0.0281654 0.818884
0.267635 -0.0297184 0.819992
0.267793 -0.0312701 0.821015
0.267955 -0.0328257 0.822047
0.268038 -0.0343694 0.82281
0.268212 -0.0359333 0.823887
0.268342 -0.0374913 0.824814
0.26848 -0.0390543 0.82577
0.268665 -0.0406302 0.82689
0.268969 -0.0422365 0.82843
0.269309 -0.0438567 0.830099
0.26971 -0.0454956 0.831985
0.270265 -0.0471792 0.834411
0.27085 -0.0488777 0.836947
0.271527 -0.0506081 0.839808
0.272113 -0.0523239 0.842354
0.265152 0.0700231 0.775609
0.264826 0.0685304 0.774952
0.264451 0.0670294 0.774126
0.264066 0.0655296 0.773266
0.26365 0.0640269 0.772304
0.263167 0.0625143 0.771113
0.262685 0.0610068 0.769927
0.262248 0.0595118 0.768888
0.26168 0.0579971 0.767407
0.261128 0.0564907 0.76598
0.260591 0.054992 0.764601
0.260132 0.0535115 0.763484
0.259732 0.0520444 0.762563
0.259519 0.0506094 0.762272
0.259333 0.0491798 0.762075
0.259126 0.0477483 0.761804
0.258954 0.0463227 0.761651
0.258694 0.0448869 0.761203
0.258479 0.0434582 0.760901
0.258203 0.0420242 0.7604
0.257989 0.0405989 0.760102
0.257732 0.0391704 0.75966
0.257559 0.0377523 0.7595
0.257372 0.0363339 0.759297
0.257301 0.0349265 0.759479
0.257319 0.0335266 0.759973
0.257349 0.0321261 0.760502
0.257399 0.0307255 0.761101
0.257509 0.0293273 0.761906
0.25771 0.0279319 0.763023
0.257973 0.0265362 0.764345
0.258316 0.0251403 0.765948
0.258788 0.0237443 0.767989
0.259237 0.0223409 0.769952
0.259597 0.0209285 0.771618
0.268766 0.00783087 0.806994
0.268611 0.00634425 0.806917
0.26841 0.00485993 0.806684
0.268161 0.00337874 0.806286
0.267929 0.00189866 0.805943
0.267719 0.000418737 0.80568
0.26752 -0.00106036 0.805452
0.267328 -0.0025387 0.805246
0.267247 -0.00402389 0.805422
0.267122 -0.00550595 0.805449
0.267166 -0.00700194 0.806058
0.267229 -0.00850128 0.806732
0.267348 -0.0100079 0.807599
0.26748 -0.0115186 0.808513
0.267625 -0.0130333 0.80947
0.267677 -0.0145404 0.810111
0.267732 -0.01605 0.810761
0.267836 -0.0175672 0.811577
0.267866 -0.0190774 0.812146
0.267942 -0.0205953 0.812867
0.267971 -0.0221088 0.813432
0.268049 -0.0236313 0.814164
0.268104 -0.025152 0.814815
0.26823 -0.0266865 0.815716
0.268336 -0.0282202 0.816549
0.26852 -0.0297698 0.817649
0.268705 -0.0313233 0.81876
0.268895 -0.0328813 0.819886
0.269031 -0.0344323 0.820827
0.269259 -0.0360043 0.822087
0.269442 -0.0375716 0.823192
0.269611 -0.0391392 0.824248
0.269797 -0.0407132 0.825368
0.27005 -0.0423062 0.82672
0.270338 -0.0439114 0.828195
0.270616 -0.0455192 0.829639
0.271044 -0.0471687 0.831609
0.271492 -0.0488283 0.833648
0.27202 -0.050516 0.835971
0.272483 -0.0521933 0.838068
0.265529 0.0715307 0.776438
0.266869 0.0714002 0.775899
0.266458 0.0698854 0.774961
0.266105 0.0683869 0.774216
0.26569 0.0668783 0.773265
0.265247 0.0653676 0.772221
0.264754 0.0638503 0.771003
0.264219 0.0623297 0.76965
0.263687 0.0608145 0.768303
0.263227 0.0593176 0.767194
0.262636 0.0578014 0.765645
0.262104 0.0563012 0.764293
0.261569 0.0548053 0.762926
0.261111 0.0533273 0.761819
0.260712 0.0518627 0.760908
0.260497 0.0504296 0.760617
0.26029 0.0489988 0.760346
0.260102 0.0475721 0.760142
0.259909 0.0461457 0.759919
0.259647 0.0447117 0.759463
0.259427 0.043285 0.759154
0.25917 0.0418551 0.758715
0.258941 0.0404302 0.758367
0.258706 0.0390064 0.758004
0.258538 0.0375907 0.757861
0.258373 0.0361763 0.757732
0.258302 0.0347709 0.757921
0.258325 0.0333727 0.75842
0.258354 0.0319738 0.758948
0.258422 0.0305761 0.759606
0.258511 0.0291778 0.76033
0.258711 0.0277839 0.761435
0.258996 0.0263909 0.762829
0.259338 0.0249962 0.764418
0.259768 0.0235999 0.766306
0.260171 0.0221963 0.7681
0.260459 0.0207836 0.769511
0.25988 0.0195088 0.77302
0.260695 0.0193654 0.770747
0.269725 0.00770369 0.805
0.269592 0.00621874 0.804999
0.26939 0.00473679 0.804763
0.269163 0.00325709 0.804444
0.268934 0.00177903 0.804115
0.268729 0.000301116 0.803865
0.26853 -0.00117589 0.803637
0.268359 -0.00265345 0.803507
0.268258 -0.0041353 0.803613
0.268157 -0.00561705 0.803723
0.268179 -0.00710915 0.804252
0.268216 -0.0086041 0.804829
0.268281 -0.0101033 0.805509
0.26841 -0.011611 0.806407
0.268535 -0.0131209 0.807293
0.268618 -0.014629 0.808033
0.268701 -0.016139 0.808774
0.268848 -0.0176594 0.80974
0.268882 -0.0191678 0.810312
0.268959 -0.0206839 0.811036
0.268988 -0.0221951 0.811593
0.269038 -0.0237109 0.812225
0.269068 -0.0252256 0.812788
0.269169 -0.0267533 0.813595
0.269252 -0.0282804 0.814343
0.26943 -0.0298263 0.81542
0.269618 -0.0313772 0.816529
0.269787 -0.0329284 0.817578
0.269953 -0.0344818 0.818613
0.270205 -0.0360559 0.819949
0.270419 -0.0376266 0.821158
0.270666 -0.0392076 0.822479
0.27091 -0.040792 0.82379
0.271166 -0.042384 0.825146
0.27145 -0.0439867 0.826597
0.271724 -0.0455919 0.82802
0.272033 -0.0472094 0.829563
0.272311 -0.0488249 0.830999
0.272692 -0.0504701 0.832797
0.273034 -0.052112 0.834459
0.268676 0.0728004 0.776469
0.268209 0.0712695 0.775356
0.267741 0.0697425 0.774237
0.267307 0.0682271 0.77323
0.266819 0.0667042 0.772044
0.266301 0.0651794 0.770755
0.26576 0.0636549 0.76939
0.265202 0.062132 0.767965
0.264668 0.0606189 0.766617
0.2642 0.0591234 0.765493
0.26361 0.0576097 0.763953
0.263098 0.0561157 0.762678
0.262587 0.0546264 0.761402
0.262152 0.0531543 0.760379
0.261779 0.0516956 0.759558
0.261565 0.0502641 0.75927
0.261335 0.0488316 0.758929
0.261144 0.0474062 0.758716
0.26093 0.0459786 0.758424
0.26065 0.0445438 0.757908
0.260409 0.0431163 0.757529
0.260169 0.0416906 0.757152
0.259937 0.0402673 0.756799
0.259728 0.038848 0.756522
0.259582 0.0374362 0.756456
0.25944 0.0360254 0.756404
0.25937 0.0346214 0.756594
0.259392 0.0332246 0.757093
0.25942 0.0318267 0.75761
0.259491 0.0304302 0.75827
0.259578 0.0290331 0.758988
0.259757 0.027639 0.760014
0.260016 0.0262459 0.761313
0.260335 0.0248514 0.762814
0.260739 0.0234554 0.764604
0.261094 0.0220519 0.766226
0.261356 0.0206405 0.767541
0.261569 0.0192239 0.768689
0.270578 0.00609343 0.803113
0.270403 0.00461277 0.802968
0.2702 0.00313414 0.802733
0.269995 0.00165685 0.802485
0.269788 0.000180994 0.802233
0.269586 -0.00129408 0.802
0.269414 -0.00276974 0.801864
0.26929 -0.00424805 0.801893
0.269168 -0.00572626 0.801928
0.269164 -0.00721413 0.802365
0.269169 -0.00870382 0.802834
0.269204 -0.0101977 0.803403
0.269307 -0.0117003 0.804208
0.26941 -0.013205 0.805013
0.269519 -0.014713 0.805839
0.26963 -0.0162235 0.80667
0.269788 -0.0177426 0.807662
0.269847 -0.0192518 0.808319
0.269945 -0.0207682 0.809111
0.269994 -0.02228 0.809738
