ply
format ascii 1.0
element vertex 1691
property float x
property float y
property float z
end_header
0.150641 0.0014772 0.797484
0.151056 0.00286664 0.797607
0.151473 0.00425638 0.797736
0.15192 0.00564956 0.798031
0.152386 0.00704547 0.798423
0.152871 0.00844477 0.79891
0.153354 0.00984518 0.799385
0.153819 0.0112445 0.799766
0.154252 0.0126405 0.799978
0.15467 0.0140344 0.800108
0.155072 0.0154262 0.800157
0.155474 0.0168175 0.800206
0.155876 0.0182097 0.800254
0.156279 0.019602 0.800303
0.156757 0.0210083 0.800746
0.157275 0.0224234 0.80139
0.157848 0.0238522 0.802315
0.158441 0.0252878 0.803334
0.159089 0.026739 0.804635
0.159663 0.0281764 0.805549
0.160236 0.0296163 0.806457
0.160681 0.0310274 0.80671
0.161129 0.0324405 0.806977
0.161542 0.0338439 0.807065
0.16198 0.0352554 0.807279
0.162458 0.0366774 0.807696
0.163069 0.0381389 0.808775
0.163751 0.0396237 0.810208
0.164507 0.0411355 0.812007
0.165336 0.0426747 0.814156
0.166188 0.0442275 0.81641
0.167006 0.045776 0.818492
0.167773 0.0473127 0.820305
0.168519 0.0488485 0.82201
0.16922 0.0503731 0.823486
0.169893 0.0518931 0.824817
0.17058 0.0534206 0.82621
0.171198 0.054928 0.827258
0.171741 0.0564095 0.827937
0.172244 0.0578781 0.82842
0.17266 0.0593143 0.828473
0.172935 0.0606951 0.827846
0.173178 0.0620613 0.827066
0.173377 0.063406 0.826076
0.173564 0.0647437 0.825031
0.173795 0.066097 0.824208
0.175583 0.0670954 0.823863
0.174136 0.0674943 0.823909
0.175941 0.0685001 0.823653
0.174513 0.0689071 0.823788
0.178438 0.0708365 0.833584
0.137609 -0.107977 0.904611
0.137838 -0.106259 0.903194
0.138028 -0.104522 0.901535
0.138268 -0.102823 0.900212
0.138539 -0.101149 0.899095
0.138779 -0.0994606 0.897788
0.139031 -0.0977845 0.896565
0.139255 -0.096097 0.895171
0.139462 -0.0944055 0.893677
0.139725 -0.0927508 0.892547
0.139991 -0.0911026 0.891446
0.140262 -0.0894613 0.890382
0.140608 -0.0878636 0.889803
0.140985 -0.0862838 0.88942
0.141308 -0.0846788 0.888699
0.141672 -0.0830964 0.888239
0.142048 -0.0815221 0.887861
0.137288 -0.0725604 0.847648
0.136132 -0.0704269 0.837946
0.136371 -0.0688945 0.836875
0.136535 -0.0673368 0.835354
0.136709 -0.0657884 0.8339
0.13683 -0.064226 0.832131
0.136966 -0.0626754 0.830463
0.137099 -0.0611303 0.828791
0.137204 -0.0595817 0.826956
0.13732 -0.0580435 0.825197
0.137463 -0.0565202 0.823611
0.137681 -0.0550261 0.822487
0.137922 -0.0535429 0.821507
0.138221 -0.0520795 0.820871
0.1385 -0.0506135 0.820129
0.138789 -0.0491526 0.819443
0.13902 -0.0476797 0.818422
0.139253 -0.0462111 0.817417
0.139468 -0.044742 0.816315
0.139697 -0.04328 0.815299
0.139954 -0.0418276 0.814449
0.140229 -0.0403821 0.813716
0.140507 -0.0389398 0.813002
0.140824 -0.0375072 0.812515
0.141154 -0.0360788 0.81211
0.141446 -0.0346457 0.811485
0.14171 -0.0332107 0.810703
0.141963 -0.031777 0.809868
0.142172 -0.0303404 0.808779
0.142363 -0.0289055 0.807598
0.142586 -0.0274784 0.806603
0.142827 -0.0260567 0.805716
0.14307 -0.0246383 0.804846
0.143308 -0.0232227 0.803952
0.143473 -0.0218047 0.802653
0.143574 -0.0203869 0.801
0.143642 -0.0189731 0.799168
0.143706 -0.0175651 0.797328
0.143817 -0.0161654 0.795757
0.143964 -0.014772 0.794396
0.144198 -0.0133849 0.793527
0.144506 -0.0120016 0.793068
0.144861 -0.0106199 0.792872
0.145236 -0.00923897 0.792787
0.145693 -0.00785699 0.793156
0.146154 -0.00647401 0.793543
0.146645 -0.00508871 0.794091
0.147169 -0.00370047 0.794817
0.14771 -0.0023091 0.795628
0.148238 -0.000916112 0.79637
0.148747 0.000477815 0.797006
0.149224 0.00187111 0.797462
0.149654 0.00326166 0.797671
0.150085 0.00465266 0.797877
0.150534 0.00604614 0.79818
0.151003 0.00744262 0.798588
0.151486 0.00884201 0.799074
0.151968 0.0102426 0.799547
0.152431 0.0116419 0.79992
0.152862 0.0130377 0.800123
0.153279 0.0144315 0.800247
0.153681 0.0158234 0.800296
0.154083 0.0172147 0.800344
0.154485 0.0186069 0.800393
0.154888 0.0199991 0.800442
0.155366 0.0214057 0.800885
0.155867 0.0228177 0.801451
0.156437 0.0242466 0.802368
0.157027 0.0256824 0.803379
0.157675 0.0271341 0.804694
0.158251 0.0285725 0.805624
0.158852 0.0300205 0.806686
0.159316 0.0314368 0.807033
0.159783 0.0328551 0.807402
0.160214 0.0342636 0.807582
0.160667 0.0356798 0.80787
0.161144 0.0371031 0.808285
0.161768 0.0385694 0.809442
0.162447 0.0400556 0.810866
0.163184 0.0415643 0.812583
0.164008 0.0431041 0.814725
0.164856 0.044659 0.816978
0.16566 0.0462046 0.819
0.16641 0.0477391 0.820743
0.167152 0.0492753 0.822442
0.167812 0.0507881 0.823727
0.168445 0.0522943 0.824867
0.169076 0.0538036 0.825992
0.169654 0.0552957 0.826854
0.170142 0.0567565 0.82727
0.170607 0.0582104 0.827568
0.170985 0.0596302 0.827442
0.171259 0.0610076 0.826805
0.17152 0.0623781 0.826109
0.17176 0.0637385 0.825313
0.172006 0.065098 0.824551
0.172296 0.0664741 0.824002
0.172673 0.0678867 0.823881
0.173069 0.0693073 0.823852
0.174909 0.0703267 0.82376
0.173482 0.0707341 0.823902
0.1774 0.0726866 0.833722
0.173928 0.0721775 0.824116
0.136053 -0.107538 0.904855
0.136352 -0.105865 0.903886
0.136609 -0.10417 0.902648
0.136852 -0.10247 0.901324
0.137125 -0.100795 0.900207
0.137366 -0.0991044 0.898891
0.137622 -0.0974283 0.897678
0.137848 -0.0957394 0.896277
0.138057 -0.0940464 0.894777
0.138306 -0.0923813 0.893538
0.138571 -0.0907306 0.892418
0.138844 -0.0890886 0.891354
0.13918 -0.0874834 0.890697
0.139575 -0.0859113 0.890422
0.139899 -0.0843051 0.889699
0.140234 -0.0827069 0.889048
0.140579 -0.0811159 0.888461
0.140997 -0.0792894 0.878586
0.139511 -0.078872 0.878982
0.135731 -0.0721038 0.847274
0.134561 -0.0699637 0.83739
0.134787 -0.0684269 0.836227
0.13494 -0.0668658 0.83462
0.135116 -0.0653199 0.833169
0.13524 -0.0637599 0.831404
0.135392 -0.0622164 0.829818
0.135529 -0.0606738 0.828153
0.135649 -0.0591316 0.826395
0.135767 -0.0575951 0.824632
0.135925 -0.0560781 0.823126
0.136147 -0.0545859 0.822009
0.136402 -0.0531078 0.821103
0.136703 -0.0516464 0.820481
0.136984 -0.0501815 0.819735
0.137247 -0.0487147 0.818891
0.137464 -0.0472397 0.817779
0.137698 -0.0457727 0.816772
0.137918 -0.0443063 0.815689
0.138179 -0.0428529 0.814856
0.13848 -0.0414109 0.814259
0.138772 -0.0399696 0.813619
0.139052 -0.0385281 0.812906
0.139381 -0.0370983 0.812488
0.139712 -0.0356703 0.812082
0.139993 -0.0342359 0.811392
0.140257 -0.0328015 0.810604
0.140499 -0.0313667 0.809689
0.140689 -0.0299287 0.808487
0.14087 -0.0284936 0.807233
0.141108 -0.0270692 0.806316
0.141369 -0.0256506 0.805536
0.141643 -0.0242359 0.804836
0.141914 -0.0228236 0.804121
0.142094 -0.0214071 0.802896
0.142211 -0.0199908 0.801317
0.142294 -0.0185781 0.799552
0.142361 -0.0171708 0.797711
0.142461 -0.0157708 0.796064
0.142595 -0.0143774 0.794615
0.142787 -0.0129899 0.793502
0.143036 -0.0116065 0.792709
0.143344 -0.0102259 0.792251
0.143672 -0.00884676 0.79191
0.144086 -0.00746717 0.792042
0.14453 -0.00608648 0.792342
0.14502 -0.00470315 0.79289
0.145555 -0.00331618 0.793688
0.146124 -0.00192494 0.794666
0.146697 -0.000530513 0.795662
0.14724 0.000864914 0.796489
0.147761 0.00226104 0.797193
0.148222 0.00365372 0.797567
0.148668 0.00504608 0.797859
0.14913 0.00644074 0.798234
0.14961 0.0078388 0.798705
0.150093 0.00923836 0.799197
0.150575 0.0106392 0.799675
0.151039 0.0120389 0.800053
0.151471 0.0134349 0.800262
0.151887 0.0148287 0.800386
0.15229 0.0162206 0.800435
0.152692 0.0176119 0.800483
0.153094 0.0190041 0.800532
0.15351 0.020399 0.800655
0.153989 0.0218061 0.801106
0.154504 0.0232214 0.801742
0.155073 0.0246516 0.802661
0.155673 0.0260901 0.80374
0.156306 0.0275404 0.804983
0.156878 0.0289789 0.805905
0.157482 0.0304279 0.806985
0.157976 0.0318524 0.807495
0.158464 0.0332769 0.807969
0.15893 0.0346962 0.808327
0.159415 0.0361222 0.808782
0.159894 0.0375477 0.809208
0.1605 0.0390109 0.810278
0.161161 0.0404943 0.811626
0.161878 0.0419987 0.813249
0.162684 0.043536 0.815315
0.163515 0.0450878 0.817501
0.164315 0.0466352 0.819524
0.165046 0.0481648 0.821183
0.165766 0.0496961 0.822784
0.166389 0.0511968 0.823892
0.167015 0.0527017 0.825007
0.167592 0.0541925 0.825877
0.168131 0.0556713 0.82655
0.168583 0.0571178 0.826787
0.169024 0.0585615 0.826973
0.169352 0.05996 0.826597
0.169641 0.0613417 0.826032
0.169924 0.0627192 0.825438
0.170203 0.064093 0.824828
0.17049 0.0654683 0.824261
0.170834 0.0668663 0.823973
0.17123 0.0682869 0.823945
0.171643 0.0697146 0.823995
0.172071 0.0711486 0.824123
0.172537 0.0726008 0.824432
0.134488 -0.107092 0.90504
0.134861 -0.105469 0.904557
0.135186 -0.103816 0.903758
0.135451 -0.102128 0.902559
0.135726 -0.100451 0.90144
0.135984 -0.0987681 0.900217
0.136242 -0.0970899 0.898997
0.13647 -0.0953996 0.897593
0.136665 -0.0936955 0.89598
0.136899 -0.0920196 0.894628
0.137152 -0.0903597 0.893411
0.137428 -0.0887172 0.892352
0.137751 -0.0871035 0.891603
0.138162 -0.0855379 0.891423
0.138486 -0.0839296 0.890687
0.138804 -0.0823216 0.88992
0.13913 -0.0807201 0.889205
0.133015 -0.0695101 0.836971
0.133244 -0.0679756 0.835818
0.133402 -0.0664174 0.834228
0.133595 -0.0648784 0.832866
0.133722 -0.0633201 0.831102
0.133863 -0.0617736 0.829438
0.133989 -0.0602276 0.827684
0.134111 -0.058687 0.825921
0.134232 -0.0571526 0.82416
0.134394 -0.0556378 0.822664
0.134629 -0.0541509 0.821622
0.134886 -0.0526742 0.820718
0.135185 -0.051213 0.820077
0.135455 -0.0497461 0.819259
0.135703 -0.0482767 0.818318
0.135909 -0.0468002 0.817129
0.136154 -0.0453373 0.816182
0.136393 -0.0438766 0.815202
0.136674 -0.0424286 0.814476
0.136993 -0.0409916 0.813986
0.137301 -0.0395542 0.813433
0.137595 -0.0381162 0.8128
0.137927 -0.0366873 0.812396
0.138272 -0.0352623 0.812068
0.138568 -0.0338307 0.811455
0.138832 -0.0323965 0.810658
0.139058 -0.0309601 0.809643
0.139236 -0.0295209 0.808359
0.139418 -0.0280868 0.807101
0.13966 -0.0266637 0.806199
0.139938 -0.0252476 0.805513
0.140229 -0.0238348 0.8049
0.140529 -0.0224251 0.804343
0.140727 -0.0210102 0.803205
0.140863 -0.0195955 0.801725
0.140963 -0.0181839 0.800037
0.141048 -0.0167775 0.798279
0.141138 -0.0153772 0.796561
0.141248 -0.0139832 0.794962
0.141398 -0.0125953 0.793596
0.141598 -0.0112122 0.792524
0.141847 -0.0098327 0.791728
0.14213 -0.00845539 0.79113
0.142514 -0.00707792 0.791097
0.142941 -0.00569934 0.791307
0.1434 -0.0043189 0.791696
0.143933 -0.00293381 0.792488
0.144514 -0.00154348 0.793549
0.145102 -0.00014938 0.794634
0.145673 0.00124672 0.795628
0.146239 0.00264551 0.796587
0.14673 0.00404008 0.797133
0.147205 0.00543456 0.797586
0.14768 0.00683035 0.798039
0.148158 0.00822773 0.798505
0.148652 0.00962855 0.799057
0.149149 0.0110313 0.799619
0.149616 0.0124314 0.800019
0.150065 0.0138297 0.80032
0.150496 0.015226 0.800525
0.150898 0.0166178 0.800574
0.1513 0.0180091 0.800622
0.151717 0.019404 0.800745
0.152149 0.0208016 0.800956
0.152644 0.0222127 0.801493
0.15316 0.0236299 0.802144
0.153727 0.02506 0.803057
0.154324 0.0264996 0.804128
0.15494 0.0279465 0.805288
0.155496 0.0293828 0.806135
0.156111 0.0308355 0.807283
0.15662 0.0322643 0.807874
0.157111 0.0336903 0.808369
0.157611 0.0351205 0.808905
0.15813 0.0365566 0.809539
0.158611 0.0379834 0.809974
0.159215 0.0394491 0.811044
0.159873 0.0409337 0.812384
0.160572 0.0424346 0.813928
0.16136 0.0439693 0.815918
0.162168 0.0455156 0.818004
0.162963 0.0470639 0.820017
0.163673 0.048589 0.821584
0.164374 0.0501146 0.823098
0.164978 0.0516111 0.824119
0.165601 0.0531158 0.825231
0.166145 0.0545952 0.825936
0.166665 0.0560669 0.826521
0.167093 0.0575044 0.82664
0.167516 0.0589399 0.826738
0.167811 0.0603246 0.826194
0.168101 0.0617051 0.825631
0.1684 0.0630876 0.825113
0.168702 0.0644698 0.824612
0.169011 0.0658536 0.824151
0.169391 0.0672665 0.824037
0.169803 0.0686943 0.824087
0.170216 0.070122 0.824137
0.170645 0.0715564 0.824273
0.171129 0.0730172 0.824669
0.175015 0.0749934 0.834464
0.171619 0.0744821 0.825097
0.132944 -0.106662 0.905373
0.133373 -0.105075 0.905261
0.133765 -0.103464 0.904897
0.134076 -0.101803 0.903996
0.134368 -0.100134 0.90297
0.134614 -0.0984406 0.901651
0.13486 -0.0967522 0.900334
0.13506 -0.095042 0.898722
0.135241 -0.0933272 0.896995
0.135447 -0.0916331 0.89544
0.135686 -0.0899634 0.894112
0.135978 -0.0883279 0.893144
0.136318 -0.0867218 0.892495
0.136745 -0.0851629 0.892415
0.137068 -0.0835527 0.891666
0.137372 -0.0819357 0.890794
0.137664 -0.0803163 0.889849
0.13148 -0.0690613 0.836614
0.131712 -0.0675288 0.835472
0.131888 -0.0659781 0.833978
0.132087 -0.0644421 0.83264
0.132218 -0.0628855 0.83088
0.132347 -0.061335 0.829123
0.132459 -0.059785 0.827268
0.132572 -0.058242 0.825429
0.132696 -0.0567098 0.823674
0.132851 -0.0551938 0.822118
0.133087 -0.0537082 0.821071
0.133358 -0.052237 0.820246
0.133657 -0.0507769 0.819599
0.133929 -0.0493116 0.818788
0.134177 -0.0478433 0.817837
0.134394 -0.0463708 0.816706
0.134639 -0.044909 0.815749
0.134894 -0.0434532 0.814858
0.135193 -0.0420101 0.814233
0.135531 -0.0405776 0.813853
0.135854 -0.0391437 0.813383
0.136162 -0.0377089 0.812831
0.136495 -0.0362805 0.812426
0.136844 -0.0348564 0.812121
0.137142 -0.0334254 0.811512
0.137393 -0.0319896 0.81063
0.137604 -0.0305516 0.809522
0.137783 -0.0291135 0.808229
0.137967 -0.0276804 0.806969
0.138228 -0.02626 0.806167
0.138521 -0.0248458 0.805559
0.138826 -0.0234347 0.805026
0.139139 -0.0220263 0.804541
0.139356 -0.020613 0.803502
0.139513 -0.0191998 0.802123
0.139633 -0.0177895 0.800537
0.139737 -0.016384 0.798873
0.13983 -0.0149838 0.797151
0.139914 -0.0135893 0.795387
0.140034 -0.0122011 0.793837
0.140191 -0.0108184 0.792504
0.140394 -0.00943963 0.791441
0.140634 -0.00806407 0.790594
0.141 -0.00668816 0.790466
0.141399 -0.00531176 0.79052
0.141842 -0.00393339 0.790822
0.142344 -0.00255113 0.791456
0.142906 -0.00116324 0.792419
0.143491 0.000229176 0.793501
0.144076 0.00162501 0.794586
0.14467 0.00302475 0.795708
0.145204 0.0044222 0.7965
0.145711 0.00581921 0.797132
0.146202 0.007216 0.797678
0.146692 0.00861465 0.798219
0.147199 0.0100168 0.798847
0.14771 0.0114211 0.799488
0.148193 0.0128235 0.799984
0.148659 0.0142244 0.800377
0.149105 0.0156231 0.800664
0.149507 0.017015 0.800712
0.149909 0.0184063 0.800761
0.15034 0.0198044 0.800966
0.15079 0.0212054 0.801268
0.151288 0.0226179 0.801826
0.151821 0.0240394 0.802573
0.152385 0.0254705 0.803478
0.152967 0.0269077 0.804476
0.153563 0.0283511 0.805542
0.154117 0.0297874 0.806382
0.154712 0.0312365 0.807436
0.155235 0.0326693 0.808101
0.15574 0.0340996 0.808678
0.156274 0.0355398 0.809396
0.15681 0.0369819 0.810126
0.157323 0.0384197 0.810728
0.157927 0.0398864 0.811803
0.15858 0.0413718 0.813128
0.159246 0.0428651 0.814512
0.160012 0.0443947 0.816407
0.160785 0.0459322 0.818325
0.161557 0.0474753 0.820233
0.162245 0.0489944 0.821704
0.162945 0.0505209 0.823226
0.163564 0.0520236 0.824333
0.16419 0.0535311 0.825465
0.164717 0.0550046 0.826091
0.165218 0.0564691 0.826587
0.165626 0.0578992 0.826608
0.166017 0.0593219 0.826539
0.166295 0.0606978 0.825908
0.166602 0.062085 0.825426
0.166919 0.0634731 0.824992
0.167239 0.0648624 0.824581
0.167567 0.0662534 0.824208
0.167964 0.0676739 0.82418
0.168376 0.0691016 0.82423
0.168789 0.0705293 0.82428
0.169235 0.0719717 0.824497
0.169736 0.0734411 0.82498
0.170245 0.0749159 0.825505
0.131426 -0.10625 0.905885
0.131917 -0.104704 0.906194
0.132356 -0.103122 0.906144
0.132714 -0.101489 0.905546
0.133022 -0.0998259 0.904611
0.133271 -0.0981308 0.903291
0.133489 -0.0964219 0.901766
0.133675 -0.0946998 0.900034
0.133839 -0.0929724 0.898175
0.134031 -0.0912675 0.896504
0.134257 -0.0895888 0.895079
0.13455 -0.0879518 0.894102
0.134877 -0.0863368 0.893357
0.135291 -0.0847699 0.893188
0.135617 -0.0831595 0.892445
0.135923 -0.081542 0.891575
0.136217 -0.079922 0.890628
0.129951 -0.068615 0.836287
0.130186 -0.0670838 0.835146
0.130378 -0.0655401 0.833739
0.13058 -0.064006 0.832412
0.130715 -0.0624513 0.830659
0.130833 -0.060897 0.828811
0.130944 -0.0593474 0.826934
0.131044 -0.0578008 0.824993
0.13116 -0.0562666 0.823167
0.13132 -0.0547532 0.821627
0.131558 -0.0532696 0.820589
0.131818 -0.051796 0.819684
0.132093 -0.0503303 0.818883
0.132363 -0.0488663 0.818056
0.132601 -0.0473969 0.817037
0.132833 -0.0459297 0.815987
0.133082 -0.0444705 0.815043
0.133364 -0.0430224 0.814311
0.133677 -0.0415839 0.813775
0.134017 -0.0401528 0.813398
0.134339 -0.0387198 0.812919
0.13466 -0.0372887 0.812443
0.134996 -0.0358617 0.812051
0.135335 -0.034437 0.811687
0.135634 -0.0330073 0.811078
0.135898 -0.0315746 0.810267
0.136111 -0.030138 0.809157
0.136307 -0.0287032 0.80795
0.13652 -0.0272745 0.806854
0.136809 -0.0258579 0.806216
0.137104 -0.0244441 0.805611
0.137424 -0.0230347 0.805157
0.13775 -0.0216276 0.804745
0.137997 -0.0202165 0.803873
0.138187 -0.0188054 0.802671
0.138342 -0.0173967 0.801272
0.138476 -0.015992 0.79976
0.138571 -0.0145914 0.798029
0.13863 -0.013196 0.796102
0.13872 -0.0118073 0.794362
0.138836 -0.0104244 0.792783
0.138997 -0.00904654 0.791472
0.139211 -0.00767204 0.790469
0.13955 -0.00629746 0.790182
0.139921 -0.00492273 0.790078
0.140347 -0.00354599 0.790287
0.140816 -0.00216629 0.790741
0.141333 -0.000782218 0.791458
0.141897 0.000607506 0.792439
0.142465 0.00200063 0.793439
0.143058 0.00339897 0.794573
0.143623 0.00479789 0.795545
0.144172 0.00619812 0.796423
0.144694 0.00759778 0.797149
0.145216 0.00899947 0.797865
0.14575 0.010405 0.798651
0.146275 0.0118114 0.799378
0.146773 0.013216 0.799958
0.147267 0.0146214 0.80051
0.147728 0.0160228 0.800883
0.148131 0.0174148 0.800935
0.148547 0.0188095 0.801056
0.148993 0.0202098 0.801344
0.149446 0.0216132 0.801666
0.149961 0.0230297 0.802321
0.150507 0.0244553 0.803143
0.151057 0.0258838 0.803977
0.151634 0.0273218 0.804959
0.152213 0.0287617 0.80594
0.152764 0.0301988 0.806774
0.153343 0.0316451 0.807749
0.153878 0.0330821 0.808488
0.154384 0.0345136 0.809063
0.154931 0.0359585 0.80986
0.15547 0.0374021 0.810612
0.155984 0.0388413 0.811224
0.156586 0.0403089 0.812294
0.157236 0.0417953 0.813614
0.157883 0.0432844 0.814913
0.158629 0.0448096 0.816717
0.159394 0.0463468 0.818613
0.160146 0.0478844 0.820431
0.160817 0.0493986 0.821826
0.161516 0.0509274 0.823353
0.162152 0.0524366 0.824555
0.162794 0.0539516 0.825781
0.163323 0.0554273 0.82642
0.163823 0.0568922 0.826913
0.164229 0.0583213 0.826921
0.164601 0.0597367 0.826762
0.164849 0.0610998 0.825971
0.165156 0.0624852 0.825484
0.165473 0.0638734 0.825047
0.165795 0.0652632 0.824639
0.166125 0.0666544 0.824272
0.166537 0.0680812 0.824322
0.166949 0.0695089 0.824372
0.167362 0.0709367 0.824422
0.167825 0.0723871 0.824722
0.168326 0.0738571 0.825212
0.16885 0.0753396 0.825813
0.172715 0.0773449 0.835636
0.169445 0.0768591 0.826763
0.131673 -0.0995185 0.906273
0.13194 -0.0978306 0.90505
0.132173 -0.0961269 0.903606
0.132343 -0.0943913 0.901742
0.132479 -0.092643 0.89966
0.132628 -0.0909104 0.89768
0.132826 -0.0892132 0.896043
0.133091 -0.0875591 0.894867
0.133405 -0.0859357 0.894024
0.133819 -0.0843677 0.89385
0.134164 -0.0827655 0.893221
0.134475 -0.0811488 0.892368
0.134775 -0.0795305 0.891454
0.128418 -0.0681661 0.835915
0.128653 -0.0666363 0.834771
0.128872 -0.0651039 0.833524
0.129076 -0.0635708 0.832192
0.129216 -0.0620184 0.830454
0.129335 -0.060465 0.828596
0.129448 -0.0589163 0.826708
0.129534 -0.0573656 0.824664
0.129641 -0.0558292 0.82276
0.129801 -0.0543166 0.821204
0.13003 -0.0528312 0.820099
0.130276 -0.0513546 0.819099
0.130538 -0.0498866 0.818211
0.13081 -0.0484243 0.817385
0.131051 -0.0469573 0.816378
0.131301 -0.0454961 0.815429
0.131555 -0.0440394 0.81451
0.131852 -0.042596 0.813863
0.132178 -0.0411613 0.8134
0.132503 -0.0397284 0.812937
0.132813 -0.0382941 0.812379
0.133145 -0.0368662 0.811963
0.133481 -0.0354404 0.811572
0.133809 -0.0340149 0.811134
0.134121 -0.0325886 0.810603
0.134412 -0.0311611 0.809946
0.134628 -0.029726 0.808846
0.134844 -0.0282947 0.807748
0.135088 -0.0268705 0.806825
0.135393 -0.025456 0.806274
0.135691 -0.0240429 0.805681
0.136037 -0.022636 0.805381
0.136366 -0.021229 0.804978
0.136642 -0.0198201 0.804267
0.136863 -0.0184106 0.803233
0.137048 -0.0170032 0.802001
0.137188 -0.0155984 0.800502
0.137284 -0.0141976 0.798763
0.137315 -0.0128016 0.79665
0.137381 -0.011413 0.794753
0.137459 -0.0100306 0.792935
0.137596 -0.00865363 0.791473
0.137796 -0.00728012 0.790377
0.138121 -0.00590654 0.790009
0.138478 -0.00453307 0.789824
0.138889 -0.00315744 0.789951
0.139327 -0.00178017 0.790233
0.139809 -0.00039912 0.790762
0.140337 0.000987104 0.79155
0.140874 0.00237634 0.792383
0.141452 0.00377213 0.793446
0.142029 0.00517091 0.794495
0.142607 0.0065731 0.79555
0.14316 0.00797528 0.796456
0.143712 0.00938017 0.797352
0.144276 0.0107892 0.798309
0.144827 0.0121993 0.799193
0.14534 0.013606 0.79986
0.145862 0.0150162 0.800574
0.146353 0.016423 0.801112
0.146771 0.017818 0.801248
0.147201 0.0192157 0.801449
0.147662 0.0206196 0.801815
0.148115 0.022023 0.80214
0.14863 0.0234411 0.802804
0.149189 0.0248701 0.803697
0.149721 0.0262963 0.804442
0.150296 0.0277341 0.805419
0.150859 0.0291729 0.806322
0.151409 0.0306104 0.807157
0.151988 0.0320575 0.808139
0.152538 0.0334998 0.80896
0.153029 0.0349284 0.809466
0.153589 0.0363773 0.810338
0.154125 0.0378225 0.811075
0.154624 0.0392572 0.811614
0.15521 0.0407216 0.812607
0.155858 0.0422087 0.813927
0.156501 0.0436975 0.815211
0.157229 0.0452191 0.816938
0.15799 0.0467567 0.818828
0.158738 0.048295 0.820648
0.159409 0.0498112 0.82205
0.160091 0.051335 0.823502
0.160742 0.0528514 0.824791
0.161383 0.0543674 0.826025
0.16193 0.0558501 0.826761
0.162444 0.0573218 0.82733
0.16285 0.0587519 0.827339
0.163206 0.0601599 0.827088
0.163453 0.0615226 0.826285
0.163743 0.0629005 0.825706
0.164045 0.0642812 0.825189
0.164367 0.0656707 0.824781
0.164698 0.0670618 0.824415
0.16511 0.0684885 0.824465
0.165523 0.0699163 0.824515
0.165935 0.071344 0.824565
0.166414 0.0728026 0.824946
0.166932 0.0742813 0.825525
0.167476 0.0757743 0.826228
0.168103 0.077311 0.827344
0.130817 -0.0958087 0.905203
0.130986 -0.0940686 0.903305
0.131107 -0.0923083 0.901098
0.131243 -0.0905649 0.899004
0.131428 -0.0888572 0.897254
0.131679 -0.0871926 0.895962
0.132004 -0.0855729 0.89518
0.132417 -0.0840027 0.894998
0.13278 -0.0824073 0.894474
0.13311 -0.080798 0.89374
0.133444 -0.0791937 0.893038
0.126975 -0.0677557 0.836131
0.127201 -0.0662215 0.834911
0.127421 -0.0646897 0.833662
0.127627 -0.0631568 0.832323
0.127769 -0.0616052 0.830583
0.127856 -0.0600398 0.828493
0.127959 -0.0584879 0.826523
0.128033 -0.0569333 0.824377
0.128127 -0.0553934 0.822376
0.128277 -0.0538782 0.820736
0.128506 -0.0523937 0.819616
0.128739 -0.0509146 0.81853
0.128974 -0.0494401 0.817461
0.129242 -0.0479786 0.816608
0.129485 -0.0465137 0.815603
0.129756 -0.0450595 0.814779
0.130042 -0.0436118 0.814051
0.130366 -0.0421757 0.813567
0.130691 -0.0407416 0.813094
0.131015 -0.0393093 0.81262
0.131325 -0.0378759 0.812057
0.131657 -0.0364489 0.811638
0.131994 -0.0350241 0.811244
0.132307 -0.0335971 0.810716
0.132619 -0.0321718 0.810177
0.132922 -0.0307473 0.809594
0.13316 -0.0293161 0.808613
0.133396 -0.0278883 0.807627
0.133671 -0.0264684 0.806882
0.133991 -0.0250556 0.806414
0.134303 -0.0236441 0.805905
0.134666 -0.0222386 0.805698
0.134999 -0.0208317 0.805316
0.135302 -0.0194244 0.804756
0.135551 -0.0180163 0.803881
0.135756 -0.0166094 0.802746
0.135912 -0.0152047 0.801333
0.136012 -0.0138036 0.799596
0.13603 -0.0124073 0.797381
0.136069 -0.0110185 0.79531
0.136122 -0.00963644 0.793322
0.136235 -0.00826009 0.791705
0.136435 -0.00688722 0.790597
0.136748 -0.00551406 0.790152
0.137091 -0.00414125 0.789888
0.137488 -0.00276652 0.789936
0.137898 -0.00139105 0.790058
0.138336 -1.33461e-05 0.790337
0.138818 0.00136871 0.790873
0.13932 0.00275405 0.791515
0.139866 0.00414562 0.792407
0.14044 0.0055429 0.793452
0.141044 0.00694689 0.794668
0.141626 0.00835178 0.795749
0.14222 0.00976154 0.796892
0.142814 0.0111745 0.798025
0.143392 0.0125887 0.799071
0.143919 0.0139978 0.799824
0.144471 0.0154131 0.800707
0.144979 0.0168233 0.801346
0.145429 0.0182245 0.801659
0.145873 0.0196251 0.801941
0.146346 0.0210331 0.80238
0.146799 0.0224376 0.802703
0.147312 0.0238559 0.803356
0.147855 0.0252828 0.804171
0.14837 0.026706 0.804834
0.148928 0.0281408 0.80572
0.149474 0.029576 0.806539
0.150024 0.0310143 0.807381
0.150619 0.032467 0.808456
0.151173 0.0339114 0.809307
0.151662 0.0353396 0.809807
0.152219 0.036789 0.810666
0.152735 0.0382285 0.811307
0.153217 0.0396597 0.811757
0.1538 0.0411233 0.812743
0.154444 0.0426106 0.814055
0.155087 0.0441011 0.81535
0.155814 0.0456239 0.817084
0.156591 0.0471689 0.819075
0.157339 0.0487091 0.820907
0.158008 0.0502258 0.822311
0.158684 0.0517497 0.823746
0.159347 0.0532717 0.825107
0.159971 0.0547827 0.826262
0.160535 0.0562729 0.827092
0.161066 0.0577531 0.827753
0.16149 0.0591904 0.827854
0.161829 0.0605916 0.827516
0.162075 0.061953 0.826699
0.162347 0.0633221 0.82602
0.162632 0.0646962 0.825412
0.16294 0.0660782 0.824924
0.163271 0.0674691 0.824557
0.163683 0.0688959 0.824607
0.164096 0.0703236 0.824657
0.164524 0.0717587 0.824786
0.16502 0.0732266 0.825259
0.165557 0.0747153 0.825936
0.166119 0.0762191 0.826739
0.166764 0.0777663 0.82795
0.168715 0.0788432 0.828382
0.16738 0.0793017 0.829014
0.130293 -0.0991921 0.907745
0.128477 -0.100456 0.909335
0.128886 -0.0988504 0.909066
0.130579 -0.097513 0.906637
0.12921 -0.0971921 0.908202
0.129468 -0.0954965 0.906884
0.129643 -0.0937567 0.905008
0.129782 -0.092002 0.902884
0.129917 -0.0902541 0.900754
0.13009 -0.0885356 0.898894
0.130326 -0.0868596 0.897484
0.130637 -0.0852294 0.896592
0.131036 -0.0836492 0.896307
0.1314 -0.0820522 0.895783
0.131733 -0.080442 0.895056
0.131774 -0.078692 0.892364
0.126446 -0.0693848 0.845185
0.125522 -0.0673409 0.836277
0.125738 -0.0658026 0.834982
0.125961 -0.0642714 0.833731
0.126156 -0.0627343 0.832307
0.1263 -0.0611834 0.830561
0.126378 -0.0596148 0.828392
0.126483 -0.058064 0.826415
0.126549 -0.0565067 0.824192
0.126643 -0.0549673 0.82217
0.12677 -0.0534456 0.820371
0.126987 -0.051958 0.819157
0.127207 -0.0504761 0.817977
0.127426 -0.0489981 0.816793
0.127682 -0.0475349 0.815859
0.127938 -0.0460749 0.814928
0.128226 -0.0446263 0.8142
0.128528 -0.043184 0.81357
0.128855 -0.0417498 0.813106
0.129192 -0.0403196 0.812705
0.129518 -0.0388885 0.812235
0.129817 -0.037454 0.811602
0.130138 -0.036026 0.811109
0.130486 -0.0346043 0.810781
0.130786 -0.0331763 0.810168
0.131098 -0.0317524 0.809628
0.131429 -0.0303332 0.809209
0.131697 -0.0289071 0.808402
0.131951 -0.0274823 0.807519
0.132255 -0.0260663 0.806946
0.132588 -0.0246552 0.806554
0.132915 -0.0232453 0.806127
0.133294 -0.0218409 0.806013
0.133643 -0.020435 0.805722
0.133962 -0.0190285 0.805257
0.134239 -0.0176216 0.804534
0.13446 -0.016215 0.803487
0.134622 -0.0148101 0.802092
0.134738 -0.0134091 0.800431
0.134771 -0.0120128 0.798279
0.134811 -0.0106236 0.796186
0.134852 -0.00924155 0.794112
0.134953 -0.00786523 0.792401
0.135126 -0.0064926 0.791127
0.135411 -0.00512014 0.790516
0.135729 -0.00374837 0.790099
0.136114 -0.00237422 0.790073
0.136511 -0.000999483 0.790122
0.136921 0.000376133 0.790243
0.137373 0.00175546 0.790604
0.137829 0.00313637 0.790992
0.138342 0.004524 0.791703
0.138898 0.00591856 0.792659
0.139499 0.00732151 0.793868
0.140094 0.00872724 0.795036
0.140716 0.0101403 0.796353
0.141322 0.0115549 0.797571
0.141929 0.0129733 0.798785
0.142482 0.0143865 0.799694
0.143064 0.0158074 0.800759
0.143603 0.0172235 0.801575
0.144071 0.0186285 0.801994
0.144532 0.0200332 0.802366
0.145016 0.021444 0.802871
0.145468 0.0228488 0.803192
0.145966 0.0242646 0.80377
0.146507 0.0256924 0.804576
0.147006 0.0271123 0.80515
0.147546 0.0285446 0.80595
0.148075 0.029976 0.806685
0.148638 0.0314184 0.807603
0.149235 0.0328722 0.808697
0.149803 0.0343218 0.809633
0.150294 0.0357513 0.810145
0.150846 0.0372004 0.810988
0.151345 0.0386357 0.811537
0.151823 0.0400657 0.811968
0.152389 0.0415253 0.812875
0.153031 0.0430133 0.814185
0.153673 0.0445038 0.815488
0.1544 0.0460283 0.817234
0.155191 0.0475803 0.819322
0.155939 0.0491235 0.821163
0.156605 0.0506408 0.822567
0.157291 0.052169 0.824068
0.157965 0.0536977 0.8255
0.158574 0.0552046 0.826578
0.159168 0.0567083 0.827574
0.159732 0.0582022 0.82841
0.160161 0.0596423 0.828537
0.160489 0.0610395 0.828137
0.160746 0.0624051 0.827373
0.160984 0.0637601 0.82651
0.161237 0.0651185 0.825727
0.161529 0.0664927 0.825151
0.161859 0.0678829 0.824778
0.162256 0.0693032 0.82475
0.162684 0.0707384 0.824878
0.16313 0.0721817 0.825099
0.16366 0.073667 0.825749
0.164217 0.075168 0.826531
0.164797 0.0766812 0.827429
0.166764 0.0789078 0.835351
0.127012 -0.100079 0.910271
0.127439 -0.0984837 0.910126
0.127801 -0.0968474 0.909518
0.128078 -0.0951612 0.90832
0.128289 -0.0934391 0.906662
0.128449 -0.0916932 0.904657
0.128604 -0.0899527 0.902635
0.128779 -0.0882313 0.900765
0.129003 -0.0865448 0.899249
0.129289 -0.0848974 0.898166
0.129673 -0.0833065 0.897769
0.130024 -0.0816998 0.897143
0.13037 -0.0800939 0.896495
0.130112 -0.0781934 0.891724
0.124715 -0.0688497 0.843558
0.124083 -0.0669321 0.836521
0.124301 -0.0653942 0.835223
0.124514 -0.0638586 0.833891
0.124696 -0.0623161 0.832364
0.124842 -0.0607658 0.830609
0.124922 -0.059198 0.828434
0.125019 -0.0576439 0.826377
0.125098 -0.0560915 0.824218
0.125184 -0.0545492 0.822118
0.125302 -0.0530251 0.820243
0.125508 -0.0515347 0.818948
0.125717 -0.05005 0.81768
0.125911 -0.0485658 0.816326
0.126154 -0.0470998 0.815293
0.12641 -0.0456414 0.814358
0.1267 -0.0441947 0.813639
0.127004 -0.042754 0.813016
0.12732 -0.0413186 0.812477
0.127646 -0.0398871 0.811999
0.127959 -0.0384551 0.811449
0.128248 -0.0370202 0.810745
0.128572 -0.0355945 0.810265
0.128931 -0.0341768 0.810016
0.129246 -0.0327528 0.809483
0.129583 -0.0313342 0.8091
0.129943 -0.0299202 0.808855
0.130252 -0.0285007 0.808301
0.130535 -0.0270801 0.807588
0.130866 -0.0256672 0.80717
0.131199 -0.0242563 0.806776
0.131539 -0.0228473 0.806419
0.131919 -0.0214429 0.806316
0.132284 -0.020038 0.806117
0.132631 -0.0186328 0.805815
0.132936 -0.0172268 0.805256
0.133187 -0.0158208 0.804374
0.133381 -0.0144162 0.803155
0.133514 -0.0130148 0.80158
0.133552 -0.0116179 0.799435
0.133581 -0.0102281 0.797249
0.133599 -0.00884575 0.795017
0.133673 -0.00746971 0.793128
0.133821 -0.00609762 0.791685
0.134078 -0.00472597 0.790901
0.134382 -0.0033547 0.790394
0.134752 -0.00198121 0.790284
0.135137 -0.000607159 0.790259
0.135534 0.000767486 0.790307
0.135958 0.00214449 0.790507
0.136384 0.00352219 0.790722
0.136851 0.00490481 0.791178
0.137363 0.00629378 0.791886
0.137935 0.00769251 0.79294
0.13854 0.0090987 0.794177
0.139175 0.0105129 0.795582
0.139794 0.0119289 0.796891
0.140427 0.0133511 0.79827
0.141019 0.0147704 0.799407
0.141628 0.0161964 0.80064
0.142198 0.0176184 0.80164
0.14271 0.0190321 0.802308
0.143212 0.0204454 0.802917
0.143712 0.0218608 0.803515
0.144164 0.0232664 0.80384
0.144662 0.0246836 0.804415
0.145188 0.0261099 0.805146
0.145655 0.0275229 0.80555
0.146177 0.0289513 0.806254
0.146689 0.0303785 0.8069
0.147238 0.0318184 0.807743
0.147832 0.0332726 0.808837
0.148399 0.0347226 0.809773
0.148889 0.0361524 0.810285
0.14944 0.0376019 0.811128
0.149938 0.0390373 0.811678
0.150401 0.0404628 0.812032
0.150965 0.0419224 0.812932
0.151604 0.0434102 0.81424
0.152259 0.0449067 0.815623
0.153 0.0464385 0.817461
0.153804 0.0479974 0.819634
0.154548 0.0495404 0.821476
0.155211 0.051059 0.822872
0.15588 0.0525823 0.824295
0.156523 0.0541005 0.825572
0.157129 0.0556071 0.826648
0.157752 0.057123 0.827804
0.15835 0.0586328 0.828827
0.158801 0.0600824 0.829068
0.159163 0.0614949 0.828841
0.159437 0.0628676 0.828155
0.159641 0.0642074 0.827107
0.159861 0.0655505 0.826143
0.160134 0.0669157 0.825467
0.160449 0.0682981 0.825006
0.16083 0.0697106 0.824892
0.161274 0.0711536 0.825106
0.161738 0.072607 0.825424
0.162288 0.0741027 0.826178
0.16288 0.0756225 0.827146
0.163491 0.0771541 0.82821
0.168822 0.0812026 0.843696
0.166855 0.0801151 0.843338
0.126154 -0.100109 0.915599
0.125952 -0.0980922 0.910924
0.126343 -0.0964725 0.910509
0.126664 -0.0948113 0.909604
0.126912 -0.0931089 0.908186
0.127095 -0.0913735 0.90632
0.127284 -0.0896487 0.904507
0.127463 -0.0879254 0.902635
0.127677 -0.0862293 0.901025
0.127962 -0.0845779 0.899918
0.128334 -0.0829771 0.899423
0.128653 -0.0813513 0.898569
0.128999 -0.0797423 0.897905
0.128412 -0.0776761 0.890809
0.122943 -0.0682958 0.841615
0.122607 -0.0665077 0.836517
0.122825 -0.0649695 0.835201
0.123025 -0.0634286 0.833765
0.123197 -0.0618826 0.832157
0.123345 -0.0603335 0.830398
0.123439 -0.0587709 0.828288
0.12354 -0.0572187 0.826238
0.123636 -0.0556726 0.824172
0.123739 -0.0541361 0.82216
0.123861 -0.052613 0.820284
0.124045 -0.051116 0.818831
0.12424 -0.0496276 0.817459
0.124424 -0.0481415 0.81603
0.124657 -0.0466735 0.81492
0.124917 -0.045217 0.813998
0.125216 -0.0437734 0.813333
0.125521 -0.042334 0.812714
0.125824 -0.0408962 0.812083
0.126136 -0.0394629 0.811512
0.126446 -0.0380313 0.810936
0.126735 -0.0365978 0.810228
0.127061 -0.0351737 0.80976
0.127436 -0.0337598 0.809606
0.127778 -0.0323411 0.809242
0.128133 -0.030926 0.808964
0.128508 -0.0295148 0.808819
0.128835 -0.028098 0.808365
0.129133 -0.0266795 0.807737
0.129464 -0.0252668 0.807323
0.129798 -0.023856 0.806925
0.130138 -0.0224471 0.806565
0.13053 -0.0210437 0.806531
0.130909 -0.0196397 0.806423
0.131273 -0.0182353 0.806216
0.131607 -0.0168305 0.805833
0.131887 -0.0154252 0.805115
0.132111 -0.0140209 0.804064
0.132276 -0.0126193 0.802659
0.132345 -0.0112221 0.800681
0.13238 -0.00983148 0.798509
0.132388 -0.00844868 0.796189
0.132437 -0.00707245 0.794122
0.132544 -0.00570107 0.792422
0.13276 -0.0043308 0.791378
0.133036 -0.00296064 0.790699
0.133391 -0.00158792 0.7905
0.133763 -0.000214862 0.790396
0.13416 0.00115978 0.790444
0.13457 0.00253564 0.790566
0.134981 0.0039118 0.790692
0.135419 0.00529123 0.790982
0.135887 0.00667498 0.791442
0.136426 0.00806915 0.792315
0.137013 0.00947246 0.79346
0.137645 0.0108859 0.794867
0.138267 0.0123018 0.796201
0.138923 0.0137276 0.79773
0.139529 0.0151491 0.798963
0.140151 0.0165773 0.800277
0.140748 0.0180046 0.801446
0.141302 0.0194268 0.802362
0.141834 0.0208467 0.80315
0.142364 0.0222688 0.803916
0.142845 0.0236818 0.80441
0.143331 0.0250974 0.804921
0.143839 0.0265198 0.805557
0.144289 0.0279298 0.805863
0.144793 0.029354 0.806476
0.14529 0.030778 0.80704
0.145822 0.032214 0.8078
0.146411 0.0336682 0.808876
0.146961 0.0351136 0.809727
0.147449 0.0365425 0.810228
0.147988 0.0379893 0.811011
0.1485 0.0394291 0.811645
0.148964 0.0408549 0.812011
0.149541 0.0423194 0.81299
0.15018 0.0438083 0.814305
0.150846 0.0453101 0.815764
0.151584 0.0468427 0.817603
0.152383 0.0484021 0.81977
0.153124 0.0499462 0.821609
0.153785 0.0514647 0.823003
0.154452 0.0529892 0.824431
0.155079 0.0545025 0.825628
0.155684 0.0560093 0.826709
0.156319 0.0575324 0.82794
0.156949 0.0590556 0.829146
0.157438 0.0605225 0.829591
0.157836 0.0619512 0.829553
0.158142 0.0633375 0.829024
0.158346 0.0646769 0.827963
0.15855 0.0660127 0.826912
0.158791 0.0673627 0.826053
0.159087 0.0687363 0.825489
0.159449 0.0701407 0.825278
0.159895 0.071585 0.825501
0.160363 0.0730399 0.825839
0.160917 0.0745398 0.826619
0.162786 0.0767126 0.834208
0.124983 -0.0980421 0.91549
0.124841 -0.0960708 0.911209
0.125178 -0.0944178 0.910402
0.125471 -0.0927412 0.909289
0.125703 -0.0910325 0.907748
0.125929 -0.0893264 0.906175
0.126151 -0.087624 0.904581
0.126381 -0.0859322 0.903053
0.126654 -0.0842703 0.901843
0.12701 -0.0826577 0.901227
0.127315 -0.0810208 0.900256
0.127647 -0.0794016 0.899479
0.126749 -0.0771759 0.890122
0.121183 -0.0677463 0.839709
0.121128 -0.0660817 0.836485
0.121345 -0.0645428 0.835144
0.121532 -0.0629974 0.833613
0.121695 -0.0614479 0.831924
0.121845 -0.0598999 0.830158
0.121946 -0.0583402 0.82807
0.122039 -0.0567856 0.825944
0.122141 -0.055242 0.823894
0.122261 -0.0537116 0.821972
0.122386 -0.0521903 0.8201
0.122571 -0.0506942 0.818638
0.122766 -0.0492064 0.817254
0.122952 -0.0477213 0.81582
0.123175 -0.0462511 0.814632
0.123437 -0.044796 0.813717
0.123738 -0.0433537 0.813056
0.124032 -0.0419123 0.812355
0.12432 -0.0404723 0.811626
0.124616 -0.0390365 0.810942
0.124922 -0.0376054 0.810337
0.125211 -0.0361733 0.809625
0.125552 -0.0347533 0.809251
0.125944 -0.0333434 0.809201
0.126301 -0.0319282 0.808932
0.126657 -0.0305142 0.808663
0.127036 -0.0291043 0.808538
0.127377 -0.0276902 0.808174
0.127691 -0.0262742 0.807639
0.128038 -0.0248638 0.807317
0.128384 -0.0234545 0.806993
0.128736 -0.022047 0.806706
0.129128 -0.0206435 0.806671
0.129521 -0.0192405 0.806645
0.1299 -0.0178369 0.806531
0.130263 -0.0164332 0.806321
0.130586 -0.015029 0.805859
0.130852 -0.0136252 0.805057
0.131062 -0.0122235 0.803914
0.131175 -0.0108253 0.802181
0.131229 -0.00943351 0.800096
0.131226 -0.00804958 0.79768
0.131249 -0.00667297 0.795432
0.131316 -0.00530221 0.793463
0.13148 -0.00393342 0.792099
0.131715 -0.00256512 0.791163
0.132044 -0.00119388 0.790798
0.132401 0.000178329 0.790606
0.132786 0.00155211 0.790581
0.133183 0.00292675 0.790629
0.133581 0.00430149 0.790678
0.134004 0.00567911 0.790878
0.134442 0.00705907 0.791166
0.134948 0.00844879 0.791854
0.135528 0.00985094 0.792974
0.136145 0.011262 0.794303
0.136754 0.0126759 0.795578
0.137408 0.0141012 0.797112
0.138023 0.0155241 0.798409
0.138643 0.0169518 0.799729
0.139255 0.0183818 0.800996
0.139837 0.0198094 0.802081
0.140399 0.021236 0.803048
0.140959 0.0226654 0.804001
0.141471 0.0240856 0.804668
0.141968 0.0255046 0.805252
0.142473 0.026927 0.805879
0.142919 0.0283358 0.806166
0.143408 0.0297572 0.806691
0.14389 0.0311776 0.80718
0.14442 0.0326136 0.807932
0.144992 0.0340634 0.80892
0.145536 0.0355083 0.809745
0.146023 0.0369372 0.810248
0.146561 0.0383831 0.811034
0.147075 0.0398249 0.811686
0.147554 0.041256 0.812134
0.148131 0.0427213 0.813122
0.148768 0.0442105 0.814439
0.149447 0.0457191 0.815984
0.150183 0.0472522 0.817827
0.150979 0.0488134 0.819997
0.151731 0.0503634 0.821909
0.152402 0.0518876 0.823375
0.15307 0.0534145 0.824818
0.153695 0.0549285 0.826013
0.154295 0.0564352 0.827076
0.154927 0.0579582 0.828304
0.15556 0.0594851 0.829533
0.156069 0.0609612 0.830086
0.156503 0.062406 0.830241
0.156844 0.063808 0.829894
0.157053 0.0651495 0.82885
0.157258 0.0664858 0.827785
0.157481 0.0678275 0.826827
0.157759 0.0691922 0.826161
0.158105 0.070589 0.825858
0.158551 0.0720334 0.826082
0.160237 0.0741027 0.832813
0.124306 -0.0962968 0.918998
0.124165 -0.0943252 0.914667
0.124028 -0.0923731 0.910398
0.124294 -0.0906823 0.909081
0.124539 -0.088984 0.907616
0.124767 -0.0872819 0.906042
0.12501 -0.0855948 0.904592
0.125258 -0.0839159 0.903182
0.125589 -0.082287 0.902374
0.12588 -0.0806409 0.901291
0.12621 -0.0790183 0.900482
0.119421 -0.0671948 0.837742
0.119607 -0.0656374 0.836157
0.119824 -0.0640992 0.834803
0.120015 -0.0625557 0.833279
0.120183 -0.0610089 0.83161
0.120337 -0.059463 0.829852
0.120463 -0.0579133 0.827915
0.120561 -0.0563607 0.8258
0.120682 -0.0548238 0.823853
0.12082 -0.0532996 0.82203
0.120948 -0.0517793 0.820159
0.121122 -0.0502798 0.818604
0.121317 -0.0487924 0.817206
0.121504 -0.0473077 0.815758
0.121718 -0.0458359 0.814507
0.121994 -0.0443845 0.813665
0.122309 -0.0429463 0.813097
0.122592 -0.0415026 0.812316
0.122858 -0.0400579 0.811429
0.123139 -0.0386195 0.810642
0.123419 -0.0371841 0.809861
0.123686 -0.0357489 0.808995
0.124018 -0.0343287 0.80856
0.12441 -0.0329202 0.808516
0.124779 -0.0315085 0.808324
0.125148 -0.0300976 0.808133
0.125538 -0.0286905 0.808084
0.125904 -0.0272806 0.807875
0.126245 -0.0258685 0.807506
0.126606 -0.0244602 0.807272
0.126968 -0.0230529 0.807047
0.127334 -0.0216467 0.806844
0.127726 -0.0202434 0.806811
0.128131 -0.0188411 0.80686
0.128524 -0.0174382 0.806834
0.128904 -0.0160349 0.80672
0.129255 -0.0146313 0.806434
0.129565 -0.0132281 0.805891
0.129819 -0.0118262 0.805006
0.129978 -0.0104274 0.803538
0.130075 -0.00903417 0.801697
0.130088 -0.00764877 0.799346
0.130099 -0.00627132 0.796997
0.130125 -0.0049009 0.794757
0.130238 -0.00353359 0.793055
0.130419 -0.00216764 0.791786
0.130709 -0.0007986 0.791175
0.13104 0.000571668 0.790822
0.131412 0.00194441 0.790718
0.131809 0.00331904 0.790767
0.132207 0.00469378 0.790815
0.132616 0.00606992 0.790936
0.133027 0.00744641 0.791063
0.133503 0.00883209 0.79158
0.134052 0.0102299 0.792526
0.134639 0.0116364 0.793693
0.13523 0.0130471 0.794879
0.135868 0.0144693 0.796337
0.136479 0.015891 0.797621
0.137082 0.0173151 0.798859
0.13769 0.0187438 0.800115
0.138273 0.0201707 0.801218
0.138876 0.0216059 0.802436
0.139466 0.0230412 0.803571
0.14002 0.0244715 0.804491
0.140545 0.0258973 0.805242
0.141075 0.0273261 0.806018
0.141535 0.0287388 0.806382
0.142023 0.0301601 0.806912
0.142518 0.0315853 0.80748
0.143047 0.0330213 0.808236
0.143604 0.034468 0.809145
0.144132 0.0359082 0.809883
0.144616 0.0373372 0.810376
0.145138 0.0387793 0.811076
0.145654 0.0402214 0.811739
0.146158 0.0416608 0.812336
0.146736 0.0431281 0.81334
0.147372 0.0446186 0.814663
0.148064 0.046133 0.816293
0.148797 0.0476676 0.81814
0.149578 0.0492255 0.820239
0.150342 0.0507826 0.822235
0.151042 0.0523205 0.823873
0.151724 0.0538548 0.825405
0.152363 0.0553759 0.826692
0.152976 0.0568901 0.827827
0.153618 0.0584195 0.829118
0.154249 0.0599482 0.830343
0.15476 0.061427 0.830915
0.155229 0.0628878 0.831254
0.155606 0.064308 0.831098
0.155835 0.0656581 0.830149
0.156046 0.0669973 0.829103
0.156254 0.0683328 0.828054
0.156499 0.0696823 0.827203
0.156812 0.071063 0.826715
0.157224 0.0724918 0.826764
0.162091 0.0762758 0.840397
0.16017 0.0752124 0.840223
0.123136 -0.0942274 0.918918
0.122542 -0.0919791 0.911212
0.122825 -0.0902971 0.910005
0.123089 -0.0886077 0.908657
0.123347 -0.0869208 0.907283
0.123607 -0.08524 0.905925
0.123858 -0.0835602 0.90452
0.124175 -0.0819213 0.903598
0.124454 -0.0802659 0.902405
0.12477 -0.0786343 0.901488
0.117947 -0.0667706 0.837748
0.118097 -0.0651979 0.835901
0.118306 -0.0636567 0.834472
0.118501 -0.0621156 0.832965
0.118675 -0.0605713 0.831309
0.11882 -0.0590225 0.829473
0.11896 -0.0574787 0.827611
0.119073 -0.0559321 0.825577
0.119211 -0.0544014 0.823722
0.119364 -0.0528829 0.82199
0.11952 -0.0513714 0.820282
0.119697 -0.0498729 0.818732
0.119895 -0.0483864 0.817336
0.120083 -0.0469021 0.815882
0.1203 -0.045431 0.81463
0.120577 -0.0439801 0.813788
0.120895 -0.0425426 0.813229
0.121167 -0.0410964 0.81237
0.121423 -0.0396497 0.811406
0.121691 -0.0382089 0.810525
0.121961 -0.036772 0.809671
0.122217 -0.0353354 0.808724
0.122549 -0.033916 0.808283
0.122928 -0.032506 0.808152
0.123294 -0.0310949 0.807944
0.123661 -0.0296846 0.807738
0.12405 -0.0282782 0.80768
0.124428 -0.0268708 0.80755
0.124795 -0.0254627 0.807349
0.125173 -0.0240567 0.807219
0.125551 -0.0226511 0.807093
0.125943 -0.0212474 0.807055
0.126349 -0.0198449 0.80711
0.126756 -0.0184424 0.807167
0.127173 -0.0170404 0.807292
0.127578 -0.0156377 0.807339
0.127946 -0.014234 0.807152
0.128286 -0.0128305 0.80679
0.128583 -0.0114281 0.806163
0.128773 -0.0100283 0.804869
0.128904 -0.00863361 0.803214
0.128948 -0.0072465 0.80103
0.128962 -0.00586767 0.798673
0.128976 -0.0044965 0.796331
0.129048 -0.00313009 0.794353
0.129189 -0.00176558 0.792819
0.129425 -0.000399423 0.791871
0.129717 0.000968379 0.791275
0.130063 0.00233907 0.791008
0.130447 0.00371267 0.790977
0.130832 0.00508611 0.790952
0.13123 0.00646075 0.791
0.131627 0.00783549 0.791048
0.132076 0.00921745 0.791409
0.132595 0.0106109 0.792186
0.133152 0.0120126 0.793182
0.133712 0.0134178 0.794197
0.134317 0.0148342 0.795474
0.134909 0.0162516 0.79666
0.135494 0.0176715 0.797807
0.136086 0.0190959 0.798985
0.13669 0.0205264 0.800226
0.137305 0.0219635 0.801527
0.137921 0.0234042 0.802829
0.138505 0.0248404 0.803933
0.13906 0.0262731 0.804866
0.139607 0.027707 0.805744
0.140095 0.0291272 0.80628
0.140598 0.0305523 0.806903
0.141109 0.0319826 0.807562
0.141651 0.0334232 0.808402
0.142207 0.0348699 0.809315
0.142734 0.0363111 0.810058
0.143216 0.0377392 0.81054
0.143737 0.0391816 0.81124
0.144249 0.0406232 0.811889
0.144768 0.0420686 0.812575
0.145344 0.0435365 0.813578
0.145979 0.0450284 0.814903
0.146683 0.0465491 0.816613
0.147414 0.0480843 0.818463
0.148179 0.0496384 0.820499
0.148954 0.051202 0.822573
0.149683 0.0527534 0.824387
0.150371 0.0542933 0.825958
0.151028 0.0558239 0.827357
0.151668 0.0573515 0.828654
0.152307 0.058882 0.829939
0.152933 0.0604107 0.831144
0.153473 0.061904 0.831873
0.153973 0.063381 0.832383
0.154371 0.0648112 0.832336
0.154652 0.0661869 0.831656
0.155949 0.068047 0.836476
0.156215 0.0694187 0.835707
0.156465 0.0707801 0.834858
0.156712 0.0721377 0.833996
0.121039 -0.0915755 0.91192
0.12135 -0.0899083 0.910896
0.12163 -0.088227 0.909654
0.121907 -0.0865485 0.908394
0.122184 -0.0848754 0.907147
0.12245 -0.0832008 0.905826
0.122757 -0.0815537 0.904811
0.123035 -0.0798956 0.903598
0.123338 -0.078255 0.902571
0.116514 -0.0663652 0.838051
0.116628 -0.0647759 0.835922
0.116815 -0.0632255 0.834326
0.116992 -0.0616769 0.832667
0.117157 -0.0601295 0.830932
0.117292 -0.0585777 0.829005
0.117445 -0.0570394 0.827213
0.117574 -0.0554991 0.825265
0.117729 -0.0539753 0.823513
0.117911 -0.0524669 0.821961
0.118106 -0.0509683 0.820507
0.118287 -0.0494708 0.818964
0.118489 -0.0479851 0.817576
0.11868 -0.0465016 0.816126
0.118898 -0.0450307 0.814868
0.119154 -0.043574 0.81387
0.119459 -0.0421335 0.81322
0.119732 -0.0406878 0.812352
0.119989 -0.0392416 0.811383
0.12026 -0.0378022 0.810519
0.120543 -0.0363682 0.809739
0.120799 -0.0349318 0.808783
0.121117 -0.0335101 0.808243
0.12148 -0.0320978 0.808003
0.121832 -0.030685 0.807702
0.122187 -0.0292738 0.807418
0.122578 -0.0278685 0.807371
0.122958 -0.0264621 0.807252
0.123339 -0.0250563 0.807138
0.123731 -0.0236523 0.807102
0.124136 -0.0222496 0.807146
0.124554 -0.0208482 0.807282
0.124987 -0.0194473 0.807507
0.125407 -0.0180452 0.807652
0.125837 -0.0166432 0.80786
0.126255 -0.0152402 0.807985
0.126637 -0.0138361 0.807882
0.126992 -0.0124321 0.807609
0.127316 -0.011029 0.807147
0.127548 -0.00962814 0.806103
0.127722 -0.00823183 0.804698
0.127815 -0.00684235 0.80279
0.12785 -0.00546141 0.800534
0.127868 -0.00408851 0.798185
0.127912 -0.00272213 0.796014
0.128 -0.00135968 0.794129
0.128182 3.7372e-06 0.792834
0.128446 0.00136996 0.792056
0.128765 0.00273882 0.791619
0.129137 0.00411185 0.791506
0.129509 0.00548435 0.791402
0.129894 0.00685798 0.791371
0.130278 0.00823117 0.791337
0.130701 0.00960986 0.79154
0.131179 0.0109975 0.79208
0.131704 0.0123944 0.792896
0.132232 0.013794 0.793724
0.132795 0.0152026 0.794761
0.133344 0.0166115 0.795707
0.133884 0.0180214 0.796597
0.134455 0.0194404 0.797666
0.13504 0.0208656 0.798815
0.135641 0.0222978 0.80005
0.13627 0.0237405 0.801439
0.136892 0.0251844 0.802783
0.137461 0.0266198 0.803815
0.138038 0.0280602 0.804883
0.13857 0.0294918 0.805681
0.139102 0.0309245 0.806479
0.139642 0.0323621 0.807313
0.140211 0.0338112 0.808316
0.140768 0.035259 0.809246
0.141294 0.0366997 0.809986
0.141786 0.0381317 0.810534
0.142293 0.0395704 0.81116
0.142803 0.0410115 0.811806
0.14335 0.0424671 0.812657
0.143939 0.0439399 0.813742
0.144588 0.0454388 0.815161
0.145316 0.0469696 0.817019
0.146058 0.0485122 0.818949
0.146835 0.0500737 0.821065
0.147636 0.0516508 0.823308
0.148396 0.0532171 0.825308
0.149116 0.054773 0.827073
0.149808 0.0563217 0.828677
0.150453 0.0578545 0.830003
0.15109 0.0593876 0.831287
0.151698 0.060911 0.832403
0.152251 0.0624125 0.833207
0.152768 0.0638998 0.833814
0.154205 0.0658211 0.839458
0.119504 -0.0911519 0.912396
0.119842 -0.0895004 0.911563
0.120127 -0.0878205 0.910341
0.120422 -0.0861509 0.909196
0.120731 -0.084494 0.908166
0.121001 -0.0828194 0.906853
0.121307 -0.0811702 0.905822
0.121612 -0.0795242 0.904788
0.121918 -0.0778827 0.903765
0.115743 -0.0662585 0.843136
0.115487 -0.0644976 0.838304
0.115308 -0.0627872 0.834054
0.115496 -0.0612436 0.832455
0.11566 -0.0596964 0.830697
0.115797 -0.0581455 0.828759
0.115952 -0.0566083 0.826959
0.116087 -0.0550707 0.825031
0.11626 -0.0535537 0.823389
0.11646 -0.0520513 0.821937
0.116682 -0.0505618 0.82066
0.11688 -0.0490694 0.819216
0.117097 -0.0475882 0.81792
0.117304 -0.0461087 0.816557
0.117523 -0.0446374 0.815287
0.117767 -0.0431774 0.814201
0.118047 -0.0417303 0.813366
0.118319 -0.0402844 0.812482
0.118564 -0.0388359 0.811427
0.118839 -0.0373973 0.810573
0.119125 -0.0359642 0.809805
