ply
format ascii 1.0
element vertex 1741
property float x
property float y
property float z
end_header
0.148142 0.067879 0.742043
0.149542 0.068147 0.742042
0.150967 0.0684266 0.742177
0.152389 0.0687053 0.742294
0.153773 0.0689643 0.742183
0.155171 0.0692299 0.742145
0.156559 0.0694903 0.742048
0.157963 0.0697585 0.742038
0.159287 0.0699877 0.741583
0.160615 0.070219 0.741152
0.161908 0.0704341 0.740538
0.16319 0.0706438 0.739867
0.164474 0.0708552 0.739219
0.165828 0.0710996 0.738941
0.167169 0.0713382 0.7386
0.16851 0.0715769 0.73826
0.169921 0.0718479 0.738277
0.171325 0.0721154 0.738254
0.172807 0.0724186 0.738619
0.174367 0.0727567 0.739364
0.175998 0.073126 0.740439
0.177593 0.0734781 0.741319
0.17922 0.0738433 0.742334
0.180799 0.0741858 0.743093
0.182318 0.0745013 0.743552
0.183806 0.0748017 0.743854
0.18531 0.0751092 0.744219
0.186849 0.0754311 0.744736
0.188431 0.0757717 0.745439
0.190069 0.0761354 0.746388
0.191767 0.0765241 0.747586
0.193454 0.0769073 0.748713
0.195144 0.0772896 0.74983
0.1968 0.077657 0.750779
0.198479 0.0780335 0.751806
0.200113 0.0783891 0.752619
0.201823 0.0787761 0.753744
0.20354 0.0791657 0.754881
0.205229 0.0795415 0.755874
0.206861 0.0798923 0.756609
0.208487 0.0802405 0.757301
0.21008 0.0805745 0.75784
0.211626 0.0808876 0.758173
0.213289 0.0812494 0.75898
0.214998 0.0816285 0.759961
0.216735 0.0820187 0.761041
0.218481 0.0824104 0.762131
0.220184 0.0827843 0.763035
0.22177 0.0831097 0.763451
0.223305 0.0834149 0.763663
0.224861 0.083728 0.763943
0.226367 0.0840206 0.764024
0.227859 0.084307 0.764045
0.230098 0.0833501 0.76601
0.229299 0.0845737 0.763864
0.132604 0.067393 0.761557
0.133916 0.0676039 0.760814
0.135166 0.0677805 0.759662
0.136351 0.0679219 0.758097
0.137457 0.0680215 0.756043
0.138504 0.0680909 0.753646
0.139517 0.0681443 0.751074
0.140537 0.0682044 0.748601
0.141593 0.0682862 0.746399
0.142723 0.0684092 0.744693
0.14389 0.068554 0.74325
0.145126 0.0687365 0.742254
0.146451 0.0689658 0.741804
0.147809 0.0692128 0.741557
0.149211 0.0694824 0.741571
0.150636 0.0697632 0.741711
0.152057 0.0700417 0.741822
0.153428 0.0702944 0.741638
0.15481 0.0705532 0.74152
0.156195 0.0708128 0.741412
0.157596 0.0710799 0.741385
0.158919 0.0713085 0.740928
0.160247 0.07154 0.740502
0.161541 0.0717547 0.739894
0.162835 0.0719698 0.739292
0.164133 0.0721875 0.738721
0.1655 0.0724385 0.738517
0.166856 0.0726839 0.738252
0.16821 0.0729288 0.73798
0.169607 0.0731934 0.737924
0.171008 0.0734605 0.737892
0.172477 0.0737582 0.738189
0.174025 0.074093 0.738879
0.175657 0.0744655 0.739967
0.177271 0.0748283 0.740941
0.178901 0.0751975 0.741973
0.180496 0.0755495 0.742815
0.18203 0.0758724 0.743343
0.183532 0.0761807 0.743712
0.185069 0.0765037 0.744229
0.186646 0.0768443 0.744924
0.188248 0.0771954 0.745723
0.189889 0.0775622 0.746678
0.191565 0.0779439 0.747777
0.193195 0.0783041 0.748646
0.19483 0.0786654 0.749518
0.196433 0.0790117 0.750229
0.198055 0.0793656 0.751012
0.19963 0.0796982 0.75157
0.201279 0.0800622 0.752437
0.202918 0.0804209 0.753245
0.204547 0.080774 0.753996
0.20614 0.0811111 0.754576
0.207725 0.081444 0.755107
0.209292 0.0817698 0.755557
0.210849 0.0820892 0.75595
0.212526 0.0824593 0.75683
0.214249 0.0828475 0.757885
0.215986 0.0832398 0.758973
0.217742 0.0836401 0.760124
0.219441 0.0840153 0.761023
0.221061 0.0843562 0.761591
0.222658 0.0846887 0.762056
0.224277 0.0850289 0.762598
0.225847 0.0853485 0.762938
0.227418 0.0856675 0.76327
0.228923 0.0859604 0.763342
0.131036 0.0685905 0.762367
0.13237 0.0688119 0.76175
0.133695 0.069029 0.761087
0.134966 0.069216 0.760073
0.136153 0.0693553 0.758506
0.137247 0.0694446 0.756366
0.138282 0.0695031 0.753879
0.139271 0.0695384 0.751143
0.140279 0.0695878 0.748588
0.141325 0.0696606 0.746317
0.142444 0.0697749 0.744539
0.14361 0.0699172 0.74309
0.144834 0.0700913 0.742013
0.146133 0.0703071 0.741412
0.14749 0.0705533 0.741158
0.148891 0.0708231 0.74117
0.150318 0.071106 0.741325
0.15174 0.0713857 0.741443
0.153122 0.0716445 0.741325
0.154491 0.0718966 0.74113
0.155862 0.072149 0.74094
0.157246 0.0724087 0.740828
0.158566 0.0726353 0.740353
0.159877 0.0728582 0.73984
0.161183 0.0730783 0.739298
0.162491 0.0733004 0.738778
0.163807 0.0735261 0.7383
0.165193 0.0737866 0.738198
0.166566 0.0740404 0.738024
0.167921 0.0742858 0.737759
0.169302 0.0745434 0.737624
0.170703 0.0748105 0.737587
0.172157 0.0751024 0.737813
0.173692 0.0754326 0.738438
0.175309 0.0758008 0.739456
0.176937 0.0761725 0.740503
0.178566 0.0765436 0.741533
0.180177 0.0769053 0.742458
0.181724 0.0772358 0.743049
0.183256 0.0775589 0.74356
0.184825 0.0778982 0.744231
0.186438 0.0782572 0.745098
0.188064 0.0786203 0.746001
0.189706 0.0789897 0.746958
0.191359 0.0793635 0.747952
0.192952 0.0797085 0.748646
0.194533 0.0800478 0.749276
0.196082 0.0803722 0.74975
0.197647 0.0807028 0.750283
0.199162 0.0810109 0.750583
0.200731 0.081342 0.751111
0.202293 0.0816692 0.751593
0.203861 0.0819986 0.752092
0.20541 0.0823189 0.752497
0.206935 0.0826288 0.752794
0.208478 0.0829455 0.753155
0.210029 0.0832652 0.753541
0.211701 0.0836361 0.754421
0.213441 0.0840345 0.75556
0.215194 0.0844374 0.756732
0.216945 0.0848385 0.757878
0.218658 0.0852221 0.758849
0.220311 0.0855805 0.759561
0.221948 0.0859305 0.760201
0.223612 0.0862912 0.760929
0.225242 0.086638 0.761513
0.226894 0.0869921 0.762171
0.228482 0.0873193 0.762569
0.230527 0.0862925 0.76379
0.230172 0.0876884 0.763349
0.132146 0.0702387 0.762019
0.13348 0.07046 0.761411
0.134766 0.0706536 0.760484
0.135956 0.0707923 0.758931
0.137037 0.0708702 0.756694
0.138048 0.0709103 0.75404
0.139013 0.0709276 0.751144
0.140011 0.0709667 0.748513
0.141059 0.0710363 0.746245
0.142168 0.071143 0.744407
0.143345 0.0712886 0.743019
0.14458 0.0714677 0.74201
0.145868 0.0716761 0.741334
0.147236 0.0719282 0.741146
0.148649 0.0722048 0.741226
0.150064 0.0724818 0.741307
0.151474 0.0727559 0.741356
0.152856 0.0730147 0.741234
0.154199 0.0732536 0.740893
0.155544 0.0734925 0.740557
0.156913 0.0737448 0.740362
0.158217 0.0739631 0.739804
0.159514 0.0741781 0.739211
0.160818 0.0743975 0.738667
0.162128 0.0746198 0.738157
0.16346 0.0748537 0.73777
0.164865 0.0751239 0.737769
0.166254 0.0753861 0.737681
0.167625 0.0756392 0.737499
0.16902 0.0759039 0.737435
0.170421 0.0761713 0.737398
0.171857 0.0764559 0.737539
0.173389 0.0767862 0.738148
0.174971 0.0771398 0.738994
0.176593 0.0775111 0.740014
0.178219 0.0778833 0.741036
0.179845 0.078254 0.742032
0.181396 0.0785885 0.74265
0.182974 0.0789346 0.743382
0.184561 0.0792842 0.74414
0.18621 0.0796614 0.745171
0.187854 0.0800354 0.746161
0.189497 0.0804071 0.747121
0.191117 0.0807675 0.747958
0.192671 0.0810972 0.748482
0.194198 0.0814136 0.748869
0.195694 0.0817152 0.749108
0.197202 0.0820219 0.749391
0.198659 0.0823049 0.74944
0.200167 0.0826105 0.749707
0.201668 0.0829132 0.74994
0.20319 0.0832238 0.750249
0.204693 0.083526 0.750473
0.206192 0.0838259 0.750671
0.207693 0.0841264 0.750872
0.209223 0.0844392 0.751187
0.210873 0.0848034 0.75199
0.212612 0.085205 0.753143
0.214361 0.0856097 0.754316
0.216127 0.0860208 0.755541
0.217852 0.0864127 0.756574
0.219523 0.0867809 0.757377
0.221199 0.0871504 0.758183
0.222902 0.0875304 0.759083
0.224575 0.0878967 0.759846
0.226286 0.088278 0.760742
0.227957 0.0886418 0.76147
0.229692 0.0890316 0.762431
0.131958 0.0716892 0.762538
0.133281 0.0719028 0.761845
0.134573 0.0720978 0.760945
0.135771 0.0722385 0.759438
0.13683 0.0722996 0.757045
0.137817 0.0723208 0.754221
0.13877 0.072326 0.751238
0.139755 0.0723527 0.748513
0.140792 0.0724125 0.746171
0.141902 0.0725168 0.744337
0.143093 0.0726682 0.743031
0.144343 0.0728538 0.742108
0.14562 0.073055 0.741359
0.146999 0.0733137 0.741238
0.148411 0.0735898 0.741306
0.149827 0.073868 0.741393
0.151238 0.0741427 0.741441
0.152618 0.0744009 0.74131
0.153948 0.0746319 0.740885
0.155278 0.074863 0.740466
0.156621 0.0751017 0.740126
0.157899 0.0753059 0.739422
0.159181 0.0755128 0.738752
0.160472 0.0757247 0.738135
0.161782 0.075947 0.737628
0.163129 0.0761883 0.737323
0.164547 0.0764655 0.737392
0.165964 0.0767424 0.737452
0.167364 0.0770104 0.73742
0.168761 0.0772767 0.737369
0.170162 0.0775443 0.737331
0.171582 0.077821 0.737384
0.173064 0.0781286 0.737749
0.174596 0.0784593 0.738343
0.176194 0.0788222 0.739257
0.177803 0.0791887 0.7402
0.179447 0.0795708 0.741291
0.181031 0.0799227 0.742071
0.182659 0.080295 0.743048
0.18428 0.0806627 0.74397
0.185947 0.0810508 0.745087
0.187592 0.0814271 0.746077
0.189232 0.0818003 0.747029
0.190818 0.0821466 0.74771
0.192338 0.0824616 0.748077
0.193828 0.0827621 0.748301
0.195286 0.0830474 0.748371
0.196739 0.0833299 0.748415
0.198156 0.0835958 0.748295
0.199607 0.0838773 0.748324
0.201049 0.0841541 0.748304
0.20251 0.0844396 0.748369
0.20397 0.084724 0.74842
0.205444 0.0850146 0.748528
0.206922 0.0853065 0.748646
0.208464 0.0856262 0.749023
0.210127 0.0859991 0.749897
0.21188 0.0864102 0.751122
0.213625 0.0868166 0.752293
0.215406 0.0872373 0.753589
0.217145 0.0876389 0.754698
0.218835 0.0880179 0.755587
0.22053 0.0883982 0.756482
0.222272 0.0887974 0.757544
0.223983 0.0891825 0.758467
0.225715 0.0895753 0.759455
0.22741 0.0899517 0.760285
0.229168 0.0903539 0.761341
0.231504 0.0894522 0.763667
0.230981 0.0907778 0.762586
0.133244 0.0734473 0.76339
0.134496 0.0736161 0.762204
0.135686 0.0737485 0.76062
0.136656 0.0737508 0.757613
0.137635 0.0737619 0.754723
0.138587 0.0737612 0.751721
0.139568 0.0737806 0.748961
0.140592 0.0738286 0.746527
0.141683 0.0739177 0.744554
0.142899 0.0740817 0.743401
0.144165 0.0742745 0.742566
0.145446 0.0744771 0.741836
0.146839 0.0747434 0.741792
0.14824 0.0750139 0.741791
0.149644 0.0752855 0.741801
0.151042 0.0755535 0.74177
0.152409 0.0758041 0.741553
0.153725 0.0760268 0.741044
0.155041 0.0762499 0.740542
0.15637 0.0764805 0.740117
0.157633 0.0766761 0.739331
0.158902 0.0768751 0.738585
0.16018 0.0770794 0.737896
0.161488 0.0773003 0.73738
0.162819 0.0775332 0.736988
0.16422 0.0778026 0.736971
0.165636 0.0780796 0.73703
0.167038 0.0783487 0.737006
0.168425 0.0786103 0.736905
0.169826 0.0788784 0.736867
0.171242 0.0791542 0.736906
0.172676 0.0794386 0.737028
0.174172 0.0797535 0.737453
0.175752 0.0801096 0.738281
0.177357 0.080477 0.739216
0.17902 0.0808713 0.740407
0.180667 0.0812567 0.741501
0.182348 0.0816569 0.742732
0.184004 0.0820435 0.743819
0.185671 0.082434 0.744936
0.187311 0.0828104 0.745907
0.188933 0.0831769 0.746775
0.190485 0.0835091 0.747304
0.191986 0.0838166 0.747589
0.193455 0.0841081 0.747718
0.194875 0.0843764 0.747622
0.196293 0.0846433 0.747513
0.197688 0.0848996 0.747302
0.199103 0.0851654 0.747179
0.200506 0.0854253 0.747
0.20193 0.0856945 0.746909
0.20335 0.085962 0.7468
0.204804 0.0862445 0.746831
0.206262 0.0865292 0.746879
0.207817 0.0868567 0.747324
0.209475 0.0872298 0.748186
0.211239 0.0876494 0.749471
0.212962 0.0880494 0.750564
0.214756 0.0884794 0.751926
0.216494 0.0888838 0.753042
0.2182 0.0892726 0.754008
0.219915 0.0896642 0.754991
0.221673 0.0900734 0.756127
0.2234 0.0904683 0.757124
0.22517 0.0908801 0.758267
0.226903 0.0912756 0.759253
0.228664 0.0916816 0.760326
0.230495 0.0921162 0.761647
0.232829 0.0912154 0.763947
0.232339 0.0925556 0.762999
0.13336 0.0750948 0.765993
0.134531 0.0752092 0.764222
0.135687 0.0753166 0.762383
0.136691 0.0753327 0.759569
0.137603 0.0752973 0.756216
0.138517 0.0752665 0.752935
0.139497 0.0752804 0.750154
0.140507 0.0753147 0.747607
0.141571 0.0753844 0.745453
0.142746 0.0755214 0.744026
0.144026 0.0757211 0.74327
0.145299 0.0759176 0.742482
0.146694 0.0761844 0.742438
0.148084 0.0764486 0.742362
0.149476 0.0767134 0.742292
0.15085 0.0769679 0.742115
0.152216 0.0772181 0.741891
0.153519 0.0774326 0.7413
0.154808 0.0776405 0.740643
0.156122 0.0778622 0.74013
0.15737 0.078048 0.739253
0.158624 0.0782382 0.738424
0.159888 0.0784338 0.737654
0.161182 0.0786465 0.73706
0.162496 0.0788704 0.73658
0.16388 0.0791313 0.736474
0.165278 0.0793999 0.736443
0.166679 0.0796693 0.736419
0.168082 0.0799396 0.736402
0.169483 0.0802087 0.736372
0.170899 0.0804846 0.736408
0.172316 0.0807612 0.736448
0.173781 0.0810619 0.736722
0.175342 0.0814107 0.737464
0.176949 0.0817815 0.738414
0.178627 0.0821865 0.739686
0.18031 0.0825921 0.740956
0.182025 0.0830122 0.742354
0.183683 0.0834029 0.74346
0.185348 0.0837949 0.74457
0.186967 0.0841634 0.745445
0.188567 0.0845215 0.746214
0.190087 0.0848395 0.746596
0.191569 0.0851392 0.7468
0.193018 0.0854221 0.746844
0.194417 0.0856809 0.746659
0.195814 0.085939 0.746466
0.197193 0.0861884 0.746191
0.19859 0.0864457 0.745991
0.199972 0.0866964 0.745728
0.201389 0.0869637 0.74562
0.202808 0.0872312 0.745512
0.204263 0.0875154 0.745556
0.205738 0.0878086 0.745681
0.20731 0.0881461 0.746209
0.208967 0.0885211 0.747073
0.210712 0.0889353 0.748287
0.212447 0.0893435 0.749438
0.214237 0.0897756 0.750795
0.215974 0.0901818 0.75191
0.217679 0.090573 0.75288
0.219391 0.0909659 0.753859
0.221144 0.0913764 0.754987
0.222869 0.0917726 0.755979
0.224636 0.0921865 0.757122
0.226368 0.0925842 0.75811
0.228125 0.0929911 0.759174
0.229928 0.0934171 0.760398
0.231767 0.0938574 0.761736
0.134078 0.0771376 0.772744
0.134935 0.0770453 0.76876
0.135914 0.0770347 0.765675
0.13686 0.0770073 0.762431
0.137742 0.0769447 0.758834
0.138698 0.0769328 0.755794
0.139659 0.0769278 0.752848
0.140631 0.0769331 0.750029
0.141632 0.076959 0.747441
0.142743 0.0770542 0.745591
0.143989 0.0772317 0.744607
0.145276 0.0774343 0.743887
0.146663 0.0776959 0.743778
0.148041 0.0779523 0.743615
0.149407 0.0782015 0.743377
0.150741 0.0784324 0.742952
0.152059 0.0786542 0.742436
0.153338 0.0788542 0.741701
0.154615 0.0790544 0.74097
0.155903 0.0792606 0.740303
0.157122 0.0794289 0.73926
0.158361 0.0796093 0.738341
0.159596 0.0797889 0.737418
0.16085 0.0799793 0.736609
0.162148 0.0801939 0.736042
0.163515 0.0804463 0.73585
0.164898 0.080707 0.735739
0.166298 0.0809764 0.735713
0.167725 0.0812603 0.735827
0.169128 0.0815309 0.735807
0.170544 0.0818083 0.735854
0.171975 0.0820927 0.735966
0.173441 0.082395 0.736247
0.174987 0.082738 0.736918
0.176607 0.083118 0.737937
0.178284 0.0835253 0.739208
0.179968 0.0839347 0.740489
0.181699 0.0843659 0.741966
0.183359 0.0847596 0.74308
0.184989 0.0851372 0.74403
0.186586 0.0854969 0.744806
0.188164 0.0858465 0.74548
0.189635 0.0861417 0.745641
0.191084 0.0864262 0.745699
0.192512 0.0866999 0.745655
0.193906 0.0869572 0.745456
0.195286 0.0872076 0.745194
0.196682 0.0874654 0.745001
0.198077 0.0877229 0.744804
0.199472 0.0879803 0.744605
0.200886 0.0882468 0.744489
0.202321 0.0885224 0.744456
0.203794 0.0888164 0.744586
0.20529 0.0891203 0.744805
0.206864 0.0894602 0.745344
0.208519 0.089837 0.746208
0.210244 0.0902448 0.747345
0.21196 0.0906473 0.748425
0.213747 0.0910814 0.749776
0.215498 0.0914971 0.750956
0.217202 0.0918901 0.751927
0.218909 0.0922839 0.752896
0.220678 0.0927041 0.754091
0.2224 0.0931017 0.755078
0.224146 0.093509 0.756143
0.225875 0.0939076 0.757124
0.227625 0.0943147 0.758172
0.229403 0.0947328 0.759307
0.231237 0.0951742 0.760634
0.233597 0.0942925 0.763021
0.233085 0.0956203 0.761992
0.135298 0.078872 0.773034
0.136157 0.0787756 0.769082
0.137026 0.0786916 0.765286
0.137887 0.0786068 0.761505
0.138888 0.0786159 0.758723
0.139873 0.0786183 0.755888
0.140816 0.0785986 0.752844
0.141784 0.078598 0.750013
0.142839 0.0786541 0.747781
0.144036 0.0787987 0.746466
0.145288 0.0789783 0.745512
0.146653 0.0792258 0.74525
0.147993 0.0794585 0.744841
0.149319 0.0796832 0.744351
0.150624 0.0798964 0.743748
0.151902 0.0800938 0.742988
0.153155 0.0802779 0.742099
0.15442 0.080469 0.741286
0.155682 0.0806595 0.740467
0.156874 0.0808111 0.73927
0.158097 0.0809815 0.738263
0.159318 0.0811514 0.737257
0.160546 0.0813258 0.736299
0.161816 0.0815247 0.735584
0.163167 0.0817685 0.735308
0.164534 0.082021 0.735117
0.165919 0.0822834 0.73502
0.167361 0.082576 0.735213
0.168793 0.0828629 0.735349
0.170226 0.0831498 0.73548
0.171673 0.0834436 0.735677
0.173152 0.0837539 0.736025
0.174683 0.0840908 0.736623
0.176301 0.084472 0.737631
0.17796 0.0848732 0.738821
0.179641 0.0852836 0.740088
0.181354 0.0857089 0.741485
0.182993 0.0860952 0.742505
0.184573 0.0864496 0.743224
0.186147 0.0868 0.7439
0.187692 0.0871346 0.744422
0.189127 0.0874135 0.744428
0.190556 0.0876892 0.744404
0.191963 0.0879534 0.744272
0.193353 0.0882094 0.744065
0.194733 0.0884601 0.743809
0.196147 0.0887279 0.743708
0.197543 0.0889866 0.743523
0.198952 0.0892511 0.743392
0.200363 0.0895168 0.743269
0.201815 0.0898018 0.743319
0.20331 0.0901074 0.743549
0.204844 0.0904303 0.743932
0.20645 0.0907873 0.744612
0.208104 0.0911661 0.745479
0.209807 0.0915667 0.746531
0.21152 0.0919702 0.747601
0.213303 0.0924056 0.748942
0.215038 0.0928169 0.750064
0.216758 0.0932203 0.751108
0.218463 0.0936154 0.752072
0.22021 0.0940286 0.753186
0.221927 0.0944266 0.754161
0.223691 0.0948449 0.755302
0.225401 0.0952374 0.756214
0.227146 0.0956449 0.757248
0.228918 0.0960634 0.758367
0.230748 0.0965059 0.759683
0.232595 0.0969554 0.761047
0.234978 0.0960852 0.763502
0.23449 0.0974243 0.762567
0.13479 0.0808212 0.781347
0.135518 0.0806217 0.776354
0.13632 0.0804785 0.771972
0.137145 0.0803566 0.767835
0.138018 0.0802715 0.764103
0.139054 0.0802954 0.761504
0.140069 0.0803099 0.758827
0.141029 0.0802931 0.755848
0.141978 0.0802739 0.752863
0.142981 0.0802918 0.750268
0.144138 0.0804077 0.748673
0.145355 0.0805626 0.747477
0.146672 0.0807795 0.746904
0.147975 0.0809884 0.746253
0.149258 0.0811861 0.745495
0.150499 0.081359 0.744496
0.151735 0.0815302 0.743483
0.152959 0.0816955 0.742417
0.154184 0.081862 0.74137
0.15542 0.0820362 0.740403
0.156612 0.082186 0.739202
0.157821 0.0823463 0.738109
0.159028 0.0825072 0.737028
0.160253 0.0826788 0.736054
0.161521 0.082876 0.73533
0.16287 0.0831183 0.735041
0.164225 0.0833645 0.734788
0.165597 0.0836196 0.734621
0.167039 0.0839138 0.73482
0.168472 0.0842019 0.734962
0.169908 0.0844914 0.735113
0.171386 0.0848027 0.735465
0.172894 0.0851295 0.735959
0.174427 0.0854691 0.736566
0.176041 0.0858505 0.737559
0.177682 0.0862446 0.738657
0.179342 0.086647 0.739825
0.181004 0.0870491 0.740983
0.182609 0.0874198 0.741843
0.184153 0.0877574 0.742393
0.18569 0.0880913 0.742905
0.187183 0.0884011 0.743192
0.188597 0.0886704 0.743111
0.190008 0.0889374 0.743008
0.191392 0.0891914 0.742786
0.19278 0.089447 0.742577
0.194158 0.0896979 0.742327
0.195592 0.0899761 0.74232
0.197006 0.0902442 0.742221
0.198432 0.0905184 0.742176
0.199874 0.0908001 0.742195
0.201363 0.0911041 0.74241
0.202877 0.09142 0.742727
0.204432 0.0917547 0.743204
0.206037 0.0921132 0.743884
0.207667 0.0924826 0.744653
0.209344 0.0928738 0.745607
0.211035 0.0932697 0.746593
0.2128 0.0936999 0.747868
0.214532 0.0941129 0.748986
0.21627 0.0945274 0.750108
0.217976 0.0949256 0.751083
0.21972 0.0953401 0.75219
0.221435 0.0957401 0.753166
0.223196 0.0961599 0.754301
0.224883 0.096545 0.755135
0.22663 0.0969556 0.756179
0.2284 0.0973762 0.757298
0.230228 0.0978214 0.758614
0.232073 0.0982732 0.759979
0.233985 0.0987536 0.761571
0.131919 0.080997 0.792095
0.130616 0.0808278 0.793329
0.130192 0.0821836 0.792245
0.131517 0.0823664 0.791171
0.133146 0.0811159 0.790344
0.132783 0.0825101 0.789702
0.134102 0.0810549 0.786731
0.13392 0.0825675 0.787358
0.134733 0.0824084 0.782821
0.135514 0.0822343 0.778159
0.136323 0.0820862 0.77379
0.137195 0.0819864 0.769935
0.138063 0.0818895 0.766134
0.139116 0.0819186 0.76362
0.140151 0.0819401 0.761045
0.141143 0.0819368 0.758238
0.142124 0.0819308 0.75542
0.143096 0.0819221 0.752594
0.144217 0.082012 0.750754
0.145408 0.0821465 0.749366
0.146672 0.0823287 0.74845
0.147937 0.0825122 0.747552
0.149184 0.0826854 0.746559
0.150373 0.0828252 0.745245
0.151554 0.0829611 0.7439
0.152735 0.0830981 0.742574
0.153918 0.0832385 0.741286
0.155128 0.0833956 0.740166
0.15632 0.0835438 0.738964
0.157529 0.0837027 0.737872
0.158737 0.0838622 0.736791
0.159961 0.0840327 0.735818
0.16123 0.0842287 0.735091
0.162578 0.084471 0.734801
0.163931 0.0847163 0.73454
0.165304 0.084972 0.734376
0.166746 0.0852666 0.734573
0.168192 0.0855632 0.734785
0.16963 0.0858541 0.734943
0.171123 0.0861751 0.735375
0.172648 0.0865127 0.735956
0.174197 0.086862 0.736639
0.175799 0.0872389 0.737568
0.177421 0.0876256 0.738579
0.179047 0.0880123 0.739582
0.180659 0.0883904 0.7405
0.182214 0.088737 0.741125
0.183704 0.0890485 0.74143
0.185205 0.0893647 0.741773
0.186645 0.0896486 0.741824
0.188024 0.0899007 0.741589
0.189396 0.0901494 0.741324
0.190761 0.0903941 0.741023
0.19213 0.090641 0.740742
0.193522 0.0908996 0.740563
0.194971 0.0911867 0.740636
0.196402 0.0914649 0.740627
0.197847 0.0917492 0.740671
0.199323 0.0920493 0.740849
0.200845 0.0923711 0.741215
0.20238 0.0926991 0.74163
0.203952 0.0930444 0.74219
0.205571 0.0934117 0.742935
0.207195 0.0937803 0.743684
0.208833 0.0941548 0.744479
0.210514 0.094549 0.745436
0.212275 0.0949806 0.746702
0.214026 0.0954055 0.747903
0.215784 0.0958326 0.749115
0.217507 0.0962415 0.750164
0.21927 0.096668 0.751353
0.220981 0.0970685 0.752317
0.222719 0.0974809 0.753372
0.224387 0.0978593 0.754136
0.226132 0.0982718 0.755179
0.227882 0.0986861 0.756227
0.229708 0.0991337 0.757545
0.231571 0.099597 0.758983
0.233502 0.10009 0.760653
0.235838 0.0992055 0.762916
0.235374 0.100554 0.762077
0.128424 0.0833408 0.792092
0.129804 0.0835612 0.791412
0.131133 0.0837468 0.790382
0.132402 0.0838907 0.788935
0.133533 0.0839405 0.786551
0.134411 0.0838187 0.782462
0.135266 0.083687 0.778297
0.136116 0.0835592 0.774198
0.136986 0.0834506 0.770314
0.137929 0.0833964 0.766992
0.139045 0.0834628 0.764879
0.140087 0.0834827 0.762321
0.141101 0.0834883 0.759637
0.142119 0.0834997 0.757028
0.143135 0.0835141 0.75446
0.144237 0.0835866 0.752472
0.145413 0.0837083 0.750971
0.146652 0.0838717 0.74988
0.147878 0.0840287 0.748732
0.149089 0.0841772 0.747508
0.150229 0.0842837 0.74589
0.151357 0.0843844 0.744225
0.152493 0.0844919 0.742633
0.15366 0.08462 0.741246
0.154857 0.0847681 0.740053
0.156051 0.0849155 0.738858
0.157262 0.0850741 0.737776
0.15847 0.085232 0.736692
0.159684 0.0853949 0.73566
0.160941 0.0855834 0.73487
0.162291 0.0858268 0.73459
0.163645 0.0860721 0.734329
0.165001 0.0863189 0.734081
0.166439 0.0866122 0.734259
0.167884 0.0869086 0.734464
0.169321 0.0872001 0.734621
0.170829 0.0875309 0.735131
0.172385 0.087887 0.735866
0.173953 0.0882484 0.736643
0.175558 0.0886295 0.73759
0.177164 0.089009 0.738517
0.178756 0.0893798 0.739358
0.180318 0.0897328 0.740035
0.181823 0.0900545 0.740425
0.183262 0.0903401 0.740492
0.184726 0.0906382 0.740669
0.186127 0.0909029 0.740548
0.187484 0.0911438 0.740218
0.188837 0.0913829 0.739872
0.190202 0.0916282 0.739581
0.191583 0.0918821 0.739364
0.19299 0.0921493 0.739262
0.194452 0.0924444 0.739402
0.1959 0.0927323 0.739477
0.197379 0.0930349 0.739676
0.198859 0.093338 0.739877
0.200397 0.09367 0.740321
0.20195 0.0940081 0.740815
0.20352 0.0943543 0.741371
0.205122 0.0947158 0.742054
0.206742 0.0950847 0.742793
0.208357 0.0954502 0.743499
0.210019 0.0958378 0.744384
0.211776 0.0962706 0.745641
0.213541 0.0967055 0.746907
0.2153 0.0971364 0.74813
0.217045 0.0975583 0.749271
0.218808 0.0979879 0.750468
0.220515 0.0983894 0.751423
0.222249 0.0988025 0.752467
0.22393 0.0991887 0.753284
0.225673 0.0996038 0.75433
0.227442 0.100029 0.755452
0.229265 0.100479 0.756768
0.231125 0.100944 0.758197
0.233035 0.101431 0.759795
0.234906 0.101898 0.76122
0.126595 0.0844525 0.791486
0.127997 0.0846882 0.790966
0.129361 0.0848973 0.790182
0.130696 0.085086 0.789199
0.131946 0.0852155 0.787634
0.133054 0.0852456 0.785093
0.133963 0.0851394 0.781223
0.134842 0.0850184 0.777233
0.135712 0.0848974 0.773265
0.136613 0.0848039 0.76959
0.137604 0.0847774 0.766587
0.138719 0.0848392 0.764461
0.139793 0.0848765 0.76211
0.140849 0.0849056 0.759692
0.141922 0.0849493 0.757427
0.142995 0.0849955 0.755201
0.144113 0.0850747 0.753301
0.145266 0.0851786 0.751647
0.14649 0.0853301 0.750453
0.147704 0.0854774 0.749224
0.148893 0.0856096 0.74786
0.150018 0.0857036 0.746144
0.151143 0.085799 0.74445
0.152251 0.0858865 0.742692
0.153393 0.0859969 0.741155
0.15459 0.0861434 0.739962
0.155799 0.0862976 0.738845
0.156999 0.0864485 0.737703
0.158207 0.0866047 0.736616
0.159434 0.0867733 0.735647
0.160692 0.0869615 0.734861
0.162045 0.0872062 0.734594
0.163413 0.0874598 0.734407
0.164782 0.0877139 0.734224
0.166206 0.0879992 0.734322
0.167635 0.0882873 0.734444
0.169056 0.0885705 0.734518
0.17055 0.0888948 0.734959
0.172107 0.0892536 0.735703
0.173692 0.0896267 0.736567
0.175301 0.0900114 0.737528
0.176908 0.0903938 0.738462
0.17848 0.0907558 0.739208
0.179992 0.091083 0.739643
0.181445 0.0913777 0.739789
0.182834 0.0916368 0.739622
0.184247 0.0919087 0.739564
0.185611 0.0921539 0.739275
0.186964 0.0923935 0.738938
0.188299 0.0926236 0.738518
0.189679 0.0928772 0.738302
0.19106 0.093132 0.738095
0.192466 0.0933995 0.737997
0.193926 0.0936949 0.738136
0.195406 0.0940004 0.738358
0.196885 0.0943048 0.738568
0.198398 0.0946261 0.738918
0.199969 0.0949764 0.739509
0.201537 0.0953241 0.740074
0.203108 0.0956725 0.74064
0.204707 0.0960341 0.74131
0.206308 0.0963961 0.741979
0.207905 0.0967546 0.742614
0.209548 0.0971351 0.743425
0.211283 0.0975605 0.744602
0.213048 0.0979986 0.745874
0.214823 0.0984401 0.747167
0.216586 0.0988746 0.748393
0.218349 0.0993073 0.749595
0.220054 0.0997103 0.750548
0.221782 0.100123 0.751573
0.22344 0.100501 0.752307
0.22518 0.100917 0.753345
0.226967 0.101354 0.754545
0.228789 0.101806 0.755859
0.230645 0.102273 0.757283
0.232569 0.102771 0.758941
0.234439 0.103241 0.760366
0.236714 0.102335 0.762393
0.236248 0.103681 0.761549
0.124825 0.085605 0.791302
0.126225 0.0858395 0.790774
0.127602 0.0860569 0.790079
0.128919 0.0862305 0.788958
0.130224 0.0863962 0.787764
0.131435 0.0864956 0.785929
0.132497 0.0864893 0.783076
0.133435 0.0863987 0.779421
0.134349 0.0862972 0.775685
0.13526 0.0861992 0.772002
0.136204 0.0861306 0.768624
0.137242 0.0861323 0.76594
0.138357 0.086191 0.763814
0.139443 0.0862329 0.76154
0.140535 0.0862823 0.759351
0.141636 0.0863405 0.757256
0.142746 0.0864081 0.755262
0.143879 0.0864941 0.75345
0.145046 0.0866043 0.751875
0.146261 0.0867482 0.750624
0.147476 0.0868934 0.74939
0.148676 0.0870306 0.748088
0.149815 0.0871303 0.746446
0.150942 0.0872242 0.744759
0.152052 0.0873094 0.743
0.153182 0.08741 0.741392
0.154368 0.0875469 0.740124
0.155566 0.0876929 0.738944
0.156768 0.0878423 0.737801
0.157975 0.0879966 0.736708
0.159212 0.0881701 0.735793
0.160483 0.0883645 0.73507
0.161838 0.0886103 0.734811
0.163209 0.0888654 0.734635
0.16458 0.0891205 0.734459
0.16599 0.0893985 0.734485
0.167391 0.0896704 0.734456
0.168797 0.0899452 0.73445
0.170274 0.0902606 0.734801
0.171829 0.0906201 0.735537
0.17343 0.0910042 0.736481
0.175026 0.0913842 0.737382
0.176618 0.0917602 0.738242
0.17817 0.0921128 0.738891
0.179632 0.0924139 0.73909
0.181034 0.0926809 0.738991
0.182402 0.092929 0.73873
0.18378 0.0931822 0.738511
0.185112 0.0934106 0.738081
0.186462 0.0936488 0.737734
0.187797 0.0938793 0.737323
0.189194 0.0941428 0.737194
0.190593 0.0944078 0.737074
0.192015 0.0946845 0.737054
0.193491 0.0949897 0.737271
0.194985 0.0953038 0.737561
0.196465 0.0956097 0.737778
0.197977 0.0959325 0.738133
0.199548 0.0962846 0.738729
0.201096 0.0966236 0.73921
0.202664 0.0969724 0.73977
0.204244 0.0973266 0.740368
0.205861 0.0976985 0.741106
0.207455 0.098058 0.741738
0.209095 0.0984391 0.742543
0.210811 0.0988575 0.743643
0.212589 0.099306 0.74498
0.214363 0.0997501 0.746274
0.216145 0.100197 0.747581
0.217906 0.100631 0.748779
0.219609 0.101036 0.749731
0.221294 0.101431 0.750593
0.22293 0.1018 0.751247
0.224649 0.102209 0.752211
0.226436 0.102649 0.753421
0.228257 0.103105 0.75474
0.230109 0.103574 0.756157
0.232025 0.104071 0.75779
0.233892 0.104543 0.759212
0.235716 0.104994 0.760458
0.12436 0.0869158 0.789856
0.125743 0.0871379 0.789216
0.127096 0.0873378 0.788362
0.128383 0.087488 0.787032
0.129655 0.0876293 0.785624
0.130862 0.0877241 0.783776
0.131932 0.0877205 0.780998
0.132912 0.0876564 0.777656
0.133877 0.0875866 0.774279
0.13483 0.0875133 0.77089
0.135814 0.0874677 0.767781
0.136867 0.0874754 0.765193
0.137993 0.087539 0.763143
0.139091 0.0875865 0.760956
0.140198 0.0876423 0.758857
0.141323 0.087714 0.756918
0.142469 0.0878028 0.755147
0.143603 0.0878861 0.753334
0.144783 0.0880028 0.75184
0.146011 0.0881532 0.750662
0.147218 0.088291 0.749374
0.14842 0.0884272 0.748079
0.149599 0.0885504 0.746671
0.150757 0.0886614 0.745158
0.151887 0.0887565 0.743512
0.153033 0.0888637 0.741981
0.154215 0.0889961 0.740684
0.155385 0.0891218 0.739335
0.156561 0.0892534 0.738044
0.157758 0.0893993 0.736887
0.158994 0.0895704 0.735959
0.160265 0.0897638 0.735233
0.161621 0.0900097 0.734974
0.162995 0.0902668 0.734812
0.164368 0.090523 0.734643
0.165767 0.0907943 0.734605
0.167152 0.091057 0.734491
0.168539 0.091321 0.734388
0.169999 0.0916272 0.73465
0.171538 0.0919794 0.735306
0.173137 0.0923648 0.736243
0.174717 0.092738 0.737068
0.176292 0.093106 0.737844
0.177811 0.0934417 0.738335
0.179238 0.0937238 0.738367
0.180605 0.0939719 0.738107
0.181941 0.0942019 0.737693
0.183284 0.0944365 0.737319
0.184611 0.0946626 0.736874
0.18596 0.094901 0.736534
0.187299 0.0951337 0.736146
0.188713 0.0954074 0.736101
0.190143 0.0956898 0.736129
0.191582 0.0959767 0.736191
0.193074 0.0962917 0.736484
0.194585 0.0966165 0.736855
0.196081 0.0969324 0.73715
0.197577 0.0972475 0.737434
0.199144 0.0975993 0.738016
0.200672 0.0979298 0.73842
0.202221 0.0982707 0.738904
0.203799 0.0986255 0.739497
0.205413 0.0989983 0.740231
0.206986 0.0993488 0.74078
0.20864 0.0997396 0.741648
0.210353 0.10016 0.742745
0.21211 0.100601 0.744002
0.213881 0.101047 0.745291
0.215678 0.101504 0.746665
0.217421 0.101933 0.747801
0.219141 0.102349 0.748825
0.220822 0.102744 0.749677
0.222452 0.103112 0.750313
0.224168 0.103522 0.751272
0.225975 0.103975 0.752562
0.2278 0.104436 0.753902
0.229652 0.104908 0.755323
0.231561 0.105406 0.756939
0.233419 0.105878 0.758337
0.235245 0.106332 0.759589
0.237545 0.105444 0.761696
0.237097 0.106797 0.760923
0.123869 0.0882017 0.788209
0.12522 0.0883997 0.787349
0.126542 0.0885752 0.786277
0.127778 0.0886862 0.784598
0.129043 0.088822 0.783161
0.130255 0.0889201 0.781377
0.131349 0.0889315 0.778784
0.132392 0.0889099 0.775896
0.133409 0.088874 0.772891
0.134404 0.0888264 0.769794
0.135424 0.0888026 0.766935
0.136499 0.0888227 0.764501
0.137626 0.0888835 0.762455
0.138738 0.0889371 0.760355
0.139849 0.0889934 0.758288
0.140965 0.0890562 0.756294
0.142111 0.0891424 0.754525
0.143255 0.0892295 0.752772
0.144436 0.0893449 0.751285
0.145677 0.0895027 0.750189
0.146909 0.0896556 0.749054
0.148137 0.0898071 0.747912
0.149359 0.0899564 0.746755
0.150563 0.0900953 0.745511
0.151728 0.0902103 0.74406
0.152899 0.0903307 0.742662
0.154092 0.0904668 0.741412
0.155231 0.0905702 0.739879
0.156393 0.0906901 0.738497
0.157591 0.0908343 0.737338
0.158819 0.0909988 0.73636
0.160079 0.0911841 0.735568
0.161432 0.0914284 0.735292
0.162793 0.0916765 0.73505
0.164153 0.0919247 0.734809
0.165551 0.0921959 0.734765
0.166922 0.09245 0.734574
0.168293 0.0927044 0.734385
0.169722 0.0929936 0.734492
0.171231 0.0933291 0.734993
0.172799 0.0936986 0.735778
0.174347 0.094055 0.736446
0.175888 0.0944056 0.737061
0.177372 0.0947227 0.737386
0.178765 0.0949862 0.737259
0.180101 0.095217 0.736856
0.181431 0.0954446 0.736427
0.182757 0.0956702 0.735982
0.184099 0.0959047 0.735613
0.185477 0.0961599 0.735415
0.186846 0.0964098 0.735174
0.188278 0.0966946 0.73522
0.189758 0.0970055 0.735479
0.191214 0.0973024 0.73562
0.192723 0.0976279 0.735992
0.194252 0.0979636 0.736444
0.195765 0.0982901 0.736817
0.197245 0.0985976 0.737033
0.198807 0.0989488 0.737598
0.200312 0.0992683 0.737904
0.201841 0.0995997 0.738304
0.203401 0.0999472 0.738827
0.204999 0.100313 0.739495
0.206569 0.100664 0.740037
0.208203 0.101047 0.740828
0.209893 0.101458 0.741838
0.211631 0.101892 0.743021
0.21338 0.102331 0.744231
0.215156 0.102781 0.745525
0.216896 0.103211 0.746656
0.218613 0.103629 0.747678
0.220293 0.104025 0.748531
0.221939 0.104404 0.749238
0.223649 0.104814 0.750182
0.225455 0.10527 0.751476
0.227278 0.105733 0.752816
0.229109 0.106199 0.754165
0.230997 0.10669 0.755706
0.232846 0.107161 0.757081
0.23467 0.107617 0.758334
0.236544 0.108097 0.759757
0.123386 0.0894889 0.78662
0.124574 0.0895558 0.784538
0.125898 0.0897343 0.783514
0.127131 0.089843 0.781843
0.128392 0.0899759 0.780406
0.129618 0.0900841 0.778747
0.130749 0.090122 0.776444
0.131844 0.090137 0.773941
0.132915 0.0901374 0.771318
0.133949 0.0901152 0.768502
0.135004 0.0901128 0.765883
0.1361 0.090145 0.763593
0.137226 0.0902027 0.761549
0.138362 0.0902711 0.759613
0.139499 0.0903425 0.757714
0.14063 0.0904125 0.755811
0.141777 0.0904968 0.754047
0.14292 0.0905814 0.752295
0.1441 0.0906931 0.750795
0.145342 0.0908505 0.749709
0.146588 0.0910117 0.74866
0.147842 0.0911796 0.747678
0.149116 0.0913615 0.746823
0.150364 0.0915278 0.745833
0.151575 0.0916705 0.744641
0.152778 0.0918094 0.74342
0.153982 0.0919504 0.742224
0.155104 0.0920398 0.740584
0.156252 0.0921475 0.739111
0.157439 0.0922822 0.737878
0.158657 0.0924384 0.736838
0.159904 0.0926141 0.735969
0.161244 0.0928493 0.735615
0.162587 0.0930861 0.735273
0.163931 0.0933243 0.734945
0.165315 0.0935868 0.734823
0.166672 0.0938324 0.734558
0.168015 0.0940699 0.734224
0.169414 0.0943411 0.734175
0.170878 0.0946513 0.734451
0.172399 0.0949945 0.735002
0.173898 0.0953238 0.735432
0.175402 0.0956549 0.735872
0.176853 0.0959542 0.736046
0.178228 0.0962085 0.735842
0.17956 0.0964374 0.735429
0.18089 0.0966654 0.73501
0.182216 0.0968913 0.734573
0.183555 0.0971249 0.734201
0.184948 0.097389 0.734079
0.186335 0.09765 0.73393
0.187799 0.097954 0.734131
0.189312 0.0982852 0.734549
0.1908 0.0986011 0.73484
0.192327 0.0989386 0.735302
0.193888 0.0992934 0.735898
0.195404 0.0996225 0.736284
0.196882 0.0999302 0.736496
0.198425 0.100273 0.73698
0.199907 0.100581 0.737193
0.201414 0.100902 0.737503
0.202956 0.101242 0.737954
0.204534 0.1016 0.738545
0.206121 0.101961 0.73916
0.20775 0.102344 0.739942
0.209423 0.102749 0.740885
0.211138 0.103174 0.741983
0.212879 0.103611 0.743164
0.214631 0.104052 0.744371
0.216386 0.104494 0.745572
0.218107 0.104916 0.746614
0.219787 0.105315 0.747476
0.221431 0.105695 0.748181
0.223136 0.106105 0.749112
0.224916 0.106552 0.750317
0.226758 0.107028 0.751736
0.228586 0.107496 0.753082
0.23047 0.107989 0.754615
0.232315 0.108461 0.755979
0.234135 0.10892 0.75723
0.235989 0.109393 0.758583
0.238427 0.108579 0.761189
0.237933 0.109908 0.760247
0.124073 0.090821 0.782817
0.125255 0.0908841 0.780745
0.1265 0.091002 0.779188
0.127761 0.0911356 0.777781
0.12901 0.0912616 0.776314
0.130179 0.0913275 0.774304
0.131335 0.0913867 0.772244
0.132456 0.0914232 0.769989
0.133527 0.0914248 0.76743
0.134594 0.0914278 0.764898
0.13569 0.0914569 0.762613
0.136816 0.0915118 0.760573
0.137965 0.0915869 0.758724
0.139114 0.0916646 0.756908
0.14027 0.0917502 0.755169
0.141428 0.09184 0.753478
0.142582 0.0919294 0.751791
0.143763 0.0920401 0.750301
0.145007 0.0921973 0.749226
0.146254 0.0923577 0.748184
0.147533 0.0925419 0.747353
0.148832 0.0927405 0.746653
0.150122 0.0929337 0.745907
0.151375 0.0931028 0.744956
0.152609 0.09326 0.743905
0.15383 0.0934101 0.742799
0.154945 0.0934908 0.741102
0.156092 0.0935952 0.739617
0.157276 0.0937262 0.738365
0.158483 0.0938729 0.737251
0.159716 0.094038 0.7363
0.16104 0.094262 0.73585
0.162352 0.0944791 0.735343
0.163668 0.0946986 0.734858
0.165037 0.094952 0.734657
0.16638 0.0951892 0.734321
0.167709 0.0954175 0.733912
0.169091 0.0956789 0.733777
0.170522 0.0959697 0.733887
0.171991 0.0962839 0.734187
0.173426 0.0965762 0.734303
0.174895 0.0968882 0.73458
0.176311 0.0971681 0.73459
0.17767 0.0974132 0.734315
0.179001 0.0976424 0.73391
0.180359 0.0978874 0.733635
0.181701 0.0981229 0.733281
0.183043 0.0983588 0.732932
0.18445 0.0986323 0.732887
0.185866 0.0989106 0.732879
0.187349 0.0992269 0.733174
0.188897 0.09958 0.733759
0.190436 0.0999263 0.734286
0.191981 0.100275 0.734829
0.193542 0.100632 0.73543
0.195056 0.100961 0.73581
0.196501 0.101252 0.735878
0.198008 0.101576 0.736213
0.199471 0.101875 0.736345
0.200956 0.102186 0.736569
0.202494 0.102525 0.73701
0.20407 0.102884 0.737599
0.205657 0.103247 0.738221
0.207302 0.103641 0.73907
0.208973 0.104047 0.74001
0.210665 0.104463 0.741022
0.212401 0.104901 0.742192
0.214128 0.105332 0.743305
0.215861 0.105766 0.744424
0.217598 0.106199 0.74554
0.219282 0.106603 0.746426
0.220945 0.106995 0.747209
0.222668 0.107417 0.748218
0.224443 0.107864 0.749408
0.22626 0.108331 0.750739
0.228083 0.1088 0.752072
0.229944 0.109285 0.753525
0.231786 0.10976 0.754886
0.233603 0.110219 0.756128
0.235451 0.110693 0.75747
0.237411 0.111221 0.759201
0.239821 0.110395 0.761684
0.23932 0.111722 0.760722
0.122788 0.0923565 0.786248
0.1236 0.0921035 0.781301
0.124639 0.0920468 0.778169
0.125925 0.0921988 0.776947
0.12721 0.0923505 0.775729
0.128481 0.0924938 0.77444
0.129683 0.0925846 0.772686
0.130872 0.0926679 0.770874
0.132007 0.0927121 0.768719
0.133091 0.0927202 0.766256
0.13418 0.0927372 0.763884
0.135288 0.092772 0.761684
0.136416 0.0928257 0.75966
0.137578 0.0929079 0.7579
0.138739 0.0929918 0.756162
0.139906 0.0930838 0.754504
0.141067 0.093173 0.752828
0.142246 0.093278 0.751301
0.143438 0.093395 0.749883
0.144695 0.0935595 0.748884
0.145943 0.0937194 0.747849
0.147235 0.0939115 0.747095
0.148535 0.09411 0.7464
0.149838 0.0943115 0.745733
0.151106 0.0944896 0.744867
0.152356 0.0946562 0.743908
0.153597 0.0948173 0.742906
0.154728 0.0949065 0.7413
0.155877 0.0950098 0.739822
0.157062 0.0951388 0.738565
0.158265 0.0952811 0.737426
0.159484 0.0954352 0.736391
0.160793 0.0956488 0.735857
0.16209 0.0958555 0.735266
0.16339 0.0960648 0.734698
0.164746 0.0963095 0.734425
0.166088 0.096546 0.734084
0.167402 0.0967648 0.733598
0.168768 0.097016 0.733379
0.170164 0.0972861 0.733315
0.171572 0.0975637 0.73331
0.172954 0.0978245 0.733167
0.174385 0.0981155 0.733268
0.17577 0.0983775 0.733134
0.177129 0.0986237 0.73287
0.178489 0.0988706 0.732613
0.179864 0.0991264 0.732426
0.181221 0.0993715 0.732155
0.182577 0.0996165 0.731881
0.183984 0.099891 0.731842
0.185414 0.100179 0.731907
0.186899 0.100497 0.732216
0.188465 0.100863 0.732888
0.190025 0.101223 0.733514
0.191585 0.101582 0.734133
0.193145 0.101941 0.734736
0.19467 0.102278 0.735168
0.196114 0.102568 0.735234
0.197603 0.102884 0.735492
0.199062 0.103182 0.735616
0.200527 0.103483 0.735756
0.202046 0.103813 0.736121
0.203605 0.104165 0.736643
0.205205 0.104537 0.737327
0.206851 0.104934 0.738189
0.208523 0.105343 0.739137
0.210213 0.105761 0.740146
0.211926 0.10619 0.741231
0.213627 0.106611 0.742246
0.215359 0.107046 0.743366
0.217114 0.107492 0.744559
0.218818 0.107909 0.745531
0.220499 0.108314 0.746396
0.22222 0.108737 0.747398
0.223975 0.109176 0.748515
0.225767 0.109634 0.749759
0.227587 0.110104 0.751086
0.229464 0.110602 0.752608
0.231306 0.11108 0.753975
0.233119 0.11154 0.75521
0.234961 0.112014 0.756532
0.236894 0.112533 0.75817
0.238801 0.113036 0.759689
0.118131 0.0932551 0.808015
0.116443 0.09453 0.808769
0.117769 0.0946724 0.807364
0.119505 0.0934435 0.807024
0.119138 0.0948564 0.806344
0.120924 0.0936733 0.806421
0.120553 0.0950816 0.805706
0.121594 0.0932617 0.799908
0.121349 0.0947683 0.800183
0.121971 0.0943163 0.793435
0.122562 0.0938522 0.786619
0.123244 0.0934801 0.780669
0.124149 0.0933061 0.776529
0.125452 0.0934712 0.775442
0.126745 0.0936302 0.774308
0.128016 0.0937724 0.773028
0.129237 0.0938761 0.771413
0.130424 0.0939562 0.769599
0.131559 0.0939977 0.767452
0.132654 0.0940117 0.765076
0.133755 0.0940345 0.762789
0.134875 0.0940755 0.760673
0.136005 0.094128 0.758668
0.137178 0.0942164 0.756984
0.138351 0.0943078 0.755334
0.13953 0.0944065 0.753756
0.140694 0.0944955 0.752102
0.141899 0.0946181 0.750744
0.143094 0.0947348 0.749341
0.14435 0.0948984 0.748345
0.145607 0.0950633 0.747365
0.146911 0.0952628 0.746683
0.148202 0.0954545 0.745935
0.149505 0.0956551 0.745267
0.150771 0.0958308 0.744391
0.152032 0.0960034 0.743493
0.153285 0.0961723 0.742568
0.154447 0.0962798 0.741134
0.155625 0.0964007 0.739817
0.156837 0.0965454 0.738705
0.158028 0.0966778 0.737495
0.159234 0.0968214 0.736384
0.160528 0.0970249 0.735769
0.161813 0.0972229 0.73511
0.163099 0.0974224 0.734466
0.164441 0.0976583 0.734122
0.165769 0.097885 0.733703
0.167067 0.0980933 0.733136
0.168403 0.0983263 0.73277
0.169755 0.0985692 0.732484
0.171129 0.0988259 0.732309
0.172474 0.099065 0.731993
0.173872 0.0993363 0.731934
0.175252 0.0995964 0.731785
0.176626 0.0998531 0.731609
0.178004 0.100112 0.731448
0.17941 0.100387 0.731415
0.180797 0.100651 0.731293
0.182154 0.100897 0.731028
0.183559 0.101171 0.730983
0.185001 0.101466 0.731106
0.186483 0.101785 0.731413
0.188035 0.102144 0.732025
0.189593 0.102506 0.732652
0.191152 0.102866 0.733268
0.192693 0.103216 0.733792
0.194199 0.103544 0.734149
0.195655 0.103842 0.734273
0.197142 0.104158 0.734528
0.1986 0.104457 0.734653
0.200081 0.104768 0.734867
0.201598 0.105099 0.735229
0.203154 0.105451 0.735746
0.204788 0.105845 0.736579
0.206452 0.106253 0.737517
0.208125 0.106666 0.738478
0.209834 0.107097 0.739568
0.211525 0.107516 0.740569
0.213189 0.10792 0.741439
0.214915 0.108355 0.742541
0.216668 0.108803 0.743731
0.218373 0.109223 0.744712
0.220094 0.109651 0.745737
0.221815 0.110077 0.746745
0.223548 0.110508 0.747782
0.225315 0.110955 0.748933
0.227131 0.111427 0.75025
0.228988 0.111918 0.751705
0.230833 0.112401 0.753089
0.232644 0.112864 0.754321
0.23448 0.113338 0.75563
0.236407 0.113858 0.757252
0.238291 0.114353 0.758694
0.240676 0.113521 0.76107
0.240186 0.114852 0.76015
0.109581 0.0936379 0.814218
0.108132 0.0933904 0.814677
0.107902 0.0949443 0.815206
0.109344 0.0951831 0.814668
0.111037 0.0938914 0.813817
0.110793 0.0954292 0.814197
0.112463 0.0941176 0.813162
0.112203 0.095639 0.813398
0.113798 0.0942598 0.811734
0.113517 0.0957585 0.811779
0.115131 0.0944036 0.810328
0.114816 0.0958671 0.810069
0.116105 0.0959706 0.808322
0.117413 0.0960939 0.806762
0.118778 0.0962728 0.805709
0.120189 0.0964949 0.805049
0.120994 0.0961793 0.799585
0.121705 0.0957931 0.793524
0.122324 0.095341 0.78691
0.122969 0.0949244 0.780648
0.123772 0.0946566 0.775737
0.125069 0.0948157 0.774611
0.126353 0.0949654 0.773409
0.127611 0.0950952 0.772037
0.128805 0.0951761 0.770245
0.129969 0.0952344 0.768265
0.13108 0.0952545 0.765965
0.132175 0.0952655 0.763597
0.133287 0.0952941 0.761393
0.134418 0.095342 0.759366
0.135572 0.0954107 0.757528
0.136768 0.0955155 0.756008
0.137964 0.0956219 0.754508
0.13918 0.0957463 0.753168
0.140369 0.0958525 0.751681
0.14159 0.0959845 0.750419
0.142786 0.0961003 0.749025
0.144041 0.0962618 0.748022
0.145275 0.0964082 0.746897
0.146565 0.0965979 0.746138
0.147843 0.0967787 0.745309
0.149132 0.0969695 0.744565
0.150395 0.0971415 0.743669
0.151663 0.0973189 0.74282
0.152916 0.0974869 0.741898
0.154091 0.0976019 0.740543
0.155285 0.0977316 0.739316
0.156501 0.0978778 0.738227
0.157693 0.0980097 0.737027
0.158913 0.0981613 0.735992
0.160195 0.0983562 0.735313
0.161492 0.0985611 0.734717
0.162779 0.0987605 0.734079
0.164106 0.0989867 0.733658
0.165419 0.0992038 0.733163
0.166714 0.09941 0.732585
0.168036 0.0996335 0.732145
0.169359 0.0998584 0.731717
0.170688 0.100087 0.73132
0.172013 0.100314 0.730909
0.173391 0.100573 0.730758
0.174759 0.100827 0.73056
0.176149 0.101094 0.730467
0.177558 0.101373 0.730463
0.178979 0.101659 0.730511
0.180382 0.101933 0.730471
0.181754 0.102188 0.730282
0.183158 0.102462 0.730235
0.184611 0.102766 0.730417
0.186088 0.103083 0.730704
0.187622 0.103433 0.731238
0.189158 0.103784 0.731771
0.190712 0.104144 0.73237
0.192233 0.104483 0.732809
0.193723 0.104804 0.733104
0.195179 0.105104 0.733235
0.196649 0.105411 0.733425
0.198105 0.10571 0.733546
0.199584 0.106022 0.733759
0.201102 0.106355 0.734132
0.202674 0.106717 0.734723
0.204357 0.107142 0.735771
0.20606 0.107575 0.736879
0.207753 0.108002 0.737927
0.20948 0.108445 0.739094
0.211185 0.108875 0.740153
0.212829 0.109269 0.740942
0.214532 0.109695 0.741959
0.216304 0.110156 0.743228
0.218009 0.110579 0.744212
0.219732 0.11101 0.74525
0.221452 0.111439 0.746258
0.223179 0.111869 0.747276
0.224922 0.112307 0.748337
0.226754 0.11279 0.749719
0.228616 0.113286 0.751194
0.230464 0.113774 0.752593
0.232255 0.11423 0.753755
0.234065 0.114694 0.754968
0.235946 0.115193 0.756428
0.237785 0.115668 0.757706
0.239653 0.116157 0.759073
0.109148 0.0967731 0.815501
0.110558 0.0969789 0.814667
0.111912 0.0971315 0.813359
0.11319 0.0972134 0.811422
0.114466 0.0972976 0.809516
0.115746 0.0973895 0.807688
0.117048 0.0975061 0.806088
0.118385 0.0976583 0.804813
0.119767 0.0978531 0.803918
0.120615 0.0975678 0.798801
0.12137 0.0972104 0.793078
0.122046 0.0967954 0.786883
0.122749 0.0964187 0.781056
0.123466 0.0960656 0.775468
0.124762 0.0962224 0.774337
0.126036 0.0963618 0.773058
0.127261 0.0964622 0.771449
0.12842 0.0965111 0.769406
0.129558 0.0965453 0.767245
0.130644 0.096542 0.764775
0.131728 0.0965407 0.762336
0.132841 0.0965676 0.760148
0.133984 0.0966228 0.758211
0.13516 0.0967066 0.756526
0.136349 0.0968041 0.754964
0.137546 0.0969101 0.75348
0.138774 0.0970422 0.752223
0.139976 0.0971563 0.750821
0.141199 0.0972891 0.74958
0.142418 0.0974207 0.748335
0.143684 0.0975888 0.7474
0.144914 0.0977318 0.74626
0.146204 0.0979197 0.745494
0.147468 0.0980906 0.744592
0.148743 0.0982698 0.743761
0.149976 0.0984206 0.742702
0.15123 0.0985873 0.741775
0.152468 0.0987441 0.740774
0.153657 0.0988673 0.739503
0.154866 0.0990061 0.738364
0.156108 0.0991697 0.737429
0.157328 0.099319 0.736384
0.158562 0.0994797 0.735434
0.159845 0.0996744 0.73476
0.161141 0.099879 0.734166
0.162427 0.100077 0.733523
0.16374 0.100294 0.733027
0.165051 0.100509 0.732526
0.166358 0.100723 0.732011
0.167679 0.100946 0.731571
0.169002 0.101171 0.731148
0.170327 0.101397 0.730733
0.171637 0.101614 0.730249
0.173 0.101865 0.73003
0.17437 0.10212 0.729841
0.175761 0.102388 0.729758
0.177171 0.102669 0.729763
0.178619 0.102972 0.729949
0.180039 0.103258 0.729991
0.181429 0.103525 0.729889
0.182834 0.1038 0.72985
0.184301 0.104113 0.730098
0.185761 0.104421 0.730305
0.18726 0.104751 0.730683
0.188758 0.105081 0.731048
0.190288 0.105429 0.731544
0.191773 0.105748 0.731828
0.193247 0.106061 0.732056
0.194703 0.106362 0.732197
0.196172 0.106671 0.732389
0.197645 0.10698 0.732587
0.199123 0.107293 0.732804
0.200656 0.107636 0.733247
0.20223 0.108002 0.733854
0.203934 0.108441 0.734991
0.205656 0.108889 0.736189
0.207371 0.10933 0.737332
0.209115 0.109786 0.738572
0.210853 0.110237 0.73977
0.212494 0.110632 0.740552
0.214179 0.11105 0.741497
0.215966 0.111522 0.742828
0.21767 0.111947 0.743812
0.219395 0.112383 0.74486
0.221115 0.112813 0.745869
0.222839 0.113245 0.746879
0.224557 0.113671 0.747845
0.226386 0.114156 0.74922
0.228229 0.114646 0.750628
0.230077 0.115137 0.752029
0.231865 0.115594 0.753184
0.233669 0.116058 0.75438
0.235505 0.116537 0.755675
0.237317 0.117001 0.75686
0.239137 0.117468 0.758055
0.24167 0.11672 0.760957
0.241101 0.118009 0.759756
0.108986 0.0984019 0.816647
0.110348 0.0985565 0.815362
0.111654 0.0986578 0.813611
0.11287 0.0986747 0.811123
0.114112 0.0987231 0.808926
0.115353 0.0987753 0.806774
0.116645 0.09888 0.805092
0.117953 0.0990035 0.803582
0.119309 0.0991746 0.802493
0.120175 0.0988977 0.797522
0.120955 0.0985538 0.791999
0.121669 0.0981631 0.786102
0.122415 0.0978129 0.780586
0.123165 0.0974793 0.775242
0.124431 0.0976078 0.77388
0.125679 0.0977238 0.772417
0.126859 0.0977836 0.770484
0.127993 0.0978077 0.768257
0.129104 0.0978172 0.765918
0.130177 0.0977991 0.763357
0.131249 0.0977852 0.760845
0.132372 0.0978179 0.758738
0.133517 0.0978724 0.756821
0.134695 0.0979566 0.755162
0.135893 0.0980601 0.753672
0.137113 0.098183 0.752348
0.138342 0.0983154 0.75111
0.139567 0.0984461 0.749863
0.140813 0.0985947 0.748768
0.142056 0.098743 0.747676
0.143323 0.0989114 0.746752
0.144553 0.0990531 0.745614
0.145828 0.0992299 0.744766
0.147064 0.0993789 0.743697
0.1483 0.0995287 0.742638
