ply
format ascii 1.0
element vertex 1718
property float x
property float y
property float z
end_header
0.16965 0.115262 0.745905
0.167952 0.116201 0.747608
0.168261 0.114596 0.745962
0.166895 0.113947 0.746131
0.165529 0.113299 0.746302
0.164158 0.112645 0.746442
0.162768 0.111979 0.746484
0.161378 0.111312 0.746517
0.159978 0.110636 0.746498
0.158597 0.109975 0.746567
0.157215 0.109313 0.746632
0.155436 0.11019 0.747966
0.155848 0.108662 0.746769
0.154068 0.109538 0.748103
0.154501 0.108026 0.747008
0.152707 0.108892 0.748278
0.153171 0.107404 0.747346
0.1513 0.108209 0.748196
0.151769 0.106725 0.747281
0.149989 0.107602 0.748638
0.150429 0.106095 0.747558
0.148742 0.107044 0.749437
0.14915 0.105512 0.748175
0.147622 0.106588 0.75097
0.147996 0.105027 0.749498
0.0985203 0.0843549 0.77706
0.10008 0.0832082 0.773125
0.098855 0.0826916 0.774507
0.0975286 0.0820817 0.775049
0.0961327 0.0814065 0.774992
0.0946557 0.0806538 0.77421
0.0931847 0.0799049 0.77345
0.0916497 0.0790938 0.772083
0.090115 0.0782808 0.770673
0.0886217 0.077504 0.769594
0.0870939 0.0766927 0.768153
0.0855807 0.0758916 0.766794
0.0840737 0.0750951 0.765449
0.0825921 0.0743214 0.764305
0.081133 0.073567 0.763338
0.079696 0.0728341 0.762558
0.0782794 0.0721207 0.761955
0.0768933 0.0714365 0.761641
0.0755432 0.0707893 0.761691
0.0742051 0.070154 0.76186
0.0728904 0.0695437 0.762284
0.071559 0.0689152 0.762523
0.0702114 0.0682682 0.762571
0.0688616 0.0676201 0.762589
0.0675223 0.0669819 0.762717
0.0662009 0.0663633 0.763053
0.0648973 0.0657646 0.763606
0.0635985 0.0651719 0.764228
0.0623027 0.0645853 0.764912
0.0610338 0.0640278 0.765934
0.059766 0.0634746 0.767014
0.0584992 0.0629249 0.768142
0.0572538 0.0624011 0.769582
0.0559897 0.0618578 0.770819
0.0546742 0.0612538 0.771361
0.0533444 0.0606311 0.771691
0.0520115 0.0600043 0.771982
0.0506574 0.0593498 0.771936
0.0493047 0.0586968 0.771902
0.0479692 0.0580649 0.772114
0.0466283 0.0574271 0.772252
0.0452685 0.056762 0.772048
0.0439235 0.056115 0.772075
0.0425845 0.0554763 0.772187
0.0412486 0.0548429 0.772358
0.0399423 0.054251 0.77307
0.0386765 0.0537218 0.774582
0.0374005 0.0531819 0.775982
0.0361399 0.0526683 0.777741
0.0348736 0.0521496 0.779472
0.0335857 0.0516023 0.780838
0.180767 0.119095 0.748863
0.179278 0.11836 0.748509
0.177793 0.117629 0.748168
0.176172 0.116798 0.747167
0.174581 0.115988 0.746288
0.172974 0.115165 0.745314
0.171417 0.114377 0.74456
0.169938 0.113646 0.744178
0.168535 0.11297 0.744155
0.16715 0.112307 0.744219
0.165779 0.111654 0.74435
0.164425 0.111014 0.744563
0.163042 0.110352 0.744624
0.161692 0.109714 0.744852
0.160343 0.109078 0.745085
0.158982 0.108431 0.745248
0.157635 0.107796 0.745492
0.156289 0.107161 0.745732
0.154959 0.106538 0.746062
0.153633 0.105918 0.746408
0.15226 0.105262 0.746498
0.150926 0.104635 0.7468
0.149636 0.104043 0.747348
0.148447 0.103529 0.748468
0.146922 0.104604 0.751294
0.147348 0.103084 0.750106
0.103734 0.084747 0.768962
0.105506 0.0838213 0.767002
0.104133 0.0831649 0.767086
0.102445 0.0841668 0.769738
0.102831 0.082572 0.767738
0.10129 0.0837118 0.771644
0.101641 0.0820812 0.769324
0.100411 0.0815553 0.770603
0.099147 0.0809984 0.771619
0.0978392 0.0804031 0.772282
0.0964851 0.0797656 0.772553
0.0950501 0.0790543 0.77212
0.0936134 0.0783379 0.771643
0.0921414 0.0775884 0.77083
0.0906377 0.076808 0.769698
0.0891741 0.0760626 0.768892
0.087667 0.0752736 0.767646
0.0861824 0.074504 0.766567
0.0846857 0.0737208 0.76533
0.0832202 0.0729665 0.764356
0.0817697 0.0722245 0.763488
0.0803409 0.0715021 0.762802
0.0789251 0.0707906 0.762217
0.0775445 0.0701148 0.761973
0.0761843 0.0694578 0.761924
0.0748356 0.0688129 0.76199
0.0735115 0.0681924 0.762313
0.0721648 0.0675479 0.762384
0.0708086 0.0668934 0.762339
0.069451 0.0662359 0.762264
0.0681029 0.0655897 0.762292
0.0667748 0.0649629 0.762539
0.0654774 0.0643708 0.763161
0.0641743 0.0637726 0.763723
0.0628809 0.0631867 0.76442
0.0615987 0.0626132 0.765272
0.060324 0.0620502 0.766247
0.0590447 0.0614813 0.767173
0.0577871 0.0609407 0.768423
0.0565118 0.0603812 0.76948
0.0552047 0.0597849 0.770102
0.0538758 0.0591626 0.770432
0.0525453 0.0585375 0.770727
0.0512037 0.0578992 0.770857
0.0498641 0.0572623 0.771002
0.0485358 0.0566393 0.771319
0.047202 0.0560099 0.771557
0.045848 0.0553526 0.771441
0.044504 0.054708 0.771472
0.0431695 0.0540758 0.771669
0.0418401 0.0534498 0.771935
0.0405355 0.0528594 0.772661
0.0392752 0.0523355 0.774264
0.0380048 0.0518002 0.775751
0.0367417 0.0512783 0.777429
0.0354762 0.0507578 0.779159
0.034189 0.0502091 0.780521
0.0322867 0.0510392 0.782011
0.0328827 0.0496309 0.781508
0.181187 0.117569 0.747819
0.179648 0.116801 0.747231
0.178099 0.116024 0.746576
0.17645 0.115176 0.745438
0.174825 0.114342 0.744386
0.17324 0.113538 0.743513
0.171686 0.112754 0.742766
0.17023 0.11204 0.742481
0.168828 0.111365 0.742453
0.167444 0.110703 0.742511
0.166074 0.110051 0.742634
0.164725 0.109414 0.742862
0.163348 0.108757 0.742945
0.162021 0.108136 0.743279
0.160693 0.107514 0.743609
0.15935 0.10688 0.743858
0.158023 0.106258 0.744187
0.15671 0.105648 0.744597
0.155413 0.105049 0.745091
0.154118 0.104453 0.745604
0.152778 0.103821 0.745868
0.151463 0.103209 0.746272
0.150161 0.102606 0.746744
0.14891 0.102043 0.747511
0.14776 0.101557 0.748852
0.146327 0.102701 0.752217
0.146688 0.101131 0.750655
0.145268 0.10229 0.754146
0.145603 0.100695 0.752408
0.107307 0.0829293 0.765326
0.105933 0.0822722 0.76539
0.10457 0.0816247 0.765537
0.103248 0.0810126 0.766015
0.10197 0.0804394 0.766848
0.100674 0.079852 0.767548
0.0993649 0.0792526 0.768149
0.0980461 0.0786446 0.768674
0.0967001 0.0780117 0.768968
0.0953311 0.0773591 0.769064
0.0939473 0.0766912 0.76902
0.092532 0.0759957 0.76869
0.0910714 0.075256 0.767927
0.0896476 0.0745496 0.767473
0.0881801 0.0737999 0.766585
0.0867252 0.0730619 0.765787
0.0852568 0.0723078 0.76482
0.0838182 0.0715823 0.764112
0.0823852 0.0708586 0.76342
0.0809747 0.0701566 0.762927
0.0795758 0.0694645 0.762525
0.0781951 0.0687899 0.762292
0.0768241 0.0681241 0.762142
0.0754652 0.0674689 0.762104
0.074125 0.0668323 0.762255
0.0727634 0.0661733 0.762166
0.0713995 0.0655118 0.762037
0.0700277 0.0648404 0.7618
0.0686635 0.0641778 0.761638
0.0673274 0.0635425 0.761784
0.0660306 0.0629493 0.762398
0.0647285 0.0623515 0.762959
0.0634422 0.0617719 0.763734
0.0621543 0.0611889 0.764481
0.0608727 0.0606156 0.765345
0.0595794 0.0600303 0.766079
0.0583041 0.0594672 0.767074
0.0570134 0.058886 0.767868
0.055706 0.0582875 0.768466
0.0543797 0.0576664 0.768795
0.0530586 0.0570512 0.769197
0.0517328 0.0564305 0.769524
0.0504072 0.0558099 0.769861
0.0490861 0.0551959 0.770284
0.0477608 0.0545753 0.770622
0.0464141 0.0539274 0.770609
0.0450746 0.0532896 0.770721
0.0437469 0.0526651 0.771001
0.042426 0.0520515 0.77142
0.0411231 0.0514608 0.772156
0.0398642 0.0509359 0.773764
0.0386002 0.0504058 0.775336
0.0373369 0.0498811 0.777008
0.0360693 0.0493536 0.778658
0.0347842 0.0488027 0.780019
0.0315885 0.049076 0.782826
0.0339262 0.0489242 0.790837
0.183274 0.116904 0.747948
0.181647 0.116077 0.74697
0.180031 0.115256 0.746018
0.178402 0.114424 0.744986
0.17667 0.11352 0.743448
0.175029 0.112678 0.74231
0.173483 0.111902 0.741608
0.171935 0.111124 0.740883
0.170499 0.110426 0.740686
0.169099 0.109751 0.740656
0.167702 0.10908 0.740638
0.166321 0.10842 0.740696
0.16501 0.107809 0.741096
0.163673 0.10718 0.741369
0.162384 0.106586 0.741885
0.161092 0.10599 0.742388
0.159781 0.10538 0.742796
0.158454 0.104759 0.743125
0.157159 0.10416 0.743619
0.155866 0.103564 0.744128
0.15459 0.10298 0.744732
0.153269 0.102362 0.745092
0.15197 0.101762 0.745579
0.150656 0.101151 0.745984
0.149375 0.100564 0.746574
0.148176 0.100038 0.747628
0.147057 0.0995724 0.749147
0.145939 0.0991103 0.7507
0.110141 0.0843154 0.76582
0.112005 0.0834818 0.764667
0.110531 0.0827422 0.763996
0.108717 0.0836177 0.765529
0.10907 0.0820111 0.763392
0.107651 0.0813165 0.763105
0.106238 0.0806259 0.762841
0.104845 0.0799516 0.762723
0.1035 0.0793176 0.762981
0.102177 0.0787038 0.763415
0.100833 0.0780707 0.763676
0.0995079 0.0774543 0.764093
0.0981952 0.0768482 0.764614
0.0968551 0.0762197 0.764912
0.0955165 0.075592 0.76522
0.0941806 0.0749656 0.765549
0.0928236 0.0743212 0.765692
0.0914176 0.0736315 0.765388
0.0900484 0.0729742 0.765401
0.0886407 0.0722827 0.765053
0.087227 0.0715834 0.764626
0.085797 0.0708677 0.764021
0.0843872 0.0701709 0.763587
0.082981 0.0694757 0.763163
0.0815894 0.0687932 0.762862
0.0802085 0.0681198 0.762648
0.0788282 0.0674464 0.762425
0.0774568 0.0667813 0.762278
0.0760884 0.0661182 0.762146
0.074739 0.0654728 0.762203
0.0733687 0.0648061 0.762024
0.0719972 0.0641376 0.761812
0.0706161 0.0634581 0.761474
0.0692372 0.062781 0.761142
0.0678858 0.0621294 0.7611
0.0665747 0.0615208 0.761534
0.0652656 0.0609139 0.761993
0.063975 0.0603276 0.762685
0.0626799 0.0597367 0.763338
0.0613857 0.0591471 0.764016
0.0600858 0.0585537 0.76464
0.058806 0.0579806 0.76553
0.0575104 0.0573923 0.766231
0.0562057 0.0567946 0.766824
0.054887 0.0561807 0.767233
0.0535696 0.0555678 0.76765
0.0522581 0.0549629 0.768165
0.0509468 0.0543582 0.768699
0.0496406 0.053761 0.769323
0.0483283 0.0531553 0.769842
0.0469917 0.0525217 0.770001
0.0456541 0.0518844 0.770117
0.0443264 0.0512608 0.770399
0.0430113 0.0506532 0.770903
0.041709 0.0500634 0.771643
0.0404471 0.0495297 0.773163
0.0391839 0.0489971 0.77472
0.0379226 0.0484705 0.776387
0.0366521 0.0479351 0.777951
0.0353681 0.0473827 0.779309
0.184843 0.117691 0.748651
0.186884 0.116987 0.748544
0.185348 0.116226 0.748007
0.183749 0.115421 0.74717
0.182076 0.114564 0.745976
0.180375 0.113687 0.744632
0.178649 0.112791 0.743141
0.176895 0.111874 0.74149
0.175237 0.111023 0.740267
0.173679 0.110241 0.739499
0.172155 0.109481 0.738875
0.170739 0.108797 0.738762
0.169359 0.108137 0.738819
0.167981 0.107479 0.738882
0.166623 0.106834 0.739038
0.165332 0.106239 0.739531
0.164014 0.105623 0.739888
0.162729 0.10503 0.740411
0.161455 0.104445 0.740997
0.160164 0.103849 0.741496
0.158856 0.103241 0.741912
0.157595 0.102666 0.742579
0.156338 0.102095 0.743268
0.155083 0.101525 0.743978
0.153779 0.10092 0.744428
0.152497 0.100331 0.744998
0.151183 0.0997194 0.745398
0.149887 0.0991205 0.7459
0.148671 0.0985813 0.746853
0.147519 0.0980888 0.748175
0.14637 0.0975995 0.749534
0.144857 0.098675 0.752477
0.145261 0.0971419 0.751146
0.113837 0.0826234 0.763289
0.112368 0.0818903 0.762661
0.110894 0.0811522 0.761979
0.109413 0.080407 0.761213
0.107991 0.0797093 0.760872
0.106562 0.0790056 0.760466
0.105161 0.0783236 0.76026
0.103804 0.0776792 0.760392
0.102459 0.0770449 0.76062
0.101106 0.0764024 0.760771
0.0997519 0.0757594 0.760915
0.0984193 0.0751346 0.761233
0.0970503 0.0744788 0.761242
0.0957107 0.0738476 0.761493
0.0943801 0.0732237 0.76182
0.0930683 0.0726173 0.762316
0.0917116 0.0719711 0.762414
0.09039 0.071356 0.762823
0.0890386 0.0707146 0.762962
0.0876775 0.0700635 0.763002
0.0862902 0.0693875 0.762785
0.0849198 0.068727 0.762716
0.083552 0.0680685 0.762661
0.0821877 0.0674125 0.762628
0.0808256 0.0667592 0.76261
0.0794632 0.0661034 0.762572
0.0780918 0.0654396 0.762434
0.0767209 0.0647752 0.762283
0.0753614 0.0641212 0.762241
0.0739812 0.0634461 0.76196
0.0725936 0.0627627 0.761576
0.0712031 0.0620761 0.761137
0.0698154 0.0613903 0.760701
0.0684473 0.0607234 0.760469
0.0671221 0.0600994 0.760722
0.0658065 0.0594854 0.761093
0.0645026 0.0588838 0.761608
0.0631961 0.0582793 0.762098
0.0618971 0.057682 0.762678
0.0605991 0.0570875 0.763289
0.0593133 0.0565079 0.764088
0.058019 0.055918 0.764778
0.0567222 0.055327 0.765447
0.055412 0.0547213 0.765943
0.0540962 0.0541099 0.766373
0.0527942 0.0535138 0.766993
0.0514966 0.052923 0.7677
0.0501974 0.0523331 0.768411
0.0488917 0.0517349 0.769026
0.0475626 0.0511083 0.769278
0.0462306 0.0504793 0.769487
0.0449048 0.0498572 0.769784
0.0435962 0.0492562 0.770382
0.0422943 0.0486655 0.771122
0.0410299 0.0481248 0.772559
0.0397669 0.0475891 0.774093
0.038506 0.0470595 0.775738
0.0372328 0.0465167 0.777222
0.188951 0.116301 0.748547
0.18745 0.115566 0.748182
0.185864 0.114772 0.74742
0.18423 0.113946 0.746426
0.182514 0.113062 0.745031
0.180738 0.112137 0.743337
0.178935 0.11119 0.741485
0.177177 0.110275 0.739814
0.175521 0.109428 0.738592
0.173969 0.108652 0.737847
0.172485 0.10792 0.737403
0.171088 0.10725 0.737377
0.169726 0.106604 0.737512
0.168367 0.105958 0.737659
0.167026 0.105327 0.737896
0.165738 0.104731 0.738391
0.164437 0.104127 0.738827
0.163154 0.103535 0.739353
0.161898 0.102962 0.740023
0.160627 0.102379 0.740618
0.15934 0.101785 0.741134
0.158114 0.101235 0.74198
0.156892 0.100687 0.742848
0.155641 0.10012 0.743577
0.154338 0.0995156 0.744029
0.153069 0.0989356 0.74467
0.151739 0.0983114 0.744978
0.150431 0.0977033 0.745408
0.149186 0.097141 0.746192
0.148016 0.096634 0.747409
0.146821 0.09611 0.748501
0.145711 0.0956475 0.750087
0.122857 0.0871681 0.768041
0.124531 0.0861777 0.765579
0.123027 0.0854242 0.764839
0.121312 0.08638 0.767017
0.121488 0.0846426 0.763832
0.119789 0.0856077 0.76612
0.119973 0.0838793 0.762972
0.118284 0.0848503 0.76533
0.118502 0.0831493 0.762392
0.116812 0.0841171 0.764745
0.117071 0.082449 0.762069
0.115306 0.0833562 0.763894
0.115607 0.0817223 0.761503
0.114156 0.0810048 0.761002
0.112692 0.0802774 0.760399
0.111244 0.0795607 0.759887
0.109779 0.0788288 0.759222
0.108373 0.078145 0.75899
0.106971 0.0774643 0.758773
0.105583 0.0767935 0.758658
0.104207 0.0761327 0.758618
0.10283 0.0754708 0.758566
0.101454 0.0748094 0.758517
0.100061 0.0741319 0.758309
0.098698 0.0734807 0.758343
0.0973058 0.072804 0.758122
0.095954 0.0721611 0.758231
0.0946052 0.0715197 0.758359
0.0933092 0.0709251 0.758948
0.0920006 0.0703184 0.759429
0.0907184 0.0697367 0.760156
0.089423 0.069143 0.76077
0.0881235 0.068546 0.761356
0.0867883 0.0679173 0.761613
0.0854608 0.067295 0.761938
0.0841318 0.066672 0.762252
0.0827868 0.066034 0.762407
0.0814427 0.065397 0.762567
0.0800893 0.0647515 0.762629
0.0787187 0.064089 0.762503
0.077347 0.0634245 0.762349
0.0759774 0.0627621 0.762205
0.0745796 0.0620716 0.76174
0.0731744 0.061374 0.761172
0.0717753 0.0606794 0.760634
0.0703783 0.0599867 0.760096
0.0690037 0.0593133 0.75978
0.0676701 0.0586817 0.759932
0.066354 0.0580655 0.760279
0.0650439 0.057457 0.760705
0.0637323 0.0568461 0.761117
0.0624276 0.0562423 0.761606
0.0611237 0.0556403 0.762125
0.0598265 0.0550464 0.762746
0.0585356 0.0544584 0.763453
0.0572422 0.0538684 0.764138
0.0559413 0.053271 0.764732
0.0546333 0.0526669 0.765244
0.0533359 0.0520752 0.765927
0.052045 0.0514915 0.766711
0.0507543 0.0509077 0.767518
0.0494606 0.050323 0.768312
0.0481444 0.0497112 0.768744
0.0468293 0.0491013 0.769217
0.045509 0.0484857 0.769603
0.0442061 0.0478923 0.770302
0.0428999 0.0472952 0.770967
0.0416306 0.046746 0.772304
0.0403626 0.0462013 0.773733
0.0390942 0.0456572 0.775197
0.0378134 0.0451013 0.776507
0.191142 0.115693 0.749086
0.189589 0.114926 0.748505
0.18802 0.114146 0.747836
0.186389 0.113325 0.746876
0.1847 0.112464 0.745631
0.182905 0.111531 0.743879
0.181094 0.110585 0.74202
0.179272 0.109632 0.740083
0.177514 0.108719 0.738407
0.17588 0.10789 0.737286
0.174349 0.10713 0.736631
0.172902 0.106425 0.736362
0.171526 0.10577 0.736431
0.170184 0.105137 0.73666
0.168844 0.104505 0.736893
0.167506 0.103874 0.737136
0.166202 0.103268 0.737549
0.1649 0.102662 0.737971
0.163598 0.102057 0.738398
0.162329 0.101474 0.738992
0.161062 0.100893 0.739599
0.159796 0.100313 0.740218
0.158591 0.099776 0.741162
0.157388 0.0992405 0.742127
0.15617 0.0986953 0.743021
0.154882 0.0981006 0.74355
0.153628 0.0975312 0.74427
0.152313 0.0969177 0.744659
0.151006 0.0963106 0.745094
0.149732 0.095726 0.745714
0.148546 0.0952053 0.746832
0.147333 0.0946667 0.747814
0.146209 0.0941909 0.74931
0.144615 0.0951961 0.751781
0.145115 0.0937381 0.751003
0.126055 0.0869452 0.766431
0.127864 0.0860649 0.764922
0.126286 0.0852596 0.76372
0.124714 0.0844565 0.762525
0.123173 0.0836754 0.761506
0.121669 0.0829217 0.760713
0.120187 0.0821844 0.760049
0.118749 0.081481 0.759677
0.117345 0.080802 0.759526
0.115908 0.0800971 0.759129
0.11446 0.0793838 0.758635
0.113014 0.07867 0.758136
0.111594 0.0779763 0.757808
0.110145 0.0772592 0.757254
0.108743 0.0765792 0.757035
0.107354 0.0759076 0.756895
0.105968 0.0752398 0.756775
0.104585 0.0745725 0.756665
0.103202 0.0739051 0.756544
0.101818 0.073237 0.756403
0.100412 0.0725499 0.756077
0.0990195 0.0718736 0.755839
0.0975982 0.0711722 0.755345
0.0962276 0.070512 0.755261
0.0948707 0.0698643 0.755287
0.0935716 0.0692643 0.755807
0.0922874 0.0686761 0.756461
0.0910303 0.0681132 0.757371
0.0897782 0.0675535 0.758336
0.0885229 0.0669938 0.759298
0.0872412 0.066411 0.760028
0.0859656 0.0658329 0.760823
0.0846852 0.0652531 0.761593
0.0833768 0.0646473 0.762098
0.0820588 0.0640341 0.762514
0.0807154 0.0633973 0.762676
0.0793445 0.0627362 0.762556
0.0779719 0.0620733 0.762404
0.0765845 0.0613944 0.762075
0.0751695 0.0606901 0.761433
0.0737543 0.0599847 0.760758
0.0723469 0.0592843 0.760132
0.0709432 0.0585858 0.759515
0.0695684 0.0579153 0.759202
0.0682285 0.0572756 0.759266
0.0669117 0.0566602 0.759602
0.0656018 0.0560498 0.760015
0.0642912 0.0554397 0.760423
0.0629795 0.0548292 0.760831
0.061677 0.0542266 0.76134
0.060374 0.0536251 0.761869
0.0590787 0.0530312 0.762497
0.0577869 0.0524418 0.763193
0.0564941 0.0518523 0.763885
0.0551936 0.0512555 0.764487
0.0538976 0.0506637 0.765167
0.0526126 0.0500845 0.766019
0.0513225 0.0494996 0.766818
0.0500377 0.048923 0.767722
0.048728 0.0483184 0.768263
0.0474302 0.047729 0.769008
0.0461161 0.0471202 0.769496
0.0448187 0.0465323 0.770282
0.0435129 0.0459342 0.770937
0.0422386 0.0453771 0.77218
0.0409618 0.0448174 0.773426
0.0396885 0.0442651 0.774787
0.193319 0.115072 0.749541
0.191746 0.114294 0.748889
0.190165 0.11351 0.748186
0.188535 0.112692 0.74725
0.186851 0.111839 0.746052
0.185089 0.110933 0.744477
0.183256 0.109978 0.742548
0.181427 0.109025 0.740609
0.179624 0.108088 0.738757
0.17789 0.107196 0.737191
0.176296 0.106395 0.736252
0.174805 0.105664 0.735787
0.173395 0.104985 0.735691
0.172039 0.104343 0.73585
0.1707 0.103712 0.736091
0.169362 0.103083 0.736333
0.168026 0.102453 0.736582
0.166721 0.101846 0.736989
0.165418 0.101239 0.737401
0.164115 0.100632 0.737817
0.162845 0.100048 0.738401
0.161577 0.0994661 0.739002
0.160313 0.0988865 0.739627
0.15911 0.0983493 0.740574
0.157909 0.0978131 0.74154
0.156708 0.097278 0.742517
0.155423 0.0966854 0.743058
0.154171 0.0961163 0.743785
0.152858 0.095504 0.74418
0.151566 0.0949067 0.744694
0.150278 0.0943119 0.745232
0.149076 0.0937793 0.746259
0.147859 0.0932355 0.747212
0.146735 0.0927572 0.748699
0.145644 0.0923039 0.750399
0.144052 0.0933089 0.752899
0.144602 0.0918869 0.752407
0.129361 0.0868095 0.765567
0.131279 0.0860122 0.764782
0.129714 0.0852206 0.763708
0.128171 0.0844445 0.762753
0.126528 0.0835922 0.761104
0.124933 0.0827735 0.759736
0.1234 0.0820011 0.758753
0.121929 0.0812741 0.758168
0.12048 0.0805623 0.757707
0.119069 0.0798793 0.7575
0.117668 0.0792034 0.757354
0.116246 0.0785106 0.757044
0.114802 0.0778003 0.756559
0.113371 0.0770983 0.756148
0.111954 0.0764084 0.75583
0.110508 0.0756952 0.755282
0.109109 0.0750157 0.755058
0.107732 0.0743548 0.754997
0.106359 0.0736975 0.754964
0.104981 0.0730345 0.754876
0.1036 0.0723692 0.754753
0.102217 0.0717015 0.754601
0.100803 0.0710084 0.754189
0.0993938 0.0703187 0.753795
0.0979664 0.069613 0.753231
0.096589 0.068948 0.753069
0.0952273 0.0682943 0.753024
0.0939296 0.0676944 0.753528
0.0926567 0.0671149 0.754252
0.0914111 0.0665588 0.755232
0.0901705 0.0660065 0.756271
0.0889466 0.0654702 0.757486
0.0876978 0.064914 0.758496
0.0864569 0.064365 0.759599
0.0852179 0.0638183 0.760742
0.083939 0.0632381 0.761523
0.0826396 0.0626396 0.762113
0.0813052 0.0620118 0.762365
0.0799427 0.061359 0.762329
0.078563 0.0606896 0.762102
0.0771735 0.0600113 0.761759
0.0757488 0.0592998 0.761016
0.074324 0.0585873 0.760239
0.0729173 0.0578896 0.759623
0.0715218 0.0572014 0.759102
0.0701492 0.056533 0.758809
0.0688028 0.0558882 0.758798
0.0674856 0.0552709 0.759119
0.0661686 0.0546543 0.759444
0.0648521 0.0540376 0.759773
0.0635293 0.0534148 0.760026
0.0622321 0.0528173 0.760594
0.060929 0.0522147 0.761102
0.0596331 0.0516201 0.761712
0.0583435 0.0510307 0.762417
0.0570643 0.0504546 0.763286
0.0557663 0.0498584 0.763903
0.0544715 0.0492666 0.764588
0.0531936 0.0486929 0.765525
0.05191 0.0481145 0.766407
0.050638 0.04755 0.767495
0.0493353 0.0469536 0.768148
0.0480503 0.0463761 0.76909
0.0467417 0.0457749 0.769679
0.0454497 0.0451917 0.77055
0.0441424 0.0445927 0.771198
0.0428678 0.0440317 0.772423
0.0415805 0.0434589 0.773493
0.195578 0.114501 0.750338
0.193911 0.113664 0.749294
0.1923 0.112863 0.748477
0.19069 0.112061 0.747646
0.189014 0.111216 0.746504
0.187246 0.110312 0.744932
0.185443 0.109382 0.743169
0.183604 0.108429 0.741218
0.181775 0.107479 0.739276
0.179996 0.106562 0.73753
0.178323 0.105714 0.736247
0.17677 0.104942 0.735499
0.175303 0.104228 0.735141
0.173928 0.103573 0.735211
0.172591 0.102944 0.73546
0.171271 0.102326 0.735788
0.16995 0.101708 0.736116
0.16863 0.101089 0.736443
0.167294 0.10046 0.736693
0.165957 0.0998309 0.736936
0.16462 0.0992007 0.737176
0.163331 0.0986034 0.737662
0.162047 0.0980098 0.738175
0.160797 0.0974386 0.738864
0.15961 0.0969107 0.739884
0.158424 0.0963846 0.740926
0.157239 0.0958586 0.741982
0.155973 0.0952778 0.74262
0.154727 0.0947118 0.743372
0.153415 0.0941007 0.743772
0.152123 0.0935017 0.74428
0.150804 0.0928855 0.744646
0.149587 0.0923402 0.74558
0.148357 0.0917857 0.74645
0.147218 0.0912959 0.747847
0.14613 0.0908412 0.749554
0.145105 0.0904321 0.751644
0.143569 0.0914766 0.7545
0.144107 0.090043 0.75393
0.132817 0.0867836 0.765658
0.134783 0.0860201 0.765172
0.133236 0.0852456 0.764258
0.131636 0.0844317 0.762981
0.129989 0.083583 0.761368
0.128398 0.0827722 0.760077
0.126746 0.0819161 0.758351
0.125172 0.0811171 0.757109
0.123673 0.0803705 0.756332
0.122233 0.0796675 0.755935
0.120812 0.0789777 0.755653
0.119416 0.0783049 0.755529
0.118019 0.0776329 0.755396
0.116611 0.076951 0.755166
0.115171 0.0762445 0.754695
0.113753 0.0755551 0.75437
0.112348 0.0748734 0.75412
0.110904 0.0741623 0.75357
0.109495 0.073478 0.753264
0.10812 0.0728183 0.7532
0.10675 0.0721621 0.753167
0.105375 0.0715013 0.753078
0.103998 0.0708395 0.752971
0.102617 0.0701739 0.752821
0.101215 0.0694919 0.752493
0.0998087 0.0688048 0.752108
0.0983868 0.0681041 0.751573
0.0970329 0.0674576 0.751589
0.0956824 0.0668137 0.751627
0.0943777 0.0662067 0.752051
0.0930958 0.0656188 0.752679
0.0918399 0.0650523 0.753544
0.0905821 0.0644842 0.754405
0.0893608 0.0639465 0.755612
0.0881333 0.0634056 0.75679
0.0869157 0.0628731 0.75808
0.0857089 0.0623515 0.759505
0.0844619 0.0617959 0.760571
0.0831833 0.0612147 0.761352
0.0818666 0.0606019 0.761771
0.0805215 0.0599647 0.761906
0.0791412 0.0592965 0.761675
0.0777453 0.0586128 0.76126
0.0763179 0.0579014 0.760494
0.0748925 0.0571902 0.759712
0.073486 0.0564945 0.759099
0.0721012 0.0558168 0.758694
0.0707368 0.0551585 0.7585
0.0693905 0.0545139 0.758488
0.0680656 0.0538894 0.758716
0.0667482 0.0532725 0.759031
0.0654259 0.0526505 0.759289
0.0641037 0.0520281 0.759541
0.0628008 0.0514237 0.760023
0.0614957 0.0508194 0.760506
0.0601934 0.0502164 0.76102
0.058905 0.0496282 0.761719
0.0576275 0.0490503 0.762591
0.056343 0.0484671 0.763387
0.0550509 0.0478778 0.764092
0.0537803 0.0473097 0.765124
0.0525031 0.046737 0.766097
0.0512425 0.0461832 0.767356
0.0499531 0.0455989 0.768195
0.04868 0.0450338 0.769327
0.0473829 0.0444443 0.770098
0.0460959 0.043866 0.771063
0.0447874 0.0432656 0.771707
0.0435166 0.0427088 0.773015
0.0422341 0.0421398 0.774166
0.202085 0.117738 0.753648
0.203544 0.118438 0.753737
0.204157 0.11703 0.753557
0.2027 0.116332 0.753479
0.200571 0.117002 0.753323
0.201167 0.115585 0.753075
0.198926 0.116181 0.752429
0.199513 0.114761 0.752146
0.197242 0.115335 0.751348
0.197828 0.113918 0.751069
0.196177 0.113094 0.750113
0.194498 0.112252 0.749023
0.192849 0.11143 0.748042
0.191199 0.110605 0.747038
0.189463 0.109724 0.745627
0.187673 0.108809 0.743957
0.18583 0.107858 0.742022
0.183974 0.106898 0.739991
0.182164 0.105965 0.738132
0.180407 0.105066 0.73649
0.178776 0.104246 0.735396
0.177283 0.103517 0.734931
0.175871 0.102839 0.734829
0.174516 0.102198 0.734994
0.173179 0.101569 0.735243
0.171858 0.10095 0.735565
0.170537 0.100332 0.73589
0.169201 0.0997035 0.736142
0.167848 0.0990632 0.736307
0.166508 0.098432 0.736532
0.165152 0.0977892 0.736676
0.163831 0.0971703 0.736995
0.162545 0.0965751 0.737495
0.161295 0.0960033 0.738178
0.160093 0.0954641 0.739118
0.158908 0.0949358 0.740151
0.157741 0.0944209 0.741297
0.156479 0.0938424 0.741949
0.155221 0.0932673 0.742633
0.153923 0.0926641 0.7431
0.152628 0.0920636 0.743589
0.151294 0.0914375 0.743869
0.150065 0.0908824 0.744727
0.148849 0.0903368 0.745671
0.147712 0.0898438 0.747063
0.146612 0.0893795 0.748693
0.145588 0.0889663 0.750776
0.14462 0.0885941 0.753216
0.143086 0.0896395 0.756113
0.143632 0.088208 0.755576
0.142 0.0891904 0.757944
0.142594 0.0877905 0.757683
0.140919 0.0887471 0.759837
0.141573 0.0873847 0.759924
0.139851 0.0883132 0.761834
0.140505 0.0869487 0.761919
0.138685 0.0878109 0.763268
0.139307 0.0864216 0.763156
0.137493 0.0872914 0.764562
0.138067 0.0858661 0.764152
0.136177 0.0866835 0.765107
0.136686 0.0852116 0.76429
0.135199 0.0844831 0.763767
0.133598 0.0836717 0.762506
0.131958 0.082832 0.760963
0.130278 0.0819635 0.759134
0.128636 0.0811201 0.7575
0.127006 0.0802835 0.755906
0.125465 0.0795094 0.754864
0.123999 0.0787885 0.75429
0.122577 0.0780984 0.753996
0.121182 0.0774279 0.753874
0.119788 0.076758 0.753753
0.118394 0.076088 0.753619
0.11699 0.0754098 0.753406
0.115564 0.0747149 0.753024
0.114137 0.0740195 0.752622
0.112734 0.0733408 0.752374
0.111301 0.0726379 0.751887
0.109894 0.0719547 0.751579
0.108523 0.0712986 0.751528
0.107167 0.0706536 0.751584
0.105793 0.0699938 0.751494
0.104417 0.0693331 0.751381
0.103037 0.0686686 0.751225
0.10164 0.0679899 0.750917
0.100237 0.0673072 0.750545
0.0988365 0.0666244 0.750176
0.097485 0.0659796 0.750196
0.0961376 0.065339 0.750247
0.0948248 0.0647243 0.750583
0.0935338 0.064128 0.751114
0.092262 0.0635459 0.751813
0.0909776 0.0629553 0.752414
0.0897383 0.0624007 0.753428
0.0885206 0.0618635 0.754657
0.0873151 0.0613389 0.756029
0.0861421 0.0608409 0.757736
0.0849349 0.0603172 0.759157
0.0836955 0.0597665 0.760295
0.0823977 0.0591695 0.760889
0.0810726 0.0585485 0.761211
0.0796937 0.0578822 0.760989
0.0782981 0.0572004 0.760577
0.0768694 0.05649 0.759795
0.0754529 0.0557879 0.759104
0.074055 0.0551017 0.758585
0.0726803 0.0544348 0.758291
0.0713244 0.053784 0.758189
0.069977 0.0531391 0.758165
0.0686435 0.052507 0.75829
0.0673181 0.0518823 0.758506
0.0659903 0.0512557 0.75869
0.0646682 0.0506342 0.758944
0.063359 0.0500234 0.759343
0.0620549 0.0494175 0.759813
0.0607539 0.0488159 0.76033
0.0594668 0.0482268 0.761032
0.0581909 0.0476494 0.761907
0.0569124 0.0470711 0.762778
0.055628 0.0464878 0.763576
0.0543596 0.0459209 0.764627
0.0530897 0.0453538 0.765696
0.0518424 0.0448102 0.767128
0.0505694 0.0442432 0.768225
0.0493097 0.0436899 0.769547
0.0480332 0.043122 0.77067
0.0467572 0.0425546 0.771823
0.0454539 0.0419596 0.772567
0.0441884 0.0414078 0.773978
0.0429052 0.0408372 0.775142
0.206246 0.116331 0.753531
0.204778 0.115627 0.753413
0.203317 0.114926 0.75332
0.201773 0.114175 0.75287
0.200111 0.113348 0.751911
0.198446 0.112521 0.750922
0.196789 0.111696 0.749948
0.195085 0.110841 0.748751
0.193366 0.109977 0.747468
0.191664 0.109122 0.746236
0.189887 0.10822 0.744652
0.188079 0.107296 0.742901
0.186221 0.10634 0.740896
0.184401 0.105406 0.739026
0.182611 0.104491 0.737262
0.180894 0.103622 0.735806
0.179303 0.102831 0.734898
0.177849 0.102128 0.734613
0.176457 0.101463 0.734605
0.175103 0.100824 0.734777
0.173748 0.100183 0.734936
0.172408 0.0995516 0.735168
0.17107 0.0989213 0.735406
0.169718 0.0982829 0.735576
0.168364 0.0976419 0.735732
0.167021 0.09701 0.735947
0.165661 0.0963654 0.736069
0.164324 0.095735 0.7363
0.16304 0.0951402 0.736802
0.161793 0.0945698 0.737497
0.160579 0.0940214 0.738367
0.159381 0.0934828 0.739326
0.158229 0.0929762 0.740541
0.156967 0.0923972 0.741189
0.155696 0.0918121 0.741793
0.154397 0.0912085 0.742254
0.1531 0.0906057 0.742723
0.151751 0.0899688 0.742914
0.150507 0.0894031 0.743684
0.149309 0.0888665 0.74471
0.148161 0.0883649 0.746031
0.14706 0.0878957 0.747639
0.146049 0.0874887 0.749783
0.145096 0.0871215 0.752292
0.144128 0.086746 0.754756
0.143124 0.0863467 0.757046
0.142093 0.0859305 0.759216
0.140994 0.0854693 0.761013
0.139777 0.0849277 0.762124
0.138493 0.0843405 0.762847
0.137074 0.083659 0.762736
0.135544 0.0829022 0.76194
0.133898 0.0820622 0.760384
0.132214 0.0811951 0.758554
0.130513 0.080315 0.756573
0.128877 0.0794793 0.754966
0.127282 0.0786697 0.75358
0.125772 0.0779198 0.752729
0.124323 0.077212 0.752252
0.122928 0.076543 0.752128
0.121551 0.0758851 0.752112
0.120161 0.0752181 0.752001
0.118768 0.0745493 0.751858
0.117376 0.0738803 0.751715
0.115954 0.0731882 0.751341
0.114532 0.0724972 0.750963
0.113143 0.071829 0.750802
0.111734 0.0711468 0.750487
0.110341 0.0704738 0.750268
0.108961 0.0698117 0.750142
0.107607 0.0691676 0.750197
0.106233 0.0685089 0.750097
0.104849 0.0678417 0.749902
0.103462 0.0671723 0.749678
0.102075 0.066503 0.749439
0.100683 0.0658286 0.749143
0.099285 0.0651493 0.748782
0.0979361 0.064507 0.748811
0.0965898 0.0638656 0.748853
0.0952691 0.0632456 0.74911
0.093961 0.0626338 0.74947
0.0926797 0.062043 0.750063
0.091368 0.0614297 0.7504
0.0901017 0.0608506 0.751139
0.0888663 0.0602977 0.752175
0.0876455 0.0597574 0.753366
0.0864786 0.05926 0.755083
0.0853038 0.0587596 0.756772
0.084098 0.0582341 0.758197
0.0828332 0.057661 0.759077
0.0815446 0.0570698 0.759739
0.0801857 0.0564201 0.759701
0.0788082 0.0557549 0.759463
0.0773975 0.0550608 0.758859
0.0760046 0.0543803 0.758413
0.074625 0.053712 0.758089
0.0732669 0.0530603 0.757977
0.0719117 0.0524104 0.757881
0.0705626 0.0517654 0.757839
0.0692195 0.051125 0.757852
0.0678869 0.0504942 0.75798
0.0665518 0.0498597 0.758067
0.0652315 0.0492392 0.75833
0.0639223 0.0486283 0.75872
0.0626197 0.0480248 0.759205
0.0613195 0.0474223 0.759724
0.0600347 0.0468347 0.760443
0.05876 0.0462568 0.761317
0.0574825 0.0456775 0.762181
0.0562032 0.0450982 0.763048
0.0549365 0.0445309 0.76411
0.05367 0.0439639 0.765192
0.0524293 0.0434254 0.766711
0.0511693 0.0428688 0.767989
0.0499172 0.0423218 0.769423
0.0486603 0.0417717 0.770845
0.0474011 0.0412203 0.772269
0.046109 0.0406373 0.773213
0.0448436 0.0400835 0.774635
0.206868 0.114927 0.753388
0.205381 0.114212 0.753194
0.203925 0.113516 0.75312
0.202352 0.112748 0.752554
0.20067 0.111912 0.751511
0.198966 0.111062 0.750357
0.197286 0.110226 0.749284
0.195539 0.109348 0.747906
0.193776 0.108459 0.746434
0.192031 0.107581 0.745012
0.190251 0.10668 0.743412
0.188446 0.105762 0.741672
0.186613 0.104826 0.739778
0.184854 0.103935 0.738185
0.183103 0.103048 0.7366
0.181423 0.102206 0.735312
0.179869 0.101442 0.734582
0.178435 0.100751 0.734387
0.177044 0.100089 0.734388
0.17569 0.0994488 0.734554
0.174314 0.0987955 0.734617
0.172953 0.0981508 0.734748
0.171594 0.0975075 0.734884
0.170226 0.0968592 0.734975
0.168873 0.0962194 0.735132
0.16753 0.0955869 0.73534
0.166173 0.0949436 0.73547
0.164835 0.0943144 0.735701
0.163553 0.09372 0.736209
0.162292 0.0931401 0.736828
0.161081 0.0925911 0.737701
0.159883 0.092052 0.738657
0.158715 0.0915324 0.739779
0.157453 0.090952 0.740421
0.15618 0.0903644 0.741005
0.154866 0.0897518 0.741383
0.153554 0.0891391 0.741766
0.152206 0.0885029 0.741955
0.150963 0.0879359 0.74272
0.149782 0.0874092 0.743831
0.148635 0.0869063 0.745149
0.147537 0.0864367 0.74676
0.14654 0.0860347 0.748969
0.145587 0.0856626 0.751467
0.144639 0.0852956 0.754031
0.143657 0.0849075 0.756434
0.142629 0.0844888 0.758608
0.1415 0.0840049 0.760217
0.140249 0.0834383 0.761115
0.138921 0.0828193 0.761555
0.137458 0.0821101 0.761175
0.135874 0.0813174 0.760031
0.134201 0.0804634 0.758299
0.132502 0.0795903 0.756369
0.130793 0.0787076 0.754323
0.129164 0.0778795 0.752747
0.127597 0.0770933 0.751536
0.126102 0.0763549 0.750762
0.124667 0.0756574 0.750363
0.123289 0.0750004 0.750338
0.121918 0.074347 0.750344
0.120543 0.0736908 0.750321
0.119163 0.0730321 0.750258
0.117771 0.0723634 0.750102
0.116362 0.071682 0.74981
0.114967 0.0710109 0.749611
0.113596 0.0703562 0.749565
0.112202 0.0696849 0.749349
0.110822 0.0690228 0.749224
0.109445 0.0683629 0.749109
0.108092 0.0677195 0.74916
0.106708 0.0670539 0.748976
0.105313 0.0663794 0.748688
0.103915 0.0657028 0.748366
0.102519 0.065028 0.748047
0.101119 0.064348 0.747673
0.0997213 0.0636699 0.747302
0.0983649 0.0630213 0.747253
0.0970106 0.0623748 0.747214
0.0956801 0.0617457 0.747366
0.094362 0.0611268 0.747622
0.0930724 0.0605288 0.748121
0.0917439 0.0599007 0.748282
0.0904585 0.0593067 0.748825
0.0892044 0.0587358 0.749654
0.0879581 0.0581725 0.750572
0.0867777 0.0576612 0.752119
0.08561 0.0571607 0.753819
0.0844203 0.0566445 0.755351
0.0831883 0.0560952 0.756506
0.081941 0.0555353 0.757537
0.0806213 0.0549174 0.757864
0.0792802 0.0542815 0.757971
0.0779135 0.0536254 0.75781
0.0765481 0.0529692 0.757646
0.0751954 0.0523229 0.757601
0.0738471 0.0516803 0.757591
0.0724988 0.0510369 0.75757
0.0711414 0.0503855 0.757435
0.06979 0.0497391 0.757354
0.0684502 0.0491021 0.757392
0.067115 0.0484676 0.757468
0.0657943 0.0478475 0.757726
0.0644928 0.0472434 0.7582
0.0631981 0.0466451 0.758777
0.0619068 0.0460499 0.759392
0.0606225 0.0454626 0.760122
0.0593478 0.0448832 0.760988
0.0580641 0.0442973 0.761761
0.0567797 0.0437106 0.762538
0.0555073 0.0431366 0.763501
0.0542417 0.0425687 0.764585
0.0530075 0.0420339 0.766182
0.0517677 0.0414946 0.767734
0.0505344 0.0409638 0.769457
0.0493035 0.0404361 0.771267
0.0480674 0.0399077 0.773074
0.0467915 0.0393394 0.774289
0.0455304 0.0387881 0.775801
0.208848 0.114161 0.752908
0.207461 0.113506 0.753127
0.205989 0.112802 0.752996
0.204532 0.112106 0.75292
0.202932 0.111323 0.752241
0.201229 0.110478 0.751118
0.199503 0.109616 0.749869
0.197779 0.108756 0.748613
0.195988 0.107855 0.747047
0.194201 0.106955 0.74547
0.192434 0.106066 0.74395
0.190669 0.105178 0.742417
0.188887 0.104279 0.74078
0.187077 0.103361 0.73899
0.18536 0.1025 0.737589
0.183669 0.101654 0.736277
0.182013 0.100829 0.735103
0.180477 0.100077 0.734455
0.179059 0.0993983 0.734335
0.177666 0.0987348 0.734327
0.176275 0.0980736 0.734328
0.174879 0.0974079 0.734295
0.173496 0.09675 0.734317
0.172118 0.0960955 0.734364
0.170732 0.0954353 0.734362
0.169381 0.0947968 0.734527
0.168027 0.0941575 0.734677
0.166656 0.0935065 0.73474
0.165319 0.0928778 0.734967
0.164038 0.0922829 0.735472
0.162777 0.0917025 0.736086
0.161566 0.091153 0.736956
0.160382 0.0906212 0.737975
0.159198 0.0900894 0.739006
0.157919 0.0894979 0.739554
0.156647 0.08891 0.740139
0.155351 0.0883074 0.740599
0.154026 0.0876867 0.740911
0.152678 0.0870509 0.741092
0.151435 0.0864817 0.741845
0.15024 0.0859462 0.742877
0.149069 0.0854245 0.744048
0.147958 0.0849438 0.745574
0.146962 0.0845379 0.747771
0.146015 0.0841657 0.750281
0.145088 0.0838074 0.752948
0.144124 0.0834262 0.755442
0.143098 0.0830055 0.75761
0.141953 0.0825079 0.75911
0.14067 0.0819182 0.759806
0.139282 0.08126 0.759876
0.13779 0.080532 0.759304
0.136177 0.0797225 0.757972
0.134492 0.0788632 0.756156
0.132797 0.0779968 0.754238
0.131104 0.0771292 0.752288
0.129478 0.0763061 0.750716
0.127925 0.0755315 0.749583
0.126431 0.074797 0.748811
0.125009 0.0741092 0.748483
0.123648 0.073464 0.748553
0.122293 0.0728216 0.748653
0.120924 0.0721698 0.748655
0.119546 0.0715113 0.748585
0.118166 0.0708518 0.748497
0.116771 0.0701819 0.748295
0.115405 0.0695306 0.748285
0.114062 0.0688961 0.748435
0.112695 0.0682442 0.748405
0.111317 0.0675852 0.748289
0.10994 0.0669259 0.748168
0.108566 0.0662681 0.748056
0.107181 0.0656019 0.747849
0.105774 0.0649208 0.747468
0.104367 0.0642378 0.747059
0.102961 0.063555 0.746645
0.101561 0.062877 0.746264
0.100156 0.062194 0.745824
0.0988004 0.0615474 0.745769
0.0974362 0.0608942 0.745633
0.0960862 0.0602507 0.745605
0.0947496 0.059616 0.745677
0.0934417 0.059004 0.745997
0.0920969 0.058363 0.745988
0.090796 0.0577553 0.746361
0.0895245 0.0571697 0.747
0.0882686 0.0565965 0.74779
0.0870692 0.0560672 0.749117
0.0859043 0.0555648 0.750794
0.0847204 0.0550495 0.752332
0.0835139 0.0545168 0.753684
0.0822902 0.0539725 0.754902
0.0810191 0.0533912 0.755673
0.0797118 0.0527823 0.756094
0.0783935 0.0521645 0.756404
0.0770664 0.0515391 0.756621
0.075741 0.0509159 0.756855
0.074402 0.0502812 0.756939
0.0730619 0.049645 0.757001
0.0717119 0.049 0.756943
0.0703615 0.0483553 0.756871
0.0690221 0.0477186 0.756908
0.0676867 0.0470851 0.756985
0.0663729 0.0464707 0.757313
0.065073 0.0458668 0.757804
0.0637869 0.045275 0.758473
0.0625032 0.0446859 0.759179
0.0612241 0.0441025 0.75998
0.0599444 0.0435176 0.76077
0.058654 0.0429243 0.761446
0.0573692 0.0423369 0.762207
0.056096 0.0417605 0.763158
0.054831 0.0411921 0.764239
0.05361 0.040666 0.766001
0.0523885 0.0401403 0.767813
0.0511703 0.0396217 0.769751
0.0499581 0.0391104 0.771859
0.0487356 0.0385909 0.773874
0.0474699 0.0380323 0.775277
0.0462121 0.0374835 0.776875
0.208015 0.112063 0.752706
0.206527 0.111349 0.75251
0.205033 0.110632 0.752281
0.203405 0.109835 0.751484
0.201699 0.108989 0.750346
0.19995 0.108118 0.749005
0.198204 0.107248 0.747654
0.196389 0.106336 0.745986
0.1946 0.105439 0.744399
0.192815 0.104542 0.742801
0.191074 0.103672 0.741372
0.189331 0.102799 0.739905
0.187581 0.101923 0.738387
0.185908 0.101092 0.737181
0.184275 0.100285 0.736136
0.182641 0.0994754 0.735064
0.181106 0.0987265 0.734424
0.179685 0.0980474 0.734295
0.178288 0.0973826 0.734273
0.176861 0.0966985 0.734105
0.175447 0.0960224 0.733985
0.174043 0.0953522 0.733912
0.172647 0.0946874 0.733867
0.171244 0.0940173 0.733785
0.169911 0.0933903 0.734033
0.168559 0.0927522 0.73419
0.167204 0.0921124 0.734332
0.165869 0.0914839 0.734565
0.164585 0.0908882 0.735057
0.163308 0.0902962 0.735582
0.162078 0.0897333 0.736353
0.160863 0.0891805 0.737204
0.159663 0.0886376 0.738148
0.15837 0.0880361 0.738613
0.157085 0.0874401 0.73912
0.155791 0.0868391 0.73959
0.154485 0.0862284 0.739987
0.153152 0.0856036 0.740252
0.151912 0.0850349 0.74101
0.150732 0.0845064 0.742114
0.14956 0.0839833 0.743274
0.148436 0.0834911 0.744712
0.147427 0.0830739 0.746826
0.146482 0.0826977 0.749332
0.145545 0.0823274 0.751919
0.144584 0.0819441 0.754414
0.143545 0.0815114 0.756494
0.142371 0.0809915 0.757809
0.141058 0.0803816 0.758312
0.139626 0.0796947 0.758102
0.138102 0.0789471 0.757326
0.136477 0.0781322 0.75591
0.134793 0.0772788 0.754095
0.133116 0.0764276 0.752277
0.131438 0.0755751 0.750418
0.129827 0.0747652 0.748935
0.12829 0.0740026 0.747891
0.126799 0.0732719 0.747127
0.125368 0.0725795 0.746729
0.124021 0.0719428 0.746873
0.122669 0.0713031 0.746982
0.121303 0.0706533 0.746987
0.11994 0.0700056 0.747007
0.118576 0.0693566 0.747016
0.117208 0.068705 0.746988
0.115859 0.0680672 0.74709
0.114532 0.0674428 0.747343
0.113179 0.0668008 0.747403
0.111811 0.0661494 0.747353
0.110423 0.0654825 0.747141
0.109048 0.0648255 0.747018
0.107664 0.0641615 0.746816
0.106258 0.0634813 0.746428
0.104849 0.0627983 0.746002
0.103433 0.0621098 0.745503
0.102023 0.0614264 0.745035
0.100618 0.0607444 0.744585
0.0992446 0.0600851 0.744371
0.097862 0.059418 0.744067
0.0965015 0.0587672 0.743934
0.0951544 0.0581262 0.743904
0.0938298 0.0575008 0.744056
0.0924874 0.056861 0.744046
0.0911807 0.0562485 0.744343
0.0898924 0.0556493 0.744805
0.0886272 0.0550681 0.745483
0.0874099 0.054522 0.746606
0.0862284 0.0540037 0.748087
0.0850374 0.0534784 0.749509
0.0838415 0.0529519 0.750921
0.0826246 0.0524097 0.752158
0.0813795 0.0518457 0.753143
0.0801131 0.0512674 0.753938
0.0788442 0.0506861 0.754718
0.0775558 0.0500918 0.755316
0.0762674 0.049496 0.755916
0.0749529 0.0488807 0.756251
0.0736286 0.0482576 0.756479
0.0722867 0.0476204 0.756509
0.0709465 0.0469835 0.756545
0.0696086 0.0463488 0.7566
0.0682805 0.0457222 0.75676
0.0669666 0.0451069 0.757086
0.0656748 0.0445095 0.757667
0.0643898 0.0439193 0.758358
0.0631201 0.0433413 0.759242
0.0618491 0.042762 0.760124
0.0605735 0.0421808 0.760983
0.0592771 0.0415814 0.761573
0.0579905 0.0409921 0.762323
0.0567119 0.0404088 0.763189
0.0554403 0.0398339 0.764177
0.0542217 0.0393058 0.765958
0.053007 0.0387849 0.76787
0.0518024 0.0382749 0.769998
0.05061 0.037777 0.772385
0.0494045 0.0372719 0.774678
0.0481505 0.036722 0.776272
0.0468977 0.0361764 0.777969
0.210032 0.111318 0.752379
0.208606 0.110642 0.75244
0.207072 0.109903 0.752057
0.205517 0.10915 0.751572
0.203867 0.108342 0.750684
0.202155 0.107496 0.749522
0.200385 0.106616 0.748094
0.198618 0.105737 0.746652
0.196801 0.104827 0.744977
0.194999 0.103925 0.743331
0.193218 0.103035 0.741753
0.191521 0.102195 0.740516
0.189802 0.10134 0.739156
0.188111 0.100503 0.737899
0.186511 0.0997184 0.737024
0.184922 0.0989391 0.736175
0.183308 0.0981454 0.735202
0.18179 0.0974087 0.734646
0.180345 0.0967156 0.734412
0.178911 0.0960295 0.734221
0.177449 0.0953253 0.733888
0.176033 0.0946482 0.733762
0.174611 0.0939695 0.733608
0.173198 0.0932937 0.733482
0.171795 0.0926246 0.733397
0.170478 0.092008 0.733723
0.169126 0.09137 0.73388
0.167788 0.0907404 0.7341
0.166466 0.0901199 0.734397
0.165166 0.0895142 0.734807
0.163888 0.0889214 0.73533
0.162642 0.0883488 0.736017
0.161394 0.0877738 0.736698
0.160176 0.0872186 0.737541
0.158883 0.0866174 0.738002
0.157584 0.0860113 0.738433
0.156277 0.0854011 0.738824
0.154972 0.0847928 0.739228
0.153642 0.0841675 0.739496
0.152403 0.0836001 0.74026
0.151226 0.0830712 0.741365
0.150053 0.0825458 0.74251
0.148926 0.0820495 0.743926
0.147916 0.0816264 0.746015
0.146956 0.0812379 0.748427
0.146005 0.0808547 0.75092
0.14503 0.0804575 0.753318
0.143976 0.0800113 0.755292
0.14276 0.0794621 0.756345
0.141418 0.0788329 0.756664
0.139957 0.0781279 0.756268
0.138419 0.077373 0.755395
0.136795 0.0765621 0.753975
0.13513 0.0757238 0.752266
0.133458 0.0748799 0.750475
0.131797 0.0740424 0.748715
0.130214 0.0732547 0.747408
0.128683 0.0724982 0.746395
0.127197 0.0717719 0.74565
0.125782 0.0710905 0.745341
0.124434 0.0704547 0.745475
0.123071 0.0698071 0.745493
0.121718 0.0691663 0.745576
0.120359 0.0685218 0.745616
0.118987 0.0678683 0.745557
0.117633 0.0672272 0.745618
0.116312 0.0666066 0.745896
0.11499 0.0659853 0.746172
0.11365 0.0653526 0.746317
0.112291 0.0647072 0.746324
0.110891 0.0640335 0.746018
0.109495 0.0633622 0.745729
0.108113 0.0627 0.745528
0.106698 0.0620157 0.745068
0.105293 0.0613368 0.744661
0.103888 0.0606566 0.744235
0.102488 0.0599814 0.743839
0.101084 0.0593019 0.74339
0.0997115 0.0586427 0.743169
0.0983291 0.0579781 0.742861
0.0969593 0.0573204 0.742637
0.0956023 0.0566719 0.742508
0.0942689 0.0560407 0.742572
0.092938 0.0554105 0.742647
0.0916342 0.0547994 0.742954
0.0903316 0.054189 0.74327
0.0890494 0.053594 0.743771
0.0877966 0.0530196 0.744543
0.086589 0.0524793 0.745749
0.0853724 0.0519325 0.746893
0.0841709 0.0513973 0.748204
0.0829557 0.0508541 0.749417
0.0817307 0.0503031 0.750555
0.0804875 0.0497398 0.75154
0.0792579 0.0491874 0.752683
0.0780094 0.0486209 0.753654
0.0767491 0.0480463 0.754526
0.0754614 0.0474503 0.755121
0.0741546 0.0468404 0.755522
0.072831 0.0462174 0.755741
0.0715088 0.0455952 0.755969
0.0701876 0.0449743 0.75621
0.0688746 0.0443599 0.756542
0.0675679 0.0437496 0.756948
0.0662834 0.0431586 0.757616
0.0650002 0.0425676 0.758321
0.0637386 0.0419958 0.7593
0.0624739 0.0414217 0.760276
0.0612057 0.0408456 0.761225
0.0599092 0.0402454 0.761823
0.0586224 0.0396543 0.762568
0.0573433 0.0390701 0.76343
0.0560666 0.0384893 0.764345
0.0548489 0.0379599 0.766133
0.0536409 0.0374415 0.768135
0.0524497 0.0369382 0.770439
0.0512634 0.0364433 0.77292
0.0500697 0.035944 0.775391
0.0488264 0.0354023 0.777166
0.0475803 0.0348604 0.778975
0.207604 0.10845 0.75155
0.206006 0.107674 0.750891
0.204302 0.106836 0.749777
0.20256 0.105977 0.748491
0.200775 0.105091 0.746999
0.198995 0.104206 0.745502
0.19716 0.10329 0.743746
0.195376 0.102403 0.742178
0.19362 0.101531 0.740707
0.191971 0.100721 0.739675
0.190311 0.0999057 0.738578
0.18868 0.0991061 0.737584
0.187105 0.0983378 0.73682
0.185554 0.097585 0.73615
0.183958 0.0968037 0.735262
0.182437 0.0960677 0.734699
0.180972 0.0953637 0.734374
0.179534 0.0946763 0.734167
0.178053 0.0939616 0.733749
0.176636 0.0932864 0.733624
0.175215 0.0926076 0.733469
0.173801 0.0919328 0.733343
0.172398 0.0912646 0.733258
0.171081 0.0906479 0.733585
0.169729 0.09001 0.733741
0.168391 0.0893803 0.733963
0.167069 0.0887608 0.734263
0.165755 0.0881462 0.734603
0.164476 0.0875524 0.735118
0.163214 0.0869682 0.735718
0.161947 0.0863826 0.736305
0.160713 0.0858151 0.737057
0.159416 0.0852112 0.737494
0.158101 0.0845958 0.737842
0.156794 0.0839859 0.738228
0.155488 0.0833751 0.73862
0.154173 0.0827604 0.738968
0.152939 0.0821943 0.73975
0.151764 0.0816657 0.740865
0.150591 0.0811387 0.742006
0.149463 0.080639 0.743404
0.148422 0.0801943 0.745314
0.147447 0.0797899 0.747619
0.146477 0.0793918 0.749996
0.145472 0.078971 0.752203
0.14439 0.0785032 0.753995
0.143144 0.0779345 0.754861
0.141772 0.077287 0.754992
0.140282 0.076564 0.754412
0.138734 0.0758051 0.753471
0.137115 0.0749999 0.752067
0.135455 0.0741691 0.750386
0.133801 0.0733402 0.748698
0.132159 0.0725184 0.747044
0.130594 0.0717445 0.745844
0.129079 0.0710018 0.744928
0.127611 0.070288 0.744289
0.126197 0.0696092 0.743983
0.124849 0.0689719 0.744096
0.123485 0.0683243 0.744101
0.122135 0.0676861 0.744191
0.120779 0.0670434 0.744237
0.119409 0.0663916 0.744182
0.118057 0.0657514 0.74424
0.116735 0.0651301 0.744503
0.115404 0.0645044 0.744707
0.114066 0.0638727 0.744854
0.1127 0.0632222 0.744791
0.111298 0.062549 0.744463
0.109903 0.0618789 0.744163
0.108524 0.0612184 0.74397
0.107124 0.0605456 0.743614
0.105744 0.0598838 0.743386
0.104353 0.059215 0.743058
0.102966 0.0585485 0.74275
0.101572 0.0578779 0.742378
0.100201 0.0572217 0.742166
0.0988203 0.0565586 0.741862
0.0974505 0.0559017 0.74163
0.0960952 0.0552555 0.741508
0.0947629 0.0546241 0.741567
0.0934429 0.054002 0.741728
0.0921415 0.0533921 0.742045
0.0908405 0.052783 0.742366
0.0895591 0.0521878 0.742862
0.0882884 0.0516002 0.74346
0.0870461 0.051032 0.744325
0.0858025 0.0504639 0.745193
0.0845739 0.0499072 0.746221
0.0833345 0.049344 0.747168
0.0821111 0.0487915 0.748285
0.0808778 0.0482331 0.74933
0.0796598 0.0476866 0.750551
0.0784329 0.0471338 0.751709
0.0771946 0.0465735 0.752773
0.0759272 0.0459924 0.753558
0.0746473 0.0454017 0.754222
0.0733505 0.0447982 0.754712
0.0720538 0.0441958 0.755211
0.0707577 0.0435937 0.755723
0.0694609 0.0429915 0.756232
0.0681629 0.0423877 0.75673
0.0668913 0.0418058 0.757558
0.0656155 0.0412204 0.758349
0.0643626 0.0406533 0.759427
0.0631066 0.0400849 0.760504
0.0618469 0.0395137 0.76156
0.0605502 0.0389142 0.762172
0.0592629 0.0383233 0.762925
0.0579898 0.0377427 0.763864
0.0567176 0.0371637 0.764855
0.0555065 0.0366372 0.766729
0.0543045 0.0361213 0.76882
0.0531189 0.0356196 0.771209
0.0519326 0.0351207 0.773696
0.0507402 0.0346188 0.776175
0.0495021 0.0340799 0.778055
0.0482681 0.0335449 0.780053
0.204679 0.1053 0.748636
0.202913 0.10443 0.747248
0.201119 0.103542 0.745715
0.199347 0.102666 0.744251
0.197558 0.10178 0.742687
0.195795 0.100909 0.741211
0.194082 0.100066 0.739926
0.192473 0.0992822 0.739068
0.190856 0.0984938 0.738158
0.189248 0.0977094 0.737266
0.187695 0.0969561 0.736602
0.186148 0.0962074 0.735955
0.18457 0.0954397 0.73515
0.183046 0.0947034 0.734573
0.181577 0.0939982 0.734236
0.180139 0.0933117 0.734028
0.178656 0.0925988 0.73361
0.17724 0.0919236 0.733485
0.175818 0.0912458 0.73333
0.174404 0.0905718 0.733204
0.173001 0.0899036 0.733119
0.171684 0.0892869 0.733446
0.170333 0.0886509 0.733611
0.168997 0.0880232 0.733845
0.167678 0.0874047 0.734158
0.166363 0.0867892 0.73449
0.165084 0.0861944 0.735006
