ply
format ascii 1.0
element vertex 1709
property float x
property float y
property float z
end_header
0.273228 -0.111707 0.861971
0.274082 -0.110637 0.861583
0.275001 -0.109594 0.861408
0.2759 -0.108544 0.861172
0.276842 -0.107511 0.861071
0.277786 -0.10648 0.860982
0.278801 -0.105475 0.861116
0.279801 -0.104464 0.861203
0.280889 -0.103485 0.861567
0.282045 -0.102529 0.862144
0.283441 -0.101657 0.863471
0.285169 -0.100899 0.86583
0.287064 -0.10019 0.868689
0.288919 -0.0994573 0.871406
0.290726 -0.0986989 0.873951
0.292273 -0.0978447 0.875672
0.293542 -0.0968929 0.876522
0.294765 -0.0959231 0.877223
0.296042 -0.0949678 0.878084
0.297349 -0.0940185 0.879028
0.298691 -0.0930766 0.88007
0.299984 -0.0921161 0.880957
0.30132 -0.0911653 0.881968
0.302733 -0.0902332 0.883199
0.304042 -0.0892668 0.884111
0.305454 -0.0883261 0.885319
0.306913 -0.0873944 0.886662
0.308305 -0.0864395 0.887792
0.309679 -0.0854757 0.888861
0.311074 -0.0845141 0.889986
0.312474 -0.0835495 0.891114
0.313851 -0.0825751 0.892167
0.315287 -0.0816116 0.893381
0.316729 -0.0806457 0.894606
0.318153 -0.0796709 0.895768
0.319442 -0.0786605 0.896533
0.320796 -0.0776625 0.897481
0.226183 -0.186091 0.922967
0.22716 -0.184958 0.922727
0.228116 -0.183807 0.922395
0.228984 -0.18258 0.921684
0.229784 -0.181297 0.920688
0.230448 -0.179903 0.919121
0.23099 -0.178413 0.917049
0.231442 -0.176857 0.914615
0.231749 -0.175192 0.911597
0.232011 -0.173504 0.908421
0.232233 -0.171797 0.905105
0.232493 -0.170136 0.901984
0.232755 -0.168489 0.898898
0.233111 -0.166928 0.896229
0.233488 -0.165395 0.893672
0.233925 -0.163919 0.891383
0.234438 -0.162508 0.889421
0.235009 -0.161149 0.887714
0.235598 -0.15981 0.886094
0.236242 -0.158518 0.884707
0.236886 -0.15723 0.883332
0.237399 -0.155857 0.881455
0.237877 -0.154466 0.879455
0.238396 -0.153111 0.877633
0.238962 -0.151796 0.876011
0.239584 -0.150525 0.874623
0.240345 -0.149352 0.873781
0.2411 -0.148177 0.872922
0.241805 -0.146974 0.871879
0.242506 -0.145771 0.87083
0.243266 -0.144611 0.870015
0.24406 -0.143474 0.869335
0.244893 -0.142364 0.868805
0.245776 -0.141286 0.868465
0.246634 -0.140194 0.868035
0.247459 -0.139084 0.867484
0.248264 -0.137964 0.866867
0.249006 -0.136809 0.866023
0.249696 -0.135628 0.864995
0.250359 -0.134435 0.863879
0.251065 -0.13327 0.862926
0.25186 -0.132158 0.862301
0.252744 -0.131096 0.861999
0.25365 -0.130047 0.861779
0.254628 -0.129036 0.861816
0.25559 -0.128017 0.861794
0.256519 -0.12698 0.861654
0.257465 -0.125952 0.861578
0.258404 -0.12492 0.861475
0.259283 -0.123859 0.861163
0.260176 -0.122805 0.860901
0.261133 -0.121784 0.860865
0.262099 -0.120765 0.860853
0.263088 -0.119759 0.860926
0.264158 -0.118788 0.861269
0.265232 -0.117818 0.861623
0.26623 -0.116812 0.861718
0.267306 -0.11584 0.862071
0.268384 -0.114867 0.862428
0.26936 -0.113848 0.86244
0.270289 -0.112809 0.862298
0.271223 -0.111772 0.86217
0.272071 -0.1107 0.861763
0.272903 -0.109622 0.861302
0.2738 -0.108572 0.86106
0.274722 -0.107533 0.860899
0.275687 -0.10651 0.860877
0.276655 -0.105488 0.860862
0.277688 -0.104491 0.86106
0.278706 -0.103487 0.861206
0.279772 -0.1025 0.861502
0.280883 -0.101528 0.861938
0.28238 -0.100692 0.863595
0.284176 -0.0999562 0.86618
0.286144 -0.0992705 0.869283
0.28806 -0.0985562 0.8722
0.289931 -0.0978166 0.874956
0.291385 -0.0969289 0.876391
0.292575 -0.0959501 0.877001
0.293721 -0.0949548 0.877468
0.294941 -0.0939808 0.878158
0.29622 -0.0930227 0.879023
0.297532 -0.0920711 0.879979
0.298848 -0.0911174 0.880942
0.300188 -0.0901675 0.88197
0.301628 -0.0892425 0.88329
0.302964 -0.0882835 0.884287
0.3044 -0.0873487 0.885574
0.305835 -0.0864093 0.886851
0.307247 -0.0854591 0.888047
0.308592 -0.0844868 0.889036
0.309984 -0.0835233 0.890155
0.311357 -0.0825511 0.891212
0.312733 -0.0815757 0.892265
0.314142 -0.0806051 0.89341
0.31561 -0.0796446 0.894716
0.317031 -0.0786685 0.895875
0.318372 -0.0776696 0.896794
0.319754 -0.0766771 0.897825
0.322831 -0.0768151 0.90036
0.321031 -0.0756576 0.898548
0.223771 -0.185882 0.921909
0.224816 -0.184814 0.921975
0.225803 -0.183693 0.921785
0.22675 -0.182537 0.921417
0.227639 -0.181332 0.920804
0.2285 -0.180105 0.920075
0.229209 -0.178751 0.918696
0.22978 -0.177287 0.916738
0.230292 -0.175782 0.914552
0.230645 -0.174156 0.911712
0.23093 -0.172488 0.908615
0.231157 -0.170787 0.905307
0.231419 -0.169128 0.902176
0.231682 -0.167482 0.899079
0.23204 -0.165924 0.896403
0.232421 -0.164396 0.893852
0.23288 -0.162936 0.89164
0.233431 -0.161555 0.889825
0.234005 -0.160198 0.888117
0.2346 -0.158864 0.886514
0.235263 -0.157585 0.885197
0.235964 -0.156339 0.884042
0.236466 -0.154957 0.882109
0.236949 -0.153569 0.880117
0.237445 -0.152199 0.878196
0.237969 -0.150855 0.876399
0.238519 -0.149535 0.87472
0.239261 -0.14835 0.873802
0.239959 -0.14714 0.872723
0.24064 -0.145922 0.871586
0.241332 -0.144716 0.870499
0.242094 -0.143558 0.869691
0.242912 -0.142438 0.869099
0.243809 -0.141368 0.868812
0.244734 -0.140317 0.868631
0.245616 -0.13924 0.868289
0.246481 -0.138154 0.867888
0.247309 -0.137047 0.86735
0.248054 -0.135894 0.866512
0.248763 -0.134724 0.865551
0.249446 -0.133542 0.864499
0.250156 -0.132379 0.863555
0.250956 -0.131269 0.862943
0.251863 -0.130219 0.862723
0.25275 -0.129159 0.862432
0.253728 -0.128148 0.862467
0.254687 -0.127126 0.862435
0.255616 -0.126089 0.862297
0.256544 -0.125051 0.862153
0.257502 -0.124029 0.862114
0.258357 -0.122955 0.861718
0.25925 -0.121901 0.861454
0.260206 -0.120878 0.861412
0.261212 -0.119879 0.861542
0.262207 -0.118874 0.861629
0.263298 -0.117912 0.862045
0.26437 -0.11694 0.862393
0.265368 -0.115933 0.862487
0.266406 -0.114943 0.862712
0.267437 -0.113949 0.862914
0.268366 -0.11291 0.862768
0.269225 -0.111841 0.862391
0.270092 -0.110777 0.862044
0.270896 -0.109687 0.86149
0.271725 -0.108609 0.861021
0.272603 -0.107552 0.860715
0.273546 -0.106522 0.860623
0.274533 -0.105509 0.860678
0.275525 -0.104497 0.860744
0.276559 -0.103501 0.860947
0.277595 -0.102504 0.861154
0.278676 -0.101524 0.861503
0.279785 -0.100551 0.861938
0.281375 -0.0997477 0.863897
0.283226 -0.0990291 0.866669
0.285251 -0.0983606 0.869967
0.287194 -0.0976525 0.87298
0.289082 -0.0969153 0.875797
0.290459 -0.0960003 0.876998
0.29159 -0.0950012 0.877424
0.292702 -0.0939946 0.87779
0.293893 -0.0930108 0.878393
0.295146 -0.0920441 0.879183
0.29643 -0.0910835 0.880059
0.297765 -0.090135 0.881084
0.299077 -0.0891761 0.882033
0.300497 -0.0882448 0.883298
0.301856 -0.087292 0.884372
0.303317 -0.0863634 0.885742
0.304752 -0.0854229 0.887022
0.306163 -0.0844716 0.888223
0.307498 -0.0834961 0.889188
0.308863 -0.0825249 0.890233
0.310204 -0.081544 0.8912
0.311582 -0.0805688 0.892267
0.313016 -0.0796035 0.89349
0.31451 -0.0786485 0.894879
0.315986 -0.0776844 0.896203
0.317382 -0.0766976 0.897288
0.318794 -0.0757103 0.898407
0.320099 -0.0746958 0.899213
0.222464 -0.184657 0.921163
0.223488 -0.183572 0.921142
0.224462 -0.182442 0.920898
0.22541 -0.18129 0.920542
0.226339 -0.180122 0.920103
0.227242 -0.178934 0.919559
0.22801 -0.177633 0.918434
0.22866 -0.176237 0.916812
0.229218 -0.174771 0.914808
0.229595 -0.173166 0.912057
0.229904 -0.171518 0.909046
0.230119 -0.169807 0.905667
0.230347 -0.168121 0.902375
0.230612 -0.166478 0.899268
0.23097 -0.164921 0.896582
0.231356 -0.163397 0.894036
0.231834 -0.161953 0.891893
0.232422 -0.160599 0.890218
0.232998 -0.159245 0.888514
0.233598 -0.157914 0.886917
0.234263 -0.156637 0.885602
0.234986 -0.155407 0.88453
0.235473 -0.154014 0.882525
0.235958 -0.152628 0.88053
0.236435 -0.151245 0.878523
0.236937 -0.149887 0.876634
0.237393 -0.148506 0.874579
0.238058 -0.14727 0.873357
0.238675 -0.146009 0.871962
0.239316 -0.144769 0.870673
0.239991 -0.143554 0.869523
0.240812 -0.142436 0.86894
0.241707 -0.141366 0.868643
0.242682 -0.140347 0.868656
0.243668 -0.139333 0.868704
0.244611 -0.138293 0.868592
0.245518 -0.137232 0.868345
0.246369 -0.136139 0.867894
0.247118 -0.134989 0.867065
0.247847 -0.133829 0.866167
0.248531 -0.132648 0.865117
0.249245 -0.131488 0.864181
0.250049 -0.130379 0.863581
0.250975 -0.129339 0.863426
0.251843 -0.128268 0.863064
0.252799 -0.127245 0.863022
0.253738 -0.126212 0.862916
0.254646 -0.125164 0.8627
0.255571 -0.124124 0.862544
0.256548 -0.123111 0.862575
0.257422 -0.122047 0.862243
0.258339 -0.121004 0.862061
0.259319 -0.119992 0.8621
0.260334 -0.118996 0.86226
0.261331 -0.117991 0.862356
0.262425 -0.11703 0.862784
0.263499 -0.116058 0.863139
0.264496 -0.11505 0.863228
0.265509 -0.114048 0.863369
0.266493 -0.113032 0.863409
0.267373 -0.111971 0.8631
0.268182 -0.110881 0.862552
0.269004 -0.109799 0.862055
0.269784 -0.1087 0.86142
0.27061 -0.107622 0.860939
0.271484 -0.106565 0.860624
0.272427 -0.105535 0.860532
0.273437 -0.104532 0.860665
0.274456 -0.103531 0.860822
0.275495 -0.102537 0.861041
0.27653 -0.10154 0.861249
0.277609 -0.100558 0.861592
0.278696 -0.0995777 0.86196
0.280316 -0.0987841 0.864026
0.282222 -0.0980826 0.866984
0.284307 -0.0974321 0.870489
0.286287 -0.0967338 0.873631
0.288186 -0.0959976 0.876495
0.289524 -0.0950683 0.87758
0.290625 -0.0940589 0.877914
0.29171 -0.0930428 0.878194
0.292877 -0.092051 0.878727
0.294107 -0.0910764 0.87945
0.295363 -0.090107 0.880246
0.296693 -0.0891562 0.881259
0.297975 -0.0881882 0.882123
0.299366 -0.0872478 0.883307
0.30072 -0.0862928 0.884369
0.30218 -0.0853635 0.885745
0.303589 -0.0844153 0.886955
0.304999 -0.0834632 0.888157
0.30633 -0.0824866 0.889118
0.307689 -0.0815136 0.890152
0.309026 -0.0805311 0.891111
0.310401 -0.0795548 0.892175
0.311832 -0.0785883 0.893396
0.313354 -0.0776394 0.894875
0.314885 -0.0766874 0.89637
0.316343 -0.0757138 0.897639
0.317815 -0.0747389 0.898938
0.319178 -0.0737359 0.899914
0.220332 -0.184697 0.921314
0.221254 -0.18352 0.920836
0.222245 -0.182406 0.920671
0.223197 -0.181259 0.920333
0.224132 -0.180097 0.919923
0.225062 -0.178933 0.919495
0.225984 -0.177763 0.919032
0.226794 -0.176499 0.918088
0.227485 -0.17514 0.916639
0.228069 -0.173698 0.914742
0.228487 -0.172128 0.912155
0.228821 -0.170501 0.909232
0.229055 -0.168805 0.905913
0.229287 -0.167124 0.902624
0.229571 -0.165497 0.89958
0.229934 -0.163944 0.8969
0.230324 -0.162424 0.894358
0.230806 -0.160983 0.89222
0.231397 -0.159633 0.890549
0.231976 -0.15828 0.888844
0.232576 -0.15695 0.887244
0.233243 -0.155675 0.885927
0.233965 -0.154444 0.884846
0.234456 -0.153055 0.882849
0.234926 -0.15166 0.880786
0.235351 -0.150242 0.878561
0.235761 -0.148822 0.876297
0.23608 -0.147351 0.873697
0.236622 -0.146038 0.871994
0.23714 -0.144716 0.870214
0.237727 -0.143445 0.868714
0.238423 -0.142249 0.867651
0.23934 -0.141196 0.867448
0.240336 -0.140193 0.867548
0.24143 -0.139249 0.868016
0.242531 -0.138307 0.868509
0.243552 -0.137315 0.868692
0.244499 -0.136278 0.868594
0.245391 -0.135209 0.868293
0.246143 -0.13406 0.867472
0.246876 -0.132903 0.866586
0.247578 -0.131733 0.865597
0.248311 -0.130583 0.864726
0.249098 -0.129465 0.864059
0.250042 -0.128434 0.863969
0.250909 -0.127362 0.863601
0.251824 -0.126317 0.863408
0.252719 -0.125261 0.863145
0.253622 -0.124211 0.862914
0.254528 -0.123162 0.86269
0.255528 -0.12216 0.862803
0.256448 -0.121119 0.862632
0.257412 -0.120099 0.862616
0.258434 -0.119107 0.862803
0.259492 -0.11813 0.863111
0.260515 -0.117136 0.863294
0.261614 -0.116176 0.863741
0.262686 -0.115201 0.864087
0.263639 -0.114172 0.864022
0.264606 -0.113148 0.864006
0.265525 -0.112104 0.863824
0.266358 -0.111023 0.863354
0.26712 -0.109914 0.862648
0.267897 -0.108814 0.861997
0.268651 -0.107706 0.861275
0.269477 -0.106629 0.860797
0.270351 -0.105572 0.860481
0.271294 -0.104544 0.860394
0.272346 -0.103557 0.860664
0.273386 -0.102564 0.860894
0.274431 -0.101573 0.861137
0.27547 -0.100577 0.861356
0.276567 -0.099602 0.861761
0.277674 -0.0986287 0.862195
0.279385 -0.0978658 0.864565
0.281343 -0.0971797 0.867703
0.283469 -0.0965395 0.871349
0.285463 -0.0958427 0.874551
0.28733 -0.0950926 0.877325
0.288577 -0.0941319 0.878124
0.289679 -0.093122 0.878462
0.290742 -0.0920986 0.878677
0.291913 -0.0911072 0.879223
0.293144 -0.0901321 0.879952
0.294377 -0.0891547 0.880681
0.295675 -0.0881936 0.881601
0.296928 -0.0872161 0.882376
0.298263 -0.0862591 0.883397
0.299586 -0.0852951 0.884372
0.301037 -0.0843624 0.885727
0.302398 -0.083401 0.886799
0.303781 -0.0824414 0.887927
0.305085 -0.0814578 0.888814
0.306437 -0.0804828 0.889832
0.307775 -0.0795009 0.890801
0.309144 -0.0785235 0.891859
0.310599 -0.0775625 0.893158
0.312168 -0.0766239 0.894782
0.313757 -0.0756843 0.896451
0.315277 -0.0747238 0.897908
0.316838 -0.0737674 0.899473
0.318257 -0.0727751 0.900614
0.21912 -0.183556 0.920969
0.220052 -0.18239 0.920538
0.221013 -0.181251 0.920244
0.221942 -0.180085 0.919807
0.222875 -0.178923 0.919387
0.223787 -0.177745 0.91888
0.224691 -0.176563 0.918347
0.22552 -0.175318 0.917484
0.226214 -0.173963 0.916046
0.22684 -0.172558 0.914323
0.227319 -0.17104 0.911987
0.227693 -0.169447 0.909223
0.227969 -0.167787 0.906071
0.228242 -0.166138 0.902932
0.22853 -0.164515 0.899893
0.228897 -0.162966 0.897212
0.22931 -0.161464 0.894752
0.229816 -0.160042 0.892703
0.230412 -0.158696 0.891045
0.230994 -0.157345 0.889341
0.231593 -0.156014 0.887726
0.232223 -0.154713 0.886255
0.232907 -0.153455 0.885013
0.233246 -0.15196 0.882392
0.233587 -0.150478 0.879804
0.23388 -0.148973 0.877045
0.234156 -0.147468 0.874247
0.234344 -0.145915 0.871127
0.234885 -0.144608 0.869426
0.235405 -0.143294 0.86766
0.236007 -0.142039 0.866225
0.236766 -0.14089 0.865416
0.237748 -0.139883 0.865474
0.238863 -0.138957 0.866038
0.240059 -0.138079 0.866913
0.241264 -0.137203 0.867811
0.242366 -0.13626 0.868306
0.243386 -0.135268 0.86849
0.244334 -0.134232 0.868398
0.245127 -0.133108 0.867727
0.245883 -0.131965 0.866925
0.246624 -0.130816 0.866075
0.247375 -0.129676 0.865267
0.248142 -0.128547 0.864523
0.249067 -0.127506 0.864363
0.24995 -0.126443 0.864051
0.250827 -0.125377 0.86372
0.251699 -0.12431 0.863371
0.252595 -0.123256 0.863111
0.2535 -0.122207 0.862888
0.254488 -0.1212 0.862961
0.255459 -0.120184 0.862971
0.256466 -0.119184 0.863103
0.257514 -0.118204 0.863383
0.25859 -0.117235 0.863754
0.259653 -0.116259 0.86408
0.260751 -0.115297 0.86452
0.261783 -0.114303 0.86473
0.262709 -0.113261 0.864572
0.263629 -0.112217 0.864393
0.264484 -0.111145 0.863993
0.265274 -0.110047 0.863377
0.266034 -0.108938 0.862661
0.266769 -0.107821 0.861869
0.267523 -0.106714 0.861143
0.26835 -0.105638 0.860666
0.269207 -0.104576 0.860295
0.27015 -0.103548 0.860212
0.271242 -0.102577 0.860617
0.272303 -0.101593 0.860919
0.273372 -0.100611 0.861245
0.274453 -0.0996311 0.861604
0.275571 -0.098663 0.862079
0.276762 -0.0977192 0.862789
0.278538 -0.0969765 0.865376
0.280499 -0.0962878 0.868535
0.282618 -0.095642 0.872177
0.284578 -0.0949302 0.87528
0.286349 -0.0941459 0.87776
0.287532 -0.0931637 0.878361
0.288661 -0.0921623 0.878787
0.289731 -0.0911406 0.879023
0.290951 -0.090164 0.879728
0.292181 -0.0891872 0.880453
0.293411 -0.0882082 0.881178
0.294681 -0.0872378 0.882016
0.295907 -0.0862518 0.882711
0.297166 -0.0852724 0.883502
0.298456 -0.0842988 0.884382
0.29985 -0.08335 0.88557
0.301154 -0.0823734 0.886479
0.302506 -0.0814057 0.88752
0.303832 -0.080428 0.888479
0.30516 -0.0794471 0.889432
0.306498 -0.0784656 0.890411
0.30789 -0.0774935 0.891541
0.309367 -0.0765377 0.892915
0.310958 -0.0756036 0.894614
0.312626 -0.0746812 0.896525
0.314255 -0.073744 0.89831
0.315878 -0.0727995 0.900063
0.31738 -0.0718234 0.90145
0.217914 -0.182422 0.920645
0.218835 -0.181247 0.920167
0.219788 -0.180102 0.919834
0.220677 -0.178902 0.91922
0.221588 -0.177724 0.918708
0.222477 -0.176528 0.918105
0.223359 -0.175328 0.917471
0.224186 -0.174085 0.916605
0.224919 -0.172766 0.915335
0.225583 -0.171395 0.913775
0.226107 -0.169916 0.911624
0.226542 -0.168375 0.909113
0.226866 -0.166755 0.906147
0.227165 -0.165128 0.903107
0.227478 -0.163526 0.900157
0.227867 -0.161994 0.897558
0.2283 -0.160507 0.895167
0.22883 -0.159103 0.893203
0.229431 -0.157761 0.891557
0.230016 -0.156413 0.88986
0.230595 -0.155068 0.888152
0.231203 -0.15375 0.886581
0.231866 -0.152478 0.885246
0.232044 -0.150872 0.881958
0.232225 -0.149281 0.878714
0.23237 -0.147679 0.875357
0.232472 -0.146062 0.871857
0.232513 -0.144418 0.868149
0.233067 -0.143126 0.866504
0.233625 -0.141844 0.864893
0.234252 -0.140612 0.863567
0.23507 -0.139507 0.862996
0.236106 -0.138539 0.86328
0.237301 -0.137668 0.86417
0.238581 -0.136845 0.865382
0.239908 -0.136046 0.86676
0.241112 -0.135166 0.867653
0.242229 -0.134232 0.86821
0.243269 -0.133252 0.868472
0.244124 -0.132163 0.868031
0.244906 -0.131035 0.867323
0.245669 -0.129899 0.86655
0.24642 -0.128759 0.865737
0.247186 -0.12763 0.864985
0.248093 -0.126579 0.864758
0.248978 -0.125516 0.864453
0.249854 -0.12445 0.864116
0.250723 -0.123382 0.863756
0.251598 -0.122317 0.863421
0.252523 -0.121278 0.863268
0.253533 -0.120281 0.863416
0.254529 -0.119277 0.863516
0.255538 -0.118278 0.863659
0.256605 -0.117306 0.864006
0.257679 -0.116336 0.864372
0.258743 -0.115359 0.8647
0.259801 -0.114378 0.865003
0.260808 -0.113372 0.865126
0.261706 -0.112318 0.864872
0.262581 -0.111254 0.864537
0.263394 -0.110165 0.863993
0.264183 -0.109067 0.86337
0.264926 -0.107952 0.862596
0.265639 -0.106827 0.861727
0.266416 -0.105731 0.861079
0.267244 -0.104657 0.860606
0.268107 -0.103597 0.860253
0.269069 -0.102578 0.860236
0.27018 -0.101614 0.860708
0.271243 -0.100631 0.861018
0.272335 -0.099657 0.86142
0.273459 -0.0986931 0.861925
0.27462 -0.09774 0.862544
0.275946 -0.0968426 0.863693
0.277712 -0.0960937 0.86626
0.27965 -0.0953938 0.869356
0.281709 -0.0947241 0.872821
0.283627 -0.0939954 0.875803
0.285261 -0.0931644 0.877857
0.286466 -0.0921892 0.878533
0.287621 -0.0911956 0.879042
0.288714 -0.0901811 0.879355
0.289959 -0.089211 0.880138
0.291189 -0.0882335 0.880867
0.292418 -0.0872534 0.881591
0.293661 -0.0862745 0.882351
0.29486 -0.08528 0.882964
0.296043 -0.0842792 0.883528
0.297279 -0.0832904 0.884247
0.298592 -0.0823197 0.885196
0.299861 -0.0813341 0.886002
0.301156 -0.080352 0.886881
0.302475 -0.079373 0.887824
0.303777 -0.0783865 0.888709
0.305163 -0.0774173 0.889838
0.306584 -0.0764526 0.891065
0.308111 -0.0755085 0.892597
0.309729 -0.07458 0.894386
0.311495 -0.0736786 0.896598
0.313156 -0.072747 0.898484
0.314834 -0.0718129 0.900407
0.316444 -0.0708582 0.902116
0.319502 -0.0709719 0.904625
0.317765 -0.0698382 0.902968
0.217567 -0.180057 0.919549
0.218504 -0.1789 0.91915
0.219378 -0.17769 0.918472
0.220263 -0.176491 0.917846
0.221129 -0.175278 0.91714
0.221975 -0.17405 0.916351
0.222798 -0.172807 0.915471
0.223583 -0.171535 0.914429
0.224271 -0.170187 0.912973
0.224858 -0.168763 0.911093
0.225379 -0.167293 0.908942
0.225782 -0.165738 0.906308
0.226112 -0.164137 0.903382
0.226466 -0.162567 0.900593
0.226858 -0.161038 0.89799
0.22731 -0.159566 0.895667
0.227861 -0.158178 0.893779
0.228469 -0.156841 0.892154
0.229073 -0.155506 0.890523
0.229651 -0.15416 0.888802
0.230239 -0.152828 0.887137
0.230664 -0.151388 0.884822
0.230627 -0.149633 0.880641
0.230582 -0.147891 0.876469
0.230541 -0.146169 0.872356
0.230484 -0.144453 0.868213
0.230602 -0.14287 0.864816
0.231225 -0.141632 0.863456
0.231868 -0.140412 0.862187
0.232539 -0.139215 0.861041
0.233397 -0.138141 0.860641
0.234465 -0.137199 0.861063
0.235704 -0.13636 0.862143
0.237035 -0.135572 0.86357
0.238463 -0.134836 0.865352
0.239787 -0.134031 0.86672
0.241025 -0.13317 0.867747
0.242165 -0.132248 0.868392
0.2431 -0.131207 0.868256
0.243928 -0.130105 0.867718
0.244736 -0.128994 0.867107
0.245506 -0.127864 0.86636
0.246291 -0.126745 0.865676
0.247178 -0.125683 0.865376
0.248066 -0.124621 0.865076
0.248925 -0.123546 0.864676
0.249779 -0.12247 0.86426
0.250635 -0.121395 0.863852
0.251578 -0.120365 0.863761
0.252569 -0.119358 0.863845
0.25358 -0.118361 0.863997
0.254587 -0.117361 0.864133
0.255651 -0.116387 0.86447
0.256704 -0.115406 0.864766
0.257747 -0.114419 0.865022
0.258763 -0.113419 0.865178
0.259745 -0.112403 0.865218
0.260619 -0.111338 0.864877
0.26145 -0.110256 0.864393
0.262262 -0.109168 0.863845
0.263032 -0.108063 0.863155
0.263775 -0.106949 0.862382
0.26449 -0.105826 0.861517
0.265289 -0.10474 0.860943
0.266119 -0.103668 0.860478
0.267002 -0.102618 0.860192
0.267985 -0.101607 0.860244
0.269115 -0.100651 0.860786
0.270203 -0.0996768 0.861183
0.271339 -0.098719 0.861735
0.27253 -0.0977785 0.86246
0.27376 -0.0968492 0.863309
0.27521 -0.0959934 0.864866
0.277011 -0.0952528 0.867554
0.278933 -0.0945435 0.87061
0.280925 -0.0938473 0.873871
0.282735 -0.0930795 0.876515
0.284243 -0.0922056 0.878174
0.285422 -0.0912216 0.878771
0.286578 -0.090228 0.879286
0.287672 -0.0892134 0.879602
0.288915 -0.0882424 0.880386
0.29012 -0.087257 0.881041
0.291346 -0.0862757 0.881761
0.292543 -0.085283 0.882379
0.293713 -0.0842807 0.882911
0.29489 -0.0832779 0.883456
0.296096 -0.0822811 0.884089
0.29733 -0.0812894 0.884802
0.298567 -0.0802957 0.885516
0.299825 -0.0793049 0.886291
0.301092 -0.0783134 0.887083
0.302392 -0.0773275 0.887972
0.303801 -0.0763643 0.889179
0.305246 -0.0754055 0.890485
0.306801 -0.0744679 0.892112
0.308474 -0.0735512 0.894073
0.310268 -0.072655 0.896381
0.311979 -0.0717333 0.898426
0.313707 -0.0708087 0.900506
0.315376 -0.0698649 0.902397
0.316833 -0.0688717 0.903651
0.216214 -0.178789 0.918532
0.21715 -0.177635 0.918132
0.218021 -0.176425 0.917442
0.218885 -0.175211 0.916728
0.219728 -0.173981 0.915922
0.22057 -0.172755 0.915122
0.221394 -0.171516 0.91425
0.222201 -0.170266 0.913308
0.222932 -0.168957 0.912039
0.223579 -0.167585 0.91042
0.224161 -0.166167 0.908529
0.224648 -0.164681 0.906247
0.225074 -0.163157 0.903723
0.225492 -0.161637 0.901188
0.225921 -0.160137 0.898729
0.22641 -0.158693 0.896546
0.22698 -0.157319 0.894729
0.227576 -0.155971 0.893041
0.228201 -0.154651 0.891485
0.228814 -0.15333 0.889901
0.229172 -0.151832 0.887268
0.229333 -0.150207 0.883855
0.229086 -0.14831 0.878798
0.228815 -0.146418 0.873693
0.228578 -0.14457 0.868773
0.22859 -0.14291 0.864908
0.228831 -0.141417 0.862002
0.229541 -0.140243 0.861001
0.230286 -0.139096 0.860148
0.231023 -0.137946 0.859267
0.231935 -0.13691 0.859088
0.232994 -0.135966 0.859487
0.234219 -0.135121 0.860525
0.23554 -0.134331 0.86193
0.237015 -0.133626 0.863916
0.238423 -0.132874 0.865623
0.239767 -0.132077 0.86707
0.24101 -0.131216 0.868116
0.242045 -0.130233 0.868364
0.242916 -0.129156 0.867984
0.243748 -0.128058 0.867462
0.244555 -0.126949 0.866853
0.245362 -0.125842 0.866244
0.246251 -0.12478 0.865948
0.24716 -0.123729 0.865725
0.248037 -0.122663 0.865386
0.248893 -0.121587 0.864973
0.249752 -0.120513 0.864576
0.250676 -0.119473 0.864416
0.251643 -0.118454 0.86441
0.252629 -0.117444 0.864473
0.253613 -0.116432 0.864527
0.254636 -0.115438 0.864719
0.255667 -0.114448 0.864939
0.256686 -0.11345 0.865112
0.257678 -0.112439 0.865188
0.258619 -0.111405 0.865083
0.25947 -0.110332 0.864665
0.260281 -0.109242 0.864111
0.261073 -0.108146 0.863493
0.261822 -0.107035 0.862734
0.262583 -0.10593 0.862018
0.26332 -0.104818 0.861229
0.264141 -0.103742 0.860729
0.264995 -0.10268 0.860345
0.265896 -0.101638 0.860125
0.266898 -0.100635 0.860241
0.268051 -0.0996877 0.860866
0.269184 -0.0987306 0.861416
0.270389 -0.0977972 0.862197
0.271691 -0.0968959 0.863295
0.27304 -0.0960068 0.864537
0.274637 -0.0951996 0.866583
0.276451 -0.0944589 0.869319
0.278326 -0.093729 0.87223
0.280184 -0.0929836 0.875067
0.281839 -0.092162 0.87722
0.283202 -0.0912398 0.87842
0.284359 -0.0902483 0.878947
0.285512 -0.0892535 0.879457
0.286628 -0.0882455 0.879845
0.287866 -0.0872723 0.880616
0.289045 -0.0862793 0.881197
0.290246 -0.0852899 0.881837
0.291392 -0.0842829 0.882303
0.292534 -0.0832725 0.882748
0.29368 -0.082262 0.883206
0.294883 -0.0812646 0.883832
0.296092 -0.0802665 0.884474
0.297299 -0.0792655 0.885103
0.298527 -0.0782677 0.885792
0.299764 -0.0772694 0.886502
0.301034 -0.0762765 0.887304
0.302415 -0.0753073 0.888439
0.303905 -0.0743594 0.889889
0.305515 -0.0734341 0.89169
0.307242 -0.0725289 0.893825
0.309063 -0.0716376 0.896228
0.310843 -0.0707295 0.898488
0.312597 -0.0698084 0.900653
0.316238 -0.0692671 0.908363
0.214786 -0.177454 0.917149
0.215722 -0.176304 0.916759
0.216621 -0.175122 0.916202
0.217484 -0.173911 0.915485
0.218311 -0.172672 0.914614
0.219138 -0.171436 0.913752
0.219981 -0.170217 0.912968
0.220807 -0.168987 0.912115
0.22156 -0.1677 0.910948
0.222268 -0.166381 0.909591
0.222926 -0.165028 0.908032
0.223491 -0.163606 0.90608
0.223998 -0.162147 0.903894
0.224479 -0.160678 0.90162
0.224951 -0.159211 0.899332
0.225495 -0.157809 0.897374
0.226087 -0.15645 0.895635
0.226705 -0.155118 0.894026
0.22737 -0.153827 0.892633
0.228041 -0.152546 0.891275
0.228161 -0.150876 0.887633
0.228061 -0.149067 0.883116
0.227566 -0.147002 0.877017
0.227049 -0.144947 0.870884
0.226671 -0.143012 0.865378
0.226834 -0.141462 0.862127
0.22724 -0.140086 0.859886
0.228077 -0.139 0.859401
0.228949 -0.137939 0.85906
0.22976 -0.136839 0.858479
0.230691 -0.135818 0.858382
0.231714 -0.134853 0.858644
0.232871 -0.133969 0.85943
0.234124 -0.133139 0.86058
0.235554 -0.132411 0.862411
0.236997 -0.131682 0.864271
0.238422 -0.130935 0.866047
0.239765 -0.130133 0.86749
0.240916 -0.129217 0.868182
0.241863 -0.128184 0.868096
0.242735 -0.127109 0.867723
0.243567 -0.126013 0.867203
0.244393 -0.124917 0.866666
0.245285 -0.123856 0.866379
0.24623 -0.122824 0.866288
0.247128 -0.121768 0.866026
0.248004 -0.120702 0.865684
0.2489 -0.119646 0.865416
0.249805 -0.118596 0.865183
0.250714 -0.117548 0.864966
0.251657 -0.116516 0.864873
0.252596 -0.115484 0.864769
0.253558 -0.114461 0.864744
0.254568 -0.113461 0.864887
0.255561 -0.112452 0.864974
0.256531 -0.111432 0.864974
0.257447 -0.110388 0.864783
0.258299 -0.109316 0.864371
0.259112 -0.108229 0.863821
0.259904 -0.107135 0.863206
0.26067 -0.106031 0.862504
0.26145 -0.104936 0.861855
0.262209 -0.103834 0.861139
0.263036 -0.102762 0.860662
0.263913 -0.10171 0.860355
0.264833 -0.100676 0.860197
0.265877 -0.0996885 0.860461
0.267056 -0.0987505 0.861172
0.268257 -0.097818 0.861954
0.269571 -0.0969233 0.863104
0.270991 -0.096062 0.864596
0.272444 -0.0952069 0.866186
0.274118 -0.0944219 0.868486
0.275891 -0.0936625 0.871095
0.277659 -0.0928924 0.873668
0.279367 -0.0920932 0.876019
0.280869 -0.0912199 0.877689
0.282138 -0.0902664 0.878587
0.28329 -0.0892731 0.879102
0.284447 -0.0882795 0.87963
0.285588 -0.087279 0.880101
0.286823 -0.0863043 0.880866
0.287974 -0.0853025 0.881359
0.289142 -0.0843035 0.881901
0.290235 -0.0832817 0.882204
0.29135 -0.0822645 0.882571
0.29247 -0.081247 0.882949
0.29365 -0.080244 0.883512
0.294835 -0.0792401 0.884085
0.29604 -0.0782392 0.884713
0.297242 -0.0772352 0.885328
0.298472 -0.0762357 0.886022
0.299739 -0.0752427 0.886824
0.301089 -0.0742663 0.88787
0.302598 -0.0733229 0.889389
0.304229 -0.0724018 0.891263
0.305983 -0.0715019 0.893493
0.307832 -0.0706151 0.89599
0.309683 -0.0697207 0.898473
0.213401 -0.176158 0.915947
0.214321 -0.174997 0.915487
0.215211 -0.173811 0.914896
0.216055 -0.172587 0.914096
0.216884 -0.171353 0.913237
0.217712 -0.170122 0.912383
0.218573 -0.168922 0.911685
0.219418 -0.167713 0.910924
0.220191 -0.166446 0.909847
0.22095 -0.165172 0.908721
0.221683 -0.163882 0.907486
0.222326 -0.162525 0.905875
0.222934 -0.161148 0.904122
0.223515 -0.159757 0.902271
0.224053 -0.15834 0.90025
0.224639 -0.156969 0.898459
0.225253 -0.155625 0.896801
0.225892 -0.154307 0.895268
0.226597 -0.153043 0.894029
0.227333 -0.151807 0.892932
0.227455 -0.150138 0.889274
0.227064 -0.148123 0.883515
0.226374 -0.145924 0.876569
0.225699 -0.143764 0.869755
0.225181 -0.141738 0.863652
0.225522 -0.140313 0.861121
0.226093 -0.139049 0.859546
0.22693 -0.137965 0.859062
0.227818 -0.136916 0.858791
0.22865 -0.135831 0.858292
0.229585 -0.134813 0.858212
0.230588 -0.133836 0.858397
0.231653 -0.132897 0.858829
0.232819 -0.132016 0.85965
0.23418 -0.131248 0.861227
0.235595 -0.130505 0.862996
0.237055 -0.12978 0.864922
0.238493 -0.129035 0.866745
0.239721 -0.128164 0.867744
0.240747 -0.127177 0.867963
0.241675 -0.126134 0.867806
0.242528 -0.12505 0.867363
0.243374 -0.123965 0.8669
0.244306 -0.122926 0.866761
0.245273 -0.121905 0.866755
0.246197 -0.120862 0.866585
0.247092 -0.119805 0.866311
0.247989 -0.11875 0.866047
0.248873 -0.117688 0.865734
0.249722 -0.116611 0.865298
0.250602 -0.11555 0.864977
0.251497 -0.114496 0.86471
0.252416 -0.113454 0.864533
0.253385 -0.112436 0.864534
0.254375 -0.111426 0.86461
0.25532 -0.110397 0.864528
0.256216 -0.109345 0.864268
0.257067 -0.108275 0.863854
0.257879 -0.107189 0.863303
0.258673 -0.106098 0.862697
0.259461 -0.105005 0.862071
0.260242 -0.103912 0.861425
0.261044 -0.102829 0.86086
0.261896 -0.101768 0.860467
0.262816 -0.100734 0.860311
0.2638 -0.0997248 0.860372
0.264908 -0.0987618 0.860853
0.266133 -0.0978405 0.861726
0.267423 -0.0969394 0.86281
0.26883 -0.0960761 0.864274
0.270348 -0.0952469 0.866098
0.2719 -0.0944229 0.868018
0.273557 -0.0936276 0.870268
0.275251 -0.0928373 0.872623
0.276907 -0.0920259 0.874833
0.278464 -0.0911745 0.876701
0.279869 -0.0902677 0.878057
0.281113 -0.0893058 0.878882
0.282268 -0.088313 0.879409
0.283408 -0.0873137 0.879884
0.284572 -0.0863196 0.880431
0.285763 -0.0853317 0.881063
0.286885 -0.084321 0.881464
0.288023 -0.0833135 0.881915
0.289085 -0.0822832 0.882123
0.29015 -0.0812525 0.882335
0.291246 -0.0802291 0.882643
0.2924 -0.0792199 0.883131
0.29356 -0.07821 0.88363
0.294788 -0.0772155 0.884336
0.29599 -0.076212 0.884955
0.297217 -0.0752124 0.885648
0.298506 -0.0742248 0.886523
0.299849 -0.0732468 0.887556
0.301355 -0.0723022 0.889074
0.303002 -0.071384 0.891009
0.30478 -0.0704883 0.893325
0.306628 -0.0695995 0.895829
0.310433 -0.0691113 0.904175
0.21199 -0.174838 0.914601
0.212879 -0.173653 0.914003
0.213766 -0.172469 0.913406
0.214617 -0.171256 0.912646
0.215448 -0.170028 0.911802
0.216277 -0.168802 0.910956
0.217151 -0.167618 0.910327
0.218009 -0.166422 0.909627
0.218818 -0.165189 0.908713
0.219634 -0.163965 0.90784
0.220443 -0.162739 0.906946
0.221167 -0.161449 0.905686
0.221872 -0.160149 0.904351
0.222536 -0.158823 0.902853
0.223137 -0.157455 0.901097
0.223767 -0.156116 0.899481
0.224435 -0.154812 0.898048
0.225097 -0.153509 0.896596
0.225836 -0.152268 0.895493
0.226611 -0.151058 0.894551
0.226422 -0.149166 0.889554
0.225607 -0.146855 0.881984
0.224666 -0.144488 0.873965
0.224042 -0.142371 0.867338
0.223692 -0.140467 0.861911
0.224268 -0.139204 0.86034
0.225024 -0.138065 0.859519
0.225842 -0.136969 0.858957
0.22673 -0.13592 0.858684
0.227577 -0.134847 0.858251
0.228514 -0.13383 0.858178
0.229499 -0.132843 0.858296
0.230523 -0.131879 0.858566
0.231608 -0.130951 0.859076
0.232863 -0.130121 0.860249
0.23421 -0.129339 0.861768
0.235625 -0.128591 0.86354
0.237099 -0.127869 0.865519
0.238387 -0.127035 0.866765
0.239491 -0.126092 0.86729
0.240482 -0.125086 0.867374
0.24139 -0.124034 0.867146
0.242237 -0.12295 0.866687
0.243204 -0.12193 0.86668
0.244194 -0.120923 0.866763
0.245145 -0.119894 0.866696
0.246066 -0.118851 0.866519
0.246999 -0.117813 0.866387
0.247845 -0.116733 0.865931
0.248651 -0.115636 0.865338
0.249483 -0.114552 0.864839
0.25033 -0.113477 0.8644
0.251189 -0.112409 0.864008
0.252135 -0.111381 0.863934
0.253107 -0.110366 0.863949
0.254031 -0.109328 0.863793
0.254903 -0.108268 0.863454
0.255751 -0.107199 0.863033
0.256566 -0.106117 0.862494
0.257381 -0.105036 0.861964
0.258192 -0.103956 0.861421
0.259016 -0.102882 0.860926
0.259882 -0.101826 0.860583
0.260798 -0.100791 0.860412
0.261804 -0.0997914 0.860552
0.262875 -0.0988154 0.860914
0.264052 -0.0978775 0.861632
0.265347 -0.0969802 0.862744
0.266725 -0.0961091 0.864128
0.268203 -0.0952686 0.865837
0.269774 -0.0944541 0.867839
0.271374 -0.0936427 0.869923
0.272958 -0.0928185 0.871938
0.274547 -0.0919887 0.87395
0.276072 -0.0911307 0.875733
0.277506 -0.0902373 0.877206
0.278825 -0.0893018 0.878285
0.280072 -0.0883401 0.879122
0.28123 -0.0873478 0.879663
0.282371 -0.0863486 0.880145
0.283534 -0.0853541 0.880694
0.2847 -0.0843579 0.881245
0.285795 -0.0833398 0.881566
0.286907 -0.0823248 0.881937
0.287946 -0.0812882 0.882071
0.289007 -0.080257 0.882276
0.290075 -0.0792266 0.882501
0.291223 -0.0782159 0.882971
0.292378 -0.0772051 0.88346
0.293603 -0.0762099 0.884163
0.294808 -0.0752074 0.884797
0.296061 -0.0742141 0.885575
0.297348 -0.0732258 0.886449
0.298669 -0.0722423 0.887419
0.300146 -0.0712905 0.88886
0.301762 -0.0703646 0.890711
0.303533 -0.069466 0.893017
0.307315 -0.0689832 0.901371
0.211448 -0.17232 0.912551
0.212354 -0.171157 0.912048
0.213221 -0.169961 0.911366
0.214051 -0.168736 0.910522
0.214893 -0.167526 0.909745
0.215783 -0.166358 0.909189
0.216627 -0.165154 0.908429
0.217452 -0.163938 0.907596
0.218307 -0.162749 0.9069
0.21916 -0.161562 0.906205
0.219947 -0.160324 0.905221
0.220765 -0.159115 0.904383
0.221522 -0.157863 0.90329
0.222219 -0.156568 0.901942
0.222909 -0.155273 0.900573
0.223617 -0.153998 0.899298
0.224297 -0.152707 0.897919
0.225066 -0.151486 0.896928
0.225891 -0.15031 0.896187
0.225396 -0.148199 0.889861
0.224419 -0.145776 0.881566
0.22265 -0.141161 0.865996
0.222515 -0.139408 0.86144
0.223298 -0.138284 0.860719
0.224053 -0.137144 0.859889
0.224837 -0.136027 0.859189
0.225707 -0.134967 0.858841
0.226554 -0.133893 0.858402
0.227471 -0.132865 0.858253
0.228423 -0.131858 0.858239
0.229405 -0.13087 0.85835
0.230412 -0.129895 0.858554
0.231566 -0.129006 0.859338
0.232827 -0.128177 0.860536
0.234161 -0.127384 0.862004
0.235609 -0.12665 0.863903
0.2369 -0.12582 0.865176
0.238065 -0.124915 0.865946
0.239079 -0.123924 0.866133
0.240045 -0.122906 0.866129
0.24091 -0.121835 0.865743
0.241947 -0.120854 0.86601
0.242997 -0.119879 0.866321
0.24401 -0.118884 0.866493
0.244992 -0.117872 0.866546
0.245982 -0.116863 0.866626
0.24679 -0.115765 0.866031
0.247534 -0.114638 0.865205
0.248319 -0.113534 0.864535
0.249099 -0.112429 0.863853
0.249898 -0.111335 0.863244
0.250807 -0.110292 0.86304
0.251775 -0.109277 0.863045
0.252695 -0.10824 0.862882
0.253567 -0.107182 0.862547
0.254414 -0.106115 0.862123
0.255265 -0.105051 0.861719
0.256103 -0.103982 0.86127
0.256958 -0.102922 0.860885
0.257846 -0.101876 0.860618
0.258776 -0.100847 0.860497
0.259759 -0.0998384 0.86056
0.260855 -0.0988731 0.861013
0.261997 -0.0979235 0.86162
0.263246 -0.097011 0.862586
0.264607 -0.096136 0.863928
0.266052 -0.0952864 0.865542
0.267579 -0.0944599 0.867419
0.269192 -0.0936564 0.869568
0.270788 -0.0928396 0.871643
0.2723 -0.0919873 0.873421
0.273789 -0.0911208 0.875106
0.275214 -0.0902274 0.876564
0.276535 -0.0892955 0.877666
0.27781 -0.0883451 0.878607
0.279059 -0.0873832 0.879455
0.280222 -0.0863922 0.880016
0.281358 -0.0853909 0.880483
0.282514 -0.0843937 0.881012
0.283627 -0.0833819 0.881396
0.2847 -0.0823573 0.881648
0.285789 -0.081336 0.881949
0.28683 -0.0803004 0.882094
0.287892 -0.0792694 0.882301
0.288934 -0.0782325 0.882445
0.290071 -0.0772191 0.882886
0.291218 -0.0762067 0.883356
0.292445 -0.075212 0.884069
0.293652 -0.0742099 0.884715
0.294933 -0.0732228 0.885582
0.296218 -0.0722338 0.886456
0.297537 -0.0712495 0.887428
0.298963 -0.0702857 0.88872
0.300548 -0.0693519 0.890485
0.302308 -0.0684495 0.892771
0.210979 -0.169877 0.91084
0.211879 -0.168715 0.910323
0.212693 -0.167479 0.909405
0.21352 -0.166258 0.908559
0.214408 -0.165093 0.908002
0.215251 -0.163892 0.907246
0.216097 -0.162697 0.906508
0.217008 -0.161557 0.906069
0.217918 -0.160418 0.905633
0.218779 -0.159242 0.904981
0.219655 -0.158079 0.9044
0.220469 -0.156872 0.903554
0.221226 -0.155623 0.902459
0.221973 -0.154372 0.901335
0.222722 -0.153126 0.900229
0.223439 -0.151862 0.898998
0.224235 -0.150659 0.898116
0.225081 -0.149496 0.897455
0.222074 -0.142191 0.872126
0.221344 -0.140011 0.864995
0.221493 -0.138454 0.861609
0.22226 -0.13732 0.860819
0.222999 -0.13617 0.859918
0.223781 -0.135052 0.859208
0.224617 -0.133971 0.85872
0.22546 -0.132896 0.858265
0.22636 -0.131858 0.858047
0.227291 -0.130839 0.857956
0.228237 -0.12983 0.857924
0.229203 -0.128832 0.857969
0.230261 -0.127888 0.858382
0.23144 -0.127013 0.859265
0.232705 -0.126183 0.860481
0.234107 -0.125425 0.862218
0.23539 -0.124594 0.863477
0.236609 -0.123722 0.864472
0.23768 -0.122766 0.864886
0.23867 -0.121764 0.864983
0.239554 -0.120706 0.864674
0.240592 -0.119728 0.864952
0.24164 -0.118755 0.865269
0.24264 -0.117755 0.865396
0.243626 -0.116748 0.865471
0.244637 -0.115752 0.865637
0.245461 -0.114664 0.865106
0.246203 -0.113539 0.864275
0.247 -0.112443 0.863651
0.247797 -0.111348 0.863034
0.248592 -0.110255 0.862415
0.249478 -0.109205 0.86213
0.250421 -0.10818 0.862054
0.251319 -0.107136 0.861815
0.252209 -0.106089 0.861547
0.253078 -0.105034 0.861209
0.253972 -0.103989 0.860959
0.25487 -0.102948 0.860726
0.255786 -0.101914 0.860558
0.256719 -0.100887 0.860451
0.257697 -0.0998781 0.860502
0.258766 -0.0989036 0.860867
0.259951 -0.0979721 0.861632
0.261205 -0.0970633 0.862627
0.262544 -0.0961824 0.863907
0.263992 -0.0953362 0.865548
0.265482 -0.0944989 0.867316
0.267009 -0.0936683 0.869195
0.268579 -0.0928459 0.871205
0.270126 -0.0920088 0.873122
0.271547 -0.0911224 0.874596
0.272946 -0.0902236 0.875985
0.274324 -0.0893129 0.877292
0.275617 -0.0883705 0.878305
0.276871 -0.0874121 0.87918
0.278118 -0.0864486 0.880025
0.279278 -0.0854556 0.880578
0.280366 -0.0844392 0.88089
0.281471 -0.0834264 0.881253
0.282531 -0.0823997 0.881471
0.283575 -0.0813669 0.881631
0.284665 -0.0803463 0.881939
0.285733 -0.0793182 0.882171
0.286798 -0.0782884 0.882394
0.287839 -0.0772512 0.882536
0.288973 -0.076237 0.88297
0.290094 -0.0752177 0.883359
0.29132 -0.0742227 0.884074
0.292529 -0.0732209 0.88473
0.293809 -0.0722334 0.885603
0.295089 -0.0712429 0.886467
0.296404 -0.0702571 0.88743
0.297774 -0.0692801 0.888557
0.299329 -0.0683389 0.890239
0.301053 -0.0674278 0.892427
0.209655 -0.168643 0.909859
0.210566 -0.167494 0.909396
0.211377 -0.166259 0.908469
0.212203 -0.165039 0.907616
0.213094 -0.16388 0.907077
0.21394 -0.162684 0.906336
0.214819 -0.161519 0.905754
0.215761 -0.160407 0.905461
0.216707 -0.1593 0.905192
0.217608 -0.158157 0.904721
0.218537 -0.157038 0.904377
0.219407 -0.155874 0.903776
0.220221 -0.154669 0.902928
0.221012 -0.153451 0.901991
0.221804 -0.152237 0.901065
0.22254 -0.150986 0.899908
0.223339 -0.149785 0.899033
0.224191 -0.148625 0.898391
0.223756 -0.146556 0.892242
0.220894 -0.141123 0.871678
0.220027 -0.138855 0.863937
0.220478 -0.137503 0.861801
0.22124 -0.136367 0.860987
0.221958 -0.135204 0.859998
0.222724 -0.134077 0.859219
0.223526 -0.132975 0.858592
0.224367 -0.131899 0.85813
0.225264 -0.130861 0.857901
0.22616 -0.129821 0.857667
0.22707 -0.128792 0.857496
0.228014 -0.127782 0.857458
0.229017 -0.126808 0.857657
0.230136 -0.125899 0.858313
0.231353 -0.125043 0.85935
0.232723 -0.124269 0.860977
0.23396 -0.123415 0.862071
0.235191 -0.122553 0.863126
0.236263 -0.1216 0.863553
0.23729 -0.120621 0.863806
0.238176 -0.119567 0.86351
0.239213 -0.118591 0.863792
0.240221 -0.1176 0.863965
0.241251 -0.116618 0.864215
0.242219 -0.115604 0.864228
0.243211 -0.114602 0.864332
0.244055 -0.113528 0.86388
0.244835 -0.112424 0.863193
0.24562 -0.111325 0.862531
0.246441 -0.110244 0.862004
0.247256 -0.109163 0.861461
0.248137 -0.108113 0.861163
0.249073 -0.107087 0.861065
0.249967 -0.106044 0.860819
0.25086 -0.105001 0.860568
0.251773 -0.103967 0.860393
0.252711 -0.102943 0.860305
0.253652 -0.101921 0.860228
0.25461 -0.100905 0.860213
0.255606 -0.0999047 0.86033
0.256629 -0.0989138 0.86054
0.257783 -0.0979728 0.861209
0.259052 -0.0970724 0.862271
0.260414 -0.0962027 0.863645
0.261844 -0.0953527 0.865241
0.26338 -0.0945352 0.867188
0.264893 -0.0937027 0.869041
0.266394 -0.0928591 0.870835
0.267916 -0.0920164 0.872684
0.269395 -0.0911525 0.874373
0.270772 -0.0902489 0.875705
0.272128 -0.0893336 0.876952
0.273482 -0.088413 0.878182
0.274754 -0.0874621 0.879128
0.276 -0.0865 0.879983
0.277202 -0.085521 0.880679
0.278335 -0.084519 0.881144
0.279374 -0.0834876 0.881298
0.280429 -0.0824599 0.8815
0.28144 -0.0814189 0.881559
0.282455 -0.0803785 0.881628
0.283541 -0.0793567 0.881924
0.284632 -0.0783352 0.882235
0.285705 -0.0773077 0.882485
0.28675 -0.0762715 0.88264
0.287905 -0.0752625 0.883145
0.289024 -0.0742429 0.883533
0.290252 -0.0732476 0.884257
0.291484 -0.0722509 0.884989
0.292783 -0.0712672 0.885926
0.294035 -0.0702695 0.886707
0.295341 -0.0692809 0.887648
0.296659 -0.0682917 0.888619
0.298182 -0.0673425 0.890211
0.299849 -0.0664181 0.892236
0.209304 -0.166317 0.908693
0.210122 -0.16509 0.907796
0.210963 -0.163887 0.90702
0.211853 -0.162729 0.906479
0.2127 -0.161536 0.905743
0.213595 -0.160386 0.905234
0.214538 -0.159277 0.904951
0.215501 -0.158185 0.904761
0.216421 -0.157059 0.904378
0.217369 -0.155956 0.904122
0.218276 -0.154822 0.903684
0.219142 -0.153659 0.903069
0.219977 -0.152474 0.902322
0.22081 -0.151291 0.901574
0.221587 -0.15007 0.900586
0.222403 -0.148881 0.89978
0.22325 -0.147716 0.899112
0.22289 -0.145702 0.89325
0.220284 -0.140448 0.873654
0.219428 -0.138187 0.865906
0.219797 -0.136778 0.863405
0.220236 -0.135425 0.861226
0.220934 -0.13425 0.860146
0.221651 -0.133091 0.859158
0.222433 -0.131977 0.858449
0.223259 -0.130894 0.857925
0.224137 -0.129844 0.85762
0.225016 -0.128796 0.85732
0.225923 -0.127766 0.857138
0.226849 -0.126747 0.857031
0.227832 -0.125762 0.857155
0.228928 -0.124841 0.857728
0.230089 -0.123955 0.85855
0.231396 -0.123147 0.859945
0.232574 -0.122262 0.860817
0.233777 -0.121387 0.86178
0.234829 -0.120426 0.86214
0.235872 -0.119459 0.862463
0.236777 -0.118418 0.862245
0.237805 -0.117441 0.862506
0.238804 -0.116447 0.862648
0.239858 -0.115481 0.863003
0.240822 -0.114468 0.863009
0.241813 -0.113468 0.863117
0.242674 -0.112405 0.862731
0.243494 -0.111323 0.862199
0.244292 -0.110233 0.861587
0.245144 -0.109169 0.86118
0.245983 -0.108101 0.860728
0.246879 -0.10706 0.860491
0.247793 -0.106027 0.860317
0.248684 -0.104984 0.860064
0.249598 -0.103952 0.859891
0.250554 -0.102937 0.859874
0.251538 -0.101935 0.859957
0.252523 -0.100931 0.860041
0.253541 -0.0999409 0.860242
0.254617 -0.0989724 0.860647
0.255703 -0.0980059 0.861081
0.256942 -0.0970958 0.862048
0.258313 -0.0962322 0.86347
0.259745 -0.095386 0.865094
0.261225 -0.0945512 0.866868
0.262791 -0.0937406 0.868921
0.264282 -0.0928963 0.870701
0.265736 -0.092033 0.872339
0.267208 -0.0911699 0.874024
0.268619 -0.0902799 0.875482
0.269972 -0.089366 0.876736
0.271326 -0.0884479 0.877981
0.27266 -0.0875185 0.879145
0.27391 -0.0865591 0.880022
0.275135 -0.0855885 0.880804
0.276288 -0.0845935 0.881342
0.277369 -0.0835752 0.881639
0.278382 -0.0825357 0.881705
0.279391 -0.0814945 0.881758
0.280377 -0.0804465 0.881735
0.281365 -0.0793986 0.881717
0.282446 -0.0783759 0.882003
0.283517 -0.0773489 0.882249
0.284613 -0.0763276 0.882577
0.285683 -0.0752981 0.882815
0.286861 -0.0742946 0.883398
0.288006 -0.0732808 0.883869
0.289258 -0.0722905 0.884672
0.29049 -0.0712931 0.885409
0.291787 -0.0703076 0.886341
0.293012 -0.069303 0.887043
0.294267 -0.0683022 0.887827
0.295531 -0.067301 0.888638
0.296997 -0.0663388 0.890064
0.298586 -0.0653971 0.891858
0.208146 -0.165232 0.908472
0.208973 -0.164015 0.907618
0.209828 -0.162825 0.906904
0.210704 -0.161656 0.906299
0.211537 -0.160452 0.905495
0.21243 -0.159302 0.904979
0.213352 -0.158178 0.904604
0.214299 -0.157074 0.90434
0.215221 -0.155951 0.903968
0.216187 -0.154864 0.903797
0.217111 -0.153745 0.903439
0.218031 -0.152624 0.903065
0.218905 -0.15147 0.902489
0.219761 -0.150305 0.90184
0.220576 -0.149111 0.901014
0.221395 -0.147924 0.900215
0.222217 -0.146742 0.899438
0.222352 -0.145078 0.895686
0.219147 -0.137733 0.869252
0.219092 -0.136035 0.864922
0.219203 -0.134464 0.861339
0.219897 -0.133287 0.86024
0.220593 -0.132116 0.859158
0.221359 -0.130993 0.858382
0.222169 -0.1299 0.85779
0.22303 -0.128841 0.857416
0.22389 -0.127783 0.857041
0.224795 -0.126752 0.85685
0.225702 -0.125724 0.856673
0.226685 -0.124739 0.856798
0.227765 -0.12381 0.857313
0.228905 -0.122913 0.858063
0.230141 -0.122067 0.859186
0.231274 -0.121158 0.859889
0.232434 -0.120262 0.860693
0.233462 -0.119291 0.860969
0.234505 -0.118326 0.861299
0.235425 -0.117295 0.861149
0.236433 -0.11631 0.861338
0.237438 -0.115323 0.861515
0.238506 -0.114366 0.861931
0.239453 -0.113347 0.86188
0.240448 -0.112352 0.862008
0.241355 -0.111313 0.861805
0.242192 -0.110242 0.861339
0.243013 -0.109165 0.860815
0.243909 -0.108124 0.860577
0.244789 -0.107076 0.860278
0.245687 -0.106037 0.860048
0.2466 -0.105005 0.859878
0.247513 -0.103973 0.859704
0.248446 -0.10295 0.859605
0.249441 -0.101954 0.859734
0.250465 -0.100968 0.859963
0.251511 -0.0999902 0.860271
0.252573 -0.0990172 0.860631
0.253731 -0.0980801 0.861328
0.254882 -0.0971379 0.861995
0.256186 -0.096251 0.863196
0.257604 -0.0954024 0.864787
0.2591 -0.0945766 0.866637
0.260586 -0.0937405 0.868436
0.262136 -0.0929205 0.870439
0.263583 -0.0920575 0.872071
0.264987 -0.0911739 0.87354
0.266409 -0.0902909 0.875058
0.267797 -0.089391 0.876443
0.269129 -0.0884681 0.877629
0.270501 -0.0875535 0.878936
0.271835 -0.0866223 0.880105
0.273061 -0.0856537 0.880903
0.274242 -0.0846681 0.881542
0.275367 -0.0836637 0.881988
0.276401 -0.0826306 0.882127
0.277388 -0.0815833 0.882109
0.278374 -0.0805353 0.882086
0.279339 -0.0794812 0.881993
0.280303 -0.0784271 0.881899
0.281382 -0.0774036 0.882178
0.28245 -0.0763758 0.882418
0.283547 -0.0753546 0.882751
0.284661 -0.0743362 0.883133
0.285863 -0.073338 0.883795
0.287034 -0.0723298 0.884351
0.288288 -0.0713392 0.885167
0.289523 -0.070341 0.885912
0.290794 -0.0693488 0.886769
0.292017 -0.0683427 0.887465
0.293224 -0.0673308 0.888106
0.294459 -0.0663225 0.888828
0.295895 -0.0653531 0.890169
0.297424 -0.0643978 0.891785
0.207878 -0.162986 0.907691
0.208738 -0.161801 0.907
0.209598 -0.160619 0.906315
0.21043 -0.159416 0.905503
0.211306 -0.158253 0.90491
0.212226 -0.157127 0.904521
0.21317 -0.156022 0.904247
0.214089 -0.154898 0.903863
0.215057 -0.153814 0.903705
0.215999 -0.152709 0.903426
0.216938 -0.151604 0.903141
0.217831 -0.150465 0.902648
0.218707 -0.149314 0.902083
0.219557 -0.148147 0.901412
0.220399 -0.146976 0.900707
0.221217 -0.145791 0.899905
0.221729 -0.144394 0.897776
0.221144 -0.142243 0.890912
0.218931 -0.137321 0.872912
0.218486 -0.135357 0.866875
0.218514 -0.13373 0.862912
0.218915 -0.13236 0.86056
0.219591 -0.131177 0.859392
0.220339 -0.130043 0.858535
0.221113 -0.128928 0.857791
0.221958 -0.12786 0.857353
0.222815 -0.1268 0.856965
0.223719 -0.12577 0.856773
0.224612 -0.124734 0.856534
0.225595 -0.12375 0.856664
0.226656 -0.122812 0.857112
0.227777 -0.121904 0.857791
0.228972 -0.121035 0.858759
0.23008 -0.120114 0.85937
0.231198 -0.119196 0.860016
0.232221 -0.118224 0.86028
0.233264 -0.117261 0.860617
0.234205 -0.116243 0.860552
0.235211 -0.115259 0.860742
0.236218 -0.114274 0.860932
0.237288 -0.113319 0.861361
0.238206 -0.112288 0.861202
0.239182 -0.111285 0.861265
0.240104 -0.110256 0.861124
0.240974 -0.109202 0.860782
0.241813 -0.108135 0.86033
0.242764 -0.107121 0.860301
0.243681 -0.106091 0.860143
0.244598 -0.105061 0.859986
0.245513 -0.104031 0.859823
0.246428 -0.103001 0.859658
0.247361 -0.101979 0.859563
0.248375 -0.10099 0.859761
0.249417 -0.100012 0.860059
0.250504 -0.0990508 0.860516
0.251609 -0.0980946 0.861033
0.252812 -0.0971746 0.861895
0.25403 -0.0962572 0.862805
0.25542 -0.0954007 0.864313
0.256888 -0.0945681 0.866085
0.258443 -0.0937612 0.868152
0.259947 -0.0929281 0.870017
0.261465 -0.0920933 0.871916
0.262844 -0.0912033 0.873313
0.2642 -0.0903002 0.874617
0.265558 -0.0893932 0.875917
0.266924 -0.0884841 0.877233
0.268257 -0.0875596 0.878425
0.269631 -0.0866442 0.879748
0.270964 -0.0857107 0.880916
0.272189 -0.0847402 0.881713
0.273363 -0.0837513 0.882329
0.274444 -0.0827323 0.882625
0.275474 -0.0816973 0.882751
0.276439 -0.0806434 0.88266
0.277403 -0.0795888 0.882564
0.278345 -0.0785284 0.882397
0.279308 -0.0774738 0.882298
0.280343 -0.0764382 0.882435
0.281386 -0.075404 0.882597
0.28248 -0.0743818 0.882921
0.283615 -0.0733682 0.883372
0.284823 -0.072371 0.884058
0.286043 -0.0713739 0.884773
0.28732 -0.0703878 0.885667
0.288552 -0.0693881 0.886408
0.289822 -0.0683943 0.887263
0.291044 -0.067387 0.887959
0.292203 -0.0663641 0.888452
0.293434 -0.0653541 0.889164
0.294836 -0.0643765 0.890406
0.296288 -0.0634045 0.89179
0.206818 -0.161987 0.907924
0.207697 -0.160819 0.90732
0.208562 -0.159642 0.906659
