ply
format ascii 1.0
element vertex 1580
property float x
property float y
property float z
end_header
-0.0372096 -0.000161422 0.794792
-0.0375143 -0.0015665 0.796341
-0.0378176 -0.00297612 0.797712
-0.0381167 -0.00438957 0.798817
-0.0384167 -0.00580573 0.79985
-0.0387181 -0.00722564 0.800974
-0.0390171 -0.00864807 0.801951
-0.039319 -0.0100739 0.803004
-0.039617 -0.0115 0.803791
-0.0413448 -0.01264 0.805318
-0.0399216 -0.0129333 0.804972
-0.0194326 0.0801063 0.778974
-0.0197148 0.0786844 0.778727
-0.0199985 0.0772332 0.77816
-0.0202854 0.0757258 0.776964
-0.0205751 0.0741601 0.775082
-0.0208656 0.0725632 0.77278
-0.0211555 0.0709526 0.770233
-0.0214426 0.0693735 0.76795
-0.0217267 0.067833 0.766029
-0.0220078 0.066335 0.764539
-0.0222865 0.0648789 0.763499
-0.0225632 0.0634568 0.76284
-0.0228386 0.0620633 0.762515
-0.0231127 0.0607088 0.762681
-0.0233863 0.0593742 0.763116
-0.02366 0.0580386 0.763554
-0.0239341 0.0566996 0.763959
-0.0242084 0.0553473 0.764192
-0.024483 0.0539796 0.764205
-0.0247578 0.0526125 0.764222
-0.0250322 0.0512548 0.764382
-0.0253068 0.0498738 0.764175
-0.025581 0.0484915 0.763932
-0.025855 0.0471133 0.763739
-0.0261291 0.045738 0.76358
-0.026403 0.0443705 0.763545
-0.0266777 0.0430249 0.7639
-0.0269523 0.0416738 0.764168
-0.0272269 0.0403171 0.76434
-0.0275019 0.0389661 0.764633
-0.027777 0.0376159 0.764953
-0.0280531 0.0362732 0.765453
-0.0283311 0.0349507 0.766429
-0.028611 0.0336356 0.767647
-0.0288924 0.0323244 0.769042
-0.0291747 0.0310089 0.77044
-0.0294578 0.0296881 0.771813
-0.0297393 0.028349 0.772802
-0.0300224 0.027011 0.773908
-0.0303061 0.0256706 0.775043
-0.0305925 0.0243357 0.776455
-0.0308796 0.0229952 0.777827
-0.0311672 0.0216495 0.779169
-0.0314546 0.0202964 0.780387
-0.0317403 0.0189316 0.781287
-0.0320252 0.0175608 0.782049
-0.0323096 0.0161844 0.782658
-0.0325944 0.0148073 0.783314
-0.0328776 0.0134239 0.783731
-0.0331631 0.0120433 0.784372
-0.0334485 0.0106602 0.784978
-0.0337352 0.00927662 0.785662
-0.0340213 0.00788991 0.786259
-0.0343074 0.00650132 0.78683
-0.034594 0.00511119 0.787405
-0.0348821 0.00372032 0.788097
-0.0351766 0.00233028 0.78929
-0.0354764 0.000938008 0.790844
-0.0357773 -0.000459 0.792418
-0.03608 -0.00186079 0.794047
-0.0363811 -0.00326749 0.795481
-0.0366798 -0.00467803 0.796679
-0.0369792 -0.00609214 0.797882
-0.037281 -0.00751047 0.799182
-0.0375813 -0.00893173 0.800343
-0.0378844 -0.0103577 0.801641
-0.0381858 -0.0117858 0.802767
-0.0384915 -0.0132202 0.804133
-0.0180393 0.0798918 0.779592
-0.0183229 0.0784606 0.77926
-0.0186078 0.0770111 0.77872
-0.0188968 0.0755074 0.77757
-0.019191 0.0739266 0.775532
-0.0194866 0.0723143 0.773059
-0.0197817 0.0706962 0.770425
-0.0200733 0.0691092 0.768047
-0.0203611 0.0675626 0.766052
-0.0206449 0.0660651 0.764565
-0.0209251 0.0646158 0.763608
-0.0212029 0.0632006 0.763036
-0.0214794 0.061801 0.762638
-0.0217531 0.0604512 0.762871
-0.0220262 0.059115 0.763295
-0.0222994 0.0577791 0.763738
-0.0225731 0.0564393 0.764143
-0.0228475 0.055086 0.764367
-0.0231225 0.053712 0.764295
-0.0233975 0.052339 0.764228
-0.0236721 0.0509716 0.764241
-0.0239473 0.0495814 0.763887
-0.0242222 0.0481947 0.763566
-0.0244967 0.0468125 0.763299
-0.0247709 0.045438 0.763143
-0.025045 0.0440757 0.763191
-0.0253193 0.0427342 0.763617
-0.0255936 0.0413912 0.764035
-0.0258681 0.0400423 0.76436
-0.0261428 0.0386917 0.764666
-0.0264178 0.037341 0.764985
-0.026693 0.0359938 0.765396
-0.0269691 0.0346598 0.766124
-0.0272464 0.0333336 0.767086
-0.0275251 0.032018 0.768373
-0.0278047 0.0306998 0.76969
-0.0280859 0.0293834 0.77116
-0.0283666 0.0280508 0.772315
-0.0286489 0.0267217 0.77367
-0.0289317 0.0253867 0.774971
-0.0292164 0.0240539 0.776471
-0.0295013 0.0227126 0.777843
-0.0297868 0.0213662 0.779178
-0.0300716 0.0200082 0.780237
-0.0303549 0.0186391 0.780977
-0.0306377 0.0172645 0.781572
-0.0309197 0.0158848 0.782009
-0.0312018 0.0145034 0.78242
-0.0314828 0.0131179 0.782664
-0.0317652 0.0117346 0.783061
-0.0320471 0.0103493 0.783408
-0.0323301 0.0089645 0.783841
-0.0326133 0.00757826 0.784261
-0.0328971 0.00619165 0.784739
-0.0331814 0.00480384 0.785228
-0.0334685 0.00341653 0.785984
-0.0337615 0.00202967 0.787249
-0.034059 0.000640333 0.788875
-0.0343568 -0.000754214 0.790447
-0.0346572 -0.00215357 0.792149
-0.0349564 -0.00355801 0.793659
-0.0352537 -0.00496631 0.794946
-0.0355521 -0.0063786 0.79624
-0.0358533 -0.00779594 0.797706
-0.0361536 -0.0092167 0.799031
-0.0364556 -0.0106421 0.800422
-0.0367564 -0.0120699 0.801653
-0.0370612 -0.0135046 0.803119
-0.0388026 -0.0146629 0.805785
-0.0373695 -0.0149464 0.804779
-0.0169182 0.0783428 0.780905
-0.0172074 0.0768637 0.780079
-0.0174995 0.0753507 0.778853
-0.017803 0.0737126 0.7762
-0.0181038 0.0720938 0.773661
-0.0184036 0.0704737 0.771008
-0.0186999 0.0688833 0.768594
-0.0189921 0.0673287 0.766507
-0.0192797 0.0658191 0.76488
-0.0195607 0.0643819 0.764078
-0.0198392 0.0629727 0.763593
-0.0201165 0.0615737 0.763215
-0.0203898 0.0602285 0.763527
-0.020663 0.0588857 0.763881
-0.0209364 0.057543 0.764247
-0.0212101 0.0561964 0.764573
-0.0214846 0.054836 0.76471
-0.0217605 0.0534556 0.764554
-0.0220362 0.0520765 0.764403
-0.0223113 0.0507032 0.764331
-0.0225875 0.0493075 0.763894
-0.0228633 0.047916 0.763497
-0.0231386 0.0465296 0.763157
-0.0234132 0.0451545 0.762991
-0.0236874 0.0437873 0.762951
-0.0239613 0.0424412 0.76329
-0.0242351 0.0410983 0.763706
-0.0245092 0.0397501 0.764039
-0.0247835 0.0383971 0.764294
-0.0250579 0.0370468 0.764614
-0.0253324 0.0356992 0.76501
-0.0256073 0.0343544 0.765492
-0.0258827 0.0330215 0.766282
-0.0261592 0.031703 0.767481
-0.0264367 0.0303853 0.768791
-0.0267154 0.0290734 0.770362
-0.0269949 0.0277531 0.771836
-0.0272758 0.0264331 0.773449
-0.0275571 0.0251033 0.774919
-0.0278395 0.0237699 0.776419
-0.0281223 0.0224275 0.777772
-0.0284055 0.0210781 0.779021
-0.0286879 0.0197158 0.779925
-0.0289697 0.0183447 0.780581
-0.029251 0.016968 0.781079
-0.0295315 0.0155851 0.781347
-0.029812 0.0142015 0.781601
-0.0300919 0.0128154 0.781752
-0.0303724 0.0114306 0.781993
-0.0306526 0.0100444 0.782176
-0.0309337 0.00865913 0.78245
-0.0312147 0.00727294 0.782706
-0.0314969 0.00588777 0.783105
-0.0317794 0.00450169 0.783522
-0.0320656 0.00311705 0.784346
-0.0323558 0.00173223 0.785598
-0.0326509 0.000345009 0.787285
-0.0329451 -0.00104773 0.788777
-0.033243 -0.00244519 0.790546
-0.0335393 -0.00384758 0.792064
-0.0338352 -0.00525431 0.793429
-0.034132 -0.00666515 0.794813
-0.0344314 -0.00808138 0.796355
-0.0347302 -0.00950118 0.797755
-0.0350317 -0.0109268 0.799307
-0.0353321 -0.0123552 0.800698
-0.0356345 -0.0137892 0.80218
-0.0359411 -0.0152314 0.803919
-0.0376808 -0.0163954 0.806561
-0.0362491 -0.0166798 0.805691
-0.0154957 0.078325 0.783612
-0.0157937 0.0767867 0.7822
-0.0160914 0.0752468 0.780719
-0.0163982 0.0736239 0.77826
-0.0167086 0.0719611 0.775257
-0.0170163 0.0703146 0.772324
-0.0173173 0.0687209 0.76989
-0.0176145 0.067155 0.767689
-0.0179069 0.065629 0.765882
-0.018192 0.064168 0.764804
-0.0184711 0.062764 0.7644
-0.01875 0.061359 0.763963
-0.0190233 0.0600123 0.764274
-0.0192968 0.0586624 0.764554
-0.0195704 0.0573125 0.764841
-0.0198449 0.0559543 0.765019
-0.0201197 0.0545924 0.765149
-0.0203966 0.0532056 0.76491
-0.0206736 0.0518155 0.764604
-0.0209497 0.050436 0.764442
-0.0212273 0.0490344 0.763914
-0.0215042 0.0476377 0.763433
-0.0217805 0.0462464 0.76301
-0.0220559 0.0448669 0.762766
-0.0223306 0.043495 0.762637
-0.0226041 0.0421442 0.762886
-0.0228776 0.0407968 0.763211
-0.0231512 0.0394491 0.763543
-0.0234249 0.038101 0.763884
-0.0236987 0.0367513 0.764211
-0.0239728 0.0354039 0.764605
-0.0242471 0.0340557 0.765004
-0.0245212 0.0327165 0.765639
-0.0247958 0.0313951 0.766752
-0.025071 0.0300785 0.768076
-0.0253471 0.0287701 0.76973
-0.0256244 0.0274565 0.771382
-0.0259028 0.0261423 0.773167
-0.0261818 0.0248129 0.774655
-0.0264619 0.023479 0.776148
-0.0267423 0.0221335 0.777403
-0.0270233 0.0207813 0.778552
-0.0273039 0.0194154 0.779306
-0.0275843 0.0180429 0.779879
-0.0278646 0.0166651 0.780289
-0.0281442 0.0152813 0.780466
-0.0284238 0.0138971 0.780635
-0.028703 0.0125112 0.78072
-0.0289827 0.0111265 0.780881
-0.0292621 0.00974066 0.780979
-0.0295423 0.00835684 0.781235
-0.0298227 0.00697235 0.781491
-0.030104 0.00558894 0.781903
-0.0303862 0.00420509 0.782398
-0.0306713 0.00282247 0.783307
-0.0309594 0.00143865 0.784561
-0.031251 5.22231e-05 0.786175
-0.0315432 -0.00133945 0.787726
-0.0318379 -0.00273587 0.78949
-0.0321317 -0.00413734 0.791006
-0.0324252 -0.005543 0.792375
-0.0327195 -0.00695278 0.793755
-0.0330161 -0.0083679 0.795288
-0.0333125 -0.00978661 0.796683
-0.0336113 -0.0112112 0.798234
-0.0339092 -0.0126387 0.799627
-0.034209 -0.0140714 0.8011
-0.0345116 -0.0155113 0.802738
-0.0348163 -0.0169582 0.804497
-0.0140103 0.0787004 0.790474
-0.0143408 0.076944 0.786847
-0.0146581 0.0752824 0.78412
-0.0149752 0.0736155 0.781229
-0.0152946 0.071927 0.777982
-0.0156054 0.0702979 0.775293
-0.0159134 0.0686859 0.772694
-0.0162184 0.0670932 0.770221
-0.0165193 0.0655277 0.767978
-0.0168112 0.0640293 0.766475
-0.0170939 0.0626046 0.765843
-0.0173737 0.0612024 0.765475
-0.0176476 0.0598481 0.765722
-0.0179221 0.0584891 0.765914
-0.0181973 0.0571245 0.766032
-0.018474 0.0557465 0.76596
-0.0187514 0.0543628 0.765797
-0.0190301 0.0529651 0.765413
-0.0193085 0.0515691 0.765032
-0.0195861 0.0501788 0.764716
-0.0198659 0.0487663 0.764019
-0.0201443 0.047364 0.763447
-0.0204223 0.0459636 0.76287
-0.0206995 0.0445719 0.762408
-0.0209749 0.0431955 0.762191
-0.0212485 0.0418404 0.762353
-0.0215218 0.0404895 0.762597
-0.0217948 0.0391424 0.762928
-0.0220675 0.0378012 0.7634
-0.0223408 0.0364525 0.763737
-0.0226142 0.0351061 0.764142
-0.0228876 0.0337616 0.764614
-0.0231608 0.032423 0.765257
-0.0234338 0.0310986 0.766297
-0.0237067 0.0297848 0.767692
-0.0239802 0.0284763 0.769344
-0.0242548 0.027163 0.771007
-0.0245302 0.0258513 0.772873
-0.0248071 0.0245219 0.774369
-0.0250846 0.0231829 0.7757
-0.025363 0.0218346 0.776854
-0.025642 0.02048 0.777906
-0.0259212 0.019109 0.778434
-0.0262004 0.0177339 0.778858
-0.0264797 0.0163555 0.779178
-0.0267587 0.014973 0.779341
-0.0270377 0.013589 0.779439
-0.0273169 0.0122062 0.779607
-0.0275961 0.0108231 0.77977
-0.0278753 0.00943975 0.779933
-0.028155 0.00805732 0.780181
-0.0284351 0.00667515 0.780513
-0.0287161 0.0052938 0.781013
-0.0289977 0.00391173 0.781604
-0.0292815 0.00252991 0.782524
-0.0295674 0.00114682 0.783778
-0.0298559 -0.000239379 0.785313
-0.0301449 -0.00163036 0.78679
-0.0304365 -0.00302613 0.788548
-0.0307282 -0.00442693 0.790132
-0.0310194 -0.0058318 0.791501
-0.0313113 -0.00724082 0.79287
-0.0316059 -0.00865572 0.794473
-0.0318998 -0.0100738 0.795862
-0.0321952 -0.0114968 0.797333
-0.0324909 -0.0129235 0.798719
-0.0327879 -0.0143552 0.800174
-0.0330868 -0.0157928 0.801721
-0.0333885 -0.0172386 0.803467
-0.0351217 -0.0184096 0.806201
-0.0336916 -0.0186905 0.805247
-0.0128761 0.0770738 0.791231
-0.0132113 0.0753262 0.787635
-0.0135421 0.0736047 0.784192
-0.0138705 0.071896 0.780762
-0.0141836 0.0702853 0.778332
-0.0144957 0.0686783 0.775846
-0.0148087 0.0670625 0.773148
-0.0151172 0.0654728 0.770661
-0.0154173 0.0639398 0.768776
-0.0157056 0.0624851 0.76781
-0.0159893 0.0610618 0.767208
-0.0162652 0.0596927 0.767302
-0.0165427 0.0583129 0.767248
-0.0168208 0.0569277 0.767112
-0.0171 0.0555352 0.766862
-0.0173803 0.054133 0.766453
-0.0176614 0.0527238 0.765913
-0.0179415 0.0513216 0.765449
-0.0182212 0.0499208 0.76498
-0.0185036 0.0484985 0.764128
-0.018784 0.0470905 0.763467
-0.0190638 0.0456851 0.762805
-0.0193428 0.044285 0.762193
-0.0196197 0.0429006 0.761826
-0.0198936 0.0415413 0.761902
-0.020167 0.0401866 0.762065
-0.0204399 0.0388364 0.762324
-0.0207114 0.0374999 0.762876
-0.0209835 0.0361591 0.763371
-0.0212558 0.0348168 0.763862
-0.0215283 0.0334761 0.76442
-0.0218002 0.0321402 0.765131
-0.0220719 0.0308125 0.766097
-0.0223427 0.029498 0.767482
-0.0226138 0.0281861 0.769051
-0.0228858 0.026872 0.7707
-0.0231585 0.0255573 0.772483
-0.023433 0.0242248 0.773885
-0.0237089 0.0228787 0.77498
-0.0239855 0.0215282 0.776032
-0.0242628 0.0201702 0.776929
-0.024541 0.0187964 0.777299
-0.0248194 0.0174208 0.777639
-0.0250979 0.016042 0.777868
-0.0253765 0.0146612 0.778022
-0.0256551 0.0132794 0.778126
-0.0259338 0.0119001 0.778387
-0.0262125 0.0105189 0.778564
-0.0264915 0.00913826 0.778796
-0.0267704 0.00775727 0.779035
-0.02705 0.00637757 0.779452
-0.0273303 0.00499842 0.780054
-0.0276115 0.0036187 0.780813
-0.0278941 0.00223848 0.781877
-0.028178 0.000855866 0.783134
-0.0284634 -0.000530153 0.784582
-0.0287501 -0.00192076 0.78605
-0.0290388 -0.00331606 0.787797
-0.0293275 -0.00471613 0.78932
-0.0296166 -0.0061207 0.790765
-0.0299062 -0.00752911 0.792128
-0.0301978 -0.00894296 0.793647
-0.0304893 -0.0103602 0.795025
-0.0307827 -0.0117835 0.796574
-0.0310754 -0.0132086 0.797888
-0.03137 -0.0146395 0.799329
-0.031666 -0.0160763 0.800859
-0.0319648 -0.0175213 0.802594
-0.0322649 -0.0189727 0.80438
-0.0339975 -0.0201512 0.807185
-0.0325677 -0.020433 0.806328
-0.0110494 0.0789745 0.799294
-0.0114113 0.0771119 0.794659
-0.0117607 0.0753204 0.790633
-0.0121035 0.0735644 0.78685
-0.0124377 0.0718565 0.783469
-0.0127533 0.070258 0.781224
-0.0130684 0.0686602 0.778897
-0.0133862 0.0670453 0.776266
-0.0137022 0.0654387 0.773625
-0.0140112 0.0638722 0.771376
-0.0143058 0.0623916 0.77013
-0.0145945 0.0609458 0.769285
-0.014875 0.0595499 0.769066
-0.0151562 0.0581492 0.768769
-0.0154383 0.0567421 0.768363
-0.015723 0.0553197 0.767714
-0.0160072 0.0538989 0.767051
-0.0162914 0.0524769 0.766333
-0.016575 0.0510587 0.765634
-0.0168573 0.0496482 0.765014
-0.0171414 0.0482255 0.764157
-0.0174238 0.0468124 0.763409
-0.0177056 0.0454027 0.762673
-0.0179858 0.0440019 0.762044
-0.0182636 0.0426171 0.761668
-0.0185376 0.0412572 0.761731
-0.0188113 0.0398993 0.761831
-0.0190845 0.0385457 0.762018
-0.0193549 0.0372096 0.762577
-0.0196264 0.0358692 0.763078
-0.0198979 0.034528 0.763589
-0.0201685 0.033194 0.764304
-0.0204388 0.0318641 0.765164
-0.0207088 0.0305361 0.766139
-0.0209778 0.0292203 0.767508
-0.0212469 0.0279042 0.768985
-0.0215167 0.026586 0.770534
-0.0217876 0.0252627 0.772074
-0.0220605 0.0239251 0.773312
-0.0223351 0.0225742 0.774235
-0.0226103 0.0212196 0.775119
-0.0228867 0.0198563 0.775777
-0.0231643 0.0184818 0.776058
-0.0234421 0.017106 0.776316
-0.0237202 0.0157272 0.776453
-0.0239981 0.0143485 0.776605
-0.0242763 0.0129688 0.776713
-0.0245542 0.0115931 0.777071
-0.0248324 0.0102152 0.777335
-0.0251108 0.00883738 0.777653
-0.0253893 0.00745959 0.778039
-0.0256682 0.00608296 0.778625
-0.0259475 0.00470557 0.779315
-0.0262275 0.00332723 0.78017
-0.0265083 0.00194753 0.781234
-0.02679 0.000564857 0.782391
-0.0270729 -0.000820841 0.783738
-0.0273566 -0.00221065 0.785119
-0.0276421 -0.00360515 0.786799
-0.0279282 -0.0050044 0.788317
-0.0282152 -0.00640832 0.789842
-0.0285025 -0.00781599 0.791217
-0.0287914 -0.00922902 0.792728
-0.0290805 -0.0106454 0.794106
-0.0293713 -0.0120679 0.795649
-0.0296613 -0.013491 0.796883
-0.0299535 -0.0149213 0.798335
-0.030247 -0.016357 0.799865
-0.0305426 -0.0178013 0.801599
-0.0308399 -0.0192518 0.803386
-0.0311398 -0.020713 0.805408
-0.0100178 0.0842333 0.808939
-0.0097108 0.0857702 0.809798
-0.00828701 0.0853864 0.808816
-0.00859229 0.083867 0.808116
-0.0103329 0.0826487 0.80756
-0.00890447 0.0823115 0.807019
-0.010678 0.0808899 0.804315
-0.00923177 0.080676 0.805045
-0.00959687 0.0788406 0.800871
-0.00996129 0.0770075 0.796569
-0.0103179 0.0752152 0.792557
-0.0106631 0.0734821 0.789057
-0.011005 0.0717654 0.785607
-0.0113238 0.0701713 0.783448
-0.011642 0.0685792 0.781225
-0.0119624 0.0669754 0.778766
-0.0122812 0.0653789 0.776296
-0.0125986 0.0637902 0.773814
-0.0128997 0.0622867 0.772323
-0.0131935 0.0608228 0.771285
-0.0134799 0.0593979 0.770722
-0.0137657 0.0579763 0.770176
-0.0140523 0.0565501 0.769535
-0.0143426 0.0551039 0.768569
-0.0146325 0.0536589 0.76757
-0.0149216 0.0522187 0.766589
-0.0152095 0.0507846 0.765647
-0.0154948 0.0493644 0.764873
-0.0157803 0.047942 0.764016
-0.0160642 0.0465292 0.763269
-0.0163474 0.0451198 0.762532
-0.0166288 0.0437192 0.761904
-0.0169074 0.0423345 0.761524
-0.0171813 0.0409746 0.761587
-0.0174552 0.0396163 0.761679
-0.017728 0.0382627 0.761869
-0.0179979 0.0369264 0.762426
-0.0182679 0.0355892 0.762998
-0.0185388 0.034248 0.763516
-0.0188078 0.0329172 0.764313
-0.0190761 0.0315904 0.765261
-0.0193444 0.0302649 0.766314
-0.0196117 0.0289456 0.767618
-0.0198793 0.0276254 0.769006
-0.0201477 0.0263006 0.770388
-0.0204175 0.0249688 0.771683
-0.0206895 0.0236239 0.772682
-0.0209639 0.0222661 0.773355
-0.0212384 0.0209077 0.774068
-0.0215145 0.0195393 0.774483
-0.021792 0.0181627 0.774607
-0.0220696 0.0167853 0.774699
-0.0223473 0.0154072 0.774755
-0.022625 0.0140295 0.774832
-0.0229024 0.0126537 0.775013
-0.0231793 0.0112819 0.775452
-0.0234565 0.00990768 0.775807
-0.0237338 0.00853331 0.776216
-0.0240112 0.00715946 0.776764
-0.0242888 0.00578595 0.777503
-0.0245668 0.00441076 0.778294
-0.0248452 0.00303415 0.779234
-0.0251241 0.00165579 0.780365
-0.0254038 0.000273957 0.781501
-0.0256842 -0.00111127 0.782684
-0.0259657 -0.00250006 0.784035
-0.0262482 -0.00389354 0.785705
-0.0265318 -0.005292 0.787309
-0.0268163 -0.00669543 0.788926
-0.0271015 -0.0081028 0.790377
-0.0273881 -0.00951588 0.791973
-0.0276748 -0.0109316 0.793338
-0.0279627 -0.0123526 0.794799
-0.0282503 -0.013774 0.79596
-0.02854 -0.0152033 0.797411
-0.0288305 -0.0166372 0.798867
-0.0291233 -0.0180806 0.800603
-0.0294178 -0.0195319 0.802465
-0.0297147 -0.0209941 0.804568
-0.0314391 -0.0221746 0.807177
-0.0300116 -0.0224571 0.806419
-0.00656217 0.086509 0.80839
-0.00686084 0.0850283 0.808084
-0.00716636 0.0835144 0.807427
-0.00747973 0.0819623 0.806353
-0.00781106 0.0803247 0.804339
-0.00817436 0.0785335 0.800613
-0.00853648 0.0767478 0.796808
-0.00889488 0.0749805 0.793066
-0.00924681 0.0732452 0.789537
-0.00958612 0.0715705 0.786569
-0.00990176 0.0700096 0.784812
-0.010224 0.0684172 0.782606
-0.010547 0.0668219 0.780273
-0.0108671 0.0652405 0.778012
-0.0111849 0.06367 0.77579
-0.0114918 0.0621521 0.774151
-0.0117899 0.0606768 0.773
-0.0120808 0.059236 0.772261
-0.012372 0.0577938 0.771465
-0.0126638 0.0563491 0.770591
-0.0129606 0.05488 0.769318
-0.0132573 0.0534123 0.767997
-0.0135519 0.051954 0.766748
-0.013843 0.0505133 0.765705
-0.0141307 0.0490885 0.764858
-0.0144177 0.0476666 0.764007
-0.0147028 0.0462545 0.76327
-0.0149874 0.0448449 0.762531
-0.0152708 0.043441 0.761842
-0.0155509 0.0420529 0.761399
-0.0158249 0.0406935 0.761472
-0.0160986 0.0393351 0.761563
-0.0163723 0.0379773 0.761669
-0.0166415 0.0366401 0.762207
-0.0169109 0.0353024 0.762771
-0.017181 0.0339612 0.763289
-0.017448 0.0326337 0.764164
-0.0177136 0.031313 0.765269
-0.0179795 0.0299906 0.766418
-0.0182446 0.0286712 0.76774
-0.0185109 0.0273471 0.769044
-0.0187785 0.026016 0.770261
-0.0190481 0.0246759 0.771311
-0.0193201 0.0233235 0.77207
-0.0195949 0.0219593 0.772501
-0.0198692 0.0205971 0.773044
-0.0201455 0.0192256 0.773283
-0.0204232 0.0178483 0.773309
-0.0207008 0.016471 0.773319
-0.0209782 0.015095 0.773384
-0.0212552 0.0137207 0.773526
-0.0215316 0.0123482 0.773785
-0.0218074 0.010979 0.774292
-0.0220835 0.00960769 0.774732
-0.0223596 0.00823669 0.7753
-0.022636 0.00686421 0.775871
-0.0229119 0.00549257 0.776691
-0.0231884 0.00411877 0.777562
-0.0234651 0.00274287 0.778498
-0.0237423 0.00136476 0.779565
-0.02402 -1.63109e-05 0.78069
-0.0242986 -0.00140091 0.781782
-0.0245776 -0.00278885 0.78306
-0.0248574 -0.00418147 0.78472
-0.0251382 -0.0055793 0.786391
-0.02542 -0.00698213 0.788019
-0.0257028 -0.00838939 0.789564
-0.0259866 -0.00980189 0.791168
-0.0262711 -0.0112169 0.792524
-0.0265565 -0.0126371 0.793973
-0.0268424 -0.0140585 0.795189
-0.0271295 -0.0154874 0.796642
-0.0274178 -0.0169219 0.798175
-0.0277077 -0.0183649 0.799909
-0.0279991 -0.0198158 0.801762
-0.0282923 -0.0212762 0.803791
-0.028586 -0.0227388 0.805641
-0.00484855 0.0875841 0.807511
-0.00514406 0.0861203 0.807366
-0.00544536 0.0846309 0.806955
-0.00575081 0.0831234 0.806345
-0.00606851 0.0815618 0.805151
-0.00640638 0.0799115 0.802979
-0.00677087 0.0781441 0.799473
-0.00713556 0.0763772 0.795842
-0.00749735 0.0746246 0.792231
-0.00785076 0.0729097 0.78891
-0.0081885 0.0712647 0.786262
-0.00850754 0.0697035 0.784492
-0.00882962 0.0681296 0.782494
-0.00915156 0.0665569 0.780427
-0.00946915 0.0650035 0.778513
-0.00978488 0.0634596 0.776635
-0.0100934 0.0619475 0.775084
-0.0103966 0.0604593 0.77378
-0.0106908 0.0590096 0.772937
-0.0109851 0.0575605 0.77206
-0.011281 0.0561049 0.771044
-0.011582 0.0546287 0.769673
-0.0118814 0.0531586 0.768323
-0.0121811 0.051689 0.766906
-0.0124764 0.0502386 0.765712
-0.0127658 0.0488138 0.764864
-0.0130533 0.0473967 0.764092
-0.0133406 0.0459809 0.763295
-0.0136268 0.0445713 0.762552
-0.0139107 0.0431709 0.761928
-0.0141916 0.0417828 0.761489
-0.0144655 0.0404236 0.761574
-0.0147384 0.0390686 0.761741
-0.0150113 0.0377136 0.761913
-0.0152809 0.0363716 0.76237
-0.0155506 0.0350296 0.76285
-0.0158209 0.0336841 0.763283
-0.0160875 0.0323533 0.764089
-0.0163513 0.0310325 0.765203
-0.0166146 0.029713 0.766441
-0.0168776 0.0283935 0.767778
-0.0171418 0.027069 0.769089
-0.0174086 0.0257339 0.770209
-0.0176787 0.0243853 0.771013
-0.0179518 0.0230254 0.771523
-0.0182279 0.0216549 0.771715
-0.0185029 0.0202871 0.772018
-0.0187801 0.0189126 0.772086
-0.0190575 0.017537 0.772104
-0.0193355 0.0161596 0.772038
-0.019612 0.0147873 0.77218
-0.0198884 0.0134147 0.772331
-0.0201643 0.012044 0.772594
-0.020439 0.0106764 0.773099
-0.0207135 0.00930878 0.77369
-0.0209883 0.00793924 0.774268
-0.0212629 0.00656963 0.774992
-0.0215368 0.00520029 0.775961
-0.0218116 0.00382778 0.776906
-0.0220868 0.00245254 0.777851
-0.0223622 0.0010749 0.778905
-0.0226382 -0.000305911 0.779959
-0.0229151 -0.00168993 0.780977
-0.0231921 -0.00307714 0.782179
-0.0234692 -0.00446892 0.783756
-0.0237472 -0.00586598 0.785434
-0.0240261 -0.00726838 0.787134
-0.0243063 -0.00867554 0.788766
-0.0245873 -0.0100875 0.790375
-0.0248695 -0.0115019 0.791728
-0.0251526 -0.0129212 0.793158
-0.0254362 -0.0143408 0.794289
-0.025721 -0.0157687 0.795733
-0.0260067 -0.017204 0.797346
-0.0262937 -0.0186463 0.799079
-0.026582 -0.0200965 0.800925
-0.0268718 -0.0215579 0.803017
-0.0271625 -0.0230201 0.804868
-0.0288798 -0.0242006 0.807234
-0.0274536 -0.0244816 0.80647
-0.00312678 0.0887019 0.807055
-0.00342295 0.0872373 0.806901
-0.00372297 0.0857565 0.80658
-0.00403317 0.0842345 0.805831
-0.00434447 0.0827082 0.80501
-0.00467021 0.0811229 0.803545
-0.00501854 0.0794461 0.801059
-0.0053835 0.0777027 0.797767
-0.00574817 0.0759629 0.79439
-0.00610931 0.0742391 0.791064
-0.0064615 0.0725534 0.788041
-0.00679687 0.0709381 0.785712
-0.00711878 0.0693782 0.783942
-0.0074424 0.067812 0.782021
-0.00776319 0.0662591 0.780184
-0.00808072 0.0647202 0.77844
-0.00839508 0.0631952 0.776796
-0.00870469 0.0616898 0.775334
-0.00900871 0.0602073 0.774109
-0.00930581 0.058753 0.773209
-0.00960189 0.0573032 0.772326
-0.00989862 0.0558517 0.771373
-0.0102008 0.0543802 0.770077
-0.0105028 0.0529102 0.768734
-0.0108051 0.0514402 0.767316
-0.0111039 0.0499847 0.76605
-0.0113962 0.0485548 0.765127
-0.0116863 0.0471335 0.764291
-0.0119753 0.0457174 0.763493
-0.0122629 0.0443071 0.762744
-0.0125472 0.0429094 0.762175
-0.0128283 0.0415242 0.761799
-0.0131022 0.0401648 0.761894
-0.013375 0.0388096 0.762073
-0.0136479 0.037454 0.76225
-0.0139179 0.0361079 0.762634
-0.0141891 0.0347581 0.762963
-0.0144599 0.0334085 0.763314
-0.0147265 0.0320734 0.764029
-0.0149889 0.0307517 0.765135
-0.0152493 0.029435 0.766453
-0.0155111 0.0281125 0.767729
-0.0157741 0.0267848 0.768965
-0.0160402 0.0254461 0.769987
-0.0163116 0.0240897 0.770551
-0.0165864 0.0227227 0.770812
-0.016863 0.0213504 0.770907
-0.0171392 0.0199791 0.771046
-0.0174173 0.0186024 0.770969
-0.0176945 0.0172281 0.770977
-0.0179724 0.0158528 0.77092
-0.0182478 0.0144836 0.77115
-0.0185232 0.0131141 0.77139
-0.0187979 0.011746 0.771732
-0.019071 0.0103808 0.772317
-0.0193441 0.00901491 0.772976
-0.0196179 0.00764629 0.773563
-0.0198912 0.00627753 0.77429
-0.0201635 0.00490879 0.775265
-0.0204371 0.00353634 0.776124
-0.0207108 0.00216171 0.777063
-0.0209848 0.000784549 0.778043
-0.0212586 -0.000595267 0.779167
-0.0215337 -0.00197853 0.780182
-0.0218089 -0.00336506 0.781376
-0.0220836 -0.00475603 0.782876
-0.0223584 -0.00615264 0.78462
-0.0226345 -0.00755455 0.78632
-0.0229116 -0.00896176 0.788036
-0.0231901 -0.0103733 0.789641
-0.0234699 -0.0117871 0.790994
-0.0237508 -0.0132038 0.792254
-0.0240327 -0.0146214 0.793303
-0.024315 -0.0160471 0.79467
-0.0245979 -0.0174815 0.796294
-0.0248819 -0.0189231 0.798031
-0.025167 -0.0203723 0.79987
-0.0254534 -0.0218322 0.801935
-0.0257408 -0.0232934 0.803783
-0.0260293 -0.0247557 0.80545
-0.00172213 0.0882779 0.805711
-0.0020213 0.0868038 0.805445
-0.00232577 0.0853092 0.804964
-0.00264218 0.0837691 0.804006
-0.00295996 0.0822249 0.802969
-0.00328799 0.0806418 0.80149
-0.0036382 0.078976 0.799077
-0.0040005 0.0772658 0.796098
-0.0043616 0.0755623 0.79308
-0.00472108 0.0738679 0.790048
-0.00507189 0.0722084 0.787295
-0.00540873 0.070603 0.785061
-0.00573174 0.069051 0.783367
-0.00605672 0.0674933 0.781533
-0.00637855 0.0659491 0.779787
-0.00669563 0.0644236 0.778199
-0.00700798 0.0629168 0.776779
-0.00732028 0.0614115 0.775316
-0.00762489 0.0599355 0.774173
-0.00792212 0.0584865 0.773347
-0.00822101 0.0570326 0.772409
-0.00851945 0.0555816 0.771463
-0.00881934 0.0541262 0.770403
-0.00912048 0.0526675 0.769236
-0.00942345 0.0512043 0.767932
-0.00972324 0.0497529 0.766744
-0.0100179 0.0483201 0.765792
-0.010313 0.0468877 0.764786
-0.0106062 0.0454622 0.763837
-0.0108964 0.0440476 0.763024
-0.0111823 0.0426488 0.762442
-0.0114642 0.041263 0.762064
-0.0117383 0.0399029 0.762158
-0.0120108 0.0385476 0.762351
-0.0122835 0.0371917 0.762537
-0.0125542 0.0358417 0.762855
-0.0128263 0.0344875 0.763098
-0.0130984 0.0331332 0.76335
-0.0133653 0.0317938 0.763974
-0.013627 0.0304684 0.765
-0.0138855 0.0291509 0.766312
-0.0141463 0.0278253 0.767511
-0.0144086 0.0264943 0.768661
-0.014675 0.0251502 0.769522
-0.0149477 0.0237889 0.769916
-0.015224 0.0224177 0.770012
-0.0155021 0.021042 0.769951
-0.0157797 0.0196679 0.769932
-0.0160579 0.0182924 0.769839
-0.0163349 0.01692 0.769854
-0.0166124 0.0155468 0.769819
-0.0168864 0.0141809 0.770135
-0.0171599 0.0128156 0.770526
-0.0174332 0.01145 0.770952
-0.0177046 0.0100868 0.771614
-0.0179757 0.00872279 0.772357
-0.018248 0.00735568 0.773022
-0.0185207 0.00598664 0.773677
-0.0187915 0.00461818 0.774638
-0.0190642 0.00324574 0.775416
-0.0193367 0.00187145 0.776278
-0.0196092 0.000494873 0.777252
-0.0198812 -0.000884151 0.778372
-0.0201551 -0.0022667 0.779302
-0.0204277 -0.00365249 0.780561
-0.0206999 -0.00504275 0.782057
-0.0209723 -0.0064385 0.783719
-0.0212455 -0.00783964 0.785414
-0.0215194 -0.00924678 0.787198
-0.0217953 -0.0106571 0.788739
-0.0220727 -0.0120709 0.790166
-0.0223515 -0.0134867 0.791417
-0.0226316 -0.0149033 0.792446
-0.0229115 -0.0163281 0.793808
-0.0231916 -0.0177634 0.795515
-0.0234726 -0.019205 0.797273
-0.0237546 -0.0206539 0.799117
-0.0240375 -0.0221129 0.801163
-0.0243219 -0.0235731 0.802987
-0.0246076 -0.025035 0.804661
-0.0263188 -0.0262229 0.807111
-0.0248943 -0.0265046 0.806421
-0.0003271 0.0878337 0.804166
-0.000632606 0.0863395 0.803678
-0.000943599 0.0848257 0.802979
-0.00127083 0.0832542 0.80167
-0.00159043 0.0817112 0.800603
-0.00191869 0.0801384 0.799188
-0.00226739 0.0784942 0.79696
-0.00262223 0.0768303 0.794434
-0.00297852 0.0751642 0.791789
-0.00333534 0.0734987 0.789049
-0.00368419 0.0718634 0.786545
-0.00402098 0.070273 0.784466
-0.0043467 0.0687225 0.782775
-0.00467272 0.0671735 0.781028
-0.00499654 0.0656331 0.779314
-0.00531759 0.0641043 0.777671
-0.00563231 0.0625987 0.776253
-0.00594568 0.0610992 0.774849
-0.00625203 0.0596244 0.773712
-0.00654893 0.0581824 0.77297
-0.00684603 0.0567402 0.772186
-0.00714288 0.0553003 0.771394
-0.00743929 0.0538622 0.770586
-0.0077371 0.0524213 0.769691
-0.00803852 0.0509702 0.768585
-0.0083379 0.0495264 0.767532
-0.00863374 0.0480953 0.766627
-0.00893452 0.0466506 0.765435
-0.00923143 0.0452188 0.764395
-0.0095235 0.0438033 0.763579
-0.00981155 0.0424008 0.762947
-0.0100957 0.0410106 0.762502
-0.0103702 0.0396487 0.762579
-0.0106442 0.0382885 0.762692
-0.0109181 0.0369282 0.762804
-0.0111887 0.0355772 0.763117
-0.011462 0.0342188 0.763281
-0.0117353 0.0328602 0.763448
-0.0120037 0.0315137 0.763914
-0.0122664 0.0301818 0.764782
-0.0125252 0.0288581 0.765939
-0.0127865 0.0275268 0.766979
-0.0130493 0.0261904 0.767965
-0.0133166 0.0248415 0.768656
-0.0135907 0.0234761 0.768887
-0.0138687 0.0221021 0.768838
-0.0141468 0.0207277 0.768762
-0.0144252 0.0193536 0.768669
-0.0147024 0.0179818 0.768653
-0.0149775 0.0166144 0.768813
-0.0152531 0.015246 0.768928
-0.0155254 0.013883 0.769337
-0.0157956 0.012523 0.769963
-0.0160673 0.0111592 0.77047
-0.0163369 0.00979763 0.771213
-0.0166061 0.00843477 0.772038
-0.0168765 0.00706871 0.772784
-0.017149 0.00569893 0.773369
-0.0174184 0.00433037 0.774313
-0.0176908 0.00295729 0.774991
-0.0179628 0.00158281 0.775766
-0.0182341 0.000206391 0.776668
-0.0185049 -0.00117246 0.77772
-0.0187772 -0.00255437 0.778643
-0.0190482 -0.00393954 0.779823
-0.0193185 -0.00532904 0.781229
-0.0195886 -0.00672382 0.782814
-0.0198594 -0.0081237 0.784428
-0.0201308 -0.00952931 0.78613
-0.0204041 -0.0109387 0.787666
-0.0206789 -0.0123513 0.78909
-0.0209555 -0.0137661 0.790342
-0.0212334 -0.0151824 0.791444
-0.0215111 -0.0166061 0.792791
-0.0217881 -0.0180406 0.794501
-0.0220662 -0.0194813 0.796259
-0.0223453 -0.0209277 0.798028
-0.0226249 -0.0223843 0.799997
-0.0229061 -0.0238427 0.801797
-0.023189 -0.0253035 0.803472
-0.0234723 -0.0267745 0.805324
0.0010649 0.0873965 0.802678
0.00072255 0.0857797 0.800967
0.000412499 0.0842752 0.800315
8.40606e-05 0.0827092 0.799014
-0.000236793 0.0811704 0.797945
-0.000563137 0.0796141 0.796653
-0.00090675 0.0780018 0.794714
-0.00125459 0.0763776 0.792574
-0.00160424 0.0747499 0.790311
-0.00195765 0.0731125 0.787852
-0.00230421 0.0715007 0.785588
-0.00264035 0.0699249 0.783654
-0.00296881 0.0683763 0.781965
-0.00329336 0.0668422 0.780382
-0.00361589 0.0653168 0.778836
-0.00393733 0.0637964 0.777284
-0.00425431 0.0622921 0.775871
-0.00456999 0.0607936 0.774469
-0.00487869 0.0593187 0.773318
-0.00517664 0.0578779 0.772584
-0.00547304 0.0564424 0.771887
-0.00576758 0.0550142 0.771257
-0.00605871 0.0535969 0.770754
-0.00635236 0.0521727 0.770115
-0.0066502 0.0507377 0.769271
-0.00694785 0.049304 0.768397
-0.00724452 0.047875 0.767547
-0.00754993 0.0464226 0.766247
-0.00785101 0.0449844 0.765115
-0.00814627 0.0435636 0.764225
-0.00843714 0.0421566 0.76353
-0.00872396 0.0407613 0.763008
-0.00900032 0.0393943 0.763006
-0.00927627 0.0380283 0.763016
-0.00955202 0.0366631 0.763041
-0.00982382 0.0353078 0.763276
-0.0100984 0.0339455 0.763364
-0.0103742 0.0325803 0.763383
-0.0106449 0.031227 0.763692
-0.0109101 0.0298861 0.764331
-0.011171 0.0285537 0.76525
-0.0114345 0.0272142 0.766047
-0.0116983 0.0258728 0.766855
-0.0119669 0.0245202 0.767392
-0.0122415 0.0231543 0.767545
-0.0125195 0.0217819 0.767484
-0.0127975 0.02041 0.767418
-0.0130755 0.019038 0.767332
-0.0133525 0.0176682 0.767313
-0.0136261 0.0163045 0.76755
-0.0139 0.0149398 0.767759
-0.0141694 0.0135816 0.768325
-0.0144363 0.0122256 0.769114
-0.0147053 0.0108653 0.769774
-0.0149725 0.00950559 0.770609
-0.0152385 0.00814523 0.771582
-0.0155076 0.00677965 0.77234
-0.0157792 0.00541011 0.772921
-0.016048 0.00404116 0.773781
-0.0163203 0.00266798 0.774365
-0.0165919 0.00129353 0.775048
-0.0168625 -8.23546e-05 0.775875
-0.0171321 -0.00146058 0.776848
-0.0174022 -0.00284167 0.777847
-0.0176714 -0.00422605 0.779016
-0.0179398 -0.00561478 0.780354
-0.0182079 -0.0070083 0.781851
-0.0184761 -0.00840726 0.783436
-0.0187453 -0.00981116 0.785048
-0.0190154 -0.0112201 0.786655
-0.0192876 -0.0126321 0.7881
-0.019562 -0.014046 0.78936
-0.0198379 -0.0154612 0.79046
-0.0201133 -0.0168839 0.791793
-0.020388 -0.0183157 0.793411
-0.0206625 -0.0197571 0.795251
-0.0209386 -0.0212026 0.797017
-0.021215 -0.0226581 0.798978
-0.0214932 -0.0241155 0.800765
-0.021773 -0.0255753 0.802438
-0.0220536 -0.0270434 0.804218
-0.023757 -0.0282515 0.807186
-0.0223341 -0.0285266 0.80632
0.00210347 0.0853325 0.799347
0.00175992 0.0837257 0.797645
0.00143352 0.0821753 0.796455
0.00111257 0.0806439 0.795416
0.000790397 0.0791102 0.794316
0.000452911 0.0775295 0.79267
0.00011498 0.0759499 0.790973
-0.000227362 0.0743586 0.789078
-0.000577254 0.0727466 0.786876
-0.000924926 0.0711445 0.784699
-0.00126405 0.0695709 0.782769
-0.00159511 0.0680243 0.781083
-0.0019198 0.0664993 0.779588
-0.00224258 0.0649821 0.778124
-0.00256216 0.0634761 0.776738
-0.00287956 0.0619785 0.775397
-0.00319586 0.0604859 0.77406
-0.00350624 0.0590126 0.772919
-0.00380516 0.0575734 0.772197
-0.00410274 0.0561391 0.771507
-0.0043945 0.0547219 0.771029
-0.00468279 0.0533154 0.770682
-0.00497179 0.0519073 0.770289
-0.00526545 0.0504877 0.769689
-0.00556091 0.049064 0.768986
-0.00585731 0.0476395 0.768228
-0.00616659 0.0461829 0.766871
-0.00647023 0.0447431 0.765726
-0.00676782 0.0433204 0.764817
-0.00706171 0.0419085 0.764048
-0.00735154 0.0405078 0.763441
-0.00763022 0.0391351 0.763343
-0.00791003 0.0377602 0.763187
-0.00818925 0.0363871 0.763053
-0.0084624 0.0350278 0.763207
-0.00873843 0.0336623 0.763224
-0.00901587 0.0322938 0.763166
-0.00928777 0.0309372 0.763388
-0.00955521 0.0295898 0.763857
-0.00981935 0.0282481 0.764521
-0.0100872 0.0268981 0.764999
-0.0103524 0.0255523 0.76564
-0.0106227 0.024196 0.76601
-0.0108982 0.02283 0.76609
-0.0111758 0.02146 0.766036
-0.0114513 0.0200942 0.766116
-0.0117278 0.0187264 0.766115
-0.0120044 0.0173588 0.766119
-0.0122761 0.0159986 0.766434
-0.0125474 0.0146384 0.766786
-0.0128143 0.0132831 0.767448
-0.0130774 0.0119311 0.768408
-0.0133418 0.0105753 0.769309
-0.0136064 0.00921708 0.770228
-0.013871 0.00785688 0.771205
-0.014139 0.00649135 0.771958
-0.0144115 0.00512073 0.772391
-0.0146808 0.00375097 0.773099
-0.0149531 0.00237801 0.773598
-0.0152245 0.00100414 0.774192
-0.0154937 -0.000370851 0.77501
-0.0157618 -0.00174823 0.77598
-0.0160302 -0.00312842 0.776985
-0.0162964 -0.00451221 0.778225
-0.0165627 -0.00590026 0.779559
-0.0168292 -0.00729269 0.780967
-0.0170948 -0.00869079 0.78254
-0.0173621 -0.0100932 0.784055
-0.0176301 -0.0115003 0.785578
-0.0178992 -0.0129121 0.787098
-0.0181711 -0.0143254 0.788383
-0.0184446 -0.0157409 0.789564
-0.018717 -0.017164 0.790978
-0.0189891 -0.0185951 0.792579
-0.0192613 -0.0200341 0.794328
-0.0195343 -0.0214785 0.796081
-0.0198079 -0.0229316 0.797959
-0.020083 -0.0243879 0.799744
-0.02036 -0.0258467 0.801407
-0.0206375 -0.0273135 0.803174
-0.0209143 -0.0287981 0.805346
-0.0226168 -0.0300091 0.808189
-0.0211932 -0.0302825 0.807302
0.00392956 0.0868137 0.802508
0.00348618 0.0849072 0.797931
0.00310543 0.0831971 0.795166
0.00278856 0.0816839 0.794312
0.00247231 0.0801742 0.793462
0.00215449 0.0786608 0.792539
0.0018227 0.0771072 0.791148
0.00148999 0.0755531 0.789698
0.00114781 0.0739732 0.787904
0.000797342 0.0723722 0.785797
0.000451147 0.0707861 0.783781
0.000111313 0.0692218 0.781935
-0.000221925 0.0676782 0.780265
-0.000546499 0.0661621 0.778859
-0.000869306 0.0646526 0.777473
-0.00118894 0.0631542 0.776167
-0.00150806 0.061659 0.774842
-0.00182233 0.0601796 0.773665
-0.00213258 0.0587125 0.772598
-0.00243069 0.0572791 0.771951
-0.00272936 0.0558458 0.771268
-0.00301997 0.0544343 0.770868
-0.00330885 0.0530283 0.770526
-0.00359664 0.0516255 0.770212
-0.00388917 0.0502114 0.769698
-0.00418381 0.0487935 0.769089
-0.00447899 0.0473752 0.768436
-0.00478858 0.0459238 0.76717
-0.00509419 0.0444841 0.766033
-0.00539365 0.0430607 0.765119
-0.00568975 0.041647 0.764324
-0.00598281 0.0402416 0.763633
-0.00626389 0.0388641 0.76345
-0.00654606 0.0374847 0.763208
-0.00682753 0.0361075 0.76299
-0.0071022 0.0347447 0.763071
-0.00737848 0.033379 0.763083
-0.00765769 0.0320074 0.762947
-0.0079312 0.0306475 0.763083
-0.00820159 0.0292933 0.763376
-0.00847085 0.0279407 0.763729
-0.00874301 0.0265823 0.763942
-0.00901056 0.0252319 0.764405
-0.00928281 0.0238725 0.764627
-0.00955756 0.0225088 0.764718
-0.00983234 0.0211453 0.764815
-0.0101058 0.0197836 0.764984
-0.0103808 0.0184196 0.765067
-0.0106558 0.0170554 0.765148
-0.0109267 0.0156966 0.765468
-0.011196 0.0143392 0.765894
-0.0114615 0.0129851 0.766571
-0.0117215 0.0116356 0.767619
-0.0119828 0.0102822 0.768622
-0.0122449 0.00892557 0.769616
-0.0125076 0.0075659 0.770597
-0.0127736 0.00620146 0.771402
-0.0130455 0.00483129 0.771833
-0.0133148 0.00346156 0.772462
-0.0135864 0.00208926 0.772953
-0.0138579 0.00071562 0.773461
-0.0141267 -0.000658745 0.774201
-0.014394 -0.00203538 0.775102
-0.0146597 -0.00341479 0.77617
-0.0149238 -0.00479782 0.777423
-0.0151878 -0.00618524 0.778765
-0.0154518 -0.00757715 0.78017
-0.0157158 -0.00897391 0.781655
-0.0159815 -0.0103747 0.78307
-0.0162469 -0.0117809 0.784594
-0.0165126 -0.0131929 0.786193
-0.0167814 -0.0146066 0.787567
-0.0170521 -0.0160227 0.788831
-0.0173223 -0.0174452 0.790238
-0.0175924 -0.0188743 0.791764
-0.0178622 -0.0203109 0.793423
-0.0181324 -0.0217546 0.79517
-0.0184023 -0.0232086 0.797119
-0.0186744 -0.0246647 0.79891
-0.0189486 -0.0261225 0.800564
-0.0192233 -0.0275881 0.802311
-0.019497 -0.0290694 0.804388
-0.0197726 -0.0305531 0.806341
0.00608693 0.0962431 0.822371
0.0078733 0.0974861 0.822846
0.00753641 0.0958944 0.821825
0.005767 0.0946993 0.821762
0.00721436 0.0943482 0.821187
0.00546075 0.0931998 0.82154
0.00690642 0.0928456 0.82093
0.00495341 0.0910727 0.815414
0.00642419 0.0908263 0.81579
0.00590212 0.0886959 0.809423
0.00538163 0.0865796 0.80298
0.00489554 0.084572 0.797399
0.00447545 0.0827632 0.793626
0.00416208 0.0812657 0.792906
0.00384743 0.0797664 0.792138
0.00352864 0.078256 0.791224
0.00319935 0.0767178 0.789972
0.00286433 0.0751657 0.788519
0.00251963 0.0735888 0.786732
0.0021686 0.0719977 0.784712
0.00182189 0.0704214 0.782781
0.0014818 0.0688661 0.781019
0.00114645 0.0673259 0.779367
0.000822078 0.0658177 0.778037
0.000499753 0.0643168 0.77674
0.000180402 0.0628262 0.775514
-0.000140328 0.0613338 0.77421
-0.000451442 0.0598683 0.773203
-0.000763049 0.0584032 0.77215
-0.00106226 0.0569709 0.771507
-0.00136054 0.0555421 0.770879
-0.00164992 0.054136 0.770551
-0.00194083 0.052727 0.770157
-0.00222922 0.0513247 0.769842
-0.00252309 0.0499105 0.769316
-0.00281714 0.048497 0.768769
-0.00311149 0.0470838 0.768192
-0.00341874 0.0456431 0.767101
-0.00372218 0.0442129 0.766128
-0.0040197 0.0427974 0.76536
-0.00431907 0.0413796 0.764493
-0.00461553 0.0399699 0.763725
-0.00489911 0.0385881 0.76346
-0.00518348 0.0372053 0.76315
-0.00546724 0.0358244 0.762855
-0.00574369 0.0344584 0.762863
-0.00602193 0.0330895 0.762796
-0.00630333 0.0317147 0.762577
-0.00658002 0.0303492 0.762563
-0.0068549 0.028987 0.76263
-0.00712722 0.0276291 0.762811
-0.00740276 0.0262659 0.762848
-0.00767269 0.0249114 0.763147
-0.00794469 0.0235534 0.763353
-0.00821738 0.0221942 0.763532
-0.00848971 0.0208351 0.763727
-0.0087596 0.0194791 0.764054
-0.00903145 0.0181201 0.764289
-0.00930613 0.0167573 0.764377
-0.00957656 0.0153992 0.764692
-0.00984404 0.0140439 0.765178
-0.0101084 0.0126907 0.765852
-0.0103677 0.0113407 0.766838
-0.0106273 0.00998801 0.767842
-0.0108877 0.00863218 0.768833
-0.0111501 0.00727226 0.769732
-0.0114159 0.00590804 0.770461
-0.011686 0.00453957 0.770952
-0.0119542 0.00317077 0.771576
-0.0122248 0.00179953 0.772068
-0.0124944 0.000427379 0.772652
-0.012762 -0.000946326 0.773388
-0.0130277 -0.002322 0.774285
-0.0132895 -0.00370085 0.775506
-0.0135505 -0.00508382 0.776836
-0.0138121 -0.0064709 0.778191
-0.0140726 -0.00786309 0.779681
-0.0143354 -0.00925906 0.781079
-0.0146006 -0.010658 0.782343
-0.0148637 -0.0120637 0.783849
-0.0151267 -0.0134752 0.785445
-0.0153931 -0.0148883 0.786829
-0.0156599 -0.0163067 0.788258
-0.0159276 -0.017729 0.789671
-0.0161961 -0.0191563 0.791115
-0.0164642 -0.0205906 0.792677
-0.0167316 -0.0220336 0.794413
-0.0169988 -0.0234856 0.796292
-0.0172677 -0.0249415 0.798101
-0.0175392 -0.0263988 0.799754
-0.0178111 -0.0278635 0.801486
-0.0180813 -0.0293438 0.803546
-0.0183544 -0.0308244 0.805419
-0.0200505 -0.0320382 0.808154
-0.0186285 -0.0323115 0.80731
0.00950754 0.105309 0.826371
0.00981138 0.106804 0.826445
0.0113153 0.106593 0.827074
0.0110077 0.105087 0.826921
0.00920597 0.103821 0.826353
0.0107031 0.10359 0.826835
0.00889496 0.102304 0.826082
0.0103854 0.102055 0.82642
0.00855504 0.100698 0.825041
0.010036 0.100427 0.825189
0.00821664 0.0990991 0.824021
0.0096838 0.098793 0.823865
0.00933109 0.0971595 0.822503
0.00898647 0.0955511 0.821326
0.00866201 0.0940022 0.820655
0.00835282 0.0924981 0.820376
0.00786422 0.0904871 0.815295
0.00735679 0.088431 0.809613
0.00683284 0.0863368 0.803373
0.00632581 0.0842988 0.797479
0.00587138 0.0824141 0.792932
0.00555539 0.080914 0.792173
0.00523718 0.0794095 0.791338
0.00491364 0.0778918 0.79033
0.00457625 0.0763388 0.788901
0.0042333 0.0747736 0.787281
0.00388046 0.0731855 0.78534
0.00352669 0.0715977 0.783327
0.00317975 0.0700311 0.781478
0.00284 0.0684858 0.779805
0.00250749 0.0669619 0.778321
0.00218645 0.0654689 0.777155
0.0018668 0.0639816 0.776008
0.00155315 0.0625109 0.775021
0.00123548 0.0610323 0.773885
0.000925598 0.0595747 0.772975
0.00061232 0.0581107 0.771931
0.000311755 0.0566782 0.77128
7.96175e-06 0.0552397 0.770505
-0.000284299 0.053829 0.770101
-0.000578413 0.0524151 0.769623
-0.000869491 0.0510087 0.769232
-0.00116484 0.0495942 0.768687
-0.00145833 0.0481847 0.768188
-0.00175363 0.0467727 0.767615
-0.00206041 0.0453377 0.766603
-0.00236311 0.0439134 0.765719
-0.00266129 0.0425 0.764976
-0.002962 0.0410834 0.764119
-0.00325761 0.0396783 0.763428
-0.0035434 0.0382936 0.763097
-0.00382684 0.0369144 0.762851
-0.00411107 0.0355341 0.762561
-0.00438957 0.034165 0.762491
-0.00466976 0.0327931 0.762347
-0.00495193 0.0314186 0.762117
-0.00523044 0.0300506 0.762027
-0.00550861 0.0286837 0.761951
-0.0057859 0.0273184 0.761905
-0.00606343 0.0259531 0.761845
-0.00633495 0.024597 0.762049
-0.00660754 0.0232389 0.762206
-0.00687775 0.0218838 0.762469
-0.00714631 0.0205307 0.762824
-0.00741379 0.019178 0.763232
-0.00768337 0.0178222 0.763551
-0.00795626 0.0164621 0.763717
-0.00822625 0.0151048 0.764028
-0.00849165 0.0137513 0.764575
-0.00875538 0.0123983 0.765228
-0.00901455 0.0110475 0.766135
-0.00927416 0.00969397 0.767042
-0.00953309 0.00833874 0.768016
-0.00979569 0.00697869 0.768828
-0.0100614 0.0056148 0.769492
-0.0103304 0.00424766 0.76999
-0.0105986 0.00287968 0.770547
-0.0108684 0.00150974 0.771035
-0.0111368 0.000138776 0.771618
-0.0114029 -0.00123362 0.772365
-0.0116658 -0.00260809 0.773337
-0.011922 -0.00398647 0.774779
-0.012178 -0.00536947 0.776284
-0.0124361 -0.00675685 0.777729
-0.0126931 -0.0081495 0.779297
-0.0129527 -0.00954604 0.780756
-0.0132171 -0.0109443 0.781937
-0.0134789 -0.0123489 0.783355
-0.0137382 -0.0137615 0.785033
-0.0140025 -0.0151747 0.786419
-0.0142668 -0.0165932 0.787862
-0.0145323 -0.0180156 0.789274
-0.0147987 -0.0194426 0.790698
-0.0150654 -0.020875 0.792168
-0.0153292 -0.0223195 0.793972
-0.0155931 -0.0237721 0.795872
-0.0158589 -0.0252286 0.797695
-0.0161285 -0.026684 0.799276
-0.0163986 -0.0281458 0.80091
-0.0166672 -0.0296207 0.8028
-0.0169387 -0.0310954 0.804506
-0.0172103 -0.0325786 0.806303
0.0125264 0.104911 0.827853
0.0122059 0.103369 0.827405
0.0118662 0.101774 0.826484
0.0115014 0.100109 0.824935
0.011139 0.0984536 0.823416
0.0107806 0.0968119 0.821974
0.0104325 0.0952001 0.820756
0.010098 0.0936283 0.819864
0.00977917 0.0920999 0.819349
0.00929573 0.0901287 0.814614
0.0087921 0.0881102 0.809268
0.00827368 0.0860611 0.803446
0.00777326 0.0840684 0.797988
0.00728532 0.0821173 0.792764
0.00696759 0.080617 0.791999
0.00664511 0.0791054 0.791086
0.00631104 0.0775659 0.789841
0.00596196 0.0759909 0.788159
0.00560987 0.0744108 0.786358
0.00524792 0.0728092 0.784245
0.00488832 0.0712176 0.78216
0.00453912 0.0696546 0.780327
0.00419989 0.0681192 0.778744
0.00387036 0.0666098 0.777412
0.00354597 0.0651151 0.776204
0.00322515 0.0636308 0.775073
0.00291266 0.0621681 0.774169
0.00259604 0.0606976 0.773118
0.00228545 0.0592428 0.772229
0.00197538 0.0577911 0.771335
0.00167579 0.0563644 0.770752
0.00137023 0.0549257 0.769962
0.00107702 0.0535153 0.769549
0.000779873 0.0520975 0.768998
0.000485399 0.0506864 0.768519
0.00018421 0.0492628 0.767808
-0.000112284 0.0478499 0.767231
-0.000410767 0.0464347 0.766577
-0.000716677 0.0450064 0.76565
-0.00101811 0.0435887 0.764855
-0.00131294 0.0421852 0.764267
-0.00161061 0.0407779 0.763566
-0.00190509 0.0393782 0.762961
-0.00219129 0.0379945 0.762635
-0.002475 0.0366159 0.762391
-0.00275993 0.0352362 0.762096
-0.00304064 0.0338642 0.761951
-0.00332124 0.0324929 0.761799
-0.00360212 0.0311217 0.761633
-0.00388082 0.0297543 0.761544
-0.00415901 0.0283882 0.761472
-0.00443696 0.0270228 0.761407
-0.00471638 0.0256557 0.761273
-0.00498926 0.0242979 0.761408
-0.0052614 0.022941 0.761574
-0.00553098 0.021587 0.761847
-0.00579855 0.0202347 0.762211
-0.00606212 0.0188863 0.762759
-0.00632934 0.017533 0.763161
-0.00660001 0.0161752 0.763417
-0.00686938 0.0148184 0.763736
-0.00713259 0.0134663 0.764349
-0.00739707 0.0121117 0.764922
-0.0076582 0.0107584 0.765668
-0.00792004 0.00940271 0.766403
-0.00817942 0.00804664 0.767273
-0.00844377 0.0066856 0.767926
-0.0087096 0.00532212 0.768521
-0.00897744 0.0039564 0.769028
-0.00924453 0.00258951 0.769588
-0.00951192 0.00122108 0.770154
-0.00977927 -0.000148832 0.77074
-0.0100427 -0.00152005 0.771559
-0.0103036 -0.00289383 0.772547
-0.0105558 -0.00427176 0.774081
-0.0108079 -0.00565473 0.775678
-0.0110618 -0.00704227 0.777221
-0.0113152 -0.00843535 0.778865
-0.0115701 -0.00983319 0.780466
-0.0118328 -0.0112315 0.78164
-0.0120935 -0.0126354 0.782983
-0.0123492 -0.0140491 0.784726
-0.0126113 -0.0154625 0.786112
-0.0128731 -0.0168814 0.787566
-0.0131364 -0.0183039 0.788979
-0.0134006 -0.019731 0.790395
-0.0136663 -0.0211614 0.791767
-0.0139272 -0.022606 0.793563
-0.0141889 -0.0240571 0.795395
-0.014452 -0.0255137 0.797221
-0.0147191 -0.0269689 0.798794
-0.0149867 -0.0284301 0.80041
-0.0152541 -0.0298996 0.80213
-0.0155238 -0.0313707 0.803738
-0.0157945 -0.0328474 0.805357
-0.0174786 -0.0340869 0.808638
-0.0160607 -0.0343481 0.807503
0.0140624 0.104772 0.829098
0.0137211 0.103175 0.828201
0.0133603 0.101527 0.826839
0.0129692 0.0997984 0.824741
0.0125916 0.0981103 0.822931
0.0122173 0.0964334 0.821164
0.0118636 0.0948142 0.819865
0.011518 0.0932182 0.818737
0.0111905 0.091671 0.818028
0.0107055 0.0897187 0.813438
0.0102011 0.0877242 0.808291
0.00968506 0.0857087 0.802766
0.0091878 0.0837497 0.797618
0.00870077 0.0818246 0.792637
0.00837268 0.0803022 0.791642
0.00804135 0.0787737 0.790544
0.00769274 0.077205 0.788973
0.00733403 0.0756146 0.787106
0.00697216 0.0740205 0.785126
0.00660353 0.0724134 0.782921
0.00623811 0.070818 0.780763
0.00588896 0.0692647 0.779009
0.00554806 0.0677333 0.777446
0.00521748 0.0662285 0.776141
0.00489394 0.0647418 0.775003
0.00457712 0.0632722 0.774032
0.00426391 0.0618128 0.773147
0.00395107 0.0603558 0.772252
0.00364412 0.0589134 0.77151
0.00333777 0.0574738 0.770769
0.00303775 0.0560489 0.770198
0.00273092 0.0546114 0.76941
0.00243429 0.0531962 0.768914
0.00213073 0.0517684 0.768193
0.00182807 0.050344 0.767484
0.00152341 0.0489172 0.766694
0.00122593 0.047506 0.766114
0.000927144 0.0460937 0.765477
0.000624647 0.0446761 0.764704
0.000326375 0.043268 0.764052
3.08161e-05 0.0418662 0.763473
-0.00026552 0.0404644 0.762851
-0.000560717 0.0390662 0.762252
-0.000847088 0.037684 0.761936
-0.00113116 0.0363066 0.761695
-0.00141472 0.0349307 0.761462
-0.00169536 0.03356 0.761323
-0.00197443 0.0321922 0.761237
-0.00225333 0.0308252 0.761156
-0.00253189 0.0294589 0.761077
-0.00281198 0.0280909 0.76094
-0.00309207 0.0267235 0.760796
-0.00337243 0.0253564 0.760639
-0.00364855 0.0239951 0.760636
-0.00392014 0.0226394 0.760811
