ply
format ascii 1.0
element vertex 1588
property float x
property float y
property float z
end_header
-0.0270994 -0.0617756 0.860702
-0.0285343 -0.0613791 0.859502
-0.0299681 -0.0609888 0.8584
-0.0313916 -0.0605854 0.857075
-0.0328223 -0.0602045 0.856086
-0.0342589 -0.0598412 0.855342
-0.0356979 -0.0594863 0.854721
-0.0371267 -0.0591181 0.853882
-0.0385652 -0.0587697 0.853346
-0.040001 -0.05842 0.852779
-0.0414366 -0.0580731 0.852243
-0.0428724 -0.0577285 0.851749
-0.044327 -0.057412 0.851677
-0.0457731 -0.0570844 0.851431
-0.0472221 -0.0567613 0.851253
-0.0486748 -0.0564429 0.851154
-0.0501296 -0.056127 0.851096
-0.0515946 -0.0558228 0.851218
-0.0530653 -0.0555244 0.851426
-0.0545359 -0.0552242 0.851621
-0.0560179 -0.0549353 0.851983
-0.0574809 -0.0546249 0.852024
-0.0589387 -0.0543098 0.851973
-0.0603988 -0.0539959 0.851963
-0.06186 -0.0536839 0.851957
-0.0633178 -0.0533679 0.851907
-0.0648073 -0.0530791 0.852299
-0.0663227 -0.0528098 0.85303
-0.0678428 -0.0525415 0.853786
-0.0693853 -0.0522882 0.854804
-0.0709716 -0.0520646 0.85634
-0.0725951 -0.0518641 0.858277
-0.0742307 -0.0516648 0.860285
-0.0758591 -0.0514553 0.862119
-0.0774581 -0.0512197 0.86353
-0.0789813 -0.050929 0.864
-0.080441 -0.0505956 0.863723
-0.0818362 -0.0502227 0.862726
-0.083195 -0.0498295 0.861364
-0.0845066 -0.0494114 0.859535
-0.0857859 -0.0489787 0.857426
-0.0870581 -0.0485474 0.855312
-0.088327 -0.0481191 0.853235
-0.0896349 -0.047718 0.851618
-0.0909667 -0.0473329 0.85029
-0.092323 -0.0469643 0.849242
-0.0937112 -0.0466136 0.848532
-0.095142 -0.0462863 0.848246
-0.0965604 -0.0459534 0.84785
-0.097987 -0.0456245 0.847541
-0.0994079 -0.0452941 0.847186
-0.100817 -0.0449587 0.846732
-0.102237 -0.044629 0.84639
-0.10368 -0.0443106 0.846256
-0.105116 -0.0439882 0.846062
-0.106545 -0.0436641 0.845811
-0.107949 -0.0433296 0.84535
-0.109318 -0.0429814 0.844621
-0.110688 -0.0426355 0.843922
-0.11207 -0.0422963 0.843332
-0.11343 -0.0419479 0.842577
-0.114804 -0.0416077 0.841952
-0.116163 -0.0412622 0.841228
-0.117523 -0.0409185 0.840523
-0.118872 -0.0405718 0.839755
-0.12024 -0.0402333 0.839149
-0.121594 -0.0398908 0.83845
-0.122956 -0.0395529 0.837824
-0.124332 -0.0392197 0.837309
-0.125732 -0.0388955 0.836975
-0.127146 -0.0385752 0.836742
-0.128582 -0.0382626 0.836666
-0.130019 -0.0379497 0.836594
-0.131481 -0.0376444 0.836696
-0.132959 -0.0373435 0.8369
-0.134479 -0.0370544 0.837369
-0.136001 -0.0367646 0.837842
-0.13755 -0.036481 0.838472
-0.139087 -0.0361928 0.839022
-0.140654 -0.0359123 0.83974
-0.142212 -0.0356278 0.840386
-0.143801 -0.0353497 0.841207
-0.145382 -0.0350688 0.841964
-0.14695 -0.0347833 0.842627
-0.148474 -0.034486 0.843012
-0.149979 -0.0341842 0.843276
-0.151457 -0.0338757 0.843368
-0.152936 -0.0335666 0.84347
-0.154418 -0.0332582 0.843582
-0.1559 -0.0329494 0.843693
-0.15738 -0.0326407 0.843792
-0.15892 -0.032343 0.844218
-0.160455 -0.0320442 0.844606
-0.162042 -0.0317555 0.845278
-0.163632 -0.0314659 0.845948
-0.16522 -0.0311754 0.846597
-0.166729 -0.0308683 0.846807
-0.168265 -0.0305654 0.847155
-0.169837 -0.0302698 0.847687
-0.171421 -0.0299753 0.848269
-0.173175 -0.0297095 0.849722
-0.174977 -0.0294489 0.851386
-0.176841 -0.0291981 0.853342
-0.178731 -0.0289481 0.855393
-0.180626 -0.0286965 0.857435
-0.182409 -0.028424 0.858884
-0.18422 -0.0281553 0.860449
-0.0143867 -0.0671871 0.875721
-0.0158516 -0.0667307 0.873864
-0.0173084 -0.0662651 0.871859
-0.0187601 -0.0658059 0.869928
-0.0202036 -0.0653405 0.867894
-0.0216427 -0.0648833 0.865955
-0.0230803 -0.0644416 0.864212
-0.0245235 -0.064033 0.862913
-0.0259613 -0.0636212 0.861561
-0.0273954 -0.0632121 0.860229
-0.0288328 -0.0628212 0.859133
-0.030267 -0.0624314 0.858055
-0.0316925 -0.0620311 0.856816
-0.0331225 -0.0616476 0.855813
-0.0345586 -0.0612831 0.855057
-0.0359973 -0.0609268 0.854434
-0.0374256 -0.0605567 0.853596
-0.0388642 -0.0602083 0.853059
-0.0402997 -0.0598576 0.852493
-0.0417351 -0.0595098 0.851957
-0.0431709 -0.0591652 0.851463
-0.0446255 -0.0588487 0.851392
-0.0460719 -0.0585208 0.851155
-0.0475214 -0.0581979 0.850988
-0.048975 -0.057881 0.850903
-0.0504294 -0.0575645 0.850837
-0.0518947 -0.0572615 0.850959
-0.0533603 -0.0569571 0.85108
-0.0548259 -0.0566521 0.851187
-0.0563012 -0.0563564 0.851446
-0.0577581 -0.056041 0.851393
-0.0592091 -0.0557194 0.85125
-0.0606683 -0.0554063 0.851232
-0.062128 -0.0550933 0.85122
-0.0635905 -0.0547827 0.851244
-0.0650794 -0.0544943 0.851636
-0.0665961 -0.0542278 0.852388
-0.0681224 -0.0539666 0.853234
-0.0696654 -0.0537161 0.854256
-0.071245 -0.0534898 0.855703
-0.0728601 -0.0532856 0.857535
-0.0744875 -0.0530844 0.859441
-0.076093 -0.0528617 0.861002
-0.0776745 -0.0526172 0.862214
-0.0791714 -0.0523104 0.862397
-0.0806124 -0.0519669 0.86193
-0.0819821 -0.0515783 0.860681
-0.0833294 -0.051178 0.85923
-0.0846315 -0.050754 0.85734
-0.0859166 -0.0503246 0.855332
-0.0871954 -0.0498968 0.853326
-0.0884862 -0.0494811 0.851508
-0.0898087 -0.0490873 0.850069
-0.0911648 -0.0487158 0.849007
-0.0925291 -0.0483504 0.848057
-0.0939147 -0.0479987 0.847339
-0.0953353 -0.0476668 0.846971
-0.0967497 -0.0473326 0.846555
-0.0981572 -0.0469956 0.846085
-0.0995683 -0.0466617 0.845661
-0.100965 -0.0463213 0.845116
-0.102369 -0.0459855 0.844655
-0.103788 -0.045657 0.844329
-0.105211 -0.0453307 0.84405
-0.106639 -0.0450072 0.843816
-0.10805 -0.0446772 0.843443
-0.109428 -0.0443335 0.842809
-0.110805 -0.0439909 0.842186
-0.112204 -0.0436586 0.841752
-0.113583 -0.0433198 0.841171
-0.11497 -0.042983 0.84066
-0.116341 -0.0426431 0.840044
-0.117712 -0.0423031 0.839438
-0.119072 -0.0419605 0.838766
-0.120442 -0.0416226 0.838173
-0.121807 -0.0412838 0.837567
-0.123181 -0.0409492 0.837033
-0.124567 -0.0406189 0.836601
-0.125968 -0.0402945 0.836277
-0.127393 -0.0399782 0.836128
-0.128829 -0.0396657 0.836058
-0.130266 -0.0393532 0.835988
-0.131726 -0.0390482 0.836079
-0.133189 -0.0387435 0.836185
-0.134679 -0.0384465 0.836463
-0.136172 -0.0381501 0.836752
-0.137679 -0.037856 0.837125
-0.139174 -0.0375592 0.837409
-0.140694 -0.0372673 0.837849
-0.14222 -0.0369772 0.838308
-0.14379 -0.0366968 0.839035
-0.145369 -0.0364184 0.839791
-0.146936 -0.0361346 0.840467
-0.1485 -0.0358504 0.841106
-0.150034 -0.0355568 0.841557
-0.151556 -0.0352592 0.841922
-0.153094 -0.0349655 0.842377
-0.154637 -0.034672 0.842847
-0.156151 -0.0343712 0.843147
-0.157663 -0.0340691 0.843421
-0.159218 -0.0337768 0.843932
-0.160753 -0.033478 0.844321
-0.162356 -0.0331936 0.845078
-0.163964 -0.0329086 0.845843
-0.165572 -0.0326228 0.846592
-0.167113 -0.0323229 0.846977
-0.168683 -0.0320274 0.847498
-0.170273 -0.0317354 0.848119
-0.171891 -0.0314476 0.848868
-0.173665 -0.0311871 0.85041
-0.175453 -0.0309268 0.852
-0.177288 -0.0306735 0.853793
-0.179162 -0.0304237 0.855754
-0.181025 -0.0301689 0.857627
-0.182826 -0.0299025 0.859156
-0.184661 -0.0296392 0.860832
-0.016139 -0.0681126 0.872403
-0.0175919 -0.0676388 0.870326
-0.0190424 -0.0671829 0.868478
-0.0204886 -0.0667334 0.866694
-0.021929 -0.0662851 0.864906
-0.0233695 -0.0658556 0.863363
-0.0248161 -0.0654592 0.862249
-0.0262576 -0.0650585 0.861077
-0.0276957 -0.0646591 0.859907
-0.0291356 -0.0642737 0.858916
-0.0305671 -0.0638766 0.857756
-0.0319918 -0.0634734 0.856507
-0.0334213 -0.0630884 0.8555
-0.0348514 -0.0627113 0.854591
-0.0362899 -0.062355 0.853974
-0.0377212 -0.0619899 0.853221
-0.0391595 -0.0616409 0.852687
-0.0405949 -0.0612894 0.852127
-0.0420337 -0.0609465 0.851671
-0.0434693 -0.0606009 0.851177
-0.0449239 -0.0602845 0.851106
-0.0463746 -0.0599622 0.850954
-0.0478288 -0.0596457 0.850877
-0.0492832 -0.0593289 0.850804
-0.0507424 -0.0590185 0.850814
-0.0522122 -0.0587199 0.851011
-0.0536737 -0.0584104 0.85105
-0.0551301 -0.0580951 0.850997
-0.0565994 -0.057793 0.851154
-0.0580502 -0.0574718 0.851002
-0.0594905 -0.0571397 0.850696
-0.0609442 -0.0568213 0.850604
-0.0624085 -0.0565138 0.850666
-0.0638763 -0.0562082 0.850773
-0.0653713 -0.0559263 0.851252
-0.066901 -0.0556724 0.85218
-0.0684413 -0.0554241 0.853204
-0.0699926 -0.0551814 0.854326
-0.0715741 -0.0549578 0.855784
-0.0731777 -0.0547469 0.857455
-0.0747843 -0.0545326 0.859091
-0.0763596 -0.05429 0.860285
-0.0779097 -0.054025 0.861131
-0.0793742 -0.0536983 0.860951
-0.0807888 -0.053337 0.860209
-0.0821383 -0.0529356 0.858765
-0.0834742 -0.0525282 0.857225
-0.0847715 -0.0521011 0.855319
-0.0860694 -0.0516795 0.853485
-0.0873626 -0.0512595 0.851663
-0.0886693 -0.0508526 0.850037
-0.090016 -0.0504725 0.848864
-0.0913874 -0.050109 0.847973
-0.0927515 -0.0497434 0.847038
-0.0941372 -0.049392 0.846332
-0.0955544 -0.0490589 0.845945
-0.0969494 -0.0487145 0.845362
-0.0983456 -0.0483728 0.844805
-0.0997444 -0.0480329 0.844286
-0.101119 -0.0476821 0.843566
-0.1025 -0.0473359 0.842918
-0.103903 -0.047002 0.842481
-0.10531 -0.04667 0.842088
-0.106736 -0.046348 0.84186
-0.108148 -0.046019 0.841519
-0.109526 -0.045677 0.84091
-0.110911 -0.0453383 0.840372
-0.112308 -0.0450057 0.839945
-0.113697 -0.0446707 0.839462
-0.115104 -0.0443444 0.839129
-0.116498 -0.0440122 0.838701
-0.11789 -0.0436808 0.83827
-0.119272 -0.0433463 0.83777
-0.120652 -0.0430121 0.837271
-0.12204 -0.0426817 0.836835
-0.123438 -0.0423552 0.836482
-0.124838 -0.0420293 0.836149
-0.126251 -0.0417091 0.835917
-0.127688 -0.0413966 0.835846
-0.129124 -0.0410842 0.835776
-0.13056 -0.0407717 0.835705
-0.132008 -0.0404629 0.835713
-0.133457 -0.0401541 0.835726
-0.13492 -0.0398492 0.835826
-0.136384 -0.0395452 0.835932
-0.137861 -0.0392438 0.836116
-0.139326 -0.0389395 0.836222
-0.140805 -0.0386382 0.836409
-0.142299 -0.0383397 0.836683
-0.143838 -0.0380543 0.837227
-0.145383 -0.0377688 0.837798
-0.146945 -0.0374872 0.838452
-0.148521 -0.0372072 0.839183
-0.150071 -0.0369203 0.839735
-0.151623 -0.0366318 0.840293
-0.153192 -0.0363476 0.840937
-0.154765 -0.0360629 0.841594
-0.156313 -0.0357716 0.842091
-0.157857 -0.0354774 0.842549
-0.159427 -0.0351901 0.843153
-0.16099 -0.0348991 0.843699
-0.162608 -0.034619 0.844541
-0.164247 -0.0343424 0.845473
-0.165902 -0.0340673 0.846472
-0.167492 -0.0337787 0.847117
-0.169099 -0.0334911 0.847825
-0.170726 -0.0332062 0.84863
-0.172366 -0.0329242 0.849491
-0.17413 -0.0326633 0.850967
-0.175888 -0.0323997 0.852394
-0.177687 -0.0321411 0.853997
-0.179539 -0.0318907 0.855838
-0.181382 -0.031636 0.857607
-0.183186 -0.031372 0.859147
-0.185059 -0.0311176 0.861
-0.0178789 -0.0690277 0.869035
-0.0193288 -0.0685754 0.867273
-0.0207749 -0.0681311 0.865583
-0.0222156 -0.0676881 0.863905
-0.0236608 -0.067276 0.862622
-0.0251088 -0.0668852 0.861611
-0.026552 -0.06649 0.86053
-0.0279942 -0.0661016 0.859526
-0.0294359 -0.0657198 0.858616
-0.030864 -0.0653144 0.857364
-0.0322909 -0.064915 0.856188
-0.0337193 -0.0645273 0.855167
-0.0351466 -0.0641445 0.85419
-0.0365853 -0.0637883 0.853589
-0.0380198 -0.0634283 0.852922
-0.039458 -0.0630787 0.85239
-0.0408934 -0.062727 0.851834
-0.0423322 -0.0623833 0.851385
-0.0437676 -0.0620367 0.850891
-0.0452222 -0.0617202 0.85082
-0.046677 -0.0614037 0.850749
-0.0481358 -0.061093 0.850758
-0.0495953 -0.0607823 0.850773
-0.0510599 -0.0604779 0.850877
-0.0525352 -0.0601857 0.851153
-0.0539974 -0.0598762 0.851192
-0.0554489 -0.0595543 0.851049
-0.0569086 -0.0592421 0.851035
-0.0583528 -0.0589129 0.850779
-0.0597868 -0.0585742 0.850376
-0.0612414 -0.0582572 0.850297
-0.0627073 -0.057951 0.850383
-0.0641874 -0.057657 0.850665
-0.0656898 -0.0573826 0.851237
-0.0672269 -0.0571359 0.852256
-0.0687755 -0.0568952 0.853379
-0.0703356 -0.05666 0.8546
-0.0719206 -0.0564413 0.856081
-0.0735183 -0.0562268 0.85766
-0.075104 -0.0559974 0.859025
-0.0766484 -0.0557336 0.859835
-0.0781661 -0.0554464 0.860301
-0.0795977 -0.0550969 0.859752
-0.0809793 -0.0547129 0.858659
-0.0823159 -0.0543021 0.857101
-0.0836389 -0.0538866 0.855449
-0.0849397 -0.0534616 0.853616
-0.0862444 -0.0530437 0.851885
-0.0875534 -0.0526327 0.850256
-0.0888776 -0.0522354 0.848832
-0.0902404 -0.0518648 0.847839
-0.0916138 -0.0515024 0.846981
-0.0929855 -0.0511409 0.846132
-0.0943702 -0.0507887 0.845432
-0.0957684 -0.0504453 0.844879
-0.0971513 -0.050095 0.844196
-0.0985422 -0.049751 0.843606
-0.0999212 -0.0494009 0.842927
-0.101284 -0.0490452 0.842118
-0.102652 -0.0486932 0.84138
-0.104041 -0.0483534 0.840835
-0.105435 -0.0480162 0.840351
-0.106867 -0.0476978 0.840199
-0.108279 -0.0473709 0.839874
-0.109666 -0.0470328 0.839362
-0.111051 -0.0466957 0.838843
-0.112446 -0.0463629 0.838417
-0.113834 -0.0460284 0.837943
-0.115251 -0.0457063 0.837702
-0.116666 -0.0453836 0.837447
-0.118078 -0.0450604 0.83718
-0.119481 -0.0447342 0.83685
-0.120884 -0.0444081 0.836522
-0.122296 -0.0440862 0.83627
-0.123708 -0.0437646 0.836021
-0.125121 -0.0434436 0.835783
-0.126546 -0.0431273 0.835634
-0.127982 -0.0428148 0.835564
-0.129419 -0.0425023 0.835493
-0.130855 -0.0421898 0.835423
-0.132291 -0.0418774 0.835353
-0.133728 -0.0415649 0.835282
-0.135176 -0.0412561 0.83529
-0.136613 -0.0409438 0.835225
-0.138062 -0.0406352 0.835236
-0.139512 -0.0403264 0.835246
-0.140975 -0.0400215 0.83534
-0.14244 -0.0397169 0.835446
-0.143947 -0.0394235 0.8358
-0.145458 -0.039131 0.836176
-0.146987 -0.0388423 0.836648
-0.148545 -0.03856 0.837279
-0.150093 -0.0382749 0.837839
-0.151659 -0.0379932 0.838492
-0.153242 -0.0377143 0.83923
-0.15483 -0.0374354 0.839984
-0.156393 -0.037149 0.840574
-0.157952 -0.0368609 0.84113
-0.159538 -0.0365785 0.841827
-0.161131 -0.0362962 0.842547
-0.162764 -0.0360217 0.843475
-0.164418 -0.0357501 0.844496
-0.166104 -0.0354843 0.845668
-0.167745 -0.0352074 0.846581
-0.169389 -0.0349294 0.847491
-0.171087 -0.0346616 0.848666
-0.17278 -0.0343903 0.849791
-0.174563 -0.0341357 0.851362
-0.176305 -0.0338708 0.852697
-0.178063 -0.0336075 0.854082
-0.179856 -0.0333483 0.855625
-0.181661 -0.0330886 0.857191
-0.183467 -0.0328282 0.858741
-0.185363 -0.0325809 0.860707
-0.0196114 -0.0699526 0.865902
-0.0210591 -0.0695205 0.864406
-0.022505 -0.0690991 0.863036
-0.023955 -0.0687049 0.862015
-0.025406 -0.0683237 0.861144
-0.0268512 -0.0679344 0.860158
-0.0282958 -0.0675519 0.859253
-0.0297369 -0.0671679 0.858337
-0.0311647 -0.0667606 0.857086
-0.0325908 -0.0663586 0.855897
-0.0340188 -0.0659692 0.854871
-0.0354455 -0.0655841 0.853891
-0.0368841 -0.0652275 0.85329
-0.0383182 -0.0648664 0.852622
-0.0397566 -0.0645163 0.852099
-0.041192 -0.0641644 0.851546
-0.0426308 -0.0638203 0.851099
-0.0440662 -0.0634733 0.850605
-0.0455247 -0.0631626 0.850614
-0.0469839 -0.0628523 0.850629
-0.0484481 -0.0625481 0.850733
-0.0499131 -0.0622444 0.850843
-0.0513837 -0.0619467 0.851042
-0.0528555 -0.0616492 0.851247
-0.054319 -0.0613407 0.851294
-0.0557705 -0.0610179 0.851138
-0.0572243 -0.0606981 0.851024
-0.0586627 -0.0603619 0.850671
-0.0600958 -0.0600214 0.850251
-0.0615504 -0.059704 0.850168
-0.0630181 -0.0593994 0.850275
-0.0645065 -0.0591139 0.850668
-0.066023 -0.0588525 0.851427
-0.067568 -0.0586137 0.852535
-0.0691256 -0.0583817 0.853758
-0.0706941 -0.058154 0.855067
-0.0722742 -0.0579322 0.856465
-0.073853 -0.0577031 0.857788
-0.0754147 -0.0574568 0.858845
-0.0769267 -0.0571687 0.859264
-0.0784111 -0.0568581 0.859342
-0.0798171 -0.0564898 0.858515
-0.0811799 -0.0560927 0.857232
-0.0824984 -0.055669 0.855502
-0.0838096 -0.0552455 0.85375
-0.0851011 -0.0548137 0.85185
-0.0864128 -0.0543999 0.850224
-0.0877392 -0.0539999 0.848803
-0.0890884 -0.0536178 0.847659
-0.0904611 -0.0532527 0.846782
-0.0918499 -0.0528992 0.846091
-0.0932207 -0.0525372 0.845247
-0.0945955 -0.0521792 0.844463
-0.0959825 -0.0518299 0.843816
-0.0973618 -0.0514778 0.843115
-0.0987329 -0.0511229 0.842359
-0.100108 -0.0507718 0.841661
-0.101478 -0.0504199 0.840938
-0.102837 -0.0500633 0.840131
-0.104216 -0.0497189 0.839523
-0.105617 -0.0493858 0.839108
-0.107038 -0.0490632 0.838876
-0.108438 -0.0487312 0.838472
-0.109833 -0.0483978 0.83804
-0.111215 -0.0480592 0.837512
-0.112598 -0.0477222 0.837005
-0.113993 -0.0473911 0.8366
-0.115409 -0.0470692 0.836362
-0.116823 -0.0467474 0.836121
-0.118247 -0.0464297 0.835953
-0.11966 -0.046108 0.835712
-0.121084 -0.0457907 0.835551
-0.12252 -0.0454781 0.835477
-0.123956 -0.0451657 0.835409
-0.125393 -0.0448537 0.835345
-0.126841 -0.0445452 0.835352
-0.128277 -0.0442327 0.835282
-0.129713 -0.0439203 0.835211
-0.13115 -0.0436078 0.835141
-0.132574 -0.0432914 0.834993
-0.13401 -0.0429787 0.834916
-0.135445 -0.0426661 0.834844
-0.136857 -0.042346 0.834615
-0.138279 -0.0420294 0.834458
-0.139713 -0.0417164 0.834374
-0.141149 -0.0414039 0.834303
-0.142587 -0.0410924 0.834249
-0.144077 -0.0407956 0.834508
-0.145569 -0.0404989 0.834776
-0.147078 -0.0402064 0.835137
-0.148618 -0.0399218 0.835674
-0.150163 -0.0396375 0.83623
-0.151724 -0.0393565 0.836867
-0.153303 -0.039079 0.837593
-0.154887 -0.0388014 0.83833
-0.156445 -0.0385161 0.838905
-0.158017 -0.038233 0.839545
-0.159603 -0.0379526 0.840256
-0.161212 -0.0376764 0.841076
-0.162861 -0.0374083 0.842095
-0.164531 -0.0371435 0.843213
-0.166233 -0.0368841 0.84448
-0.167942 -0.0366239 0.845752
-0.169641 -0.0363599 0.846955
-0.171393 -0.0361056 0.848414
-0.173155 -0.0358508 0.849893
-0.174972 -0.0356054 0.851629
-0.176664 -0.0353327 0.8527
-0.178364 -0.0350592 0.853791
-0.180112 -0.0347936 0.855102
-0.18188 -0.0345298 0.85649
-0.18369 -0.0342731 0.858063
-0.185628 -0.0340368 0.860226
-0.0213477 -0.070925 0.863463
-0.0227988 -0.0705249 0.862384
-0.0242531 -0.0701457 0.861565
-0.0257096 -0.0697811 0.860925
-0.0271572 -0.0693973 0.860034
-0.0286022 -0.0690146 0.859147
-0.0300467 -0.0686375 0.858328
-0.0314747 -0.0682286 0.857086
-0.0328977 -0.0678177 0.855811
-0.0343226 -0.0674202 0.854698
-0.0357487 -0.0670324 0.853704
-0.0371838 -0.0666685 0.853016
-0.0386212 -0.0663125 0.85243
-0.0400593 -0.0659614 0.851904
-0.0414948 -0.0656086 0.851351
-0.0429333 -0.0652636 0.850899
-0.0443684 -0.0649154 0.8504
-0.0458274 -0.0646052 0.850415
-0.0472877 -0.0642962 0.850445
-0.048757 -0.0639993 0.850646
-0.050228 -0.063703 0.850855
-0.0517046 -0.0634127 0.851152
-0.0531731 -0.0631104 0.851284
-0.0546409 -0.0628065 0.851396
-0.0560928 -0.0624831 0.851236
-0.0575427 -0.062158 0.851049
-0.0589754 -0.0618147 0.850602
-0.0604073 -0.0614719 0.850161
-0.0618615 -0.0611537 0.850067
-0.0633302 -0.06085 0.850183
-0.0648208 -0.0605668 0.8506
-0.0663445 -0.060313 0.85145
-0.0678974 -0.0600823 0.852651
-0.0694619 -0.0598573 0.853951
-0.0710327 -0.0596329 0.855272
-0.0726136 -0.0594122 0.856663
-0.074177 -0.0591722 0.85778
-0.0757148 -0.0589075 0.858536
-0.0771947 -0.0585947 0.858573
-0.0786532 -0.0582652 0.858357
-0.0800425 -0.0578848 0.857356
-0.0813807 -0.05747 0.855816
-0.0826887 -0.0570382 0.853997
-0.0839972 -0.0566119 0.852246
-0.0852889 -0.0561794 0.850376
-0.0866089 -0.0557708 0.848864
-0.0879594 -0.0553858 0.847713
-0.0893325 -0.0550186 0.846827
-0.0907147 -0.054659 0.846058
-0.0921111 -0.0543099 0.84545
-0.0934805 -0.0539463 0.844599
-0.0948515 -0.0535856 0.843789
-0.0962205 -0.0532256 0.842982
-0.0975885 -0.0528672 0.842189
-0.0989492 -0.0525064 0.841351
-0.100323 -0.0521548 0.840656
-0.101694 -0.0518031 0.839952
-0.103054 -0.0514471 0.839168
-0.104433 -0.0511026 0.838571
-0.105833 -0.0507692 0.838159
-0.107243 -0.0504418 0.837842
-0.108631 -0.0501043 0.837352
-0.110023 -0.0497702 0.83691
-0.111402 -0.0494304 0.836369
-0.112782 -0.0490922 0.835848
-0.114174 -0.0487602 0.835432
-0.115587 -0.0484382 0.835191
-0.117001 -0.0481167 0.834954
-0.118424 -0.0477995 0.834796
-0.119848 -0.0474828 0.834642
-0.121284 -0.047171 0.834578
-0.122732 -0.0468637 0.834599
-0.124181 -0.0465567 0.834627
-0.12564 -0.0462536 0.834726
-0.1271 -0.04595 0.834822
-0.128537 -0.0456383 0.834761
-0.129973 -0.0453259 0.834691
-0.131408 -0.0450129 0.834611
-0.132818 -0.0446919 0.834374
-0.134241 -0.0443753 0.834218
-0.135676 -0.0440628 0.834143
-0.137085 -0.0437421 0.833908
-0.138506 -0.0434251 0.833743
-0.139936 -0.0431116 0.833646
-0.141359 -0.0427953 0.833495
-0.142782 -0.0424796 0.833353
-0.14427 -0.0421834 0.833607
-0.145735 -0.04188 0.833719
-0.147229 -0.0415844 0.833995
-0.148752 -0.0412965 0.834439
-0.150278 -0.0410086 0.834889
-0.151809 -0.0407213 0.83536
-0.153368 -0.0404407 0.835982
-0.15493 -0.0401596 0.836606
-0.156481 -0.0398747 0.837157
-0.158048 -0.039593 0.837785
-0.159634 -0.0393148 0.838504
-0.161257 -0.0390445 0.839411
-0.162891 -0.0387752 0.840357
-0.164559 -0.0385129 0.841475
-0.166275 -0.03826 0.842825
-0.168017 -0.0380107 0.844285
-0.169753 -0.0377578 0.845687
-0.171559 -0.0375185 0.847429
-0.17337 -0.0372775 0.849163
-0.175207 -0.0370397 0.851001
-0.17688 -0.0367645 0.85198
-0.178543 -0.0364857 0.852886
-0.180265 -0.0362177 0.854072
-0.182028 -0.035956 0.855439
-0.183859 -0.0357057 0.857114
-0.185841 -0.0354822 0.859491
-0.0230976 -0.0719673 0.86195
-0.0245594 -0.0716129 0.861456
-0.0260182 -0.0712539 0.860899
-0.0274689 -0.0708766 0.860106
-0.0289169 -0.0704997 0.859311
-0.030362 -0.0701214 0.858494
-0.0317907 -0.069711 0.857261
-0.0332144 -0.0692989 0.855996
-0.0346365 -0.0688926 0.854795
-0.0360592 -0.0684957 0.853704
-0.0374905 -0.0681227 0.852914
-0.0389276 -0.0677653 0.852322
-0.0403662 -0.0674139 0.851803
-0.0418022 -0.0670609 0.851259
-0.0432443 -0.0667206 0.850878
-0.0446793 -0.0663712 0.850372
-0.0461347 -0.066055 0.850306
-0.0475956 -0.0657465 0.850343
-0.0490708 -0.0654575 0.850643
-0.0505431 -0.0651626 0.850867
-0.0520248 -0.0648785 0.851243
-0.0534978 -0.0645813 0.851443
-0.0549664 -0.0642774 0.851553
-0.0564191 -0.0639541 0.851395
-0.0578704 -0.0636294 0.851219
-0.0592994 -0.0632804 0.850705
-0.0607313 -0.0629365 0.850256
-0.0621848 -0.0626167 0.850143
-0.0636535 -0.0623125 0.85025
-0.0651392 -0.0620244 0.850587
-0.0666749 -0.0617826 0.85159
-0.0682291 -0.0615541 0.852795
-0.0697962 -0.0613325 0.854111
-0.0713745 -0.0611158 0.855512
-0.0729493 -0.0608909 0.856811
-0.0744919 -0.0606341 0.857656
-0.0760061 -0.060351 0.858121
-0.0774616 -0.060019 0.857871
-0.0788837 -0.0596617 0.857242
-0.0802558 -0.0592681 0.856065
-0.0815772 -0.0588404 0.854361
-0.0828821 -0.0584058 0.852538
-0.0841895 -0.0579784 0.850802
-0.0854944 -0.0575541 0.8491
-0.0868302 -0.0571555 0.847774
-0.0881962 -0.0567807 0.8468
-0.0895782 -0.0564187 0.846017
-0.0909596 -0.0560584 0.84525
-0.0923463 -0.0557033 0.844558
-0.0937036 -0.055332 0.843605
-0.0950641 -0.0549651 0.842708
-0.0964217 -0.0545985 0.841811
-0.0977894 -0.0542399 0.841031
-0.0991572 -0.0538832 0.840272
-0.100531 -0.0535317 0.839592
-0.10191 -0.0531842 0.83897
-0.10328 -0.0528331 0.838282
-0.104668 -0.0524931 0.83777
-0.106067 -0.0521597 0.837362
-0.107484 -0.051836 0.837111
-0.108861 -0.0514931 0.836537
-0.110241 -0.0511527 0.836002
-0.111598 -0.0508033 0.835303
-0.112955 -0.0504547 0.834613
-0.114323 -0.0501125 0.834025
-0.115733 -0.0497901 0.833774
-0.117145 -0.0494689 0.833541
-0.118579 -0.0491571 0.833471
-0.120022 -0.0488495 0.833477
-0.121479 -0.0485471 0.833576
-0.122939 -0.0482456 0.833689
-0.1244 -0.0479442 0.833811
-0.125871 -0.0476465 0.833999
-0.127332 -0.0473439 0.834106
-0.128769 -0.0470325 0.83405
-0.130204 -0.0467202 0.83398
-0.131637 -0.0464072 0.833895
-0.133046 -0.0460857 0.833647
-0.134466 -0.0457685 0.833482
-0.135899 -0.0454556 0.833399
-0.137309 -0.0451353 0.833172
-0.138729 -0.0448183 0.833007
-0.140158 -0.0445047 0.832907
-0.141578 -0.044188 0.832745
-0.142999 -0.0438721 0.832598
-0.144487 -0.0435768 0.832858
-0.145953 -0.0432742 0.832977
-0.147449 -0.04298 0.833268
-0.148958 -0.0426894 0.833633
-0.150468 -0.0423982 0.833993
-0.151966 -0.0421028 0.834277
-0.153479 -0.0418111 0.834642
-0.155009 -0.0415232 0.835091
-0.156528 -0.0412315 0.83547
-0.158076 -0.0409473 0.836008
-0.159644 -0.0406666 0.836639
-0.161263 -0.0403983 0.837538
-0.162876 -0.0401267 0.838383
-0.164539 -0.0398657 0.839479
-0.166251 -0.0396154 0.840822
-0.168005 -0.0393727 0.842358
-0.169756 -0.0391272 0.843856
-0.171595 -0.0388993 0.845776
-0.173424 -0.0386661 0.847609
-0.175276 -0.0384356 0.849532
-0.176952 -0.0381637 0.85053
-0.178612 -0.0378865 0.85143
-0.180313 -0.0376167 0.85252
-0.182091 -0.0373614 0.853967
-0.183941 -0.0371184 0.85574
-0.185979 -0.0369111 0.858398
-0.0233988 -0.073418 0.861625
-0.0248664 -0.0730821 0.861363
-0.0263284 -0.0727311 0.860914
-0.0277818 -0.07236 0.860214
-0.0292326 -0.0719878 0.859495
-0.0306809 -0.0716152 0.858764
-0.0321126 -0.0712086 0.857606
-0.0335373 -0.070795 0.856349
-0.0349598 -0.070386 0.855141
-0.0363827 -0.0699862 0.854037
-0.0378074 -0.0695976 0.853067
-0.0392415 -0.0692324 0.852387
-0.0406806 -0.0688803 0.85187
-0.0421142 -0.0685214 0.851262
-0.0435564 -0.0681804 0.850879
-0.0449915 -0.0678295 0.850367
-0.0464427 -0.0675061 0.850207
-0.0479035 -0.0671972 0.850236
-0.0493832 -0.0669144 0.850613
-0.0508558 -0.0666198 0.850834
-0.0523388 -0.0663372 0.851222
-0.053812 -0.0660399 0.851415
-0.0552803 -0.0657353 0.851512
-0.0567337 -0.0654121 0.851361
-0.0581865 -0.0650885 0.851203
-0.0596167 -0.0647396 0.850701
-0.0610489 -0.064395 0.850253
-0.0625021 -0.0640742 0.850128
-0.0639708 -0.0637697 0.850228
-0.0654565 -0.0634816 0.850557
-0.066999 -0.0632473 0.851642
-0.0685592 -0.0630254 0.852911
-0.0701277 -0.0628064 0.854233
-0.0717086 -0.0625932 0.855653
-0.0732723 -0.0623595 0.856795
-0.0748005 -0.0620911 0.857453
-0.0762923 -0.0617899 0.857647
-0.0777313 -0.0614446 0.857207
-0.0791235 -0.0610634 0.856242
-0.0804789 -0.0606565 0.854893
-0.0817897 -0.0602199 0.853096
-0.0830915 -0.059782 0.851261
-0.0843967 -0.0593522 0.849528
-0.0857095 -0.0589328 0.847931
-0.0870524 -0.0585387 0.846699
-0.0884251 -0.0581683 0.84581
-0.0898141 -0.0578111 0.845111
-0.0911862 -0.0574446 0.844265
-0.0925709 -0.0570883 0.843568
-0.0939246 -0.0567145 0.842594
-0.0952745 -0.0563409 0.841613
-0.0966223 -0.0559685 0.84064
-0.0979976 -0.0556144 0.839945
-0.0993647 -0.0552575 0.839195
-0.100746 -0.0549102 0.838594
-0.102134 -0.0545679 0.838063
-0.103512 -0.054221 0.837457
-0.1049 -0.0538807 0.83695
-0.106296 -0.0535462 0.836529
-0.107702 -0.0532172 0.836194
-0.109076 -0.052873 0.83561
-0.110446 -0.0525282 0.835008
-0.111792 -0.0521728 0.834224
-0.113136 -0.0518185 0.83345
-0.114491 -0.0514704 0.832772
-0.115878 -0.0511382 0.832356
-0.117287 -0.0508165 0.832113
-0.118709 -0.0505011 0.831973
-0.120162 -0.0501991 0.832064
-0.121629 -0.0499024 0.832249
-0.123099 -0.0496063 0.832448
-0.124559 -0.0493058 0.832573
-0.126051 -0.0490176 0.832917
-0.127523 -0.0487205 0.83311
-0.128973 -0.0484148 0.83315
-0.130419 -0.0481073 0.833162
-0.131862 -0.0477982 0.833145
-0.133269 -0.0474763 0.832894
-0.134688 -0.0471591 0.832729
-0.136121 -0.0468469 0.832654
-0.137543 -0.0465306 0.832505
-0.138964 -0.0462143 0.832352
-0.140407 -0.0459057 0.832344
-0.141827 -0.0455893 0.832188
-0.143248 -0.0452732 0.832037
-0.144735 -0.0449784 0.832294
-0.146215 -0.0446805 0.832496
-0.1477 -0.044384 0.832728
-0.149208 -0.0440937 0.833087
-0.150717 -0.0438031 0.833443
-0.152184 -0.0434997 0.833553
-0.153667 -0.0432002 0.833745
-0.155165 -0.0429048 0.83402
-0.156652 -0.0426056 0.834226
-0.158185 -0.0423187 0.834684
-0.159736 -0.0420354 0.835228
-0.16132 -0.0417603 0.835945
-0.162911 -0.0414855 0.836684
-0.164534 -0.0412177 0.83758
-0.166192 -0.0409572 0.838648
-0.167911 -0.0407094 0.840007
-0.169641 -0.040463 0.841411
-0.171459 -0.0402346 0.843234
-0.173299 -0.0400092 0.845147
-0.175166 -0.0397867 0.847157
-0.176874 -0.039525 0.848331
-0.178551 -0.0392547 0.849333
-0.180237 -0.0389846 0.850357
-0.181992 -0.0387277 0.851702
-0.18387 -0.0384956 0.853628
-0.18593 -0.0382985 0.856402
-0.188093 -0.0367153 0.861377
-0.18812 -0.038124 0.859752
-0.190107 -0.0364953 0.863826
-0.190246 -0.0379319 0.862744
-0.022243 -0.0752467 0.862056
-0.0237131 -0.0749143 0.861842
-0.0251843 -0.0745867 0.861685
-0.0266505 -0.0742454 0.861362
-0.028108 -0.0738815 0.860767
-0.0295569 -0.0734998 0.859948
-0.0310057 -0.0731244 0.859201
-0.032438 -0.0727154 0.858038
-0.0338638 -0.0723003 0.856791
-0.0352876 -0.0718901 0.855592
-0.0367078 -0.0714814 0.854402
-0.0381255 -0.0710754 0.853238
-0.0395556 -0.0707005 0.852452
-0.0409917 -0.0703412 0.851856
-0.0424259 -0.0699821 0.851257
-0.0438734 -0.0696486 0.850977
-0.0453125 -0.0693027 0.850537
-0.0467599 -0.0689718 0.850288
-0.0482198 -0.0686606 0.850287
-0.049695 -0.0683711 0.850569
-0.0511641 -0.0680712 0.850716
-0.0526426 -0.0677828 0.851018
-0.054116 -0.0674858 0.851211
-0.0555795 -0.0671752 0.851226
-0.0570379 -0.0668579 0.851154
-0.0584963 -0.0665406 0.851083
-0.0599271 -0.0661916 0.85059
-0.061365 -0.0658524 0.850223
-0.0628186 -0.0655315 0.850099
-0.0642886 -0.0652281 0.850211
-0.0657749 -0.0649405 0.850538
-0.0673305 -0.0647202 0.85179
-0.0688932 -0.0645017 0.853077
-0.0704639 -0.0642856 0.854409
-0.0720452 -0.0640739 0.855817
-0.0735963 -0.0638297 0.856788
-0.0751049 -0.0635448 0.857199
-0.0765804 -0.0632297 0.857195
-0.0780033 -0.0628709 0.856572
-0.0793707 -0.062469 0.855332
-0.080715 -0.0620525 0.853875
-0.0820213 -0.0616113 0.852048
-0.0833143 -0.0611657 0.850139
-0.0846263 -0.06074 0.8485
-0.0859391 -0.0603195 0.846922
-0.087288 -0.0599292 0.845768
-0.0886526 -0.059553 0.844811
-0.0900397 -0.0591947 0.844108
-0.091393 -0.0588157 0.843093
-0.0927746 -0.0584578 0.84238
-0.0941176 -0.0580773 0.841324
-0.0954745 -0.0577081 0.840426
-0.0968304 -0.0573405 0.839544
-0.0982228 -0.0569969 0.839019
-0.0995899 -0.0566397 0.838281
-0.10098 -0.0562973 0.837764
-0.102367 -0.0559542 0.837231
-0.103743 -0.0556065 0.836621
-0.105121 -0.0552611 0.836042
-0.106516 -0.0549261 0.83562
-0.10791 -0.0545916 0.835202
-0.109273 -0.0542419 0.834537
-0.110632 -0.0538913 0.833854
-0.111966 -0.0535302 0.832992
-0.113297 -0.0531695 0.832129
-0.114636 -0.0528146 0.831348
-0.116008 -0.0524764 0.830836
-0.117405 -0.0521503 0.830518
-0.118824 -0.0518348 0.830374
-0.120288 -0.0515389 0.830553
-0.121765 -0.0512482 0.830826
-0.123246 -0.0509588 0.831122
-0.124716 -0.0506636 0.831326
-0.126218 -0.0503811 0.831749
-0.127699 -0.0500892 0.832018
-0.12916 -0.0497887 0.832141
-0.13062 -0.0494872 0.832248
-0.132076 -0.049184 0.83233
-0.133495 -0.0488669 0.832167
-0.134915 -0.0485501 0.832008
-0.136348 -0.048238 0.831935
-0.137782 -0.0479268 0.831873
-0.139205 -0.0476112 0.831734
-0.140651 -0.0473038 0.831744
-0.142071 -0.0469877 0.831595
-0.143491 -0.0466715 0.831443
-0.144976 -0.0463769 0.831691
-0.146456 -0.04608 0.8319
-0.147941 -0.0457839 0.832129
-0.149449 -0.0454949 0.832494
-0.150955 -0.0452041 0.832835
-0.152408 -0.0448968 0.83286
-0.153887 -0.0445972 0.833039
-0.155383 -0.0443019 0.833302
-0.156853 -0.0439988 0.833419
-0.158369 -0.0437082 0.833784
-0.159901 -0.0434211 0.834229
-0.161454 -0.0431392 0.834781
-0.163009 -0.0428569 0.835332
-0.164595 -0.0425818 0.83604
-0.166217 -0.0423142 0.836919
-0.167879 -0.0420559 0.837995
-0.169585 -0.0418064 0.839279
-0.171363 -0.041573 0.840914
-0.17318 -0.0413464 0.842719
-0.175027 -0.0411239 0.844642
-0.176747 -0.0408689 0.845896
-0.178427 -0.0406024 0.846924
-0.180095 -0.0403317 0.847877
-0.181809 -0.0400696 0.849038
-0.183677 -0.0398397 0.850924
-0.185729 -0.039647 0.853675
-0.187979 -0.0394927 0.857327
-0.190206 -0.0393282 0.860811
-0.192265 -0.0377138 0.865176
-0.192342 -0.0391397 0.863806
-0.0240347 -0.0764361 0.862337
-0.0255112 -0.0761219 0.862343
-0.0269803 -0.0757838 0.862067
-0.0284424 -0.0754279 0.861579
-0.0298903 -0.0750374 0.860676
-0.0313398 -0.0746586 0.859907
-0.0327707 -0.074241 0.858666
-0.0341978 -0.0738244 0.857426
-0.035623 -0.0734125 0.856235
-0.0370406 -0.0729936 0.854949
-0.0384553 -0.0725774 0.853686
-0.0398814 -0.0721917 0.852784
-0.0413138 -0.0718232 0.852088
-0.0427449 -0.0714565 0.851408
-0.0441938 -0.0711235 0.851141
-0.0456338 -0.0707773 0.850709
-0.0470735 -0.0704328 0.850293
-0.0485287 -0.0701138 0.850194
-0.0499988 -0.0698166 0.850372
-0.0514631 -0.06951 0.850432
-0.0529373 -0.0692161 0.850655
-0.0544156 -0.0689261 0.850931
-0.0558787 -0.0686151 0.850939
-0.0573371 -0.0682978 0.850868
-0.0588006 -0.0679866 0.850876
-0.0602372 -0.0676437 0.850471
-0.0616815 -0.067311 0.850196
-0.0631359 -0.0669903 0.850078
-0.0646119 -0.066693 0.850267
-0.0661006 -0.0664076 0.850619
-0.0676599 -0.0661922 0.851906
-0.0692254 -0.0659773 0.853213
-0.0707966 -0.0657628 0.854537
-0.0723718 -0.0655464 0.855853
-0.0739142 -0.065295 0.856705
-0.0754149 -0.0650033 0.857012
-0.0768752 -0.0646752 0.856826
-0.078289 -0.064308 0.856101
-0.0796377 -0.0638893 0.854655
-0.0809642 -0.0634573 0.853011
-0.0822597 -0.0630061 0.851082
-0.0835514 -0.0625581 0.849179
-0.0848644 -0.062132 0.847567
-0.086184 -0.0617156 0.846079
-0.0875404 -0.0613301 0.845017
-0.0888942 -0.0609457 0.843961
-0.0902711 -0.0605803 0.843167
-0.0916141 -0.060194 0.842065
-0.092985 -0.0598292 0.841265
-0.0943269 -0.0594478 0.840213
-0.0956923 -0.0590839 0.839411
-0.0970575 -0.058722 0.838629
-0.0984511 -0.0583792 0.838125
-0.0998259 -0.0580264 0.837467
-0.101215 -0.0576836 0.836949
-0.1026 -0.0573393 0.836409
-0.103967 -0.056987 0.835738
-0.105344 -0.0566407 0.835154
-0.106719 -0.0562949 0.834573
-0.1081 -0.0559538 0.834058
-0.109449 -0.0555974 0.8333
-0.110796 -0.055241 0.832536
-0.112129 -0.0548792 0.831678
-0.113466 -0.0545215 0.830877
-0.114803 -0.0541656 0.830095
-0.116171 -0.0538262 0.82957
-0.117576 -0.0535046 0.829324
-0.118994 -0.0531894 0.82918
-0.120458 -0.052895 0.829373
-0.121934 -0.0526054 0.829647
-0.123415 -0.0523172 0.82995
-0.124884 -0.0520233 0.83016
-0.126385 -0.051742 0.830585
-0.127865 -0.0514509 0.830854
-0.129327 -0.051152 0.830994
-0.130787 -0.050852 0.831117
-0.132245 -0.0505506 0.831216
-0.133677 -0.0502388 0.831145
-0.135109 -0.0499274 0.831075
-0.136554 -0.0496205 0.831087
-0.138013 -0.0493187 0.831188
-0.13946 -0.0490124 0.831212
-0.140921 -0.0487107 0.831318
-0.142354 -0.0483988 0.831245
-0.143787 -0.0480872 0.831177
-0.145258 -0.0477881 0.831337
-0.146724 -0.0474869 0.83146
-0.148193 -0.0471863 0.831595
-0.149686 -0.0468933 0.831873
-0.151191 -0.0466034 0.832212
-0.152644 -0.0462967 0.832245
-0.154125 -0.0459979 0.83243
-0.155619 -0.045703 0.832687
-0.157086 -0.0453993 0.832786
-0.158569 -0.0451006 0.832977
-0.160099 -0.0448142 0.833413
-0.161635 -0.0445291 0.83388
-0.16316 -0.0442396 0.83427
-0.164713 -0.0439568 0.8348
-0.166296 -0.0436815 0.835484
-0.167888 -0.0434076 0.836205
-0.169539 -0.0431473 0.837211
-0.171275 -0.042907 0.838639
-0.173054 -0.0426752 0.840262
-0.174876 -0.0424514 0.842072
-0.176608 -0.0422031 0.843404
-0.178283 -0.041939 0.844427
-0.179915 -0.041663 0.845217
-0.181567 -0.0413902 0.846089
-0.183363 -0.041149 0.847649
-0.18535 -0.0409483 0.850101
-0.187549 -0.0407907 0.853527
-0.189868 -0.0406543 0.857468
-0.192144 -0.040503 0.861144
-0.0258722 -0.0777691 0.864254
-0.0273453 -0.0774315 0.863998
-0.0288078 -0.077065 0.863403
-0.0302521 -0.0766539 0.862285
-0.0316926 -0.0762426 0.861156
-0.0331164 -0.0758001 0.859652
-0.0345422 -0.0753739 0.858329
-0.0359723 -0.0749672 0.857225
-0.0373884 -0.0745391 0.855859
-0.0388004 -0.0741119 0.854493
-0.0402196 -0.0737082 0.853396
-0.0416447 -0.0733223 0.852507
-0.0430685 -0.0729396 0.851649
-0.0445141 -0.0725991 0.851297
-0.0459553 -0.0722533 0.850878
-0.0473913 -0.0719011 0.850377
-0.048847 -0.0715818 0.850276
-0.0503123 -0.0712767 0.850353
-0.0517721 -0.0709631 0.850324
-0.0532413 -0.0706621 0.850454
-0.0547195 -0.0703722 0.850724
-0.0561779 -0.0700549 0.850653
-0.0576363 -0.0697377 0.850581
-0.0591003 -0.0694272 0.850597
-0.0605426 -0.0690906 0.850279
-0.0619934 -0.0687649 0.8501
-0.063449 -0.0684451 0.849993
-0.0649374 -0.0681612 0.850352
-0.0664388 -0.0678891 0.850868
-0.0680074 -0.0676837 0.85226
-0.0695769 -0.0674734 0.8536
-0.0711491 -0.0672603 0.854916
-0.0727095 -0.0670305 0.856025
-0.0742366 -0.0667653 0.856675
-0.0757158 -0.0664541 0.856718
-0.0771612 -0.0661125 0.856353
-0.078566 -0.0657371 0.855529
-0.0798984 -0.0653033 0.853909
-0.0812072 -0.0648556 0.852082
-0.0825011 -0.0644016 0.850155
-0.0837918 -0.0639514 0.848261
-0.0850977 -0.0635186 0.84659
-0.0864238 -0.0631063 0.845186
-0.0877788 -0.0627194 0.844123
-0.089122 -0.062327 0.842975
-0.0904805 -0.0619485 0.842014
-0.0918187 -0.0615589 0.840883
-0.0931791 -0.0611873 0.839999
-0.0945283 -0.0608108 0.839035
-0.0958949 -0.0604478 0.83826
-0.0972703 -0.0600926 0.837586
-0.0986719 -0.0597553 0.837168
-0.100054 -0.0594072 0.836588
-0.101433 -0.0590586 0.835996
-0.102817 -0.0587141 0.835458
-0.104192 -0.0583656 0.834856
-0.105558 -0.0580133 0.834194
-0.10692 -0.0576612 0.833525
-0.108297 -0.0573177 0.832982
-0.109653 -0.0569649 0.832291
-0.110989 -0.0566027 0.831451
-0.112319 -0.0562397 0.830591
-0.113656 -0.0558818 0.829802
-0.114991 -0.0555249 0.829018
-0.11635 -0.055181 0.82843
-0.117754 -0.0548597 0.828189
-0.119171 -0.0545447 0.828045
-0.120631 -0.0542501 0.828225
-0.122106 -0.0539617 0.828503
-0.123586 -0.0536744 0.828806
-0.125055 -0.0533814 0.82902
-0.126544 -0.0530967 0.829369
-0.128022 -0.0528063 0.829635
-0.129492 -0.0525122 0.829841
-0.130965 -0.0522184 0.830057
-0.132435 -0.051923 0.830249
-0.133891 -0.0516215 0.830341
-0.135335 -0.0513149 0.830353
-0.13678 -0.051009 0.830375
-0.138252 -0.0507127 0.830561
-0.139714 -0.0504119 0.830674
-0.141187 -0.0501153 0.830861
-0.142621 -0.0498042 0.830801
-0.144065 -0.0494963 0.830797
-0.145524 -0.0491934 0.830882
-0.146987 -0.0488918 0.830992
-0.148441 -0.0485867 0.83104
-0.14993 -0.0482931 0.831295
-0.151421 -0.0479995 0.831554
-0.152889 -0.047698 0.831677
-0.154373 -0.0474011 0.831884
-0.155869 -0.0471075 0.832155
-0.157336 -0.0468044 0.832256
-0.158816 -0.0465049 0.832427
-0.160329 -0.0462149 0.832777
-0.16185 -0.0459263 0.833158
-0.163375 -0.0456383 0.833557
-0.164912 -0.0453523 0.834005
-0.166462 -0.0450694 0.834517
-0.168017 -0.0447871 0.835046
-0.169615 -0.044515 0.835782
-0.171297 -0.0442639 0.836942
-0.173038 -0.0440263 0.838382
-0.174821 -0.0437969 0.840007
-0.176529 -0.043546 0.841229
-0.178199 -0.0432833 0.842232
-0.179791 -0.0430005 0.842843
-0.181365 -0.0427121 0.843349
-0.18309 -0.0424587 0.844583
-0.184986 -0.042243 0.846616
-0.187082 -0.0420695 0.849566
-0.189362 -0.0419335 0.853347
-0.191748 -0.0418148 0.857557
-0.194159 -0.0402909 0.863537
-0.193885 -0.0416357 0.86054
-0.0262428 -0.0794506 0.866472
-0.0277119 -0.0790867 0.86593
-0.0291722 -0.0787023 0.86515
-0.0306127 -0.0782699 0.863818
-0.0320487 -0.0778377 0.862474
-0.0334705 -0.0773819 0.860851
-0.0348918 -0.0769377 0.859349
-0.0363232 -0.0765279 0.858235
-0.0377374 -0.0760894 0.856778
-0.0391441 -0.075646 0.855251
-0.0405569 -0.0752247 0.853973
-0.0419743 -0.0748204 0.852885
-0.0433896 -0.0744194 0.851828
-0.0448268 -0.0740628 0.851291
-0.0462681 -0.0737156 0.850864
-0.0477046 -0.0733629 0.850368
-0.0491567 -0.0730371 0.850192
-0.0506129 -0.0727182 0.850097
-0.0520714 -0.0724025 0.850043
-0.0535353 -0.0720943 0.85008
-0.0550087 -0.0717986 0.850271
-0.0564722 -0.0714883 0.850286
-0.0579355 -0.0711775 0.850294
-0.059405 -0.070874 0.850393
-0.0608538 -0.0705447 0.850173
-0.0623068 -0.070221 0.850022
-0.0637686 -0.0699078 0.850001
-0.0652687 -0.0696367 0.850514
-0.0667835 -0.0693788 0.8512
-0.0683553 -0.0691774 0.852614
-0.0699325 -0.0689754 0.854034
-0.0714989 -0.0687569 0.855254
-0.0730383 -0.068507 0.856081
-0.074544 -0.0682219 0.856458
-0.0760073 -0.0678959 0.856306
-0.0774321 -0.0675358 0.855703
-0.078828 -0.0671523 0.854788
-0.0801522 -0.0667102 0.853089
-0.0814449 -0.0662474 0.8511
-0.0827372 -0.0657909 0.849175
-0.0840265 -0.0653381 0.847284
-0.0853309 -0.0649034 0.845618
-0.0866559 -0.0644892 0.844218
-0.0880087 -0.0641005 0.843149
-0.0893425 -0.0637008 0.841921
-0.0906975 -0.0633198 0.840941
-0.0920335 -0.0629284 0.839806
-0.0934003 -0.0625613 0.838999
-0.0947667 -0.062196 0.83821
-0.0961426 -0.0618391 0.837533
-0.0975269 -0.0614895 0.836949
-0.0989185 -0.0611458 0.836447
-0.10029 -0.0607908 0.835779
-0.101657 -0.0604348 0.83509
-0.103041 -0.0600904 0.834562
-0.104406 -0.0597364 0.833891
-0.105769 -0.0593829 0.83322
-0.107127 -0.0590281 0.832524
-0.108492 -0.0586786 0.831899
-0.109847 -0.0583247 0.831204
-0.111182 -0.0579621 0.830375
-0.112523 -0.0576045 0.82961
-0.113869 -0.0572513 0.828904
-0.115216 -0.0568999 0.828219
-0.116577 -0.0565567 0.827652
-0.117991 -0.0562409 0.827494
-0.119407 -0.055926 0.827354
-0.120855 -0.0556264 0.827445
-0.122317 -0.0553326 0.827631
-0.123781 -0.0550398 0.827833
-0.125238 -0.0547426 0.82797
-0.126713 -0.0544531 0.828231
-0.128189 -0.0541635 0.828494
-0.129657 -0.0538697 0.828693
-0.131138 -0.0535808 0.828975
-0.13262 -0.0532912 0.829248
-0.134088 -0.0529955 0.829427
-0.135544 -0.0526946 0.829524
-0.137001 -0.0523939 0.829628
-0.138487 -0.0521037 0.829904
-0.139962 -0.0518089 0.83011
-0.14145 -0.0515183 0.830387
-0.142885 -0.0512076 0.830335
-0.144329 -0.0508999 0.830329
-0.145772 -0.0505922 0.830327
-0.14722 -0.0502858 0.830347
-0.148658 -0.0499759 0.830308
-0.150147 -0.0496831 0.830565
-0.151636 -0.0493897 0.830817
-0.153118 -0.0490933 0.831018
-0.154618 -0.0488025 0.831324
-0.156118 -0.0485108 0.831617
-0.157601 -0.048213 0.831807
-0.15908 -0.0479141 0.831975
-0.160578 -0.04762 0.832241
-0.162097 -0.0473319 0.832617
-0.163623 -0.0470449 0.833018
-0.165145 -0.0467562 0.833394
-0.16668 -0.0464697 0.833821
-0.1682 -0.0461792 0.834175
-0.16976 -0.0458985 0.83472
-0.171408 -0.0456408 0.83571
-0.173128 -0.0454004 0.837047
-0.174878 -0.0451654 0.838505
-0.176581 -0.0449161 0.839707
-0.178228 -0.0446505 0.840611
-0.179781 -0.04436 0.841036
-0.181281 -0.0440557 0.841197
-0.182925 -0.0437856 0.842045
-0.184715 -0.0435495 0.843584
-0.186695 -0.0433558 0.846003
-0.188898 -0.0432099 0.849432
-0.191286 -0.0431014 0.853677
-0.193509 -0.0429493 0.857084
-0.19585 -0.0414155 0.862685
-0.195567 -0.0427556 0.859677
-0.0266232 -0.0811672 0.868984
-0.02809 -0.0807802 0.868205
-0.0295443 -0.0803644 0.8671
-0.0309811 -0.07991 0.865551
-0.0324125 -0.0794552 0.863986
-0.0338267 -0.078971 0.862079
-0.0352422 -0.0785057 0.860368
-0.0366685 -0.0780781 0.859076
-0.0380804 -0.077629 0.857528
-0.0394847 -0.077175 0.855913
-0.0408945 -0.0767434 0.854543
-0.042308 -0.0763277 0.853345
-0.0437192 -0.0759156 0.852181
-0.0451478 -0.075541 0.851447
-0.0465847 -0.075185 0.850923
-0.0480214 -0.074831 0.850422
-0.0494699 -0.0744984 0.850169
-0.0509221 -0.0741725 0.849994
-0.0523796 -0.073855 0.849917
-0.0538383 -0.0735391 0.84986
-0.055307 -0.0732369 0.84997
-0.0567709 -0.0729275 0.849993
-0.0582398 -0.0726239 0.850088
-0.0597153 -0.072328 0.850276
-0.0611708 -0.0720064 0.850153
-0.0626299 -0.0716893 0.850085
-0.064099 -0.0713836 0.850159
-0.0656007 -0.071114 0.850679
-0.0671231 -0.0708644 0.851455
-0.0686973 -0.0706664 0.852882
-0.070269 -0.0704595 0.854214
-0.0718286 -0.0702347 0.855329
-0.0733532 -0.0699707 0.85596
-0.0748442 -0.0696719 0.856153
-0.0762996 -0.0693384 0.855906
-0.0777234 -0.0689769 0.855297
-0.0791114 -0.0685853 0.854295
-0.080435 -0.068141 0.852601
-0.0817189 -0.0676684 0.850524
-0.0830019 -0.0672022 0.848512
-0.0842822 -0.0667402 0.846538
-0.0855838 -0.0663018 0.844856
-0.0869082 -0.0658863 0.843465
-0.0882515 -0.0654895 0.84231
-0.0895764 -0.0650825 0.841007
-0.0909205 -0.0646933 0.839933
-0.0922479 -0.0642954 0.83873
-0.0936054 -0.063922 0.83785
-0.0949807 -0.0635631 0.837162
-0.0963648 -0.0632121 0.836573
-0.0977483 -0.062862 0.835994
-0.0991355 -0.062516 0.835465
-0.100512 -0.0621644 0.834855
-0.101869 -0.0618021 0.83409
-0.103243 -0.0614522 0.833491
-0.104605 -0.0610966 0.832808
-0.105967 -0.060742 0.832132
-0.107324 -0.0603871 0.831443
-0.108698 -0.0600426 0.830902
-0.110064 -0.0596952 0.830311
-0.11141 -0.0593383 0.829577
-0.112761 -0.0589857 0.828901
-0.114118 -0.0586374 0.82828
-0.115476 -0.0582913 0.827686
-0.116848 -0.0579534 0.827207
-0.118263 -0.0576381 0.827061
-0.119688 -0.057328 0.826991
-0.121124 -0.057023 0.826998
-0.122573 -0.0567237 0.827092
-0.124024 -0.056425 0.827198
-0.125476 -0.0561266 0.827308
-0.126927 -0.0558271 0.827405
-0.128389 -0.0555326 0.82758
-0.129843 -0.0552336 0.827688
-0.131312 -0.0549407 0.827895
-0.132792 -0.0546521 0.828171
-0.134273 -0.0543629 0.828442
-0.135742 -0.0540683 0.82863
-0.137212 -0.0537734 0.828817
-0.138708 -0.0534883 0.829165
-0.140197 -0.0531996 0.829458
-0.141688 -0.0529112 0.829761
-0.143137 -0.052606 0.829794
-0.14458 -0.0522984 0.829788
-0.146019 -0.0519895 0.829763
-0.147454 -0.051679 0.82971
-0.148891 -0.0513692 0.829669
-0.150368 -0.051073 0.829857
-0.151856 -0.0507801 0.830105
-0.153336 -0.0504841 0.830305
-0.154835 -0.0501937 0.830603
-0.15635 -0.0499079 0.830986
-0.157849 -0.0496164 0.831271
-0.159331 -0.0493184 0.831455
-0.160828 -0.0490249 0.831715
-0.162345 -0.0487369 0.832078
-0.163869 -0.0484501 0.832471
-0.165392 -0.0481628 0.832855
-0.166927 -0.0478777 0.833288
-0.168448 -0.0475875 0.833638
-0.170002 -0.047307 0.834162
-0.171633 -0.0470457 0.835057
-0.173321 -0.0467995 0.836236
-0.175053 -0.0465626 0.837608
-0.176721 -0.0463067 0.838641
-0.178347 -0.0460374 0.839442
-0.179884 -0.0457439 0.83979
-0.181366 -0.0454361 0.839869
-0.182938 -0.0451505 0.840381
-0.184663 -0.0449017 0.841614
-0.186516 -0.0446821 0.843435
-0.188586 -0.0445119 0.846253
-0.190898 -0.0443945 0.850157
-0.193125 -0.0442508 0.853599
-0.195235 -0.0440755 0.856452
-0.19729 -0.0424842 0.860692
-0.197047 -0.0438287 0.857898
-0.198653 -0.0421344 0.860061
-0.198497 -0.0434989 0.857679
-0.201832 -0.0421703 0.867622
-0.200049 -0.0431915 0.857919
-0.0269774 -0.0827988 0.870473
-0.0284466 -0.0824095 0.869688
-0.0299029 -0.0819896 0.868561
-0.0313434 -0.0815356 0.867051
-0.0327711 -0.0810616 0.865308
-0.0341829 -0.0805627 0.863277
-0.035593 -0.0800769 0.861375
-0.0370133 -0.0796289 0.859883
-0.0384258 -0.0791753 0.858317
-0.0398308 -0.0787175 0.85669
-0.0412384 -0.0782762 0.855239
-0.0426491 -0.0778507 0.853956
-0.0440529 -0.0774208 0.852612
-0.0454693 -0.0770216 0.851612
-0.0468973 -0.0766483 0.850899
-0.0483296 -0.0762858 0.850309
-0.049774 -0.0759459 0.849975
-0.0512264 -0.0756198 0.849801
-0.0526831 -0.0753008 0.849707
-0.0541413 -0.0749841 0.849642
-0.0556056 -0.0746759 0.849675
-0.057075 -0.0743739 0.849785
-0.0585501 -0.0740786 0.849975
-0.0600322 -0.0737908 0.850257
-0.0614942 -0.0734766 0.850225
-0.0629599 -0.0731666 0.850243
-0.0644296 -0.0728608 0.850314
-0.0659325 -0.0725924 0.850839
-0.0674574 -0.0723456 0.851634
-0.0690266 -0.0721431 0.852979
-0.0705931 -0.0719316 0.854226
-0.0721446 -0.0716996 0.855229
-0.0736553 -0.0714221 0.85568
-0.075132 -0.0711095 0.855695
-0.0765794 -0.0707686 0.855359
-0.0779949 -0.0703992 0.85466
-0.0793749 -0.0699998 0.853577
-0.0806959 -0.0695517 0.851867
-0.081985 -0.0690817 0.849866
-0.0832658 -0.0686118 0.847843
-0.0845442 -0.0681464 0.845864
-0.0858447 -0.0677055 0.844184
-0.087167 -0.0672873 0.842783
-0.0884941 -0.066877 0.841474
-0.089816 -0.0664669 0.840155
-0.0911594 -0.0660768 0.839087
-0.0924855 -0.0656772 0.837884
-0.0938439 -0.0653042 0.837025
-0.0952276 -0.0649511 0.836425
-0.096611 -0.0645994 0.835839
-0.0979845 -0.0642428 0.835178
-0.0993606 -0.0638894 0.834559
-0.100734 -0.0635362 0.833935
-0.10208 -0.0631663 0.833079
-0.103443 -0.06281 0.832401
-0.104804 -0.0624542 0.831725
-0.106173 -0.0621043 0.831124
-0.107521 -0.0617439 0.830371
-0.108907 -0.0614065 0.829935
-0.110284 -0.0610658 0.829446
-0.11164 -0.0607143 0.828804
-0.113002 -0.0603673 0.828217
-0.114378 -0.0600292 0.827754
-0.115747 -0.0596885 0.827247
-0.11713 -0.0593556 0.826851
-0.118555 -0.0590454 0.826781
-0.119981 -0.0587353 0.826711
-0.121406 -0.0584252 0.826641
-0.122843 -0.0581204 0.826648
-0.12428 -0.0578158 0.82666
-0.125718 -0.0575112 0.826675
-0.127156 -0.0572067 0.826688
-0.128605 -0.0569068 0.826776
-0.130045 -0.0566026 0.826798
-0.131499 -0.0563042 0.826909
-0.132966 -0.0560114 0.827109
-0.134449 -0.0557243 0.827398
-0.135931 -0.0554363 0.827679
-0.137413 -0.0551476 0.827952
-0.138934 -0.0548738 0.82846
-0.140448 -0.0545957 0.828911
-0.141954 -0.0543138 0.829305
-0.143417 -0.0540147 0.82943
-0.144872 -0.0537118 0.829499
-0.146298 -0.0533979 0.829391
-0.14773 -0.0530864 0.829321
-0.149168 -0.0527772 0.829288
-0.150633 -0.052477 0.829406
-0.152108 -0.0521803 0.829581
-0.153585 -0.0518838 0.829762
-0.155067 -0.0515885 0.829966
-0.156567 -0.0512988 0.830269
-0.15808 -0.0510126 0.830634
-0.159579 -0.0507207 0.830912
-0.161076 -0.0504284 0.83118
-0.162592 -0.0501409 0.831538
-0.164111 -0.0498539 0.831909
-0.165635 -0.0495672 0.832294
-0.167157 -0.0492794 0.832662
-0.168678 -0.0489905 0.833018
-0.170232 -0.0487109 0.833539
-0.171859 -0.0484504 0.834416
-0.173533 -0.048202 0.83552
