ply
format ascii 1.0
element vertex 1695
property float x
property float y
property float z
end_header
0.355113 0.0261543 0.912296
0.356167 0.0271345 0.911929
0.357219 0.0281123 0.911553
0.358248 0.0290671 0.911099
0.359277 0.030022 0.910644
0.360306 0.0309768 0.91019
0.361357 0.0319537 0.909809
0.36248 0.0330026 0.909665
0.363612 0.0340604 0.909547
0.364821 0.0351947 0.909675
0.366077 0.0363768 0.909954
0.367314 0.0375394 0.910164
0.368506 0.038657 0.910222
0.369811 0.0398872 0.910637
0.371055 0.0410561 0.910849
0.372259 0.0421854 0.910929
0.373528 0.0433789 0.911208
0.374817 0.0445929 0.911545
0.376097 0.0457972 0.911845
0.37751 0.0471348 0.912555
0.379037 0.0485852 0.913605
0.380573 0.0500444 0.91467
0.382083 0.0514775 0.915643
0.38361 0.0529264 0.916651
0.385041 0.0542804 0.917357
0.386508 0.0556696 0.91816
0.388012 0.0570961 0.919064
0.389626 0.0586317 0.920288
0.3912 0.0601267 0.921377
0.392858 0.0617048 0.9227
0.394492 0.0632595 0.923938
0.396217 0.0649035 0.925428
0.397903 0.0665093 0.926791
0.399689 0.0682136 0.928427
0.401594 0.0700352 0.93039
0.403772 0.0721282 0.933128
0.405707 0.0739797 0.935135
0.407783 0.0759699 0.937525
0.409779 0.0778813 0.939664
0.41164 0.0796571 0.941392
0.413194 0.0811291 0.942233
0.414878 0.0827289 0.943426
0.416447 0.0842154 0.944286
0.417994 0.0856795 0.94507
0.419464 0.0870669 0.945629
0.421346 0.0866548 0.944415
0.420776 0.0882979 0.945739
0.293744 -0.0289753 0.930069
0.294648 -0.028149 0.929084
0.295434 -0.0274456 0.927557
0.296189 -0.0267732 0.925904
0.29678 -0.0262714 0.923511
0.297375 -0.0257639 0.921165
0.297949 -0.0252777 0.918747
0.298546 -0.0247683 0.916451
0.299179 -0.0242201 0.914343
0.299894 -0.0235872 0.912618
0.300574 -0.02299 0.910754
0.301194 -0.0224538 0.908645
0.301835 -0.0218963 0.906645
0.302445 -0.0213704 0.904529
0.303074 -0.0208235 0.902518
0.303806 -0.0201713 0.900962
0.304573 -0.0194822 0.89957
0.305357 -0.0187761 0.898259
0.306178 -0.0180311 0.897115
0.306998 -0.0172862 0.895979
0.307786 -0.0165755 0.894712
0.308582 -0.015855 0.893493
0.309413 -0.0150995 0.892421
0.310316 -0.0142694 0.891654
0.31127 -0.0133867 0.8911
0.312244 -0.0124839 0.890625
0.313284 -0.0115141 0.890414
0.314338 -0.0105285 0.890262
0.315402 -0.00953425 0.890142
0.31649 -0.00851452 0.890116
0.317612 -0.00746051 0.890218
0.318712 -0.00642917 0.890229
0.319794 -0.00541637 0.890164
0.320861 -0.00441809 0.89004
0.321934 -0.0034151 0.889932
0.323042 -0.00237547 0.889957
0.324172 -0.00131407 0.890059
0.325421 -0.000130709 0.890609
0.326723 0.00110514 0.891345
0.328077 0.00239492 0.892266
0.329467 0.00372017 0.893305
0.330895 0.00508401 0.894471
0.332332 0.00645719 0.895654
0.333981 0.00804442 0.897595
0.34445 0.0182338 0.914914
0.345667 0.0193797 0.915137
0.346815 0.0204546 0.915106
0.347952 0.021519 0.915035
0.348981 0.0224738 0.914581
0.349989 0.0234075 0.914054
0.350995 0.0243393 0.913522
0.352022 0.0252918 0.91306
0.35305 0.0262465 0.912606
0.354081 0.0272032 0.91216
0.355133 0.0281811 0.911784
0.356183 0.0291573 0.911402
0.357212 0.0301121 0.910948
0.358241 0.031067 0.910494
0.35927 0.0320218 0.91004
0.360299 0.0329766 0.909586
0.361419 0.0340235 0.909434
0.362548 0.0350797 0.909309
0.36373 0.0361879 0.909351
0.364984 0.0373693 0.909625
0.366242 0.0385553 0.909907
0.367433 0.0396733 0.909966
0.36874 0.0409077 0.910391
0.370011 0.0421053 0.910691
0.371216 0.0432367 0.910776
0.372458 0.0444057 0.910974
0.373743 0.0456174 0.911301
0.374993 0.0467935 0.91151
0.37638 0.0481078 0.912143
0.377878 0.0495325 0.913109
0.379385 0.0509675 0.914094
0.380864 0.0523726 0.914976
0.382365 0.0538006 0.915916
0.383792 0.055153 0.916615
0.385255 0.0565417 0.917415
0.386776 0.0579886 0.918377
0.388389 0.0595277 0.919606
0.389963 0.0610265 0.920702
0.391589 0.0625781 0.921942
0.393166 0.0640796 0.923019
0.394825 0.0656631 0.924324
0.396479 0.0672412 0.9256
0.398282 0.0689681 0.9273
0.400187 0.0707964 0.929277
0.402476 0.0730088 0.932351
0.404552 0.0750074 0.934779
0.406775 0.0771531 0.937606
0.408901 0.0792005 0.940126
0.41094 0.0811608 0.942371
0.412564 0.0827059 0.94341
0.414319 0.0843813 0.944807
0.415924 0.085907 0.945765
0.417479 0.0873814 0.946569
0.418921 0.0887439 0.947045
0.420227 0.0899697 0.947133
0.294336 -0.026366 0.932277
0.295031 -0.025761 0.930301
0.295724 -0.0251571 0.928336
0.296289 -0.0246871 0.9258
0.296819 -0.0242532 0.92313
0.297367 -0.0238006 0.920566
0.298015 -0.0232417 0.918483
0.298703 -0.0226413 0.916597
0.299443 -0.0219852 0.914964
0.300145 -0.0213688 0.913176
0.300785 -0.0208178 0.911125
0.301395 -0.0202962 0.908969
0.301987 -0.0197932 0.906753
0.302589 -0.0192799 0.904599
0.303311 -0.018641 0.902982
0.304063 -0.0179704 0.901508
0.304814 -0.0173002 0.900043
0.305593 -0.016601 0.898707
0.306358 -0.0159161 0.897322
0.307108 -0.0152467 0.895885
0.307872 -0.0145623 0.894518
0.308704 -0.0138069 0.893445
0.309574 -0.013012 0.892534
0.310541 -0.0121163 0.892025
0.311514 -0.0112149 0.89154
0.312555 -0.0102426 0.891332
0.313594 -0.00927335 0.89111
0.314657 -0.00827831 0.890986
0.315708 -0.00729694 0.890806
0.316791 -0.00628119 0.890755
0.317855 -0.00528594 0.890622
0.318919 -0.0042907 0.890486
0.319988 -0.00329069 0.890365
0.321058 -0.00228933 0.890247
0.322164 -0.00125031 0.890265
0.323327 -0.000154036 0.890492
0.324594 0.00104977 0.891111
0.325881 0.00227367 0.891793
0.327212 0.00354303 0.89263
0.328615 0.00488609 0.893725
0.330003 0.00621294 0.894745
0.331445 0.00759437 0.895949
0.332984 0.00907577 0.897497
0.343417 0.0192777 0.914766
0.344632 0.0204236 0.914987
0.345779 0.0214992 0.914956
0.346916 0.022564 0.914885
0.347945 0.0235188 0.91443
0.348973 0.0244736 0.913976
0.350002 0.0254284 0.913522
0.351031 0.0263832 0.913068
0.35206 0.027338 0.912614
0.353089 0.0282928 0.91216
0.354118 0.0292476 0.911706
0.355147 0.0302024 0.911252
0.356176 0.0311571 0.910798
0.357205 0.032112 0.910343
0.358234 0.0330668 0.909889
0.359263 0.0340216 0.909435
0.360361 0.0350473 0.909213
0.361468 0.036081 0.909014
0.362627 0.037168 0.908985
0.363856 0.0383265 0.909184
0.365089 0.0394887 0.909388
0.366303 0.0406312 0.909524
0.367632 0.0418903 0.910024
0.368924 0.043111 0.910396
0.370151 0.0442661 0.910553
0.37139 0.0454335 0.910744
0.372671 0.0466432 0.911062
0.373892 0.0477922 0.911184
0.375226 0.0490558 0.911656
0.376665 0.0504252 0.912447
0.378165 0.0518556 0.913414
0.379596 0.0532163 0.914157
0.381073 0.0546236 0.915031
0.382522 0.0560015 0.915805
0.384005 0.057414 0.916674
0.385527 0.0588653 0.917647
0.387138 0.060407 0.91888
0.388733 0.0619316 0.920047
0.390355 0.0634826 0.92128
0.391899 0.0649551 0.922267
0.3935 0.0664851 0.923411
0.395115 0.0680282 0.92458
0.396881 0.0697237 0.926181
0.398752 0.0715251 0.928075
0.40112 0.0738265 0.931398
0.403347 0.0759851 0.934278
0.405754 0.0783236 0.937649
0.408035 0.0805353 0.940626
0.410231 0.082661 0.943331
0.411921 0.0842756 0.944556
0.413737 0.086018 0.946131
0.415346 0.0875506 0.947098
0.416871 0.0889995 0.947818
0.418305 0.090356 0.94827
0.419606 0.0915781 0.948338
0.421447 0.0911104 0.946981
0.420763 0.0926554 0.948003
0.293079 -0.0254317 0.936349
0.293864 -0.0247354 0.934756
0.294514 -0.0241824 0.932544
0.295152 -0.0236409 0.930301
0.295713 -0.0231809 0.927722
0.296225 -0.0227731 0.924939
0.296769 -0.0223295 0.922337
0.297416 -0.0217768 0.920226
0.298137 -0.0211443 0.918475
0.298886 -0.0204835 0.916858
0.299581 -0.0198782 0.915019
0.300255 -0.0192943 0.913105
0.300866 -0.0187778 0.910925
0.301445 -0.0182936 0.908629
0.302049 -0.0177825 0.906464
0.302757 -0.0171613 0.90477
0.303484 -0.0165197 0.903173
0.304224 -0.0158646 0.901642
0.305006 -0.0151645 0.900306
0.305754 -0.0145001 0.898835
0.306486 -0.0138526 0.897307
0.307232 -0.013189 0.895854
0.308045 -0.0124556 0.894688
0.308867 -0.0117123 0.893569
0.309801 -0.0108522 0.892915
0.310773 -0.00995205 0.89242
0.311812 -0.00898197 0.892198
0.312836 -0.00802749 0.891913
0.313896 -0.00703457 0.891774
0.314927 -0.00607354 0.89151
0.315992 -0.00507619 0.891383
0.317038 -0.00409903 0.891176
0.318101 -0.0031038 0.891035
0.31915 -0.0021232 0.890836
0.320218 -0.00112348 0.890707
0.32134 -6.74912e-05 0.890783
0.322506 0.00103439 0.891025
0.32376 0.00222732 0.891595
0.325026 0.00343215 0.892198
0.326331 0.00467716 0.892938
0.327692 0.0059807 0.893879
0.32906 0.00729042 0.89483
0.330487 0.00866106 0.895986
0.332063 0.0101857 0.897678
0.342382 0.0203201 0.914613
0.343597 0.0214676 0.914836
0.344743 0.0225437 0.914805
0.345879 0.023609 0.914734
0.346908 0.0245638 0.91428
0.347937 0.0255186 0.913826
0.348966 0.0264734 0.913372
0.349995 0.0274282 0.912918
0.351024 0.028383 0.912463
0.352053 0.0293378 0.912009
0.353082 0.0302926 0.911555
0.354111 0.0312474 0.911101
0.35514 0.0322022 0.910647
0.356169 0.033157 0.910193
0.357198 0.0341118 0.909739
0.358227 0.0350666 0.909285
0.359325 0.0360926 0.909062
0.360431 0.0371266 0.908863
0.361612 0.0382369 0.908908
0.36282 0.0393753 0.909038
0.364051 0.0405371 0.909239
0.365263 0.0416791 0.90937
0.36659 0.0429384 0.909868
0.367859 0.0441388 0.910172
0.369108 0.0453179 0.910402
0.370323 0.0464625 0.910519
0.371578 0.0476479 0.910758
0.372771 0.0487693 0.910793
0.374051 0.0499796 0.911097
0.375411 0.0512718 0.911647
0.376875 0.05267 0.912512
0.378299 0.0540265 0.91324
0.379773 0.055434 0.914114
0.381228 0.0568217 0.914916
0.382733 0.0582601 0.915859
0.38428 0.0597406 0.916918
0.38589 0.0612854 0.918155
0.387483 0.0628128 0.919327
0.389101 0.0643647 0.920557
0.390663 0.0658592 0.921605
0.392231 0.0673599 0.922658
0.393783 0.0688431 0.923648
0.395484 0.0704781 0.92507
0.397341 0.0722721 0.926934
0.399737 0.0746115 0.930357
0.402111 0.0769278 0.933682
0.404713 0.0794758 0.937639
0.407186 0.0818907 0.941181
0.40953 0.0841754 0.944323
0.411304 0.0858799 0.945792
0.413149 0.0876562 0.947447
0.414756 0.0891908 0.948408
0.416251 0.0906114 0.949037
0.417677 0.0919619 0.949464
0.418972 0.0931801 0.949516
0.420072 0.0942005 0.949018
0.292199 -0.0262277 0.937507
0.291616 -0.0246972 0.939528
0.292444 -0.0239594 0.938103
0.29322 -0.0232758 0.93645
0.293889 -0.0227077 0.934304
0.2945 -0.0221998 0.931914
0.295048 -0.0217599 0.92925
0.295545 -0.0213742 0.926376
0.296073 -0.0209535 0.923678
0.296717 -0.0204086 0.921536
0.297422 -0.0197976 0.919692
0.298173 -0.0191367 0.918075
0.298888 -0.0185146 0.916307
0.299569 -0.0179276 0.914405
0.300165 -0.0174303 0.912148
0.300744 -0.0169512 0.909833
0.301329 -0.016465 0.907568
0.302037 -0.0158474 0.90586
0.302783 -0.0151895 0.904328
0.303546 -0.0145126 0.902886
0.304356 -0.0137852 0.901656
0.305129 -0.0130972 0.900277
0.305864 -0.0124494 0.898748
0.306607 -0.0117929 0.897264
0.307403 -0.0110793 0.896016
0.308209 -0.0103557 0.894816
0.309124 -0.00951542 0.894078
0.31008 -0.00863238 0.893511
0.311103 -0.00767842 0.893219
0.312111 -0.0067411 0.892861
0.313154 -0.00576599 0.892647
0.314165 -0.00482494 0.892301
0.31521 -0.00384878 0.892088
0.316255 -0.00287229 0.891873
0.317302 -0.00189308 0.891666
0.318332 -0.000931766 0.891391
0.319381 4.86874e-05 0.891185
0.320487 0.00108896 0.891198
0.321622 0.00215941 0.891317
0.322858 0.00333617 0.891821
0.324122 0.00454222 0.892422
0.325401 0.0057628 0.893066
0.326755 0.00706261 0.893986
0.328104 0.00835567 0.894869
0.329491 0.00968901 0.895883
0.33104 0.0111903 0.897482
0.341189 0.0211986 0.91389
0.342562 0.0225116 0.914686
0.343708 0.0235883 0.914655
0.344843 0.0246541 0.914583
0.345872 0.0256089 0.914129
0.346901 0.0265637 0.913675
0.34793 0.0275185 0.913221
0.348959 0.0284733 0.912767
0.349988 0.0294281 0.912313
0.351017 0.0303829 0.911859
0.352046 0.0313377 0.911405
0.353075 0.0322924 0.910951
0.354103 0.0332472 0.910496
0.355132 0.0342021 0.910042
0.356161 0.0351569 0.909588
0.35719 0.0361117 0.909134
0.358309 0.0371597 0.908982
0.359438 0.0382172 0.908857
0.360619 0.0393291 0.908904
0.361825 0.040467 0.90903
0.363076 0.0416516 0.909299
0.364263 0.0427686 0.909348
0.365567 0.0440076 0.909777
0.366837 0.0452106 0.910086
0.368087 0.0463924 0.910321
0.369279 0.0475151 0.910367
0.370509 0.0486758 0.910527
0.371652 0.0497477 0.910407
0.372876 0.0509026 0.91054
0.374178 0.0521373 0.910912
0.375559 0.0534529 0.911523
0.376951 0.0547803 0.91216
0.378421 0.0561875 0.913031
0.379899 0.0576017 0.91391
0.381434 0.0590747 0.914956
0.38303 0.0606105 0.916176
0.384663 0.0621833 0.917491
0.386278 0.0637371 0.918738
0.387892 0.0652893 0.919963
0.389453 0.0667876 0.921018
0.390993 0.0682631 0.921994
0.392511 0.0697157 0.92289
0.394121 0.071263 0.924051
0.395933 0.0730164 0.925795
0.398215 0.0752501 0.928901
0.400726 0.0777174 0.932648
0.403487 0.0804386 0.937086
0.40618 0.0830895 0.941286
0.408683 0.0855455 0.944896
0.410673 0.0874762 0.946993
0.412514 0.0892541 0.948639
0.414092 0.0907628 0.949516
0.415583 0.0921828 0.950137
0.417011 0.093538 0.950566
0.41831 0.0947609 0.950625
0.419421 0.0957926 0.95015
0.289838 -0.0242908 0.941241
0.290763 -0.0234499 0.940267
0.291604 -0.0226998 0.938897
0.29239 -0.0220086 0.937279
0.293103 -0.0213975 0.935325
0.293732 -0.0208763 0.932996
0.294286 -0.0204354 0.930343
0.294774 -0.0200651 0.927409
0.295308 -0.0196443 0.924718
0.295954 -0.0191013 0.922571
0.296644 -0.0185105 0.920643
0.297393 -0.0178558 0.919
0.298109 -0.0172359 0.917224
0.298775 -0.0166696 0.915239
0.299375 -0.0161734 0.912981
0.29994 -0.015714 0.910591
0.300508 -0.0152512 0.908235
0.301211 -0.0146423 0.906494
0.301971 -0.0139721 0.905014
0.30274 -0.0132917 0.903586
0.303591 -0.0125225 0.902524
0.304391 -0.0118082 0.901249
0.305149 -0.011138 0.899808
0.305913 -0.0104622 0.8984
0.306706 -0.00975394 0.897129
0.307511 -0.00903314 0.895915
0.30841 -0.00821212 0.895098
0.309363 -0.00733235 0.894513
0.310355 -0.00641226 0.894084
0.311346 -0.00549167 0.893657
0.312374 -0.00453261 0.893376
0.313382 -0.00359539 0.893011
0.314409 -0.00263639 0.892727
0.315453 -0.00166057 0.892505
0.316503 -0.000678386 0.892305
0.317518 0.000266616 0.891964
0.318547 0.00122702 0.891679
0.319649 0.00226432 0.891676
0.320765 0.00331586 0.891721
0.321985 0.00447851 0.892165
0.323244 0.00568152 0.892748
0.32452 0.00690162 0.893384
0.325854 0.00818308 0.894229
0.327183 0.00945887 0.895042
0.328504 0.0107257 0.895811
0.329982 0.0121586 0.897157
0.340007 0.0220844 0.913198
0.341527 0.0235556 0.914535
0.342672 0.0246328 0.914504
0.343807 0.0256991 0.914433
0.344836 0.0266539 0.913979
0.345865 0.0276087 0.913525
0.346894 0.0285635 0.913071
0.347923 0.0295183 0.912616
0.348952 0.0304731 0.912162
0.349981 0.0314279 0.911708
0.351009 0.0323827 0.911254
0.352038 0.0333375 0.9108
0.353067 0.0342922 0.910346
0.354096 0.0352471 0.909892
0.355125 0.0362019 0.909438
0.356154 0.0371567 0.908984
0.357273 0.0382057 0.908833
0.358381 0.0392426 0.908641
0.359563 0.0403572 0.908695
0.360745 0.0414709 0.908741
0.361994 0.0426545 0.909005
0.363176 0.0437694 0.909045
0.364504 0.0450347 0.909554
0.365773 0.046238 0.90986
0.367044 0.0474449 0.910172
0.368236 0.0485676 0.910216
0.369439 0.0497029 0.910294
0.370554 0.0507457 0.910084
0.371722 0.0518448 0.910044
0.37297 0.0530252 0.910248
0.37427 0.0542606 0.910614
0.375603 0.0555292 0.911073
0.377043 0.0569087 0.911857
0.37852 0.0583259 0.912744
0.380057 0.0598052 0.913807
0.381674 0.0613668 0.915102
0.383352 0.062991 0.916565
0.385017 0.0646016 0.917974
0.386659 0.0661879 0.919297
0.388248 0.0677189 0.920444
0.389783 0.0691929 0.921409
0.391245 0.0705919 0.922148
0.392764 0.0720486 0.923043
0.394459 0.0736878 0.924452
0.396525 0.0757084 0.926939
0.399205 0.078361 0.931207
0.402111 0.0812454 0.936094
0.404979 0.0840895 0.940825
0.407696 0.0867769 0.945072
0.409995 0.0890318 0.948068
0.411751 0.0907285 0.949476
0.413306 0.0922169 0.950287
0.414799 0.0936407 0.950909
0.416228 0.0949998 0.951343
0.417534 0.0962308 0.951417
0.418685 0.0973032 0.951053
0.288132 -0.0237969 0.943346
0.289017 -0.023002 0.942157
0.289919 -0.0221868 0.941066
0.290718 -0.0214861 0.939479
0.291507 -0.0207955 0.937861
0.292221 -0.0201861 0.935904
0.292855 -0.0196642 0.933585
0.293447 -0.0191879 0.931091
0.293989 -0.0187658 0.928388
0.294532 -0.0183411 0.92572
0.295202 -0.017777 0.923664
0.295895 -0.0171874 0.921733
0.296626 -0.0165548 0.919997
0.297322 -0.0159607 0.918115
0.297988 -0.0153982 0.916118
0.298575 -0.0149207 0.913787
0.299142 -0.014465 0.911387
0.299695 -0.0140234 0.90895
0.300365 -0.0134536 0.907052
0.301109 -0.0128039 0.905492
0.301893 -0.0121102 0.90412
0.302765 -0.0113206 0.903138
0.303603 -0.0105674 0.902019
0.304417 -0.00983996 0.900804
0.305205 -0.00914014 0.899489
0.30599 -0.00844333 0.898171
0.306777 -0.00774367 0.896873
0.307656 -0.00694588 0.895964
0.308574 -0.0061049 0.895225
0.309547 -0.00520401 0.894717
0.31054 -0.00428273 0.894289
0.311549 -0.00334335 0.893929
0.312557 -0.00240501 0.893565
0.313584 -0.00144724 0.893272
0.314632 -0.000466291 0.893065
0.315684 0.000519062 0.892871
0.316701 0.00146592 0.892534
0.317708 0.00240257 0.892157
0.318787 0.00341643 0.892063
0.319878 0.00444272 0.892011
0.321057 0.00556349 0.892297
0.322315 0.00676783 0.892879
0.323594 0.00799463 0.893532
0.324912 0.00926207 0.894319
0.326237 0.0105374 0.895123
0.327512 0.0117582 0.895723
0.328918 0.0131193 0.896807
0.331796 0.0139443 0.89973
0.330629 0.0148032 0.89901
0.338879 0.0230249 0.9127
0.340472 0.0245787 0.914313
0.341636 0.0256773 0.914354
0.342771 0.0267441 0.914282
0.3438 0.0276989 0.913828
0.344829 0.0286537 0.913374
0.345858 0.0296085 0.91292
0.346887 0.0305633 0.912466
0.347916 0.0315181 0.912012
0.348944 0.0324729 0.911558
0.349973 0.0334277 0.911104
0.351002 0.0343825 0.91065
0.352031 0.0353373 0.910195
0.35306 0.0362921 0.909741
0.354089 0.0372469 0.909287
0.355118 0.0382017 0.908833
0.356217 0.0392303 0.908616
0.357302 0.0402437 0.908348
0.358481 0.0413563 0.908394
0.359638 0.0424462 0.908363
0.360863 0.0436068 0.908552
0.362068 0.0447454 0.908666
0.363417 0.0460364 0.909252
0.364665 0.0472198 0.909494
0.365934 0.0484262 0.909802
0.367143 0.0495685 0.909905
0.368321 0.0506785 0.909904
0.369409 0.0516947 0.909612
0.370549 0.0527646 0.909483
0.371763 0.0539118 0.909586
0.372987 0.0550699 0.909717
0.374264 0.0562823 0.910006
0.375669 0.0576294 0.910692
0.37714 0.0590436 0.911568
0.378675 0.0605254 0.912636
0.380316 0.062117 0.914016
0.382017 0.0637701 0.915562
0.383706 0.0654111 0.917057
0.385377 0.0670317 0.918474
0.386995 0.068597 0.919716
0.388552 0.0700987 0.920762
0.390009 0.0714951 0.921489
0.391438 0.0728624 0.922124
0.393039 0.0744083 0.923261
0.394853 0.0761757 0.925017
0.397321 0.078621 0.928684
0.4003 0.0815963 0.933818
0.403342 0.0846342 0.939082
0.406234 0.0875163 0.943866
0.408869 0.0901294 0.947854
0.410898 0.0921133 0.950053
0.412456 0.0936084 0.950876
0.41398 0.0950682 0.95159
0.415468 0.0964895 0.952189
0.416839 0.0977903 0.952449
0.287157 -0.0226714 0.943526
0.288086 -0.0218297 0.942546
0.288994 -0.0210099 0.941476
0.289772 -0.0203353 0.939779
0.290543 -0.0196681 0.938063
0.291271 -0.0190471 0.936162
0.291894 -0.0185434 0.933773
0.292505 -0.0180506 0.931359
0.2931 -0.0175752 0.928892
0.293713 -0.0170801 0.92653
0.294392 -0.0165093 0.924506
0.295107 -0.0158999 0.922661
0.295837 -0.0152721 0.920906
0.296514 -0.0147024 0.918925
0.297148 -0.0141794 0.916769
0.297754 -0.0136875 0.914503
0.298309 -0.0132497 0.912036
0.298865 -0.0128097 0.909599
0.29952 -0.0122611 0.90762
0.300248 -0.0116319 0.905979
0.301016 -0.0109577 0.90453
0.301886 -0.010172 0.903534
0.30274 -0.00940335 0.902476
0.303575 -0.00865475 0.901345
0.304387 -0.00793193 0.900121
0.305178 -0.00723047 0.898822
0.305969 -0.00653004 0.897528
0.306811 -0.00577293 0.896459
0.307724 -0.00493781 0.895696
0.308696 -0.00403956 0.895177
0.309673 -0.00313453 0.894683
0.310698 -0.00217783 0.894386
0.311725 -0.00121976 0.894092
0.312753 -0.000259926 0.893803
0.313805 0.000726261 0.893611
0.314876 0.00173202 0.893489
0.315876 0.00266129 0.893082
0.316881 0.00359596 0.892695
0.317937 0.00458557 0.892507
0.31897 0.00555052 0.892228
0.320108 0.00662789 0.892352
0.321362 0.00783108 0.892924
0.322625 0.00904323 0.893518
0.323911 0.01028 0.89419
0.325253 0.0115756 0.895061
0.326503 0.0127733 0.895572
0.327847 0.01407 0.896424
0.339415 0.0255996 0.914084
0.340601 0.0267218 0.914204
0.341735 0.0277892 0.914132
0.342764 0.0287439 0.913678
0.343793 0.0296987 0.913224
0.344822 0.0306535 0.91277
0.34583 0.0315865 0.912243
0.346837 0.0325176 0.911711
0.347863 0.03347 0.911249
0.348892 0.0344246 0.910795
0.349923 0.0353814 0.910349
0.350974 0.03636 0.909973
0.352024 0.0373371 0.909591
0.353053 0.0382919 0.909137
0.354082 0.0392467 0.908683
0.3552 0.0402966 0.908532
0.356305 0.0413315 0.908331
0.357482 0.0424435 0.908372
0.358636 0.0435305 0.908331
0.359859 0.0446911 0.908517
0.361021 0.0457858 0.90849
0.362326 0.0470322 0.908933
0.363548 0.0481909 0.909097
0.36479 0.0493707 0.90932
0.365975 0.0504899 0.909351
0.367152 0.0515997 0.909349
0.368239 0.0526152 0.909057
0.369377 0.0536843 0.908925
0.370589 0.0548309 0.909025
0.37176 0.0559341 0.90899
0.373005 0.0571158 0.909186
0.374377 0.0584307 0.909774
0.375792 0.0597896 0.910485
0.377275 0.0612215 0.911403
0.378933 0.0628357 0.912845
0.380656 0.0645171 0.914471
0.382372 0.0661919 0.91606
0.384097 0.0678747 0.917655
0.385765 0.0694966 0.919057
0.387345 0.071027 0.920181
0.388797 0.0724219 0.920901
0.390169 0.0737323 0.921371
0.391674 0.0751821 0.922229
0.393299 0.0767567 0.923431
0.395501 0.0789357 0.926333
0.398183 0.0816144 0.930617
0.400999 0.0844335 0.93526
0.404087 0.0875341 0.940646
0.407039 0.0904914 0.94559
0.409452 0.0928843 0.948923
0.411426 0.0948163 0.950951
0.413391 0.0967398 0.952938
0.414913 0.0982001 0.953633
0.416323 0.0995429 0.953998
0.286141 -0.0215909 0.943504
0.287089 -0.0207281 0.94262
0.288014 -0.0198923 0.941621
0.28879 -0.019223 0.939906
0.289559 -0.0185604 0.938176
0.290319 -0.0179084 0.936415
0.290962 -0.0173871 0.93411
0.291579 -0.0168933 0.931708
0.292209 -0.0163838 0.929393
0.292857 -0.0158538 0.927185
0.293545 -0.0152791 0.925182
0.294264 -0.0146679 0.923346
0.295013 -0.0140227 0.921666
0.295675 -0.0134743 0.919601
0.296277 -0.0129921 0.917283
0.296885 -0.0125023 0.915015
0.297443 -0.0120662 0.912548
0.298003 -0.0116285 0.910109
0.298677 -0.0110623 0.908204
0.299404 -0.0104369 0.906552
0.300156 -0.00978374 0.905021
0.300993 -0.00903582 0.903875
0.301828 -0.00829013 0.902727
0.302679 -0.00752633 0.901658
0.303512 -0.00678174 0.90052
0.304325 -0.00605892 0.899305
0.305149 -0.00532413 0.898144
0.306005 -0.00455314 0.897128
0.306903 -0.00373607 0.896294
0.307859 -0.00285539 0.895705
0.308836 -0.00195115 0.895205
0.309846 -0.00101077 0.894842
0.310874 -5.13504e-05 0.89455
0.311905 0.000912414 0.894272
0.312977 0.00192049 0.894156
0.314033 0.00291082 0.893973
0.31503 0.00383648 0.893549
0.316035 0.004771 0.893158
0.317056 0.00572312 0.892831
0.318054 0.00664959 0.892409
0.319186 0.00772219 0.892513
0.320435 0.00892291 0.89307
0.321661 0.0100975 0.893524
0.322946 0.0113358 0.894195
0.324286 0.0126334 0.895065
0.325518 0.0138138 0.895512
0.326845 0.0150967 0.896309
0.329396 0.0155877 0.898036
0.32828 0.0164948 0.897495
0.338378 0.0266413 0.913927
0.339565 0.0277664 0.914053
0.340699 0.0288342 0.913981
0.341727 0.029789 0.913527
0.342756 0.0307438 0.913073
0.343785 0.0316986 0.912619
0.344772 0.0326078 0.912014
0.345754 0.0335125 0.911396
0.346777 0.0344606 0.910921
0.347805 0.035415 0.910467
0.34884 0.0363757 0.910034
0.349916 0.0373809 0.909744
0.350988 0.0383822 0.90944
0.352017 0.039337 0.908986
0.353046 0.0402918 0.908532
0.354163 0.0413414 0.90838
0.355245 0.0423529 0.908104
0.356396 0.0434381 0.908059
0.357549 0.0445255 0.908017
0.358748 0.0456616 0.908124
0.359885 0.0467312 0.908019
0.361182 0.0479716 0.908441
0.3624 0.0491274 0.908594
0.363616 0.0502814 0.908737
0.364798 0.0513981 0.90876
0.365975 0.0525099 0.908764
0.367067 0.0535312 0.90849
0.368207 0.0546028 0.908367
0.36942 0.0557524 0.908475
0.370565 0.0568298 0.908362
0.371781 0.0579818 0.90847
0.373095 0.0592384 0.908883
0.374479 0.0605681 0.909505
0.375929 0.061968 0.910325
0.377584 0.0635843 0.911771
0.379303 0.0652686 0.9134
0.381039 0.0669694 0.915061
0.382785 0.0686799 0.916733
0.384477 0.0703323 0.918218
0.386061 0.0718714 0.919362
0.38751 0.0732657 0.920079
0.388853 0.0745485 0.920469
0.390267 0.0759065 0.921064
0.391697 0.0772796 0.921693
0.393639 0.0791937 0.923842
0.395991 0.0815386 0.927179
0.398443 0.0839868 0.930775
0.401751 0.0873366 0.936852
0.405041 0.0906647 0.942818
0.407877 0.0935127 0.947404
0.410327 0.0959544 0.950833
0.412762 0.0983774 0.95418
0.285111 -0.0205257 0.943414
0.286079 -0.0196419 0.942623
0.287003 -0.0188074 0.941621
0.2878 -0.0181183 0.939997
0.288588 -0.0174378 0.93835
0.289351 -0.0167855 0.936595
0.289997 -0.0162653 0.934294
0.290638 -0.01575 0.931992
0.291272 -0.0152421 0.929679
0.291939 -0.0146942 0.927551
0.292629 -0.0141218 0.925545
0.293353 -0.013509 0.923721
0.294102 -0.0128669 0.922032
0.294766 -0.0123212 0.919962
0.295355 -0.0118583 0.917572
0.295963 -0.0113728 0.915294
0.296524 -0.0109392 0.912825
0.297089 -0.0105014 0.910395
0.29778 -0.0099204 0.908555
0.298511 -0.0092937 0.906911
0.299263 -0.00864381 0.90537
0.300082 -0.00791747 0.904141
0.300917 -0.00717439 0.902985
0.301749 -0.00643287 0.90183
0.302582 -0.00569033 0.900686
0.303396 -0.00496882 0.899468
0.30424 -0.00421335 0.898388
0.3051 -0.00343962 0.897384
0.305983 -0.00264084 0.89648
0.30694 -0.00175906 0.895894
0.307919 -0.000853633 0.895398
0.30893 8.84728e-05 0.89504
0.309974 0.00106646 0.894814
0.311043 0.00207177 0.894687
0.312116 0.00308145 0.894573
0.313171 0.00407149 0.894384
0.314165 0.00499415 0.893947
0.315154 0.00591093 0.893489
0.316161 0.00684794 0.893104
0.317162 0.00777827 0.892694
0.318291 0.0088484 0.892785
0.319518 0.0100276 0.893258
0.32072 0.011178 0.893621
0.321982 0.0123936 0.894206
0.3233 0.0136711 0.894999
0.324515 0.0148345 0.895382
0.325881 0.0161629 0.89633
0.327468 0.0177329 0.898103
0.337365 0.0277082 0.913855
0.338549 0.0288325 0.913975
0.339662 0.0298792 0.913831
0.340691 0.030834 0.913377
0.34172 0.0317888 0.912923
0.342749 0.0327436 0.912468
0.343734 0.0336503 0.911856
0.344713 0.0345508 0.911225
0.345731 0.0354942 0.910735
0.346759 0.0364485 0.910281
0.347798 0.0374141 0.909863
0.348877 0.0384234 0.909586
0.349952 0.0394272 0.90929
0.350981 0.040382 0.908836
0.352009 0.0413368 0.908381
0.353127 0.0423874 0.908231
0.354189 0.0433778 0.907888
0.355341 0.0444646 0.907846
0.356492 0.0455519 0.907803
0.357665 0.0466609 0.907823
0.358775 0.0477025 0.907631
0.36004 0.0489116 0.907953
0.361226 0.0500345 0.908004
0.362417 0.0511624 0.908066
0.3636 0.052282 0.908099
0.3648 0.0534204 0.908184
0.365938 0.0544914 0.908061
0.367085 0.0555711 0.907961
0.368299 0.0567234 0.908077
0.369442 0.0577989 0.907958
0.370632 0.0589253 0.907987
0.371894 0.060129 0.908242
0.373247 0.0614288 0.908775
0.374665 0.0627979 0.909503
0.376288 0.0643849 0.910856
0.377976 0.066041 0.912399
0.379709 0.0677446 0.914063
0.381474 0.0694816 0.915805
0.383163 0.0711374 0.917296
0.384771 0.0727055 0.918521
0.38622 0.0741037 0.919246
0.38756 0.0753858 0.919632
0.388894 0.0766611 0.919991
0.284055 -0.01949 0.943195
0.285047 -0.0185788 0.942524
0.285973 -0.0177446 0.941524
0.286792 -0.0170325 0.940005
0.287615 -0.0163154 0.93852
0.288383 -0.0156609 0.93678
0.289036 -0.0151379 0.934499
0.289695 -0.0146062 0.932273
0.290347 -0.0140825 0.930034
0.291017 -0.0135369 0.927904
0.291707 -0.0129681 0.925887
0.292431 -0.0123589 0.924054
0.293181 -0.0117197 0.922357
0.293833 -0.0111917 0.920221
0.294437 -0.0107165 0.917889
0.295049 -0.0102328 0.915611
0.295643 -0.00976683 0.91328
0.296229 -0.00931074 0.91093
0.296927 -0.00872519 0.909112
0.297644 -0.00811822 0.907392
0.298397 -0.00746992 0.905848
0.299166 -0.00680251 0.904389
0.299983 -0.0060815 0.903149
0.300814 -0.0053433 0.901983
0.301633 -0.00461905 0.900771
0.302449 -0.00389657 0.89956
0.303311 -0.00312313 0.89855
0.304176 -0.00234635 0.897559
0.305063 -0.0015437 0.896671
0.306054 -0.000624296 0.896225
0.307049 0.000299156 0.895794
0.308079 0.0012625 0.895512
0.309144 0.00226376 0.895368
0.31023 0.00328922 0.89531
0.311287 0.00428186 0.895129
0.312325 0.0052534 0.894868
0.3133 0.00615509 0.894352
0.314286 0.00706776 0.893876
0.315277 0.00798759 0.893427
0.316281 0.00892065 0.893025
0.317413 0.00999625 0.893129
0.318621 0.0111557 0.893526
0.319783 0.0122644 0.893736
0.321018 0.0134534 0.894222
0.322312 0.0147067 0.894924
0.323505 0.0158487 0.895228
0.325021 0.0173466 0.896758
0.335679 0.0260369 0.91187
0.334834 0.0272826 0.912413
0.336355 0.02878 0.913798
0.337534 0.0299005 0.913903
0.338626 0.0309243 0.91368
0.339655 0.031879 0.913226
0.340684 0.0328338 0.912772
0.341693 0.0337666 0.912245
0.342676 0.0346714 0.911628
0.343654 0.0355707 0.910993
0.344673 0.0365147 0.910506
0.345703 0.0374707 0.910058
0.346762 0.0384587 0.909712
0.347841 0.0394683 0.909436
0.348936 0.0404951 0.909212
0.349988 0.0414745 0.908836
0.35104 0.0424548 0.908462
0.352161 0.0435097 0.908323
0.353222 0.0444987 0.907974
0.354349 0.045561 0.907853
0.355475 0.0466205 0.90772
0.356605 0.0476849 0.9076
0.357688 0.0486984 0.907321
0.358903 0.0498548 0.907479
0.360038 0.0509243 0.907365
0.361202 0.0520247 0.907343
0.362385 0.0531449 0.907378
0.363588 0.0542876 0.907476
0.364773 0.0554108 0.907512
0.365964 0.0565392 0.907558
0.36718 0.0576954 0.907683
0.368322 0.0587711 0.907566
0.369529 0.0599174 0.907653
0.370769 0.061098 0.907836
0.372096 0.0623724 0.908292
0.373507 0.0637381 0.909005
0.375123 0.0653226 0.910347
0.376758 0.066927 0.911733
0.378434 0.0685753 0.913229
0.380163 0.0702803 0.914875
0.381797 0.0718821 0.916205
0.383376 0.0734238 0.917352
0.384825 0.0748253 0.918087
0.386161 0.0761048 0.918466
0.38749 0.077378 0.918822
0.390265 0.0779756 0.920456
0.388906 0.078743 0.919429
0.282936 -0.0185279 0.942657
0.283947 -0.0175959 0.942079
0.284887 -0.0167453 0.941154
0.285754 -0.0159806 0.939867
0.286597 -0.0152435 0.938471
0.2874 -0.0145522 0.936893
0.288087 -0.013994 0.934768
0.288781 -0.0134277 0.932695
0.289437 -0.012904 0.930462
0.290123 -0.0123448 0.928394
0.290782 -0.0118157 0.92622
0.291473 -0.0112488 0.924218
0.292191 -0.0106502 0.922361
0.292825 -0.0101471 0.920132
0.293419 -0.00968904 0.917741
0.294048 -0.00918911 0.915537
0.29468 -0.00868558 0.913366
0.295286 -0.00821065 0.911098
0.296007 -0.0076043 0.909368
0.296726 -0.00699799 0.907651
0.297478 -0.00635379 0.906094
0.298214 -0.00572777 0.904478
0.299013 -0.00502866 0.903156
0.299829 -0.00430984 0.901918
0.300648 -0.00358723 0.900703
0.301466 -0.00286539 0.899493
0.302346 -0.00207219 0.898561
0.303231 -0.00127401 0.897652
0.304135 -0.000452834 0.896835
0.30516 0.000504598 0.896529
0.306174 0.00144923 0.896175
0.307226 0.00243744 0.895981
0.308294 0.00344381 0.895851
0.309381 0.00447099 0.895795
0.310421 0.00544535 0.895543
0.311439 0.00639363 0.895194
0.312413 0.00729386 0.894671
0.313414 0.00822408 0.894256
0.314407 0.00914485 0.893808
0.315427 0.0100959 0.893467
0.316579 0.0111954 0.893651
0.317771 0.0123395 0.893987
0.318916 0.01343 0.894127
0.320147 0.0146164 0.894597
0.321399 0.0158262 0.89514
0.322604 0.0169833 0.895492
0.324184 0.0185582 0.897275
0.333967 0.0285094 0.912887
0.335407 0.0299206 0.913972
0.336542 0.0309929 0.913912
0.33761 0.0319914 0.913603
0.338619 0.0329241 0.913076
0.339648 0.0338788 0.912622
0.340655 0.0348098 0.912089
0.34164 0.0357159 0.911476
0.342622 0.0366183 0.910853
0.343645 0.0375675 0.910383
0.344676 0.0385246 0.909938
0.345732 0.0395096 0.909582
0.346808 0.0405154 0.909293
0.347922 0.0415647 0.90914
0.348999 0.0425717 0.90885
0.350057 0.0435583 0.908495
0.351178 0.0446147 0.908358
0.352234 0.045599 0.907993
0.353314 0.0466091 0.907708
0.354391 0.0476171 0.907414
0.355518 0.0486782 0.907284
0.356558 0.0496456 0.906862
0.357727 0.0507528 0.906868
0.358854 0.0518151 0.906733
0.360012 0.0529094 0.906693
0.361175 0.0540106 0.90667
0.362402 0.0551804 0.90685
0.363633 0.0563556 0.907041
0.36485 0.0575138 0.907176
0.366064 0.0586694 0.907297
0.367227 0.0597691 0.907251
0.368456 0.0609399 0.907409
0.369673 0.0620979 0.907524
0.370976 0.063349 0.907909
0.372385 0.0647146 0.908618
0.373971 0.0662717 0.909875
0.375576 0.0678495 0.911176
0.377219 0.0694674 0.912579
0.378889 0.0711142 0.914051
0.380484 0.0726783 0.915271
0.382005 0.0741615 0.916247
0.38342 0.0755304 0.91689
0.384756 0.0768127 0.917278
0.386109 0.0781131 0.91771
0.387546 0.079505 0.918391
0.390239 0.0800187 0.919777
0.388901 0.0808068 0.918812
0.281922 -0.0174438 0.942649
0.282928 -0.0165187 0.942042
0.283865 -0.0156734 0.941096
0.284747 -0.0148925 0.939881
0.285592 -0.0141556 0.93849
0.286414 -0.013445 0.936998
0.287136 -0.0128503 0.935033
0.28785 -0.0122643 0.933048
0.288511 -0.0117409 0.93082
0.289184 -0.0112013 0.928678
0.289827 -0.010695 0.926417
0.290482 -0.010174 0.924235
0.291166 -0.0096192 0.922208
0.291783 -0.00914108 0.919888
0.292379 -0.00868559 0.917497
0.293013 -0.00818507 0.915305
0.293686 -0.0076396 0.913309
0.294346 -0.00710616 0.911281
0.29509 -0.00647684 0.909646
0.295809 -0.00587391 0.90792
0.296572 -0.00522007 0.906404
0.297289 -0.00461883 0.904696
0.298074 -0.0039388 0.903303
0.298892 -0.00321977 0.902069
0.299728 -0.00247942 0.900924
0.300548 -0.00175831 0.899713
0.301445 -0.000946933 0.89885
0.302332 -0.000147945 0.897945
0.303222 0.000656129 0.897062
0.304248 0.00161494 0.89676
0.305281 0.00258176 0.896485
0.306322 0.00355789 0.896244
0.307395 0.00456984 0.896131
0.308497 0.00561508 0.896137
0.309531 0.0065832 0.895859
0.310531 0.00751132 0.895434
0.311505 0.00841157 0.89491
0.312509 0.00934482 0.894505
0.313519 0.0102843 0.894121
0.314576 0.011278 0.893928
0.315747 0.0124 0.894186
0.316959 0.0135689 0.894602
0.318123 0.0146823 0.894816
0.319354 0.0158713 0.895287
0.320569 0.0170422 0.895687
0.321774 0.0182012 0.896038
0.323341 0.0197666 0.897776
0.333246 0.0299024 0.913912
0.3345 0.0311091 0.914302
0.335572 0.032112 0.914008
0.336616 0.0330839 0.913609
0.337603 0.0339914 0.912999
0.338612 0.0349239 0.912471
0.339619 0.0358542 0.911937
0.340624 0.0367831 0.911399
0.341628 0.0377099 0.910855
0.342658 0.0386658 0.910406
0.343689 0.0396235 0.909962
0.344743 0.0406056 0.909596
0.345794 0.0415847 0.90922
0.346909 0.0426353 0.90907
0.348011 0.0436715 0.908871
0.349077 0.0446667 0.908542
0.350197 0.0457224 0.9084
0.351227 0.046678 0.907945
0.352273 0.0476524 0.907548
0.353324 0.0486311 0.907163
0.354449 0.0496919 0.90703
0.355491 0.050661 0.906614
0.356658 0.0517674 0.906616
0.357761 0.0528027 0.906399
0.358913 0.0538931 0.906346
0.360073 0.054992 0.906315
0.361305 0.0561697 0.906517
0.362563 0.057375 0.906796
0.363802 0.0585596 0.907007
0.364997 0.0596954 0.907069
0.366181 0.0608192 0.907092
0.36741 0.0619928 0.907255
0.368628 0.0631535 0.907377
0.369933 0.0644084 0.907767
0.371364 0.0658014 0.908551
0.372899 0.0673073 0.909652
0.374451 0.0688319 0.910797
0.376036 0.0703919 0.912026
0.37762 0.0719501 0.913239
0.379126 0.0734214 0.914191
0.380584 0.0748402 0.914984
0.381966 0.0761763 0.915532
0.383299 0.0774586 0.915921
0.384654 0.0787643 0.91637
0.386092 0.0801592 0.917059
0.38747 0.0814893 0.91756
0.280981 -0.0162727 0.943013
0.281967 -0.0153713 0.942303
0.282889 -0.0145452 0.941276
0.283771 -0.0137675 0.94005
0.284599 -0.0130521 0.938572
0.285394 -0.0123764 0.936938
0.286136 -0.011763 0.935059
0.286872 -0.0111553 0.933171
0.287539 -0.0106293 0.930962
0.288215 -0.0100908 0.928823
0.288855 -0.00959296 0.926535
0.289462 -0.00913403 0.92411
0.29011 -0.00862613 0.921902
0.290693 -0.00819188 0.919417
0.291288 -0.00774304 0.917011
0.29193 -0.00723893 0.914844
0.292654 -0.00663619 0.913083
0.293357 -0.00605783 0.911241
0.294136 -0.00538949 0.909763
0.294873 -0.00477046 0.908105
0.295652 -0.00410017 0.906656
0.29637 -0.00350176 0.904941
0.297157 -0.00282232 0.903549
0.297977 -0.00210327 0.902317
0.298815 -0.00136287 0.901174
0.299635 -0.000643013 0.89996
0.300534 0.00016845 0.899098
0.301421 0.00096682 0.89819
0.302313 0.00177129 0.89731
0.303338 0.00272998 0.897004
0.304372 0.00369826 0.896733
0.305414 0.00467589 0.896493
0.306487 0.00568838 0.89638
0.30757 0.00671364 0.896309
0.308585 0.00765888 0.895945
0.309582 0.00858463 0.895512
0.310558 0.00948636 0.894992
0.311569 0.0104271 0.894612
0.312601 0.0113929 0.89432
0.313695 0.0124291 0.894275
0.314867 0.0135547 0.89454
0.316101 0.0147502 0.895042
0.317284 0.0158876 0.895334
0.318536 0.0171026 0.895888
0.319736 0.018258 0.896227
0.320962 0.0194423 0.896658
0.322485 0.0209643 0.898234
0.332521 0.0312967 0.914931
0.33364 0.0323534 0.914814
0.334685 0.0333265 0.914417
0.335687 0.034251 0.91386
0.336631 0.0351089 0.913085
0.337617 0.0360154 0.912472
0.338603 0.0369223 0.911862
0.33961 0.0378518 0.911326
0.340637 0.0388051 0.910867
0.341667 0.0397612 0.910418
0.342698 0.0407185 0.909972
0.343749 0.0416977 0.909596
0.344778 0.0426525 0.909142
0.345894 0.0437053 0.908997
0.347021 0.0447696 0.908885
0.348111 0.0457917 0.908639
0.349231 0.0468486 0.908498
0.350276 0.0478211 0.908095
0.351298 0.0487681 0.907611
0.352327 0.0497225 0.907151
0.353429 0.0507579 0.906939
0.354469 0.051725 0.906516
0.355595 0.0527872 0.906382
0.356671 0.0537941 0.906078
0.3578 0.0548595 0.905948
0.358957 0.0559562 0.90591
0.360211 0.0571596 0.906187
0.361496 0.0583982 0.906563
0.362761 0.0596129 0.906861
0.363978 0.0607743 0.906995
0.365184 0.0619241 0.907091
0.366392 0.0630761 0.90719
0.367635 0.0642654 0.907393
0.368939 0.0655219 0.907784
0.370365 0.0669131 0.908557
0.371874 0.0683952 0.909583
0.373398 0.0698923 0.91064
0.374904 0.0713698 0.91163
0.376428 0.0728662 0.912661
0.377848 0.0742476 0.913354
0.379218 0.075574 0.913884
0.380569 0.0768789 0.914345
0.381898 0.0781586 0.914728
0.383257 0.079471 0.915196
0.384723 0.0809004 0.91598
0.386153 0.0822905 0.916647
0.388875 0.0828478 0.918132
0.387591 0.083688 0.917326
0.279974 -0.015177 0.943049
0.280953 -0.0142847 0.942301
0.281869 -0.0134687 0.941234
0.282748 -0.0126958 0.939992
0.283561 -0.0120024 0.938426
0.284356 -0.0113296 0.936788
0.285101 -0.0107166 0.934914
0.285841 -0.0101085 0.933035
0.286525 -0.00956561 0.930905
0.287205 -0.00902763 0.928771
0.287847 -0.00853273 0.926481
0.288438 -0.00809824 0.923967
0.289067 -0.00761677 0.921663
0.289619 -0.00722611 0.919015
0.290213 -0.00678361 0.916595
0.290873 -0.00626239 0.914506
0.291649 -0.00560166 0.912981
0.292392 -0.00497974 0.911315
0.29321 -0.00426941 0.910005
0.293969 -0.00362634 0.908443
0.294749 -0.00295904 0.906986
0.29547 -0.00235996 0.905278
0.296278 -0.00165825 0.903973
0.297102 -0.000937099 0.90275
0.297941 -0.000197065 0.901606
0.29876 0.000518087 0.900375
0.299644 0.00131152 0.899445
0.300532 0.00210963 0.898536
0.301442 0.00293316 0.897727
0.302466 0.00389042 0.897412
0.303497 0.00485614 0.897128
0.304535 0.00582901 0.896868
0.305572 0.00680098 0.896603
0.30662 0.00778588 0.896383
0.307616 0.00871019 0.895943
0.308612 0.00963456 0.895503
0.309592 0.0105395 0.894995
0.31064 0.0115246 0.894771
0.311696 0.0125176 0.894572
0.31283 0.0136018 0.894692
0.314006 0.0147333 0.894972
0.315258 0.015952 0.895548
0.316442 0.0170921 0.895843
0.317716 0.0183344 0.896483
0.318918 0.0194954 0.896834
0.320183 0.0207259 0.897416
0.321637 0.0221746 0.89873
0.331767 0.0326652 0.915854
0.332844 0.0336743 0.915573
0.333828 0.0345779 0.914943
0.334804 0.0354721 0.914284
0.335685 0.0362581 0.913274
0.336647 0.0371364 0.912568
0.337611 0.0380172 0.911873
0.338596 0.0389221 0.911257
0.339604 0.0398534 0.910728
0.340633 0.0408087 0.910276
0.341664 0.0417652 0.909827
0.342713 0.0427427 0.909445
0.343762 0.0437207 0.909064
0.344901 0.0447989 0.908997
0.34605 0.0458895 0.908966
0.347161 0.0469371 0.908797
0.348283 0.0479956 0.908659
0.349329 0.0489692 0.908257
0.350333 0.0498963 0.907711
0.35134 0.0508263 0.907175
0.352421 0.0518393 0.906893
0.353459 0.0528038 0.906462
0.35456 0.0538383 0.906242
0.355615 0.0548224 0.905869
0.356738 0.0558819 0.905721
0.357893 0.0569773 0.905677
0.35915 0.0581859 0.905967
0.360436 0.0594273 0.906348
0.361724 0.0606713 0.90673
0.362961 0.061856 0.90693
0.364191 0.0630342 0.907107
0.365424 0.0642146 0.907285
0.366694 0.0654367 0.907578
0.368018 0.0667173 0.908035
0.369421 0.0680858 0.908737
0.370898 0.069537 0.909668
0.372368 0.0709788 0.91056
0.373795 0.072372 0.911302
0.375235 0.0737797 0.912077
0.3766 0.0751032 0.912605
0.377891 0.0763445 0.912893
0.37921 0.0776166 0.913261
0.380535 0.0788952 0.913643
0.38189 0.0802065 0.914107
0.383383 0.0816689 0.914982
0.384863 0.0831171 0.91581
0.386357 0.0845798 0.916665
0.279046 -0.0139854 0.943491
0.280001 -0.0131232 0.942613
0.280879 -0.0123539 0.941352
0.28174 -0.0116059 0.940008
0.282537 -0.0109352 0.938354
0.283317 -0.0102846 0.936629
0.284061 -0.00967618 0.934744
0.284799 -0.00907454 0.932846
0.285471 -0.00855043 0.930649
0.286153 -0.00801501 0.928515
0.2868 -0.00751968 0.926237
0.287394 -0.00708715 0.923726
0.288011 -0.00662462 0.921356
0.288561 -0.00624245 0.918687
0.289142 -0.00582122 0.916194
0.289801 -0.00530497 0.914095
0.290583 -0.00464011 0.912593
0.291346 -0.00399749 0.911015
0.2922 -0.00324591 0.909869
0.292995 -0.0025643 0.908461
0.293798 -0.00187124 0.907107
0.294556 -0.0012319 0.905557
0.295398 -0.00049219 0.904398
0.296226 0.000231107 0.903184
0.297083 0.000989328 0.902109
0.297918 0.00172275 0.900948
0.298801 0.00251252 0.900002
0.299692 0.00331214 0.899099
0.30062 0.00415639 0.898363
0.30163 0.00509711 0.897984
0.302626 0.0060217 0.897545
0.303624 0.00694785 0.897112
0.304621 0.00787344 0.896677
0.305633 0.00881689 0.896307
0.306613 0.00972185 0.895797
0.307609 0.0106462 0.895358
0.308605 0.0115705 0.894918
0.309673 0.0125785 0.894773
0.310749 0.0135961 0.89466
0.311921 0.0147254 0.894933
0.313116 0.0158807 0.89529
0.314403 0.0171432 0.896011
0.315606 0.0183069 0.896381
0.316898 0.0195742 0.897099
0.318103 0.0207388 0.897456
0.319383 0.0219911 0.898103
0.320852 0.0234611 0.899477
0.33106 0.0340935 0.916964
0.332073 0.0350287 0.916434
0.332992 0.0358562 0.915551
0.333927 0.0367026 0.914734
0.334784 0.03746 0.91363
0.335722 0.0383104 0.912833
0.336683 0.0391865 0.912122
0.337645 0.0400652 0.911421
0.338631 0.0409708 0.910808
0.339659 0.0419239 0.910349
0.34067 0.0428578 0.909828
0.341699 0.0438133 0.909375
0.34277 0.0448154 0.909069
0.343908 0.0458954 0.909006
0.345038 0.0469651 0.908907
0.34615 0.0480141 0.908741
0.347272 0.049074 0.908605
0.348322 0.0500526 0.908218
0.34933 0.0509825 0.907681
0.350341 0.0519167 0.907157
0.351417 0.0529244 0.906857
0.352452 0.0538856 0.906416
0.353528 0.054893 0.906113
0.354603 0.0558993 0.905806
0.355726 0.0569599 0.90566
0.35688 0.0580557 0.905616
0.358156 0.0592877 0.905971
0.359443 0.0605329 0.906359
0.36071 0.061755 0.906673
0.361967 0.0629644 0.906944
0.363221 0.0641711 0.9072
0.364457 0.0653572 0.907391
0.365732 0.0665855 0.907698
0.367077 0.0678935 0.908228
0.368453 0.0692351 0.908848
0.369904 0.0706596 0.909695
0.37132 0.0720451 0.91042
0.372712 0.0734026 0.911058
0.374097 0.0747523 0.911664
0.37543 0.0760432 0.912097
0.376672 0.0772319 0.912238
0.377987 0.0785018 0.912598
0.379307 0.0797763 0.912966
0.380635 0.081061 0.913356
0.382122 0.0825208 0.914222
0.383601 0.0839717 0.915053
0.385089 0.0854308 0.915896
0.278126 -0.0127788 0.943989
0.279056 -0.011949 0.942975
0.2799 -0.0112254 0.941523
0.280731 -0.0105171 0.940019
0.281513 -0.00986781 0.938281
0.282263 -0.00925728 0.936398
0.282991 -0.00867304 0.934423
0.28371 -0.00809735 0.932428
0.284365 -0.00760002 0.930132
0.285048 -0.00706687 0.927999
0.285717 -0.00654971 0.92582
0.286334 -0.00609544 0.923408
0.286972 -0.00561296 0.921128
0.287525 -0.00523289 0.918462
0.288106 -0.00481676 0.915961
0.288766 -0.00430397 0.913857
0.289551 -0.0036393 0.91236
0.290346 -0.0029606 0.910928
0.291235 -0.00216827 0.909941
0.29205 -0.00146504 0.90862
0.292873 -0.000751617 0.907346
0.293665 -7.49603e-05 0.905941
0.294512 0.000668628 0.904798
0.295346 0.00139702 0.903605
0.29622 0.00217411 0.9026
0.297071 0.00292411 0.901501
0.297954 0.00371323 0.900552
0.298849 0.00451569 0.899658
0.299796 0.00538206 0.899001
0.300794 0.00630848 0.898566
0.301755 0.00719074 0.89797
0.302715 0.00807133 0.89737
0.303672 0.00894967 0.896763
0.304648 0.00984947 0.896235
0.305626 0.0107531 0.895721
0.30664 0.0116985 0.895356
0.307655 0.0126449 0.894993
0.30874 0.0136744 0.894922
0.309833 0.0147126 0.894877
0.311005 0.0158435 0.895151
0.312182 0.0169802 0.895439
0.313486 0.018265 0.89623
0.314707 0.0194526 0.896676
0.316019 0.0207462 0.897477
0.317226 0.0219153 0.897843
0.318485 0.0231446 0.898405
0.320055 0.0247374 0.900182
0.330292 0.035457 0.917851
0.331257 0.0363374 0.917137
0.33213 0.0371094 0.916071
0.333023 0.037906 0.91509
0.33388 0.0386611 0.91398
0.334802 0.0394912 0.913117
0.33574 0.0403409 0.91232
0.336679 0.0411918 0.91153
0.33764 0.0420679 0.910823
0.338645 0.0429955 0.910282
0.339636 0.0439056 0.909685
0.340666 0.044862 0.909236
0.341758 0.0458892 0.909008
0.342899 0.0469724 0.908952
0.34403 0.0480445 0.908859
0.34516 0.0491156 0.908759
0.346302 0.0501986 0.908693
0.347355 0.0511803 0.908314
0.348385 0.0521364 0.907856
0.349417 0.0530944 0.907403
0.35047 0.0540762 0.907023
0.351503 0.0550351 0.906573
0.352556 0.0560165 0.906191
0.353632 0.0570239 0.905885
0.354757 0.0580881 0.905747
0.355935 0.0592119 0.905784
0.357213 0.0604491 0.90615
0.358497 0.0616923 0.906528
0.359738 0.0628864 0.906755
0.360993 0.0640967 0.907024
0.362248 0.0653061 0.907284
0.363492 0.0665025 0.907502
0.364789 0.0677584 0.907883
0.36616 0.0690977 0.908499
0.367509 0.070412 0.909034
0.368935 0.0718125 0.909807
0.370297 0.0731389 0.910359
0.371633 0.0744376 0.910826
0.372988 0.0757553 0.91134
0.374295 0.0770202 0.911696
0.375512 0.0781825 0.911761
0.376824 0.0794513 0.912118
0.378139 0.0807234 0.912478
0.379441 0.0819801 0.912787
0.380922 0.0834377 0.913643
0.382371 0.0848576 0.914387
0.383848 0.0863095 0.915206
0.386626 0.0869451 0.916878
0.385376 0.087818 0.916171
0.27625 -0.0124295 0.945385
0.277214 -0.0115593 0.944534
0.27812 -0.0107615 0.943385
0.278939 -0.010072 0.941795
0.279738 -0.00940614 0.940118
0.28049 -0.00879893 0.938214
0.281194 -0.00824887 0.93609
0.281891 -0.00770734 0.93395
0.28258 -0.00717442 0.931792
0.283233 -0.00668357 0.929483
0.283932 -0.00613516 0.927423
0.284619 -0.00560036 0.925325
0.285275 -0.005103 0.923095
0.285935 -0.00459854 0.920912
0.286509 -0.00419859 0.918336
0.287092 -0.00378721 0.915826
0.287753 -0.00327769 0.913718
0.288537 -0.00261655 0.912213
0.28932 -0.00195608 0.910715
0.290224 -0.00114668 0.909797
0.291056 -0.000424914 0.908551
0.291882 0.000289516 0.907285
0.292676 0.000967457 0.905889
0.293554 0.00174658 0.904882
0.29439 0.00247503 0.903691
0.295268 0.00325572 0.902702
0.296139 0.00402778 0.901686
0.297043 0.00483928 0.90082
0.297955 0.00566173 0.899999
0.298922 0.00655036 0.899423
0.29992 0.00747722 0.898986
0.300866 0.00834054 0.89832
0.301805 0.00919579 0.897628
0.302723 0.0100267 0.89685
0.303679 0.0109024 0.896235
0.304658 0.0118068 0.895724
0.305693 0.0127768 0.895444
0.306728 0.0137474 0.895165
0.307814 0.0147789 0.895097
0.308905 0.0158158 0.895045
0.310056 0.0169241 0.895236
0.311247 0.0180794 0.895583
0.312552 0.0193696 0.896386
0.313794 0.0205835 0.896917
0.315111 0.0218857 0.897739
0.316314 0.0230532 0.898094
0.317532 0.0242376 0.898499
0.319096 0.0258294 0.900262
0.32951 0.0368113 0.918698
0.330406 0.0376092 0.917711
0.331238 0.0383317 0.916484
0.33209 0.039078 0.91534
0.33295 0.0398351 0.914237
0.333875 0.0406674 0.913381
0.334817 0.0415212 0.912597
0.335737 0.0423483 0.911731
0.336692 0.0432162 0.910998
0.337674 0.044117 0.910371
0.338642 0.045001 0.909693
0.339674 0.0459593 0.909249
0.340786 0.0470098 0.909091
0.341888 0.0480494 0.908898
0.343018 0.0491205 0.908799
0.344165 0.0502114 0.908759
0.345285 0.0512716 0.908621
0.346339 0.0522541 0.908243
0.347391 0.0532353 0.907861
0.348422 0.0541924 0.907405
0.349475 0.0551738 0.907023
0.350529 0.056157 0.906645
0.351584 0.0571415 0.906271
0.352685 0.0581786 0.906052
0.353814 0.059247 0.905924
0.354996 0.0603762 0.905973
0.35625 0.0615879 0.90626
0.357509 0.0628049 0.906556
0.358744 0.0639951 0.906768
0.36002 0.0652308 0.907107
0.361277 0.0664438 0.907374
0.362547 0.0676716 0.907677
0.363843 0.0689288 0.908059
0.365213 0.0702702 0.908675
0.366537 0.0715583 0.90913
0.367938 0.0729333 0.909825
0.369271 0.0742313 0.910294
0.370581 0.0755022 0.910677
0.371908 0.0767909 0.911106
0.373213 0.0780558 0.911461
