ply
format ascii 1.0
element vertex 1613
property float x
property float y
property float z
end_header
-0.0719734 0.0735531 0.826521
-0.0729403 0.0724904 0.824713
-0.0738844 0.0714173 0.822664
-0.07484 0.0703619 0.820834
-0.0758312 0.0693407 0.819507
-0.0768553 0.0683491 0.818619
-0.0778932 0.0673711 0.817923
-0.0789501 0.0664087 0.817476
-0.0800264 0.0654611 0.817267
-0.0811032 0.0645147 0.817074
-0.0821672 0.0635615 0.816743
-0.0832489 0.0626201 0.816621
-0.0843289 0.0616784 0.816487
-0.0854252 0.0607465 0.816533
-0.0865326 0.0598205 0.816695
-0.087671 0.0589098 0.817187
-0.0888029 0.0579947 0.817598
-0.0899422 0.057082 0.818071
-0.0910901 0.0561718 0.818626
-0.092242 0.0552617 0.819206
-0.0933979 0.0543517 0.81981
-0.094577 0.0534493 0.820634
-0.0968812 0.053729 0.823323
-0.095775 0.0525525 0.821613
-0.0981779 0.0528654 0.825188
-0.097039 0.0516771 0.823208
-0.099524 0.052015 0.827468
-0.0983505 0.0508148 0.825207
-0.100911 0.0511723 0.83007
-0.0997543 0.0499794 0.828017
-0.10115 0.0491322 0.83069
-0.102528 0.0482721 0.833144
-0.103811 0.0473753 0.834686
-0.105089 0.0464725 0.836155
-0.106281 0.0455412 0.836842
-0.107469 0.0446071 0.837466
-0.108645 0.043668 0.837985
-0.066873 0.0764898 0.830319
-0.067947 0.0755021 0.829787
-0.0690051 0.0745026 0.829045
-0.0699833 0.0734364 0.827243
-0.0709646 0.0723806 0.825553
-0.071933 0.0713217 0.823748
-0.0728865 0.0702589 0.821809
-0.0738503 0.069212 0.820072
-0.0748566 0.0682046 0.818923
-0.0758813 0.0672148 0.818037
-0.0769062 0.0662289 0.817185
-0.0779487 0.0652586 0.816565
-0.0790089 0.0643022 0.816177
-0.080077 0.0633525 0.815895
-0.0811397 0.0624008 0.815559
-0.0822205 0.0614611 0.815442
-0.0833134 0.0605285 0.815465
-0.0844164 0.0596023 0.815592
-0.0855231 0.0586772 0.815765
-0.0866611 0.0577676 0.816266
-0.0878001 0.056857 0.816768
-0.0889384 0.0559445 0.817249
-0.0900861 0.0550354 0.817811
-0.091235 0.0541245 0.81838
-0.0923794 0.0532103 0.818887
-0.0935389 0.0523009 0.819532
-0.094708 0.0513932 0.820257
-0.0959314 0.0505039 0.821487
-0.0972007 0.0496275 0.823122
-0.0985925 0.0487882 0.825874
-0.100009 0.0479487 0.828792
-0.101416 0.0470984 0.831552
-0.102757 0.04622 0.833659
-0.104082 0.0453306 0.835571
-0.105293 0.0444046 0.836428
-0.106479 0.0434698 0.837055
-0.107653 0.0425301 0.837566
-0.065937 0.0753792 0.830394
-0.0670022 0.0743831 0.829721
-0.0680538 0.0733779 0.828879
-0.06902 0.0723019 0.826883
-0.0699901 0.071238 0.825019
-0.0709475 0.0701717 0.823047
-0.0719025 0.0691121 0.82112
-0.0728634 0.0680655 0.819322
-0.0738714 0.0670609 0.818184
-0.07489 0.0660688 0.817222
-0.0759142 0.0650842 0.816361
-0.0769425 0.0641062 0.815578
-0.078 0.06315 0.815165
-0.0790664 0.0622012 0.814873
-0.0801286 0.061251 0.81454
-0.0812093 0.0603132 0.814435
-0.0823087 0.0593863 0.814538
-0.0834107 0.0584604 0.814672
-0.0845242 0.0575405 0.81493
-0.0856679 0.0566345 0.815511
-0.086813 0.0557278 0.816089
-0.0879587 0.0548197 0.816658
-0.0891122 0.0539131 0.817296
-0.0902528 0.0529992 0.81779
-0.0913866 0.0520813 0.8182
-0.0925353 0.0511683 0.818747
-0.0936935 0.0502568 0.819381
-0.0948728 0.0493513 0.820209
-0.0961075 0.048463 0.821547
-0.0974548 0.0476089 0.823919
-0.0988542 0.0467644 0.826724
-0.100269 0.0459165 0.829613
-0.101656 0.045052 0.832176
-0.103019 0.0441738 0.834472
-0.104274 0.0432603 0.835744
-0.105476 0.0423296 0.836526
-0.065019 0.0742861 0.830742
-0.0660731 0.0732788 0.829881
-0.0671168 0.0722663 0.828907
-0.0680606 0.071171 0.826572
-0.0690187 0.070098 0.824522
-0.0699651 0.0690248 0.822376
-0.0709155 0.0679636 0.820362
-0.0718763 0.066919 0.818556
-0.0728841 0.0659163 0.817413
-0.0738915 0.064918 0.816305
-0.0749089 0.0639311 0.815357
-0.0759286 0.0629497 0.814468
-0.076972 0.0619869 0.813895
-0.0780313 0.0610363 0.813529
-0.0790992 0.060092 0.813283
-0.0801873 0.0591605 0.813275
-0.0813001 0.0582429 0.813546
-0.0824086 0.057322 0.813769
-0.0835345 0.0564095 0.814179
-0.0846841 0.0555076 0.814835
-0.0858346 0.0546041 0.815484
-0.086986 0.0536988 0.81613
-0.0881459 0.0527951 0.816851
-0.0892874 0.051882 0.817359
-0.0904201 0.0509638 0.817768
-0.091559 0.0500469 0.818232
-0.0926998 0.0491295 0.818699
-0.0938517 0.0482144 0.819273
-0.0950501 0.0473142 0.820277
-0.0963378 0.0464396 0.822126
-0.097709 0.0455865 0.82471
-0.0991147 0.0447361 0.827561
-0.100527 0.0438792 0.830407
-0.101926 0.0430109 0.833073
-0.103235 0.0421119 0.834865
-0.104463 0.0411882 0.835888
-0.0640677 0.0731606 0.830604
-0.0651109 0.0721435 0.829572
-0.0661466 0.0711246 0.828473
-0.0670879 0.0700286 0.82607
-0.0680437 0.0689556 0.823955
-0.0689786 0.0678749 0.821631
-0.0699171 0.0668069 0.819434
-0.0708716 0.06576 0.817535
-0.0718733 0.0647553 0.81631
-0.0728732 0.0637545 0.815106
-0.0738893 0.0627696 0.814146
-0.0749143 0.0617943 0.813329
-0.0759581 0.060834 0.812771
-0.0770229 0.0598888 0.812483
-0.0780982 0.0589508 0.812334
-0.0791859 0.0580209 0.812327
-0.0802987 0.0571046 0.812618
-0.0814133 0.0561884 0.812921
-0.0825455 0.0552801 0.813416
-0.0837009 0.0543815 0.814156
-0.0848581 0.0534814 0.814897
-0.0860235 0.052583 0.8157
-0.0871836 0.0516796 0.816435
-0.0883246 0.0507663 0.816951
-0.0894569 0.0498479 0.817366
-0.0905948 0.0489311 0.817823
-0.0917182 0.0480072 0.81813
-0.0928606 0.0470896 0.818616
-0.0940312 0.0461795 0.819375
-0.0952789 0.0452922 0.820854
-0.0966218 0.0444295 0.823214
-0.0980238 0.0435776 0.826074
-0.0994418 0.0427216 0.82902
-0.100869 0.0418598 0.831979
-0.102215 0.0409701 0.834132
-0.103469 0.0400521 0.835417
-0.0631099 0.0720288 0.830359
-0.0641317 0.0709924 0.828994
-0.0651555 0.0699643 0.827708
-0.0660976 0.0688716 0.825287
-0.0670497 0.0677977 0.823101
-0.067969 0.066707 0.820538
-0.068896 0.0656332 0.818174
-0.0698444 0.0645852 0.816182
-0.0708385 0.0635782 0.81486
-0.0718386 0.062581 0.81366
-0.0728543 0.0615989 0.812702
-0.0738852 0.0606305 0.811972
-0.0749291 0.059673 0.811429
-0.0760001 0.0587341 0.811234
-0.0770872 0.0578055 0.811235
-0.0781863 0.0568832 0.811387
-0.0793051 0.0559714 0.811762
-0.0804318 0.0550627 0.812219
-0.0815777 0.054162 0.812882
-0.0827338 0.0532638 0.813645
-0.0838923 0.0523648 0.81441
-0.085071 0.0514722 0.815375
-0.0862379 0.0505716 0.816191
-0.0873787 0.0496579 0.816714
-0.0885187 0.0487429 0.81721
-0.0896553 0.0478246 0.817667
-0.0907697 0.0468978 0.817884
-0.09191 0.045979 0.818356
-0.0930706 0.0450659 0.819021
-0.0942752 0.044164 0.820101
-0.0956011 0.0432955 0.822324
-0.0969953 0.0424394 0.825151
-0.098401 0.0415782 0.828023
-0.0998285 0.0407151 0.831029
-0.101209 0.0398327 0.833529
-0.102482 0.0389188 0.834994
-0.0641197 0.0687647 0.826256
-0.0650454 0.0676617 0.823588
-0.0659938 0.066589 0.82134
-0.0669121 0.0655023 0.818749
-0.06784 0.0644339 0.816393
-0.0688006 0.0633994 0.814559
-0.0697945 0.0623959 0.813246
-0.0708007 0.0614066 0.812136
-0.0718281 0.0604357 0.811338
-0.0728668 0.059475 0.810718
-0.0739176 0.0585244 0.810271
-0.0749947 0.0575911 0.810164
-0.0760925 0.0566705 0.810309
-0.0771974 0.0557528 0.810547
-0.0783158 0.0548419 0.810932
-0.0794487 0.0539372 0.811477
-0.0806059 0.0530426 0.812287
-0.0817693 0.0521483 0.813147
-0.0829346 0.0512521 0.814009
-0.0841268 0.0503649 0.81514
-0.0853005 0.0494671 0.816036
-0.0864478 0.0485556 0.816634
-0.0875872 0.0476399 0.81713
-0.0887237 0.0467216 0.817586
-0.0898301 0.0457918 0.817722
-0.0909688 0.0448723 0.818186
-0.0921198 0.0439553 0.818763
-0.0932995 0.0430455 0.819611
-0.0946059 0.04217 0.821669
-0.0960042 0.0413126 0.824575
-0.0974 0.0404473 0.827384
-0.0988339 0.0395836 0.830485
-0.100235 0.0387039 0.833212
-0.101515 0.0377907 0.834761
-0.0630436 0.0675303 0.824144
-0.0639818 0.0664433 0.821652
-0.0649465 0.0653891 0.819645
-0.0658601 0.0643031 0.816976
-0.0667905 0.0632409 0.814647
-0.0677583 0.062216 0.812921
-0.0687594 0.0612214 0.811709
-0.0697782 0.0602443 0.810772
-0.0708132 0.0592812 0.810086
-0.07187 0.0583346 0.809711
-0.0729269 0.0573897 0.80935
-0.0740096 0.0564614 0.809323
-0.0751065 0.0555412 0.809473
-0.0762179 0.0546286 0.8098
-0.0773359 0.0537182 0.810201
-0.0784751 0.0528173 0.810837
-0.0796376 0.0519257 0.811724
-0.0808126 0.0510371 0.812732
-0.0819838 0.0501432 0.813674
-0.0831826 0.0492583 0.814895
-0.0843626 0.0483622 0.815875
-0.0855169 0.0474534 0.816554
-0.0866556 0.0465369 0.81705
-0.0877922 0.0456185 0.817506
-0.0888911 0.0446861 0.817566
-0.0900284 0.0437657 0.818024
-0.0911709 0.0428457 0.818523
-0.0923583 0.0419382 0.819449
-0.0936712 0.041062 0.821603
-0.095077 0.0402042 0.824608
-0.0964705 0.039335 0.827425
-0.0979081 0.0384688 0.830591
-0.0992885 0.0375813 0.833145
-0.100548 0.0366619 0.834517
-0.0629154 0.0652239 0.819619
-0.0638811 0.0641755 0.817629
-0.0647904 0.0630911 0.814896
-0.0657298 0.0620413 0.812689
-0.0667159 0.0610341 0.811229
-0.0677358 0.0600569 0.810282
-0.0687719 0.0590941 0.809596
-0.0698188 0.0581413 0.809078
-0.0708876 0.057204 0.80887
-0.0719574 0.0562687 0.808676
-0.0730456 0.0553445 0.808729
-0.0741416 0.0544246 0.808885
-0.0752582 0.0535155 0.809284
-0.0763768 0.052606 0.8097
-0.0775154 0.0517052 0.810343
-0.07867 0.05081 0.811155
-0.0798493 0.0499233 0.812229
-0.081025 0.0490312 0.813241
-0.0822308 0.0481489 0.814561
-0.0834181 0.0472553 0.815637
-0.0845859 0.0463511 0.816474
-0.0857247 0.0454346 0.81697
-0.0868672 0.0445175 0.817502
-0.0879737 0.0435872 0.817643
-0.0891195 0.0426692 0.818185
-0.0902701 0.041751 0.818766
-0.0914797 0.040848 0.819928
-0.0927937 0.0399694 0.822104
-0.0941985 0.0391077 0.82512
-0.0955895 0.0382342 0.827935
-0.097015 0.0373614 0.831007
-0.0983671 0.0364649 0.833312
-0.0609612 0.0651267 0.820809
-0.0618786 0.064031 0.817976
-0.0628262 0.0629718 0.815713
-0.0637456 0.0619006 0.813115
-0.0646918 0.0608602 0.811007
-0.0656908 0.0598664 0.809735
-0.0667214 0.0588996 0.808954
-0.0677691 0.0579474 0.808436
-0.0688228 0.0570014 0.808019
-0.0698974 0.0560697 0.8079
-0.0709781 0.0551424 0.807867
-0.072072 0.054223 0.808004
-0.0731742 0.0533078 0.808239
-0.0742952 0.0524015 0.80871
-0.0754177 0.0514946 0.80919
-0.0765558 0.050594 0.809835
-0.077702 0.0496947 0.810567
-0.0788781 0.0488064 0.81163
-0.0800599 0.0479174 0.812724
-0.0812721 0.0470374 0.814137
-0.0824668 0.046146 0.815315
-0.0836485 0.0452467 0.816318
-0.0847998 0.0443336 0.816965
-0.0859504 0.043419 0.817585
-0.0870734 0.0424939 0.817895
-0.0882355 0.0415796 0.818613
-0.0894028 0.040665 0.819363
-0.0906212 0.0397621 0.820622
-0.0919343 0.0388799 0.822802
-0.0933216 0.03801 0.825665
-0.0947006 0.0371301 0.828383
-0.0961049 0.0362489 0.831276
-0.0974451 0.0353471 0.833484
-0.0590334 0.0650584 0.822543
-0.059951 0.0639533 0.819564
-0.0608553 0.0628503 0.816496
-0.0617881 0.0617835 0.813989
-0.062723 0.0607286 0.811615
-0.0636866 0.0597052 0.809757
-0.064696 0.0587215 0.808641
-0.0657326 0.0577613 0.80795
-0.0667861 0.0568153 0.807516
-0.0678445 0.0558738 0.807178
-0.0689252 0.0549477 0.807146
-0.0700118 0.054025 0.807198
-0.0711122 0.0531101 0.807432
-0.0722193 0.052198 0.807748
-0.0733397 0.0512922 0.808218
-0.0744606 0.0503847 0.80869
-0.0755896 0.04948 0.809244
-0.0767279 0.0485776 0.809894
-0.0779014 0.0476882 0.810948
-0.0790812 0.0467984 0.812042
-0.0802932 0.0459181 0.813478
-0.0815005 0.0450313 0.814824
-0.0826961 0.0441371 0.815994
-0.0838616 0.0432284 0.81681
-0.0850276 0.0423184 0.817603
-0.0861737 0.0413996 0.818171
-0.0873543 0.0404897 0.819082
-0.088546 0.0395802 0.820093
-0.0897748 0.0386782 0.821453
-0.0910786 0.0377899 0.823555
-0.0924375 0.0369095 0.826152
-0.0938008 0.0360226 0.828735
-0.0951772 0.0351321 0.831377
-0.0965165 0.0342273 0.833601
-0.0580967 0.0661593 0.82533
-0.0561418 0.0660827 0.826895
-0.057114 0.0650057 0.824555
-0.0580512 0.0639075 0.821742
-0.0589783 0.0628133 0.818883
-0.0598856 0.0617154 0.81582
-0.0608108 0.0606445 0.813167
-0.0617459 0.0595926 0.81077
-0.0627213 0.0585804 0.80907
-0.0637267 0.0575958 0.807886
-0.0647626 0.056637 0.807183
-0.0658205 0.0556951 0.806823
-0.0668793 0.0547554 0.806493
-0.0679652 0.0538333 0.806543
-0.0690576 0.0529153 0.806679
-0.070163 0.0520037 0.806989
-0.0712713 0.0510928 0.80733
-0.0723913 0.0501868 0.807809
-0.0735111 0.049279 0.808278
-0.074632 0.0483707 0.808743
-0.0757612 0.0474645 0.809297
-0.0769334 0.0465752 0.810347
-0.0781112 0.0456843 0.811443
-0.0793207 0.0448024 0.812876
-0.0805401 0.0439197 0.814385
-0.0817417 0.0430269 0.815646
-0.0829161 0.0421214 0.816569
-0.0840967 0.0412151 0.817537
-0.0852667 0.0403027 0.81837
-0.0864635 0.039396 0.819463
-0.087674 0.0384902 0.820673
-0.088918 0.0375895 0.822199
-0.0902123 0.0366961 0.824213
-0.0915334 0.0358031 0.826449
-0.0928754 0.0349094 0.828831
-0.0942286 0.0340109 0.831277
-0.0955525 0.033101 0.833371
-0.0540719 0.0681389 0.829616
-0.0520488 0.0680104 0.830254
-0.0531346 0.0670279 0.829713
-0.0551204 0.0671213 0.828459
-0.0541704 0.0659971 0.828307
-0.0551812 0.064949 0.826511
-0.0561308 0.0638519 0.823755
-0.0570628 0.0627517 0.820813
-0.0579759 0.0616484 0.817682
-0.0588803 0.0605514 0.81455
-0.0598033 0.0594827 0.811839
-0.0607725 0.0584603 0.809955
-0.0617602 0.0574589 0.808433
-0.0627762 0.0564837 0.807394
-0.0638123 0.0555265 0.806685
-0.0648696 0.0545852 0.806321
-0.0659233 0.0536434 0.805918
-0.0670032 0.0527189 0.805892
-0.0680937 0.0518003 0.80602
-0.0691983 0.0508894 0.806331
-0.0703059 0.0499787 0.806677
-0.0714262 0.0490736 0.807175
-0.0725453 0.0481667 0.807642
-0.0736636 0.0472573 0.808096
-0.0747855 0.046349 0.808567
-0.0759482 0.0454556 0.80953
-0.0771238 0.0445642 0.810624
-0.0783298 0.0436809 0.812045
-0.0795464 0.0427972 0.813547
-0.0807594 0.0419082 0.814965
-0.0819482 0.0410073 0.816072
-0.0831498 0.0401068 0.817293
-0.0843488 0.0392025 0.818453
-0.0855611 0.0382989 0.819721
-0.0867868 0.037395 0.821105
-0.0880373 0.0364931 0.822716
-0.0893081 0.0355917 0.824499
-0.0905927 0.0346891 0.826372
-0.0919102 0.0337877 0.828534
-0.0932271 0.0328801 0.830642
-0.0945664 0.0319718 0.832913
-0.0501106 0.0679844 0.832643
-0.0511007 0.066888 0.830165
-0.0521882 0.0659072 0.829652
-0.0532259 0.0648786 0.828247
-0.0542173 0.0638119 0.826067
-0.055143 0.0626943 0.822842
-0.0560513 0.0615758 0.819455
-0.0569438 0.0604588 0.815941
-0.0578585 0.0593751 0.812956
-0.0588103 0.0583332 0.810694
-0.0598073 0.0573348 0.809239
-0.0608111 0.056347 0.807957
-0.0618284 0.0553741 0.806925
-0.0628646 0.0544181 0.806216
-0.0639222 0.053478 0.805853
-0.0649806 0.0525402 0.805519
-0.0660548 0.0516129 0.805417
-0.0671437 0.0506942 0.80553
-0.0682461 0.0497822 0.805828
-0.0693524 0.0488718 0.806165
-0.0704664 0.047964 0.806595
-0.0715844 0.0470568 0.80706
-0.0726961 0.0461457 0.807435
-0.0738153 0.0452363 0.807898
-0.0749698 0.0443396 0.808785
-0.076137 0.0434452 0.809799
-0.0773339 0.0425591 0.811131
-0.0785526 0.0416761 0.812689
-0.0797699 0.040788 0.81419
-0.0809717 0.0398911 0.815468
-0.0821874 0.0389943 0.816872
-0.0834065 0.0380953 0.818268
-0.0846248 0.0371921 0.819621
-0.0858486 0.0362859 0.821006
-0.0870914 0.0353815 0.822543
-0.0883509 0.034476 0.824225
-0.0896086 0.0335659 0.825847
-0.0908963 0.0326569 0.827737
-0.0921833 0.0317435 0.829568
-0.0935014 0.03083 0.831671
-0.0457749 0.0745804 0.861225
-0.0446339 0.0755889 0.861565
-0.0436262 0.0743873 0.860877
-0.044776 0.0733931 0.860744
-0.0469303 0.0735939 0.86123
-0.0459312 0.0724073 0.860757
-0.0479592 0.0724406 0.858523
-0.0469208 0.0712027 0.857123
-0.0492066 0.0669126 0.833509
-0.0501498 0.0657623 0.830026
-0.051236 0.0647804 0.829471
-0.0522722 0.0637509 0.828007
-0.053252 0.0626737 0.825581
-0.0541696 0.0615503 0.822153
-0.0550662 0.060424 0.818503
-0.0559595 0.0593107 0.814965
-0.0568776 0.058233 0.812002
-0.0578421 0.0572038 0.809924
-0.058852 0.0562172 0.808663
-0.059872 0.0552429 0.807619
-0.0608957 0.0542754 0.806674
-0.0619373 0.0533231 0.806049
-0.0629958 0.0523842 0.805694
-0.0640601 0.0514503 0.805437
-0.0651337 0.0505229 0.805324
-0.0662167 0.049601 0.805352
-0.0673123 0.0486856 0.805559
-0.0684115 0.0477715 0.805813
-0.0695177 0.0468601 0.806148
-0.0706286 0.0459501 0.806535
-0.0717333 0.0450365 0.806829
-0.0728451 0.0441245 0.807215
-0.0739928 0.043226 0.808026
-0.0751448 0.0423262 0.808877
-0.0763247 0.0414336 0.810044
-0.0775396 0.0405498 0.811586
-0.0787673 0.0396653 0.81324
-0.0799753 0.0387701 0.81462
-0.0812122 0.0378795 0.816288
-0.0824437 0.0369827 0.817852
-0.0836659 0.0360791 0.819275
-0.0848804 0.0351707 0.820563
-0.0861185 0.0342639 0.82208
-0.0873533 0.0333517 0.823527
-0.0885923 0.0324372 0.824976
-0.0898591 0.0315245 0.826672
-0.0911243 0.0306064 0.828318
-0.0924663 0.0296958 0.830698
-0.041465 0.0741725 0.860176
-0.0426254 0.0731957 0.860329
-0.0437829 0.0722139 0.860387
-0.0449382 0.0712292 0.860404
-0.0459044 0.0699933 0.856155
-0.0467227 0.0685937 0.848916
-0.0474951 0.0671767 0.841098
-0.0482736 0.0658074 0.833816
-0.049176 0.0646113 0.829418
-0.0502606 0.0636291 0.828833
-0.0512921 0.0625964 0.827269
-0.0522702 0.0615199 0.824765
-0.0531863 0.0603977 0.821264
-0.0540841 0.0592754 0.817583
-0.0549844 0.0581713 0.814124
-0.0559096 0.057102 0.811235
-0.0568864 0.056085 0.809333
-0.0579058 0.0551067 0.808225
-0.0589325 0.0541384 0.807274
-0.0599619 0.0531759 0.806407
-0.0610106 0.0522291 0.805877
-0.0620701 0.0512912 0.805533
-0.0631401 0.0503608 0.80536
-0.0642137 0.0494333 0.80525
-0.0652972 0.0485117 0.805285
-0.0663867 0.0475933 0.805405
-0.0674798 0.0466766 0.805569
-0.0685782 0.0457617 0.805808
-0.069676 0.0448458 0.806033
-0.0707676 0.0439272 0.806167
-0.0718715 0.0430128 0.806462
-0.0730097 0.042111 0.807176
-0.0741533 0.0412084 0.807948
-0.0753308 0.040316 0.809104
-0.0765413 0.0394299 0.810638
-0.0777724 0.0385461 0.812368
-0.0789875 0.0376533 0.813851
-0.0802371 0.036765 0.8157
-0.0814748 0.035869 0.817361
-0.082702 0.0349661 0.81886
-0.0839049 0.0340539 0.820046
-0.0851392 0.0331451 0.821544
-0.0863562 0.0322294 0.822815
-0.0875778 0.0313113 0.824101
-0.0888181 0.0303931 0.825551
-0.0900611 0.0294714 0.826997
-0.0913685 0.0285555 0.829059
-0.0393032 0.0739524 0.859393
-0.0404684 0.0729858 0.859694
-0.0416269 0.0720072 0.859805
-0.0427868 0.0710301 0.859933
-0.0439002 0.069988 0.858971
-0.0448262 0.0687018 0.853735
-0.0456697 0.0673397 0.84695
-0.0464767 0.0659693 0.839732
-0.0472825 0.0646351 0.832911
-0.0481939 0.0634513 0.828618
-0.0492775 0.0624699 0.828016
-0.0503112 0.0614415 0.826475
-0.0512909 0.0603687 0.823972
-0.0522198 0.0592611 0.820646
-0.053122 0.0581449 0.816991
-0.054027 0.0570471 0.813554
-0.0549591 0.0559857 0.810746
-0.0559461 0.054978 0.808994
-0.0569664 0.0540015 0.807886
-0.0580036 0.0530414 0.807096
-0.059044 0.052087 0.80639
-0.060104 0.0511476 0.806024
-0.0611649 0.0502104 0.805689
-0.0622357 0.0492802 0.805522
-0.0633054 0.0483506 0.80534
-0.0643837 0.0474256 0.805303
-0.0654634 0.046502 0.805284
-0.0665496 0.0455821 0.805356
-0.0676359 0.044662 0.805429
-0.0687153 0.0437387 0.805409
-0.0697926 0.0428149 0.805367
-0.0708823 0.0418961 0.80549
-0.0720053 0.0409892 0.806036
-0.0731455 0.0400869 0.806789
-0.0743198 0.0391935 0.807942
-0.0755226 0.038306 0.809404
-0.0767627 0.0374245 0.811288
-0.0779943 0.0365363 0.813002
-0.0792503 0.0356487 0.814965
-0.0805003 0.034755 0.816794
-0.0817326 0.0338526 0.818371
-0.0829323 0.032939 0.819542
-0.0841498 0.0320261 0.820877
-0.0853489 0.0311063 0.821979
-0.0865594 0.0301863 0.823167
-0.0877788 0.029264 0.824429
-0.0889959 0.028339 0.825628
-0.0902823 0.0274196 0.827514
-0.0930046 0.0276747 0.834392
-0.0919486 0.0265376 0.833234
-0.0947174 0.0267895 0.840355
-0.0936935 0.02565 0.839596
-0.0964706 0.0258937 0.846571
-0.0954361 0.0247471 0.84578
-0.0981843 0.0249806 0.852241
-0.097148 0.0238279 0.851501
-0.038277 0.0727125 0.85804
-0.0394529 0.0717676 0.858675
-0.0406161 0.0707992 0.858934
-0.0417442 0.0697776 0.858295
-0.0428167 0.0686823 0.856358
-0.0437239 0.0673773 0.850608
-0.0445909 0.0660524 0.844284
-0.0454302 0.0647279 0.837697
-0.0463002 0.0634728 0.832144
-0.0472219 0.0623025 0.827998
-0.0482876 0.0613037 0.827029
-0.0493257 0.0602822 0.825559
-0.0503113 0.0592176 0.823145
-0.051256 0.058127 0.820069
-0.0521649 0.0570191 0.816474
-0.0530881 0.0559387 0.813309
-0.0540246 0.0548825 0.810521
-0.0550164 0.0538792 0.808834
-0.0560343 0.052902 0.807656
-0.0570814 0.0519494 0.807025
-0.0581285 0.0509995 0.806414
-0.0591997 0.0500675 0.806213
-0.060266 0.049133 0.805958
-0.0613467 0.048208 0.805929
-0.0624171 0.0472778 0.805749
-0.0634912 0.0463502 0.805634
-0.064566 0.0454239 0.805529
-0.0656408 0.0444978 0.805438
-0.0667102 0.0435701 0.805271
-0.0677709 0.0426389 0.805
-0.0688296 0.0417084 0.804708
-0.0699047 0.0407854 0.804644
-0.0710187 0.039876 0.805096
-0.0721523 0.0389722 0.805783
-0.0733253 0.0380789 0.80695
-0.0745307 0.0371918 0.808485
-0.0757745 0.036311 0.810443
-0.0770097 0.0354226 0.812242
-0.0782703 0.034536 0.814282
-0.079519 0.0336405 0.816133
-0.0807554 0.0327383 0.817786
-0.081947 0.0318225 0.818885
-0.0831546 0.0309071 0.820133
-0.0843443 0.0299859 0.821148
-0.085543 0.0290633 0.822238
-0.0867437 0.0281383 0.823321
-0.0879477 0.0272112 0.824413
-0.0891909 0.0262866 0.82588
-0.0907536 0.0253897 0.830611
-0.092474 0.0244952 0.83683
-0.0942091 0.0235878 0.843037
-0.0959239 0.0226649 0.848882
-0.0987175 0.0228856 0.855712
-0.0975339 0.0217227 0.85356
-0.0372508 0.0714712 0.856597
-0.0384238 0.0705259 0.857219
-0.0395859 0.0695602 0.857506
-0.0406819 0.0684947 0.856059
-0.0417186 0.0673545 0.853227
-0.0426324 0.0660659 0.847589
-0.0435069 0.064758 0.841357
-0.044364 0.0634625 0.835104
-0.0452777 0.0622644 0.830458
-0.0462396 0.0611426 0.827124
-0.0472979 0.0601382 0.825996
-0.0483357 0.0591187 0.824518
-0.0493309 0.0580662 0.822261
-0.050291 0.0569922 0.819444
-0.0512181 0.0559026 0.816125
-0.0521595 0.0548388 0.813242
-0.0531075 0.0537928 0.810612
-0.054101 0.0527912 0.808918
-0.0551199 0.051815 0.807732
-0.0561695 0.0508643 0.80712
-0.0572236 0.049919 0.806615
-0.0583007 0.0489898 0.806506
-0.0593732 0.0480588 0.80633
-0.0604545 0.0471336 0.806296
-0.0615292 0.0462049 0.806171
-0.0625992 0.0452748 0.805976
-0.0636678 0.0443445 0.805781
-0.0647315 0.0434129 0.805518
-0.0657886 0.0424799 0.805169
-0.0668266 0.0415402 0.804576
-0.067872 0.0406055 0.8041
-0.0689285 0.0396765 0.803794
-0.0700292 0.0387632 0.804092
-0.0711547 0.0378578 0.804697
-0.0723315 0.036966 0.805943
-0.0735357 0.0360783 0.807499
-0.0747821 0.0351979 0.80953
-0.0760264 0.034311 0.811475
-0.0772903 0.0334238 0.813594
-0.0785375 0.0325275 0.815454
-0.0797707 0.0316232 0.817102
-0.080967 0.0307084 0.818275
-0.0821649 0.0297906 0.819435
-0.083346 0.0288678 0.820374
-0.0845345 0.0279437 0.82137
-0.0857238 0.0270167 0.82236
-0.0869179 0.0260886 0.823363
-0.0881525 0.0251626 0.824769
-0.0896086 0.0242519 0.828458
-0.0912075 0.023344 0.833514
-0.0929195 0.0224311 0.839597
-0.0946178 0.0215038 0.845388
-0.096236 0.0205606 0.850236
-0.0988111 0.0207571 0.854907
-0.0976117 0.0195994 0.852596
-0.035063 0.0711852 0.854681
-0.0362214 0.0702224 0.854971
-0.0373885 0.0692724 0.855491
-0.0385399 0.0682952 0.855557
-0.0396217 0.0672136 0.853756
-0.0406262 0.0660334 0.850082
-0.0415496 0.0647654 0.844625
-0.0424435 0.0634894 0.838794
-0.043327 0.0622322 0.833059
-0.0442681 0.0610708 0.828998
-0.0452744 0.0600016 0.826605
-0.0463298 0.0589953 0.825391
-0.0473692 0.0579791 0.823923
-0.0483698 0.0569334 0.821743
-0.0493413 0.0558714 0.819098
-0.050281 0.0547944 0.815964
-0.0512311 0.0537391 0.813187
-0.0521863 0.0526995 0.810639
-0.0531861 0.0517037 0.809007
-0.0542054 0.0507279 0.807812
-0.0552606 0.0497809 0.807282
-0.0563215 0.0488398 0.806875
-0.057405 0.0479142 0.806857
-0.0584832 0.0469857 0.80676
-0.0595652 0.04606 0.806726
-0.0606364 0.0451286 0.806536
-0.0617064 0.0441976 0.806335
-0.0627702 0.0432649 0.806048
-0.0638276 0.0423303 0.805682
-0.0648731 0.0413925 0.805157
-0.065894 0.0404465 0.804309
-0.0669226 0.0395064 0.803595
-0.0679714 0.0385753 0.803191
-0.0690599 0.0376593 0.803327
-0.0701839 0.0367537 0.803933
-0.0713642 0.0358626 0.805255
-0.0725721 0.0349756 0.806885
-0.0738114 0.0340921 0.808861
-0.0750523 0.0332031 0.810802
-0.0763061 0.0323122 0.812837
-0.0775492 0.0314142 0.814678
-0.0787738 0.0305078 0.816254
-0.079973 0.0295926 0.817492
-0.0811693 0.0286748 0.818653
-0.0823475 0.0277513 0.81958
-0.0835204 0.0268248 0.820428
-0.0847 0.0258968 0.82133
-0.0858762 0.0249673 0.822162
-0.0870478 0.0240346 0.822934
-0.0883934 0.0231144 0.825512
-0.0898686 0.0221956 0.829378
-0.0915435 0.0212782 0.835197
-0.0932425 0.020349 0.841114
-0.0949228 0.0194051 0.846693
-0.0964081 0.0184472 0.850205
-0.0338903 0.0721179 0.853905
-0.0328967 0.0709263 0.853205
-0.0340543 0.0699675 0.853541
-0.0352025 0.0689903 0.853571
-0.0363559 0.0680218 0.853746
-0.0374888 0.0670203 0.853352
-0.0385538 0.0659193 0.851094
-0.0395344 0.0647117 0.846776
-0.040477 0.0634774 0.841752
-0.0413947 0.0622389 0.836443
-0.042306 0.0610213 0.831319
-0.0432792 0.0599013 0.827937
-0.044326 0.0588789 0.826432
-0.0453787 0.0578703 0.825137
-0.0464231 0.0568598 0.823748
-0.0474346 0.0558252 0.821741
-0.0484174 0.0547741 0.819264
-0.049369 0.0537074 0.816302
-0.0503233 0.052656 0.81353
-0.0512818 0.0516193 0.810976
-0.0522826 0.050624 0.809325
-0.0533038 0.0496496 0.808125
-0.054365 0.0487061 0.807677
-0.0554362 0.0477709 0.807429
-0.0565248 0.0468469 0.807493
-0.0576091 0.0459207 0.807473
-0.0586919 0.0449939 0.807445
-0.0597653 0.0440626 0.807262
-0.0608326 0.0431293 0.806998
-0.0618932 0.0421941 0.806639
-0.0629404 0.0412545 0.806101
-0.0639753 0.040312 0.805403
-0.0649863 0.0393628 0.804388
-0.0660093 0.038421 0.803584
-0.067048 0.0374872 0.803027
-0.0681236 0.0365665 0.802998
-0.0692385 0.0356578 0.803501
-0.0704108 0.0347639 0.804738
-0.0716124 0.0338746 0.806312
-0.0728491 0.0329889 0.808293
-0.0740934 0.0321001 0.8103
-0.0753427 0.0312065 0.812315
-0.0765826 0.0303063 0.814152
-0.0777986 0.0293974 0.815648
-0.0789957 0.0284816 0.81688
-0.0801823 0.0275611 0.817957
-0.0813524 0.0266367 0.81881
-0.0825158 0.0257092 0.819567
-0.0836863 0.0247801 0.82039
-0.0848519 0.0238494 0.82113
-0.0860136 0.0229171 0.82181
-0.0872582 0.0219881 0.823358
-0.0886747 0.0210643 0.826677
-0.0903077 0.0201413 0.832158
-0.0919689 0.0192066 0.837795
-0.0936521 0.0182603 0.843501
-0.0952318 0.0173008 0.84803
-0.0977587 0.0174807 0.852317
-0.0966148 0.0163341 0.850507
-0.0989389 0.0165099 0.852735
-0.0978185 0.0153641 0.851183
-0.0319005 0.0697282 0.852369
-0.0330477 0.0687523 0.852394
-0.0341876 0.0677638 0.852208
-0.0353231 0.066769 0.851889
-0.0364352 0.0657396 0.850931
-0.0374857 0.0646228 0.848283
-0.0384825 0.0634452 0.844374
-0.039449 0.062249 0.839918
-0.0403923 0.0610475 0.835174
-0.0413354 0.0598713 0.830715
-0.0423398 0.0587887 0.828025
-0.0433847 0.0577642 0.826427
-0.044436 0.056754 0.825063
-0.0454866 0.0557499 0.823767
-0.0465078 0.0547246 0.821932
-0.0475021 0.0536838 0.819631
-0.0484697 0.0526309 0.816905
-0.049432 0.0515857 0.814209
-0.0503969 0.0505533 0.811719
-0.0514004 0.0495593 0.810057
-0.052424 0.0485856 0.808854
-0.0534829 0.0476394 0.808341
-0.05456 0.0467065 0.808175
-0.0556463 0.04578 0.808173
-0.0567306 0.0448524 0.808139
-0.0578145 0.043925 0.808105
-0.0588893 0.0429934 0.807928
-0.0599581 0.0420594 0.807674
-0.0610202 0.041124 0.807319
-0.0620647 0.0401828 0.806708
-0.0630948 0.0392377 0.80592
-0.0641073 0.0382891 0.804898
-0.0651265 0.0373459 0.804014
-0.0661659 0.0364117 0.803454
-0.067236 0.0354891 0.803335
-0.0683447 0.0345779 0.803747
-0.0695029 0.0336784 0.80481
-0.0706963 0.0327851 0.806299
-0.0719194 0.0318945 0.808127
-0.0731491 0.0310005 0.809979
-0.0743948 0.0301049 0.811972
-0.0756249 0.0292009 0.813723
-0.0768329 0.0282897 0.815145
-0.0780232 0.0273722 0.816317
-0.0792135 0.0264521 0.817453
-0.0803745 0.0255259 0.818221
-0.0815286 0.0245969 0.81889
-0.0826894 0.0236673 0.819616
-0.0838512 0.022736 0.820337
-0.0850038 0.0218029 0.820935
-0.0861501 0.0208683 0.821448
-0.0875128 0.0199404 0.824259
-0.0891122 0.0190123 0.829478
-0.0907461 0.0180733 0.834916
-0.0924148 0.0171226 0.840581
-0.0940741 0.0161608 0.846
-0.0954954 0.0151915 0.848916
-0.0967093 0.0142225 0.849712
-0.0297587 0.0695048 0.851454
-0.030903 0.0685256 0.851414
-0.0320426 0.0675381 0.851219
-0.0331737 0.0665368 0.850769
-0.0342927 0.0655185 0.849992
-0.0353892 0.0644689 0.848591
-0.0364531 0.0633783 0.846328
-0.0374713 0.062236 0.842964
-0.0384598 0.0610725 0.83903
-0.0394298 0.059907 0.834868
-0.0404029 0.0587677 0.831068
-0.0414043 0.0576806 0.828204
-0.0424445 0.0566505 0.826449
-0.0435007 0.0556454 0.825157
-0.0445591 0.0546486 0.824012
-0.0455882 0.0536306 0.822291
-0.0465946 0.0526003 0.820175
-0.0475817 0.0515633 0.817779
-0.0485558 0.0505264 0.815245
-0.0495333 0.0495026 0.812906
-0.0505442 0.0485123 0.811323
-0.051575 0.0475412 0.810201
-0.0526324 0.0465919 0.809614
-0.0537115 0.0456579 0.809447
-0.0547902 0.0447244 0.809281
-0.0558713 0.043793 0.809166
-0.0569513 0.0428617 0.80904
-0.0580268 0.041929 0.80885
-0.0590932 0.0409928 0.808524
-0.0601569 0.0400569 0.808171
-0.0612026 0.0391149 0.807554
-0.0622349 0.0381701 0.806765
-0.0632443 0.0372198 0.805667
-0.0642663 0.0362772 0.804792
-0.0653031 0.0353418 0.804166
-0.0663683 0.0344167 0.803963
-0.0674705 0.0335023 0.804277
-0.0686158 0.0325979 0.805169
-0.0697952 0.0316991 0.806486
-0.0710035 0.0308031 0.808141
-0.0722237 0.0299051 0.809894
-0.0734549 0.0290048 0.811733
-0.0746836 0.028099 0.813488
-0.0758839 0.027185 0.814839
-0.0770718 0.0262668 0.815995
-0.078247 0.0253434 0.816974
-0.0794048 0.0244164 0.817718
-0.0805509 0.0234872 0.818303
-0.0817029 0.0225568 0.818944
-0.0828556 0.0216246 0.819582
-0.0840122 0.0206923 0.820233
-0.085157 0.019757 0.820754
-0.0864711 0.0188258 0.823076
-0.088039 0.0178922 0.828033
-0.0896424 0.0169473 0.833239
-0.0912657 0.0159916 0.838508
-0.0928975 0.0150252 0.843734
-0.0943488 0.0140534 0.847002
-0.0955786 0.0130846 0.84799
-0.0979075 0.0132525 0.850342
-0.0968008 0.0121147 0.848881
-0.0990717 0.0122832 0.850619
-0.0979712 0.0111464 0.849253
-0.028766 0.0683078 0.850584
-0.0299027 0.0673155 0.850287
-0.0310338 0.0663151 0.849844
-0.0321569 0.0653031 0.84915
-0.0332674 0.0642741 0.848113
-0.0343575 0.0632192 0.846535
-0.0354357 0.0621559 0.844722
-0.0364723 0.0610437 0.84183
-0.0374865 0.0599173 0.83853
-0.0384854 0.0587899 0.835042
-0.0394854 0.0576822 0.831828
-0.0404856 0.0565918 0.828825
-0.0415272 0.0555615 0.827038
-0.0425782 0.0545498 0.825572
-0.043639 0.0535547 0.824431
-0.0446746 0.0525419 0.822798
-0.0456999 0.0515274 0.821021
-0.0467041 0.0505037 0.818907
-0.0476956 0.0494788 0.816641
-0.0486903 0.0484659 0.814561
-0.0497089 0.0474782 0.813058
-0.0507438 0.0465072 0.811939
-0.0518033 0.045556 0.811337
-0.0528802 0.0446175 0.811081
-0.0539514 0.0436771 0.810743
-0.0550292 0.0427414 0.810533
-0.0561052 0.0418058 0.810306
-0.0571778 0.0408695 0.810034
-0.0582455 0.0399322 0.809695
-0.0593112 0.0389954 0.80934
-0.0603591 0.038053 0.808724
-0.0613936 0.0371077 0.807926
-0.062411 0.0361592 0.806906
-0.063441 0.035218 0.806112
-0.0644864 0.0342839 0.805573
-0.0655545 0.0333577 0.805381
-0.0666523 0.0324398 0.805611
-0.0677804 0.0315286 0.806254
-0.0689353 0.0306215 0.807236
-0.0701174 0.0297175 0.808551
-0.0713171 0.0288133 0.810053
-0.0725282 0.0279073 0.811657
-0.0737426 0.0269978 0.81325
-0.0749411 0.0260824 0.814599
-0.0761204 0.0251615 0.815669
-0.0772873 0.024237 0.816561
-0.0784426 0.0233094 0.817289
-0.0795875 0.0223794 0.817875
-0.0807319 0.0214482 0.818442
-0.0818775 0.0205159 0.819005
-0.0830315 0.0195828 0.819651
-0.0841756 0.0186482 0.820168
-0.0855395 0.0177146 0.82307
-0.0870694 0.0167748 0.827674
-0.088647 0.0158237 0.832669
-0.090233 0.0148627 0.837613
-0.091825 0.0138922 0.842494
-0.0931991 0.0129206 0.845035
-0.0944507 0.0119518 0.846272
-0.0956812 0.0109815 0.847271
-0.0968582 0.0100136 0.847723
-0.0266316 0.0680886 0.849723
-0.0277692 0.0670996 0.849479
-0.0289002 0.0660985 0.848993
-0.0300248 0.0650891 0.848335
-0.0311422 0.0640708 0.847487
-0.032249 0.0630401 0.846354
-0.0333413 0.0619933 0.844854
-0.0344232 0.0609398 0.843154
-0.0354786 0.0598584 0.840792
-0.0365127 0.0587613 0.837991
-0.0375354 0.0576652 0.835077
-0.038553 0.056579 0.832243
-0.0395693 0.055506 0.829558
-0.0406076 0.0544701 0.827601
-0.0416558 0.0534542 0.826013
-0.0427148 0.0524565 0.824782
-0.0437596 0.0514516 0.8233
-0.0447999 0.0504495 0.821803
-0.0458238 0.0494407 0.820038
-0.0468361 0.0484305 0.818127
-0.0478518 0.0474308 0.81639
-0.0488797 0.0464464 0.814987
-0.0499184 0.0454747 0.813869
-0.0509756 0.0445189 0.813163
-0.0520493 0.0435752 0.812798
-0.0531137 0.0426281 0.812284
-0.0541846 0.0416863 0.811909
-0.0552578 0.0407471 0.811596
-0.0563317 0.0398094 0.81131
-0.057397 0.038869 0.810894
-0.0584645 0.0379313 0.810537
-0.0595141 0.0369881 0.809908
-0.0605559 0.0360443 0.809188
-0.061586 0.035099 0.808317
-0.0626253 0.0341593 0.807622
-0.063674 0.0332243 0.80709
-0.0647495 0.032298 0.806972
-0.0658435 0.0313767 0.807121
-0.0669566 0.0304593 0.807534
-0.0680931 0.0295459 0.808256
-0.0692552 0.0286353 0.809299
-0.0704344 0.0277249 0.810536
-0.071631 0.0268143 0.811964
-0.0728322 0.0259009 0.813402
-0.0740221 0.0249826 0.814655
-0.0751936 0.0240596 0.815642
-0.076346 0.0231327 0.816364
-0.0774937 0.0222039 0.817013
-0.0786375 0.0212735 0.817597
-0.0797765 0.0203417 0.818109
-0.0809215 0.019409 0.818674
-0.0820808 0.0184755 0.81939
-0.0832576 0.0175407 0.820283
-0.0846639 0.0166031 0.823682
-0.0861624 0.0156569 0.827992
-0.0877073 0.0147005 0.832684
-0.0892471 0.0137344 0.837197
-0.0907586 0.0127614 0.841297
-0.0920611 0.0117922 0.843139
-0.093327 0.0108222 0.844553
-0.0945702 0.00985126 0.845719
-0.0957557 0.00888307 0.846275
-0.0980201 0.00904603 0.848021
-0.0969248 0.0079159 0.846663
-0.0245132 0.067905 0.849484
-0.0256443 0.0668973 0.84889
-0.0267757 0.0658961 0.848399
-0.0278986 0.0648809 0.847624
-0.029016 0.0638609 0.846728
-0.0301299 0.0628406 0.845782
-0.0312362 0.0618138 0.844663
-0.0323314 0.0607762 0.843274
-0.0334198 0.0597368 0.841781
-0.0344912 0.0586818 0.839884
-0.0355487 0.0576186 0.837722
-0.0365937 0.0565518 0.835369
-0.0376321 0.0554895 0.833
-0.0386619 0.0544299 0.83057
-0.0396997 0.0533912 0.828508
-0.0407428 0.052368 0.826717
-0.0417966 0.0513638 0.825299
-0.0428438 0.05036 0.823816
-0.0438944 0.0493661 0.8225
-0.044937 0.0483714 0.821084
-0.0459692 0.047375 0.819527
-0.0470044 0.0463872 0.818117
-0.0480407 0.0454059 0.816809
-0.0490864 0.0444357 0.815755
-0.0501422 0.0434758 0.814957
-0.0512095 0.0425255 0.814415
-0.0522676 0.0415724 0.813732
-0.0533355 0.0406267 0.81326
-0.0544067 0.0396845 0.812874
-0.0554786 0.0387439 0.812515
-0.056546 0.0378028 0.812101
-0.0576156 0.0368642 0.811742
-0.0586719 0.0359221 0.811187
-0.0597218 0.0349796 0.81055
-0.0607604 0.0340357 0.80977
-0.0618083 0.033097 0.809161
-0.0628652 0.0321624 0.808715
-0.0639432 0.0312345 0.808598
-0.0650336 0.03031 0.808664
-0.0661365 0.0293881 0.808908
-0.0672562 0.0284687 0.80938
-0.0683938 0.0275513 0.810085
-0.0695471 0.0266347 0.810974
-0.0707236 0.0257191 0.812144
-0.0719103 0.0248019 0.813411
-0.0730924 0.0238814 0.814579
-0.074256 0.0229567 0.815479
-0.0754007 0.0220284 0.816117
-0.0765468 0.021099 0.816756
-0.0776898 0.0201681 0.81734
-0.0788291 0.0192359 0.817863
-0.0799799 0.0183029 0.818507
-0.0811519 0.0173688 0.819377
-0.0823581 0.0164327 0.820611
-0.0837436 0.0154907 0.823813
-0.0852144 0.0145395 0.827864
-0.0867185 0.0135787 0.832167
-0.0882121 0.0126099 0.836244
-0.0896545 0.0116364 0.839673
-0.0909512 0.0106664 0.841488
-0.0922124 0.00969689 0.842903
-0.0934628 0.00872494 0.844162
-0.0946559 0.00775692 0.84482
-0.095833 0.00679004 0.84531
-0.0235373 0.0667405 0.849126
-0.0246644 0.0657235 0.848352
-0.0257874 0.0647033 0.847484
-0.026904 0.0636764 0.84645
-0.0280115 0.0626388 0.845158
-0.0291202 0.061613 0.844044
-0.030226 0.0605902 0.842941
-0.0313263 0.0595654 0.841741
-0.0324231 0.0585432 0.840536
-0.0335091 0.0575125 0.83909
-0.0345856 0.0564772 0.837465
-0.0356512 0.0554371 0.83565
-0.0367083 0.0543967 0.833728
-0.037749 0.0533475 0.831492
-0.0387898 0.0523099 0.829419
-0.0398322 0.0512839 0.827524
-0.0408836 0.0502757 0.82598
-0.0419304 0.0492704 0.824424
-0.042987 0.0482805 0.82319
-0.0440404 0.0472935 0.821962
-0.0450898 0.0463087 0.820717
-0.0461362 0.0453271 0.819485
-0.0471803 0.0443489 0.818266
-0.0482285 0.0433781 0.817201
-0.0492867 0.0424174 0.816391
-0.0503438 0.0414591 0.815602
-0.0513998 0.0405032 0.814835
-0.0524697 0.0395569 0.814362
-0.0535428 0.0386138 0.813971
-0.0546169 0.0376728 0.813618
-0.0556909 0.0367329 0.813283
-0.0567627 0.0357933 0.812926
-0.0578222 0.0348509 0.812386
-0.0588792 0.0339095 0.811828
-0.0599268 0.0329671 0.811146
-0.060983 0.0320292 0.810627
-0.0620479 0.031095 0.810263
-0.063132 0.0301665 0.810204
-0.0642189 0.029239 0.810188
-0.0653181 0.0283139 0.810353
-0.0664277 0.0273903 0.810659
-0.0675481 0.0264679 0.811109
-0.0686882 0.0255471 0.811814
-0.0698455 0.0246268 0.812728
-0.0710134 0.0237055 0.813752
-0.0721828 0.0227819 0.814764
-0.0733389 0.0218553 0.815575
-0.0744641 0.0209251 0.815974
-0.0756083 0.019995 0.816596
-0.0767502 0.0190634 0.817176
-0.077889 0.0181308 0.817701
-0.0790401 0.0171971 0.818357
-0.0802315 0.0162618 0.819464
-0.0814682 0.0153233 0.821059
-0.0828416 0.014377 0.824154
-0.0842821 0.0134214 0.82791
-0.0857474 0.012457 0.831836
-0.0871835 0.0114871 0.835343
-0.0885633 0.0105141 0.838145
-0.0898392 0.00954553 0.839787
-0.0911045 0.00857512 0.841278
-0.0923601 0.00760231 0.842623
-0.093567 0.00663359 0.843452
-0.0947619 0.00566467 0.844138
-0.096981 0.00582538 0.845499
-0.0959266 0.00469874 0.844508
-0.0214258 0.0665745 0.849196
-0.0225571 0.0655631 0.848525
-0.0236803 0.0645365 0.847543
-0.0247989 0.0635073 0.846462
-0.0259087 0.0624674 0.845125
-0.0270137 0.0614277 0.843734
-0.0281199 0.0604009 0.842537
-0.0292274 0.0593851 0.841517
-0.0303299 0.0583679 0.840411
-0.0314341 0.0573607 0.839475
-0.0325284 0.0563449 0.838291
-0.033617 0.0553281 0.837025
-0.0346987 0.0543097 0.835653
-0.0357709 0.0532873 0.834106
-0.0368215 0.0522483 0.832067
-0.0378657 0.0512129 0.829998
-0.0389099 0.0501876 0.828073
-0.0399539 0.0491714 0.826273
-0.0410024 0.0481674 0.824705
-0.0420673 0.047184 0.823626
-0.04313 0.0462038 0.822569
-0.0441893 0.0452257 0.821498
-0.045246 0.0442501 0.820432
-0.0462958 0.0432745 0.819281
-0.0473432 0.0423019 0.818146
-0.0484032 0.0413408 0.817323
-0.0494585 0.0403804 0.816457
-0.0505163 0.0394244 0.815682
-0.0515835 0.0384757 0.815128
-0.0526586 0.0375324 0.814743
-0.0537342 0.0365909 0.814392
-0.0548144 0.0356524 0.814138
-0.0558924 0.0347141 0.813861
-0.0569633 0.0337744 0.813476
-0.058033 0.0328357 0.813093
-0.0590979 0.031897 0.81265
-0.060167 0.0309607 0.812294
-0.0612445 0.0300275 0.812083
-0.062332 0.0290974 0.812035
-0.0634208 0.0281676 0.812012
-0.064516 0.0272393 0.812084
-0.0656166 0.0263117 0.812232
-0.066722 0.0253846 0.812447
-0.0678455 0.0244594 0.812905
-0.0689847 0.0235346 0.813566
-0.0701287 0.0226091 0.814267
-0.071279 0.0216824 0.815032
-0.0724218 0.0207536 0.815676
-0.0735456 0.0198227 0.816059
-0.0746832 0.0188915 0.816604
-0.0758305 0.0179592 0.817255
-0.0769755 0.0170258 0.81786
-0.07814 0.016091 0.818679
-0.07934 0.0151537 0.819895
-0.0805997 0.0142117 0.821769
-0.0819514 0.0132617 0.824643
-0.0833566 0.0123027 0.828036
-0.0847753 0.0113362 0.831488
-0.0861647 0.0103652 0.834522
-0.0874847 0.00939515 0.836728
-0.0887495 0.00842648 0.838282
-0.0900024 0.00745672 0.839676
-0.0912456 0.0064857 0.840937
-0.0924588 0.00551626 0.841856
-0.0936759 0.00454438 0.842788
-0.0948583 0.00357682 0.843361
-0.0970857 0.00373298 0.844813
-0.0960604 0.0026046 0.844104
-0.0982319 0.00276895 0.844996
-0.0972506 0.00163386 0.844727
-0.0204492 0.0654058 0.848761
-0.021578 0.0643868 0.847921
-0.0226982 0.0633525 0.846753
-0.0238117 0.0623117 0.845401
-0.0249199 0.0612703 0.843978
-0.026023 0.060229 0.842491
-0.027127 0.0592011 0.841211
-0.0282339 0.0581877 0.840183
-0.0293383 0.0571773 0.839166
-0.0304467 0.05618 0.838391
-0.0315467 0.0551751 0.837399
-0.0326437 0.0541721 0.836399
-0.0337372 0.0531705 0.835375
-0.0348199 0.0521613 0.834103
-0.0358822 0.0511357 0.832337
-0.0369353 0.0501092 0.830441
-0.0379852 0.0490889 0.828598
-0.0390257 0.0480684 0.826632
-0.0400756 0.0470651 0.825036
-0.0411394 0.0460804 0.823888
-0.0422039 0.0451013 0.822833
-0.0432658 0.044125 0.821786
-0.0443276 0.0431529 0.820797
-0.0453832 0.0421808 0.819731
-0.0464324 0.041209 0.818591
-0.0474939 0.0402484 0.817768
-0.0485544 0.0392905 0.816971
-0.0496137 0.0383348 0.816195
-0.0506786 0.0373846 0.815567
-0.0517546 0.0364412 0.81518
-0.0528311 0.0354996 0.814823
-0.0539123 0.0345609 0.81457
-0.0549964 0.0336242 0.814382
-0.0560787 0.0326877 0.814171
-0.0571596 0.0317515 0.813952
-0.0582364 0.030815 0.813675
-0.0593132 0.0298795 0.813413
-0.0603986 0.0289468 0.813298
-0.0614885 0.0280154 0.81326
-0.0625792 0.0270844 0.813239
-0.0636758 0.0261546 0.813306
-0.0647773 0.0252254 0.813446
-0.0658785 0.024296 0.813581
-0.0669918 0.0233677 0.813879
-0.0681187 0.02244 0.814358
-0.0692492 0.0215115 0.814873
-0.0703799 0.0205821 0.815375
-0.0715151 0.0196518 0.815919
-0.0726386 0.0187201 0.816299
-0.0737705 0.0177879 0.816772
-0.0749184 0.0168547 0.817433
-0.0760759 0.01592 0.818194
-0.0772545 0.0149834 0.819188
-0.0784634 0.0140436 0.820517
-0.0797419 0.0130976 0.822625
-0.0810635 0.0121447 0.82517
-0.0824316 0.0111833 0.828174
-0.083798 0.0102164 0.831074
-0.0851435 0.00924608 0.833664
-0.0864184 0.00827833 0.835408
-0.0876777 0.00730993 0.836946
-0.088912 0.00634169 0.838174
-0.0901501 0.00537067 0.839409
-0.0913679 0.00440031 0.8404
-0.0925919 0.00342794 0.841438
-0.0937917 0.00245763 0.842204
-0.0950288 0.00147935 0.843319
-0.0962565 0.000501151 0.844319
-0.0183392 0.0652469 0.848967
-0.0194747 0.0642424 0.848406
-0.020601 0.0632151 0.847379
-0.0217194 0.0621755 0.846065
-0.0228291 0.0611253 0.844475
-0.0239362 0.0600826 0.842968
-0.0250381 0.0590407 0.841403
-0.02614 0.058011 0.840025
-0.0272447 0.0569964 0.838913
-0.0283466 0.0559849 0.837811
-0.0294548 0.0549908 0.837053
-0.030559 0.0539957 0.836231
-0.0316635 0.0530063 0.835497
-0.0327658 0.0520182 0.834754
-0.03386 0.0510246 0.833827
-0.0349303 0.0500087 0.832249
-0.0359888 0.0489882 0.830447
-0.0370382 0.0479673 0.828525
-0.0380804 0.0469489 0.826546
-0.0391289 0.0459451 0.824872
-0.0401937 0.0449621 0.823721
-0.041263 0.0439874 0.822755
-0.04233 0.043015 0.821795
-0.0433964 0.0420464 0.820885
-0.0444537 0.0410758 0.819829
-0.0455078 0.0401073 0.81876
-0.046571 0.0391479 0.81795
-0.0476329 0.0381908 0.817153
-0.0486934 0.0372359 0.816377
-0.0497632 0.036288 0.815824
-0.0508397 0.0353447 0.815429
-0.051917 0.0344031 0.815071
-0.053003 0.0334659 0.814891
-0.0540928 0.0325307 0.814789
-0.0551814 0.0315956 0.814675
-0.0562695 0.0306608 0.81456
-0.0573534 0.0297254 0.81438
-0.0584414 0.0287918 0.814277
-0.0595338 0.0278594 0.814254
-0.0606262 0.0269272 0.814233
-0.0617187 0.0259952 0.814218
-0.0628161 0.0250641 0.814278
-0.0639134 0.0241331 0.814337
-0.0650108 0.0232019 0.814397
-0.066119 0.0222719 0.814612
-0.067234 0.0213418 0.814917
-0.0683507 0.0204114 0.815235
-0.0694675 0.0194803 0.815549
-0.0705956 0.018549 0.816001
-0.0717199 0.0176167 0.816392
-0.0728588 0.0166837 0.816958
-0.07402 0.0157492 0.817793
-0.0751905 0.0148128 0.818718
-0.0763839 0.0138736 0.819896
-0.0776005 0.0129309 0.821323
-0.0788579 0.0119826 0.82319
-0.0801384 0.0110289 0.825276
-0.0814679 0.0100669 0.827869
-0.0827847 0.00910131 0.830243
-0.0840978 0.00813159 0.832509
-0.085361 0.0071644 0.834164
-0.0866102 0.0061959 0.835621
-0.0878317 0.00522897 0.836741
-0.0890578 0.00425913 0.837877
-0.090263 0.00329089 0.83877
-0.0914998 0.00231627 0.839971
-0.0927335 0.00133983 0.841107
-0.0939979 0.000356002 0.842527
-0.09527 -0.000632068 0.843982
-0.0162299 0.0650997 0.849393
-0.0173645 0.0640815 0.848582
-0.0184985 0.0630718 0.847899
-0.0196237 0.0620403 0.846755
-0.0207395 0.0609928 0.845228
-0.0218469 0.0599372 0.84347
-0.0229513 0.0588895 0.84179
-0.02405 0.0578426 0.840052
-0.0251498 0.0568119 0.838578
-0.026252 0.0557966 0.837381
-0.0273553 0.0547917 0.83636
-0.0284631 0.0538009 0.835623
-0.0295714 0.0528158 0.83498
-0.0306781 0.0518326 0.834348
-0.0317849 0.0508533 0.833776
-0.0328851 0.0498694 0.833045
-0.0339647 0.0488659 0.83173
-0.0350306 0.0478546 0.830107
-0.0360848 0.0468397 0.828274
-0.0371315 0.0458264 0.826364
-0.0381814 0.0448245 0.824677
-0.0392474 0.0438431 0.823528
-0.0403182 0.0428702 0.822573
-0.041389 0.0419015 0.821689
-0.0424567 0.0409342 0.820781
-0.0435149 0.0399648 0.819718
-0.0445709 0.0389983 0.818665
-0.0456353 0.0380401 0.817861
-0.0466985 0.0370843 0.817073
-0.0477599 0.0361305 0.816297
-0.0488303 0.0351834 0.815744
-0.0499073 0.0342406 0.815349
-0.0509851 0.0332997 0.814991
-0.0520753 0.0323641 0.814885
-0.0531701 0.0314304 0.81487
-0.0542644 0.0304968 0.814849
-0.0553583 0.0295634 0.814825
-0.0564521 0.0286302 0.814804
-0.0575461 0.0276971 0.814788
-0.0586445 0.0267652 0.814848
-0.0597429 0.0258331 0.814907
-0.0608413 0.0249012 0.814967
-0.0619397 0.0239692 0.815026
-0.0630381 0.0230372 0.815086
-0.0641365 0.0221053 0.815146
-0.0652401 0.0211736 0.815281
-0.0663442 0.0202419 0.815421
-0.0674542 0.0193102 0.81564
-0.0685648 0.0183781 0.815862
-0.0696878 0.0174457 0.816246
-0.0708135 0.0165127 0.816653
-0.0719594 0.0155785 0.817314
-0.0731269 0.0146424 0.818232
-0.0743048 0.0137039 0.819255
-0.0755057 0.0127622 0.820533
-0.076723 0.0118168 0.821974
-0.0779647 0.0108666 0.823664
-0.0792054 0.00991344 0.825297
-0.0804929 0.00895223 0.827428
-0.0817743 0.00798792 0.829429
-0.0830545 0.00702012 0.831357
-0.0843075 0.00605288 0.832932
-0.085553 0.00508385 0.834376
-0.0867702 0.00411686 0.835479
-0.0879845 0.00314875 0.836521
-0.0891858 0.00218115 0.837398
-0.0904206 0.00120625 0.838609
-0.0916767 0.000224651 0.839999
-0.0929663 -0.000765513 0.841703
-0.0942719 -0.00176153 0.843529
-0.0965713 -0.00162783 0.845697
-0.095598 -0.00276539 0.845507
-0.0152519 0.0639161 0.848676
-0.0163862 0.0628981 0.847835
-0.0175189 0.0618846 0.847043
-0.0186424 0.0608489 0.845762
-0.0197549 0.0597924 0.843992
-0.02086 0.0587321 0.842055
-0.0219613 0.0576801 0.840202
-0.0230583 0.0566333 0.838374
-0.0241559 0.0556023 0.83681
-0.025257 0.0545899 0.835601
-0.0263616 0.0535923 0.834679
-0.0274704 0.0526078 0.834027
-0.0285799 0.0516291 0.83348
-0.02969 0.0506547 0.833014
-0.0307988 0.0496814 0.832544
-0.0319015 0.0487034 0.831917
-0.0329843 0.0477063 0.8307
-0.0340565 0.0467043 0.829256
-0.0351144 0.0456953 0.827502
-0.0361655 0.0446881 0.825683
-0.0372224 0.0436942 0.824159
-0.0382926 0.0427175 0.8231
-0.0393671 0.0417486 0.822228
-0.0404387 0.0407813 0.82134
-0.0415102 0.0398177 0.820513
-0.0425693 0.03885 0.819448
-0.04363 0.0378871 0.81848
-0.0446952 0.0369302 0.817674
-0.0457664 0.035979 0.817046
-0.0468327 0.0350279 0.816351
-0.0479043 0.0340815 0.815804
-0.0489825 0.0331394 0.815419
-0.0500607 0.0321989 0.815059
-0.0511475 0.0312621 0.814881
-0.0522425 0.0303285 0.814865
-0.0533414 0.0293961 0.814924
-0.0544403 0.0284637 0.814984
-0.0555392 0.0275312 0.815044
-0.0566381 0.0265988 0.815103
-0.057737 0.0256664 0.815163
-0.0588359 0.0247339 0.815223
-0.0599348 0.0238016 0.815282
-0.0610337 0.0228692 0.815342
-0.0621326 0.0219368 0.815401
-0.0632315 0.0210044 0.815461
-0.0643304 0.020072 0.815521
-0.0654345 0.0191397 0.815656
-0.066545 0.0182074 0.815879
-0.0676566 0.0172749 0.816112
-0.068781 0.0163417 0.816513
-0.0699125 0.0154077 0.817
-0.0710588 0.0144723 0.817666
-0.0722319 0.0135342 0.818664
-0.073417 0.0125935 0.819782
-0.0746245 0.011649 0.821147
-0.0758347 0.0107016 0.822508
-0.0770544 0.00975082 0.823943
-0.0782642 0.00879867 0.825217
-0.0795121 0.00783943 0.826907
-0.0807468 0.006879 0.828394
-0.0820007 0.00591341 0.83006
-0.0832415 0.00494682 0.831532
-0.0844772 0.00397837 0.832901
-0.0856918 0.00301188 0.83401
-0.086902 0.00204433 0.83504
-0.0881009 0.00107677 0.835914
-0.0893306 0.000102419 0.837105
-0.0905996 -0.00088276 0.838663
-0.0919039 -0.00187756 0.840555
-0.0932332 -0.00288098 0.842651
-0.094582 -0.00389249 0.844889
-0.0154084 0.0617114 0.846986
-0.0165409 0.0606997 0.846189
-0.017663 0.0596595 0.844765
-0.0187763 0.0586063 0.842993
-0.0198796 0.0575416 0.840883
-0.0209799 0.0564887 0.838928
-0.0220741 0.0554374 0.836914
-0.0231698 0.0544061 0.835258
