ply
format ascii 1.0
element vertex 1634
property float x
property float y
property float z
end_header
-0.0833507 0.0696134 0.859804
-0.0842419 0.0706415 0.859016
-0.0851224 0.0716611 0.858144
-0.0859874 0.0726688 0.857148
-0.086847 0.0736717 0.856122
-0.0877145 0.0746795 0.855186
-0.0885773 0.0756831 0.854228
-0.0895018 0.0767317 0.853833
-0.0904269 0.0777803 0.853451
-0.0913895 0.0788567 0.853401
-0.0923907 0.0799621 0.853683
-0.0934263 0.0810938 0.854251
-0.0944662 0.0822295 0.854844
-0.0955521 0.0834004 0.855812
-0.0966116 0.0845521 0.856539
-0.0976344 0.0856761 0.856952
-0.0986435 0.0867901 0.857242
-0.0996101 0.087871 0.857189
-0.100554 0.0889343 0.856949
-0.101488 0.08999 0.856641
-0.102403 0.0910304 0.856185
-0.103346 0.092093 0.855962
-0.104271 0.0931404 0.855591
-0.105235 0.0942191 0.855532
-0.106275 0.0953582 0.856049
-0.107368 0.0965395 0.856945
-0.108503 0.0977558 0.858146
-0.109684 0.0990102 0.859659
-0.111045 0.10041 0.862459
-0.112545 0.101924 0.86623
-0.114142 0.103521 0.870628
-0.115756 0.105133 0.875078
-0.11737 0.106749 0.879451
-0.11879 0.108209 0.882396
-0.120056 0.109545 0.884226
-0.121315 0.110876 0.885972
-0.122534 0.112175 0.887418
-0.123779 0.113497 0.889015
-0.124962 0.114768 0.890175
-0.0291688 0.00313558 1.00155
-0.0295623 0.00071154 1.00873
-0.0304912 0.00199915 1.00314
-0.030012 0.00440284 0.993851
-0.0313976 0.00327355 0.99729
-0.0322899 0.0045332 0.991414
-0.0332282 0.00577875 0.986993
-0.0341777 0.0070143 0.983078
-0.0351488 0.00824208 0.97987
-0.0361525 0.00946569 0.977564
-0.0371916 0.0106886 0.976156
-0.0382734 0.0119147 0.975738
-0.0394377 0.0131538 0.977075
-0.0394266 0.0155131 0.979625
-0.0433898 0.0214398 0.890783
-0.0440912 0.02246 0.885495
-0.0450076 0.0235465 0.884073
-0.0459105 0.0246258 0.882477
-0.0468114 0.0257017 0.880908
-0.0477098 0.0267742 0.879352
-0.048625 0.027851 0.878116
-0.0495331 0.0289231 0.876812
-0.0504347 0.0299902 0.875451
-0.0513496 0.0310613 0.874335
-0.0522685 0.0321326 0.873314
-0.0531871 0.0332023 0.872322
-0.0540927 0.0342646 0.871174
-0.0550036 0.0353277 0.870136
-0.0559115 0.036388 0.869087
-0.056831 0.0374527 0.868227
-0.0577719 0.0385273 0.867679
-0.0587196 0.0396049 0.867237
-0.0596717 0.0406841 0.866863
-0.0606196 0.0417607 0.866446
-0.061593 0.0428509 0.866361
-0.0625651 0.0439401 0.866262
-0.0635661 0.0450456 0.866519
-0.0645723 0.0461545 0.86683
-0.0655835 0.0472667 0.867193
-0.06659 0.0483767 0.867489
-0.0676071 0.0494933 0.867899
-0.0686409 0.0506204 0.86849
-0.0696749 0.0517485 0.869067
-0.0707007 0.0528722 0.869536
-0.0717041 0.0539825 0.869744
-0.0726992 0.055088 0.869856
-0.0736503 0.0561659 0.869489
-0.0745898 0.0572361 0.869006
-0.0754947 0.0582835 0.868169
-0.0763884 0.0593228 0.867234
-0.0772731 0.0603553 0.866228
-0.078182 0.0614028 0.86549
-0.0790756 0.0624394 0.864615
-0.0799825 0.0634839 0.863889
-0.0808937 0.0645307 0.863222
-0.0817966 0.0655713 0.862487
-0.0826993 0.0666112 0.861767
-0.0836172 0.0676607 0.861203
-0.0845506 0.0687206 0.860799
-0.0854683 0.0697691 0.860255
-0.0863764 0.0708105 0.859634
-0.0872718 0.0718422 0.858909
-0.088155 0.0728647 0.858088
-0.0890468 0.0738927 0.857359
-0.0899314 0.074915 0.85658
-0.0908602 0.0759684 0.856203
-0.0917789 0.0770142 0.855745
-0.0927325 0.0780851 0.855594
-0.0937238 0.0791835 0.855766
-0.0947499 0.080308 0.856227
-0.0957831 0.081438 0.856739
-0.0968638 0.082604 0.857632
-0.0979363 0.0837646 0.858438
-0.0989606 0.0848896 0.858843
-0.099983 0.0860137 0.859218
-0.100973 0.0871136 0.859333
-0.101941 0.088196 0.859268
-0.102888 0.0892634 0.859038
-0.103811 0.0903117 0.85863
-0.104744 0.0913677 0.8583
-0.105655 0.0924063 0.857815
-0.106601 0.0934721 0.857595
-0.107613 0.0945886 0.857878
-0.108668 0.0957392 0.85847
-0.109785 0.0969397 0.859511
-0.110938 0.0981682 0.860789
-0.112238 0.0995145 0.86312
-0.113741 0.101023 0.866862
-0.115354 0.102623 0.871328
-0.116978 0.104235 0.875807
-0.118603 0.10585 0.880214
-0.120072 0.107344 0.883467
-0.121342 0.108679 0.885295
-0.122606 0.11001 0.88705
-0.123834 0.111314 0.888534
-0.125102 0.112652 0.890267
-0.126305 0.113937 0.891535
-0.03181 0.00086007 1.00453
-0.0327818 0.00213694 1.00047
-0.0337263 0.00340468 0.99596
-0.0346508 0.00466134 0.991217
-0.0355892 0.00590648 0.987044
-0.0365423 0.00714228 0.983414
-0.0375303 0.00837187 0.980732
-0.0385594 0.00959928 0.979068
-0.0396543 0.0108308 0.978862
-0.0408411 0.0120749 0.980552
-0.0421767 0.0133471 0.985152
-0.043512 0.0170227 0.992169
-0.0435165 0.0146297 0.989626
-0.0448453 0.0159194 0.993694
-0.0452538 0.0214746 0.886221
-0.046158 0.02256 0.884609
-0.0470533 0.0236397 0.88291
-0.0479477 0.0247162 0.881255
-0.0488395 0.025789 0.879618
-0.0497596 0.0268699 0.878476
-0.0506724 0.0279462 0.877257
-0.0515782 0.0290178 0.875978
-0.0524977 0.030093 0.87494
-0.0534266 0.0311708 0.87407
-0.054339 0.03224 0.872992
-0.0552495 0.0333069 0.87192
-0.0561676 0.0343757 0.870985
-0.0570781 0.0354397 0.869976
-0.0580002 0.0365078 0.869149
-0.0589478 0.0375873 0.868685
-0.0598965 0.0386668 0.868244
-0.060849 0.0397476 0.867865
-0.0618042 0.0408293 0.86753
-0.0627788 0.041921 0.867444
-0.063751 0.0430112 0.867331
-0.0647452 0.0441132 0.867484
-0.0657456 0.045219 0.867708
-0.0667579 0.0463317 0.868063
-0.0677657 0.0474422 0.868357
-0.0687832 0.0485589 0.868753
-0.0698109 0.0496819 0.869252
-0.070845 0.0508094 0.869811
-0.0718584 0.0519252 0.870125
-0.0728557 0.0530319 0.870255
-0.0738449 0.0541339 0.870294
-0.0747957 0.0552127 0.869922
-0.0757281 0.0562794 0.869364
-0.0766408 0.0573335 0.868613
-0.0775339 0.0583744 0.867677
-0.0784182 0.0594088 0.866672
-0.0793246 0.0604563 0.865913
-0.0802164 0.0614936 0.865023
-0.0811141 0.0625339 0.864211
-0.0820324 0.0635868 0.863615
-0.082936 0.0646295 0.862891
-0.0838479 0.065677 0.86226
-0.0847758 0.0667346 0.861792
-0.085719 0.0678021 0.861474
-0.0866457 0.0688583 0.861012
-0.0875809 0.0699197 0.860635
-0.0885064 0.0709741 0.860177
-0.08943 0.0720268 0.859711
-0.0903621 0.0730851 0.859329
-0.0912774 0.0741311 0.858807
-0.0922267 0.0752009 0.858588
-0.0931572 0.0762571 0.858212
-0.0941036 0.0773242 0.857976
-0.0950785 0.0784116 0.857984
-0.0960871 0.0795234 0.858273
-0.0971129 0.0806481 0.858695
-0.0981773 0.081801 0.859429
-0.0992537 0.0829636 0.860238
-0.100291 0.0840978 0.860723
-0.101337 0.0852394 0.86127
-0.102353 0.0863594 0.861572
-0.103349 0.0874643 0.861706
-0.104323 0.0885527 0.86166
-0.105272 0.0896225 0.86143
-0.106207 0.0906817 0.861093
-0.107109 0.0917155 0.860519
-0.108044 0.0927741 0.860193
-0.109026 0.0938685 0.860227
-0.110038 0.0949862 0.86048
-0.111134 0.0961682 0.861335
-0.112264 0.0973772 0.862428
-0.113567 0.0987216 0.864739
-0.115078 0.10023 0.868494
-0.11671 0.101835 0.873042
-0.118336 0.103439 0.877471
-0.119969 0.105052 0.881882
-0.121438 0.106539 0.885087
-0.122711 0.107873 0.886911
-0.123984 0.109209 0.888697
-0.125241 0.110533 0.890356
-0.12653 0.111884 0.892195
-0.127754 0.113184 0.893578
-0.0340533 0.00100588 1.00068
-0.0350514 0.00227473 0.997581
-0.0360184 0.00353689 0.993912
-0.0369893 0.00478982 0.99052
-0.0379404 0.00603408 0.986855
-0.0389286 0.00727118 0.984165
-0.039949 0.00850414 0.982276
-0.0410467 0.00973994 0.982055
-0.0422429 0.0109867 0.983813
-0.0435454 0.0122519 0.987576
-0.0448539 0.0135264 0.991286
-0.0461521 0.014807 0.994647
-0.046423 0.0204886 0.887021
-0.0473317 0.0215786 0.885498
-0.0482141 0.0226576 0.883607
-0.0490962 0.0237333 0.881777
-0.0499812 0.0248068 0.880056
-0.0509062 0.0258917 0.879
-0.051825 0.0269725 0.877885
-0.0527383 0.0280496 0.876725
-0.0536629 0.0291291 0.875766
-0.0545968 0.030211 0.874966
-0.0555076 0.0312821 0.873868
-0.0564118 0.0323488 0.872712
-0.0573363 0.0334225 0.871866
-0.0582529 0.0344916 0.870939
-0.0591763 0.0355625 0.870129
-0.0601302 0.0366464 0.869734
-0.061085 0.0377303 0.869363
-0.0620382 0.0388129 0.86898
-0.0629955 0.0398972 0.868659
-0.0639771 0.0409931 0.868644
-0.0649443 0.0420818 0.868451
-0.0659396 0.0431849 0.868599
-0.0669413 0.0442917 0.868818
-0.0679493 0.0454021 0.869103
-0.0689521 0.0465103 0.86932
-0.0699637 0.0476235 0.869628
-0.070977 0.0487381 0.869947
-0.0720054 0.0498617 0.870425
-0.0730208 0.0509786 0.870747
-0.0740135 0.0520827 0.870816
-0.0750035 0.0531854 0.870854
-0.0759608 0.0542688 0.870547
-0.0768848 0.0553322 0.8699
-0.077797 0.0563875 0.869146
-0.0786984 0.0574356 0.8683
-0.0795819 0.0584718 0.867291
-0.08048 0.0595159 0.866449
-0.081369 0.0605535 0.865536
-0.0822564 0.061589 0.864626
-0.0831669 0.0626383 0.863957
-0.0840774 0.063687 0.863302
-0.0849985 0.0647419 0.862758
-0.0859276 0.0658014 0.8623
-0.0868722 0.0668708 0.861994
-0.0878165 0.0679395 0.861688
-0.0887623 0.069009 0.861403
-0.0897168 0.0700842 0.861199
-0.090679 0.0711645 0.861068
-0.0916497 0.0722502 0.861012
-0.092585 0.0733119 0.860651
-0.0935548 0.074397 0.860591
-0.0944961 0.0754623 0.860288
-0.0954465 0.0765336 0.860069
-0.0964166 0.0776188 0.860015
-0.097418 0.0787257 0.860221
-0.0984348 0.0798439 0.860549
-0.0994821 0.080984 0.861116
-0.100551 0.0821406 0.861841
-0.101592 0.0832771 0.862337
-0.102665 0.0844374 0.863068
-0.103709 0.0855776 0.863564
-0.104744 0.086712 0.863982
-0.105756 0.0878293 0.864216
-0.106745 0.0889304 0.864266
-0.107698 0.0900048 0.864048
-0.108607 0.0910459 0.863497
-0.109532 0.0920989 0.863074
-0.110489 0.0931754 0.862898
-0.111464 0.0942654 0.862855
-0.112511 0.0954101 0.863333
-0.113618 0.0966001 0.864229
-0.114937 0.0979529 0.86662
-0.116462 0.0994644 0.870423
-0.118108 0.101071 0.875008
-0.119758 0.102685 0.879547
-0.121399 0.104296 0.883957
-0.122839 0.105754 0.886923
-0.124108 0.107082 0.888683
-0.125398 0.108428 0.890557
-0.12666 0.109753 0.892215
-0.127964 0.111113 0.894127
-0.129218 0.112434 0.895676
-0.0373153 0.00241126 0.994857
-0.038321 0.00366791 0.992295
-0.0392982 0.00491839 0.989243
-0.0403026 0.00616186 0.986901
-0.0413098 0.00739993 0.984724
-0.0423831 0.00863733 0.983962
-0.0435527 0.00988174 0.985113
-0.0448001 0.0111376 0.9877
-0.0460657 0.0124017 0.990513
-0.0476018 0.0195024 0.887942
-0.0485111 0.0205958 0.886441
-0.0494011 0.0216808 0.884685
-0.0502747 0.0227576 0.88274
-0.0511579 0.0238341 0.881003
-0.0520824 0.0249213 0.879943
-0.0530024 0.0260051 0.878848
-0.0539225 0.0270873 0.877787
-0.0548553 0.0281724 0.876944
-0.0557846 0.0292548 0.876073
-0.0566891 0.0303261 0.874888
-0.0575964 0.0313968 0.873777
-0.0585194 0.0324722 0.872907
-0.0594363 0.0335436 0.87198
-0.0603653 0.0346191 0.871238
-0.0613184 0.0357044 0.870823
-0.0622731 0.0367895 0.870438
-0.063227 0.037874 0.870054
-0.0641863 0.0389604 0.869745
-0.0651653 0.040056 0.869679
-0.0661332 0.041146 0.869485
-0.0671225 0.0422467 0.869544
-0.0681187 0.043351 0.869682
-0.0691291 0.0444626 0.869976
-0.0701342 0.0455721 0.870202
-0.0711485 0.0466868 0.870524
-0.0721767 0.0478095 0.870991
-0.073222 0.048942 0.871629
-0.0742476 0.0500647 0.872041
-0.0752439 0.0511714 0.87213
-0.0762335 0.0522747 0.872146
-0.0771743 0.0533501 0.871654
-0.0780812 0.0544053 0.870827
-0.0789775 0.0554535 0.869909
-0.0798796 0.056504 0.869069
-0.0807562 0.0575383 0.867995
-0.0816453 0.058579 0.867066
-0.0825333 0.059618 0.866147
-0.0834108 0.0606496 0.865145
-0.0843126 0.0616951 0.864395
-0.0852309 0.06275 0.863813
-0.086161 0.0638119 0.863354
-0.0870903 0.0648728 0.862895
-0.0880442 0.0659489 0.862668
-0.0889978 0.0670246 0.862442
-0.0899531 0.0681013 0.862235
-0.0909186 0.0691843 0.862121
-0.0918926 0.070273 0.862084
-0.0928753 0.0713673 0.86212
-0.0938301 0.0724433 0.861918
-0.094802 0.0735305 0.861862
-0.0957555 0.0746052 0.861652
-0.0967184 0.0756862 0.861524
-0.0976916 0.0767742 0.861482
-0.0986859 0.0778766 0.861613
-0.0997019 0.0789943 0.861913
-0.10074 0.0801273 0.862387
-0.101811 0.0812844 0.863118
-0.102867 0.0824314 0.863704
-0.103955 0.083601 0.864535
-0.105024 0.0847589 0.865206
-0.106095 0.0859184 0.865879
-0.107146 0.0870641 0.866384
-0.108185 0.0882023 0.866799
-0.10918 0.0893084 0.866872
-0.110116 0.0903715 0.8665
-0.111041 0.0914271 0.866064
-0.111975 0.0924885 0.865691
-0.112904 0.0935456 0.865292
-0.113904 0.0946554 0.865403
-0.115021 0.0958524 0.866345
-0.116377 0.0972282 0.868957
-0.117923 0.0987477 0.872851
-0.119592 0.100364 0.877537
-0.121253 0.101978 0.882094
-0.122852 0.103549 0.886158
-0.124248 0.104968 0.888776
-0.125511 0.106288 0.890473
-0.126793 0.107625 0.892264
-0.128395 0.109207 0.896138
-0.130073 0.110853 0.900457
-0.0405898 0.00379939 0.990116
-0.0416102 0.00504659 0.988137
-0.0426216 0.00628889 0.986066
-0.0487803 0.0185134 0.888815
-0.0496962 0.0196113 0.887428
-0.0505879 0.0207004 0.885716
-0.0514542 0.0217791 0.883675
-0.0523288 0.0228566 0.881828
-0.0532518 0.0239458 0.880746
-0.0541722 0.0250322 0.879661
-0.0550979 0.0261184 0.878686
-0.0560435 0.0272101 0.878017
-0.0569792 0.0282972 0.877232
-0.0578841 0.0293715 0.876053
-0.0587909 0.0304447 0.874933
-0.059707 0.0315198 0.873968
-0.0606157 0.0325904 0.872933
-0.0615316 0.0336624 0.87202
-0.0624727 0.0347438 0.871447
-0.063426 0.0358295 0.871041
-0.0643812 0.0369157 0.870668
-0.0653414 0.0380036 0.870364
-0.0663286 0.0391035 0.870388
-0.067304 0.0401979 0.870271
-0.0682949 0.0412997 0.870336
-0.0692981 0.0424077 0.87054
-0.0703182 0.0435243 0.870926
-0.0713332 0.044639 0.871246
-0.0723572 0.0457587 0.871654
-0.073403 0.0468904 0.87229
-0.0744525 0.048025 0.872948
-0.075482 0.0491497 0.873378
-0.0764724 0.0502541 0.873386
-0.0774544 0.0513539 0.873306
-0.078377 0.0524209 0.87262
-0.0792738 0.0534726 0.871688
-0.0801615 0.0545182 0.870685
-0.0810629 0.0555702 0.869837
-0.0819389 0.0566067 0.868762
-0.0828205 0.0576452 0.867762
-0.083707 0.0586854 0.866829
-0.0845764 0.0597144 0.865754
-0.0854686 0.0607559 0.864915
-0.086379 0.0618076 0.864261
-0.0873079 0.0628698 0.86379
-0.0882381 0.0639323 0.863338
-0.0892013 0.0650148 0.86319
-0.0901726 0.0661023 0.863118
-0.0911382 0.0671863 0.862997
-0.0921235 0.0682825 0.863047
-0.0931083 0.0693785 0.863093
-0.0941031 0.0704813 0.863221
-0.0950517 0.0715541 0.862955
-0.096025 0.0726428 0.862901
-0.0969784 0.0737183 0.862682
-0.0979436 0.0748017 0.862564
-0.0989195 0.075892 0.862532
-0.0999248 0.0770021 0.86274
-0.100941 0.0781199 0.863032
-0.101981 0.0792538 0.863501
-0.103055 0.0804115 0.864227
-0.104114 0.0815599 0.864829
-0.105214 0.0827373 0.865733
-0.106306 0.0839097 0.86656
-0.107401 0.0850857 0.867394
-0.108498 0.0862632 0.868233
-0.109598 0.0874437 0.869074
-0.110643 0.0885867 0.869495
-0.111617 0.0896791 0.869386
-0.112558 0.0907475 0.869042
-0.113461 0.0917893 0.868428
-0.114379 0.0928403 0.867925
-0.115381 0.0939529 0.868033
-0.116532 0.0951735 0.869183
-0.117931 0.0965761 0.872042
-0.119506 0.0981109 0.876083
-0.121165 0.0997112 0.88063
-0.122783 0.101285 0.884829
-0.124336 0.102814 0.888521
-0.125683 0.104192 0.890778
-0.126925 0.105495 0.892295
-0.128508 0.107054 0.896049
-0.130498 0.108923 0.902408
-0.0499417 0.0175179 0.889382
-0.0508714 0.0186217 0.888222
-0.0517781 0.0197177 0.886754
-0.052648 0.0208013 0.884784
-0.053526 0.0218835 0.882999
-0.0544426 0.0229735 0.881825
-0.0553616 0.0240622 0.88072
-0.0562868 0.0251509 0.879736
-0.0572434 0.0262481 0.879211
-0.0581812 0.0273382 0.878448
-0.0590871 0.0284158 0.877281
-0.0599941 0.0294919 0.876162
-0.0609088 0.030569 0.875175
-0.0618119 0.0316402 0.874066
-0.0627211 0.0327121 0.873064
-0.063662 0.033795 0.872482
-0.064603 0.0348773 0.871915
-0.0655507 0.0359615 0.871444
-0.0665051 0.037048 0.871063
-0.0674935 0.0381489 0.871089
-0.0684634 0.0392417 0.8709
-0.0694606 0.0403467 0.871027
-0.0704727 0.041459 0.871316
-0.0715017 0.0425798 0.871785
-0.0725351 0.0437034 0.872289
-0.0735853 0.0448361 0.872962
-0.0746442 0.0459739 0.87371
-0.0756974 0.0471101 0.87438
-0.0767312 0.0482373 0.87483
-0.0777058 0.0493345 0.874657
-0.078672 0.050427 0.874401
-0.0795916 0.0514943 0.873678
-0.0804797 0.0525437 0.872658
-0.0813579 0.0535864 0.87156
-0.082251 0.054636 0.870632
-0.0831238 0.0556732 0.869528
-0.0839875 0.0567039 0.86836
-0.0848649 0.057741 0.867344
-0.0857335 0.0587719 0.866268
-0.0866255 0.0598151 0.865429
-0.0875264 0.0608626 0.864689
-0.0884545 0.0619255 0.86421
-0.0894016 0.0629992 0.86391
-0.0903675 0.064084 0.863782
-0.0913521 0.06518 0.86382
-0.0923285 0.0662711 0.863784
-0.0933231 0.0673735 0.863905
-0.0943101 0.0684713 0.863958
-0.0953067 0.0695753 0.864091
-0.0962651 0.0706553 0.863901
-0.0972488 0.0717513 0.863924
-0.0982124 0.0728344 0.86378
-0.0991776 0.0739184 0.863651
-0.100155 0.07501 0.863617
-0.101152 0.0761151 0.863748
-0.10217 0.0772341 0.864042
-0.103213 0.0783697 0.864519
-0.104291 0.0795294 0.865264
-0.105362 0.0806851 0.865941
-0.106475 0.0818699 0.866925
-0.10757 0.0830427 0.86775
-0.108677 0.0842257 0.868658
-0.109791 0.0854138 0.869597
-0.110916 0.0866112 0.870612
-0.111991 0.0877745 0.871228
-0.112992 0.0888863 0.871299
-0.113948 0.0899674 0.871051
-0.114876 0.0910284 0.870602
-0.115832 0.0921088 0.870357
-0.116878 0.0932529 0.870752
-0.11809 0.0945159 0.872296
-0.119562 0.095967 0.875613
-0.121133 0.0974923 0.879556
-0.122757 0.0990589 0.883795
-0.124325 0.100589 0.8876
-0.125817 0.102067 0.890828
-0.127084 0.103384 0.892512
-0.128315 0.104675 0.893924
-0.130226 0.106469 0.899786
-0.0504231 0.0154562 0.89501
-0.0513525 0.0165686 0.89375
-0.0521979 0.017661 0.891263
-0.0531036 0.0187618 0.889754
-0.0539313 0.0198413 0.887156
-0.0547835 0.0209219 0.88499
-0.0556606 0.0220051 0.883245
-0.0565684 0.0230936 0.881979
-0.0574859 0.0241827 0.880885
-0.0584293 0.0252779 0.880171
-0.0593486 0.0263641 0.879158
-0.0602542 0.0274441 0.877996
-0.0611749 0.0285272 0.877058
-0.0620973 0.0296095 0.87617
-0.0630129 0.0306878 0.875219
-0.0639292 0.0317649 0.874303
-0.0648641 0.0328476 0.873637
-0.0657971 0.0339285 0.872966
-0.0667368 0.0350111 0.87239
-0.0676837 0.036096 0.871913
-0.0686726 0.0371977 0.871933
-0.0696439 0.038292 0.871749
-0.0706566 0.0394044 0.872036
-0.0716863 0.0405248 0.8725
-0.0727341 0.0416542 0.873152
-0.0737809 0.0427842 0.873776
-0.0748501 0.0439257 0.874624
-0.0759146 0.0450662 0.875399
-0.0769631 0.0462003 0.87599
-0.0779971 0.0473278 0.876415
-0.0789629 0.0484219 0.876134
-0.0799212 0.0495119 0.875783
-0.0808339 0.0505777 0.874984
-0.0817144 0.0516259 0.873884
-0.0825684 0.0526586 0.87255
-0.0834495 0.0537042 0.871506
-0.0843121 0.0547383 0.870306
-0.0851644 0.0557654 0.869034
-0.0860418 0.0568048 0.868023
-0.0869171 0.0578418 0.867013
-0.0878089 0.058887 0.866173
-0.0887175 0.0599406 0.8655
-0.0896546 0.06101 0.865098
-0.0906131 0.0620914 0.864891
-0.0915913 0.0631843 0.864861
-0.0925797 0.0642832 0.86492
-0.0935495 0.065371 0.864815
-0.0945368 0.0664694 0.864862
-0.0955134 0.0675613 0.864817
-0.0965023 0.0686608 0.864874
-0.0974619 0.0697423 0.864687
-0.098446 0.0708389 0.864704
-0.0994092 0.0719224 0.864549
-0.100384 0.0730131 0.86449
-0.101372 0.0741122 0.864536
-0.102382 0.0752252 0.864753
-0.103405 0.0763473 0.865069
-0.104459 0.07749 0.865624
-0.105529 0.0786433 0.866292
-0.106604 0.0798011 0.866978
-0.10771 0.0809799 0.867891
-0.108818 0.0821604 0.868795
-0.10993 0.0833451 0.869724
-0.111057 0.0845413 0.870742
-0.112189 0.0857411 0.871781
-0.113289 0.0869206 0.872566
-0.114316 0.0880515 0.872815
-0.115299 0.0891521 0.872746
-0.116255 0.0902335 0.872478
-0.117262 0.0913502 0.872581
-0.118367 0.0925365 0.873364
-0.119646 0.093844 0.875336
-0.121124 0.0952936 0.878637
-0.122682 0.0968032 0.882435
-0.124276 0.0983416 0.886416
-0.125797 0.0998315 0.889847
-0.127222 0.101256 0.892584
-0.128467 0.102554 0.894095
-0.129995 0.104057 0.897435
-0.13225 0.10609 0.905453
-0.0528565 0.0156233 0.899351
-0.0536135 0.0167084 0.895507
-0.0544561 0.017803 0.893034
-0.0552463 0.0188813 0.889889
-0.0560575 0.0199583 0.88714
-0.0568915 0.0210355 0.884791
-0.0577932 0.0221258 0.883438
-0.0587028 0.0232159 0.882231
-0.0596323 0.0243093 0.881323
-0.0605428 0.0253956 0.880193
-0.0614424 0.0264764 0.878954
-0.0623691 0.0275638 0.878093
-0.0632937 0.0286491 0.877228
-0.0642182 0.0297329 0.876386
-0.0651362 0.0308131 0.875487
-0.0660712 0.0318979 0.874815
-0.067003 0.0329805 0.87412
-0.0679411 0.0340644 0.873519
-0.0688939 0.0351532 0.873099
-0.0698854 0.0362571 0.87313
-0.0708724 0.0373591 0.873109
-0.0719043 0.03848 0.873585
-0.072953 0.0396091 0.874231
-0.0740154 0.0407451 0.875009
-0.0750823 0.0418844 0.875813
-0.0761641 0.0430317 0.876757
-0.0772307 0.0441735 0.877518
-0.0782731 0.0453051 0.87801
-0.0792908 0.0464256 0.878239
-0.0802487 0.0475177 0.87786
-0.0811918 0.048602 0.877341
-0.0820903 0.0496633 0.876392
-0.0829627 0.0507103 0.875211
-0.083807 0.0517414 0.873785
-0.0846611 0.0527756 0.87248
-0.0855116 0.0538063 0.871168
-0.0863531 0.0548304 0.8698
-0.0872217 0.0558674 0.86871
-0.0880972 0.0569068 0.867704
-0.088998 0.0579588 0.866947
-0.0898991 0.0590101 0.866207
-0.0908364 0.0600808 0.865801
-0.0918052 0.0611689 0.865679
-0.0927955 0.0622691 0.865745
-0.0937884 0.063371 0.865831
-0.0947756 0.0644696 0.865866
-0.0957614 0.0655676 0.865888
-0.0967286 0.0666547 0.865754
-0.0977073 0.0677485 0.865717
-0.0986764 0.0688366 0.8656
-0.0996534 0.0699292 0.865549
-0.100619 0.0710152 0.86541
-0.101596 0.0721078 0.865358
-0.102586 0.0732083 0.865408
-0.103598 0.0743229 0.865632
-0.104632 0.0754516 0.866024
-0.10569 0.0765959 0.86659
-0.106773 0.0777569 0.867335
-0.107859 0.0789207 0.868093
-0.10897 0.0801013 0.869023
-0.110093 0.0812913 0.870026
-0.111221 0.0824847 0.871046
-0.112352 0.0836819 0.872074
-0.113487 0.0848828 0.87311
-0.114599 0.0860691 0.873961
-0.115631 0.0872033 0.87423
-0.11663 0.0883152 0.87426
-0.117612 0.0894158 0.874171
-0.118684 0.0905781 0.874708
-0.119861 0.0918119 0.875963
-0.121213 0.093167 0.878393
-0.122688 0.0946103 0.881628
-0.124223 0.0960975 0.885213
-0.125769 0.097595 0.888812
-0.127219 0.0990299 0.891719
-0.128579 0.100405 0.894
-0.130141 0.101923 0.897551
-0.13201 0.103663 0.903053
-0.0543359 0.0146591 0.904373
-0.0550617 0.0157497 0.900061
-0.0558509 0.0168427 0.896794
-0.0565952 0.0179202 0.892999
-0.0573558 0.0189935 0.889546
-0.0581474 0.0200669 0.886621
-0.0590302 0.0211565 0.885008
-0.0599194 0.0222447 0.883526
-0.060834 0.0233368 0.882417
-0.0617362 0.0244235 0.88118
-0.0626324 0.0255061 0.879901
-0.0635537 0.0265942 0.878972
-0.0644861 0.027684 0.878203
-0.0654188 0.0287726 0.877457
-0.0663446 0.0298578 0.876648
-0.0672801 0.0309449 0.875975
-0.0682197 0.0320324 0.875365
-0.0691582 0.0331184 0.874757
-0.0701135 0.0342099 0.874355
-0.0711146 0.0353184 0.874475
-0.0721123 0.0364258 0.874554
-0.0731642 0.0375552 0.875221
-0.0742336 0.038693 0.876061
-0.0753099 0.039835 0.876953
-0.0763799 0.0409758 0.877754
-0.0774647 0.0421243 0.878691
-0.0785077 0.0432559 0.879175
-0.079527 0.0443774 0.879405
-0.0805276 0.0454908 0.879442
-0.0814772 0.0465806 0.87897
-0.0824129 0.047663 0.878371
-0.08332 0.0487309 0.877504
-0.0841912 0.0497802 0.876313
-0.085032 0.0508127 0.874855
-0.085866 0.0518399 0.873365
-0.0867049 0.0528676 0.87195
-0.0875377 0.0538902 0.870509
-0.0884063 0.0549296 0.869421
-0.0892828 0.0559719 0.868428
-0.0901929 0.0570307 0.867753
-0.0910853 0.0580791 0.866935
-0.0920246 0.0591521 0.866543
-0.0929947 0.0602415 0.866424
-0.0939864 0.0613429 0.866493
-0.0949778 0.0624443 0.866558
-0.0959754 0.0635492 0.866672
-0.0969598 0.0646468 0.866672
-0.0979268 0.0657345 0.86653
-0.0989052 0.0668286 0.86648
-0.0998755 0.0679181 0.866367
-0.100854 0.069012 0.866318
-0.101822 0.0701001 0.86619
-0.102801 0.0711946 0.86615
-0.103803 0.0723026 0.866283
-0.104828 0.0734251 0.866601
-0.105876 0.0745626 0.86708
-0.106946 0.0757137 0.867727
-0.10803 0.0768746 0.868464
-0.10912 0.0780397 0.869227
-0.110233 0.0792208 0.870151
-0.111362 0.0804123 0.871176
-0.112494 0.0816075 0.872206
-0.113639 0.0828125 0.873319
-0.114775 0.0840123 0.874339
-0.115889 0.0851991 0.87519
-0.116932 0.0863406 0.875523
-0.117957 0.0874704 0.875725
-0.118981 0.0885997 0.875911
-0.120131 0.0898133 0.876967
-0.121387 0.0910991 0.878737
-0.122763 0.0924669 0.881291
-0.124224 0.0938949 0.884375
-0.125724 0.0953526 0.887673
-0.127199 0.0967962 0.890752
-0.128582 0.0981799 0.893177
-0.129911 0.0995292 0.895216
-0.131802 0.101269 0.900869
-0.0525739 0.0124126 0.908697
-0.054076 0.0114207 0.913957
-0.0549926 0.0125593 0.912237
-0.0558436 0.0136855 0.909619
-0.0565535 0.0147851 0.905071
-0.0572734 0.0158766 0.900806
-0.0579663 0.0169543 0.896303
-0.0586745 0.0180257 0.892143
-0.0594221 0.0190968 0.888637
-0.060282 0.0201857 0.886715
-0.0611504 0.0212728 0.88496
-0.062052 0.0223648 0.883682
-0.0629405 0.0234509 0.882271
-0.0638287 0.0245345 0.880895
-0.0647486 0.0256244 0.879946
-0.0656736 0.0267142 0.879084
-0.0666128 0.0278068 0.878415
-0.0675457 0.0288963 0.877687
-0.06849 0.0299883 0.877109
-0.0694388 0.0310808 0.876597
-0.070388 0.0321727 0.876102
-0.0713537 0.0332697 0.875803
-0.0723657 0.0343832 0.876021
-0.0733749 0.0354962 0.876204
-0.0744383 0.0366302 0.876964
-0.0755206 0.0377731 0.877906
-0.0766008 0.0389168 0.878803
-0.0776649 0.0400554 0.87951
-0.0787491 0.0412035 0.880406
-0.0797692 0.0423257 0.88063
-0.0807806 0.0434446 0.88076
-0.0817737 0.0445557 0.880705
-0.0827236 0.0456472 0.880225
-0.0836513 0.046728 0.87954
-0.0845667 0.0478022 0.878751
-0.0854364 0.0488536 0.877542
-0.0862678 0.0498851 0.876001
-0.0870995 0.0509146 0.874493
-0.087928 0.0519405 0.872986
-0.0887506 0.0529613 0.871455
-0.0896105 0.0539989 0.870291
-0.0904962 0.0550481 0.869381
-0.0913983 0.0561047 0.868632
-0.0922909 0.0571553 0.867815
-0.0932289 0.0582289 0.867406
-0.0942057 0.0593226 0.867336
-0.0951905 0.0604207 0.867335
-0.0961737 0.0615181 0.86732
-0.0971721 0.0626237 0.867431
-0.0981484 0.0637173 0.867357
-0.0990983 0.064796 0.867067
-0.100068 0.0658855 0.866941
-0.101047 0.0669807 0.866898
-0.102027 0.0680761 0.866856
-0.103017 0.0691771 0.866891
-0.104018 0.0702849 0.867015
-0.105032 0.0714004 0.867234
-0.106069 0.0725305 0.867629
-0.10714 0.0736808 0.868275
-0.108217 0.0748354 0.86895
-0.109305 0.0759983 0.869699
-0.110417 0.0771762 0.870608
-0.111533 0.0783576 0.871532
-0.112654 0.0795434 0.872477
-0.113789 0.0807395 0.873513
-0.114928 0.0819387 0.874548
-0.116042 0.0831238 0.875399
-0.117157 0.0843098 0.876233
-0.118212 0.0854584 0.876642
-0.119267 0.0866079 0.877036
-0.120342 0.0877711 0.877571
-0.12155 0.0890205 0.878997
-0.122831 0.0903202 0.880898
-0.124217 0.0916909 0.883476
-0.125669 0.093108 0.88646
-0.127137 0.0945387 0.889501
-0.128577 0.0959535 0.892308
-0.129935 0.0973167 0.894542
-0.131525 0.0988386 0.898241
-0.133743 0.100791 0.905933
-0.0547812 0.00927238 0.922646
-0.0555395 0.0104124 0.918454
-0.0563791 0.0115509 0.915571
-0.0572685 0.0126887 0.913492
-0.0580003 0.0138014 0.909268
-0.0587007 0.0149003 0.904743
-0.0593415 0.01598 0.899545
-0.0599976 0.0170514 0.894708
-0.0606952 0.0181206 0.890562
-0.0615308 0.0192093 0.888325
-0.0623907 0.0202987 0.886465
-0.0632801 0.0213913 0.885027
-0.064155 0.0224776 0.88345
-0.0650422 0.023564 0.882066
-0.0659535 0.0246543 0.88101
-0.0668646 0.0257425 0.879977
-0.0678023 0.0268365 0.879286
-0.0687412 0.0279296 0.878625
-0.0696805 0.0290219 0.877985
-0.0706465 0.0301216 0.877662
-0.0716133 0.031221 0.877355
-0.0725965 0.0323255 0.877235
-0.0736121 0.0334411 0.877471
-0.0746446 0.0345634 0.877882
-0.075719 0.0357018 0.878727
-0.0767981 0.0368436 0.8796
-0.0778794 0.0379876 0.880475
-0.078944 0.0391264 0.881158
-0.0800137 0.0402686 0.881874
-0.0810194 0.0413859 0.881931
-0.0820317 0.0425059 0.882052
-0.0830184 0.0436153 0.881918
-0.083969 0.0447089 0.881437
-0.0848977 0.0457922 0.880755
-0.0858051 0.046865 0.879885
-0.0866668 0.0479158 0.878603
-0.0874965 0.04895 0.877051
-0.088328 0.0499827 0.875545
-0.0891476 0.0510077 0.873963
-0.0899766 0.052035 0.872496
-0.0908435 0.0530788 0.871396
-0.0917206 0.0541262 0.870407
-0.0926228 0.0551847 0.869656
-0.0935224 0.0562411 0.868897
-0.0944596 0.0573157 0.868473
-0.095419 0.0584014 0.868245
-0.0964025 0.0594993 0.868223
-0.0973773 0.0605927 0.868129
-0.0983681 0.0616946 0.868167
-0.0993375 0.0627852 0.868029
-0.100288 0.0638654 0.867742
-0.101259 0.0649559 0.867617
-0.102239 0.066052 0.867571
-0.10322 0.0671484 0.867531
-0.104212 0.0682512 0.867578
-0.105225 0.0693658 0.867782
-0.106251 0.0704884 0.868085
-0.107302 0.071626 0.86857
-0.108389 0.0727856 0.869326
-0.10948 0.0739482 0.870092
-0.110585 0.0751196 0.870942
-0.1117 0.0762986 0.871856
-0.112806 0.0774731 0.872693
-0.113928 0.0786586 0.873626
-0.115054 0.079847 0.874569
-0.116194 0.0810457 0.875596
-0.1173 0.0822246 0.876369
-0.118429 0.0834184 0.877289
-0.119499 0.0845768 0.877792
-0.120594 0.0857509 0.878443
-0.121704 0.0869359 0.879199
-0.12296 0.0882142 0.880926
-0.124274 0.0895322 0.883018
-0.125678 0.0909109 0.885684
-0.127125 0.0923202 0.888584
-0.128573 0.0937328 0.891445
-0.129975 0.0951188 0.893972
-0.131293 0.0964517 0.895915
-0.13314 0.0981369 0.901223
-0.0560407 0.00823336 0.923973
-0.0567435 0.00937665 0.919032
-0.0576031 0.010521 0.916475
-0.0584938 0.0116626 0.914434
-0.0592623 0.0127859 0.910771
-0.0599735 0.0138939 0.906444
-0.0606229 0.0149835 0.901422
-0.0612627 0.0160609 0.896422
-0.0619592 0.0171374 0.892301
-0.0627645 0.0182253 0.889688
-0.0636087 0.0193157 0.887637
-0.0644981 0.0204116 0.886203
-0.0653799 0.0215028 0.884717
-0.0662662 0.0225923 0.883324
-0.0671635 0.0236819 0.882098
-0.0680578 0.0247683 0.880867
-0.0689806 0.0258603 0.88
-0.0699121 0.0269531 0.879252
-0.0708593 0.0280492 0.878701
-0.0718411 0.0291548 0.878548
-0.0728244 0.0302607 0.878415
-0.0738176 0.0313695 0.87839
-0.0748337 0.0324861 0.878613
-0.0758758 0.033612 0.879104
-0.0769518 0.0347507 0.879938
-0.0780254 0.0358901 0.880727
-0.0791007 0.0370314 0.881514
-0.0801657 0.0381704 0.882177
-0.0812213 0.0393068 0.88273
-0.0822207 0.0404221 0.882714
-0.0832358 0.0415437 0.882851
-0.0842231 0.0426542 0.882713
-0.0851742 0.0437495 0.882232
-0.0861037 0.0448349 0.881556
-0.0870111 0.0459099 0.880686
-0.0878811 0.046967 0.879486
-0.08872 0.0480087 0.878025
-0.0895617 0.0490493 0.876619
-0.0903816 0.0500779 0.875044
-0.0912185 0.0511123 0.873654
-0.0920746 0.0521537 0.872457
-0.092949 0.0532022 0.871443
-0.0938507 0.0542627 0.870684
-0.0947432 0.0553175 0.869862
-0.0956612 0.056384 0.869269
-0.0966106 0.0574656 0.868951
-0.0975736 0.0585536 0.86875
-0.0985397 0.0596431 0.868579
-0.0995394 0.0607499 0.868684
-0.10052 0.0618467 0.86863
-0.10148 0.062933 0.868417
-0.102461 0.0640296 0.868366
-0.103442 0.0651267 0.868318
-0.104424 0.0662243 0.86828
-0.105428 0.067334 0.868411
-0.106444 0.0684509 0.868634
-0.107485 0.0695814 0.869034
-0.108549 0.0707262 0.869607
-0.109651 0.071893 0.870448
-0.110747 0.0730581 0.871236
-0.111867 0.0742372 0.872177
-0.112975 0.0754114 0.87302
-0.114072 0.0765799 0.873774
-0.115184 0.0777578 0.874612
-0.116309 0.0789446 0.875537
-0.117439 0.0801363 0.876479
-0.11856 0.0813229 0.877344
-0.119716 0.0825324 0.878433
-0.120816 0.0837083 0.879123
-0.121944 0.0849024 0.879984
-0.123111 0.086122 0.8811
-0.1244 0.0874194 0.883025
-0.125723 0.0887399 0.88514
-0.127133 0.0901178 0.887801
-0.128559 0.0915092 0.890525
-0.129961 0.0928879 0.893047
-0.131314 0.0942383 0.895223
-0.132592 0.0955422 0.896879
-0.134693 0.0973831 0.903765
-0.0572941 0.00719086 0.92516
-0.0579521 0.00833946 0.91965
-0.0588105 0.00948773 0.917111
-0.0596952 0.0106321 0.91501
-0.0604896 0.0117633 0.911751
-0.061219 0.0128798 0.90772
-0.0618791 0.0139788 0.902902
-0.0625282 0.0150658 0.89808
-0.063233 0.0161508 0.894105
-0.0640091 0.0172394 0.891139
-0.0648446 0.0183326 0.888993
-0.0657269 0.0194304 0.887473
-0.0666083 0.0205251 0.885984
-0.0674943 0.0216178 0.884588
-0.0683833 0.0227085 0.883265
-0.0692624 0.0237942 0.88186
-0.0701684 0.0248842 0.880798
-0.0710916 0.0259767 0.879956
-0.0720311 0.0270721 0.879315
-0.0730147 0.0281791 0.879175
-0.074006 0.0292881 0.879119
-0.0749999 0.0303979 0.879094
-0.0760093 0.0315127 0.879232
-0.0770437 0.0326359 0.879627
-0.0781055 0.0337691 0.880296
-0.0791652 0.0349027 0.880926
-0.0802335 0.0360406 0.881628
-0.0812908 0.0371758 0.882203
-0.0823482 0.0383121 0.882765
-0.083357 0.0394309 0.882838
-0.0843817 0.0405562 0.883064
-0.0853874 0.0416745 0.883101
-0.0863479 0.0427745 0.882708
-0.0872861 0.0438651 0.882116
-0.0881934 0.0449419 0.881246
-0.0890709 0.0460046 0.880122
-0.0899088 0.0470487 0.87866
-0.0907688 0.0481003 0.877427
-0.0915908 0.0491331 0.87588
-0.0924365 0.0501745 0.874572
-0.0933 0.051222 0.873442
-0.0941834 0.0522772 0.872507
-0.0950957 0.0533447 0.871835
-0.0960176 0.0544159 0.871257
-0.0969486 0.0554906 0.870765
-0.0978991 0.0565743 0.870443
-0.098851 0.0576583 0.870139
-0.0997943 0.0587376 0.869769
-0.100766 0.0598307 0.869633
-0.101737 0.0609236 0.869497
-0.102689 0.0620062 0.869206
-0.10367 0.0631038 0.869151
-0.104651 0.0642014 0.869096
-0.105635 0.0653007 0.869066
-0.106641 0.0664117 0.869202
-0.107659 0.0675299 0.869431
-0.108712 0.068667 0.869911
-0.10978 0.069813 0.870498
-0.110896 0.0709866 0.871426
-0.112005 0.0721582 0.872287
-0.113127 0.0733376 0.873229
-0.114226 0.0745058 0.873993
-0.115325 0.0756742 0.874742
-0.116426 0.0768448 0.875485
-0.117553 0.0780319 0.87641
-0.118711 0.0792383 0.877527
-0.119861 0.0804411 0.878573
-0.121049 0.0816685 0.879864
-0.122191 0.0828693 0.880822
-0.123361 0.0840883 0.881949
-0.124561 0.0853267 0.88326
-0.125859 0.0866266 0.885206
-0.127173 0.0879391 0.887231
-0.12856 0.0892991 0.889703
-0.129952 0.0906651 0.892164
-0.131319 0.0920179 0.894431
-0.13265 0.0933508 0.896434
-0.133915 0.0946436 0.897982
-0.136266 0.0966312 0.906384
-0.0569009 0.0060314 0.93473
-0.0565113 0.00484758 0.944675
-0.0575084 0.0037838 0.941749
-0.0579984 0.0049745 0.933475
-0.0585051 0.00614491 0.9257
-0.0591283 0.00729959 0.919792
-0.0599822 0.00845093 0.917232
-0.060858 0.00959755 0.915043
-0.0616634 0.0107336 0.91198
-0.0624036 0.0118567 0.908155
-0.063077 0.0129637 0.903576
-0.0637435 0.0140599 0.899044
-0.0644588 0.0151526 0.895248
-0.0652239 0.0162449 0.892173
-0.0660635 0.0173427 0.890092
-0.0669374 0.0184423 0.888481
-0.0678187 0.0195401 0.886996
-0.0687051 0.020636 0.885611
-0.0695928 0.0217293 0.884277
-0.0704551 0.0228142 0.882686
-0.0713506 0.0239041 0.881507
-0.0722569 0.0249944 0.880479
-0.073188 0.0260891 0.879746
-0.0741647 0.0271949 0.879526
-0.075157 0.0283047 0.879478
-0.0761431 0.0294126 0.879363
-0.0771441 0.030525 0.879406
-0.0781698 0.031645 0.879702
-0.0792163 0.0327724 0.880203
-0.0802598 0.0338997 0.880661
-0.08132 0.0350336 0.881274
-0.0823691 0.0361647 0.881764
-0.0834268 0.0372998 0.882325
-0.0844449 0.0384215 0.88249
-0.0854883 0.0395531 0.882894
-0.0865137 0.0406785 0.883116
-0.0874927 0.0417865 0.8829
-0.0884405 0.042882 0.882398
-0.0893638 0.0439668 0.881683
-0.0902497 0.0450353 0.880641
-0.091105 0.0460894 0.879346
-0.0919847 0.047152 0.878293
-0.0928246 0.0481958 0.87691
-0.0936822 0.0492452 0.875707
-0.0945557 0.0503 0.874664
-0.0954496 0.0513625 0.873816
-0.0963745 0.0524378 0.873244
-0.0973208 0.0535224 0.872861
-0.0982667 0.054606 0.872482
-0.0992267 0.0556961 0.872224
-0.100168 0.056777 0.871822
-0.101099 0.057852 0.871336
-0.10205 0.0589362 0.87102
-0.103001 0.0600204 0.870714
-0.103933 0.0610947 0.870262
-0.104915 0.0621934 0.870202
-0.105888 0.0632877 0.870075
-0.106873 0.064388 0.87004
-0.10789 0.0655054 0.870252
-0.10892 0.06663 0.870556
-0.109977 0.067769 0.87105
-0.111058 0.0689223 0.871715
-0.112165 0.0700899 0.872563
-0.113264 0.0712549 0.873336
-0.114386 0.0724334 0.874259
-0.115476 0.0735951 0.874937
-0.116565 0.0747578 0.875597
-0.117667 0.0759283 0.876341
-0.118822 0.0771299 0.877434
-0.12 0.0783462 0.87867
-0.121195 0.0795744 0.880013
-0.122428 0.0808257 0.881582
-0.123614 0.0820516 0.882812
-0.124802 0.0832805 0.884039
-0.126007 0.084521 0.885357
-0.127284 0.085806 0.887132
-0.128574 0.0871008 0.888964
-0.129923 0.0884341 0.89115
-0.131289 0.0897798 0.893417
-0.132646 0.091123 0.895589
-0.133969 0.0924478 0.897511
-0.13532 0.0937916 0.899584
-0.137909 0.0959126 0.909397
-0.0596558 0.00509762 0.925381
-0.0602542 0.00625854 0.919238
-0.0611083 0.00741221 0.916729
-0.0619925 0.00856132 0.914693
-0.0628148 0.00970186 0.911907
-0.0635686 0.0108306 0.908318
-0.0642677 0.011946 0.904137
-0.0649581 0.0130511 0.899962
-0.0656783 0.0141506 0.896272
-0.06644 0.0152474 0.893189
-0.0672846 0.0163499 0.891183
-0.0681496 0.0174516 0.889474
-0.0690231 0.0185511 0.887906
-0.0699078 0.0196495 0.886507
-0.0707886 0.0207443 0.8851
-0.071649 0.021832 0.883498
-0.0725281 0.0229207 0.882143
-0.0734228 0.0240104 0.880991
-0.0743444 0.0251045 0.880158
-0.0753057 0.026207 0.879768
-0.0762836 0.0273134 0.879564
-0.0772605 0.0284191 0.879352
-0.0782447 0.0295266 0.879218
-0.0792603 0.0306431 0.879408
-0.0802976 0.0317667 0.879812
-0.0813234 0.0328875 0.880091
-0.0823735 0.0340166 0.880602
-0.0834203 0.0351457 0.881068
-0.0844607 0.0362734 0.881462
-0.0854793 0.0373945 0.881638
-0.0865422 0.0385316 0.882227
-0.0875876 0.0396634 0.88264
-0.0885871 0.0407789 0.882619
-0.0895626 0.0418855 0.882378
-0.0905052 0.0429788 0.881843
-0.0914006 0.044053 0.880896
-0.0922738 0.0451167 0.87977
-0.0931636 0.0461853 0.878812
-0.0940229 0.0472399 0.877606
-0.0949004 0.0483003 0.87658
-0.095804 0.0493705 0.875796
-0.0967114 0.0504412 0.875057
-0.0976593 0.0515285 0.87467
-0.0986191 0.0526209 0.874389
-0.0995784 0.0537125 0.874108
-0.100534 0.0548023 0.873805
-0.101475 0.0558847 0.873384
-0.102394 0.0569562 0.872796
-0.103332 0.0580359 0.872368
-0.104272 0.0591162 0.871963
-0.105204 0.0601918 0.871498
-0.106187 0.061292 0.871435
-0.107161 0.0623879 0.871305
-0.108147 0.0634899 0.87127
-0.109167 0.0646088 0.871484
-0.110198 0.0657346 0.871786
-0.111256 0.0668741 0.872272
-0.112329 0.0680221 0.872862
-0.113427 0.0691848 0.873622
-0.114516 0.0703435 0.874302
-0.115628 0.0715154 0.875138
-0.116695 0.0726647 0.875642
-0.117784 0.0738259 0.876292
-0.1189 0.0750033 0.877117
-0.120085 0.0762202 0.878407
-0.121297 0.0774536 0.879854
-0.122575 0.0787269 0.881733
-0.123868 0.0800111 0.883684
-0.125087 0.0812553 0.885106
-0.12628 0.0824857 0.886335
-0.127485 0.083725 0.887625
-0.128713 0.0849796 0.889044
-0.129953 0.0862422 0.89052
-0.131262 0.0875481 0.892419
-0.132614 0.0888824 0.894564
-0.133962 0.0902167 0.896656
-0.135361 0.0915843 0.899032
-0.136829 0.0929968 0.901811
-0.139283 0.0950178 0.910692
-0.0606326 0.00405422 0.922692
-0.0612969 0.00521869 0.91758
-0.0622146 0.00637409 0.915977
-0.063095 0.00752473 0.913935
-0.0639336 0.00866847 0.911413
-0.064699 0.00980173 0.908033
-0.0654298 0.0109245 0.904316
-0.0661454 0.0120374 0.900516
-0.0668831 0.013144 0.897085
-0.0676429 0.0142456 0.894013
-0.0684859 0.0153515 0.892006
-0.0693346 0.0164539 0.890117
-0.0702048 0.0175558 0.888525
-0.0710807 0.0186553 0.887036
-0.0719608 0.0197524 0.885632
-0.0728207 0.0208429 0.884039
-0.0736914 0.0219324 0.882601
-0.0745686 0.0230204 0.881269
-0.0754794 0.0241135 0.880326
-0.0764158 0.0252109 0.879676
-0.0773765 0.0263132 0.879294
-0.0783434 0.0274164 0.878983
-0.0793095 0.0285189 0.878669
-0.0803068 0.0296295 0.878678
-0.0813264 0.0307468 0.878906
-0.0823411 0.031863 0.879081
-0.0833713 0.0329844 0.8794
-0.0844069 0.0341081 0.879766
-0.0854451 0.0352335 0.880145
-0.0864712 0.0363555 0.880402
-0.0875356 0.0374912 0.88101
-0.0885917 0.038625 0.881529
-0.089611 0.0397467 0.881699
-0.0906064 0.04086 0.881648
-0.0915704 0.0419617 0.881317
-0.0924945 0.0430477 0.880639
-0.0934068 0.0441282 0.879869
-0.0943341 0.0452134 0.879244
-0.0952251 0.046283 0.878319
-0.0961318 0.0473577 0.877544
-0.0970588 0.0484395 0.876954
-0.0979868 0.049521 0.876383
-0.0989464 0.0506152 0.876084
-0.0999181 0.0517142 0.875888
-0.100889 0.0528126 0.87569
-0.101848 0.0539052 0.875394
-0.102781 0.0549862 0.874904
-0.103691 0.0560558 0.874236
-0.104618 0.0571323 0.873713
-0.105548 0.0582093 0.873217
-0.106489 0.0592912 0.872819
-0.107473 0.060393 0.872751
-0.108449 0.0614907 0.872622
-0.109437 0.0625948 0.872592
-0.110457 0.0637147 0.872797
-0.111482 0.0648373 0.873032
-0.112542 0.0659778 0.873515
-0.113616 0.0671267 0.874099
-0.114705 0.0682838 0.874775
-0.115794 0.0694418 0.87544
-0.116895 0.0706076 0.876183
-0.117965 0.0717577 0.876684
-0.119058 0.0729209 0.877351
-0.120201 0.0741118 0.878344
-0.121416 0.0753438 0.87982
-0.122672 0.0766001 0.881546
-0.124 0.0778986 0.883732
-0.12533 0.0792004 0.885893
-0.126558 0.0804483 0.887347
-0.12774 0.0816722 0.888475
-0.128919 0.0828951 0.889566
-0.130107 0.0841256 0.890699
-0.13132 0.085371 0.891977
-0.132618 0.0866679 0.893778
-0.13399 0.0880102 0.896021
-0.135414 0.0893865 0.898564
-0.136903 0.0908043 0.90147
-0.138482 0.0922795 0.904898
-0.140767 0.0941828 0.912636
-0.0617434 0.00301194 0.92189
-0.062466 0.00418004 0.917645
-0.0633529 0.0053376 0.915666
-0.0642224 0.00648996 0.913518
-0.0650649 0.00763637 0.91109
-0.0658353 0.00877358 0.907829
-0.0665843 0.00990182 0.904395
-0.0673255 0.0110214 0.90096
-0.0680817 0.0121347 0.897795
-0.0688481 0.0132417 0.894834
-0.0696892 0.0143509 0.892821
-0.0705211 0.0154546 0.890756
-0.0713789 0.0165575 0.889035
-0.0722371 0.0176568 0.887362
-0.0731087 0.0187549 0.885877
-0.0739615 0.0198465 0.884223
-0.0748318 0.0209381 0.882797
-0.0756993 0.0220263 0.881375
-0.0765912 0.0231168 0.880244
-0.0775088 0.0242109 0.879405
-0.0784504 0.0253091 0.878833
-0.0793987 0.0264078 0.87834
-0.080345 0.0275051 0.877838
-0.0813332 0.0286125 0.877763
-0.0823344 0.0297235 0.877816
-0.0833478 0.0308381 0.877986
-0.0843674 0.0319549 0.878211
-0.0853923 0.0330739 0.87848
-0.0864199 0.0341942 0.878768
-0.0874534 0.035317 0.879104
-0.088517 0.0364502 0.87971
-0.0895819 0.0375851 0.880314
-0.0906191 0.0387116 0.880654
-0.0916342 0.039831 0.88079
-0.0926198 0.0409403 0.880661
-0.0935652 0.0420346 0.880181
-0.0945175 0.0431309 0.87977
-0.095477 0.0442292 0.879428
-0.0964099 0.0453167 0.878866
-0.0973409 0.0464027 0.878297
-0.0982984 0.0474984 0.87796
-0.099236 0.0485855 0.877463
-0.100196 0.0496813 0.877162
-0.101176 0.0507849 0.877023
-0.102167 0.0518932 0.876977
-0.103137 0.0529922 0.876761
-0.104084 0.0540808 0.876363
-0.105016 0.0551623 0.875859
-0.105945 0.056242 0.875344
-0.106877 0.057322 0.874854
-0.107821 0.0584071 0.874467
-0.108808 0.0595119 0.874409
-0.109786 0.0606121 0.874282
-0.110775 0.0617179 0.874244
-0.111788 0.062835 0.874376
-0.112803 0.0639533 0.874522
-0.113876 0.0651009 0.875089
-0.114966 0.0662578 0.87576
-0.116058 0.0674162 0.876442
-0.117163 0.0685824 0.877193
-0.118279 0.0697556 0.878016
-0.119339 0.0709011 0.87844
-0.120436 0.0720665 0.879107
-0.121609 0.0732725 0.880287
-0.122859 0.0745218 0.881964
-0.124161 0.0758006 0.883966
-0.125524 0.0771156 0.886346
-0.126874 0.0784267 0.888607
-0.128098 0.0796709 0.890001
-0.129244 0.0808748 0.890862
-0.13037 0.0820676 0.891578
-0.131581 0.0833096 0.892834
-0.132843 0.0845823 0.894398
-0.134198 0.0859096 0.896532
-0.13564 0.0872902 0.899181
-0.137149 0.0887123 0.902204
-0.138657 0.090138 0.905187
-0.140245 0.0916138 0.908612
-0.0636237 0.00314144 0.917557
-0.0644917 0.00430141 0.915366
-0.0653566 0.00545593 0.913198
-0.066195 0.00660472 0.910759
-0.0669697 0.00774566 0.907603
-0.067732 0.00887832 0.904385
-0.0684929 0.0100035 0.901234
-0.069263 0.011122 0.898277
-0.0700344 0.0122338 0.89541
-0.0708667 0.0133453 0.893317
-0.0716861 0.0144508 0.89113
-0.0725246 0.015554 0.889211
-0.073364 0.0166531 0.887349
-0.0742258 0.0177516 0.885777
-0.075084 0.0188464 0.884203
-0.0759532 0.0199397 0.882783
-0.0768192 0.0210296 0.881363
-0.0777013 0.0221198 0.880142
-0.0785998 0.023211 0.879119
-0.0795131 0.0243035 0.878266
-0.0804417 0.0253979 0.877587
-0.0813695 0.0264907 0.876915
-0.0823486 0.0275952 0.87676
-0.0833398 0.0287026 0.876725
-0.084344 0.0298134 0.876814
-0.0853623 0.0309284 0.877035
-0.086388 0.0320461 0.877321
-0.0874067 0.0331623 0.877532
-0.0884383 0.0342829 0.877859
-0.0894999 0.0354135 0.878451
-0.0905625 0.0365456 0.879038
-0.0916069 0.0376728 0.879451
-0.0926412 0.0387975 0.879764
-0.0936554 0.0399159 0.879895
-0.0946315 0.0410211 0.879694
-0.0956233 0.0421318 0.879629
-0.0966177 0.0432433 0.879587
-0.0975953 0.0443486 0.879404
-0.0985601 0.0454488 0.879116
-0.099548 0.0465575 0.879024
-0.100497 0.0476506 0.878612
-0.101456 0.0487476 0.878295
-0.102427 0.0498488 0.878077
-0.103419 0.0509583 0.878024
-0.10438 0.0520547 0.877728
-0.105328 0.0531452 0.877336
-0.106271 0.0542332 0.876913
-0.107214 0.0553206 0.876498
-0.10815 0.056404 0.876031
-0.109107 0.0574969 0.875739
-0.110097 0.0586037 0.875688
-0.111077 0.0597062 0.875566
-0.112089 0.0608237 0.875685
-0.113137 0.0619582 0.876061
-0.114189 0.0630951 0.876456
-0.115291 0.0642567 0.877204
-0.116408 0.0654273 0.878049
-0.117496 0.0665845 0.878671
-0.118582 0.0677412 0.879272
-0.119678 0.0689045 0.879927
-0.120729 0.0700458 0.880269
-0.121819 0.0712071 0.880862
-0.123024 0.0724293 0.882235
-0.124306 0.0736934 0.884097
-0.125644 0.0749892 0.88631
-0.127052 0.0763253 0.888946
-0.128434 0.0776515 0.891381
-0.129646 0.0788886 0.892662
-0.130754 0.080071 0.893248
-0.131863 0.0812556 0.893835
-0.133082 0.0825009 0.895117
-0.134387 0.0837958 0.896921
-0.135824 0.0851666 0.899529
-0.137346 0.086589 0.902628
-0.138898 0.0880327 0.905877
-0.140401 0.0894519 0.908777
-0.141961 0.0909076 0.911979
-0.0647611 0.00210373 0.917208
-0.0656243 0.0032659 0.914994
-0.0664919 0.00442239 0.912897
-0.0673338 0.00557368 0.910541
-0.0681194 0.00671824 0.907569
-0.0688946 0.00785525 0.904549
-0.0696694 0.008985 0.901607
-0.0704529 0.0101084 0.89884
-0.071229 0.0112248 0.896061
-0.0720447 0.0123384 0.893799
-0.0728512 0.0134459 0.891491
-0.0736702 0.0145497 0.889378
-0.0744906 0.0156491 0.88733
-0.0753421 0.0167483 0.885668
-0.0762051 0.0178458 0.884166
-0.0770719 0.0189406 0.882739
-0.0779368 0.0200323 0.881325
-0.0788102 0.0211225 0.88003
-0.0796904 0.0222115 0.878832
-0.0805757 0.0232992 0.877712
-0.081484 0.0243895 0.876845
-0.082392 0.0254783 0.875993
-0.0833617 0.0265798 0.875757
-0.0843526 0.0276862 0.875729
-0.0853559 0.0287958 0.875818
-0.0863743 0.0299096 0.876047
-0.0874004 0.031026 0.876341
-0.0884107 0.0321386 0.876482
-0.0894324 0.0332549 0.876724
-0.0904818 0.03438 0.877209
-0.091534 0.0355069 0.877708
-0.0925775 0.036632 0.87812
-0.0936299 0.0377609 0.878601
-0.0946631 0.0388843 0.878905
-0.0956681 0.0399988 0.87896
-0.0967105 0.0411264 0.879331
-0.0977572 0.0422562 0.879731
-0.0987895 0.0433816 0.880002
-0.0998094 0.044503 0.880165
-0.100842 0.0456292 0.880424
-0.101802 0.0467288 0.880096
-0.102763 0.047828 0.879778
-0.103715 0.0489233 0.879396
-0.104687 0.0500259 0.879174
-0.105627 0.0511155 0.878712
-0.106565 0.0522033 0.878235
-0.107499 0.0532891 0.877741
-0.108455 0.054383 0.877412
-0.109413 0.0554778 0.877113
-0.110396 0.0565828 0.877
-0.1114 0.057697 0.877043
-0.112424 0.0588208 0.877239
-0.113464 0.0599518 0.87754
-0.114531 0.0610956 0.878031
-0.115601 0.062242 0.878541
-0.116732 0.0634173 0.879468
-0.117845 0.0645862 0.88026
-0.11894 0.0657467 0.880903
-0.120029 0.0669065 0.881501
-0.121126 0.06807 0.88214
-0.122179 0.0692133 0.882468
-0.123306 0.0703941 0.883299
-0.124557 0.0716385 0.884945
-0.125865 0.0729141 0.886947
-0.127229 0.0742215 0.889282
-0.128655 0.0755642 0.892001
-0.130032 0.0768847 0.89435
-0.131221 0.0781102 0.895454
-0.132319 0.0792883 0.895951
-0.133443 0.0804806 0.896604
-0.134683 0.0817375 0.897984
-0.136021 0.0830486 0.899963
-0.137529 0.0844558 0.902971
-0.139087 0.0858945 0.906241
-0.140633 0.0873308 0.909405
-0.14211 0.0887328 0.912094
-0.143528 0.0901044 0.914382
-0.0667561 0.00223093 0.914623
-0.0676216 0.00338941 0.912535
-0.0684674 0.00454296 0.910265
-0.069271 0.00569065 0.907553
-0.0700593 0.00683147 0.904732
-0.0708483 0.00796548 0.901992
-0.0716515 0.00909366 0.899485
-0.0724249 0.0102141 0.896704
-0.0732134 0.0113292 0.894161
-0.0740008 0.0124385 0.891668
-0.0748076 0.013544 0.889448
-0.0756098 0.0146441 0.88723
-0.0764588 0.0157451 0.885562
-0.0773198 0.0168442 0.884059
-0.0781848 0.0179406 0.882632
-0.0790414 0.0190326 0.88115
-0.0799041 0.0201228 0.879764
-0.0807654 0.0212097 0.878395
-0.0816383 0.0222961 0.877169
-0.0825262 0.023383 0.876117
-0.0834242 0.0244701 0.875186
-0.0843756 0.0255672 0.874784
-0.085348 0.0266684 0.874591
-0.0863474 0.0277758 0.874652
-0.0873739 0.0288902 0.874964
-0.088401 0.0300055 0.875273
-0.0894211 0.0311196 0.875512
-0.0904579 0.0322387 0.875895
-0.0914876 0.0333567 0.876206
-0.0925286 0.0344786 0.876609
-0.0935718 0.0356021 0.877023
