ply
format ascii 1.0
element vertex 1629
property float x
property float y
property float z
end_header
-0.180155 -0.0570402 0.824548
-0.181548 -0.0563084 0.825481
-0.182938 -0.0555732 0.826377
-0.184391 -0.0548479 0.827588
-0.185755 -0.0541028 0.828319
-0.187046 -0.0533437 0.828676
-0.188358 -0.0525866 0.829129
-0.189709 -0.0518355 0.829772
-0.191047 -0.0510808 0.830341
-0.192523 -0.0503463 0.831585
-0.194156 -0.0496322 0.833576
-0.195859 -0.0489242 0.835883
-0.07127 -0.133268 0.859678
-0.0723072 -0.131995 0.855867
-0.0734544 -0.130975 0.854044
-0.0746094 -0.129984 0.852431
-0.0757776 -0.12903 0.851099
-0.0769275 -0.128052 0.849543
-0.0780839 -0.127096 0.848153
-0.0792584 -0.126181 0.847087
-0.0804331 -0.125273 0.846066
-0.0816256 -0.124402 0.84534
-0.0828428 -0.123575 0.844984
-0.0840842 -0.122788 0.84497
-0.0853269 -0.122003 0.844972
-0.0865886 -0.121246 0.845221
-0.0878653 -0.120509 0.845655
-0.0891447 -0.119773 0.846105
-0.0903987 -0.119 0.846225
-0.0916761 -0.118257 0.846624
-0.0929405 -0.117495 0.846854
-0.0942018 -0.116728 0.847039
-0.0954872 -0.115989 0.847497
-0.0968192 -0.115305 0.848467
-0.0981123 -0.114569 0.848971
-0.0994193 -0.113846 0.849611
-0.100693 -0.113084 0.849874
-0.101917 -0.112264 0.849591
-0.103047 -0.111347 0.848335
-0.104147 -0.110405 0.846809
-0.105157 -0.109377 0.844406
-0.106117 -0.108312 0.841573
-0.107043 -0.107227 0.838488
-0.107953 -0.106141 0.835332
-0.108857 -0.105063 0.832196
-0.109789 -0.104025 0.829422
-0.110765 -0.103037 0.827128
-0.111768 -0.102082 0.825145
-0.112794 -0.101155 0.823426
-0.113779 -0.100202 0.821382
-0.114787 -0.0992751 0.819595
-0.115773 -0.0983387 0.81766
-0.116762 -0.0974114 0.81579
-0.117784 -0.0965174 0.814259
-0.118858 -0.0956673 0.813201
-0.119905 -0.0948018 0.811941
-0.120958 -0.0939452 0.810761
-0.122025 -0.0931034 0.809729
-0.12308 -0.0922568 0.808618
-0.124136 -0.0914142 0.807532
-0.125187 -0.0905738 0.806448
-0.126236 -0.0897349 0.805359
-0.127249 -0.0888782 0.804021
-0.128266 -0.0880287 0.802745
-0.129311 -0.0872001 0.801709
-0.13037 -0.0863831 0.800795
-0.131494 -0.0856053 0.800379
-0.13262 -0.0848301 0.799986
-0.133764 -0.0840657 0.79973
-0.134895 -0.0832955 0.799389
-0.136057 -0.0825425 0.799276
-0.137203 -0.0817815 0.799049
-0.138381 -0.0810369 0.79905
-0.139558 -0.0802914 0.799037
-0.140732 -0.079545 0.799011
-0.141895 -0.0787937 0.798913
-0.14306 -0.078043 0.798822
-0.144248 -0.0773029 0.798888
-0.145425 -0.0765579 0.798883
-0.146614 -0.0758178 0.798953
-0.147803 -0.0750774 0.799022
-0.148992 -0.074337 0.799092
-0.15017 -0.0735919 0.799088
-0.151395 -0.0728645 0.799377
-0.152623 -0.0721373 0.79968
-0.153854 -0.0714106 0.799998
-0.155111 -0.0706918 0.800467
-0.15637 -0.0699722 0.800935
-0.157631 -0.0692523 0.801415
-0.158923 -0.0685409 0.802064
-0.160272 -0.0678458 0.803037
-0.161695 -0.067171 0.804424
-0.163366 -0.0665672 0.80722
-0.165169 -0.0659949 0.810727
-0.167092 -0.0654474 0.814854
-0.168971 -0.0648772 0.818672
-0.170736 -0.0642655 0.821786
-0.17224 -0.0635764 0.8234
-0.17359 -0.0628443 0.824152
-0.174802 -0.0620749 0.82413
-0.176012 -0.061306 0.824105
-0.177238 -0.0605404 0.824163
-0.178487 -0.0597795 0.824337
-0.179767 -0.0590255 0.824679
-0.181112 -0.0582848 0.825357
-0.18251 -0.0575536 0.826296
-0.183918 -0.0568219 0.827276
-0.185393 -0.0561012 0.828582
-0.186759 -0.0553566 0.829317
-0.188068 -0.0545993 0.829749
-0.189382 -0.0538418 0.830202
-0.190735 -0.0530903 0.830843
-0.19206 -0.0523326 0.831335
-0.193523 -0.051596 0.832497
-0.195155 -0.0508833 0.834469
-0.196914 -0.0501856 0.837027
-0.0732082 -0.133479 0.857526
-0.074259 -0.132258 0.854124
-0.075422 -0.131282 0.852653
-0.076612 -0.130368 0.851667
-0.0777689 -0.1294 0.850221
-0.0789377 -0.128463 0.849015
-0.0801189 -0.127557 0.848038
-0.0812936 -0.126645 0.847006
-0.0824809 -0.125762 0.846194
-0.0836981 -0.124931 0.845818
-0.0849334 -0.124131 0.845702
-0.0861702 -0.123334 0.845607
-0.0874266 -0.122566 0.84577
-0.0887045 -0.121829 0.846197
-0.0899858 -0.121093 0.846652
-0.0912486 -0.12033 0.846865
-0.0925367 -0.119599 0.847373
-0.093818 -0.118856 0.847783
-0.0950892 -0.118099 0.848062
-0.0963919 -0.117378 0.84869
-0.0977276 -0.116694 0.849668
-0.0990313 -0.115967 0.850262
-0.100335 -0.115237 0.850833
-0.101611 -0.114473 0.851095
-0.102835 -0.113651 0.850799
-0.103973 -0.112739 0.849619
-0.105077 -0.111795 0.848119
-0.106113 -0.11079 0.845978
-0.107083 -0.109729 0.843245
-0.108002 -0.108631 0.840092
-0.108902 -0.107529 0.836839
-0.109785 -0.106426 0.83351
-0.110696 -0.105363 0.830541
-0.111651 -0.104352 0.828057
-0.112651 -0.103391 0.826045
-0.113677 -0.102461 0.824331
-0.11467 -0.10151 0.822357
-0.11567 -0.100573 0.820498
-0.116655 -0.0996324 0.818555
-0.117641 -0.0986998 0.816666
-0.118654 -0.0977949 0.815049
-0.11972 -0.096936 0.813919
-0.120765 -0.0960668 0.812648
-0.121808 -0.0952002 0.811381
-0.122863 -0.0943473 0.810247
-0.123907 -0.0934905 0.809043
-0.12496 -0.0926444 0.807941
-0.126012 -0.0918017 0.806856
-0.127071 -0.0909679 0.805853
-0.128087 -0.0901103 0.804538
-0.129104 -0.0892584 0.803262
-0.130139 -0.0884213 0.802145
-0.131185 -0.0875952 0.801141
-0.1323 -0.0868106 0.800651
-0.133425 -0.0860337 0.80025
-0.134581 -0.0852751 0.800079
-0.135712 -0.0845038 0.799738
-0.136886 -0.0837553 0.799695
-0.138041 -0.0829977 0.799528
-0.139209 -0.0822471 0.799453
-0.140386 -0.0815011 0.79944
-0.141573 -0.0807593 0.79949
-0.142739 -0.080008 0.799402
-0.143906 -0.0792572 0.799322
-0.145105 -0.078521 0.799454
-0.146272 -0.0777705 0.799376
-0.147459 -0.077029 0.799432
-0.148648 -0.0762875 0.799492
-0.149838 -0.0755461 0.799556
-0.151017 -0.0748006 0.799555
-0.152255 -0.0740777 0.799919
-0.153488 -0.0733514 0.800241
-0.154726 -0.0726263 0.800592
-0.156001 -0.0719134 0.80116
-0.157277 -0.0711993 0.801724
-0.158555 -0.0704842 0.802291
-0.159862 -0.0697768 0.803014
-0.161251 -0.0690944 0.804209
-0.162792 -0.0684564 0.806256
-0.164596 -0.0678942 0.809784
-0.166532 -0.067362 0.814004
-0.168472 -0.0668198 0.81818
-0.170305 -0.0662361 0.821688
-0.17193 -0.0655846 0.823979
-0.173296 -0.0648579 0.824815
-0.174526 -0.0640922 0.824884
-0.175725 -0.0633188 0.824789
-0.176938 -0.0625484 0.824766
-0.178182 -0.0617861 0.824912
-0.179445 -0.0610284 0.825161
-0.18073 -0.0602745 0.825518
-0.182092 -0.059537 0.82627
-0.183493 -0.0588058 0.82721
-0.184887 -0.0580711 0.828106
-0.186349 -0.0573481 0.829333
-0.187715 -0.0566031 0.830054
-0.189025 -0.0558458 0.830485
-0.190357 -0.0550913 0.831017
-0.191715 -0.0543401 0.831671
-0.193042 -0.0535818 0.832165
-0.194504 -0.0528451 0.833307
-0.196088 -0.0521263 0.83503
-0.197783 -0.0514202 0.837257
-0.199916 -0.0496628 0.845522
-0.200575 -0.0508766 0.84471
-0.0741123 -0.134969 0.859182
-0.0750533 -0.133519 0.85403
-0.0762409 -0.132592 0.852961
-0.0774491 -0.131711 0.852255
-0.0786246 -0.130774 0.851088
-0.0798115 -0.129867 0.85014
-0.0810005 -0.128969 0.849258
-0.0821769 -0.128055 0.848234
-0.0833646 -0.127168 0.847408
-0.0845813 -0.126331 0.847002
-0.0858052 -0.125509 0.846709
-0.0870363 -0.124699 0.846518
-0.0882878 -0.123921 0.846595
-0.0895673 -0.123183 0.84702
-0.0908519 -0.122449 0.84749
-0.0921241 -0.121695 0.847794
-0.0934296 -0.120985 0.848483
-0.0947298 -0.120263 0.849087
-0.0960057 -0.119507 0.84939
-0.0973193 -0.118796 0.850111
-0.0986581 -0.118112 0.851087
-0.0999567 -0.117375 0.851592
-0.101246 -0.116624 0.851977
-0.102522 -0.115857 0.852214
-0.103731 -0.115015 0.851745
-0.104871 -0.1141 0.850575
-0.105984 -0.113164 0.849171
-0.107048 -0.112183 0.847309
-0.108038 -0.111137 0.844778
-0.108974 -0.110049 0.841787
-0.109872 -0.108939 0.83852
-0.110741 -0.107817 0.835065
-0.111631 -0.106729 0.831899
-0.112557 -0.105687 0.829149
-0.113538 -0.104705 0.82696
-0.114569 -0.103776 0.825288
-0.115571 -0.102828 0.823395
-0.116572 -0.101889 0.821548
-0.117567 -0.100952 0.819688
-0.118552 -0.100014 0.817788
-0.119554 -0.0990969 0.816077
-0.120601 -0.0982204 0.814783
-0.121647 -0.0973484 0.813512
-0.12268 -0.0964717 0.812162
-0.123735 -0.0956156 0.811021
-0.124767 -0.0947485 0.809727
-0.125809 -0.0938925 0.808537
-0.126851 -0.0930412 0.807376
-0.12791 -0.0922046 0.806367
-0.128935 -0.0913505 0.805124
-0.129954 -0.090497 0.803861
-0.130999 -0.0896636 0.802817
-0.132046 -0.0888352 0.801815
-0.133158 -0.0880476 0.801305
-0.134284 -0.0872691 0.800901
-0.135452 -0.0865151 0.800805
-0.136595 -0.0857483 0.800539
-0.13777 -0.084999 0.800499
-0.138915 -0.0842342 0.800251
-0.140071 -0.083476 0.800086
-0.141238 -0.0827233 0.799992
-0.142415 -0.0819762 0.799975
-0.143583 -0.0812245 0.799893
-0.144763 -0.0804783 0.799889
-0.145953 -0.079737 0.799955
-0.147119 -0.0789848 0.799864
-0.148307 -0.0782425 0.799917
-0.149497 -0.0775006 0.799978
-0.150689 -0.0767592 0.80005
-0.151882 -0.076018 0.800126
-0.153135 -0.0753001 0.800574
-0.154384 -0.0745793 0.800987
-0.15564 -0.0738597 0.801433
-0.156946 -0.0731571 0.802172
-0.158251 -0.072452 0.802893
-0.159545 -0.0717414 0.803543
-0.160869 -0.0710384 0.804348
-0.162356 -0.0703877 0.806093
-0.163997 -0.0697815 0.808689
-0.165917 -0.0692563 0.812839
-0.167857 -0.0687256 0.817028
-0.169758 -0.068172 0.820933
-0.171471 -0.0675529 0.82373
-0.172986 -0.0668702 0.825385
-0.174247 -0.0661126 0.825624
-0.175492 -0.0653506 0.825773
-0.17671 -0.06458 0.825767
-0.177939 -0.0638127 0.825826
-0.179186 -0.0630498 0.825977
-0.180452 -0.0622912 0.826228
-0.181739 -0.0615369 0.826585
-0.183089 -0.060796 0.827262
-0.184478 -0.0600614 0.828125
-0.185855 -0.0593227 0.82892
-0.187286 -0.0585935 0.829973
-0.188619 -0.0578418 0.830523
-0.18993 -0.0570838 0.830946
-0.191249 -0.0563268 0.83141
-0.192611 -0.0555765 0.832075
-0.193941 -0.0548192 0.832576
-0.195388 -0.0540808 0.833638
-0.197283 -0.0534155 0.836847
-0.199315 -0.0527659 0.840673
-0.201976 -0.0522068 0.847441
-0.0761571 -0.135404 0.858807
-0.0772657 -0.134303 0.856425
-0.0783865 -0.133243 0.854331
-0.0795186 -0.132219 0.852491
-0.0807084 -0.131311 0.851562
-0.0818933 -0.1304 0.850599
-0.0830591 -0.129464 0.849411
-0.084241 -0.128561 0.848485
-0.0854459 -0.127702 0.847904
-0.0866641 -0.126867 0.847517
-0.0878965 -0.126056 0.847327
-0.0891564 -0.125287 0.847488
-0.0904452 -0.124559 0.848002
-0.0917386 -0.123834 0.848553
-0.0930279 -0.1231 0.849036
-0.0943448 -0.122401 0.849827
-0.0956573 -0.121691 0.850538
-0.0969445 -0.120945 0.85094
-0.0982622 -0.120234 0.851668
-0.099596 -0.11954 0.852552
-0.100888 -0.11879 0.852951
-0.102161 -0.118018 0.853142
-0.103429 -0.117238 0.853271
-0.10463 -0.116382 0.852693
-0.105778 -0.115473 0.8516
-0.106902 -0.114544 0.850302
-0.107985 -0.113579 0.84863
-0.109001 -0.112554 0.846349
-0.109955 -0.111478 0.843535
-0.110851 -0.11036 0.840248
-0.111716 -0.109228 0.836761
-0.112594 -0.108123 0.833486
-0.113492 -0.107049 0.830473
-0.114445 -0.106038 0.828036
-0.115455 -0.105087 0.826173
-0.116446 -0.104127 0.824192
-0.117448 -0.103184 0.822351
-0.118437 -0.102239 0.820443
-0.119438 -0.101311 0.818684
-0.120439 -0.100389 0.816962
-0.121485 -0.0995089 0.815655
-0.122521 -0.0986267 0.814302
-0.123555 -0.0977474 0.812956
-0.1246 -0.0968819 0.811738
-0.125643 -0.0960187 0.810521
-0.126676 -0.095154 0.80926
-0.127716 -0.0942988 0.808083
-0.128784 -0.0934651 0.807137
-0.129808 -0.0926076 0.805884
-0.130828 -0.0917521 0.804631
-0.131884 -0.0909226 0.803664
-0.132942 -0.0900977 0.802733
-0.134056 -0.0893083 0.802224
-0.135194 -0.0885345 0.801899
-0.136363 -0.0877792 0.801801
-0.13751 -0.0870121 0.801551
-0.138687 -0.0862619 0.801514
-0.139833 -0.0854951 0.801259
-0.140979 -0.0847298 0.801018
-0.142134 -0.0839693 0.800835
-0.143299 -0.0832143 0.800723
-0.144457 -0.0824561 0.800565
-0.145626 -0.081704 0.800489
-0.146818 -0.0809623 0.800558
-0.147985 -0.080209 0.800464
-0.149175 -0.0794662 0.800519
-0.150367 -0.0787236 0.800581
-0.151575 -0.0779879 0.800746
-0.152783 -0.0772517 0.80091
-0.154053 -0.0765394 0.801448
-0.155316 -0.075823 0.801937
-0.156598 -0.0751122 0.802527
-0.157906 -0.0744091 0.803262
-0.159226 -0.0737086 0.804061
-0.160565 -0.0730124 0.804953
-0.161935 -0.0723242 0.806012
-0.163479 -0.0716918 0.808058
-0.165218 -0.0711178 0.811181
-0.167131 -0.0705912 0.815246
-0.169016 -0.0700446 0.819085
-0.170855 -0.0694735 0.822604
-0.172486 -0.0688308 0.824914
-0.173917 -0.0681236 0.826088
-0.175196 -0.0673702 0.826418
-0.176462 -0.0666122 0.826666
-0.177712 -0.0658493 0.826829
-0.17896 -0.0650853 0.826977
-0.180209 -0.0643216 0.827128
-0.181478 -0.0635617 0.827379
-0.182768 -0.0628067 0.827738
-0.18409 -0.0620586 0.828259
-0.185446 -0.0613163 0.828942
-0.186807 -0.0605734 0.829641
-0.188202 -0.0598365 0.830503
-0.189503 -0.0590779 0.83088
-0.190813 -0.05832 0.831299
-0.192151 -0.0575663 0.831846
-0.19352 -0.056817 0.832534
-0.194868 -0.0560632 0.833122
-0.196625 -0.0553813 0.835671
-0.198889 -0.0547827 0.840627
-0.201284 -0.0541949 0.846141
-0.204311 -0.053698 0.854572
-0.21455 -0.0510925 0.888625
-0.212231 -0.0529339 0.879829
-0.215487 -0.0524045 0.888929
-0.0783044 -0.13604 0.859996
-0.0793452 -0.134815 0.856659
-0.0804803 -0.133787 0.854834
-0.0816328 -0.132803 0.853331
-0.0827714 -0.131805 0.851694
-0.0839437 -0.130876 0.850583
-0.0851316 -0.129979 0.849723
-0.0863316 -0.129107 0.849055
-0.0875448 -0.128259 0.848582
-0.0887794 -0.127448 0.848398
-0.0900484 -0.126688 0.848648
-0.0913483 -0.125972 0.849266
-0.0926595 -0.125268 0.849999
-0.0939669 -0.124554 0.850662
-0.0953025 -0.123875 0.851629
-0.0966272 -0.123175 0.852439
-0.0979259 -0.122438 0.852931
-0.0992471 -0.121726 0.853655
-0.100569 -0.121011 0.854362
-0.101846 -0.120239 0.854568
-0.103104 -0.119443 0.854563
-0.104364 -0.118651 0.854587
-0.105558 -0.117784 0.853929
-0.106707 -0.116871 0.852831
-0.107839 -0.115946 0.851594
-0.10893 -0.114985 0.85
-0.109957 -0.113966 0.847817
-0.110921 -0.112895 0.845104
-0.111825 -0.111778 0.841898
-0.11268 -0.11063 0.838321
-0.113546 -0.109508 0.834937
-0.114414 -0.108402 0.831662
-0.115344 -0.107366 0.829027
-0.116335 -0.106394 0.826988
-0.117332 -0.105435 0.825058
-0.118336 -0.104491 0.823236
-0.119344 -0.103558 0.821493
-0.120348 -0.102628 0.819752
-0.121346 -0.101701 0.818013
-0.122371 -0.100801 0.81653
-0.123397 -0.0999073 0.815087
-0.124421 -0.0990179 0.813661
-0.125478 -0.0981579 0.812532
-0.126542 -0.0973068 0.81148
-0.127596 -0.0964534 0.81038
-0.128658 -0.0956085 0.809356
-0.129745 -0.0947843 0.808551
-0.130771 -0.0939238 0.807303
-0.131791 -0.0930641 0.806038
-0.132859 -0.0922384 0.805151
-0.13393 -0.0914177 0.804307
-0.135028 -0.0906152 0.803665
-0.136178 -0.0898455 0.803416
-0.137349 -0.0890881 0.803313
-0.138478 -0.0883078 0.80292
-0.139637 -0.0875448 0.80274
-0.140785 -0.0867766 0.802487
-0.141919 -0.0860024 0.802152
-0.143062 -0.0852332 0.801874
-0.144227 -0.0844762 0.801752
-0.145383 -0.0837152 0.801575
-0.146554 -0.0829614 0.801492
-0.147747 -0.0822184 0.801557
-0.148916 -0.0814642 0.801467
-0.150109 -0.0807206 0.801526
-0.151304 -0.0799779 0.801601
-0.152516 -0.0792419 0.801776
-0.153728 -0.0785057 0.801951
-0.154989 -0.0777886 0.802422
-0.156253 -0.0770711 0.8029
-0.157535 -0.0763594 0.80348
-0.158844 -0.075656 0.80421
-0.160169 -0.0749562 0.805019
-0.161552 -0.074275 0.806152
-0.162972 -0.0736037 0.807484
-0.164599 -0.0729998 0.80998
-0.166419 -0.0724534 0.813531
-0.168318 -0.0719234 0.817473
-0.170136 -0.0713562 0.820895
-0.171907 -0.0707654 0.824007
-0.173448 -0.0700956 0.825794
-0.174819 -0.0693704 0.826623
-0.176133 -0.0686267 0.827137
-0.177437 -0.0678784 0.827579
-0.178708 -0.0671196 0.82784
-0.179974 -0.0663593 0.828075
-0.181224 -0.0655939 0.828223
-0.182494 -0.0648339 0.828473
-0.183785 -0.0640773 0.828819
-0.185094 -0.0633248 0.829261
-0.186417 -0.0625743 0.829764
-0.187758 -0.0618265 0.830351
-0.189119 -0.0610822 0.831033
-0.19039 -0.0603162 0.831251
-0.191699 -0.0595575 0.831657
-0.193055 -0.0588078 0.832284
-0.194427 -0.0580592 0.832983
-0.195779 -0.0573056 0.833576
-0.197874 -0.0566899 0.837742
-0.200499 -0.0561605 0.844388
-0.203254 -0.0556381 0.851558
-0.21052 -0.054834 0.873841
-0.213712 -0.0543232 0.882702
-0.216336 -0.0537044 0.888817
-0.0794632 -0.138007 0.86526
-0.0804633 -0.136686 0.861255
-0.0815424 -0.135539 0.85855
-0.0826525 -0.134465 0.856389
-0.0837441 -0.133375 0.85406
-0.0848842 -0.132382 0.852476
-0.0860429 -0.13143 0.851199
-0.0872374 -0.130544 0.850435
-0.0884522 -0.129694 0.849958
-0.0896956 -0.12889 0.849856
-0.0909686 -0.128132 0.850123
-0.0922814 -0.127429 0.850859
-0.0936124 -0.126748 0.851789
-0.0949254 -0.126036 0.852474
-0.0962657 -0.125357 0.853452
-0.0975936 -0.124656 0.854255
-0.0988878 -0.123908 0.854659
-0.100197 -0.123175 0.855211
-0.10152 -0.122458 0.855901
-0.102798 -0.121681 0.856083
-0.10405 -0.120875 0.855994
-0.105306 -0.120073 0.855947
-0.106501 -0.119203 0.855279
-0.107642 -0.118277 0.854091
-0.108756 -0.117329 0.852667
-0.109846 -0.116363 0.851057
-0.110871 -0.115337 0.848861
-0.111844 -0.114271 0.84624
-0.11276 -0.113161 0.843154
-0.113623 -0.112015 0.839657
-0.114486 -0.110884 0.836255
-0.115349 -0.109769 0.832945
-0.116258 -0.108708 0.830119
-0.117227 -0.107713 0.827895
-0.11823 -0.106756 0.826013
-0.119234 -0.105808 0.824196
-0.120245 -0.104873 0.822469
-0.121268 -0.103955 0.820896
-0.122276 -0.103031 0.819224
-0.123291 -0.10212 0.817657
-0.124305 -0.101214 0.816114
-0.125336 -0.100326 0.814745
-0.126394 -0.0994632 0.813614
-0.127471 -0.0986183 0.812661
-0.12855 -0.097778 0.81174
-0.129637 -0.0969467 0.810901
-0.130739 -0.096128 0.810189
-0.131786 -0.0952766 0.809087
-0.132829 -0.0944266 0.807976
-0.133901 -0.0935983 0.807098
-0.134996 -0.0927877 0.806411
-0.136097 -0.0919823 0.805773
-0.13723 -0.091198 0.805375
-0.13838 -0.0904249 0.805106
-0.139496 -0.0896337 0.804608
-0.140633 -0.0888557 0.804263
-0.141771 -0.0880791 0.803928
-0.142896 -0.0872969 0.803516
-0.144029 -0.08652 0.803161
-0.145182 -0.0857542 0.802946
-0.146328 -0.0849856 0.802686
-0.147488 -0.0842245 0.802523
-0.148682 -0.08348 0.802583
-0.149854 -0.0827249 0.802498
-0.151049 -0.0819805 0.802559
-0.152245 -0.0812365 0.802631
-0.153469 -0.0805039 0.802867
-0.154695 -0.079772 0.803119
-0.15596 -0.0790546 0.803594
-0.157214 -0.0783317 0.803998
-0.158495 -0.077618 0.804557
-0.159793 -0.0769093 0.805207
-0.161124 -0.0762107 0.806032
-0.162539 -0.075541 0.807339
-0.164024 -0.0748922 0.80902
-0.165732 -0.0743169 0.811952
-0.167523 -0.0737617 0.815303
-0.169361 -0.0732129 0.818866
-0.171101 -0.072622 0.821823
-0.172796 -0.0720086 0.824484
-0.174257 -0.0713152 0.825819
-0.175665 -0.070602 0.826847
-0.177032 -0.0698734 0.827633
-0.178385 -0.0691396 0.82834
-0.179691 -0.0683894 0.828774
-0.180976 -0.067633 0.829099
-0.182243 -0.066871 0.829325
-0.183516 -0.0661095 0.829572
-0.184792 -0.0653484 0.829837
-0.186083 -0.0645905 0.830176
-0.187389 -0.0638347 0.83058
-0.188715 -0.0630828 0.831077
-0.190046 -0.0623312 0.831598
-0.191316 -0.0615646 0.831806
-0.192642 -0.0608091 0.832287
-0.194001 -0.0600598 0.832924
-0.19536 -0.0593085 0.833551
-0.197024 -0.0586172 0.835645
-0.199459 -0.0580688 0.841401
-0.20242 -0.0576067 0.849593
-0.205507 -0.0571472 0.858261
-0.209114 -0.0567596 0.869257
-0.212403 -0.0562922 0.878622
-0.215003 -0.0556891 0.884669
-0.0785094 -0.139451 0.870151
-0.0806072 -0.139942 0.870157
-0.0816165 -0.138621 0.86623
-0.0826619 -0.137394 0.862975
-0.0837206 -0.136213 0.860035
-0.0847631 -0.135024 0.856989
-0.0858676 -0.13396 0.854888
-0.0869846 -0.132931 0.853031
-0.088142 -0.131978 0.85176
-0.0893514 -0.131115 0.851192
-0.0906019 -0.130318 0.851153
-0.0918793 -0.129561 0.851442
-0.0932034 -0.12887 0.852279
-0.0945479 -0.128203 0.853328
-0.0958718 -0.127501 0.854103
-0.0972087 -0.126813 0.855
-0.0985311 -0.1261 0.855705
-0.0998267 -0.125348 0.856093
-0.10113 -0.124605 0.856552
-0.102449 -0.123877 0.857162
-0.103729 -0.123101 0.857346
-0.104992 -0.122302 0.857342
-0.106243 -0.121491 0.857227
-0.107441 -0.12062 0.856574
-0.108582 -0.11969 0.85537
-0.109694 -0.118735 0.853927
-0.110773 -0.117753 0.852199
-0.111805 -0.116731 0.850075
-0.112796 -0.115677 0.847617
-0.11373 -0.114579 0.844703
-0.114595 -0.113429 0.841231
-0.115447 -0.112282 0.837739
-0.116295 -0.111147 0.8343
-0.117182 -0.110062 0.83128
-0.118131 -0.109044 0.828882
-0.119134 -0.108084 0.827009
-0.120156 -0.107147 0.825333
-0.121177 -0.106216 0.823697
-0.122203 -0.105296 0.822131
-0.123222 -0.104377 0.820552
-0.124235 -0.10346 0.818964
-0.125238 -0.102541 0.817324
-0.126268 -0.101649 0.815939
-0.127326 -0.100782 0.814801
-0.128407 -0.0999363 0.813867
-0.1295 -0.0991024 0.813045
-0.130612 -0.0982845 0.812384
-0.131732 -0.0974737 0.811789
-0.132815 -0.0966415 0.81094
-0.133893 -0.0958092 0.810072
-0.134987 -0.09499 0.80934
-0.136097 -0.0941836 0.808738
-0.137212 -0.0933816 0.808178
-0.138334 -0.0925856 0.807676
-0.13946 -0.0917939 0.807216
-0.140551 -0.0909843 0.806528
-0.141653 -0.0901828 0.805924
-0.142756 -0.0893835 0.805335
-0.143869 -0.0885923 0.804834
-0.144971 -0.0877964 0.80426
-0.146116 -0.0870241 0.80398
-0.147251 -0.0862479 0.803643
-0.148411 -0.0854847 0.803469
-0.149585 -0.0847286 0.803386
-0.15078 -0.083983 0.803443
-0.151977 -0.0832378 0.803507
-0.153175 -0.0824927 0.803576
-0.154399 -0.0817587 0.803802
-0.155638 -0.0810301 0.804114
-0.156879 -0.0803017 0.804434
-0.158134 -0.0795782 0.804837
-0.15943 -0.0788694 0.805468
-0.160732 -0.0781613 0.806127
-0.162065 -0.0774631 0.806957
-0.163513 -0.0768052 0.808433
-0.16503 -0.0761682 0.810282
-0.166734 -0.0755924 0.813158
-0.168476 -0.0750219 0.816206
-0.170241 -0.0744506 0.819331
-0.1719 -0.0738351 0.821817
-0.173522 -0.0732008 0.824062
-0.174975 -0.0725062 0.825345
-0.176433 -0.0718104 0.826643
-0.177881 -0.0711073 0.827858
-0.1793 -0.0703931 0.828908
-0.180655 -0.0696569 0.829599
-0.181974 -0.0689089 0.830089
-0.18326 -0.0681507 0.830403
-0.184535 -0.0673886 0.830651
-0.185799 -0.0666225 0.830841
-0.18706 -0.0658554 0.831013
-0.188349 -0.0650954 0.831325
-0.189674 -0.0643425 0.831812
-0.190994 -0.0635877 0.832267
-0.192268 -0.062821 0.832488
-0.193613 -0.062069 0.833051
-0.194958 -0.0613165 0.83361
-0.196577 -0.0606196 0.835483
-0.198565 -0.0599947 0.839111
-0.201314 -0.0595123 0.84632
-0.204586 -0.0591141 0.855911
-0.207959 -0.0587115 0.86584
-0.211035 -0.0582319 0.874254
-0.213741 -0.0576667 0.88083
-0.0817487 -0.14187 0.874878
-0.0827369 -0.140491 0.870599
-0.0837612 -0.13921 0.866998
-0.0847945 -0.137969 0.863662
-0.0858053 -0.136712 0.860153
-0.0868791 -0.135586 0.857608
-0.0879646 -0.134495 0.855308
-0.0890929 -0.133487 0.853637
-0.0902831 -0.132587 0.852797
-0.0915295 -0.131778 0.852675
-0.0928096 -0.13102 0.852963
-0.0941441 -0.130339 0.853885
-0.0954924 -0.129672 0.854935
-0.0968124 -0.12896 0.855627
-0.0981366 -0.128249 0.856342
-0.0994511 -0.127521 0.856928
-0.10074 -0.126757 0.857214
-0.102031 -0.125994 0.857509
-0.103353 -0.125267 0.858129
-0.104652 -0.12451 0.858493
-0.10592 -0.123714 0.858522
-0.107174 -0.122902 0.858412
-0.108381 -0.122038 0.857834
-0.109521 -0.121103 0.856613
-0.110617 -0.120126 0.855004
-0.111695 -0.119139 0.853269
-0.112725 -0.118111 0.851123
-0.113723 -0.11706 0.848738
-0.114675 -0.115975 0.845997
-0.11555 -0.114829 0.842627
-0.116401 -0.113675 0.839126
-0.117245 -0.112531 0.835658
-0.118118 -0.111428 0.832531
-0.119048 -0.110389 0.829968
-0.120053 -0.109426 0.828104
-0.121084 -0.108493 0.826508
-0.122107 -0.107559 0.824879
-0.123142 -0.106642 0.823385
-0.124162 -0.10572 0.821809
-0.125187 -0.104808 0.820306
-0.126181 -0.103878 0.81859
-0.12722 -0.102988 0.817266
-0.128278 -0.102118 0.816122
-0.129379 -0.101283 0.815333
-0.130496 -0.100461 0.814673
-0.131633 -0.0996561 0.814181
-0.132776 -0.0988574 0.81375
-0.133874 -0.0980304 0.812994
-0.134968 -0.0972035 0.812225
-0.136071 -0.0963846 0.81153
-0.137184 -0.0955749 0.810929
-0.138287 -0.0947609 0.810263
-0.139397 -0.0939534 0.80966
-0.1405 -0.0931442 0.809025
-0.141565 -0.0923155 0.808141
-0.142642 -0.0914963 0.807354
-0.143731 -0.0906865 0.806663
-0.144834 -0.0898859 0.806074
-0.145924 -0.0890808 0.805412
-0.147057 -0.0883003 0.805049
-0.148193 -0.0875217 0.804701
-0.149343 -0.0867517 0.804457
-0.150517 -0.0859939 0.804369
-0.151716 -0.0852478 0.804431
-0.152903 -0.084496 0.804423
-0.15409 -0.0837444 0.804415
-0.155302 -0.0830037 0.804557
-0.156529 -0.0822692 0.80479
-0.15776 -0.0815355 0.805042
-0.159018 -0.0808122 0.805448
-0.160316 -0.0801036 0.806082
-0.16162 -0.0793957 0.806741
-0.16297 -0.0787035 0.807653
-0.164433 -0.0780519 0.809205
-0.165955 -0.0774172 0.811063
-0.167594 -0.0768195 0.813546
-0.16926 -0.0762245 0.816146
-0.170959 -0.0756336 0.818887
-0.172557 -0.0750007 0.821029
-0.174138 -0.0743562 0.823042
-0.175638 -0.0736799 0.824583
-0.177159 -0.0730055 0.82621
-0.17866 -0.0723204 0.827708
-0.180132 -0.071623 0.829026
-0.18154 -0.0709032 0.829992
-0.182893 -0.0701647 0.830655
-0.184213 -0.0694155 0.831138
-0.185507 -0.0686576 0.831475
-0.186773 -0.0678911 0.831668
-0.188035 -0.0671232 0.831835
-0.189341 -0.0663657 0.832219
-0.190669 -0.065613 0.83271
-0.192012 -0.0648629 0.833268
-0.193323 -0.0641037 0.833665
-0.19469 -0.0633562 0.834325
-0.196039 -0.0626029 0.834887
-0.19792 -0.0619637 0.838006
-0.200198 -0.0614005 0.84298
-0.203236 -0.0609814 0.851502
-0.206421 -0.0605719 0.860605
-0.209586 -0.0601355 0.869482
-0.212127 -0.0595612 0.875337
-0.0826406 -0.143312 0.875878
-0.0837096 -0.142082 0.872768
-0.0847761 -0.14087 0.869747
-0.0858154 -0.13963 0.866475
-0.0868317 -0.138373 0.863023
-0.0878933 -0.137215 0.86029
-0.0889616 -0.136086 0.857744
-0.0900802 -0.135055 0.855922
-0.0912631 -0.134135 0.854956
-0.0924994 -0.133303 0.854671
-0.0937745 -0.132531 0.854858
-0.0950982 -0.131828 0.855606
-0.0964324 -0.131135 0.856451
-0.0977317 -0.130389 0.856871
-0.0990408 -0.129654 0.857387
-0.100341 -0.128904 0.857792
-0.101622 -0.128127 0.857971
-0.102914 -0.127362 0.858266
-0.104257 -0.126659 0.85908
-0.105578 -0.125925 0.859643
-0.106865 -0.125148 0.859851
-0.10813 -0.124345 0.859829
-0.109338 -0.123477 0.859243
-0.110461 -0.122518 0.857838
-0.111548 -0.121527 0.856135
-0.112618 -0.120528 0.854321
-0.113631 -0.119477 0.852014
-0.114627 -0.118421 0.84962
-0.115596 -0.117348 0.847035
-0.11647 -0.116197 0.843677
-0.117311 -0.115029 0.840103
-0.11816 -0.113884 0.836692
-0.119038 -0.112781 0.833614
-0.119959 -0.111729 0.830974
-0.120975 -0.110772 0.829205
-0.122018 -0.109845 0.827703
-0.123049 -0.108914 0.826133
-0.124075 -0.107986 0.824562
-0.125104 -0.107066 0.82305
-0.12612 -0.106144 0.821477
-0.127126 -0.105218 0.819849
-0.128187 -0.104341 0.81869
-0.129257 -0.103476 0.817626
-0.13036 -0.102638 0.816837
-0.131496 -0.101826 0.81631
-0.132654 -0.101032 0.815958
-0.1338 -0.100231 0.815529
-0.134924 -0.0994161 0.814941
-0.136043 -0.0986008 0.814334
-0.137148 -0.0977791 0.813644
-0.138254 -0.0969597 0.812965
-0.139346 -0.0961348 0.812209
-0.140433 -0.0953092 0.811432
-0.141504 -0.094477 0.810559
-0.142549 -0.0936326 0.809526
-0.143603 -0.0927972 0.808576
-0.144667 -0.0919699 0.807704
-0.145756 -0.0911596 0.807019
-0.146844 -0.0903511 0.80634
-0.147978 -0.0895686 0.805971
-0.149114 -0.0887877 0.805614
-0.150277 -0.0880221 0.805444
-0.151452 -0.0872626 0.805348
-0.152654 -0.0865159 0.805419
-0.153841 -0.0857627 0.805404
-0.155032 -0.0850107 0.805405
-0.156233 -0.0842632 0.80547
-0.157447 -0.0835216 0.805615
-0.158679 -0.0827869 0.805861
-0.15994 -0.0820635 0.806271
-0.16123 -0.0813509 0.806846
-0.162537 -0.0806435 0.807512
-0.163887 -0.079951 0.808415
-0.165315 -0.0792856 0.809742
-0.166795 -0.0786364 0.811348
-0.168373 -0.0780181 0.813474
-0.16996 -0.0773972 0.815617
-0.171564 -0.0767761 0.81782
-0.173116 -0.0761311 0.819705
-0.174655 -0.0754759 0.821484
-0.176158 -0.0748038 0.823044
-0.177696 -0.0741396 0.824772
-0.179275 -0.0734824 0.826683
-0.180816 -0.072809 0.82837
-0.18231 -0.0721164 0.829779
-0.183732 -0.0713986 0.830794
-0.185132 -0.0706725 0.831684
-0.186478 -0.0699286 0.832282
-0.187783 -0.0691714 0.83266
-0.18908 -0.0684117 0.832997
-0.190418 -0.067662 0.833535
-0.191767 -0.0669126 0.834114
-0.19315 -0.0661708 0.834855
-0.194522 -0.0654247 0.835531
-0.195915 -0.0646816 0.836303
-0.197367 -0.0639499 0.837346
-0.199441 -0.0633539 0.841357
-0.201898 -0.0628315 0.847137
-0.204848 -0.0623995 0.855177
-0.207792 -0.0619464 0.863073
-0.210608 -0.0614485 0.870265
-0.0845699 -0.14346 0.87331
-0.0856821 -0.142329 0.870934
-0.0867722 -0.141176 0.868355
-0.0878452 -0.14001 0.865648
-0.0889005 -0.138832 0.862814
-0.0899504 -0.137664 0.860013
-0.091061 -0.136612 0.858067
-0.0922374 -0.135674 0.856992
-0.0934622 -0.134818 0.856532
-0.0947256 -0.134021 0.856542
-0.0960349 -0.133291 0.857083
-0.0973465 -0.132562 0.857633
-0.0986224 -0.131779 0.857764
-0.099908 -0.131009 0.857998
-0.101193 -0.130236 0.858212
-0.102466 -0.129447 0.858299
-0.103761 -0.128684 0.858607
-0.105122 -0.128003 0.859599
-0.106456 -0.127282 0.860277
-0.107756 -0.126518 0.860596
-0.109031 -0.125724 0.860664
-0.110238 -0.124852 0.860055
-0.111359 -0.123889 0.85864
-0.112445 -0.122893 0.856924
-0.113515 -0.12189 0.855109
-0.114526 -0.120834 0.852794
-0.11553 -0.119782 0.850478
-0.116506 -0.118713 0.847967
-0.117399 -0.117574 0.844779
-0.118249 -0.11641 0.841302
-0.119106 -0.115268 0.837968
-0.119982 -0.114157 0.834873
-0.120899 -0.113098 0.832214
-0.121906 -0.112128 0.830364
-0.122961 -0.111207 0.828955
-0.123993 -0.110273 0.827384
-0.125027 -0.109347 0.825873
-0.126064 -0.10843 0.82442
-0.127092 -0.107512 0.822932
-0.128109 -0.106591 0.821387
-0.129185 -0.105721 0.820331
-0.130258 -0.104853 0.819278
-0.131353 -0.104005 0.818414
-0.132491 -0.103191 0.817887
-0.133631 -0.10238 0.817381
-0.134768 -0.101569 0.816866
-0.13591 -0.100763 0.816403
-0.137041 -0.099952 0.815866
-0.138127 -0.0991141 0.815026
-0.139232 -0.0982906 0.814329
-0.140322 -0.0974607 0.813546
-0.141375 -0.0966114 0.812527
-0.142426 -0.0957638 0.811508
-0.143483 -0.0949237 0.810554
-0.144539 -0.0940861 0.809609
-0.145595 -0.0932517 0.808679
-0.14667 -0.0924312 0.807898
-0.147746 -0.0916134 0.807132
-0.148867 -0.0908221 0.806673
-0.149993 -0.0900346 0.80625
-0.151169 -0.0892737 0.806152
-0.152348 -0.0885143 0.80607
-0.15355 -0.0877664 0.806135
-0.154739 -0.0870125 0.806123
-0.155929 -0.0862585 0.806109
-0.157118 -0.0855046 0.806097
-0.158334 -0.0847621 0.806238
-0.159578 -0.0840318 0.806548
-0.160841 -0.0833085 0.806964
-0.162134 -0.0825964 0.807546
-0.163442 -0.0818885 0.808204
-0.164793 -0.081196 0.809097
-0.16618 -0.0805149 0.810183
-0.167618 -0.07985 0.811535
-0.169105 -0.0791995 0.813137
-0.170596 -0.0785458 0.814736
-0.172092 -0.0778896 0.816344
-0.17358 -0.0772255 0.817874
-0.175063 -0.0765556 0.819357
-0.176577 -0.0758919 0.820983
-0.178116 -0.0752315 0.822712
-0.17974 -0.0745941 0.824872
-0.181364 -0.0739508 0.826995
-0.182974 -0.0732972 0.829015
-0.184502 -0.0726131 0.830575
-0.186021 -0.0719229 0.832073
-0.187454 -0.0712034 0.833103
-0.188798 -0.0704566 0.833672
-0.190136 -0.0697064 0.834199
-0.191512 -0.0689657 0.834916
-0.192901 -0.0682257 0.835679
-0.194344 -0.0674971 0.836694
-0.195793 -0.0667681 0.837731
-0.197266 -0.066042 0.838865
-0.198805 -0.0653287 0.840304
-0.200972 -0.0647556 0.844723
-0.203541 -0.0642607 0.850982
-0.206266 -0.0637844 0.857894
-0.208927 -0.0632778 0.864413
-0.0887258 -0.141416 0.866482
-0.0898267 -0.140312 0.86424
-0.090909 -0.139192 0.861848
-0.0920225 -0.138137 0.859922
-0.0932014 -0.137197 0.858851
-0.0944129 -0.136314 0.858203
-0.0956629 -0.135491 0.858025
-0.0969568 -0.134734 0.858356
-0.0982458 -0.133968 0.858619
-0.0995045 -0.133158 0.858539
-0.100775 -0.132364 0.858592
-0.102052 -0.131579 0.858708
-0.103318 -0.130778 0.858707
-0.104605 -0.130004 0.858919
-0.105961 -0.129315 0.859842
-0.107298 -0.128597 0.860536
-0.108609 -0.127845 0.86095
-0.109887 -0.127053 0.861037
-0.111094 -0.126179 0.860429
-0.112222 -0.125221 0.859083
-0.113315 -0.12423 0.857433
-0.114384 -0.123223 0.855618
-0.115403 -0.122173 0.853388
-0.116414 -0.121125 0.851144
-0.117407 -0.120069 0.848792
-0.118319 -0.118945 0.845787
-0.11919 -0.117796 0.842499
-0.120058 -0.116658 0.839269
-0.120939 -0.115548 0.836233
-0.121845 -0.114472 0.833471
-0.122841 -0.113489 0.831529
-0.123886 -0.112556 0.830032
-0.124928 -0.111626 0.828543
-0.125962 -0.110697 0.827029
-0.127 -0.109776 0.825575
-0.128028 -0.108854 0.82408
-0.129056 -0.107938 0.822618
-0.130123 -0.107057 0.821486
-0.131199 -0.106188 0.820447
-0.132296 -0.105337 0.819583
-0.133434 -0.10452 0.819046
-0.134574 -0.103707 0.818533
-0.135723 -0.102901 0.818095
-0.136868 -0.102094 0.817639
-0.137987 -0.101272 0.817008
-0.139072 -0.100429 0.816145
-0.140153 -0.0995879 0.815275
-0.141218 -0.0987395 0.814313
-0.14227 -0.0978871 0.813286
-0.143331 -0.0970427 0.812329
-0.144391 -0.0962021 0.811395
-0.145449 -0.0953628 0.810457
-0.146506 -0.0945262 0.809531
-0.147583 -0.0937037 0.80875
-0.148647 -0.0928771 0.807904
-0.14977 -0.0920848 0.807451
-0.15091 -0.0913024 0.80711
-0.152101 -0.0905473 0.807096
-0.153283 -0.0897878 0.807028
-0.154487 -0.0890389 0.807091
-0.155665 -0.0882773 0.806996
-0.156841 -0.0875155 0.806895
-0.158005 -0.0867482 0.806722
-0.159196 -0.0859933 0.806706
-0.160441 -0.0852625 0.807012
-0.161705 -0.0845393 0.807429
-0.162988 -0.0838225 0.807943
-0.16431 -0.0831202 0.808672
-0.165661 -0.0824275 0.809556
-0.167005 -0.0817292 0.810382
-0.168384 -0.0810425 0.811398
-0.16978 -0.0803588 0.812484
-0.171165 -0.079668 0.813494
-0.172565 -0.0789799 0.814575
-0.173988 -0.0782964 0.815756
-0.175403 -0.0776071 0.81688
-0.176882 -0.076937 0.818332
-0.178387 -0.0762701 0.819889
-0.179963 -0.0756233 0.821805
-0.181542 -0.0749713 0.823699
-0.183279 -0.074364 0.82639
-0.184962 -0.0737327 0.82876
-0.186662 -0.0731004 0.831186
-0.1883 -0.0724427 0.833255
-0.189837 -0.0717514 0.834792
-0.191233 -0.0710164 0.835597
-0.192685 -0.0702947 0.836672
-0.194136 -0.0695695 0.837723
-0.195638 -0.0688555 0.839013
-0.197134 -0.0681357 0.840249
-0.198672 -0.0674238 0.841674
-0.20025 -0.0667175 0.843271
-0.202451 -0.0661531 0.847804
-0.204734 -0.065597 0.852669
-0.207162 -0.0650602 0.858137
-0.0917791 -0.140574 0.862541
-0.092938 -0.139589 0.861171
-0.0941338 -0.138671 0.860288
-0.0953396 -0.137773 0.859551
-0.0965821 -0.136935 0.859262
-0.0978533 -0.13614 0.859307
-0.0991193 -0.135337 0.859292
-0.100348 -0.134482 0.858864
-0.101611 -0.133677 0.858822
-0.10288 -0.132879 0.858846
-0.104138 -0.132067 0.858755
-0.105416 -0.131281 0.858871
-0.106771 -0.130591 0.859775
-0.113035 -0.126497 0.859034
-0.114137 -0.125516 0.857491
-0.115215 -0.124517 0.85576
-0.116233 -0.123463 0.853533
-0.117261 -0.12243 0.851455
-0.118273 -0.121391 0.849289
-0.119224 -0.120302 0.846639
-0.120127 -0.119179 0.843643
-0.121025 -0.118065 0.840679
-0.121916 -0.116958 0.837722
-0.122817 -0.115873 0.834926
-0.12379 -0.114864 0.832787
-0.124814 -0.113908 0.831113
-0.125845 -0.112966 0.829537
-0.126891 -0.112042 0.82811
-0.127932 -0.111121 0.826682
-0.12896 -0.110195 0.825181
-0.129998 -0.109283 0.823788
-0.131062 -0.108396 0.822627
-0.132127 -0.107515 0.821497
-0.133222 -0.10666 0.820613
-0.134362 -0.105841 0.820079
-0.135503 -0.105026 0.819566
-0.136655 -0.104219 0.819135
-0.137791 -0.103403 0.818606
-0.138901 -0.102572 0.817902
-0.139984 -0.101726 0.817024
-0.141052 -0.100873 0.816056
-0.142093 -0.100008 0.81493
-0.143144 -0.0991512 0.813886
-0.144192 -0.0982972 0.812846
-0.145253 -0.0974541 0.811907
-0.146324 -0.0966208 0.811059
-0.147404 -0.0957954 0.810284
-0.148484 -0.0949719 0.809516
-0.149571 -0.0941553 0.808812
-0.150684 -0.0933554 0.80829
-0.151826 -0.0925717 0.80795
-0.153008 -0.0918107 0.807876
-0.154204 -0.0910563 0.807883
-0.155399 -0.0903014 0.807883
-0.156563 -0.0895314 0.807695
-0.157725 -0.0887609 0.807498
-0.158887 -0.0879912 0.807306
-0.160066 -0.0872297 0.807214
-0.161313 -0.0864991 0.807525
-0.162579 -0.0857758 0.807942
-0.16385 -0.0850532 0.808378
-0.165159 -0.0843454 0.809027
-0.166498 -0.0836475 0.809828
-0.167802 -0.0829335 0.810425
-0.169136 -0.0822294 0.811177
-0.170482 -0.0815279 0.811987
-0.17179 -0.0808095 0.812574
-0.173111 -0.0800941 0.813221
-0.174466 -0.079389 0.814039
-0.175813 -0.0786787 0.814802
-0.177212 -0.0779841 0.815831
-0.178658 -0.0773032 0.817093
-0.18015 -0.0766341 0.818578
-0.181653 -0.075964 0.820096
-0.18333 -0.0753449 0.822484
-0.184982 -0.0747114 0.824708
-0.18687 -0.0741444 0.828104
-0.188741 -0.0735628 0.831364
-0.190547 -0.0729539 0.834252
-0.19223 -0.0723019 0.836483
-0.193966 -0.0716585 0.838942
-0.195466 -0.0709445 0.840209
-0.197014 -0.0702406 0.841696
-0.198532 -0.0695243 0.843015
-0.200063 -0.0688084 0.844379
-0.201636 -0.0680989 0.845923
-0.203551 -0.0674681 0.849065
-0.205518 -0.0668419 0.852411
-0.0961898 -0.139116 0.859979
-0.097424 -0.138263 0.859586
-0.0986792 -0.137443 0.859442
-0.0999368 -0.136627 0.859329
-0.116014 -0.125777 0.855612
-0.11704 -0.12473 0.853476
-0.118077 -0.123705 0.851489
-0.119109 -0.122684 0.849507
-0.120101 -0.121633 0.847233
-0.121067 -0.120567 0.844789
-0.121998 -0.11948 0.842115
-0.122919 -0.118395 0.839412
-0.123817 -0.117301 0.836585
-0.124766 -0.116265 0.834244
-0.125756 -0.115275 0.832287
-0.126785 -0.114327 0.830693
-0.127822 -0.113392 0.82919
-0.128866 -0.112469 0.82778
-0.129886 -0.111532 0.826209
-0.13093 -0.110621 0.824861
-0.131971 -0.109713 0.823517
-0.133023 -0.108819 0.822285
-0.134096 -0.107946 0.821236
-0.135223 -0.107116 0.820607
-0.136354 -0.10629 0.82001
-0.137507 -0.105483 0.819589
-0.138657 -0.104676 0.819157
-0.139781 -0.103852 0.818541
-0.140875 -0.10301 0.817736
-0.141942 -0.102154 0.816762
-0.142983 -0.101286 0.815634
-0.144021 -0.100419 0.814503
-0.14507 -0.0995633 0.813465
-0.146117 -0.0987099 0.812436
-0.147188 -0.097874 0.811581
-0.14827 -0.0970476 0.810815
-0.149362 -0.096229 0.810122
-0.150452 -0.0954124 0.809439
-0.151578 -0.0946173 0.80899
-0.152731 -0.0938377 0.808714
-0.153915 -0.0930754 0.808638
-0.155101 -0.0923141 0.808572
-0.156295 -0.0915576 0.808562
-0.157459 -0.0907859 0.808366
-0.158606 -0.0900068 0.808075
-0.159768 -0.0892355 0.807876
-0.160947 -0.0884728 0.807782
-0.162183 -0.0877361 0.808019
-0.16345 -0.0870125 0.808431
-0.164708 -0.0862837 0.808785
-0.166005 -0.0855704 0.809355
-0.167318 -0.0848617 0.810002
-0.168595 -0.0841365 0.81044
-0.169885 -0.0834153 0.810944
-0.171186 -0.0826969 0.8115
-0.172431 -0.0819551 0.811739
-0.173661 -0.081207 0.811897
-0.174948 -0.0804794 0.812355
-0.176227 -0.0797476 0.812765
-0.177558 -0.079033 0.813443
-0.178922 -0.0783276 0.814281
-0.180347 -0.0776411 0.81543
-0.181767 -0.076949 0.816531
-0.18336 -0.0763103 0.818502
-0.184949 -0.0756651 0.820426
-0.186829 -0.0751043 0.823792
-0.188954 -0.0746095 0.828343
-0.191095 -0.0741068 0.832903
-0.19309 -0.0735496 0.836674
-0.195111 -0.0729899 0.840523
-0.196857 -0.0723436 0.842976
-0.198375 -0.071629 0.844287
-0.199822 -0.0708918 0.845236
-0.201319 -0.0701654 0.846412
-0.202865 -0.0694486 0.84781
-0.204524 -0.0687556 0.849715
-0.119893 -0.123925 0.849269
-0.120946 -0.122934 0.847542
-0.121966 -0.121917 0.845564
-0.122951 -0.120878 0.843353
-0.123904 -0.119817 0.840921
-0.124822 -0.118736 0.838258
-0.125749 -0.117675 0.835737
-0.126714 -0.116658 0.833573
-0.127728 -0.115692 0.83185
-0.128753 -0.114743 0.830251
-0.129789 -0.11381 0.828768
-0.130819 -0.112878 0.827281
-0.131863 -0.111963 0.825922
-0.132871 -0.111026 0.82433
-0.133908 -0.110118 0.822988
-0.134959 -0.109225 0.821771
-0.136063 -0.108375 0.820965
-0.137181 -0.10754 0.820281
-0.138344 -0.106738 0.819928
-0.139497 -0.105931 0.819505
-0.140623 -0.105107 0.818909
-0.14173 -0.104273 0.818196
-0.142799 -0.103416 0.817235
-0.143842 -0.102546 0.816111
-0.144869 -0.10167 0.814909
-0.145927 -0.100818 0.81393
-0.146973 -0.0999617 0.812897
-0.148043 -0.0991232 0.812034
-0.149126 -0.098295 0.811269
-0.150231 -0.0974826 0.810664
-0.151324 -0.0966653 0.80999
-0.15245 -0.0958686 0.809538
-0.153616 -0.0950945 0.809339
-0.154798 -0.0943296 0.809242
-0.155971 -0.0935605 0.809094
-0.157152 -0.0927961 0.808999
-0.158303 -0.0920167 0.808721
-0.159439 -0.0912305 0.808355
-0.160589 -0.0904526 0.808083
-0.161769 -0.0896895 0.80799
-0.162993 -0.088947 0.808154
-0.164246 -0.0882171 0.808483
-0.165487 -0.0874808 0.808737
-0.166782 -0.0867669 0.80929
-0.168069 -0.0860475 0.809785
-0.169345 -0.0853225 0.810217
-0.170619 -0.0845952 0.810629
-0.17189 -0.0838655 0.811017
-0.173075 -0.0831008 0.810932
-0.17427 -0.0823403 0.810903
-0.175493 -0.0815907 0.811028
-0.176724 -0.080843 0.811185
-0.178003 -0.0801123 0.811595
-0.179315 -0.0793917 0.812171
-0.18064 -0.0786746 0.812808
-0.181966 -0.0779563 0.813443
-0.183439 -0.0772841 0.814815
-0.18492 -0.0766104 0.816203
-0.186683 -0.0760225 0.818994
-0.189052 -0.0756143 0.82477
-0.191522 -0.0752208 0.830965
-0.193834 -0.0747638 0.83629
-0.196171 -0.0743002 0.841667
-0.198175 -0.0737278 0.845348
-0.199615 -0.0729904 0.846264
-0.200966 -0.0722252 0.846731
-0.202413 -0.0714851 0.847658
-0.122779 -0.123185 0.845604
-0.12382 -0.122196 0.843865
-0.124828 -0.121184 0.841896
-0.125778 -0.120128 0.839502
-0.126724 -0.119079 0.837133
-0.127677 -0.118047 0.834875
-0.128677 -0.117065 0.833035
-0.129689 -0.1161 0.831327
-0.130712 -0.115153 0.829748
-0.131721 -0.1142 0.828096
-0.132754 -0.113273 0.826652
-0.133739 -0.112315 0.824891
-0.134755 -0.111387 0.823389
-0.13578 -0.110473 0.821991
-0.136861 -0.109605 0.821016
-0.137975 -0.108765 0.820301
-0.139136 -0.107962 0.819936
-0.14029 -0.107154 0.819521
-0.141429 -0.106338 0.819018
-0.142561 -0.105519 0.818476
-0.143631 -0.104662 0.817519
-0.144685 -0.103797 0.816479
-0.145713 -0.102919 0.815278
-0.146771 -0.102065 0.814306
-0.147816 -0.101207 0.813264
-0.148887 -0.100367 0.812406
-0.149968 -0.0995363 0.811632
-0.151086 -0.0987294 0.811104
-0.152192 -0.0979178 0.810512
-0.153322 -0.0971211 0.810076
-0.1545 -0.0963525 0.809948
-0.15567 -0.09558 0.809775
-0.156843 -0.0948092 0.809617
-0.158022 -0.0940423 0.809503
-0.159162 -0.0932556 0.809151
-0.160286 -0.0924625 0.808716
-0.161437 -0.0916839 0.808447
-0.162618 -0.0909202 0.808354
-0.163816 -0.0901647 0.808361
-0.165055 -0.0894278 0.808601
-0.16628 -0.088684 0.80876
-0.167547 -0.087958 0.809151
-0.168789 -0.0872201 0.809397
-0.170049 -0.0864892 0.809741
-0.171294 -0.0857507 0.809993
-0.172522 -0.0850045 0.810147
-0.173688 -0.0842333 0.809966
-0.174865 -0.0834667 0.809844
-0.176055 -0.0827057 0.809797
-0.177268 -0.0819531 0.80987
-0.178531 -0.0812186 0.810201
-0.179811 -0.0804893 0.810618
-0.181074 -0.0797531 0.810943
-0.182305 -0.0790044 0.811095
-0.183654 -0.0782946 0.811842
-0.184998 -0.077582 0.812561
-0.1866 -0.0769501 0.814554
-0.191836 -0.0762966 0.828491
-0.194466 -0.0759444 0.835363
-0.197084 -0.0755713 0.842087
-0.2019 -0.0735054 0.847214
-0.124607 -0.123437 0.843692
-0.12567 -0.122476 0.842187
-0.126667 -0.12146 0.840185
-0.127647 -0.120438 0.838091
-0.12861 -0.119411 0.835919
-0.129598 -0.118414 0.833979
-0.130596 -0.117435 0.832167
-0.131606 -0.116473 0.830488
-0.132603 -0.115507 0.828742
-0.133635 -0.114577 0.827296
-0.134618 -0.113614 0.82552
-0.135621 -0.112673 0.823926
-0.136622 -0.111738 0.822354
-0.137678 -0.110849 0.821202
-0.138767 -0.10999 0.82031
-0.139905 -0.109169 0.819783
-0.141058 -0.108361 0.819368
-0.14221 -0.107553 0.81895
-0.143354 -0.106742 0.818494
-0.144447 -0.105897 0.817693
-0.145525 -0.105047 0.816812
-0.146564 -0.104175 0.815691
-0.147636 -0.103327 0.814807
-0.148682 -0.102467 0.813774
-0.149753 -0.101625 0.812913
-0.150834 -0.100792 0.812137
-0.151952 -0.0999837 0.811604
-0.153059 -0.0991709 0.811016
-0.15419 -0.0983736 0.810587
-0.15536 -0.0975985 0.810397
-0.156519 -0.0968185 0.810149
-0.157677 -0.0960393 0.809904
-0.158858 -0.095272 0.809793
-0.159997 -0.094484 0.809436
-0.161121 -0.0936897 0.809
-0.162271 -0.0929093 0.80872
-0.163451 -0.0921443 0.808619
-0.164622 -0.0913754 0.808468
-0.165846 -0.0906314 0.80862
-0.167055 -0.0898801 0.808685
-0.168293 -0.0891411 0.808907
-0.169505 -0.0883907 0.808989
-0.170749 -0.0876532 0.809239
-0.171976 -0.0869081 0.809396
-0.173175 -0.0861507 0.809397
-0.174325 -0.0853736 0.809133
-0.175484 -0.0846007 0.808921
-0.176659 -0.0838348 0.8088
-0.177858 -0.083078 0.808801
-0.17912 -0.0823451 0.809138
-0.180416 -0.0816229 0.809638
-0.181696 -0.0808941 0.810054
-0.182944 -0.0801526 0.810297
-0.184159 -0.079399 0.810368
-0.185354 -0.0786389 0.810344
-0.186753 -0.0779453 0.811331
-0.194726 -0.0770091 0.832629
-0.197553 -0.0767094 0.840345
-0.127517 -0.122758 0.84054
-0.128531 -0.121764 0.838727
-0.129518 -0.120754 0.836739
-0.130508 -0.119756 0.834829
-0.131495 -0.118764 0.83293
-0.132492 -0.117788 0.831151
-0.133474 -0.116806 0.829295
-0.134493 -0.115863 0.827756
-0.135465 -0.114888 0.825904
-0.136466 -0.113944 0.8243
-0.137454 -0.112996 0.822634
-0.138484 -0.112086 0.821303
-0.139548 -0.111207 0.820241
-0.140674 -0.110376 0.819625
-0.141827 -0.109567 0.81921
-0.14299 -0.108767 0.818873
-0.144135 -0.107956 0.818426
-0.145239 -0.107119 0.817706
-0.146341 -0.106282 0.816983
-0.147394 -0.105417 0.815956
-0.148492 -0.104585 0.815245
-0.149565 -0.103739 0.81438
-0.150636 -0.102895 0.81352
-0.151704 -0.102052 0.812661
-0.15282 -0.101241 0.812112
-0.153916 -0.100419 0.811448
-0.155037 -0.0996147 0.810951
-0.156206 -0.0988383 0.810756
-0.157363 -0.0980565 0.810497
-0.158509 -0.097269 0.81017
-0.159679 -0.0964953 0.809991
-0.160832 -0.0957134 0.809716
-0.161957 -0.0949183 0.809283
-0.163091 -0.0941291 0.80891
-0.164269 -0.0933619 0.808789
-0.165425 -0.092585 0.808549
-0.166623 -0.0918285 0.808552
-0.167817 -0.09107 0.80853
-0.169037 -0.0903238 0.808658
-0.17022 -0.0895603 0.808575
-0.171445 -0.0888153 0.808724
-0.172658 -0.0880644 0.8088
-0.173825 -0.0872942 0.808631
-0.174972 -0.0865165 0.808358
-0.176129 -0.0857437 0.808144
-0.177307 -0.0849795 0.80804
-0.178507 -0.084224 0.808053
-0.179799 -0.0835033 0.808544
-0.181095 -0.0827825 0.809048
-0.182393 -0.0820611 0.809555
-0.183659 -0.0813268 0.809891
-0.184906 -0.0805844 0.810124
-0.18612 -0.0798309 0.810191
-0.187318 -0.0790713 0.810179
-0.130349 -0.12203 0.836952
-0.131351 -0.12104 0.83514
-0.132338 -0.120045 0.833247
-0.133332 -0.119064 0.831455
-0.134301 -0.118069 0.829506
-0.135308 -0.117114 0.827883
-0.136278 -0.116136 0.82603
-0.137268 -0.115181 0.824354
-0.138243 -0.114221 0.822604
-0.139258 -0.113299 0.821173
-0.140319 -0.112416 0.820091
-0.141431 -0.111575 0.81939
-0.142584 -0.110766 0.818975
-0.143759 -0.109974 0.818721
-0.144917 -0.109171 0.818358
-0.146034 -0.108342 0.817732
-0.14715 -0.107513 0.817103
-0.148229 -0.106664 0.816254
-0.149343 -0.10584 0.81564
-0.15043 -0.105001 0.814868
-0.151514 -0.104163 0.814087
-0.152593 -0.103325 0.813288
-0.153697 -0.102504 0.812662
-0.154791 -0.10168 0.811985
-0.155911 -0.100873 0.811478
-0.157065 -0.100087 0.811189
-0.158208 -0.0992954 0.810837
-0.159352 -0.0985058 0.810497
-0.16051 -0.0977243 0.810241
-0.161652 -0.0969359 0.809902
-0.162778 -0.09614 0.809471
-0.163912 -0.0953497 0.809095
-0.165088 -0.0945813 0.808967
-0.16623 -0.0937967 0.808645
-0.167399 -0.093026 0.808482
-0.168579 -0.0922604 0.808377
-0.16977 -0.0915008 0.80834
-0.17091 -0.0907183 0.808025
-0.172119 -0.0899666 0.808084
-0.173328 -0.089215 0.808146
-0.174465 -0.0884329 0.807822
-0.175611 -0.0876554 0.807551
-0.176795 -0.0868939 0.807481
-0.177974 -0.0861306 0.807386
-0.179175 -0.0853765 0.80741
-0.180497 -0.0846683 0.808057
-0.181808 -0.0839539 0.808634
-0.183108 -0.083234 0.809147
-0.184391 -0.0825069 0.809574
-0.18567 -0.081776 0.809964
-0.186886 -0.0810228 0.81004
-0.1881 -0.0802685 0.810104
-0.137045 -0.117347 0.825812
-0.138032 -0.116389 0.824132
-0.139006 -0.115427 0.822382
-0.140018 -0.114502 0.820946
-0.141078 -0.113617 0.819861
-0.142189 -0.112775 0.819155
-0.143341 -0.111965 0.818741
-0.144528 -0.111181 0.81857
-0.1457 -0.110387 0.8183
-0.146833 -0.109568 0.817779
-0.147961 -0.108746 0.817231
-0.149065 -0.107912 0.816545
-0.150205 -0.107104 0.816099
-0.15131 -0.106274 0.815434
-0.15242 -0.10545 0.814819
-0.153512 -0.104617 0.814099
-0.154614 -0.103793 0.813453
-0.155694 -0.102959 0.812689
-0.156801 -0.102142 0.812094
-0.15793 -0.101339 0.811647
-0.159057 -0.100537 0.811193
-0.160198 -0.0997453 0.810836
-0.161342 -0.0989553 0.810496
-0.162485 -0.0981661 0.810159
-0.163612 -0.0973694 0.809731
-0.164748 -0.0965792 0.809367
-0.165912 -0.0958035 0.809162
-0.16704 -0.0950114 0.808764
-0.168195 -0.0942327 0.808514
-0.169356 -0.0934583 0.808309
-0.170518 -0.0926849 0.808111
-0.171629 -0.0918885 0.807633
-0.172821 -0.0911299 0.807606
