ply
format ascii 1.0
element vertex 1656
property float x
property float y
property float z
end_header
0.350459 0.0124189 0.837178
0.349099 0.0124555 0.837916
0.347873 0.0124972 0.839022
0.346813 0.0125431 0.8406
0.34577 0.01259 0.842231
0.34478 0.0126379 0.844023
0.343836 0.0126881 0.845956
0.342766 0.0127347 0.847543
0.341727 0.0127821 0.84923
0.340684 0.0128296 0.850918
0.339551 0.0128744 0.852357
0.338378 0.0129186 0.853685
0.337377 0.0129675 0.855524
0.336521 0.0130218 0.8578
0.336182 0.0130923 0.861617
0.335912 0.0131666 0.865674
0.335753 0.0132444 0.870096
0.335911 0.0148979 0.875304
0.335518 0.0133206 0.874335
0.386703 0.010269 0.840952
0.385377 0.0103084 0.841851
0.383951 0.0103449 0.842501
0.382552 0.0103829 0.843223
0.381094 0.0104189 0.843795
0.37942 0.0104508 0.843818
0.37754 0.0104789 0.843314
0.375608 0.0105056 0.842665
0.37356 0.0105296 0.841706
0.37156 0.0105537 0.840855
0.369648 0.0105797 0.840215
0.367828 0.0106078 0.839804
0.366075 0.0106379 0.839555
0.364283 0.0106662 0.839195
0.36239 0.0106917 0.838561
0.360335 0.0107137 0.83748
0.358434 0.0107396 0.836794
0.35655 0.0107649 0.83614
0.354822 0.0107933 0.835894
0.353211 0.0108251 0.835954
0.351787 0.0108603 0.836518
0.350397 0.010897 0.837173
0.349072 0.0109345 0.838008
0.347906 0.0109771 0.839287
0.346877 0.0110217 0.840949
0.345861 0.0110672 0.84266
0.344873 0.0111139 0.84446
0.343896 0.011161 0.846304
0.342765 0.011204 0.847723
0.341687 0.0112494 0.849302
0.340583 0.0112934 0.850814
0.339418 0.0113356 0.85216
0.338241 0.0113782 0.853479
0.337236 0.0114261 0.855305
0.336312 0.0114756 0.857381
0.335905 0.0115386 0.861001
0.335563 0.0116049 0.864838
0.335399 0.0116759 0.869244
0.33517 0.0117458 0.873498
0.334952 0.0133857 0.877613
0.334674 0.0118091 0.876987
0.386138 0.00870752 0.83969
0.384818 0.00874622 0.840599
0.383434 0.00878405 0.841352
0.382008 0.00882096 0.841998
0.380554 0.00885707 0.842575
0.378992 0.00889281 0.842879
0.377152 0.00892329 0.842472
0.375222 0.00895174 0.841825
0.373177 0.00897797 0.840869
0.371179 0.00900573 0.84002
0.369274 0.00903399 0.839397
0.367524 0.00906582 0.839163
0.365841 0.00909789 0.839096
0.364118 0.00912855 0.838916
0.362293 0.00915784 0.83846
0.360305 0.00918455 0.837557
0.358439 0.00921245 0.836966
0.356528 0.00924015 0.836241
0.354796 0.00927019 0.835985
0.353177 0.00930236 0.836024
0.351781 0.00933935 0.836665
0.350396 0.00937523 0.837339
0.349138 0.00941435 0.83836
0.348009 0.00945627 0.83974
0.346952 0.00949846 0.841329
0.345901 0.00954252 0.842947
0.344905 0.00958659 0.844726
0.343867 0.00963041 0.8464
0.342703 0.00967169 0.847729
0.34162 0.00971438 0.849292
0.340481 0.00975687 0.850706
0.339285 0.00979788 0.851963
0.338076 0.0098386 0.853192
0.337036 0.00988355 0.854915
0.336042 0.00992852 0.856787
0.335534 0.00998464 0.860103
0.335063 0.010042 0.863559
0.334837 0.0101053 0.867775
0.33461 0.0101691 0.872028
0.334191 0.0102293 0.875742
0.385875 0.00715308 0.839174
0.38461 0.00719169 0.84022
0.383206 0.00722914 0.840919
0.381722 0.00726531 0.84142
0.380232 0.00730205 0.841905
0.378606 0.00733706 0.842045
0.376733 0.00736839 0.84155
0.374797 0.00739979 0.840884
0.372785 0.00742997 0.84001
0.370788 0.00745997 0.839159
0.368924 0.00749088 0.838638
0.367241 0.00752408 0.838577
0.365566 0.00755795 0.838529
0.363881 0.00759118 0.838447
0.362096 0.00762301 0.838094
0.360178 0.00765317 0.837378
0.358357 0.00768419 0.836906
0.356482 0.00771466 0.836277
0.354748 0.00774645 0.836016
0.353145 0.00778038 0.836102
0.351746 0.0078163 0.836737
0.350367 0.00785292 0.837426
0.349181 0.00789179 0.838646
0.348087 0.0079328 0.840127
0.347026 0.00797395 0.841711
0.345972 0.00801541 0.84332
0.344968 0.00805836 0.845081
0.343869 0.00809867 0.846587
0.342668 0.00813835 0.847811
0.34155 0.00817938 0.849276
0.340376 0.0082202 0.850592
0.339151 0.00825914 0.851767
0.337914 0.00829889 0.852911
0.336841 0.00834087 0.854537
0.335783 0.00838325 0.856221
0.335146 0.00843317 0.859158
0.334573 0.00848417 0.862305
0.334214 0.00853822 0.866122
0.333896 0.00859429 0.870093
0.333483 0.00864886 0.873815
0.33343 0.0102826 0.878452
0.332758 0.00869886 0.87663
0.386516 0.00555981 0.836734
0.385238 0.00559716 0.837736
0.383986 0.00563549 0.838807
0.382593 0.00567309 0.839528
0.381137 0.00570979 0.840094
0.379644 0.0057466 0.840565
0.378014 0.00578197 0.840689
0.376202 0.00581606 0.840344
0.374299 0.00584985 0.839756
0.37232 0.00588314 0.838962
0.370363 0.00591607 0.838211
0.368564 0.00594967 0.837854
0.366919 0.00598475 0.837888
0.365281 0.00601951 0.837935
0.363637 0.00605468 0.837959
0.36189 0.00608781 0.837705
0.360042 0.006121 0.837171
0.35826 0.00615428 0.836805
0.356423 0.00618731 0.83628
0.354689 0.00622125 0.836019
0.353113 0.00625559 0.836178
0.351714 0.00629251 0.836814
0.350339 0.00632888 0.837517
0.349219 0.00636819 0.838919
0.348156 0.00640711 0.84049
0.347098 0.00644681 0.842084
0.346038 0.00648741 0.84368
0.344999 0.00652714 0.845347
0.343837 0.00656641 0.846675
0.342601 0.00660427 0.847802
0.341448 0.00664381 0.849168
0.340243 0.00668243 0.850395
0.339018 0.00672137 0.85157
0.337781 0.00675916 0.852714
0.336678 0.00679922 0.854257
0.335589 0.00683983 0.855848
0.334856 0.00688442 0.858497
0.334179 0.00692999 0.861338
0.333707 0.00697763 0.864814
0.333314 0.00702736 0.868553
0.332857 0.00707605 0.872138
0.332111 0.00712208 0.874879
0.387654 0.00552127 0.835393
0.387165 0.00397177 0.834327
0.385953 0.00400923 0.835481
0.384615 0.00404689 0.836331
0.383327 0.00408415 0.837308
0.381878 0.00412082 0.837884
0.380384 0.00415778 0.838347
0.378854 0.00419468 0.838716
0.377185 0.00423075 0.838734
0.375411 0.0042667 0.838477
0.373585 0.00430305 0.838077
0.37169 0.00433859 0.837493
0.369812 0.00437435 0.836936
0.368113 0.00441 0.836835
0.366506 0.00444581 0.836964
0.364905 0.0044819 0.837102
0.363298 0.00451796 0.837221
0.36161 0.00455363 0.837121
0.35983 0.00458915 0.836767
0.358114 0.00462499 0.836574
0.356321 0.00465964 0.836166
0.354619 0.00469472 0.835993
0.353076 0.00473089 0.836241
0.351679 0.00476791 0.836883
0.350311 0.00480416 0.837606
0.349219 0.00484158 0.83909
0.348155 0.00487982 0.84066
0.347066 0.00491791 0.842168
0.346004 0.00495631 0.843759
0.344939 0.00499447 0.845354
0.343741 0.00503195 0.846585
0.342502 0.00506933 0.847702
0.341315 0.00510702 0.848972
0.340079 0.00514464 0.850109
0.338853 0.00518202 0.851281
0.337616 0.00522038 0.852428
0.336516 0.00525853 0.853976
0.335427 0.00529717 0.855567
0.33457 0.00533729 0.857852
0.33379 0.00537865 0.860384
0.333148 0.00542027 0.86335
0.33259 0.00546311 0.86659
0.332 0.00550622 0.869763
0.331212 0.00554831 0.872365
0.331415 0.00716839 0.87779
0.330459 0.00559043 0.875094
0.387877 0.00238932 0.832087
0.386592 0.00242651 0.833055
0.385283 0.00246266 0.833968
0.383888 0.0024997 0.834671
0.382514 0.00253674 0.835424
0.380966 0.00257386 0.835748
0.379442 0.00261103 0.836126
0.377881 0.00264857 0.836408
0.376253 0.00268657 0.836518
0.374561 0.00272356 0.836458
0.372856 0.00276052 0.836359
0.371055 0.00279869 0.836008
0.369285 0.00283633 0.835726
0.367632 0.00287297 0.835737
0.366061 0.00291054 0.835954
0.364466 0.00294763 0.836105
0.362892 0.00298454 0.836305
0.361206 0.00302087 0.836206
0.359457 0.00305868 0.835933
0.357747 0.00309536 0.835752
0.356022 0.00313182 0.835522
0.354359 0.00316844 0.835452
0.352914 0.00320578 0.835965
0.351552 0.00324146 0.836704
0.350216 0.00327817 0.837513
0.349122 0.00331436 0.838992
0.348055 0.00335112 0.840552
0.346934 0.00338707 0.841972
0.345871 0.00342447 0.843564
0.344806 0.00346067 0.845158
0.343608 0.00349716 0.846388
0.342398 0.00353348 0.847589
0.34121 0.00357034 0.848858
0.339974 0.00360698 0.849995
0.338746 0.00364427 0.851161
0.337509 0.00368107 0.852305
0.33638 0.00371869 0.853773
0.335263 0.00375553 0.855279
0.33431 0.003793 0.857286
0.33346 0.00383019 0.859605
0.332661 0.00386773 0.8621
0.331939 0.00390637 0.864843
0.331222 0.00394396 0.867623
0.330332 0.00398209 0.869906
0.32946 0.00402114 0.872257
0.329752 0.00563328 0.877984
0.328691 0.00405963 0.874946
0.389237 0.00235331 0.831304
0.39019 0.000774531 0.829664
0.388598 0.000812766 0.829882
0.387172 0.000849199 0.8305
0.385801 0.000886424 0.831249
0.384433 0.000922719 0.832011
0.382954 0.000960464 0.832497
0.381499 0.000997819 0.833041
0.37988 0.00103606 0.833175
0.378292 0.00107347 0.833381
0.376666 0.00111238 0.83349
0.375047 0.00115045 0.833609
0.373437 0.00118861 0.833745
0.37183 0.00122641 0.833883
0.370151 0.00126519 0.833831
0.368528 0.00130359 0.833919
0.366975 0.00134089 0.834181
0.365413 0.00137868 0.834415
0.363857 0.00141588 0.834664
0.362313 0.00145411 0.834937
0.360633 0.00149187 0.834846
0.358916 0.00153028 0.83465
0.357277 0.00156854 0.834654
0.355651 0.00160623 0.834686
0.354061 0.00164426 0.83481
0.352743 0.00168027 0.835667
0.35142 0.00171556 0.836509
0.350116 0.00175213 0.837408
0.34899 0.00178747 0.838797
0.347916 0.00182183 0.84034
0.346761 0.00185779 0.841665
0.345669 0.00189215 0.843173
0.344601 0.0019277 0.844759
0.343438 0.00196301 0.846086
0.342262 0.00199805 0.847384
0.341082 0.00203432 0.848676
0.339875 0.00206976 0.849897
0.338642 0.00210617 0.85105
0.337404 0.00214228 0.852192
0.336217 0.00217747 0.853489
0.335067 0.00221329 0.854899
0.33402 0.00224893 0.856627
0.333126 0.00228421 0.858817
0.332265 0.00231908 0.861122
0.331425 0.00235384 0.863509
0.330609 0.00238839 0.865983
0.329674 0.00242393 0.86812
0.328675 0.00245941 0.870079
0.327751 0.00249575 0.87228
0.389538 -0.000762762 0.828216
0.387883 -0.000722861 0.828275
0.386312 -0.000683713 0.828534
0.384879 -0.000646968 0.829124
0.383398 -0.000609499 0.829597
0.381834 -0.00057079 0.829864
0.380237 -0.000531195 0.830043
0.378546 -0.000491418 0.829984
0.376894 -0.000451359 0.830016
0.37527 -0.000413054 0.830113
0.373693 -0.000374086 0.830323
0.372156 -0.000335705 0.830629
0.370634 -0.000297929 0.83097
0.369066 -0.00025903 0.831191
0.367549 -0.000220981 0.831541
0.366072 -0.000184325 0.831987
0.364547 -0.000146088 0.83231
0.363058 -0.000108081 0.832722
0.361555 -7.08694e-05 0.833094
0.359942 -3.14739e-05 0.833174
0.3583 7.43578e-06 0.833168
0.356729 4.57862e-05 0.833348
0.355174 8.37613e-05 0.833566
0.353686 0.000121185 0.833958
0.352417 0.000156844 0.834943
0.351161 0.000192103 0.835969
0.349922 0.000226148 0.837042
0.348793 0.000260696 0.838423
0.347718 0.000293806 0.839961
0.346555 0.000328099 0.841265
0.345433 0.000361678 0.842689
0.344364 0.000394686 0.844271
0.343234 0.000428747 0.845688
0.342066 0.000463173 0.84701
0.340895 0.000497708 0.848325
0.339722 0.000532148 0.849642
0.338487 0.000567335 0.85079
0.337245 0.000603225 0.85192
0.336025 0.00063825 0.853122
0.334867 0.000672262 0.854511
0.333755 0.00070645 0.856042
0.332827 0.0007389 0.858127
0.331934 0.000771481 0.860337
0.331038 0.000803717 0.862552
0.330158 0.000836228 0.864833
0.329184 0.00086988 0.866844
0.328084 0.000903776 0.868488
0.326971 0.00093827 0.870104
0.390149 -0.00232923 0.825769
0.388461 -0.00228807 0.825745
0.386744 -0.00224642 0.825642
0.385149 -0.00220603 0.825829
0.383663 -0.00216818 0.826279
0.382167 -0.00212995 0.826702
0.380616 -0.00209083 0.826988
0.378984 -0.0020505 0.827067
0.377228 -0.0020079 0.826832
0.375539 -0.00196651 0.826759
0.373885 -0.00192587 0.826763
0.372337 -0.00188756 0.82703
0.370805 -0.00184846 0.827336
0.369318 -0.00181035 0.827752
0.367823 -0.00177233 0.828144
0.366352 -0.001735 0.828596
0.364916 -0.00169815 0.829139
0.363463 -0.00166062 0.829633
0.362045 -0.00162303 0.830221
0.360553 -0.00158511 0.830611
0.359016 -0.00154692 0.830879
0.357448 -0.00150709 0.831061
0.355951 -0.00146978 0.831428
0.354505 -0.00143272 0.831929
0.353153 -0.00139654 0.832681
0.351957 -0.00136259 0.833859
0.350771 -0.00132969 0.83507
0.349595 -0.00129672 0.836314
0.348439 -0.00126302 0.837617
0.347364 -0.00123175 0.839154
0.346202 -0.00119833 0.840456
0.345077 -0.00116596 0.841868
0.344009 -0.00113411 0.84345
0.342907 -0.00110236 0.844945
0.341776 -0.00106956 0.846366
0.340638 -0.00103672 0.847775
0.339498 -0.00100398 0.849186
0.338293 -0.000970137 0.850418
0.337081 -0.000935571 0.851634
0.33586 -0.000902085 0.852833
0.334729 -0.000869208 0.8543
0.333581 -0.000835545 0.855725
0.332652 -0.000805902 0.857808
0.331729 -0.000775925 0.859925
0.330778 -0.000745233 0.861975
0.329837 -0.000714692 0.864068
0.328824 -0.000683206 0.865964
0.327636 -0.000649018 0.867333
0.326345 -0.000614369 0.868396
0.387145 -0.00380065 0.822695
0.385447 -0.00375773 0.822624
0.383838 -0.00371706 0.822764
0.38226 -0.00367607 0.822975
0.380741 -0.00363711 0.823328
0.379169 -0.00359656 0.823546
0.37754 -0.00355532 0.823616
0.375788 -0.00351173 0.823378
0.374104 -0.00346973 0.823297
0.372462 -0.0034281 0.823317
0.370948 -0.00338887 0.823656
0.369422 -0.00335005 0.82396
0.367933 -0.00331093 0.824355
0.366506 -0.00327414 0.824908
0.36508 -0.00323737 0.825461
0.36369 -0.00320038 0.826106
0.362309 -0.00316417 0.826775
0.360959 -0.0031292 0.827527
0.359481 -0.00309047 0.827941
0.358018 -0.00305291 0.828393
0.356525 -0.00301399 0.828761
0.355075 -0.00297629 0.829243
0.353699 -0.00294089 0.829923
0.35242 -0.00290603 0.830865
0.351264 -0.00287506 0.832143
0.350148 -0.00284394 0.833534
0.349035 -0.00281232 0.834944
0.347887 -0.0027808 0.836266
0.346844 -0.00275164 0.837885
0.345715 -0.0027209 0.839272
0.344562 -0.0026888 0.840602
0.343495 -0.00265867 0.842182
0.342422 -0.00262812 0.843754
0.34135 -0.00259783 0.845336
0.340275 -0.00256762 0.846921
0.339226 -0.00253853 0.848591
0.338087 -0.00250678 0.850009
0.336939 -0.00247458 0.851413
0.335695 -0.00244144 0.852543
0.334596 -0.00240992 0.854103
0.33345 -0.00237844 0.855535
0.332523 -0.00235097 0.857626
0.3316 -0.00232312 0.859743
0.330643 -0.00229469 0.861776
0.32964 -0.00226625 0.863682
0.328595 -0.00223665 0.86548
0.327349 -0.00220224 0.866673
0.325972 -0.00216621 0.867467
0.385674 -0.00529838 0.81927
0.384069 -0.0052568 0.819408
0.382483 -0.00521553 0.819591
0.380721 -0.00516999 0.819337
0.379133 -0.00512854 0.819503
0.377526 -0.00508668 0.819617
0.375908 -0.00504486 0.819698
0.374197 -0.0050002 0.819543
0.372563 -0.00495707 0.81957
0.370966 -0.00491575 0.819688
0.36947 -0.00487733 0.820053
0.36795 -0.004837 0.820357
0.366466 -0.0047987 0.820747
0.365077 -0.00476232 0.82138
0.363662 -0.00472512 0.821945
0.362319 -0.00468946 0.822696
0.361006 -0.00465573 0.823528
0.359731 -0.00462183 0.824459
0.358294 -0.00458442 0.824967
0.356933 -0.0045481 0.825676
0.355507 -0.00451092 0.82621
0.354096 -0.00447409 0.826783
0.35276 -0.00443944 0.82756
0.351548 -0.00440756 0.828671
0.35037 -0.00437585 0.829878
0.349284 -0.00434683 0.831344
0.348204 -0.00431788 0.832832
0.347063 -0.00428794 0.834162
0.346027 -0.00426079 0.835791
0.34493 -0.00423119 0.837261
0.343752 -0.00420054 0.838508
0.342685 -0.00417112 0.840078
0.341616 -0.00414307 0.841651
0.340575 -0.00411545 0.843312
0.339567 -0.00408824 0.84508
0.338649 -0.00406391 0.847118
0.33764 -0.00403649 0.848909
0.336622 -0.004009 0.850682
0.335444 -0.00397784 0.852004
0.334436 -0.00395096 0.853831
0.333328 -0.0039218 0.855375
0.332377 -0.00389525 0.857394
0.331453 -0.00387063 0.859506
0.330485 -0.00384438 0.861507
0.329448 -0.00381692 0.86331
0.328401 -0.0037884 0.865101
0.327184 -0.0037566 0.866382
0.325809 -0.0037206 0.867183
0.384508 -0.00679385 0.816579
0.382793 -0.00674822 0.816442
0.38118 -0.00670537 0.816544
0.379229 -0.00665247 0.815814
0.377498 -0.00660593 0.815611
0.375821 -0.00656102 0.815534
0.374181 -0.00651708 0.815543
0.372517 -0.0064726 0.815484
0.37094 -0.00643031 0.815637
0.369452 -0.00639169 0.816011
0.368036 -0.00635459 0.816562
0.366589 -0.00631601 0.817035
0.365147 -0.00627809 0.817518
0.36383 -0.00624401 0.818319
0.362425 -0.00620634 0.818897
0.361089 -0.00617198 0.819653
0.359813 -0.00613835 0.820564
0.358544 -0.00610544 0.821499
0.357115 -0.00606851 0.822013
0.355795 -0.00603336 0.822815
0.354405 -0.00599715 0.823434
0.352999 -0.00596002 0.824009
0.351691 -0.00592641 0.824847
0.350509 -0.00589576 0.826025
0.349301 -0.00586471 0.82714
0.348246 -0.0058382 0.828676
0.347199 -0.00581225 0.830243
0.346062 -0.00578324 0.831571
0.345031 -0.00575679 0.833202
0.343966 -0.00573029 0.834746
0.342788 -0.00569981 0.835986
0.341694 -0.00567281 0.837466
0.340622 -0.0056457 0.839017
0.33959 -0.00561986 0.840694
0.338625 -0.00559611 0.842571
0.337816 -0.00557708 0.844909
0.336973 -0.00555615 0.847168
0.336091 -0.0055355 0.84933
0.335069 -0.0055102 0.851099
0.334183 -0.00548887 0.853281
0.333137 -0.00546188 0.855006
0.33219 -0.00543951 0.857039
0.331291 -0.00541754 0.859226
0.330321 -0.00539407 0.861219
0.329254 -0.0053667 0.862931
0.328207 -0.00534072 0.86472
0.327019 -0.00531051 0.866088
0.325674 -0.00527517 0.866984
0.380845 -0.00820709 0.811842
0.379889 -0.00818458 0.813525
0.377825 -0.00812627 0.812505
0.375983 -0.00807395 0.812015
0.37421 -0.0080247 0.811684
0.372609 -0.00798091 0.811771
0.370997 -0.00793703 0.811824
0.369525 -0.00789721 0.812225
0.368122 -0.00786042 0.812794
0.36678 -0.00782584 0.81352
0.365379 -0.00778896 0.814094
0.363947 -0.00775043 0.81459
0.362605 -0.00771568 0.815315
0.361173 -0.00767801 0.815809
0.359805 -0.00764158 0.816467
0.358503 -0.00760855 0.817297
0.357264 -0.00757687 0.818293
0.355875 -0.00754027 0.8189
0.354595 -0.00750783 0.819792
0.353243 -0.0074719 0.820498
0.35187 -0.00743646 0.821144
0.350589 -0.00740358 0.82204
0.349437 -0.00737546 0.823289
0.348265 -0.00734619 0.824488
0.347214 -0.00732077 0.826022
0.346162 -0.00729631 0.827565
0.345022 -0.00726853 0.828872
0.343964 -0.00724349 0.830414
0.342873 -0.00721731 0.831875
0.341696 -0.00718799 0.8331
0.340598 -0.0071618 0.834557
0.339499 -0.00713469 0.836016
0.33847 -0.00711132 0.837686
0.337541 -0.00709107 0.839653
0.336775 -0.0070755 0.8421
0.336011 -0.00706167 0.844575
0.335262 -0.00704696 0.847112
0.334404 -0.00702911 0.84935
0.333649 -0.0070155 0.851908
0.332726 -0.00699534 0.85399
0.331865 -0.00697763 0.856271
0.330995 -0.00695881 0.858542
0.330053 -0.00693834 0.860619
0.328993 -0.00691409 0.862351
0.327977 -0.00689075 0.864233
0.326821 -0.00686333 0.865697
0.325537 -0.00683067 0.866778
0.390517 -0.00831149 0.748733
0.39134 -0.00975657 0.747171
0.389866 -0.00971566 0.747399
0.389055 -0.00827197 0.748988
0.388407 -0.00967551 0.747655
0.374343 -0.00788297 0.754747
0.374879 -0.00931524 0.752488
0.373787 -0.00928861 0.753566
0.373104 -0.00785152 0.755491
0.372578 -0.00925842 0.754379
0.371696 -0.00781324 0.755846
0.37127 -0.00922348 0.754961
0.370302 -0.00777629 0.756232
0.369936 -0.00918785 0.755483
0.368784 -0.00915944 0.75643
0.378235 -0.00964045 0.80962
0.376745 -0.00960077 0.809987
0.374804 -0.00954262 0.809242
0.372971 -0.00948883 0.80875
0.371341 -0.00944318 0.808754
0.36977 -0.00940007 0.808896
0.368309 -0.00936078 0.80931
0.366949 -0.00932481 0.809975
0.365612 -0.00929048 0.810699
0.364252 -0.00925481 0.811366
0.362856 -0.00921751 0.811941
0.361517 -0.00918327 0.812661
0.360084 -0.00914474 0.813141
0.358681 -0.00910699 0.813694
0.357313 -0.00907199 0.814339
0.356041 -0.00903922 0.815238
0.354689 -0.00900469 0.815924
0.353449 -0.00897371 0.81691
0.352143 -0.00893949 0.817725
0.350831 -0.00890668 0.818524
0.349558 -0.00887425 0.819427
0.348412 -0.00884683 0.820678
0.347249 -0.00881919 0.82189
0.346232 -0.00879678 0.823505
0.345182 -0.00877364 0.82504
0.344069 -0.00874847 0.826413
0.342981 -0.00872349 0.827857
0.34186 -0.00869768 0.829222
0.340652 -0.00866746 0.83035
0.339525 -0.00864134 0.83171
0.338396 -0.00861562 0.833073
0.337334 -0.00859227 0.834631
0.336402 -0.00857381 0.836574
0.335601 -0.00856078 0.838907
0.334811 -0.00854826 0.841291
0.334102 -0.00853854 0.843927
0.333322 -0.00852616 0.846377
0.332644 -0.00851901 0.849147
0.33188 -0.00850747 0.851687
0.331168 -0.00849855 0.854402
0.330421 -0.00848788 0.857033
0.329606 -0.00847517 0.85948
0.328637 -0.00845623 0.861485
0.327686 -0.00843749 0.863558
0.326587 -0.00841297 0.865194
0.325369 -0.00838467 0.866479
0.406481 -0.0102032 0.752255
0.407947 -0.0102426 0.751949
0.407286 -0.0116629 0.750645
0.405817 -0.0116226 0.750938
0.404916 -0.0101594 0.752347
0.404279 -0.0115786 0.751083
0.403198 -0.0101097 0.752111
0.402526 -0.0115262 0.750769
0.401205 -0.0100508 0.751284
0.400537 -0.0114639 0.749944
0.399152 -0.00998883 0.750315
0.398461 -0.0113989 0.748921
0.397019 -0.00992456 0.749162
0.396336 -0.0113307 0.747778
0.394941 -0.00986197 0.74811
0.394267 -0.0112659 0.746743
0.392964 -0.00980262 0.747262
0.392305 -0.0112044 0.745922
0.39069 -0.0111575 0.745843
0.389223 -0.0111166 0.746083
0.387766 -0.0110755 0.746338
0.387007 -0.00963798 0.748041
0.386398 -0.0110388 0.746788
0.385568 -0.00959842 0.748336
0.384993 -0.0110003 0.747155
0.38413 -0.00955933 0.748633
0.383561 -0.0109607 0.747459
0.382733 -0.00952172 0.749017
0.382162 -0.0109229 0.747835
0.381345 -0.00948417 0.749418
0.38081 -0.010886 0.748313
0.379925 -0.00944562 0.749747
0.379392 -0.0108478 0.748642
0.378558 -0.00940938 0.750193
0.377969 -0.0108082 0.748957
0.377285 -0.00937624 0.750852
0.376627 -0.0107724 0.749452
0.376029 -0.00934314 0.751547
0.375331 -0.0107379 0.750053
0.374117 -0.0107073 0.750842
0.373032 -0.0106822 0.751928
0.371908 -0.0106553 0.752931
0.370707 -0.0106256 0.753757
0.369464 -0.0105938 0.754486
0.368446 -0.0105713 0.755744
0.375663 -0.0110668 0.807466
0.373726 -0.0110064 0.806718
0.371933 -0.0109531 0.806313
0.370346 -0.0109071 0.806412
0.368811 -0.0108643 0.806634
0.367351 -0.0108242 0.807041
0.365988 -0.0107889 0.807689
0.364626 -0.010753 0.80834
0.363266 -0.0107181 0.808996
0.361872 -0.0106811 0.809565
0.360503 -0.0106442 0.810197
0.359035 -0.0106045 0.810573
0.357597 -0.0105659 0.811025
0.356192 -0.0105282 0.811563
0.354891 -0.0104945 0.812371
0.353574 -0.010461 0.813137
0.352346 -0.0104316 0.814143
0.351081 -0.0103997 0.815051
0.349811 -0.0103681 0.81595
0.348575 -0.0103382 0.816942
0.347467 -0.0103139 0.818286
0.346345 -0.0102889 0.819596
0.345308 -0.010267 0.821147
0.344258 -0.0102454 0.822671
0.343144 -0.0102209 0.824027
0.342026 -0.0101967 0.825379
0.340908 -0.0101717 0.82674
0.339726 -0.0101443 0.827928
0.338598 -0.0101185 0.829274
0.33747 -0.0100937 0.830628
0.336349 -0.010069 0.83201
0.335346 -0.0100498 0.833735
0.334437 -0.0100346 0.835743
0.333571 -0.0100224 0.837889
0.332796 -0.010013 0.840319
0.332051 -0.0100054 0.842853
0.331393 -0.0100024 0.845665
0.330732 -0.00999852 0.848489
0.330099 -0.00999681 0.851421
0.329481 -0.00999621 0.854423
0.328826 -0.00999341 0.857345
0.328041 -0.00998513 0.859894
0.327248 -0.00997652 0.862437
0.326298 -0.00995979 0.864525
0.3252 -0.00993767 0.866173
0.40643 -0.0130696 0.748933
0.404931 -0.0130271 0.749157
0.403391 -0.0129826 0.749291
0.401579 -0.012926 0.748842
0.399598 -0.0128617 0.748028
0.39753 -0.0127938 0.747016
0.395485 -0.0127261 0.746037
0.393499 -0.0126616 0.74517
0.391648 -0.0126024 0.744585
0.39011 -0.0125579 0.744669
0.388711 -0.0125189 0.745052
0.387256 -0.012478 0.745307
0.385888 -0.0124411 0.745755
0.384454 -0.0124004 0.746053
0.383023 -0.0123605 0.746355
0.381568 -0.0123185 0.746601
0.380207 -0.0122817 0.747054
0.378754 -0.012241 0.747301
0.377327 -0.0122002 0.747601
0.375925 -0.0121614 0.747955
0.374626 -0.0121279 0.748543
0.373406 -0.0120971 0.749311
0.372326 -0.0120726 0.750405
0.371215 -0.0120474 0.751428
0.370122 -0.0120228 0.752499
0.368951 -0.0119942 0.753393
0.368004 -0.0119763 0.754813
0.367155 -0.0119625 0.756475
0.366911 -0.0105481 0.759467
0.366555 -0.0119606 0.758735
0.372862 -0.0124721 0.804719
0.371111 -0.0124186 0.804411
0.369532 -0.0123725 0.80452
0.368001 -0.012329 0.804743
0.36654 -0.0122886 0.80514
0.365142 -0.0122512 0.805692
0.363715 -0.0122126 0.806168
0.362317 -0.012175 0.806719
0.360893 -0.0121356 0.807202
0.359498 -0.0120988 0.807756
0.358009 -0.0120569 0.808067
0.3566 -0.012019 0.808582
0.355134 -0.0119783 0.80895
0.353832 -0.0119455 0.809742
0.352548 -0.0119135 0.810583
0.351359 -0.0118858 0.811679
0.350134 -0.0118573 0.812682
0.348959 -0.0118297 0.813825
0.347758 -0.0118027 0.814903
0.346661 -0.0117795 0.816264
0.345567 -0.0117569 0.817644
0.344502 -0.0117356 0.819109
0.343453 -0.011715 0.820625
0.342345 -0.0116921 0.821988
0.34123 -0.0116691 0.82334
0.340113 -0.0116454 0.824695
0.338991 -0.011622 0.82604
0.337868 -0.0115986 0.827393
0.336747 -0.0115744 0.828756
0.335593 -0.0115502 0.830036
0.334523 -0.0115288 0.83156
0.333483 -0.0115092 0.83318
0.332507 -0.0114932 0.834998
0.331625 -0.0114822 0.8371
0.330809 -0.0114744 0.839413
0.330092 -0.0114718 0.842031
0.329436 -0.0114724 0.844855
0.328845 -0.0114762 0.847895
0.328252 -0.011481 0.850954
0.327728 -0.0114881 0.854246
0.327166 -0.0114942 0.857452
0.326564 -0.0114988 0.86057
0.325783 -0.0114935 0.863163
0.407087 -0.0145152 0.747028
0.40559 -0.0144719 0.747253
0.404007 -0.0144248 0.747294
0.402396 -0.0143763 0.74727
0.400615 -0.014319 0.746882
0.398669 -0.0142528 0.746133
0.396646 -0.014184 0.745208
0.394682 -0.0141174 0.744397
0.392776 -0.014054 0.743697
0.39097 -0.0139948 0.743201
0.389467 -0.013951 0.743355
0.388072 -0.0139119 0.743742
0.386618 -0.0138703 0.743998
0.385285 -0.013834 0.744515
0.383859 -0.0137938 0.744827
0.382431 -0.0137534 0.745131
0.380941 -0.0137101 0.745295
0.379537 -0.0136706 0.745646
0.378018 -0.0136245 0.745737
0.376559 -0.013583 0.745959
0.375132 -0.0135422 0.746251
0.373833 -0.0135078 0.746831
0.372614 -0.0134774 0.747594
0.371536 -0.0134545 0.748683
0.370458 -0.0134313 0.749779
0.369434 -0.0134103 0.751005
0.368369 -0.013388 0.752138
0.367539 -0.0133776 0.75383
0.366801 -0.0133717 0.755748
0.366234 -0.0133743 0.758083
0.366038 -0.011963 0.761209
0.365694 -0.0133787 0.760501
0.370354 -0.0138805 0.802668
0.368818 -0.0138359 0.802877
0.367294 -0.0137922 0.80311
0.365863 -0.0137529 0.803574
0.364398 -0.0137116 0.803951
0.362902 -0.013669 0.804245
0.361437 -0.0136277 0.804615
0.359979 -0.0135874 0.805002
0.35853 -0.0135472 0.805409
0.357018 -0.0135026 0.80565
0.355616 -0.0134651 0.806172
0.354155 -0.0134237 0.806539
0.352889 -0.013393 0.807417
0.351642 -0.013363 0.808345
0.350515 -0.0133403 0.809596
0.349353 -0.0133152 0.810757
0.348242 -0.0132918 0.812063
0.347049 -0.0132652 0.813154
0.345948 -0.0132434 0.814498
0.344878 -0.0132237 0.815932
0.34378 -0.0132022 0.817299
0.342702 -0.0131815 0.81873
0.341591 -0.0131602 0.820076
0.340483 -0.0131379 0.821437
0.339345 -0.0131146 0.822723
0.338262 -0.0130936 0.824171
0.337175 -0.0130736 0.825614
0.336086 -0.0130532 0.827062
0.334941 -0.0130293 0.828356
0.33384 -0.0130087 0.829788
0.33268 -0.0129838 0.831053
0.331576 -0.0129634 0.832488
0.330565 -0.0129473 0.834202
0.329649 -0.0129362 0.836208
0.328827 -0.012931 0.838505
0.328158 -0.0129353 0.841271
0.327556 -0.0129422 0.844258
0.326935 -0.0129487 0.847214
0.326419 -0.012961 0.850517
0.325908 -0.0129748 0.853859
0.325476 -0.0129923 0.85747
0.324869 -0.0130004 0.86058
0.408181 -0.0159802 0.74604
0.406595 -0.0159317 0.746079
0.405017 -0.0158827 0.746132
0.40334 -0.015829 0.745971
0.401617 -0.0157732 0.745705
0.399837 -0.0157145 0.745313
0.397863 -0.0156447 0.744499
0.395844 -0.0155733 0.743576
0.393893 -0.0155043 0.742785
0.392024 -0.0154405 0.74216
0.390254 -0.0153818 0.741737
0.388789 -0.015338 0.741969
0.387399 -0.0152989 0.74236
0.385948 -0.0152566 0.742616
0.384586 -0.0152189 0.743063
0.383156 -0.0151776 0.743361
0.381703 -0.0151354 0.743605
0.380181 -0.0150892 0.74369
0.378746 -0.0150477 0.743966
0.377217 -0.015001 0.744028
0.37573 -0.0149563 0.74418
0.374281 -0.0149132 0.744413
0.37299 -0.0148797 0.745003
0.371804 -0.0148509 0.745835
0.370722 -0.0148286 0.746909
0.369678 -0.0148084 0.748076
0.368714 -0.0147922 0.749433
0.367778 -0.0147776 0.750863
0.366973 -0.0147702 0.752609
0.366245 -0.0147674 0.754545
0.365707 -0.0147748 0.756946
0.365205 -0.014784 0.759447
0.369597 -0.0153383 0.800924
0.368066 -0.0152926 0.801137
0.366542 -0.0152484 0.801365
0.365086 -0.0152069 0.801758
0.363596 -0.0151632 0.802063
0.362068 -0.0151189 0.802269
0.360564 -0.0150747 0.802532
0.3591 -0.0150332 0.802891
0.357654 -0.0149922 0.803297
0.35615 -0.0149476 0.803549
0.354786 -0.0149118 0.804161
0.35336 -0.0148718 0.80461
0.35213 -0.0148438 0.805573
0.350918 -0.0148166 0.806585
0.349835 -0.0147964 0.807945
0.348709 -0.0147748 0.809195
0.347629 -0.0147546 0.810577
0.346435 -0.0147287 0.811658
0.345302 -0.0147065 0.81291
0.344202 -0.0146862 0.814256
0.343066 -0.0146633 0.815512
0.341985 -0.0146438 0.816923
0.340845 -0.014621 0.818183
0.33974 -0.0146013 0.819545
0.338605 -0.014579 0.820829
0.337554 -0.0145613 0.822359
0.336447 -0.0145415 0.823738
0.335396 -0.0145245 0.825283
0.334282 -0.0145037 0.826659
0.333215 -0.0144858 0.828176
0.332033 -0.0144615 0.829373
0.330929 -0.0144412 0.830802
0.329828 -0.0144216 0.832249
0.328791 -0.0144067 0.833888
0.327841 -0.014396 0.835794
0.327064 -0.0143965 0.838231
0.326359 -0.0144018 0.840895
0.325691 -0.0144096 0.843696
0.325164 -0.0144253 0.846945
0.324645 -0.0144429 0.850244
0.324202 -0.0144653 0.853805
0.32359 -0.0144771 0.856884
0.409627 -0.0174634 0.745779
0.407935 -0.0174078 0.745604
0.406249 -0.0173523 0.745435
0.404555 -0.0172961 0.745242
0.402789 -0.0172359 0.744892
0.400917 -0.0171699 0.744308
0.399136 -0.0171091 0.743908
0.397161 -0.0170372 0.743086
0.39518 -0.0169648 0.742239
0.393232 -0.0168934 0.74145
0.391402 -0.0168294 0.740901
0.389629 -0.0167682 0.740469
0.388164 -0.0167247 0.740694
0.386745 -0.0166836 0.741018
0.385297 -0.0166405 0.741275
0.383933 -0.0166018 0.741715
0.382472 -0.0165583 0.741938
0.381018 -0.0165149 0.742173
0.379469 -0.0164662 0.742193
0.378007 -0.0164219 0.742403
0.376481 -0.0163743 0.742463
0.375026 -0.0163308 0.742682
0.373583 -0.0162883 0.742923
0.372328 -0.0162564 0.743589
0.371176 -0.0162298 0.744494
0.370065 -0.0162062 0.745497
0.36902 -0.0161865 0.746654
0.368055 -0.0161722 0.748003
0.367155 -0.0161606 0.749511
0.366361 -0.0161557 0.751277
0.365671 -0.0161581 0.753299
0.365164 -0.0161699 0.755769
0.364659 -0.0161826 0.758259
0.364579 -0.0147875 0.761671
0.364027 -0.0161882 0.760465
0.367343 -0.0167451 0.79947
0.365823 -0.0167003 0.7997
0.364367 -0.0166581 0.800087
0.362849 -0.0166131 0.800313
0.361294 -0.0165646 0.800442
0.359763 -0.0165185 0.800629
0.3583 -0.0164764 0.800983
0.356851 -0.0164349 0.801371
0.355378 -0.0163924 0.801696
0.354049 -0.0163579 0.802391
0.35266 -0.0163203 0.802929
0.351468 -0.0162952 0.803983
0.350295 -0.0162705 0.805092
0.349217 -0.0162526 0.806458
0.348125 -0.0162327 0.807793
0.347051 -0.0162151 0.809183
0.345861 -0.01619 0.810269
0.344698 -0.0161661 0.811432
0.34359 -0.0161468 0.812752
0.342396 -0.0161211 0.813843
0.341288 -0.0161023 0.815175
0.340119 -0.0160788 0.816345
0.339008 -0.0160582 0.817682
0.337869 -0.0160375 0.818948
0.336821 -0.0160213 0.820474
0.335714 -0.0160027 0.821846
0.334693 -0.0159891 0.823468
0.333639 -0.015973 0.825007
0.332586 -0.0159586 0.826557
0.331437 -0.0159363 0.827842
0.330394 -0.0159224 0.829438
0.329297 -0.0159043 0.830887
0.328206 -0.0158866 0.832366
0.327168 -0.0158729 0.834007
0.326267 -0.0158677 0.836064
0.325403 -0.0158658 0.83825
0.324607 -0.0158683 0.840652
0.323982 -0.0158823 0.843592
0.323385 -0.0158989 0.846642
0.322887 -0.0159228 0.850016
0.322278 -0.0159384 0.853082
0.411044 -0.0189473 0.745454
0.409385 -0.0188917 0.745353
0.407652 -0.0188326 0.745092
0.405907 -0.0187721 0.744797
0.404118 -0.0187086 0.744405
0.40223 -0.01864 0.743795
0.400349 -0.0185704 0.743189
0.398538 -0.0185063 0.74272
0.396534 -0.0184295 0.741832
0.394559 -0.0183543 0.740993
0.39261 -0.0182809 0.740197
0.390782 -0.0182142 0.739648
0.389042 -0.0181532 0.739282
0.387582 -0.0181089 0.739514
0.386163 -0.0180671 0.739833
0.384713 -0.018023 0.740083
0.383315 -0.0179833 0.740443
0.381792 -0.0179342 0.740522
0.380333 -0.0178903 0.740741
0.37879 -0.0178401 0.740768
0.377335 -0.0177959 0.740989
0.375821 -0.0177481 0.741072
0.374428 -0.0177076 0.741423
0.373017 -0.0176655 0.741733
0.371769 -0.0176348 0.742411
0.37065 -0.0176109 0.743386
0.369544 -0.0175884 0.744395
0.368465 -0.0175679 0.745472
0.36747 -0.0175515 0.746747
0.366601 -0.017544 0.748321
0.365812 -0.0175424 0.750094
0.365132 -0.0175464 0.752137
0.364626 -0.0175629 0.754603
0.364082 -0.0175768 0.756996
0.363412 -0.0175822 0.759106
0.365045 -0.0181429 0.797889
0.36362 -0.0181029 0.798345
0.362136 -0.0180586 0.798649
0.360589 -0.0180108 0.798793
0.359066 -0.0179637 0.79899
0.357574 -0.0179189 0.799264
0.356096 -0.0178746 0.799571
0.354628 -0.0178319 0.7999
0.353304 -0.0177984 0.800598
0.351924 -0.0177608 0.801153
0.35076 -0.0177375 0.802274
0.349619 -0.0177161 0.803458
0.348546 -0.0176996 0.804831
0.347489 -0.0176832 0.806251
0.346444 -0.0176695 0.807714
0.345282 -0.0176467 0.808869
0.344122 -0.0176242 0.810034
0.343019 -0.0176063 0.811361
0.341826 -0.0175812 0.812449
0.340686 -0.0175606 0.813685
0.339488 -0.0175356 0.814769
0.338348 -0.0175156 0.816018
0.337178 -0.0174929 0.817188
0.336093 -0.0174767 0.818604
0.334981 -0.0174578 0.819953
0.333961 -0.0174462 0.821567
0.33294 -0.0174338 0.823192
0.331921 -0.017423 0.824833
0.330836 -0.0174063 0.826293
0.329857 -0.0173977 0.828069
0.328822 -0.0173862 0.829693
0.327766 -0.0173729 0.83127
0.326731 -0.0173604 0.832911
0.325768 -0.0173534 0.834783
0.324843 -0.0173502 0.836778
0.323902 -0.0173449 0.838743
0.32313 -0.0173522 0.841231
0.322375 -0.017362 0.843789
0.321706 -0.0173768 0.84663
0.320958 -0.0173871 0.849251
0.412785 -0.0190063 0.745717
0.412678 -0.0204453 0.745569
0.410888 -0.0203811 0.745205
0.409189 -0.0203225 0.74502
0.407399 -0.0202575 0.74464
0.40557 -0.0201898 0.744171
0.403667 -0.0201178 0.743538
0.401707 -0.0200416 0.742774
0.399755 -0.0199655 0.742015
0.397914 -0.0198971 0.741478
0.395882 -0.0198156 0.740525
0.393942 -0.0197402 0.739755
0.392 -0.0196647 0.738969
0.390177 -0.0195964 0.738428
0.388444 -0.0195341 0.738071
0.386985 -0.0194886 0.738301
0.385536 -0.0194444 0.73855
0.384117 -0.0194018 0.738862
0.382691 -0.0193592 0.739155
0.381166 -0.01931 0.739226
0.379706 -0.019264 0.739437
0.378191 -0.0192154 0.739522
0.376717 -0.0191694 0.739695
0.375238 -0.0191221 0.739852
0.373853 -0.0190823 0.740218
0.372476 -0.0190418 0.740598
0.371231 -0.0190102 0.741281
0.370116 -0.0189883 0.742262
0.369012 -0.0189657 0.743269
0.367959 -0.0189475 0.744402
0.366933 -0.0189317 0.7456
0.36606 -0.0189254 0.747162
0.365302 -0.018927 0.749003
0.364619 -0.0189342 0.751033
0.364052 -0.0189489 0.753352
0.363442 -0.0189617 0.755583
0.362672 -0.0189635 0.757448
0.362632 -0.0175812 0.760964
0.361828 -0.0189597 0.759146
0.364375 -0.0195875 0.796347
0.362982 -0.0195494 0.796875
0.361498 -0.0195048 0.797176
0.359985 -0.0194574 0.797396
0.358468 -0.0194103 0.797605
0.356983 -0.0193658 0.797891
0.355508 -0.0193216 0.798198
0.35407 -0.0192796 0.798598
0.352722 -0.0192444 0.799229
0.351374 -0.0192087 0.799863
0.350183 -0.0191841 0.800905
0.349008 -0.0191618 0.801995
0.347869 -0.0191415 0.803185
0.346808 -0.0191267 0.804589
0.34574 -0.0191111 0.805982
0.344616 -0.0190928 0.807233
0.343491 -0.0190735 0.808486
0.342445 -0.0190601 0.80996
0.341255 -0.0190366 0.81105
0.340118 -0.0190175 0.812289
0.33892 -0.0189935 0.813365
0.337746 -0.0189711 0.814515
0.336547 -0.0189479 0.815598
0.335431 -0.0189304 0.816921
0.334293 -0.0189106 0.818187
0.333267 -0.0188994 0.819776
0.332248 -0.0188902 0.821399
0.331206 -0.0188785 0.822964
0.330156 -0.0188665 0.824516
0.329205 -0.0188619 0.826366
0.328207 -0.0188533 0.828092
0.327244 -0.0188491 0.82993
0.326274 -0.0188431 0.831759
0.325315 -0.0188389 0.833635
0.324382 -0.0188371 0.835606
0.323436 -0.0188338 0.837551
0.322526 -0.0188338 0.839616
0.321576 -0.0188313 0.841577
0.320741 -0.0188371 0.843898
0.319855 -0.0188398 0.846087
0.414445 -0.0219573 0.745948
0.41257 -0.0218849 0.745419
0.410696 -0.0218129 0.744883
0.408878 -0.0217447 0.744451
0.406981 -0.0216703 0.743849
0.405043 -0.0215938 0.743149
0.403075 -0.0215145 0.742375
0.401084 -0.0214338 0.741542
0.399133 -0.0213555 0.740781
0.397287 -0.0212838 0.740229
0.39526 -0.0212006 0.739282
0.393356 -0.0211243 0.738584
0.391455 -0.0210491 0.737883
0.389671 -0.0209809 0.73742
0.387979 -0.0209199 0.737148
0.386522 -0.0208739 0.737381
0.385044 -0.0208266 0.737562
0.383622 -0.0207836 0.737864
0.382168 -0.0207382 0.738092
0.380619 -0.0206865 0.738105
0.37913 -0.0206384 0.738247
0.377644 -0.0205898 0.738392
0.376169 -0.0205429 0.738558
0.374728 -0.0204982 0.738797
0.373377 -0.0204596 0.739236
0.372033 -0.0204212 0.739689
0.370791 -0.0203898 0.740373
0.369677 -0.0203678 0.741352
0.368569 -0.0203467 0.742349
0.367519 -0.02033 0.743484
0.366491 -0.0203143 0.744675
0.365587 -0.0203077 0.746162
0.364792 -0.0203087 0.747912
0.364075 -0.0203162 0.749857
0.363471 -0.0203309 0.752083
0.362793 -0.0203421 0.754149
0.361987 -0.0203429 0.755921
0.36111 -0.0203396 0.757534
0.362356 -0.0209919 0.795436
0.36091 -0.0209495 0.795824
0.35943 -0.0209041 0.796124
0.357946 -0.0208587 0.796411
0.356462 -0.0208128 0.796694
0.354986 -0.0207678 0.796994
0.353548 -0.020726 0.797389
0.352172 -0.0206878 0.797944
0.350799 -0.0206507 0.798505
0.349575 -0.0206249 0.799457
0.348362 -0.020599 0.800441
0.347185 -0.0205775 0.801522
0.346092 -0.0205616 0.802834
0.344998 -0.0205455 0.804148
0.343908 -0.0205298 0.805483
0.342818 -0.0205145 0.806822
0.341784 -0.0205043 0.808322
0.340627 -0.0204841 0.809494
0.339516 -0.0204675 0.810798
0.338345 -0.0204456 0.811943
0.337174 -0.0204246 0.813094
0.335981 -0.0204025 0.814189
0.334839 -0.0203834 0.815431
0.333696 -0.0203647 0.816676
0.332614 -0.0203509 0.818102
0.331598 -0.0203435 0.819722
0.330554 -0.0203331 0.821274
0.329529 -0.0203246 0.822891
0.328581 -0.0203222 0.824741
0.327672 -0.0203232 0.826719
0.326748 -0.0203233 0.828667
0.325844 -0.0203251 0.830687
0.324946 -0.0203274 0.832738
0.324041 -0.0203304 0.834784
0.323092 -0.0203297 0.836718
0.322175 -0.0203311 0.83876
0.321193 -0.0203279 0.840619
0.320193 -0.0203233 0.84244
0.31919 -0.0203192 0.844259
0.416268 -0.0220255 0.746361
0.418249 -0.0235569 0.747152
0.416281 -0.0234764 0.746455
0.414399 -0.0234023 0.745925
0.412445 -0.0233225 0.745233
0.410426 -0.0232382 0.744399
0.408426 -0.0231549 0.743592
0.406383 -0.0230689 0.742682
0.404398 -0.0229856 0.74188
0.402337 -0.0228971 0.740908
0.400349 -0.0228137 0.740076
0.398468 -0.0227382 0.739455
0.396657 -0.0226673 0.738973
0.394637 -0.0225808 0.738036
0.392803 -0.0225082 0.737484
0.390978 -0.0224351 0.736939
0.389234 -0.0223683 0.736562
0.387577 -0.0223074 0.736362
0.386121 -0.0222612 0.736592
0.384639 -0.0222134 0.736764
0.38322 -0.0221689 0.737069
0.38174 -0.0221216 0.737236
0.380194 -0.0220679 0.737254
0.378701 -0.022019 0.737385
0.377218 -0.0219702 0.737534
0.375744 -0.0219222 0.737699
0.374336 -0.0218792 0.738008
0.373016 -0.0218423 0.738513
0.371705 -0.0218063 0.73904
0.370462 -0.0217754 0.73972
0.369349 -0.0217546 0.7407
0.36824 -0.0217336 0.741691
0.367161 -0.0217147 0.742757
0.366134 -0.0217002 0.743949
0.365204 -0.021693 0.74537
0.364344 -0.0216922 0.746967
0.363558 -0.0216956 0.748746
0.362887 -0.0217088 0.750807
0.362118 -0.0217152 0.752652
0.361306 -0.021718 0.754404
0.360456 -0.0217183 0.756074
0.36077 -0.0203748 0.760453
0.359699 -0.0217253 0.757979
0.361859 -0.0224403 0.79432
0.360447 -0.0224003 0.794791
0.359001 -0.0223571 0.795172
0.357549 -0.0223134 0.795538
0.35607 -0.0222672 0.79583
0.354593 -0.0222213 0.796125
0.35315 -0.022178 0.796503
0.351742 -0.0221377 0.796969
0.350339 -0.0220978 0.797449
0.349056 -0.0220675 0.79824
0.347777 -0.0220375 0.799046
0.346532 -0.0220104 0.79994
0.345404 -0.0219929 0.801153
0.344283 -0.0219756 0.802387
0.343228 -0.0219644 0.803806
0.342172 -0.0219527 0.80523
0.34117 -0.0219465 0.80681
0.340018 -0.0219268 0.80799
0.338914 -0.0219125 0.809307
0.337745 -0.0218924 0.81045
0.336581 -0.0218726 0.811614
0.335388 -0.0218498 0.812702
0.334248 -0.0218329 0.813944
0.33311 -0.0218153 0.815195
0.332027 -0.0218032 0.816611
0.331006 -0.0217961 0.818213
0.329933 -0.0217848 0.819675
0.328906 -0.0217772 0.821277
0.327955 -0.0217768 0.823113
0.327077 -0.021783 0.825173
0.326217 -0.0217911 0.827299
0.32538 -0.0218009 0.82951
0.324548 -0.0218114 0.831754
0.323674 -0.0218196 0.83389
0.322722 -0.0218204 0.835808
0.321774 -0.0218214 0.837756
0.320789 -0.0218202 0.839602
0.319787 -0.0218176 0.841408
0.318837 -0.0218198 0.843391
0.419857 -0.0250672 0.747181
0.418138 -0.0250028 0.746997
0.416206 -0.0249235 0.746373
0.414291 -0.0248439 0.745774
0.412145 -0.0247481 0.744691
0.409949 -0.024647 0.74349
0.407721 -0.024544 0.742209
0.405522 -0.024443 0.740971
0.403431 -0.0243499 0.739943
0.401404 -0.0242611 0.739032
0.399438 -0.0241764 0.738238
0.397633 -0.024104 0.737772
0.395897 -0.0240366 0.737441
0.393947 -0.0239523 0.736647
0.392193 -0.0238834 0.73626
0.390442 -0.0238143 0.73587
0.388739 -0.0237485 0.735576
0.387115 -0.023688 0.735445
0.385659 -0.0236415 0.735672
0.384177 -0.0235922 0.73584
0.382759 -0.0235486 0.736144
0.381275 -0.0234985 0.736299
0.37976 -0.0234469 0.736384
0.378243 -0.0233947 0.736458
0.376789 -0.0233478 0.736666
0.375346 -0.0233012 0.736899
0.373974 -0.0232603 0.737286
0.372664 -0.0232241 0.737811
0.371413 -0.0231926 0.738473
0.370141 -0.0231595 0.739085
0.369022 -0.0231385 0.740049
0.367913 -0.0231183 0.741038
0.366838 -0.0231006 0.742111
0.365817 -0.023088 0.743314
0.364883 -0.0230822 0.744725
0.363962 -0.0230776 0.746175
0.363106 -0.0230777 0.747785
0.362368 -0.0230879 0.749686
0.36154 -0.0230918 0.751386
0.360702 -0.0230948 0.75307
0.359881 -0.023099 0.754806
0.359155 -0.0231113 0.75678
0.359198 -0.0217527 0.76052
0.358236 -0.0231078 0.758301
0.361453 -0.0238935 0.793434
0.360076 -0.0238552 0.793989
0.358638 -0.0238129 0.794387
0.357194 -0.0237688 0.794769
0.355686 -0.0237196 0.794986
0.354179 -0.0236707 0.795198
0.352701 -0.0236236 0.795483
0.351288 -0.0235831 0.795934
0.349884 -0.0235419 0.796406
0.348572 -0.0235098 0.797116
0.347261 -0.0234776 0.797831
0.345982 -0.0234479 0.798632
0.344794 -0.0234252 0.799679
0.343645 -0.0234072 0.800832
0.342588 -0.0233972 0.802238
0.341533 -0.0233863 0.803659
0.340533 -0.0233822 0.805238
0.339412 -0.0233667 0.806494
0.338313 -0.0233524 0.807816
0.337149 -0.0233333 0.80897
0.335987 -0.0233153 0.810131
0.334771 -0.0232912 0.811147
0.333603 -0.0232722 0.812304
0.332459 -0.0232553 0.813533
0.331351 -0.023242 0.814869
0.330334 -0.0232376 0.816473
0.329288 -0.0232294 0.818004
0.32829 -0.0232261 0.819683
0.327341 -0.0232287 0.821518
0.326488 -0.023239 0.823641
0.325657 -0.0232516 0.825846
0.324881 -0.0232699 0.828232
0.324112 -0.0232896 0.830656
0.323278 -0.0233024 0.832905
0.322357 -0.0233088 0.834915
0.321432 -0.0233146 0.836925
0.320446 -0.0233147 0.838766
0.319448 -0.0233148 0.840582
0.318503 -0.02332 0.842577
0.318046 -0.0218365 0.845877
0.317712 -0.0233391 0.845059
0.421338 -0.0265711 0.746947
0.419719 -0.0265128 0.746971
0.417976 -0.026446 0.746737
0.416026 -0.0263615 0.746076
0.413881 -0.0262626 0.745008
0.411485 -0.026143 0.74341
0.409094 -0.026024 0.741805
0.406744 -0.0259077 0.740265
0.404401 -0.0257913 0.738719
0.402347 -0.0256979 0.737759
0.400363 -0.0256094 0.73693
0.398507 -0.0255308 0.736359
0.396782 -0.0254624 0.736053
0.395162 -0.0254023 0.735964
0.393327 -0.0253249 0.735409
0.391647 -0.0252596 0.735175
0.389935 -0.0251916 0.734865
0.38827 -0.0251272 0.734648
0.386652 -0.0250665 0.734526
0.385197 -0.0250189 0.734754
0.383713 -0.0249687 0.734914
0.382295 -0.0249239 0.735214
0.380814 -0.0248739 0.735373
0.379332 -0.0248238 0.735525
0.377815 -0.0247707 0.735596
0.376366 -0.024723 0.735813
0.374958 -0.0246787 0.736121
0.373622 -0.0246402 0.736586
0.372321 -0.0246047 0.737131
0.371106 -0.0245762 0.73787
0.369862 -0.0245454 0.738544
0.368742 -0.0245249 0.739503
0.367632 -0.0245054 0.740491
0.366557 -0.0244889 0.741563
0.365539 -0.0244772 0.742771
0.364547 -0.0244677 0.744043
0.36356 -0.024459 0.745338
0.362636 -0.0244557 0.746784
0.361833 -0.0244628 0.748528
0.360972 -0.0244651 0.750142
0.360167 -0.0244725 0.751901
0.359384 -0.0244819 0.753724
0.358663 -0.024497 0.755708
0.357741 -0.0244951 0.757217
0.359625 -0.0253014 0.792983
0.358218 -0.0252604 0.793458
0.356807 -0.0252196 0.793921
0.355304 -0.0251696 0.794145
0.353796 -0.0251203 0.794354
0.352315 -0.0250722 0.794626
0.350902 -0.025031 0.795072
0.349501 -0.0249907 0.795548
0.348192 -0.0249578 0.796265
0.346882 -0.0249253 0.796978
0.345599 -0.0248958 0.797767
0.344351 -0.024869 0.798649
0.343141 -0.0248455 0.799634
0.342053 -0.024834 0.800954
0.340968 -0.0248223 0.802286
0.339939 -0.0248167 0.803779
0.338818 -0.0248017 0.805031
0.337743 -0.0247912 0.806413
0.336583 -0.0247739 0.80757
0.335424 -0.0247564 0.808734
0.334202 -0.0247331 0.809728
0.333029 -0.0247138 0.810863
0.33183 -0.0246928 0.811931
0.330695 -0.0246779 0.813184
0.329678 -0.0246743 0.81478
0.328641 -0.024669 0.816328
0.327648 -0.0246682 0.818015
0.326731 -0.024675 0.819933
0.325908 -0.0246902 0.822137
0.325101 -0.0247083 0.824407
0.324352 -0.024732 0.826865
0.323619 -0.0247585 0.82939
0.322815 -0.0247771 0.831725
0.321953 -0.0247917 0.833904
0.321036 -0.0248008 0.835934
0.320079 -0.0248059 0.837857
0.319141 -0.024813 0.839854
0.318229 -0.0248235 0.841947
0.317415 -0.024844 0.844353
0.316916 -0.0233587 0.847548
0.316636 -0.0248686 0.846893
0.421127 -0.0280119 0.746591
0.419521 -0.0279536 0.746638
0.417611 -0.0278709 0.746068
0.415451 -0.0277676 0.744978
0.412998 -0.02764 0.743278
0.41037 -0.0274975 0.741199
0.407758 -0.0273557 0.739129
0.405389 -0.0272335 0.737538
0.403094 -0.027117 0.736083
0.40116 -0.0270301 0.735362
0.399294 -0.0269485 0.734771
0.397612 -0.0268819 0.734556
0.396035 -0.0268242 0.734556
0.394533 -0.0267724 0.734708
0.392779 -0.0266995 0.734321
0.391141 -0.0266361 0.734173
0.389461 -0.026569 0.733928
0.387798 -0.0265032 0.733712
0.386182 -0.0264413 0.733592
0.384731 -0.0263931 0.733825
0.383283 -0.0263452 0.734058
0.381805 -0.0262948 0.734226
0.380325 -0.0262439 0.734383
0.378844 -0.026193 0.734533
0.377335 -0.0261394 0.734619
0.375891 -0.0260914 0.734844
0.374543 -0.0260516 0.735281
0.373273 -0.0260187 0.735894
0.37204 -0.0259887 0.736589
0.370864 -0.025964 0.737417
0.369651 -0.025936 0.738161
0.368528 -0.025916 0.739113
0.367417 -0.025897 0.740096
0.366316 -0.025879 0.741106
0.365297 -0.0258682 0.74231
0.364271 -0.0258571 0.743505
0.363247 -0.0258462 0.744708
0.362256 -0.0258383 0.745996
0.361415 -0.0258441 0.747645
0.360556 -0.0258484 0.74926
0.359812 -0.0258633 0.751164
0.359098 -0.0258812 0.75315
0.358386 -0.0258995 0.755154
0.357465 -0.0258991 0.756663
0.357211 -0.0245271 0.75969
0.356546 -0.025899 0.758186
0.359168 -0.0267445 0.791965
0.357765 -0.0267035 0.792445
0.356387 -0.0266645 0.792986
0.354911 -0.0266173 0.793278
0.353404 -0.0265667 0.793484
0.351898 -0.026516 0.793689
0.350488 -0.0264735 0.794139
0.349064 -0.0264302 0.794552
0.347761 -0.026399 0.795278
0.346483 -0.0263699 0.796075
0.345204 -0.0263404 0.796869
0.343926 -0.0263112 0.797666
0.342708 -0.0262881 0.798627
0.341583 -0.0262731 0.799842
0.340441 -0.0262575 0.801017
0.339379 -0.0262492 0.802415
0.338283 -0.0262389 0.803727
0.337184 -0.0262276 0.80504
0.336025 -0.0262106 0.806191
0.334888 -0.0261954 0.807412
0.333665 -0.0261727 0.808397
0.332464 -0.0261513 0.809447
0.331261 -0.0261307 0.810496
0.330093 -0.0261133 0.811651
0.32905 -0.0261093 0.813165
0.328041 -0.0261078 0.814787
0.32709 -0.0261126 0.816586
0.326184 -0.0261228 0.81853
0.325386 -0.026144 0.820802
0.324577 -0.0261639 0.823058
0.323799 -0.0261877 0.825425
0.323066 -0.0262174 0.827943
0.322294 -0.0262419 0.830367
0.321464 -0.0262621 0.832638
0.320602 -0.0262794 0.834829
0.319709 -0.0262936 0.836939
0.318806 -0.0263069 0.83904
0.317926 -0.0263228 0.841224
0.317107 -0.0263457 0.84362
0.316297 -0.0263704 0.846056
0.315936 -0.0249007 0.8497
0.315589 -0.0264062 0.848833
0.31517 -0.0249275 0.85232
0.314793 -0.0264323 0.851358
0.314389 -0.0249536 0.854921
0.314017 -0.0264615 0.853972
0.420543 -0.0294201 0.745486
0.418747 -0.0293449 0.745149
0.416688 -0.029247 0.744271
0.414257 -0.029117 0.742623
0.411606 -0.0289679 0.74051
0.408955 -0.0288181 0.738372
0.406324 -0.0286694 0.736251
0.404053 -0.0285514 0.734852
0.401892 -0.0284423 0.733662
0.400093 -0.0283644 0.733212
0.398347 -0.0282908 0.732864
0.396775 -0.0282322 0.732872
0.39528 -0.0281803 0.733039
0.393859 -0.0281346 0.733357
0.392214 -0.0280692 0.733197
0.39061 -0.0280074 0.733118
0.388955 -0.0279409 0.732924
0.38729 -0.0278733 0.732701
0.385651 -0.0278079 0.732526
