ply
format ascii 1.0
element vertex 1668
property float x
property float y
property float z
end_header
0.247009 -0.100112 0.834508
0.247771 -0.0989861 0.832909
0.248638 -0.0979095 0.831735
0.249564 -0.0968611 0.830801
0.250556 -0.0958428 0.830131
0.251557 -0.0948296 0.8295
0.252538 -0.0938098 0.828799
0.253528 -0.092795 0.828134
0.25451 -0.0917784 0.827442
0.255497 -0.0907657 0.826777
0.256474 -0.0897505 0.826078
0.257491 -0.0887519 0.825535
0.2585 -0.0877512 0.824963
0.25948 -0.0867415 0.824291
0.260575 -0.0857737 0.824041
0.261707 -0.0848191 0.823931
0.263027 -0.0839287 0.824504
0.264288 -0.0830157 0.824853
0.26563 -0.082128 0.825492
0.266901 -0.0812143 0.825866
0.268201 -0.0803083 0.826338
0.269396 -0.0793669 0.826431
0.270607 -0.0784297 0.826577
0.271714 -0.0774595 0.826352
0.272765 -0.0764727 0.825931
0.273748 -0.0754669 0.825279
0.274663 -0.0744424 0.82439
0.275616 -0.073431 0.823644
0.27647 -0.0723936 0.822558
0.27727 -0.0713443 0.821301
0.27804 -0.0702899 0.819947
0.27878 -0.0692313 0.818506
0.279381 -0.0681406 0.816607
0.279946 -0.0670456 0.814601
0.280405 -0.0659299 0.81226
0.280854 -0.0648179 0.809904
0.281401 -0.0637353 0.807891
0.282057 -0.0626835 0.806255
0.282869 -0.0616711 0.805142
0.283756 -0.0606783 0.804285
0.284709 -0.0597016 0.803646
0.285659 -0.0587255 0.803002
0.286542 -0.0577367 0.802146
0.287419 -0.0567482 0.801274
0.288359 -0.0557746 0.800612
0.289259 -0.0547941 0.799825
0.290092 -0.0538025 0.798831
0.290987 -0.0528247 0.798041
0.291872 -0.0518467 0.797225
0.292713 -0.0508627 0.796276
0.293605 -0.0498894 0.795492
0.294547 -0.048926 0.794866
0.295516 -0.0479685 0.794328
0.296512 -0.047016 0.793875
0.297537 -0.0460689 0.793514
0.298586 -0.0451259 0.793229
0.299662 -0.0441869 0.793023
0.300761 -0.0432514 0.792888
0.301838 -0.0423124 0.792685
0.302937 -0.0413765 0.792547
0.303985 -0.0404336 0.792258
0.304928 -0.0394777 0.79166
0.305857 -0.0385209 0.791022
0.306809 -0.0375679 0.790455
0.307745 -0.036614 0.789845
0.308741 -0.0356681 0.789412
0.309839 -0.0347337 0.789279
0.310912 -0.0337966 0.789072
0.311984 -0.0328594 0.788863
0.313188 -0.031935 0.78903
0.31438 -0.0310086 0.789163
0.315583 -0.0300823 0.789322
0.316801 -0.0291564 0.789523
0.317984 -0.0282265 0.78962
0.319112 -0.0272915 0.78956
0.320438 -0.026371 0.790052
0.321788 -0.0254508 0.79061
0.323208 -0.0245332 0.791352
0.324725 -0.0236198 0.792356
0.326183 -0.0226997 0.79319
0.327454 -0.021766 0.7935
0.328687 -0.0208287 0.793702
0.329852 -0.0198871 0.793716
0.330877 -0.0189381 0.793348
0.331839 -0.0179866 0.792813
0.332768 -0.0170341 0.792189
0.333601 -0.0160795 0.791311
0.334401 -0.0151248 0.790352
0.335167 -0.0141716 0.789307
0.336052 -0.0132233 0.788584
0.336979 -0.0122771 0.787974
0.338091 -0.0113369 0.787859
0.339327 -0.0103978 0.788061
0.340654 -0.00946043 0.788505
0.341961 -0.00852058 0.788888
0.343321 -0.00758005 0.789405
0.344653 -0.00663704 0.789844
0.345812 -0.00569263 0.789833
0.346985 -0.0047469 0.789855
0.348208 -0.00380105 0.790005
0.349664 -0.00285344 0.790745
0.351539 -0.00190023 0.79254
0.353777 -0.000938462 0.795238
0.356167 3.17836e-05 0.798298
0.358631 0.00101087 0.80152
0.360958 0.00199519 0.804374
0.36294 0.00297907 0.806348
0.364862 0.00396623 0.808157
0.366621 0.00495317 0.809549
0.368156 0.0059372 0.810378
0.36945 0.00691546 0.810606
0.372015 0.00794069 0.81394
0.389773 0.0124712 0.845122
0.393007 0.0135887 0.84988
0.395015 0.0146529 0.851667
0.396463 0.0156906 0.852102
0.397912 0.0167305 0.852534
0.402363 0.0179511 0.86008
0.240449 -0.108395 0.850169
0.241338 -0.107288 0.848948
0.242305 -0.106222 0.848059
0.24313 -0.105091 0.846597
0.243777 -0.103882 0.844426
0.244347 -0.102643 0.841965
0.24494 -0.101423 0.839622
0.245469 -0.100181 0.837043
0.246114 -0.0989986 0.834956
0.246873 -0.0978714 0.833334
0.24772 -0.096787 0.832077
0.248646 -0.0957392 0.83114
0.249637 -0.0947208 0.830465
0.250636 -0.093707 0.829823
0.251597 -0.0926792 0.829039
0.252587 -0.091665 0.828374
0.253569 -0.090649 0.827682
0.254557 -0.0896369 0.827017
0.255555 -0.08863 0.826395
0.256593 -0.0876394 0.825929
0.257623 -0.0866464 0.825433
0.258625 -0.0856445 0.824838
0.25972 -0.0846763 0.824588
0.260852 -0.0837212 0.824478
0.262174 -0.08283 0.825059
0.263439 -0.0819175 0.825425
0.264808 -0.081037 0.826159
0.266108 -0.0801315 0.826638
0.267431 -0.0792314 0.827196
0.268631 -0.0782902 0.827302
0.269839 -0.0773506 0.827436
0.2709 -0.0763656 0.827046
0.271922 -0.0753701 0.826523
0.272881 -0.0743569 0.825779
0.273772 -0.0733262 0.824806
0.274703 -0.072309 0.82398
0.275579 -0.0712783 0.822966
0.276382 -0.0702307 0.821714
0.277154 -0.0691776 0.820361
0.277878 -0.0681158 0.818858
0.278453 -0.0670201 0.816863
0.278968 -0.0659148 0.814684
0.27942 -0.0647998 0.812312
0.279848 -0.0636854 0.809876
0.280397 -0.0626057 0.807866
0.281078 -0.0615616 0.806309
0.281912 -0.0605554 0.805266
0.282799 -0.0595632 0.804404
0.283754 -0.0585876 0.803771
0.284732 -0.0576181 0.803216
0.28562 -0.0566308 0.802372
0.2865 -0.0556439 0.801509
0.28744 -0.0546708 0.800847
0.288315 -0.0536862 0.799978
0.289145 -0.0526951 0.798974
0.290012 -0.0517128 0.79809
0.290872 -0.0507314 0.797195
0.291687 -0.0497439 0.796162
0.29258 -0.048772 0.795381
0.293503 -0.0478066 0.794697
0.294498 -0.0468541 0.79424
0.29552 -0.0459066 0.793869
0.296545 -0.0449598 0.793508
0.297595 -0.0440173 0.793223
0.298668 -0.0430783 0.79301
0.299744 -0.0421396 0.792806
0.300821 -0.0412012 0.792605
0.301923 -0.040266 0.792479
0.302972 -0.0393238 0.792195
0.30394 -0.0383717 0.791669
0.304895 -0.0374189 0.79111
0.305823 -0.0364638 0.79047
0.306783 -0.0355135 0.78993
0.307777 -0.0345677 0.789493
0.308849 -0.0336308 0.789285
0.309922 -0.0326938 0.789076
0.310994 -0.0317569 0.788867
0.312197 -0.0308324 0.789036
0.313415 -0.0299081 0.789244
0.314643 -0.0289837 0.789477
0.315863 -0.0280576 0.789685
0.317096 -0.0271313 0.789925
0.318254 -0.0261983 0.789951
0.31961 -0.025279 0.790529
0.320991 -0.0243595 0.791173
0.322405 -0.02344 0.791901
0.32389 -0.0225226 0.79282
0.325315 -0.021599 0.793563
0.326558 -0.0206628 0.793799
0.327791 -0.0197251 0.794004
0.328987 -0.0187845 0.794103
0.330043 -0.0178369 0.793819
0.331039 -0.0168869 0.793372
0.33197 -0.015935 0.792752
0.332804 -0.0149806 0.791873
0.333577 -0.0140262 0.790837
0.334316 -0.0130723 0.789717
0.335173 -0.0121239 0.788917
0.336072 -0.0111776 0.78823
0.337119 -0.0102357 0.787941
0.338289 -0.00929583 0.787976
0.339553 -0.00835617 0.788254
0.340799 -0.00741576 0.788482
0.342155 -0.00647512 0.788996
0.343459 -0.00553184 0.789365
0.344617 -0.00458774 0.789353
0.345784 -0.00364323 0.789366
0.346972 -0.00269767 0.789429
0.348298 -0.00175053 0.789844
0.350031 -0.000797792 0.791291
0.352118 0.000164088 0.793619
0.354374 0.00113504 0.796357
0.356857 0.00211641 0.799647
0.359314 0.0031059 0.802842
0.361498 0.00409536 0.805336
0.363621 0.00508972 0.807655
0.365608 0.00608573 0.809618
0.367245 0.00707409 0.810704
0.368606 0.00805589 0.811099
0.370533 0.00906153 0.812876
0.375769 0.00902016 0.820149
0.380359 0.0101483 0.828344
0.377266 0.0102733 0.826397
0.240293 -0.106094 0.848844
0.241239 -0.105019 0.847867
0.242066 -0.103891 0.846406
0.242767 -0.102708 0.844451
0.243388 -0.101495 0.842185
0.244015 -0.100292 0.839969
0.244575 -0.0990658 0.837505
0.245239 -0.0978927 0.835481
0.245995 -0.0967654 0.833843
0.246822 -0.0956731 0.8325
0.247731 -0.0946183 0.831491
0.24872 -0.093599 0.830803
0.249717 -0.0925845 0.83015
0.250676 -0.0915564 0.829356
0.251688 -0.0905513 0.828775
0.252673 -0.0895366 0.828091
0.253662 -0.0885249 0.827427
0.254658 -0.0875175 0.826796
0.255676 -0.0865194 0.826252
0.256688 -0.0855202 0.825688
0.257715 -0.0845272 0.825181
0.258812 -0.0835597 0.82494
0.259967 -0.0826121 0.824911
0.261288 -0.0817198 0.825494
0.262574 -0.0808132 0.825937
0.263944 -0.0799319 0.826681
0.265268 -0.0790329 0.827249
0.266617 -0.0781394 0.8279
0.267858 -0.0772099 0.828154
0.269068 -0.0762697 0.828293
0.270128 -0.0752836 0.827894
0.271127 -0.0742808 0.827286
0.272057 -0.0732589 0.826435
0.272902 -0.0722156 0.825298
0.27381 -0.071192 0.824384
0.274687 -0.0701624 0.823372
0.275516 -0.0691224 0.822204
0.276273 -0.0680664 0.820793
0.276999 -0.0670062 0.819292
0.277549 -0.0659059 0.817206
0.278012 -0.0647896 0.81484
0.278437 -0.0636705 0.812366
0.278863 -0.0625583 0.809918
0.279418 -0.0614822 0.807921
0.280127 -0.0604462 0.806453
0.280986 -0.0594466 0.805491
0.281874 -0.0584555 0.80463
0.282831 -0.0574806 0.804
0.283811 -0.0565119 0.803451
0.284722 -0.0555301 0.80268
0.285605 -0.0545443 0.801823
0.286547 -0.0535718 0.801162
0.287397 -0.0525833 0.800214
0.288224 -0.0515925 0.799195
0.289042 -0.0506023 0.798154
0.289877 -0.0496175 0.797177
0.290691 -0.0486312 0.796139
0.291609 -0.0476644 0.795436
0.292512 -0.0466966 0.794688
0.293508 -0.0457448 0.794234
0.294528 -0.0447975 0.793857
0.295523 -0.0438468 0.793406
0.296549 -0.0429013 0.793048
0.297618 -0.0419622 0.792825
0.298693 -0.0410242 0.792621
0.299771 -0.0400864 0.792424
0.300874 -0.0391517 0.792303
0.301925 -0.0382105 0.792027
0.302919 -0.0372623 0.791578
0.303903 -0.0363138 0.791104
0.304859 -0.0353627 0.790549
0.305847 -0.034416 0.790091
0.306866 -0.0334733 0.789726
0.307938 -0.0325364 0.789517
0.30901 -0.0315994 0.789309
0.310083 -0.0306625 0.7891
0.311285 -0.0297374 0.789269
0.312503 -0.0288126 0.789476
0.31373 -0.0278876 0.78971
0.314975 -0.0269629 0.789989
0.316237 -0.0260382 0.790313
0.317426 -0.025107 0.790427
0.318785 -0.0241866 0.791016
0.320164 -0.0232654 0.791655
0.32152 -0.022341 0.792226
0.322972 -0.02142 0.793053
0.324367 -0.0204934 0.793717
0.32561 -0.0195568 0.793955
0.326845 -0.0186187 0.794165
0.328067 -0.0176791 0.794338
0.32915 -0.0167326 0.794127
0.330177 -0.015784 0.793765
0.331114 -0.0148328 0.793158
0.331982 -0.0138799 0.79237
0.332781 -0.0129268 0.791398
0.333526 -0.0119746 0.79029
0.334353 -0.0110258 0.789408
0.335248 -0.0100798 0.788709
0.336234 -0.00913644 0.788256
0.337338 -0.00819497 0.788117
0.338568 -0.00725491 0.788307
0.339778 -0.00631405 0.788446
0.341108 -0.00537241 0.788891
0.342405 -0.00442922 0.789249
0.34353 -0.00348473 0.789152
0.344666 -0.0025404 0.789087
0.345826 -0.00159601 0.789082
0.347058 -0.000649646 0.789259
0.348616 0.000302377 0.790264
0.35054 0.00126363 0.792192
0.352567 0.00223173 0.794365
0.354867 0.00321151 0.797212
0.357416 0.00420483 0.800661
0.359814 0.00520172 0.803708
0.362125 0.00620353 0.806512
0.364354 0.00720877 0.80909
0.366271 0.0082095 0.810875
0.367674 0.00919314 0.811377
0.368977 0.0101746 0.811625
0.239165 -0.10486 0.848385
0.240104 -0.103783 0.847379
0.240982 -0.102682 0.846132
0.241737 -0.101526 0.844388
0.242434 -0.10035 0.842429
0.243107 -0.099169 0.840389
0.243693 -0.0979556 0.838016
0.244357 -0.0967837 0.835982
0.245113 -0.0956572 0.834337
0.245941 -0.0945655 0.832991
0.246834 -0.0935046 0.831914
0.247823 -0.0924855 0.831223
0.248818 -0.0914702 0.830559
0.249776 -0.090442 0.829758
0.250793 -0.0894386 0.829191
0.251802 -0.0884334 0.828598
0.252813 -0.0874301 0.828017
0.253809 -0.0864223 0.827381
0.254847 -0.0854311 0.826907
0.255883 -0.0844403 0.826431
0.25692 -0.0834503 0.825958
0.258021 -0.0824833 0.825729
0.259196 -0.0815413 0.825773
0.26049 -0.0806384 0.826256
0.261755 -0.0797234 0.826622
0.263123 -0.07884 0.827362
0.264466 -0.0779454 0.827998
0.265817 -0.0770507 0.828655
0.267061 -0.0761209 0.82892
0.268275 -0.0751808 0.829073
0.269332 -0.0741933 0.828662
0.270288 -0.0731775 0.827896
0.271192 -0.0721486 0.82695
0.272033 -0.0711045 0.825792
0.272916 -0.0700747 0.82479
0.273774 -0.0690404 0.823706
0.274627 -0.0680077 0.822616
0.275389 -0.0669539 0.821218
0.276093 -0.0658893 0.819635
0.276643 -0.0647908 0.817539
0.277099 -0.0636749 0.815139
0.277501 -0.0625529 0.812581
0.277932 -0.0614444 0.810143
0.278494 -0.0603719 0.808161
0.279207 -0.0593379 0.8067
0.280047 -0.0583349 0.805669
0.280938 -0.0573453 0.804818
0.281895 -0.0563711 0.804188
0.28285 -0.0553977 0.803555
0.283759 -0.0544162 0.802776
0.284663 -0.0534354 0.801985
0.285607 -0.0524639 0.801329
0.286436 -0.0514725 0.80031
0.287284 -0.0504865 0.799355
0.288077 -0.0494932 0.798235
0.288889 -0.0485054 0.797182
0.289703 -0.0475204 0.796141
0.290622 -0.0465546 0.795439
0.291499 -0.0455837 0.794612
0.292492 -0.0446322 0.794148
0.293505 -0.0436844 0.79375
0.294479 -0.0427315 0.793233
0.2955 -0.0417859 0.792863
0.296567 -0.0408472 0.792635
0.297638 -0.039909 0.792418
0.298714 -0.0389715 0.792218
0.299816 -0.0380373 0.792096
0.300893 -0.0370999 0.7919
0.301913 -0.0361556 0.79153
0.302927 -0.0352111 0.791147
0.303916 -0.0342643 0.790688
0.304933 -0.0333211 0.790316
0.305955 -0.0323789 0.789958
0.307027 -0.031442 0.78975
0.308099 -0.030505 0.789541
0.309171 -0.0295681 0.789332
0.310374 -0.0286425 0.789502
0.311591 -0.0277171 0.789709
0.312843 -0.0267935 0.790015
0.314116 -0.0258703 0.790378
0.31541 -0.024947 0.790793
0.316654 -0.0240188 0.791064
0.318017 -0.0230972 0.791666
0.319365 -0.0221726 0.792218
0.320687 -0.0212447 0.792695
0.322105 -0.0203202 0.793432
0.323448 -0.0193896 0.793952
0.32469 -0.0184524 0.794189
0.325925 -0.0175137 0.7944
0.327147 -0.0165736 0.794573
0.328229 -0.0156271 0.794362
0.329286 -0.0146797 0.794078
0.330253 -0.0137296 0.793552
0.331181 -0.0127791 0.792924
0.332013 -0.0118281 0.792041
0.332816 -0.0108771 0.791081
0.333644 -0.00992845 0.790196
0.33451 -0.00898237 0.789419
0.335437 -0.00803839 0.788807
0.336509 -0.00709588 0.788579
0.337676 -0.00615469 0.788607
0.338856 -0.00521305 0.788665
0.340151 -0.00427027 0.789022
0.341416 -0.00332641 0.789296
0.342538 -0.00238252 0.789194
0.343646 -0.0014385 0.789056
0.344775 -0.000494387 0.788974
0.345921 0.000451207 0.78893
0.347309 0.00140056 0.789511
0.348992 0.00235883 0.790833
0.350798 0.00332295 0.792458
0.352847 0.00429756 0.794688
0.35532 0.00529105 0.797966
0.357768 0.00629088 0.801158
0.360165 0.00729681 0.804198
0.362598 0.00831137 0.807302
0.36478 0.0093231 0.809758
0.366383 0.0103148 0.810763
0.367824 0.0113026 0.811357
0.239195 -0.102656 0.847831
0.24012 -0.101576 0.84677
0.240869 -0.100419 0.844993
0.241584 -0.0992514 0.843096
0.24226 -0.0980725 0.841058
0.242868 -0.09687 0.838763
0.243514 -0.0956911 0.836646
0.244269 -0.0945645 0.834986
0.24508 -0.093466 0.833564
0.245956 -0.0923983 0.832412
0.246927 -0.0913718 0.831646
0.247919 -0.0903556 0.83097
0.248878 -0.089328 0.830168
0.249899 -0.0883262 0.829615
0.250937 -0.0873318 0.82913
0.251973 -0.0863376 0.82864
0.252987 -0.0853364 0.828071
0.254045 -0.0843521 0.827672
0.255106 -0.0833691 0.827283
0.256148 -0.0823802 0.826826
0.25725 -0.0814128 0.8266
0.258424 -0.0804691 0.826635
0.259693 -0.0795562 0.827025
0.260912 -0.078625 0.827222
0.262274 -0.077738 0.827941
0.263616 -0.0768419 0.828577
0.264989 -0.0759528 0.82932
0.26624 -0.0750237 0.829607
0.2675 -0.0740961 0.829924
0.268563 -0.0731095 0.82953
0.269515 -0.0720924 0.828746
0.270375 -0.071051 0.827638
0.271211 -0.0700058 0.826454
0.27205 -0.0689643 0.825292
0.272883 -0.0679243 0.82412
0.273693 -0.0668808 0.822872
0.274429 -0.0658218 0.821381
0.275085 -0.0647469 0.819627
0.275633 -0.0636501 0.817517
0.276096 -0.0625389 0.815137
0.276551 -0.061432 0.812748
0.277035 -0.0603379 0.810478
0.277624 -0.0592733 0.808581
0.278362 -0.0582459 0.807196
0.279202 -0.0572437 0.806165
0.280068 -0.056249 0.805225
0.281001 -0.0552701 0.804513
0.281929 -0.0542916 0.80379
0.282813 -0.053306 0.802926
0.283716 -0.0523259 0.802131
0.284664 -0.0513557 0.801489
0.285495 -0.0503656 0.80047
0.286345 -0.049381 0.799519
0.287136 -0.0483884 0.79839
0.287948 -0.0474018 0.797334
0.288763 -0.046418 0.796296
0.28966 -0.0454494 0.795522
0.290534 -0.0444789 0.794681
0.291499 -0.0435237 0.79413
0.292484 -0.0425723 0.793645
0.293432 -0.0416165 0.793047
0.294453 -0.0406717 0.792678
0.295522 -0.0397339 0.792459
0.296591 -0.038796 0.792239
0.297665 -0.0378589 0.792036
0.298764 -0.0369248 0.791907
0.299839 -0.0359875 0.791703
0.300886 -0.0350471 0.791418
0.30193 -0.0341065 0.791124
0.30295 -0.0331637 0.790757
0.303996 -0.0322238 0.790471
0.305044 -0.0312845 0.790191
0.306116 -0.0303476 0.789982
0.307188 -0.0294106 0.789774
0.30826 -0.0284736 0.789565
0.309462 -0.0275475 0.789734
0.310679 -0.0266216 0.789942
0.311932 -0.0256975 0.790253
0.313234 -0.0247756 0.790699
0.314558 -0.0238535 0.791205
0.315811 -0.022925 0.7915
0.317171 -0.0220018 0.792095
0.318511 -0.0210756 0.792629
0.319801 -0.0201448 0.793015
0.321189 -0.0192175 0.793672
0.322529 -0.0182858 0.794186
0.323771 -0.0173481 0.794424
0.325005 -0.0164088 0.794635
0.326226 -0.015468 0.794808
0.327309 -0.0145216 0.794597
0.328392 -0.0135752 0.794386
0.32939 -0.0126264 0.793943
0.330379 -0.0116781 0.793477
0.331248 -0.0107275 0.79269
0.332083 -0.0097781 0.791815
0.332916 -0.00882994 0.79094
0.333752 -0.00788343 0.790076
0.334648 -0.00693872 0.789378
0.33569 -0.00599618 0.78907
0.336827 -0.00505451 0.789018
0.337978 -0.00411224 0.789
0.339243 -0.00316882 0.78928
0.340449 -0.00222486 0.789403
0.341562 -0.00128061 0.789277
0.342667 -0.000336718 0.789135
0.343771 0.000607035 0.788985
0.344885 0.00155158 0.788864
0.346123 0.00249926 0.789059
0.347606 0.00345319 0.789879
0.349175 0.00441201 0.790911
0.351002 0.00538163 0.792589
0.353289 0.00637091 0.795416
0.355665 0.00737017 0.798445
0.358037 0.00837597 0.801445
0.360471 0.00939179 0.804573
0.362663 0.0104045 0.807075
0.36431 0.0113973 0.808201
0.365947 0.0123928 0.809295
0.239314 -0.100496 0.847645
0.240052 -0.0993339 0.845814
0.240783 -0.0981739 0.843968
0.241462 -0.0969966 0.841929
0.242093 -0.0958051 0.839718
0.242742 -0.0946278 0.837599
0.243476 -0.0934925 0.835842
0.244264 -0.0923847 0.834321
0.245119 -0.091308 0.833077
0.246053 -0.0902667 0.83216
0.247023 -0.0892421 0.831395
0.248001 -0.0882219 0.830663
0.249022 -0.0872202 0.830109
0.250067 -0.086228 0.829646
0.251129 -0.0852432 0.829255
0.252168 -0.0842508 0.828778
0.253248 -0.0832736 0.828458
0.25433 -0.0822973 0.828147
0.255395 -0.0813158 0.827775
0.2565 -0.0803478 0.827551
0.257668 -0.0794009 0.827564
0.258914 -0.0784789 0.827868
0.260085 -0.0775312 0.827888
0.261404 -0.0766291 0.82845
0.262742 -0.0757303 0.829071
0.264117 -0.0748405 0.829822
0.265374 -0.0739126 0.830136
0.266658 -0.0729907 0.830538
0.267744 -0.0720105 0.830226
0.268697 -0.0709933 0.829439
0.269535 -0.0699462 0.828247
0.27037 -0.0689012 0.827054
0.271186 -0.067854 0.825805
0.271996 -0.0668085 0.824545
0.272775 -0.0657583 0.823189
0.273481 -0.0646929 0.821584
0.274111 -0.0636133 0.819736
0.274662 -0.0625197 0.817631
0.275159 -0.0614186 0.815354
0.27565 -0.0603224 0.81308
0.276189 -0.0592429 0.810989
0.276782 -0.0581805 0.809097
0.277539 -0.0571581 0.807771
0.278353 -0.0561507 0.806646
0.279194 -0.0551513 0.805617
0.280099 -0.0541672 0.80481
0.281002 -0.0531845 0.804004
0.281861 -0.052195 0.803057
0.282763 -0.0512154 0.802257
0.283691 -0.0502422 0.801545
0.284526 -0.049254 0.800539
0.285377 -0.0482707 0.799591
0.286191 -0.0472832 0.798531
0.287006 -0.0462981 0.797481
0.287825 -0.045316 0.796451
0.288697 -0.0443443 0.795597
0.289567 -0.0433742 0.794744
0.290502 -0.0424153 0.794098
0.291466 -0.0414617 0.793548
0.292438 -0.04051 0.793026
0.293462 -0.0395662 0.792667
0.294532 -0.0386287 0.79245
0.295579 -0.0376885 0.792164
0.296651 -0.0367515 0.791955
0.297725 -0.0358146 0.791752
0.298798 -0.0348777 0.791546
0.29987 -0.0339406 0.791335
0.30094 -0.0330034 0.791121
0.301988 -0.0320639 0.790841
0.303061 -0.031127 0.790632
0.304133 -0.0301901 0.790423
0.305205 -0.0292532 0.790215
0.306277 -0.0283162 0.790006
0.307349 -0.0273792 0.789797
0.308551 -0.0264526 0.789967
0.309766 -0.0255261 0.790175
0.31102 -0.0246013 0.790488
0.312349 -0.0236804 0.791015
0.313703 -0.0227593 0.791609
0.314958 -0.02183 0.791909
0.31629 -0.0209041 0.792429
0.317626 -0.0199765 0.792952
0.318882 -0.0190431 0.793246
0.320218 -0.0181122 0.793758
0.321556 -0.0171797 0.794271
0.322823 -0.0162424 0.794578
0.324057 -0.0153027 0.794792
0.325279 -0.0143616 0.794969
0.326389 -0.0134161 0.794832
0.327472 -0.0124697 0.794621
0.328499 -0.0115219 0.794259
0.329522 -0.0105742 0.793883
0.330456 -0.00962556 0.79327
0.331354 -0.00867755 0.792561
0.332218 -0.00773028 0.791766
0.333082 -0.00678379 0.790973
0.333976 -0.00583969 0.790267
0.33496 -0.00489629 0.789801
0.33604 -0.00395319 0.789596
0.337162 -0.00301085 0.789501
0.338368 -0.00206654 0.789625
0.339542 -0.00112252 0.789663
0.340652 -0.000178402 0.789533
0.341757 0.000765904 0.789386
0.342862 0.00171008 0.789242
0.343944 0.00265359 0.789039
0.345177 0.00360145 0.789223
0.346538 0.0045534 0.789733
0.347918 0.00550794 0.790287
0.349476 0.00646996 0.791286
0.351506 0.0074521 0.793478
0.353593 0.00844233 0.795795
0.355787 0.00944223 0.798365
0.358098 0.0104533 0.801207
0.360305 0.0114666 0.803769
0.36199 0.0124599 0.805006
0.363654 0.0134545 0.806184
0.237659 -0.100531 0.849923
0.238566 -0.0994411 0.848769
0.239345 -0.0982972 0.847094
0.240069 -0.0971341 0.84521
0.240753 -0.0959589 0.843176
0.241412 -0.0947791 0.841061
0.242066 -0.0936036 0.838946
0.242779 -0.0924591 0.837093
0.243539 -0.0913394 0.835447
0.244348 -0.090244 0.834012
0.245239 -0.0891851 0.832917
0.24619 -0.0881523 0.832067
0.247166 -0.0871315 0.831327
0.248187 -0.086129 0.830765
0.249232 -0.0851367 0.830301
0.250297 -0.0841523 0.829918
0.251341 -0.0831611 0.829455
0.252424 -0.0821846 0.829147
0.25351 -0.0812092 0.828849
0.254574 -0.0802266 0.828469
0.255679 -0.079258 0.828242
0.256845 -0.0783096 0.828248
0.25807 -0.0773794 0.828471
0.259238 -0.0764299 0.828477
0.260554 -0.0755256 0.82903
0.261891 -0.0746254 0.829653
0.263269 -0.0737347 0.830415
0.264568 -0.0728181 0.830883
0.265879 -0.0719027 0.831385
0.266988 -0.0709282 0.831152
0.267947 -0.0699123 0.830381
0.268783 -0.0688645 0.829174
0.269598 -0.0678143 0.827905
0.270366 -0.0667547 0.826476
0.271129 -0.0656977 0.825045
0.271881 -0.0646414 0.823587
0.272538 -0.0635654 0.821806
0.27314 -0.0624809 0.819854
0.273716 -0.0613952 0.817826
0.274244 -0.0603038 0.815651
0.274748 -0.0592126 0.813412
0.275317 -0.0581416 0.811415
0.275933 -0.0570855 0.80959
0.276648 -0.0560551 0.808116
0.277411 -0.0550382 0.806817
0.278247 -0.0540389 0.80577
0.279125 -0.0530503 0.804873
0.279985 -0.05206 0.803919
0.280842 -0.0510714 0.802965
0.281765 -0.0500969 0.802232
0.28267 -0.0491206 0.801447
0.283508 -0.0481341 0.800447
0.284358 -0.0471521 0.799496
0.285219 -0.0461737 0.798585
0.286037 -0.0451904 0.797542
0.286863 -0.0442105 0.796534
0.287733 -0.0432395 0.795671
0.288623 -0.0422733 0.794877
0.289511 -0.0413083 0.794083
0.290454 -0.0403524 0.793467
0.291451 -0.039405 0.793022
0.2925 -0.038465 0.792742
0.293572 -0.0375281 0.792533
0.294645 -0.0365912 0.792325
0.295717 -0.0356542 0.792116
0.296789 -0.0347173 0.791907
0.297861 -0.0337804 0.791699
0.298933 -0.0328434 0.79149
0.300005 -0.0319064 0.791282
0.301077 -0.0309695 0.791073
0.302149 -0.0300326 0.790864
0.303221 -0.0290957 0.790656
0.304294 -0.0281588 0.790447
0.305366 -0.0272218 0.790239
0.306438 -0.0262848 0.79003
0.307615 -0.0253558 0.790128
0.308828 -0.0244287 0.79033
0.310079 -0.0235032 0.790639
0.311407 -0.0225814 0.791166
0.31276 -0.0216592 0.791758
0.31404 -0.0207309 0.792136
0.315345 -0.0198025 0.792578
0.316649 -0.0188725 0.793015
0.317904 -0.0179385 0.793306
0.319212 -0.0170058 0.793744
0.320551 -0.0160726 0.794262
0.321845 -0.015136 0.794648
0.323106 -0.0141968 0.79494
0.324331 -0.0132554 0.795125
0.325468 -0.0123107 0.795067
0.326551 -0.0113643 0.794856
0.327607 -0.0104176 0.794572
0.328662 -0.00947055 0.794283
0.329657 -0.00852314 0.793833
0.330619 -0.00757564 0.793294
0.331544 -0.00662896 0.79266
0.332439 -0.00568321 0.791947
0.333334 -0.00473847 0.791239
0.334288 -0.00379455 0.79069
0.335364 -0.00285081 0.790469
0.336452 -0.0019075 0.790284
0.3376 -0.000962936 0.790254
0.338769 -1.79368e-05 0.790278
0.339879 0.000926491 0.790145
0.34093 0.00187015 0.78986
0.342009 0.00281398 0.789645
0.343115 0.00375854 0.789504
0.34432 0.00470636 0.789613
0.34562 0.00565791 0.789969
0.346935 0.00661096 0.790359
0.348305 0.00756782 0.790883
0.350031 0.00853992 0.792311
0.351831 0.00951925 0.793914
0.353759 0.0105092 0.795823
0.355817 0.0115094 0.798048
0.357924 0.0125177 0.80038
0.359606 0.0135081 0.801631
0.361265 0.0145007 0.80281
0.236776 -0.101635 0.851188
0.236044 -0.100587 0.852408
0.23694 -0.0994887 0.851187
0.237855 -0.0984019 0.850057
0.23862 -0.0972513 0.848312
0.239339 -0.0960855 0.846392
0.240067 -0.0949293 0.844527
0.240754 -0.0937616 0.842515
0.241414 -0.0925881 0.840408
0.242089 -0.0914274 0.838386
0.242823 -0.0902961 0.836618
0.243582 -0.0891805 0.834973
0.244429 -0.0881039 0.833692
0.245361 -0.0870638 0.832765
0.246336 -0.0860421 0.832013
0.247356 -0.0850389 0.831445
0.248418 -0.0840524 0.831045
0.249503 -0.0830747 0.830735
0.25055 -0.0820838 0.830281
0.251656 -0.0811141 0.830053
0.252763 -0.0801449 0.829832
0.25381 -0.0791556 0.829383
0.254916 -0.0781864 0.829158
0.256085 -0.0772376 0.829172
0.257307 -0.0763053 0.829384
0.258457 -0.0753487 0.82932
0.259772 -0.0744424 0.829869
0.261109 -0.0735404 0.830493
0.262486 -0.0726477 0.831253
0.263766 -0.0717237 0.831648
0.265097 -0.0708127 0.832227
0.266233 -0.0698447 0.832087
0.267199 -0.0688301 0.831334
0.268038 -0.0677832 0.830132
0.268851 -0.0667324 0.828846
0.269592 -0.0656662 0.827314
0.27031 -0.0645981 0.825714
0.271017 -0.0635315 0.82409
0.27165 -0.0624512 0.822222
0.272234 -0.0613638 0.820194
0.272809 -0.0602797 0.818155
0.273362 -0.0591961 0.81606
0.273868 -0.0581071 0.813817
0.27446 -0.0570429 0.811892
0.275076 -0.0559885 0.810062
0.275768 -0.0549543 0.808504
0.276488 -0.0539295 0.807051
0.27732 -0.0529305 0.805989
0.278175 -0.0519383 0.805012
0.279014 -0.0509451 0.803986
0.279849 -0.0499535 0.802956
0.280792 -0.0489834 0.80229
0.281673 -0.0480038 0.801424
0.282489 -0.0470149 0.80035
0.283335 -0.0460334 0.799382
0.284222 -0.0450606 0.798556
0.285045 -0.0440794 0.797529
0.28588 -0.0431022 0.796545
0.286749 -0.042132 0.795677
0.287656 -0.0411693 0.794937
0.288545 -0.0402054 0.794145
0.289492 -0.0392509 0.793541
0.290517 -0.0383076 0.793183
0.291589 -0.0373706 0.792974
0.292661 -0.0364336 0.792766
0.293733 -0.0354967 0.792557
0.294806 -0.0345598 0.792349
0.295878 -0.0336229 0.79214
0.29695 -0.032686 0.791931
0.298022 -0.031749 0.791723
0.29907 -0.0308097 0.791442
0.300116 -0.0298704 0.791156
0.301162 -0.0289313 0.790868
0.302232 -0.0279944 0.790654
0.303306 -0.0270579 0.790451
0.304404 -0.0261233 0.790322
0.305502 -0.0251885 0.79019
0.306677 -0.0242591 0.790283
0.307887 -0.0233314 0.790477
0.309134 -0.022405 0.790776
0.310435 -0.0214806 0.791227
0.31176 -0.0205562 0.791745
0.313037 -0.0196272 0.792115
0.314311 -0.0186967 0.792474
0.315587 -0.017765 0.792834
0.316839 -0.0168307 0.793119
0.318147 -0.0158975 0.79356
0.319487 -0.0149639 0.794085
0.320805 -0.0140279 0.794545
0.322099 -0.0130895 0.79493
0.323354 -0.0121486 0.795202
0.324548 -0.0112052 0.795301
0.325659 -0.0102593 0.795169
0.326743 -0.00931303 0.794961
0.327852 -0.0083666 0.794821
0.328907 -0.00741971 0.794532
0.329932 -0.00647321 0.794165
0.330924 -0.00552604 0.793707
0.331854 -0.00458029 0.793085
0.332751 -0.0036348 0.792374
0.333702 -0.00269051 0.791815
0.334718 -0.00174647 0.791432
0.335771 -0.000802524 0.791148
0.336887 0.00014193 0.791032
0.338027 0.00108751 0.790978
0.339111 0.00203223 0.790775
0.340133 0.00297515 0.790413
0.341182 0.00391882 0.790118
0.342259 0.00486298 0.7899
0.343432 0.00581042 0.789928
0.344677 0.00676078 0.790142
0.345958 0.00771372 0.790446
0.347292 0.00866945 0.790881
0.34877 0.00963336 0.79168
0.350302 0.0106021 0.792609
0.35201 0.0115815 0.793977
0.353822 0.0125702 0.795595
0.355664 0.0135646 0.797275
0.357377 0.0145554 0.79862
0.359062 0.0155483 0.79988
0.236213 -0.0984413 0.852428
0.237141 -0.0973597 0.851346
0.237924 -0.0962166 0.849663
0.238663 -0.0950591 0.847811
0.239397 -0.0939049 0.845957
0.240107 -0.0927459 0.844019
0.240773 -0.0915748 0.841925
0.241411 -0.0903982 0.839733
0.242102 -0.0892494 0.837779
0.242816 -0.0881156 0.835938
0.243618 -0.0870214 0.834471
0.244531 -0.0859738 0.83346
0.24551 -0.0849533 0.832719
0.246533 -0.0839507 0.832156
0.247593 -0.0829628 0.831745
0.248677 -0.0819843 0.831431
0.249743 -0.0809994 0.831045
0.25085 -0.0800293 0.830819
0.251957 -0.0790595 0.830599
0.253026 -0.0780767 0.830226
0.254133 -0.077107 0.830005
0.255306 -0.0761583 0.83003
0.25653 -0.0752252 0.83025
0.257703 -0.0742748 0.83027
0.259019 -0.0733668 0.830822
0.260359 -0.0724639 0.831457
0.261713 -0.0715623 0.832134
0.262989 -0.0706356 0.832513
0.264321 -0.0697228 0.833092
0.265462 -0.0687553 0.832968
0.266454 -0.0677475 0.832307
0.26732 -0.0667077 0.831193
0.26813 -0.0656559 0.829887
0.268848 -0.0645842 0.828266
0.269539 -0.0635099 0.826561
0.270204 -0.0624335 0.824777
0.270797 -0.0613447 0.822757
0.271358 -0.0602536 0.820643
0.271933 -0.0591713 0.818595
0.272463 -0.0580841 0.81641
0.272989 -0.0570019 0.81423
0.273603 -0.0559437 0.812369
0.274219 -0.0548908 0.810532
0.274866 -0.0538485 0.808814
0.275584 -0.0528248 0.807352
0.27637 -0.0518177 0.806129
0.277183 -0.0508185 0.805008
0.278021 -0.0498265 0.803979
0.278855 -0.0488358 0.802942
0.279778 -0.0478633 0.80221
0.280656 -0.0468843 0.801332
0.281493 -0.0459003 0.800324
0.282339 -0.0449201 0.799356
0.28325 -0.0439521 0.798606
0.284103 -0.0429766 0.797671
0.284962 -0.042004 0.796765
0.285856 -0.0410384 0.795974
0.286765 -0.0400763 0.795237
0.287656 -0.0391133 0.794449
0.288604 -0.0381592 0.793846
0.289629 -0.037216 0.793487
0.290678 -0.0362761 0.793207
0.29175 -0.0353392 0.792998
0.292822 -0.0344023 0.79279
0.293894 -0.0334653 0.792581
0.294966 -0.0325284 0.792373
0.296015 -0.031589 0.792091
0.297062 -0.0306497 0.791805
0.298082 -0.0297081 0.79144
0.2991 -0.0287665 0.791069
0.300118 -0.0278254 0.790698
0.301186 -0.026889 0.790482
0.30226 -0.025953 0.790281
0.303362 -0.0250192 0.790163
0.304486 -0.0240866 0.790112
0.305661 -0.0231572 0.790207
0.306869 -0.0222291 0.790399
0.308086 -0.0213008 0.790613
0.309382 -0.0203758 0.791054
0.310679 -0.0194493 0.791493
0.311926 -0.0185187 0.791782
0.313173 -0.0175869 0.792067
0.314468 -0.0166559 0.792485
0.315744 -0.0157227 0.792843
0.317052 -0.0147893 0.793289
0.318421 -0.0138564 0.793901
0.319792 -0.0129215 0.794512
0.321114 -0.0119833 0.79498
0.322375 -0.0110423 0.795272
0.323628 -0.0100996 0.795536
0.324796 -0.00915469 0.795565
0.32591 -0.00820852 0.795439
0.327049 -0.00726245 0.795381
0.328162 -0.00631529 0.79525
0.329222 -0.00536833 0.794973
0.33025 -0.00442124 0.794612
0.331243 -0.00347458 0.794156
0.3322 -0.00252885 0.793604
0.333154 -0.00158406 0.793048
0.334167 -0.000639172 0.792651
0.335219 0.000305809 0.792361
0.336277 0.0012508 0.792086
0.337358 0.00219641 0.791874
0.338381 0.00313987 0.79151
0.339344 0.00408184 0.790989
0.340328 0.00502368 0.790522
0.3414 0.00596838 0.790289
0.342545 0.00691518 0.790246
0.343793 0.0078659 0.790469
0.345042 0.00881815 0.79069
0.346369 0.00977491 0.791108
0.347755 0.0107358 0.791677
0.349195 0.0117012 0.792374
0.350801 0.0126773 0.793487
0.35242 0.0136568 0.794627
0.354037 0.014639 0.79575
0.355616 0.0156222 0.796768
0.35717 0.0166065 0.797712
0.234653 -0.0985225 0.855196
0.235554 -0.0974237 0.853974
0.236403 -0.0963047 0.852539
0.237182 -0.0951595 0.850826
0.237923 -0.0940025 0.848968
0.23866 -0.0928498 0.847117
0.239388 -0.0916984 0.845242
0.240076 -0.0905362 0.843222
0.240697 -0.0893529 0.840947
0.24137 -0.0881967 0.838904
0.242061 -0.087054 0.836959
0.242822 -0.0859439 0.835315
0.243697 -0.0848814 0.834143
0.244678 -0.0838616 0.833406
0.245703 -0.0828596 0.83285
0.246769 -0.0818732 0.832458
0.247856 -0.0808947 0.832149
0.248922 -0.0799095 0.831762
0.250029 -0.0789386 0.831535
0.251136 -0.0779676 0.831306
0.252226 -0.0769916 0.831017
0.253356 -0.0760285 0.830879
0.254552 -0.0750856 0.830989
0.255801 -0.0741588 0.831302
0.256996 -0.0732136 0.831402
0.258316 -0.0723046 0.831967
0.259634 -0.0713931 0.83252
0.260943 -0.0704763 0.833028
0.262194 -0.069541 0.833315
0.263497 -0.0686188 0.833791
0.264639 -0.0676508 0.83367
0.26566 -0.0666501 0.833105
0.266578 -0.0656239 0.832174
0.267413 -0.0645788 0.830951
0.268131 -0.0635073 0.829318
0.268797 -0.0624274 0.827516
0.269439 -0.061346 0.825639
0.270005 -0.0602522 0.823516
0.270544 -0.0591572 0.821311
0.27112 -0.0580765 0.819258
0.271629 -0.0569862 0.816989
0.272136 -0.0559015 0.814731
0.272726 -0.0548399 0.812782
0.273321 -0.0537843 0.810866
0.273925 -0.052735 0.808994
0.274639 -0.0517121 0.807514
0.275401 -0.0507016 0.806207
0.276188 -0.0496988 0.804994
0.277004 -0.048704 0.803888
0.277839 -0.047715 0.802853
0.278738 -0.0467393 0.80204
0.279619 -0.0457621 0.80117
0.280454 -0.0447794 0.800159
0.281326 -0.0438046 0.799273
0.282262 -0.0428415 0.798602
0.283141 -0.0418711 0.79775
0.284023 -0.0409029 0.796916
0.284967 -0.039945 0.796285
0.28588 -0.0389841 0.79556
0.286775 -0.0380221 0.794781
0.287722 -0.0370682 0.79417
0.288742 -0.0361245 0.793797
0.289767 -0.0351817 0.79344
0.290839 -0.0342448 0.793231
0.291911 -0.0333078 0.793022
0.292983 -0.0323709 0.792814
0.294055 -0.031434 0.792605
0.295079 -0.0304922 0.792246
0.296098 -0.0295504 0.791876
0.297087 -0.0286064 0.791417
0.298076 -0.0276628 0.790956
0.299063 -0.0267199 0.790496
0.300131 -0.025784 0.790277
0.301205 -0.0248485 0.790079
0.30231 -0.0239152 0.789973
0.303461 -0.0229849 0.790004
0.304638 -0.0220556 0.79011
0.305847 -0.0211276 0.790306
0.307062 -0.0201988 0.790516
0.308353 -0.0192732 0.790948
0.309621 -0.0183448 0.791306
0.310866 -0.0174139 0.79159
0.312083 -0.0164808 0.791793
0.313349 -0.0155485 0.792132
0.314625 -0.0146152 0.792496
0.315936 -0.0136818 0.792952
0.317304 -0.0127484 0.793569
0.31873 -0.0118144 0.794341
0.320103 -0.0108771 0.794958
0.321396 -0.00993621 0.795341
0.322708 -0.00899418 0.795772
0.323937 -0.00804962 0.79597
0.325087 -0.00710362 0.795944
0.326256 -0.006157 0.795968
0.327425 -0.00520958 0.79599
0.328517 -0.00426223 0.795802
0.329606 -0.00331456 0.795603
0.330687 -0.00236643 0.795382
0.331677 -0.00141995 0.794916
0.332666 -0.000474028 0.794449
0.333713 0.000472651 0.794137
0.334739 0.00141833 0.793775
0.33574 0.00236347 0.793342
0.336817 0.00331017 0.793115
0.337776 0.00425322 0.792574
0.338672 0.00519344 0.791873
0.339618 0.00613434 0.791305
0.340658 0.00707769 0.790986
0.341746 0.00802304 0.790793
0.342963 0.00897414 0.790933
0.34421 0.00992712 0.791152
0.345509 0.0108834 0.791501
0.346869 0.0118439 0.792003
0.348277 0.0128094 0.79262
0.349851 0.0137852 0.793657
0.351407 0.0147629 0.79464
0.353017 0.0157468 0.795749
0.354597 0.0167312 0.796774
0.356213 0.0177209 0.797881
0.233954 -0.0974857 0.856593
0.234824 -0.0963715 0.855224
0.2356 -0.0952197 0.853469
0.236373 -0.0940715 0.851715
0.237117 -0.0929167 0.849863
0.237875 -0.0917729 0.848084
0.238625 -0.0906307 0.846288
0.239313 -0.0894689 0.844256
0.239956 -0.0882947 0.842057
0.240671 -0.0871556 0.840175
0.241348 -0.0860071 0.838156
0.24211 -0.0848972 0.836505
0.24298 -0.0838321 0.835302
0.243923 -0.0827971 0.834403
0.24491 -0.0817803 0.833688
0.245977 -0.0807937 0.833299
0.247045 -0.079808 0.832915
0.248095 -0.0788163 0.832458
0.249223 -0.077852 0.832311
0.250334 -0.0768816 0.832096
0.251424 -0.0759047 0.831804
0.252576 -0.0749476 0.831747
0.253796 -0.074011 0.831947
0.255049 -0.0730837 0.832272
0.256269 -0.0721445 0.832465
0.257608 -0.0712393 0.833104
0.258927 -0.0703258 0.833657
0.260234 -0.0694064 0.834157
0.261478 -0.0684675 0.834418
0.262778 -0.0675423 0.834879
0.263941 -0.0665785 0.834832
0.264967 -0.0655783 0.834279
0.265914 -0.0645588 0.833445
0.266758 -0.0635155 0.832245
0.267482 -0.0624455 0.830624
0.268127 -0.0613604 0.82873
0.268739 -0.0602725 0.826738
0.269279 -0.0591733 0.824508
0.269792 -0.0580737 0.822202
0.270348 -0.0569897 0.820067
0.270838 -0.055897 0.817722
0.27135 -0.0548146 0.815469
0.271898 -0.0537457 0.813365
0.272473 -0.0526874 0.811371
0.27305 -0.0516344 0.809399
0.27374 -0.0506081 0.807831
0.274453 -0.0495897 0.806354
0.275216 -0.0485838 0.805057
0.276004 -0.0475853 0.803852
0.276816 -0.0465937 0.802739
0.277693 -0.0456155 0.801851
0.278596 -0.0446433 0.801055
0.279436 -0.0436627 0.800056
0.280338 -0.0426937 0.799267
0.281279 -0.0417322 0.798612
0.282181 -0.0407662 0.797835
0.283085 -0.0398021 0.797072
0.284081 -0.0388518 0.796606
0.285003 -0.0378927 0.795908
0.285924 -0.0369345 0.795208
0.286864 -0.03598 0.794574
0.287856 -0.035033 0.79411
0.288856 -0.0340873 0.793672
0.289928 -0.0331503 0.793463
0.291 -0.0322134 0.793255
0.292072 -0.0312765 0.793046
0.293144 -0.0303396 0.792838
0.294165 -0.0293977 0.792471
0.29518 -0.0284558 0.792087
0.29614 -0.0275094 0.791536
0.2971 -0.026564 0.790989
0.29804 -0.0256179 0.790383
0.29908 -0.0246803 0.790084
0.300128 -0.0237434 0.789809
0.301229 -0.0228104 0.789694
0.302382 -0.0218806 0.789734
0.303562 -0.0209517 0.78985
0.304748 -0.0200224 0.789983
0.305959 -0.0190936 0.790185
0.307222 -0.0181664 0.790538
0.308463 -0.0172368 0.79082
0.309707 -0.0163061 0.791108
0.31092 -0.0153731 0.791305
0.312159 -0.01444 0.791569
0.313454 -0.0135076 0.791994
0.314795 -0.0125749 0.792542
0.316194 -0.0116421 0.793252
0.317646 -0.0107081 0.794103
0.31907 -0.00977107 0.794868
0.320391 -0.00883019 0.795336
0.321759 -0.00788842 0.795929
0.32305 -0.00694394 0.796301
0.324261 -0.00599753 0.796445
0.325465 -0.00505074 0.796565
0.326689 -0.00410246 0.79674
0.327807 -0.00315426 0.79662
0.328955 -0.00220521 0.796579
0.330097 -0.00125652 0.796526
0.331155 -0.000308031 0.796237
0.332208 0.000639828 0.795939
0.333289 0.00158883 0.795715
0.33432 0.00253585 0.795357
0.335292 0.00348137 0.794843
0.336334 0.00442832 0.794518
0.337199 0.00536892 0.793724
0.338033 0.00630769 0.792851
0.338918 0.00724673 0.792117
0.339926 0.00818935 0.79171
0.340956 0.00913283 0.791365
0.342169 0.0100838 0.791497
0.343412 0.0110378 0.791704
0.344711 0.0119955 0.792053
0.346078 0.012958 0.792572
0.347517 0.0139262 0.793274
0.349062 0.0149027 0.794237
0.35058 0.0158801 0.795125
0.352154 0.0168639 0.796148
0.353699 0.0178478 0.797089
0.355288 0.0188378 0.798128
0.232376 -0.0975614 0.859352
0.23322 -0.0964308 0.857847
0.234098 -0.0953197 0.856503
0.234811 -0.0941394 0.854462
0.235558 -0.0929801 0.852587
0.236327 -0.0918362 0.850828
0.237086 -0.0906929 0.849042
0.23784 -0.0895527 0.847251
0.238551 -0.0884003 0.845299
0.239202 -0.0872299 0.843121
0.239944 -0.0861014 0.841336
0.240624 -0.0849544 0.839319
0.241368 -0.0838372 0.837579
0.242214 -0.0827631 0.836274
0.243131 -0.0817181 0.835263
0.244075 -0.0806853 0.834369
0.24514 -0.0796973 0.833967
0.246207 -0.0787105 0.833573
0.247257 -0.0777186 0.833115
0.248408 -0.0767611 0.833056
0.249542 -0.0757977 0.832931
0.250657 -0.0748279 0.832731
0.251854 -0.0738836 0.832844
0.253097 -0.0729527 0.833134
0.254356 -0.072025 0.833477
0.255576 -0.0710841 0.833668
0.256895 -0.0701708 0.834228
0.25819 -0.0692481 0.834688
0.259475 -0.0683206 0.835105
0.260697 -0.0673741 0.835283
0.261975 -0.0664414 0.835663
0.263159 -0.065482 0.835689
0.264188 -0.064482 0.835144
0.265162 -0.0634693 0.834404
0.266036 -0.0624334 0.833307
0.266784 -0.0613694 0.83176
0.267411 -0.0602806 0.829791
0.267998 -0.0591876 0.827696
0.268513 -0.0580839 0.825365
0.269024 -0.0569853 0.82304
0.269583 -0.0559032 0.820907
0.270079 -0.054813 0.818567
0.270592 -0.0537325 0.816309
0.271137 -0.0526642 0.814185
0.271665 -0.0515978 0.812016
0.272219 -0.050542 0.809956
0.272887 -0.0495124 0.808304
0.273576 -0.0484908 0.80674
0.274315 -0.0474817 0.805357
0.275098 -0.0464835 0.804133
0.275886 -0.0454888 0.802934
0.276739 -0.0445074 0.801961
0.277644 -0.0435365 0.801173
0.278487 -0.0425573 0.800179
0.279392 -0.0415897 0.799401
0.280313 -0.040626 0.798678
0.281237 -0.0396641 0.797974
0.282169 -0.0387044 0.797296
0.283193 -0.0377583 0.796922
0.284123 -0.0368005 0.796245
0.285067 -0.0358457 0.795617
0.286003 -0.0348911 0.794971
0.286969 -0.033941 0.794421
0.287967 -0.0329953 0.793976
0.289041 -0.0320586 0.793773
0.290114 -0.0311216 0.793567
0.291186 -0.0301845 0.793356
0.292256 -0.0292473 0.793142
0.293231 -0.0283014 0.792632
0.294221 -0.0273576 0.792171
0.295155 -0.0264098 0.79154
0.29609 -0.025463 0.790916
0.296981 -0.0245141 0.790161
0.298016 -0.0235767 0.789847
0.29906 -0.0226403 0.789561
0.300158 -0.0217076 0.789439
0.30131 -0.0207779 0.789479
0.302512 -0.0198505 0.789666
0.303672 -0.0189199 0.789722
0.304854 -0.0179897 0.789844
0.306112 -0.0170622 0.790186
0.307327 -0.0161316 0.790399
0.308547 -0.0152002 0.79062
0.309758 -0.0142674 0.790814
0.311016 -0.0133351 0.791138
0.312286 -0.0124019 0.791495
0.313649 -0.0114698 0.792113
0.31505 -0.0105365 0.792835
0.31653 -0.00960238 0.793771
0.317982 -0.00866515 0.794621
0.319357 -0.00772457 0.795245
0.320782 -0.00678249 0.796004
0.322158 -0.00583785 0.796615
0.323428 -0.00489133 0.796927
0.324689 -0.00394304 0.797206
0.32597 -0.00299398 0.797537
0.32712 -0.00204466 0.797503
0.328327 -0.00109424 0.797625
0.329532 -0.000143418 0.79774
0.33063 0.000806757 0.797558
0.331745 0.0017576 0.797423
0.33283 0.00270742 0.797205
0.333863 0.00365604 0.796847
0.334832 0.00460215 0.796321
0.335815 0.00554844 0.795832
0.336597 0.00648653 0.79481
0.337396 0.00742367 0.79384
0.33825 0.00836195 0.793018
0.339177 0.00930163 0.792395
0.340203 0.0102447 0.792037
0.341409 0.0111971 0.792149
0.342649 0.0121515 0.792349
0.343923 0.0131087 0.792635
0.34535 0.0140765 0.793309
0.346791 0.0150467 0.794017
0.348304 0.0160234 0.794902
0.349815 0.0170024 0.795772
0.351355 0.0179857 0.796709
0.352864 0.0189694 0.797561
0.354448 0.0199612 0.79859
0.231652 -0.0965104 0.860675
0.232499 -0.0953801 0.859168
0.233356 -0.0942586 0.85772
0.234015 -0.0930549 0.855434
0.234743 -0.0918876 0.853464
0.235514 -0.0907445 0.851701
0.236259 -0.0895958 0.849845
0.237018 -0.0884581 0.848063
0.237753 -0.0873161 0.846204
0.238428 -0.0861557 0.84411
0.239197 -0.0850379 0.842426
0.239926 -0.0839099 0.840598
0.240693 -0.082801 0.83894
0.241517 -0.0817181 0.837532
0.242408 -0.0806626 0.836405
0.243305 -0.0796124 0.835314
0.244324 -0.0786074 0.834723
0.245368 -0.0776123 0.834235
0.246436 -0.0766262 0.833847
0.247591 -0.0756691 0.833803
0.24875 -0.0747126 0.83377
0.249913 -0.0737568 0.83375
0.251154 -0.072825 0.834037
0.252425 -0.0719005 0.834428
0.253706 -0.0709774 0.834855
0.254946 -0.0700402 0.835118
0.256243 -0.0691176 0.835589
0.257515 -0.0681863 0.835961
0.25878 -0.0672511 0.836301
0.259984 -0.066298 0.836409
0.261222 -0.0653525 0.836636
0.262384 -0.0643864 0.836582
0.263412 -0.0633855 0.836028
0.264388 -0.0623727 0.835289
0.265306 -0.0613476 0.834345
0.266061 -0.0602855 0.832814
0.266688 -0.0591974 0.830833
0.267277 -0.0581058 0.828734
0.267793 -0.0570035 0.826394
0.268289 -0.0559028 0.824004
0.268875 -0.0548273 0.82195
0.269394 -0.0537434 0.819683
0.269905 -0.0526633 0.817403
0.270429 -0.0515919 0.815193
0.27093 -0.0505215 0.81292
0.271438 -0.0494579 0.810689
0.272059 -0.0484209 0.808869
0.272708 -0.0473932 0.807158
0.273401 -0.0463774 0.805614
0.274161 -0.0453763 0.804308
0.274925 -0.0443788 0.803023
0.275754 -0.0433948 0.801969
0.276658 -0.0424245 0.801173
0.277521 -0.0414498 0.800247
0.278427 -0.0404832 0.799469
0.27937 -0.0395233 0.798819
0.280317 -0.0385654 0.798187
0.281273 -0.0376096 0.797588
0.282324 -0.036667 0.7973
0.283281 -0.035713 0.796709
0.284227 -0.0347586 0.796087
0.285163 -0.0338041 0.795434
0.286104 -0.0328514 0.794804
0.28708 -0.0319035 0.794286
0.288133 -0.0309643 0.794015
0.289206 -0.0300275 0.793811
0.290277 -0.0290903 0.793597
0.291347 -0.028153 0.79338
0.292298 -0.0272054 0.792795
0.293264 -0.02626 0.792261
0.294199 -0.0253129 0.791632
0.295111 -0.0243651 0.790936
0.295974 -0.023415 0.790094
0.296982 -0.0224764 0.789698
0.297994 -0.0215385 0.789317
0.299044 -0.0206034 0.789054
0.300193 -0.0196739 0.789085
0.301394 -0.0187468 0.789273
0.302547 -0.0178162 0.789314
0.303724 -0.0168862 0.789425
0.304976 -0.0159585 0.789753
0.306166 -0.0150272 0.789896
0.307381 -0.0140959 0.790109
0.308592 -0.0131634 0.790305
0.309849 -0.0122314 0.790632
0.311141 -0.0112988 0.791057
0.312504 -0.0103663 0.79168
0.313904 -0.00943248 0.792404
0.315379 -0.00849766 0.793337
0.316884 -0.00756041 0.794343
0.318288 -0.0066196 0.795056
0.319775 -0.00567693 0.795991
0.321208 -0.00473156 0.79677
0.322587 -0.00378395 0.797388
0.32388 -0.00283519 0.797759
0.325195 -0.00188423 0.798184
0.326403 -0.00093379 0.79831
0.327672 1.84788e-05 0.798603
0.328916 0.000972097 0.79882
0.330072 0.00192402 0.798796
0.331272 0.0028776 0.79889
0.332416 0.00383051 0.798828
0.333478 0.00478186 0.79854
0.33445 0.00572918 0.798017
0.335408 0.00667571 0.797454
0.336128 0.00761223 0.796258
0.336867 0.00854666 0.79512
0.337692 0.00948392 0.794217
0.338592 0.0104227 0.793517
0.33962 0.0113667 0.793159
0.340826 0.0123204 0.793269
0.342065 0.0132763 0.793464
0.343342 0.0142356 0.793756
0.344799 0.0152073 0.79451
0.346245 0.0161801 0.795227
0.347728 0.0171579 0.796035
0.349236 0.0181389 0.796899
0.350739 0.0191222 0.797742
0.352189 0.0201039 0.798441
0.353741 0.0210951 0.799395
0.230853 -0.0954233 0.861677
0.231704 -0.0942943 0.860175
0.232559 -0.0931718 0.858709
0.2332 -0.0919606 0.856327
0.233912 -0.0907874 0.85428
0.234684 -0.0896449 0.852509
0.235433 -0.0884984 0.850659
0.236192 -0.0873609 0.848866
0.236928 -0.08622 0.846999
0.237628 -0.0850701 0.844998
0.238422 -0.0839623 0.843408
0.239196 -0.0828513 0.841752
0.239989 -0.081752 0.84019
0.240797 -0.0806625 0.838704
0.241665 -0.0795983 0.837476
0.242537 -0.0785388 0.836275
0.243513 -0.0775183 0.835504
0.244556 -0.0765224 0.835011
0.245647 -0.075543 0.834707
0.246825 -0.0745922 0.83475
0.248008 -0.0736423 0.834811
0.249215 -0.072699 0.834963
0.250486 -0.0717742 0.83536
0.251763 -0.0708493 0.835774
0.253066 -0.0699304 0.836282
0.254305 -0.0689906 0.836537
0.255576 -0.0680583 0.836908
0.256829 -0.0671193 0.837203
0.258111 -0.0661868 0.837607
0.259298 -0.0652269 0.837643
0.260535 -0.0642795 0.837865
0.261696 -0.0633115 0.837802
0.262721 -0.0623088 0.837231
0.263654 -0.0612847 0.836326
0.264572 -0.060259 0.835373
0.265307 -0.0591925 0.833759
0.265913 -0.0581006 0.831693
0.266504 -0.0570108 0.829593
0.267047 -0.0559157 0.827335
0.267552 -0.0548181 0.824962
0.268165 -0.0537495 0.822996
0.268712 -0.0526723 0.820815
0.269203 -0.0515894 0.818453
0.269724 -0.0505185 0.816219
0.270203 -0.0494449 0.813854
0.270687 -0.0483787 0.811532
0.271263 -0.0473343 0.809544
0.271908 -0.0463071 0.807813
0.272557 -0.0452847 0.80611
0.273299 -0.0442815 0.804735
0.274038 -0.0432812 0.803362
0.274868 -0.042298 0.802308
0.275745 -0.0413244 0.80142
0.276586 -0.0403472 0.800416
0.277466 -0.0393776 0.799551
0.278407 -0.0384183 0.798893
0.279355 -0.037461 0.798261
0.280314 -0.0365062 0.797669
0.281388 -0.0355669 0.79746
0.282392 -0.0346191 0.79702
0.283341 -0.0336654 0.796406
0.284279 -0.0327117 0.795758
0.28522 -0.0317592 0.795123
0.286194 -0.0308115 0.794599
0.287223 -0.02987 0.794252
0.288299 -0.0289333 0.794054
0.289367 -0.0279959 0.793835
0.290436 -0.0270586 0.793615
0.291386 -0.0261113 0.793025
0.292351 -0.0251662 0.792485
0.293284 -0.0242195 0.791847
0.294172 -0.0232706 0.791075
0.29501 -0.0223198 0.790157
0.29599 -0.0213798 0.789675
0.296975 -0.0204408 0.789212
0.297999 -0.0195047 0.788872
0.299147 -0.0185754 0.788903
0.300347 -0.0176481 0.78909
0.301499 -0.0167177 0.78913
0.302674 -0.0157877 0.789239
0.303922 -0.0148597 0.789559
0.305106 -0.0139282 0.789685
0.306321 -0.0129969 0.789902
0.307531 -0.0120644 0.790101
0.308764 -0.0111314 0.790361
0.31003 -0.0101982 0.790714
0.311362 -0.00926475 0.791255
0.312754 -0.00833034 0.79196
0.314203 -0.00739446 0.792823
0.31573 -0.00645666 0.793901
0.317191 -0.00551555 0.794782
0.318737 -0.00457201 0.795892
0.320204 -0.00362556 0.796769
0.321668 -0.00267651 0.797629
0.323018 -0.00172665 0.798163
0.324392 -0.000774291 0.798757
0.325666 0.000178841 0.799064
0.327019 0.0011338 0.799589
0.328322 0.00208953 0.799971
0.329541 0.00304491 0.800114
0.330775 0.0040011 0.800296
0.331946 0.00495652 0.800305
0.333015 0.00590893 0.800035
0.334018 0.0068585 0.799585
0.335006 0.00780715 0.799097
0.335756 0.00874494 0.797974
0.336519 0.00968094 0.796891
0.33737 0.0106202 0.796049
0.338243 0.0115585 0.795272
0.33925 0.0125032 0.794852
0.340427 0.0134571 0.794882
0.341641 0.0144137 0.795007
0.34289 0.0153734 0.795219
0.344322 0.0163458 0.795908
0.345742 0.0173198 0.796557
0.347165 0.0182956 0.797209
0.348639 0.0192765 0.797985
0.35008 0.0202575 0.79867
0.351503 0.0212392 0.799301
0.353054 0.0222329 0.800252
