ply
format ascii 1.0
element vertex 1791
property float x
property float y
property float z
end_header
0.204401 0.142446 0.901928
0.20627 0.142946 0.902955
0.208141 0.143447 0.903972
0.210091 0.143996 0.905321
0.212092 0.144577 0.906871
0.214077 0.145145 0.908324
0.216073 0.145718 0.909801
0.218137 0.146332 0.911542
0.220195 0.146938 0.913227
0.222184 0.147498 0.91459
0.224094 0.148005 0.915591
0.226056 0.148542 0.91679
0.22809 0.149123 0.918273
0.230103 0.149689 0.919641
0.233807 0.149451 0.926714
0.232195 0.150301 0.921311
0.0853301 0.12074 0.921892
0.0868334 0.120946 0.920758
0.088324 0.121139 0.919518
0.089776 0.121285 0.917904
0.091226 0.121433 0.916317
0.0926599 0.121566 0.91461
0.0940927 0.121703 0.912941
0.0955315 0.121851 0.911378
0.0970199 0.122064 0.910337
0.098518 0.12229 0.909413
0.10004 0.122546 0.908736
0.101581 0.122825 0.908243
0.103122 0.123105 0.907762
0.104617 0.123334 0.906872
0.106106 0.123557 0.905945
0.107601 0.12379 0.905092
0.109077 0.124004 0.904094
0.110541 0.124207 0.903019
0.112035 0.124444 0.902208
0.113536 0.124689 0.901473
0.115029 0.124928 0.900687
0.116526 0.125173 0.899949
0.127995 0.130288 0.926255
0.129494 0.130504 0.925223
0.130935 0.130666 0.923789
0.132388 0.130841 0.922464
0.133802 0.130983 0.920888
0.135256 0.131166 0.919632
0.13678 0.131415 0.918879
0.138411 0.131762 0.918871
0.140011 0.132082 0.918656
0.141706 0.132486 0.919068
0.143444 0.132926 0.919755
0.145222 0.133399 0.920679
0.146984 0.133857 0.92148
0.148786 0.134346 0.922508
0.150482 0.13474 0.922836
0.152099 0.135068 0.922654
0.15363 0.135321 0.921936
0.155269 0.135666 0.921889
0.156828 0.135944 0.921353
0.158447 0.136272 0.921181
0.16006 0.136595 0.920971
0.161576 0.136841 0.920195
0.162896 0.136927 0.918274
0.164386 0.137154 0.917374
0.165904 0.137404 0.916646
0.167514 0.137728 0.916448
0.169216 0.138123 0.916765
0.170911 0.138512 0.917033
0.172522 0.138835 0.916831
0.174125 0.139152 0.916581
0.175643 0.139404 0.915867
0.177026 0.139554 0.91444
0.178421 0.139716 0.913102
0.179588 0.13971 0.910581
0.182051 0.138954 0.897945
0.184961 0.139402 0.896239
0.186887 0.139966 0.897752
0.188789 0.14051 0.899113
0.190537 0.140942 0.899695
0.192311 0.141391 0.900386
0.194236 0.141944 0.901787
0.196001 0.142383 0.9024
0.197802 0.142845 0.903168
0.199656 0.143342 0.904165
0.20145 0.143796 0.904866
0.203169 0.144197 0.905202
0.204952 0.14464 0.90582
0.206805 0.145129 0.906742
0.20869 0.145637 0.907792
0.210631 0.146181 0.909072
0.212605 0.146745 0.910477
0.214541 0.147281 0.911687
0.216451 0.147797 0.912757
0.21844 0.148363 0.914148
0.22038 0.148895 0.915311
0.222271 0.149392 0.916236
0.22411 0.149854 0.916924
0.226058 0.150385 0.918056
0.228108 0.150978 0.919595
0.230182 0.151585 0.921208
0.232279 0.152202 0.922886
0.0864768 0.122521 0.920472
0.0879854 0.122735 0.919422
0.0894598 0.122908 0.918039
0.0909124 0.123056 0.916468
0.0923582 0.1232 0.914871
0.0938023 0.123347 0.913302
0.0952444 0.123496 0.911755
0.0967351 0.123708 0.910724
0.0982358 0.123935 0.909812
0.0997583 0.124189 0.909127
0.101292 0.124458 0.908558
0.102845 0.124751 0.908172
0.104352 0.124991 0.907382
0.105842 0.125214 0.906452
0.107339 0.125446 0.905606
0.108825 0.125668 0.904679
0.110292 0.125872 0.903613
0.111788 0.126108 0.902805
0.113293 0.126356 0.902089
0.114803 0.126611 0.901428
0.116296 0.126849 0.900644
0.127658 0.131908 0.926152
0.129156 0.13212 0.925107
0.130611 0.132293 0.923772
0.132075 0.132478 0.922527
0.133492 0.13262 0.920968
0.134932 0.132786 0.919598
0.13644 0.13302 0.918734
0.13804 0.133339 0.918514
0.139654 0.13367 0.918386
0.141393 0.134117 0.919105
0.143184 0.134605 0.920137
0.145013 0.135127 0.9214
0.146835 0.135637 0.922576
0.148681 0.136166 0.923873
0.150399 0.136579 0.924325
0.152025 0.136912 0.924182
0.153604 0.137204 0.923741
0.155305 0.1376 0.924057
0.156911 0.137914 0.923779
0.158596 0.138296 0.923981
0.160289 0.138682 0.92422
0.161875 0.138979 0.923817
0.163263 0.139115 0.922256
0.164817 0.139388 0.921681
0.166373 0.139663 0.921126
0.167958 0.139963 0.920743
0.169619 0.140321 0.920781
0.171238 0.140648 0.920589
0.172779 0.140912 0.919958
0.174313 0.141171 0.919298
0.175798 0.141394 0.91838
0.17719 0.141547 0.916976
0.17868 0.141776 0.916112
0.187643 0.142342 0.903026
0.18971 0.143004 0.905158
0.191556 0.143503 0.906169
0.193425 0.144016 0.907269
0.195222 0.144474 0.907995
0.196927 0.144867 0.908268
0.198632 0.145259 0.90853
0.200431 0.145715 0.909226
0.202143 0.146109 0.909499
0.203798 0.146462 0.909497
0.20552 0.146862 0.909801
0.20731 0.147307 0.910408
0.20912 0.147764 0.911088
0.211006 0.148271 0.912098
0.212907 0.148786 0.913149
0.214726 0.149243 0.91382
0.216567 0.149715 0.914576
0.218481 0.150232 0.915625
0.220349 0.150718 0.916465
0.222212 0.151199 0.917266
0.224033 0.15165 0.917868
0.226012 0.152202 0.919122
0.228088 0.152815 0.920764
0.230191 0.153443 0.92249
0.232288 0.154063 0.924158
0.235857 0.153748 0.9306
0.234213 0.154571 0.925096
0.0860973 0.124064 0.919934
0.0876186 0.124294 0.919024
0.0891141 0.124493 0.917864
0.0905812 0.124657 0.916436
0.0920384 0.124813 0.914948
0.0934937 0.124971 0.913482
0.0949581 0.125144 0.912145
0.0964593 0.125366 0.911202
0.0979724 0.125606 0.910396
0.0995066 0.125872 0.909806
0.101052 0.126153 0.909335
0.102597 0.126434 0.908859
0.104108 0.126676 0.90808
0.105601 0.126899 0.907162
0.107099 0.127131 0.906313
0.108589 0.127354 0.9054
0.110068 0.127568 0.90442
0.111567 0.127805 0.903621
0.113072 0.128051 0.902897
0.114584 0.128305 0.902236
0.116092 0.128556 0.901551
0.128838 0.133758 0.925146
0.1303 0.133936 0.923857
0.131759 0.134112 0.922565
0.13318 0.134255 0.921023
0.134603 0.134403 0.919536
0.136096 0.134621 0.918561
0.137685 0.134929 0.91826
0.13933 0.135291 0.918352
0.141133 0.135797 0.919496
0.142993 0.136351 0.920984
0.144846 0.136895 0.922394
0.1467 0.137436 0.923768
0.148585 0.138 0.925305
0.150337 0.138444 0.925957
0.152006 0.138812 0.926063
0.15368 0.139184 0.926196
0.155437 0.139626 0.926829
0.157071 0.139962 0.926694
0.15876 0.140344 0.926884
0.160487 0.140757 0.927295
0.1621 0.141072 0.927015
0.163553 0.141255 0.925798
0.165098 0.141517 0.925136
0.166662 0.141794 0.92459
0.168234 0.142078 0.924091
0.169844 0.142394 0.923812
0.171394 0.142661 0.923199
0.172917 0.142908 0.922443
0.174417 0.143138 0.921572
0.175864 0.143327 0.920425
0.177332 0.143534 0.919402
0.178912 0.143829 0.91899
0.192663 0.146154 0.913099
0.194497 0.146637 0.913966
0.196137 0.146979 0.91388
0.197722 0.147282 0.913526
0.199336 0.147604 0.913306
0.201058 0.148003 0.913599
0.202684 0.148334 0.913436
0.204291 0.14865 0.913178
0.205992 0.149033 0.913356
0.207699 0.14942 0.913553
0.209439 0.149827 0.913893
0.211254 0.150285 0.914554
0.213062 0.150737 0.915177
0.214771 0.151121 0.915345
0.216563 0.15156 0.915872
0.218426 0.152044 0.916693
0.22027 0.152515 0.917418
0.222114 0.152984 0.918124
0.223961 0.153453 0.918829
0.225963 0.154023 0.920178
0.228041 0.154639 0.921819
0.230143 0.15527 0.923534
0.232214 0.155875 0.925088
0.234092 0.156355 0.925827
0.0857802 0.125693 0.920083
0.0873004 0.12592 0.919152
0.0888102 0.126135 0.918134
0.0902894 0.126312 0.91682
0.0917574 0.126478 0.915428
0.093205 0.126622 0.913866
0.0946815 0.126807 0.912636
0.0961856 0.12703 0.911706
0.0977092 0.12728 0.910988
0.0992451 0.127547 0.910398
0.100803 0.12784 0.910021
0.10235 0.128122 0.909553
0.103883 0.128388 0.908964
0.10538 0.128612 0.908062
0.106883 0.128846 0.907229
0.108374 0.129067 0.906312
0.109865 0.129292 0.905417
0.111356 0.129517 0.904532
0.112864 0.129763 0.903811
0.114381 0.13002 0.903171
0.115891 0.130271 0.902492
0.129945 0.135535 0.923616
0.131399 0.135704 0.922283
0.132833 0.135858 0.920841
0.134269 0.136016 0.919433
0.135807 0.136274 0.918767
0.137418 0.136604 0.918621
0.139112 0.137011 0.919038
0.140983 0.137582 0.920632
0.142885 0.138178 0.922395
0.144737 0.138722 0.923779
0.146609 0.139281 0.925257
0.14848 0.139834 0.926687
0.150218 0.140265 0.927234
0.151925 0.140667 0.927568
0.153658 0.141089 0.928047
0.155419 0.141535 0.928688
0.157085 0.141896 0.928724
0.158782 0.142283 0.928943
0.160524 0.142707 0.92942
0.162175 0.143052 0.929341
0.16374 0.143325 0.928755
0.165314 0.143606 0.928226
0.166889 0.143888 0.927707
0.168451 0.144161 0.927121
0.170033 0.144449 0.92665
0.171537 0.144676 0.92575
0.173061 0.144919 0.924974
0.174561 0.145145 0.924073
0.175984 0.14531 0.922763
0.177495 0.145548 0.92195
0.179085 0.145847 0.921566
0.192324 0.14864 0.921146
0.193822 0.148872 0.920306
0.195443 0.149194 0.920074
0.196969 0.149447 0.919377
0.198465 0.149679 0.918546
0.200005 0.149944 0.917935
0.20163 0.150271 0.917732
0.203183 0.150545 0.917188
0.204727 0.150814 0.916605
0.206329 0.151125 0.916298
0.207973 0.151465 0.916181
0.209668 0.151839 0.916292
0.211399 0.15224 0.916563
0.213122 0.152632 0.916787
0.214808 0.153 0.91684
0.216571 0.153418 0.917225
0.21839 0.153875 0.917845
0.220215 0.154333 0.918475
0.222062 0.154805 0.91919
0.223913 0.155277 0.919904
0.225872 0.155821 0.921062
0.227922 0.156422 0.922579
0.230042 0.157066 0.92436
0.232093 0.157662 0.925828
0.234002 0.158163 0.926689
0.0870032 0.127576 0.919512
0.0885186 0.127796 0.918539
0.0900035 0.127977 0.917271
0.0914869 0.12816 0.91602
0.0929365 0.128302 0.91446
0.0944249 0.128499 0.913331
0.0959319 0.128723 0.912413
0.0974689 0.128987 0.911806
0.0989971 0.129242 0.911126
0.100546 0.129522 0.91065
0.102093 0.129802 0.910166
0.103628 0.130068 0.909577
0.105126 0.130292 0.908675
0.106632 0.130525 0.907851
0.108135 0.130759 0.907029
0.109629 0.130983 0.906137
0.111121 0.131207 0.905246
0.112622 0.131443 0.904449
0.114147 0.131706 0.90386
0.115651 0.131949 0.903121
0.129537 0.13708 0.922982
0.131027 0.137285 0.921917
0.132496 0.13747 0.920723
0.133977 0.13767 0.919629
0.135611 0.138021 0.919635
0.137284 0.138409 0.919903
0.13904 0.138876 0.920732
0.140964 0.139498 0.922664
0.14289 0.140117 0.924567
0.144735 0.140656 0.925882
0.146614 0.141221 0.927379
0.148472 0.141765 0.928711
0.150199 0.142184 0.929161
0.151915 0.142591 0.929524
0.153652 0.143017 0.930011
0.155369 0.143423 0.930354
0.157041 0.143787 0.930409
0.158697 0.144137 0.930359
0.160404 0.14453 0.930605
0.16202 0.144844 0.930306
0.163621 0.145146 0.92992
0.165201 0.14543 0.92941
0.166835 0.14576 0.929216
0.168457 0.146079 0.928955
0.170101 0.146418 0.928818
0.171664 0.146688 0.928222
0.173229 0.146962 0.927646
0.174754 0.147203 0.92685
0.176178 0.147365 0.92552
0.177672 0.147584 0.924582
0.17924 0.147863 0.924055
0.180726 0.148078 0.923098
0.193497 0.151405 0.92851
0.194881 0.151543 0.92704
0.196259 0.151679 0.92556
0.197657 0.151831 0.924195
0.199019 0.151959 0.922679
0.200419 0.152117 0.921363
0.201892 0.152329 0.920409
0.203355 0.152536 0.919417
0.204796 0.152729 0.91834
0.206355 0.153006 0.917815
0.207999 0.153346 0.917687
0.209716 0.153735 0.917883
0.211452 0.154138 0.918163
0.213159 0.154519 0.918301
0.214842 0.154883 0.918325
0.216558 0.155269 0.918491
0.218354 0.155709 0.918997
0.22016 0.156156 0.919541
0.222014 0.156633 0.920274
0.223891 0.157125 0.921092
0.225826 0.157653 0.922136
0.227854 0.158242 0.923557
0.229976 0.15889 0.925337
0.232055 0.159508 0.926917
0.233996 0.160031 0.927901
0.0866761 0.129193 0.91955
0.0881894 0.129407 0.918546
0.0896883 0.129605 0.917417
0.0911924 0.129814 0.916372
0.0926702 0.129989 0.915084
0.0941711 0.130199 0.914061
0.0956894 0.130435 0.913237
0.0972289 0.1307 0.912635
0.0987592 0.130954 0.911955
0.100309 0.131234 0.911474
0.101857 0.131512 0.91098
0.103393 0.131777 0.910384
0.104894 0.132 0.909485
0.106401 0.132233 0.90866
0.107895 0.132452 0.907729
0.109389 0.132674 0.906825
0.110882 0.132896 0.90593
0.112386 0.133132 0.905142
0.113906 0.133389 0.904507
0.115423 0.133643 0.903851
0.13391 0.139551 0.921434
0.135636 0.139991 0.922061
0.137354 0.140421 0.922616
0.139154 0.140929 0.923712
0.14105 0.141524 0.925422
0.142919 0.142089 0.92691
0.144746 0.142611 0.92808
0.146608 0.143161 0.929441
0.148439 0.143679 0.930571
0.150136 0.14407 0.930809
0.151868 0.144491 0.931258
0.153592 0.144904 0.931639
0.155262 0.145267 0.931674
0.156898 0.145598 0.93149
0.158519 0.145915 0.931209
0.160188 0.146276 0.931225
0.161793 0.146579 0.930849
0.163431 0.146912 0.930673
0.165051 0.147228 0.930383
0.166741 0.147605 0.930504
0.168406 0.147959 0.930472
0.170092 0.148331 0.930554
0.171699 0.148636 0.930187
0.17333 0.14896 0.929954
0.174941 0.149268 0.929607
0.176423 0.149472 0.928562
0.177938 0.149704 0.927709
0.191802 0.152936 0.930005
0.19331 0.153163 0.929124
0.19479 0.153371 0.92812
0.196235 0.153553 0.926954
0.197691 0.153745 0.925855
0.199112 0.153913 0.924605
0.200578 0.154115 0.923583
0.202052 0.154324 0.922609
0.203494 0.154513 0.921503
0.204934 0.154701 0.920397
0.206472 0.154961 0.919757
0.208091 0.15528 0.919496
0.209767 0.15564 0.919492
0.211486 0.15603 0.919677
0.213151 0.156381 0.919615
0.214813 0.156729 0.919534
0.216525 0.157111 0.919671
0.218299 0.157537 0.920073
0.220086 0.15797 0.920521
0.221941 0.15845 0.921254
0.223818 0.158942 0.922061
0.225732 0.159458 0.923009
0.227761 0.160051 0.92443
0.22991 0.160721 0.926323
0.232021 0.161361 0.928025
0.233999 0.16191 0.929149
0.0878484 0.131003 0.918427
0.0893748 0.131238 0.917584
0.090901 0.131474 0.916757
0.0923965 0.13167 0.915636
0.0939168 0.131903 0.914793
0.0954576 0.132165 0.914173
0.0970092 0.132443 0.913668
0.0985419 0.132697 0.91299
0.100093 0.132976 0.912502
0.101641 0.133252 0.911988
0.103168 0.133502 0.911286
0.10466 0.133712 0.91029
0.106169 0.133944 0.909461
0.107663 0.13416 0.908517
0.109158 0.134379 0.9076
0.110653 0.134601 0.906703
0.112169 0.134849 0.906007
0.113696 0.13511 0.905401
0.135835 0.142146 0.925729
0.13754 0.142559 0.926142
0.139316 0.143042 0.927035
0.141132 0.143559 0.928168
0.142902 0.144028 0.928954
0.14466 0.144483 0.929643
0.146486 0.145001 0.930754
0.148282 0.145487 0.931644
0.149964 0.145862 0.931766
0.151708 0.146295 0.932281
0.153414 0.146691 0.932537
0.155053 0.147024 0.932362
0.156673 0.14734 0.932071
0.158279 0.147644 0.931695
0.159917 0.147975 0.93151
0.161542 0.148296 0.931248
0.163201 0.148646 0.931187
0.164844 0.148982 0.931031
0.166577 0.149396 0.93139
0.168282 0.149783 0.931577
0.169995 0.150177 0.931802
0.171665 0.150533 0.931769
0.173401 0.150944 0.932108
0.17513 0.151348 0.93239
0.176728 0.151642 0.931946
0.178317 0.151929 0.931454
0.191574 0.154666 0.930419
0.193111 0.154914 0.929681
0.19465 0.155166 0.928961
0.196173 0.155404 0.928166
0.197681 0.155632 0.927305
0.199174 0.155851 0.926387
0.200709 0.156103 0.925678
0.202189 0.156313 0.924714
0.203638 0.156502 0.923616
0.20508 0.156688 0.9225
0.206597 0.15693 0.921746
0.208171 0.157214 0.921257
0.209823 0.157555 0.921128
0.211521 0.15793 0.921208
0.213145 0.15825 0.920947
0.214806 0.158596 0.920846
0.216494 0.158962 0.920869
0.218246 0.159372 0.921166
0.220008 0.159787 0.921491
0.22184 0.160252 0.922119
0.223694 0.16073 0.922821
0.225605 0.161245 0.92375
0.227638 0.161842 0.92518
0.22979 0.162518 0.927081
0.231934 0.163184 0.928914
0.233945 0.163757 0.93017
0.089065 0.132877 0.917794
0.0906093 0.133136 0.917147
0.0921212 0.133352 0.91618
0.093642 0.133583 0.915326
0.095193 0.133857 0.914791
0.0967364 0.134121 0.914192
0.0982613 0.134363 0.913424
0.0998135 0.134641 0.912931
0.101373 0.13493 0.912513
0.102901 0.13518 0.91181
0.104406 0.135402 0.910911
0.105916 0.135633 0.910079
0.107411 0.135848 0.909134
0.108906 0.136064 0.908203
0.110402 0.136284 0.907299
0.111926 0.136539 0.90665
0.113466 0.136814 0.906148
0.136406 0.144697 0.932049
0.137905 0.144895 0.930943
0.139532 0.145224 0.93075
0.141249 0.14564 0.931161
0.142904 0.145995 0.93114
0.144578 0.146367 0.931244
0.146323 0.146806 0.931798
0.148056 0.147233 0.932266
0.149687 0.14756 0.932052
0.151394 0.147959 0.932327
0.153067 0.148325 0.932372
0.154706 0.148658 0.932197
0.156343 0.14899 0.932012
0.157967 0.149309 0.93174
0.159625 0.14966 0.931679
0.161285 0.15001 0.931619
0.162968 0.150381 0.931691
0.16465 0.150751 0.931754
0.16641 0.151188 0.932266
0.16814 0.151597 0.932586
0.169893 0.152024 0.933021
0.171625 0.152433 0.933331
0.173469 0.152935 0.934251
0.175262 0.153391 0.934866
0.177014 0.153811 0.935241
0.178795 0.154254 0.93576
0.19143 0.156467 0.93127
0.192972 0.156717 0.930541
0.194539 0.156987 0.929945
0.196127 0.157275 0.929463
0.197641 0.157505 0.928621
0.199183 0.157758 0.927921
0.200765 0.158042 0.927421
0.202277 0.158273 0.926588
0.203758 0.158483 0.925624
0.20521 0.158672 0.924536
0.206707 0.158897 0.923667
0.208256 0.15916 0.923044
0.20988 0.159479 0.922773
0.211531 0.159818 0.922625
0.213154 0.160136 0.922344
0.214795 0.160467 0.922148
0.216462 0.160817 0.922066
0.218165 0.161192 0.922136
0.219902 0.16159 0.922347
0.221706 0.162035 0.922841
0.223559 0.162513 0.923534
0.225473 0.163032 0.924472
0.227509 0.163634 0.92591
0.229665 0.164315 0.927819
0.23181 0.164986 0.929652
0.233847 0.165579 0.931011
0.0911465 0.135982 0.926232
0.0917436 0.134894 0.915673
0.093281 0.135148 0.914991
0.0948544 0.135451 0.914679
0.0964182 0.135742 0.914275
0.0979649 0.136011 0.913711
0.0995186 0.13629 0.913223
0.101089 0.136591 0.912898
0.102619 0.136842 0.912203
0.104138 0.137079 0.911417
0.105662 0.137325 0.910697
0.10717 0.137552 0.909847
0.108656 0.137755 0.908825
0.110163 0.137985 0.908002
0.111702 0.138255 0.907462
0.113243 0.138529 0.906951
0.136827 0.147119 0.937329
0.138229 0.147209 0.935483
0.13969 0.147363 0.934079
0.141292 0.147661 0.933664
0.142849 0.147915 0.932952
0.144461 0.148224 0.932614
0.146144 0.148602 0.932745
0.147826 0.148979 0.932867
0.149423 0.149273 0.932424
0.151096 0.14964 0.932478
0.152737 0.149975 0.932312
0.154359 0.150292 0.932032
0.156015 0.150642 0.931961
0.157656 0.150977 0.931795
0.159317 0.151329 0.931744
0.160997 0.151699 0.931807
0.162698 0.152087 0.931984
0.164404 0.152478 0.932181
0.166184 0.152933 0.932797
0.167936 0.153362 0.933241
0.169727 0.153823 0.933886
0.171554 0.154313 0.93472
0.173504 0.154907 0.936221
0.175368 0.155423 0.937207
0.17721 0.155918 0.938049
0.179089 0.156441 0.939071
0.192868 0.158551 0.931581
0.19445 0.158832 0.931051
0.196063 0.159136 0.930674
0.197621 0.159398 0.93003
0.199144 0.159634 0.929226
0.20073 0.15992 0.928735
0.202269 0.160169 0.928016
0.203779 0.160398 0.927174
0.205262 0.160607 0.926209
0.206764 0.160832 0.925349
0.208289 0.161075 0.924603
0.209864 0.161357 0.924095
0.211466 0.161658 0.923709
0.213045 0.161942 0.92322
0.214686 0.162272 0.923014
0.216331 0.162606 0.922828
0.218032 0.162979 0.922877
0.219766 0.163375 0.923069
0.221547 0.163805 0.923459
0.223401 0.164284 0.924151
0.225342 0.164824 0.925202
0.227381 0.16543 0.926639
0.229516 0.166101 0.928463
0.231655 0.16677 0.930266
0.233688 0.167364 0.931606
0.0937271 0.137845 0.922858
0.0944754 0.136991 0.914165
0.0960522 0.137299 0.913892
0.098483 0.138758 0.921876
0.109909 0.139672 0.90858
0.111434 0.139924 0.907914
0.112952 0.140168 0.907197
0.135542 0.14917 0.942418
0.136984 0.149288 0.940763
0.138368 0.149351 0.938743
0.139777 0.149444 0.936936
0.141286 0.149643 0.935849
0.142752 0.1498 0.934484
0.144316 0.150059 0.93381
0.145954 0.150392 0.933625
0.147588 0.150721 0.933421
0.149161 0.15099 0.932814
0.150816 0.15134 0.932744
0.152441 0.151659 0.932473
0.154067 0.15198 0.932211
0.15574 0.152345 0.932245
0.1574 0.152697 0.932184
0.159082 0.153069 0.932257
0.160783 0.153457 0.932434
0.162504 0.153863 0.932726
0.164226 0.154268 0.933008
0.166007 0.154725 0.933624
0.167762 0.155156 0.934068
0.169553 0.155619 0.934711
0.171386 0.156115 0.935564
0.173326 0.156701 0.936998
0.175201 0.157229 0.93804
0.177068 0.157746 0.939015
0.192832 0.160445 0.932962
0.194419 0.160727 0.932442
0.19605 0.161044 0.93214
0.197648 0.161335 0.931677
0.199152 0.161554 0.930767
0.200737 0.161836 0.930247
0.202274 0.162082 0.929509
0.203766 0.162293 0.928563
0.205255 0.162504 0.927616
0.206762 0.162731 0.926766
0.208243 0.162938 0.925801
0.209769 0.16318 0.925055
0.211321 0.163443 0.924433
0.212876 0.163708 0.923829
0.214476 0.164008 0.923434
0.216123 0.164342 0.923247
0.217822 0.164714 0.923288
0.219555 0.16511 0.923469
0.221315 0.165525 0.923765
0.223174 0.166009 0.924475
0.225144 0.166573 0.925648
0.227186 0.167183 0.927094
0.229295 0.167839 0.928804
0.2314 0.168488 0.930464
0.233426 0.169079 0.931775
0.237346 0.169073 0.939588
0.236935 0.1707 0.939151
0.134015 0.148964 0.943479
0.133906 0.150876 0.945088
0.135443 0.151088 0.944075
0.136902 0.151219 0.942515
0.138309 0.1513 0.94063
0.139701 0.151368 0.938669
0.141176 0.151527 0.937323
0.142625 0.151663 0.935824
0.144161 0.15189 0.934939
0.14577 0.152193 0.934552
0.147386 0.152502 0.934213
0.148939 0.152749 0.933463
0.150575 0.153079 0.933258
0.152185 0.153384 0.932891
0.153814 0.153706 0.932639
0.155504 0.154087 0.932769
0.157183 0.154457 0.932822
0.158854 0.154818 0.932818
0.160577 0.155227 0.933119
0.162314 0.155648 0.933496
0.164036 0.156052 0.933768
0.165818 0.156511 0.934384
0.167591 0.156959 0.934922
0.169366 0.157407 0.93546
0.171216 0.15792 0.936408
0.173183 0.158532 0.937984
0.17502 0.159028 0.938806
0.176889 0.159548 0.93978
0.19453 0.162743 0.934544
0.196151 0.163051 0.934175
0.197775 0.163361 0.933825
0.199236 0.163541 0.932678
0.200774 0.163784 0.93192
0.202216 0.163951 0.930707
0.203658 0.164122 0.929514
0.205103 0.164297 0.928349
0.206612 0.164522 0.927499
0.208097 0.16473 0.926544
0.209644 0.164986 0.925883
0.211194 0.165246 0.925241
0.212726 0.165492 0.924524
0.214304 0.165774 0.924024
0.215927 0.16609 0.923724
0.217605 0.166447 0.923669
0.219317 0.166827 0.923756
0.221106 0.167264 0.924174
0.222993 0.16777 0.924997
0.224991 0.168355 0.926283
0.227035 0.16897 0.927737
0.229142 0.169628 0.929437
0.231223 0.170263 0.930993
0.23322 0.170835 0.932171
0.235115 0.171333 0.932914
0.132141 0.152458 0.946884
0.133705 0.152694 0.946034
0.135261 0.152923 0.945136
0.136741 0.153072 0.94371
0.138174 0.153176 0.941988
0.13957 0.153243 0.940037
0.141048 0.153401 0.93869
0.142495 0.153529 0.937153
0.144033 0.153755 0.936258
0.145629 0.154041 0.935765
0.147231 0.154335 0.935321
0.148767 0.154563 0.934446
0.150386 0.154874 0.934116
0.151985 0.155166 0.933663
0.153617 0.15549 0.93342
0.155325 0.155889 0.933654
0.157023 0.156276 0.933812
0.158712 0.156652 0.933903
0.160424 0.157051 0.934128
0.162163 0.157473 0.934504
0.163886 0.157877 0.934766
0.165652 0.158322 0.935276
0.167391 0.158739 0.935614
0.169186 0.159206 0.936256
0.171017 0.159703 0.937089
0.172917 0.160258 0.938283
0.174669 0.160679 0.938628
0.194596 0.164734 0.936436
0.196234 0.165052 0.936133
0.197876 0.165374 0.935848
0.199357 0.165566 0.934777
0.200823 0.165748 0.933648
0.202167 0.165834 0.931952
0.20353 0.165939 0.93037
0.2049 0.166053 0.928845
0.206367 0.166243 0.927786
0.207855 0.166451 0.92684
0.209407 0.16671 0.926198
0.210957 0.166969 0.925556
0.212511 0.167231 0.924934
0.214087 0.16751 0.924415
0.215711 0.167826 0.924114
0.21739 0.168183 0.92406
0.219125 0.168581 0.924241
0.220917 0.169021 0.924667
0.222833 0.16955 0.925613
0.224857 0.170155 0.927002
0.22693 0.170795 0.928578
0.229016 0.17144 0.930182
0.231072 0.172059 0.931625
0.233069 0.172634 0.932802
0.234938 0.173114 0.933432
0.238553 0.172912 0.939946
0.236814 0.173599 0.934079
0.130483 0.154175 0.949545
0.132017 0.154371 0.948425
0.133535 0.154552 0.947209
0.135078 0.154764 0.946205
0.136563 0.154915 0.944799
0.138027 0.155045 0.943269
0.139429 0.155113 0.941337
0.140913 0.155273 0.940009
0.142361 0.155398 0.938462
0.143871 0.155591 0.937356
0.145422 0.155828 0.936547
0.147009 0.156104 0.935988
0.148546 0.156331 0.935112
0.150169 0.156646 0.934802
0.151787 0.156954 0.934453
0.153453 0.157312 0.93442
0.155164 0.157711 0.934654
0.156898 0.158133 0.935022
0.15861 0.15853 0.935236
0.160323 0.158928 0.935451
0.162064 0.159352 0.935827
0.163789 0.159759 0.936088
0.165523 0.160173 0.936397
0.16723 0.16056 0.936534
0.168987 0.160991 0.936947
0.170741 0.161419 0.93733
0.172549 0.161894 0.93801
0.174243 0.162264 0.93803
0.17604 0.162726 0.938613
0.194691 0.166756 0.938478
0.196337 0.167079 0.938194
0.197964 0.167386 0.937814
0.199423 0.167556 0.936618
0.200869 0.167718 0.935376
0.202116 0.167722 0.933195
0.203402 0.167762 0.931234
0.204721 0.167831 0.929454
0.206163 0.167999 0.928271
0.207632 0.168191 0.927231
0.209189 0.168453 0.926608
0.210745 0.168714 0.925985
0.21228 0.168959 0.925268
0.213857 0.169238 0.924749
0.215503 0.16957 0.924543
0.217203 0.169943 0.924572
0.218943 0.170345 0.924772
0.220734 0.170784 0.925189
0.222673 0.171332 0.926228
0.224704 0.171946 0.927645
0.226783 0.172592 0.92924
0.228897 0.17326 0.930956
0.230977 0.173901 0.932501
0.233003 0.174498 0.933791
0.234874 0.174981 0.93442
0.236773 0.175482 0.935152
0.130196 0.155913 0.949894
0.13176 0.15614 0.948985
0.133286 0.156327 0.947818
0.134818 0.156524 0.946718
0.136319 0.156687 0.945408
0.137814 0.156849 0.944088
0.13924 0.156939 0.94231
0.140746 0.157118 0.941116
0.142214 0.157259 0.939684
0.143722 0.157446 0.938549
0.145239 0.157646 0.937501
0.146811 0.157904 0.936826
0.148353 0.158132 0.93596
0.149979 0.158448 0.935659
0.151601 0.15876 0.935329
0.153302 0.15915 0.935496
0.155037 0.159574 0.935873
0.156794 0.160016 0.936364
0.158511 0.160418 0.936597
0.160225 0.160816 0.936801
0.161948 0.161221 0.937053
0.163638 0.161594 0.937094
0.165355 0.161991 0.937288
0.167041 0.162358 0.937291
0.168759 0.162754 0.937474
0.170378 0.163058 0.937086
0.172102 0.163457 0.937288
0.173696 0.163738 0.936757
0.196509 0.169172 0.940604
0.198096 0.169443 0.940005
0.199541 0.169597 0.938715
0.200926 0.169705 0.937159
0.202106 0.169649 0.934637
0.203344 0.169644 0.93243
0.204616 0.169671 0.930413
0.206032 0.169816 0.929097
0.20748 0.169989 0.927953
0.209039 0.17025 0.92733
0.210598 0.170512 0.926706
0.212159 0.170776 0.926102
0.213742 0.171058 0.925602
0.215392 0.171392 0.925405
0.217074 0.171751 0.92535
0.218812 0.172151 0.92553
0.220603 0.17259 0.925937
0.222547 0.173144 0.926995
0.22458 0.173763 0.92842
0.226687 0.174432 0.930127
0.228829 0.175124 0.931955
0.230943 0.175791 0.933632
0.232997 0.176411 0.935034
0.234898 0.176916 0.935775
0.23683 0.177442 0.936629
0.128368 0.157456 0.951345
0.129913 0.157658 0.950272
0.131481 0.157887 0.949383
0.132987 0.158049 0.948062
0.134502 0.158223 0.946828
0.136016 0.158399 0.945604
0.137528 0.158577 0.944399
0.138977 0.158686 0.942765
0.140492 0.158873 0.941629
0.141993 0.159047 0.940407
0.143495 0.159225 0.939224
0.145009 0.159418 0.938138
0.146596 0.159689 0.937549
0.148156 0.159934 0.936798
0.149789 0.160255 0.936525
0.151428 0.160583 0.93629
0.153149 0.160992 0.936572
0.154874 0.161406 0.936872
0.15664 0.161858 0.93741
0.158342 0.162244 0.937537
0.160038 0.162623 0.937617
0.161724 0.162993 0.937639
0.163411 0.163361 0.937651
0.165109 0.163741 0.93773
0.166775 0.164088 0.937609
0.168476 0.164468 0.937687
0.170071 0.164748 0.937156
0.171755 0.165111 0.93713
0.17331 0.165356 0.936379
0.1983 0.17157 0.942556
0.199703 0.171684 0.941037
0.201023 0.171733 0.93914
0.202162 0.171637 0.9364
0.203384 0.171613 0.934098
0.204594 0.171584 0.931769
0.205988 0.171708 0.930339
0.207432 0.171873 0.929157
0.208986 0.172128 0.928495
0.210548 0.172391 0.927881
0.212135 0.172673 0.927381
0.213745 0.172976 0.926994
0.215401 0.173312 0.926806
0.217064 0.173655 0.926655
0.218806 0.174058 0.926844
0.220598 0.174498 0.927241
0.222543 0.175054 0.928298
0.224556 0.175658 0.929618
0.226691 0.176351 0.931438
0.228839 0.177051 0.933284
0.230982 0.177741 0.935073
0.233077 0.178394 0.936634
0.235016 0.178928 0.937525
0.23693 0.179441 0.938293
0.129659 0.159439 0.95087
0.131219 0.159657 0.949914
0.132709 0.159796 0.948458
0.134198 0.159938 0.947023
0.135712 0.160112 0.945799
0.137241 0.160305 0.944701
0.138724 0.160449 0.943296
0.14026 0.160656 0.942294
0.141779 0.160846 0.941187
0.143281 0.161021 0.939985
0.144796 0.161211 0.938889
0.146371 0.161468 0.938214
0.147935 0.161715 0.937472
0.149569 0.162036 0.937199
0.151223 0.162377 0.93705
0.152963 0.162807 0.937446
0.154691 0.163221 0.937745
0.156463 0.16368 0.938312
0.15818 0.164081 0.938524
0.159856 0.164439 0.93847
0.161503 0.16477 0.938244
0.163172 0.16512 0.938141
0.164835 0.165464 0.938001
0.166447 0.16576 0.937564
0.168136 0.16613 0.937576
0.169674 0.166355 0.936711
0.171251 0.166619 0.936085
0.172705 0.166768 0.934774
0.196906 0.173436 0.945715
0.198457 0.173669 0.944887
0.199808 0.173735 0.943093
0.201067 0.173726 0.940873
0.202208 0.173625 0.938125
0.203411 0.173579 0.935709
0.204602 0.173528 0.933275
0.205978 0.173633 0.931741
0.207394 0.173773 0.930417
0.208926 0.174008 0.929641
0.210466 0.174251 0.928914
0.212055 0.174533 0.928413
0.213692 0.174854 0.92813
0.215376 0.175213 0.928064
0.217064 0.175573 0.928007
0.218852 0.176011 0.928384
0.22065 0.176455 0.928799
0.222577 0.176998 0.929761
0.224567 0.177586 0.930977
0.226697 0.178279 0.932766
0.228823 0.178964 0.934508
0.230979 0.179667 0.936343
0.233133 0.180365 0.938138
0.235109 0.180927 0.93917
0.237003 0.181426 0.939843
0.127831 0.160995 0.952358
0.129355 0.161166 0.951104
0.130919 0.161386 0.950166
0.1324 0.161511 0.948634
0.133891 0.161651 0.947199
0.135409 0.161827 0.945995
0.136965 0.162049 0.945088
0.138479 0.162225 0.943894
0.14002 0.162435 0.942911
0.141544 0.162627 0.941823
0.143048 0.1628 0.940621
0.144548 0.162972 0.93942
0.146127 0.163231 0.938754
0.147714 0.1635 0.938156
0.149368 0.16384 0.937997
0.151039 0.164199 0.937953
0.152793 0.164643 0.938424
0.154506 0.165041 0.938618
0.15626 0.165481 0.93906
0.157957 0.165862 0.939139
0.159631 0.166217 0.939065
0.161261 0.166529 0.938724
0.16293 0.16688 0.938621
0.164594 0.167225 0.93848
0.166227 0.16754 0.938158
0.167889 0.167882 0.937998
0.169403 0.168082 0.936991
0.196964 0.175464 0.94758
0.198505 0.175685 0.946686
0.199808 0.175704 0.944636
0.201031 0.17566 0.942227
0.202186 0.175563 0.939525
0.203412 0.175531 0.937204
0.204608 0.175477 0.934771
0.206029 0.175615 0.933436
0.207447 0.175752 0.932102
0.208959 0.175969 0.931222
0.210479 0.176192 0.93038
0.212072 0.176476 0.929888
0.213712 0.176797 0.929604
0.215421 0.177174 0.929632
0.217137 0.177555 0.929688
0.218932 0.177998 0.930084
0.220737 0.178448 0.930517
0.222641 0.178973 0.931364
0.224603 0.179541 0.932447
0.226709 0.180217 0.934123
0.228833 0.180902 0.935844
0.231021 0.181634 0.93781
0.233207 0.182358 0.939727
0.235215 0.182946 0.94088
0.237108 0.183443 0.941533
0.127474 0.16266 0.952188
0.128993 0.162822 0.950886
0.130553 0.163037 0.94992
0.132063 0.163194 0.948599
0.133541 0.163316 0.947069
0.13506 0.163491 0.945864
0.136617 0.163712 0.944957
0.138145 0.163902 0.943859
0.139689 0.164114 0.942896
0.14123 0.164323 0.941923
0.142767 0.16453 0.940941
0.144299 0.164734 0.939941
0.145897 0.165013 0.939399
0.147504 0.1653 0.938915
0.149177 0.16566 0.938871
0.150852 0.166021 0.938836
0.152591 0.166449 0.939201
0.154285 0.166829 0.939271
0.156018 0.167246 0.939569
0.157699 0.16761 0.939543
0.159357 0.167949 0.939364
0.160991 0.168264 0.939042
0.162661 0.168615 0.938939
0.164329 0.168964 0.938817
0.165982 0.169297 0.938599
0.167664 0.169658 0.938553
0.169224 0.169901 0.937802
0.196923 0.177414 0.948961
0.198479 0.177644 0.948123
0.1998 0.177675 0.946149
0.201041 0.177639 0.943807
0.202194 0.177534 0.941077
0.2034 0.177479 0.938642
0.204577 0.177404 0.936105
0.206002 0.177541 0.93477
0.207447 0.177697 0.933549
0.208984 0.177929 0.932763
0.210533 0.178174 0.932044
0.212153 0.178477 0.931656
0.213816 0.178816 0.931465
0.215508 0.179177 0.931398
0.217232 0.179563 0.931472
0.219037 0.180012 0.931895
0.220871 0.180485 0.932441
0.222732 0.180977 0.933089
0.224689 0.181541 0.934133
0.226791 0.182215 0.93578
0.228897 0.18289 0.937415
0.231064 0.183607 0.939276
0.233253 0.184337 0.941201
0.235229 0.184901 0.942212
0.237043 0.185339 0.942526
0.127199 0.164428 0.952651
0.1287 0.164565 0.951205
0.130249 0.164763 0.950143
0.131724 0.164875 0.948554
0.133187 0.164977 0.946909
0.134692 0.165133 0.9456
0.13625 0.165353 0.944693
0.137793 0.165559 0.943701
0.139354 0.165788 0.942852
0.140914 0.166017 0.942004
0.142468 0.166242 0.941137
0.144017 0.166463 0.940241
0.145631 0.166757 0.939795
0.147255 0.167063 0.939426
0.148937 0.167431 0.939428
0.150631 0.167813 0.939508
0.152354 0.168223 0.939759
0.154014 0.168566 0.939608
0.155726 0.168963 0.939773
0.157424 0.169343 0.939841
0.159087 0.169687 0.939691
0.160746 0.170026 0.939511
0.162472 0.170433 0.939732
0.164159 0.1708 0.939715
0.165833 0.171153 0.939611
0.16755 0.171548 0.939755
0.169242 0.171917 0.939746
0.196744 0.17925 0.949659
0.198363 0.179533 0.949124
0.199684 0.179558 0.947131
0.200927 0.179519 0.944789
0.202125 0.179445 0.942258
0.203334 0.179387 0.939824
0.204496 0.179294 0.937201
0.205946 0.179447 0.93597
0.207417 0.179621 0.934853
0.208963 0.179861 0.934105
0.210563 0.180144 0.933603
0.212188 0.180449 0.933223
0.21388 0.180809 0.933146
0.215621 0.181209 0.933286
0.217399 0.181637 0.933586
0.219216 0.182096 0.934046
0.221102 0.182608 0.934797
0.22296 0.183097 0.935417
0.224875 0.183628 0.936261
0.226929 0.184267 0.93769
0.228991 0.184907 0.939117
0.231084 0.18557 0.940656
0.233192 0.18624 0.942232
0.235114 0.186763 0.943007
0.236871 0.187158 0.943085
0.128317 0.166198 0.950834
0.129848 0.166373 0.949638
0.131325 0.166484 0.948059
0.132771 0.166563 0.94629
0.134273 0.166714 0.944962
0.135832 0.166935 0.944065
0.137392 0.16716 0.943197
0.138986 0.167426 0.942578
0.140564 0.167675 0.941854
0.142135 0.167918 0.941102
0.1437 0.168155 0.940312
0.145347 0.168485 0.940086
0.146992 0.168812 0.93984
0.148708 0.169218 0.940062
0.150405 0.169602 0.940151
0.152113 0.169996 0.940296
0.153754 0.170317 0.940012
0.155446 0.170694 0.940052
0.157148 0.171078 0.94014
0.158835 0.171447 0.940132
0.16055 0.171843 0.940286
0.162301 0.172276 0.940649
0.164026 0.17268 0.94084
0.165759 0.17309 0.94107
0.167583 0.173591 0.941822
0.169442 0.174124 0.942754
0.196409 0.18095 0.94958
0.198021 0.181226 0.949007
0.199381 0.181282 0.947204
0.200653 0.181264 0.944995
0.201906 0.181232 0.94272
0.203164 0.181212 0.940513
0.204392 0.181169 0.938193
0.205867 0.181341 0.937066
0.207366 0.181536 0.936071
0.208941 0.181795 0.935436
0.210641 0.182161 0.935387
0.212325 0.182514 0.935262
0.214052 0.182901 0.935326
0.215843 0.18334 0.935672
0.217673 0.183808 0.936178
0.219422 0.18421 0.936317
0.221268 0.18469 0.936879
0.223055 0.185121 0.937167
0.224894 0.185592 0.937672
0.22685 0.186154 0.938666
0.228859 0.186755 0.939867
0.230897 0.187377 0.94117
0.232972 0.188024 0.942604
0.234859 0.188522 0.943228
0.23661 0.188912 0.943277
0.126377 0.167627 0.951477
0.127863 0.16774 0.949917
0.12939 0.167909 0.948693
0.130877 0.168032 0.947201
0.132321 0.168105 0.945413
0.133835 0.16827 0.944181
0.13541 0.168511 0.943409
0.136989 0.168757 0.942675
0.138599 0.169042 0.942171
0.140208 0.169326 0.941667
0.141798 0.16959 0.941039
0.143385 0.16985 0.940392
0.145051 0.170201 0.94029
0.146728 0.170564 0.940254
0.148463 0.170991 0.940591
0.150178 0.171395 0.940793
0.151886 0.171788 0.940929
0.153525 0.172107 0.940625
0.155218 0.172482 0.940656
0.156921 0.172868 0.940743
0.158631 0.17326 0.940868
0.160371 0.173682 0.941164
0.16218 0.174174 0.94186
0.163947 0.17462 0.942289
0.165742 0.175093 0.94287
0.167638 0.175665 0.944021
0.169596 0.176297 0.945504
0.196347 0.182896 0.950864
0.197809 0.183036 0.949534
0.199115 0.18304 0.947456
0.200422 0.183048 0.945408
0.201705 0.183039 0.943276
0.202994 0.183039 0.941201
0.20427 0.183033 0.939099
0.205768 0.183223 0.938076
0.207296 0.18344 0.937204
0.208878 0.183702 0.936587
0.210676 0.184151 0.936981
0.212441 0.184568 0.937205
0.214231 0.185007 0.937541
0.21606 0.185476 0.938038
0.217938 0.185984 0.938742
0.219568 0.186286 0.938332
0.221358 0.186719 0.938629
0.223045 0.187067 0.938465
0.224805 0.187474 0.93862
0.226655 0.187953 0.939152
0.228598 0.188504 0.94007
0.230552 0.189061 0.941015
0.232594 0.189685 0.942307
0.234458 0.190166 0.942837
0.236211 0.190559 0.942896
0.127387 0.169252 0.948828
0.1289 0.169403 0.947508
0.130398 0.169538 0.946103
0.131824 0.169588 0.944191
0.133338 0.169752 0.94297
0.134913 0.169993 0.942207
0.136524 0.170279 0.941713
0.138167 0.170603 0.941448
0.139808 0.170926 0.941174
0.141415 0.171208 0.940661
0.143034 0.171505 0.940233
0.144704 0.171862 0.94016
0.146402 0.172248 0.940258
0.148155 0.172697 0.940718
0.149888 0.17312 0.941025
0.151597 0.173516 0.94117
0.153268 0.173867 0.941057
0.154978 0.174262 0.941192
0.156701 0.174668 0.941393
0.158431 0.175081 0.941632
0.160209 0.175543 0.942147
0.162041 0.176059 0.942975
0.163835 0.176534 0.943556
0.165675 0.177052 0.944383
0.167622 0.177678 0.945819
0.169592 0.178322 0.947348
0.171428 0.178826 0.948078
0.196364 0.184922 0.952555
0.1977 0.184944 0.95058
0.198966 0.184905 0.948285
0.200275 0.18491 0.946237
0.20157 0.184908 0.944152
0.202844 0.18489 0.941993
0.204186 0.184937 0.940194
0.205717 0.185151 0.939312
0.207254 0.185373 0.938468
0.208817 0.185618 0.937757
0.210682 0.186122 0.938443
0.212457 0.186548 0.938703
0.214246 0.186985 0.93902
0.216086 0.187463 0.939554
0.217936 0.187948 0.940124
0.219457 0.188157 0.939215
0.221136 0.188498 0.939012
0.222737 0.188775 0.938471
0.224387 0.189093 0.938146
0.226171 0.189519 0.938395
0.228051 0.190023 0.939049
0.229944 0.190534 0.93974
0.231936 0.191122 0.940835
0.233804 0.19161 0.941393
0.235535 0.191986 0.941367
0.126846 0.170676 0.947231
0.128362 0.17083 0.945951
0.129859 0.170964 0.944546
0.1313 0.171031 0.94276
0.132828 0.171213 0.941653
0.134417 0.171472 0.941006
0.136045 0.17178 0.940646
0.137719 0.172144 0.940611
0.139393 0.172506 0.940566
0.141015 0.172807 0.940168
0.142667 0.173143 0.93997
0.144354 0.173518 0.940001
0.146068 0.173925 0.940213
0.147836 0.174392 0.940768
0.149575 0.174823 0.941114
0.151304 0.175241 0.941382
0.152998 0.175617 0.941412
0.154712 0.176016 0.941565
0.156437 0.176425 0.941776
0.158218 0.176893 0.942319
0.160015 0.177376 0.942948
0.161889 0.177937 0.944014
0.163725 0.178455 0.944831
0.165606 0.179018 0.945896
0.167551 0.179642 0.947302
0.169507 0.180272 0.948735
0.171314 0.180746 0.949283
0.173341 0.179404 0.949225
0.173166 0.181264 0.950069
0.195011 0.186913 0.956106
0.19639 0.186965 0.954301
0.197646 0.186906 0.951901
0.19884 0.186797 0.949237
0.200098 0.18675 0.946924
0.20137 0.186722 0.944717
0.202644 0.1867 0.942548
0.204012 0.186765 0.940862
0.205526 0.186964 0.939895
0.207045 0.187167 0.938957
0.208539 0.18735 0.937915
0.210439 0.187886 0.938761
0.212237 0.188333 0.939125
0.214038 0.18878 0.939489
0.215931 0.189304 0.940258
0.217752 0.189764 0.940686
0.219134 0.189854 0.939155
0.220697 0.190099 0.938444
0.222231 0.19032 0.93761
0.223763 0.190541 0.936777
0.225489 0.190921 0.936782
0.227307 0.191377 0.937182
0.229138 0.191842 0.937629
0.23108 0.192395 0.938526
0.232949 0.192887 0.939103
0.234683 0.193269 0.939106
0.126088 0.171809 0.943951
0.127644 0.172018 0.943007
0.129221 0.172258 0.942244
0.130717 0.172396 0.940889
0.132273 0.172613 0.940003
0.133877 0.172893 0.939481
0.135533 0.173237 0.939331
0.137222 0.173621 0.939421
0.138913 0.174007 0.93951
0.140552 0.174329 0.939236
0.142247 0.174716 0.939334
0.143949 0.175112 0.939479
0.145697 0.175559 0.939921
0.1475 0.176067 0.940704
0.149271 0.176536 0.941259
0.15102 0.176977 0.941651
0.152736 0.17738 0.941824
0.154456 0.177784 0.942005
0.156201 0.178214 0.94233
0.157999 0.178702 0.942977
0.15982 0.179211 0.943739
0.161733 0.179817 0.945042
0.16361 0.180378 0.946087
0.16551 0.18096 0.947245
0.167444 0.181574 0.948574
0.169365 0.182171 0.949798
0.171137 0.182609 0.950137
0.172934 0.18307 0.950599
0.19368 0.186911 0.958187
0.193468 0.188748 0.958758
0.194816 0.188762 0.956753
0.196211 0.188823 0.955015
0.197439 0.188733 0.952463
0.198639 0.188624 0.949819
0.199926 0.188599 0.947639
0.201171 0.188541 0.94529
0.20242 0.188491 0.942989
0.203788 0.188553 0.941294
0.205252 0.188704 0.940082
0.206728 0.188867 0.938936
0.208168 0.189001 0.937639
0.20999 0.189472 0.938126
0.211755 0.189891 0.93834
0.213526 0.190314 0.938571
0.215373 0.190801 0.939142
0.217139 0.191218 0.939335
0.218484 0.191275 0.937644
0.219958 0.191445 0.936547
0.221442 0.191625 0.935508
0.222944 0.191821 0.934553
0.224652 0.19219 0.934502
0.226438 0.192623 0.93478
0.228261 0.193085 0.935208
0.230168 0.193613 0.935974
0.232006 0.194084 0.936439
0.23373 0.194462 0.936424
0.125387 0.173004 0.941094
0.126967 0.173249 0.94037
0.128561 0.173514 0.939762
0.130103 0.173714 0.93878
0.131674 0.173951 0.93802
0.133304 0.174266 0.937708
0.134987 0.174648 0.937778
0.136705 0.175071 0.938088
0.138426 0.175495 0.938396
0.140113 0.175877 0.938466
0.141826 0.176288 0.938698
0.143529 0.176686 0.938853
0.145292 0.177153 0.939399
0.147095 0.177665 0.940192
0.148885 0.178156 0.940871
0.15067 0.178641 0.941501
0.152418 0.17908 0.941873
0.154159 0.179509 0.942188
0.155936 0.179976 0.942712
0.157757 0.180489 0.943492
0.159617 0.181043 0.944491
0.161576 0.181699 0.94606
0.163474 0.182285 0.947228
0.165357 0.18285 0.948271
0.167249 0.183421 0.949343
0.169109 0.183955 0.950204
0.17084 0.18435 0.950296
0.1726 0.184774 0.950549
0.193256 0.190588 0.959329
0.19461 0.190603 0.957343
0.196011 0.190666 0.955624
0.197234 0.190567 0.953044
0.198428 0.190445 0.950353
0.199699 0.190401 0.948088
0.200899 0.190296 0.945503
0.202102 0.1902 0.942977
0.20342 0.190213 0.941036
0.204831 0.190314 0.939569
0.206248 0.190424 0.93815
0.207633 0.190507 0.936599
0.209336 0.190874 0.936539
0.211016 0.191222 0.936376
0.21273 0.191598 0.936363
0.21452 0.19204 0.936689
0.216236 0.192416 0.936675
0.21763 0.192516 0.935221
0.219122 0.192702 0.934219
0.220634 0.192905 0.933312
0.222167 0.193128 0.932508
0.223878 0.193503 0.932486
0.225637 0.193916 0.932661
0.227399 0.194331 0.932845
0.229217 0.194791 0.933254
0.230992 0.195214 0.933475
0.232681 0.195566 0.933329
0.124466 0.173892 0.936516
0.126135 0.174263 0.93653
0.127785 0.174607 0.936391
0.129398 0.174904 0.935975
0.131013 0.175203 0.935578
0.132688 0.175579 0.93562
0.134411 0.176014 0.935997
0.136171 0.176494 0.936621
0.137909 0.176943 0.937074
0.139628 0.177366 0.937373
0.14136 0.177803 0.937748
0.143094 0.178241 0.938122
0.144859 0.178712 0.938687
0.146677 0.179244 0.939585
0.148482 0.179758 0.940377
0.150284 0.180264 0.941122
0.15205 0.180724 0.941608
0.153806 0.181172 0.942018
0.155601 0.181661 0.942656
0.157459 0.182217 0.943664
0.159378 0.182839 0.945024
0.161344 0.183505 0.94663
0.163265 0.184118 0.94793
0.165146 0.184682 0.948954
0.167 0.185214 0.949797
0.16882 0.185707 0.950421
0.170563 0.186115 0.950579
0.172366 0.186584 0.951068
0.196892 0.192273 0.952935
0.198119 0.192177 0.950405
0.19939 0.192129 0.948131
0.200593 0.192022 0.945556
0.201774 0.1919 0.942917
0.203041 0.191864 0.940732
0.204398 0.191912 0.939
0.205759 0.191969 0.937317
0.207119 0.192029 0.935654
0.208703 0.192291 0.935048
0.210301 0.192567 0.934516
0.211899 0.192843 0.933986
0.213608 0.193218 0.933963
0.215235 0.193519 0.933565
0.216681 0.193665 0.932366
0.218167 0.193847 0.931355
0.21973 0.194096 0.930694
0.221311 0.194362 0.930117
0.223045 0.194758 0.930208
0.224775 0.195151 0.93028
0.226526 0.195559 0.930427
0.228255 0.195949 0.930479
0.229986 0.196339 0.930532
0.231668 0.196688 0.930378
0.235644 0.196951 0.938442
0.233395 0.197075 0.930411
0.123606 0.174845 0.93239
0.125325 0.17529 0.932835
0.127007 0.175686 0.932994
0.128677 0.176061 0.933037
0.130349 0.176441 0.933099
0.132069 0.176879 0.933496
0.133808 0.17734 0.934016
0.135598 0.177863 0.934879
0.137365 0.178352 0.935551
0.139131 0.178837 0.936194
0.14088 0.179299 0.936702
0.14266 0.179795 0.937401
0.144437 0.180284 0.938051
0.146255 0.180819 0.938959
0.148061 0.181336 0.939761
0.149879 0.181863 0.940609
0.151647 0.182328 0.941115
0.153435 0.182814 0.941734
0.155284 0.183367 0.942714
0.157179 0.183968 0.94395
0.15914 0.184639 0.945566
0.161127 0.185332 0.947295
0.163051 0.185949 0.948604
0.164894 0.186474 0.949399
0.16671 0.186966 0.950014
0.168509 0.187436 0.950504
0.170255 0.187848 0.95068
0.172768 0.189071 0.955231
0.196344 0.193783 0.951795
0.197639 0.193749 0.949606
0.198964 0.193747 0.947597
0.200194 0.193661 0.945156
0.20135 0.193512 0.942394
0.202547 0.193407 0.93987
0.203815 0.193371 0.937715
0.205124 0.19338 0.935797
0.206482 0.193435 0.934125
0.207971 0.193614 0.933094
0.209519 0.193845 0.932338
0.211096 0.194105 0.931732
0.212744 0.194428 0.931447
0.214342 0.194706 0.930936
0.215865 0.19492 0.930095
0.21743 0.195172 0.929453
0.219046 0.195469 0.929036
0.220676 0.195778 0.928686
0.222378 0.196148 0.928645
0.224078 0.196517 0.928595
0.225772 0.196881 0.928517
0.227441 0.197222 0.928326
0.229139 0.197587 0.928257
0.230842 0.197957 0.928206
0.232601 0.198371 0.928381
0.236404 0.198506 0.935699
0.234359 0.198785 0.928546
0.109117 0.172173 0.936032
0.107519 0.171898 0.936563
0.107116 0.173461 0.935947
0.108686 0.173693 0.935167
0.110228 0.173886 0.934167
0.11664 0.1729 0.929636
0.114666 0.174206 0.929695
0.11615 0.17433 0.928314
0.117715 0.174574 0.927622
0.121091 0.17541 0.928221
0.122844 0.175915 0.929002
0.12456 0.176365 0.929477
0.126249 0.176776 0.929722
0.127971 0.177229 0.930206
0.12969 0.177675 0.930641
0.131442 0.178161 0.931305
0.133222 0.178681 0.93215
0.13504 0.179245 0.933233
0.13682 0.179756 0.93402
0.138619 0.180286 0.93491
0.140397 0.180787 0.935629
0.142209 0.181326 0.936556
0.144001 0.181837 0.937321
0.145818 0.182374 0.938228
0.147635 0.182906 0.939106
0.149453 0.183436 0.939964
0.151224 0.183908 0.940498
0.153031 0.184419 0.94124
0.154918 0.185019 0.942468
0.156834 0.185646 0.943836
0.158833 0.186364 0.945689
0.160839 0.187082 0.947531
0.162777 0.187718 0.948925
0.164618 0.188241 0.949701
0.166414 0.188712 0.950192
0.168192 0.18916 0.950558
0.170494 0.190174 0.953952
0.173693 0.192137 0.962408
0.197071 0.195233 0.948364
0.198488 0.195317 0.946819
0.199753 0.195261 0.944547
0.200903 0.195102 0.941758
0.202054 0.194949 0.939008
0.203297 0.194887 0.936741
0.204586 0.194875 0.934729
0.205967 0.194949 0.933171
0.207369 0.195047 0.931736
0.208863 0.195231 0.930744
0.210359 0.195418 0.929772
0.211905 0.195651 0.929035
0.213471 0.195904 0.928402
0.215062 0.196179 0.927883
0.216654 0.196456 0.927373
0.218294 0.196776 0.927079
0.219987 0.197141 0.927011
0.221685 0.197512 0.926971
0.223383 0.19788 0.926921
0.225072 0.19824 0.926824
0.226737 0.198581 0.926634
0.228431 0.198944 0.926555
0.230161 0.199338 0.926627
0.231974 0.199801 0.927037
0.23379 0.200265 0.927455
0.105833 0.175898 0.942458
0.106677 0.174966 0.935004
0.108224 0.175163 0.934033
0.109751 0.175332 0.9329
0.111739 0.174034 0.932908
0.111251 0.175464 0.931565
0.113214 0.174134 0.931382
0.112731 0.175571 0.930088
0.114187 0.175647 0.928448
0.115681 0.175786 0.927164
0.11724 0.176022 0.926435
0.119386 0.174969 0.927792
0.118851 0.176335 0.926136
0.12049 0.176687 0.926058
0.122189 0.177122 0.926448
0.123868 0.177528 0.926665
0.125545 0.177928 0.926853
0.127267 0.178387 0.927366
0.12901 0.178872 0.928022
0.130788 0.179399 0.928906
0.132609 0.179979 0.930076
0.134468 0.180603 0.931483
0.136291 0.181174 0.932594
0.138119 0.181746 0.933704
0.139928 0.18229 0.934651
0.141758 0.182855 0.935712
0.143549 0.183367 0.936476
0.145365 0.183906 0.937383
0.147179 0.184439 0.938251
0.148993 0.184969 0.9391
0.15078 0.185461 0.939738
0.152608 0.185999 0.940623
0.154532 0.186646 0.942088
0.156487 0.187324 0.943713
0.158539 0.188106 0.945888
0.160563 0.188848 0.947843
0.162517 0.189505 0.949332
0.164357 0.190029 0.950098
0.166151 0.190497 0.950569
0.168402 0.191468 0.953706
0.171293 0.193127 0.960484
0.195077 0.196625 0.948639
0.196528 0.196737 0.947245
0.197926 0.196803 0.945615
0.199198 0.19675 0.943383
0.200366 0.196603 0.940679
0.201514 0.196444 0.937921
0.202754 0.196377 0.935645
0.204067 0.196383 0.933747
0.205469 0.196476 0.932293
0.206873 0.196573 0.930868
0.208343 0.196735 0.929773
0.209789 0.196876 0.928575
0.211281 0.197061 0.927603
0.212817 0.197287 0.926839
0.214383 0.197541 0.926217
0.215974 0.197819 0.925716
0.217615 0.19814 0.925432
0.219304 0.198505 0.925365
0.220975 0.198853 0.925212
0.222647 0.199201 0.92506
0.224338 0.199566 0.924991
0.226028 0.199929 0.924914
0.227748 0.200317 0.924958
0.229529 0.200757 0.925255
0.231369 0.201245 0.925787
0.233213 0.201735 0.926327
0.236937 0.201828 0.933292
0.235057 0.202223 0.926848
0.104623 0.176163 0.934411
0.10618 0.176374 0.933526
