ply
format ascii 1.0
element vertex 1631
property float x
property float y
property float z
end_header
-0.445414 -0.0302688 0.928899
-0.444767 -0.0292632 0.928674
-0.444018 -0.0282135 0.928036
-0.443347 -0.0271997 0.927704
-0.442723 -0.0262085 0.927563
-0.442111 -0.0252227 0.927464
-0.441468 -0.0242244 0.927237
-0.440874 -0.0232483 0.927206
-0.433149 -0.0171715 0.904776
-0.43216 -0.016065 0.903002
-0.431332 -0.0150265 0.901886
-0.430558 -0.0140127 0.900988
-0.429975 -0.0130755 0.900888
-0.429333 -0.0121171 0.90054
-0.428706 -0.011165 0.900248
-0.428071 -0.010211 0.899914
-0.427505 -0.00928463 0.89988
-0.426915 -0.00834922 0.899734
-0.42645 -0.00745972 0.900126
-0.426037 -0.00658836 0.900747
-0.425689 -0.00573924 0.901658
-0.425374 -0.00489935 0.902715
-0.425106 -0.00407358 0.903986
-0.424988 -0.00329542 0.905929
-0.424931 -0.00253262 0.908151
-0.424905 -0.00177551 0.910531
-0.424957 -0.00103848 0.913277
-0.42502 -0.000298573 0.916093
-0.42489 0.000507064 0.918055
-0.424679 0.00134092 0.919669
-0.424399 0.00219816 0.920983
-0.424 0.00309325 0.921756
-0.423539 0.00400647 0.922257
-0.423036 0.00493294 0.922561
-0.422589 0.00584382 0.923125
-0.422203 0.00673904 0.923977
-0.42158 0.00769781 0.92373
-0.420229 0.00884229 0.920078
-0.418495 0.0100724 0.914601
-0.416123 0.0106803 0.910367
-0.416648 0.0113165 0.90854
-0.41482 0.0125399 0.902517
-0.413325 0.0136703 0.898027
-0.412564 0.0146225 0.896991
-0.412067 0.0155129 0.897213
-0.411532 0.0164117 0.897251
-0.410887 0.0173325 0.89676
-0.41021 0.0182583 0.896103
-0.409502 0.019188 0.895287
-0.408822 0.0201093 0.894603
-0.408156 0.0210257 0.893981
-0.407593 0.021922 0.893854
-0.407066 0.022811 0.893906
-0.406574 0.0236941 0.894128
-0.406083 0.0245766 0.894357
-0.405605 0.0254573 0.894651
-0.405174 0.0263313 0.89518
-0.404757 0.0272042 0.895787
-0.40439 0.0280714 0.896649
-0.404036 0.0289389 0.897582
-0.403717 0.0298041 0.898701
-0.403362 0.0306756 0.899644
-0.403002 0.0315497 0.900571
-0.402617 0.0324279 0.901366
-0.402251 0.0333058 0.902275
-0.401869 0.034187 0.903097
-0.401543 0.0350654 0.904223
-0.401208 0.0359471 0.905311
-0.400825 0.0368343 0.906153
-0.446262 -0.0296709 0.92841
-0.445614 -0.0286653 0.928182
-0.444877 -0.0276225 0.927599
-0.444214 -0.0266133 0.927304
-0.443612 -0.0256316 0.927249
-0.443007 -0.0246498 0.927183
-0.442385 -0.0236609 0.927044
-0.433295 -0.0163319 0.901544
-0.432695 -0.0153858 0.901388
-0.431923 -0.0143724 0.900506
-0.431341 -0.013436 0.900418
-0.430743 -0.0124939 0.900257
-0.430099 -0.0115352 0.8999
-0.429458 -0.0105792 0.89955
-0.428808 -0.00962099 0.899159
-0.428227 -0.00868936 0.899057
-0.427638 -0.00775563 0.898915
-0.427146 -0.00685719 0.899192
-0.426719 -0.00598104 0.899747
-0.426369 -0.00513109 0.900641
-0.42605 -0.00428949 0.901675
-0.425782 -0.00346284 0.902935
-0.425582 -0.00265625 0.904503
-0.425433 -0.00186325 0.906307
-0.425311 -0.00107462 0.908244
-0.425304 -0.000317834 0.910702
-0.425336 0.000432408 0.91335
-0.425316 0.00120369 0.915791
-0.425219 0.00200392 0.917896
-0.425062 0.00282501 0.919753
-0.424753 0.00369423 0.920927
-0.424351 0.00459088 0.921691
-0.423877 0.00550916 0.922125
-0.42343 0.00642029 0.922689
-0.423031 0.00731963 0.923476
-0.422108 0.00835439 0.921849
-0.420705 0.00950505 0.917974
-0.41894 0.010734 0.912382
-0.417126 0.0119601 0.906512
-0.415293 0.0131756 0.9005
-0.41408 0.014234 0.897364
-0.413335 0.0151804 0.896417
-0.412854 0.0160675 0.89671
-0.412332 0.0169631 0.896811
-0.411698 0.0178807 0.896378
-0.411034 0.0188029 0.895789
-0.41034 0.0197288 0.895049
-0.409674 0.0206468 0.894438
-0.409007 0.021563 0.893814
-0.408463 0.0224554 0.893791
-0.407925 0.0233464 0.893788
-0.407433 0.0242296 0.894012
-0.406942 0.0251125 0.894243
-0.406475 0.025992 0.894593
-0.406024 0.0268698 0.895019
-0.405606 0.027743 0.895623
-0.405228 0.0286129 0.896422
-0.404851 0.029484 0.897235
-0.40452 0.0303514 0.898287
-0.404164 0.0312234 0.899223
-0.403818 0.0320969 0.900213
-0.40347 0.032972 0.901197
-0.403155 0.0338469 0.902363
-0.402812 0.0347264 0.903388
-0.402512 0.0356047 0.904649
-0.402189 0.0364878 0.905794
-0.401794 0.0373769 0.906569
-0.445727 -0.0270279 0.927127
-0.445076 -0.0260247 0.926882
-0.444483 -0.0250475 0.926867
-0.443881 -0.024067 0.926813
-0.434293 -0.0165441 0.899538
-0.433769 -0.0156299 0.899693
-0.433253 -0.0147185 0.899879
-0.432698 -0.0137925 0.899905
-0.43209 -0.0128463 0.899705
-0.431489 -0.0119042 0.899535
-0.430842 -0.0109461 0.899171
-0.4302 -0.00999068 0.898818
-0.429562 -0.00903788 0.898476
-0.428982 -0.00810798 0.898383
-0.428407 -0.00717988 0.898302
-0.427903 -0.00627761 0.898526
-0.42746 -0.00539602 0.899012
-0.427094 -0.00453966 0.899827
-0.426761 -0.00369294 0.900794
-0.426469 -0.00285794 0.901942
-0.426214 -0.00203252 0.903259
-0.426018 -0.00122386 0.904847
-0.425816 -0.000409456 0.906413
-0.425745 0.00036831 0.908568
-0.425732 0.00113279 0.910999
-0.425771 0.0018872 0.913677
-0.425743 0.0026675 0.916073
-0.425699 0.00345748 0.918413
-0.425485 0.00429922 0.920013
-0.42516 0.00517575 0.921112
-0.424716 0.00608556 0.921684
-0.42427 0.00699693 0.922248
-0.423843 0.00790367 0.922905
-0.422858 0.00895193 0.921002
-0.421405 0.0101092 0.916924
-0.419572 0.0113463 0.911055
-0.417762 0.0125629 0.90524
-0.415986 0.0137568 0.899536
-0.414824 0.0147994 0.896656
-0.414089 0.015742 0.895759
-0.41362 0.0166259 0.896113
-0.413112 0.0175182 0.896279
-0.412504 0.01843 0.895972
-0.411864 0.0193465 0.895507
-0.411193 0.0202668 0.894885
-0.410539 0.0211821 0.894338
-0.409882 0.022096 0.89377
-0.409339 0.0229885 0.893749
-0.408799 0.0238802 0.89374
-0.408306 0.0247638 0.893964
-0.407815 0.0256469 0.894196
-0.40735 0.0265267 0.894553
-0.406898 0.0274049 0.894979
-0.406471 0.0282807 0.895531
-0.406078 0.0291531 0.896256
-0.405688 0.0300264 0.896999
-0.405345 0.0308962 0.897985
-0.404991 0.0317691 0.898921
-0.40467 0.0326406 0.900034
-0.40436 0.0335134 0.901213
-0.404089 0.0343864 0.902596
-0.403797 0.0352637 0.903883
-0.403525 0.0361429 0.905284
-0.403211 0.0370272 0.90648
-0.402814 0.0379183 0.907242
-0.435241 -0.0160316 0.899644
-0.434707 -0.015113 0.899761
-0.434162 -0.0141902 0.899832
-0.433561 -0.0132458 0.899665
-0.432935 -0.0122942 0.899399
-0.432317 -0.0113458 0.899158
-0.431642 -0.0103781 0.898678
-0.430985 -0.00941849 0.898269
-0.430359 -0.00847137 0.897983
-0.429782 -0.00754229 0.897897
-0.429207 -0.00661501 0.897819
-0.428703 -0.00571319 0.898046
-0.428259 -0.00483089 0.898523
-0.427865 -0.00396457 0.899215
-0.427518 -0.00311278 0.900116
-0.427214 -0.00227344 0.901207
-0.426933 -0.00143912 0.902407
-0.426696 -0.000615671 0.903798
-0.426445 0.000214515 0.905143
-0.426295 0.00101699 0.906936
-0.426219 0.00180113 0.909072
-0.426242 0.00256197 0.911654
-0.426247 0.00333344 0.914176
-0.426272 0.00410496 0.916805
-0.426156 0.00492072 0.918823
-0.42591 0.00577505 0.920278
-0.425527 0.0066692 0.921117
-0.425095 0.00757683 0.921744
-0.424665 0.00848529 0.922381
-0.423642 0.00953956 0.920321
-0.422172 0.0106956 0.916189
-0.420337 0.0119254 0.910352
-0.418545 0.0131301 0.904661
-0.416802 0.0143096 0.899144
-0.415686 0.0153381 0.896504
-0.414969 0.0162762 0.895699
-0.414488 0.0171629 0.895997
-0.413968 0.0180577 0.89611
-0.41336 0.0189691 0.895804
-0.412731 0.0198831 0.895397
-0.412073 0.0208005 0.894843
-0.411443 0.0217111 0.89442
-0.4108 0.0226226 0.893923
-0.410256 0.0235158 0.8939
-0.409701 0.0244101 0.893824
-0.409196 0.0252959 0.89399
-0.408681 0.0261832 0.894106
-0.408216 0.0270633 0.894466
-0.407752 0.0279437 0.894832
-0.407312 0.0288218 0.895315
-0.406905 0.0296962 0.895972
-0.406524 0.0305692 0.896757
-0.406182 0.0314399 0.897743
-0.405842 0.032312 0.898747
-0.405558 0.0331814 0.900044
-0.405289 0.0340528 0.90142
-0.405048 0.0349249 0.902952
-0.404786 0.0358026 0.90439
-0.404528 0.0366826 0.90586
-0.404204 0.0375701 0.906995
-0.403792 0.0384635 0.907682
-0.436206 -0.0155246 0.899815
-0.435644 -0.0145944 0.899818
-0.435065 -0.0136583 0.899752
-0.434436 -0.0127043 0.899479
-0.433791 -0.0117455 0.899135
-0.433156 -0.0107919 0.898829
-0.432455 -0.00981566 0.898245
-0.431798 -0.00885655 0.897835
-0.431172 -0.0079102 0.897553
-0.430593 -0.00698131 0.897462
-0.430019 -0.00605531 0.897395
-0.429517 -0.00515358 0.897624
-0.429059 -0.00426668 0.898041
-0.428662 -0.00339906 0.898721
-0.428315 -0.0025469 0.899618
-0.428025 -0.00171043 0.900762
-0.42775 -0.000876467 0.901975
-0.427497 -4.73946e-05 0.903297
-0.427206 0.000795954 0.904458
-0.426982 0.00162246 0.905917
-0.426818 0.00243396 0.90765
-0.426791 0.00321017 0.909997
-0.426795 0.00398291 0.912497
-0.426856 0.00474571 0.915267
-0.426821 0.00554083 0.917628
-0.426656 0.0063749 0.919428
-0.426335 0.00725314 0.920539
-0.42592 0.00815693 0.921238
-0.425473 0.00906911 0.9218
-0.424414 0.0101295 0.919585
-0.422858 0.0112996 0.915096
-0.421137 0.0124956 0.909813
-0.419246 0.0137153 0.903704
-0.417429 0.014903 0.897885
-0.41651 0.0158857 0.896171
-0.415847 0.0168115 0.895623
-0.415373 0.0176974 0.895954
-0.414865 0.01859 0.896125
-0.41428 0.0194971 0.895934
-0.413663 0.0204088 0.895588
-0.413018 0.021324 0.895104
-0.412388 0.0222347 0.894688
-0.411744 0.0231458 0.894198
-0.411199 0.0240396 0.894175
-0.410632 0.0249363 0.894046
-0.410112 0.0258252 0.894139
-0.409582 0.0267152 0.894183
-0.409102 0.0275977 0.894476
-0.408625 0.0284804 0.894777
-0.408183 0.0293591 0.895254
-0.407777 0.0302347 0.895907
-0.407397 0.0311085 0.896697
-0.407057 0.0319799 0.897691
-0.406721 0.0328534 0.898705
-0.406464 0.033722 0.90013
-0.406223 0.0345926 0.901647
-0.406021 0.0354646 0.903368
-0.405785 0.0363424 0.904934
-0.405539 0.0372244 0.906462
-0.405204 0.0381142 0.907538
-0.404791 0.03901 0.908219
-0.437758 -0.015956 0.900067
-0.437181 -0.0150192 0.900015
-0.436585 -0.014076 0.899886
-0.435978 -0.0131293 0.899709
-0.435316 -0.0121634 0.899304
-0.434638 -0.0111934 0.898831
-0.434 -0.0102397 0.89852
-0.433312 -0.00926908 0.897994
-0.432669 -0.00831589 0.897648
-0.432056 -0.00737464 0.897424
-0.431476 -0.00644543 0.897332
-0.430888 -0.00551426 0.897206
-0.430371 -0.00460757 0.897374
-0.429899 -0.00371559 0.89773
-0.429474 -0.00283877 0.898288
-0.429126 -0.0019851 0.899176
-0.428824 -0.00114395 0.900263
-0.428551 -0.000309403 0.901478
-0.428277 0.000527456 0.902699
-0.427985 0.00137203 0.90385
-0.427719 0.00221151 0.905121
-0.42751 0.00303728 0.906647
-0.427437 0.00382794 0.908779
-0.427437 0.00460412 0.911239
-0.427499 0.0053685 0.913996
-0.427501 0.00615544 0.916502
-0.427399 0.00697416 0.91857
-0.427113 0.00784386 0.919833
-0.426715 0.00874337 0.920605
-0.426242 0.00966237 0.921044
-0.425462 0.0106541 0.920098
-0.424124 0.0117697 0.916628
-0.418553 0.0153892 0.898914
-0.417469 0.0164058 0.896455
-0.416739 0.0173447 0.895608
-0.416257 0.0182325 0.895903
-0.415754 0.0191246 0.8961
-0.41518 0.0200295 0.895964
-0.414576 0.020939 0.895683
-0.413955 0.0218497 0.895322
-0.413352 0.0227564 0.895034
-0.412719 0.0236659 0.894607
-0.412171 0.0245607 0.894579
-0.4116 0.0254587 0.894433
-0.411053 0.0263521 0.894403
-0.410497 0.027246 0.894325
-0.410001 0.0281317 0.894536
-0.409509 0.0290165 0.894769
-0.409057 0.029897 0.895197
-0.408642 0.0307746 0.895804
-0.408264 0.0316488 0.896601
-0.407926 0.0325216 0.8976
-0.407603 0.0333944 0.89868
-0.407374 0.0342628 0.900235
-0.407171 0.0351326 0.901933
-0.406985 0.0360058 0.903728
-0.406772 0.0368843 0.905406
-0.406527 0.037769 0.906925
-0.40619 0.0386606 0.907993
-0.405789 0.0395575 0.908738
-0.439252 -0.016365 0.900074
-0.438686 -0.0154314 0.900069
-0.438091 -0.014488 0.899951
-0.437502 -0.0135477 0.899854
-0.436849 -0.012584 0.899492
-0.436169 -0.0116129 0.899024
-0.435488 -0.0106422 0.898541
-0.434866 -0.00969467 0.898295
-0.434192 -0.00872969 0.897832
-0.433579 -0.00778726 0.897613
-0.432993 -0.00685565 0.897506
-0.432413 -0.00592605 0.897417
-0.431821 -0.00499416 0.897281
-0.431288 -0.00408154 0.897382
-0.430799 -0.00318351 0.897668
-0.430345 -0.00229655 0.898103
-0.429981 -0.00143696 0.898921
-0.429653 -0.00058702 0.899894
-0.429367 0.000252599 0.901049
-0.42908 0.00109458 0.902207
-0.428788 0.00194026 0.903353
-0.428524 0.00278029 0.904624
-0.428316 0.00360719 0.906147
-0.428202 0.00441121 0.908089
-0.4282 0.00519034 0.910524
-0.428234 0.00596483 0.913141
-0.428225 0.00675676 0.915582
-0.428129 0.00757558 0.917661
-0.427874 0.0084383 0.919051
-0.427493 0.00933405 0.919893
-0.427032 0.01025 0.920382
-0.426537 0.0111747 0.92072
-0.42545 0.0122311 0.918405
-0.422556 0.0129279 0.91208
-0.4206 0.0141572 0.905733
-0.42207 0.01458 0.908255
-0.418421 0.0169285 0.896704
-0.417621 0.0178802 0.895546
-0.417129 0.0187708 0.895795
-0.416631 0.0196624 0.896012
-0.416094 0.0205607 0.896055
-0.415504 0.0214674 0.895846
-0.414898 0.0223761 0.895555
-0.414306 0.0232809 0.895329
-0.413682 0.0241894 0.894948
-0.413121 0.0250869 0.894862
-0.412548 0.0259852 0.894718
-0.411987 0.0268811 0.894624
-0.411414 0.0277778 0.894471
-0.410903 0.0286656 0.894614
-0.4104 0.0295528 0.89479
-0.409936 0.0304351 0.895161
-0.409523 0.0313132 0.895778
-0.409146 0.0321886 0.896576
-0.408809 0.0330623 0.897572
-0.408497 0.0339358 0.898702
-0.408293 0.0348037 0.900379
-0.408107 0.0356751 0.902154
-0.407926 0.0365499 0.903962
-0.407726 0.0374303 0.905695
-0.40748 0.0383163 0.907211
-0.407144 0.0392106 0.908276
-0.406757 0.0401075 0.90909
-0.44016 -0.0158319 0.899991
-0.439601 -0.0149015 0.900021
-0.43901 -0.0139591 0.899917
-0.438429 -0.0130215 0.899854
-0.43776 -0.0120533 0.899438
-0.437079 -0.0110821 0.898969
-0.436397 -0.0101116 0.898487
-0.435777 -0.00916459 0.898251
-0.435118 -0.00820593 0.897859
-0.434524 -0.00727019 0.897722
-0.433956 -0.00634402 0.897691
-0.433376 -0.00541495 0.897608
-0.432782 -0.00448136 0.897462
-0.432228 -0.00356195 0.897482
-0.431706 -0.00265352 0.897637
-0.43125 -0.00176492 0.898061
-0.430888 -0.000904714 0.898883
-0.430558 -5.25495e-05 0.899842
-0.430257 0.000793085 0.900931
-0.429964 0.00163777 0.902062
-0.429658 0.00248888 0.903143
-0.429396 0.00332993 0.904415
-0.429182 0.00416001 0.905907
-0.429045 0.00497317 0.907734
-0.429028 0.00575859 0.910095
-0.429033 0.00654349 0.91257
-0.428995 0.00734491 0.914873
-0.428886 0.00816895 0.916881
-0.428644 0.0090293 0.918319
-0.428279 0.00992173 0.919225
-0.427826 0.0108358 0.919744
-0.42734 0.0117578 0.920124
-0.426519 0.0127538 0.919005
-0.418515 0.0184146 0.895532
-0.418015 0.0193068 0.895746
-0.417515 0.0201994 0.895955
-0.416993 0.0210954 0.896069
-0.416429 0.0219979 0.895984
-0.415837 0.0229041 0.895766
-0.415257 0.0238071 0.895605
-0.414645 0.0247143 0.895283
-0.414082 0.0256128 0.895192
-0.413507 0.0265118 0.895044
-0.412946 0.0274082 0.894955
-0.412362 0.0283067 0.894755
-0.411837 0.029197 0.894832
-0.411318 0.0300863 0.89494
-0.410843 0.0309711 0.895253
-0.410417 0.0318511 0.895809
-0.41005 0.0327267 0.896654
-0.409722 0.0336008 0.897695
-0.409424 0.0344748 0.898888
-0.409237 0.0353439 0.900633
-0.409068 0.0362167 0.902486
-0.408891 0.0370938 0.904307
-0.408694 0.0379761 0.906045
-0.408459 0.0388644 0.907612
-0.408162 0.0397589 0.908872
-0.40784 0.0406563 0.910014
-0.440492 -0.0143611 0.899869
-0.439882 -0.0134124 0.899696
-0.439293 -0.012472 0.899603
-0.438627 -0.0115053 0.899201
-0.437973 -0.0105448 0.898847
-0.437293 -0.00957601 0.89838
-0.436689 -0.00863478 0.898213
-0.436063 -0.00768687 0.897952
-0.435469 -0.00675147 0.897822
-0.434905 -0.00582674 0.897812
-0.434326 -0.00489758 0.897736
-0.43373 -0.00396335 0.897587
-0.433159 -0.0030383 0.89754
-0.43262 -0.00212414 0.897625
-0.432162 -0.00123445 0.898044
-0.4318 -0.000373125 0.898863
-0.431458 0.000484208 0.899769
-0.431154 0.00133188 0.90084
-0.430858 0.0021793 0.901951
-0.430537 0.00303571 0.902965
-0.430247 0.00388584 0.904115
-0.430027 0.00471937 0.905571
-0.429869 0.00553982 0.907302
-0.429914 0.00631198 0.909914
-0.429963 0.0070889 0.912563
-0.429896 0.00790033 0.91473
-0.429734 0.00873941 0.916497
-0.429445 0.00961233 0.917724
-0.429069 0.0105077 0.918575
-0.428607 0.0114238 0.919055
-0.428124 0.0123454 0.919441
-0.419367 0.0189573 0.895325
-0.418894 0.0198453 0.895659
-0.418412 0.0207344 0.895958
-0.417929 0.0216247 0.896245
-0.417379 0.0225253 0.896232
-0.416801 0.0234295 0.896086
-0.416221 0.0243333 0.895924
-0.415606 0.025241 0.8956
-0.41503 0.0261419 0.895452
-0.414456 0.0270414 0.89531
-0.413896 0.0279379 0.895234
-0.413323 0.0288357 0.895091
-0.412799 0.0297267 0.895179
-0.412278 0.0306171 0.895279
-0.41181 0.0315018 0.89563
-0.411381 0.0323834 0.896175
-0.410993 0.0332629 0.89691
-0.410666 0.0341384 0.897954
-0.41038 0.0350134 0.899203
-0.410186 0.0358851 0.900908
-0.410022 0.0367602 0.902776
-0.409858 0.0376388 0.904654
-0.409662 0.0385237 0.90639
-0.409454 0.0394136 0.908082
-0.409225 0.0403079 0.909677
-0.408974 0.0412064 0.911178
-0.44136 -0.0138119 0.899626
-0.44073 -0.0128571 0.899381
-0.440139 -0.0119161 0.89928
-0.439493 -0.0109569 0.89896
-0.438855 -0.0100024 0.898672
-0.438179 -0.00903562 0.898225
-0.437603 -0.00810428 0.898173
-0.437018 -0.00717073 0.898087
-0.436438 -0.00623966 0.898016
-0.435904 -0.00532374 0.898126
-0.435338 -0.00439852 0.89811
-0.434741 -0.00346417 0.897965
-0.434141 -0.00252955 0.897805
-0.4336 -0.00161397 0.897882
-0.433129 -0.000719031 0.898245
-0.432755 0.000147115 0.899014
-0.432389 0.00101271 0.899819
-0.432084 0.00186222 0.900883
-0.431745 0.00272315 0.901811
-0.431389 0.0035903 0.902674
-0.431082 0.00444615 0.903747
-0.430873 0.0052783 0.905243
-0.430715 0.00610094 0.906961
-0.430791 0.00686787 0.909694
-0.430854 0.00764471 0.912387
-0.430766 0.00846365 0.914452
-0.430557 0.00931588 0.916009
-0.430237 0.0101969 0.917092
-0.429847 0.0110958 0.917879
-0.429367 0.0120159 0.918277
-0.428914 0.0129303 0.918795
-0.420318 0.0194827 0.89556
-0.419847 0.0203709 0.895906
-0.419367 0.0212611 0.896211
-0.418885 0.0221517 0.89651
-0.418336 0.0230527 0.896503
-0.417757 0.0239576 0.896359
-0.417176 0.0248622 0.896199
-0.416559 0.0257702 0.895869
-0.415981 0.0266717 0.895717
-0.415418 0.0275703 0.895635
-0.414871 0.0284661 0.895622
-0.414301 0.0293641 0.895497
-0.413776 0.0302559 0.895587
-0.41324 0.0311489 0.895617
-0.412757 0.0320361 0.895903
-0.412305 0.0329208 0.896335
-0.411918 0.0338011 0.897076
-0.411593 0.0346783 0.898126
-0.411335 0.035553 0.899501
-0.411144 0.0364274 0.901216
-0.410993 0.0373033 0.90314
-0.410842 0.0381848 0.905072
-0.410669 0.0390713 0.906914
-0.410493 0.0399621 0.908755
-0.410334 0.0408577 0.910695
-0.410147 0.041758 0.912508
-0.441575 -0.0122997 0.899049
-0.440978 -0.0113573 0.898928
-0.440364 -0.0104106 0.898742
-0.439768 -0.00947005 0.898617
-0.439122 -0.0085145 0.898299
-0.43855 -0.00758438 0.898267
-0.437991 -0.00665929 0.898287
-0.437409 -0.00572685 0.898208
-0.436872 -0.00481012 0.898315
-0.436321 -0.00388868 0.898358
-0.435754 -0.00296298 0.898339
-0.435155 -0.00202822 0.898184
-0.434599 -0.00110784 0.898208
-0.434124 -0.000211133 0.89856
-0.433722 0.000665011 0.89921
-0.433317 0.00154254 0.899855
-0.432987 0.00240058 0.900812
-0.432648 0.00326294 0.901736
-0.432272 0.00413726 0.902508
-0.431962 0.00499469 0.903567
-0.431752 0.00582915 0.905049
-0.43166 0.00902195 0.914274
-0.431396 0.00988855 0.915585
-0.431059 0.0107739 0.916596
-0.430659 0.0116755 0.917335
-0.43018 0.0125954 0.917735
-0.42087 0.0208865 0.896457
-0.420393 0.0217776 0.896779
-0.419919 0.0226682 0.897115
-0.419367 0.0235706 0.897103
-0.418786 0.024477 0.896951
-0.418188 0.0253842 0.896724
-0.417568 0.0262932 0.89639
-0.416988 0.027196 0.896233
-0.416411 0.028097 0.896092
-0.415863 0.0289939 0.896079
-0.415304 0.0298913 0.896009
-0.414766 0.0307857 0.896043
-0.414219 0.0316807 0.896024
-0.413746 0.0325679 0.896361
-0.413294 0.0334542 0.896794
-0.412909 0.034336 0.897547
-0.412598 0.0352139 0.898663
-0.412353 0.0360907 0.900097
-0.412153 0.0369676 0.901761
-0.41198 0.037848 0.903567
-0.411815 0.0387323 0.905429
-0.411645 0.0396209 0.907278
-0.4115 0.0405141 0.909259
-0.411389 0.0414107 0.911427
-0.411274 0.0423135 0.913592
-0.411294 0.0426485 0.921012
-0.411115 0.0432222 0.915554
-0.442368 -0.0117243 0.898517
-0.441771 -0.0107829 0.898398
-0.441198 -0.00985024 0.898371
-0.440627 -0.008919 0.898349
-0.44001 -0.00797326 0.898145
-0.439454 -0.00704879 0.89818
-0.438925 -0.00613318 0.898322
-0.438344 -0.0052014 0.898255
-0.437808 -0.00428409 0.898363
-0.437271 -0.00336689 0.898467
-0.436719 -0.00244596 0.898512
-0.43612 -0.00151131 0.898366
-0.435565 -0.000590071 0.898392
-0.435071 0.000312965 0.898666
-0.434635 0.00119934 0.89918
-0.434202 0.00208643 0.899703
-0.433843 0.00295331 0.900538
-0.433505 0.00381592 0.901467
-0.433142 0.00468745 0.90229
-0.431918 0.0113431 0.916253
-0.422072 0.0213752 0.897791
-0.421576 0.0222713 0.898037
-0.421061 0.0231705 0.898192
-0.420526 0.0240723 0.898262
-0.419899 0.0249862 0.897914
-0.419262 0.0259003 0.897515
-0.418638 0.026811 0.897171
-0.418055 0.0277148 0.897012
-0.417477 0.0286172 0.896868
-0.416914 0.029517 0.896794
-0.416363 0.0304146 0.896774
-0.415813 0.0313116 0.89675
-0.415261 0.0322078 0.896722
-0.414789 0.033097 0.897062
-0.414337 0.0339848 0.897498
-0.41394 0.0348693 0.898199
-0.413631 0.0357497 0.899316
-0.413387 0.0366285 0.900755
-0.413163 0.0375101 0.902298
-0.412966 0.0383937 0.903981
-0.442571 -0.0102108 0.897895
-0.442036 -0.00929155 0.898016
-0.441822 -0.00847894 0.899392
-0.441508 -0.00763085 0.900385
-0.441247 -0.0067981 0.901592
-0.440752 -0.00588832 0.901877
-0.440158 -0.00494817 0.901776
-0.439315 -0.00393226 0.900678
-0.438487 -0.00292454 0.899633
-0.437636 -0.0019127 0.898486
-0.437037 -0.000978254 0.898342
-0.436487 -5.84874e-05 0.898393
-0.435974 0.000850624 0.898589
-0.435507 0.00174619 0.898977
-0.435044 0.00264155 0.89938
-0.434675 0.00351184 0.900172
-0.423372 0.0218518 0.899537
-0.422829 0.022758 0.899579
-0.422239 0.0236705 0.899414
-0.421683 0.0245771 0.899398
-0.421009 0.0254991 0.898845
-0.420342 0.0264178 0.898321
-0.419718 0.0273294 0.897987
-0.419147 0.0282332 0.897887
-0.418579 0.0291358 0.897797
-0.418013 0.0300373 0.897716
-0.417459 0.0309366 0.897689
-0.416906 0.0318356 0.89766
-0.416353 0.0327334 0.897633
-0.41588 0.0336245 0.897971
-0.415426 0.0345141 0.898407
-0.415017 0.0354019 0.89905
-0.414682 0.036286 0.900047
-0.414412 0.0371689 0.901358
-0.414162 0.0380545 0.902771
-0.413939 0.0389417 0.904326
-0.457141 -0.0237159 0.928912
-0.457711 -0.0246893 0.928799
-0.458657 -0.0241244 0.928655
-0.458066 -0.023143 0.928692
-0.457494 -0.022169 0.928796
-0.444253 -0.00843706 0.905222
-0.443595 -0.00746974 0.904887
-0.443077 -0.00654859 0.905101
-0.442322 -0.00555333 0.904379
-0.441443 -0.00452276 0.903166
-0.440502 -0.0034775 0.901699
-0.439572 -0.00243887 0.900258
-0.438611 -0.00139577 0.898685
-0.438007 -0.000459396 0.898527
-0.437446 0.00046408 0.898533
-0.436907 0.00138032 0.898632
-0.436396 0.00228905 0.89884
-0.435889 0.00319647 0.899064
-0.435476 0.00407896 0.899675
-0.423962 0.0232665 0.900572
-0.423348 0.0241838 0.900308
-0.422775 0.0250939 0.900224
-0.42208 0.0260191 0.899591
-0.421398 0.0269407 0.899005
-0.420786 0.0278516 0.898734
-0.420227 0.0287554 0.898695
-0.41966 0.029659 0.898617
-0.419106 0.0305605 0.898598
-0.418565 0.0314602 0.898636
-0.41801 0.0323607 0.898603
-0.417457 0.0332604 0.898582
-0.41698 0.0341532 0.898913
-0.416527 0.0350454 0.899349
-0.416116 0.0359352 0.899985
-0.415754 0.0368235 0.900857
-0.415454 0.0377104 0.902024
-0.415175 0.038599 0.903299
-0.414925 0.0394899 0.904721
-0.45953 -0.0235305 0.928239
-0.458936 -0.0225483 0.928264
-0.458359 -0.0215725 0.928351
-0.4569 -0.0211867 0.928816
-0.457746 -0.0205843 0.928306
-0.456224 -0.0201756 0.928532
-0.457076 -0.0195755 0.928041
-0.455587 -0.0191794 0.928388
-0.456436 -0.0185792 0.927889
-0.454977 -0.0181942 0.928344
-0.455791 -0.0175823 0.927717
-0.455126 -0.0165787 0.927463
-0.425027 0.0237877 0.901251
-0.4244 0.0247074 0.900934
-0.423815 0.0256203 0.900803
-0.423118 0.0265463 0.900168
-0.422448 0.0274668 0.899648
-0.421862 0.0283752 0.899502
-0.421319 0.0292789 0.899535
-0.420764 0.0301824 0.899524
-0.420213 0.0310854 0.89952
-0.419672 0.0319867 0.899566
-0.41913 0.0328877 0.8996
-0.418587 0.0337879 0.899632
-0.418111 0.0346829 0.899974
-0.417669 0.0355762 0.900468
-0.417244 0.0364691 0.901046
-0.416854 0.0373617 0.901786
-0.416538 0.0382525 0.902874
-0.416255 0.0391437 0.904127
-0.415982 0.0400383 0.90544
-0.459829 -0.0219625 0.927925
-0.459242 -0.0209832 0.927974
-0.458603 -0.0199856 0.927832
-0.45793 -0.0189773 0.927566
-0.457292 -0.0179825 0.927423
-0.456647 -0.0169857 0.927251
-0.455969 -0.0159781 0.926948
-0.455284 -0.0149704 0.926621
-0.426769 0.0233815 0.902436
-0.426075 0.0243132 0.90184
-0.425423 0.0252371 0.901423
-0.424819 0.0261531 0.901212
-0.424098 0.027082 0.900482
-0.423418 0.0280038 0.899925
-0.422859 0.0289103 0.899901
-0.422329 0.0298128 0.900001
-0.421801 0.030715 0.900112
-0.421276 0.0316166 0.900234
-0.420748 0.0325178 0.900343
-0.420219 0.0334191 0.900445
-0.419703 0.0343192 0.900604
-0.41923 0.035216 0.900958
-0.418801 0.0361107 0.901518
-0.418365 0.0370067 0.902046
-0.417973 0.0379017 0.902778
-0.417643 0.0387953 0.903809
-0.417349 0.0396903 0.905008
-0.417067 0.0405878 0.906271
-0.460089 -0.0203809 0.927468
-0.459434 -0.0193782 0.927268
-0.458754 -0.0183679 0.926973
-0.458109 -0.0173717 0.926809
-0.457473 -0.0163791 0.926672
-0.456822 -0.0153821 0.926475
-0.456181 -0.0143895 0.926313
-0.454616 -0.0139696 0.926352
-0.45553 -0.0133947 0.92611
-0.453967 -0.0129759 0.926151
-0.454891 -0.012405 0.92595
-0.452935 -0.0118576 0.924493
-0.454288 -0.011428 0.925925
-0.451961 -0.0107629 0.923041
-0.453718 -0.0104623 0.926021
-0.451029 -0.00968594 0.921742
-0.45315 -0.009497 0.926122
-0.450145 -0.00862741 0.920613
-0.452575 -0.00853098 0.926201
-0.441421 0.00736877 0.925587
-0.442955 0.00697322 0.925531
-0.442391 0.00792742 0.925622
-0.44182 0.00888298 0.925683
-0.436248 0.016802 0.928386
-0.437735 0.0164221 0.928153
-0.437171 0.0173746 0.928236
-0.426897 0.0248712 0.901438
-0.426271 0.0257907 0.901142
-0.425677 0.0267052 0.900978
-0.425 0.0276284 0.900446
-0.424333 0.0285481 0.899954
-0.423803 0.0294519 0.900057
-0.423274 0.0303552 0.900167
-0.42276 0.0312564 0.900341
-0.422272 0.0321557 0.900633
-0.421759 0.033057 0.900811
-0.421257 0.033957 0.90104
-0.420781 0.0348554 0.901383
-0.420337 0.0357525 0.901873
-0.419924 0.0366483 0.902508
-0.419512 0.0375453 0.90315
-0.419135 0.0384421 0.903958
-0.418821 0.0393383 0.905062
-0.418533 0.0402364 0.906287
-0.418253 0.0411369 0.907562
-0.418885 0.0460866 0.930877
-0.420182 0.045725 0.929848
-0.418442 0.0466391 0.92429
-0.415814 0.0469687 0.918841
-0.416767 0.0475381 0.918987
-0.460239 -0.0187622 0.92661
-0.459574 -0.0177582 0.926373
-0.458937 -0.0167652 0.926237
-0.458312 -0.0157769 0.92614
-0.457684 -0.0147886 0.926033
-0.457077 -0.0138083 0.926
-0.456431 -0.0128158 0.92582
-0.455803 -0.01183 0.925704
-0.455196 -0.0108519 0.925664
-0.454613 -0.00988175 0.925712
-0.454016 -0.00890804 0.925706
-0.453427 -0.00793697 0.925727
-0.451953 -0.00754988 0.926092
-0.452805 -0.00695737 0.925626
-0.451325 -0.00656838 0.925962
-0.452178 -0.0059767 0.925499
-0.450712 -0.00559221 0.925885
-0.451552 -0.00499741 0.925376
-0.450113 -0.00462134 0.925863
-0.45096 -0.00402881 0.925381
-0.450432 -0.00307859 0.925629
-0.443558 0.00600928 0.925594
-0.445207 0.0055856 0.925982
-0.444488 0.00657733 0.925461
-0.443877 0.00754301 0.925366
-0.443298 0.00850081 0.925399
-0.442715 0.00945874 0.925412
-0.441301 0.00982647 0.925955
-0.442193 0.0104031 0.925675
-0.440855 0.010755 0.926528
-0.441748 0.0113321 0.926247
-0.440336 0.0116991 0.9268
-0.44125 0.0122719 0.92661
-0.439848 0.0126372 0.927204
-0.440777 0.0132075 0.927073
-0.440321 0.0141408 0.927608
-0.438275 0.0154737 0.927964
-0.439826 0.0150814 0.927982
-0.439208 0.0160445 0.927852
-0.438651 0.0169962 0.927968
-0.438072 0.0179511 0.927994
-0.437551 0.0188961 0.92826
-0.427647 0.0254378 0.900734
-0.427074 0.0263504 0.900663
-0.42651 0.0272607 0.900629
-0.425897 0.0281758 0.900382
-0.425275 0.0290905 0.900094
-0.424771 0.029992 0.900317
-0.424242 0.030896 0.900429
-0.423729 0.0317985 0.900608
-0.423242 0.0326982 0.900905
-0.422768 0.0335973 0.901263
-0.42231 0.0344959 0.901688
-0.42188 0.0353931 0.902242
-0.421464 0.0362902 0.902865
-0.421092 0.0371866 0.903684
-0.42068 0.038086 0.904332
-0.420333 0.0389846 0.905276
-0.420052 0.0398829 0.906529
-0.41977 0.0407844 0.907786
-0.419489 0.0416878 0.909056
-0.419435 0.0420187 0.915666
-0.419278 0.0425945 0.910659
-0.418434 0.0462593 0.917185
-0.418143 0.0471842 0.918465
-0.417793 0.0481102 0.919474
-0.461798 -0.0176332 0.930896
-0.460597 -0.0164426 0.928712
-0.459564 -0.0153142 0.92713
-0.458621 -0.0142202 0.925867
-0.458032 -0.0132459 0.925905
-0.457389 -0.0122547 0.925739
-0.456761 -0.0112688 0.925625
-0.456133 -0.0102843 0.925511
-0.455545 -0.00931255 0.925541
-0.454909 -0.00832709 0.925391
-0.454286 -0.00734662 0.925287
-0.453642 -0.0063603 0.925101
-0.452998 -0.00537571 0.924914
-0.452379 -0.00439879 0.924816
-0.451814 -0.00343804 0.924923
-0.451285 -0.00248793 0.925171
-0.449904 -0.00212831 0.925877
-0.450758 -0.0015381 0.925421
-0.449376 -0.00117809 0.926126
-0.450248 -0.000592808 0.925742
-0.448848 -0.000227868 0.926374
-0.44972 0.000357413 0.925991
-0.448319 0.000722352 0.926622
-0.449192 0.00130763 0.926239
-0.447763 0.00168008 0.926758
-0.448643 0.00226327 0.926405
-0.447148 0.00265192 0.926664
-0.448029 0.00323424 0.926318
-0.446525 0.00362527 0.926533
-0.447408 0.00420658 0.926199
-0.445869 0.0046051 0.926274
-0.446759 0.00518442 0.925967
-0.446107 0.0061618 0.925719
-0.44545 0.0071388 0.925451
-0.444852 0.00810189 0.925411
-0.444275 0.00905951 0.925452
-0.443697 0.0100168 0.925489
-0.443173 0.010962 0.925747
-0.442683 0.0119007 0.926136
-0.442186 0.0128414 0.926501
-0.441722 0.0137757 0.927002
-0.441267 0.0147091 0.927543
-0.440783 0.0156487 0.927962
-0.440225 0.0166013 0.92808
-0.439672 0.0175528 0.928221
-0.439083 0.0185104 0.928204
-0.438545 0.0194588 0.928402
-0.436991 0.0198473 0.928362
-0.43799 0.0204096 0.92853
-0.436591 0.0207738 0.929142
-0.437882 0.0212948 0.930533
-0.428678 0.026815 0.903621
-0.427928 0.0277506 0.902799
-0.427266 0.0286736 0.902358
-0.426233 0.0296326 0.900293
-0.425772 0.030531 0.900705
-0.425285 0.0314321 0.901005
-0.424812 0.0323322 0.901365
-0.42435 0.0332317 0.90178
-0.42388 0.0341323 0.902155
-0.423426 0.0350325 0.902605
-0.423013 0.0359306 0.90324
-0.422615 0.0368295 0.90394
-0.422258 0.0377274 0.904833
-0.42186 0.038629 0.905548
-0.421555 0.0395292 0.906683
-0.421294 0.0404301 0.908027
-0.421013 0.0413354 0.909291
-0.420733 0.042243 0.910562
-0.420502 0.0431528 0.912076
-0.419078 0.0435049 0.912327
-0.420247 0.044067 0.913483
-0.418874 0.0444193 0.913982
-0.420013 0.0449846 0.915001
-0.418684 0.045338 0.915719
-0.419786 0.0459061 0.916555
-0.419497 0.0468301 0.917838
-0.419193 0.0477571 0.919058
-0.418845 0.0486853 0.92007
-0.463071 -0.0163849 0.934117
-0.461548 -0.0150901 0.930777
-0.46023 -0.0138714 0.928166
-0.459332 -0.0127944 0.927076
-0.458418 -0.0117154 0.925918
-0.457788 -0.010729 0.925801
-0.45714 -0.00973815 0.925617
-0.456516 -0.00875461 0.925512
-0.455856 -0.00776234 0.925279
-0.455195 -0.00677051 0.925035
-0.454529 -0.00577865 0.92477
-0.453869 -0.00478946 0.924521
-0.453248 -0.003813 0.924421
-0.452685 -0.00285278 0.924536
-0.452158 -0.00190296 0.924788
-0.451632 -0.000953381 0.925044
-0.451121 -7.89276e-06 0.925359
-0.450592 0.000942328 0.925607
-0.450064 0.00189255 0.925856
-0.44952 0.0028469 0.926042
-0.448907 0.00381764 0.925957
-0.448286 0.00478935 0.925842
-0.447662 0.00576124 0.925708
-0.447028 0.00673369 0.925537
-0.446382 0.00770795 0.925316
-0.445801 0.00866756 0.925343
-0.445232 0.00962315 0.925424
-0.444654 0.0105807 0.925464
-0.444129 0.0115269 0.925716
-0.44364 0.012466 0.926111
-0.443152 0.0134052 0.926513
-0.442709 0.0143367 0.927099
-0.442268 0.0152685 0.927695
-0.441795 0.0162069 0.928163
-0.441271 0.0171546 0.928423
-0.440706 0.0181093 0.928512
-0.440087 0.0190717 0.928381
-0.439521 0.0200252 0.928464
-0.439198 0.0209422 0.92956
-0.439295 0.021802 0.932416
-0.427688 0.0301279 0.902629
-0.426826 0.0310662 0.901318
-0.426372 0.0319659 0.901764
-0.425928 0.0328653 0.902258
-0.425481 0.0337659 0.902738
-0.425023 0.034668 0.90317
-0.424582 0.0355694 0.903681
-0.424187 0.0364691 0.904395
-0.423816 0.0373691 0.905223
-0.423472 0.0382696 0.906177
-0.423089 0.0391734 0.906958
-0.422798 0.0400761 0.908161
-0.422539 0.0409808 0.909516
-0.422234 0.0418897 0.91067
-0.421937 0.042801 0.911866
-0.421678 0.043715 0.913243
-0.42138 0.0446324 0.914457
-0.421133 0.0455527 0.915906
-0.420905 0.0464771 0.917459
-0.42062 0.0474045 0.918754
-0.420319 0.0483334 0.919986
-0.419985 0.0492645 0.921068
-0.461891 -0.0135313 0.930619
-0.46066 -0.0123471 0.928331
-0.45945 -0.0111751 0.926096
-0.458836 -0.0101939 0.926046
-0.45819 -0.00920273 0.92587
-0.457544 -0.00821353 0.925696
-0.456862 -0.00721443 0.925382
-0.456178 -0.00621564 0.925056
-0.455475 -0.00521348 0.924657
-0.454794 -0.00421887 0.924335
-0.454154 -0.00323677 0.924164
-0.453571 -0.00227168 0.924205
-0.453029 -0.00131776 0.924401
-0.452503 -0.000368142 0.924658
-0.451993 0.000577388 0.924975
-0.451465 0.00152761 0.925224
-0.450937 0.00247783 0.925472
-0.450409 0.00342811 0.92572
-0.449812 0.00439466 0.925703
-0.449208 0.00536176 0.925658
-0.448584 0.00633334 0.925529
-0.447964 0.00730255 0.925415
-0.447319 0.00827657 0.925199
-0.44674 0.00923565 0.925239
-0.446176 0.0101905 0.925339
-0.445631 0.0111413 0.925513
-0.445122 0.012085 0.92583
-0.444648 0.0130223 0.926285
-0.44419 0.0139567 0.926811
-0.443766 0.0148858 0.927475
-0.443329 0.0158186 0.928084
-0.442859 0.0167575 0.928569
-0.442368 0.0177011 0.928962
-0.441819 0.018654 0.929124
-0.441218 0.0196147 0.929073
-0.440838 0.0205417 0.92993
-0.440777 0.0214249 0.932108
-0.44111 0.0222587 0.935942
-0.428774 0.0315268 0.905761
-0.427903 0.0324665 0.904427
-0.427088 0.0333978 0.903322
-0.42667 0.0342988 0.903928
-0.426222 0.0352024 0.904414
-0.425805 0.036105 0.905031
-0.425405 0.0370079 0.905729
-0.425034 0.0379106 0.906562
-0.424679 0.0388147 0.907467
-0.424309 0.0397213 0.908308
-0.424005 0.0406277 0.909451
-0.423732 0.0415364 0.910744
-0.423413 0.0424482 0.911831
-0.423111 0.0433629 0.913008
-0.422813 0.0442798 0.91421
-0.422502 0.0451998 0.915361
-0.422257 0.0461234 0.916818
-0.422032 0.0470504 0.918378
-0.421763 0.0479807 0.919749
-0.421477 0.0489136 0.921046
-0.421144 0.0498476 0.922136
-0.471676 -0.0207898 0.954816
-0.473543 -0.0213087 0.95554
-0.472995 -0.0203083 0.955836
-0.469659 -0.0192931 0.949829
-0.471563 -0.0190131 0.952976
-0.463803 -0.013263 0.933952
-0.462254 -0.0119784 0.930532
-0.460757 -0.0107186 0.927276
-0.459908 -0.00966433 0.926372
-0.459244 -0.00866792 0.926138
-0.45858 -0.00767223 0.925895
-0.457861 -0.00666285 0.925454
-0.457153 -0.0056576 0.925043
-0.456413 -0.00464516 0.924511
-0.45571 -0.00364488 0.92411
-0.45505 -0.00265767 0.923865
-0.454464 -0.00169218 0.923899
-0.453919 -0.000737323 0.924084
-0.453394 0.000212069 0.924344
-0.452884 0.00115771 0.924661
-0.452355 0.00210838 0.924908
-0.451826 0.00305896 0.925152
-0.451281 0.00401302 0.925337
-0.450702 0.00497537 0.925387
-0.450117 0.00593824 0.925416
-0.449494 0.00690858 0.925299
-0.448874 0.00787803 0.925186
-0.448243 0.00884872 0.925025
-0.447663 0.00980767 0.925064
-0.447102 0.0107626 0.925176
-0.446592 0.0117065 0.925491
-0.446102 0.0126472 0.925883
-0.445644 0.0135818 0.926406
-0.445236 0.0145087 0.927127
-0.444848 0.0154327 0.927938
-0.444433 0.0163629 0.928638
-0.444013 0.0172953 0.929324
-0.443568 0.0182331 0.929911
-0.443039 0.0191847 0.93016
-0.442475 0.0201414 0.930264
-0.442287 0.0210434 0.93191
-0.44242 0.0219046 0.934887
-0.442879 0.02273 0.93923
-0.44154 0.0230894 0.940206
-0.443376 0.0235618 0.943758
-0.441627 0.0239746 0.943065
-0.44343 0.0244588 0.94648
-0.443582 0.0253513 0.949627
-0.430815 0.0319895 0.910542
-0.429498 0.0329686 0.907319
-0.428274 0.0339316 0.904478
-0.427871 0.0348338 0.905155
-0.427421 0.03574 0.905636
-0.427003 0.0366455 0.90625
-0.426601 0.037551 0.906946
-0.426233 0.0384569 0.907787
-0.425874 0.0393635 0.908683
-0.42549 0.0402733 0.909464
-0.425169 0.0411831 0.910535
-0.424855 0.0420951 0.911639
-0.424518 0.0430102 0.912648
-0.424216 0.0439268 0.913824
-0.423907 0.0448466 0.914973
-0.423599 0.0457687 0.916137
-0.423384 0.0466957 0.917728
-0.423176 0.0476265 0.919363
-0.422927 0.0485603 0.920817
-0.422671 0.0494973 0.922254
-0.422339 0.0504343 0.923349
-0.476445 -0.0263675 0.954626
-0.47735 -0.0257429 0.954162
-0.476628 -0.024681 0.953854
-0.475135 -0.0242901 0.954467
-0.475999 -0.0236526 0.953864
-0.475414 -0.0226399 0.954026
-0.474071 -0.0223018 0.955173
-0.474923 -0.0216606 0.954526
-0.474363 -0.0206565 0.954777
-0.473793 -0.0196493 0.954995
-0.472815 -0.018508 0.953762
-0.470209 -0.0177506 0.95037
-0.471837 -0.0173707 0.952521
-0.463851 -0.0116037 0.932718
-0.462087 -0.0102646 0.928523
-0.461006 -0.0091404 0.926783
-0.46034 -0.00814314 0.926548
-0.459654 -0.00714122 0.926233
-0.45891 -0.00612445 0.925704
-0.458166 -0.00510905 0.925166
-0.457386 -0.00408621 0.924493
-0.456647 -0.00307661 0.923964
-0.45598 -0.00208798 0.923697
-0.455392 -0.00112154 0.923723
-0.454847 -0.00016668 0.923911
-0.454324 0.000782709 0.924177
-0.453811 0.00172924 0.924486
-0.453264 0.00268464 0.924661
-0.452716 0.0036398 0.924836
-0.452154 0.0045983 0.924953
-0.451591 0.00555606 0.925073
-0.451027 0.00651416 0.92518
-0.450425 0.00748005 0.925145
-0.449822 0.0084459 0.925099
-0.449202 0.00941406 0.924988
-0.448635 0.0103706 0.925079
-0.448089 0.0113224 0.925255
-0.447599 0.0122634 0.925649
-0.447129 0.0132013 0.926121
-0.446709 0.0141303 0.926793
-0.446339 0.0150516 0.927667
-0.44599 0.0159709 0.928629
-0.445611 0.0168973 0.929476
-0.445239 0.0178241 0.930358
-0.444861 0.0187534 0.931218
-0.444371 0.0197013 0.931628
-0.443976 0.0206359 0.932429
-0.443985 0.0215153 0.934876
-0.444245 0.0223669 0.93837
-0.444721 0.0231998 0.94277
-0.445118 0.0240537 0.946876
-0.445377 0.0249339 0.950443
-0.445218 0.0258703 0.952299
-0.429743 0.0344497 0.906824
-0.428992 0.0353768 0.906018
-0.428546 0.0362847 0.906518
-0.428143 0.0371917 0.9072
-0.427756 0.0380989 0.907962
-0.427402 0.0390068 0.908868
-0.427032 0.0399166 0.909714
-0.426657 0.0408284 0.91054
-0.426319 0.0417415 0.911537
-0.425963 0.0426568 0.912453
-0.425596 0.0435741 0.913331
-0.425294 0.0444932 0.914499
-0.425001 0.0454153 0.91572
-0.424728 0.0463407 0.917041
-0.424545 0.0472712 0.918771
-0.424369 0.0482067 0.920549
-0.424135 0.0491438 0.922072
-0.423871 0.0500836 0.92347
-0.423528 0.0510237 0.924511
-0.478259 -0.02512 0.953712
-0.477523 -0.0240544 0.953359
-0.476887 -0.0230237 0.953345
-0.476307 -0.0220139 0.95353
-0.475769 -0.0210174 0.953857
-0.475148 -0.0199941 0.953898
-0.474523 -0.0189689 0.953916
-0.473791 -0.0179104 0.95356
-0.473057 -0.0168526 0.953192
-0.470144 -0.0160069 0.948706
-0.471691 -0.0155969 0.950571
-0.463608 -0.00986333 0.930438
-0.462288 -0.00866887 0.927855
-0.461473 -0.00762716 0.927083
-0.460763 -0.00661807 0.926689
-0.459978 -0.00558941 0.926015
-0.459194 -0.00456316 0.925337
-0.458374 -0.00353026 0.924525
-0.457629 -0.0025192 0.923979
-0.456944 -0.00152633 0.923651
-0.456358 -0.000559951 0.923686
-0.455815 0.000394537 0.923884
-0.455308 0.00134034 0.924211
-0.45478 0.00229123 0.924463
-0.454228 0.00324822 0.924623
-0.453677 0.00420435 0.924787
-0.453113 0.00516353 0.924899
-0.452551 0.00612153 0.925023
-0.451988 0.00707966 0.925137
-0.451388 0.00804523 0.925111
-0.450785 0.00901068 0.925073
-0.450165 0.00997932 0.924962
-0.449596 0.0109364 0.92505
-0.449051 0.0118886 0.925227
-0.448561 0.01283 0.925624
-0.448111 0.0137649 0.926173
-0.447759 0.0146827 0.927115
-0.44748 0.0155901 0.928347
-0.447209 0.0164989 0.929613
-0.446901 0.0174161 0.930746
-0.446596 0.0183352 0.931896
-0.446254 0.0192623 0.932904
-0.445886 0.0201952 0.933813
-0.445627 0.0211148 0.935167
-0.445794 0.0219796 0.938254
-0.446179 0.0228235 0.942247
-0.446537 0.023681 0.946161
-0.446741 0.0245672 0.949466
-0.446756 0.0254825 0.952023
-0.446332 0.0264519 0.95278
-0.444274 0.0268944 0.950898
-0.445656 0.027448 0.952503
-0.442586 0.0279886 0.946371
-0.444536 0.0284854 0.950373
-0.431544 0.034953 0.910551
-0.430372 0.0359079 0.907968
-0.429608 0.0368351 0.907111
-0.429248 0.0377415 0.907987
-0.428896 0.0386498 0.908899
-0.428546 0.0395598 0.909823
-0.428192 0.0404719 0.910736
-0.427815 0.0413863 0.911554
-0.42745 0.0423025 0.91243
-0.427062 0.0432201 0.913211
-0.426706 0.0441401 0.914136
-0.426405 0.0450615 0.915311
-0.426132 0.0459864 0.916621
-0.425894 0.0469157 0.918092
-0.42573 0.0478497 0.919905
-0.425572 0.0487894 0.921758
-0.425366 0.0497311 0.923406
-0.425106 0.0506752 0.924824
-0.424749 0.0516168 0.925806
-0.4812 -0.0260218 0.958051
-0.47916 -0.0244946 0.953235
-0.478401 -0.0234215 0.952803
-0.477737 -0.0223828 0.952699
-0.477161 -0.0213738 0.952892
-0.476604 -0.0203717 0.953154
-0.475963 -0.0193422 0.953124
-0.475274 -0.0182976 0.952922
-0.474493 -0.0172249 0.952395
-0.473709 -0.0161534 0.951852
-0.472614 -0.0149863 0.950199
-0.469782 -0.0141791 0.94599
-0.470967 -0.0136554 0.946577
-0.467669 -0.0127103 0.940645
-0.468989 -0.0122337 0.941746
-0.465123 -0.00945457 0.932309
-0.463567 -0.00819247 0.928897
-0.462577 -0.00710045 0.927503
-0.461858 -0.00608868 0.927083
-0.461015 -0.00504407 0.926205
-0.460185 -0.00400659 0.925372
-0.459342 -0.00296803 0.924482
-0.458594 -0.00195657 0.923928
-0.457893 -0.000959811 0.923546
-0.457327 1.41291e-06 0.923657
-0.456805 0.000951077 0.923933
-0.4563 0.00189706 0.92427
-0.45577 0.00284923 0.924516
-0.455215 0.0038067 0.92467
-0.454663 0.004764 0.924828
-0.454081 0.00572749 0.924878
-0.453535 0.00668261 0.925059
-0.45297 0.00764126 0.925171
-0.452369 0.00860744 0.925144
-0.451766 0.00957317 0.925107
-0.451163 0.0105383 0.925067
-0.450597 0.0114951 0.92517
-0.450069 0.0124448 0.925414
-0.449596 0.0133842 0.925877
-0.449258 0.0143004 0.926862
-0.449016 0.0152014 0.928232
-0.448838 0.0160947 0.92986
-0.448646 0.0169941 0.931445
-0.448423 0.0179016 0.932917
-0.448122 0.0188248 0.934083
-0.447784 0.0197556 0.935111
-0.447508 0.0206797 0.936395
-0.447368 0.0215882 0.938228
-0.447641 0.0224467 0.941739
-0.447891 0.0233171 0.945178
-0.448074 0.0242041 0.94837
-0.448043 0.0251236 0.950714
-0.447841 0.0260675 0.952373
-0.447198 0.0270611 0.952234
-0.446505 0.0280582 0.951886
-0.445793 0.0290552 0.951456
-0.4434 0.029518 0.948159
-0.445098 0.0300493 0.951093
-0.433274 0.0354678 0.913925
-0.431667 0.0364478 0.90953
-0.430557 0.0373923 0.907214
-0.430244 0.0382983 0.908288
-0.429937 0.0392065 0.909392
-0.429608 0.040118 0.910406
-0.429286 0.0410315 0.911457
-0.428952 0.0419477 0.912462
-0.428616 0.0428655 0.913467
-0.42823 0.043786 0.914256
-0.427902 0.0447081 0.915306
-0.427629 0.0456331 0.916605
-0.427375 0.046562 0.917997
-0.427145 0.0474946 0.919502
-0.426986 0.0484332 0.921335
-0.426812 0.0493756 0.923115
-0.426591 0.0503213 0.924694
-0.426318 0.051268 0.926049
-0.425949 0.0522118 0.926981
-0.482926 -0.0264937 0.958178
-0.480834 -0.0249484 0.953231
-0.480079 -0.0238759 0.952822
-0.47928 -0.0227899 0.952256
-0.478616 -0.0217518 0.952152
-0.478039 -0.0207429 0.952344
-0.477461 -0.0197343 0.952534
-0.4768 -0.0186989 0.952434
-0.476088 -0.0176477 0.952151
-0.475243 -0.0165562 0.951403
-0.474411 -0.0154711 0.950691
-0.473509 -0.0143673 0.94973
-0.472095 -0.0131121 0.94695
-0.470283 -0.0117451 0.942738
-0.467027 -0.0108291 0.936941
-0.468501 -0.0103983 0.938604
-0.466695 -0.00905576 0.934355
-0.464989 -0.00775327 0.930437
-0.46383 -0.00661391 0.928455
-0.463051 -0.00558408 0.927822
-0.462231 -0.00454655 0.927043
-0.461332 -0.00349012 0.925965
-0.460449 -0.0024409 0.924935
-0.459675 -0.00142338 0.924299
-0.458949 -0.000420075 0.923831
-0.458283 0.000566625 0.923578
-0.457795 0.00150902 0.923977
-0.457291 0.00245541 0.924319
-0.456778 0.00340388 0.924631
-0.456244 0.00435745 0.924862
-0.455708 0.00531125 0.925089
-0.455112 0.00627884 0.925083
-0.454562 0.00723501 0.925257
-0.453993 0.00819547 0.925353
-0.453388 0.00916279 0.925314
-0.452784 0.0101293 0.925278
-0.452199 0.011091 0.925311
-0.451685 0.0120389 0.925614
-0.451195 0.0129828 0.92601
-0.45074 0.0139202 0.926545
-0.450509 0.0148198 0.927944
-0.45038 0.0157051 0.929751
-0.450273 0.016591 0.931654
-0.450149 0.0174838 0.933505
-0.449996 0.0183854 0.935251
-0.449691 0.0193136 0.936408
-0.449369 0.0202464 0.937509
-0.449137 0.0211698 0.938968
-0.449041 0.0220781 0.940979
-0.449192 0.0229599 0.943991
-0.449256 0.0238596 0.946677
-0.449238 0.0247758 0.949048
-0.449016 0.0257198 0.95061
-0.448647 0.026683 0.951582
-0.448008 0.0276753 0.951462
-0.447316 0.0286712 0.951122
-0.446588 0.0296688 0.950628
-0.445888 0.0306615 0.950245
-0.443507 0.0311134 0.946994
-0.444721 0.0316886 0.947926
-0.432678 0.0379024 0.912271
-0.432042 0.0388283 0.911985
-0.431452 0.0397513 0.911892
-0.430872 0.0406732 0.911842
-0.430568 0.0415894 0.912971
-0.430239 0.0425085 0.914005
-0.429911 0.0434307 0.915043
-0.429527 0.0443545 0.915847
-0.429201 0.04528 0.916905
-0.428902 0.0462088 0.918094
-0.428653 0.0471413 0.919504
-0.428409 0.0480776 0.920947
-0.428249 0.0490199 0.922773
-0.428059 0.0499659 0.924476
-0.427821 0.050914 0.925983
-0.483273 -0.02648 0.953648
-0.48249 -0.025395 0.953153
-0.481694 -0.0243084 0.952614
-0.480939 -0.0232369 0.952207
-0.480137 -0.0221515 0.951637
-0.47947 -0.0211129 0.951522
-0.47887 -0.0200967 0.951633
-0.478271 -0.0190818 0.951749
-0.477609 -0.018047 0.951648
-0.476896 -0.0169971 0.951366
-0.47605 -0.0159069 0.950616
-0.475197 -0.0148175 0.949836
-0.474232 -0.0136965 0.948658
-0.472987 -0.0124961 0.946486
-0.471339 -0.0111841 0.942881
-0.469717 -0.00988834 0.939336
-0.468053 -0.00859026 0.935619
-0.466523 -0.00734009 0.932354
-0.465307 -0.00618474 0.930187
-0.4645 -0.00514648 0.929468
-0.463697 -0.00411202 0.928761
-0.462795 -0.0030532 0.927684
-0.461905 -0.00200137 0.926646
-0.46107 -0.000967062 0.925798
-0.460279 5.43162e-05 0.925102
-0.459524 0.00106371 0.924536
-0.458979 0.00202142 0.924731
-0.458404 0.002986 0.924814
-0.457877 0.00393926 0.925072
-0.457325 0.00489765 0.925243
-0.456775 0.0058556 0.92542
-0.45616 0.00682725 0.925351
-0.455593 0.00778859 0.925458
-0.455019 0.00874995 0.925545
-0.454447 0.00971124 0.925633
-0.453878 0.0106716 0.925729
-0.453347 0.011624 0.925973
-0.452904 0.0125604 0.92655
-0.45247 0.0134956 0.927164
-0.452039 0.0144317 0.927791
-0.451888 0.0153212 0.929499
-0.451842 0.0161967 0.931628
-0.451776 0.0170812 0.933688
-0.451671 0.0179761 0.935611
-0.451546 0.0188785 0.937468
-0.451235 0.0198122 0.938606
-0.450917 0.0207492 0.939723
-0.450723 0.0216721 0.941334
-0.450652 0.0225828 0.943445
-0.45064 0.0234912 0.945805
-0.450514 0.024419 0.947723
-0.450302 0.0253606 0.949311
-0.449913 0.0263249 0.950195
-0.4494 0.0273032 0.950585
-0.448781 0.0282924 0.950542
-0.448107 0.0292851 0.950279
-0.447394 0.0302802 0.949848
-0.446678 0.0312732 0.949404
-0.445915 0.0322677 0.948758
-0.443156 0.0327363 0.943936
-0.444763 0.0332855 0.946504
-0.434954 0.0384169 0.917913
-0.434004 0.0393605 0.916329
-0.433107 0.0402979 0.914955
-0.432257 0.0412294 0.91377
-0.43199 0.0421493 0.915063
-0.431652 0.043073 0.916053
-0.431312 0.0439991 0.917049
-0.430931 0.044927 0.917873
-0.430592 0.0458561 0.91888
-0.430264 0.0467889 0.91994
-0.429996 0.0477254 0.921274
-0.429706 0.048664 0.922516
-0.429516 0.0496094 0.924205
-0.429292 0.0505581 0.925762
-0.42904 0.0515087 0.927197
-0.486811 -0.0285472 0.963389
-0.488443 -0.0289842 0.963128
-0.486281 -0.027402 0.958069
-0.484151 -0.025844 0.953087
-0.483363 -0.024759 0.95258
-0.482566 -0.023673 0.952041
-0.481793 -0.0225962 0.951573
-0.480989 -0.0215119 0.951001
-0.480318 -0.0204727 0.950874
-0.479691 -0.0194484 0.950894
-0.479071 -0.0184276 0.950939
-0.478408 -0.0173934 0.950832
-0.477697 -0.0163449 0.950557
-0.476854 -0.0152583 0.949826
-0.475984 -0.014165 0.948989
-0.474974 -0.0130333 0.94766
-0.473885 -0.0118823 0.946044
-0.472413 -0.0106262 0.943077
-0.470976 -0.00938724 0.940205
-0.469493 -0.00814331 0.937153
-0.468154 -0.00694784 0.93459
-0.466916 -0.00578624 0.932366
-0.466102 -0.00474395 0.931636
-0.465301 -0.00370776 0.930947
-0.46438 -0.00264318 0.929823
-0.463475 -0.00158572 0.928744
-0.462576 -0.000533705 0.927682
-0.461679 0.000515109 0.926613
