ply
format ascii 1.0
element vertex 1707
property float x
property float y
property float z
end_header
0.0624064 0.263069 0.711931
0.0639531 0.26403 0.712739
0.0655054 0.265004 0.713578
0.0670576 0.265968 0.71438
0.0685944 0.266866 0.714964
0.0700983 0.267642 0.715148
0.0716028 0.268417 0.715325
0.073109 0.269191 0.715504
0.0746075 0.26994 0.715591
0.076088 0.270624 0.715474
0.0775573 0.271271 0.71524
0.0790255 0.271918 0.714997
0.0804955 0.272568 0.714771
0.0820069 0.273346 0.71495
0.0835416 0.274193 0.715345
0.0850909 0.275078 0.715857
0.0867022 0.276141 0.716927
0.0883651 0.277347 0.718439
0.090022 0.278522 0.719843
0.0916934 0.279725 0.72133
0.0933279 0.280809 0.72244
0.0948589 0.281594 0.72261
0.0963057 0.282145 0.722049
0.0977008 0.282556 0.721056
0.0990126 0.282746 0.719388
0.100304 0.282894 0.717591
0.10159 0.283038 0.715793
0.102863 0.283158 0.713932
0.104171 0.283379 0.712385
0.106522 0.286284 0.719039
-0.0136614 0.242556 0.773128
-0.0151999 0.241819 0.77315
-0.0159201 0.243193 0.772379
-0.0143822 0.243893 0.772211
-0.012844 0.244665 0.772316
-0.0113052 0.245404 0.772293
-0.00976572 0.24608 0.772038
-0.00822771 0.246687 0.771528
-0.00668943 0.247326 0.771136
-0.00515363 0.247915 0.770558
-0.00361911 0.248482 0.769903
-0.00208398 0.249098 0.769434
-0.000553544 0.249627 0.768643
0.000973743 0.25012 0.767726
0.00249843 0.250607 0.766789
0.00402285 0.251128 0.76598
0.00554785 0.251683 0.765297
0.00707804 0.252328 0.764945
0.008608 0.252983 0.764622
0.0101285 0.253514 0.763862
0.0116504 0.254089 0.763257
0.0131626 0.254566 0.762307
0.0146533 0.254847 0.760664
0.016129 0.255022 0.75865
0.0175911 0.255121 0.756379
0.0190328 0.255095 0.753678
0.0204583 0.254994 0.750726
0.0218831 0.254954 0.748
0.0233008 0.254916 0.745298
0.0247101 0.254871 0.742581
0.0261001 0.254739 0.739577
0.0274726 0.254543 0.736366
0.0288303 0.25431 0.73304
0.030187 0.254126 0.729902
0.0315606 0.2541 0.727325
0.0329499 0.254212 0.725234
0.0343608 0.254483 0.723694
0.0357916 0.254892 0.722635
0.0372298 0.255351 0.721754
0.0386674 0.25582 0.720906
0.0401156 0.25635 0.720273
0.0415629 0.256887 0.719658
0.043003 0.25739 0.718936
0.0444349 0.25786 0.718107
0.045857 0.258294 0.717156
0.047272 0.258702 0.716125
0.0486828 0.259103 0.715073
0.0500904 0.259499 0.71401
0.0515017 0.259922 0.713039
0.0529183 0.260376 0.712178
0.0543353 0.260841 0.711352
0.0557649 0.261364 0.710724
0.057215 0.261976 0.710387
0.0586669 0.262593 0.710072
0.0601417 0.263305 0.710061
0.0616647 0.264195 0.710636
0.0632023 0.265133 0.711361
0.0647524 0.266106 0.712195
0.0662946 0.267042 0.712902
0.0678353 0.267962 0.713555
0.0693541 0.268794 0.713924
0.0708681 0.269608 0.714223
0.0723667 0.270362 0.714332
0.0738629 0.271105 0.714405
0.0753217 0.271721 0.71407
0.0767591 0.272269 0.71352
0.0782043 0.272845 0.713059
0.0796714 0.273492 0.712827
0.081173 0.274247 0.712934
0.0826963 0.275066 0.713241
0.0842388 0.27594 0.713718
0.085854 0.277026 0.714858
0.0875339 0.278295 0.71656
0.0892237 0.279577 0.718296
0.0909515 0.280953 0.720314
0.0926437 0.282209 0.72195
0.0942344 0.283165 0.722646
0.0957319 0.283853 0.722511
0.0971804 0.284405 0.721954
0.0985107 0.284636 0.720413
0.0997819 0.284716 0.718418
0.102019 0.287394 0.724375
-0.0181722 0.243624 0.77086
-0.016638 0.244432 0.771101
-0.0151016 0.245162 0.77105
-0.0135647 0.245935 0.771155
-0.0120266 0.246676 0.771143
-0.0104878 0.247383 0.771004
-0.00895011 0.248009 0.770562
-0.00741169 0.248681 0.770297
-0.00587507 0.249301 0.769837
-0.00433875 0.249926 0.769396
-0.00280237 0.250577 0.769053
-0.00127085 0.251107 0.768272
0.000258412 0.25163 0.767462
0.00178541 0.252143 0.766623
0.00331302 0.252686 0.765902
0.00483935 0.253246 0.765239
0.00637227 0.253929 0.765012
0.007904 0.254579 0.76468
0.00942778 0.255147 0.764046
0.0109551 0.255756 0.763568
0.0124755 0.256306 0.762876
0.0139773 0.256674 0.761544
0.0154682 0.256962 0.759936
0.016919 0.25691 0.757139
0.0183462 0.256716 0.753859
0.0197518 0.25641 0.750203
0.021152 0.256146 0.74671
0.0225444 0.2559 0.743296
0.0239578 0.25588 0.740691
0.0253487 0.255751 0.737713
0.0267248 0.255575 0.734592
0.0280869 0.255363 0.731358
0.0294443 0.255175 0.728228
0.0308183 0.255149 0.725663
0.0322129 0.255292 0.723692
0.0336284 0.255593 0.722265
0.0350648 0.256034 0.721321
0.0365083 0.256525 0.720554
0.0379516 0.257026 0.719821
0.0394046 0.257586 0.71929
0.040852 0.258122 0.71868
0.0422856 0.258592 0.717851
0.0437081 0.259019 0.716876
0.0451219 0.25941 0.715793
0.0465216 0.259749 0.714535
0.0479263 0.260123 0.713401
0.0493341 0.260524 0.712362
0.0507455 0.26095 0.711409
0.0521689 0.261439 0.710666
0.0535995 0.261965 0.710049
0.0550377 0.262526 0.709548
0.056495 0.26317 0.709318
0.0579528 0.263814 0.709091
0.0594259 0.26452 0.709065
0.0609327 0.265353 0.709451
0.0624528 0.266232 0.70998
0.0639919 0.267172 0.710706
0.0655153 0.268048 0.711215
0.0670371 0.268909 0.711677
0.0685612 0.269769 0.712133
0.0700899 0.270641 0.712623
0.0715739 0.27135 0.712591
0.0730678 0.272093 0.712662
0.0745208 0.272696 0.712289
0.0759359 0.273173 0.711519
0.0773607 0.273688 0.710871
0.0788429 0.274389 0.710814
0.0803323 0.275114 0.710827
0.0818529 0.275935 0.71114
0.0833927 0.276808 0.711614
0.0850139 0.277926 0.712847
0.0867124 0.279261 0.714754
0.0884424 0.280676 0.716892
0.0902122 0.282187 0.719318
0.0919598 0.283612 0.721468
0.0936092 0.284738 0.722683
0.0951589 0.285572 0.722993
0.0966493 0.286236 0.722779
0.0980079 0.286535 0.721451
0.100219 0.289173 0.727263
-0.0188882 0.244872 0.769622
-0.0173544 0.245637 0.769708
-0.0158195 0.246388 0.769734
-0.0142837 0.247166 0.769859
-0.0127469 0.247935 0.769954
-0.0112093 0.248677 0.769941
-0.00967116 0.249357 0.769705
-0.00813323 0.250065 0.769566
-0.00659565 0.250713 0.769213
-0.00505886 0.251368 0.768879
-0.00352113 0.252048 0.768643
-0.00198874 0.252584 0.767882
-0.000457709 0.253132 0.767169
0.00107332 0.253698 0.766525
0.00260192 0.254253 0.765842
0.00413008 0.254818 0.765199
0.00566768 0.255558 0.765176
0.00720065 0.256206 0.764834
0.00872847 0.2568 0.764298
0.0102594 0.257443 0.763936
0.0117849 0.258029 0.76337
0.013292 0.25843 0.762155
0.0147928 0.258785 0.760792
0.0162397 0.258652 0.757721
0.0176426 0.258186 0.753505
0.0190147 0.257554 0.748735
0.0203779 0.256965 0.744132
0.0217614 0.256644 0.740486
0.0231764 0.25665 0.737982
0.0245775 0.256598 0.735297
0.0259621 0.256483 0.732405
0.0273328 0.256328 0.729387
0.0286963 0.256175 0.726396
0.0300752 0.256178 0.723948
0.0314779 0.256375 0.722169
0.0328978 0.256701 0.72084
0.0343435 0.257201 0.7201
0.0357977 0.257758 0.719558
0.0372519 0.258317 0.719027
0.0387101 0.258908 0.7186
0.0401574 0.25944 0.717982
0.0415848 0.259878 0.717046
0.0429952 0.260238 0.715858
0.0444011 0.26059 0.714649
0.0457942 0.260896 0.713289
0.0471989 0.261272 0.712166
0.0486084 0.261679 0.711154
0.0500272 0.262141 0.710324
0.0514517 0.262633 0.709597
0.0528954 0.263218 0.709173
0.0543479 0.263841 0.708877
0.0558067 0.264491 0.708669
0.0572644 0.265134 0.708439
0.0587346 0.26583 0.70838
0.0602161 0.266567 0.708453
0.0617169 0.267377 0.708757
0.0632446 0.268283 0.709368
0.0647504 0.269096 0.709679
0.0662541 0.269899 0.709952
0.0677735 0.270753 0.710387
0.0692854 0.271574 0.710712
0.0707588 0.272254 0.710589
0.0722504 0.272995 0.710658
0.0737002 0.273592 0.710272
0.0751052 0.274041 0.709419
0.0765268 0.274552 0.708762
0.0780161 0.275285 0.708806
0.0795033 0.276008 0.708819
0.0810307 0.276858 0.709223
0.082587 0.277793 0.709889
0.0842177 0.278949 0.711236
0.0859267 0.280328 0.71327
0.0876857 0.281842 0.715705
0.0894859 0.283455 0.718434
0.0912654 0.284984 0.72089
0.0929716 0.28628 0.722619
0.0945702 0.287254 0.723352
0.0961109 0.288056 0.723559
0.0975189 0.288485 0.722626
-0.0211333 0.245319 0.768183
-0.0196012 0.246055 0.768161
-0.0180692 0.246837 0.768305
-0.0165361 0.247614 0.76843
-0.0150018 0.248363 0.768447
-0.0134662 0.249109 0.768454
-0.0119301 0.249855 0.768461
-0.0103933 0.250567 0.768342
-0.0088562 0.251304 0.76831
-0.0073183 0.252013 0.768181
-0.00578058 0.252726 0.768061
-0.00424246 0.253436 0.767931
-0.00270815 0.254025 0.767365
-0.00117503 0.254605 0.766769
0.00035807 0.255205 0.766252
0.00189099 0.255826 0.765802
0.00342237 0.256426 0.765285
0.0049612 0.257169 0.765272
0.00649422 0.25781 0.7649
0.00802248 0.258397 0.764334
0.00955347 0.259023 0.763914
0.0110833 0.259644 0.763475
0.0125976 0.260095 0.762445
0.014108 0.260535 0.761376
0.0155284 0.26009 0.757232
0.016906 0.259348 0.752082
0.0182516 0.258451 0.746418
0.0195999 0.257717 0.741347
0.0209855 0.257416 0.737792
0.0224061 0.257472 0.735481
0.0238079 0.257431 0.73285
0.0252011 0.257381 0.730202
0.0265854 0.25732 0.727525
0.0279584 0.257232 0.72477
0.0293471 0.257294 0.722539
0.0307587 0.257543 0.720949
0.0321876 0.257925 0.719814
0.0336341 0.25843 0.719098
0.0350889 0.258992 0.718575
0.0365423 0.259553 0.718049
0.0380004 0.260142 0.71762
0.0394417 0.260644 0.716903
0.0408747 0.26111 0.716067
0.0422805 0.261445 0.714802
0.0436864 0.261797 0.713599
0.0450806 0.262104 0.712251
0.0464858 0.262479 0.711135
0.0478955 0.262888 0.710132
0.049326 0.263402 0.709477
0.0507561 0.263922 0.708842
0.0522072 0.264536 0.708518
0.0536665 0.265189 0.708318
0.0551265 0.265844 0.708125
0.0565831 0.266484 0.707885
0.0580455 0.267148 0.707722
0.0595096 0.267817 0.707575
0.0609914 0.268557 0.707652
0.0625069 0.269422 0.708129
0.0639947 0.270174 0.708244
0.0654805 0.270917 0.708326
0.0669887 0.271737 0.708652
0.0684867 0.272515 0.708843
0.0699402 0.273132 0.708523
0.0714203 0.273842 0.708495
0.0728758 0.274465 0.708196
0.0742899 0.27495 0.707463
0.0757137 0.275471 0.706845
0.0772107 0.276237 0.706994
0.0786953 0.276959 0.707003
0.0802291 0.277838 0.707496
0.0818036 0.278836 0.708359
0.0834541 0.280066 0.709926
0.0851734 0.281488 0.712083
0.0869688 0.283125 0.714881
0.088789 0.284811 0.717819
0.0906014 0.286447 0.720589
0.0923539 0.287885 0.722739
0.0940105 0.289027 0.723979
0.0955985 0.289961 0.724579
0.0979275 0.292981 0.731494
-0.0218427 0.246484 0.766665
-0.0203129 0.24723 0.766672
-0.0187828 0.248014 0.766826
-0.0172516 0.248809 0.767018
-0.0157187 0.249584 0.767133
-0.0141849 0.250357 0.767237
-0.0126499 0.251106 0.767254
-0.0111142 0.25182 0.767144
-0.009578 0.252559 0.767122
-0.00804151 0.253275 0.767012
-0.00650433 0.25399 0.766902
-0.00496603 0.254729 0.76688
-0.00343101 0.255352 0.76644
-0.00189593 0.255994 0.766068
-0.000360395 0.256664 0.765793
0.00117627 0.257346 0.765567
0.00270998 0.257979 0.765166
0.00425119 0.258747 0.76524
0.00578556 0.259391 0.764878
0.00731389 0.259961 0.764254
0.00884492 0.260573 0.763786
0.0103758 0.261203 0.763375
0.0134193 0.262263 0.761868
0.014832 0.261688 0.757293
0.0188269 0.258478 0.738617
0.0202202 0.258244 0.735316
0.0216505 0.258386 0.733318
0.0230566 0.258381 0.730825
0.024458 0.258395 0.728407
0.025852 0.258398 0.725967
0.0272351 0.258373 0.723441
0.0286291 0.258466 0.721328
0.0300457 0.258747 0.719854
0.0314749 0.259132 0.718733
0.0329211 0.259635 0.718017
0.0343751 0.260196 0.717491
0.0358277 0.260752 0.716955
0.0372847 0.261339 0.716521
0.038731 0.26187 0.715903
0.04017 0.262367 0.715176
0.0415831 0.262739 0.714037
0.0429974 0.263128 0.712962
0.0443979 0.263461 0.711707
0.0458092 0.263862 0.710677
0.047219 0.264268 0.709668
0.0486502 0.264782 0.709016
0.0500799 0.265295 0.708362
0.0515302 0.265907 0.708028
0.0529837 0.266531 0.707738
0.0544436 0.267187 0.707548
0.0559009 0.267831 0.707318
0.0573558 0.268464 0.707056
0.0588043 0.269072 0.706713
0.0602695 0.269747 0.706585
0.061767 0.270547 0.706854
0.0632378 0.271241 0.706782
0.0647129 0.271948 0.706751
0.0662091 0.272732 0.706964
0.0676936 0.273468 0.707022
0.0691338 0.274042 0.706571
0.070609 0.274742 0.706517
0.0720657 0.275376 0.706255
0.0734887 0.275896 0.705636
0.0749219 0.276454 0.705137
0.0764176 0.277222 0.705293
0.0778911 0.277913 0.705209
0.0794221 0.278791 0.705698
0.0810051 0.279827 0.706673
0.0826555 0.281067 0.708266
0.0844006 0.282584 0.710703
0.0862333 0.28435 0.713883
0.0880825 0.286137 0.717113
0.0899294 0.287888 0.720218
0.0917262 0.289464 0.722776
0.0934187 0.290715 0.724334
0.0950328 0.291723 0.725154
-0.0240867 0.247061 0.765713
-0.0225541 0.24772 0.76541
-0.0210234 0.248414 0.765233
-0.0194936 0.249151 0.765212
-0.0179639 0.249925 0.765326
-0.0164328 0.250693 0.765421
-0.0149015 0.251493 0.765623
-0.0133684 0.252264 0.765717
-0.0118342 0.253008 0.765715
-0.0102992 0.253776 0.765799
-0.00876317 0.254517 0.765787
-0.00722741 0.255238 0.765696
-0.00569002 0.255982 0.765694
-0.0041547 0.256637 0.76537
-0.0026192 0.257318 0.765134
-0.00108138 0.258053 0.765092
0.000457863 0.258795 0.765079
0.00199497 0.259489 0.764891
0.00353667 0.26026 0.764975
0.00507315 0.260935 0.764719
0.00660297 0.261501 0.764086
0.00813485 0.26212 0.763637
0.00966549 0.262733 0.763169
0.0166903 0.259809 0.740356
0.0180455 0.259123 0.735517
0.0194675 0.259154 0.733138
0.0209016 0.259335 0.731286
0.0223143 0.259384 0.728993
0.0237234 0.259452 0.726778
0.0251289 0.25954 0.724635
0.0265173 0.259546 0.722229
0.0279251 0.259729 0.720428
0.0293468 0.260039 0.719058
0.0307812 0.260451 0.718036
0.0322228 0.260927 0.717228
0.0336758 0.261478 0.716677
0.0351222 0.261998 0.716022
0.0365682 0.262525 0.715391
0.038014 0.263056 0.714776
0.0394591 0.263587 0.714165
0.0408851 0.264024 0.713247
0.0423119 0.264478 0.712386
0.0437303 0.264897 0.711415
0.0451487 0.265325 0.71048
0.0465589 0.265725 0.709457
0.0479847 0.266211 0.708711
0.0494092 0.266695 0.707967
0.0508529 0.267274 0.707529
0.0522991 0.267867 0.707137
0.053758 0.268518 0.706931
0.0552157 0.269162 0.706705
0.0566717 0.2698 0.706458
0.0581143 0.270384 0.706038
0.0595717 0.271029 0.705814
0.0610455 0.271739 0.705796
0.0624983 0.272365 0.705512
0.0639566 0.273013 0.705297
0.0654347 0.273735 0.705313
0.0669001 0.274408 0.705175
0.0683441 0.275001 0.704789
0.0698175 0.275701 0.704736
0.0712814 0.276368 0.704578
0.0727222 0.276952 0.704164
0.0741723 0.277571 0.703858
0.0756663 0.278337 0.704007
0.0771368 0.279024 0.703909
0.0786651 0.279897 0.704384
0.080254 0.280961 0.70544
0.0818958 0.282182 0.706969
0.0836385 0.283706 0.709412
0.0854969 0.285567 0.712867
0.0873559 0.287399 0.716218
0.0892171 0.289207 0.71948
0.0910363 0.290863 0.722262
0.0927614 0.292216 0.724119
0.0944001 0.293298 0.725154
-0.0263396 0.247859 0.76558
-0.0248012 0.248404 0.764858
-0.023266 0.248986 0.764273
-0.0217335 0.249609 0.763839
-0.0202037 0.250309 0.763687
-0.0186752 0.251056 0.763703
-0.0171456 0.251798 0.763701
-0.0156158 0.252594 0.763894
-0.0140847 0.253364 0.763988
-0.0125528 0.254135 0.764083
-0.0110194 0.254935 0.764284
-0.0094849 0.255706 0.764378
-0.00794975 0.256451 0.764375
-0.00641359 0.257223 0.764469
-0.00487862 0.257912 0.764262
-0.00334211 0.258623 0.764143
-0.00180369 0.259391 0.764217
-0.000263723 0.260173 0.764339
0.00127582 0.260928 0.764364
0.00281906 0.261734 0.764564
0.00435823 0.262441 0.764425
0.00589085 0.263047 0.763927
0.00742496 0.263685 0.763546
0.0172894 0.259973 0.733137
0.0187484 0.260339 0.731913
0.0201809 0.260503 0.730012
0.0215936 0.260545 0.727708
0.0230024 0.260604 0.725476
0.0244084 0.26069 0.72334
0.0258018 0.260724 0.721041
0.0272182 0.260965 0.719443
0.028649 0.261335 0.718278
0.030088 0.261777 0.717359
0.0315296 0.262247 0.716537
0.0329768 0.262762 0.715869
0.0344226 0.263277 0.715202
0.0358585 0.263743 0.714374
0.0373038 0.264272 0.713755
0.0387579 0.264859 0.713327
0.0401908 0.26533 0.712526
0.0416197 0.265792 0.711693
0.0430503 0.26627 0.71092
0.044475 0.266726 0.710078
0.0458874 0.267133 0.70908
0.0473208 0.267648 0.708434
0.0487453 0.268131 0.707684
0.0501825 0.268675 0.707138
0.0516206 0.269231 0.706626
0.0530724 0.269849 0.706316
0.0545172 0.270438 0.705913
0.0559666 0.27105 0.705584
0.0574091 0.271633 0.705166
0.0588585 0.272248 0.704846
0.0603163 0.272895 0.70463
0.0617658 0.273513 0.704321
0.0632293 0.274182 0.704175
0.0647002 0.274881 0.704121
0.0661586 0.27553 0.703911
0.0676171 0.276182 0.703706
0.0690905 0.276885 0.703664
0.0705472 0.277528 0.703433
0.0719962 0.278144 0.70312
0.0734536 0.278789 0.702896
0.0749283 0.279495 0.702857
0.0763962 0.280174 0.702739
0.0779198 0.281039 0.703185
0.0795161 0.282134 0.704331
0.0811649 0.283386 0.705947
0.0829055 0.284916 0.708396
0.0847702 0.286814 0.711944
0.0866381 0.288687 0.715402
0.0884983 0.290507 0.718681
0.0903177 0.292176 0.721487
0.0920731 0.293627 0.723629
0.0937448 0.29481 0.724962
-0.0285989 0.248743 0.765758
-0.0270546 0.249216 0.764773
-0.025513 0.249701 0.763838
-0.0239741 0.250185 0.762901
-0.0224384 0.250703 0.76209
-0.0209089 0.251347 0.761737
-0.019382 0.252085 0.761727
-0.0178546 0.252803 0.761638
-0.0163276 0.253603 0.761844
-0.0147993 0.2544 0.762037
-0.0132694 0.255174 0.762151
-0.0117385 0.256008 0.762468
-0.0102058 0.256845 0.762795
-0.00867195 0.257647 0.762996
-0.00713626 0.258446 0.763187
-0.00560132 0.259187 0.763164
-0.00406567 0.259895 0.763035
-0.00252753 0.2607 0.763235
-0.000986814 0.261512 0.763464
0.000553917 0.262303 0.763615
0.00209702 0.263111 0.763824
0.00363953 0.263887 0.763917
0.00517449 0.264529 0.763545
0.00671096 0.265189 0.763241
0.0151506 0.261214 0.734558
0.0166108 0.261541 0.733202
0.0180637 0.261836 0.731742
0.0194871 0.2619 0.729512
0.0208942 0.261876 0.727001
0.0222994 0.261896 0.724645
0.0237063 0.261977 0.722506
0.025102 0.262015 0.720232
0.0265242 0.262291 0.71876
0.0279596 0.262689 0.717693
0.0293995 0.263128 0.716771
0.0308328 0.263543 0.715768
0.0322756 0.26403 0.715009
0.0337159 0.264512 0.714235
0.0351417 0.264918 0.713215
0.0365905 0.265468 0.712671
0.0380435 0.266051 0.712233
0.0394818 0.266554 0.711537
0.0409163 0.267044 0.710804
0.0423593 0.267586 0.710241
0.0437851 0.268048 0.709418
0.0452106 0.268514 0.708615
0.0466451 0.269034 0.707986
0.0480711 0.269516 0.707241
0.0495013 0.270029 0.706592
0.0509318 0.270548 0.705965
0.0523757 0.271131 0.705545
0.0538129 0.271687 0.70504
0.0552554 0.272268 0.704615
0.0566962 0.272846 0.704181
0.0581369 0.273426 0.703756
0.0595845 0.274038 0.703428
0.0610397 0.274679 0.703195
0.0625093 0.275377 0.70314
0.0639817 0.276086 0.703114
0.0654572 0.276801 0.703112
0.0669248 0.277488 0.703016
0.0683911 0.278166 0.702897
0.0698475 0.278809 0.702667
0.0713041 0.279454 0.70244
0.0727618 0.280099 0.702219
0.0742278 0.280775 0.70209
0.0756942 0.281452 0.701962
0.0772067 0.282281 0.702298
0.0788006 0.283377 0.70344
0.0804393 0.284605 0.704974
0.0821781 0.286142 0.70743
0.0840466 0.288067 0.711043
0.0859184 0.289967 0.714565
0.0877656 0.291762 0.71775
0.08959 0.293457 0.720624
0.0913527 0.29494 0.722849
0.0930446 0.296193 0.724378
-0.0301434 0.248238 0.766635
-0.03086 0.249618 0.765906
-0.0293156 0.250127 0.765048
-0.0277684 0.250558 0.763919
-0.0262222 0.250954 0.762666
-0.0246788 0.251341 0.761383
-0.0231406 0.251765 0.760239
-0.0216104 0.25234 0.759644
-0.0200843 0.253019 0.759422
-0.0185596 0.253738 0.759343
-0.0170357 0.254539 0.759556
-0.0155105 0.255365 0.759858
-0.0139837 0.256171 0.760082
-0.0124557 0.257041 0.760527
-0.0109255 0.257917 0.760991
-0.00939307 0.258754 0.761318
-0.00785962 0.259553 0.761509
-0.0063258 0.260323 0.761593
-0.00479147 0.26106 0.76156
-0.00325349 0.261894 0.761867
-0.00171375 0.262738 0.762202
-0.000172738 0.263563 0.762469
0.00137001 0.264385 0.762727
0.0029127 0.265186 0.762906
0.00445069 0.265884 0.762728
0.0129932 0.262341 0.735586
0.0144571 0.262657 0.734193
0.0159161 0.262966 0.732777
0.0173691 0.263245 0.731272
0.01879 0.263271 0.728925
0.0201983 0.263239 0.726399
0.0216051 0.263251 0.72403
0.023013 0.263325 0.721881
0.0244103 0.263366 0.719625
0.0258338 0.263643 0.71816
0.0272707 0.264043 0.71711
0.0287106 0.264482 0.716188
0.0301447 0.264894 0.715182
0.031588 0.26538 0.714423
0.0330287 0.265861 0.713649
0.0344502 0.266236 0.712533
0.0358984 0.266782 0.711978
0.0373461 0.267334 0.71144
0.0387844 0.267835 0.710744
0.0402195 0.26833 0.710024
0.0416728 0.268929 0.709644
0.0431057 0.269422 0.708926
0.0445443 0.26995 0.708327
0.0459863 0.270503 0.707804
0.047414 0.27099 0.707072
0.0488389 0.271471 0.706325
0.0502623 0.271953 0.705583
0.0516994 0.272501 0.705055
0.0531294 0.273025 0.704449
0.0545707 0.2736 0.704007
0.0560096 0.274169 0.703546
0.0574491 0.274744 0.703104
0.0588901 0.275326 0.702688
0.0603456 0.27597 0.702464
0.0618166 0.276677 0.702433
0.0632906 0.277391 0.702427
0.0647668 0.278113 0.70244
0.0662418 0.278829 0.702433
0.0676999 0.279476 0.702219
0.069155 0.280116 0.701978
0.0706112 0.280758 0.701746
0.0720688 0.281405 0.70153
0.0735277 0.282055 0.701324
0.0750104 0.28279 0.701372
0.0765228 0.283622 0.701712
0.0781172 0.284724 0.702866
0.0797556 0.285958 0.704409
0.0814913 0.287495 0.706853
0.0833366 0.289361 0.710268
0.0851911 0.291223 0.713656
0.0870108 0.292945 0.716608
0.0888205 0.294609 0.719375
0.0905789 0.296091 0.721586
0.0922803 0.297381 0.723219
-0.031572 0.250934 0.764943
-0.0300253 0.25141 0.763979
-0.0284759 0.251804 0.76272
-0.0269265 0.252132 0.761225
-0.0253806 0.252455 0.759725
-0.0238391 0.252789 0.75827
-0.0223095 0.253329 0.757556
-0.0207851 0.253973 0.757212
-0.0192618 0.254662 0.757031
-0.0177404 0.255434 0.757144
-0.0162191 0.256288 0.757543
-0.0146956 0.257094 0.757766
-0.0131708 0.257998 0.758334
-0.0116431 0.258905 0.758911
-0.0101135 0.259784 0.759382
-0.00858222 0.26062 0.759699
-0.00704929 0.26145 0.759993
-0.00551544 0.262218 0.760078
-0.00397893 0.263088 0.760499
-0.00243941 0.263963 0.760941
-0.000898266 0.264824 0.761334
0.000643084 0.265659 0.761629
0.00218623 0.266479 0.761877
0.012307 0.263896 0.735583
0.0137752 0.264241 0.73429
0.015238 0.264561 0.732922
0.0166884 0.264794 0.731267
0.0181035 0.264736 0.728652
0.01951 0.264667 0.726016
0.0209151 0.264646 0.723549
0.0223241 0.264717 0.721395
0.0237271 0.264784 0.719237
0.0251563 0.26509 0.717878
0.0265942 0.265489 0.716825
0.0280385 0.265951 0.715982
0.0294694 0.266331 0.714876
0.0309082 0.266785 0.714013
0.0323458 0.267239 0.713155
0.0337634 0.267583 0.711945
0.0352022 0.268073 0.711207
0.0366445 0.268591 0.710566
0.0380818 0.26909 0.70986
0.0395118 0.269554 0.70905
0.0409659 0.270155 0.708683
0.0423982 0.270648 0.707965
0.0438421 0.271206 0.707459
0.045285 0.271762 0.70695
0.0467189 0.272281 0.706322
0.0481499 0.272788 0.705662
0.04958 0.273298 0.705012
0.0510164 0.273844 0.704477
0.0524469 0.274365 0.703867
0.0538882 0.27494 0.703425
0.0553271 0.275509 0.702964
0.056767 0.276083 0.702523
0.0582086 0.276668 0.702115
0.0596654 0.277318 0.701908
0.0611379 0.278031 0.701896
0.0626187 0.278775 0.701978
0.0640943 0.279493 0.70198
0.0655682 0.280205 0.701959
0.0670245 0.280845 0.701723
0.0684788 0.28148 0.70147
0.0699259 0.282089 0.701136
0.0713929 0.28277 0.701022
0.0728611 0.283454 0.700916
0.0743548 0.284228 0.70108
0.0758774 0.285096 0.701526
0.0774898 0.286263 0.702864
0.0791291 0.287503 0.70442
0.0808547 0.289014 0.70677
0.0826757 0.290814 0.709968
0.0845063 0.292611 0.713144
0.0862813 0.294204 0.715698
0.0880661 0.295803 0.718258
0.0898099 0.297251 0.720359
0.0915215 0.298581 0.722102
0.094796 0.301084 0.731965
0.0931992 0.299794 0.72349
-0.0338109 0.251512 0.764013
-0.0322702 0.252077 0.76337
-0.0307256 0.252566 0.762455
-0.0291733 0.252901 0.760991
-0.027624 0.253219 0.759478
-0.026078 0.253515 0.757885
-0.0245361 0.253814 0.756317
-0.0230073 0.254324 0.755502
-0.0214849 0.254963 0.755146
-0.0199629 0.25562 0.754857
-0.0184434 0.256361 0.754861
-0.0169252 0.25721 0.755244
-0.0154045 0.258009 0.755448
-0.0138831 0.258913 0.756013
-0.0123592 0.259851 0.756697
-0.010832 0.26079 0.757377
-0.00930285 0.261688 0.757909
-0.00777055 0.26261 0.758525
-0.006237 0.263451 0.758856
-0.00470054 0.264363 0.759423
-0.0031613 0.265269 0.759971
-0.00162172 0.266126 0.760343
-8.22809e-05 0.266927 0.760523
0.00145759 0.267708 0.760635
0.0130953 0.265853 0.734478
0.0145598 0.266167 0.733093
0.0160051 0.266327 0.731202
0.0174192 0.266231 0.728474
0.0188255 0.266134 0.725755
0.0202326 0.266111 0.723294
0.021641 0.266153 0.721055
0.0230488 0.266241 0.718977
0.0244789 0.266546 0.717617
0.0259178 0.266943 0.716562
0.0273593 0.267376 0.715627
0.0287902 0.267748 0.714501
0.0302254 0.268171 0.713539
0.0316586 0.26859 0.712574
0.0330771 0.268932 0.711363
0.0345109 0.26939 0.710525
0.0359526 0.269903 0.709868
0.037385 0.270369 0.709063
0.0388097 0.2708 0.708153
0.0402573 0.271372 0.707689
0.0416892 0.27186 0.706964
0.0431324 0.272415 0.706454
0.0445803 0.273001 0.706037
0.0460212 0.273553 0.705519
0.0474592 0.274097 0.704975
0.0488955 0.274636 0.704418
0.050333 0.275184 0.703891
0.0517644 0.275709 0.703294
0.0532069 0.27629 0.702869
0.0546486 0.276866 0.702436
0.0560897 0.277446 0.702011
0.057539 0.278061 0.701698
0.059003 0.27874 0.701581
0.060475 0.279449 0.701557
0.0619624 0.28022 0.701718
0.0634368 0.280934 0.701705
0.0649029 0.281613 0.701585
0.0663506 0.282221 0.701247
0.0678043 0.282853 0.700983
0.0692433 0.283429 0.700554
0.0707187 0.284143 0.700535
0.0721967 0.284862 0.700536
0.0737016 0.285674 0.700813
0.0752346 0.286582 0.701371
0.0768573 0.287787 0.702817
0.0784957 0.289031 0.704369
0.0802191 0.290542 0.706707
0.0820198 0.292284 0.709717
0.0838353 0.294045 0.712768
0.0855957 0.2956 0.715198
0.0873674 0.297169 0.717651
0.0890992 0.29859 0.71966
0.0908201 0.299956 0.7215
0.0924982 0.301176 0.7229
-0.0344915 0.25247 0.761774
-0.0329566 0.253081 0.761306
-0.0314161 0.253602 0.760514
-0.029865 0.253931 0.759039
-0.0283158 0.254226 0.757448
-0.0267723 0.254547 0.755963
-0.0252329 0.254875 0.754507
-0.0237043 0.255354 0.753591
-0.0221826 0.255962 0.753127
-0.0206631 0.256615 0.752827
-0.0191454 0.257323 0.75272
-0.0176294 0.258141 0.752995
-0.0161107 0.258908 0.753089
-0.0145924 0.259801 0.75362
-0.0130719 0.260737 0.754294
-0.0115487 0.261703 0.755069
-0.0100222 0.262636 0.755722
-0.00849219 0.263654 0.756664
-0.00695987 0.26457 0.757249
-0.00542358 0.265543 0.758029
-0.00388561 0.266491 0.758711
-0.00234661 0.267359 0.759122
-0.00080982 0.268135 0.759215
0.0109461 0.26718 0.736142
0.0124197 0.267533 0.734883
0.0138868 0.267849 0.733508
0.0153336 0.267991 0.731564
0.0167501 0.267885 0.728812
0.0181588 0.267777 0.72607
0.0195665 0.267723 0.723517
0.0209738 0.267733 0.721184
0.0223841 0.267817 0.719101
0.0238123 0.268091 0.717645
0.0252461 0.268433 0.716414
0.0266845 0.268835 0.715381
0.0281154 0.269198 0.71423
0.029547 0.269587 0.713163
0.0309763 0.269974 0.712099
0.032395 0.270314 0.710882
0.0338241 0.270735 0.70993
0.0352565 0.271185 0.70908
0.0366824 0.271614 0.708158
0.0381016 0.272013 0.707151
0.0395434 0.272552 0.706586
0.0409735 0.273035 0.705846
0.0424153 0.273586 0.705325
0.0438632 0.274171 0.704912
0.0453095 0.274756 0.704496
0.0467546 0.275335 0.704067
0.0481991 0.275914 0.703635
0.0496434 0.276496 0.703216
0.0510882 0.277081 0.702808
0.0525384 0.277695 0.702488
0.0539882 0.278308 0.702165
0.0554382 0.278922 0.701847
0.0568948 0.279566 0.701623
0.0583587 0.280242 0.701494
0.0598303 0.280948 0.701457
0.0613184 0.28172 0.701618
0.0627862 0.282405 0.701517
0.0642457 0.283057 0.701313
0.0656854 0.283632 0.700875
0.0671313 0.284232 0.700515
0.0685706 0.284809 0.700088
0.0700544 0.285554 0.700163
0.0715427 0.28631 0.700272
0.0730666 0.28719 0.700749
0.0746273 0.288194 0.701591
0.0762603 0.289439 0.703144
0.0779083 0.290721 0.704794
0.079642 0.29227 0.707233
0.0814215 0.293951 0.710042
0.0832062 0.29562 0.712804
0.0849429 0.297105 0.715013
0.0867015 0.298639 0.717354
0.0884133 0.300003 0.719185
0.0901329 0.301374 0.721027
0.0917991 0.302564 0.722329
-0.0367112 0.25291 0.76036
-0.0351753 0.253493 0.75979
-0.0336417 0.254091 0.759276
-0.0321014 0.254588 0.758406
-0.03055 0.254891 0.756852
-0.0290046 0.255222 0.755405
-0.0274663 0.255606 0.754151
-0.0259312 0.255995 0.752918
-0.0244051 0.256501 0.752099
-0.0228844 0.257108 0.751642
-0.0213659 0.257754 0.751322
-0.0198489 0.258434 0.751117
-0.0183333 0.259191 0.751178
-0.0168166 0.259924 0.751157
-0.0153002 0.260757 0.75148
-0.0137827 0.261658 0.752032
-0.0122624 0.262595 0.752707
-0.0107395 0.263561 0.753471
-0.00921221 0.264646 0.754638
-0.00768142 0.265657 0.755549
-0.00614655 0.266703 0.75657
-0.00460874 0.26771 0.757452
-0.00307107 0.268584 0.757883
-0.00153545 0.269354 0.757956
0.010266 0.268859 0.736525
0.0117429 0.269219 0.735296
0.0132104 0.269512 0.733847
0.0146586 0.269637 0.731855
0.0160774 0.26952 0.729077
0.0174891 0.269402 0.726317
0.0188963 0.269317 0.723671
0.0203027 0.269292 0.721234
0.0217151 0.269369 0.719139
0.0231408 0.269606 0.717567
0.0245685 0.269889 0.716149
0.0260079 0.270286 0.715106
0.0274437 0.270676 0.714043
0.0288723 0.271034 0.712883
0.0302983 0.271391 0.711724
0.0317178 0.271724 0.710494
0.0331382 0.272082 0.709346
0.034565 0.272498 0.708388
0.0359859 0.272892 0.707362
0.0374002 0.273257 0.706252
0.0388354 0.273759 0.705577
0.0402654 0.274241 0.704837
0.0417011 0.274762 0.704222
0.0431536 0.275376 0.703902
0.0446059 0.275993 0.703589
0.0460579 0.276607 0.70327
0.047509 0.27722 0.702947
0.04896 0.277835 0.702626
0.0504115 0.27845 0.702313
0.0518688 0.279095 0.70209
0.053326 0.27974 0.701866
0.0547833 0.280385 0.701642
0.0562405 0.28103 0.701418
0.0576978 0.281675 0.701194
0.0591622 0.282352 0.701066
0.0606436 0.283096 0.701142
0.0621049 0.283754 0.700957
0.0635643 0.284407 0.700754
0.0650194 0.28504 0.700494
0.0664737 0.285672 0.70023
0.0679228 0.286284 0.699906
0.0694243 0.287093 0.70017
0.07093 0.287913 0.700465
0.0724642 0.28883 0.701046
0.0740455 0.289906 0.702096
0.0756896 0.291192 0.70376
0.0773488 0.292514 0.705516
0.0790835 0.294074 0.707966
0.0808445 0.295696 0.710587
0.0825982 0.297268 0.713049
0.0843209 0.298714 0.715127
0.086058 0.300185 0.71727
0.08776 0.301523 0.719017
0.0894685 0.302865 0.720762
0.0911317 0.304048 0.72204
-0.0388984 0.253067 0.757936
-0.0373774 0.253781 0.757842
-0.0358485 0.254411 0.757445
-0.034317 0.255006 0.756932
-0.0327797 0.255508 0.756089
-0.0312348 0.255873 0.754761
-0.029695 0.256267 0.753547
-0.0281602 0.25669 0.752438
-0.0266281 0.25711 0.751323
-0.025103 0.25762 0.750528
-0.0235841 0.258226 0.750069
-0.0220662 0.258843 0.749648
-0.0205504 0.259518 0.749429
-0.0190361 0.260246 0.749392
-0.0175208 0.260947 0.749263
-0.0160061 0.261742 0.749456
-0.0144911 0.262609 0.749891
-0.0129743 0.263545 0.750559
-0.0114541 0.264571 0.751529
-0.00992979 0.265696 0.75283
-0.00840111 0.266769 0.753946
-0.00686686 0.267907 0.755273
-0.00532933 0.268979 0.75637
-0.00379287 0.269868 0.756846
-0.002256 0.270707 0.75715
0.00958723 0.270572 0.737013
0.0110706 0.270988 0.735966
0.0125442 0.271314 0.734631
0.0139933 0.271408 0.732544
0.0154127 0.271253 0.729655
0.0168215 0.271068 0.726684
0.0182253 0.270915 0.723831
0.0196249 0.270797 0.721102
0.021038 0.27086 0.718972
0.0224646 0.271088 0.717377
0.0238898 0.271337 0.715859
0.0253261 0.271703 0.714716
0.0267665 0.27212 0.713744
0.0281931 0.27245 0.712501
0.0296165 0.272782 0.711266
0.0310401 0.273138 0.710111
0.0324613 0.273492 0.708957
0.0338841 0.273877 0.707903
0.0353008 0.274238 0.706779
0.0367102 0.274567 0.705563
0.0381349 0.275008 0.704697
0.0395595 0.275458 0.703863
0.0409901 0.27595 0.703164
0.0424424 0.276566 0.702851
0.0438996 0.277211 0.702627
0.0453569 0.277856 0.702403
0.046814 0.278501 0.702179
0.0482713 0.279146 0.701955
0.0497286 0.279791 0.701731
0.0511858 0.280436 0.701507
0.0526431 0.281081 0.701283
0.0541003 0.281726 0.701059
0.0555576 0.282371 0.700836
0.0570148 0.283016 0.700612
0.0584793 0.283694 0.700487
0.0599602 0.284438 0.700558
0.061422 0.285097 0.700379
0.0628877 0.285775 0.700252
0.0643587 0.286473 0.700183
0.0658236 0.287143 0.700034
0.0672921 0.287826 0.699922
0.068811 0.288702 0.70038
0.0703357 0.28959 0.700873
0.0718725 0.290514 0.701469
0.0734559 0.291601 0.702538
0.0750932 0.292864 0.704124
0.0767452 0.294163 0.705802
0.0784694 0.295694 0.708152
0.0802211 0.297293 0.710688
0.0819617 0.298828 0.713027
0.0836802 0.300266 0.715072
0.085414 0.301733 0.71719
0.0871058 0.303044 0.718845
0.0888046 0.30436 0.720507
0.0904745 0.30557 0.721852
0.0936814 0.307951 0.731161
0.0921806 0.306879 0.723475
-0.0395617 0.253963 0.755526
-0.0380418 0.254659 0.75537
-0.0365186 0.25532 0.755092
-0.0349889 0.255903 0.75454
-0.0334546 0.25641 0.75372
-0.0319178 0.256862 0.752714
-0.0303838 0.257315 0.751715
-0.0288523 0.257769 0.750724
-0.0273251 0.258251 0.749828
-0.025801 0.258763 0.749048
-0.0242822 0.259341 0.748491
-0.0227654 0.259954 0.748064
-0.0212505 0.260598 0.747739
-0.0197372 0.261293 0.747593
-0.0182229 0.261962 0.747358
-0.0167103 0.262724 0.747438
-0.0151977 0.263585 0.747854
-0.013684 0.264546 0.748604
-0.0121668 0.26558 0.7496
-0.0106455 0.266766 0.751098
-0.009119 0.267876 0.752335
-0.00758722 0.26905 0.753777
-0.0060513 0.27016 0.754998
-0.00451572 0.27109 0.755607
-0.00297935 0.27194 0.755951
0.00889511 0.272126 0.736973
0.0103804 0.272545 0.735937
0.011858 0.272902 0.734704
0.0133096 0.272997 0.732628
0.0147323 0.272837 0.729737
0.0161438 0.272642 0.726747
0.0175496 0.272476 0.723867
0.0189449 0.272291 0.720934
0.0203561 0.272317 0.718692
0.02178 0.272508 0.716985
0.0232062 0.27275 0.715451
0.02464 0.273088 0.714226
0.0260853 0.273535 0.713354
0.0275172 0.273895 0.712209
0.0289418 0.274228 0.71098
0.0303673 0.274583 0.709829
0.0317939 0.274966 0.70877
0.0332182 0.27535 0.707717
0.0346276 0.275654 0.706421
0.0360363 0.275978 0.705187
0.0374562 0.276381 0.704208
0.0388756 0.276798 0.703275
0.0403021 0.277262 0.702493
0.0417594 0.277907 0.702269
0.0432167 0.278552 0.702045
0.0446739 0.279197 0.701821
0.0461311 0.279842 0.701597
0.0475883 0.280487 0.701373
0.0490456 0.281132 0.701149
0.0505028 0.281777 0.700925
0.0519601 0.282422 0.700701
0.0534174 0.283067 0.700477
0.0548746 0.283712 0.700253
0.0563319 0.284357 0.700029
0.0577963 0.285034 0.699902
0.0592687 0.285745 0.699872
0.0607353 0.286427 0.699759
0.0622092 0.287137 0.699729
0.063691 0.287878 0.699789
0.0651746 0.288623 0.699859
0.0666705 0.289412 0.700058
0.0682005 0.290327 0.700629
0.0697349 0.291251 0.701221
0.0712824 0.292213 0.701924
0.0728668 0.293304 0.702996
0.0744859 0.294505 0.704388
0.0761342 0.295795 0.706028
0.0778477 0.297291 0.708265
0.079589 0.298864 0.71071
0.081311 0.300343 0.712871
0.0830368 0.301814 0.714998
0.0847584 0.303248 0.717007
0.0864497 0.304563 0.718664
0.0881382 0.305852 0.720236
0.0898182 0.307098 0.721677
0.0915247 0.308413 0.723308
-0.0417395 0.254167 0.7533
-0.0402287 0.254919 0.753348
-0.0387112 0.25561 0.753178
-0.0371917 0.256285 0.752957
-0.0356615 0.256834 0.752291
-0.0341299 0.257347 0.751501
-0.0325996 0.257855 0.750695
-0.0310695 0.25834 0.749814
-0.0295418 0.258824 0.748933
-0.0280175 0.259335 0.74815
-0.0264962 0.259871 0.747456
-0.024977 0.260416 0.746794
-0.0234618 0.261024 0.74635
-0.021947 0.261635 0.745919
-0.0204352 0.262302 0.745675
-0.0189222 0.262938 0.745334
-0.0174112 0.263666 0.7453
-0.0159016 0.264494 0.745603
-0.0143907 0.265456 0.74636
-0.0128773 0.266493 0.747362
-0.0113597 0.267688 0.748883
-0.00983677 0.268858 0.750316
-0.00830749 0.270089 0.751945
-0.00677427 0.271217 0.753222
-0.00523984 0.272202 0.75401
-0.00370354 0.273139 0.754638
0.00819757 0.27362 0.736727
0.00968465 0.274048 0.735725
0.0111647 0.274419 0.734541
0.0126212 0.274542 0.732562
0.0140465 0.274377 0.72967
0.015463 0.2742 0.726753
0.0168716 0.27403 0.72387
0.0182701 0.273837 0.720928
0.0196802 0.273831 0.718592
0.0211024 0.273986 0.716779
0.0225264 0.274196 0.71515
0.0239582 0.274505 0.713838
0.0254042 0.274954 0.71297
0.0268412 0.275343 0.711923
0.0282715 0.275704 0.710789
0.0296983 0.276063 0.70965
0.0311313 0.276477 0.708694
0.0325582 0.276867 0.707664
0.0339733 0.277198 0.706453
0.0353879 0.277546 0.705297
0.0368088 0.277945 0.70431
0.0382244 0.278328 0.703274
0.0396454 0.278757 0.70238
0.0410922 0.279338 0.701961
0.0425389 0.279922 0.701551
0.0439909 0.280538 0.701239
0.0454481 0.281183 0.701015
0.0469054 0.281828 0.700791
0.0483626 0.282473 0.700567
0.0498199 0.283118 0.700343
0.0512771 0.283763 0.700119
0.0527344 0.284408 0.699895
0.0541916 0.285053 0.699671
0.0556489 0.285698 0.699447
0.0571195 0.286403 0.6994
0.0585918 0.287112 0.699368
0.0600656 0.287826 0.699347
0.0615482 0.288572 0.699423
0.0630472 0.289381 0.699684
0.0645427 0.290175 0.699893
0.0660565 0.291032 0.700291
0.0675966 0.291985 0.700967
0.0691414 0.292947 0.701666
0.0706975 0.293942 0.702455
0.0722828 0.295035 0.703526
0.0738822 0.296165 0.704699
0.075525 0.297438 0.706279
0.0772256 0.298896 0.70839
0.0789494 0.300413 0.710661
0.0806547 0.301844 0.712668
0.0823799 0.303319 0.714795
0.0840996 0.304756 0.716799
0.0857921 0.306078 0.718469
0.0874712 0.307343 0.719962
0.0891533 0.308601 0.721428
0.0908579 0.309914 0.723046
-0.0439203 0.254469 0.751433
-0.0424169 0.255256 0.751607
-0.0409066 0.255992 0.7516
-0.0393895 0.256671 0.751392
-0.0378756 0.257383 0.751301
-0.0363472 0.257936 0.750654
-0.0348171 0.258453 0.749882
-0.0332886 0.258964 0.749096
-0.0317596 0.259448 0.748217
-0.0302309 0.259904 0.747246
-0.028708 0.260411 0.746453
-0.0271867 0.260918 0.745664
-0.0256671 0.261428 0.744891
-0.0241526 0.262002 0.744334
-0.022639 0.262578 0.743789
-0.021129 0.263242 0.743543
-0.019619 0.263904 0.743292
-0.0181111 0.264635 0.743271
-0.0166043 0.265488 0.743657
-0.0150967 0.26648 0.744512
-0.0135863 0.267522 0.745524
-0.0120718 0.268717 0.747044
-0.0105517 0.269947 0.748671
-0.00902534 0.271186 0.750318
-0.00749477 0.27232 0.751608
-0.00596252 0.273315 0.75243
0.00749132 0.274996 0.736093
0.00897973 0.275426 0.735106
0.0104623 0.275823 0.73401
0.011923 0.275975 0.732135
0.0133539 0.275843 0.72936
0.0147758 0.275697 0.726557
0.01619 0.275557 0.723781
0.0175917 0.275364 0.720853
0.0190043 0.275355 0.718518
0.0204252 0.275478 0.71661
0.0218503 0.275683 0.71497
0.02328 0.275958 0.713559
0.0247238 0.276377 0.712603
0.0261608 0.276765 0.711549
0.0275926 0.277127 0.710423
0.0290214 0.277488 0.709299
0.0304593 0.277933 0.708437
0.0318922 0.278354 0.707507
0.0333093 0.278688 0.706309
0.0347309 0.279069 0.705263
0.0361531 0.279467 0.704272
0.0375743 0.279876 0.703317
0.0389913 0.280269 0.702319
0.0404322 0.280813 0.701785
0.0418727 0.281358 0.701256
0.0433187 0.281938 0.700835
0.0447647 0.282525 0.700432
0.046222 0.28317 0.700208
0.0476792 0.283815 0.699984
0.0491365 0.28446 0.69976
0.0505937 0.285105 0.699536
0.052051 0.28575 0.699312
0.0535146 0.286424 0.699177
0.0549726 0.287072 0.698961
0.056444 0.28778 0.698923
0.057924 0.288522 0.698987
0.0594134 0.289301 0.69916
0.0609056 0.290089 0.699354
0.0624222 0.290971 0.699825
0.0639338 0.291825 0.700212
0.0654485 0.292684 0.700608
0.0669893 0.29364 0.701287
0.0685344 0.294602 0.701977
0.0700921 0.295603 0.702777
0.071661 0.296634 0.70366
0.0732493 0.297725 0.704713
0.0748724 0.29893 0.706087
0.0765511 0.300319 0.707984
0.0782651 0.30181 0.710169
0.0799781 0.303275 0.712265
0.0817124 0.304792 0.714497
0.0834422 0.306268 0.716604
0.0851442 0.307632 0.718377
0.0868143 0.308868 0.719784
0.088505 0.31016 0.721336
0.0901978 0.311441 0.722851
-0.0460849 0.25469 0.749285
-0.0445892 0.255512 0.749588
-0.0430883 0.256303 0.749777
-0.0415764 0.257008 0.749665
-0.0400615 0.257681 0.74944
-0.0385486 0.258382 0.749311
-0.0370226 0.258936 0.748673
-0.0354962 0.259477 0.747996
-0.033971 0.26001 0.74729
-0.0324413 0.260462 0.74631
-0.0309125 0.260889 0.745244
-0.0293911 0.261394 0.744454
-0.0278699 0.261868 0.743559
-0.0263495 0.262315 0.742575
-0.0248369 0.262881 0.741999
-0.0233257 0.263451 0.74144
-0.0218187 0.264116 0.741201
-0.0203116 0.264786 0.740981
-0.0188077 0.265572 0.741151
-0.0173039 0.266431 0.741558
-0.0157999 0.267451 0.742503
-0.0142929 0.268521 0.743607
-0.0127815 0.269719 0.74513
-0.011265 0.270949 0.74675
-0.00974248 0.272217 0.748483
-0.00821515 0.273319 0.749666
-0.00668575 0.274314 0.750485
0.00679982 0.276591 0.736171
0.00828829 0.277008 0.735138
0.00976661 0.277318 0.733769
0.0112318 0.277502 0.732007
0.0126679 0.277401 0.729341
0.0140939 0.277264 0.726578
0.015512 0.277127 0.723824
0.0169166 0.276936 0.720912
0.0183262 0.276865 0.718394
0.0197453 0.276951 0.716378
0.021171 0.277145 0.714708
0.0225978 0.277384 0.71319
0.0240385 0.277771 0.712135
0.0254804 0.278184 0.711168
0.0269128 0.278545 0.710043
0.0283424 0.278906 0.708921
0.0297861 0.279382 0.70816
0.0312237 0.27983 0.707315
0.0326475 0.280196 0.70622
0.0340767 0.280615 0.705292
0.0355022 0.281025 0.704341
0.0369306 0.281466 0.703488
0.0383483 0.281853 0.702473
0.0397791 0.28233 0.701734
0.0412135 0.282835 0.701084
0.0426526 0.283375 0.700539
0.0440873 0.283895 0.699939
0.045539 0.284511 0.699626
0.0469962 0.285156 0.699402
0.0484535 0.285801 0.699178
0.0499108 0.286446 0.698954
0.051368 0.287091 0.69873
0.0528386 0.287798 0.698691
0.054304 0.288478 0.698573
0.0557838 0.289224 0.698646
0.0572727 0.290005 0.698824
0.0587786 0.290857 0.699206
0.0602803 0.291681 0.699505
0.061798 0.292568 0.699984
0.0633095 0.293422 0.700362
0.0648306 0.294306 0.700828
0.066363 0.295227 0.701398
0.067908 0.296187 0.70208
0.0694662 0.297192 0.702883
0.0710273 0.298195 0.703676
0.0726 0.29923 0.70456
0.0742037 0.300367 0.705731
0.0758536 0.301659 0.707339
0.0775454 0.303083 0.709317
0.0792642 0.304579 0.71149
0.0810072 0.306136 0.713829
0.0827567 0.307691 0.716148
0.0844891 0.309162 0.718218
0.0861791 0.310473 0.719822
0.0878678 0.311759 0.721353
0.0895465 0.313 0.722742
-0.0482429 0.254924 0.7472
-0.0467465 0.255708 0.747369
-0.0452512 0.256512 0.747608
-0.0437505 0.257284 0.747734
-0.0422397 0.257973 0.747569
-0.0407241 0.258619 0.747254
-0.0392139 0.259319 0.747128
-0.03769 0.259871 0.746486
-0.0361659 0.260408 0.745799
-0.0346423 0.260935 0.745082
-0.0331144 0.261381 0.74409
-0.0315891 0.26183 0.74311
-0.0300717 0.26236 0.742411
-0.0285526 0.262835 0.741526
-0.0270336 0.26328 0.740544
-0.0255225 0.263837 0.739947
-0.0240123 0.264377 0.739288
-0.0225066 0.265014 0.738962
-0.0210028 0.26569 0.738762
-0.0195018 0.266485 0.738962
-0.0180008 0.267344 0.739376
-0.0165001 0.268365 0.74032
-0.0149969 0.269436 0.741423
-0.0134897 0.270662 0.743032
-0.0119768 0.271894 0.744654
-0.0104578 0.273163 0.746382
-0.00893452 0.274218 0.747405
-0.00740846 0.275215 0.74823
-0.00587959 0.276185 0.748963
0.00610956 0.278234 0.73639
0.0075902 0.278496 0.734868
0.0090653 0.278741 0.733298
0.0105366 0.278989 0.731745
0.0119809 0.278956 0.729306
0.0134152 0.278883 0.726754
0.0148421 0.278802 0.72419
0.01625 0.278602 0.721265
0.0176585 0.278491 0.718628
0.0190731 0.278509 0.716406
0.0204972 0.278664 0.714624
0.0219214 0.278866 0.712991
0.0233597 0.27922 0.711839
0.0248024 0.27963 0.710867
0.0262396 0.280018 0.709827
0.0276668 0.280348 0.708615
0.0291066 0.280791 0.707755
0.0305492 0.281268 0.707
0.0319788 0.281666 0.706008
0.0334149 0.282122 0.705195
0.0348474 0.282567 0.704354
0.036288 0.283073 0.703699
0.0377134 0.283496 0.702795
0.039147 0.283978 0.702072
0.0405714 0.284417 0.701222
0.0420047 0.284915 0.700554
0.0434273 0.285362 0.699733
0.0448673 0.285911 0.699222
0.0463134 0.286497 0.69882
0.0477765 0.287171 0.698685
0.0492343 0.287819 0.698468
0.050698 0.288495 0.698336
0.0521822 0.289267 0.698487
0.0536559 0.289986 0.698479
0.0551388 0.290743 0.698584
0.0566418 0.291587 0.698941
0.0581561 0.292473 0.69942
0.0596533 0.293276 0.699653
0.061172 0.294165 0.700134
0.0626829 0.295013 0.700493
0.064195 0.29586 0.700845
0.0657266 0.296779 0.701401
0.067272 0.297743 0.702086
0.0688312 0.298751 0.702894
0.0703924 0.299755 0.703688
0.0719652 0.300791 0.704567
0.073551 0.301866 0.70555
0.0751814 0.303093 0.706962
0.0768501 0.304438 0.708708
0.0785561 0.305901 0.710773
0.0802893 0.307434 0.71303
0.0820509 0.309043 0.71549
0.0838041 0.310596 0.717779
0.085514 0.311979 0.71958
0.0872014 0.313267 0.721105
0.0888778 0.314503 0.722476
-0.0504075 0.255256 0.745465
-0.0489121 0.256025 0.745587
-0.047411 0.256758 0.745581
-0.0459121 0.257516 0.745659
-0.0444091 0.258247 0.745644
-0.0428953 0.258887 0.745315
-0.0413821 0.259531 0.744998
-0.0398748 0.26023 0.74487
-0.0383531 0.26078 0.744229
-0.0368312 0.261315 0.743543
-0.0353102 0.261841 0.742826
-0.0337841 0.262285 0.741837
-0.0322612 0.262732 0.74086
-0.0307458 0.263263 0.740172
-0.0292289 0.263739 0.739296
-0.0277122 0.264184 0.738323
-0.0262039 0.264743 0.737737
-0.0246966 0.265306 0.737167
-0.0231936 0.265945 0.73685
-0.0216932 0.266649 0.736746
-0.020195 0.267444 0.736948
-0.0186964 0.268302 0.737357
-0.0171991 0.269324 0.738304
-0.0156994 0.270424 0.739496
-0.0141955 0.271626 0.741021
-0.0126864 0.27289 0.742738
-0.0111708 0.274155 0.744451
-0.00965076 0.27521 0.745469
-0.00812764 0.276192 0.746243
0.0039267 0.279531 0.737855
0.00542118 0.279926 0.736758
0.00689751 0.280086 0.734916
0.0083708 0.280272 0.733165
0.00984673 0.280554 0.731726
0.0112964 0.280553 0.7294
0.0127364 0.280509 0.726948
0.0141681 0.28045 0.724463
0.0155786 0.28024 0.721514
0.0169868 0.280088 0.718763
0.0184002 0.280064 0.716419
0.0198188 0.280148 0.714421
0.0212413 0.280316 0.712693
0.0226808 0.280669 0.711544
0.0241211 0.281052 0.71049
0.025563 0.281467 0.709538
0.026995 0.281823 0.70841
0.0284356 0.282265 0.707545
0.0298795 0.282742 0.706797
0.0313188 0.283199 0.705985
0.0327609 0.283687 0.705271
0.0342005 0.284167 0.704537
0.0356525 0.284736 0.704072
0.037091 0.285227 0.703374
0.0385287 0.285721 0.702688
0.0399566 0.286165 0.701853
0.0413906 0.286655 0.701159
0.0427972 0.287 0.700035
0.0442201 0.287447 0.69922
0.0456651 0.288022 0.698785
0.0471295 0.288699 0.698656
0.0485897 0.289355 0.698462
0.0500619 0.290069 0.69844
0.0515599 0.290905 0.698776
0.0530358 0.291629 0.698782
0.0545137 0.292359 0.698803
0.0560181 0.293207 0.699166
0.0575316 0.294088 0.699624
0.0590211 0.294855 0.699747
0.0605334 0.295715 0.70014
0.0620443 0.296562 0.700492
0.0635497 0.297379 0.700754
0.0650818 0.298301 0.701315
0.066629 0.299273 0.702019
0.0681881 0.300283 0.702823
0.0697417 0.301259 0.703529
0.0713037 0.302257 0.704294
0.0728697 0.30326 0.705067
0.0744871 0.304445 0.706351
0.0761333 0.305718 0.70788
0.0778361 0.307178 0.709929
0.0795764 0.308749 0.712281
0.0813586 0.31044 0.714961
0.0831238 0.312046 0.717387
0.0848555 0.31351 0.719405
0.0865446 0.314811 0.720955
0.0890187 0.318708 0.729739
-0.0526086 0.255876 0.744744
-0.0510977 0.256526 0.744452
-0.0495866 0.257173 0.744148
-0.0480775 0.257833 0.74389
-0.0465716 0.258519 0.743721
-0.0450624 0.259179 0.743465
-0.0435443 0.259759 0.742932
-0.0420303 0.260369 0.742502
-0.0405255 0.261061 0.742356
-0.0390065 0.26161 0.741724
-0.0374881 0.262151 0.741062
-0.0359726 0.26271 0.740466
-0.0344516 0.263185 0.739588
-0.0329308 0.263634 0.738626
-0.0314203 0.264196 0.738051
-0.0299056 0.264675 0.737195
-0.028391 0.265123 0.736239
-0.0268846 0.265681 0.735653
-0.0253797 0.266246 0.735094
-0.0238776 0.266852 0.734671
-0.0223805 0.267578 0.734647
-0.0208858 0.268398 0.734932
-0.0193902 0.269255 0.735338
-0.0178961 0.270276 0.736276
-0.0163997 0.271402 0.737555
-0.0148994 0.272607 0.739082
-0.0133935 0.273847 0.740714
-0.0118819 0.275114 0.742426
-0.0103648 0.276213 0.743582
-0.00884495 0.277163 0.744251
0.00173754 0.280873 0.73946
0.00323171 0.281167 0.738035
0.00472747 0.281557 0.736922
0.00620275 0.281654 0.734889
0.00767723 0.281825 0.733095
0.00915719 0.282142 0.73177
0.0106123 0.282175 0.72956
0.0120548 0.282125 0.7271
0.0134893 0.282062 0.724613
0.0149001 0.281813 0.721558
0.0163081 0.281625 0.718705
0.0177233 0.281591 0.716341
0.0191406 0.281641 0.714246
0.0205643 0.281801 0.7125
0.0220054 0.282156 0.711358
0.0234441 0.282513 0.71023
0.0248833 0.282898 0.709187
0.0263198 0.28328 0.708143
0.0277619 0.283723 0.707288
0.0292068 0.284202 0.706543
0.0306519 0.284692 0.705833
0.0320993 0.285209 0.705209
0.0335448 0.285719 0.704567
0.0350078 0.286352 0.704295
0.0364588 0.28691 0.703798
0.0379102 0.287476 0.703326
0.0393525 0.287991 0.702704
0.04079 0.288487 0.702026
0.042192 0.288788 0.700774
0.0436091 0.28919 0.699823
0.0450491 0.289726 0.699274
0.0465095 0.290375 0.699058
0.0479723 0.291037 0.698878
0.0494478 0.291761 0.698883
0.0509468 0.292598 0.699218
0.0524245 0.293325 0.699226
0.0538963 0.29402 0.699142
0.0553995 0.294858 0.699474
0.0569056 0.295704 0.699823
0.0583954 0.296468 0.699935
0.0598999 0.297293 0.700221
0.0614115 0.298141 0.700572
0.0629108 0.298931 0.700751
0.064444 0.299857 0.70132
0.065985 0.300805 0.701949
0.0675451 0.30182 0.702763
0.0690972 0.302792 0.70345
0.0706572 0.303784 0.704192
