ply
format ascii 1.0
element vertex 1671
property float x
property float y
property float z
end_header
0.305465 -0.0568919 0.825352
0.306796 -0.0566647 0.824639
0.308227 -0.0564578 0.824205
0.309679 -0.0562548 0.823828
0.309867 -0.0558092 0.820005
0.309081 -0.0551816 0.813578
0.308042 -0.0545136 0.806527
0.306924 -0.0538385 0.79933
0.305817 -0.0531725 0.792233
0.306008 -0.052753 0.788648
0.307 -0.0524842 0.787216
0.307932 -0.0522045 0.785636
0.308754 -0.0519068 0.783778
0.309685 -0.0516309 0.78222
0.310606 -0.0513533 0.780646
0.311561 -0.0510842 0.779172
0.312612 -0.0508322 0.777955
0.313766 -0.0505983 0.777008
0.315014 -0.0503826 0.776308
0.316417 -0.0501927 0.776003
0.317831 -0.0500046 0.775723
0.319283 -0.049823 0.775541
0.320851 -0.0496609 0.775643
0.322331 -0.0494826 0.775524
0.323777 -0.0492997 0.775316
0.325309 -0.0491294 0.775321
0.326751 -0.0489454 0.775101
0.32807 -0.0487409 0.774581
0.32944 -0.0485448 0.774184
0.330901 -0.0483634 0.774007
0.332415 -0.0481893 0.773958
0.334087 -0.0480395 0.774282
0.335889 -0.0479096 0.77491
0.33779 -0.0477928 0.775763
0.339593 -0.0476612 0.776375
0.34127 -0.0475092 0.776683
0.342867 -0.0473442 0.776794
0.256073 -0.0653156 0.865708
0.257571 -0.0651087 0.865341
0.258892 -0.0648551 0.864366
0.260066 -0.0645639 0.862901
0.261075 -0.0642301 0.860887
0.261912 -0.0638556 0.858316
0.262799 -0.0634957 0.855937
0.263774 -0.0631615 0.853874
0.264838 -0.0628512 0.852124
0.265929 -0.0625495 0.850482
0.267073 -0.0622621 0.849022
0.268181 -0.0619676 0.847461
0.26937 -0.0616942 0.846174
0.270538 -0.061417 0.84483
0.271821 -0.061168 0.843863
0.27316 -0.0609326 0.843078
0.27453 -0.0607057 0.842396
0.275564 -0.0604003 0.840667
0.27624 -0.0600149 0.837835
0.276954 -0.0596419 0.835148
0.277592 -0.0592531 0.832253
0.278335 -0.0588916 0.82971
0.279467 -0.058619 0.828372
0.280923 -0.0584192 0.828026
0.282334 -0.0582094 0.827546
0.283896 -0.0580319 0.82752
0.285602 -0.0578851 0.827917
0.287303 -0.0577374 0.828292
0.288901 -0.0575654 0.828352
0.290526 -0.0573999 0.82849
0.29215 -0.0572328 0.828617
0.293721 -0.0570543 0.828587
0.295234 -0.0568626 0.828384
0.29671 -0.056665 0.828073
0.298147 -0.0564581 0.82765
0.299586 -0.0562516 0.82723
0.301033 -0.0560478 0.826837
0.302516 -0.0558503 0.826543
0.303967 -0.055646 0.82616
0.305375 -0.0554341 0.825656
0.306744 -0.0552143 0.825045
0.308206 -0.0550131 0.824693
0.30969 -0.0548153 0.8244
0.309386 -0.0542831 0.819233
0.30846 -0.0536409 0.812424
0.307269 -0.0529564 0.804962
0.306076 -0.0522793 0.797568
0.304952 -0.0516225 0.790427
0.305587 -0.0512898 0.788031
0.306638 -0.0510324 0.786757
0.307629 -0.0507666 0.78533
0.308452 -0.0504714 0.783476
0.30935 -0.0501914 0.781833
0.310269 -0.0499158 0.780254
0.311191 -0.0496424 0.778696
0.312211 -0.0493874 0.777401
0.313335 -0.0491498 0.776379
0.31455 -0.0489281 0.775596
0.315919 -0.048733 0.775209
0.317299 -0.0485399 0.774846
0.318743 -0.0483575 0.774646
0.320307 -0.0481936 0.774743
0.321846 -0.0480254 0.774774
0.323361 -0.0478533 0.774742
0.324994 -0.0476989 0.774998
0.32651 -0.0475254 0.77496
0.327961 -0.047342 0.77476
0.329392 -0.0471559 0.774511
0.330891 -0.0469791 0.774424
0.332414 -0.0468057 0.774393
0.334087 -0.046655 0.774716
0.335859 -0.0465181 0.775273
0.337693 -0.0463896 0.775964
0.339459 -0.04625 0.776489
0.341098 -0.0460906 0.776705
0.34266 -0.0459206 0.776735
0.255866 -0.0637984 0.865736
0.257387 -0.0635969 0.865447
0.258728 -0.0633491 0.86454
0.259925 -0.0630646 0.863149
0.260985 -0.0627467 0.861302
0.261848 -0.0623813 0.858816
0.262768 -0.0620333 0.856542
0.263776 -0.0617094 0.854582
0.264871 -0.0614079 0.852931
0.265943 -0.061103 0.851215
0.267079 -0.0608155 0.849726
0.268158 -0.0605157 0.848066
0.269322 -0.0602365 0.84669
0.27046 -0.0599531 0.845247
0.27172 -0.059699 0.844201
0.272652 -0.0593713 0.842124
0.27359 -0.0590461 0.840084
0.274068 -0.0586187 0.836622
0.274329 -0.0581463 0.832519
0.274703 -0.0577043 0.828806
0.275324 -0.0573203 0.825892
0.276238 -0.0570029 0.823903
0.277534 -0.056771 0.823096
0.279074 -0.0565916 0.823036
0.280607 -0.0564111 0.822949
0.2823 -0.0562636 0.823336
0.284059 -0.0561289 0.823915
0.285836 -0.055997 0.824536
0.287712 -0.0558852 0.82544
0.289575 -0.055768 0.82629
0.291419 -0.055646 0.827071
0.293236 -0.0555175 0.82776
0.295005 -0.0553776 0.828303
0.296518 -0.0551862 0.828097
0.297993 -0.0549875 0.82778
0.299464 -0.0547871 0.827454
0.300941 -0.0545882 0.827143
0.302423 -0.0543905 0.826843
0.303874 -0.0541864 0.826457
0.305285 -0.0539745 0.825958
0.306692 -0.053762 0.825451
0.308166 -0.0535628 0.825128
0.309655 -0.053366 0.824847
0.308856 -0.0527512 0.818321
0.307821 -0.0520995 0.811218
0.306506 -0.0514057 0.803423
0.305259 -0.0507318 0.795887
0.304111 -0.0500828 0.788686
0.305215 -0.0498356 0.787544
0.306304 -0.0495879 0.78637
0.307357 -0.049334 0.785109
0.308185 -0.0490424 0.783269
0.309112 -0.0487687 0.781697
0.310001 -0.0484907 0.780041
0.310891 -0.0482137 0.778401
0.311853 -0.0479503 0.776957
0.312972 -0.0477138 0.775922
0.314125 -0.0474832 0.774982
0.315482 -0.0472861 0.774566
0.316855 -0.0470921 0.774191
0.318267 -0.046904 0.773913
0.319801 -0.0467354 0.773937
0.321397 -0.0465761 0.774113
0.322976 -0.0464133 0.774243
0.324689 -0.04627 0.774696
0.326312 -0.0461133 0.774921
0.327896 -0.0459489 0.775047
0.329403 -0.0457739 0.77498
0.330937 -0.0456009 0.774976
0.332457 -0.045427 0.774936
0.334119 -0.0452721 0.775229
0.335856 -0.0451287 0.7757
0.337624 -0.044989 0.776234
0.33933 -0.0448389 0.776613
0.340928 -0.044673 0.776733
0.257103 -0.0620581 0.865208
0.258413 -0.0618032 0.864194
0.259617 -0.0615222 0.862827
0.260729 -0.0612205 0.86116
0.261625 -0.0608662 0.858779
0.262631 -0.0605423 0.856791
0.263675 -0.0602285 0.854949
0.264827 -0.0599432 0.853481
0.265924 -0.0596459 0.851845
0.267065 -0.0593609 0.850365
0.268143 -0.0590621 0.848696
0.269318 -0.0587867 0.847353
0.270068 -0.0584156 0.844654
0.270874 -0.0580601 0.842165
0.271324 -0.0576269 0.838566
0.271824 -0.0572095 0.835165
0.271704 -0.0566579 0.829849
0.273036 -0.055403 0.819457
0.274092 -0.0551223 0.817937
0.275546 -0.0549276 0.817645
0.27715 -0.0547654 0.817806
0.278781 -0.054607 0.818045
0.28053 -0.0544725 0.818629
0.28234 -0.0543496 0.819385
0.284184 -0.0542322 0.82023
0.286159 -0.0541398 0.821446
0.288285 -0.0540763 0.823091
0.290418 -0.0540109 0.824734
0.292497 -0.0539332 0.826199
0.294526 -0.0538436 0.827497
0.296293 -0.0537016 0.828026
0.297801 -0.0535085 0.827805
0.299278 -0.0533097 0.827494
0.300759 -0.0531113 0.827192
0.302242 -0.0529131 0.826895
0.303692 -0.0527085 0.826506
0.305106 -0.052497 0.826016
0.306578 -0.052297 0.825687
0.30812 -0.0521098 0.825551
0.30968 -0.0519249 0.825462
0.308824 -0.0513097 0.818773
0.307687 -0.0506516 0.811383
0.306253 -0.0499485 0.80326
0.304903 -0.0492687 0.795443
0.303667 -0.0486161 0.788004
0.304813 -0.0483781 0.786978
0.305965 -0.0481423 0.785971
0.307056 -0.0478968 0.784811
0.30792 -0.0476131 0.783063
0.308853 -0.0473434 0.78151
0.309736 -0.047066 0.779837
0.310624 -0.0467912 0.77819
0.311584 -0.0465296 0.77674
0.312674 -0.0462892 0.775633
0.313849 -0.0460631 0.774751
0.315173 -0.0458611 0.774249
0.316511 -0.0456618 0.773786
0.317894 -0.045469 0.773435
0.319455 -0.0453035 0.773531
0.321059 -0.0451447 0.773729
0.322703 -0.0449911 0.774019
0.324514 -0.0448617 0.774717
0.326242 -0.0447188 0.7752
0.327906 -0.0445652 0.775517
0.329485 -0.0443997 0.775624
0.331022 -0.044227 0.775623
0.332536 -0.0440501 0.775562
0.334158 -0.0438895 0.775759
0.335889 -0.0437431 0.776211
0.337624 -0.0435965 0.776666
0.339327 -0.0434439 0.777038
0.340893 -0.0432725 0.777076
0.255354 -0.060736 0.865454
0.256758 -0.0605052 0.864761
0.258047 -0.0602461 0.863675
0.259266 -0.0599712 0.862361
0.260435 -0.0596846 0.860888
0.261369 -0.0593433 0.858634
0.262441 -0.0590374 0.856866
0.263566 -0.0587455 0.85529
0.264775 -0.0584745 0.854005
0.265903 -0.0581853 0.852467
0.267072 -0.0579077 0.851075
0.268204 -0.057623 0.849575
0.269373 -0.0573475 0.848203
0.269612 -0.0568657 0.843859
0.269814 -0.0563797 0.83944
0.270216 -0.0538929 0.816136
0.27095 -0.0535484 0.813638
0.272149 -0.0533037 0.812589
0.273736 -0.0531395 0.81273
0.275349 -0.0529803 0.812947
0.277042 -0.0528368 0.813396
0.278838 -0.0527124 0.814149
0.280662 -0.0525936 0.814972
0.282543 -0.052483 0.815948
0.284591 -0.0524051 0.817407
0.286895 -0.0523748 0.819595
0.289218 -0.0523445 0.821812
0.291537 -0.0523117 0.823989
0.293797 -0.0522644 0.825969
0.295804 -0.0521663 0.827198
0.297403 -0.0519901 0.827239
0.298968 -0.051808 0.827182
0.300482 -0.051615 0.826973
0.301998 -0.0514236 0.826772
0.303449 -0.0512187 0.826385
0.304892 -0.0510137 0.825974
0.306422 -0.0508236 0.825806
0.308033 -0.0506469 0.82586
0.309666 -0.0504745 0.825967
0.308761 -0.0498613 0.819138
0.307526 -0.0491975 0.811477
0.305983 -0.0484886 0.803052
0.30453 -0.047804 0.794952
0.303231 -0.0471539 0.787343
0.304466 -0.0469315 0.786553
0.305683 -0.046707 0.785723
0.306843 -0.046474 0.784744
0.307741 -0.0461986 0.783086
0.308647 -0.0459266 0.78146
0.309497 -0.0456464 0.7797
0.310381 -0.0453726 0.77804
0.311312 -0.0451083 0.776516
0.312405 -0.0448694 0.775418
0.313583 -0.0446452 0.774541
0.314905 -0.0444429 0.774036
0.316244 -0.0442432 0.773576
0.317631 -0.0440514 0.773236
0.319168 -0.0438822 0.773271
0.320795 -0.0437257 0.773527
0.32247 -0.0435751 0.773896
0.324287 -0.0434452 0.774609
0.326116 -0.0433148 0.775339
0.327908 -0.0431792 0.775971
0.32956 -0.0430224 0.77625
0.331102 -0.0428497 0.77626
0.332642 -0.0426757 0.776258
0.334197 -0.0425035 0.776292
0.335893 -0.0423506 0.776658
0.337603 -0.0421987 0.777049
0.339304 -0.0420452 0.777413
0.340868 -0.0418725 0.777447
0.256385 -0.0589459 0.864216
0.257644 -0.0586807 0.863029
0.258884 -0.0584124 0.861786
0.260108 -0.0581417 0.860502
0.261107 -0.0578184 0.858469
0.262241 -0.0575294 0.856908
0.263424 -0.0572526 0.855524
0.264688 -0.0569955 0.854419
0.265863 -0.0567189 0.853028
0.267076 -0.0564518 0.851777
0.268225 -0.0561728 0.850323
0.268864 -0.0557811 0.847233
0.269241 -0.0546964 0.822756
0.267137 -0.0533375 0.821651
0.267091 -0.052825 0.816638
0.269646 -0.0542751 0.819173
0.267977 -0.0525135 0.814588
0.268848 -0.0522004 0.812509
0.26979 -0.0519033 0.810671
0.271136 -0.0516916 0.810088
0.272549 -0.0514928 0.809713
0.273931 -0.0512881 0.809242
0.275525 -0.0511246 0.809414
0.277241 -0.0509859 0.809946
0.279047 -0.0508628 0.81074
0.28094 -0.0507553 0.811776
0.283058 -0.0506901 0.813463
0.285464 -0.0506765 0.815974
0.287911 -0.0506681 0.818575
0.290412 -0.0506656 0.821299
0.292888 -0.0506562 0.82392
0.295092 -0.0505928 0.825725
0.296872 -0.0504498 0.826293
0.298563 -0.0502895 0.826599
0.300166 -0.0501129 0.826646
0.301711 -0.0499258 0.826525
0.30319 -0.0497264 0.826217
0.304633 -0.0495211 0.825807
0.306198 -0.0493368 0.825735
0.307846 -0.0491658 0.825891
0.309547 -0.0490038 0.826188
0.308601 -0.0483943 0.819239
0.307307 -0.0477329 0.811411
0.305663 -0.0470212 0.80271
0.304135 -0.0463377 0.794404
0.30275 -0.0456844 0.786559
0.304045 -0.0454735 0.785934
0.305325 -0.0452608 0.785272
0.306574 -0.0450422 0.78453
0.307506 -0.044775 0.782961
0.30841 -0.0445041 0.781328
0.309253 -0.0442249 0.77955
0.31013 -0.043953 0.777872
0.311038 -0.0436868 0.776286
0.312166 -0.0434542 0.775277
0.313379 -0.0432368 0.774493
0.314707 -0.0430353 0.774
0.31605 -0.0428368 0.77355
0.317433 -0.0426437 0.773201
0.318968 -0.0424734 0.773229
0.320596 -0.0423158 0.773487
0.322303 -0.0421688 0.773936
0.324117 -0.0420362 0.774641
0.325977 -0.0419089 0.775448
0.327772 -0.0417711 0.776087
0.329459 -0.0416181 0.77645
0.331036 -0.0414485 0.776542
0.332612 -0.0412796 0.776627
0.334201 -0.0411108 0.77674
0.335936 -0.0409617 0.777194
0.337677 -0.0408122 0.77766
0.339387 -0.0406584 0.778041
0.340984 -0.0404885 0.778152
0.255994 -0.0573841 0.863605
0.257221 -0.057113 0.862311
0.258469 -0.0568482 0.861099
0.259751 -0.0565927 0.860016
0.26082 -0.0562883 0.858218
0.262011 -0.0560136 0.856849
0.263252 -0.0557511 0.855656
0.26455 -0.0555033 0.854661
0.265749 -0.0552337 0.853349
0.267037 -0.0549836 0.852335
0.268207 -0.05471 0.850949
0.267375 -0.0538955 0.827328
0.264863 -0.0519445 0.819987
0.265057 -0.0514883 0.815713
0.265525 -0.0510933 0.812343
0.266828 -0.0508717 0.81162
0.268075 -0.0506386 0.810725
0.269305 -0.0504036 0.809787
0.270541 -0.0501698 0.808869
0.271887 -0.0499592 0.808294
0.273154 -0.0497325 0.807483
0.274659 -0.0495518 0.807395
0.276236 -0.0493859 0.80752
0.277902 -0.0492359 0.807907
0.279657 -0.0491019 0.808548
0.281672 -0.0490147 0.809947
0.284004 -0.0489851 0.812262
0.286479 -0.0489786 0.814967
0.289067 -0.0489891 0.817966
0.291712 -0.049006 0.821095
0.294168 -0.0489857 0.82364
0.296173 -0.0488816 0.824864
0.298059 -0.0487557 0.825733
0.299815 -0.0486058 0.826218
0.301419 -0.0484282 0.826264
0.302927 -0.0482334 0.82604
0.304372 -0.0480284 0.825635
0.305941 -0.0478443 0.825575
0.307622 -0.0476777 0.825821
0.30939 -0.0475253 0.826301
0.309027 -0.0470228 0.820942
0.307728 -0.0463718 0.813086
0.30443 -0.0449818 0.795713
0.302907 -0.0443192 0.787489
0.30362 -0.0440171 0.785305
0.304938 -0.0438099 0.784745
0.306193 -0.0435935 0.784021
0.307179 -0.0433372 0.782595
0.308107 -0.0430719 0.781025
0.308952 -0.0427961 0.77925
0.309859 -0.0425304 0.77765
0.310796 -0.0422705 0.77614
0.311956 -0.0420442 0.775214
0.313207 -0.0418324 0.774522
0.31457 -0.0416359 0.77412
0.315939 -0.0414416 0.773735
0.317323 -0.0412485 0.773385
0.318854 -0.041076 0.773403
0.320451 -0.0409132 0.773583
0.322155 -0.0407646 0.774023
0.32394 -0.040626 0.774657
0.325826 -0.0405 0.775527
0.327618 -0.0403599 0.776156
0.329339 -0.0402105 0.776605
0.330954 -0.0400454 0.776788
0.332571 -0.0398793 0.776968
0.334197 -0.0397155 0.777169
0.33597 -0.0395687 0.777715
0.337752 -0.0394233 0.778273
0.33947 -0.0392684 0.778672
0.256766 -0.0555393 0.861484
0.258046 -0.0552838 0.860386
0.259334 -0.0550302 0.859325
0.260453 -0.0547405 0.857697
0.261693 -0.0544784 0.856491
0.263008 -0.0542343 0.855549
0.26434 -0.0539937 0.854666
0.265617 -0.0537417 0.853609
0.266974 -0.0535084 0.852821
0.262876 -0.0506158 0.819215
0.263433 -0.0502385 0.816078
0.264265 -0.0499194 0.813842
0.265185 -0.0496208 0.811905
0.266449 -0.0493921 0.811059
0.267602 -0.0491426 0.809874
0.268777 -0.0488975 0.808768
0.269932 -0.0486494 0.807607
0.271217 -0.048428 0.806852
0.272451 -0.0481962 0.805947
0.273925 -0.0480104 0.805772
0.275502 -0.0478438 0.805905
0.277211 -0.0477017 0.80643
0.27899 -0.0475708 0.80715
0.28087 -0.0474572 0.808159
0.283061 -0.0473985 0.81007
0.285389 -0.0473608 0.812354
0.287797 -0.0473349 0.814846
0.290384 -0.0473385 0.817824
0.293014 -0.047345 0.820892
0.295255 -0.0472806 0.822807
0.29734 -0.0471872 0.824251
0.299288 -0.0470691 0.825289
0.300984 -0.0469065 0.825601
0.302553 -0.0467226 0.825549
0.304028 -0.0465218 0.825231
0.305628 -0.0463423 0.825261
0.307369 -0.0461852 0.825674
0.30858 -0.045942 0.82462
0.308131 -0.0454337 0.819031
0.306773 -0.044788 0.811019
0.306067 -0.0456715 0.804327
0.305105 -0.0441004 0.802243
0.30343 -0.0434208 0.793531
0.302488 -0.0428619 0.78687
0.303244 -0.0425689 0.784803
0.304623 -0.0423721 0.784407
0.305909 -0.042161 0.783768
0.306929 -0.0419113 0.782429
0.307862 -0.0416491 0.780871
0.30871 -0.0413755 0.779106
0.309622 -0.041113 0.777517
0.310561 -0.0408555 0.776011
0.311751 -0.0406345 0.775161
0.313032 -0.0404269 0.774547
0.3144 -0.0402313 0.774157
0.315772 -0.0400371 0.773777
0.317178 -0.0398468 0.773481
0.318706 -0.0396742 0.773494
0.320278 -0.0395062 0.773609
0.321985 -0.0393563 0.774057
0.323732 -0.0392106 0.774595
0.325582 -0.0390777 0.775377
0.32734 -0.0389321 0.775926
0.329094 -0.0387845 0.776452
0.330779 -0.0386277 0.776806
0.332528 -0.0384786 0.777306
0.334232 -0.0383223 0.777692
0.336104 -0.0381866 0.778473
0.337959 -0.038048 0.7792
0.339683 -0.0378922 0.779608
0.257747 -0.0537489 0.860093
0.259034 -0.0534959 0.859028
0.260174 -0.053213 0.857475
0.261429 -0.0529553 0.85632
0.262781 -0.0527194 0.855497
0.264126 -0.052483 0.854659
0.26544 -0.0522398 0.853722
0.261408 -0.0489073 0.815161
0.262653 -0.0486738 0.814234
0.263584 -0.0483783 0.812318
0.264852 -0.0481514 0.811486
0.266089 -0.0479186 0.810555
0.267238 -0.0476689 0.80936
0.268387 -0.0474209 0.808175
0.269516 -0.0471691 0.806935
0.27077 -0.046942 0.806089
0.272005 -0.0467123 0.80519
0.273426 -0.0465168 0.804859
0.274972 -0.0463442 0.804904
0.276673 -0.0461997 0.805408
0.278439 -0.0460648 0.806098
0.280313 -0.0459478 0.807092
0.282331 -0.0458553 0.808499
0.284463 -0.0457812 0.810222
0.286664 -0.0457154 0.81212
0.289113 -0.0456904 0.814715
0.29166 -0.045679 0.817561
0.29412 -0.0456495 0.820122
0.296431 -0.0455913 0.822228
0.298633 -0.0455139 0.823997
0.300517 -0.0453812 0.824848
0.30221 -0.0452173 0.825148
0.303748 -0.0450267 0.825005
0.305348 -0.0448463 0.825035
0.307057 -0.044683 0.825362
0.307599 -0.0443363 0.822466
0.307038 -0.0438213 0.816579
0.305622 -0.0431796 0.808413
0.304044 -0.0425216 0.79989
0.302372 -0.0418569 0.791192
0.302097 -0.04141 0.786329
0.302897 -0.041127 0.78438
0.304311 -0.040935 0.784078
0.305629 -0.0407292 0.783523
0.306677 -0.0404852 0.782259
0.307645 -0.0402301 0.780792
0.308532 -0.0399642 0.779126
0.309481 -0.0397087 0.777633
0.31042 -0.0394525 0.776125
0.311663 -0.0392401 0.77541
0.312916 -0.0390293 0.774724
0.314286 -0.0388343 0.774336
0.315659 -0.0386396 0.773958
0.317095 -0.0384531 0.773735
0.31857 -0.0382717 0.773614
0.32014 -0.0381036 0.773723
0.321815 -0.0379473 0.774089
0.323499 -0.0377919 0.774472
0.325312 -0.0376526 0.775165
0.327068 -0.0375053 0.775707
0.328854 -0.0373601 0.776315
0.33064 -0.0372148 0.776916
0.332529 -0.0370808 0.777752
0.334344 -0.0369366 0.778402
0.336291 -0.0368081 0.779356
0.338179 -0.0366704 0.78016
0.339867 -0.0365084 0.780479
0.259882 -0.0516826 0.857206
0.261157 -0.0514307 0.856119
0.262525 -0.0511987 0.855351
0.263875 -0.0509638 0.854529
0.259155 -0.0475334 0.813491
0.26053 -0.0473275 0.812991
0.261918 -0.0471234 0.812532
0.263238 -0.0469064 0.811856
0.264458 -0.0466706 0.810872
0.265689 -0.0464378 0.80993
0.266834 -0.0461898 0.808723
0.267982 -0.0459427 0.807534
0.269132 -0.0456965 0.806362
0.270389 -0.0454716 0.805528
0.271651 -0.0452472 0.804712
0.273048 -0.0450479 0.80431
0.274562 -0.0448688 0.804261
0.276226 -0.0447161 0.804659
0.277961 -0.0445745 0.805259
0.279782 -0.044447 0.806104
0.281684 -0.0443317 0.807174
0.283715 -0.0442375 0.808607
0.285742 -0.0441404 0.810007
0.288047 -0.0440868 0.812197
0.290489 -0.0440538 0.814754
0.293056 -0.0440383 0.817639
0.2955 -0.0439988 0.820138
0.297927 -0.0439539 0.822558
0.300011 -0.0438528 0.823981
0.301862 -0.0437117 0.82473
0.303465 -0.0435316 0.824772
0.305065 -0.0433503 0.824802
0.306712 -0.0431767 0.824956
0.307119 -0.0428131 0.821692
0.30646 -0.0422929 0.815532
0.304906 -0.0416451 0.806993
0.303355 -0.0410054 0.798542
0.301832 -0.040377 0.79025
0.301684 -0.0399561 0.785727
0.302508 -0.0396793 0.783844
0.303952 -0.039492 0.783625
0.305302 -0.0392914 0.783155
0.306413 -0.0390572 0.782058
0.307443 -0.0388124 0.780754
0.30839 -0.0385579 0.779243
0.309372 -0.0383085 0.777834
0.310341 -0.0380579 0.7764
0.311586 -0.0378461 0.775687
0.312837 -0.0376346 0.774992
0.314207 -0.0374395 0.774604
0.315582 -0.0372455 0.774227
0.317021 -0.0370592 0.774014
0.318498 -0.0368779 0.773891
0.32004 -0.0367041 0.773933
0.321677 -0.0365419 0.774202
0.323324 -0.0363807 0.774493
0.325102 -0.036235 0.7751
0.326858 -0.0360856 0.775642
0.32871 -0.0359473 0.776412
0.330602 -0.0358129 0.777267
0.332608 -0.0356902 0.778386
0.334566 -0.0355611 0.779377
0.336591 -0.0354381 0.780515
0.338508 -0.0353021 0.781383
0.340191 -0.0351379 0.781684
0.25911 -0.0461187 0.813996
0.26047 -0.0459097 0.813442
0.26181 -0.0456963 0.812826
0.263047 -0.0454635 0.811886
0.264239 -0.0452244 0.810811
0.26544 -0.0449864 0.809772
0.266534 -0.0447304 0.808409
0.267657 -0.0444801 0.807143
0.268831 -0.0442402 0.806046
0.270091 -0.0440159 0.805221
0.271354 -0.0437928 0.80441
0.272752 -0.0435941 0.804011
0.274262 -0.0434138 0.803952
0.275871 -0.0432501 0.804183
0.277575 -0.0431022 0.804696
0.27937 -0.042969 0.805463
0.281217 -0.0428425 0.806376
0.283157 -0.0427299 0.807545
0.285079 -0.0426126 0.808649
0.287215 -0.042529 0.810353
0.289516 -0.0424697 0.812517
0.292034 -0.0424412 0.815274
0.294534 -0.0424071 0.817946
0.297094 -0.0423792 0.820757
0.299374 -0.0423051 0.822743
0.301393 -0.0421895 0.82397
0.303122 -0.0420276 0.82437
0.304752 -0.0418506 0.824486
0.306389 -0.0416735 0.824613
0.30672 -0.0413047 0.821137
0.306034 -0.04079 0.814903
0.304496 -0.0401584 0.806406
0.303005 -0.0395415 0.798115
0.301576 -0.0389397 0.790071
0.301546 -0.0385433 0.785864
0.302417 -0.0382746 0.784103
0.303833 -0.0380834 0.783809
0.305157 -0.0378793 0.783267
0.30627 -0.0376467 0.782172
0.307329 -0.0374073 0.780944
0.308311 -0.0371589 0.779524
0.309357 -0.0369195 0.778278
0.310362 -0.0366748 0.776935
0.311608 -0.036463 0.776221
0.312825 -0.0362479 0.775436
0.314167 -0.0360493 0.774971
0.315481 -0.0358467 0.77444
0.316923 -0.0356607 0.774231
0.318368 -0.0354746 0.774028
0.319876 -0.0352956 0.773981
0.321476 -0.0351285 0.774159
0.323146 -0.0349689 0.774506
0.324925 -0.0348211 0.775114
0.326716 -0.0346749 0.775745
0.328668 -0.034546 0.776756
0.330666 -0.0344211 0.777868
0.332753 -0.0343053 0.779182
0.334795 -0.0341825 0.78037
0.336858 -0.0340614 0.781597
0.338744 -0.0339186 0.782385
0.340388 -0.0337486 0.782589
0.259093 -0.0447076 0.81459
0.260406 -0.0444891 0.81388
0.261688 -0.0442651 0.813076
0.262879 -0.0440252 0.81199
0.264038 -0.0437803 0.810809
0.265211 -0.0435389 0.80968
0.266261 -0.0432766 0.808175
0.267383 -0.0430274 0.806908
0.268558 -0.0427889 0.805816
0.269817 -0.0425655 0.804985
0.271084 -0.0423443 0.804187
0.272483 -0.042145 0.803792
0.273966 -0.0419604 0.803651
0.275568 -0.0417943 0.803866
0.277271 -0.0416454 0.804373
0.279089 -0.041513 0.805214
0.280942 -0.0413856 0.806145
0.282849 -0.0412657 0.807221
0.284687 -0.0411332 0.808078
0.286666 -0.0410205 0.809334
0.288779 -0.0409279 0.810956
0.291185 -0.0408783 0.8134
0.293671 -0.0408381 0.816046
0.296294 -0.0408155 0.819049
0.298734 -0.0407617 0.821497
0.300916 -0.0406675 0.823189
0.302774 -0.0405236 0.823954
0.304439 -0.0403505 0.824166
0.306038 -0.0401685 0.824193
0.306295 -0.0397938 0.82051
0.305434 -0.0392649 0.813797
0.304167 -0.0386847 0.806036
0.302471 -0.0380527 0.797185
0.300892 -0.0374442 0.788735
0.301319 -0.0371164 0.785762
0.302317 -0.0368675 0.78434
0.30375 -0.0366781 0.78409
0.305104 -0.0364784 0.783625
0.306275 -0.0362538 0.782682
0.307367 -0.0360199 0.781535
0.308386 -0.0357774 0.780205
0.309436 -0.0355395 0.778966
0.310446 -0.0352979 0.777632
0.311694 -0.035087 0.776917
0.312885 -0.0348685 0.776061
0.314189 -0.0346645 0.7755
0.315468 -0.0344575 0.774873
0.316875 -0.0342671 0.774575
0.318288 -0.0340769 0.774288
0.319793 -0.0338971 0.774232
0.321391 -0.0337278 0.774406
0.323064 -0.0335671 0.774759
0.324848 -0.0334186 0.775377
0.326645 -0.0332701 0.776021
0.328666 -0.0331468 0.7772
0.330741 -0.0330278 0.778497
0.332931 -0.0329201 0.780057
0.335043 -0.0328021 0.781411
0.337141 -0.0326816 0.782714
0.338996 -0.0325328 0.783425
0.340639 -0.0323609 0.783619
0.257796 -0.0435178 0.816011
0.259088 -0.0432955 0.815225
0.260346 -0.0430671 0.814334
0.261581 -0.0428351 0.813377
0.262717 -0.0425865 0.812111
0.26382 -0.0423336 0.810752
0.264991 -0.0420932 0.809616
0.266066 -0.0418368 0.808189
0.267217 -0.0415942 0.807009
0.268419 -0.0413614 0.805995
0.269677 -0.0411382 0.805163
0.270918 -0.0409124 0.804284
0.27229 -0.0407089 0.803806
0.273746 -0.0405191 0.803582
0.275294 -0.0403445 0.803633
0.276992 -0.0401925 0.804129
0.278783 -0.0400542 0.804892
0.280637 -0.0399244 0.805827
0.282498 -0.0397948 0.806768
0.28433 -0.0396595 0.807612
0.286222 -0.0395316 0.808615
0.288237 -0.0394209 0.80996
0.29054 -0.0393522 0.812116
0.293006 -0.0393037 0.81471
0.295621 -0.039275 0.817698
0.298128 -0.0392265 0.820344
0.300435 -0.0391475 0.822395
0.302365 -0.0390122 0.823366
0.304064 -0.0388436 0.823675
0.305604 -0.0386519 0.823539
0.306474 -0.0383675 0.821552
0.306112 -0.037917 0.816196
0.301335 -0.0361022 0.790448
0.301397 -0.0357297 0.78648
0.302247 -0.0354632 0.784659
0.303664 -0.0352714 0.784361
0.305031 -0.035073 0.78393
0.306231 -0.0348534 0.78306
0.307356 -0.0346245 0.781997
0.308438 -0.0343912 0.78083
0.309555 -0.0341623 0.77976
0.310599 -0.0339258 0.778508
0.311845 -0.033715 0.777784
0.313029 -0.0334959 0.776906
0.314272 -0.0332846 0.776181
0.315488 -0.033071 0.775393
0.316854 -0.0328744 0.774987
0.318231 -0.0326801 0.774609
0.319711 -0.032497 0.774488
0.321286 -0.0323236 0.774602
0.322963 -0.0321624 0.774963
0.32475 -0.0320115 0.775589
0.326584 -0.0318664 0.776319
0.328675 -0.0317475 0.777669
0.330847 -0.0316356 0.779202
0.333079 -0.0315283 0.78086
0.335253 -0.0314143 0.78236
0.337346 -0.0312888 0.78365
0.339199 -0.0311384 0.784351
0.340879 -0.0309682 0.784628
0.256393 -0.042307 0.8171
0.257706 -0.0420877 0.816377
0.258971 -0.0418609 0.815499
0.260243 -0.041636 0.814651
0.2614 -0.0413912 0.81344
0.262509 -0.0411399 0.812087
0.263608 -0.0408869 0.810715
0.264808 -0.0406528 0.809667
0.26591 -0.0404025 0.808324
0.267117 -0.0401703 0.807317
0.268371 -0.0399469 0.806462
0.269632 -0.0397241 0.805632
0.27087 -0.0394991 0.80474
0.272213 -0.0392906 0.804171
0.273638 -0.0390954 0.803851
0.27513 -0.0389108 0.803734
0.276797 -0.0387524 0.804136
0.278537 -0.038605 0.804745
0.280364 -0.0384687 0.8056
0.282195 -0.0383326 0.806456
0.284025 -0.0381945 0.807293
0.285916 -0.0380646 0.808297
0.287929 -0.0379506 0.809639
0.290144 -0.037865 0.811542
0.292596 -0.0378099 0.814104
0.295145 -0.037766 0.816906
0.297619 -0.0377085 0.819465
0.29993 -0.0376262 0.821534
0.30192 -0.037497 0.822676
0.303651 -0.0373314 0.82308
0.305214 -0.0371431 0.823011
0.306706 -0.0369439 0.82274
0.306907 -0.0365756 0.818923
0.305207 -0.0373967 0.809409
0.303401 -0.0367631 0.800236
0.304572 -0.0354938 0.803945
0.301457 -0.0343377 0.787151
0.302155 -0.0340549 0.784917
0.303548 -0.0338591 0.784556
0.304927 -0.0336621 0.784153
0.306217 -0.0334539 0.783518
0.307379 -0.0332313 0.782551
0.308498 -0.0330027 0.781475
0.309648 -0.0327791 0.780487
0.310717 -0.0325465 0.779295
0.311934 -0.0323322 0.778493
0.313121 -0.0321145 0.777616
0.314332 -0.0319001 0.776806
0.31551 -0.0316817 0.775919
0.316842 -0.0314818 0.775422
0.31819 -0.0312828 0.774969
0.319641 -0.0310962 0.774772
0.321222 -0.0309226 0.774899
0.3229 -0.0307599 0.775263
0.324686 -0.0306076 0.775884
0.326546 -0.0304625 0.77668
0.328703 -0.0303477 0.778189
0.330919 -0.0302365 0.779823
0.333158 -0.0301263 0.781498
0.335363 -0.030011 0.783071
0.337456 -0.0298839 0.784358
0.339309 -0.0297301 0.785052
0.341027 -0.0295633 0.78542
0.256267 -0.0408686 0.817349
0.257595 -0.0406532 0.816672
0.258866 -0.0404273 0.815813
0.260153 -0.0402052 0.815011
0.261288 -0.0399587 0.813726
0.262398 -0.0397083 0.812371
0.263498 -0.0394571 0.810999
0.264703 -0.039224 0.809964
0.265837 -0.0389806 0.808719
0.267081 -0.0387552 0.807822
0.268369 -0.038537 0.807069
0.269634 -0.0383166 0.806247
0.270869 -0.0380906 0.805341
0.272177 -0.037877 0.80466
0.273544 -0.0376731 0.804163
0.275032 -0.0374867 0.804031
0.276702 -0.0373275 0.804437
0.278436 -0.0371769 0.805029
0.280232 -0.0370337 0.805793
0.282051 -0.0368941 0.806613
0.283852 -0.0367496 0.807364
0.285744 -0.0366174 0.808369
0.287743 -0.0364988 0.80967
0.289903 -0.0364009 0.811418
0.292321 -0.0363364 0.813882
0.294802 -0.0362778 0.816493
0.29721 -0.0362067 0.818869
0.299487 -0.0361154 0.820845
0.301498 -0.0359871 0.822052
0.303259 -0.035824 0.822543
0.304837 -0.0356372 0.822514
0.306348 -0.0354412 0.822299
0.307131 -0.0351514 0.82008
0.302086 -0.0326473 0.785238
0.303463 -0.03245 0.78483
0.304837 -0.0322516 0.784417
0.306164 -0.0320481 0.783875
0.30739 -0.0318334 0.783072
0.308547 -0.0316108 0.782092
0.309731 -0.0313922 0.781189
0.310831 -0.0311637 0.780073
0.312048 -0.0309491 0.779265
0.313233 -0.0307322 0.778381
0.314448 -0.0305186 0.777577
0.315604 -0.0302982 0.776627
0.316903 -0.0300947 0.776043
0.318217 -0.0298923 0.7755
0.319638 -0.0297013 0.775226
0.321187 -0.0295239 0.775272
0.322891 -0.029362 0.775697
0.324702 -0.0292106 0.776378
0.326596 -0.0290667 0.777255
0.328791 -0.0289516 0.778854
0.33105 -0.0288409 0.780591
0.333297 -0.0287277 0.782283
0.335506 -0.0286092 0.783862
0.337628 -0.0284808 0.785214
0.33959 -0.0283353 0.786165
0.341489 -0.0281838 0.786958
0.25744 -0.0392089 0.816827
0.258682 -0.0389796 0.815871
0.259957 -0.0387557 0.815028
0.261098 -0.038511 0.813762
0.262257 -0.0382707 0.812563
0.263365 -0.0380225 0.81121
0.2646 -0.0377947 0.810271
0.265792 -0.0375611 0.809202
0.26704 -0.0373371 0.808314
0.268339 -0.0371213 0.80759
0.269608 -0.0369014 0.806776
0.270842 -0.036676 0.805865
0.272121 -0.0364583 0.805093
0.273458 -0.03625 0.804501
0.274945 -0.0360626 0.804361
0.276614 -0.0359018 0.804764
0.278324 -0.0357454 0.805283
0.280113 -0.0355998 0.806023
0.281924 -0.0354563 0.806817
0.283694 -0.035306 0.807477
0.285529 -0.0351635 0.808319
0.287511 -0.0350397 0.809571
0.289627 -0.034932 0.81119
0.292162 -0.0348782 0.813993
0.294725 -0.0348254 0.816841
0.29707 -0.0347411 0.819035
0.299232 -0.0346314 0.820686
0.301143 -0.0344869 0.821611
0.302877 -0.0343197 0.822029
0.304434 -0.0341294 0.821948
0.305948 -0.0339329 0.821743
0.301921 -0.0312274 0.785302
0.303358 -0.0310361 0.785054
0.304778 -0.0308443 0.784759
0.306192 -0.0306502 0.784448
0.307456 -0.0304398 0.783739
0.308651 -0.0302225 0.782854
0.309835 -0.0300039 0.781948
0.310936 -0.0297767 0.780829
0.312125 -0.0295594 0.779944
0.313315 -0.029343 0.779068
0.314538 -0.0291312 0.77828
0.315725 -0.0289144 0.777404
0.31703 -0.0287113 0.776833
0.318342 -0.0285086 0.776279
0.319784 -0.0283199 0.776055
0.321329 -0.0281409 0.776085
0.322977 -0.0279709 0.776365
0.32479 -0.0278178 0.777049
0.326716 -0.0276742 0.778001
0.32889 -0.0275539 0.779547
0.331158 -0.0274397 0.781304
0.333437 -0.0273258 0.783071
0.335647 -0.0272034 0.784648
0.337839 -0.0270781 0.786162
0.339983 -0.0269466 0.787549
0.342082 -0.02681 0.788811
0.257247 -0.0377575 0.816856
0.258459 -0.0375249 0.815802
0.25973 -0.0373009 0.814946
0.260907 -0.0370632 0.813793
0.262094 -0.0368283 0.812683
0.263211 -0.0365827 0.811358
0.264497 -0.0363639 0.810575
0.265766 -0.0361426 0.809745
0.267041 -0.0359232 0.808936
0.268394 -0.0357152 0.808375
0.26969 -0.0354995 0.807643
0.270929 -0.0352761 0.806735
0.272158 -0.0350511 0.805807
0.273493 -0.0348423 0.805203
0.274956 -0.0346504 0.804988
0.276603 -0.0344851 0.805322
0.278269 -0.0343208 0.805705
0.280055 -0.0341727 0.806436
0.281783 -0.0340157 0.806982
0.283483 -0.0338544 0.807437
0.285283 -0.033705 0.808176
0.287284 -0.0335807 0.809483
0.289393 -0.0334688 0.811086
0.291985 -0.0334171 0.814053
0.294569 -0.0333611 0.81696
0.296865 -0.0332665 0.819017
0.298928 -0.0331403 0.820389
0.300769 -0.0329859 0.82112
0.302472 -0.0328131 0.821453
0.30399 -0.0326174 0.821264
0.305566 -0.0324289 0.821235
0.301975 -0.0298311 0.785956
0.30342 -0.029641 0.785723
0.304844 -0.0294479 0.785435
0.306266 -0.0292548 0.78514
0.307533 -0.0290453 0.784437
0.30873 -0.0288282 0.783554
0.309918 -0.02861 0.782651
0.311016 -0.0283841 0.781522
0.312204 -0.0281675 0.780631
0.313427 -0.0279548 0.779833
0.314684 -0.0277462 0.779128
0.315882 -0.0275312 0.778275
0.31719 -0.0273286 0.777705
0.318466 -0.027122 0.777058
0.319876 -0.0269294 0.776748
0.321363 -0.026744 0.776629
0.323014 -0.0265734 0.776917
0.324832 -0.0264179 0.777608
0.326826 -0.0262785 0.778726
0.329007 -0.0261547 0.780285
0.331306 -0.0260402 0.782115
0.333616 -0.0259241 0.783951
0.335884 -0.0258031 0.785667
0.338158 -0.0256817 0.787377
0.340494 -0.0255634 0.789214
0.342765 -0.0254376 0.790881
0.258228 -0.0360682 0.815708
0.259491 -0.0358441 0.814826
0.260725 -0.0356167 0.813854
0.261983 -0.0353926 0.812969
0.263156 -0.0351572 0.811819
0.264451 -0.0349403 0.811061
0.265768 -0.0347266 0.810376
0.26704 -0.0345068 0.809556
0.268393 -0.0342992 0.80899
0.269717 -0.0340871 0.808337
0.271012 -0.0338712 0.8076
0.272246 -0.0336477 0.806679
0.273559 -0.033436 0.806002
0.275018 -0.0332433 0.80577
0.276613 -0.0330688 0.805943
0.278207 -0.0328942 0.806108
0.279945 -0.0327375 0.806694
0.281671 -0.0325783 0.807235
0.28333 -0.0324091 0.807568
0.285124 -0.0322578 0.808287
0.287118 -0.0321295 0.809575
0.296708 -0.0317964 0.819136
0.298653 -0.0316537 0.820177
0.30046 -0.0314935 0.820812
0.30214 -0.0313171 0.821082
0.303658 -0.031121 0.820895
0.303633 -0.0282584 0.786797
0.305067 -0.0280653 0.786532
0.30651 -0.027874 0.786284
0.307776 -0.0276642 0.785574
0.308972 -0.0274469 0.784679
0.310127 -0.0272269 0.783685
0.311226 -0.0270015 0.78255
0.312413 -0.0267848 0.781652
0.313607 -0.02657 0.780774
0.314865 -0.0263613 0.780067
0.316093 -0.0261501 0.779285
0.317374 -0.0259442 0.778642
0.318626 -0.0257354 0.777928
0.320065 -0.0255453 0.777685
0.321554 -0.0253584 0.777567
0.323213 -0.0251871 0.777869
0.325067 -0.025033 0.778647
0.327095 -0.0248932 0.779841
0.32925 -0.0247635 0.781334
0.331487 -0.0246387 0.783009
0.333761 -0.024516 0.784754
0.336034 -0.0243922 0.786479
0.338387 -0.0242724 0.788372
0.340847 -0.0241606 0.790507
0.343314 -0.0240467 0.792631
0.348719 -0.0256245 0.801262
0.345677 -0.0239226 0.794488
0.257912 -0.0345987 0.815341
0.259176 -0.0343762 0.81446
0.260478 -0.0341588 0.813708
0.26178 -0.0339426 0.812962
0.263003 -0.0337152 0.811968
0.264327 -0.0335032 0.811302
0.265697 -0.0332972 0.810782
0.266976 -0.0330788 0.809978
0.26833 -0.0328708 0.809413
0.269682 -0.0326628 0.808843
0.271007 -0.0324523 0.808192
0.272246 -0.03223 0.807281
0.273561 -0.0320176 0.806607
0.274986 -0.0318202 0.80627
0.27652 -0.0316372 0.806257
0.278059 -0.0314532 0.806256
0.279742 -0.0312883 0.806677
0.281471 -0.0311281 0.807225
0.283153 -0.030961 0.807627
0.300225 -0.0300095 0.82071
0.304235 -0.0269106 0.788916
0.305635 -0.0267136 0.788546
0.30699 -0.0265121 0.788057
0.308301 -0.0263063 0.787453
0.309401 -0.0260809 0.786297
0.310471 -0.0258521 0.785073
0.311567 -0.0256266 0.783923
0.312756 -0.025411 0.783021
0.313951 -0.0251965 0.782138
0.31518 -0.0249849 0.781348
0.316436 -0.0247766 0.780631
0.317689 -0.0245681 0.77991
0.318939 -0.0243599 0.779184
0.320381 -0.0241681 0.778943
0.321874 -0.0239812 0.778828
0.323508 -0.0238061 0.779061
0.325364 -0.0236494 0.77984
0.327396 -0.0235064 0.78104
0.329489 -0.0233679 0.782373
0.331661 -0.0232342 0.783886
0.258873 -0.0329099 0.814132
0.260237 -0.0327027 0.813583
0.262139 -0.0325705 0.814753
0.263882 -0.0324146 0.815395
0.265719 -0.0322708 0.816329
0.26716 -0.0320719 0.816
0.268432 -0.0318507 0.815145
0.269264 -0.0315721 0.81293
0.270114 -0.0312982 0.810789
0.270913 -0.0310182 0.808514
0.272154 -0.0307974 0.807605
0.27348 -0.0305867 0.806964
0.274871 -0.0303845 0.806521
0.276349 -0.0301941 0.806336
0.277834 -0.0300033 0.806173
0.279497 -0.0298345 0.806536
0.305043 -0.0255758 0.791586
0.306346 -0.0253683 0.790943
0.307543 -0.0251509 0.790023
0.308815 -0.0249411 0.789305
0.309813 -0.024706 0.787874
0.310823 -0.024473 0.786482
0.311927 -0.0242489 0.785345
0.313148 -0.0240364 0.784518
0.314373 -0.0238247 0.783705
0.315601 -0.0236134 0.782905
0.316857 -0.0234052 0.782178
0.318109 -0.0231958 0.781447
0.319363 -0.0229878 0.780721
0.320806 -0.0227953 0.780476
0.322302 -0.022608 0.78036
0.323907 -0.0224284 0.780515
0.325702 -0.0222647 0.781135
0.327668 -0.0221136 0.782167
0.329694 -0.0219654 0.783329
0.331799 -0.0218227 0.784675
0.256817 -0.0372697 0.865012
0.255381 -0.0374898 0.865614
0.255219 -0.0359683 0.865801
0.256625 -0.0357438 0.865093
0.258058 -0.0355235 0.864479
0.264552 -0.031466 0.823106
0.265734 -0.0312302 0.821923
0.267152 -0.031026 0.821493
0.268163 -0.0307694 0.819784
0.268954 -0.0304858 0.817405
0.269628 -0.03019 0.814683
0.270306 -0.0298957 0.812001
0.270919 -0.0295958 0.809143
0.272154 -0.0293739 0.808214
0.273462 -0.0291614 0.807512
0.274811 -0.0289546 0.806935
0.276207 -0.0287531 0.806506
0.277612 -0.0285529 0.8061
0.279192 -0.0283732 0.806218
0.306781 -0.0239888 0.792608
0.307932 -0.0237672 0.791557
0.309171 -0.0235551 0.790746
0.310132 -0.023318 0.789206
0.311112 -0.0230833 0.78773
0.312251 -0.0228633 0.786675
0.313505 -0.0226532 0.785928
0.314739 -0.0224426 0.78513
0.316002 -0.0222344 0.784411
0.317293 -0.0220289 0.783767
0.318547 -0.0218199 0.78303
0.319805 -0.0216116 0.782309
0.321248 -0.0214192 0.782054
0.322746 -0.0212297 0.781936
0.324351 -0.0210491 0.782082
0.326082 -0.0208777 0.782536
0.327973 -0.020718 0.783377
0.329926 -0.0205621 0.784358
0.331963 -0.0204111 0.78553
0.254948 -0.0344285 0.865611
0.25635 -0.0342042 0.864888
0.257775 -0.0339825 0.86425
0.259455 -0.0352974 0.863749
0.259147 -0.0337539 0.863429
0.260728 -0.0350542 0.862598
0.260427 -0.0335127 0.862306
0.262056 -0.0348194 0.861642
0.261752 -0.0332785 0.861338
0.263424 -0.034591 0.860826
0.263066 -0.0330437 0.860344
0.264345 -0.0328039 0.859239
0.307058 -0.0225892 0.793857
0.308185 -0.0223669 0.792734
0.309403 -0.0221525 0.791859
0.310364 -0.0219168 0.790315
0.311381 -0.0216864 0.788926
0.312585 -0.0214731 0.788035
0.313879 -0.021266 0.787382
0.31515 -0.0210586 0.786671
0.316423 -0.0208508 0.78597
0.317721 -0.0206452 0.785335
0.319012 -0.0204393 0.784685
0.320301 -0.020234 0.784033
0.321752 -0.0200409 0.78379
0.323284 -0.0198533 0.783748
0.324861 -0.0196692 0.783815
0.326525 -0.0194904 0.784095
0.328378 -0.0193246 0.784832
0.330321 -0.0191653 0.785783
0.332301 -0.0190072 0.78681
0.25611 -0.0326696 0.864805
0.25752 -0.0324466 0.864114
0.258852 -0.032213 0.863159
0.260132 -0.0319731 0.862033
0.261461 -0.031741 0.861079
0.262775 -0.0315062 0.860085
0.264033 -0.0312646 0.858912
0.26528 -0.031023 0.857707
0.306299 -0.0214154 0.796486
0.307291 -0.0211818 0.794988
0.30837 -0.020956 0.79373
0.309549 -0.020739 0.792746
0.310464 -0.0205015 0.791076
0.311463 -0.0202709 0.789637
0.31273 -0.0200621 0.788905
0.314061 -0.0198592 0.788341
0.315396 -0.0196561 0.78779
0.316736 -0.0194535 0.787255
0.318069 -0.019251 0.786702
0.319398 -0.0190479 0.786141
0.320756 -0.0188466 0.785655
0.322216 -0.0186534 0.785427
0.323785 -0.0184671 0.78547
0.325339 -0.0182796 0.78547
0.327002 -0.0180991 0.785739
0.328826 -0.0179297 0.786398
0.330743 -0.0177649 0.787277
0.332699 -0.0176016 0.788238
0.257213 -0.0309033 0.863799
0.258522 -0.0306676 0.862764
0.25979 -0.0304275 0.861599
0.261109 -0.030195 0.860614
0.262437 -0.0299639 0.859669
0.263739 -0.0297294 0.858643
0.265054 -0.029497 0.857665
0.266547 -0.030785 0.856583
0.26635 -0.0292632 0.856632
0.267842 -0.0305499 0.855555
0.267661 -0.0290318 0.855658
0.268519 -0.0302373 0.852522
0.269029 -0.0288074 0.854873
0.269275 -0.0299378 0.849778
0.270446 -0.0285903 0.854253
0.27009 -0.0296472 0.847248
0.271864 -0.0283722 0.853641
0.27097 -0.0293663 0.844953
0.273273 -0.0281545 0.852999
0.296281 -0.0258688 0.83913
0.294821 -0.0245879 0.840163
0.296219 -0.0243727 0.839546
0.297602 -0.0241559 0.838889
0.311133 -0.0238016 0.835519
0.309599 -0.0225112 0.836309
0.31099 -0.022296 0.835683
0.307029 -0.0197308 0.794797
0.308168 -0.0195118 0.7937
0.309371 -0.0192974 0.79278
0.310387 -0.0190691 0.791372
0.311419 -0.0188434 0.790018
0.312752 -0.0186399 0.789455
0.314089 -0.0184367 0.788903
0.315457 -0.0182367 0.788435
0.316887 -0.0180399 0.788125
0.318257 -0.0178392 0.787662
0.319653 -0.0176412 0.787267
0.32111 -0.0174471 0.787024
0.322644 -0.017257 0.786974
0.324255 -0.0170729 0.787115
0.325871 -0.0168881 0.787264
0.327577 -0.0167086 0.787631
0.329443 -0.0165388 0.788385
0.331378 -0.0163718 0.789298
0.333343 -0.0162065 0.790273
0.353867 -0.0171745 0.816201
0.351934 -0.0158656 0.815927
0.350206 -0.0154797 0.807941
0.348559 -0.0165645 0.799769
0.348596 -0.0151056 0.800302
0.258153 -0.0291185 0.862238
0.259444 -0.0288826 0.861153
0.260774 -0.0286523 0.860208
0.262119 -0.0284239 0.859319
0.263458 -0.028195 0.858416
0.264826 -0.027971 0.857615
0.266132 -0.0277394 0.856614
0.267462 -0.0275107 0.855702
0.268823 -0.0272867 0.854894
0.27022 -0.0270664 0.854208
0.271594 -0.0268444 0.853449
0.272978 -0.0266229 0.852728
0.2746 -0.0279262 0.8521
0.274308 -0.0263969 0.851839
0.275916 -0.0276975 0.851172
0.275626 -0.0261696 0.850916
0.277254 -0.0274719 0.850318
0.276943 -0.0259425 0.849999
0.278615 -0.02725 0.84954
0.278315 -0.025722 0.849258
0.279793 -0.0255127 0.84885
0.293493 -0.0248107 0.840988
0.292232 -0.0235463 0.842627
0.293352 -0.0233053 0.841178
0.294665 -0.0230823 0.840308
0.296037 -0.0228643 0.839613
0.297399 -0.0226465 0.838891
0.299084 -0.0239494 0.838517
0.298876 -0.0224389 0.838507
0.300707 -0.0237548 0.838551
0.300499 -0.0222435 0.83854
0.302189 -0.023548 0.83818
0.302024 -0.0220405 0.83829
0.303735 -0.0233462 0.837986
0.303598 -0.0218409 0.838176
0.305207 -0.0216431 0.838157
0.308156 -0.0227221 0.836793
0.30674 -0.0214403 0.837922
0.30803 -0.0212166 0.837008
0.309439 -0.0210031 0.836426
0.310803 -0.0207861 0.835723
0.312283 -0.0205787 0.835343
0.306615 -0.0182701 0.794204
0.307866 -0.0180595 0.793407
0.309135 -0.0178509 0.79266
0.310295 -0.0176349 0.791629
0.311432 -0.0174178 0.790546
0.312827 -0.0172189 0.790143
0.314166 -0.0170161 0.789593
0.315538 -0.0168149 0.789131
0.316971 -0.016619 0.788826
0.318436 -0.0164248 0.788601
0.319936 -0.0162317 0.788465
0.321505 -0.0160435 0.788499
0.323111 -0.0158578 0.788624
0.324821 -0.0156771 0.789006
0.326444 -0.0154915 0.789162
0.328226 -0.0153147 0.789706
0.330175 -0.0151467 0.790656
0.33213 -0.0149782 0.791609
0.334096 -0.0148105 0.792576
0.338991 -0.0162624 0.800208
0.336246 -0.0146508 0.793978
0.344964 -0.014009 0.799707
0.346964 -0.0138358 0.800671
0.34882 -0.0136542 0.80128
0.261183 -0.0275903 0.867805
0.261686 -0.0272592 0.86402
0.262426 -0.0269585 0.861072
0.263291 -0.0266746 0.858571
0.264689 -0.0264539 0.857868
0.266001 -0.0262242 0.856885
0.267333 -0.0259962 0.855975
0.268664 -0.0257693 0.855065
0.270054 -0.0255487 0.854354
0.271366 -0.0253205 0.853397
0.272697 -0.0250951 0.852503
0.27399 -0.0248649 0.851498
0.275282 -0.0246362 0.850491
0.27661 -0.0244109 0.849609
0.278026 -0.0241951 0.849008
0.279503 -0.0239859 0.8486
0.281271 -0.0253033 0.848442
0.280982 -0.0237771 0.848195
0.282749 -0.0250939 0.848035
0.282492 -0.0235704 0.847887
0.284227 -0.0248846 0.847627
0.28397 -0.0233611 0.847479
0.285704 -0.0246752 0.847219
0.285448 -0.0231517 0.847071
0.287132 -0.0244606 0.846658
0.286889 -0.0229386 0.846552
0.288455 -0.0242362 0.845785
0.288215 -0.022716 0.845687
0.28976 -0.02401 0.844863
0.289526 -0.0224911 0.844782
0.291004 -0.0237791 0.843766
0.290783 -0.0222623 0.843722
0.292031 -0.0220333 0.842642
0.293267 -0.0218037 0.841536
0.294607 -0.021583 0.840739
0.295984 -0.0213661 0.840055
0.297357 -0.0211493 0.839364
0.298833 -0.0209417 0.838972
0.300371 -0.0207389 0.838759
0.301898 -0.0205345 0.838511
0.30349 -0.0203359 0.838448
0.305102 -0.0201385 0.838437
0.306657 -0.0199361 0.838262
0.308069 -0.0197231 0.837682
0.30949 -0.0195104 0.837131
0.310834 -0.0192914 0.83637
0.312283 -0.0190814 0.835898
0.313683 -0.0203645 0.834743
0.313696 -0.0188685 0.835332
0.315415 -0.0201765 0.83505
0.31603 -0.0187221 0.837277
0.309289 -0.016724 0.797698
0.310168 -0.0164885 0.795897
0.311235 -0.016267 0.794605
0.311474 -0.0159913 0.791155
0.312967 -0.0157981 0.791002
0.314403 -0.0156013 0.7907
0.315871 -0.0154065 0.790478
0.317367 -0.0152135 0.790328
0.318843 -0.0150193 0.790124
0.320359 -0.0148264 0.790021
0.321973 -0.01464 0.79016
0.323622 -0.0144542 0.790385
0.325374 -0.014275 0.790863
0.327035 -0.0140894 0.791106
0.328921 -0.0139153 0.7919
0.330922 -0.0137479 0.792968
0.332885 -0.0135763 0.793929
0.334856 -0.0134048 0.794897
0.336961 -0.0132403 0.796181
0.338437 -0.014493 0.795463
0.339014 -0.0130708 0.797322
0.340627 -0.0143334 0.796927
0.341132 -0.0129041 0.798606
0.342866 -0.014175 0.798496
0.343275 -0.012737 0.799934
0.345275 -0.0125623 0.800904
0.347245 -0.012385 0.801789
0.349105 -0.0122013 0.802402
0.263795 -0.0259883 0.871891
0.263826 -0.0256093 0.866504
0.264142 -0.0252666 0.862133
0.265077 -0.0249942 0.859869
0.265978 -0.0247195 0.857514
0.267311 -0.0244928 0.8566
0.268613 -0.0242633 0.855592
0.269947 -0.0240366 0.854696
0.271225 -0.0238056 0.853623
0.272496 -0.0235744 0.852536
0.273756 -0.0233425 0.851422
0.275021 -0.0231116 0.850331
0.276348 -0.0228878 0.849446
0.277768 -0.0226723 0.848856
0.279247 -0.0224632 0.848453
0.280728 -0.0222543 0.848055
0.282236 -0.0220479 0.847739
0.283713 -0.0218385 0.847331
0.285191 -0.0216292 0.846923
0.286641 -0.0214169 0.846431
0.287969 -0.0211947 0.84557
0.289281 -0.0209711 0.844669
0.290583 -0.0207465 0.843743
0.291867 -0.0205222 0.842766
0.293125 -0.0202955 0.841724
0.294497 -0.0200776 0.841018
0.295892 -0.0198633 0.840386
0.297268 -0.0196467 0.8397
0.298742 -0.0194383 0.839299
0.300283 -0.0192352 0.839094
0.301829 -0.0190326 0.838897
0.303462 -0.0188358 0.838947
0.305101 -0.0186397 0.839009
0.306681 -0.0184386 0.8389
0.308161 -0.0182301 0.83851
0.309559 -0.0180152 0.83789
0.31085 -0.0177937 0.836973
0.312243 -0.0175794 0.836346
0.314131 -0.0173992 0.837077
0.316887 -0.0172766 0.840165
0.312601 -0.0146276 0.794608
0.313222 -0.0143815 0.792161
0.314734 -0.0141887 0.792051
0.316273 -0.0139974 0.792005
0.317805 -0.013805 0.79194
0.319314 -0.0136109 0.791812
0.320865 -0.0134193 0.791788
0.322522 -0.0132334 0.79203
0.324242 -0.01305 0.792423
0.326029 -0.0128701 0.79298
0.327729 -0.0126846 0.793308
0.329655 -0.012511 0.794191
0.331664 -0.0123398 0.795272
0.333572 -0.0121631 0.796086
0.335506 -0.0119868 0.796953
0.337541 -0.0118141 0.798056
0.339493 -0.0116368 0.798943
0.341576 -0.011465 0.800136
0.343721 -0.0112948 0.801461
0.345731 -0.011117 0.802446
0.347709 -0.0109377 0.803348
0.34961 -0.0107544 0.80405
0.265056 -0.0238517 0.865912
0.2655 -0.0235301 0.861988
0.265956 -0.0232117 0.858145
0.267317 -0.0229891 0.857321
0.268625 -0.0227598 0.856324
0.269931 -0.0225323 0.85533
0.271175 -0.022299 0.854146
0.272413 -0.0220646 0.852946
0.273616 -0.0218285 0.851647
0.27485 -0.021596 0.850454
0.276147 -0.021369 0.849471
0.277534 -0.0211519 0.848779
0.278989 -0.0209404 0.8483
0.280471 -0.0207312 0.847905
0.281979 -0.0205244 0.847591
0.283457 -0.0203151 0.847183
0.284935 -0.0201057 0.846776
0.286413 -0.0198963 0.846368
0.287771 -0.0196769 0.845599
0.289115 -0.0194575 0.844791
0.29042 -0.019234 0.843871
0.29173 -0.0190124 0.842973
0.292992 -0.0187867 0.841936
0.294369 -0.01857 0.841247
0.295774 -0.0183564 0.840642
0.297213 -0.0181454 0.840136
0.298718 -0.017939 0.839823
0.300289 -0.017737 0.839698
0.301894 -0.0175381 0.839667
0.303565 -0.0173434 0.839822
0.305213 -0.0171461 0.839903
0.306802 -0.0169453 0.839815
0.308348 -0.0167402 0.839602
0.309783 -0.0165284 0.83908
0.311115 -0.0163093 0.838271
0.312887 -0.0161195 0.83868
0.315308 -0.0159701 0.840862
0.31855 -0.0158712 0.845259
0.315428 -0.0130669 0.798416
0.31604 -0.0128235 0.795935
0.316763 -0.0125869 0.793763
0.318363 -0.0123966 0.793864
0.319903 -0.0122034 0.793804
0.321512 -0.0120134 0.793918
0.323165 -0.0118253 0.794139
0.32489 -0.0116407 0.794536
0.326655 -0.011457 0.795027
0.32839 -0.0112708 0.795434
0.330287 -0.0110923 0.796235
0.332268 -0.010917 0.797233
0.334143 -0.0107357 0.797959
0.33607 -0.0105562 0.798799
0.338014 -0.0103767 0.799671
0.339934 -0.0101952 0.800473
0.342024 -0.0100203 0.801675
0.344175 -0.00984713 0.803011
0.346228 -0.00966833 0.804094
0.348246 -0.00948715 0.80508
0.350154 -0.00930173 0.80579
0.267802 -0.0260608 0.903335
0.26653 -0.0247362 0.905541
0.268104 -0.0245162 0.905158
0.267237 -0.0256051 0.895622
0.268403 -0.0241633 0.900392
0.266332 -0.0224592 0.870912
0.266315 -0.0220966 0.865417
0.266351 -0.0217427 0.860159
0.267358 -0.0214856 0.858154
0.268642 -0.0212553 0.857076
0.26992 -0.0210248 0.855987
0.271112 -0.020788 0.854625
0.272314 -0.0205521 0.853308
0.273461 -0.0203116 0.851826
0.274661 -0.0200774 0.850524
0.275927 -0.0198488 0.849439
0.277312 -0.0196321 0.848738
0.278762 -0.0194201 0.848242
0.280245 -0.0192112 0.847852
0.281753 -0.0190044 0.847538
0.28323 -0.0187943 0.847128
0.284706 -0.0185849 0.846714
0.286156 -0.0183738 0.84622
0.287545 -0.0181572 0.845543
0.288922 -0.0179403 0.844836
0.290233 -0.0177191 0.843931
0.291544 -0.0174974 0.843033
0.292831 -0.0172748 0.842072
0.294209 -0.0170592 0.841382
0.29562 -0.0168452 0.840792
0.297125 -0.0166391 0.840477
0.298666 -0.0164347 0.840265
0.30027 -0.0162352 0.840231
0.301968 -0.0160403 0.840464
0.30371 -0.0158492 0.840816
