ply
format ascii 1.0
element vertex 1706
property float x
property float y
property float z
end_header
0.0406943 0.206708 0.732774
0.0421547 0.207171 0.732112
0.0436202 0.207696 0.731737
0.0450871 0.208244 0.731467
0.0465617 0.208855 0.73149
0.0480393 0.209492 0.731623
0.0495237 0.210169 0.731945
0.0510177 0.210911 0.732551
0.0525187 0.211682 0.733285
0.0540166 0.212418 0.73386
0.0555157 0.21315 0.734413
0.0570111 0.213852 0.734824
0.0584891 0.214445 0.734751
0.0599588 0.214991 0.734469
0.0615218 0.216037 0.736397
0.0631758 0.217516 0.740229
0.0649313 0.219446 0.746014
0.0670395 0.218758 0.746985
0.0667175 0.221442 0.752057
0.0687214 0.220205 0.750638
0.0683968 0.222853 0.755513
0.0701177 0.224408 0.759573
0.0757449 0.21455 0.701201
0.076867 0.213968 0.696195
0.078008 0.213507 0.691736
0.0794604 0.21422 0.69229
0.080896 0.214869 0.692565
0.0823456 0.215563 0.69303
0.0838049 0.216284 0.693609
0.0852812 0.217056 0.694396
0.0867658 0.217846 0.695258
0.088241 0.2186 0.695957
0.0897502 0.219452 0.697067
0.0912661 0.220317 0.698222
0.0927756 0.221151 0.699241
0.0943074 0.222043 0.700497
0.0958399 0.222928 0.701711
0.0973789 0.223818 0.702947
0.0989733 0.224858 0.704786
0.100579 0.225915 0.706686
0.102168 0.226912 0.708327
0.103761 0.227904 0.709944
0.105314 0.22878 0.711074
-0.00809675 0.198533 0.789865
-0.0087081 0.199972 0.789188
-0.00712416 0.200432 0.788275
-0.0049506 0.199587 0.788707
-0.00555589 0.200984 0.787828
-0.00399464 0.20158 0.787603
-0.00184065 0.200889 0.788815
-0.00244538 0.202273 0.787872
-0.000887179 0.202895 0.787777
0.000672037 0.203508 0.787635
0.00227255 0.203691 0.785374
0.00454184 0.20167 0.779966
0.00386665 0.203869 0.783104
0.0104253 0.200118 0.752444
0.0119938 0.199386 0.745896
0.0135116 0.199385 0.742925
0.0150047 0.199836 0.742144
0.0164963 0.200261 0.741247
0.0179867 0.20062 0.740042
0.0194731 0.200976 0.738823
0.0209564 0.201289 0.73741
0.0224355 0.201645 0.736206
0.023912 0.20208 0.735384
0.0253879 0.202604 0.734988
0.026864 0.203178 0.734826
0.0283406 0.203776 0.734776
0.029818 0.204387 0.73479
0.0312936 0.204956 0.734609
0.0327689 0.205525 0.734428
0.0342427 0.206077 0.734165
0.0357161 0.206628 0.733904
0.0371885 0.207176 0.733626
0.0386565 0.207678 0.733142
0.0401227 0.208178 0.732644
0.0415859 0.208655 0.732052
0.0430539 0.209196 0.731752
0.0445246 0.209764 0.731574
0.0460027 0.210402 0.73171
0.0474848 0.211064 0.731958
0.0489764 0.211791 0.732494
0.050479 0.212583 0.733319
0.0519884 0.213405 0.734271
0.0534955 0.21419 0.735055
0.0550069 0.214988 0.73589
0.0565201 0.21578 0.736692
0.0580109 0.216427 0.736848
0.059525 0.217201 0.737564
0.0611413 0.218512 0.740638
0.0628326 0.22017 0.745208
0.064597 0.222131 0.751072
0.0663602 0.224001 0.756509
0.0681036 0.225699 0.76117
0.0697394 0.226838 0.763381
0.0776947 0.215738 0.695066
0.0790171 0.215954 0.693508
0.0804571 0.21661 0.693808
0.0819155 0.217329 0.694369
0.0833841 0.218075 0.695041
0.0848693 0.218872 0.695919
0.0863514 0.219648 0.696709
0.0878341 0.220418 0.697471
0.0893381 0.221248 0.698474
0.090836 0.222052 0.699361
0.0923328 0.222843 0.700195
0.0938647 0.223736 0.701438
0.0954075 0.224648 0.702755
0.0969668 0.225596 0.704212
0.0985794 0.226689 0.706247
0.100205 0.2278 0.708348
0.101805 0.228824 0.710087
0.103395 0.229807 0.711645
0.104944 0.230667 0.7127
-0.00931991 0.201416 0.788532
-0.00773342 0.20186 0.787554
-0.00616438 0.202405 0.787071
-0.00460371 0.203006 0.78688
-0.0030492 0.203651 0.786896
-0.00148391 0.204209 0.786494
8.03245e-05 0.204762 0.786061
0.00165493 0.205202 0.785081
0.00322695 0.205637 0.784083
0.00551499 0.203281 0.777085
0.00485213 0.205398 0.779803
0.0113704 0.201476 0.748681
0.0129064 0.201217 0.744483
0.0144093 0.201504 0.74292
0.0159043 0.201905 0.741909
0.0173979 0.202219 0.740491
0.0188873 0.202531 0.739068
0.0203732 0.202799 0.737453
0.0218535 0.203149 0.736226
0.0233315 0.203563 0.735315
0.0248083 0.20409 0.734931
0.0262855 0.204667 0.734783
0.0277635 0.205284 0.734822
0.0292412 0.205878 0.734753
0.0307173 0.206443 0.734549
0.0321933 0.207009 0.734354
0.0336679 0.207558 0.734082
0.0351422 0.208111 0.733827
0.0366158 0.208661 0.733558
0.038085 0.209166 0.733088
0.0395527 0.209667 0.7326
0.0410166 0.210145 0.732009
0.0424858 0.210684 0.731703
0.0439571 0.211253 0.731527
0.0454363 0.211891 0.731668
0.0469219 0.21258 0.732026
0.0484255 0.213394 0.732949
0.0499446 0.214304 0.734289
0.0514697 0.215227 0.735677
0.052993 0.216109 0.736872
0.0545212 0.216996 0.738089
0.0560461 0.217839 0.739103
0.0575688 0.21865 0.739972
0.0591199 0.21961 0.74148
0.060779 0.22114 0.745468
0.0625068 0.222972 0.750752
0.0642463 0.224785 0.755917
0.0659617 0.226402 0.760204
0.06764 0.227775 0.76342
0.0692011 0.228554 0.764058
0.0711422 0.226901 0.760936
0.0706895 0.228988 0.763218
0.0723004 0.225924 0.754028
0.072036 0.228802 0.759731
0.0774991 0.21845 0.700363
0.0786702 0.218063 0.696271
0.079989 0.21826 0.69464
0.0814679 0.219045 0.695475
0.0829532 0.219845 0.69636
0.0844426 0.22065 0.697262
0.0859338 0.221452 0.698147
0.0874176 0.222223 0.698897
0.088911 0.223014 0.699727
0.0903967 0.223773 0.700422
0.0919008 0.224584 0.701322
0.0934357 0.225481 0.702573
0.0949907 0.226427 0.704016
0.0965692 0.227432 0.705685
0.0981938 0.228557 0.707837
0.0998305 0.2297 0.710041
0.101448 0.230772 0.711956
0.103044 0.231766 0.713543
0.104588 0.232608 0.714512
-0.0117385 0.203716 0.795353
-0.00993026 0.20285 0.787836
-0.00834004 0.203271 0.786742
-0.00676679 0.203786 0.786128
-0.00520743 0.204391 0.785949
-0.00365076 0.205015 0.78587
-0.00208376 0.205552 0.785366
-0.000512713 0.206038 0.78461
0.00106617 0.206425 0.783381
0.00264207 0.206806 0.782129
0.00424253 0.206851 0.779261
0.00650819 0.204566 0.772671
0.00588075 0.206297 0.773525
0.0081574 0.203496 0.764432
0.00752651 0.205371 0.766036
0.0107436 0.203563 0.751404
0.012299 0.203046 0.745997
0.0138135 0.203142 0.74353
0.0153112 0.203533 0.742479
0.0168089 0.203784 0.740765
0.0183016 0.204045 0.739118
0.0197894 0.204287 0.737388
0.0212714 0.204633 0.736149
0.0227503 0.20503 0.73516
0.0242282 0.20558 0.734886
0.0257069 0.206182 0.734851
0.0271859 0.206802 0.734904
0.0286644 0.207395 0.734825
0.030142 0.207957 0.734613
0.0316187 0.208522 0.734408
0.0330931 0.209052 0.734046
0.0345694 0.209623 0.733874
0.0360442 0.210172 0.733602
0.0375145 0.210676 0.73313
0.0389833 0.211178 0.732644
0.0404507 0.211677 0.732154
0.0419217 0.212221 0.73187
0.0433964 0.212812 0.73179
0.0448791 0.213473 0.732024
0.0463825 0.214304 0.733011
0.0479051 0.21526 0.734549
0.0494439 0.216302 0.736456
0.0509867 0.217333 0.738301
0.0525306 0.218328 0.739981
0.0540643 0.219226 0.741221
0.0555955 0.220079 0.742261
0.0571437 0.221018 0.743667
0.0587275 0.22214 0.745859
0.0604168 0.223819 0.750454
0.0621163 0.22548 0.75494
0.0638145 0.227064 0.759069
0.0654707 0.228369 0.761981
0.0670898 0.229449 0.76391
0.0685898 0.229929 0.763266
0.0700729 0.230339 0.762326
0.0715473 0.230719 0.761268
0.0733653 0.228585 0.75613
0.0730236 0.231122 0.760307
0.077266 0.221059 0.705157
0.0782846 0.220049 0.698483
0.0794742 0.219745 0.694774
0.0809723 0.220601 0.69589
0.082477 0.221469 0.697049
0.0839765 0.222307 0.698077
0.0854833 0.22316 0.699158
0.0869893 0.223997 0.700172
0.088498 0.224835 0.701185
0.0899872 0.2256 0.701891
0.0915069 0.226456 0.702966
0.0930587 0.2274 0.704392
0.0946257 0.228379 0.70595
0.0962112 0.2294 0.707666
0.0978407 0.230538 0.709845
0.099471 0.231659 0.711946
0.101084 0.232712 0.713761
0.102674 0.233688 0.715258
0.104215 0.234514 0.716156
-0.0139693 0.204787 0.796009
-0.012136 0.203876 0.788297
-0.0105435 0.204304 0.787235
-0.00894667 0.204683 0.785944
-0.00737343 0.205198 0.78533
-0.00581417 0.205801 0.785149
-0.00425512 0.206404 0.784966
-0.00268579 0.206919 0.784359
-0.00111221 0.207379 0.783486
0.000473413 0.207697 0.781935
0.00205338 0.208025 0.780437
0.00363555 0.208275 0.778577
0.00525667 0.207968 0.77407
0.00689492 0.207221 0.76748
0.00914788 0.204445 0.75859
0.00851113 0.206489 0.76101
0.0101091 0.205715 0.754379
0.0116816 0.205035 0.748236
0.0132097 0.204947 0.744912
0.014713 0.205273 0.743551
0.0162139 0.205551 0.74198
0.0177116 0.205735 0.739977
0.019203 0.205932 0.738044
0.020688 0.206251 0.736685
0.0221692 0.20662 0.73557
0.0236477 0.207056 0.734768
0.0251272 0.207697 0.734911
0.0266073 0.20832 0.734971
0.0280875 0.208933 0.734988
0.0295672 0.20952 0.734887
0.0310466 0.210107 0.73478
0.0325215 0.210619 0.734337
0.0339993 0.211188 0.734156
0.035475 0.211732 0.73386
0.0369467 0.212233 0.73337
0.0384168 0.212734 0.732884
0.0398882 0.213257 0.7325
0.0413666 0.213866 0.732504
0.042848 0.214507 0.732642
0.0443354 0.215192 0.732979
0.0458561 0.21616 0.73456
0.0473984 0.217264 0.736727
0.0489515 0.218401 0.739028
0.0505101 0.219524 0.741254
0.052071 0.220614 0.743326
0.0536099 0.221513 0.74455
0.0551501 0.222394 0.745693
0.0567129 0.223396 0.747349
0.058312 0.224582 0.749793
0.0599768 0.226106 0.753671
0.0616344 0.227525 0.757077
0.0632832 0.228842 0.76003
0.0648897 0.22989 0.761821
0.0664626 0.230742 0.762768
0.0679631 0.231228 0.762152
0.0694464 0.231639 0.761222
0.0709157 0.231996 0.760073
0.0723904 0.232389 0.759084
0.0742031 0.23026 0.754015
0.073711 0.232124 0.755333
0.0794109 0.222942 0.701958
0.0807932 0.223334 0.701136
0.0821914 0.223792 0.70059
0.0835925 0.224265 0.700104
0.0851107 0.225147 0.701295
0.0866227 0.225997 0.702349
0.0881393 0.226851 0.703407
0.0896338 0.227624 0.704134
0.091158 0.228486 0.705219
0.0927017 0.229396 0.706489
0.0942732 0.230385 0.70807
0.0958546 0.231389 0.709697
0.097486 0.232529 0.711864
0.0991099 0.233628 0.713855
0.100717 0.234659 0.715567
-0.0159469 0.204481 0.78984
-0.0143428 0.204884 0.78865
-0.0127395 0.20527 0.787397
-0.0111468 0.205696 0.786337
-0.00954957 0.206072 0.78504
-0.00797621 0.206583 0.784411
-0.00641403 0.207162 0.784112
-0.00485257 0.207742 0.783821
-0.00328397 0.208256 0.783212
-0.00171064 0.208714 0.782341
-0.000124942 0.209029 0.780787
0.00145732 0.209333 0.779191
0.00304538 0.209514 0.777014
0.00465224 0.209386 0.773393
0.00628091 0.208814 0.767688
0.00789019 0.208254 0.762075
0.00948493 0.207636 0.756218
0.0110544 0.207151 0.751023
0.0125922 0.207002 0.747428
0.0141026 0.2073 0.745942
0.0156084 0.2076 0.744474
0.0171118 0.207784 0.74247
0.0186092 0.207977 0.740524
0.0201007 0.208227 0.738856
0.0215864 0.208525 0.73741
0.0230686 0.208862 0.736153
0.0245504 0.209439 0.735999
0.0260311 0.209981 0.735684
0.0275128 0.210578 0.735622
0.0289936 0.211147 0.735434
0.030474 0.211718 0.735254
0.0319503 0.212209 0.73472
0.0334279 0.212758 0.734441
0.0349051 0.213298 0.734132
0.0363811 0.21384 0.733824
0.0378566 0.214384 0.73353
0.0393356 0.214976 0.733448
0.0408242 0.215676 0.733845
0.042316 0.216389 0.734297
0.0438096 0.217107 0.734767
0.0453442 0.21818 0.736791
0.0469022 0.219394 0.739419
0.0484653 0.220589 0.741944
0.0500311 0.221741 0.744272
0.0516014 0.222874 0.746502
0.0531444 0.223771 0.747697
0.0546904 0.224661 0.748861
0.0562662 0.225718 0.750733
0.0578754 0.226945 0.753319
0.0595073 0.228258 0.75626
0.0611221 0.229426 0.758565
0.0627247 0.230484 0.760395
0.0642883 0.231308 0.761217
0.0658221 0.231964 0.761331
0.0673268 0.232475 0.760826
0.0688152 0.232909 0.760006
0.0702885 0.233286 0.758948
0.0717583 0.233657 0.757872
0.0732091 0.233958 0.756507
0.0748865 0.231283 0.749201
0.0745286 0.233705 0.752852
0.0793913 0.226367 0.709974
0.0806672 0.22631 0.707302
0.0819546 0.226325 0.704931
0.0832537 0.226403 0.702831
0.0847922 0.227346 0.704253
0.0863042 0.228185 0.705243
0.0878213 0.229027 0.706239
0.0893229 0.22981 0.706992
0.0908462 0.230658 0.708004
0.0923797 0.231527 0.70909
0.0939472 0.232494 0.710562
0.0955089 0.233429 0.711903
0.0971276 0.234525 0.713875
0.0987373 0.235577 0.715658
0.100336 0.236587 0.717267
-0.0180898 0.206811 0.804591
-0.0203274 0.207782 0.804685
-0.0184259 0.206831 0.796791
-0.0165536 0.205895 0.78902
-0.0149481 0.206291 0.787813
-0.0133448 0.206676 0.786559
-0.0117491 0.207083 0.785412
-0.0101514 0.207456 0.784113
-0.00857754 0.207962 0.783465
-0.00701209 0.208513 0.783033
-0.0054483 0.20907 0.782639
-0.00387988 0.20958 0.782022
-0.00230766 0.21004 0.781161
-0.000722029 0.210357 0.779635
0.000861551 0.210642 0.777956
0.00245454 0.210772 0.77556
0.0040474 0.210811 0.772749
0.00566429 0.210427 0.767973
0.00726393 0.210068 0.76334
0.00885225 0.209649 0.758449
0.0104177 0.209376 0.754274
0.0119646 0.209206 0.750594
0.0134817 0.209501 0.74909
0.014994 0.209807 0.747646
0.0165053 0.209974 0.745573
0.0180099 0.210153 0.743565
0.0195085 0.210335 0.741585
0.0210009 0.210514 0.739597
0.0224877 0.210748 0.737873
0.0239723 0.211272 0.737472
0.0254558 0.211762 0.736924
0.0269397 0.21234 0.736769
0.0284236 0.212931 0.736672
0.0299071 0.213505 0.736502
0.0313862 0.213993 0.735949
0.0328657 0.214518 0.735561
0.034344 0.215036 0.735149
0.0358219 0.215562 0.734773
0.0373006 0.216119 0.734528
0.0387844 0.216736 0.73456
0.040278 0.217466 0.73508
0.0417764 0.21823 0.735742
0.0432786 0.219007 0.736459
0.0448289 0.220204 0.739002
0.0463981 0.221503 0.74197
0.0479705 0.22275 0.744696
0.049542 0.223926 0.747096
0.051118 0.225076 0.749379
0.0526623 0.225952 0.750466
0.0542105 0.226831 0.751562
0.0557932 0.227912 0.753515
0.0573808 0.228986 0.755423
0.0589796 0.230091 0.757456
0.0605554 0.231027 0.75876
0.0621207 0.231884 0.759719
0.0636503 0.232527 0.759778
0.0651821 0.233182 0.759884
0.0666907 0.233713 0.759474
0.0681832 0.234171 0.758762
0.0696574 0.234553 0.75773
0.0711275 0.234925 0.756669
0.0725781 0.235224 0.755306
0.0740201 0.2355 0.753859
0.0755782 0.232358 0.744681
0.0752251 0.234777 0.748305
0.0818554 0.229407 0.711436
0.0830438 0.229037 0.707521
0.0844872 0.22962 0.707465
0.0859914 0.230416 0.708267
0.0874999 0.231217 0.709081
0.0890044 0.231997 0.70981
0.0905306 0.232841 0.710788
0.0920541 0.233665 0.711682
0.0936023 0.234563 0.712864
0.0951568 0.235466 0.714058
0.096762 0.236516 0.715828
0.0983527 0.237508 0.717358
0.0999487 0.238504 0.718895
-0.0203713 0.206463 0.790364
-0.0187672 0.206902 0.789359
-0.0171541 0.207277 0.788049
-0.0155483 0.207669 0.786833
-0.0139453 0.208055 0.785589
-0.0123464 0.208443 0.784366
-0.0107489 0.208814 0.78307
-0.00917469 0.209314 0.782398
-0.00760632 0.209842 0.781863
-0.00604327 0.210396 0.781453
-0.00447601 0.210908 0.780847
-0.00290396 0.211367 0.779996
-0.00132117 0.211705 0.778575
0.000264568 0.21197 0.776824
0.00186232 0.212051 0.774217
0.00345655 0.212077 0.771365
0.00506109 0.211859 0.767397
0.00665259 0.211648 0.763489
0.00823263 0.211418 0.759506
0.00978959 0.211374 0.75641
0.0113347 0.211373 0.753533
0.012858 0.211676 0.752069
0.0143749 0.21203 0.750843
0.0158926 0.212238 0.748959
0.0174044 0.212425 0.746989
0.0189109 0.212567 0.744827
0.0204108 0.212689 0.742587
0.0219042 0.212839 0.74049
0.0233936 0.213287 0.739737
0.0248798 0.213687 0.738776
0.0263672 0.214237 0.738491
0.0278544 0.214804 0.738286
0.0293396 0.215333 0.73791
0.0308228 0.215839 0.737432
0.0323076 0.216403 0.737215
0.0337899 0.216926 0.736817
0.0352716 0.217457 0.736458
0.0367558 0.218037 0.736315
0.0382417 0.21864 0.736272
0.0397386 0.219376 0.736803
0.0412468 0.22021 0.737764
0.0427615 0.221082 0.738881
0.0443247 0.222382 0.741838
0.0459006 0.223713 0.744913
0.0474703 0.224912 0.747406
0.0490365 0.226016 0.749478
0.0506027 0.227076 0.751342
0.0521417 0.227894 0.752168
0.0536909 0.228762 0.753205
0.0552595 0.229739 0.754695
0.0568317 0.230709 0.756146
0.0584092 0.231682 0.757605
0.0599592 0.232464 0.758254
0.0615023 0.233196 0.758686
0.06303 0.233834 0.758723
0.0645523 0.234443 0.758635
0.0660556 0.234953 0.758139
0.0675474 0.23541 0.757426
0.0690215 0.23579 0.756401
0.070491 0.236161 0.755341
0.0719474 0.236485 0.754096
0.0733944 0.236782 0.752743
0.0747306 0.236611 0.749486
0.0764115 0.23404 0.742726
0.0760579 0.236443 0.746255
0.0775828 0.233305 0.737187
0.0773847 0.236309 0.743183
0.080681 0.229874 0.71576
0.0817649 0.232579 0.718203
0.0828645 0.231826 0.712761
0.0842054 0.232007 0.711081
0.085682 0.232683 0.711388
0.0871786 0.233431 0.711975
0.0886796 0.234183 0.712578
0.090189 0.234961 0.713276
0.0917009 0.235737 0.713968
0.0932371 0.236584 0.714938
0.0947856 0.237465 0.716028
0.0963798 0.238475 0.717621
0.0979665 0.239451 0.719073
0.0995586 0.24043 0.720526
-0.0254933 0.206394 0.799576
-0.0273934 0.20599 0.792925
-0.0257813 0.206444 0.791984
-0.0235786 0.205539 0.792162
-0.0241808 0.206936 0.791231
-0.0219795 0.206028 0.791389
-0.0225751 0.207394 0.790322
-0.0209635 0.207809 0.789202
-0.0193552 0.208224 0.78809
-0.0177418 0.208594 0.786774
-0.0161401 0.209005 0.785656
-0.0145382 0.209392 0.784429
-0.0129397 0.209781 0.783222
-0.0113459 0.210172 0.78203
-0.00977173 0.210669 0.781351
-0.00820111 0.211175 0.780719
-0.00663904 0.211731 0.78032
-0.00507216 0.212242 0.779717
-0.00350049 0.212699 0.778861
-0.00191768 0.213034 0.777442
-0.000329391 0.213273 0.775581
0.00127296 0.213308 0.772777
0.00286795 0.213325 0.769909
0.00445959 0.213272 0.766739
0.00604047 0.213226 0.763613
0.0076111 0.213191 0.760562
0.00915871 0.213373 0.75852
0.0107006 0.213548 0.75646
0.01223 0.213858 0.755026
0.0137518 0.214254 0.753989
0.0152753 0.214483 0.752197
0.0167946 0.214662 0.750193
0.0183091 0.21478 0.747934
0.0198163 0.214879 0.74559
0.0213165 0.214993 0.743336
0.0228115 0.215369 0.742259
0.0243026 0.215719 0.741073
0.0257938 0.216242 0.740661
0.0272843 0.216767 0.740263
0.0287721 0.21725 0.73968
0.0302609 0.217798 0.739383
0.0317512 0.218386 0.739267
0.0332402 0.218961 0.739088
0.0347306 0.21956 0.739019
0.0362211 0.220159 0.738948
0.0377097 0.220732 0.738765
0.0392105 0.22146 0.739257
0.0407227 0.2223 0.740225
0.0422448 0.223207 0.741476
0.0438074 0.224478 0.74428
0.0453809 0.225767 0.747147
0.0469421 0.226872 0.749209
0.0484951 0.227855 0.750742
0.0500458 0.228782 0.752026
0.0515865 0.229601 0.75285
0.0531368 0.23047 0.75388
0.0546997 0.231405 0.755178
0.0562648 0.232325 0.756407
0.0578296 0.233222 0.757529
0.0593628 0.233902 0.757743
0.0608892 0.234537 0.757773
0.0624118 0.23515 0.757703
0.0639249 0.235711 0.757422
0.0654273 0.236218 0.75692
0.0669226 0.236694 0.756295
0.0683959 0.237072 0.755264
0.0698656 0.237444 0.754216
0.0713265 0.237787 0.753057
0.0727789 0.238107 0.751807
0.0742285 0.238429 0.750574
0.0756803 0.238774 0.749443
0.0771355 0.23915 0.748432
0.0796033 0.234416 0.730516
0.0795923 0.238101 0.739206
0.0806341 0.236916 0.731988
0.0826789 0.234635 0.718003
0.0839488 0.234518 0.715135
0.0853793 0.235006 0.714683
0.0868424 0.235617 0.714714
0.0883324 0.236319 0.715107
0.089825 0.237027 0.71552
0.0913217 0.237742 0.715959
0.0928477 0.238547 0.716749
0.0943925 0.23941 0.717753
0.0959744 0.240376 0.719164
0.0975585 0.24134 0.72055
0.0991447 0.242297 0.721904
-0.0293388 0.20685 0.800366
-0.0315952 0.207888 0.800807
-0.029618 0.206967 0.793103
-0.0280109 0.207454 0.792321
-0.0263927 0.207882 0.791261
-0.0247907 0.208369 0.790489
-0.0231801 0.208803 0.789466
-0.0215632 0.209193 0.788239
-0.019946 0.209562 0.786917
-0.0183335 0.209933 0.78561
-0.0167324 0.210344 0.7845
-0.0151306 0.210731 0.78329
-0.0135332 0.211121 0.782093
-0.011946 0.21155 0.781093
-0.0103726 0.212049 0.780428
-0.00879938 0.212536 0.779708
-0.00723758 0.213091 0.779317
-0.00567111 0.213601 0.778707
-0.00409652 0.214032 0.777742
-0.00251356 0.214363 0.776312
-0.000919874 0.214551 0.774232
0.000683078 0.214579 0.77142
0.00227868 0.21459 0.768548
0.00386172 0.214645 0.765898
0.00543649 0.214694 0.763233
0.0069974 0.214821 0.760937
0.00853942 0.215138 0.759523
0.0100766 0.215464 0.758157
0.0116083 0.215823 0.756946
0.0131351 0.2162 0.75582
0.0146621 0.21648 0.754269
0.0161858 0.216698 0.75245
0.0177058 0.216827 0.75024
0.0192191 0.216934 0.747945
0.0207248 0.217133 0.746071
0.0222253 0.217471 0.744824
0.0237221 0.217799 0.743544
0.0252175 0.218279 0.742931
0.0267121 0.218779 0.742422
0.0282037 0.21924 0.741732
0.0296977 0.219813 0.741541
0.0311927 0.220414 0.741472
0.0326883 0.221025 0.741446
0.0341845 0.221651 0.741483
0.0356806 0.222262 0.741457
0.037175 0.222847 0.741321
0.0386785 0.223552 0.7417
0.0401964 0.224416 0.742752
0.041723 0.225332 0.744024
0.0432785 0.226503 0.746375
0.0448396 0.22766 0.748649
0.0463901 0.228654 0.750224
0.04793 0.229513 0.751217
0.0494665 0.230323 0.751997
0.0510097 0.231163 0.752898
0.052554 0.231987 0.753732
0.0541131 0.232896 0.754913
0.0556734 0.23379 0.756024
0.0572305 0.23464 0.756944
0.0587527 0.235251 0.756875
0.0602778 0.235885 0.756893
0.0617994 0.236496 0.756817
0.063308 0.237032 0.756437
0.0648095 0.237536 0.755925
0.066299 0.237984 0.755187
0.067772 0.238357 0.754146
0.0692321 0.238681 0.752914
0.0706923 0.239022 0.751754
0.0721446 0.239342 0.750512
0.0735931 0.239659 0.749269
0.0750446 0.240003 0.74814
0.0764982 0.240369 0.747105
0.0784803 0.239077 0.745629
0.077915 0.240594 0.74551
0.0791097 0.239927 0.740362
0.0802389 0.239055 0.734428
0.0824241 0.237224 0.722302
0.0836392 0.236865 0.718482
0.0850411 0.237226 0.717525
0.0864821 0.237741 0.717167
0.0879563 0.238375 0.717284
0.0894403 0.239039 0.717512
0.0909389 0.239753 0.717938
0.0924559 0.240518 0.718561
0.0940053 0.241388 0.719584
0.0955761 0.242315 0.720826
0.0971467 0.24323 0.722006
0.0987172 0.244135 0.723147
-0.0337755 0.209464 0.811791
-0.0357005 0.209219 0.805881
-0.033898 0.209084 0.80201
-0.0318517 0.207968 0.793389
-0.030237 0.208435 0.792508
-0.0286244 0.2089 0.791627
-0.0269993 0.209302 0.79045
-0.0253968 0.209784 0.789658
-0.0237809 0.210194 0.788531
-0.0221637 0.210582 0.787296
-0.0205462 0.210949 0.78598
-0.0189374 0.211338 0.78477
-0.0173363 0.211747 0.78366
-0.015735 0.212136 0.782467
-0.0141372 0.212524 0.781274
-0.0125532 0.212974 0.780379
-0.0109798 0.213474 0.779722
-0.00940334 0.213939 0.778908
-0.00783868 0.214471 0.778407
-0.00626872 0.214952 0.777673
-0.0046888 0.215336 0.776495
-0.0031007 0.21562 0.77486
-0.00150456 0.215781 0.772669
9.7109e-05 0.21582 0.769935
0.00169067 0.215851 0.767178
0.00326958 0.215953 0.764761
0.00483938 0.21607 0.762427
0.00639321 0.216308 0.760652
0.00793159 0.216697 0.759571
0.00946781 0.217072 0.758432
0.0109995 0.21747 0.757404
0.0125279 0.217866 0.756369
0.0140583 0.218124 0.754729
0.0155848 0.218344 0.752928
0.0171059 0.218538 0.751016
0.0186218 0.218716 0.749046
0.0201309 0.218987 0.747501
0.0216352 0.219397 0.746571
0.0231373 0.21979 0.745579
0.0246369 0.22027 0.744963
0.0261358 0.22077 0.744443
0.0276319 0.22123 0.743753
0.0291311 0.221826 0.743654
0.0306314 0.222457 0.743709
0.0321329 0.2231 0.743813
0.0336344 0.223735 0.74388
0.035135 0.224353 0.743874
0.0366329 0.224919 0.74365
0.0381368 0.22558 0.743826
0.0396534 0.22638 0.744596
0.0411801 0.227271 0.745744
0.0427266 0.228328 0.747588
0.0442761 0.229362 0.74932
0.0458183 0.230272 0.750528
0.0473516 0.231072 0.751264
0.0488774 0.231786 0.751639
0.0504175 0.232603 0.752437
0.0519573 0.2334 0.753148
0.0535082 0.234261 0.754119
0.0550639 0.235131 0.755125
0.0566205 0.235984 0.756056
0.0581457 0.236623 0.756095
0.0596753 0.237282 0.756222
0.0612005 0.237916 0.75624
0.062705 0.238428 0.75576
0.0642021 0.238904 0.755142
0.0656863 0.239323 0.754289
0.0671543 0.239669 0.753147
0.0686144 0.23999 0.751909
0.0700749 0.240331 0.750757
0.0715323 0.240672 0.749612
0.0729811 0.240988 0.748371
0.0744319 0.241326 0.747229
0.0758782 0.241661 0.746074
0.0772925 0.241871 0.744428
0.0785513 0.241453 0.740303
0.079751 0.240841 0.735433
0.0813283 0.238094 0.728168
0.080922 0.24017 0.730354
0.082086 0.239529 0.725422
0.0832921 0.239098 0.721336
0.0846713 0.239357 0.71997
0.0861026 0.239818 0.719398
0.0875675 0.240404 0.719319
0.0890485 0.241045 0.719454
0.0905519 0.241765 0.719888
0.0920642 0.242509 0.72042
0.0936157 0.243376 0.72142
0.0951745 0.244257 0.722467
0.0967291 0.245117 0.723429
-0.0357575 0.208675 0.795386
-0.0341138 0.209063 0.794119
-0.0324775 0.209462 0.792912
-0.0308556 0.209903 0.791913
-0.0292369 0.210344 0.790923
-0.0276119 0.210745 0.789746
-0.026004 0.211205 0.788857
-0.0243826 0.21159 0.787622
-0.0227653 0.211977 0.786396
-0.0211474 0.21234 0.785069
-0.0195379 0.212726 0.783854
-0.0179405 0.213154 0.782843
-0.0163392 0.213543 0.78166
-0.0147414 0.213931 0.780471
-0.0131611 0.214402 0.779681
-0.0115874 0.214901 0.779027
-0.0100076 0.215343 0.778111
-0.00843894 0.215846 0.77748
-0.00686477 0.216294 0.7766
-0.00527591 0.216606 0.775103
-0.00368055 0.216821 0.773166
-0.00208214 0.216955 0.770872
-0.000482999 0.217011 0.768236
0.00110807 0.217063 0.765595
0.00268221 0.217211 0.763411
0.00424605 0.217399 0.76141
0.00579693 0.217682 0.759856
0.00733404 0.218095 0.758892
0.00887028 0.218473 0.757768
0.0104013 0.218891 0.756839
0.0119292 0.219308 0.755906
0.0134592 0.219608 0.754461
0.0149857 0.219875 0.752877
0.0165076 0.220133 0.751263
0.0180241 0.220399 0.749692
0.0195354 0.220741 0.74846
0.021043 0.221202 0.747762
0.0225481 0.221646 0.746986
0.0240517 0.222128 0.746383
0.0255535 0.222606 0.745767
0.0270527 0.223066 0.745067
0.0285556 0.223685 0.745067
0.03006 0.224341 0.745219
0.0315665 0.225028 0.745505
0.033074 0.22571 0.745769
0.0345804 0.226358 0.745884
0.0360828 0.226937 0.745703
0.0375898 0.227587 0.745822
0.0391059 0.22834 0.74638
0.0406306 0.229174 0.747276
0.0421654 0.230084 0.748483
0.0437012 0.230964 0.749561
0.0452302 0.231746 0.75022
0.0467526 0.232449 0.750545
0.0482674 0.233077 0.750556
0.0498033 0.233873 0.751266
0.0513384 0.234643 0.751862
0.0528837 0.235475 0.752711
0.0544364 0.236341 0.753693
0.0559949 0.237224 0.754738
0.0575276 0.237916 0.755001
0.0590648 0.23863 0.755349
0.060598 0.239313 0.755569
0.0621024 0.239824 0.75509
0.0635992 0.240298 0.754464
0.0650834 0.240712 0.753599
0.0665517 0.241056 0.752454
0.0680115 0.241373 0.751208
0.0694733 0.241715 0.750068
0.0709305 0.242052 0.748912
0.0723756 0.242345 0.74759
0.0738214 0.242658 0.746353
0.0752628 0.242967 0.745106
0.0766775 0.243176 0.743466
0.0779883 0.242962 0.740175
0.0792446 0.242562 0.736167
0.0804753 0.242106 0.731958
0.0816988 0.241667 0.727838
0.0829549 0.241397 0.724396
0.0843208 0.241579 0.722735
0.0857484 0.242009 0.722036
0.0872047 0.242548 0.721768
0.0886762 0.243142 0.721709
0.090176 0.243836 0.722038
0.0916847 0.244558 0.72247
0.0932248 0.245377 0.723273
0.0947623 0.246182 0.724017
0.0962955 0.246966 0.724676
-0.0373727 0.208174 0.796108
-0.0380242 0.209753 0.796015
-0.0363976 0.210217 0.795125
-0.0347463 0.210579 0.79374
-0.033104 0.210959 0.792455
-0.0314688 0.21135 0.791219
-0.0298432 0.211764 0.790112
-0.0282175 0.212161 0.788926
-0.0266092 0.212617 0.788024
-0.0249886 0.213006 0.786813
-0.0233759 0.213414 0.785699
-0.021762 0.213798 0.784477
-0.0201521 0.214183 0.783263
-0.018554 0.214609 0.782253
-0.0169558 0.215018 0.781169
-0.0153575 0.215406 0.779989
-0.0137765 0.215876 0.779203
-0.0122024 0.216374 0.778546
-0.0106179 0.21679 0.777516
-0.0090387 0.217221 0.77656
-0.00746032 0.217637 0.775538
-0.0058674 0.217915 0.773896
-0.00426591 0.218079 0.771749
-0.0026678 0.21821 0.769456
-0.00107108 0.218286 0.766932
0.000517885 0.218362 0.764425
0.00209144 0.218516 0.762277
0.00365196 0.218748 0.760494
0.00520116 0.21905 0.759033
0.00673838 0.219465 0.758083
0.00827766 0.219797 0.756771
0.00980963 0.220192 0.755743
0.0113396 0.220563 0.754612
0.0128692 0.220861 0.753172
0.0143947 0.221151 0.751705
0.0159138 0.2215 0.750498
0.0174296 0.221859 0.749348
0.0189406 0.222297 0.748538
0.020449 0.222831 0.748157
0.0219562 0.223345 0.747685
0.0234622 0.22383 0.747095
0.0249666 0.224306 0.746471
0.0264687 0.224785 0.74586
0.0279728 0.225381 0.745752
0.0294781 0.226015 0.745804
0.030988 0.226744 0.746265
0.0324997 0.227472 0.746716
0.0340101 0.228153 0.746966
0.0355185 0.228783 0.747001
0.0370286 0.229436 0.747126
0.0385412 0.230116 0.747364
0.0400594 0.230849 0.747826
0.0415833 0.231627 0.748471
0.0431073 0.232384 0.749025
0.0446282 0.233087 0.749356
0.046145 0.233745 0.749493
0.0476566 0.234352 0.74942
0.0491859 0.235104 0.749944
0.0507128 0.235823 0.75033
0.0522482 0.236599 0.750941
0.053795 0.237439 0.751817
0.0553512 0.238325 0.752871
0.0568941 0.2391 0.753471
0.0584421 0.239897 0.754154
0.0599873 0.24066 0.754696
0.0614998 0.241221 0.754418
0.063001 0.241717 0.753888
0.0644856 0.24213 0.753024
0.0659546 0.242472 0.751879
0.0674155 0.242788 0.750637
0.0688779 0.243129 0.749501
0.0703363 0.243467 0.748356
0.0717769 0.243732 0.746931
0.0732229 0.244043 0.745692
0.0746656 0.244352 0.744454
0.0760786 0.244546 0.742769
0.0774321 0.244506 0.740174
0.0787526 0.244356 0.737167
0.0800406 0.244108 0.73379
0.081322 0.243873 0.73048
0.0826334 0.243788 0.727773
0.084004 0.243963 0.726079
0.0854196 0.244319 0.725095
0.0868659 0.244804 0.724607
0.0883286 0.245351 0.724361
0.0898195 0.245996 0.724494
0.0913039 0.24662 0.724538
0.0928172 0.247338 0.724947
0.0943255 0.248039 0.725284
0.0958298 0.248721 0.725548
-0.0403157 0.210898 0.79697
-0.0386731 0.211321 0.795872
-0.037038 0.211758 0.794853
-0.035377 0.212089 0.793331
-0.0337297 0.212452 0.791968
-0.0320814 0.212794 0.790515
-0.0304556 0.213206 0.789398
-0.0288277 0.213596 0.788194
-0.0272189 0.214051 0.787293
-0.0256034 0.214462 0.786193
-0.0239952 0.214892 0.785191
-0.0223862 0.215302 0.784098
-0.0207757 0.215687 0.782897
-0.0191767 0.216113 0.781889
-0.0175775 0.21652 0.780806
-0.0159781 0.216906 0.779627
-0.0143926 0.217354 0.77874
-0.0128144 0.217828 0.777977
-0.0112254 0.218218 0.776831
-0.00963857 0.218598 0.775651
-0.00805633 0.218985 0.774513
-0.00646008 0.219236 0.772758
-0.00485773 0.219394 0.770594
-0.00325607 0.219496 0.768197
-0.00165907 0.21957 0.765682
-7.26744e-05 0.21967 0.763298
0.0015008 0.219826 0.761175
0.00305939 0.22008 0.759507
0.00460736 0.2204 0.758136
0.00614769 0.220767 0.75698
0.00769039 0.221044 0.755433
0.00922348 0.221408 0.754279
0.0107552 0.221728 0.752939
0.0122838 0.222026 0.751511
0.0138058 0.222382 0.750341
0.0153223 0.222808 0.74948
0.0168359 0.223246 0.748676
0.0183467 0.223737 0.748109
0.0198551 0.224317 0.747925
0.0213633 0.224853 0.747553
0.02287 0.225339 0.746968
0.0243756 0.225839 0.746447
0.0258801 0.226358 0.746008
0.0273848 0.226933 0.74581
0.0288902 0.227544 0.745765
0.0303997 0.228253 0.746131
0.0319096 0.228937 0.746395
0.0334202 0.229618 0.74664
0.0349314 0.230293 0.746861
0.0364439 0.23097 0.747085
0.0379571 0.231646 0.747309
0.0394732 0.232348 0.747636
0.0409883 0.233027 0.747859
0.0425025 0.233682 0.747991
0.0440173 0.234336 0.748115
0.0455304 0.234968 0.748145
0.0470413 0.235576 0.748079
0.0485655 0.236303 0.748498
0.0500871 0.236992 0.74876
0.0516134 0.237709 0.749137
0.0531505 0.238498 0.749797
0.0547003 0.239362 0.75076
0.0562487 0.240194 0.751588
0.0578037 0.241053 0.75252
0.0593564 0.241877 0.753305
0.0608805 0.242514 0.753339
0.0623899 0.243061 0.753012
0.0638798 0.243501 0.752263
0.0653581 0.243893 0.751322
0.0668259 0.244237 0.750202
0.0682885 0.244576 0.74906
0.0697478 0.24491 0.747908
0.0711883 0.245168 0.746464
0.0726349 0.245476 0.745221
0.0740836 0.24581 0.744083
0.0755207 0.246102 0.742791
0.0769128 0.246215 0.74081
0.0782759 0.246228 0.738447
0.0796146 0.246166 0.735807
0.0809416 0.246085 0.733109
0.0822794 0.246078 0.730709
0.0836572 0.246255 0.729025
0.0850761 0.246605 0.728014
0.0865079 0.247014 0.727229
0.0879605 0.247504 0.726759
0.0894336 0.248072 0.726589
0.0908988 0.248616 0.726329
0.0923916 0.249255 0.726427
-0.0425351 0.211791 0.796698
-0.0409194 0.212312 0.796075
-0.0392868 0.212769 0.795145
-0.0376471 0.213189 0.794059
-0.0359846 0.213514 0.792518
-0.0343426 0.213897 0.791264
-0.0326932 0.214235 0.789802
-0.0310603 0.21462 0.788568
-0.0294318 0.215006 0.787343
-0.0278236 0.215462 0.786457
-0.0262136 0.215898 0.785484
-0.0246119 0.216357 0.78462
-0.0230116 0.216811 0.783738
-0.0214003 0.217196 0.782547
-0.0198006 0.217622 0.781549
-0.0182 0.218026 0.780452
-0.0166032 0.218431 0.779372
-0.0150137 0.21886 0.778399
-0.0134302 0.219307 0.777518
-0.0118391 0.219687 0.776343
-0.0102448 0.220019 0.77495
-0.00865599 0.220362 0.773617
-0.00705633 0.22059 0.771772
-0.00545081 0.220723 0.769519
-0.00384834 0.220821 0.767116
-0.00225074 0.220891 0.764599
-0.000663542 0.220985 0.76221
0.000910647 0.221137 0.760092
0.00246719 0.221411 0.758517
0.00401902 0.221685 0.756957
0.00556289 0.222 0.755582
0.00710724 0.222241 0.753892
0.00864272 0.222548 0.752502
0.0101762 0.22281 0.750919
0.0117023 0.223126 0.749579
0.0132209 0.223531 0.748635
0.0147336 0.224038 0.748136
0.0162442 0.224577 0.747775
0.017753 0.225145 0.747534
0.0192615 0.225747 0.747447
0.0207698 0.2263 0.74715
0.0222772 0.226784 0.746559
0.0237831 0.227265 0.745959
0.0252875 0.227764 0.745441
0.0267919 0.228316 0.745147
0.0282964 0.228902 0.744992
0.0298045 0.229585 0.745252
0.0313133 0.230269 0.745512
0.0328232 0.230949 0.745753
0.0343337 0.231624 0.74597
0.0358456 0.232298 0.746187
0.0373548 0.232932 0.746231
0.0388681 0.233611 0.746459
0.0403822 0.234289 0.746683
0.0418953 0.234942 0.746807
0.0434089 0.235596 0.746928
0.0449229 0.236248 0.747042
0.0464326 0.236855 0.746973
0.0479505 0.237531 0.747185
0.0494667 0.23819 0.747322
0.050984 0.23885 0.747467
0.0525114 0.239584 0.747903
0.0540547 0.24042 0.748753
0.0556071 0.241302 0.749776
0.0571645 0.242194 0.750836
0.0587244 0.243077 0.75186
0.06026 0.243795 0.752214
0.0617817 0.24442 0.752198
0.0632817 0.244916 0.751677
0.0647712 0.245364 0.750964
0.0662492 0.245761 0.750053
0.0677182 0.246121 0.749005
0.0691737 0.246429 0.747753
0.0706144 0.246681 0.746291
0.0720573 0.24696 0.744945
0.0735069 0.24729 0.743801
0.0749555 0.247629 0.742697
0.0763735 0.247846 0.741126
0.0777717 0.247994 0.739302
0.0791548 0.248102 0.737326
0.0805153 0.248135 0.735077
0.0818781 0.248207 0.732982
0.0832675 0.248406 0.731386
0.0846897 0.248751 0.730355
0.0861253 0.249155 0.729552
0.0875745 0.249615 0.728961
0.0890361 0.250128 0.728576
-0.0431511 0.213247 0.796
-0.0415335 0.213762 0.795348
-0.0399063 0.214236 0.794518
-0.0382563 0.214621 0.793264
-0.0365916 0.214938 0.791694
-0.03495 0.215322 0.79045
-0.0332999 0.215657 0.78899
-0.0316666 0.21604 0.787756
-0.030042 0.216442 0.786622
-0.0284341 0.216899 0.785747
-0.0268301 0.217361 0.784899
-0.0252377 0.217865 0.784252
-0.0236432 0.218349 0.78351
-0.0220349 0.218754 0.782417
-0.0204382 0.2192 0.78151
-0.0188395 0.219621 0.780505
-0.0172419 0.22003 0.77944
-0.0156468 0.220435 0.77837
-0.0140575 0.220854 0.777369
-0.0124606 0.221205 0.776062
-0.0108604 0.221505 0.77454
-0.00926801 0.221828 0.773126
-0.0076679 0.222059 0.771309
-0.00605843 0.222169 0.768961
-0.00445131 0.222237 0.766447
-0.00284648 0.222253 0.763712
-0.00125317 0.222294 0.761102
0.00032384 0.222418 0.758879
0.00188239 0.222666 0.757204
0.00343568 0.222915 0.755546
0.00498255 0.223181 0.753967
0.00652718 0.223411 0.752245
0.00806366 0.223682 0.750712
0.00959701 0.223922 0.749046
0.0111208 0.224257 0.747803
0.0126364 0.224709 0.74707
0.0141466 0.225244 0.746694
0.0156549 0.225817 0.746481
0.0171619 0.226431 0.746442
0.0186694 0.227032 0.746353
0.0201772 0.2276 0.746127
0.0216841 0.228106 0.74563
0.0231897 0.22859 0.745046
0.024694 0.229094 0.744551
0.0261978 0.229642 0.744244
0.0277006 0.230176 0.743878
0.029205 0.230783 0.74382
0.0307102 0.231416 0.743864
0.032217 0.232068 0.743991
0.0337255 0.232745 0.744217
0.0352366 0.233448 0.744553
0.0367481 0.234135 0.744818
0.0382618 0.234841 0.74516
0.0397765 0.235545 0.745491
0.0412868 0.236178 0.745531
0.0427993 0.236833 0.745659
0.0443122 0.237488 0.745784
0.0458234 0.238118 0.74581
0.0473372 0.238771 0.745927
0.0488521 0.239424 0.746045
0.0503645 0.240055 0.746072
0.0518834 0.240734 0.746291
0.05342 0.241541 0.747014
0.0549726 0.242439 0.748104
0.056531 0.243357 0.749261
0.0580963 0.244294 0.750491
0.0596472 0.245116 0.751257
0.0611819 0.245825 0.751573
0.0626963 0.246406 0.751386
0.0641971 0.246913 0.750906
0.0656816 0.247337 0.750107
0.0671528 0.2477 0.749072
0.0686042 0.247975 0.747703
0.070042 0.248199 0.746142
0.0714852 0.248474 0.744782
0.0729313 0.248779 0.743548
0.0743807 0.249115 0.74244
0.0758221 0.249428 0.741247
0.0772469 0.249684 0.73984
0.0786602 0.249905 0.738311
0.0800559 0.250072 0.736576
0.0814539 0.250266 0.734959
0.0828541 0.250487 0.733448
0.0842753 0.25081 0.73233
-0.0453528 0.214082 0.795452
-0.0437423 0.214623 0.794928
-0.0421259 0.215139 0.794286
-0.0405046 0.215631 0.793546
-0.0388537 0.216012 0.792282
-0.0371966 0.216355 0.790852
-0.0355617 0.216763 0.789727
-0.0339177 0.217122 0.788385
-0.0322834 0.217502 0.787153
-0.030665 0.21793 0.786136
-0.0290612 0.218407 0.785367
-0.0274624 0.218895 0.784641
-0.0258756 0.219427 0.784124
-0.024289 0.219952 0.783579
-0.0226799 0.22036 0.782497
-0.0210814 0.220805 0.781595
-0.0194854 0.221248 0.780689
-0.017886 0.221656 0.77963
-0.0162817 0.222017 0.778368
-0.0146868 0.222411 0.777255
-0.0130832 0.222728 0.775805
-0.0114743 0.222978 0.774067
-0.00987441 0.223253 0.772447
-0.00827288 0.223478 0.770617
-0.00666161 0.223582 0.768265
-0.00505028 0.223623 0.765648
-0.00344118 0.223607 0.76279
-0.00184386 0.223618 0.760074
-0.000261219 0.223687 0.757618
0.00130198 0.223883 0.755733
0.00285682 0.224107 0.753981
0.00440476 0.224345 0.752296
0.00594821 0.224576 0.750594
0.00748352 0.224851 0.749086
0.00901589 0.225094 0.74745
0.0105377 0.225449 0.746302
0.0120509 0.225926 0.745682
0.0135594 0.226481 0.745398
0.0150661 0.227073 0.745269
0.016572 0.227708 0.745326
0.0180783 0.22831 0.745239
0.0195855 0.228857 0.744925
0.0210917 0.229362 0.744428
0.0225965 0.229845 0.743847
0.0240999 0.230326 0.743263
0.0256019 0.230826 0.742756
0.0271024 0.231324 0.742245
0.0286031 0.231874 0.74195
0.0301046 0.232453 0.74178
0.0316076 0.233083 0.741816
0.0331146 0.233784 0.742145
0.034626 0.234537 0.742684
0.0361386 0.235277 0.743168
0.0376541 0.236037 0.74373
0.0391712 0.236791 0.744264
0.0406822 0.237451 0.744413
0.0421941 0.238109 0.744554
0.0437087 0.23879 0.744784
0.0452218 0.239449 0.744925
0.0467357 0.240107 0.745063
0.0482499 0.240761 0.745186
0.0497614 0.24139 0.745203
0.0512735 0.242019 0.745221
0.0528021 0.242774 0.745736
0.0543484 0.243644 0.746706
0.055904 0.244558 0.747843
0.0574676 0.245498 0.749079
0.0590286 0.2464 0.750154
0.0605762 0.247193 0.750803
0.0621043 0.247859 0.750947
0.0636198 0.248449 0.750792
0.0651147 0.248921 0.750186
0.0665876 0.249283 0.749153
0.0680401 0.249555 0.747773
0.0694797 0.249777 0.746213
0.0709195 0.250022 0.744749
0.0723621 0.250302 0.743424
0.0738122 0.250632 0.742298
0.0752652 0.250992 0.741289
0.0767095 0.251325 0.740184
0.0781441 0.251627 0.738965
0.079562 0.251874 0.737543
0.0809745 0.252113 0.736102
0.0823769 0.25233 0.734578
0.083796 0.252628 0.733369
0.0863088 0.253496 0.740132
-0.0459012 0.215327 0.793759
-0.0443114 0.215929 0.793531
-0.0426995 0.216455 0.792949
-0.0410887 0.216979 0.792356
-0.0394457 0.217384 0.791222
-0.0378022 0.217774 0.790019
-0.0361731 0.218203 0.789003
-0.0345412 0.218609 0.787889
-0.0329131 0.219015 0.786775
-0.0312943 0.219444 0.78578
-0.0296964 0.219948 0.785126
-0.0281064 0.220478 0.784601
-0.0265191 0.221013 0.784098
-0.0249323 0.221542 0.783572
-0.0233221 0.221951 0.782503
-0.0217214 0.222391 0.781585
-0.0201203 0.222815 0.780596
-0.0185196 0.223222 0.77954
-0.0169097 0.223559 0.778174
-0.0153127 0.223946 0.777036
-0.0137066 0.224255 0.775562
-0.0120923 0.224479 0.77372
-0.0104838 0.224701 0.771878
-0.00887757 0.224897 0.769931
-0.00726071 0.224964 0.767434
-0.00564259 0.224954 0.76461
-0.00402946 0.224911 0.761657
-0.00242655 0.224872 0.75874
-0.000840838 0.224909 0.756169
0.000725308 0.22507 0.754148
0.00228157 0.225265 0.752283
0.00383054 0.225482 0.750525
0.00536896 0.225764 0.749053
0.00690147 0.226068 0.747684
0.00843029 0.226362 0.746277
0.00995026 0.226746 0.745264
0.011462 0.227241 0.744724
0.0129704 0.227791 0.74442
0.0144766 0.228376 0.744263
0.0159826 0.228963 0.744118
0.0174887 0.229541 0.743935
0.0189948 0.230068 0.743537
0.0205002 0.230549 0.742949
0.0220039 0.231007 0.742269
0.0235059 0.231483 0.741667
0.0250058 0.231929 0.74095
0.0265034 0.232377 0.740233
0.0280014 0.232893 0.73981
0.0294993 0.233441 0.739515
0.0309984 0.234046 0.739452
0.0325049 0.234793 0.739974
0.0340159 0.235602 0.740738
0.0355291 0.236396 0.741438
0.0370461 0.237209 0.742215
0.0385648 0.238013 0.742948
0.0400763 0.238695 0.743188
0.0415889 0.239375 0.743418
0.0431026 0.240058 0.743658
0.0446151 0.240724 0.743825
0.0461289 0.241387 0.743982
0.0476423 0.242046 0.74412
0.0491533 0.242676 0.744143
0.0506614 0.243281 0.744067
0.0521856 0.24401 0.744482
0.0537231 0.244829 0.745245
0.0552694 0.245691 0.746175
0.0568295 0.24663 0.747398
0.0584002 0.24761 0.748776
0.0599595 0.248493 0.749768
0.0615053 0.249271 0.750346
0.0630422 0.249985 0.750677
0.0645474 0.250512 0.75028
0.0660259 0.250895 0.749333
0.0674814 0.251167 0.747965
0.0689218 0.251383 0.746386
0.0703586 0.251601 0.744824
0.0718021 0.251876 0.743484
0.0732489 0.252182 0.742271
0.0747027 0.252538 0.741251
0.0761487 0.25287 0.740147
0.0775911 0.253197 0.739032
0.0790171 0.253469 0.737711
0.0809613 0.255953 0.744702
-0.0464775 0.216661 0.7925
-0.0448949 0.217281 0.792362
-0.0432828 0.217804 0.79177
-0.041678 0.218345 0.791267
-0.0400447 0.218782 0.79028
-0.0384146 0.219218 0.789305
-0.0367999 0.2197 0.788536
-0.0351796 0.220152 0.787639
-0.0335568 0.220582 0.786644
-0.0319432 0.221036 0.785767
-0.0303433 0.221537 0.785107
-0.0287531 0.22207 0.784594
-0.0271692 0.222626 0.784183
-0.0255862 0.223179 0.783769
-0.0239789 0.223611 0.782811
-0.0223814 0.224076 0.782007
-0.0207777 0.224496 0.781003
-0.0191699 0.224877 0.77983
-0.0175489 0.225162 0.778242
-0.0159419 0.225499 0.776891
-0.0143228 0.225735 0.775109
-0.0126999 0.225908 0.773051
-0.0110827 0.226077 0.770991
-0.00947152 0.226238 0.768906
-0.00785015 0.226275 0.766293
-0.00623356 0.22628 0.763557
-0.00461763 0.226216 0.76054
-0.00300893 0.226129 0.757434
-0.00141739 0.226111 0.754648
0.000153185 0.226216 0.752398
0.00171345 0.226357 0.750323
0.00325874 0.226599 0.748684
0.0047923 0.226929 0.747429
0.00632027 0.227286 0.746298
0.00784448 0.227648 0.745191
0.00936116 0.22808 0.744387
0.0108727 0.228577 0.743861
0.0123814 0.229105 0.743465
0.0138873 0.229683 0.743279
0.0153935 0.230242 0.743018
0.0168997 0.230773 0.742643
0.0184054 0.231275 0.742145
0.0199101 0.231726 0.741443
0.0214128 0.23213 0.740545
0.0229127 0.232555 0.739739
0.0244106 0.232976 0.738924
0.0259059 0.233396 0.738106
0.0274014 0.233912 0.737683
0.028897 0.23446 0.737398
0.0303948 0.235087 0.737429
0.0318996 0.235861 0.738055
0.0334092 0.236695 0.738921
0.0349217 0.237517 0.739735
0.0364379 0.238359 0.740625
0.0379562 0.239189 0.741458
0.0394679 0.239896 0.741796
0.040981 0.2406 0.742122
0.0424952 0.241306 0.742452
0.0440089 0.241992 0.742701
0.0455191 0.242634 0.742775
0.0470291 0.243268 0.742817
0.0485387 0.243896 0.742833
0.0500458 0.2445 0.742757
0.0515656 0.245209 0.743088
0.0530979 0.246001 0.743746
0.0546375 0.246832 0.744548
0.0561942 0.247764 0.745741
0.0577704 0.248802 0.747337
0.059341 0.249773 0.74866
0.0609081 0.250693 0.749786
0.0624629 0.251519 0.75054
0.0639827 0.252123 0.750445
0.0654724 0.252559 0.749703
0.0669348 0.252857 0.748438
0.068378 0.253071 0.74686
0.0698171 0.253288 0.745297
0.0712568 0.253529 0.743835
0.0726946 0.253778 0.742416
0.0741444 0.254105 0.741292
0.0755864 0.254411 0.740092
0.07703 0.254737 0.738976
0.0789717 0.257271 0.746125
-0.0486009 0.217269 0.790899
-0.0470433 0.217962 0.791106
-0.045466 0.218594 0.791026
-0.0438639 0.219146 0.790572
-0.0422695 0.219719 0.790217
-0.040651 0.220205 0.789467
-0.0390355 0.220693 0.788728
-0.0374336 0.221223 0.788186
-0.0358192 0.221699 0.787408
-0.0342016 0.222153 0.786532
-0.032593 0.222632 0.785763
-0.0309919 0.223132 0.785104
-0.0293993 0.223661 0.784572
-0.0278202 0.224241 0.784276
-0.0262416 0.224822 0.783981
-0.0246422 0.225299 0.78323
-0.0230526 0.225813 0.782642
-0.0214503 0.226252 0.781724
-0.0198307 0.226584 0.780346
-0.0181972 0.226812 0.778513
-0.0165745 0.227069 0.776816
-0.0149377 0.227206 0.774607
-0.0133016 0.227302 0.772235
-0.0116766 0.227421 0.76997
-0.0100606 0.227549 0.767757
-0.00843564 0.22756 0.765051
-0.00681627 0.227542 0.762236
-0.0051974 0.227455 0.759137
-0.00358506 0.227338 0.755932
-0.00198823 0.227265 0.752931
-0.000414982 0.227336 0.750557
0.00114203 0.227498 0.74858
0.00268439 0.227763 0.747061
0.00421318 0.228141 0.746016
0.00573543 0.228565 0.745177
0.00725649 0.22897 0.74426
0.0087719 0.229427 0.74357
0.0102826 0.229932 0.743079
0.0117922 0.230438 0.742593
0.0133005 0.230945 0.74212
0.0148073 0.231451 0.741637
0.0163137 0.231929 0.741048
0.0178186 0.232378 0.740336
0.019322 0.232799 0.739518
0.0208229 0.233195 0.738596
0.0223215 0.233612 0.73777
0.0238173 0.234035 0.736966
0.0253117 0.234482 0.736269
0.0268053 0.235001 0.735865
0.0282991 0.235551 0.735588
0.0297956 0.236203 0.735723
0.031299 0.237005 0.736461
0.0328084 0.237866 0.737436
0.0343212 0.238738 0.738444
0.0358367 0.239601 0.739414
0.037352 0.240411 0.740163
0.0388626 0.241118 0.740503
0.0403741 0.241825 0.740838
0.0418874 0.242532 0.741174
0.0433994 0.243217 0.741418
0.0449077 0.243849 0.741453
0.046413 0.24445 0.741368
0.0479178 0.24505 0.741275
0.0494233 0.245654 0.741199
0.0509417 0.246364 0.741536
0.0524685 0.247131 0.742093
0.0540016 0.24793 0.74277
0.0555577 0.248878 0.744017
0.0571347 0.249945 0.745716
0.0587133 0.250986 0.747304
0.0603006 0.252051 0.748978
0.0618774 0.253017 0.750267
0.0634163 0.253733 0.750597
0.0649222 0.254255 0.75018
0.0664064 0.254659 0.749323
0.0678545 0.254879 0.747774
0.0692909 0.255063 0.746094
0.0707223 0.255244 0.744412
0.072145 0.255405 0.742666
0.0735802 0.25565 0.741239
0.0754875 0.258138 0.748199
-0.0501332 0.216504 0.790368
-0.0516934 0.215826 0.790231
-0.0523015 0.217263 0.789477
-0.0507313 0.21791 0.789467
-0.0491804 0.218617 0.789732
-0.0476197 0.219296 0.789868
-0.0460418 0.219924 0.789769
-0.0444473 0.220496 0.789414
-0.0428608 0.221093 0.789177
-0.0412636 0.22165 0.788753
-0.0396623 0.222188 0.788251
-0.0380735 0.222767 0.787935
-0.0364666 0.223274 0.787295
-0.0348539 0.223752 0.786527
-0.0332424 0.224224 0.78574
-0.0316403 0.224725 0.78508
-0.0300465 0.225253 0.784549
-0.0284711 0.225855 0.784351
-0.026898 0.226466 0.784183
-0.0253034 0.226974 0.783574
-0.0237184 0.227519 0.783121
-0.0221185 0.227982 0.782317
-0.0204912 0.228285 0.780813
-0.0188526 0.2285 0.778933
-0.0172095 0.228652 0.776791
-0.0155563 0.228701 0.774214
-0.0139018 0.228688 0.771381
-0.012264 0.228724 0.768776
-0.0106351 0.228762 0.766195
-0.00901361 0.228794 0.763597
-0.00739138 0.228753 0.760709
-0.00577199 0.22866 0.757609
-0.00415942 0.228536 0.754392
-0.00256131 0.228451 0.751364
-0.000986039 0.228496 0.748905
0.0005705 0.228656 0.746937
0.00210964 0.228946 0.745529
0.00363486 0.229351 0.744607
0.00515471 0.229796 0.743866
0.00667166 0.23025 0.743159
0.00818395 0.230754 0.74267
0.00969406 0.231263 0.742199
0.0112046 0.231745 0.741619
0.0127144 0.232199 0.74093
0.014223 0.232624 0.740117
0.0157301 0.233026 0.739222
0.0172344 0.233423 0.738307
0.0187362 0.233815 0.737379
0.0202352 0.23423 0.736545
0.0217318 0.234671 0.735822
0.0232264 0.235119 0.735135
0.0247195 0.235617 0.734649
0.0262127 0.236188 0.734458
0.0277061 0.236764 0.734291
0.0292012 0.237418 0.734432
0.0307032 0.23822 0.73517
0.0322094 0.239063 0.736061
0.0337204 0.239933 0.737064
0.0352325 0.240774 0.737937
0.0367469 0.241602 0.738756
0.0382595 0.242357 0.739285
0.0397721 0.243096 0.739744
0.0412826 0.243786 0.740009
0.0427933 0.244467 0.740237
0.0442951 0.245041 0.74005
0.0457906 0.24556 0.739644
0.0472877 0.246101 0.739328
0.0487906 0.246703 0.739245
0.0503043 0.247393 0.739508
0.0518257 0.248137 0.739976
0.0533546 0.248927 0.740617
0.0549098 0.249894 0.741935
0.0564905 0.251014 0.743827
0.0580789 0.252145 0.745754
0.0596856 0.253355 0.74797
0.0612834 0.254464 0.749797
0.0628455 0.255324 0.750664
0.0643723 0.25596 0.750683
0.0658796 0.256481 0.750271
0.0673371 0.256735 0.748852
0.0687673 0.256863 0.74697
0.0706097 0.259162 0.753215
-0.0544084 0.217853 0.787809
-0.0528711 0.218589 0.788212
-0.0513108 0.219261 0.788319
-0.0497611 0.219969 0.788584
-0.0482019 0.22065 0.788731
-0.046633 0.221302 0.78875
-0.0450436 0.22189 0.788463
-0.0434661 0.222514 0.788355
-0.0418765 0.223096 0.788049
-0.0402886 0.223682 0.787763
-0.0387075 0.22429 0.787575
-0.0371003 0.224798 0.786945
-0.0354932 0.225299 0.786286
-0.0338864 0.225793 0.785597
-0.0322874 0.226312 0.785027
