ply
format ascii 1.0
element vertex 1625
property float x
property float y
property float z
end_header
0.0203707 0.0789254 0.8524
0.0219025 0.0791348 0.850941
0.0234388 0.0793599 0.849709
0.0249769 0.0795926 0.848608
0.02652 0.0798394 0.847705
0.0280559 0.0800793 0.846715
0.029588 0.0803169 0.845713
0.0311056 0.0805392 0.844499
0.0330653 0.0813822 0.851838
-0.101346 0.0590219 0.888778
-0.0996787 0.0593496 0.888789
-0.0979745 0.0596552 0.888338
-0.0962792 0.0599644 0.887978
-0.0945477 0.0602503 0.887127
-0.0928201 0.0605345 0.886286
-0.0911108 0.0608307 0.885654
-0.0893944 0.0611179 0.884893
-0.0876739 0.0614006 0.884031
-0.0859646 0.0616885 0.883289
-0.0842726 0.0619865 0.882768
-0.0825924 0.0622926 0.882397
-0.08092 0.0626041 0.88213
-0.0792485 0.0629145 0.881858
-0.077545 0.0631954 0.881033
-0.0758537 0.0634845 0.880364
-0.0741532 0.0637622 0.879491
-0.0724465 0.0640305 0.878446
-0.0707209 0.0642747 0.876977
-0.0690128 0.0645314 0.87575
-0.067287 0.0647626 0.874082
-0.0655535 0.0649785 0.872133
-0.0638262 0.0651915 0.87018
-0.0621048 0.0654033 0.868202
-0.0603665 0.0655824 0.865684
-0.0586316 0.0657534 0.863041
-0.0568941 0.065906 0.860109
-0.055163 0.0660518 0.857086
-0.0534539 0.066214 0.854388
-0.0517733 0.0664062 0.852237
-0.0501057 0.0666067 0.850264
-0.0484592 0.0668319 0.848736
-0.0468296 0.067079 0.847599
-0.0452075 0.0673321 0.84659
-0.0435896 0.0675863 0.845604
-0.0419831 0.0678587 0.844927
-0.0403857 0.0681469 0.844536
-0.0387926 0.0684428 0.844276
-0.037205 0.068752 0.84423
-0.0356163 0.069056 0.844109
-0.0340262 0.0693525 0.84387
-0.0324352 0.0696409 0.843506
-0.0308428 0.0699166 0.842933
-0.02925 0.0701796 0.842158
-0.0276612 0.070448 0.841479
-0.0260746 0.070715 0.840789
-0.0244905 0.0709819 0.840096
-0.0229111 0.0712734 0.839807
-0.0213333 0.071573 0.83966
-0.019757 0.0718937 0.839836
-0.0181805 0.0722534 0.840622
-0.0166016 0.0726301 0.841653
-0.0150194 0.0730029 0.842633
-0.013434 0.0733819 0.84369
-0.0118458 0.0737577 0.844688
-0.0102584 0.0741014 0.845181
-0.00866967 0.0744434 0.84566
-0.00707957 0.0747868 0.846144
-0.00548911 0.0751246 0.846545
-0.00390019 0.0754508 0.846767
-0.00231125 0.0757743 0.846955
-0.000722256 0.0760966 0.847117
0.000865109 0.0764124 0.847185
0.00246109 0.0767572 0.84767
0.00406615 0.0771245 0.848491
0.00567716 0.0775027 0.849461
0.00730147 0.0779094 0.850831
0.0089414 0.0783459 0.852617
0.0105789 0.0787643 0.854122
0.0122148 0.0791687 0.855426
0.0138425 0.0795475 0.856348
0.0154435 0.0798643 0.856397
0.0170206 0.0801344 0.855781
0.0185755 0.0803658 0.854628
0.0201138 0.080573 0.853152
0.0216477 0.0807806 0.851692
0.023181 0.0809947 0.850334
0.0247116 0.0812102 0.849021
0.0262515 0.0814476 0.848011
0.027784 0.0816787 0.846922
0.0293172 0.0819152 0.845918
0.0312746 0.0827804 0.853422
-0.103227 0.0602753 0.887267
-0.10159 0.0606188 0.887629
-0.099929 0.0609494 0.887699
-0.0982371 0.061261 0.887389
-0.0965544 0.0615781 0.887179
-0.0948417 0.061874 0.886569
-0.0931322 0.0621703 0.885968
-0.0914395 0.0624758 0.885568
-0.0897311 0.0627677 0.884927
-0.0880181 0.0630544 0.884186
-0.0863153 0.0633482 0.883555
-0.0846222 0.0636455 0.883034
-0.0829394 0.06395 0.882643
-0.0812735 0.0642669 0.882493
-0.0796083 0.0645836 0.882342
-0.0779158 0.0648749 0.881728
-0.0762355 0.0651754 0.88128
-0.0745377 0.0654572 0.880494
-0.0728167 0.0657118 0.87924
-0.0710754 0.0659405 0.877521
-0.0693472 0.0661758 0.875941
-0.0675981 0.0663804 0.873837
-0.065848 0.0665735 0.871567
-0.0641108 0.066772 0.869404
-0.0623834 0.0669724 0.867296
-0.0606411 0.0671418 0.864682
-0.0589031 0.0673039 0.861957
-0.0571625 0.0674466 0.85894
-0.0554276 0.0675803 0.855815
-0.0537112 0.0677253 0.852897
-0.0520272 0.0679053 0.850618
-0.0503647 0.0681089 0.848745
-0.0487233 0.0683376 0.847338
-0.0471016 0.0685953 0.846416
-0.0454892 0.0688648 0.845705
-0.0438772 0.0691288 0.844912
-0.0422739 0.0694061 0.844352
-0.0406777 0.0696961 0.843996
-0.0390828 0.0699857 0.843644
-0.0374895 0.0702756 0.843305
-0.0358975 0.0705654 0.842956
-0.0343049 0.0708473 0.842498
-0.0327122 0.0711218 0.841915
-0.03112 0.0713883 0.841222
-0.0295291 0.071648 0.840424
-0.0279418 0.0719127 0.839722
-0.0263576 0.0721795 0.839044
-0.0247764 0.0724515 0.838474
-0.0231992 0.0727434 0.838204
-0.0216235 0.0730434 0.838066
-0.0200496 0.0733712 0.838348
-0.0184755 0.0737395 0.839249
-0.0168982 0.0741236 0.840392
-0.0153175 0.0745112 0.84157
-0.0137334 0.0748976 0.842709
-0.012147 0.0752688 0.843622
-0.0105608 0.0756126 0.844117
-0.00897345 0.0759565 0.844605
-0.00738451 0.0762998 0.845095
-0.00579552 0.0766381 0.84549
-0.00420826 0.0769609 0.845671
-0.00262261 0.0772756 0.84573
-0.0010373 0.0775906 0.84578
0.000548409 0.0779061 0.845848
0.00214284 0.0782507 0.846339
0.00374362 0.0786125 0.847057
0.00534961 0.0789828 0.847897
0.00697298 0.0793948 0.849325
0.0086132 0.0798416 0.851215
0.0102564 0.0802814 0.852994
0.0119077 0.0807283 0.85486
0.0135524 0.0811475 0.856333
0.0151685 0.0814963 0.856819
0.0167588 0.0817903 0.856537
0.0183313 0.0820506 0.855803
0.0198739 0.0822575 0.854357
0.0214058 0.0824542 0.852776
0.0229324 0.0826494 0.851193
0.0244506 0.0828383 0.849541
0.0259781 0.0830504 0.84822
0.0279042 0.0839098 0.855528
-0.104835 0.0599128 0.886576
-0.106475 0.0595727 0.886285
-0.106772 0.061199 0.885787
-0.105119 0.0615331 0.885928
-0.103489 0.0618814 0.886349
-0.101847 0.0622237 0.88664
-0.100185 0.0625524 0.88669
-0.0985026 0.0628684 0.886481
-0.0968299 0.0631898 0.886391
-0.0951435 0.0635024 0.886111
-0.093452 0.0638098 0.885751
-0.0917759 0.0641266 0.885581
-0.0900769 0.0644261 0.885081
-0.0883705 0.0647177 0.88445
-0.0866651 0.065008 0.883799
-0.0849708 0.0653055 0.883278
-0.083287 0.0656093 0.882888
-0.0816263 0.0659314 0.882838
-0.0799681 0.0662561 0.882818
-0.0782827 0.066554 0.882347
-0.0766088 0.066862 0.882037
-0.0749155 0.0671485 0.881368
-0.0731851 0.0673948 0.879985
-0.0714387 0.0676176 0.878217
-0.0696845 0.0678239 0.876183
-0.0679147 0.0680034 0.873703
-0.0661406 0.068166 0.870962
-0.0643867 0.0683405 0.868452
-0.0626424 0.0685148 0.865966
-0.0609057 0.0686862 0.863463
-0.059165 0.0688382 0.860661
-0.0574248 0.0689755 0.857644
-0.0556904 0.0691043 0.854505
-0.0539735 0.0692416 0.851559
-0.0522872 0.0694119 0.849192
-0.050626 0.0696119 0.847327
-0.0489897 0.0698453 0.846033
-0.0473733 0.0701094 0.845237
-0.0457649 0.0703831 0.844625
-0.0441599 0.0706591 0.844047
-0.0425624 0.0709476 0.843692
-0.0409671 0.0712385 0.843356
-0.0393704 0.071521 0.842908
-0.0377731 0.0717961 0.842348
-0.0361756 0.0720637 0.841661
-0.0345789 0.0723241 0.84089
-0.0329848 0.0725837 0.840098
-0.0313932 0.0728412 0.839292
-0.0298057 0.0731043 0.838583
-0.0282219 0.0733746 0.837987
-0.0266408 0.0736467 0.837428
-0.0250633 0.0739326 0.837074
-0.0234891 0.0742381 0.837023
-0.0219151 0.0745443 0.836996
-0.0203427 0.074873 0.837285
-0.0187699 0.0752422 0.838185
-0.0171945 0.0756227 0.839243
-0.0156154 0.076011 0.840416
-0.0140333 0.076392 0.841456
-0.0124484 0.0767696 0.84244
-0.0108623 0.0771263 0.843128
-0.00927503 0.0774799 0.843744
-0.0076879 0.0778193 0.844161
-0.00610015 0.0781563 0.844541
-0.0045171 0.0784632 0.844494
-0.00293799 0.078755 0.844223
-0.00135837 0.0790527 0.844044
0.000224768 0.0793673 0.844104
0.00181527 0.0797069 0.84452
0.00341155 0.0800621 0.845145
0.0050137 0.0804303 0.845949
0.00663583 0.0808499 0.847449
0.00827835 0.0813135 0.849539
0.00992853 0.081781 0.851666
0.0115946 0.0822715 0.85409
0.0132557 0.0827334 0.856116
0.0148903 0.0831242 0.857154
0.0164975 0.0834508 0.85732
0.0180889 0.0837439 0.857044
0.0196394 0.0839595 0.855732
0.0211665 0.084138 0.853942
0.0230348 0.0849483 0.860516
-0.108636 0.0624435 0.884208
-0.107022 0.062799 0.884769
-0.105381 0.0631392 0.88503
-0.103752 0.0634883 0.88545
-0.102112 0.0638302 0.885751
-0.100461 0.0641651 0.885922
-0.0987845 0.0644851 0.885782
-0.0971228 0.0648126 0.885823
-0.0954458 0.0651307 0.885663
-0.093771 0.0654494 0.885524
-0.0921044 0.0657737 0.885484
-0.0904055 0.0660722 0.884994
-0.0887063 0.0663697 0.884474
-0.087007 0.0666651 0.883923
-0.0853177 0.0669648 0.883493
-0.0836342 0.0672696 0.883123
-0.0819811 0.0676005 0.883203
-0.0803208 0.0679227 0.883173
-0.0786423 0.0682295 0.882832
-0.0769743 0.0685427 0.882653
-0.0752946 0.0688446 0.882252
-0.0735796 0.0691076 0.881189
-0.0718528 0.0693522 0.879841
-0.0700661 0.069524 0.877263
-0.0682629 0.0696647 0.874184
-0.0664506 0.0697793 0.870714
-0.0646579 0.0699016 0.86741
-0.0628802 0.0700274 0.864187
-0.06115 0.0702005 0.861798
-0.0594117 0.0703491 0.859022
-0.0576766 0.0704866 0.856096
-0.0559467 0.0706154 0.853051
-0.054231 0.0707477 0.850112
-0.0525461 0.070915 0.847757
-0.0508905 0.0711186 0.846015
-0.0492592 0.0713576 0.844838
-0.0476476 0.0716268 0.844161
-0.0460437 0.0719064 0.843667
-0.0444427 0.0721885 0.843208
-0.0428488 0.0724836 0.842958
-0.0412541 0.0727734 0.842627
-0.0396554 0.0730478 0.842068
-0.0380557 0.0733127 0.841356
-0.0364562 0.0735687 0.840531
-0.0348564 0.0738129 0.839523
-0.0332622 0.0740641 0.838645
-0.0316726 0.074322 0.837864
-0.0300869 0.0745845 0.837173
-0.0285063 0.0748619 0.8367
-0.0269287 0.0751481 0.836357
-0.0253533 0.0754414 0.836136
-0.0237807 0.0757539 0.836196
-0.022208 0.0760662 0.83626
-0.0206362 0.0763937 0.836533
-0.0190642 0.0767501 0.837237
-0.01749 0.0771181 0.838091
-0.0159128 0.0775001 0.839149
-0.0143334 0.0778683 0.839984
-0.0127517 0.0782328 0.840768
-0.0111673 0.0785966 0.841547
-0.00958063 0.0789642 0.842362
-0.00799682 0.0792932 0.842631
-0.00641114 0.0796303 0.843009
-0.0048308 0.0799348 0.842923
-0.00325689 0.0802078 0.842419
-0.001683 0.0804907 0.842044
-9.89604e-05 0.0808174 0.842287
0.00148684 0.0811503 0.842604
0.00308022 0.0815073 0.843236
0.0046797 0.0818754 0.844037
0.00630102 0.0823046 0.845634
0.00794631 0.0827862 0.847939
0.00960565 0.0832887 0.850488
0.0112823 0.083815 0.853342
0.0129591 0.084321 0.855906
0.0146117 0.0847546 0.857491
0.0162363 0.0851168 0.858125
0.0178426 0.0854377 0.858209
0.0194045 0.0856685 0.857122
0.0212601 0.0864773 0.863544
-0.108889 0.0640433 0.883231
-0.107262 0.06439 0.883631
-0.105629 0.0647347 0.883972
-0.104003 0.0650842 0.884413
-0.102374 0.0654324 0.884823
-0.100734 0.0657752 0.885124
-0.0990751 0.0661044 0.885195
-0.0974242 0.0664411 0.885365
-0.0957558 0.0667638 0.885316
-0.0940895 0.0670891 0.885286
-0.0924308 0.0674191 0.885357
-0.0907327 0.0677185 0.884887
-0.0890402 0.0680209 0.884467
-0.087354 0.0683253 0.884117
-0.0856665 0.0686288 0.883727
-0.0839831 0.0689336 0.883377
-0.0823426 0.0692766 0.883667
-0.0806803 0.0695981 0.883628
-0.0790063 0.0699094 0.883388
-0.077344 0.0702308 0.883328
-0.0756701 0.0705399 0.883058
-0.0739598 0.0708094 0.882116
-0.072244 0.0710668 0.88102
-0.070439 0.0712177 0.878159
-0.068583 0.0712938 0.874112
-0.0667121 0.0713322 0.869488
-0.0648649 0.0713787 0.865035
-0.0630783 0.071483 0.861569
-0.061356 0.0716586 0.859285
-0.059633 0.07182 0.856811
-0.0579098 0.0719667 0.85412
-0.0561905 0.0721042 0.851298
-0.0544815 0.0722397 0.848501
-0.0528023 0.0724101 0.846266
-0.0511551 0.0726244 0.844724
-0.0495282 0.0728665 0.843646
-0.0479245 0.073148 0.843181
-0.0463284 0.0734421 0.84292
-0.0447336 0.0737363 0.842671
-0.0431431 0.0740386 0.842529
-0.0415481 0.0743265 0.842189
-0.0399469 0.0745928 0.841518
-0.0383424 0.0748408 0.840584
-0.0367407 0.0750866 0.839628
-0.0351397 0.0753217 0.838515
-0.0335466 0.0755727 0.837647
-0.0319582 0.0758301 0.836894
-0.0303752 0.0761006 0.83633
-0.0287952 0.0763772 0.835873
-0.0272204 0.0766765 0.835732
-0.0256472 0.0769844 0.835724
-0.0240749 0.0772985 0.835806
-0.0225023 0.0776102 0.835868
-0.0209305 0.0779358 0.836107
-0.0193583 0.0782701 0.836483
-0.0177852 0.0786227 0.837102
-0.0162097 0.0789984 0.838042
-0.0146321 0.0793512 0.838669
-0.0130532 0.0797023 0.839255
-0.0114714 0.0800663 0.840012
-0.00988826 0.0804225 0.840655
-0.00830776 0.0807445 0.840828
-0.00672457 0.0810806 0.841203
-0.00514666 0.0813825 0.841102
-0.00357649 0.0816483 0.840512
-0.0020053 0.0819297 0.840127
-0.000422172 0.0822645 0.840475
0.00116128 0.0825969 0.840792
0.00275415 0.0829608 0.841518
0.00435548 0.0833461 0.84252
0.00597752 0.0837856 0.844237
0.007624 0.0842806 0.846676
0.00928968 0.0848105 0.849537
0.0109739 0.0853658 0.85271
0.0126594 0.0859008 0.855597
0.0143292 0.0863787 0.857722
0.0159698 0.086777 0.858801
0.0175937 0.0871326 0.859328
0.019174 0.0873948 0.858656
-0.110754 0.0652859 0.881733
-0.10912 0.0656267 0.882024
-0.1075 0.0659772 0.882484
-0.105877 0.0663272 0.882925
-0.104243 0.066672 0.883255
-0.102607 0.0670151 0.883576
-0.100971 0.0673594 0.883896
-0.0993234 0.0676956 0.884087
-0.0976826 0.0680377 0.884367
-0.096033 0.0683732 0.884548
-0.0943841 0.0687107 0.884739
-0.092734 0.0690473 0.884919
-0.0910508 0.0693573 0.88465
-0.0893663 0.0696654 0.88435
-0.0876887 0.0699775 0.88413
-0.0860167 0.0702946 0.883981
-0.0843409 0.0706062 0.883761
-0.0826999 0.0709504 0.884061
-0.0810346 0.0712713 0.883992
-0.0793577 0.0715811 0.883722
-0.0776906 0.0718983 0.883602
-0.076023 0.0722145 0.883462
-0.0743216 0.0724928 0.882712
-0.0726209 0.0727689 0.881921
-0.0707539 0.072846 0.877949
-0.0688466 0.0728552 0.872934
-0.0669295 0.0728282 0.867384
-0.0650603 0.0728353 0.862445
-0.0632805 0.0729387 0.859071
-0.0615697 0.073122 0.856985
-0.0598517 0.0732824 0.854566
-0.0581412 0.0734404 0.852127
-0.0564376 0.0735946 0.849655
-0.0547394 0.0737423 0.847103
-0.0530695 0.073923 0.845092
-0.0514298 0.0741462 0.843745
-0.0498104 0.0743996 0.842869
-0.0482079 0.0746815 0.842428
-0.0466131 0.0749764 0.842186
-0.0450193 0.0752714 0.841942
-0.0434291 0.0755723 0.841799
-0.0418322 0.0758527 0.841355
-0.0402339 0.0761243 0.840787
-0.038628 0.0763653 0.839774
-0.0370271 0.07661 0.838823
-0.0354266 0.0768433 0.837722
-0.0338341 0.0770924 0.83686
-0.0322464 0.0773495 0.836116
-0.0306662 0.0776313 0.835735
-0.0290879 0.0779148 0.835373
-0.0275142 0.0782198 0.835336
-0.025942 0.0785347 0.835428
-0.0243698 0.0788501 0.835527
-0.0227972 0.0791617 0.835578
-0.0212249 0.0794794 0.835708
-0.0196524 0.0797975 0.835855
-0.0180799 0.0801341 0.836237
-0.0165057 0.0805001 0.837036
-0.0149302 0.0808394 0.837458
-0.0133538 0.0811768 0.837846
-0.0117746 0.0815322 0.838488
-0.0101947 0.0818784 0.83899
-0.0086185 0.0821849 0.838958
-0.00703901 0.0825138 0.839231
-0.00546257 0.0828217 0.839219
-0.00389309 0.0830955 0.838754
-0.00232328 0.0833777 0.838409
-0.000740689 0.0837215 0.838867
0.00084046 0.0840536 0.839179
0.00243291 0.0844254 0.839999
0.00403684 0.0848269 0.841208
0.00566215 0.0852878 0.843156
0.00731004 0.0857962 0.845724
0.00898456 0.0863604 0.848968
0.0106737 0.0869383 0.85236
0.0123687 0.0875038 0.855578
0.0140527 0.0880202 0.858146
0.0157123 0.0884631 0.859759
0.0173531 0.0888526 0.8607
0.019245 0.0897739 0.868286
-0.110977 0.0668627 0.880467
-0.109348 0.0672067 0.880787
-0.10773 0.0675587 0.881257
-0.106115 0.0679123 0.881768
-0.104491 0.0682624 0.882198
-0.102865 0.0686119 0.882619
-0.101231 0.0689568 0.882949
-0.0995851 0.0692936 0.88315
-0.0979461 0.0696364 0.88344
-0.0962993 0.0699744 0.88364
-0.094652 0.0703116 0.883841
-0.093011 0.0706537 0.884132
-0.0913378 0.0709711 0.883992
-0.0896704 0.0712925 0.883923
-0.0880104 0.0716207 0.883953
-0.0863539 0.0719503 0.884034
-0.0846854 0.0722699 0.883934
-0.0830493 0.0726193 0.884325
-0.0813836 0.0729404 0.884265
-0.0797018 0.0732459 0.883935
-0.0780307 0.0735598 0.883766
-0.0763642 0.0738789 0.883656
-0.0729933 0.0744687 0.882726
-0.0710993 0.0745116 0.878308
-0.0652568 0.0742877 0.85991
-0.0634918 0.0744019 0.856798
-0.0617981 0.0746021 0.855035
-0.0600881 0.0747673 0.852756
-0.0583892 0.0749369 0.850554
-0.0566967 0.0751023 0.848328
-0.0550084 0.0752609 0.846013
-0.0533436 0.075446 0.844123
-0.0517088 0.0756753 0.842896
-0.0500905 0.0759284 0.842035
-0.0484886 0.0762089 0.841592
-0.0468945 0.0765031 0.841348
-0.0453011 0.076796 0.841093
-0.0437115 0.0770963 0.840943
-0.0421179 0.0773829 0.840603
-0.0405228 0.0776609 0.840149
-0.0389201 0.0779094 0.839265
-0.0373218 0.0781616 0.838447
-0.0357228 0.0783998 0.837442
-0.0341315 0.0786539 0.836671
-0.0325434 0.0789097 0.83592
-0.0309629 0.079191 0.835541
-0.0293838 0.0794715 0.83516
-0.0278099 0.0797766 0.835112
-0.0262365 0.0800837 0.83511
-0.0246645 0.0803998 0.835213
-0.023092 0.0807125 0.835274
-0.0215193 0.0810223 0.835301
-0.0199466 0.0813261 0.835243
-0.0183744 0.0816462 0.83541
-0.0168014 0.0819974 0.835993
-0.0152278 0.0823226 0.836218
-0.0136534 0.0826509 0.836488
-0.0120769 0.0829988 0.837012
-0.0105 0.0833344 0.837375
-0.008927 0.0836293 0.837204
-0.00735041 0.0839562 0.83745
-0.00577585 0.0842664 0.837477
-0.00420685 0.0845482 0.837131
-0.00263716 0.0848394 0.83691
-0.00105648 0.0851834 0.837376
0.000520822 0.0855079 0.837589
0.00211089 0.0858805 0.838405
0.00371493 0.0862928 0.839731
0.00533862 0.0867581 0.841707
0.0069913 0.0872942 0.84457
0.00867449 0.0878952 0.848215
0.0103709 0.0885027 0.851915
0.0120755 0.0891017 0.855486
0.013773 0.0896568 0.858484
0.0154445 0.0901295 0.860432
0.0170949 0.0905398 0.861605
-0.112884 0.0681295 0.879471
-0.111226 0.0684533 0.879471
-0.109579 0.0687861 0.879602
-0.107947 0.0691275 0.879892
-0.106326 0.069478 0.880322
-0.104703 0.0698259 0.880732
-0.103088 0.0701826 0.881252
-0.101462 0.070532 0.881662
-0.0998267 0.0708761 0.881973
-0.098198 0.071225 0.882373
-0.0965602 0.0715676 0.882674
-0.0949156 0.0719072 0.882894
-0.0932771 0.0722509 0.883205
-0.0916137 0.0725747 0.883185
-0.0899571 0.0729053 0.883255
-0.0883146 0.0732477 0.883526
-0.0866733 0.0735909 0.883827
-0.0850193 0.0739242 0.883947
-0.0833834 0.0742746 0.884348
-0.0817242 0.0746037 0.884398
-0.0800406 0.0749066 0.884059
-0.0783701 0.0752224 0.883909
-0.0766991 0.0755372 0.883739
-0.0672857 0.0757027 0.861694
-0.065433 0.0757069 0.85699
-0.0637163 0.0758795 0.854832
-0.0620316 0.0760861 0.853219
-0.0603324 0.076261 0.851147
-0.0586437 0.0764397 0.849154
-0.0569647 0.0766225 0.847236
-0.0552817 0.0767858 0.845043
-0.0536294 0.0769897 0.843476
-0.0519985 0.077224 0.842357
-0.0503836 0.077482 0.841598
-0.0487789 0.0777559 0.84106
-0.047184 0.0780467 0.840789
-0.0455873 0.0783302 0.840411
-0.0439928 0.0786161 0.840056
-0.0424 0.0789021 0.839718
-0.0408085 0.0791875 0.839384
-0.0392113 0.0794506 0.838731
-0.0376178 0.0797176 0.838135
-0.0360242 0.0799756 0.837426
-0.0344338 0.0802354 0.836753
-0.0328443 0.0804882 0.835987
-0.0312618 0.0807622 0.83551
-0.0296809 0.0810351 0.835035
-0.0281054 0.0813316 0.834879
-0.0265311 0.0816314 0.834771
-0.0249588 0.0819461 0.834857
-0.0233863 0.0822586 0.834922
-0.0218137 0.0825696 0.834965
-0.0202408 0.0828673 0.834827
-0.0186687 0.0831801 0.834894
-0.0170965 0.0835093 0.835175
-0.0155242 0.0838176 0.83518
-0.0139519 0.0841313 0.835256
-0.0123781 0.0844634 0.835575
-0.0108047 0.0847837 0.835732
-0.00923329 0.0850829 0.835628
-0.00765863 0.0854095 0.835875
-0.006085 0.0857286 0.836011
-0.00451465 0.086026 0.835879
-0.00294333 0.0863322 0.83586
-0.00136394 0.0866756 0.836318
0.000211671 0.0869998 0.836518
0.0018001 0.0873709 0.837318
0.0034043 0.0877926 0.838729
0.00502482 0.0882549 0.840638
0.00667556 0.0887963 0.843508
0.00836426 0.0894261 0.847443
0.0100625 0.0900501 0.851271
0.0117704 0.0906684 0.855008
0.0134743 0.0912488 0.858243
0.015156 0.0917502 0.860506
0.0168148 0.092181 0.861906
-0.11487 0.0694428 0.879314
-0.11317 0.0697417 0.878885
-0.111485 0.0700491 0.878596
-0.109815 0.070366 0.878462
-0.108172 0.0706992 0.878617
-0.106544 0.0710436 0.878946
-0.104913 0.0713867 0.879256
-0.103299 0.0717411 0.879767
-0.101675 0.0720912 0.880177
-0.100051 0.0724414 0.880587
-0.0984332 0.0727985 0.881107
-0.0968059 0.0731482 0.881517
-0.0951695 0.0734925 0.881827
-0.0935401 0.0738437 0.882238
-0.0918866 0.0741758 0.882338
-0.0902392 0.0745119 0.882529
-0.0886059 0.0748618 0.882919
-0.0869749 0.0752154 0.883359
-0.085336 0.0755632 0.8837
-0.083708 0.0759224 0.88422
-0.082056 0.0762584 0.884391
-0.0803806 0.076571 0.884191
-0.0787135 0.0768913 0.884112
-0.0656443 0.0771695 0.854815
-0.0639866 0.0774186 0.853853
-0.0623001 0.077619 0.852187
-0.0606008 0.0777892 0.850103
-0.0589118 0.0779632 0.848092
-0.0572337 0.0781431 0.84618
-0.0555554 0.0783095 0.844097
-0.0539115 0.0785253 0.842741
-0.0522886 0.078773 0.841835
-0.0506777 0.0790378 0.841182
-0.0490722 0.0793087 0.84063
-0.0474737 0.0795908 0.840237
-0.0458767 0.0798725 0.839845
-0.0442768 0.0801421 0.839286
-0.0426844 0.080427 0.838944
-0.0410985 0.0807268 0.8388
-0.0395042 0.0809968 0.838268
-0.0379113 0.0812647 0.837702
-0.0363215 0.0815364 0.837198
-0.0347325 0.0818025 0.836622
-0.033143 0.0820565 0.835882
-0.0315612 0.0823363 0.835509
-0.0299798 0.0826092 0.835029
-0.0284024 0.082896 0.834759
-0.0268265 0.083187 0.834526
-0.0252532 0.0834928 0.834503
-0.0236796 0.0837912 0.834383
-0.0221071 0.0840958 0.83434
-0.0205346 0.0843927 0.834204
-0.0189628 0.0846982 0.834171
-0.0173912 0.0850106 0.834246
-0.0158202 0.0853171 0.834223
-0.0142484 0.0856353 0.834371
-0.0126761 0.0859621 0.834616
-0.0111042 0.0862759 0.834698
-0.00953239 0.0865907 0.834785
-0.00795862 0.0869184 0.835042
-0.00638663 0.0872306 0.835101
-0.00481591 0.0875363 0.835075
-0.00324388 0.0878491 0.835141
-0.00166886 0.0881778 0.835403
-9.45061e-05 0.0884996 0.835581
0.00149196 0.0888702 0.836351
0.00309687 0.0893013 0.837857
0.00471804 0.0897733 0.839858
0.0063674 0.0903198 0.842734
0.00805667 0.090965 0.846768
0.00975659 0.0916035 0.85071
0.0114636 0.09223 0.854467
0.0131669 0.0928175 0.857727
0.0148577 0.0933478 0.860291
0.0165273 0.0938069 0.862004
-0.116889 0.0707766 0.879477
-0.11516 0.0710594 0.878778
-0.113439 0.0713439 0.87813
-0.11172 0.0716285 0.877479
-0.110016 0.0719204 0.876957
-0.108356 0.072241 0.876905
-0.106728 0.0725828 0.877206
-0.105092 0.0729208 0.877427
-0.103482 0.0732773 0.877951
-0.101869 0.0736337 0.878462
-0.100248 0.0739842 0.878891
-0.098643 0.0743491 0.879531
-0.0970367 0.0747154 0.880181
-0.0954185 0.0750736 0.880701
-0.0937979 0.0754303 0.881211
-0.0921597 0.0757748 0.881501
-0.0905125 0.0761099 0.881682
-0.0888895 0.0764701 0.882202
-0.0872667 0.0768303 0.882752
-0.0856371 0.0771867 0.883223
-0.08401 0.0775467 0.883753
-0.0823737 0.0778992 0.884164
-0.0807064 0.0782206 0.884094
-0.0790435 0.0785453 0.884095
-0.0676491 0.0785629 0.856271
-0.0659794 0.0788015 0.855172
-0.0643087 0.0790325 0.853965
-0.0626052 0.0792062 0.851959
-0.0608954 0.0793577 0.84966
-0.0592005 0.0795195 0.847519
-0.057522 0.0796957 0.845604
-0.0558444 0.0798599 0.843546
-0.0542054 0.0800831 0.84232
-0.0525861 0.0803363 0.841514
-0.0509745 0.0805986 0.840859
-0.0493628 0.0808557 0.840118
-0.0477616 0.08113 0.839631
-0.0461617 0.0814028 0.839127
-0.0445566 0.0816567 0.838368
-0.0429671 0.0819459 0.838103
-0.0413816 0.0822444 0.837948
-0.0397905 0.0825218 0.837526
-0.0382002 0.082796 0.837063
-0.0366152 0.0830831 0.836778
-0.0350266 0.0833501 0.836222
-0.0334401 0.0836177 0.835686
-0.0318585 0.0838991 0.835331
-0.0302764 0.0841698 0.834854
-0.0286976 0.0844493 0.834478
-0.0271204 0.08473 0.834124
-0.0255464 0.0850269 0.833986
-0.0239723 0.0853167 0.83376
-0.0223995 0.0856121 0.833616
-0.0208275 0.0859075 0.833463
-0.0192563 0.0862035 0.83332
-0.0176859 0.0865079 0.833277
-0.0161154 0.0868194 0.833334
-0.0145445 0.0871457 0.833577
-0.0129729 0.0874754 0.833852
-0.0114002 0.0878061 0.83415
-0.00982782 0.0881302 0.834351
-0.00825514 0.0884514 0.834529
-0.00668352 0.0887637 0.834589
-0.00511192 0.0890768 0.834652
-0.00353995 0.0893892 0.834722
-0.00196655 0.0897106 0.834889
-0.000392872 0.090032 0.835057
0.00119093 0.090393 0.835712
0.00279454 0.090827 0.837213
0.00441271 0.0912952 0.839128
0.00606066 0.0918474 0.842013
0.00775004 0.0925038 0.846116
0.00945029 0.0931545 0.850127
0.0111527 0.0937784 0.853785
0.0128569 0.0943769 0.857118
0.0145495 0.0949185 0.859771
0.0162252 0.0953998 0.861691
-0.118608 0.0704861 0.880065
-0.118906 0.0721083 0.879609
-0.117188 0.0723994 0.87904
-0.115445 0.0726707 0.878193
-0.113693 0.0729342 0.877218
-0.111941 0.073195 0.876211
-0.110206 0.0734643 0.875346
-0.108526 0.0737685 0.875045
-0.106881 0.0740964 0.875129
-0.105249 0.0744346 0.875358
-0.103642 0.0747917 0.875889
-0.102042 0.0751545 0.876512
-0.100433 0.0755135 0.877055
-0.0988413 0.0758876 0.877826
-0.0972487 0.0762636 0.878616
-0.0956426 0.0766298 0.879266
-0.0940241 0.0769871 0.879776
-0.0923959 0.0773389 0.880176
-0.0907579 0.0776815 0.880456
-0.0891441 0.0780481 0.881086
-0.0875306 0.0784178 0.881746
-0.0859102 0.0787826 0.882336
-0.0842875 0.0791459 0.882916
-0.082658 0.0795053 0.883416
-0.0810038 0.0798397 0.883547
-0.0696395 0.079932 0.85732
-0.0679634 0.0801672 0.856184
-0.0662901 0.0804008 0.855022
-0.0646162 0.0806259 0.853769
-0.0629062 0.0807877 0.85164
-0.0611949 0.0809341 0.849324
-0.0594985 0.0810904 0.84717
-0.0578189 0.0812622 0.845243
-0.0561416 0.081425 0.843203
-0.0545025 0.0816466 0.841985
-0.0528833 0.0818993 0.841196
-0.0512718 0.0821614 0.84054
-0.0496595 0.0824158 0.839796
-0.0480581 0.0826891 0.839309
-0.046458 0.0829609 0.838806
-0.0448498 0.0832062 0.837946
-0.0432601 0.083494 0.83767
-0.0416721 0.0837839 0.837411
-0.0400812 0.0840601 0.836987
-0.0384915 0.0843351 0.836539
-0.0369106 0.0846368 0.836444
-0.0353237 0.0849105 0.835997
-0.0337405 0.0851933 0.835673
-0.0321599 0.0854828 0.835428
-0.0305773 0.0857547 0.834966
-0.0289963 0.0860248 0.834487
-0.0274172 0.0862955 0.834013
-0.0258416 0.0865828 0.833763
-0.0242666 0.0868642 0.83343
-0.0226938 0.0871582 0.833269
-0.0211217 0.0874507 0.833088
-0.0195505 0.0877454 0.832927
-0.0179799 0.0880409 0.832791
-0.0164099 0.0883534 0.832858
-0.0148393 0.0886828 0.833127
-0.0132677 0.0890136 0.833422
-0.0116953 0.0893467 0.833737
-0.0101223 0.0896787 0.834032
-0.00855053 0.0899915 0.834109
-0.0069793 0.0903035 0.834157
-0.00540781 0.0906154 0.834215
-0.00383621 0.0909289 0.834291
-0.00226416 0.0912424 0.834376
-0.000687543 0.0915799 0.834729
0.000896073 0.0919428 0.835389
0.00249964 0.0923795 0.836903
0.00411746 0.0928519 0.838828
0.0057643 0.0934076 0.841701
0.00744706 0.0940531 0.845597
0.00914179 0.0946986 0.849468
0.0108357 0.0953068 0.852882
0.0125344 0.0959008 0.856103
0.0142247 0.0964451 0.858741
0.0159024 0.0969381 0.860771
-0.11918 0.0737167 0.878913
-0.117451 0.0739976 0.878235
-0.115696 0.0742593 0.877254
-0.11392 0.0745055 0.876029
-0.112148 0.0747498 0.874798
-0.110384 0.0749956 0.873613
-0.108695 0.0752907 0.87319
-0.107041 0.0756108 0.873147
-0.105403 0.0759408 0.873271
-0.10379 0.0762913 0.873698
-0.102202 0.076662 0.874421
-0.100596 0.0770212 0.874962
-0.0990173 0.0774041 0.875859
-0.0974368 0.0777875 0.876766
-0.0958453 0.0781652 0.877565
-0.0942392 0.0785323 0.878204
-0.0926294 0.0788985 0.87882
-0.0910017 0.0792483 0.879221
-0.0893984 0.0796252 0.87997
-0.0877939 0.0800023 0.880739
-0.0861837 0.0803765 0.881459
-0.0845649 0.0807451 0.882079
-0.0829408 0.0811087 0.882649
-0.069975 0.0815673 0.857609
-0.0683028 0.0818086 0.856576
-0.0666303 0.082043 0.855464
-0.0649472 0.0822551 0.854053
-0.0632223 0.0823923 0.851646
-0.0615047 0.0825267 0.849216
-0.0598027 0.082672 0.84696
-0.0581222 0.082841 0.845027
-0.056448 0.0830075 0.843089
-0.0548121 0.0832344 0.841979
-0.0531921 0.0834856 0.841187
-0.0515827 0.0837529 0.840614
-0.049966 0.0839981 0.839766
-0.0483606 0.0842631 0.83917
-0.0467573 0.0845268 0.838579
-0.0451458 0.0847628 0.837621
-0.043551 0.0850359 0.837154
-0.0419605 0.0853166 0.836788
-0.0403698 0.0855918 0.836355
-0.0387784 0.0858578 0.835811
-0.0371981 0.086159 0.835729
-0.0356118 0.0864327 0.835283
-0.0340307 0.0867227 0.835056
-0.0324506 0.0870119 0.834825
-0.03087 0.0872923 0.834472
-0.0292901 0.0875684 0.834083
-0.0277119 0.0878455 0.833705
-0.0261363 0.0881321 0.833447
-0.024561 0.0884118 0.83311
-0.0229881 0.0887058 0.83295
-0.021416 0.0889983 0.832768
-0.0198447 0.089292 0.832608
-0.0182741 0.0895886 0.832482
-0.016704 0.0899025 0.832566
-0.0151333 0.0902338 0.832854
-0.0135615 0.0905734 0.833241
-0.0119889 0.0909052 0.833545
-0.010416 0.0912364 0.833825
-0.00884418 0.0915475 0.833879
-0.00727288 0.0918579 0.833915
-0.00570266 0.092161 0.833866
-0.0041295 0.0924834 0.834049
-0.00255569 0.0928067 0.83424
-0.000976847 0.0931551 0.834714
0.000609204 0.0935291 0.835485
0.00221719 0.0939851 0.837194
0.00383569 0.0944614 0.839133
0.00548051 0.0950133 0.841909
0.00715709 0.0956459 0.845578
0.00884521 0.0962775 0.849226
0.0105259 0.0968547 0.852222
0.0122165 0.0974345 0.855227
0.0139013 0.0979726 0.857749
0.0155815 0.0984788 0.859896
0.0178559 0.0980934 0.870299
0.017255 0.0989534 0.86167
-0.121085 0.074979 0.877938
-0.119389 0.0752812 0.877589
-0.117667 0.075565 0.876961
-0.115892 0.0758106 0.875769
-0.114115 0.0760518 0.874525
-0.112336 0.0762881 0.873198
-0.110563 0.076524 0.871895
-0.108866 0.0768112 0.871368
-0.107214 0.0771294 0.871312
-0.105568 0.0774515 0.871325
-0.103948 0.0777944 0.871639
-0.102361 0.0781643 0.872345
-0.100757 0.0785222 0.872865
-0.0991815 0.0789061 0.87376
-0.0976132 0.0792985 0.874777
-0.0960414 0.0796909 0.87579
-0.094455 0.0800743 0.876652
-0.0928722 0.0804634 0.8776
-0.091265 0.080832 0.878255
-0.0896735 0.0812199 0.879154
-0.0880778 0.0816056 0.880033
-0.0864672 0.0819798 0.880733
-0.084841 0.0823396 0.881233
-0.0832088 0.0826944 0.881663
-0.0686475 0.0834582 0.857062
-0.0669723 0.0836895 0.855932
-0.0652756 0.0838816 0.854278
-0.0635435 0.0840062 0.851752
-0.0618203 0.0841299 0.849236
-0.0601174 0.0842724 0.846984
-0.0584317 0.0844302 0.844963
-0.0567597 0.0845999 0.843107
-0.0551231 0.0848257 0.841997
-0.0535022 0.0850755 0.841202
-0.0518885 0.0853342 0.840533
-0.0502704 0.0855762 0.839663
-0.048661 0.0858322 0.838965
-0.0470539 0.0860861 0.838263
-0.045442 0.0863196 0.837303
-0.0438443 0.0865842 0.836732
-0.0422532 0.0868626 0.836349
-0.0406601 0.0871282 0.835812
-0.0390663 0.0873846 0.835164
-0.0374847 0.0876786 0.834981
-0.0358987 0.0879494 0.834526
-0.0343182 0.0882384 0.834295
-0.0327404 0.0885359 0.834161
-0.0311616 0.0888238 0.833921
-0.0295837 0.0891101 0.833654
-0.0280066 0.0893945 0.833373
-0.0264308 0.0896808 0.833123
-0.0248557 0.0899614 0.8328
-0.0232829 0.0902568 0.832657
-0.0217106 0.0905503 0.832505
-0.0201392 0.0908454 0.832361
-0.0185685 0.09115 0.832335
-0.016998 0.0914721 0.832513
-0.0154269 0.091802 0.832789
-0.0138545 0.0921496 0.833259
-0.0122816 0.0924812 0.833547
-0.0107089 0.0928032 0.833723
-0.00913774 0.0931057 0.83367
-0.00756634 0.0934149 0.833695
-0.00599701 0.0937086 0.833547
-0.00442257 0.0940405 0.833829
-0.0028471 0.0943738 0.834132
-0.00126568 0.0947329 0.834726
0.000322751 0.0951192 0.835614
0.00193345 0.0955879 0.837438
0.00355215 0.0960679 0.839374
0.00519674 0.0966234 0.842138
0.00686832 0.0972435 0.84561
0.00855231 0.0978701 0.849128
0.0102288 0.0984403 0.851994
0.0119155 0.0990149 0.854887
0.0135962 0.099549 0.857313
0.015279 0.100068 0.859562
0.0169526 0.100546 0.86135
-0.121221 0.076498 0.875931
-0.119546 0.0768095 0.875762
-0.117839 0.0770997 0.875259
-0.116064 0.0773427 0.874055
-0.114282 0.0775767 0.87273
-0.112515 0.0778167 0.871512
-0.110755 0.0780574 0.870325
-0.10905 0.0783359 0.869692
-0.107389 0.078646 0.869525
-0.105745 0.0789673 0.869525
-0.104118 0.0793025 0.869726
-0.102524 0.0796651 0.870319
-0.100913 0.0800142 0.870726
-0.099338 0.080396 0.871585
-0.0977722 0.0807887 0.872591
-0.0962117 0.0811898 0.873703
-0.094638 0.0815821 0.874689
-0.0930839 0.081997 0.875974
-0.0914984 0.0823856 0.876891
-0.0899246 0.0827886 0.87801
-0.0883405 0.0831874 0.879028
-0.0867338 0.0835639 0.879767
-0.0851029 0.0839183 0.880177
-0.0706788 0.0848875 0.858771
-0.0690046 0.0851281 0.857773
-0.0673278 0.0853588 0.856654
-0.065626 0.0855436 0.854944
-0.0638903 0.0856627 0.852394
-0.0621636 0.0857808 0.849852
-0.0604539 0.0859112 0.847506
-0.0587622 0.0860591 0.845386
-0.0570881 0.086225 0.843525
-0.055446 0.0864415 0.842314
-0.0538167 0.0866749 0.841337
-0.0521984 0.0869246 0.840565
-0.0505786 0.0871637 0.83967
-0.0489648 0.0874094 0.838862
-0.0473539 0.0876538 0.838056
-0.0457415 0.0878863 0.83709
-0.0441399 0.0881395 0.8364
-0.0425434 0.0884 0.835816
-0.0409476 0.0886554 0.835156
-0.0393519 0.0889025 0.834407
-0.0377686 0.0891866 0.834119
-0.0361832 0.089456 0.833648
-0.0346034 0.0897435 0.833405
-0.0330262 0.0900394 0.833275
-0.03145 0.0903365 0.833142
-0.0298742 0.0906317 0.832994
-0.0282989 0.0909261 0.832844
-0.0267247 0.091222 0.832707
-0.025151 0.0915181 0.832581
-0.0235786 0.0918227 0.832547
-0.0220065 0.0921266 0.832511
-0.0204348 0.0924303 0.832479
-0.0188635 0.0927429 0.832546
-0.0172922 0.0930647 0.832712
-0.0157203 0.0933942 0.832975
-0.0141471 0.0937419 0.833445
-0.012574 0.0940659 0.83364
-0.0110012 0.0943811 0.833728
-0.00943046 0.0946743 0.833571
-0.00785965 0.094974 0.833496
-0.00629008 0.0952682 0.833349
-0.00471422 0.0956092 0.83373
-0.00313657 0.0959529 0.834146
-0.00155125 0.0963315 0.834951
4.36081e-05 0.0967457 0.836139
0.0016573 0.0972279 0.838075
0.00327916 0.0977217 0.840115
0.00492733 0.0982907 0.842986
0.00659438 0.0988986 0.846249
0.00827073 0.0995037 0.849464
0.00994112 0.100057 0.852098
0.011624 0.100625 0.854873
0.0132988 0.101146 0.857113
0.0149812 0.101669 0.859366
0.0166508 0.102141 0.861051
-0.123067 0.0777225 0.874459
-0.121383 0.0780275 0.874184
-0.119706 0.0783358 0.873967
-0.117993 0.0786189 0.873384
-0.116212 0.0788532 0.872097
-0.114446 0.0790939 0.87092
-0.112704 0.0793482 0.86994
-0.110967 0.0796027 0.868981
-0.109273 0.0798871 0.868448
-0.107614 0.0801963 0.868287
-0.105969 0.0805154 0.868267
-0.104335 0.0808435 0.868365
-0.102724 0.0811906 0.868738
-0.101105 0.0815323 0.869027
-0.0995149 0.0818994 0.869671
-0.097942 0.0822841 0.870551
-0.0963762 0.0826782 0.871559
-0.0948148 0.0830803 0.872659
-0.0932815 0.0835135 0.874177
-0.0917238 0.0839279 0.87543
-0.0901706 0.0843517 0.876798
-0.0886028 0.0847662 0.878023
-0.0869987 0.0851452 0.878782
-0.0853676 0.0854977 0.879172
-0.0710375 0.0865609 0.859461
-0.0693628 0.0868019 0.858494
-0.0676801 0.0870251 0.857299
-0.0659736 0.0872035 0.855538
-0.0642342 0.0873166 0.852961
-0.0625042 0.0874284 0.8504
-0.0607881 0.0875481 0.847956
-0.0590898 0.0876842 0.845728
-0.0574133 0.0878457 0.843854
-0.0557649 0.0880509 0.842522
-0.0541271 0.0882675 0.841351
-0.0525075 0.0885143 0.840568
-0.05089 0.0887594 0.839764
-0.0492722 0.0889961 0.838859
-0.0476574 0.0892311 0.837954
-0.0460437 0.08946 0.836975
-0.0444357 0.089695 0.83608
-0.0428364 0.0899463 0.835383
-0.0412377 0.090191 0.834615
-0.0396395 0.0904267 0.833758
-0.0380542 0.0907007 0.833354
-0.0364693 0.090969 0.832883
-0.0348884 0.0912479 0.832542
-0.0333138 0.0915519 0.832509
-0.0317398 0.0918573 0.832482
-0.0301658 0.0921612 0.832449
-0.0285922 0.0924654 0.832413
-0.0270191 0.09277 0.832379
-0.0254461 0.0930741 0.832353
-0.0238742 0.0933869 0.83242
-0.0223022 0.0936997 0.832487
-0.0207303 0.0940125 0.832554
-0.0191584 0.0943253 0.832621
-0.0175864 0.0946381 0.832687
-0.0160146 0.0949603 0.832855
-0.0144413 0.095301 0.833237
-0.0128684 0.0956173 0.833345
-0.0112958 0.0959327 0.833433
-0.00972324 0.0962419 0.833462
-0.00815116 0.0965512 0.833487
-0.00657978 0.0968548 0.83345
-0.00500053 0.0972139 0.83403
-0.00341912 0.097577 0.834642
-0.0018309 0.0979673 0.835556
-0.000230725 0.098403 0.836963
0.00138654 0.0988997 0.839017
0.00301238 0.0994073 0.84117
0.00466214 0.0999833 0.844054
0.00632583 0.100578 0.84712
0.00799488 0.101159 0.85002
0.00966198 0.101704 0.852518
0.0113392 0.102258 0.855086
0.0130114 0.102774 0.857237
0.0146906 0.103291 0.859388
0.0163596 0.103763 0.861048
-0.124797 0.078874 0.87195
-0.123167 0.0792114 0.872163
-0.121505 0.0795274 0.872067
-0.119831 0.0798342 0.87185
-0.118123 0.0801174 0.871293
-0.116368 0.0803658 0.870238
-0.114628 0.080621 0.869299
-0.112901 0.0808833 0.868468
-0.111177 0.0811447 0.86763
-0.109487 0.0814283 0.867121
-0.10783 0.0817375 0.866957
-0.106177 0.0820491 0.866833
-0.104543 0.082375 0.866917
-0.102926 0.082715 0.867189
-0.1013 0.0830485 0.867366
-0.0997005 0.0834059 0.867875
-0.0981204 0.0837826 0.868634
-0.0965573 0.084178 0.869635
-0.0950152 0.0845964 0.870948
-0.0934953 0.0850421 0.872603
-0.091956 0.085474 0.874068
-0.0904279 0.0859232 0.875753
-0.0888775 0.0863554 0.8772
-0.0872779 0.0867403 0.878007
-0.0856639 0.087112 0.878636
-0.0714027 0.0882454 0.86026
-0.0697361 0.0885011 0.859483
-0.0680567 0.0887314 0.858405
-0.0663423 0.0888993 0.856546
-0.0645943 0.0889995 0.853853
-0.0628512 0.08909 0.851072
-0.061123 0.0891882 0.848412
-0.0594094 0.0892955 0.845881
-0.05773 0.0894512 0.84397
-0.0560795 0.0896517 0.842614
-0.0544367 0.0898578 0.841337
-0.0528126 0.0900956 0.840452
-0.0511978 0.0903472 0.839742
-0.049576 0.0905739 0.83875
-0.0479582 0.0908016 0.837766
-0.0463464 0.0910359 0.836865
-0.0447376 0.0912686 0.835963
-0.0431349 0.0915101 0.835166
-0.0415332 0.0917445 0.834295
-0.0399321 0.0919693 0.833327
-0.0383426 0.0922256 0.832723
-0.036756 0.0924844 0.832155
-0.0351739 0.0927545 0.831725
-0.0336002 0.0930588 0.831699
-0.0320283 0.0933716 0.831766
-0.0304564 0.0936843 0.831832
-0.0288845 0.0939971 0.831899
-0.0273126 0.0943099 0.831966
-0.0257406 0.0946227 0.832033
-0.0241687 0.0949355 0.8321
-0.0225968 0.0952483 0.832167
-0.0210248 0.0955611 0.832234
-0.0194529 0.0958739 0.832301
-0.017881 0.0961867 0.832368
-0.0163091 0.0965095 0.832538
-0.0147361 0.0968504 0.832915
-0.0131631 0.0971669 0.83303
-0.0115899 0.0974896 0.833198
-0.0100157 0.0978177 0.833428
-0.00844177 0.0981379 0.833574
-0.00686709 0.0984611 0.833759
-0.00528452 0.0988412 0.834542
-0.00369887 0.0992243 0.835363
-0.00210878 0.0996174 0.836294
-0.000507116 0.100059 0.837722
0.00110986 0.100551 0.839695
0.0027351 0.101054 0.841766
0.00438301 0.101626 0.844546
0.00604494 0.102218 0.847524
0.00771104 0.102791 0.850296
0.00937741 0.103337 0.852759
0.0110541 0.103893 0.855302
0.0127237 0.104403 0.857357
0.0144001 0.104915 0.859422
0.0160715 0.105397 0.861153
0.0183345 0.105024 0.870986
0.0177591 0.105909 0.863178
-0.124905 0.0803648 0.869765
-0.123272 0.080697 0.869914
-0.121625 0.0810203 0.869938
-0.119949 0.0813232 0.869682
-0.118247 0.0816071 0.869148
-0.116527 0.0818756 0.868423
-0.114811 0.0821448 0.867705
-0.113098 0.0824139 0.866994
-0.111397 0.0826905 0.866382
-0.109709 0.0829737 0.865887
-0.108045 0.083275 0.865623
-0.106393 0.0835849 0.865492
-0.104751 0.0839032 0.865466
-0.103126 0.0842348 0.865625
-0.101492 0.0845593 0.865692
-0.0998858 0.0849086 0.866084
-0.0983067 0.085284 0.866824
-0.096753 0.0856867 0.867909
-0.0952158 0.0861088 0.869249
-0.0937144 0.0865724 0.871108
-0.0921866 0.0870155 0.872699
-0.0906696 0.0874767 0.874502
-0.0891304 0.0879212 0.876079
-0.0875421 0.0883178 0.877022
-0.0859319 0.0886918 0.877691
-0.0717385 0.0898897 0.860512
-0.0700712 0.0901448 0.859746
-0.0683961 0.0903827 0.858774
-0.0666806 0.0905489 0.856926
-0.0649302 0.0906437 0.85423
-0.0631841 0.0907277 0.851429
-0.0614526 0.0908196 0.848741
-0.0597278 0.0909056 0.845996
-0.0580422 0.0910486 0.843968
-0.0563861 0.0912376 0.842496
-0.0547417 0.0914395 0.841203
-0.0531139 0.0916684 0.840231
-0.0515023 0.0919275 0.839625
-0.0498833 0.0921613 0.838735
-0.0482649 0.0923883 0.837757
-0.0466521 0.0926204 0.83686
-0.0450454 0.0928606 0.836057
-0.0434418 0.0931005 0.835261
-0.0418344 0.0933176 0.83421
-0.0402325 0.0935405 0.833223
-0.0386397 0.0937847 0.832502
-0.0370507 0.0940337 0.831829
-0.0354667 0.0942945 0.831312
-0.0338948 0.0946073 0.831379
-0.0323228 0.0949201 0.831446
-0.0307509 0.0952329 0.831513
-0.029179 0.0955457 0.83158
-0.0276071 0.0958585 0.831646
-0.0260352 0.0961713 0.831713
-0.0244632 0.096484 0.83178
-0.0228913 0.0967968 0.831847
-0.0213194 0.0971096 0.831914
-0.0197474 0.0974224 0.831981
-0.0181755 0.0977352 0.832048
-0.0166036 0.0980575 0.832216
-0.015031 0.0983897 0.832486
-0.0134581 0.0987134 0.83267
-0.0118842 0.0990448 0.832941
-0.010309 0.0993856 0.833306
-0.00873256 0.0997279 0.833682
-0.00715369 0.100082 0.834194
-0.00556834 0.100474 0.835097
-0.00397995 0.100869 0.836023
-0.00238677 0.101275 0.837066
-0.000783722 0.101719 0.838498
0.000830505 0.102196 0.840267
0.00245572 0.102699 0.8423
0.004102 0.103263 0.844962
0.00576164 0.103851 0.847844
0.00742328 0.104411 0.85043
0.00909196 0.104971 0.852981
0.0107655 0.105519 0.85541
0.0124352 0.106033 0.857468
0.0141087 0.10654 0.859439
0.0157838 0.107034 0.861271
0.0174719 0.10755 0.863306
-0.126644 0.081519 0.867458
-0.125037 0.0818658 0.867817
-0.123405 0.0821967 0.867952
-0.121767 0.0825232 0.868035
-0.120082 0.082817 0.867659
-0.118385 0.083101 0.867157
-0.116689 0.0833836 0.866637
-0.114986 0.0836596 0.866039
-0.113287 0.083936 0.865442
-0.111598 0.0842184 0.864943
-0.10992 0.0845076 0.864538
-0.108247 0.0847994 0.864164
-0.106596 0.0851078 0.864016
-0.104946 0.0854163 0.863881
-0.103314 0.0857406 0.863938
-0.101673 0.0860562 0.863895
-0.10006 0.0863961 0.86417
-0.0984738 0.0867641 0.864792
-0.0969237 0.0871675 0.865884
-0.0953902 0.0875921 0.867229
-0.093894 0.0880597 0.869113
-0.092385 0.0885214 0.870906
-0.090885 0.0889996 0.872903
-0.0893527 0.0894505 0.874537
-0.0877796 0.0898628 0.875666
-0.0861918 0.0902626 0.87663
-0.072063 0.0915188 0.86055
-0.0703968 0.0917758 0.859819
-0.0687233 0.0920168 0.858898
-0.0670114 0.0921875 0.857151
-0.0652592 0.0922782 0.854453
-0.0635146 0.0923638 0.851727
-0.0617811 0.0924511 0.849035
-0.0600537 0.0925306 0.846281
-0.0583624 0.0926625 0.844154
-0.0567003 0.0928392 0.842572
-0.0550511 0.0930308 0.841179
-0.053419 0.09325 0.840115
-0.0518072 0.0935091 0.839515
-0.0501909 0.09375 0.838727
-0.0485747 0.0939833 0.837847
-0.0469616 0.0942161 0.836962
-0.0453568 0.0944635 0.836267
-0.0437526 0.0947043 0.835494
-0.0421464 0.0949282 0.834532
-0.040545 0.0951566 0.833627
-0.0389506 0.0953991 0.832897
-0.0373579 0.095637 0.832116
-0.0357707 0.0958877 0.831483
-0.0341944 0.096182 0.831346
-0.0326188 0.0964772 0.831219
-0.0310454 0.0967815 0.831193
-0.0294736 0.0970942 0.83126
-0.0279016 0.097407 0.831327
-0.0263297 0.0977198 0.831393
-0.0247578 0.0980326 0.83146
-0.0231858 0.0983454 0.831527
-0.0216139 0.0986582 0.831594
-0.020042 0.098971 0.831661
-0.01847 0.0992838 0.831728
-0.016898 0.0996143 0.831981
-0.0153254 0.0999459 0.832249
-0.013752 0.100279 0.832529
-0.0121772 0.100621 0.832911
-0.0105998 0.100983 0.833488
-0.00902159 0.10134 0.834011
-0.00743944 0.101715 0.834731
-0.00585152 0.102119 0.835746
-0.00426024 0.102527 0.836784
-0.00266425 0.102943 0.837919
-0.00105963 0.10339 0.83935
0.000551706 0.103848 0.840891
0.00217664 0.104349 0.842861
0.00382048 0.104904 0.845391
0.00547641 0.105479 0.848091
0.00713384 0.106029 0.850516
0.00880277 0.106592 0.853068
0.0104758 0.107145 0.855491
0.0121463 0.107663 0.857565
0.0138172 0.108165 0.859452
0.0154931 0.108665 0.861312
0.0171808 0.109182 0.863334
-0.128417 0.0826943 0.86552
-0.126828 0.0830509 0.866008
-0.125217 0.083394 0.866311
-0.123582 0.0837215 0.866406
-0.12196 0.084058 0.866622
-0.120279 0.0843518 0.866266
-0.118585 0.0846359 0.865781
-0.116893 0.0849188 0.865282
-0.115192 0.0851936 0.864685
-0.113484 0.0854606 0.863994
-0.111797 0.0857418 0.863486
-0.110111 0.0860224 0.862982
-0.108429 0.0863035 0.862493
-0.106769 0.0866026 0.862227
-0.105112 0.0869018 0.861974
-0.103482 0.0872241 0.862029
-0.101852 0.0875464 0.862078
-0.100242 0.0878882 0.862365
-0.0986656 0.0882629 0.863074
-0.0971263 0.0886756 0.864266
-0.0955963 0.0891029 0.865623
-0.0941025 0.0895728 0.867505
-0.0926115 0.0900531 0.8695
-0.0911153 0.0905354 0.871515
-0.0895862 0.0909895 0.873162
-0.0880177 0.0914062 0.874326
-0.0723654 0.0931159 0.860187
-0.0706996 0.0933717 0.85947
-0.0690307 0.0936191 0.85864
-0.0673234 0.0937957 0.857001
-0.0655759 0.0938919 0.854424
-0.0638357 0.0939834 0.851816
-0.0621056 0.0940764 0.849234
-0.0603772 0.0941526 0.846493
-0.0586842 0.094281 0.844368
-0.0570166 0.0944463 0.842686
-0.0553658 0.0946348 0.841281
-0.0537286 0.0948429 0.840115
-0.0521126 0.095092 0.839422
-0.0504958 0.0953326 0.838627
-0.048879 0.0955646 0.837755
-0.0472656 0.0957964 0.836885
-0.0456632 0.0960524 0.836288
-0.044061 0.0963009 0.83562
-0.0424541 0.0965245 0.834671
-0.0408543 0.0967617 0.833881
-0.0392587 0.0970027 0.833147
-0.0376666 0.0972475 0.83245
-0.0360759 0.097487 0.831709
-0.0344966 0.0977704 0.831451
-0.0329183 0.0980538 0.8312
-0.0313427 0.0983474 0.83106
-0.0297683 0.0986437 0.83094
-0.0281963 0.0989565 0.831007
-0.0266244 0.0992693 0.831073
-0.0250525 0.0995821 0.83114
-0.0234805 0.0998949 0.831207
-0.0219086 0.100208 0.831274
-0.020337 0.100529 0.831434
-0.0187649 0.100843 0.831509
-0.0171927 0.101174 0.831772
-0.0156196 0.101516 0.832141
-0.0140451 0.101868 0.832624
-0.0124691 0.102224 0.83313
-0.0108895 0.102607 0.833928
-0.00930835 0.102983 0.834638
-0.00772482 0.10336 0.835359
-0.00613575 0.103767 0.836376
-0.00454323 0.104175 0.837406
-0.00294592 0.104595 0.838553
-0.00134336 0.105024 0.839787
0.000266369 0.105473 0.841201
0.00188753 0.105955 0.842955
0.00352623 0.106493 0.845261
0.00517958 0.107063 0.847871
0.00683892 0.107626 0.85039
0.0085103 0.108205 0.853054
0.0101866 0.108772 0.855588
0.0118602 0.109306 0.85777
0.0135287 0.109801 0.859567
0.0152079 0.110314 0.861519
0.0168921 0.110824 0.863432
-0.130152 0.0838456 0.863294
-0.12858 0.0842113 0.863914
-0.126995 0.0845692 0.864417
-0.125374 0.0849031 0.864611
-0.12374 0.0852298 0.864689
-0.122116 0.0855628 0.864866
-0.120438 0.0858568 0.864518
-0.118757 0.0861462 0.86413
-0.117074 0.0864337 0.863712
-0.115365 0.0866989 0.863011
-0.113649 0.0869573 0.862222
-0.111964 0.0872365 0.861716
-0.110271 0.0875073 0.861102
-0.108571 0.0877706 0.860395
-0.106912 0.0880664 0.860109
-0.105256 0.0883632 0.859841
-0.10363 0.0886862 0.859902
-0.102005 0.0890099 0.859983
-0.100415 0.0893667 0.860467
-0.0988431 0.0897437 0.861196
-0.0973143 0.0901656 0.862482
-0.0957947 0.0906021 0.863933
-0.0943041 0.0910744 0.865819
-0.0928154 0.0915567 0.867806
-0.091329 0.0920505 0.869911
-0.0897943 0.0924973 0.871447
-0.0882282 0.0929148 0.872608
-0.072709 0.0947748 0.860561
-0.0710394 0.0950268 0.859798
-0.069354 0.0952478 0.858684
-0.0676516 0.0954319 0.857161
-0.0659081 0.095534 0.854697
-0.0641678 0.0956246 0.85213
-0.0624367 0.0957143 0.849571
-0.0607073 0.0957889 0.846847
-0.0590041 0.0958963 0.84453
-0.0573305 0.0960487 0.842735
-0.0556773 0.0962323 0.841299
-0.0540351 0.0964286 0.840021
-0.0524147 0.0966675 0.839224
-0.0508002 0.0969137 0.838519
-0.0491831 0.0971452 0.837649
-0.0475692 0.0973762 0.83678
-0.0459691 0.0976401 0.836289
-0.0443688 0.0978963 0.835709
-0.0427635 0.0981273 0.834868
-0.0411656 0.0983741 0.834201
-0.0395696 0.0986184 0.833508
-0.0379784 0.0988717 0.832918
-0.0363858 0.0991087 0.832159
-0.0348012 0.0993718 0.831687
-0.03322 0.0996431 0.831309
-0.0316418 0.099925 0.83104
-0.030064 0.100201 0.830713
-0.0284909 0.100505 0.830687
-0.0269189 0.100818 0.830754
-0.025347 0.101131 0.830821
-0.0237751 0.101443 0.830887
-0.0222031 0.101756 0.830954
-0.0206318 0.102087 0.831215
-0.0190597 0.102411 0.831393
-0.0174872 0.102754 0.831772
-0.0159135 0.103108 0.832261
-0.0143376 0.103483 0.832965
-0.01276 0.10385 0.833582
-0.0111794 0.104236 0.834388
-0.00959731 0.104612 0.835089
-0.00801205 0.104998 0.835883
-0.0064231 0.105395 0.836787
-0.00482973 0.105804 0.83781
-0.00323144 0.106227 0.83896
-0.00162964 0.106649 0.8401
-2.26164e-05 0.107082 0.841337
0.00159453 0.107545 0.842877
0.00322648 0.108057 0.844879
0.00487373 0.10861 0.847272
0.00653409 0.109184 0.849873
0.00820724 0.109779 0.85265
0.00988892 0.110373 0.855408
0.0115718 0.110942 0.857905
0.013247 0.111463 0.859911
0.0149261 0.111976 0.86184
0.0166062 0.112476 0.863622
-0.131886 0.0849956 0.861132
-0.130303 0.0853516 0.861614
-0.128727 0.0857131 0.862169
-0.127136 0.0860656 0.862606
-0.125512 0.086396 0.862745
-0.123871 0.0867144 0.86273
-0.12225 0.0870471 0.862909
-0.120574 0.0873398 0.862557
-0.118894 0.0876277 0.862159
-0.117212 0.0879124 0.861728
-0.115505 0.0881748 0.861014
-0.1138 0.0884378 0.860313
-0.112127 0.0887238 0.8599
-0.110436 0.0889939 0.859296
-0.108739 0.089255 0.858591
-0.10708 0.0895471 0.858282
-0.105417 0.0898352 0.85791
-0.103785 0.0901498 0.85788
-0.102166 0.0904758 0.857982
-0.100581 0.0908348 0.858496
-0.0990125 0.0912126 0.859232
-0.0974867 0.0916357 0.860517
-0.0959703 0.0920745 0.861967
-0.09449 0.0925569 0.863942
-0.0930046 0.093042 0.86593
