ply
format ascii 1.0
element vertex 1783
property float x
property float y
property float z
end_header
0.21226 0.205919 0.792513
0.215299 0.207874 0.799005
0.0982257 0.173136 0.857012
0.096662 0.172581 0.857091
0.0960644 0.174049 0.856515
0.0976134 0.174581 0.856291
0.0991892 0.175158 0.856337
0.100753 0.175715 0.856257
0.102295 0.176232 0.855947
0.103811 0.176706 0.855385
0.105339 0.177199 0.854939
0.106846 0.177662 0.85431
0.108344 0.178111 0.853605
0.109861 0.17859 0.853083
0.111342 0.179015 0.852243
0.112807 0.179417 0.851278
0.114268 0.179814 0.850295
0.115741 0.180234 0.849437
0.117226 0.180674 0.848704
0.11875 0.181172 0.848299
0.120275 0.181675 0.847922
0.121749 0.1821 0.847113
0.123239 0.182554 0.846458
0.124686 0.182944 0.845461
0.126043 0.183212 0.84378
0.12735 0.183412 0.841733
0.128617 0.183563 0.839431
0.129822 0.183636 0.836706
0.130985 0.18366 0.833732
0.13217 0.183722 0.830982
0.13335 0.183786 0.828256
0.134521 0.183844 0.825516
0.135643 0.183847 0.822492
0.136728 0.183809 0.819265
0.137786 0.183747 0.815924
0.138862 0.183715 0.812769
0.140009 0.183783 0.810169
0.14122 0.183939 0.808048
0.142506 0.184195 0.806472
0.143859 0.184539 0.80537
0.145237 0.184914 0.804445
0.146618 0.185295 0.803552
0.148031 0.185716 0.802872
0.149444 0.18614 0.80221
0.15084 0.186543 0.801441
0.152216 0.186925 0.800567
0.153571 0.187283 0.799573
0.154911 0.187625 0.7985
0.156245 0.187963 0.797407
0.157574 0.188297 0.796302
0.158916 0.188647 0.795289
0.160274 0.189019 0.794384
0.161636 0.189396 0.793514
0.16303 0.189811 0.792839
0.164473 0.190282 0.792451
0.165921 0.190757 0.792086
0.167421 0.191293 0.792019
0.169027 0.191943 0.792531
0.170662 0.192624 0.79319
0.172321 0.193326 0.793957
0.17396 0.194006 0.794598
0.175591 0.194676 0.795187
0.177173 0.19529 0.795494
0.178743 0.195891 0.795733
0.180279 0.196455 0.795785
0.181809 0.197011 0.795801
0.183261 0.197485 0.795415
0.184671 0.197917 0.794817
0.186097 0.198365 0.794307
0.187568 0.19886 0.794022
0.189106 0.199424 0.794071
0.190687 0.200029 0.794318
0.192303 0.20067 0.794732
0.194058 0.201448 0.795799
0.195934 0.202345 0.797419
0.197822 0.20325 0.799073
0.199777 0.204216 0.801004
0.201659 0.205105 0.802559
0.203346 0.2058 0.803187
0.204857 0.206323 0.802998
0.206277 0.206756 0.802393
0.207481 0.206982 0.800819
0.208581 0.207111 0.798797
0.211438 0.208921 0.804606
0.0938343 0.174833 0.855257
0.0954195 0.175433 0.855438
0.0969785 0.175984 0.85533
0.0985531 0.176562 0.855376
0.100117 0.177119 0.855306
0.10167 0.177655 0.855111
0.103192 0.178142 0.854617
0.104732 0.178656 0.854296
0.106252 0.179138 0.853783
0.107772 0.179623 0.85329
0.109303 0.180124 0.852892
0.110785 0.180549 0.852063
0.112263 0.180969 0.851204
0.113736 0.181384 0.850317
0.11522 0.181816 0.849546
0.116709 0.18226 0.848832
0.118248 0.182781 0.848551
0.119774 0.183281 0.848165
0.121263 0.18373 0.84748
0.122771 0.184204 0.84695
0.124251 0.184641 0.846209
0.12565 0.184962 0.844834
0.127011 0.185233 0.843188
0.128215 0.185287 0.840367
0.129348 0.185252 0.837068
0.130422 0.185145 0.833399
0.131507 0.185063 0.82989
0.132591 0.184993 0.826461
0.133776 0.185066 0.82383
0.134901 0.185069 0.820832
0.135998 0.185042 0.817692
0.137069 0.184991 0.814442
0.138145 0.184955 0.811295
0.139294 0.185021 0.808706
0.140521 0.185195 0.806703
0.141823 0.18547 0.805238
0.143193 0.185833 0.804251
0.144587 0.186228 0.803438
0.145985 0.18663 0.802658
0.147412 0.187069 0.802078
0.148826 0.187493 0.801421
0.150204 0.187874 0.800547
0.151557 0.188228 0.79953
0.152891 0.188558 0.798405
0.154193 0.188855 0.797107
0.155512 0.189175 0.795933
0.156844 0.189512 0.794852
0.158187 0.189864 0.793857
0.159564 0.190257 0.793069
0.16096 0.190674 0.792404
0.162375 0.191112 0.791855
0.163836 0.191604 0.791572
0.165298 0.192096 0.791293
0.166794 0.192628 0.791212
0.168366 0.193242 0.791538
0.169965 0.193885 0.792004
0.171602 0.194567 0.792664
0.173202 0.195209 0.793111
0.174796 0.195841 0.793511
0.176392 0.196473 0.793905
0.177996 0.197112 0.794332
0.179503 0.197647 0.794244
0.181031 0.198203 0.794259
0.182474 0.19867 0.793836
0.183839 0.199054 0.79302
0.185226 0.199463 0.792326
0.186729 0.199992 0.792214
0.188246 0.200537 0.792171
0.189825 0.201145 0.792424
0.191438 0.201784 0.792835
0.193209 0.202584 0.793994
0.195123 0.203524 0.795817
0.197093 0.204517 0.797867
0.199131 0.205572 0.800201
0.201119 0.206571 0.802262
0.202916 0.207377 0.803403
0.204524 0.207994 0.803651
0.20602 0.2085 0.803384
0.207273 0.20877 0.802019
0.210091 0.210559 0.807686
0.0931951 0.176221 0.854218
0.0947647 0.176794 0.854246
0.0963297 0.177359 0.854215
0.0979051 0.177939 0.85428
0.0994787 0.178515 0.854316
0.101043 0.179074 0.854246
0.102585 0.179593 0.853955
0.104137 0.18013 0.85376
0.105668 0.180629 0.853353
0.107199 0.181133 0.852965
0.108742 0.181653 0.852673
0.110227 0.182081 0.851863
0.111716 0.182518 0.851101
0.113211 0.182964 0.850406
0.114701 0.183405 0.849673
0.116193 0.183851 0.848979
0.117756 0.184408 0.848899
0.119283 0.184907 0.848503
0.120786 0.185372 0.847915
0.122309 0.185868 0.8475
0.123806 0.186327 0.846883
0.125222 0.186669 0.845624
0.126616 0.186982 0.844219
0.127789 0.186984 0.841126
0.128805 0.186773 0.836902
0.129736 0.186457 0.83213
0.130673 0.186166 0.827525
0.131725 0.186046 0.823865
0.132921 0.186134 0.821335
0.134085 0.186184 0.818626
0.135212 0.186194 0.815712
0.136312 0.186177 0.812675
0.137408 0.186161 0.809664
0.138572 0.186245 0.80719
0.139826 0.186453 0.805378
0.141142 0.186742 0.804009
0.142541 0.187143 0.803223
0.143968 0.187579 0.802632
0.145396 0.188018 0.802052
0.146839 0.188477 0.801575
0.148252 0.188898 0.800909
0.149613 0.189258 0.799929
0.150933 0.189568 0.798701
0.152246 0.189873 0.797452
0.153531 0.190149 0.796055
0.154851 0.190469 0.794891
0.156187 0.190809 0.793837
0.15755 0.191184 0.792962
0.158929 0.191578 0.792189
0.160357 0.192032 0.791716
0.161807 0.192511 0.791368
0.163272 0.193007 0.791107
0.164733 0.193498 0.790825
0.166224 0.194024 0.790712
0.167739 0.194576 0.790728
0.169296 0.195175 0.790973
0.170911 0.195837 0.791521
0.172474 0.196438 0.791772
0.174031 0.197032 0.791985
0.17562 0.197661 0.792359
0.177191 0.198268 0.792624
0.178679 0.198783 0.792447
0.180204 0.199338 0.792459
0.181642 0.1998 0.792023
0.182989 0.200166 0.791126
0.184372 0.200572 0.790423
0.185892 0.201122 0.790411
0.187407 0.201666 0.790368
0.189001 0.202292 0.79071
0.19065 0.202973 0.791311
0.192442 0.203798 0.792582
0.19438 0.204768 0.794531
0.196409 0.205826 0.796874
0.198508 0.206949 0.799508
0.200559 0.208018 0.801871
0.202465 0.208935 0.803518
0.204164 0.209643 0.804183
0.205752 0.21024 0.80433
0.207094 0.210593 0.803354
0.0909792 0.177014 0.853038
0.0925367 0.177568 0.852959
0.0941102 0.178151 0.853044
0.0956829 0.178732 0.85311
0.0972465 0.179295 0.853069
0.0988103 0.179856 0.853019
0.100375 0.180418 0.852968
0.101927 0.180957 0.852793
0.103489 0.181512 0.852704
0.105042 0.18205 0.852518
0.106595 0.182591 0.852342
0.108148 0.183129 0.852156
0.109655 0.183591 0.851538
0.111157 0.184047 0.850891
0.112667 0.184515 0.850322
0.114183 0.184997 0.849819
0.115691 0.185465 0.84925
0.117257 0.186025 0.84918
0.118781 0.18652 0.848754
0.120281 0.18698 0.848137
0.121798 0.187465 0.847664
0.123313 0.187946 0.847172
0.124753 0.18832 0.846096
0.126186 0.188686 0.844982
0.127226 0.188487 0.840827
0.128124 0.188098 0.835679
0.128939 0.18761 0.830023
0.129815 0.187224 0.824955
0.130877 0.187114 0.821384
0.132097 0.187232 0.819044
0.133266 0.187287 0.816388
0.134425 0.187337 0.813716
0.135572 0.187379 0.811014
0.1367 0.187404 0.808236
0.137895 0.187524 0.805976
0.139177 0.187763 0.80435
0.14052 0.188088 0.803174
0.141922 0.188491 0.802411
0.143352 0.188931 0.801838
0.14478 0.189371 0.801263
0.146222 0.189828 0.800785
0.147619 0.190229 0.800021
0.148996 0.190607 0.79914
0.150303 0.190901 0.797836
0.151616 0.191206 0.796592
0.152904 0.191481 0.795206
0.154225 0.1918 0.794048
0.155561 0.19214 0.793003
0.156953 0.192549 0.792302
0.158347 0.192961 0.79162
0.159792 0.193433 0.791245
0.161258 0.193931 0.790992
0.162726 0.19443 0.790746
0.164185 0.19492 0.790455
0.165657 0.195425 0.790238
0.167133 0.195933 0.790038
0.168649 0.196487 0.790059
0.170239 0.197122 0.790474
0.171764 0.197685 0.790532
0.173285 0.198241 0.790558
0.174852 0.198847 0.790824
0.176396 0.199426 0.790956
0.177844 0.199901 0.790586
0.179348 0.200436 0.790503
0.1808 0.200914 0.790152
0.182168 0.201303 0.789373
0.183557 0.201716 0.788709
0.185095 0.202288 0.788799
0.186607 0.20283 0.788753
0.188217 0.203475 0.789183
0.189904 0.204198 0.789979
0.191738 0.205072 0.791468
0.193699 0.206071 0.793537
0.195801 0.207211 0.79624
0.197941 0.208383 0.799079
0.200057 0.209523 0.801752
0.202052 0.210534 0.803814
0.20386 0.211353 0.804979
0.205535 0.212036 0.805514
0.208583 0.214081 0.81227
0.0903183 0.178347 0.851721
0.0918765 0.178908 0.851672
0.0934491 0.179494 0.851766
0.0950267 0.180086 0.8519
0.0965984 0.180665 0.851956
0.09817 0.181243 0.852002
0.0997343 0.181807 0.851961
0.101287 0.182347 0.851795
0.102848 0.182904 0.851715
0.104402 0.183447 0.851549
0.105956 0.183988 0.851383
0.107519 0.184545 0.851303
0.109039 0.185028 0.85081
0.110565 0.185523 0.850384
0.112101 0.186036 0.850055
0.113643 0.186557 0.849773
0.115165 0.187047 0.849319
0.116741 0.187622 0.849335
0.118268 0.188118 0.848919
0.119762 0.188567 0.848244
0.121275 0.189044 0.847723
0.122793 0.189531 0.84726
0.125743 0.190377 0.845654
0.126732 0.190093 0.841073
0.128966 0.188284 0.822438
0.130061 0.188215 0.819118
0.13132 0.188387 0.817087
0.132507 0.188464 0.814567
0.133696 0.188553 0.812121
0.134876 0.188635 0.809653
0.136036 0.188698 0.807102
0.137248 0.188837 0.804958
0.138545 0.189096 0.803446
0.13989 0.189422 0.802284
0.141292 0.189824 0.80152
0.14272 0.190263 0.800945
0.144147 0.190699 0.800361
0.145587 0.191155 0.799876
0.146999 0.191575 0.79921
0.148392 0.191972 0.798437
0.149719 0.192289 0.797256
0.151053 0.192617 0.79614
0.152356 0.192908 0.794845
0.153691 0.193243 0.793773
0.155027 0.193582 0.792722
0.15642 0.19399 0.792022
0.157811 0.194397 0.791321
0.159255 0.194868 0.790936
0.160706 0.195347 0.790595
0.162174 0.195847 0.790353
0.163635 0.196339 0.79007
0.16509 0.196824 0.789756
0.166531 0.197293 0.789362
0.16801 0.197805 0.789181
0.169561 0.198399 0.789392
0.171051 0.198923 0.789265
0.172549 0.199456 0.78918
0.174093 0.200039 0.789334
0.17561 0.200591 0.789336
0.177032 0.201037 0.788835
0.178528 0.201566 0.788727
0.179985 0.202052 0.788413
0.181373 0.202463 0.787747
0.182783 0.202899 0.787199
0.184321 0.203472 0.787298
0.185813 0.203995 0.787159
0.187419 0.20464 0.787587
0.189127 0.205388 0.788492
0.190963 0.206269 0.790007
0.192979 0.207332 0.792354
0.195156 0.208557 0.795433
0.197356 0.209797 0.798561
0.19954 0.211014 0.801565
0.201621 0.212117 0.80403
0.203496 0.213008 0.805508
0.20522 0.21374 0.806259
0.0881508 0.17922 0.851023
0.089681 0.179725 0.850666
0.091222 0.180254 0.850433
0.0927772 0.180808 0.850355
0.0943458 0.181388 0.850411
0.0959136 0.181963 0.850448
0.0974925 0.182559 0.85059
0.0990624 0.183135 0.850627
0.100624 0.183696 0.850566
0.102195 0.184271 0.850593
0.103757 0.184829 0.850523
0.105312 0.185375 0.850376
0.106877 0.185935 0.850316
0.108408 0.186438 0.849938
0.109948 0.186958 0.849647
0.111509 0.187513 0.849548
0.113075 0.188072 0.849477
0.114621 0.1886 0.849234
0.116199 0.189178 0.849259
0.117738 0.189694 0.848948
0.119233 0.19014 0.848265
0.120748 0.190621 0.847763
0.12226 0.191098 0.847241
0.127168 0.189629 0.824395
0.128071 0.189268 0.819554
0.129285 0.189367 0.817146
0.130563 0.189563 0.815259
0.131775 0.189673 0.812936
0.132992 0.189796 0.81069
0.134212 0.18993 0.808516
0.135389 0.190013 0.806083
0.136645 0.190208 0.804247
0.137957 0.190485 0.802838
0.139317 0.190828 0.801773
0.140705 0.191212 0.800918
0.14213 0.191645 0.800318
0.143538 0.192057 0.799616
0.144948 0.192474 0.798937
0.146359 0.192894 0.798275
0.14777 0.193313 0.797615
0.149132 0.193671 0.796654
0.150499 0.19404 0.795748
0.151848 0.194387 0.794733
0.1532 0.194739 0.793755
0.154535 0.195073 0.792689
0.155913 0.195463 0.791897
0.15729 0.195851 0.791107
0.158716 0.196301 0.79062
0.16015 0.196759 0.790178
0.161615 0.197256 0.789919
0.163077 0.197749 0.789641
0.164535 0.198237 0.789342
0.165962 0.198689 0.788872
0.167424 0.199182 0.788596
0.168922 0.199717 0.788523
0.170373 0.200198 0.788188
0.171837 0.200693 0.78792
0.173343 0.201235 0.787881
0.174821 0.201746 0.78769
0.176253 0.202205 0.787253
0.177748 0.202733 0.787146
0.179223 0.203241 0.786934
0.180649 0.203694 0.786471
0.182095 0.204169 0.786113
0.18363 0.204741 0.786205
0.185118 0.205261 0.786053
0.18672 0.205903 0.786466
0.188441 0.20667 0.787452
0.190263 0.20754 0.788905
0.192277 0.208608 0.791258
0.194509 0.209898 0.794609
0.196731 0.21117 0.797856
0.198947 0.212426 0.801015
0.201072 0.213584 0.803702
0.203011 0.214542 0.805475
0.204781 0.215323 0.806439
0.0860544 0.180232 0.851135
0.0875494 0.180665 0.850363
0.0890546 0.181121 0.849726
0.090572 0.181605 0.84924
0.0921143 0.182136 0.849031
0.0936721 0.182698 0.84899
0.095229 0.183257 0.848931
0.0968053 0.183849 0.849065
0.0983734 0.184426 0.849101
0.0999423 0.185004 0.849137
0.101523 0.1856 0.849279
0.103095 0.186177 0.849315
0.104657 0.186738 0.849255
0.10623 0.187317 0.84929
0.107773 0.187842 0.849028
0.109325 0.188381 0.848852
0.110898 0.188956 0.848868
0.112478 0.189541 0.848932
0.114048 0.190109 0.848899
0.115639 0.190709 0.849039
0.117192 0.191246 0.848844
0.118703 0.191718 0.848294
0.120227 0.192211 0.847859
0.127272 0.190381 0.817382
0.128637 0.190695 0.816115
0.129908 0.190878 0.814179
0.131119 0.190983 0.811845
0.132333 0.191098 0.809582
0.133554 0.191231 0.807415
0.134746 0.191329 0.805087
0.13603 0.191561 0.803452
0.137372 0.191877 0.802245
0.138746 0.192239 0.801281
0.140133 0.192618 0.800413
0.14154 0.193028 0.799698
0.142946 0.193437 0.798983
0.144327 0.193814 0.79811
0.145737 0.194231 0.797443
0.147175 0.194687 0.796965
0.148555 0.195067 0.796118
0.149928 0.195441 0.79524
0.151308 0.195825 0.794421
0.152675 0.196195 0.793534
0.154015 0.196534 0.792493
0.15541 0.196941 0.7918
0.156787 0.197329 0.791005
0.158196 0.197756 0.79041
0.159609 0.198191 0.789849
0.161057 0.198666 0.789488
0.162488 0.199122 0.789035
0.163931 0.199593 0.788655
0.165358 0.200045 0.788187
0.166802 0.200519 0.787816
0.168265 0.201012 0.787548
0.16971 0.201487 0.787188
0.171186 0.201995 0.786988
0.172678 0.202523 0.786879
0.174142 0.203019 0.786618
0.175607 0.203516 0.78636
0.177102 0.204047 0.786264
0.178562 0.204538 0.78598
0.180007 0.205012 0.785616
0.181468 0.205504 0.785339
0.182966 0.206037 0.785246
0.184449 0.206552 0.785075
0.186044 0.207189 0.785459
0.187782 0.207977 0.786534
0.189619 0.208868 0.788073
0.191633 0.209942 0.790432
0.193881 0.211259 0.793875
0.196123 0.212559 0.797229
0.19834 0.213826 0.800407
0.200469 0.214993 0.803117
0.202467 0.216017 0.805172
0.204301 0.216866 0.806429
0.0839824 0.181299 0.851555
0.0854575 0.181686 0.850523
0.0869344 0.182081 0.849539
0.0884086 0.182475 0.848554
0.0898919 0.18289 0.847694
0.0914141 0.183386 0.847286
0.0929676 0.183942 0.847219
0.0945139 0.184485 0.847074
0.0960888 0.185081 0.847221
0.0976638 0.185675 0.847355
0.0992325 0.186255 0.847411
0.100822 0.186872 0.847668
0.102415 0.187492 0.847935
0.103997 0.18809 0.848076
0.105579 0.188686 0.848208
0.107139 0.189244 0.848128
0.10869 0.189781 0.847943
0.110276 0.190381 0.848083
0.111867 0.190985 0.848252
0.11345 0.191576 0.848344
0.115042 0.192178 0.848494
0.116621 0.192759 0.848528
0.118147 0.193254 0.848103
0.119682 0.193761 0.847744
0.12544 0.191667 0.819024
0.126793 0.191955 0.817627
0.128128 0.192223 0.816127
0.129356 0.192341 0.813866
0.130541 0.192402 0.811327
0.131739 0.192491 0.80894
0.13296 0.192619 0.80677
0.134156 0.192718 0.804466
0.135459 0.192973 0.802955
0.136815 0.193306 0.801844
0.138189 0.193665 0.800878
0.139549 0.194009 0.799831
0.140943 0.1944 0.799026
0.142333 0.194786 0.798205
0.143684 0.195124 0.797142
0.145105 0.195555 0.796549
0.146541 0.196008 0.796061
0.147937 0.196408 0.795318
0.149325 0.196801 0.794538
0.150738 0.197226 0.793927
0.152109 0.1976 0.793059
0.15348 0.197976 0.792211
0.154879 0.198388 0.791534
0.156257 0.198774 0.790743
0.157649 0.19918 0.790047
0.159043 0.199591 0.789372
0.160472 0.200043 0.788903
0.161885 0.200478 0.788349
0.163311 0.200928 0.787874
0.164735 0.201376 0.787391
0.16616 0.201827 0.786916
0.167602 0.202298 0.786537
0.16906 0.202788 0.786251
0.170551 0.203315 0.786142
0.172047 0.203849 0.786062
0.173549 0.204388 0.786004
0.175034 0.204908 0.785854
0.176515 0.205423 0.785682
0.177975 0.205914 0.785399
0.179435 0.206407 0.78512
0.180897 0.206899 0.784847
0.182377 0.207413 0.784665
0.183857 0.207926 0.784483
0.18543 0.208539 0.78476
0.187166 0.20933 0.785831
0.188986 0.210206 0.787288
0.190999 0.211286 0.789656
0.193258 0.212622 0.793164
0.195511 0.213943 0.796582
0.197707 0.215194 0.799667
0.199848 0.216381 0.802445
0.201862 0.217428 0.804583
0.203736 0.218324 0.806033
0.0824966 0.180892 0.852482
0.0819058 0.182361 0.851947
0.0833933 0.182771 0.851039
0.0848566 0.183131 0.849863
0.0863069 0.183468 0.848565
0.0877512 0.183799 0.847237
0.089204 0.184153 0.846046
0.090703 0.184605 0.845399
0.0922347 0.185123 0.845123
0.0937792 0.185667 0.844987
0.0953517 0.186264 0.845141
0.0969345 0.186877 0.845384
0.098511 0.187477 0.845548
0.100111 0.188118 0.845933
0.101715 0.188763 0.846334
0.103307 0.189383 0.846601
0.104887 0.189979 0.846733
0.106457 0.190557 0.846759
0.108016 0.191112 0.84667
0.109612 0.191731 0.846916
0.111213 0.192357 0.84719
0.112808 0.19297 0.847397
0.114404 0.193581 0.847594
0.115993 0.194178 0.847715
0.117541 0.194709 0.847481
0.123551 0.192881 0.820279
0.124903 0.193162 0.818845
0.126249 0.193439 0.817388
0.127579 0.193695 0.815843
0.128793 0.193787 0.813465
0.129977 0.193842 0.810911
0.131175 0.193924 0.808512
0.132395 0.194046 0.80633
0.133594 0.194147 0.804044
0.134899 0.194401 0.802541
0.136258 0.194735 0.801446
0.137632 0.195094 0.800479
0.138993 0.195435 0.799429
0.140387 0.195825 0.798624
0.141777 0.196211 0.797804
0.143114 0.196528 0.796645
0.144533 0.196956 0.796042
0.145954 0.197388 0.795454
0.14735 0.197787 0.794712
0.148739 0.198182 0.793945
0.150181 0.198645 0.793514
0.151569 0.199038 0.79275
0.152974 0.199455 0.792102
0.154391 0.199888 0.79153
0.155772 0.200277 0.790753
0.157149 0.200662 0.78996
0.158524 0.201048 0.789171
0.159935 0.201477 0.788595
0.161331 0.201891 0.787941
0.162755 0.202337 0.78745
0.164174 0.20278 0.786939
0.165596 0.203227 0.786448
0.167021 0.203678 0.785981
0.168481 0.20417 0.785705
0.169976 0.204703 0.78562
0.171476 0.205241 0.785559
0.17298 0.205784 0.785517
0.174481 0.206324 0.785455
0.175944 0.206818 0.785189
0.177402 0.207307 0.784895
0.178862 0.207798 0.784611
0.180324 0.208292 0.784343
0.181789 0.208788 0.784084
0.183303 0.20934 0.784077
0.184877 0.209956 0.784357
0.186614 0.21075 0.78544
0.188435 0.211632 0.786907
0.190444 0.212714 0.789263
0.192661 0.214013 0.792576
0.194885 0.21531 0.795863
0.19703 0.216515 0.798719
0.199146 0.217684 0.801392
0.201155 0.218731 0.803517
0.203049 0.219652 0.80507
0.0812965 0.18379 0.85118
0.0827756 0.184178 0.850167
0.0842282 0.184513 0.848862
0.0856574 0.184806 0.847323
0.0870824 0.185095 0.845779
0.0885074 0.185391 0.84428
0.089994 0.18582 0.843517
0.091512 0.186315 0.843119
0.0930448 0.18684 0.842882
0.0946051 0.187418 0.842938
0.0961935 0.188049 0.843277
0.0977669 0.188649 0.84344
0.0993757 0.189312 0.843946
0.100988 0.189978 0.84446
0.102592 0.190626 0.844871
0.104183 0.191246 0.845127
0.105773 0.191862 0.845361
0.107343 0.192438 0.845388
0.108949 0.19308 0.845748
0.11056 0.193726 0.846128
0.112168 0.194363 0.84646
0.113767 0.194983 0.846695
0.115363 0.195593 0.846882
0.123058 0.19445 0.820458
0.124425 0.19475 0.819123
0.125778 0.195033 0.817713
0.127091 0.195259 0.816019
0.128272 0.195295 0.813375
0.129442 0.195324 0.810712
0.130628 0.195383 0.808216
0.131849 0.195503 0.80603
0.133063 0.195619 0.803839
0.134383 0.195891 0.802439
0.135743 0.196224 0.801343
0.13713 0.196598 0.800454
0.138477 0.196917 0.799305
0.139856 0.197286 0.798396
0.141235 0.197654 0.797493
0.142558 0.19795 0.796241
0.14395 0.198341 0.795456
0.145355 0.198752 0.794768
0.146748 0.199149 0.794015
0.148124 0.199523 0.793159
0.149567 0.199987 0.792741
0.150955 0.20038 0.791977
0.152374 0.200816 0.791421
0.153793 0.20125 0.790863
0.155191 0.20166 0.790188
0.156582 0.202062 0.789481
0.157974 0.202466 0.788784
0.159383 0.202894 0.7882
0.160779 0.203305 0.787542
0.162202 0.203752 0.787051
0.163622 0.204194 0.78654
0.165044 0.20464 0.78605
0.166471 0.205094 0.785592
0.167934 0.205589 0.785332
0.169432 0.206127 0.785265
0.170948 0.206685 0.785291
0.17245 0.207225 0.785238
0.173949 0.207762 0.785163
0.175408 0.208251 0.784875
0.176864 0.208738 0.784569
0.178304 0.209207 0.784185
0.179786 0.209723 0.784017
0.18127 0.210241 0.783858
0.182808 0.21082 0.783964
0.184402 0.21146 0.784349
0.186176 0.212297 0.785615
0.188 0.213184 0.787094
0.18999 0.214251 0.789358
0.192161 0.215509 0.792458
0.19434 0.216764 0.795536
0.196401 0.217886 0.798
0.198472 0.219013 0.80047
0.200456 0.220039 0.802486
0.202371 0.220988 0.804148
0.206476 0.22217 0.813639
0.204217 0.221859 0.805461
0.0791355 0.184661 0.850502
0.0806403 0.185106 0.849807
0.082122 0.185503 0.848843
0.0835569 0.185799 0.847335
0.0849839 0.186084 0.845778
0.0863997 0.186355 0.844142
0.0878136 0.186628 0.842531
0.0892892 0.187037 0.841667
0.0908039 0.187529 0.841257
0.0923248 0.188032 0.840914
0.0938722 0.18859 0.840861
0.095456 0.189219 0.841184
0.0970247 0.189815 0.841329
0.09863 0.190478 0.841833
0.10025 0.191165 0.842454
0.101872 0.191851 0.843071
0.103482 0.192511 0.843541
0.105103 0.193188 0.844093
0.106698 0.193811 0.844365
0.108318 0.194481 0.844869
0.10994 0.195147 0.845354
0.111545 0.195782 0.845666
0.11313 0.196379 0.845787
0.114709 0.196964 0.84584
0.123957 0.196356 0.819491
0.12531 0.196635 0.818064
0.126594 0.196813 0.816137
0.127762 0.196823 0.813381
0.128924 0.196831 0.810635
0.130112 0.196889 0.808143
0.131323 0.196987 0.805873
0.13255 0.197116 0.803761
0.133871 0.197387 0.802361
0.135231 0.197718 0.801261
0.136606 0.198073 0.800281
0.13795 0.198387 0.799112
0.139316 0.198735 0.798105
0.140679 0.19908 0.797097
0.142003 0.199374 0.795843
0.14338 0.199744 0.794959
0.144782 0.20015 0.794255
0.146161 0.200525 0.793404
0.147521 0.200878 0.79245
0.148949 0.201323 0.791935
0.150334 0.201712 0.791164
0.151753 0.202146 0.790604
0.153186 0.2026 0.790138
0.154601 0.203031 0.789571
0.156011 0.203458 0.788978
0.157418 0.203881 0.788373
0.15883 0.204309 0.787797
0.160228 0.204723 0.787152
0.161654 0.205173 0.786677
0.163079 0.20562 0.786195
0.164504 0.20607 0.78572
0.165948 0.206543 0.785356
0.167427 0.207058 0.785185
0.168924 0.207593 0.785106
0.170454 0.208169 0.785211
0.171954 0.208707 0.785142
0.173435 0.209222 0.784969
0.174875 0.20969 0.78458
0.176329 0.210174 0.784265
0.177752 0.210621 0.783786
0.179252 0.211159 0.783712
0.180757 0.211701 0.783658
0.182317 0.212305 0.783877
0.183933 0.212972 0.784372
0.185729 0.213836 0.785744
0.187552 0.214726 0.787221
0.189539 0.215794 0.789473
0.191671 0.217015 0.792388
0.193823 0.21825 0.795344
0.195857 0.219349 0.797685
0.197905 0.220456 0.80005
0.199868 0.221466 0.801976
0.201803 0.222439 0.803734
0.203651 0.223316 0.805059
0.0784307 0.185857 0.848469
0.0799469 0.186332 0.847948
0.0814364 0.186748 0.847105
0.0828688 0.18704 0.845586
0.0842877 0.187309 0.843952
0.0857113 0.187596 0.842423
0.0871336 0.187886 0.840923
0.0885988 0.188275 0.839958
0.0901019 0.188746 0.839442
0.0916191 0.189247 0.839088
0.0931539 0.189784 0.838925
0.0947249 0.190392 0.839141
0.0962805 0.190967 0.839177
0.0978794 0.191624 0.839648
0.0994947 0.192309 0.840258
0.101123 0.193014 0.84097
0.102742 0.193697 0.84156
0.104394 0.194437 0.842436
0.106013 0.195109 0.842959
0.107654 0.195819 0.843675
0.109288 0.196513 0.844293
0.110896 0.197155 0.844644
0.11247 0.197737 0.844678
0.122141 0.197705 0.821376
0.123516 0.198009 0.820073
0.124873 0.198288 0.818656
0.126152 0.198453 0.816676
0.12732 0.198455 0.813896
0.128481 0.198455 0.811126
0.12966 0.19849 0.808545
0.13086 0.198568 0.80618
0.132089 0.198693 0.804063
0.133398 0.198943 0.802567
0.134735 0.199237 0.801294
0.136097 0.19957 0.800216
0.137439 0.199879 0.799022
0.13879 0.200203 0.797913
0.140139 0.200527 0.796804
0.141463 0.200819 0.795545
0.142823 0.201164 0.794549
0.144197 0.201529 0.793653
0.145557 0.20188 0.792687
0.146901 0.202211 0.791636
0.148313 0.202633 0.791023
0.149696 0.203019 0.790236
0.151112 0.20345 0.789665
0.152545 0.203903 0.789203
0.153976 0.204356 0.788737
0.155405 0.204806 0.788258
0.156832 0.205254 0.787776
0.158261 0.205706 0.787307
0.159692 0.206159 0.786848
0.161136 0.206631 0.786477
0.16258 0.207102 0.786104
0.164025 0.207574 0.785734
0.165486 0.208066 0.785458
0.166963 0.20858 0.785275
0.168458 0.209113 0.785184
0.169989 0.209689 0.785288
0.171474 0.210209 0.785133
0.17294 0.210706 0.784876
0.174362 0.211152 0.784389
0.175798 0.211615 0.783979
0.177221 0.212063 0.783502
0.178739 0.212622 0.78352
0.180266 0.213188 0.783573
0.181865 0.213837 0.783989
0.183538 0.214568 0.784766
0.185355 0.21546 0.786243
0.187198 0.216377 0.787818
0.189206 0.217471 0.790169
0.191298 0.218654 0.792887
0.19339 0.21983 0.795557
0.195379 0.220883 0.797681
0.197403 0.221969 0.799935
0.199328 0.222942 0.801686
0.201263 0.22392 0.803448
0.203089 0.224778 0.804676
0.0762402 0.186638 0.84731
0.0777472 0.187094 0.846688
0.0792575 0.187559 0.846121
0.080739 0.187959 0.845202
0.0821635 0.188233 0.843604
0.0835926 0.188525 0.842113
0.0850337 0.188852 0.840813
0.0864736 0.189181 0.839534
0.0879458 0.189587 0.838665
0.0894485 0.190058 0.838155
0.0909627 0.190554 0.837781
0.0924869 0.191073 0.837522
0.0940362 0.191641 0.837525
0.0955785 0.192194 0.837449
0.0971548 0.192812 0.837712
0.0987552 0.193475 0.838203
0.100371 0.194162 0.838815
0.101998 0.194867 0.839516
0.103669 0.19565 0.840616
0.105319 0.196386 0.841461
0.106984 0.197144 0.842416
0.108638 0.197877 0.843233
0.110246 0.198523 0.843602
0.111817 0.1991 0.843618
0.121694 0.199358 0.821938
0.123075 0.199666 0.820665
0.124424 0.199929 0.819174
0.1257 0.200082 0.817146
0.126867 0.200075 0.81434
0.128029 0.200068 0.811552
0.129197 0.200081 0.808877
0.130386 0.200135 0.80641
0.131615 0.200254 0.80428
0.13291 0.200479 0.802669
0.134222 0.200734 0.801211
0.135583 0.201063 0.800123
0.136939 0.201389 0.799016
0.138278 0.201693 0.797813
0.139614 0.201996 0.796611
0.140937 0.202283 0.79534
0.142268 0.202586 0.794149
0.143625 0.202929 0.793147
0.14497 0.203256 0.792077
0.146299 0.203563 0.790924
0.147693 0.203962 0.790201
0.149075 0.204346 0.789415
0.150476 0.204757 0.788752
0.151923 0.205229 0.788381
0.15337 0.205703 0.788016
0.154817 0.206175 0.787646
0.156262 0.206647 0.787272
0.157707 0.20712 0.7869
0.159154 0.207593 0.786536
0.160616 0.208085 0.78626
0.162077 0.208578 0.785984
0.163539 0.209071 0.785707
0.165 0.209563 0.785431
0.166461 0.210056 0.785155
0.16794 0.21057 0.784974
0.169456 0.211129 0.784994
0.170925 0.21163 0.784756
0.172391 0.212128 0.784501
0.173847 0.212612 0.784188
0.175301 0.213096 0.783873
0.176744 0.213567 0.783498
0.1783 0.214169 0.783704
0.179862 0.214778 0.78394
0.181482 0.215452 0.784459
0.183197 0.216232 0.785441
0.185038 0.217153 0.787028
0.186903 0.218097 0.788708
0.188914 0.219201 0.791071
0.190968 0.220346 0.793603
0.193 0.221458 0.795978
0.194962 0.222487 0.797973
0.196944 0.223532 0.800033
0.198852 0.22449 0.8017
0.200766 0.225449 0.803366
0.202587 0.226303 0.804571
0.0739815 0.187233 0.845149
0.0755208 0.187774 0.844999
0.077038 0.18826 0.844549
0.078546 0.188724 0.843983
0.080027 0.189127 0.84309
0.0814673 0.18944 0.841716
0.0829137 0.189772 0.840456
0.0843656 0.190124 0.8393
0.085814 0.190473 0.838137
0.0872874 0.19088 0.837292
0.0887881 0.19135 0.83678
0.0902916 0.191828 0.836307
0.0918132 0.192342 0.836033
0.0933514 0.192892 0.83594
0.0948816 0.193424 0.835757
0.0964431 0.194018 0.835891
0.0980294 0.194658 0.836266
0.0996409 0.195345 0.836872
0.101286 0.19609 0.837777
0.102968 0.196901 0.83901
0.104637 0.197677 0.840059
0.106332 0.198496 0.841318
0.108007 0.199272 0.842347
0.109619 0.199928 0.842762
0.111215 0.200552 0.843007
0.121259 0.201034 0.822605
0.122664 0.201379 0.821512
0.124031 0.201663 0.820133
0.125298 0.201795 0.818011
0.126454 0.201762 0.815094
0.127591 0.201709 0.812096
0.128735 0.201676 0.809216
0.129887 0.201666 0.806459
0.131113 0.201776 0.804295
0.132406 0.201993 0.802661
0.133705 0.202226 0.801102
0.135053 0.202534 0.799917
0.136423 0.202877 0.798899
0.137751 0.203162 0.797614
0.139076 0.203448 0.796337
0.140411 0.20375 0.795139
0.141742 0.20405 0.793943
0.143086 0.204371 0.792845
0.144416 0.204676 0.791678
0.145729 0.204959 0.79042
0.147093 0.205317 0.789508
0.14846 0.20568 0.788629
0.149847 0.206072 0.787882
0.151294 0.206545 0.787518
0.152756 0.207037 0.787242
0.154217 0.20753 0.786966
0.155679 0.208023 0.786689
0.15714 0.208515 0.786413
0.158602 0.209008 0.786137
0.160063 0.209501 0.785861
0.161525 0.209993 0.785585
0.162986 0.210486 0.785308
0.164447 0.210979 0.785032
0.165909 0.211471 0.784756
0.167388 0.211986 0.784578
0.168903 0.212545 0.784594
0.170373 0.213047 0.784362
0.171853 0.213562 0.784181
0.173344 0.214089 0.784058
0.174821 0.214599 0.783856
0.176305 0.215117 0.78369
0.177898 0.215764 0.784088
0.179499 0.216419 0.784519
0.181124 0.217098 0.785053
0.182843 0.217886 0.786054
0.184669 0.218793 0.787565
0.186519 0.219722 0.789167
0.18851 0.220809 0.791432
0.190548 0.22194 0.793881
0.192554 0.223029 0.796135
0.194509 0.224054 0.798098
0.196486 0.225098 0.800133
0.198375 0.226038 0.801711
0.200271 0.226982 0.803295
0.202106 0.227855 0.804567
0.206094 0.228977 0.813516
0.204006 0.228794 0.806111
0.0732751 0.188384 0.842945
0.074807 0.188912 0.842733
0.0763302 0.189419 0.8424
0.0778325 0.189874 0.841797
0.0793127 0.19028 0.840926
0.0807766 0.190649 0.839872
0.0822385 0.191019 0.838824
0.0836986 0.19139 0.837785
0.0851639 0.191779 0.83684
0.0866376 0.192188 0.83601
0.0881285 0.192639 0.835401
0.0896301 0.193114 0.834922
0.0911402 0.193608 0.834543
0.0926666 0.194137 0.834342
0.0941849 0.194648 0.834052
0.0957332 0.19522 0.834075
0.0973152 0.195857 0.834432
0.098932 0.19656 0.835119
0.100577 0.197311 0.836051
0.102276 0.198162 0.837479
0.103955 0.198963 0.838649
0.105659 0.199807 0.840021
0.107346 0.200609 0.841175
0.108971 0.201293 0.841722
0.110569 0.201923 0.842005
0.120757 0.202608 0.822748
0.122166 0.202953 0.821666
0.123547 0.203257 0.820388
0.124817 0.203389 0.818276
0.125976 0.203351 0.815357
0.127113 0.203289 0.81234
0.128256 0.203247 0.809433
0.129382 0.203192 0.806473
0.130594 0.203275 0.804197
0.131873 0.203468 0.802452
0.133171 0.203695 0.800878
0.134509 0.203985 0.799611
0.135893 0.204347 0.798692
0.137236 0.204651 0.797503
0.138564 0.204937 0.796233
0.1399 0.205238 0.795039
0.141246 0.205557 0.793935
0.142591 0.205877 0.792838
0.143896 0.206143 0.791501
0.145207 0.206422 0.790225
0.146554 0.206754 0.789202
0.147906 0.207096 0.788224
0.14928 0.207468 0.787395
0.150742 0.20796 0.787119
0.152203 0.208453 0.786843
0.153665 0.208946 0.786566
0.155126 0.209438 0.78629
0.156588 0.209931 0.786014
0.158049 0.210423 0.785738
0.15951 0.210916 0.785462
0.160972 0.211409 0.785186
0.162433 0.211901 0.784909
0.163895 0.212394 0.784633
0.165356 0.212887 0.784357
0.166835 0.213401 0.784176
0.168331 0.213938 0.784092
0.169813 0.214455 0.783926
0.171311 0.214991 0.783841
0.172826 0.215548 0.783845
0.174344 0.216108 0.783859
0.175887 0.216697 0.784001
0.177502 0.21737 0.78451
0.179124 0.21805 0.78504
0.180771 0.218755 0.785679
0.182492 0.219547 0.786684
0.18428 0.220413 0.788003
0.186123 0.221338 0.789568
0.188092 0.222402 0.791722
0.190111 0.223518 0.794081
0.192081 0.22457 0.79616
0.194052 0.225619 0.798205
0.196006 0.226642 0.800133
0.197895 0.227586 0.801712
0.199772 0.228513 0.803209
0.201627 0.22941 0.804575
0.203529 0.230355 0.806128
0.0710438 0.189005 0.840977
0.0725872 0.189571 0.840969
0.0741154 0.190096 0.840744
0.0756405 0.190612 0.840468
0.0771318 0.191045 0.839751
0.0786121 0.191454 0.838911
0.0800895 0.19186 0.838055
0.081559 0.19225 0.837125
0.0830262 0.19264 0.836194
0.0844997 0.193047 0.83536
0.0859792 0.193471 0.834616
0.0874595 0.193901 0.833903
0.088958 0.194372 0.833407
0.0904572 0.194845 0.832923
0.0919723 0.195354 0.832625
0.0934786 0.195844 0.83223
0.0950139 0.196393 0.832141
0.0965818 0.197009 0.832385
0.0981964 0.197714 0.83308
0.0998382 0.198467 0.834017
0.101537 0.199325 0.835469
0.103232 0.200167 0.836833
0.104953 0.201049 0.838391
0.106642 0.201864 0.839601
0.108284 0.202583 0.840325
0.109912 0.203273 0.840892
0.12023 0.204142 0.822688
0.121644 0.204493 0.821639
0.123032 0.204806 0.82041
0.124317 0.204954 0.818394
0.125477 0.204912 0.815473
0.126626 0.204861 0.812528
0.127771 0.204814 0.809616
0.128899 0.204752 0.806648
0.1301 0.204813 0.804278
0.131366 0.204981 0.802428
0.132653 0.205186 0.80076
0.133979 0.205456 0.799405
0.135364 0.205819 0.798491
0.136722 0.206142 0.7974
0.138065 0.206446 0.796221
0.139403 0.206749 0.79504
0.140766 0.207088 0.794038
0.142116 0.207412 0.792964
0.143435 0.207695 0.79171
0.14476 0.20799 0.790512
0.146107 0.208319 0.78948
0.147445 0.208637 0.7884
0.148802 0.208986 0.78746
0.150233 0.209436 0.786991
0.151665 0.209888 0.786532
0.153112 0.210361 0.786168
0.154574 0.210854 0.785891
0.156035 0.211346 0.785615
0.157496 0.211839 0.785339
0.158958 0.212332 0.785063
0.160419 0.212824 0.784786
0.161881 0.213317 0.78451
0.163342 0.21381 0.784234
0.164804 0.214302 0.783958
0.166297 0.214835 0.783857
0.167793 0.215371 0.78377
0.169292 0.215909 0.783694
0.170809 0.21647 0.783714
0.172362 0.217073 0.783918
0.173906 0.217665 0.78407
0.175487 0.2183 0.784408
0.177123 0.219 0.785021
0.178767 0.219706 0.785657
0.180431 0.220433 0.786382
0.182153 0.221227 0.787384
0.1839 0.222046 0.788488
0.185731 0.222961 0.789994
0.187675 0.224001 0.792024
0.189659 0.225081 0.794212
0.191597 0.226103 0.796139
0.193568 0.227155 0.798184
0.195521 0.228182 0.800107
0.197412 0.229132 0.8017
0.199272 0.230043 0.803118
0.201132 0.23095 0.80451
0.203031 0.231895 0.806051
0.0688449 0.189689 0.839366
0.0703936 0.190278 0.839483
0.071931 0.190834 0.83942
0.073455 0.191351 0.839158
0.0749875 0.191891 0.839011
0.0764788 0.192326 0.838313
0.0779592 0.192737 0.83749
0.0794367 0.193145 0.836654
0.0809051 0.193534 0.835725
0.0823641 0.193905 0.834706
0.0838351 0.194309 0.833863
0.0853049 0.194714 0.833024
0.0867743 0.19512 0.8322
0.0882607 0.195568 0.831592
0.0897471 0.196018 0.830995
0.09126 0.196525 0.830695
0.0927724 0.197032 0.83039
0.094306 0.197584 0.830313
0.0958795 0.198216 0.830641
0.0975008 0.19894 0.831432
0.099141 0.199698 0.83238
0.100836 0.200557 0.833831
0.102548 0.20144 0.835389
0.104269 0.202327 0.836965
0.105957 0.203147 0.838187
0.107601 0.203874 0.838946
0.119656 0.205597 0.822244
0.121072 0.205949 0.821209
0.122471 0.206279 0.820067
0.12377 0.206446 0.818154
0.124947 0.206424 0.815349
0.126113 0.206392 0.812516
0.127274 0.206364 0.80971
0.128406 0.2063 0.806754
0.129609 0.206359 0.804386
0.130864 0.206504 0.802441
0.13215 0.206705 0.800761
0.133464 0.206952 0.799308
0.134838 0.207294 0.798307
0.136195 0.207616 0.797208
0.13754 0.20792 0.796038
0.138881 0.208224 0.79487
0.140259 0.208583 0.793962
0.141624 0.208927 0.792987
0.142947 0.209212 0.791746
0.144289 0.209529 0.790656
0.145638 0.209857 0.78962
0.146989 0.210192 0.78862
0.148331 0.210516 0.787578
0.149745 0.210941 0.786995
0.151159 0.211367 0.786417
0.152589 0.211816 0.785945
0.154021 0.21227 0.785492
0.155482 0.212763 0.785216
0.156944 0.213255 0.78494
0.158405 0.213748 0.784663
0.159867 0.214241 0.784387
0.161328 0.214733 0.784111
0.162805 0.215246 0.783922
0.164268 0.21574 0.783654
0.165762 0.216275 0.783562
0.167276 0.216833 0.78357
0.16881 0.217416 0.783686
0.170349 0.218004 0.783823
0.171941 0.218656 0.784234
0.17352 0.21929 0.784562
0.175102 0.219926 0.784899
0.17674 0.220629 0.785514
0.178383 0.221335 0.786142
0.18005 0.222067 0.786877
0.181736 0.22282 0.787695
0.18346 0.223614 0.78868
0.185251 0.224484 0.789982
0.187152 0.225478 0.791802
0.189117 0.226542 0.793905
0.191073 0.227589 0.79592
0.193064 0.228671 0.798069
0.195038 0.229725 0.800095
0.19695 0.230704 0.80179
0.198792 0.231597 0.803124
0.200671 0.232528 0.804601
0.202547 0.233452 0.80604
0.0666338 0.190319 0.837476
0.0681876 0.19093 0.83772
0.0697352 0.191522 0.837852
0.0712635 0.192056 0.837685
0.0727837 0.192571 0.837405
0.0743114 0.193103 0.837222
0.0758011 0.193539 0.836532
0.0772871 0.193965 0.835804
0.0787691 0.194386 0.835047
0.0802279 0.194754 0.834018
0.0816773 0.195106 0.832904
0.0831469 0.195508 0.832064
0.0846057 0.19589 0.831119
0.0860548 0.196255 0.830087
0.0875371 0.196698 0.82946
0.0890197 0.197143 0.828849
0.0905303 0.197651 0.828556
0.0920428 0.198162 0.828282
0.0935915 0.198751 0.828394
0.0951641 0.199387 0.828742
0.0967913 0.200131 0.829624
0.0984375 0.200907 0.830663
0.10013 0.201769 0.832119
0.101838 0.202653 0.833669
0.103564 0.203561 0.835331
0.105239 0.20436 0.836448
0.106879 0.205088 0.837203
0.119168 0.207199 0.822505
0.120579 0.207542 0.821425
0.121946 0.207814 0.820012
0.123261 0.208001 0.81821
0.124454 0.207998 0.815512
0.125627 0.207971 0.812718
0.126793 0.207943 0.809934
0.12793 0.207879 0.806994
0.129111 0.207895 0.804444
0.130353 0.208015 0.802391
0.131636 0.208207 0.800682
0.132936 0.208429 0.799123
0.134296 0.20875 0.798023
0.135667 0.209088 0.79701
0.137012 0.209392 0.795841
0.138355 0.209695 0.794675
0.139748 0.210075 0.793866
0.141127 0.210436 0.792975
0.142467 0.210742 0.791836
0.143828 0.211083 0.790863
0.145184 0.211419 0.789866
0.146553 0.211775 0.788967
0.147894 0.212095 0.787907
0.149276 0.212475 0.787121
0.150672 0.212874 0.786424
0.152082 0.213296 0.78583
0.153483 0.213705 0.785181
0.15493 0.214178 0.784817
0.156391 0.214671 0.784541
0.157853 0.215163 0.784264
0.159314 0.215656 0.783988
0.160775 0.216149 0.783712
0.162269 0.216683 0.783619
0.163749 0.217199 0.783447
0.165264 0.21776 0.783464
0.166798 0.218344 0.783586
0.16837 0.218977 0.783909
0.16993 0.21959 0.78415
0.171524 0.220246 0.784568
0.173101 0.220879 0.784887
0.174698 0.221533 0.785293
0.176316 0.222212 0.785802
0.177958 0.222918 0.786421
0.179626 0.223654 0.78716
0.181296 0.224388 0.787889
0.182987 0.225145 0.788707
0.184738 0.22597 0.789809
0.186581 0.2269 0.791343
0.188504 0.22792 0.793242
0.190473 0.228988 0.795334
0.192485 0.230099 0.79759
0.194501 0.231208 0.799825
0.196474 0.232261 0.801814
0.198357 0.233205 0.803342
0.200231 0.234133 0.804798
0.202081 0.235031 0.806114
0.0644347 0.190955 0.835646
0.0659758 0.191542 0.835758
0.0675229 0.192142 0.83594
0.069064 0.192721 0.836009
0.070586 0.193245 0.835789
0.0720976 0.193741 0.835421
0.0736229 0.194273 0.83524
0.07511 0.194706 0.834546
0.0765927 0.19513 0.833809
0.0780717 0.195547 0.83304
0.0795274 0.195911 0.832
0.0809816 0.196276 0.830971
0.0824563 0.196695 0.830221
0.083914 0.197078 0.829287
0.0853616 0.19744 0.828257
0.08684 0.197876 0.827608
0.0883115 0.198301 0.826899
0.0898119 0.198791 0.826519
0.0913233 0.199306 0.826265
0.0928721 0.1999 0.826407
0.0944426 0.200537 0.826762
0.0960665 0.201281 0.827643
0.0977092 0.20206 0.828682
0.099407 0.202941 0.830223
0.101112 0.203827 0.831775
0.102834 0.204737 0.833434
0.104489 0.205505 0.834392
0.106126 0.206235 0.835154
0.107758 0.206947 0.835825
0.118695 0.208834 0.822906
0.120049 0.209072 0.821341
0.121393 0.2093 0.819729
0.122734 0.209529 0.818133
0.123958 0.209571 0.815661
0.125161 0.209585 0.813075
0.126354 0.209593 0.810478
0.127492 0.209522 0.807524
0.12866 0.20951 0.804856
0.129876 0.209583 0.802599
0.131146 0.209748 0.800778
0.132431 0.209945 0.799105
0.133779 0.210243 0.797909
0.13515 0.210579 0.796891
0.136509 0.2109 0.795806
0.137839 0.211182 0.794551
0.139219 0.211539 0.793644
0.140612 0.211919 0.792841
0.141967 0.212247 0.791804
0.143347 0.212613 0.790945
0.144721 0.212971 0.790057
0.146122 0.213371 0.789353
0.147482 0.213714 0.788404
0.148869 0.214098 0.787634
0.150234 0.214452 0.786738
0.151626 0.214846 0.786021
0.152992 0.215205 0.785154
0.154407 0.215633 0.784594
0.155839 0.216086 0.784142
0.157315 0.216599 0.783953
0.158778 0.217093 0.783684
0.160255 0.217606 0.783499
0.161782 0.218185 0.783593
0.163282 0.218727 0.783532
0.164803 0.219296 0.783581
0.16637 0.219923 0.783879
0.16796 0.220578 0.784298
0.169509 0.221178 0.784473
0.171104 0.221836 0.784895
0.172679 0.222466 0.785194
0.174255 0.223095 0.785488
0.175871 0.223773 0.785983
0.177514 0.224482 0.786605
0.179184 0.22522 0.787349
0.180854 0.225957 0.788078
0.182545 0.226714 0.788892
0.184259 0.227498 0.789809
0.186063 0.228386 0.791149
0.187939 0.229353 0.792819
0.189885 0.230401 0.794805
0.191879 0.231496 0.79698
0.193922 0.232643 0.799355
0.195939 0.233753 0.801562
0.197863 0.234747 0.803285
0.199736 0.235678 0.804735
0.201582 0.236573 0.806033
0.0622638 0.191655 0.834164
0.0637992 0.192232 0.83423
0.0653274 0.192785 0.834168
0.0668618 0.193354 0.834189
0.068391 0.193907 0.834119
0.0698995 0.194398 0.833737
0.0714085 0.194893 0.833366
0.0729307 0.195424 0.833183
0.0744155 0.195855 0.83249
0.075896 0.196277 0.831754
0.0773723 0.196693 0.830986
0.0788262 0.197055 0.829948
0.0802782 0.197419 0.828922
0.0817517 0.197838 0.828183
0.083208 0.19822 0.827258
0.0846539 0.198582 0.826236
0.0861307 0.199019 0.825598
0.0876079 0.19946 0.824977
0.0891066 0.19995 0.824607
0.0906243 0.200484 0.824448
0.0921706 0.201079 0.824593
0.0937383 0.201715 0.824943
0.0953593 0.202461 0.825828
0.0970076 0.203259 0.826955
0.098694 0.204125 0.828412
0.100405 0.205033 0.830061
0.102122 0.205942 0.831704
0.103774 0.206711 0.832658
0.105403 0.207431 0.833369
0.11683 0.210174 0.8246
0.118241 0.210502 0.823456
0.119557 0.210672 0.821573
0.12088 0.210859 0.819781
0.122238 0.21111 0.818298
0.123478 0.211172 0.815936
0.124696 0.211204 0.81345
0.125902 0.211226 0.810931
0.12704 0.211146 0.807953
0.128195 0.211105 0.805171
0.129397 0.21115 0.802792
0.130639 0.211266 0.800758
0.131912 0.211439 0.79899
0.133262 0.211737 0.797796
0.134622 0.212054 0.796697
0.135994 0.212393 0.795699
0.137338 0.212691 0.794527
0.138718 0.213047 0.793615
0.140112 0.213428 0.792819
0.141496 0.213794 0.791961
0.142892 0.214182 0.791199
0.144284 0.214564 0.790417
0.145715 0.215005 0.789901
0.14711 0.215394 0.789155
0.148504 0.215785 0.788421
0.149874 0.216143 0.78754
0.151264 0.216531 0.786798
0.152583 0.216821 0.785631
0.153949 0.217181 0.784769
0.155377 0.217626 0.784284
0.156855 0.21814 0.784102
0.158323 0.21864 0.783855
0.15982 0.21918 0.783779
0.16138 0.219801 0.784057
0.162883 0.220348 0.784008
0.164391 0.220898 0.783974
0.16596 0.221528 0.784278
0.167548 0.22218 0.784677
0.169077 0.222756 0.784744
0.170657 0.223395 0.785078
0.172232 0.224024 0.785371
0.173792 0.224634 0.785576
0.175409 0.225314 0.786075
0.177056 0.226029 0.786717
0.178725 0.226769 0.787457
0.180379 0.227487 0.7881
0.182048 0.22822 0.788801
0.183721 0.228956 0.78951
0.185499 0.229815 0.790724
0.18733 0.230735 0.79218
0.189272 0.231782 0.794151
0.191283 0.232904 0.79642
0.19337 0.234109 0.799013
0.195414 0.235256 0.801355
0.197382 0.236307 0.803293
0.19926 0.237247 0.804769
0.202671 0.239952 0.813393
0.0601581 0.192543 0.833689
0.0616672 0.193042 0.833342
0.0631754 0.193538 0.832985
0.0646863 0.194043 0.832674
0.0662028 0.194565 0.83245
0.0677138 0.19507 0.832139
0.0692059 0.195521 0.831554
0.0707043 0.195993 0.831072
0.0722221 0.196519 0.830871
0.0737049 0.19695 0.830188
0.0751842 0.197376 0.829475
0.0766671 0.197813 0.828826
0.0781271 0.198195 0.8279
0.0795782 0.198559 0.826889
0.0810582 0.198999 0.826261
0.0825139 0.199383 0.825356
0.0839594 0.199746 0.824351
0.0854341 0.200182 0.823714
0.08691 0.200623 0.823103
0.0883969 0.201092 0.822628
0.0899193 0.20164 0.822549
0.0914707 0.202252 0.822776
0.0930352 0.202888 0.823124
0.0946523 0.203634 0.823999
0.0963064 0.20445 0.825213
0.0979896 0.205319 0.826673
0.0996892 0.206212 0.828237
0.101403 0.207123 0.82988
0.103065 0.207922 0.830972
0.104681 0.208621 0.831579
0.114973 0.211547 0.826432
0.11635 0.211806 0.824963
0.11776 0.21213 0.823803
0.119056 0.212257 0.821731
0.120376 0.212433 0.819895
0.121748 0.212707 0.818525
0.123006 0.212791 0.816278
0.124225 0.212818 0.813784
0.125433 0.212836 0.811262
0.126559 0.212729 0.808178
0.127704 0.212662 0.805294
0.128905 0.212698 0.802896
0.130135 0.212791 0.800764
0.131408 0.212958 0.798979
0.132759 0.213256 0.797792
0.13411 0.213556 0.796619
0.13547 0.213873 0.795531
0.136827 0.214189 0.794442
0.138209 0.214546 0.79354
0.139605 0.214927 0.792747
0.141005 0.215315 0.791989
0.142415 0.215722 0.791316
0.143822 0.216124 0.790625
0.145285 0.216609 0.790301
0.146712 0.217043 0.789754
0.148142 0.217483 0.789232
0.149548 0.217888 0.788561
0.150943 0.21828 0.787835
0.152244 0.21854 0.786541
0.153591 0.218868 0.785545
0.155001 0.219288 0.784946
0.156467 0.219783 0.784678
0.157939 0.220287 0.784445
0.159442 0.220833 0.784395
0.161003 0.221457 0.784672
0.162509 0.222004 0.784625
0.163999 0.222531 0.784487
0.165564 0.223155 0.784762
0.167133 0.223784 0.785052
0.168662 0.224358 0.785108
0.170223 0.224973 0.785336
0.171799 0.225604 0.785629
0.173344 0.226195 0.785751
0.174963 0.226879 0.786259
0.176597 0.227578 0.786826
0.178268 0.228323 0.787576
0.179919 0.229038 0.788201
0.181583 0.229767 0.788879
0.183235 0.230478 0.789476
0.18499 0.231313 0.790579
0.1868 0.23221 0.791929
0.18872 0.233236 0.793796
0.19073 0.234362 0.796064
0.192815 0.235572 0.798658
0.194861 0.236727 0.801014
0.196834 0.237789 0.802982
0.198714 0.238735 0.80447
0.0580846 0.193537 0.833762
0.0595781 0.193982 0.833137
0.0610631 0.194402 0.83239
0.062554 0.194846 0.831763
0.0640518 0.195314 0.831263
0.0655473 0.195776 0.83074
0.0670353 0.196219 0.830113
0.0685165 0.196644 0.829403
0.0700035 0.19709 0.828796
0.0715039 0.197575 0.828393
0.072984 0.198006 0.827715
0.0744689 0.198452 0.827118
0.0759589 0.198914 0.826603
0.0774258 0.199318 0.825799
0.0788831 0.199702 0.824895
0.0803606 0.200141 0.824268
0.0818223 0.200542 0.823461
0.0832751 0.200926 0.822568
0.0847571 0.201383 0.82204
0.0862319 0.201824 0.821437
0.0877155 0.202289 0.820948
0.0892267 0.202816 0.820768
0.0907657 0.203406 0.820888
0.0923183 0.204022 0.821139
0.0939304 0.204765 0.821996
0.0955904 0.205603 0.823307
0.0972704 0.206474 0.824769
0.0989664 0.207369 0.826331
0.100675 0.208278 0.827955
0.102327 0.209064 0.828976
0.103938 0.20976 0.829567
0.114426 0.213068 0.826253
0.115798 0.213313 0.824726
0.117217 0.213649 0.823631
0.118522 0.213787 0.821624
0.119854 0.213981 0.819883
0.121229 0.214256 0.818522
0.1225 0.214357 0.816368
0.123722 0.21438 0.813874
0.124931 0.214394 0.811347
0.126074 0.214306 0.808369
0.127223 0.214239 0.805505
0.128428 0.214275 0.803118
0.129647 0.214343 0.800885
0.130919 0.214504 0.799081
0.132258 0.214779 0.7978
0.13361 0.215077 0.796627
0.134974 0.215397 0.795555
0.136344 0.215732 0.794553
0.137728 0.216089 0.793654
0.139127 0.216473 0.792877
0.140543 0.216883 0.792216
0.14197 0.217312 0.791643
0.143393 0.217736 0.791048
0.144859 0.218224 0.790737
0.146317 0.218701 0.790378
0.147766 0.219165 0.789961
0.149192 0.219597 0.789406
0.150607 0.220013 0.788786
0.151943 0.22032 0.787693
0.153277 0.220625 0.786599
0.15467 0.221016 0.785876
0.156134 0.221507 0.785588
0.157611 0.222017 0.785377
0.159118 0.222566 0.785332
0.160681 0.223191 0.785612
0.162197 0.223752 0.785613
0.163671 0.224254 0.785366
0.165205 0.224837 0.78546
0.16674 0.225419 0.785546
0.16825 0.225968 0.785494
0.169794 0.22656 0.78562
0.171355 0.227173 0.785834
0.172917 0.227786 0.78604
0.17454 0.228475 0.786564
0.17617 0.229171 0.787109
0.177807 0.229873 0.787675
0.179455 0.230587 0.788285
0.181102 0.231296 0.788872
0.182736 0.231986 0.78938
0.184473 0.232802 0.790392
0.186265 0.233681 0.791656
0.188146 0.234663 0.79333
0.190131 0.235766 0.795487
0.192211 0.236976 0.798064
0.194255 0.238136 0.800421
0.196242 0.23922 0.802462
0.198118 0.240166 0.803938
0.0560249 0.194583 0.834103
0.0575044 0.194974 0.833203
0.0589951 0.195409 0.83253
0.0604656 0.195781 0.831538
0.0619451 0.196188 0.830731
0.0634282 0.196612 0.83001
0.0649146 0.19705 0.829363
