ply
format ascii 1.0
element vertex 1625
property float x
property float y
property float z
end_header
-0.100048 -0.172759 0.458714
-0.100332 -0.173387 0.45885
-0.100634 -0.174034 0.459034
-0.100997 -0.174748 0.4594
-0.101351 -0.175454 0.459736
-0.101691 -0.176146 0.460031
-0.101969 -0.176771 0.460136
-0.102217 -0.177365 0.460153
-0.102463 -0.177957 0.460163
-0.102692 -0.178529 0.460119
-0.102924 -0.179106 0.460085
-0.103177 -0.179707 0.460113
-0.103464 -0.180346 0.460237
-0.10383 -0.181072 0.46059
-0.10437 -0.181995 0.461448
-0.10497 -0.182985 0.462474
-0.106369 -0.184086 0.464237
-0.105678 -0.184101 0.46381
-0.0983874 -0.163781 0.473079
-0.0983305 -0.164066 0.47213
-0.0983043 -0.164381 0.471282
-0.0982869 -0.164703 0.470463
-0.0982437 -0.164999 0.469568
-0.0982068 -0.165299 0.468693
-0.0981156 -0.165543 0.467653
-0.0980575 -0.165818 0.46672
-0.0980594 -0.166154 0.465976
-0.0980687 -0.166496 0.465258
-0.098113 -0.166874 0.464653
-0.0982105 -0.167307 0.464214
-0.0983214 -0.167752 0.463817
-0.0984169 -0.168181 0.463372
-0.0985444 -0.168643 0.46303
-0.0986359 -0.169068 0.462576
-0.0986874 -0.169451 0.462002
-0.098714 -0.169804 0.461349
-0.098727 -0.170144 0.460659
-0.0987773 -0.170523 0.460086
-0.0988652 -0.170939 0.459625
-0.0989937 -0.171401 0.459294
-0.0991463 -0.171887 0.459033
-0.0993425 -0.17242 0.458905
-0.0995285 -0.172942 0.458745
-0.0997845 -0.17354 0.458796
-0.100058 -0.174158 0.458898
-0.100404 -0.174856 0.459219
-0.100756 -0.175559 0.45955
-0.101108 -0.176266 0.459882
-0.101389 -0.176896 0.46
-0.101649 -0.177502 0.460051
-0.101896 -0.178095 0.460064
-0.102124 -0.178667 0.460021
-0.102368 -0.179259 0.460024
-0.102634 -0.179874 0.460089
-0.102932 -0.180526 0.460248
-0.10326 -0.181213 0.460494
-0.103756 -0.182087 0.461227
-0.104308 -0.183028 0.462121
-0.104983 -0.184108 0.463367
-0.0984918 -0.163542 0.474184
-0.0985656 -0.16327 0.475193
-0.0979821 -0.163408 0.475076
-0.0979882 -0.16376 0.474321
-0.0979276 -0.164041 0.473352
-0.0978461 -0.1643 0.472319
-0.0977856 -0.164579 0.471358
-0.0977339 -0.164865 0.470427
-0.0976567 -0.165125 0.46942
-0.0976105 -0.165414 0.468514
-0.0975311 -0.165667 0.467506
-0.0974983 -0.165968 0.466649
-0.0975034 -0.166305 0.465912
-0.0975365 -0.166672 0.465267
-0.0975927 -0.167061 0.464697
-0.0976909 -0.167494 0.464259
-0.0977916 -0.167928 0.46383
-0.0978967 -0.168368 0.463417
-0.0980256 -0.168831 0.463074
-0.0981428 -0.169283 0.4627
-0.0982227 -0.169693 0.462208
-0.0982649 -0.170064 0.461603
-0.0982793 -0.170405 0.460916
-0.0983268 -0.17078 0.46033
-0.098392 -0.171172 0.459799
-0.0985081 -0.17162 0.459427
-0.0986595 -0.172105 0.459163
-0.0988435 -0.172625 0.458996
-0.099028 -0.173146 0.458833
-0.0992597 -0.173719 0.458812
-0.0995186 -0.174321 0.458872
-0.0998513 -0.175005 0.459152
-0.100201 -0.175709 0.459482
-0.100543 -0.176404 0.459784
-0.100845 -0.177059 0.45997
-0.101118 -0.17768 0.460059
-0.101365 -0.178274 0.460076
-0.101604 -0.17886 0.460066
-0.10186 -0.179464 0.460104
-0.102138 -0.180094 0.460207
-0.102439 -0.18075 0.460375
-0.102755 -0.181424 0.460586
-0.103197 -0.182242 0.461169
-0.103702 -0.183131 0.461929
-0.104318 -0.18415 0.463011
-0.105723 -0.185266 0.464797
-0.105003 -0.185248 0.464289
-0.106405 -0.186361 0.46605
-0.105657 -0.186314 0.465467
-0.107023 -0.187386 0.467111
-0.106285 -0.187353 0.466566
-0.107595 -0.188361 0.468033
-0.106856 -0.18833 0.467491
-0.097409 -0.163558 0.474995
-0.0974534 -0.163946 0.474359
-0.0974215 -0.164256 0.473479
-0.0973388 -0.164513 0.47244
-0.0972549 -0.164767 0.471399
-0.0971649 -0.165011 0.47034
-0.0970644 -0.165246 0.469256
-0.0970187 -0.165533 0.468347
-0.0969501 -0.165797 0.467371
-0.0969311 -0.166109 0.466553
-0.0969484 -0.166459 0.465854
-0.0970046 -0.166848 0.46528
-0.0970733 -0.16725 0.464745
-0.097163 -0.167673 0.464281
-0.097275 -0.168119 0.463883
-0.0973792 -0.168558 0.463467
-0.0975075 -0.169021 0.463125
-0.0976364 -0.169483 0.462782
-0.0977407 -0.16992 0.462367
-0.0977971 -0.170305 0.461803
-0.0978354 -0.170671 0.461185
-0.097894 -0.171057 0.460631
-0.097947 -0.171437 0.460062
-0.0980505 -0.17187 0.459648
-0.0981895 -0.172342 0.459346
-0.0983504 -0.172838 0.45911
-0.0985238 -0.173347 0.458911
-0.0987447 -0.173908 0.458858
-0.0989929 -0.1745 0.458887
-0.0993151 -0.175174 0.459139
-0.099664 -0.175878 0.459469
-0.100005 -0.176575 0.459773
-0.100318 -0.17724 0.459988
-0.100602 -0.177875 0.460115
-0.100849 -0.17847 0.460131
-0.101099 -0.179069 0.460156
-0.101355 -0.179675 0.460196
-0.101634 -0.180306 0.460302
-0.10195 -0.180981 0.460517
-0.102266 -0.181656 0.460731
-0.102671 -0.182433 0.461204
-0.10312 -0.183263 0.461808
-0.103676 -0.184215 0.462718
-0.104304 -0.185252 0.463837
-0.104927 -0.186286 0.464934
-0.105563 -0.187338 0.466064
-0.10616 -0.188347 0.467073
-0.0976179 -0.164157 0.478251
-0.0968775 -0.163751 0.475051
-0.0969453 -0.164161 0.474486
-0.0969288 -0.164485 0.473652
-0.0968606 -0.164756 0.472654
-0.0967784 -0.165009 0.471613
-0.0966857 -0.165251 0.470544
-0.0965626 -0.165459 0.46938
-0.0965052 -0.165733 0.468429
-0.0964382 -0.165996 0.467453
-0.0964206 -0.16631 0.466639
-0.096429 -0.166649 0.465908
-0.0964969 -0.167051 0.465369
-0.096567 -0.167453 0.464837
-0.096659 -0.167878 0.464376
-0.0967727 -0.168326 0.463985
-0.0968863 -0.168773 0.463594
-0.0970131 -0.169235 0.463248
-0.0971513 -0.169708 0.462935
-0.0972682 -0.170159 0.462557
-0.0973367 -0.170556 0.462028
-0.0973989 -0.170947 0.461483
-0.0974698 -0.171346 0.460964
-0.0975249 -0.171727 0.460397
-0.0976168 -0.172149 0.459949
-0.0977425 -0.172605 0.459602
-0.0978691 -0.173064 0.459261
-0.0980308 -0.17356 0.459025
-0.0982301 -0.174099 0.458908
-0.0984804 -0.174693 0.458943
-0.0988024 -0.175368 0.459195
-0.0991518 -0.176075 0.459531
-0.0994908 -0.176769 0.459829
-0.099814 -0.17745 0.460081
-0.100098 -0.178086 0.460211
-0.100347 -0.178683 0.460233
-0.100609 -0.179296 0.460293
-0.100875 -0.179912 0.460361
-0.101166 -0.18056 0.460507
-0.101483 -0.181236 0.460725
-0.101802 -0.181916 0.460948
-0.102168 -0.182651 0.461312
-0.102553 -0.183411 0.46173
-0.103029 -0.184272 0.462407
-0.103598 -0.185244 0.463357
-0.104166 -0.186218 0.464302
-0.104775 -0.187241 0.46536
-0.105455 -0.18835 0.466622
-0.106722 -0.189317 0.467972
-0.10611 -0.189433 0.467803
-0.0970458 -0.164314 0.478188
-0.0963573 -0.163954 0.47514
-0.0964493 -0.16439 0.474655
-0.0964479 -0.164728 0.473866
-0.0963937 -0.165012 0.47291
-0.096313 -0.165265 0.471869
-0.0962089 -0.165492 0.470755
-0.0960742 -0.165687 0.46955
-0.0960156 -0.165959 0.468592
-0.0959625 -0.166235 0.467655
-0.0959482 -0.166551 0.466846
-0.0959592 -0.166893 0.466121
-0.0960245 -0.167291 0.465573
-0.0960831 -0.167681 0.465003
-0.0961647 -0.168094 0.464506
-0.0962795 -0.168544 0.464118
-0.0963948 -0.168992 0.463731
-0.0965223 -0.169455 0.463385
-0.096659 -0.169927 0.463068
-0.0967756 -0.170376 0.462687
-0.0968559 -0.170786 0.462192
-0.0969332 -0.171192 0.461692
-0.0970191 -0.171608 0.46122
-0.0970878 -0.172003 0.460692
-0.0971906 -0.172436 0.460274
-0.097304 -0.17288 0.459889
-0.0974163 -0.173323 0.459501
-0.0975639 -0.173804 0.459223
-0.0977501 -0.174328 0.459062
-0.097989 -0.174911 0.459066
-0.0983094 -0.175586 0.459317
-0.0986474 -0.176281 0.459618
-0.0989739 -0.176963 0.459881
-0.0992965 -0.177642 0.460131
-0.0995823 -0.178283 0.460269
-0.0998325 -0.178881 0.460295
-0.100106 -0.179508 0.460391
-0.100393 -0.18015 0.460526
-0.100686 -0.180801 0.460678
-0.101012 -0.18149 0.460927
-0.101331 -0.182171 0.461153
-0.101673 -0.18288 0.461444
-0.102005 -0.183579 0.461706
-0.102424 -0.184378 0.46222
-0.102901 -0.185247 0.462905
-0.10339 -0.186132 0.463622
-0.103955 -0.187107 0.464559
-0.104742 -0.188342 0.466142
-0.105521 -0.189572 0.467694
-0.106762 -0.190514 0.468967
-0.106336 -0.190848 0.469345
-0.0964481 -0.164445 0.478041
-0.0958297 -0.164151 0.47521
-0.095924 -0.164589 0.474731
-0.0959448 -0.16495 0.474012
-0.0959168 -0.165257 0.473134
-0.0958385 -0.165512 0.472096
-0.0957352 -0.16574 0.470982
-0.095611 -0.165943 0.469802
-0.0955536 -0.166215 0.468844
-0.0955039 -0.166494 0.467916
-0.0954921 -0.166811 0.467111
-0.0955022 -0.167151 0.46638
-0.0955554 -0.167535 0.465786
-0.0955989 -0.167909 0.465168
-0.095669 -0.16831 0.464633
-0.0957842 -0.168759 0.464245
-0.0959016 -0.16921 0.463864
-0.0960298 -0.169673 0.463518
-0.096169 -0.170147 0.463207
-0.0962954 -0.170608 0.462858
-0.0963895 -0.171032 0.462404
-0.0964794 -0.171453 0.461942
-0.0965908 -0.171895 0.461546
-0.0966732 -0.172306 0.461061
-0.0967786 -0.172741 0.460647
-0.0968919 -0.173186 0.460262
-0.0970013 -0.173626 0.459863
-0.0971353 -0.174092 0.459541
-0.0973068 -0.1746 0.459336
-0.0975316 -0.175168 0.459295
-0.0978277 -0.175816 0.459471
-0.0981403 -0.176485 0.459699
-0.0984539 -0.177153 0.459924
-0.098775 -0.177833 0.460173
-0.0990725 -0.178487 0.460346
-0.0993365 -0.179102 0.460416
-0.0996328 -0.179757 0.460584
-0.0999223 -0.180403 0.460728
-0.100213 -0.181052 0.460873
-0.100529 -0.18173 0.461094
-0.100844 -0.182409 0.46131
-0.10116 -0.183089 0.461526
-0.101465 -0.183758 0.461707
-0.10184 -0.184509 0.462096
-0.102272 -0.185326 0.46265
-0.102706 -0.186149 0.463208
-0.1032 -0.187043 0.46394
-0.104079 -0.18839 0.465806
-0.104962 -0.189748 0.467677
-0.105914 -0.191191 0.469741
-0.107159 -0.192137 0.471009
-0.106844 -0.192612 0.471728
-0.108524 -0.194068 0.474246
-0.107487 -0.193697 0.472864
-0.0951851 -0.163888 0.475687
-0.0953342 -0.164381 0.475385
-0.095415 -0.164806 0.474862
-0.0954521 -0.165181 0.474191
-0.095437 -0.165503 0.473354
-0.0953719 -0.16577 0.472354
-0.0952713 -0.165999 0.471244
-0.0951699 -0.166223 0.470131
-0.0951153 -0.166498 0.469179
-0.0950779 -0.166788 0.468283
-0.0950693 -0.167107 0.467484
-0.0950785 -0.167445 0.466746
-0.0951068 -0.167803 0.466073
-0.095137 -0.168162 0.465407
-0.0951833 -0.168537 0.464795
-0.0952976 -0.168985 0.464401
-0.0954161 -0.169437 0.464023
-0.0955461 -0.169902 0.463683
-0.0956867 -0.170378 0.463375
-0.0958246 -0.170851 0.463061
-0.0959309 -0.171289 0.462645
-0.0960336 -0.171723 0.46222
-0.0961684 -0.172192 0.461897
-0.0962634 -0.172616 0.461447
-0.09637 -0.173052 0.461036
-0.0964737 -0.173486 0.460618
-0.096585 -0.173927 0.460223
-0.0966965 -0.174369 0.459831
-0.0968567 -0.174866 0.459591
-0.0970552 -0.175404 0.459468
-0.0973263 -0.176025 0.459568
-0.0976227 -0.176677 0.459749
-0.0979337 -0.177345 0.45997
-0.0982541 -0.178024 0.460216
-0.0985733 -0.178703 0.460458
-0.0988619 -0.179349 0.460605
-0.099161 -0.180006 0.46078
-0.0994517 -0.180656 0.46093
-0.0997411 -0.181305 0.461075
-0.100044 -0.181969 0.461254
-0.100334 -0.18262 0.461399
-0.100638 -0.183288 0.46158
-0.100916 -0.183926 0.461683
-0.101264 -0.184647 0.461994
-0.101656 -0.18542 0.462432
-0.102046 -0.186192 0.462863
-0.10257 -0.187124 0.463691
-0.103535 -0.188579 0.465824
-0.105503 -0.191548 0.470172
-0.106481 -0.193031 0.472309
-0.107044 -0.194025 0.473215
-0.108764 -0.195538 0.475848
-0.107523 -0.194921 0.473869
-0.094694 -0.164124 0.475882
-0.0948303 -0.164605 0.475538
-0.094919 -0.165036 0.475037
-0.0949669 -0.165423 0.474399
-0.0949646 -0.165757 0.4736
-0.0949134 -0.166037 0.472642
-0.0948268 -0.166278 0.47157
-0.094738 -0.166516 0.470495
-0.0946864 -0.166792 0.469547
-0.0946513 -0.167084 0.468657
-0.0946416 -0.167402 0.467851
-0.0946398 -0.167727 0.467071
-0.0946454 -0.168059 0.466321
-0.0946641 -0.168406 0.465617
-0.0947089 -0.168778 0.464996
-0.0948133 -0.169215 0.464569
-0.0949313 -0.169667 0.464188
-0.0950718 -0.170143 0.463879
-0.0952115 -0.170618 0.463568
-0.0953404 -0.17108 0.463222
-0.0954582 -0.171532 0.462844
-0.0955735 -0.171979 0.462457
-0.0957101 -0.17245 0.462137
-0.0958258 -0.172897 0.461753
-0.0959548 -0.173359 0.461411
-0.0960695 -0.173805 0.461025
-0.0961844 -0.17425 0.460639
-0.0962873 -0.174683 0.460219
-0.0964368 -0.175166 0.45994
-0.0966115 -0.175679 0.459744
-0.0968572 -0.176272 0.459768
-0.0971401 -0.176909 0.459905
-0.0974384 -0.177563 0.460088
-0.097747 -0.178231 0.460303
-0.0980687 -0.178915 0.460554
-0.0983687 -0.179575 0.460739
-0.0986711 -0.180238 0.460926
-0.0989822 -0.180912 0.461141
-0.0992714 -0.181561 0.461283
-0.0995592 -0.18221 0.461421
-0.0998368 -0.182847 0.461528
-0.100127 -0.1835 0.461668
-0.100384 -0.184114 0.461709
-0.100721 -0.184825 0.461991
-0.101099 -0.185582 0.462389
-0.101463 -0.186327 0.462748
-0.102026 -0.187307 0.463697
-0.103032 -0.188816 0.465963
-0.105052 -0.19186 0.47049
-0.106058 -0.193384 0.472723
-0.106561 -0.194309 0.473455
-0.106986 -0.195143 0.473953
-0.107961 -0.19577 0.4744
-0.107392 -0.195955 0.474394
-0.108303 -0.196503 0.474643
-0.107692 -0.19664 0.474516
-0.0942935 -0.164795 0.475582
-0.0943787 -0.165221 0.475065
-0.0944297 -0.165611 0.474439
-0.0944385 -0.165955 0.473673
-0.0944112 -0.166259 0.472788
-0.0943256 -0.166501 0.471716
-0.0942503 -0.166751 0.47068
-0.0942097 -0.167037 0.469763
-0.0941879 -0.167342 0.468912
-0.0941891 -0.167671 0.468138
-0.0941987 -0.168007 0.467393
-0.0942042 -0.168339 0.46664
-0.0942237 -0.168685 0.465932
-0.09427 -0.169058 0.465314
-0.0943647 -0.169485 0.464855
-0.0944708 -0.169923 0.464432
-0.0946101 -0.170399 0.46412
-0.0947373 -0.17086 0.463767
-0.0948663 -0.171323 0.463421
-0.0949845 -0.171773 0.46304
-0.095101 -0.172222 0.462656
-0.0952273 -0.172682 0.462304
-0.0953431 -0.173129 0.461917
-0.0954725 -0.173591 0.461575
-0.0955998 -0.174051 0.461227
-0.0957376 -0.174522 0.460913
-0.0958531 -0.174969 0.46053
-0.0960134 -0.175465 0.460286
-0.096177 -0.175966 0.460055
-0.0964097 -0.176546 0.460038
-0.0966703 -0.177158 0.460108
-0.0969568 -0.177801 0.460257
-0.097256 -0.178459 0.460443
-0.0975874 -0.179154 0.460725
-0.0978896 -0.179817 0.460916
-0.0982025 -0.180495 0.46114
-0.0985132 -0.18117 0.461355
-0.0988001 -0.181818 0.461494
-0.0990864 -0.182465 0.461626
-0.0993638 -0.183104 0.461732
-0.0996529 -0.183756 0.461872
-0.0999206 -0.184385 0.461946
-0.100259 -0.185099 0.462235
-0.100605 -0.18582 0.462539
-0.100957 -0.18655 0.46286
-0.101506 -0.187518 0.463775
-0.102482 -0.188999 0.465966
-0.103445 -0.190467 0.468103
-0.10446 -0.192006 0.470392
-0.105454 -0.193521 0.4726
-0.105956 -0.194447 0.473335
-0.10637 -0.19527 0.473805
-0.106762 -0.196066 0.474206
-0.107061 -0.19675 0.474328
-0.108699 -0.198181 0.476711
-0.107343 -0.197414 0.474397
-0.0936185 -0.164502 0.475966
-0.0937679 -0.164996 0.475664
-0.0938326 -0.1654 0.475076
-0.0938963 -0.165803 0.474489
-0.0939146 -0.166156 0.473751
-0.0939047 -0.166478 0.472922
-0.0938202 -0.166719 0.471849
-0.0937673 -0.166992 0.470884
-0.0937291 -0.167279 0.46997
-0.0937093 -0.167586 0.469122
-0.0937219 -0.167925 0.46838
-0.0937333 -0.168263 0.467638
-0.0937422 -0.168597 0.466891
-0.0937741 -0.168955 0.466221
-0.0938331 -0.169343 0.465641
-0.093928 -0.16977 0.465182
-0.094025 -0.170197 0.464727
-0.0941511 -0.170658 0.464371
-0.0942658 -0.171106 0.463976
-0.0943943 -0.171568 0.463627
-0.0945009 -0.172007 0.463211
-0.0946177 -0.172455 0.462823
-0.0947425 -0.172912 0.462465
-0.0948598 -0.173362 0.462084
-0.0949782 -0.173812 0.461707
-0.0951188 -0.174287 0.461399
-0.0952684 -0.174771 0.461121
-0.0953967 -0.175232 0.460775
-0.0955564 -0.175728 0.460531
-0.0957195 -0.176229 0.460297
-0.0959523 -0.176808 0.460279
-0.0962131 -0.177423 0.460352
-0.0965002 -0.178068 0.460504
-0.0968088 -0.178738 0.460721
-0.0971494 -0.179446 0.461034
-0.0974398 -0.180097 0.46119
-0.0977395 -0.18076 0.461374
-0.0980393 -0.181422 0.461554
-0.0983148 -0.182059 0.461661
-0.0985912 -0.182697 0.461767
-0.0988677 -0.183335 0.46187
-0.0991674 -0.184001 0.462045
-0.0994588 -0.184658 0.46219
-0.0998205 -0.185401 0.46255
-0.100178 -0.186139 0.462894
-0.100552 -0.186897 0.463284
-0.101102 -0.18787 0.464207
-0.101977 -0.189235 0.466102
-0.102853 -0.190605 0.46799
-0.103786 -0.19205 0.470043
-0.104715 -0.193494 0.472073
-0.105328 -0.194558 0.473146
-0.105756 -0.195397 0.473657
-0.106137 -0.196183 0.474033
-0.106421 -0.19685 0.474112
-0.106674 -0.197478 0.474097
-0.107588 -0.198035 0.47436
-0.106903 -0.198078 0.474011
-0.10781 -0.198627 0.474252
-0.107108 -0.198651 0.473857
-0.0934897 -0.166132 0.474969
-0.093459 -0.166432 0.474064
-0.0934182 -0.166719 0.473125
-0.093322 -0.166945 0.472008
-0.0932593 -0.167207 0.471007
-0.093214 -0.167485 0.470065
-0.0932061 -0.167803 0.469252
-0.0932316 -0.168156 0.468551
-0.0932557 -0.168507 0.467848
-0.0932898 -0.168868 0.46718
-0.0933358 -0.169241 0.466552
-0.0934076 -0.169642 0.466013
-0.0935023 -0.170068 0.465548
-0.0935876 -0.170484 0.465057
-0.0936908 -0.170918 0.464621
-0.0937946 -0.171354 0.464191
-0.0939106 -0.171802 0.4638
-0.0939975 -0.172217 0.463315
-0.0941127 -0.172664 0.462924
-0.0942248 -0.173107 0.462524
-0.0943408 -0.173555 0.462137
-0.0944599 -0.174005 0.46176
-0.0946124 -0.174493 0.46149
-0.0947638 -0.17498 0.461217
-0.094904 -0.175455 0.46091
-0.095076 -0.175965 0.460704
-0.0952504 -0.176479 0.460503
-0.0954941 -0.177073 0.460523
-0.0957659 -0.177701 0.460631
-0.0960637 -0.178359 0.460817
-0.0963723 -0.17903 0.461033
-0.0967125 -0.17974 0.46135
-0.0969996 -0.180388 0.461496
-0.0972883 -0.18104 0.461648
-0.0975742 -0.181688 0.461786
-0.0978381 -0.182311 0.461856
-0.0981022 -0.182935 0.461925
-0.0983682 -0.183563 0.461999
-0.09867 -0.184232 0.46218
-0.0989731 -0.184905 0.462366
-0.0993486 -0.185665 0.462769
-0.0997062 -0.186406 0.463116
-0.100078 -0.187163 0.463502
-0.100616 -0.188124 0.464391
-0.10138 -0.189361 0.465961
-0.10217 -0.190632 0.467601
-0.103054 -0.192023 0.469517
-0.10395 -0.193432 0.471461
-0.104667 -0.194627 0.472856
-0.105131 -0.195512 0.473481
-0.105511 -0.196298 0.473854
-0.105791 -0.19696 0.473923
-0.106014 -0.197553 0.473822
-0.106214 -0.198118 0.473653
-0.106404 -0.198671 0.473453
-0.107951 -0.20001 0.475577
-0.10658 -0.199205 0.47321
-0.0930971 -0.166479 0.475503
-0.09302 -0.166727 0.474435
-0.0929343 -0.166965 0.473342
-0.0928248 -0.167174 0.472173
-0.0927314 -0.1674 0.471064
-0.0926881 -0.167679 0.470125
-0.0926703 -0.167984 0.469273
-0.0927067 -0.168349 0.468608
-0.092743 -0.168713 0.467943
-0.0927921 -0.169089 0.46732
-0.0928418 -0.169466 0.466704
-0.092934 -0.169889 0.466228
-0.0930285 -0.170316 0.465763
-0.0931032 -0.170718 0.465231
-0.0932059 -0.171152 0.464795
-0.0933078 -0.171585 0.464356
-0.0934131 -0.172021 0.46393
-0.0934894 -0.172424 0.463409
-0.0936034 -0.172869 0.463012
-0.0937044 -0.173299 0.462574
-0.0938187 -0.173744 0.462181
-0.0939484 -0.174207 0.461838
-0.0941124 -0.174709 0.461606
-0.0942761 -0.17521 0.461371
-0.0944395 -0.175711 0.461136
-0.0946235 -0.176236 0.460967
-0.0948107 -0.176765 0.460808
-0.0950774 -0.177387 0.4609
-0.0953508 -0.178018 0.461013
-0.095651 -0.17868 0.461208
-0.0959479 -0.179341 0.461393
-0.096265 -0.180024 0.461636
-0.09653 -0.180647 0.461713
-0.0968048 -0.181283 0.461821
-0.0970877 -0.181929 0.461953
-0.097349 -0.18255 0.462016
-0.0976127 -0.183176 0.462088
-0.0978884 -0.183815 0.462191
-0.0981905 -0.184486 0.462374
-0.0984959 -0.185163 0.462569
-0.0988733 -0.185928 0.462981
-0.099243 -0.186683 0.463365
-0.099626 -0.187458 0.463791
-0.100074 -0.188312 0.464409
-0.100752 -0.189448 0.465725
-0.101488 -0.190659 0.467212
-0.102328 -0.192001 0.469007
-0.103197 -0.193382 0.470879
-0.103992 -0.194676 0.472519
-0.104494 -0.195611 0.473265
-0.104882 -0.196408 0.473666
-0.105156 -0.197064 0.47372
-0.105339 -0.197607 0.473498
-0.105511 -0.198137 0.473246
-0.105674 -0.198655 0.472966
-0.105824 -0.199158 0.472649
-0.0926113 -0.166395 0.476542
-0.0925595 -0.16667 0.47555
-0.0924698 -0.166903 0.474433
-0.0923775 -0.167132 0.473315
-0.0922765 -0.167348 0.472169
-0.0921824 -0.167571 0.47105
-0.0921493 -0.16786 0.470143
-0.0921424 -0.168175 0.469324
-0.0921898 -0.168552 0.468693
-0.0922377 -0.168927 0.468063
-0.0923093 -0.169328 0.467513
-0.0923615 -0.169708 0.466904
-0.0924653 -0.170143 0.466463
-0.0925594 -0.170569 0.465994
-0.0926332 -0.17097 0.465459
-0.0927267 -0.171394 0.464991
-0.092828 -0.171826 0.464548
-0.0929124 -0.172238 0.464052
-0.0929764 -0.172626 0.46349
-0.0930692 -0.173046 0.46302
-0.0931592 -0.173464 0.462548
-0.0932742 -0.173909 0.462154
-0.0934157 -0.174385 0.46185
-0.0935814 -0.174888 0.461621
-0.0937671 -0.175416 0.461458
-0.0939417 -0.17593 0.461258
-0.0941283 -0.176459 0.461098
-0.0943282 -0.177003 0.46098
-0.0946192 -0.177654 0.46115
-0.0948843 -0.178276 0.461238
-0.0952045 -0.178964 0.461499
-0.0955115 -0.179637 0.461714
-0.0958286 -0.180323 0.461961
-0.0960815 -0.180934 0.462003
-0.096354 -0.181567 0.462104
-0.0966138 -0.182187 0.462164
-0.0968625 -0.182794 0.462189
-0.0971131 -0.183403 0.462217
-0.0973876 -0.184043 0.462319
-0.0976993 -0.184728 0.462537
-0.098027 -0.185433 0.4628
-0.0984172 -0.186215 0.463256
-0.0987893 -0.186977 0.463651
-0.099183 -0.187766 0.464111
-0.0995512 -0.188524 0.464486
-0.100147 -0.189564 0.465559
-0.100824 -0.190707 0.466876
-0.101614 -0.191991 0.468528
-0.102447 -0.193332 0.470301
-0.103287 -0.194688 0.472089
-0.103802 -0.195642 0.472882
-0.104189 -0.196438 0.473283
-0.10446 -0.19709 0.473328
-0.104628 -0.197616 0.473066
-0.104774 -0.198111 0.472734
-0.104935 -0.198626 0.472448
-0.105081 -0.199124 0.472122
-0.106616 -0.200465 0.474235
-0.105199 -0.199584 0.471707
-0.092637 -0.166089 0.477446
-0.0922006 -0.166061 0.478677
-0.0920679 -0.166249 0.477393
-0.0920405 -0.166552 0.47648
-0.0919884 -0.166826 0.475484
-0.0919026 -0.167061 0.474377
-0.0918116 -0.167288 0.473256
-0.0917243 -0.167518 0.472152
-0.0916302 -0.167739 0.47103
-0.0915983 -0.168027 0.47012
-0.0915925 -0.168344 0.469303
-0.0916402 -0.168719 0.46867
-0.0916891 -0.169094 0.46804
-0.0917723 -0.169508 0.467528
-0.0918361 -0.169899 0.466954
-0.0919507 -0.170348 0.466551
-0.0920564 -0.170785 0.466117
-0.0921319 -0.171188 0.465585
-0.0922262 -0.171612 0.465117
-0.0923182 -0.172033 0.464643
-0.0923802 -0.172419 0.464071
-0.0924315 -0.172791 0.463464
-0.0925116 -0.173197 0.462956
-0.0925917 -0.173601 0.462446
-0.0927192 -0.174061 0.462093
-0.0928846 -0.174565 0.461865
-0.0930626 -0.175083 0.461677
-0.0932511 -0.175614 0.461524
-0.0934244 -0.176127 0.46132
-0.0936107 -0.176655 0.461157
-0.0938219 -0.177213 0.461076
-0.0941253 -0.177881 0.46129
-0.0944035 -0.178519 0.461419
-0.0947451 -0.179235 0.461751
-0.0950612 -0.17992 0.461998
-0.0953658 -0.180592 0.462207
-0.0956072 -0.181189 0.462211
-0.0958676 -0.181811 0.462277
-0.0961037 -0.182402 0.462262
-0.0963411 -0.182996 0.462252
-0.0965811 -0.183594 0.462249
-0.0968446 -0.184221 0.46232
-0.0971539 -0.184903 0.462528
-0.0974915 -0.185622 0.462825
-0.0978916 -0.186418 0.463315
-0.0982879 -0.187211 0.463788
-0.0987171 -0.188045 0.46436
-0.0991338 -0.188867 0.464893
-0.0996947 -0.189868 0.465863
-0.100327 -0.190958 0.467045
-0.101054 -0.192171 0.468517
-0.101814 -0.193428 0.470079
-0.102577 -0.194691 0.471641
-0.103092 -0.195647 0.47244
-0.103466 -0.196429 0.472804
-0.103726 -0.197068 0.472821
-0.103882 -0.197576 0.47252
-0.104025 -0.198069 0.472182
-0.104183 -0.19858 0.471891
-0.10432 -0.199065 0.471534
-0.104436 -0.199521 0.471114
-0.10607 -0.200999 0.473538
-0.104688 -0.200152 0.471105
-0.0913967 -0.166957 0.475345
-0.0913278 -0.16721 0.474292
-0.0912263 -0.167423 0.47313
-0.0911541 -0.167668 0.472074
-0.0910537 -0.167879 0.470923
-0.0910139 -0.168157 0.469984
-0.091009 -0.168473 0.469168
-0.0910583 -0.16885 0.468538
-0.0911091 -0.169227 0.467914
-0.0911923 -0.169639 0.4674
-0.0912673 -0.170042 0.46686
-0.0913948 -0.170504 0.466499
-0.0914925 -0.170933 0.46604
-0.09157 -0.171337 0.465511
-0.091673 -0.17177 0.465072
-0.091766 -0.172191 0.464597
-0.0918075 -0.172553 0.463956
-0.0918665 -0.172934 0.463374
-0.0919529 -0.173345 0.462883
-0.0920236 -0.173739 0.462343
-0.0921537 -0.174201 0.461998
-0.092332 -0.17472 0.461813
-0.0925127 -0.175242 0.461635
-0.0927005 -0.175772 0.461478
-0.092883 -0.176295 0.461303
-0.0930676 -0.176822 0.461137
-0.0932877 -0.177391 0.461084
-0.0935922 -0.178062 0.461305
-0.0938807 -0.178713 0.461468
-0.0942231 -0.179431 0.461806
-0.094539 -0.180117 0.462053
-0.0948447 -0.180792 0.462268
-0.0950959 -0.181402 0.462306
-0.0953543 -0.182022 0.462366
-0.0955785 -0.1826 0.462316
-0.0958249 -0.183206 0.462335
-0.0960539 -0.18379 0.462297
-0.0963065 -0.184405 0.462333
-0.0966148 -0.185088 0.462544
-0.0969629 -0.185821 0.462876
-0.0973761 -0.186635 0.463409
-0.0977967 -0.18746 0.463963
-0.0982509 -0.188329 0.464618
-0.0986928 -0.189183 0.465228
-0.0992439 -0.190174 0.466173
-0.099837 -0.191222 0.467246
-0.100505 -0.192365 0.46854
-0.101202 -0.193548 0.469919
-0.101894 -0.194727 0.471274
-0.10238 -0.195648 0.471986
-0.102742 -0.196416 0.472319
-0.103001 -0.197055 0.472337
-0.103156 -0.197561 0.472033
-0.103288 -0.198039 0.471661
-0.103446 -0.198549 0.47137
-0.103582 -0.199033 0.471014
-0.103702 -0.199493 0.470606
-0.103956 -0.200127 0.470604
-0.0907285 -0.167004 0.474942
-0.0907028 -0.167303 0.474035
-0.09061 -0.167524 0.472898
-0.0905412 -0.16777 0.471848
-0.0904542 -0.167994 0.470739
-0.090416 -0.168271 0.469801
-0.090413 -0.168588 0.468988
-0.0904731 -0.168976 0.468393
-0.0905344 -0.169363 0.467802
-0.0906199 -0.169779 0.467297
-0.0907065 -0.170194 0.466796
-0.0908259 -0.170647 0.466406
-0.090904 -0.171051 0.465877
-0.0909691 -0.171441 0.465307
-0.0910607 -0.171861 0.464829
-0.0911438 -0.172269 0.464321
-0.0911863 -0.172631 0.463682
-0.0912665 -0.173035 0.463168
-0.0913643 -0.17346 0.462714
-0.0914464 -0.173866 0.46221
-0.0915879 -0.174341 0.461902
-0.0917763 -0.174872 0.461749
-0.0919566 -0.175393 0.461571
-0.0921431 -0.175922 0.461411
-0.0923263 -0.176447 0.461239
-0.0924976 -0.176957 0.461029
-0.0927174 -0.177526 0.460976
-0.0930195 -0.178195 0.46119
-0.0933085 -0.178848 0.46136
-0.0936508 -0.179567 0.461698
-0.0939777 -0.180268 0.461985
-0.0942736 -0.180933 0.462172
-0.0945241 -0.181542 0.462207
-0.0947818 -0.182162 0.462267
-0.0950046 -0.182739 0.462214
-0.0952614 -0.183358 0.462267
-0.0954894 -0.183942 0.462229
-0.0957413 -0.184556 0.462262
-0.0960483 -0.185239 0.462473
-0.096417 -0.185999 0.462873
-0.0968453 -0.186835 0.463459
-0.0973136 -0.187721 0.464165
-0.0978177 -0.188653 0.464978
-0.0983072 -0.189569 0.465741
-0.0988623 -0.190571 0.466706
-0.0994309 -0.191591 0.467704
-0.100045 -0.192671 0.46884
-0.10066 -0.193754 0.46997
-0.101258 -0.194818 0.471043
-0.101685 -0.195668 0.471581
-0.102018 -0.1964 0.471829
-0.102265 -0.197023 0.471809
-0.102421 -0.197531 0.471512
-0.102563 -0.198021 0.471172
-0.102723 -0.198534 0.470887
-0.102873 -0.199035 0.470574
-0.103008 -0.199514 0.470213
-0.103261 -0.200147 0.470211
-0.0899465 -0.166596 0.474963
-0.0899973 -0.166979 0.474315
-0.090033 -0.167343 0.473617
-0.0899675 -0.167594 0.472573
-0.0899107 -0.167851 0.471559
-0.0898554 -0.168109 0.470556
-0.0898168 -0.168385 0.469615
-0.0898248 -0.168711 0.468834
-0.0898855 -0.169099 0.468239
-0.0899498 -0.169489 0.467658
-0.0900259 -0.169892 0.467118
-0.0901121 -0.170307 0.466613
-0.0902195 -0.170745 0.466183
-0.0902762 -0.171124 0.465581
-0.0903385 -0.171509 0.465001
-0.0904269 -0.171925 0.464511
-0.0905093 -0.172331 0.463999
-0.0905576 -0.172698 0.463377
-0.0906615 -0.17313 0.462942
-0.090774 -0.173571 0.462536
-0.0908695 -0.173992 0.462076
-0.0910217 -0.17448 0.461803
-0.0912081 -0.175008 0.461644
-0.0913854 -0.175526 0.461456
-0.09156 -0.176042 0.461259
-0.0917333 -0.176554 0.461055
-0.091896 -0.177054 0.460817
-0.0921154 -0.177623 0.460764
-0.0923926 -0.178262 0.4609
-0.0926797 -0.178915 0.461066
-0.09302 -0.179632 0.461401
-0.0933486 -0.180336 0.461698
-0.0936423 -0.180999 0.461878
-0.0939027 -0.181621 0.461948
-0.0941613 -0.182243 0.462014
-0.0943851 -0.182821 0.461965
-0.0946526 -0.183454 0.462055
-0.0948913 -0.184052 0.462051
-0.0951532 -0.184678 0.462119
-0.0954919 -0.185403 0.462433
-0.0958955 -0.186208 0.462948
-0.096339 -0.187064 0.463583
-0.0968333 -0.187985 0.464376
-0.0973728 -0.188966 0.465307
-0.0978879 -0.189918 0.466156
-0.0984448 -0.190925 0.467131
-0.0990124 -0.191947 0.468131
-0.0995994 -0.192997 0.469188
-0.100148 -0.194 0.47012
-0.100664 -0.194964 0.470945
-0.101034 -0.195744 0.471313
-0.101325 -0.196424 0.471434
-0.101545 -0.197012 0.471331
-0.101713 -0.197534 0.471071
-0.101858 -0.198029 0.470743
-0.10203 -0.198556 0.470496
-0.102192 -0.19907 0.470215
-0.102364 -0.199597 0.469967
-0.102621 -0.200236 0.469978
-0.104182 -0.201643 0.472218
-0.1029 -0.200904 0.470055
-0.0893334 -0.166702 0.474744
-0.0893893 -0.167089 0.474112
-0.0894155 -0.167441 0.473378
-0.0893368 -0.167675 0.472284
-0.08927 -0.167918 0.471232
-0.089225 -0.168186 0.470261
-0.0891889 -0.168463 0.469323
-0.0892087 -0.168803 0.468584
-0.089261 -0.169179 0.467958
-0.0893351 -0.169579 0.467408
-0.0893906 -0.169959 0.466798
-0.0894663 -0.170359 0.466256
-0.0895507 -0.17077 0.465746
-0.0896018 -0.171141 0.465125
-0.0896509 -0.171509 0.464499
-0.08974 -0.171924 0.464009
-0.0898349 -0.172345 0.463542
-0.0899148 -0.172748 0.463024
-0.0900451 -0.173211 0.462678
-0.0901837 -0.173682 0.462358
-0.0903037 -0.174131 0.461977
-0.0904563 -0.17462 0.461707
-0.0906304 -0.175133 0.461507
-0.0908049 -0.175648 0.46131
-0.090969 -0.17615 0.461078
-0.0911426 -0.176663 0.460875
-0.091306 -0.177164 0.460639
-0.0915133 -0.177718 0.460549
-0.091768 -0.178331 0.460612
-0.0920513 -0.178979 0.460769
-0.0923686 -0.179671 0.461036
-0.092684 -0.18036 0.461292
-0.0929762 -0.181022 0.461472
-0.0932354 -0.181642 0.461539
-0.0934922 -0.182262 0.461602
-0.0937296 -0.182858 0.4616
-0.0940209 -0.183521 0.461768
-0.0942831 -0.184148 0.46184
-0.094579 -0.184818 0.46202
-0.094941 -0.185572 0.462408
-0.0953699 -0.186412 0.46301
-0.0958355 -0.187298 0.46372
-0.0963664 -0.188269 0.464634
-0.0969286 -0.189282 0.465643
-0.0974805 -0.190284 0.466612
-0.0980604 -0.191324 0.467666
-0.098616 -0.192335 0.468635
-0.0991741 -0.193351 0.469605
-0.0996694 -0.19429 0.470375
-0.100122 -0.195175 0.471005
-0.100437 -0.195887 0.471206
-0.100698 -0.196529 0.471237
-0.100894 -0.197087 0.471063
-0.101063 -0.19761 0.470804
-0.101209 -0.198105 0.470479
-0.101381 -0.198632 0.470232
-0.101554 -0.199161 0.469987
-0.101752 -0.199721 0.469817
-0.102023 -0.20038 0.469877
-0.102329 -0.201083 0.470034
-0.0886965 -0.166781 0.474441
-0.0887595 -0.167174 0.473832
-0.0887813 -0.167521 0.473082
-0.08869 -0.167737 0.471937
-0.0886162 -0.16797 0.470857
-0.088594 -0.168263 0.469963
-0.088561 -0.16854 0.469032
-0.0885843 -0.168883 0.468303
-0.0886269 -0.169247 0.467641
-0.0886992 -0.169645 0.467085
-0.0887324 -0.169995 0.466393
-0.0887956 -0.170381 0.46581
-0.0888665 -0.170775 0.465253
-0.0889181 -0.171145 0.464632
-0.0889689 -0.171515 0.464012
-0.0890602 -0.171931 0.463529
-0.0891682 -0.172366 0.463104
-0.0892807 -0.172807 0.462697
-0.0894337 -0.173296 0.462428
-0.0895856 -0.173782 0.462151
-0.0897275 -0.174259 0.461847
-0.0898803 -0.174747 0.461577
-0.090044 -0.175248 0.461342
-0.090208 -0.17575 0.46111
-0.0903814 -0.176262 0.460907
-0.0905546 -0.176776 0.460706
-0.090719 -0.177278 0.460475
-0.0909147 -0.177819 0.460346
-0.0911553 -0.178415 0.460366
-0.0914239 -0.179045 0.460476
-0.0917068 -0.179695 0.460632
-0.0919994 -0.180356 0.460817
-0.0922774 -0.181001 0.460953
-0.0925333 -0.181619 0.461014
-0.0927806 -0.182226 0.461047
-0.0930392 -0.182849 0.461116
-0.0933646 -0.183555 0.461398
-0.0936634 -0.184229 0.461591
-0.0940075 -0.184962 0.46193
-0.0944176 -0.185778 0.462477
-0.0949038 -0.186691 0.463263
-0.0954057 -0.187626 0.464094
-0.0959779 -0.188654 0.465147
-0.0965504 -0.189683 0.466192
-0.0971271 -0.190722 0.467248
-0.0976875 -0.191741 0.468242
-0.0982295 -0.192738 0.469173
-0.0987473 -0.193708 0.470025
-0.0992013 -0.194596 0.470667
-0.0996014 -0.195417 0.471138
-0.0998787 -0.19608 0.471222
-0.100102 -0.196674 0.471135
-0.100284 -0.197214 0.470919
-0.100453 -0.197738 0.470662
-0.100589 -0.198218 0.470304
-0.100773 -0.19876 0.47009
-0.10097 -0.199321 0.469923
-0.101182 -0.199901 0.469799
-0.10147 -0.20058 0.469905
-0.101803 -0.201322 0.470151
-0.0880265 -0.16682 0.474016
-0.0880997 -0.167224 0.473443
-0.0881291 -0.167577 0.472716
-0.0880507 -0.167806 0.471612
-0.0879889 -0.168051 0.470571
-0.0879821 -0.16836 0.469728
-0.0879529 -0.16864 0.468807
-0.0879695 -0.168973 0.46805
-0.0879994 -0.169321 0.467344
-0.088059 -0.169702 0.466741
-0.0880887 -0.170049 0.466039
-0.0881541 -0.170435 0.465459
-0.0882178 -0.170819 0.464877
-0.0882799 -0.171202 0.464291
-0.0883429 -0.171584 0.46371
-0.0884296 -0.171994 0.463211
-0.0885405 -0.172431 0.462796
-0.0886834 -0.172908 0.462491
-0.0888468 -0.173409 0.462256
-0.0889993 -0.173897 0.461986
-0.0891617 -0.174397 0.461748
-0.0893145 -0.174886 0.461478
-0.0894774 -0.175385 0.46124
-0.0896417 -0.175887 0.461008
-0.0898159 -0.176402 0.460811
-0.0899799 -0.176904 0.460579
-0.0901534 -0.177416 0.460376
-0.0903375 -0.177943 0.46021
-0.0905655 -0.178525 0.460192
-0.09081 -0.179126 0.460223
-0.0910792 -0.179759 0.460336
-0.0913471 -0.180391 0.460442
-0.0916022 -0.181008 0.460507
-0.0918445 -0.18161 0.460527
-0.0920889 -0.182214 0.460554
-0.092358 -0.18285 0.460658
-0.0927074 -0.183587 0.461021
-0.093053 -0.184321 0.46137
-0.0934566 -0.185131 0.461906
-0.0939162 -0.186011 0.462615
-0.0944507 -0.186989 0.463562
-0.0949757 -0.187957 0.464473
-0.0955693 -0.189016 0.4656
-0.0961552 -0.190067 0.466695
-0.0967545 -0.191138 0.467827
-0.0973035 -0.192146 0.46879
-0.0978319 -0.19313 0.469683
-0.0983199 -0.194064 0.470444
-0.0987203 -0.194886 0.470922
-0.0990697 -0.195643 0.471235
-0.0993333 -0.19629 0.471279
-0.0995457 -0.19687 0.471158
-0.0997148 -0.197394 0.470901
-0.0998826 -0.197916 0.470641
-0.100017 -0.198393 0.470274
-0.100201 -0.198937 0.470066
-0.100412 -0.199517 0.469942
-0.100639 -0.200117 0.469864
-0.100943 -0.200819 0.470022
-0.101288 -0.201578 0.470308
-0.0873717 -0.166875 0.473643
-0.087449 -0.167283 0.473083
-0.0874795 -0.167637 0.472359
-0.0874377 -0.167905 0.471381
-0.0873891 -0.168164 0.470381
-0.0873855 -0.168474 0.469545
-0.0873579 -0.168755 0.468627
-0.0873629 -0.169073 0.467829
-0.0873706 -0.169393 0.46704
-0.0874065 -0.169744 0.466351
-0.0874287 -0.170081 0.465621
-0.0874966 -0.17047 0.465051
-0.0875751 -0.170869 0.464517
-0.087661 -0.17128 0.464014
-0.0877455 -0.171685 0.463503
-0.0878533 -0.17212 0.463077
-0.0879752 -0.172572 0.4627
-0.0881187 -0.173049 0.462398
-0.0882813 -0.173549 0.46216
-0.0884335 -0.174036 0.461887
-0.088586 -0.174523 0.461614
-0.0887274 -0.174998 0.461307
-0.0888997 -0.175509 0.4611
-0.0890636 -0.176011 0.460869
-0.0892398 -0.176528 0.460678
-0.0894146 -0.177042 0.460481
-0.0895984 -0.177569 0.460315
-0.0897719 -0.178082 0.460115
-0.0899882 -0.178649 0.460055
-0.0902202 -0.179236 0.460049
-0.0904667 -0.179842 0.46009
-0.0907108 -0.180445 0.460121
-0.0909513 -0.181043 0.460136
-0.0911804 -0.181629 0.460116
-0.0914135 -0.182218 0.460105
-0.0916933 -0.182869 0.46025
-0.0920735 -0.183647 0.460719
-0.092486 -0.184468 0.46129
-0.0929612 -0.185369 0.462059
-0.0934807 -0.18633 0.46297
-0.0940508 -0.187358 0.464038
-0.094587 -0.188345 0.464993
-0.0951721 -0.189397 0.466097
-0.0957469 -0.190438 0.467163
-0.0963586 -0.191528 0.468338
-0.0969074 -0.19254 0.469307
-0.0974208 -0.193509 0.470159
-0.09788 -0.194408 0.470829
-0.0982517 -0.195195 0.47122
-0.0985622 -0.195903 0.471412
-0.0988128 -0.196534 0.471415
-0.0990249 -0.197113 0.471291
-0.0991828 -0.197623 0.471
-0.0993374 -0.198127 0.470697
-0.0994577 -0.198587 0.47029
-0.09963 -0.199115 0.470042
-0.0998313 -0.199681 0.469887
-0.10006 -0.200284 0.469815
-0.10035 -0.200969 0.469933
-0.101381 -0.202645 0.472342
-0.0867553 -0.166973 0.473401
-0.0868243 -0.167371 0.472812
-0.0868486 -0.167716 0.472064
-0.0868216 -0.167999 0.471133
-0.0867982 -0.168286 0.47022
-0.0867849 -0.168583 0.469346
-0.0867579 -0.168862 0.468426
-0.0867578 -0.169172 0.467605
-0.0867546 -0.169479 0.466778
-0.0867802 -0.169818 0.466054
-0.0868148 -0.170166 0.465363
-0.0868962 -0.17057 0.464838
-0.0869792 -0.170975 0.464319
-0.087086 -0.171408 0.463884
-0.0871805 -0.171827 0.46341
-0.0872885 -0.17226 0.462982
-0.0874007 -0.172701 0.462572
-0.0875432 -0.173176 0.462265
-0.0876947 -0.173662 0.461989
-0.0878462 -0.174148 0.461713
-0.0879895 -0.174625 0.461411
-0.0881311 -0.175098 0.461101
-0.0883115 -0.17562 0.460926
-0.0884842 -0.176132 0.460723
-0.0886525 -0.176639 0.460507
-0.0888385 -0.177168 0.460348
-0.0890328 -0.177708 0.460219
-0.0891964 -0.178209 0.459985
-0.0894127 -0.178776 0.459925
-0.0896436 -0.179362 0.459916
-0.0898784 -0.179953 0.459919
-0.0901105 -0.180542 0.459913
-0.090338 -0.181126 0.45989
-0.0905556 -0.181695 0.459829
-0.0907872 -0.182285 0.459818
-0.0910769 -0.182947 0.459995
-0.0914793 -0.183756 0.460542
-0.0919478 -0.184651 0.461303
-0.0924708 -0.185617 0.462234
-0.0930282 -0.18663 0.463276
-0.093621 -0.187691 0.464424
-0.0941748 -0.188704 0.46544
-0.0947568 -0.189755 0.466538
-0.0953209 -0.190786 0.467575
-0.0959323 -0.191881 0.468759
-0.0964802 -0.192896 0.46973
-0.0969686 -0.193835 0.470504
-0.0974027 -0.194704 0.4711
-0.0977589 -0.195473 0.471444
-0.098055 -0.196164 0.471592
-0.0983051 -0.196794 0.471592
-0.0985292 -0.197392 0.471511
-0.0986893 -0.197903 0.471223
-0.0988422 -0.198406 0.470914
-0.0989491 -0.198848 0.470463
-0.099095 -0.19934 0.470132
-0.09927 -0.199872 0.469894
-0.100166 -0.201371 0.471911
-0.0862473 -0.167514 0.472712
-0.08628 -0.167867 0.471989
-0.0862425 -0.168136 0.471017
-0.0862155 -0.168417 0.470088
-0.0861998 -0.168709 0.469202
-0.0861727 -0.168987 0.468278
-0.0861571 -0.169278 0.4674
-0.0861538 -0.169582 0.466567
-0.0861709 -0.169908 0.465808
-0.0862174 -0.17027 0.465159
-0.08632 -0.170699 0.464707
-0.0864325 -0.171139 0.46429
-0.0865413 -0.171575 0.463864
-0.0866462 -0.172005 0.463422
-0.0867536 -0.172437 0.46299
-0.0868454 -0.172852 0.462508
-0.0869667 -0.173301 0.462128
-0.0871057 -0.173771 0.461807
-0.0872558 -0.174256 0.461528
-0.0874004 -0.174734 0.46123
-0.087544 -0.17521 0.460929
-0.0877334 -0.175742 0.460783
-0.0879166 -0.176268 0.460618
-0.0880845 -0.176774 0.460399
-0.0882726 -0.177306 0.460249
-0.0884669 -0.177847 0.460121
-0.0886202 -0.178334 0.459851
-0.0888256 -0.178888 0.459758
-0.0890561 -0.179474 0.459749
-0.0892813 -0.180054 0.45972
-0.0895133 -0.180642 0.459714
-0.0897396 -0.181224 0.459688
-0.0899659 -0.181807 0.459662
-0.0901878 -0.182383 0.459617
-0.0904879 -0.183062 0.459833
-0.0909111 -0.183899 0.460452
-0.0914242 -0.184854 0.461366
-0.0919749 -0.185858 0.462394
-0.0925678 -0.186922 0.463559
-0.0931781 -0.188009 0.46477
-0.0937361 -0.189032 0.465807
-0.0943024 -0.190066 0.46686
-0.0948753 -0.191112 0.467931
-0.0954757 -0.192198 0.469086
-0.0960109 -0.1932 0.470023
-0.0964863 -0.194124 0.470759
-0.0968943 -0.194963 0.471277
-0.0972272 -0.195703 0.471547
-0.0975239 -0.196395 0.471698
-0.0977865 -0.197043 0.471741
-0.0980242 -0.19766 0.471703
-0.098198 -0.198189 0.471458
-0.0983522 -0.198693 0.471151
-0.0984563 -0.199131 0.470688
-0.0985859 -0.199601 0.470305
-0.0987265 -0.200087 0.469959
-0.101166 -0.203011 0.474238
-0.100388 -0.202625 0.474393
-0.0857245 -0.168033 0.471962
-0.0856899 -0.168305 0.470997
-0.0856435 -0.16856 0.469991
-0.0856069 -0.168826 0.469028
-0.0855761 -0.169098 0.468089
-0.0855637 -0.169391 0.467217
-0.0855741 -0.169709 0.466429
-0.0855952 -0.17004 0.465683
-0.0856515 -0.170412 0.465066
-0.085764 -0.170851 0.464646
-0.0858772 -0.171292 0.464232
-0.0859867 -0.171728 0.463806
-0.0860922 -0.17216 0.463368
-0.0861996 -0.172592 0.462936
-0.0862809 -0.172992 0.462412
-0.0863898 -0.173425 0.461988
-0.0865157 -0.173879 0.461623
-0.0866654 -0.174362 0.461341
-0.0868011 -0.174829 0.461012
-0.0869473 -0.175308 0.46072
-0.0871476 -0.175855 0.460615
-0.0873412 -0.176394 0.460484
-0.0875101 -0.176901 0.460269
-0.0877077 -0.177446 0.460153
-0.0879101 -0.177995 0.460051
-0.0880634 -0.178483 0.459781
-0.0882671 -0.179036 0.459684
-0.0884973 -0.179622 0.459675
-0.0887222 -0.180201 0.459647
-0.0889552 -0.180793 0.459646
-0.0891826 -0.181376 0.459624
-0.0894093 -0.18196 0.459601
-0.0896309 -0.182536 0.459555
-0.0899414 -0.18323 0.45981
-0.0903755 -0.184083 0.460469
-0.0909116 -0.18507 0.461464
-0.0914833 -0.186108 0.462572
-0.092097 -0.187202 0.463811
-0.0927053 -0.188291 0.465024
-0.0932612 -0.189314 0.466058
-0.0938233 -0.190347 0.467105
-0.0943948 -0.191396 0.468178
-0.094972 -0.192455 0.469265
-0.095504 -0.193455 0.470195
-0.0959624 -0.194361 0.470884
-0.0963458 -0.195169 0.471325
-0.0966669 -0.195895 0.47156
-0.0969761 -0.196605 0.471755
-0.0972527 -0.197272 0.47184
-0.0975176 -0.197926 0.471892
-0.0977072 -0.198477 0.471696
-0.097863 -0.198984 0.471395
-0.097965 -0.199418 0.470922
-0.0980629 -0.199846 0.470437
-0.0981641 -0.200278 0.469965
-0.084984 -0.168906 0.468743
-0.0849692 -0.169195 0.467858
-0.0849771 -0.169511 0.467057
-0.0850046 -0.169848 0.466326
-0.0850359 -0.17019 0.465616
-0.0850943 -0.170564 0.465001
-0.085207 -0.171004 0.464584
-0.0853213 -0.171446 0.464174
-0.0854314 -0.171882 0.463748
-0.0855382 -0.172313 0.46331
-0.0856449 -0.172744 0.462875
-0.0857165 -0.173131 0.462317
-0.0858147 -0.173551 0.461854
-0.0859291 -0.173991 0.461449
-0.0860679 -0.17446 0.461129
-0.0861941 -0.174915 0.460768
-0.086351 -0.175406 0.460511
-0.0865627 -0.175968 0.460447
-0.0867668 -0.17652 0.460354
-0.0869469 -0.177041 0.460176
-0.087154 -0.177598 0.460092
-0.0873567 -0.178149 0.459993
-0.0875084 -0.178635 0.45972
-0.0877104 -0.179186 0.459617
-0.0879392 -0.179771 0.459605
-0.0881642 -0.180352 0.459579
-0.0883985 -0.180944 0.459582
-0.088626 -0.181529 0.459563
-0.0888526 -0.182113 0.459539
-0.0890739 -0.182689 0.459494
-0.0893942 -0.183396 0.459783
-0.0898382 -0.184266 0.460482
-0.0903728 -0.185255 0.46148
-0.0909516 -0.186304 0.462616
-0.0915946 -0.187441 0.463961
-0.0922141 -0.18855 0.46522
-0.0927839 -0.189595 0.466306
-0.0933681 -0.190662 0.467433
-0.0939397 -0.191714 0.468512
-0.0944905 -0.192742 0.469518
-0.0949972 -0.193713 0.470373
-0.0954276 -0.194583 0.470972
-0.0957844 -0.195357 0.471329
-0.0960911 -0.196065 0.471521
-0.096389 -0.196762 0.471681
-0.0966795 -0.19745 0.471816
-0.0969598 -0.198124 0.471917
-0.0971516 -0.19868 0.47173
-0.0973081 -0.199187 0.471429
-0.0973987 -0.199605 0.47092
-0.0974593 -0.199982 0.470315
-0.0975031 -0.200335 0.469658
-0.0843547 -0.169283 0.467599
-0.0843826 -0.169621 0.466868
-0.0844358 -0.169988 0.466227
-0.0844876 -0.170354 0.465586
-0.0845469 -0.170729 0.464975
-0.0846601 -0.171169 0.464558
-0.0847743 -0.17161 0.464145
-0.084875 -0.172034 0.463684
-0.0849812 -0.172465 0.463246
-0.0850893 -0.172897 0.462814
-0.0851615 -0.173284 0.462256
-0.0852606 -0.173703 0.461793
-0.0853753 -0.174143 0.461388
-0.0855131 -0.174611 0.461065
-0.0856383 -0.175063 0.460698
-0.0858034 -0.175567 0.460473
-0.0860158 -0.176128 0.460408
-0.0862219 -0.176684 0.460325
-0.0864034 -0.177208 0.460153
-0.0866105 -0.177764 0.460069
-0.0868038 -0.178303 0.459938
-0.0869558 -0.17879 0.459666
-0.0871587 -0.179341 0.459566
-0.0873869 -0.179927 0.459553
-0.0876112 -0.180506 0.459525
-0.0878433 -0.181098 0.459524
-0.0880797 -0.181695 0.459536
-0.0883064 -0.182279 0.459513
-0.0885378 -0.18287 0.459505
-0.0888675 -0.183591 0.459828
-0.0893002 -0.184447 0.460493
-0.0897999 -0.185395 0.461381
-0.0903719 -0.186439 0.462504
-0.0910322 -0.187603 0.463914
-0.0916686 -0.188737 0.465235
-0.0922766 -0.189838 0.466458
-0.0928962 -0.190956 0.467709
-0.0934746 -0.192022 0.468818
-0.0939899 -0.193005 0.469712
-0.0944683 -0.193942 0.470479
-0.0948721 -0.19478 0.470998
-0.0952021 -0.19552 0.471271
-0.0954827 -0.196194 0.471379
-0.095777 -0.196885 0.471527
-0.0960779 -0.197588 0.471699
-0.0963593 -0.198266 0.471806
-0.0965639 -0.198838 0.47166
-0.0967301 -0.199359 0.471393
-0.0968078 -0.199759 0.47084
-0.0968421 -0.200097 0.470146
-0.0837234 -0.169348 0.467276
-0.0837713 -0.16971 0.466615
-0.0838472 -0.170105 0.466057
-0.0839207 -0.170495 0.46549
-0.0839814 -0.170871 0.464882
-0.0840954 -0.171311 0.464465
-0.0842183 -0.171763 0.464084
-0.0843181 -0.172185 0.46362
-0.0844242 -0.172615 0.463178
-0.0845332 -0.173047 0.462747
-0.0846165 -0.173447 0.462227
-0.0847271 -0.173881 0.461805
-0.0848536 -0.174336 0.461441
-0.0849921 -0.174805 0.461121
-0.0851258 -0.175268 0.460782
-0.0852899 -0.175769 0.460551
-0.0854925 -0.17632 0.460455
-0.0856889 -0.176863 0.460336
-0.085879 -0.177398 0.460196
-0.0860763 -0.177943 0.460081
-0.0862604 -0.178471 0.459918
-0.0864134 -0.178957 0.459645
-0.0866167 -0.17951 0.459549
-0.0868354 -0.180084 0.459505
-0.087059 -0.180664 0.459476
-0.0872893 -0.181253 0.459469
-0.0875348 -0.181862 0.459512
-0.0877615 -0.182448 0.459492
-0.0880033 -0.183053 0.459522
-0.0883328 -0.183774 0.459844
-0.0887626 -0.18463 0.460506
-0.0892569 -0.185574 0.461381
-0.0898563 -0.186658 0.462604
-0.0905382 -0.187855 0.464095
-0.0912121 -0.189045 0.465552
-0.0918583 -0.190201 0.466907
-0.0924894 -0.19134 0.468208
-0.0930426 -0.192376 0.469239
-0.0935301 -0.193326 0.470045
-0.0939708 -0.194214 0.470691
-0.0943392 -0.195007 0.471098
-0.0946326 -0.195698 0.47125
-0.094898 -0.196353 0.471312
-0.0951768 -0.197025 0.471414
-0.0954752 -0.197726 0.47158
-0.0957445 -0.198387 0.471646
-0.095948 -0.198959 0.4715
-0.0961006 -0.19946 0.471187
-0.0961627 -0.199837 0.470582
-0.0961796 -0.200152 0.469833
-0.096168 -0.200425 0.468992
-0.083191 -0.169836 0.466474
-0.0832992 -0.17027 0.466031
-0.0833936 -0.170687 0.46554
-0.0834659 -0.171075 0.46497
-0.0835793 -0.171514 0.46455
-0.083692 -0.171953 0.46413
-0.0837911 -0.172375 0.463663
-0.0838977 -0.172804 0.463222
-0.0839983 -0.173226 0.462762
-0.0840927 -0.173639 0.462276
-0.084214 -0.174087 0.461893
-0.0843436 -0.174544 0.461538
-0.0844745 -0.175004 0.461189
-0.0846096 -0.175468 0.460854
-0.0847727 -0.175968 0.460619
-0.0849639 -0.176505 0.460485
-0.0851501 -0.177034 0.460329
-0.0853372 -0.177567 0.460179
-0.0855324 -0.178108 0.460054
-0.0857152 -0.178635 0.459889
-0.0858785 -0.179136 0.459654
-0.0860922 -0.179703 0.459594
-0.0863112 -0.180276 0.45955
-0.0865339 -0.180857 0.459522
-0.086763 -0.181445 0.459512
-0.0870089 -0.182055 0.459557
-0.0872277 -0.182631 0.459509
-0.0874814 -0.183252 0.459579
-0.0878089 -0.183974 0.459902
-0.0882274 -0.184817 0.460529
-0.0887394 -0.185787 0.461469
-0.0893805 -0.186931 0.462841
-0.0900999 -0.188184 0.464468
-0.0908202 -0.189443 0.466092
-0.091488 -0.190632 0.467528
-0.0921038 -0.191755 0.468781
-0.0926188 -0.192744 0.46969
-0.0930684 -0.193645 0.470375
-0.0934614 -0.194472 0.470869
-0.0938043 -0.195232 0.471192
-0.094073 -0.195891 0.471266
-0.0943147 -0.196513 0.471248
-0.0945684 -0.197154 0.471272
-0.0948533 -0.197836 0.471395
-0.095098 -0.198464 0.471385
-0.0952775 -0.199002 0.471158
-0.0954166 -0.199485 0.470802
-0.095462 -0.199838 0.470142
-0.0954625 -0.200128 0.469338
-0.0954634 -0.200415 0.468535
-0.0826347 -0.169992 0.46642
-0.0827538 -0.170439 0.466018
-0.0828678 -0.17088 0.465597
-0.0829511 -0.171282 0.465065
-0.0830656 -0.171722 0.464648
-0.083178 -0.17216 0.464225
-0.0832775 -0.17258 0.463754
-0.0833848 -0.173011 0.463316
-0.0834771 -0.173421 0.462821
-0.0835806 -0.173846 0.462371
-0.083702 -0.174293 0.461984
-0.0838327 -0.174752 0.461632
-0.0839659 -0.175214 0.461289
-0.0841103 -0.175691 0.460988
-0.0842735 -0.176191 0.460754
-0.0844556 -0.176716 0.460585
-0.0846294 -0.177231 0.460388
-0.0848042 -0.177747 0.460194
-0.084988 -0.178274 0.460031
-0.0851701 -0.1788 0.459862
-0.0853341 -0.179302 0.45963
-0.0855478 -0.17987 0.459571
-0.0857662 -0.180443 0.459527
-0.0859875 -0.181021 0.459492
-0.086217 -0.181611 0.459485
-0.0864743 -0.182237 0.459571
-0.0866943 -0.182815 0.459529
-0.0869484 -0.183438 0.459602
-0.0872639 -0.184145 0.459887
-0.0876592 -0.18496 0.460439
-0.0882445 -0.186032 0.461638
-0.0889593 -0.18728 0.463267
-0.0897436 -0.188628 0.465127
-0.0905198 -0.189967 0.466947
-0.0912196 -0.191206 0.468499
-0.0917529 -0.192222 0.469481
-0.0922065 -0.19313 0.470188
-0.0926071 -0.193967 0.470711
-0.092951 -0.19473 0.471043
-0.093258 -0.195442 0.471248
-0.0935127 -0.196083 0.47128
-0.0937311 -0.196675 0.471187
-0.093951 -0.197268 0.471097
-0.0942117 -0.197918 0.471143
-0.0944292 -0.19851 0.471046
-0.0945839 -0.199013 0.47074
-0.0947103 -0.199477 0.470341
-0.0947632 -0.199838 0.469703
-0.0947853 -0.200156 0.468967
-0.0948116 -0.200479 0.468247
-0.0871001 -0.17303 0.490049
-0.0868771 -0.172435 0.490122
-0.0863009 -0.172621 0.490127
-0.0865279 -0.173222 0.49007
-0.0867436 -0.17381 0.489972
-0.0820966 -0.170171 0.466435
-0.0822234 -0.170627 0.466058
-0.0823539 -0.171089 0.465698
-0.0824482 -0.171504 0.465204
-0.0825542 -0.171932 0.464752
