ply
format ascii 1.0
element vertex 1731
property float x
property float y
property float z
end_header
-0.448168 -0.200255 1.1488
-0.44888 -0.200572 1.14653
-0.449792 -0.200926 1.14466
-0.450661 -0.201275 1.14272
-0.451651 -0.201645 1.14102
-0.452857 -0.20206 1.13975
-0.454071 -0.202476 1.13849
-0.455336 -0.202901 1.13734
-0.456654 -0.203337 1.13629
-0.457912 -0.203763 1.13513
-0.459011 -0.204153 1.13367
-0.460092 -0.204543 1.13218
-0.461274 -0.204951 1.13089
-0.462318 -0.205332 1.12933
-0.463468 -0.205731 1.12799
-0.464659 -0.206143 1.12672
-0.46583 -0.206548 1.12542
-0.467117 -0.206977 1.12434
-0.468587 -0.207444 1.1236
-0.470314 -0.207963 1.12333
-0.472387 -0.208552 1.1237
-0.474546 -0.209164 1.12421
-0.476706 -0.209771 1.12472
-0.478909 -0.210392 1.12529
-0.480997 -0.210988 1.12564
-0.482922 -0.211549 1.1257
-0.48501 -0.212148 1.12604
-0.487062 -0.212737 1.1263
-0.489123 -0.213328 1.12658
-0.49131 -0.213946 1.12706
-0.493494 -0.214567 1.12754
-0.495684 -0.215186 1.12802
-0.497821 -0.215796 1.12839
-0.500307 -0.21648 1.12936
-0.503074 -0.21722 1.13081
-0.505856 -0.217969 1.13228
-0.508937 -0.21878 1.13424
-0.513928 -0.219995 1.13948
-0.518953 -0.22122 1.14474
-0.524327 -0.222523 1.15055
-0.529006 -0.221918 1.15425
-0.529597 -0.223804 1.15613
-0.536427 -0.22364 1.16344
-0.533449 -0.224786 1.15926
-0.441904 -0.198934 1.17504
-0.443287 -0.199387 1.17401
-0.444352 -0.199781 1.17234
-0.445206 -0.200126 1.17024
-0.445816 -0.200426 1.16766
-0.446186 -0.200675 1.1646
-0.446388 -0.200891 1.16122
-0.446578 -0.2011 1.15784
-0.446992 -0.201359 1.15493
-0.447479 -0.201627 1.15218
-0.448102 -0.201923 1.14971
-0.448808 -0.202237 1.14741
-0.449603 -0.202568 1.14531
-0.450404 -0.2029 1.14323
-0.451282 -0.203248 1.14131
-0.45248 -0.203658 1.14002
-0.4537 -0.204075 1.13877
-0.454976 -0.204503 1.13764
-0.456299 -0.20494 1.1366
-0.457612 -0.205376 1.13554
-0.45877 -0.205778 1.13419
-0.459912 -0.206178 1.13281
-0.461207 -0.20661 1.13172
-0.462307 -0.206999 1.13027
-0.463464 -0.2074 1.12893
-0.464609 -0.207801 1.12757
-0.465787 -0.208207 1.12628
-0.466968 -0.208614 1.125
-0.468384 -0.209071 1.12416
-0.469984 -0.209564 1.12365
-0.471938 -0.210131 1.1238
-0.474022 -0.21073 1.12417
-0.476176 -0.211341 1.12467
-0.478375 -0.21196 1.12523
-0.480572 -0.212581 1.12578
-0.482622 -0.213173 1.12606
-0.484722 -0.213772 1.12642
-0.486785 -0.214367 1.1267
-0.488845 -0.214963 1.12698
-0.490966 -0.215568 1.12735
-0.493034 -0.216164 1.12761
-0.495166 -0.216776 1.12799
-0.497175 -0.21736 1.12813
-0.499531 -0.218019 1.12888
-0.502104 -0.218725 1.13
-0.504673 -0.21943 1.13109
-0.507911 -0.220279 1.13333
-0.513343 -0.221602 1.13935
-0.524429 -0.224299 1.1516
-0.529953 -0.225647 1.15762
-0.533416 -0.226553 1.16008
-0.540465 -0.226444 1.16772
-0.536463 -0.227371 1.1618
-0.44155 -0.200578 1.17542
-0.442874 -0.201021 1.17427
-0.443974 -0.201418 1.17267
-0.444875 -0.201771 1.17066
-0.445543 -0.202079 1.16819
-0.445976 -0.202338 1.16525
-0.446237 -0.20256 1.16199
-0.446485 -0.202779 1.15871
-0.446908 -0.203034 1.15581
-0.447407 -0.203305 1.15308
-0.448023 -0.203598 1.15059
-0.448671 -0.203895 1.14818
-0.449357 -0.204202 1.14585
-0.450103 -0.204521 1.14366
-0.450969 -0.204863 1.14171
-0.452121 -0.205264 1.14032
-0.453338 -0.205679 1.13907
-0.454663 -0.206117 1.13803
-0.455983 -0.206553 1.13698
-0.457249 -0.206977 1.13582
-0.458465 -0.207393 1.13458
-0.459667 -0.207805 1.13331
-0.460969 -0.208236 1.13224
-0.462172 -0.208648 1.13098
-0.463438 -0.209072 1.12984
-0.464634 -0.209482 1.12857
-0.46583 -0.20989 1.12731
-0.466969 -0.210289 1.12594
-0.468329 -0.21073 1.12499
-0.469817 -0.211202 1.12427
-0.471651 -0.211747 1.12419
-0.473668 -0.21233 1.12444
-0.475762 -0.212931 1.12483
-0.477909 -0.213544 1.1253
-0.480122 -0.21417 1.12588
-0.482231 -0.214777 1.12627
-0.484352 -0.215384 1.12666
-0.48652 -0.216005 1.12713
-0.488577 -0.216598 1.12739
-0.490631 -0.217194 1.12764
-0.492638 -0.21778 1.1278
-0.494705 -0.218377 1.12806
-0.49661 -0.218943 1.12802
-0.498919 -0.219594 1.12869
-0.501425 -0.220287 1.12969
-0.503872 -0.220972 1.13057
-0.507309 -0.221871 1.13316
-0.512961 -0.223252 1.13956
-0.524341 -0.22604 1.15233
-0.530023 -0.227437 1.15862
-0.533192 -0.228284 1.16057
-0.535975 -0.22905 1.16185
-0.539312 -0.228147 1.16318
-0.538669 -0.229796 1.16297
-0.541675 -0.228817 1.16372
-0.540825 -0.230424 1.16316
-0.442307 -0.202623 1.17421
-0.443385 -0.203012 1.17256
-0.444305 -0.203371 1.17059
-0.445021 -0.203685 1.16821
-0.445562 -0.203962 1.16549
-0.445825 -0.204181 1.16223
-0.446132 -0.204408 1.15907
-0.446603 -0.204669 1.15626
-0.447161 -0.204949 1.15363
-0.447826 -0.205249 1.15124
-0.448529 -0.205556 1.14893
-0.449212 -0.20586 1.14659
-0.449957 -0.206175 1.14439
-0.45083 -0.206517 1.14245
-0.451937 -0.206909 1.14097
-0.453094 -0.20731 1.13959
-0.454415 -0.207748 1.13854
-0.455674 -0.208171 1.13737
-0.456942 -0.208595 1.13622
-0.458156 -0.209007 1.13497
-0.459363 -0.20942 1.13371
-0.460618 -0.209842 1.13254
-0.461818 -0.210251 1.13127
-0.463085 -0.210675 1.13013
-0.464342 -0.211096 1.12897
-0.46565 -0.21153 1.12792
-0.46685 -0.21194 1.12666
-0.468266 -0.212395 1.12581
-0.469701 -0.212856 1.12499
-0.471473 -0.213388 1.12479
-0.473385 -0.213953 1.12485
-0.475424 -0.214544 1.12513
-0.477528 -0.215149 1.12552
-0.47979 -0.215788 1.12619
-0.481911 -0.216398 1.12659
-0.48409 -0.217023 1.12709
-0.486259 -0.217646 1.12757
-0.488311 -0.218242 1.12782
-0.490357 -0.218835 1.12805
-0.492364 -0.219423 1.12821
-0.494431 -0.220023 1.12846
-0.496393 -0.220602 1.12852
-0.498712 -0.22126 1.12921
-0.501063 -0.221922 1.12993
-0.503449 -0.222595 1.13071
-0.506828 -0.223488 1.1332
-0.512349 -0.224856 1.13938
-0.51781 -0.22621 1.1454
-0.523551 -0.227632 1.15185
-0.529187 -0.229029 1.15807
-0.532359 -0.229883 1.16003
-0.535092 -0.230642 1.16123
-0.537716 -0.231375 1.16223
-0.539871 -0.232003 1.16242
-0.546546 -0.231836 1.16934
-0.541939 -0.232614 1.16246
-0.440409 -0.203783 1.17529
-0.441793 -0.204237 1.17426
-0.442773 -0.204604 1.17241
-0.443749 -0.204971 1.17055
-0.444508 -0.205292 1.16826
-0.445129 -0.205583 1.16569
-0.445394 -0.2058 1.16243
-0.445805 -0.206046 1.15947
-0.446283 -0.206305 1.15667
-0.446849 -0.206583 1.15406
-0.447563 -0.206889 1.15176
-0.448272 -0.207196 1.14945
-0.448968 -0.207499 1.14714
-0.449772 -0.207825 1.14505
-0.450704 -0.208177 1.14321
-0.451812 -0.20857 1.14173
-0.452924 -0.208959 1.14027
-0.454181 -0.209383 1.13909
-0.455379 -0.209792 1.13779
-0.456644 -0.210215 1.13663
-0.457805 -0.210619 1.13528
-0.45901 -0.211027 1.13401
-0.460257 -0.211447 1.13282
-0.461467 -0.21186 1.13157
-0.462682 -0.212273 1.13033
-0.464003 -0.212707 1.12929
-0.465367 -0.213151 1.12834
-0.466628 -0.213573 1.12719
-0.468044 -0.21403 1.12633
-0.469476 -0.21449 1.12551
-0.471249 -0.215022 1.12531
-0.473166 -0.215591 1.12537
-0.475211 -0.216185 1.12566
-0.477364 -0.216804 1.12614
-0.479677 -0.217458 1.1269
-0.481744 -0.218058 1.1272
-0.483859 -0.21867 1.12759
-0.485973 -0.21928 1.12796
-0.487974 -0.21987 1.12812
-0.489978 -0.220459 1.12827
-0.491981 -0.221046 1.12842
-0.494104 -0.221662 1.12877
-0.496185 -0.222267 1.12904
-0.498623 -0.222954 1.12993
-0.50104 -0.223635 1.13077
-0.50354 -0.224336 1.13175
-0.506934 -0.225239 1.13426
-0.51196 -0.226509 1.13958
-0.517001 -0.227781 1.14488
-0.522341 -0.229126 1.15065
-0.527671 -0.230469 1.15636
-0.53141 -0.231456 1.1593
-0.53421 -0.23223 1.16061
-0.53679 -0.23296 1.16154
-0.53887 -0.233573 1.1616
-0.540793 -0.234153 1.1614
-0.543829 -0.233185 1.1622
-0.542597 -0.234704 1.16099
-0.545598 -0.23373 1.16172
-0.544285 -0.235231 1.16039
-0.443803 -0.206706 1.17176
-0.444327 -0.206975 1.16898
-0.444795 -0.207229 1.1661
-0.444999 -0.207428 1.1627
-0.445361 -0.207661 1.15965
-0.445801 -0.207908 1.15676
-0.446419 -0.208193 1.15425
-0.447195 -0.208512 1.15207
-0.447963 -0.208829 1.14988
-0.448778 -0.209156 1.14779
-0.449646 -0.209492 1.14582
-0.450641 -0.209858 1.14411
-0.451743 -0.210245 1.14261
-0.452804 -0.210627 1.14104
-0.453945 -0.211021 1.13963
-0.455092 -0.21142 1.13824
-0.456296 -0.21183 1.13695
-0.457355 -0.212206 1.1354
-0.458555 -0.212615 1.13412
-0.45974 -0.213021 1.13281
-0.460942 -0.213431 1.13154
-0.462158 -0.213842 1.1303
-0.463537 -0.21429 1.12937
-0.464912 -0.214737 1.12843
-0.466232 -0.215172 1.1274
-0.467708 -0.215642 1.12665
-0.469196 -0.216113 1.12592
-0.471027 -0.216663 1.12583
-0.473 -0.217244 1.126
-0.475101 -0.217852 1.12639
-0.477256 -0.218472 1.12686
-0.479573 -0.219132 1.12763
-0.481626 -0.219731 1.1279
-0.483691 -0.220335 1.12819
-0.48574 -0.220934 1.12844
-0.487682 -0.221509 1.12849
-0.489626 -0.222086 1.12854
-0.491583 -0.222667 1.12861
-0.493717 -0.223285 1.12898
-0.495863 -0.22391 1.12936
-0.498372 -0.224615 1.13038
-0.500795 -0.225302 1.13123
-0.50329 -0.226005 1.13219
-0.506625 -0.226901 1.1346
-0.51111 -0.228058 1.13899
-0.51573 -0.229248 1.14357
-0.520836 -0.230549 1.14894
-0.526012 -0.231871 1.15439
-0.530289 -0.232988 1.15826
-0.533281 -0.23381 1.15991
-0.535853 -0.23454 1.16082
-0.537915 -0.235153 1.16087
-0.539691 -0.235698 1.16041
-0.54135 -0.236218 1.15977
-0.542956 -0.236726 1.15903
-0.549217 -0.236495 1.16519
-0.54449 -0.237216 1.15817
-0.443931 -0.208462 1.17312
-0.444227 -0.208677 1.16987
-0.444478 -0.208882 1.16654
-0.444612 -0.209061 1.163
-0.444821 -0.209255 1.15963
-0.445267 -0.2095 1.15675
-0.445832 -0.209769 1.15413
-0.44666 -0.210099 1.15205
-0.447485 -0.210426 1.14997
-0.448368 -0.210764 1.14801
-0.449255 -0.211105 1.14608
-0.450347 -0.21149 1.14455
-0.45145 -0.211878 1.14305
-0.452452 -0.212241 1.14136
-0.453594 -0.212638 1.13995
-0.454729 -0.213032 1.13853
-0.455881 -0.21343 1.13715
-0.456889 -0.213794 1.13549
-0.458081 -0.2142 1.13419
-0.459208 -0.214592 1.13277
-0.460402 -0.214998 1.13148
-0.461671 -0.215423 1.13034
-0.463109 -0.215885 1.12952
-0.464543 -0.216344 1.1287
-0.465977 -0.216804 1.12787
-0.467514 -0.217287 1.12723
-0.469066 -0.217774 1.12662
-0.471013 -0.21835 1.12674
-0.472997 -0.218936 1.12692
-0.475113 -0.219551 1.12733
-0.477218 -0.220165 1.12772
-0.479422 -0.2208 1.12828
-0.481366 -0.221375 1.12835
-0.483362 -0.221965 1.12851
-0.485401 -0.222564 1.12874
-0.487333 -0.22314 1.12877
-0.489281 -0.223722 1.12883
-0.491285 -0.224312 1.12898
-0.493424 -0.224934 1.12935
-0.495586 -0.225566 1.12977
-0.49811 -0.226278 1.13081
-0.500595 -0.22698 1.13176
-0.503155 -0.227705 1.13284
-0.506043 -0.228501 1.13447
-0.5101 -0.22957 1.13811
-0.514462 -0.23071 1.14225
-0.519358 -0.231975 1.14728
-0.524408 -0.233278 1.15252
-0.529091 -0.234499 1.1571
-0.532283 -0.235373 1.15909
-0.534902 -0.236116 1.16009
-0.536937 -0.236723 1.16008
-0.538505 -0.23722 1.15928
-0.540019 -0.237709 1.1584
-0.541487 -0.238183 1.15743
-0.542889 -0.238646 1.15636
-0.442952 -0.209835 1.17611
-0.443367 -0.210071 1.17307
-0.443596 -0.210267 1.16968
-0.443813 -0.210461 1.16628
-0.443982 -0.210641 1.1628
-0.444179 -0.210827 1.1594
-0.444673 -0.21108 1.15662
-0.445286 -0.211357 1.15409
-0.446166 -0.211697 1.15211
-0.447044 -0.212033 1.15014
-0.448036 -0.212393 1.14839
-0.448934 -0.212736 1.14647
-0.45008 -0.21313 1.14505
-0.45118 -0.213517 1.14354
-0.452179 -0.21388 1.14184
-0.453274 -0.214265 1.14033
-0.454406 -0.214657 1.1389
-0.455455 -0.215031 1.13732
-0.456402 -0.215381 1.13554
-0.457485 -0.215759 1.13403
-0.45856 -0.21614 1.13251
-0.459754 -0.216545 1.13123
-0.461082 -0.216982 1.1302
-0.462526 -0.217444 1.12939
-0.464072 -0.21793 1.12877
-0.465561 -0.218401 1.12804
-0.467112 -0.21889 1.12743
-0.468728 -0.219392 1.12694
-0.470799 -0.219998 1.12728
-0.472744 -0.220577 1.12739
-0.474965 -0.221218 1.12799
-0.47712 -0.221845 1.12847
-0.479329 -0.222485 1.12903
-0.481219 -0.223052 1.129
-0.483206 -0.22364 1.12914
-0.48513 -0.224215 1.12917
-0.487002 -0.224779 1.12909
-0.488882 -0.225343 1.12902
-0.490885 -0.225937 1.12916
-0.493079 -0.226577 1.12964
-0.495354 -0.227234 1.13025
-0.497949 -0.227967 1.13141
-0.500453 -0.22868 1.1324
-0.503071 -0.229419 1.13358
-0.505558 -0.230126 1.13451
-0.509209 -0.231108 1.13745
-0.513281 -0.232192 1.14109
-0.517934 -0.233409 1.1457
-0.522812 -0.234682 1.15066
-0.527738 -0.235971 1.15566
-0.531005 -0.236867 1.15779
-0.53362 -0.237613 1.15879
-0.535638 -0.238216 1.15876
-0.537135 -0.2387 1.15784
-0.538512 -0.239152 1.15673
-0.539966 -0.239625 1.15574
-0.54135 -0.240082 1.15464
-0.547591 -0.239873 1.16077
-0.542581 -0.240499 1.15329
-0.442406 -0.209566 1.17888
-0.441673 -0.211004 1.18242
-0.441698 -0.211149 1.17854
-0.442232 -0.211412 1.17574
-0.442643 -0.211646 1.17269
-0.442888 -0.211841 1.16933
-0.443103 -0.212028 1.16592
-0.443333 -0.212218 1.16256
-0.443527 -0.2124 1.15916
-0.444019 -0.212647 1.15637
-0.444637 -0.212924 1.15385
-0.445514 -0.213259 1.15186
-0.446394 -0.213593 1.14988
-0.447441 -0.213966 1.14825
-0.448393 -0.214317 1.14644
-0.449594 -0.214727 1.14512
-0.450748 -0.215122 1.14371
-0.451753 -0.215485 1.14202
-0.452851 -0.215869 1.14052
-0.453936 -0.21625 1.13899
-0.454872 -0.216596 1.13719
-0.455753 -0.216929 1.13528
-0.456778 -0.217297 1.13366
-0.457798 -0.217659 1.13203
-0.459054 -0.218079 1.13087
-0.460499 -0.218541 1.13006
-0.462006 -0.219019 1.12936
-0.463566 -0.219509 1.12877
-0.46505 -0.21998 1.12803
-0.466598 -0.220466 1.12741
-0.468273 -0.220984 1.12703
-0.470411 -0.221609 1.1275
-0.472422 -0.222203 1.12773
-0.474755 -0.222875 1.12854
-0.476961 -0.223516 1.1291
-0.479111 -0.224145 1.12956
-0.480942 -0.224698 1.12942
-0.482873 -0.225278 1.12946
-0.484679 -0.225824 1.12926
-0.486495 -0.226377 1.12908
-0.488325 -0.226931 1.12892
-0.490276 -0.227516 1.12898
-0.492456 -0.228151 1.12943
-0.494785 -0.228825 1.13013
-0.497435 -0.229575 1.1314
-0.500067 -0.23032 1.13261
-0.502869 -0.231106 1.13411
-0.505615 -0.231883 1.13549
-0.509097 -0.232831 1.13814
-0.512946 -0.233867 1.14139
-0.517293 -0.235027 1.14548
-0.521813 -0.236226 1.14983
-0.526356 -0.23743 1.15418
-0.529628 -0.238336 1.15632
-0.532178 -0.239068 1.15721
-0.534146 -0.239661 1.1571
-0.535572 -0.240127 1.15608
-0.536936 -0.240576 1.15494
-0.538378 -0.241046 1.15394
-0.539707 -0.241489 1.15275
-0.540926 -0.241901 1.15138
-0.547709 -0.241843 1.1584
-0.542856 -0.242488 1.1512
-0.441816 -0.213194 1.1721
-0.442139 -0.213404 1.16889
-0.442297 -0.213573 1.16537
-0.442597 -0.213776 1.16215
-0.442752 -0.213942 1.15866
-0.443203 -0.214178 1.15579
-0.443822 -0.214452 1.15327
-0.444705 -0.214787 1.15129
-0.445593 -0.215122 1.14933
-0.446637 -0.215491 1.14769
-0.447641 -0.215852 1.14598
-0.448903 -0.216274 1.14479
-0.450019 -0.216662 1.14331
-0.451031 -0.217023 1.14162
-0.45217 -0.217416 1.1402
-0.453257 -0.217795 1.13868
-0.45409 -0.218115 1.13667
-0.455009 -0.218456 1.13484
-0.456059 -0.218826 1.13326
-0.457035 -0.21918 1.13156
-0.458302 -0.2196 1.13041
-0.459812 -0.22008 1.12972
-0.461334 -0.220561 1.12906
-0.46289 -0.22105 1.12846
-0.464418 -0.22153 1.1278
-0.46596 -0.222017 1.12717
-0.46768 -0.222545 1.12687
-0.469827 -0.223175 1.12736
-0.471891 -0.223783 1.12768
-0.474234 -0.224461 1.12851
-0.476439 -0.225103 1.12908
-0.478599 -0.225737 1.12955
-0.480484 -0.226306 1.12951
-0.482406 -0.226884 1.12953
-0.484156 -0.227421 1.12923
-0.486018 -0.227984 1.12914
-0.487792 -0.228526 1.12888
-0.489689 -0.229098 1.12883
-0.491871 -0.22974 1.12929
-0.494256 -0.230428 1.13009
-0.496977 -0.231198 1.13148
-0.49974 -0.23198 1.13292
-0.502678 -0.232805 1.13466
-0.505554 -0.233614 1.13627
-0.508994 -0.234558 1.13884
-0.512659 -0.235562 1.14178
-0.516711 -0.236656 1.14536
-0.520921 -0.23779 1.14918
-0.525109 -0.238921 1.15293
-0.528234 -0.239793 1.15482
-0.530727 -0.240517 1.15562
-0.532692 -0.241112 1.15551
-0.534112 -0.241574 1.15448
-0.535416 -0.242009 1.15325
-0.536856 -0.242476 1.15225
-0.538183 -0.242918 1.15106
-0.539421 -0.243335 1.14973
-0.541359 -0.243926 1.14956
-0.440618 -0.214658 1.17074
-0.441146 -0.214911 1.16796
-0.441341 -0.215084 1.16451
-0.441651 -0.215284 1.16131
-0.441867 -0.215461 1.15794
-0.442319 -0.215691 1.15507
-0.442944 -0.215964 1.15256
-0.443877 -0.216309 1.15069
-0.444813 -0.216651 1.14882
-0.44587 -0.217025 1.14721
-0.44693 -0.217399 1.14561
-0.448151 -0.217809 1.14433
-0.449165 -0.21817 1.14265
-0.450115 -0.218516 1.14085
-0.451198 -0.218895 1.13931
-0.452232 -0.219259 1.13769
-0.453069 -0.21958 1.13569
-0.454088 -0.219941 1.13406
-0.455196 -0.220324 1.13259
-0.456224 -0.220688 1.13098
-0.457548 -0.221122 1.12995
-0.459108 -0.221612 1.12935
-0.460629 -0.222094 1.12869
-0.46218 -0.222582 1.12808
-0.463712 -0.223065 1.12743
-0.465187 -0.223535 1.12668
-0.466905 -0.224063 1.12637
-0.469042 -0.224692 1.12684
-0.471114 -0.225306 1.12719
-0.473456 -0.225984 1.12801
-0.475724 -0.226646 1.1287
-0.477837 -0.227272 1.12908
-0.479717 -0.227839 1.12904
-0.481639 -0.228419 1.12906
-0.483383 -0.228956 1.12875
-0.485299 -0.229533 1.12875
-0.487072 -0.230078 1.12849
-0.488964 -0.230648 1.12844
-0.491145 -0.231293 1.12889
-0.49364 -0.232012 1.1299
-0.496445 -0.232808 1.13144
-0.499457 -0.233653 1.13332
-0.502657 -0.234545 1.13551
-0.505784 -0.235419 1.13756
-0.509258 -0.236382 1.14019
-0.512801 -0.237358 1.14291
-0.516587 -0.238398 1.14603
-0.520381 -0.23944 1.14913
-0.524094 -0.240462 1.15207
-0.526923 -0.241268 1.15346
-0.529268 -0.241958 1.15401
-0.531168 -0.242537 1.1538
-0.532596 -0.243003 1.15278
-0.533951 -0.243449 1.15164
-0.535399 -0.243918 1.15066
-0.536799 -0.244378 1.1496
-0.538114 -0.244814 1.1484
-0.540051 -0.245404 1.14823
-0.438209 -0.215707 1.17077
-0.439106 -0.216043 1.16874
-0.439928 -0.21636 1.16656
-0.440254 -0.216562 1.16338
-0.440615 -0.216768 1.16029
-0.440983 -0.216977 1.15722
-0.44143 -0.217205 1.15434
-0.442103 -0.217483 1.15193
-0.443036 -0.217826 1.15006
-0.443986 -0.218171 1.14822
-0.444993 -0.21853 1.14651
-0.446048 -0.2189 1.1449
-0.447208 -0.219296 1.1435
-0.448114 -0.219629 1.1416
-0.449049 -0.219971 1.13978
-0.450113 -0.220344 1.13821
-0.451143 -0.220706 1.13658
-0.452003 -0.221028 1.13463
-0.45314 -0.221417 1.13322
-0.454319 -0.221816 1.13189
-0.455414 -0.222196 1.13041
-0.456791 -0.222641 1.12948
-0.458341 -0.223129 1.12887
-0.459847 -0.223608 1.12817
-0.461339 -0.224083 1.12745
-0.462822 -0.224555 1.12672
-0.464252 -0.225013 1.12588
-0.46597 -0.225542 1.12558
-0.467983 -0.226143 1.12582
-0.470048 -0.226758 1.12615
-0.472383 -0.227437 1.12697
-0.474663 -0.228106 1.12768
-0.476765 -0.228729 1.12805
-0.478698 -0.229311 1.1281
-0.480627 -0.229895 1.12814
-0.482376 -0.230433 1.12785
-0.48435 -0.231027 1.12796
-0.486178 -0.231585 1.12779
-0.488124 -0.232171 1.12784
-0.49047 -0.232859 1.12859
-0.49315 -0.233627 1.12993
-0.496036 -0.234446 1.13161
-0.49919 -0.235331 1.13374
-0.502581 -0.236277 1.13627
-0.505851 -0.237193 1.13857
-0.509341 -0.238165 1.14122
-0.512889 -0.239149 1.14395
-0.516545 -0.240165 1.14684
-0.520005 -0.241133 1.14937
-0.523302 -0.242058 1.15159
-0.525842 -0.242798 1.15249
-0.527972 -0.243437 1.15268
-0.529729 -0.24398 1.15223
-0.531218 -0.244461 1.15132
-0.532591 -0.244913 1.15021
-0.534101 -0.245398 1.14934
-0.535554 -0.245866 1.14837
-0.537064 -0.246351 1.1475
-0.539021 -0.246947 1.14737
-0.54548 -0.246854 1.15385
-0.541097 -0.247574 1.14743
-0.437272 -0.217225 1.16994
-0.438192 -0.217564 1.16796
-0.438964 -0.217867 1.16568
-0.439218 -0.218047 1.16235
-0.439526 -0.218237 1.15915
-0.439939 -0.218453 1.15618
-0.440393 -0.218677 1.15331
-0.441124 -0.218969 1.15102
-0.442012 -0.219298 1.14905
-0.443007 -0.219653 1.14731
-0.443911 -0.219987 1.1454
-0.444911 -0.220341 1.14368
-0.445954 -0.220706 1.14205
-0.44683 -0.221032 1.1401
-0.447695 -0.221353 1.13814
-0.448757 -0.221723 1.13657
-0.449851 -0.222101 1.13507
-0.450866 -0.222459 1.13342
-0.452135 -0.22288 1.13227
-0.453442 -0.223307 1.13119
-0.454658 -0.223714 1.12995
-0.456038 -0.224162 1.12902
-0.457525 -0.224634 1.12829
-0.459017 -0.225109 1.12757
-0.460456 -0.225571 1.12675
-0.461939 -0.226042 1.12601
-0.463373 -0.226502 1.12518
-0.465031 -0.227017 1.12477
-0.46693 -0.227592 1.12481
-0.468979 -0.228205 1.12511
-0.471202 -0.228862 1.12573
-0.473416 -0.229515 1.12632
-0.475516 -0.230142 1.12669
-0.477442 -0.230722 1.12673
-0.479363 -0.231307 1.12677
-0.481184 -0.231864 1.12661
-0.483282 -0.23249 1.12694
-0.485229 -0.233077 1.127
-0.487354 -0.233711 1.12737
-0.489821 -0.234429 1.12833
-0.49264 -0.235239 1.12992
-0.495647 -0.236091 1.13182
-0.498997 -0.237031 1.1343
-0.502515 -0.238015 1.13705
-0.505983 -0.238987 1.13969
-0.509605 -0.24 1.14258
-0.513101 -0.24098 1.14521
-0.516614 -0.241964 1.14785
-0.519806 -0.24287 1.14991
-0.522775 -0.24372 1.15157
-0.525034 -0.244392 1.15199
-0.52701 -0.244995 1.15192
-0.528645 -0.245512 1.15126
-0.530135 -0.245989 1.15035
-0.531513 -0.246442 1.14926
-0.533022 -0.246926 1.14839
-0.534537 -0.247411 1.14752
-0.536179 -0.247928 1.14687
-0.538219 -0.248549 1.14688
-0.540434 -0.249209 1.14718
-0.436218 -0.218715 1.16888
-0.437169 -0.219059 1.16696
-0.437918 -0.219356 1.16463
-0.438102 -0.219512 1.16116
-0.438369 -0.219687 1.15787
-0.438892 -0.219927 1.15513
-0.439355 -0.220148 1.15228
-0.4401 -0.220442 1.15002
-0.440937 -0.220756 1.14795
-0.441923 -0.221108 1.14619
-0.442707 -0.221407 1.14404
-0.443645 -0.221746 1.1422
-0.444617 -0.222092 1.14043
-0.445493 -0.222415 1.13849
-0.446364 -0.222738 1.13654
-0.447435 -0.223108 1.135
-0.448589 -0.223498 1.13362
-0.449769 -0.223896 1.13229
-0.451151 -0.224344 1.13136
-0.452524 -0.224787 1.13041
-0.453852 -0.225223 1.12938
-0.455233 -0.22567 1.12845
-0.456667 -0.226129 1.12763
-0.458105 -0.226591 1.12681
-0.459587 -0.227061 1.12607
-0.461073 -0.227536 1.12534
-0.462512 -0.227997 1.12452
-0.464111 -0.228499 1.124
-0.465941 -0.229058 1.12391
-0.467914 -0.229653 1.12408
-0.469964 -0.230269 1.12438
-0.472063 -0.230895 1.12476
-0.47409 -0.231505 1.12501
-0.476003 -0.232085 1.12503
-0.477874 -0.232656 1.12498
-0.479805 -0.233244 1.12503
-0.482081 -0.233916 1.12569
-0.48422 -0.234554 1.12609
-0.486599 -0.235254 1.12692
-0.48932 -0.236041 1.12835
-0.492438 -0.236927 1.13046
-0.495641 -0.237835 1.13271
-0.499218 -0.238841 1.13559
-0.502798 -0.239846 1.13845
-0.506408 -0.240863 1.14134
-0.509934 -0.241856 1.14405
-0.513369 -0.242827 1.14657
-0.516685 -0.243771 1.14887
-0.519666 -0.244627 1.15056
-0.52237 -0.245415 1.15176
-0.524432 -0.246041 1.15184
-0.526212 -0.246593 1.15143
-0.527773 -0.24709 1.15065
-0.529267 -0.247571 1.14975
-0.530587 -0.248008 1.14856
-0.532155 -0.248505 1.14779
-0.5338 -0.249026 1.14714
-0.535521 -0.249565 1.14663
-0.537642 -0.250203 1.14677
-0.540009 -0.250908 1.14732
-0.434996 -0.22016 1.16746
-0.435995 -0.220514 1.16564
-0.436776 -0.220814 1.16338
-0.437019 -0.220981 1.16003
-0.437341 -0.221166 1.15686
-0.437937 -0.221421 1.15427
-0.438414 -0.221643 1.15145
-0.439119 -0.221921 1.1491
-0.439892 -0.222219 1.1469
-0.440808 -0.222549 1.14501
-0.441577 -0.222846 1.14283
-0.44252 -0.223182 1.141
-0.443454 -0.223518 1.13916
-0.44438 -0.223852 1.13732
-0.445308 -0.224185 1.13548
-0.446355 -0.224548 1.13389
-0.447522 -0.22494 1.13254
-0.448852 -0.225374 1.13151
-0.450286 -0.225834 1.13068
-0.451667 -0.226282 1.12975
-0.453095 -0.226741 1.12891
-0.454476 -0.227189 1.12799
-0.455905 -0.227646 1.12715
-0.457343 -0.228107 1.12633
-0.458834 -0.228582 1.12561
-0.460272 -0.229044 1.12479
-0.461755 -0.229515 1.12405
-0.463295 -0.230002 1.12343
-0.465064 -0.230549 1.12322
-0.466915 -0.231114 1.12316
-0.468895 -0.231713 1.12334
-0.470869 -0.23231 1.1235
-0.47278 -0.232893 1.12353
-0.474626 -0.233459 1.12344
-0.476484 -0.234028 1.12337
-0.478469 -0.234629 1.12352
-0.480871 -0.235335 1.12441
-0.483257 -0.23604 1.12527
-0.485949 -0.236824 1.12666
-0.488932 -0.23768 1.12856
-0.49231 -0.238639 1.13114
-0.495643 -0.239587 1.13361
-0.499341 -0.240631 1.13671
-0.503001 -0.241664 1.13971
-0.506739 -0.24272 1.14282
-0.510215 -0.243707 1.14543
-0.513588 -0.244669 1.14785
-0.516755 -0.24558 1.14989
-0.519463 -0.246372 1.1511
-0.521904 -0.247095 1.15185
-0.523898 -0.247706 1.15181
-0.52562 -0.248245 1.1513
-0.527115 -0.248725 1.15041
-0.528603 -0.249205 1.1495
-0.529909 -0.249635 1.14828
-0.531486 -0.250138 1.14752
-0.533205 -0.250677 1.147
-0.535006 -0.251236 1.14662
-0.537215 -0.251902 1.14691
-0.539651 -0.252627 1.14757
-0.433846 -0.22162 1.16619
-0.434863 -0.221977 1.16441
-0.435648 -0.222276 1.16216
-0.436067 -0.222483 1.15917
-0.436449 -0.222678 1.15612
-0.437055 -0.222931 1.15355
-0.437538 -0.223152 1.15074
-0.438183 -0.223414 1.14827
-0.438837 -0.223677 1.14584
-0.43963 -0.223973 1.14369
-0.440357 -0.224256 1.14143
-0.441312 -0.224596 1.13963
-0.442316 -0.224945 1.13793
-0.443362 -0.225309 1.13633
-0.444393 -0.225664 1.1347
-0.445547 -0.226055 1.13332
-0.44677 -0.226461 1.13208
-0.448105 -0.226897 1.13106
-0.449534 -0.227355 1.13022
-0.45091 -0.227801 1.12928
-0.452287 -0.228245 1.12835
-0.45361 -0.228678 1.12731
-0.455086 -0.229147 1.12656
-0.456524 -0.229609 1.12574
-0.458024 -0.230087 1.12504
-0.459515 -0.23056 1.12432
-0.461055 -0.231048 1.12369
-0.462542 -0.231522 1.12297
-0.464248 -0.232052 1.12265
-0.466038 -0.232605 1.12248
-0.467904 -0.233177 1.12245
-0.469758 -0.233746 1.12238
-0.471591 -0.234307 1.12228
-0.47337 -0.234857 1.12207
-0.475167 -0.23541 1.12189
-0.477213 -0.236031 1.12215
-0.47978 -0.236785 1.12336
-0.482519 -0.237583 1.12485
-0.485587 -0.238466 1.12692
-0.488893 -0.239413 1.1294
-0.492467 -0.240429 1.13232
-0.49587 -0.241404 1.13492
-0.499532 -0.242445 1.13795
-0.503146 -0.243474 1.14087
-0.506956 -0.244554 1.1441
-0.510441 -0.245551 1.14673
-0.513747 -0.246503 1.14903
-0.516766 -0.247379 1.1508
-0.51933 -0.248139 1.15177
-0.52157 -0.248813 1.15216
-0.523498 -0.249408 1.15201
-0.525217 -0.249944 1.1515
-0.526654 -0.250411 1.1505
-0.52807 -0.250871 1.14947
-0.529308 -0.251286 1.14813
-0.530818 -0.251769 1.14726
-0.532484 -0.252295 1.14665
-0.534295 -0.252859 1.14628
-0.536435 -0.253508 1.14646
-0.542538 -0.255198 1.15323
-0.432881 -0.223121 1.1653
-0.433858 -0.223468 1.16344
-0.434606 -0.223755 1.16112
-0.435094 -0.223975 1.15827
-0.435599 -0.224198 1.15547
-0.436151 -0.224434 1.15279
-0.43663 -0.224649 1.14997
-0.437245 -0.224899 1.14744
-0.437844 -0.225148 1.1449
-0.438585 -0.225432 1.14265
-0.439369 -0.225724 1.1405
-0.440388 -0.226078 1.13883
-0.441415 -0.226432 1.13718
-0.442559 -0.226817 1.13577
-0.443646 -0.227189 1.13425
-0.444796 -0.227575 1.13286
-0.445971 -0.22797 1.13153
-0.447297 -0.228401 1.13049
-0.448669 -0.228845 1.12954
-0.450041 -0.229288 1.12859
-0.451373 -0.229723 1.12757
-0.452692 -0.230152 1.12653
-0.454215 -0.230636 1.12587
-0.455695 -0.231108 1.12514
-0.457156 -0.231576 1.12436
-0.458705 -0.232065 1.12375
-0.460301 -0.232569 1.12323
-0.461735 -0.233028 1.12241
-0.463441 -0.233558 1.12209
-0.465226 -0.23411 1.12191
-0.467033 -0.234667 1.12177
-0.468826 -0.235222 1.1216
-0.470597 -0.235772 1.12138
-0.472313 -0.236303 1.12106
-0.474107 -0.23686 1.12088
-0.476202 -0.237492 1.12123
-0.478891 -0.238282 1.12266
-0.481931 -0.239165 1.12471
-0.485257 -0.240121 1.12724
-0.488771 -0.24113 1.13009
-0.492475 -0.242187 1.13325
-0.495978 -0.243194 1.13602
-0.499631 -0.244238 1.13903
-0.503199 -0.245262 1.14186
-0.507022 -0.246355 1.14512
-0.510511 -0.24736 1.14776
-0.51369 -0.248283 1.14983
-0.516586 -0.249133 1.15139
-0.519073 -0.249876 1.15222
-0.521241 -0.250534 1.15249
-0.523165 -0.251127 1.15233
-0.524955 -0.251688 1.15193
-0.5264 -0.252154 1.15094
-0.527808 -0.25261 1.14989
-0.528973 -0.253006 1.14844
-0.530343 -0.253452 1.14732
-0.531869 -0.253941 1.14648
-0.537259 -0.255457 1.15212
-0.43309 -0.225019 1.16296
-0.433876 -0.225312 1.16071
-0.434307 -0.225513 1.15775
-0.434789 -0.225729 1.1549
-0.435325 -0.225956 1.15218
-0.4358 -0.226167 1.14936
-0.436333 -0.226395 1.14666
-0.436925 -0.226636 1.1441
-0.437617 -0.226902 1.14175
-0.43846 -0.227209 1.13972
-0.439585 -0.227589 1.13827
-0.44076 -0.22798 1.13691
-0.441918 -0.22837 1.13553
-0.443052 -0.228751 1.1341
-0.444199 -0.229135 1.1327
-0.445267 -0.229501 1.13116
-0.446485 -0.229904 1.12991
-0.447791 -0.230329 1.12883
-0.449157 -0.230773 1.12788
-0.450494 -0.231208 1.12687
-0.451826 -0.231642 1.12585
-0.453392 -0.232135 1.12528
-0.454929 -0.232623 1.12465
-0.456385 -0.233088 1.12387
-0.457947 -0.233583 1.12329
-0.459544 -0.234087 1.12277
-0.460924 -0.234532 1.12184
-0.462576 -0.235049 1.12142
-0.46436 -0.235602 1.12124
-0.466117 -0.236147 1.12101
-0.46791 -0.236702 1.12084
-0.469675 -0.237251 1.12062
-0.471442 -0.2378 1.12039
-0.473182 -0.23834 1.12011
-0.475339 -0.238994 1.12058
-0.478141 -0.239817 1.12222
-0.481422 -0.240769 1.1247
-0.484901 -0.241771 1.12751
-0.488614 -0.242841 1.13072
-0.492417 -0.243931 1.13406
-0.495954 -0.244954 1.13689
-0.499535 -0.245987 1.13977
-0.503158 -0.247032 1.1427
-0.506933 -0.248121 1.14587
-0.510366 -0.249118 1.14841
-0.513483 -0.25003 1.15037
-0.516249 -0.250852 1.15171
-0.518614 -0.251563 1.15232
-0.520787 -0.252224 1.1526
-0.522783 -0.25284 1.15256
-0.524646 -0.25342 1.15229
-0.526165 -0.253906 1.15143
-0.52758 -0.254364 1.15038
-0.528727 -0.254752 1.14889
-0.530009 -0.255175 1.14763
-0.531352 -0.255616 1.14647
-0.543211 -0.25712 1.15864
-0.540878 -0.258253 1.15906
-0.433212 -0.226887 1.16045
-0.433653 -0.227087 1.1575
-0.43403 -0.227269 1.15444
-0.434458 -0.227467 1.1515
-0.434911 -0.22767 1.14862
-0.435455 -0.227895 1.14595
-0.436111 -0.22815 1.14352
-0.436822 -0.228419 1.14121
-0.437711 -0.228736 1.13927
-0.438884 -0.229125 1.1379
-0.440063 -0.229519 1.13656
-0.441222 -0.229907 1.13518
-0.44236 -0.230289 1.13376
-0.443507 -0.230674 1.13236
-0.444517 -0.23102 1.1307
-0.445669 -0.231405 1.12932
-0.446908 -0.231813 1.12812
-0.44827 -0.232253 1.12715
-0.449559 -0.232675 1.12605
-0.450905 -0.233112 1.12506
-0.452531 -0.233625 1.12461
-0.45412 -0.234125 1.12408
-0.455581 -0.234592 1.12331
-0.457195 -0.235102 1.12283
-0.45883 -0.235614 1.12238
-0.460211 -0.236059 1.12145
-0.461857 -0.236577 1.12102
-0.46364 -0.237131 1.12085
-0.465397 -0.237677 1.12061
-0.467198 -0.238237 1.12046
-0.468969 -0.238786 1.12025
-0.47074 -0.239339 1.12003
-0.47248 -0.239879 1.11975
-0.474695 -0.240551 1.12033
-0.47756 -0.241395 1.12208
-0.480969 -0.242387 1.1248
-0.484573 -0.243433 1.12784
-0.488404 -0.244541 1.13126
-0.49221 -0.245641 1.1346
-0.495742 -0.246668 1.13742
-0.499311 -0.247705 1.14029
-0.502937 -0.248759 1.14322
-0.5066 -0.249825 1.14619
-0.510022 -0.250823 1.14871
-0.51306 -0.251722 1.15054
-0.515698 -0.252512 1.15165
-0.518005 -0.253212 1.15217
-0.520249 -0.253896 1.15257
-0.522318 -0.25453 1.15265
-0.524331 -0.255153 1.15264
-0.525935 -0.255661 1.15192
-0.52736 -0.256124 1.15089
-0.528494 -0.256506 1.14937
-0.529605 -0.256882 1.14781
-0.530735 -0.257264 1.14629
-0.433434 -0.228933 1.15048
-0.433965 -0.229153 1.14777
-0.434609 -0.229403 1.1453
-0.435348 -0.229676 1.14304
-0.436109 -0.229957 1.14083
-0.437005 -0.230272 1.1389
-0.438181 -0.230664 1.13754
-0.439365 -0.231059 1.13621
-0.440525 -0.231445 1.13483
-0.441665 -0.231824 1.13341
-0.442807 -0.232207 1.132
-0.443766 -0.232538 1.13024
-0.444862 -0.232908 1.12875
-0.44604 -0.233299 1.12743
-0.447345 -0.233723 1.12636
-0.448586 -0.234133 1.12516
-0.449984 -0.234582 1.12427
-0.45167 -0.235112 1.12394
-0.453316 -0.235629 1.12352
-0.454834 -0.23611 1.12286
-0.456496 -0.236632 1.12247
-0.458136 -0.237147 1.12203
-0.459511 -0.237593 1.12109
-0.461147 -0.238108 1.12064
-0.462925 -0.238661 1.12046
-0.464685 -0.239211 1.12024
-0.466492 -0.239771 1.12009
-0.468267 -0.240324 1.11989
-0.470038 -0.240877 1.11967
-0.471777 -0.241419 1.11939
-0.474046 -0.242107 1.12007
-0.476972 -0.242974 1.12193
-0.480384 -0.243974 1.12466
-0.484032 -0.245037 1.12778
-0.48803 -0.246199 1.1315
-0.491907 -0.247328 1.13498
-0.495524 -0.248384 1.13795
-0.499222 -0.249464 1.14104
-0.502857 -0.250527 1.14399
-0.506387 -0.251563 1.14673
-0.509685 -0.252536 1.14903
-0.512576 -0.253397 1.1506
-0.515076 -0.254153 1.15147
-0.51731 -0.254836 1.15186
-0.519497 -0.255506 1.15216
-0.521646 -0.256166 1.15239
-0.523742 -0.256812 1.15252
-0.525361 -0.257327 1.15182
-0.526788 -0.257788 1.15079
-0.52786 -0.258153 1.14917
-0.528768 -0.258473 1.14727
-0.529584 -0.258767 1.14522
-0.432978 -0.230625 1.14683
-0.433722 -0.230899 1.14457
-0.434589 -0.231203 1.14256
-0.435452 -0.231509 1.14056
-0.436352 -0.231826 1.13864
-0.437529 -0.232217 1.13728
-0.43871 -0.232607 1.13594
-0.43982 -0.232979 1.13446
-0.440959 -0.23336 1.13304
-0.442106 -0.233742 1.13164
-0.443066 -0.234072 1.12988
-0.444163 -0.234439 1.12839
-0.445342 -0.234829 1.12707
-0.446641 -0.235253 1.12599
-0.447874 -0.235658 1.12478
-0.449318 -0.236122 1.12398
-0.451005 -0.23665 1.12364
-0.452665 -0.237173 1.12325
-0.454192 -0.237658 1.12261
-0.455855 -0.23818 1.12222
-0.457446 -0.238683 1.12169
-0.458821 -0.239128 1.12075
-0.460462 -0.239644 1.12031
-0.46224 -0.240199 1.12013
-0.463995 -0.240747 1.11989
-0.465796 -0.24131 1.11974
-0.467618 -0.241877 1.11962
-0.46939 -0.24243 1.11941
-0.471187 -0.24299 1.11923
-0.473509 -0.243695 1.12001
-0.47638 -0.244551 1.12178
-0.479616 -0.24551 1.12418
-0.48324 -0.246576 1.12727
-0.487339 -0.247773 1.13118
-0.491315 -0.248934 1.13483
-0.495148 -0.25006 1.1382
-0.499046 -0.251202 1.14164
-0.502729 -0.252287 1.14468
-0.506077 -0.253279 1.1471
-0.509231 -0.254219 1.14915
-0.511988 -0.255049 1.15048
-0.514349 -0.25577 1.15111
-0.516445 -0.256417 1.15126
-0.518611 -0.25708 1.15152
-0.520821 -0.25776 1.15186
-0.522926 -0.258411 1.152
-0.524612 -0.258943 1.15142
-0.526094 -0.259422 1.15049
-0.527094 -0.259766 1.14874
-0.527853 -0.260039 1.14659
-0.431902 -0.23207 1.14571
-0.432745 -0.232369 1.14365
-0.43373 -0.232705 1.14189
-0.434699 -0.233035 1.1401
-0.435604 -0.233352 1.13819
-0.436782 -0.23374 1.13683
-0.438009 -0.234144 1.13558
-0.439114 -0.234514 1.13409
-0.440249 -0.234892 1.13266
-0.441398 -0.235271 1.13126
-0.442414 -0.235616 1.12961
-0.443571 -0.236 1.12824
-0.444812 -0.236407 1.12704
-0.446116 -0.236832 1.12597
-0.447393 -0.237248 1.12484
-0.448828 -0.237708 1.12402
-0.450468 -0.238225 1.12359
-0.452075 -0.238734 1.1231
-0.45365 -0.239233 1.12255
-0.455264 -0.239744 1.12207
-0.456808 -0.240235 1.12145
-0.458184 -0.240677 1.12051
-0.45983 -0.241196 1.12008
-0.461559 -0.241739 1.1198
-0.463313 -0.242289 1.11957
-0.465104 -0.242848 1.1194
-0.466976 -0.24343 1.11937
-0.468751 -0.243986 1.11916
-0.470607 -0.244565 1.1191
-0.472929 -0.245271 1.11988
-0.475793 -0.246131 1.12163
-0.479007 -0.247089 1.124
-0.482787 -0.248206 1.12737
-0.487014 -0.249446 1.13151
-0.491206 -0.250679 1.13555
-0.495253 -0.251871 1.1393
-0.499228 -0.253047 1.14289
-0.502786 -0.254103 1.1457
-0.505992 -0.255061 1.14786
-0.508949 -0.25595 1.14956
-0.511522 -0.256734 1.15058
-0.513686 -0.2574 1.15085
-0.515703 -0.258029 1.15087
-0.517791 -0.258674 1.151
-0.519989 -0.259353 1.15132
-0.522028 -0.259984 1.15135
-0.523712 -0.260519 1.15077
-0.525117 -0.260974 1.14971
-0.526029 -0.261291 1.14781
-0.526693 -0.261538 1.14549
-0.527197 -0.261738 1.14292
-0.431928 -0.233881 1.14306
-0.433077 -0.23426 1.14163
-0.434155 -0.234621 1.14006
-0.435117 -0.23495 1.13826
-0.436291 -0.235337 1.13689
-0.437463 -0.235725 1.13553
-0.438564 -0.236093 1.13403
-0.439701 -0.23647 1.1326
-0.440808 -0.236839 1.13112
-0.441876 -0.237195 1.12957
-0.443091 -0.237594 1.12831
-0.444346 -0.238004 1.12714
-0.44561 -0.238418 1.12598
-0.446892 -0.238834 1.12486
-0.448323 -0.239293 1.12404
-0.449906 -0.239796 1.1235
-0.451457 -0.240287 1.1229
-0.453018 -0.240784 1.12232
-0.454618 -0.241289 1.12181
-0.456157 -0.24178 1.12118
-0.45759 -0.24224 1.12035
-0.459293 -0.242777 1.12003
-0.461023 -0.243319 1.11975
-0.462777 -0.243871 1.11952
-0.464563 -0.244431 1.11934
-0.466439 -0.245015 1.11932
-0.468171 -0.245559 1.11903
-0.470091 -0.246156 1.11908
-0.472411 -0.246868 1.11985
-0.47522 -0.247716 1.12151
-0.478535 -0.248709 1.12407
-0.482551 -0.249899 1.12787
-0.486994 -0.251211 1.1324
-0.491452 -0.252531 1.13692
-0.495629 -0.253768 1.1409
-0.49953 -0.254928 1.14435
-0.502892 -0.255937 1.14681
-0.505901 -0.256845 1.14862
-0.50861 -0.25767 1.14988
-0.511046 -0.258418 1.15065
-0.513081 -0.259051 1.15071
-0.514968 -0.259641 1.15049
-0.516925 -0.260255 1.1504
-0.519051 -0.260914 1.15059
-0.520959 -0.261511 1.1504
-0.522509 -0.262006 1.14959
-0.523841 -0.26244 1.14841
-0.524659 -0.262729 1.14635
-0.525228 -0.262946 1.14388
-0.525795 -0.26316 1.14141
-0.431233 -0.235425 1.14272
-0.43244 -0.235822 1.1414
-0.433619 -0.236211 1.14004
-0.434637 -0.236553 1.13835
-0.435817 -0.236941 1.13699
-0.436985 -0.237327 1.13562
-0.438084 -0.237691 1.13411
-0.439226 -0.23807 1.13269
-0.440284 -0.238422 1.13111
-0.441404 -0.238794 1.12966
-0.442615 -0.23919 1.12839
-0.443876 -0.239601 1.12723
-0.44515 -0.240015 1.12609
-0.446484 -0.240448 1.12507
-0.447916 -0.240908 1.12424
-0.449448 -0.241395 1.1236
-0.450938 -0.241871 1.12288
-0.452433 -0.242349 1.12217
-0.453975 -0.24284 1.12156
-0.455509 -0.243329 1.12092
-0.456948 -0.243791 1.1201
-0.458651 -0.244327 1.11978
-0.46038 -0.244871 1.1195
-0.462125 -0.24542 1.11925
-0.463915 -0.245982 1.11908
-0.465854 -0.246586 1.11917
-0.467595 -0.247134 1.1189
-0.46952 -0.247734 1.11896
-0.47178 -0.248433 1.11963
-0.474469 -0.249251 1.12107
-0.478191 -0.250367 1.12437
-0.482616 -0.251683 1.12891
-0.487428 -0.253113 1.13411
-0.492201 -0.25453 1.13919
-0.496567 -0.255832 1.1435
-0.500034 -0.256877 1.14617
-0.50307 -0.257798 1.14805
-0.505818 -0.258635 1.14939
-0.508265 -0.259389 1.15019
-0.510509 -0.260084 1.15062
-0.512472 -0.2607 1.15055
-0.514235 -0.261258 1.15012
-0.516005 -0.261815 1.1497
-0.518001 -0.26244 1.14967
-0.519763 -0.262998 1.14923
-0.521178 -0.263454 1.14819
-0.522437 -0.263866 1.14689
-0.523291 -0.264161 1.14489
-0.523974 -0.264408 1.14262
-0.524679 -0.264662 1.14039
-0.449554 -0.240139 1.2124
-0.44777 -0.239577 1.21276
-0.447116 -0.241248 1.21258
-0.448922 -0.241818 1.21226
-0.450672 -0.242373 1.21182
-0.430636 -0.237 1.14258
-0.431881 -0.237406 1.14134
-0.433147 -0.237819 1.14014
-0.434221 -0.238176 1.13857
-0.435352 -0.238547 1.13711
-0.436517 -0.238931 1.13573
-0.437612 -0.239295 1.13421
-0.43876 -0.239672 1.1328
-0.439823 -0.240026 1.13123
-0.440991 -0.24041 1.12987
-0.442193 -0.240805 1.12858
-0.443447 -0.241212 1.1274
-0.444717 -0.241624 1.12625
-0.446052 -0.242056 1.12523
-0.447486 -0.242515 1.1244
-0.44897 -0.242992 1.12367
-0.450404 -0.243452 1.12284
-0.451842 -0.243913 1.12202
-0.453324 -0.244386 1.12129
-0.454862 -0.244876 1.12066
-0.456358 -0.245355 1.11995
-0.458119 -0.245909 1.11973
-0.459901 -0.24647 1.11955
-0.461699 -0.247036 1.1194
-0.46349 -0.247599 1.11923
-0.465434 -0.248206 1.11934
-0.467184 -0.24876 1.11908
-0.469095 -0.249355 1.11911
-0.471238 -0.250021 1.11956
-0.473699 -0.25078 1.12059
-0.477941 -0.252053 1.12484
-0.482797 -0.253506 1.13016
-0.4879 -0.25503 1.13589
-0.492995 -0.256552 1.14155
-0.497655 -0.257951 1.14638
-0.50061 -0.258852 1.14813
-0.503262 -0.259667 1.14931
-0.505748 -0.260436 1.15019
-0.507933 -0.261117 1.15053
-0.50997 -0.261754 1.15059
-0.511802 -0.262332 1.15029
-0.513494 -0.262869 1.14974
-0.515202 -0.263411 1.14921
-0.517053 -0.263996 1.14893
-0.518672 -0.264511 1.14824
-0.519998 -0.264942 1.14705
-0.521194 -0.265336 1.14564
-0.52212 -0.265649 1.14377
-0.522953 -0.265938 1.14175
-0.523866 -0.266249 1.13988
-0.529764 -0.266175 1.14556
-0.525064 -0.266641 1.13849
-0.449159 -0.243703 1.21813
-0.448249 -0.243489 1.21204
-0.449965 -0.244033 1.21152
-0.452522 -0.242957 1.21157
-0.451743 -0.244596 1.21113
-0.453549 -0.245168 1.2108
-0.430023 -0.238568 1.1424
-0.431258 -0.238972 1.14114
-0.432565 -0.239396 1.14003
-0.433694 -0.239768 1.13856
-0.434876 -0.240155 1.13721
-0.436043 -0.240537 1.13582
-0.437185 -0.240912 1.1344
-0.438339 -0.241292 1.133
-0.439404 -0.241644 1.13142
-0.440521 -0.242013 1.12996
-0.441712 -0.242401 1.12865
-0.44291 -0.242792 1.12736
-0.444125 -0.243188 1.1261
-0.445456 -0.243618 1.12507
-0.44689 -0.244079 1.12424
-0.448323 -0.244539 1.12341
-0.449757 -0.244999 1.12258
-0.45119 -0.245459 1.12176
-0.452676 -0.245935 1.12103
-0.454272 -0.246442 1.12051
-0.455831 -0.246938 1.11991
-0.457662 -0.247517 1.11983
-0.459498 -0.248094 1.11975
-0.461345 -0.248673 1.11969
-0.463194 -0.249256 1.11963
-0.465139 -0.249864 1.11973
-0.46689 -0.25042 1.11947
-0.468737 -0.251 1.11939
-0.470704 -0.251616 1.11951
-0.473684 -0.252531 1.12149
-0.478554 -0.253999 1.12688
-0.483913 -0.255609 1.13312
-0.489418 -0.257264 1.13956
-0.494782 -0.258877 1.1457
-0.498913 -0.260131 1.14957
-0.501362 -0.26089 1.1504
-0.50364 -0.2616 1.15092
-0.505802 -0.262276 1.15122
-0.507717 -0.262879 1.15107
-0.509548 -0.263457 1.15076
-0.511187 -0.263981 1.15012
-0.512753 -0.264481 1.14935
-0.514393 -0.265006 1.14871
-0.516041 -0.265529 1.14807
-0.5175 -0.265998 1.14711
-0.518686 -0.266388 1.14568
-0.519824 -0.266762 1.14418
-0.520836 -0.267102 1.14246
-0.521872 -0.267445 1.14078
-0.522936 -0.267799 1.13916
-0.524277 -0.268235 1.13802
-0.526123 -0.266995 1.13687
-0.525421 -0.26861 1.13655
-0.527305 -0.267385 1.13547
-0.526631 -0.269005 1.13519
-0.533147 -0.26913 1.14185
-0.527849 -0.269404 1.13384
-0.447678 -0.245186 1.21204
-0.449354 -0.24572 1.21143
-0.451066 -0.246265 1.2109
-0.452687 -0.246783 1.21018
-0.454032 -0.247222 1.20888
-0.431038 -0.24062 1.14556
-0.430689 -0.240556 1.14105
-0.432015 -0.240982 1.13998
-0.433199 -0.241372 1.13862
-0.434432 -0.241773 1.13737
-0.4356 -0.242153 1.13599
-0.436748 -0.242531 1.13457
-0.437899 -0.242907 1.13316
-0.438969 -0.24326 1.13159
-0.440084 -0.243625 1.13012
-0.441238 -0.244003 1.12874
-0.442377 -0.244376 1.12732
-0.443532 -0.244754 1.12595
-0.444807 -0.245168 1.12481
-0.44619 -0.245611 1.12388
-0.447624 -0.246072 1.12305
-0.449057 -0.246532 1.12222
-0.450542 -0.247008 1.1215
-0.452085 -0.247501 1.12088
-0.453795 -0.248042 1.12057
-0.455473 -0.248576 1.1202
-0.457417 -0.249185 1.12033
-0.459321 -0.249784 1.12038
-0.461235 -0.250389 1.12044
-0.463135 -0.250984 1.12046
-0.465089 -0.251601 1.12058
-0.466882 -0.252165 1.1204
-0.468681 -0.252737 1.12022
-0.471412 -0.253579 1.12175
-0.475051 -0.254694 1.12492
-0.480487 -0.256343 1.13134
-0.486159 -0.258059 1.13813
-0.491889 -0.259795 1.14497
-0.496548 -0.261212 1.14982
-0.500046 -0.262287 1.15255
-0.502004 -0.262906 1.15249
-0.503965 -0.263525 1.15243
-0.505804 -0.264105 1.15215
-0.507453 -0.264633 1.15152
-0.509074 -0.265148 1.15085
-0.510512 -0.265611 1.14985
-0.511838 -0.266043 1.14866
-0.513337 -0.266523 1.14777
-0.514784 -0.26699 1.14679
-0.516042 -0.267398 1.14549
-0.517088 -0.267745 1.14382
-0.518219 -0.268117 1.1423
-0.519307 -0.268475 1.14072
-0.520553 -0.268881 1.13941
-0.521818 -0.269293 1.13814
-0.52331 -0.269773 1.13725
-0.5246 -0.27019 1.13602
-0.525892 -0.270611 1.1348
-0.527164 -0.271023 1.13355
-0.447109 -0.24689 1.21204
-0.448742 -0.247411 1.21134
-0.450345 -0.247923 1.21058
-0.451833 -0.248401 1.20958
-0.453125 -0.248823 1.20817
-0.454412 -0.249242 1.20676
-0.43204 -0.242679 1.14871
-0.43016 -0.24215 1.14105
-0.431514 -0.242586 1.14003
-0.432749 -0.24299 1.13878
-0.434038 -0.243406 1.13763
-0.435216 -0.24379 1.13626
-0.43637 -0.244166 1.13486
-0.437513 -0.244539 1.13343
-0.438631 -0.244906 1.13196
-0.439705 -0.245259 1.1304
-0.440861 -0.245635 1.12902
-0.442001 -0.246008 1.1276
-0.443153 -0.246385 1.12622
-0.444369 -0.246778 1.12496
-0.445752 -0.247224 1.12403
-0.447186 -0.247684 1.1232
-0.448621 -0.248144 1.12237
-0.450159 -0.248636 1.12174
-0.451764 -0.249148 1.12124
-0.45359 -0.249724 1.12115
-0.455446 -0.250311 1.12112
-0.457562 -0.250975 1.12157
-0.459587 -0.251613 1.12184
-0.461615 -0.25225 1.12211
-0.463531 -0.252855 1.12216
-0.465493 -0.253475 1.12228
-0.467298 -0.254048 1.12211
-0.469047 -0.254602 1.12183
-0.472456 -0.255655 1.12461
-0.476812 -0.256992 1.12908
-0.482634 -0.258768 1.1362
-0.488548 -0.260574 1.14342
-0.494251 -0.262318 1.1502
-0.498157 -0.26352 1.15367
-0.501054 -0.264421 1.1553
-0.502693 -0.264943 1.15466
-0.504348 -0.265473 1.15405
-0.505874 -0.265962 1.1532
-0.507249 -0.266406 1.15209
-0.508603 -0.266844 1.15094
-0.50978 -0.267228 1.14948
-0.510965 -0.267615 1.14804
-0.512336 -0.268058 1.14693
-0.513584 -0.268464 1.14561
-0.514642 -0.268812 1.14396
-0.515605 -0.269132 1.14215
-0.516734 -0.269502 1.14064
-0.517888 -0.269879 1.13917
-0.519339 -0.270344 1.13821
-0.520747 -0.270799 1.13719
-0.522431 -0.271335 1.13663
-0.52385 -0.271793 1.13562
-0.525275 -0.272251 1.13462
-0.526604 -0.27268 1.13346
-0.446549 -0.248595 1.21206
-0.44806 -0.249079 1.2111
-0.449549 -0.249558 1.2101
-0.450926 -0.250003 1.20887
-0.452179 -0.25041 1.20738
-0.453462 -0.250826 1.20596
-0.429716 -0.243773 1.14122
-0.431134 -0.244229 1.14033
-0.432474 -0.244661 1.13929
-0.433874 -0.245111 1.13836
-0.435108 -0.245511 1.1371
-0.436269 -0.24589 1.1357
-0.43741 -0.24626 1.13426
-0.438525 -0.246626 1.13278
-0.439547 -0.246961 1.13112
-0.440658 -0.247324 1.12964
-0.44175 -0.247679 1.12813
-0.442843 -0.248038 1.12662
-0.444009 -0.248417 1.12526
-0.445337 -0.248844 1.12423
-0.446773 -0.249304 1.1234
-0.448208 -0.249765 1.12257
-0.449804 -0.250274 1.12205
-0.451523 -0.250822 1.12176
-0.453477 -0.251439 1.12191
-0.455501 -0.252077 1.1222
-0.457852 -0.252817 1.12309
-0.460056 -0.25351 1.12369
-0.462207 -0.254188 1.12418
-0.464238 -0.254828 1.12443
-0.466309 -0.255482 1.12476
-0.468132 -0.256061 1.12461
-0.469895 -0.256621 1.12435
-0.474067 -0.257912 1.12851
-0.479149 -0.259481 1.13431
-0.48515 -0.261326 1.14174
-0.491003 -0.263129 1.14884
-0.496587 -0.264851 1.15538
-0.499622 -0.265799 1.15727
-0.501834 -0.266496 1.15766
-0.503402 -0.266999 1.15688
-0.504862 -0.267469 1.1559
-0.506122 -0.267876 1.15458
-0.507229 -0.268239 1.15298
-0.508249 -0.268574 1.15124
-0.5091 -0.268857 1.1492
-0.510083 -0.269182 1.14741
-0.511311 -0.269582 1.14605
-0.512427 -0.269945 1.1445
-0.513412 -0.270272 1.14272
-0.514304 -0.270567 1.14079
-0.515421 -0.270933 1.13926
-0.516579 -0.27131 1.1378
-0.51811 -0.271801 1.13699
-0.519653 -0.272294 1.13619
-0.521542 -0.272895 1.13599
-0.523035 -0.273373 1.1351
-0.524531 -0.273853 1.13422
-0.52597 -0.274317 1.13325
-0.445924 -0.250281 1.21194
-0.447373 -0.250748 1.21086
-0.448683 -0.251169 1.20948
-0.449906 -0.251568 1.20792
-0.45107 -0.251947 1.20625
-0.452228 -0.252325 1.20456
-0.430446 -0.245758 1.1438
-0.430833 -0.245898 1.1408
-0.432343 -0.24638 1.14009
-0.433902 -0.24688 1.13948
-0.435194 -0.247296 1.13833
-0.436407 -0.247691 1.13703
-0.437501 -0.248046 1.13549
-0.43856 -0.248393 1.13389
-0.439525 -0.248707 1.13211
-0.440579 -0.249052 1.13051
-0.441613 -0.249389 1.12888
-0.442708 -0.249747 1.12737
-0.443872 -0.250123 1.126
-0.445206 -0.250555 1.12497
-0.446643 -0.251016 1.12414
-0.44808 -0.251477 1.12331
-0.449729 -0.252002 1.12289
-0.451559 -0.252583 1.12281
-0.45359 -0.253228 1.12311
-0.455739 -0.253907 1.12362
-0.458269 -0.254703 1.12485
-0.460552 -0.255422 1.12559
-0.462782 -0.256128 1.12622
-0.464926 -0.256805 1.12668
-0.467116 -0.257498 1.12722
-0.468949 -0.25808 1.12708
-0.470836 -0.258682 1.12703
-0.475116 -0.260015 1.13139
-0.480895 -0.261811 1.13847
-0.486852 -0.26366 1.14581
-0.492653 -0.265462 1.1528
-0.498081 -0.267148 1.15905
-0.500864 -0.268024 1.16047
-0.502308 -0.268488 1.15946
-0.503815 -0.268973 1.15857
-0.505144 -0.269401 1.15735
-0.506151 -0.269732 1.15557
-0.506981 -0.270008 1.15347
-0.507717 -0.270253 1.15122
-0.508297 -0.270453 1.14871
-0.509024 -0.270695 1.14646
-0.510116 -0.27105 1.14486
-0.511163 -0.271395 1.1432
-0.512138 -0.271715 1.14141
-0.512967 -0.27199 1.13937
-0.514141 -0.272369 1.13794
-0.515369 -0.272767 1.13661
-0.516966 -0.273279 1.13591
-0.518522 -0.273779 1.13514
-0.520534 -0.274417 1.13514
-0.522047 -0.274901 1.13429
-0.523559 -0.275386 1.13344
-0.525128 -0.275889 1.13269
-0.531743 -0.276099 1.13952
-0.526896 -0.276453 1.13227
-0.445159 -0.251924 1.21153
-0.446477 -0.252351 1.21017
-0.447606 -0.252717 1.20841
-0.44868 -0.253068 1.20654
-0.449724 -0.253409 1.20462
-0.450694 -0.253727 1.20255
-0.432525 -0.248171 1.14915
-0.431866 -0.247983 1.14398
-0.432736 -0.24827 1.14196
-0.434308 -0.248773 1.14137
-0.435654 -0.249203 1.14032
-0.436876 -0.2496 1.13903
-0.437974 -0.249955 1.13749
-0.438977 -0.250283 1.13577
-0.439878 -0.250576 1.13385
-0.440816 -0.250884 1.13201
-0.441746 -0.251188 1.13016
-0.442734 -0.25151 1.12844
-0.443844 -0.251869 1.12696
-0.445125 -0.252282 1.12582
-0.446564 -0.252743 1.12499
-0.448059 -0.253223 1.12427
-0.449766 -0.253768 1.12395
-0.451659 -0.254371 1.12399
-0.453748 -0.255035 1.12439
-0.455965 -0.255739 1.12503
-0.458615 -0.256575 1.12648
