ply
format ascii 1.0
element vertex 1629
property float x
property float y
property float z
end_header
0.077605 0.00355419 0.439652
0.0772642 0.00302091 0.440677
0.0769175 0.00248531 0.441685
0.076565 0.00194638 0.442673
0.0762467 0.0014115 0.443838
0.0759237 0.000873645 0.444992
0.0755722 0.000329415 0.446017
0.0752214 -0.000216561 0.447054
0.0748656 -0.000764926 0.448079
0.0745186 -0.00131409 0.449157
0.0741194 -0.0018715 0.449984
0.0737095 -0.00243228 0.450761
0.0732714 -0.00299699 0.451405
0.0724399 -0.00299964 0.452949
0.0728194 -0.00356364 0.451988
0.109243 0.0310036 0.461161
0.108651 0.0303934 0.461187
0.108047 0.0297774 0.46116
0.107433 0.0291602 0.461096
0.106774 0.0285263 0.460853
0.106132 0.0279013 0.460681
0.105513 0.0272819 0.460588
0.104885 0.0266621 0.460462
0.0966702 0.022025 0.439549
0.0960871 0.0214384 0.439485
0.0955418 0.0208638 0.439572
0.094945 0.0202737 0.439449
0.0943354 0.0196809 0.439273
0.093695 0.0190795 0.438966
0.0929717 0.0184558 0.438315
0.0921568 0.0178078 0.437278
0.0913531 0.0171652 0.436276
0.0905479 0.016524 0.435256
0.0897782 0.0158947 0.434373
0.0890941 0.0152899 0.43384
0.0884264 0.0146902 0.433368
0.087793 0.0141007 0.433037
0.0872073 0.0135242 0.432905
0.0866729 0.0129607 0.43299
0.0861103 0.0123906 0.432953
0.0856242 0.0118388 0.433245
0.0851566 0.0112914 0.43362
0.0847309 0.0107533 0.434182
0.0786796 0.00358981 0.439463
0.0782437 0.00304012 0.44003
0.0778143 0.00249073 0.440633
0.0774157 0.00194523 0.441389
0.077019 0.00139853 0.442159
0.0766683 0.000857601 0.44316
0.0763259 0.000316027 0.444211
0.0759559 -0.000231195 0.445138
0.0756042 -0.000777883 0.446162
0.0752397 -0.00132775 0.447135
0.0748911 -0.00187765 0.448196
0.0744934 -0.00243519 0.449022
0.0740832 -0.00299549 0.449793
0.0736376 -0.00356078 0.450393
0.0731961 -0.00412684 0.451018
0.109203 0.0298291 0.460965
0.108595 0.029214 0.46093
0.107986 0.0285975 0.460885
0.10733 0.0279665 0.460661
0.1067 0.0273438 0.46053
0.106081 0.0267266 0.460443
0.105458 0.026107 0.460336
0.095521 0.0197516 0.439454
0.0948682 0.0191465 0.439105
0.0941846 0.0185337 0.438626
0.0933996 0.0178941 0.437727
0.0925533 0.0172397 0.436566
0.0917886 0.0166094 0.435728
0.0909957 0.0159738 0.434764
0.0902356 0.0153485 0.433925
0.0895476 0.0147438 0.433378
0.0888543 0.014139 0.432802
0.0881989 0.0135448 0.432378
0.0876024 0.0129662 0.4322
0.0870578 0.0124006 0.432238
0.0865082 0.0118344 0.432256
0.0860585 0.0112916 0.432703
0.0856271 0.010752 0.433231
0.0852455 0.0102233 0.433982
0.0843513 0.0102245 0.434949
0.0849117 0.00970388 0.434949
0.0845844 0.00918436 0.435953
0.0794443 0.00309641 0.440423
0.0789175 0.00253002 0.440566
0.0784069 0.00196627 0.440787
0.0779483 0.00141031 0.441255
0.0774956 0.000854597 0.441756
0.0771024 0.000306576 0.442546
0.0767286 -0.000240012 0.443439
0.0763585 -0.000788005 0.444357
0.0759894 -0.00133731 0.445289
0.0756255 -0.0018875 0.446257
0.0752767 -0.0024379 0.447308
0.0748783 -0.00299575 0.448123
0.0744684 -0.003556 0.448889
0.0740334 -0.00412029 0.449535
0.0735847 -0.0046872 0.450116
0.0726952 -0.00469997 0.451341
0.0730818 -0.00525924 0.45043
0.109144 0.0286493 0.460703
0.108539 0.028034 0.460672
0.107874 0.0274007 0.460416
0.107244 0.02678 0.460291
0.106623 0.0261611 0.460194
0.095449 0.0186255 0.43913
0.0946559 0.0179832 0.438213
0.0938042 0.0173272 0.437047
0.0929247 0.0166665 0.435756
0.0922014 0.0160488 0.43509
0.0914232 0.015419 0.434191
0.0906715 0.0147975 0.43339
0.0899697 0.0141902 0.432787
0.0892634 0.0135837 0.432159
0.088608 0.0129908 0.431737
0.0880127 0.0124129 0.431562
0.0874588 0.0118458 0.431561
0.0869323 0.0112853 0.431675
0.0865084 0.0107483 0.43223
0.0861008 0.010214 0.432859
0.0857606 0.00969342 0.433785
0.085448 0.0091773 0.43484
0.0851005 0.00865229 0.435753
0.084173 0.00864538 0.436594
0.0846743 0.00810952 0.436326
0.0842514 0.00756619 0.436917
0.0795345 0.00200881 0.440828
0.0789638 0.00143545 0.440768
0.0784547 0.000871322 0.440997
0.077955 0.000308428 0.441272
0.0775169 -0.000246116 0.441844
0.0771111 -0.000797613 0.442575
0.0767301 -0.00134733 0.443432
0.0763613 -0.00189673 0.444358
0.0760091 -0.00244611 0.445374
0.0756643 -0.00299634 0.446437
0.0752766 -0.0035535 0.447297
0.0748671 -0.00411398 0.448058
0.0744322 -0.00467837 0.448697
0.0739735 -0.00524559 0.449225
0.0734819 -0.00581648 0.44959
0.0726029 -0.00583061 0.450863
0.0729942 -0.00638789 0.449975
0.10907 0.0274651 0.460381
0.108422 0.0268372 0.46019
0.1078 0.0262184 0.460093
0.0968419 0.0187513 0.440127
0.0959961 0.0180945 0.439018
0.0950931 0.0174239 0.437664
0.0941585 0.0167482 0.436168
0.0932321 0.0160775 0.43469
0.0925517 0.0154732 0.434201
0.0918018 0.0148522 0.433418
0.0910621 0.0142359 0.432671
0.0903589 0.0136298 0.432064
0.0896402 0.0130216 0.431385
0.0889959 0.0124324 0.431009
0.0884122 0.0118587 0.430884
0.0878686 0.0112944 0.430925
0.0873872 0.0107442 0.431228
0.0869989 0.0102149 0.431933
0.0866173 0.00968522 0.43267
0.086314 0.0091715 0.433753
0.0860207 0.0086581 0.434889
0.0856516 0.00812689 0.435703
0.0852116 0.00758048 0.436215
0.0847636 0.00703194 0.436696
0.0837269 0.00700239 0.437062
0.084243 0.00646835 0.436856
0.0831653 0.00643114 0.43704
0.0836964 0.00590022 0.436903
0.0832008 0.00534156 0.437176
0.0807416 0.00206344 0.441226
0.0801386 0.00148449 0.441024
0.0795284 0.000904962 0.440782
0.0789794 0.000334986 0.440825
0.078431 -0.000234689 0.44087
0.0779392 -0.000796901 0.441182
0.0775197 -0.00135034 0.441842
0.0771271 -0.00190196 0.442637
0.0767594 -0.00245175 0.443561
0.0764116 -0.00300105 0.444591
0.0760787 -0.00355069 0.445704
0.0756848 -0.00410887 0.446526
0.0752762 -0.00466958 0.447284
0.0748322 -0.00523461 0.447874
0.0743735 -0.00580194 0.448395
0.0738852 -0.00637241 0.448771
0.0733992 -0.00694341 0.449161
0.0980059 0.0188132 0.440194
0.0970575 0.0181289 0.438692
0.096291 0.0174957 0.437898
0.0953856 0.0168275 0.436538
0.0944639 0.0161583 0.435099
0.0935813 0.0155017 0.433801
0.0929164 0.0149028 0.433375
0.0921805 0.0142872 0.432652
0.0914533 0.0136753 0.431957
0.0907623 0.0130737 0.431402
0.0900459 0.0124677 0.430736
0.089424 0.0118848 0.430454
0.0888755 0.0113196 0.430476
0.088345 0.0107587 0.430572
0.0878986 0.0102163 0.431023
0.0875454 0.00969301 0.431873
0.0871774 0.00916561 0.432667
0.0868661 0.00864882 0.433713
0.0865733 0.00813376 0.434847
0.0861915 0.00759887 0.435604
0.0857442 0.00705048 0.436083
0.0852962 0.00650122 0.436562
0.0847797 0.00593829 0.436742
0.0842448 0.00537223 0.436842
0.0837611 0.00481543 0.437169
0.0832957 0.00426086 0.437579
0.0818682 0.00210521 0.441238
0.0813065 0.00153184 0.441231
0.0807107 0.000954103 0.441065
0.0800749 0.000371038 0.440708
0.079489 -0.000203708 0.440581
0.0789058 -0.000778124 0.440461
0.0783575 -0.00134724 0.440505
0.077916 -0.00190367 0.441056
0.0775139 -0.00245621 0.4418
0.0771586 -0.00300521 0.442776
0.0768341 -0.00355272 0.44391
0.0765251 -0.00410082 0.445131
0.076133 -0.00465931 0.445957
0.0757237 -0.00522036 0.446707
0.075279 -0.00578587 0.447289
0.0748081 -0.00635445 0.447744
0.0743099 -0.00692551 0.448066
0.0738093 -0.00749705 0.448379
0.0980128 0.0181348 0.437947
0.0972606 0.017506 0.437217
0.0965718 0.0168955 0.436731
0.0957025 0.0162399 0.435518
0.0947962 0.0155774 0.434145
0.0939434 0.0149309 0.43297
0.0933033 0.0143393 0.432644
0.0925906 0.013731 0.432018
0.0918745 0.0131234 0.431371
0.091185 0.0125235 0.430824
0.0904815 0.0119215 0.430213
0.0898746 0.0113432 0.429996
0.0893521 0.010784 0.430125
0.0888386 0.010227 0.430293
0.0884072 0.0096873 0.430805
0.0880571 0.00916369 0.431665
0.0876913 0.00863573 0.432465
0.0873693 0.00811545 0.433461
0.0870893 0.00760137 0.434644
0.0867181 0.00706804 0.435445
0.0862945 0.00652337 0.436026
0.0858606 0.00597574 0.436565
0.0853568 0.00541511 0.436803
0.0848238 0.00484899 0.436913
0.0843413 0.00429149 0.437245
0.0838604 0.00373387 0.437587
0.0834556 0.00318837 0.438273
0.0827829 0.00211453 0.44028
0.0823154 0.00155558 0.440701
0.0817954 0.000988701 0.440885
0.0812197 0.000414265 0.440813
0.0805886 -0.000167382 0.440481
0.0799789 -0.000745445 0.440243
0.0793704 -0.00132209 0.440009
0.0787763 -0.00189636 0.439837
0.0782935 -0.00245748 0.440187
0.077892 -0.0030103 0.440926
0.077552 -0.00355789 0.441968
0.0772519 -0.00410411 0.443209
0.0769664 -0.00465089 0.444536
0.0765927 -0.00520784 0.445448
0.076184 -0.00576965 0.446195
0.0757386 -0.00633557 0.446768
0.0752482 -0.00690529 0.447126
0.0747327 -0.00747719 0.44736
0.0742253 -0.00804888 0.447635
0.0983572 0.0179793 0.434833
0.0979959 0.0174556 0.435626
0.097357 0.0168591 0.435335
0.0967334 0.0162678 0.435102
0.0959142 0.0156279 0.434088
0.0951119 0.0149942 0.43313
0.0943404 0.0143703 0.432285
0.0937 0.0137796 0.431958
0.0929857 0.0131723 0.431327
0.092268 0.012566 0.430676
0.0915795 0.0119674 0.430134
0.0909005 0.0113727 0.429626
0.0903204 0.0108009 0.429519
0.0898363 0.01025 0.429806
0.0893501 0.00969861 0.430086
0.0889449 0.00916416 0.430708
0.0886081 0.00864211 0.431621
0.0882522 0.00811493 0.432461
0.0879298 0.00759295 0.433451
0.0876383 0.00707516 0.434582
0.0872776 0.00654248 0.435425
0.0868679 0.00599952 0.436065
0.0864465 0.00545363 0.436659
0.0859464 0.00489297 0.436915
0.085421 0.00432771 0.437059
0.0849224 0.00376714 0.437324
0.0844367 0.00320799 0.437644
0.0840078 0.00265757 0.438221
0.083665 0.00211944 0.439189
0.0832595 0.0015699 0.439881
0.0828003 0.00101205 0.440338
0.0822975 0.000447581 0.440599
0.0817405 -0.000124565 0.440613
0.0811143 -0.00070481 0.440308
0.0805152 -0.00128094 0.440123
0.0798921 -0.00185914 0.439822
0.0792714 -0.00243603 0.439528
0.0787544 -0.0030013 0.439716
0.0783188 -0.003558 0.44029
0.0779751 -0.00410658 0.441307
0.0776943 -0.00465187 0.442633
0.0774537 -0.00519583 0.444168
0.0770813 -0.00575394 0.445079
0.0766643 -0.00631668 0.445784
0.0762029 -0.00688414 0.446275
0.0757003 -0.00745492 0.446569
0.0751878 -0.00802652 0.446815
0.098776 0.0178458 0.432056
0.0984322 0.0173287 0.4329
0.0980014 0.0167882 0.433412
0.09743 0.0162113 0.433378
0.0968462 0.0156315 0.433293
0.0961464 0.0150239 0.432749
0.0954347 0.014415 0.432152
0.0947308 0.0138091 0.431577
0.0940794 0.0132169 0.431206
0.0933739 0.0126131 0.430612
0.0926452 0.0120058 0.429918
0.091979 0.0114137 0.429468
0.0913359 0.0108282 0.429109
0.0907811 0.0102621 0.429104
0.0903239 0.00971713 0.429502
0.089873 0.00917284 0.429927
0.0894697 0.00863763 0.430555
0.0891314 0.00811445 0.431459
0.0887849 0.00758789 0.432335
0.0884513 0.00706245 0.433274
0.088149 0.00654146 0.434355
0.0877894 0.00600789 0.4352
0.0874018 0.00546816 0.435932
0.0869853 0.00492223 0.436546
0.0864981 0.00436336 0.436857
0.0859844 0.00380007 0.437056
0.0855011 0.00324121 0.437387
0.0850095 0.00268064 0.437683
0.08457 0.00212769 0.438212
0.0841803 0.00158134 0.438967
0.0837575 0.00102878 0.43958
0.0833046 0.000471416 0.440063
0.0828186 -9.0998e-05 0.4404
0.0822906 -0.000659484 0.440547
0.0816874 -0.00123678 0.44035
0.0810889 -0.00181262 0.440172
0.0804431 -0.00239317 0.43977
0.0798177 -0.00297029 0.439459
0.0792654 -0.00353908 0.439483
0.0787984 -0.00409969 0.439906
0.0784256 -0.00465198 0.44078
0.0781659 -0.00519627 0.4422
0.0779634 -0.0057392 0.443906
0.0775898 -0.00629792 0.444809
0.0771601 -0.00686269 0.445447
0.0766873 -0.00743101 0.445882
0.0761727 -0.00800246 0.446115
0.0756484 -0.00857475 0.446302
0.100119 0.019475 0.430748
0.101112 0.0194941 0.430214
0.100564 0.0189248 0.430268
0.0995926 0.0189109 0.430879
0.100048 0.018364 0.430438
0.0990705 0.0183486 0.43103
0.0995328 0.0178031 0.430612
0.0990878 0.0172605 0.431057
0.0986377 0.016716 0.431484
0.0981171 0.0161534 0.431642
0.0975611 0.0155821 0.431662
0.0969916 0.0150079 0.431629
0.0963781 0.0144233 0.43142
0.0957589 0.0138377 0.431184
0.095137 0.0132526 0.430936
0.094484 0.0126614 0.43056
0.0937904 0.0120614 0.430015
0.0930853 0.0114607 0.429418
0.0924336 0.0108731 0.42903
0.0918277 0.010296 0.428821
0.0912855 0.00973319 0.428871
0.0908401 0.00919018 0.429315
0.0904001 0.00864748 0.429785
0.0899851 0.00810922 0.430362
0.0896353 0.00758257 0.431214
0.0892878 0.00705489 0.432083
0.0889441 0.00652653 0.432976
0.0886324 0.00600258 0.434012
0.0882849 0.00547025 0.434904
0.0879083 0.00493155 0.435681
0.0875056 0.00438721 0.436351
0.087032 0.00383019 0.43672
0.0865323 0.00326892 0.43698
0.0860612 0.00271158 0.437365
0.0855721 0.00215084 0.437672
0.0851084 0.00159377 0.438094
0.0846913 0.00104237 0.438725
0.0842504 0.000486975 0.439256
0.0837969 -7.10843e-05 0.439734
0.083326 -0.000631686 0.440138
0.082834 -0.00119574 0.440448
0.0822537 -0.00177024 0.440358
0.0816665 -0.00234473 0.440235
0.0810193 -0.00292513 0.439832
0.0803875 -0.00350284 0.439495
0.07979 -0.00407593 0.439312
0.0792854 -0.0046404 0.439559
0.0776842 -0.00740647 0.445249
0.0772111 -0.00797532 0.445681
0.0766842 -0.00854764 0.445855
0.100998 0.018372 0.429744
0.100497 0.0178155 0.429973
0.0999799 0.0172545 0.43014
0.0995148 0.0167067 0.430506
0.0990461 0.0161576 0.43086
0.0985139 0.015592 0.430969
0.0979503 0.0150195 0.430959
0.0973705 0.0144433 0.430884
0.096767 0.0138622 0.430715
0.0961449 0.0132771 0.430468
0.0955093 0.0126896 0.430164
0.0948536 0.0120986 0.429777
0.0941845 0.0115062 0.429332
0.0935088 0.010913 0.428854
0.092887 0.0103326 0.428587
0.0923176 0.00976385 0.428528
0.0917891 0.00920376 0.428633
0.0913434 0.00866005 0.429074
0.0909027 0.00811704 0.42954
0.090475 0.00757574 0.430063
0.0901129 0.00704583 0.430861
0.089765 0.00651723 0.431724
0.0894235 0.00598807 0.432621
0.0891041 0.00546158 0.43362
0.0887788 0.00493219 0.434602
0.0884144 0.00439486 0.435427
0.0880234 0.00385178 0.436145
0.0875756 0.00329831 0.436624
0.0871109 0.0027418 0.437034
0.0866541 0.00218596 0.437482
0.086178 0.00162653 0.437848
0.0857052 0.00106727 0.438231
0.0852532 0.000510388 0.438708
0.0847875 -4.91856e-05 0.439128
0.0843102 -0.00061042 0.4395
0.0838311 -0.00117258 0.439866
0.0833413 -0.00173663 0.440185
0.0827829 -0.00230855 0.440195
0.0822178 -0.00288057 0.440175
0.0815921 -0.00345848 0.439874
0.0809679 -0.00403487 0.439577
0.0803509 -0.00460991 0.439308
0.0798106 -0.00517751 0.43939
0.100969 0.0172732 0.429595
0.100458 0.0167141 0.429784
0.0999853 0.016164 0.430121
0.0995168 0.0156147 0.430474
0.0989699 0.015046 0.430528
0.098392 0.0144704 0.430462
0.0977971 0.0138912 0.430329
0.0971808 0.0133076 0.430109
0.0965418 0.01272 0.429798
0.0958894 0.0121299 0.429429
0.0952352 0.0115403 0.429047
0.094582 0.0109521 0.428666
0.0939356 0.0103667 0.428306
0.093343 0.00979304 0.428157
0.0928116 0.00923241 0.428251
0.0922951 0.00867462 0.428404
0.0918382 0.00812866 0.4288
0.0913963 0.00758479 0.429259
0.0909783 0.00704456 0.429819
0.0906066 0.00651215 0.430574
0.0902603 0.00598284 0.431441
0.0899304 0.00545495 0.432383
0.0896004 0.00492527 0.433332
0.089265 0.00439319 0.434268
0.088913 0.00385692 0.435141
0.0885365 0.00331503 0.435917
0.0881034 0.00276354 0.436458
0.0876627 0.0022102 0.436972
0.0872297 0.00165687 0.43752
0.0867545 0.00109729 0.437892
0.0862708 0.000535763 0.438227
0.0858042 -2.3859e-05 0.43864
0.0853228 -0.000585771 0.438991
0.0848189 -0.00115089 0.439244
0.0843392 -0.00171353 0.439605
0.0838615 -0.00227632 0.439978
0.0833159 -0.00284673 0.440048
0.0827828 -0.00341555 0.440174
0.0821878 -0.00399032 0.440017
0.0815838 -0.004565 0.439817
0.0809844 -0.00513847 0.439634
0.101824 0.0172585 0.428554
0.101375 0.0167152 0.428973
0.100903 0.0161657 0.429308
0.100446 0.0156191 0.429699
0.0999893 0.0150727 0.430097
0.0994407 0.0145037 0.430144
0.0988499 0.0139256 0.430029
0.0982536 0.0133467 0.429891
0.0976471 0.012766 0.429711
0.0969954 0.0121762 0.429352
0.0963437 0.0115872 0.428987
0.0956991 0.0110008 0.428646
0.0950483 0.0104137 0.428274
0.0944057 0.00982979 0.427932
0.093826 0.00925942 0.427836
0.0933186 0.00870356 0.428026
0.0928267 0.00815032 0.428277
0.0923723 0.00760432 0.428683
0.0919413 0.00706195 0.429186
0.091535 0.00652305 0.429793
0.0911529 0.00598754 0.430503
0.0907854 0.00545371 0.431281
0.0904447 0.00492274 0.432174
0.0901004 0.00438964 0.433061
0.0897424 0.00385262 0.433896
0.0893917 0.00331563 0.434771
0.0890195 0.00277404 0.435563
0.0886111 0.00222577 0.436207
0.0881741 0.00167203 0.436732
0.0877527 0.00111983 0.43733
0.0872655 0.000558241 0.437649
0.0867677 -5.31849e-06 0.437922
0.0862755 -0.000568327 0.438222
0.0857894 -0.00113101 0.43855
0.085283 -0.00169626 0.438791
0.0848251 -0.00225645 0.439248
0.0843696 -0.0028173 0.439718
0.0838485 -0.00338527 0.439898
0.0833173 -0.00395392 0.440034
0.0827454 -0.00452647 0.439984
0.0821515 -0.00510045 0.439831
0.102278 0.0167135 0.428115
0.101842 0.0161729 0.42858
0.101379 0.0156254 0.428948
0.100931 0.0150807 0.429371
0.100487 0.0145366 0.429814
0.0999378 0.0139679 0.429861
0.0993586 0.0133929 0.429792
0.0987762 0.0128173 0.429709
0.0981731 0.0122379 0.429544
0.0975365 0.0116516 0.429245
0.0969078 0.011068 0.428974
0.0962648 0.0104825 0.428643
0.0956111 0.00989545 0.428265
0.094988 0.0093154 0.428002
0.0944054 0.00874459 0.427897
0.0938982 0.00818815 0.428088
0.0934196 0.0076372 0.428396
0.0929687 0.0070908 0.428815
0.0925391 0.00654758 0.429323
0.0921439 0.00600992 0.429976
0.0917516 0.00547138 0.430644
0.0913521 0.00493069 0.431288
0.0909824 0.00439392 0.432061
0.0905988 0.0038536 0.432782
0.0902144 0.00331171 0.433504
0.0898538 0.00277261 0.434334
0.0894955 0.00223194 0.435179
0.0891014 0.00168495 0.435879
0.0886758 0.00113261 0.436453
0.0882432 0.000578643 0.437001
0.0877428 1.47947e-05 0.43726
0.087231 -0.000550501 0.437472
0.0867138 -0.00111611 0.437664
0.0862291 -0.0016788 0.437994
0.0857364 -0.00224249 0.438293
0.0853043 -0.0028002 0.438861
0.0848756 -0.00335879 0.439447
0.0843999 -0.00392225 0.43983
0.0838932 -0.00448912 0.440076
0.0833781 -0.00505712 0.440285
0.0828441 -0.00562672 0.440409
0.102741 0.0161708 0.427711
0.102317 0.0156328 0.428217
0.101859 0.0150858 0.4286
0.101414 0.0145418 0.429036
0.100996 0.0140034 0.429575
0.100461 0.0134379 0.429677
0.0998964 0.0128661 0.429665
0.0993295 0.0122941 0.429642
0.0987535 0.0117207 0.429584
0.098134 0.0111381 0.429354
0.0975089 0.0105554 0.4291
0.0968639 0.0099698 0.428766
0.0962055 0.00938222 0.428374
0.0955658 0.00879937 0.428051
0.0949794 0.00822769 0.427933
0.0944952 0.00767503 0.428217
0.0940312 0.00712619 0.428584
0.093594 0.00658121 0.429058
0.0931892 0.00604144 0.429668
0.0927937 0.00550242 0.430319
0.0923672 0.0049569 0.430849
0.0919162 0.00440681 0.431283
0.0914925 0.00386051 0.431833
0.0910555 0.00331133 0.432331
0.0906332 0.00276329 0.432893
0.0902632 0.00222229 0.433678
0.0899051 0.00168126 0.434519
0.0895223 0.00113515 0.435261
0.089097 0.000582825 0.435832
0.0886655 2.85643e-05 0.43638
0.0881635 -0.000535064 0.436631
0.0876713 -0.00109764 0.436926
0.0871676 -0.00166185 0.437173
0.0867094 -0.00222153 0.437618
0.0862356 -0.0027832 0.437998
0.0858208 -0.00334005 0.438638
0.0854083 -0.00389772 0.439294
0.0849577 -0.00445953 0.439787
0.0844648 -0.00502568 0.440096
0.0839835 -0.00559138 0.440458
0.0834928 -0.00615848 0.440778
0.102837 0.0151033 0.428023
0.10238 0.0145563 0.428412
0.10193 0.0140106 0.428825
0.101519 0.013473 0.429389
0.101012 0.0129136 0.429597
0.100476 0.0123479 0.429693
0.099949 0.0117842 0.429825
0.0994121 0.0112187 0.429918
0.098841 0.0106459 0.429879
0.0982416 0.0100682 0.429731
0.0975962 0.00948202 0.429401
0.096911 0.00888917 0.428912
0.0962398 0.00830042 0.428472
0.0956281 0.00772364 0.428259
0.0951345 0.00716863 0.428509
0.0946849 0.00662121 0.428933
0.09426 0.00607757 0.42946
0.0938546 0.00553624 0.430067
0.0934579 0.00499531 0.430714
0.0929939 0.00444306 0.431095
0.0924891 0.00388373 0.431312
0.092021 0.00332968 0.431679
0.0915402 0.00277341 0.431997
0.0910718 0.00221836 0.432366
0.0906791 0.00167351 0.433052
0.0903099 0.0011305 0.433842
0.0899144 0.000582941 0.434528
0.0894882 3.00351e-05 0.435089
0.0890464 -0.000525336 0.43559
0.0885476 -0.00108816 0.435851
0.0880811 -0.00164759 0.436252
0.0876034 -0.00220876 0.436608
0.0871628 -0.00276656 0.437126
0.0867157 -0.00332612 0.437619
0.0863268 -0.00388089 0.43837
0.0859257 -0.00443826 0.439072
0.0854886 -0.00499952 0.439624
0.0850198 -0.00556422 0.440039
0.0845556 -0.00612927 0.440477
0.0840801 -0.00669568 0.440867
0.0836223 -0.00726137 0.441341
0.103331 0.0145674 0.42773
0.10288 0.0140219 0.428141
0.102439 0.0134775 0.428586
0.102032 0.0129401 0.429164
0.101553 0.0123868 0.429477
0.101047 0.0118272 0.429689
0.100547 0.0112687 0.429923
0.10006 0.0107127 0.430206
0.0995395 0.0101498 0.430364
0.0989678 0.00957734 0.430328
0.0983357 0.00899352 0.430056
0.0976446 0.00839914 0.42955
0.0969794 0.00781119 0.42914
0.0963662 0.00723381 0.428929
0.0958645 0.0066763 0.42915
0.0954175 0.00612816 0.429589
0.0950019 0.00558437 0.430154
0.0945802 0.00503875 0.430699
0.0941369 0.00448895 0.431162
0.0936454 0.00393125 0.431435
0.093098 0.00336497 0.431483
0.0925752 0.0028022 0.431629
0.0920324 0.0022368 0.431693
0.0915386 0.00167798 0.431957
0.0911123 0.00112798 0.432501
0.090719 0.000581541 0.433187
0.0903091 3.19176e-05 0.433808
0.0898812 -0.000521076 0.434359
0.0894426 -0.00107615 0.434869
0.088971 -0.00163591 0.435242
0.0885336 -0.00219198 0.435765
0.0880831 -0.00275053 0.436234
0.0876572 -0.00330756 0.436811
0.087231 -0.00386551 0.437393
0.0868402 -0.00442138 0.438132
0.0864364 -0.00497956 0.438821
0.0860081 -0.00554057 0.43941
0.0855537 -0.00610489 0.439886
0.0850897 -0.00667026 0.440325
0.0846202 -0.00723669 0.440741
0.084159 -0.00780338 0.441198
0.0831894 -0.00782663 0.441929
0.0836973 -0.00837086 0.441655
0.0827851 -0.00839171 0.442652
0.0832498 -0.00893828 0.44218
0.112995 0.0209048 0.443962
0.113354 0.0214403 0.443167
0.113793 0.0208664 0.442608
0.113436 0.0203299 0.443403
0.112559 0.0203485 0.444488
0.113003 0.0197742 0.443942
0.112143 0.0197969 0.445093
0.112556 0.0192144 0.444431
0.111675 0.0192303 0.445511
0.112058 0.0186418 0.444743
0.111621 0.0180828 0.445273
0.103521 0.0135179 0.428387
0.103038 0.0129637 0.428682
0.102609 0.0124206 0.429177
0.102133 0.0118673 0.429499
0.101641 0.0113105 0.429765
0.101157 0.0107548 0.430062
0.100698 0.0102036 0.430452
0.100219 0.00964812 0.430769
0.0996775 0.00908076 0.430853
0.0990734 0.00850162 0.430693
0.0984163 0.00791357 0.430327
0.0977822 0.00733094 0.430045
0.0971913 0.00675636 0.429927
0.0966922 0.00619826 0.430166
0.0962324 0.00564578 0.430557
0.0957988 0.0050975 0.431056
0.0953366 0.0045438 0.431445
0.0948414 0.00398487 0.431705
0.0943113 0.00342025 0.431826
0.0937268 0.00284777 0.431728
0.0931537 0.00227739 0.431673
0.0925608 0.00170512 0.431537
0.092029 0.0011413 0.431647
0.0915641 0.000585998 0.432031
0.0911574 3.72376e-05 0.432657
0.090734 -0.000514515 0.433219
0.0903305 -0.00106508 0.433866
0.0899175 -0.00161758 0.43448
0.0894966 -0.00217201 0.435066
0.089086 -0.00272634 0.435699
0.0886487 -0.00328421 0.436224
0.0882088 -0.00384304 0.436743
0.0877567 -0.0044041 0.437211
0.0873166 -0.00496471 0.437735
0.0868762 -0.00552607 0.438263
0.0864349 -0.00608857 0.43879
0.0859915 -0.00665211 0.439311
0.085547 -0.00721643 0.439832
0.0851038 -0.0077815 0.440363
0.0846597 -0.00834745 0.440894
0.0841964 -0.00891528 0.441342
0.083729 -0.0094839 0.441776
0.0832674 -0.010053 0.442239
0.114228 0.0202913 0.442036
0.113871 0.0197545 0.442831
0.113438 0.019199 0.443365
0.112969 0.0186332 0.443774
0.112454 0.018056 0.44402
0.111981 0.0174891 0.44442
0.111312 0.0168761 0.444121
0.104272 0.0130361 0.429033
0.103629 0.0124473 0.428743
0.103164 0.0118961 0.429107
0.102686 0.0113419 0.429423
0.102208 0.0107872 0.429738
0.101738 0.0102338 0.430088
0.101295 0.00968511 0.43054
0.100858 0.00913674 0.431018
0.10036 0.00857679 0.431268
0.0998236 0.0080096 0.43137
0.0992188 0.00743064 0.431212
0.0986383 0.00685635 0.431143
0.0980618 0.00628328 0.431089
0.0975623 0.00572331 0.431332
0.0970598 0.00516227 0.431563
0.0965811 0.00460514 0.43189
0.0960639 0.00404161 0.432065
0.0955282 0.00347551 0.432169
0.0949611 0.0029048 0.432146
0.0943476 0.00232815 0.431937
0.0937379 0.00175289 0.431739
0.0931179 0.00117661 0.431495
0.0925342 0.000606281 0.431397
0.0920285 4.54589e-05 0.431612
0.0915951 -0.000506617 0.432127
0.0911716 -0.00105861 0.432685
0.0907853 -0.00160782 0.433399
0.0904229 -0.00215519 0.434222
0.0900538 -0.00270505 0.435022
0.0896686 -0.00325801 0.43576
0.0892411 -0.00381596 0.436326
0.0887726 -0.00437806 0.436723
0.0882814 -0.00494274 0.437025
0.0877919 -0.00550767 0.437336
0.087316 -0.00607221 0.437706
0.0868382 -0.00663694 0.438073
0.0863935 -0.00720034 0.438585
0.0859513 -0.00776458 0.439111
0.0855222 -0.00832917 0.439698
0.0850918 -0.00889469 0.440285
0.0846463 -0.00946166 0.440811
0.0841925 -0.0100298 0.441303
0.0837408 -0.0105988 0.441808
0.082798 -0.0106232 0.44267
0.0832805 -0.0111688 0.442277
0.082818 -0.0117395 0.442741
0.115016 0.0202523 0.440671
0.114592 0.0197004 0.441223
0.114186 0.0191512 0.44184
0.11375 0.0185945 0.44236
0.113271 0.0180264 0.442727
0.112737 0.0174465 0.442908
0.112219 0.0168691 0.44314
0.111572 0.0162621 0.442915
0.106396 0.0132958 0.432599
0.105177 0.0125835 0.430233
0.104358 0.0119583 0.429308
0.103735 0.0113738 0.42909
0.103242 0.0108158 0.429349
0.10276 0.0102601 0.429653
0.102302 0.00970882 0.430049
0.101875 0.00916203 0.430557
0.101479 0.00862077 0.43119
0.101034 0.00806952 0.43164
0.100565 0.00751357 0.432005
0.100022 0.0069445 0.432086
0.099489 0.00637742 0.432209
0.098928 0.00580567 0.432221
0.0983861 0.00523707 0.432305
0.0978361 0.00466764 0.432358
0.0973009 0.00410036 0.432468
0.0967302 0.00352835 0.432438
0.0961548 0.0029557 0.432388
0.0955805 0.00238406 0.432341
0.0949534 0.00180525 0.43208
0.0943284 0.00122801 0.431826
0.0936931 0.00065021 0.431525
0.0930914 7.73408e-05 0.431355
0.0925455 -0.000488418 0.431409
0.0920959 -0.00104278 0.431856
0.0916755 -0.00159534 0.432423
0.0913183 -0.00214182 0.433257
0.0909888 -0.00268723 0.434212
0.0906595 -0.0032348 0.435175
0.0902748 -0.00378866 0.435915
0.0898455 -0.00434756 0.436475
0.0893498 -0.00491285 0.436757
0.0888205 -0.00548119 0.436897
0.0882919 -0.0060489 0.437042
0.0877671 -0.00661667 0.437202
0.0872414 -0.00718462 0.437358
0.0867717 -0.00774925 0.437758
0.086329 -0.00831329 0.438277
0.0858933 -0.00887776 0.438832
0.0854886 -0.00944198 0.439527
0.0850774 -0.0100079 0.440198
0.0846522 -0.0105754 0.440814
0.0842124 -0.0111443 0.441369
0.0837694 -0.0117143 0.441913
0.0833059 -0.0122854 0.44237
0.0823547 -0.0123114 0.443202
0.0828363 -0.0128571 0.442803
0.0823197 -0.01343 0.443023
0.11676 0.022466 0.438656
0.117849 0.0225043 0.438348
0.117244 0.0219082 0.438273
0.116153 0.0218694 0.438572
0.116616 0.0213069 0.438118
0.115658 0.0213025 0.438872
0.11611 0.0207359 0.438377
0.11535 0.0207815 0.439813
0.115703 0.0201894 0.438974
0.115319 0.0196481 0.439655
0.114879 0.0190917 0.440146
0.114448 0.0185368 0.440674
0.114013 0.0179806 0.441189
0.113516 0.0174097 0.44149
0.112998 0.0168333 0.441722
0.112462 0.0162533 0.441888
0.111834 0.0156522 0.441729
0.111098 0.0150281 0.441178
0.109531 0.0148881 0.439773
0.110034 0.0143355 0.439454
0.108657 0.0135817 0.436587
0.107358 0.0128492 0.433973
0.106112 0.012133 0.431525
0.105149 0.0114786 0.430086
0.104395 0.0108685 0.429399
0.103796 0.0102893 0.42927
0.103286 0.00972785 0.42947
0.102828 0.00917589 0.429865
0.102402 0.00862889 0.430376
0.102007 0.00808722 0.431012
0.101562 0.00753521 0.431462
0.101147 0.00698789 0.432029
0.100665 0.00642898 0.432345
0.100182 0.00586912 0.432659
0.0996608 0.00530297 0.432827
0.0991336 0.004736 0.432973
0.098536 0.00415846 0.432847
0.0979344 0.00358108 0.432703
0.0973347 0.00300452 0.432563
0.0967206 0.00242636 0.432364
0.0961195 0.00185095 0.432213
0.0954887 0.00127234 0.431941
0.0948506 0.000693833 0.431637
0.0942039 0.000114864 0.431293
0.0935883 -0.000458928 0.43107
0.0930275 -0.00102622 0.431064
0.0925642 -0.00158279 0.431452
0.0921574 -0.00213408 0.432073
0.0918171 -0.0026798 0.432972
0.0915284 -0.0032223 0.434091
0.0912489 -0.00376648 0.435258
0.09088 -0.00432024 0.436063
0.0904503 -0.00488061 0.436619
0.0899525 -0.00544671 0.436894
0.0893964 -0.0060171 0.436924
0.0888198 -0.00658844 0.436866
0.0882666 -0.00715788 0.436906
0.0877131 -0.0077273 0.436942
0.0872068 -0.00829395 0.437182
0.0867521 -0.00885866 0.437647
0.0863169 -0.00942308 0.4382
0.0859147 -0.00998755 0.438901
0.0855087 -0.0105536 0.439591
0.0851086 -0.0111207 0.440313
0.0846875 -0.0116893 0.440948
0.0842563 -0.0122595 0.441542
0.0837984 -0.0128308 0.442023
0.0833293 -0.0134032 0.442454
0.0828168 -0.0139757 0.442693
0.0822791 -0.0145483 0.442817
0.118562 0.0231297 0.438784
0.118919 0.0225373 0.437974
0.118285 0.0219332 0.437802
0.117706 0.021344 0.437814
0.117094 0.0207471 0.437716
0.116576 0.0201736 0.437933
0.116098 0.0196092 0.438284
0.115661 0.0190544 0.438779
0.115186 0.0184902 0.439149
0.114717 0.0179268 0.439537
0.114267 0.0173679 0.439996
0.113769 0.0167975 0.440292
0.113257 0.0162226 0.440537
0.112738 0.015647 0.440759
0.112143 0.0150538 0.440711
0.111435 0.0144379 0.440263
0.110479 0.0137718 0.438931
0.109424 0.0130875 0.437225
0.108229 0.0123794 0.435003
0.107013 0.0116712 0.43268
0.105976 0.0110034 0.430989
0.105131 0.0103757 0.429977
0.10443 0.00977735 0.429482
0.10389 0.00920984 0.429574
0.103419 0.00865446 0.429919
0.102968 0.0081025 0.430341
0.102547 0.00755515 0.430878
0.102085 0.00699989 0.431263
0.10168 0.00645364 0.431866
0.101214 0.00589692 0.432243
0.100738 0.00533773 0.432582
0.100242 0.00477517 0.432848
0.099722 0.00420905 0.433024
0.0991091 0.00362897 0.43284
0.0984803 0.0030479 0.432594
0.0978808 0.0024717 0.432458
0.0972518 0.00189182 0.432202
0.0966245 0.00131338 0.431951
0.0959793 0.00073359 0.431625
0.0953316 0.000154188 0.431284
0.0946868 -0.000423641 0.430949
0.0940624 -0.000997971 0.430693
0.0935134 -0.00156371 0.430734
0.0930624 -0.002119 0.431172
0.0926791 -0.00266862 0.431886
0.0923653 -0.00321307 0.432889
0.0921144 -0.00375406 0.434159
0.0918607 -0.00429764 0.435428
0.0914943 -0.00485258 0.436242
0.0910658 -0.00541366 0.436804
0.0905587 -0.00598114 0.437042
0.0899782 -0.00655322 0.436973
0.089365 -0.00712699 0.436763
0.0887826 -0.00769837 0.436679
0.0881906 -0.00826925 0.436554
0.0876471 -0.00883767 0.436633
0.0871797 -0.00940289 0.437039
0.0867433 -0.00996762 0.437583
0.0863543 -0.0105322 0.438336
0.0859724 -0.0110978 0.439128
0.0855995 -0.0116647 0.439966
0.0851925 -0.0122336 0.440661
0.0847733 -0.0128043 0.441306
0.0843149 -0.013376 0.441783
0.0838418 -0.0139486 0.442195
0.0833386 -0.0145214 0.442476
0.0828028 -0.0150944 0.442608
0.0822882 -0.0156676 0.442838
0.119909 0.0225493 0.437332
0.119351 0.0219644 0.437414
0.118738 0.0213671 0.437316
0.118185 0.0207852 0.437417
0.117565 0.0201854 0.437286
0.117008 0.0196032 0.437373
0.116489 0.0190292 0.437585
0.116001 0.0184628 0.437903
0.115495 0.017892 0.438162
0.115001 0.0173227 0.438462
0.114552 0.0167644 0.43892
0.114057 0.0161945 0.43922
0.113546 0.0156209 0.439465
0.113032 0.0150473 0.439701
0.112455 0.0144595 0.439718
0.111767 0.0138489 0.43934
0.110987 0.013221 0.438631
0.110088 0.0125707 0.437489
0.108977 0.0118817 0.435582
0.107878 0.0111991 0.433697
0.106798 0.010524 0.43186
0.105869 0.00988114 0.430556
0.105113 0.00927272 0.429869
0.104543 0.00869903 0.429853
0.104045 0.00813839 0.430102
0.103555 0.00757876 0.430379
0.103092 0.00702336 0.430759
0.102582 0.00646014 0.430966
0.102131 0.00590593 0.431396
0.101635 0.00534403 0.431656
0.101158 0.0047851 0.43199
0.100666 0.00422329 0.432267
0.10016 0.00365927 0.432496
0.0995642 0.00308253 0.432379
0.0989506 0.00250419 0.432192
0.0983646 0.00193009 0.432109
0.0977343 0.00135093 0.431851
0.0971055 0.000772611 0.431594
0.0964604 0.00019331 0.43127
0.0958237 -0.000383821 0.430975
0.0951941 -0.000959246 0.430703
0.0945965 -0.0015305 0.430555
0.094062 -0.00209455 0.430657
0.0936246 -0.00264943 0.431147
0.0932429 -0.00319976 0.431867
0.0929309 -0.00374546 0.432874
0.0926924 -0.00428685 0.434191
0.0924412 -0.00483203 0.435467
0.0920875 -0.00538725 0.436331
0.0916733 -0.00594849 0.436952
0.0911767 -0.00651589 0.437235
0.0905853 -0.0070891 0.437123
0.0899572 -0.00766358 0.436855
0.0893481 -0.0082362 0.436663
0.0887298 -0.00880851 0.436428
0.0881513 -0.00937828 0.436358
0.0876599 -0.00994465 0.43666
0.0872092 -0.0105102 0.43714
0.0868305 -0.0110749 0.437934
0.0864626 -0.0116409 0.438782
0.086116 -0.012208 0.439733
0.0857346 -0.0127777 0.440537
0.085339 -0.0133491 0.441285
0.0848705 -0.0139216 0.441715
0.0843948 -0.0144945 0.442117
0.0838895 -0.0150678 0.442389
0.0833524 -0.015641 0.442516
0.082839 -0.0162146 0.442752
0.0817839 -0.016241 0.443116
0.0823435 -0.0167886 0.443072
0.120804 0.0225369 0.43638
0.120258 0.0219564 0.436504
0.119712 0.0213754 0.436623
0.11913 0.0207862 0.436627
0.118585 0.0202062 0.436751
0.117997 0.0196159 0.436731
0.11744 0.0190344 0.436818
0.116889 0.0184531 0.436919
0.116369 0.0178789 0.437126
0.115847 0.0173042 0.437328
0.115326 0.0167298 0.437531
0.114865 0.0161681 0.437942
0.114366 0.0155988 0.438228
0.113853 0.0150256 0.438463
0.113329 0.0144501 0.438661
0.112755 0.0138638 0.438683
0.112099 0.0132612 0.438417
0.111455 0.0126617 0.438187
0.110676 0.012037 0.437478
0.1097 0.0113768 0.436062
0.108707 0.0107161 0.434569
0.107692 0.0100544 0.432982
0.106707 0.0094021 0.431489
0.10589 0.00878271 0.43059
0.105263 0.00819837 0.43037
0.104721 0.00762941 0.430462
0.104174 0.00705978 0.430534
0.10364 0.00649205 0.430651
0.103069 0.00591875 0.430633
0.102546 0.00535319 0.43079
0.101991 0.00478253 0.430827
0.101472 0.00421779 0.431001
0.10099 0.00365822 0.431317
0.100506 0.00309783 0.431623
0.0999559 0.00252802 0.431678
0.0993868 0.00195637 0.431661
0.098842 0.00138803 0.431736
0.0982256 0.000811191 0.431534
0.097608 0.00023466 0.431322
0.0969721 -0.000342797 0.431037
0.0963476 -0.000918288 0.430791
0.0957315 -0.0014919 0.430576
0.0951707 -0.00205915 0.430576
0.0946741 -0.00261974 0.43083
0.0942642 -0.00317301 0.431432
0.09391 -0.0037225 0.432261
0.0936109 -0.00426916 0.433319
0.0933501 -0.00481454 0.434542
0.0930743 -0.00536362 0.435716
0.0927066 -0.00592124 0.436522
0.0922794 -0.00648439 0.437089
0.0917835 -0.0070525 0.437376
0.0911931 -0.00762568 0.437273
0.0905617 -0.00820051 0.436995
0.0899396 -0.00877373 0.436752
0.0893177 -0.00934616 0.436505
0.0887162 -0.00991702 0.436341
0.088212 -0.0104841 0.43659
0.0877371 -0.0110508 0.436965
0.0873342 -0.0116171 0.437651
0.0869667 -0.0121837 0.438499
0.0866358 -0.0127517 0.439513
0.0862823 -0.0133221 0.440436
0.0859113 -0.0138943 0.441291
0.0854651 -0.0144678 0.441819
0.0849782 -0.0150414 0.442172
0.0844663 -0.0156151 0.442415
0.0839144 -0.0161883 0.442478
0.0833961 -0.016762 0.442693
0.0828795 -0.017336 0.442916
0.082316 -0.0179084 0.442925
0.0807012 -0.0185066 0.443314
0.0817422 -0.0184797 0.442886
0.0812016 -0.0190525 0.442997
0.0806136 -0.0196221 0.442889
0.12177 0.0225435 0.43567
0.121236 0.0219656 0.435831
0.120671 0.0213815 0.43589
0.12012 0.0207999 0.435995
0.119536 0.0202102 0.43599
0.118983 0.0196289 0.436086
0.118414 0.0190441 0.436131
0.117876 0.0184658 0.436273
0.117312 0.017882 0.436332
0.116791 0.0173082 0.436534
0.116268 0.0167341 0.436732
0.115745 0.0161599 0.43693
0.11527 0.0155948 0.437289
0.114768 0.0150246 0.437562
0.114252 0.0144509 0.437783
0.113727 0.0138752 0.437976
0.113172 0.0132935 0.438062
0.112531 0.0126952 0.437852
0.111903 0.0120995 0.437678
0.111213 0.0114931 0.437286
0.110339 0.0108542 0.436238
0.109411 0.0102068 0.434984
0.108479 0.00956194 0.433707
0.107547 0.00892001 0.432415
0.106689 0.00829386 0.431378
0.106003 0.00769911 0.430954
0.105415 0.00712187 0.430882
0.104808 0.00654153 0.430737
0.104199 0.00596166 0.430582
0.103545 0.00537569 0.430256
0.102937 0.00479738 0.430099
0.102311 0.00421756 0.429874
0.101749 0.00364725 0.429884
0.101268 0.00308831 0.430195
0.100814 0.00253252 0.430612
0.100321 0.00197104 0.430878
0.0998104 0.0014075 0.431084
0.0993077 0.000844635 0.43132
0.0987189 0.000271536 0.431224
0.0981139 -0.000302711 0.431064
0.0974898 -0.000878461 0.430826
0.0968912 -0.001451 0.430684
0.0962995 -0.00202177 0.430567
0.0957784 -0.00258559 0.430724
0.0953446 -0.00314143 0.431228
0.0949753 -0.00369228 0.431993
0.0946485 -0.00424141 0.432933
0.0943626 -0.00478907 0.434044
0.0940875 -0.00533816 0.435209
0.0937714 -0.00589221 0.436219
0.093364 -0.00645406 0.436864
0.0929097 -0.00702003 0.437321
0.092391 -0.00758999 0.437517
0.0917988 -0.00816349 0.43741
0.0911686 -0.00873834 0.43714
0.0905668 -0.00931082 0.436986
0.0899571 -0.00988289 0.436796
0.0893671 -0.0104538 0.436685
0.0888507 -0.0110221 0.436884
0.0883609 -0.0115903 0.437196
0.0879425 -0.0121577 0.437817
0.087564 -0.0127256 0.438616
0.0872264 -0.0132956 0.439597
0.0868756 -0.0138671 0.440532
0.0865066 -0.0144408 0.441393
0.0860488 -0.0150147 0.441872
0.08555 -0.0155889 0.442172
0.0850269 -0.016163 0.442365
0.0844607 -0.0167356 0.442367
0.0839241 -0.0173092 0.442499
0.0833862 -0.0178825 0.442626
0.0828101 -0.018454 0.442579
0.0822378 -0.0190253 0.442547
0.0816933 -0.0195976 0.442641
0.0811142 -0.0201674 0.442575
0.122806 0.0225674 0.435191
0.122241 0.0219826 0.43525
0.121685 0.0214006 0.435342
0.121138 0.0208197 0.435456
0.120579 0.0202366 0.435534
0.119982 0.019645 0.435486
0.119427 0.0190636 0.435578
0.118889 0.018485 0.43572
0.118351 0.0179079 0.435867
0.117804 0.0173286 0.435981
0.117299 0.0167579 0.436239
0.116778 0.0161837 0.436441
0.116242 0.0156063 0.436593
0.115736 0.0150348 0.436846
0.115216 0.0144608 0.437053
0.114682 0.0138836 0.437214
0.114157 0.0133091 0.437407
0.113619 0.0127308 0.437554
0.112995 0.0121364 0.437399
0.112366 0.0115419 0.437226
0.111687 0.0109382 0.436875
0.1109 0.0103159 0.436135
0.110036 0.00968185 0.435117
0.109197 0.00905477 0.434177
0.108336 0.00842601 0.433149
0.107515 0.00780686 0.432257
0.106781 0.0072037 0.431666
0.106133 0.00661557 0.431379
0.105451 0.00602362 0.430967
0.104756 0.00543063 0.430501
0.104041 0.00483583 0.429957
0.103338 0.00424462 0.429453
0.102658 0.00365786 0.429025
0.102066 0.00308405 0.42892
0.101571 0.00252408 0.429176
0.101107 0.00196748 0.429548
0.100668 0.00141341 0.430017
0.100213 0.000856889 0.43043
0.0997421 0.000298003 0.430785
0.0991942 -0.000270032 0.430845
0.098627 -0.00083964 0.430832
0.0980183 -0.00141347 0.430656
0.0974459 -0.00198301 0.430618
0.0968947 -0.00255006 0.43066
0.0964247 -0.00310925 0.431022
0.0960455 -0.00366154 0.431742
0.0957324 -0.00420984 0.432729
0.095436 -0.00475873 0.433791
0.095151 -0.00530897 0.434906
0.0948476 -0.00586255 0.435958
0.0944754 -0.00642226 0.436743
0.0940246 -0.00698836 0.437212
0.093542 -0.00755663 0.437557
0.0930104 -0.00812782 0.437703
0.09243 -0.00870136 0.437646
0.0918234 -0.00927513 0.43748
0.0912353 -0.00984768 0.437387
0.0906404 -0.0104199 0.437264
0.0900628 -0.010991 0.43721
0.0895244 -0.0115609 0.43732
0.0890178 -0.0121302 0.437564
0.0886056 -0.0126989 0.438213
0.0882156 -0.0132688 0.438962
0.0878549 -0.0138401 0.439843
0.0875057 -0.0144133 0.440782
0.0871102 -0.0149879 0.441527
0.0866066 -0.015562 0.441806
0.0860826 -0.0161362 0.441995
0.0855352 -0.0167096 0.442081
0.084956 -0.0172816 0.442027
0.0843993 -0.0178543 0.442069
0.0838576 -0.0184273 0.442178
0.0832864 -0.0189985 0.442154
0.0827248 -0.0195701 0.44217
0.0821792 -0.0201421 0.44226
0.123282 0.0220089 0.434789
0.122727 0.0214268 0.434881
0.122182 0.0208468 0.435005
0.12164 0.0202676 0.435138
0.121072 0.0196824 0.435188
0.12046 0.0190877 0.43509
0.119902 0.0185059 0.435172
0.119361 0.0179272 0.435305
0.118826 0.0173504 0.435461
0.118297 0.016775 0.435635
0.11781 0.0162075 0.435948
0.117289 0.0156336 0.436151
0.116752 0.0150562 0.436302
0.116229 0.0144819 0.4365
0.115695 0.0139047 0.436656
0.11516 0.0133267 0.436812
0.114622 0.0127497 0.436959
0.114084 0.012172 0.437106
0.113476 0.011581 0.437007
0.112876 0.0109914 0.436935
0.112201 0.0103893 0.436599
0.111496 0.00978356 0.436156
0.110707 0.00916388 0.435408
0.109931 0.00854838 0.434698
0.109111 0.00792721 0.433826
0.108325 0.00731371 0.433066
0.107544 0.00670303 0.432315
0.106824 0.00610372 0.431777
0.106067 0.0055002 0.431098
0.105285 0.00489462 0.430318
0.104497 0.00429076 0.429512
0.103724 0.00369045 0.428751
0.103001 0.00309893 0.428165
0.102381 0.00252273 0.427955
0.10186 0.00195999 0.428113
0.101383 0.00140212 0.42843
0.100957 0.000850493 0.428946
0.100518 0.000296314 0.429414
0.100067 -0.000260026 0.429836
0.0995715 -0.000821561 0.430095
0.0990568 -0.00138506 0.430282
0.0984889 -0.00195423 0.430262
0.0979598 -0.00251946 0.430392
0.0974975 -0.0030782 0.430782
0.0970969 -0.00363269 0.431413
0.0967767 -0.00418162 0.432365
0.0965082 -0.00472854 0.433529
0.0962512 -0.00527688 0.434748
0.0959286 -0.00583219 0.435715
0.0955724 -0.00639149 0.436557
0.0951454 -0.00695635 0.437121
0.0946636 -0.00752532 0.437467
0.0941432 -0.00809622 0.437661
0.0936089 -0.00866797 0.437797
0.0930416 -0.00924123 0.437797
0.0924704 -0.00981407 0.43778
0.0919114 -0.0103861 0.437812
0.0913547 -0.0109576 0.437854
0.0907913 -0.0115294 0.437864
0.0902486 -0.0121002 0.437962
0.089716 -0.012671 0.438101
0.0893019 -0.0132414 0.438743
0.0888787 -0.0138131 0.43935
0.0884956 -0.0143859 0.440135
0.0881158 -0.0149606 0.440941
0.0876778 -0.0155355 0.441502
0.0871216 -0.0161089 0.441552
0.0865732 -0.0166824 0.441634
0.0860021 -0.0172548 0.441617
0.0854217 -0.0178265 0.441555
0.0848624 -0.0183987 0.441586
0.084308 -0.0189707 0.441638
0.0837486 -0.0195423 0.441665
0.0832008 -0.020114 0.441745
0.124263 0.0220197 0.434135
0.123716 0.0214401 0.434255
0.123162 0.0208578 0.434346
0.122625 0.0202803 0.434497
0.122089 0.0197029 0.434649
0.121539 0.0191222 0.434754
0.120939 0.0185306 0.434698
0.120366 0.0179451 0.434729
0.119808 0.0173638 0.434807
0.119261 0.0167844 0.434921
0.118746 0.0162119 0.435142
0.118274 0.0156483 0.435505
0.11777 0.0150772 0.435763
0.117249 0.0145033 0.435965
0.116726 0.0139287 0.436163
0.11619 0.0133513 0.436314
0.115654 0.0127739 0.436466
0.115118 0.0121965 0.436617
0.114581 0.0116191 0.436769
0.114001 0.0110336 0.436767
0.113417 0.0104475 0.436752
0.112786 0.00985373 0.436574
0.112142 0.00925837 0.436344
0.111414 0.00865004 0.435818
0.110681 0.00804194 0.435269
0.109901 0.00742804 0.434548
0.109099 0.00681231 0.433738
0.108285 0.00619652 0.432878
0.107504 0.00558822 0.432125
0.106674 0.00497425 0.431189
0.105801 0.00435682 0.43009
0.104964 0.00374703 0.429109
0.104133 0.00314046 0.428137
0.103394 0.00254827 0.427496
0.102747 0.00196959 0.427188
0.102226 0.00140699 0.427338
0.101734 0.000847968 0.427599
0.101306 0.000296157 0.428102
0.100856 -0.000258831 0.428525
0.100418 -0.000813524 0.428994
0.0999382 -0.00137298 0.429309
0.0994414 -0.00193457 0.42956
0.0989163 -0.00249896 0.429704
0.0984182 -0.00306064 0.429953
0.0980557 -0.00361165 0.430724
0.0977472 -0.00415919 0.431714
0.097523 -0.0047027 0.433039
0.0973202 -0.00524724 0.43446
0.0970751 -0.00579762 0.435726
0.0967246 -0.00635708 0.436586
0.0963265 -0.00692115 0.437262
0.0958579 -0.00748977 0.437664
0.0953367 -0.0080618 0.437855
0.0948029 -0.00863434 0.437996
0.0942707 -0.00920678 0.438144
0.0937274 -0.00977952 0.438247
0.0931954 -0.010352 0.438395
0.0926752 -0.010924 0.438592
0.0921332 -0.0114966 0.438699
0.0915801 -0.0120693 0.43876
0.0910223 -0.0126418 0.4388
0.0904509 -0.013214 0.438782
0.0900016 -0.0137861 0.439277
0.089566 -0.0143592 0.439834
0.0891372 -0.0149331 0.440426
0.088715 -0.0155083 0.441049
0.0882351 -0.0160836 0.441428
0.0876567 -0.0166566 0.441383
0.0870719 -0.0172287 0.441309
0.0864895 -0.0178005 0.441242
0.0858978 -0.0183712 0.441133
0.0853381 -0.0189432 0.441161
0.0847607 -0.0195138 0.44111
0.0841945 -0.0200844 0.441107
0.124815 0.0214801 0.433978
0.124244 0.0208941 0.434019
0.123672 0.0203077 0.434056
0.123136 0.0197303 0.434207
0.122585 0.0191495 0.434312
0.122018 0.0185649 0.434362
0.121401 0.01797 0.434251
0.120811 0.0173817 0.434227
0.120239 0.0167971 0.434258
0.119693 0.0162173 0.434372
0.119178 0.0156451 0.434592
0.118705 0.0150824 0.434952
0.118217 0.0145144 0.43526
0.117712 0.0139442 0.435518
0.117208 0.0133728 0.435775
0.116687 0.0127985 0.435978
0.116164 0.0122238 0.436175
0.115628 0.0116464 0.436327
0.115092 0.011069 0.436478
0.114527 0.0104864 0.436532
0.113958 0.00990382 0.436573
0.113361 0.00931599 0.436511
0.112763 0.00872849 0.436444
0.11208 0.00812796 0.436081
0.111377 0.00752509 0.435643
0.110628 0.00691628 0.435037
0.109834 0.00630191 0.434261
0.109004 0.00568465 0.433354
0.108176 0.00506965 0.43244
0.107281 0.00444767 0.431281
0.106344 0.00382255 0.429954
0.105446 0.00320577 0.428757
0.104572 0.00259524 0.427636
0.103819 0.00200285 0.426948
0.103173 0.001425 0.426643
0.102638 0.000860897 0.426741
0.102131 0.000300621 0.426945
0.101688 -0.000252891 0.42739
0.101224 -0.000809609 0.427754
0.100772 -0.00136522 0.42817
0.100306 -0.00192323 0.42853
0.0998358 -0.00248167 0.428881
0.0993424 -0.00304282 0.429144
0.0988705 -0.00360249 0.42949
0.0987823 -0.00413177 0.431315
0.0985892 -0.00467305 0.432749
0.0984522 -0.00521333 0.434413
0.0982964 -0.00575844 0.436019
0.0979876 -0.00631621 0.437039
0.0974431 -0.00688958 0.437138
0.097017 -0.00745642 0.437706
0.0965342 -0.00802687 0.438054
0.0960134 -0.00859974 0.43825
0.0955048 -0.00917215 0.438495
0.0949989 -0.00974457 0.438753
0.0944821 -0.0103178 0.438968
0.0939769 -0.0108904 0.439231
0.0934708 -0.011464 0.43949
0.0929172 -0.0120379 0.439557
0.092348 -0.0126122 0.439556
0.0917733 -0.013186 0.439532
0.0911738 -0.0137592 0.439402
0.0907338 -0.0143327 0.439941
0.0902855 -0.0149073 0.440447
0.0898195 -0.0154822 0.440883
0.0893353 -0.0160577 0.441243
0.0888018 -0.0166322 0.441393
0.0881855 -0.0172039 0.441188
0.0875785 -0.0177754 0.441018
0.0869985 -0.0183471 0.440963
0.0864175 -0.0189179 0.440903
0.0858676 -0.0194903 0.440975
0.0852786 -0.0200601 0.440874
0.0847177 -0.0206308 0.440896
0.0841813 -0.0212031 0.441026
0.0841709 -0.0264568 0.467634
0.0848008 -0.0258617 0.467807
0.0853881 -0.0264433 0.467754
0.0847335 -0.0270348 0.467473
0.083518 -0.0270476 0.467352
0.0840682 -0.0276239 0.467134
0.0834449 -0.0282175 0.46699
0.0822647 -0.0282333 0.467024
0.0828234 -0.0288106 0.466849
0.125915 0.0215196 0.433702
0.125341 0.0209326 0.433734
0.124771 0.0203467 0.433779
0.124182 0.0197577 0.433765
0.123632 0.0191768 0.43387
0.123064 0.0185921 0.43392
0.122478 0.0180039 0.433911
0.121858 0.0174089 0.43379
0.121267 0.0168205 0.433761
0.120696 0.0162364 0.433797
0.120147 0.0156569 0.433902
0.11963 0.0150846 0.434113
0.119142 0.0145181 0.434422
0.118643 0.0139484 0.434693
0.118157 0.013381 0.43501
0.11767 0.0128136 0.435323
0.117167 0.0122425 0.435585
0.116661 0.0116711 0.435839
0.116138 0.0110963 0.436036
0.115602 0.0105189 0.436188
0.115065 0.0099415 0.436339
0.114544 0.00936599 0.436541
0.113993 0.00878669 0.436642
0.11344 0.0082069 0.436738
0.11283 0.00761753 0.43663
0.112158 0.00701862 0.436303
0.111435 0.00641439 0.435796
0.110628 0.00579853 0.434989
0.10978 0.00517874 0.434022
0.108862 0.00455146 0.432799
0.107889 0.00391981 0.43137
0.106861 0.00328441 0.429727
0.10593 0.00266505 0.428416
0.10503 0.00205293 0.427207
0.104293 0.0014637 0.42658
0.103661 0.00088829 0.426327
0.103126 0.000324561 0.426428
0.102593 -0.000238909 0.426532
0.102123 -0.000795644 0.426875
0.10163 -0.00135516 0.427131
0.10115 -0.00191347 0.427438
0.100683 -0.00247118 0.427792
0.100469 -0.00300702 0.429106
0.100235 -0.00354701 0.430357
0.100085 -0.0040832 0.431934
0.100291 -0.00459592 0.43489
0.099984 -0.00568843 0.438101
0.099599 -0.00625427 0.438827
0.0990043 -0.00683228 0.438745
0.0982495 -0.00741904 0.438029
0.0976573 -0.00799583 0.437946
0.09718 -0.00856725 0.438315
0.0966728 -0.00914018 0.438568
0.0961793 -0.00971286 0.438877
0.095701 -0.0102853 0.439249
0.0952117 -0.0108585 0.43958
0.094734 -0.0114327 0.439955
0.0942373 -0.0120066 0.440261
0.0936793 -0.0125822 0.440313
0.0930933 -0.0131578 0.440248
0.092513 -0.0137325 0.440207
0.0919227 -0.0143066 0.440123
0.0914708 -0.0148816 0.440614
0.0910204 -0.0154578 0.441114
0.090515 -0.0160334 0.441387
0.0899822 -0.016609 0.441543
0.0893838 -0.017182 0.441421
0.0887665 -0.0177539 0.441214
0.0881394 -0.0183242 0.440962
0.0875991 -0.0188979 0.441081
0.0870521 -0.019471 0.441171
0.086523 -0.0200452 0.441338
0.085925 -0.0206148 0.441203
0.0853907 -0.0211883 0.441346
0.0848504 -0.0217613 0.441463
0.0851916 -0.0224073 0.445521
0.0865919 -0.0264274 0.467802
0.0859266 -0.027019 0.467474
0.085278 -0.027611 0.467221
0.0846157 -0.0281999 0.466902
0.083993 -0.0287935 0.466762
