ply
format ascii 1.0
element vertex 1618
property float x
property float y
property float z
end_header
-0.148487 -0.0868437 0.87634
-0.148582 -0.088394 0.876351
-0.148697 -0.0899527 0.876457
-0.148809 -0.0915114 0.876554
-0.148847 -0.0930374 0.876277
-0.148858 -0.094551 0.875867
-0.148861 -0.0960594 0.875413
-0.148823 -0.0975472 0.874753
-0.149044 -0.099158 0.875394
-0.149252 -0.100765 0.875971
-0.149434 -0.102361 0.876412
-0.149586 -0.103944 0.876704
-0.149656 -0.105486 0.876589
-0.149589 -0.106956 0.875783
-0.149534 -0.108432 0.875047
-0.149525 -0.109929 0.874533
-0.149514 -0.111423 0.874011
-0.149554 -0.112945 0.873745
-0.149527 -0.114429 0.873144
-0.149548 -0.115938 0.872781
-0.14961 -0.117471 0.872628
-0.161568 -0.13757 0.919732
-0.161625 -0.136035 0.920491
-0.160093 -0.13617 0.920952
-0.159997 -0.137679 0.919984
-0.161471 -0.139076 0.918764
-0.159878 -0.139171 0.918906
-0.159835 -0.140709 0.918203
-0.161367 -0.142141 0.917284
-0.159793 -0.142247 0.917509
-0.144411 -0.00216016 0.889643
-0.144435 -0.00371374 0.889288
-0.144465 -0.00526658 0.888961
-0.144474 -0.00681857 0.888514
-0.144527 -0.00836924 0.888307
-0.144558 -0.00991967 0.887989
-0.144567 -0.0114694 0.887552
-0.144534 -0.0130172 0.886894
-0.144536 -0.0145644 0.88642
-0.144563 -0.0161109 0.886075
-0.144615 -0.0176577 0.885868
-0.144709 -0.0192054 0.885872
-0.144841 -0.0207556 0.88607
-0.144957 -0.0223062 0.886194
-0.145091 -0.023859 0.88641
-0.145225 -0.0254123 0.886617
-0.145338 -0.0269654 0.886722
-0.145448 -0.0285185 0.886809
-0.145537 -0.0300702 0.886786
-0.145608 -0.0316202 0.886671
-0.145679 -0.0331704 0.886555
-0.145768 -0.0347233 0.886541
-0.145821 -0.0362705 0.886325
-0.145871 -0.0378175 0.886099
-0.145842 -0.0393519 0.88547
-0.145728 -0.0408714 0.884409
-0.145547 -0.0423751 0.88299
-0.145249 -0.0438539 0.880979
-0.144891 -0.0453148 0.878654
-0.144434 -0.0467488 0.875825
-0.143897 -0.0481575 0.872591
-0.143278 -0.0495379 0.868936
-0.142787 -0.0509352 0.86594
-0.142334 -0.0523319 0.863149
-0.142106 -0.0537736 0.861507
-0.142022 -0.0552459 0.860606
-0.142073 -0.0567506 0.860401
-0.142125 -0.0582555 0.860205
-0.142269 -0.0597851 0.860477
-0.14238 -0.0613067 0.860579
-0.14251 -0.0628347 0.860781
-0.142659 -0.0643691 0.861074
-0.143176 -0.0660188 0.863255
-0.14367 -0.0676685 0.865309
-0.144289 -0.0693662 0.868002
-0.145439 -0.0712503 0.873398
-0.146699 -0.0747091 0.878881
-0.14699 -0.0763312 0.879895
-0.146972 -0.0778424 0.879323
-0.146709 -0.0792605 0.877511
-0.146689 -0.0807667 0.876939
-0.146843 -0.0823398 0.877253
-0.146953 -0.0838962 0.877339
-0.147085 -0.0854623 0.877535
-0.147241 -0.0870394 0.877853
-0.147382 -0.0886112 0.87809
-0.147537 -0.0901916 0.878414
-0.147669 -0.0917617 0.878601
-0.147701 -0.0932886 0.878294
-0.147688 -0.094794 0.877759
-0.147685 -0.0963025 0.87727
-0.147665 -0.0978017 0.876698
-0.147867 -0.099407 0.877246
-0.148072 -0.101016 0.877812
-0.14819 -0.102584 0.877934
-0.148261 -0.104129 0.877829
-0.148227 -0.105619 0.877184
-0.14816 -0.10709 0.876374
-0.148076 -0.108549 0.875478
-0.148134 -0.110083 0.875302
-0.148182 -0.111611 0.875071
-0.148258 -0.113155 0.874988
-0.148219 -0.114633 0.87432
-0.148286 -0.116172 0.874192
-0.148344 -0.117704 0.874011
-0.149919 -0.120137 0.881462
-0.158588 -0.134749 0.922035
-0.158473 -0.136249 0.920976
-0.158389 -0.137765 0.920062
-0.15828 -0.139262 0.919021
-0.158239 -0.140802 0.918327
-0.158201 -0.142342 0.917651
-0.142843 -0.000674645 0.890069
-0.142856 -0.00222986 0.88965
-0.14287 -0.00378354 0.889231
-0.142905 -0.00533607 0.888931
-0.142915 -0.00688831 0.888493
-0.142948 -0.00843935 0.888185
-0.142959 -0.00998956 0.887747
-0.142945 -0.0115391 0.88719
-0.142909 -0.0130865 0.886514
-0.142896 -0.0146326 0.885957
-0.142925 -0.0161784 0.885621
-0.142976 -0.017724 0.885405
-0.143068 -0.0192713 0.885401
-0.143178 -0.0208201 0.885497
-0.143292 -0.0223693 0.885603
-0.143426 -0.0239208 0.885819
-0.143582 -0.0254756 0.886154
-0.143718 -0.0270298 0.88638
-0.14385 -0.0285847 0.886586
-0.143961 -0.0301382 0.886673
-0.144068 -0.0316919 0.886742
-0.144197 -0.0332494 0.88693
-0.144349 -0.0348106 0.887237
-0.144466 -0.0363689 0.88737
-0.144578 -0.0379266 0.887466
-0.144627 -0.0394752 0.887231
-0.144556 -0.041004 0.886381
-0.144439 -0.0425219 0.885283
-0.144222 -0.0440191 0.883681
-0.143957 -0.0455015 0.881822
-0.143361 -0.0469116 0.878242
-0.142683 -0.0482935 0.874246
-0.141936 -0.0496474 0.869894
-0.141311 -0.0510149 0.866182
-0.140726 -0.0523794 0.862674
-0.140542 -0.0538305 0.861253
-0.140479 -0.0553076 0.860458
-0.140511 -0.0568072 0.860155
-0.140545 -0.0583065 0.859862
-0.140649 -0.0598248 0.859931
-0.140738 -0.0613392 0.85992
-0.141213 -0.0629678 0.861902
-0.141735 -0.0646175 0.864124
-0.142664 -0.0664022 0.868447
-0.143569 -0.0681937 0.872639
-0.147034 -0.0754471 0.888561
-0.146992 -0.0769651 0.887868
-0.146554 -0.0783336 0.885134
-0.14604 -0.0796648 0.882016
-0.145794 -0.0810898 0.880271
-0.145739 -0.082585 0.879507
-0.145794 -0.0841238 0.879319
-0.145888 -0.0856776 0.879323
-0.146006 -0.0872426 0.879455
-0.146131 -0.0888106 0.879615
-0.146289 -0.0903938 0.879939
-0.146436 -0.0919752 0.880226
-0.146447 -0.0934943 0.8798
-0.146409 -0.0949898 0.879128
-0.146423 -0.096509 0.87873
-0.146428 -0.0980212 0.878267
-0.1466 -0.0996155 0.878673
-0.146823 -0.101238 0.879344
-0.146915 -0.102794 0.87933
-0.14692 -0.104307 0.878877
-0.146915 -0.105813 0.878378
-0.146949 -0.10734 0.878081
-0.146915 -0.108828 0.877436
-0.147044 -0.110405 0.877623
-0.147185 -0.111989 0.877864
-0.147303 -0.11356 0.877977
-0.147218 -0.115017 0.877078
-0.147295 -0.116565 0.87699
-0.147844 -0.118393 0.879312
-0.15894 -0.131818 0.924784
-0.157264 -0.130286 0.925057
-0.157183 -0.131815 0.924152
-0.158739 -0.13327 0.923287
-0.157028 -0.133293 0.922873
-0.156936 -0.134809 0.921913
-0.15685 -0.136326 0.920981
-0.156759 -0.137837 0.920031
-0.156655 -0.139336 0.919009
-0.156613 -0.140874 0.918305
-0.156585 -0.14242 0.917666
-0.156535 -0.14395 0.916926
-0.141341 -0.000741089 0.890361
-0.141339 -0.00229751 0.889859
-0.141339 -0.00385254 0.889366
-0.14136 -0.00540506 0.888984
-0.141339 -0.00695874 0.888381
-0.141352 -0.00850944 0.887952
-0.141339 -0.0100601 0.887404
-0.141286 -0.0116085 0.886627
-0.141234 -0.0131554 0.885867
-0.141206 -0.0146998 0.885219
-0.141218 -0.0162441 0.8848
-0.141271 -0.0177887 0.884593
-0.141379 -0.0193351 0.884672
-0.141489 -0.0208822 0.884759
-0.141618 -0.0224317 0.884957
-0.141766 -0.0239834 0.885256
-0.141938 -0.0255378 0.885665
-0.142096 -0.0270938 0.886019
-0.142251 -0.0286502 0.886345
-0.142401 -0.0302076 0.886643
-0.142548 -0.0317665 0.886932
-0.142718 -0.0333296 0.887341
-0.142916 -0.0348974 0.887887
-0.143097 -0.0364653 0.88835
-0.143255 -0.0380322 0.888694
-0.143362 -0.0395919 0.888762
-0.143372 -0.0411364 0.888325
-0.143338 -0.0426726 0.887668
-0.143207 -0.0441881 0.886487
-0.143048 -0.0456952 0.88517
-0.142326 -0.0470842 0.880899
-0.141504 -0.0484384 0.87611
-0.140619 -0.0497633 0.871001
-0.139871 -0.0511028 0.866611
-0.139164 -0.0524377 0.862438
-0.139059 -0.053907 0.861414
-0.139016 -0.0553893 0.86072
-0.139045 -0.0568884 0.8604
-0.139059 -0.0583825 0.859996
-0.139124 -0.0598903 0.859867
-0.139557 -0.0615043 0.86165
-0.14043 -0.0632556 0.865726
-0.141359 -0.0650377 0.870084
-0.142681 -0.0669588 0.876488
-0.147072 -0.0745441 0.897356
-0.147187 -0.0761333 0.897468
-0.145474 -0.0801142 0.887121
-0.145005 -0.0814596 0.884214
-0.144898 -0.0829402 0.883174
-0.144748 -0.0844011 0.881924
-0.144681 -0.0858915 0.881086
-0.144771 -0.0874473 0.881072
-0.144855 -0.0890012 0.88103
-0.144974 -0.0905702 0.881162
-0.145102 -0.0921443 0.881339
-0.145074 -0.0936473 0.880712
-0.145019 -0.0951368 0.879957
-0.145053 -0.0966659 0.87965
-0.145088 -0.098195 0.879353
-0.145269 -0.0997957 0.879804
-0.145571 -0.101458 0.880868
-0.145713 -0.103045 0.881127
-0.145755 -0.104579 0.880857
-0.145811 -0.106121 0.880669
-0.145963 -0.107714 0.880974
-0.145964 -0.109226 0.880502
-0.146121 -0.110823 0.880825
-0.146304 -0.112436 0.881285
-0.146445 -0.114028 0.881526
-0.14633 -0.115472 0.880461
-0.146435 -0.117042 0.880519
-0.147057 -0.118921 0.883224
-0.155213 -0.130098 0.922919
-0.155416 -0.131803 0.923455
-0.155304 -0.133307 0.922386
-0.155273 -0.134861 0.921727
-0.155219 -0.136398 0.92096
-0.15516 -0.137929 0.920155
-0.155074 -0.13944 0.919224
-0.15503 -0.140977 0.918502
-0.154986 -0.142512 0.917781
-0.154926 -0.144033 0.916977
-0.139748 0.000744766 0.890659
-0.139742 -0.000813233 0.890138
-0.13974 -0.00236898 0.889627
-0.139754 -0.00392297 0.889207
-0.139765 -0.00547608 0.88877
-0.139742 -0.00702962 0.888157
-0.139733 -0.00858012 0.887609
-0.139702 -0.0101302 0.886951
-0.139648 -0.0116783 0.886173
-0.139616 -0.0132242 0.885506
-0.139607 -0.0147683 0.884959
-0.139621 -0.0163125 0.884549
-0.13969 -0.0178571 0.884425
-0.139782 -0.0194028 0.884421
-0.139875 -0.0209487 0.884426
-0.139987 -0.0224962 0.884522
-0.140132 -0.0240474 0.884812
-0.1403 -0.025601 0.885212
-0.140474 -0.0271571 0.885648
-0.140652 -0.0287158 0.886103
-0.140824 -0.0302752 0.886521
-0.14101 -0.0318385 0.887022
-0.141204 -0.0334045 0.887559
-0.141445 -0.0349792 0.888344
-0.14167 -0.0365547 0.889046
-0.141884 -0.0381308 0.889683
-0.142071 -0.0397061 0.890192
-0.142181 -0.0412695 0.890278
-0.142237 -0.0428242 0.89008
-0.142231 -0.0443672 0.88956
-0.142201 -0.0459037 0.888903
-0.141597 -0.0473212 0.885217
-0.140653 -0.048655 0.879747
-0.139619 -0.0499507 0.873803
-0.138699 -0.051253 0.868464
-0.13783 -0.0525504 0.863402
-0.137537 -0.0539744 0.861382
-0.137528 -0.0554649 0.860858
-0.137556 -0.0569638 0.860527
-0.137566 -0.0584572 0.860105
-0.137975 -0.0600623 0.86178
-0.138823 -0.0618017 0.865761
-0.140107 -0.0636861 0.872034
-0.141474 -0.0656167 0.878724
-0.146335 -0.0727441 0.89402
-0.145542 -0.0715344 0.898604
-0.14635 -0.0733628 0.902343
-0.146891 -0.0751099 0.90468
-0.146985 -0.0767032 0.904672
-0.147009 -0.0776152 0.896051
-0.146724 -0.0781654 0.902805
-0.146051 -0.0794665 0.898797
-0.144524 -0.0819572 0.889831
-0.144127 -0.0833294 0.887271
-0.143774 -0.0847115 0.884941
-0.143508 -0.0861225 0.88306
-0.143468 -0.0876265 0.882378
-0.143415 -0.0891218 0.881613
-0.143509 -0.0906808 0.881617
-0.143617 -0.0922469 0.881693
-0.143592 -0.0937513 0.881076
-0.143559 -0.0952514 0.88043
-0.143653 -0.0968101 0.880434
-0.143749 -0.0983702 0.880447
-0.143991 -0.100004 0.881227
-0.144355 -0.101702 0.882629
-0.144579 -0.103334 0.883308
-0.14469 -0.104908 0.883394
-0.144821 -0.106493 0.883589
-0.145024 -0.10812 0.884158
-0.145075 -0.109664 0.883942
-0.145243 -0.111273 0.88432
-0.145447 -0.112904 0.884889
-0.145588 -0.114502 0.885138
-0.14548 -0.115956 0.8841
-0.145651 -0.117571 0.884496
-0.146269 -0.119457 0.8872
-0.148911 -0.121554 0.892214
-0.153569 -0.127499 0.915022
-0.151939 -0.127565 0.914945
-0.153182 -0.129918 0.920845
-0.15362 -0.131771 0.922594
-0.153518 -0.133279 0.921571
-0.153529 -0.134859 0.921122
-0.153543 -0.136439 0.920692
-0.153528 -0.137999 0.920116
-0.153464 -0.139525 0.919293
-0.153418 -0.141059 0.918553
-0.15338 -0.142598 0.917859
-0.153306 -0.144108 0.916974
-0.156451 -0.146683 0.924227
-0.153223 -0.14561 0.916052
-0.138154 0.00223082 0.890965
-0.138182 0.000674609 0.890619
-0.138185 -0.000882801 0.890136
-0.138173 -0.00243903 0.889569
-0.138158 -0.00399485 0.888993
-0.13815 -0.00554787 0.888445
-0.138124 -0.00710103 0.887814
-0.138079 -0.00865177 0.887064
-0.138027 -0.0102006 0.886286
-0.137994 -0.011748 0.885619
-0.137984 -0.013293 0.885062
-0.137995 -0.0148369 0.884625
-0.138027 -0.0163805 0.884299
-0.138111 -0.0179253 0.884258
-0.138202 -0.0194707 0.884253
-0.138299 -0.0210172 0.884285
-0.138395 -0.0225638 0.884308
-0.138539 -0.0241136 0.88458
-0.138687 -0.0256659 0.884879
-0.138859 -0.0272214 0.885306
-0.139037 -0.0287797 0.88577
-0.139228 -0.0303414 0.886307
-0.139454 -0.0319088 0.887019
-0.139686 -0.0334801 0.887768
-0.139961 -0.0350599 0.888745
-0.140241 -0.0366437 0.889741
-0.140513 -0.0382306 0.8907
-0.14078 -0.0398202 0.891631
-0.140975 -0.0414008 0.892176
-0.141117 -0.0429741 0.892437
-0.141217 -0.0445411 0.892477
-0.141312 -0.046107 0.89248
-0.140842 -0.0475572 0.889482
-0.138652 -0.0501478 0.876829
-0.137555 -0.0514117 0.8705
-0.1365 -0.052665 0.864401
-0.136002 -0.0540383 0.861274
-0.136014 -0.0555338 0.860859
-0.136042 -0.0570327 0.860527
-0.136052 -0.0585258 0.860101
-0.136484 -0.060139 0.861919
-0.13772 -0.0619951 0.867989
-0.139423 -0.0640141 0.876535
-0.141216 -0.0660897 0.885546
-0.143195 -0.0676831 0.887275
-0.144429 -0.069619 0.893261
-0.143228 -0.0682664 0.895711
-0.144719 -0.070305 0.903107
-0.145499 -0.0721277 0.906735
-0.145898 -0.0738298 0.908339
-0.14626 -0.0755241 0.909741
-0.146294 -0.0771045 0.909421
-0.145943 -0.0785403 0.907069
-0.145148 -0.0806649 0.893581
-0.14472 -0.0811853 0.899619
-0.143978 -0.0824375 0.89521
-0.143363 -0.083727 0.891469
-0.142833 -0.0850406 0.888187
-0.142377 -0.0863754 0.885299
-0.14219 -0.0878181 0.883829
-0.142009 -0.0892586 0.882388
-0.142004 -0.090775 0.881879
-0.142072 -0.0923221 0.881737
-0.14203 -0.0938193 0.881036
-0.142035 -0.0953361 0.880574
-0.142192 -0.0969257 0.880907
-0.142367 -0.0985262 0.88134
-0.14269 -0.100203 0.882541
-0.143149 -0.101954 0.884463
-0.143481 -0.103645 0.885709
-0.143672 -0.105266 0.886214
-0.14388 -0.106899 0.88682
-0.144107 -0.108544 0.887517
-0.144166 -0.110098 0.887337
-0.144326 -0.11171 0.887686
-0.144525 -0.113344 0.888227
-0.144669 -0.114949 0.888485
-0.144597 -0.116428 0.88763
-0.144761 -0.118045 0.887988
-0.145322 -0.119907 0.890427
-0.148112 -0.1221 0.896216
-0.146852 -0.122372 0.897892
-0.150022 -0.124815 0.905568
-0.148329 -0.12483 0.905073
-0.149894 -0.127367 0.912707
-0.151159 -0.129737 0.918771
-0.15174 -0.131683 0.921287
-0.151664 -0.133205 0.920391
-0.151728 -0.134818 0.920216
-0.151786 -0.136426 0.920014
-0.151794 -0.138 0.919547
-0.151747 -0.139535 0.918798
-0.151684 -0.141057 0.917976
-0.151669 -0.142609 0.917391
-0.151599 -0.144122 0.916533
-0.151518 -0.145624 0.915612
-0.136645 0.00216536 0.89123
-0.136641 0.000605703 0.890709
-0.136644 -0.000951286 0.890216
-0.136622 -0.00250877 0.889603
-0.136579 -0.00406558 0.888862
-0.136534 -0.00561988 0.888111
-0.136504 -0.00717235 0.887453
-0.136437 -0.00872308 0.886583
-0.136371 -0.0102712 0.885713
-0.136341 -0.0118172 0.885055
-0.136335 -0.0133617 0.884526
-0.13637 -0.014905 0.884209
-0.136403 -0.0164484 0.883901
-0.136489 -0.0179922 0.88386
-0.136576 -0.0195371 0.883837
-0.136688 -0.0210836 0.883952
-0.136785 -0.0226292 0.883975
-0.136932 -0.0241796 0.884274
-0.137077 -0.0257312 0.884564
-0.137245 -0.0272857 0.884973
-0.13742 -0.0288434 0.885428
-0.137612 -0.0304042 0.885965
-0.137856 -0.0319739 0.886787
-0.138103 -0.0335472 0.887627
-0.138377 -0.0351268 0.888605
-0.138671 -0.0367132 0.889693
-0.138982 -0.0383062 0.890872
-0.139311 -0.039907 0.892152
-0.139591 -0.0415032 0.893156
-0.139831 -0.0430961 0.893949
-0.140063 -0.0446908 0.894696
-0.140289 -0.0462871 0.895415
-0.139772 -0.0477305 0.892123
-0.139805 -0.0488751 0.883457
-0.138663 -0.0490346 0.885657
-0.13747 -0.0502991 0.878756
-0.136208 -0.0515244 0.871483
-0.135006 -0.0527404 0.86454
-0.134541 -0.0541209 0.861564
-0.134591 -0.0556266 0.861347
-0.134622 -0.0571272 0.861031
-0.134653 -0.058627 0.860716
-0.135436 -0.0603433 0.864422
-0.137043 -0.0623185 0.872544
-0.139154 -0.0644756 0.883349
-0.143181 -0.0688342 0.903872
-0.14427 -0.0707573 0.909187
-0.144663 -0.0724594 0.910772
-0.1447 -0.0740425 0.910461
-0.144742 -0.0756268 0.910178
-0.144792 -0.0772137 0.90994
-0.14464 -0.0787235 0.908622
-0.144328 -0.0801675 0.906453
-0.143759 -0.0815032 0.902921
-0.143154 -0.0828128 0.899197
-0.14251 -0.0840947 0.895273
-0.141885 -0.0853723 0.89146
-0.141304 -0.0866561 0.887876
-0.140995 -0.0880486 0.885748
-0.140688 -0.089435 0.883629
-0.140581 -0.0909054 0.882563
-0.140533 -0.0924014 0.881826
-0.140471 -0.0938874 0.880997
-0.140461 -0.0953974 0.880462
-0.140675 -0.0970157 0.881105
-0.140897 -0.0986401 0.881785
-0.14132 -0.10037 0.883534
-0.141862 -0.102167 0.885895
-0.142332 -0.103935 0.88789
-0.142607 -0.105605 0.888851
-0.142912 -0.107295 0.889959
-0.143138 -0.108946 0.890665
-0.143202 -0.110508 0.890503
-0.143318 -0.1121 0.890623
-0.143474 -0.113716 0.890945
-0.1436 -0.115315 0.891112
-0.143565 -0.11682 0.890438
-0.143772 -0.118469 0.891034
-0.144324 -0.120331 0.893435
-0.145604 -0.122655 0.899659
-0.146793 -0.124943 0.905398
-0.148114 -0.127334 0.911819
-0.149175 -0.129577 0.916871
-0.149868 -0.131597 0.919997
-0.149883 -0.133176 0.919567
-0.150012 -0.134831 0.919729
-0.15009 -0.136453 0.919636
-0.150095 -0.138024 0.919151
-0.150029 -0.139543 0.918293
-0.149965 -0.141063 0.917462
-0.149973 -0.142631 0.916996
-0.149929 -0.144161 0.916265
-0.149875 -0.14568 0.915472
-0.135124 0.00209873 0.891439
-0.13512 0.000538895 0.890909
-0.135095 -0.00102062 0.890269
-0.135062 -0.00257827 0.889573
-0.134998 -0.00413589 0.888712
-0.134916 -0.00569171 0.887759
-0.134868 -0.00724376 0.88699
-0.134801 -0.00879427 0.88612
-0.134717 -0.0103417 0.885149
-0.134688 -0.0118865 0.884482
-0.134684 -0.0134302 0.883962
-0.134724 -0.0149726 0.883673
-0.134762 -0.016515 0.883383
-0.134848 -0.0180582 0.883351
-0.134932 -0.0196019 0.88331
-0.135059 -0.0211485 0.883508
-0.135173 -0.0226951 0.883633
-0.135339 -0.0242463 0.884042
-0.135484 -0.0257972 0.884331
-0.13565 -0.0273516 0.884731
-0.135819 -0.0289084 0.885159
-0.13601 -0.0304694 0.885705
-0.136236 -0.0320363 0.886435
-0.136482 -0.0336085 0.887267
-0.136768 -0.0351906 0.888336
-0.137079 -0.0367788 0.889516
-0.137412 -0.0383758 0.890833
-0.137802 -0.0399869 0.892453
-0.138157 -0.0415976 0.893879
-0.138455 -0.0432027 0.894993
-0.138727 -0.0448066 0.89596
-0.138992 -0.0464135 0.896899
-0.138445 -0.0478522 0.893423
-0.137285 -0.0491447 0.886627
-0.136042 -0.0503959 0.879386
-0.134748 -0.0516113 0.871876
-0.133538 -0.0528226 0.864827
-0.133117 -0.0542132 0.862059
-0.133206 -0.0557302 0.862051
-0.133274 -0.0572419 0.861932
-0.13366 -0.0588436 0.863534
-0.134813 -0.0606754 0.869281
-0.140906 -0.0671265 0.90067
-0.142435 -0.0691825 0.908404
-0.143142 -0.0709882 0.911712
-0.143208 -0.072583 0.911557
-0.143264 -0.0741741 0.911346
-0.143326 -0.0757666 0.911164
-0.14338 -0.0773565 0.910944
-0.1433 -0.0788946 0.910001
-0.143046 -0.0803621 0.908125
-0.142529 -0.0817195 0.904849
-0.141977 -0.0830509 0.901372
-0.141384 -0.0843546 0.897686
-0.14076 -0.0856339 0.893845
-0.140127 -0.0868963 0.88995
-0.139735 -0.0882527 0.887346
-0.139324 -0.0895938 0.88466
-0.139109 -0.0910162 0.883017
-0.138964 -0.0924655 0.881741
-0.138897 -0.0939488 0.880885
-0.138895 -0.0954619 0.880386
-0.139213 -0.0971322 0.881587
-0.139528 -0.0988059 0.882779
-0.140055 -0.100592 0.885094
-0.140674 -0.102435 0.887893
-0.141191 -0.104233 0.890152
-0.141501 -0.105927 0.891306
-0.141786 -0.107612 0.892322
-0.141965 -0.109241 0.892781
-0.142001 -0.110791 0.892472
-0.142076 -0.112362 0.892365
-0.142162 -0.113941 0.89233
-0.14229 -0.115543 0.892505
-0.14231 -0.117083 0.892115
-0.142576 -0.118772 0.893029
-0.142894 -0.120496 0.894217
-0.143974 -0.122703 0.899437
-0.145004 -0.124895 0.904382
-0.146151 -0.12718 0.909946
-0.14706 -0.129327 0.914241
-0.147905 -0.131447 0.918198
-0.148045 -0.133108 0.918433
-0.148234 -0.134802 0.918915
-0.148318 -0.136426 0.918849
-0.148338 -0.138005 0.918437
-0.14829 -0.139536 0.917679
-0.148246 -0.141068 0.916939
-0.148279 -0.142652 0.916601
-0.148298 -0.144227 0.916198
-0.149815 -0.146908 0.923656
-0.133448 0.00201915 0.890792
-0.133467 0.000462539 0.890382
-0.133447 -0.00109559 0.88976
-0.133414 -0.00265327 0.889064
-0.133346 -0.00421039 0.888185
-0.133249 -0.00576518 0.887121
-0.133201 -0.00731659 0.886352
-0.133134 -0.00886528 0.885473
-0.133034 -0.0104121 0.88441
-0.133021 -0.0119562 0.883835
-0.13305 -0.0134985 0.883483
-0.133105 -0.0150409 0.883287
-0.133164 -0.0165831 0.88311
-0.13327 -0.0181269 0.883188
-0.133336 -0.0196695 0.883049
-0.133443 -0.0212146 0.883138
-0.133556 -0.0227605 0.883262
-0.133726 -0.024311 0.88369
-0.133875 -0.0258623 0.884007
-0.134038 -0.0274158 0.884398
-0.13422 -0.0289735 0.884899
-0.134391 -0.0305315 0.885335
-0.134601 -0.0320963 0.885983
-0.134844 -0.0336684 0.886823
-0.135126 -0.0352491 0.887874
-0.135455 -0.0368398 0.889164
-0.135823 -0.0384427 0.890693
-0.136251 -0.0400603 0.892533
-0.136661 -0.0416815 0.89428
-0.137014 -0.0432981 0.895706
-0.137305 -0.0449077 0.896792
-0.137609 -0.0465238 0.897942
-0.1373 -0.0480136 0.895742
-0.136117 -0.0493018 0.888753
-0.133541 -0.0517592 0.873654
-0.132289 -0.0529596 0.866311
-0.131642 -0.054293 0.862286
-0.131782 -0.0558243 0.862562
-0.13189 -0.0573476 0.862654
-0.132668 -0.0590641 0.866415
-0.134227 -0.0610238 0.874425
-0.140172 -0.0674728 0.905294
-0.1413 -0.0694088 0.910921
-0.141685 -0.0711105 0.912497
-0.141795 -0.072722 0.912579
-0.141874 -0.0743227 0.912488
-0.141973 -0.0759315 0.912516
-0.142003 -0.0775148 0.912168
-0.141851 -0.0790262 0.910822
-0.141547 -0.0804744 0.908662
-0.141079 -0.0818495 0.905615
-0.140566 -0.0831959 0.902321
-0.139976 -0.0844996 0.898617
-0.13948 -0.0858327 0.895434
-0.138953 -0.0871412 0.892079
-0.139052 -0.0887197 0.892109
-0.139174 -0.0903094 0.892267
-0.139009 -0.0917658 0.89087
-0.13892 -0.093255 0.889894
-0.138894 -0.0947707 0.889248
-0.138498 -0.0961033 0.886618
-0.138324 -0.0975381 0.885177
-0.138709 -0.0992545 0.886752
-0.139161 -0.10101 0.888674
-0.13964 -0.102788 0.89075
-0.14 -0.104509 0.892187
-0.14026 -0.10618 0.893075
-0.140484 -0.107835 0.89378
-0.140608 -0.109437 0.893947
-0.140644 -0.110987 0.893629
-0.140731 -0.112569 0.893603
-0.140801 -0.11414 0.893477
-0.14095 -0.115758 0.893771
-0.141032 -0.117337 0.893709
-0.14132 -0.119042 0.894742
-0.141662 -0.120786 0.896066
-0.14257 -0.122892 0.90041
-0.143417 -0.124975 0.904434
-0.144383 -0.127149 0.909086
-0.145182 -0.129228 0.912833
-0.145962 -0.131306 0.916471
-0.146226 -0.133048 0.917372
-0.146483 -0.134788 0.918227
-0.146582 -0.136422 0.918244
-0.14658 -0.137985 0.917714
-0.146555 -0.139529 0.917065
-0.146536 -0.141078 0.916462
-0.146633 -0.142709 0.916461
-0.146719 -0.144331 0.916404
-0.131736 0.00349522 0.890435
-0.131827 0.00194429 0.89043
-0.131851 0.000388877 0.890048
-0.131828 -0.0011695 0.889407
-0.131776 -0.00272697 0.888601
-0.131673 -0.00428478 0.88751
-0.13156 -0.0058399 0.886364
-0.131513 -0.00738941 0.885586
-0.131435 -0.00893713 0.884633
-0.131336 -0.0104827 0.883574
-0.131338 -0.012025 0.883074
-0.131366 -0.0135664 0.882723
-0.131423 -0.0151076 0.882531
-0.131517 -0.0166495 0.882546
-0.131639 -0.0181931 0.882718
-0.131708 -0.0197351 0.882595
-0.13183 -0.0212801 0.882771
-0.131962 -0.0228265 0.882993
-0.132133 -0.0243772 0.883439
-0.132284 -0.0259283 0.883775
-0.132446 -0.0274816 0.884166
-0.132625 -0.0290387 0.884658
-0.132795 -0.0305967 0.885094
-0.132987 -0.0321597 0.885659
-0.133229 -0.0337306 0.88649
-0.133508 -0.0353108 0.887532
-0.133832 -0.0369011 0.888822
-0.134203 -0.038504 0.890369
-0.134665 -0.0401276 0.89242
-0.13511 -0.0417558 0.894379
-0.135518 -0.0433836 0.896126
-0.135848 -0.0450024 0.897441
-0.136189 -0.0466273 0.898802
-0.135921 -0.0481269 0.896813
-0.135024 -0.0494779 0.891338
-0.1312 -0.0531385 0.868705
-0.130502 -0.0544606 0.864364
-0.130388 -0.0559265 0.863236
-0.130515 -0.0574568 0.863443
-0.131638 -0.0592764 0.869134
-0.133206 -0.061248 0.877268
-0.139011 -0.0676854 0.907655
-0.13981 -0.0695185 0.911522
-0.140249 -0.071241 0.91341
-0.140421 -0.0728765 0.91384
-0.140542 -0.0744944 0.913978
-0.14068 -0.0761201 0.914216
-0.140713 -0.0777069 0.913877
-0.140558 -0.0792199 0.912513
-0.140268 -0.0806748 0.910408
-0.139746 -0.0820281 0.907031
-0.139175 -0.0833509 0.903398
-0.138595 -0.0846575 0.899712
-0.138123 -0.0860003 0.89663
-0.138088 -0.0875265 0.895928
-0.138369 -0.0891942 0.896954
-0.138703 -0.0908891 0.898255
-0.138629 -0.0923982 0.897351
-0.138523 -0.0938878 0.896255
-0.137878 -0.0951121 0.892244
-0.137471 -0.0964412 0.889522
-0.137306 -0.0978851 0.888126
-0.138238 -0.10142 0.892171
-0.138613 -0.10315 0.893699
-0.138814 -0.104792 0.894285
-0.13897 -0.10641 0.894625
-0.139099 -0.108015 0.894819
-0.13917 -0.109588 0.894693
-0.139205 -0.11114 0.894375
-0.139293 -0.112723 0.894349
-0.139367 -0.114297 0.894241
-0.139554 -0.11594 0.894745
-0.139696 -0.117557 0.895002
-0.140007 -0.119281 0.896181
-0.140365 -0.121039 0.897605
-0.141057 -0.123016 0.900827
-0.141732 -0.124992 0.903956
-0.142574 -0.127089 0.907979
-0.143344 -0.129151 0.911608
-0.144149 -0.13125 0.915428
-0.144504 -0.133054 0.916821
-0.144755 -0.134791 0.917659
-0.144835 -0.136408 0.917557
-0.144818 -0.13796 0.916963
-0.144821 -0.139523 0.91646
-0.144835 -0.141093 0.916012
-0.145017 -0.142786 0.916475
-0.145187 -0.144472 0.916875
-0.129984 0.00496554 0.889839
-0.130079 0.00341673 0.889862
-0.130171 0.0018668 0.889866
-0.130195 0.000311437 0.889493
-0.13015 -0.00124665 0.888714
-0.130083 -0.00280414 0.887816
-0.12998 -0.00436064 0.886716
-0.129849 -0.00591472 0.885459
-0.129789 -0.00746301 0.884598
-0.129728 -0.00900942 0.883739
-0.129632 -0.0105532 0.882686
-0.129621 -0.012094 0.882114
-0.129651 -0.0136337 0.881766
-0.129726 -0.0151737 0.881679
-0.12984 -0.0167149 0.881806
-0.129982 -0.0182582 0.882095
-0.130069 -0.0198001 0.882079
-0.130224 -0.0213462 0.882441
-0.130373 -0.0228936 0.882764
-0.130543 -0.0244444 0.883217
-0.130713 -0.0259968 0.883662
-0.130875 -0.0275499 0.884053
-0.131052 -0.0291064 0.884536
-0.13122 -0.0306644 0.884972
-0.131395 -0.0322246 0.885436
-0.131618 -0.0337935 0.886175
-0.13189 -0.0353722 0.88719
-0.132193 -0.0369597 0.888379
-0.132559 -0.0385616 0.889916
-0.133057 -0.0401914 0.892188
-0.13354 -0.0418268 0.894376
-0.134005 -0.0434659 0.896454
-0.13439 -0.0450968 0.89809
-0.134785 -0.0467357 0.899782
-0.13459 -0.0482514 0.898169
-0.134014 -0.0496755 0.894437
-0.130165 -0.0533338 0.871449
-0.129408 -0.0546424 0.866732
-0.129297 -0.0561129 0.865616
-0.129756 -0.0577414 0.867673
-0.131216 -0.0596698 0.875286
-0.137183 -0.0655394 0.898124
-0.135051 -0.0638882 0.895571
-0.136673 -0.065954 0.904059
-0.138171 -0.0680067 0.911839
-0.138651 -0.0697414 0.913974
-0.138805 -0.0713705 0.914304
-0.139037 -0.0730288 0.915064
-0.139223 -0.0746731 0.915568
-0.139423 -0.0763251 0.916154
-0.1395 -0.0779317 0.916053
-0.139405 -0.0794713 0.915009
-0.139473 -0.0810731 0.914862
-0.139379 -0.0826072 0.913809
-0.136604 -0.0968656 0.893368
-0.136341 -0.098264 0.891414
-0.136838 -0.100052 0.893628
-0.137217 -0.101786 0.895202
-0.137437 -0.103439 0.895898
-0.13752 -0.10502 0.895835
-0.137586 -0.106592 0.895691
-0.137653 -0.108164 0.895546
-0.137692 -0.109719 0.895247
-0.137763 -0.111293 0.895121
-0.137854 -0.112879 0.895113
-0.137945 -0.114464 0.895087
-0.138136 -0.116112 0.895627
-0.1383 -0.117744 0.896003
-0.138575 -0.119449 0.896999
-0.138904 -0.121191 0.898278
-0.139395 -0.123043 0.900441
-0.139916 -0.124922 0.902758
-0.140673 -0.126966 0.906361
-0.141465 -0.129045 0.910146
-0.142279 -0.131152 0.914048
-0.143052 -0.134807 0.9172
-0.143111 -0.13641 0.916997
-0.128374 0.00489036 0.889532
-0.128455 0.00334038 0.889472
-0.128536 0.00179054 0.889421
-0.128552 0.00023608 0.888984
-0.128478 -0.00132356 0.888039
-0.128374 -0.00288206 0.88693
-0.128254 -0.00443788 0.885719
-0.128104 -0.00599119 0.884343
-0.128028 -0.00753816 0.883389
-0.127987 -0.0090819 0.882636
-0.127911 -0.0106237 0.881689
-0.127918 -0.0121628 0.881209
-0.127969 -0.0137014 0.880979
-0.128048 -0.0152402 0.880916
-0.128179 -0.0167808 0.881153
-0.128358 -0.0183245 0.881654
-0.128466 -0.0198667 0.881755
-0.128625 -0.0214127 0.882142
-0.128805 -0.0229618 0.882648
-0.128975 -0.0245124 0.883104
-0.129143 -0.0260643 0.883541
-0.129305 -0.0276178 0.883941
-0.129497 -0.029176 0.884515
-0.129665 -0.0307341 0.884951
-0.129838 -0.0322942 0.885415
-0.13004 -0.0338604 0.886044
-0.130308 -0.0354386 0.88704
-0.130603 -0.0370254 0.888202
-0.130967 -0.0386269 0.889739
-0.131481 -0.0402606 0.89213
-0.132019 -0.0419061 0.89464
-0.132542 -0.0435584 0.897075
-0.132968 -0.0451996 0.89896
-0.133438 -0.0468566 0.901091
-0.133555 -0.0484426 0.901222
-0.133316 -0.0499477 0.899352
-0.129244 -0.0565895 0.873872
-0.129749 -0.0582461 0.876201
-0.131229 -0.0601988 0.883994
-0.133076 -0.0617449 0.885119
-0.132778 -0.0621996 0.892174
-0.134433 -0.0642599 0.90092
-0.135707 -0.066228 0.907547
-0.136904 -0.0681914 0.913715
-0.137139 -0.0698471 0.914502
-0.137372 -0.0715054 0.915281
-0.137648 -0.0731813 0.916288
-0.137912 -0.0748576 0.917241
-0.13818 -0.0765379 0.918202
-0.138322 -0.0781728 0.918458
-0.138313 -0.0797504 0.917889
-0.138817 -0.0815335 0.920159
-0.139167 -0.0832618 0.921585
-0.139235 -0.0841178 0.912491
-0.136219 -0.106783 0.896857
-0.136208 -0.108313 0.896283
-0.136226 -0.109858 0.895865
-0.136318 -0.111445 0.895857
-0.136429 -0.113044 0.895959
-0.136539 -0.114643 0.896052
-0.136748 -0.116304 0.896683
-0.136909 -0.117938 0.897059
-0.137165 -0.119632 0.897945
-0.137417 -0.121329 0.898822
-0.137742 -0.123075 0.900082
-0.138081 -0.124836 0.901433
-0.126762 0.00637329 0.889728
-0.126814 0.00482008 0.889511
-0.126873 0.00326897 0.889322
-0.126938 0.00171738 0.889179
-0.126922 0.000160431 0.888557
-0.12683 -0.0013994 0.887503
-0.126692 -0.00295901 0.886181
-0.12655 -0.00451459 0.884833
-0.126382 -0.00606658 0.883339
-0.12629 -0.00761236 0.882285
-0.126235 -0.00915439 0.881443
-0.126179 -0.010694 0.880601
-0.126204 -0.0122314 0.88023
-0.126254 -0.0137684 0.879998
-0.126351 -0.0153059 0.880032
-0.126501 -0.0168457 0.880376
-0.126716 -0.0183899 0.881095
-0.126846 -0.0199323 0.881322
-0.127023 -0.0214789 0.881826
-0.127219 -0.0230288 0.882432
-0.127405 -0.0245806 0.882982
-0.127573 -0.0261322 0.883419
-0.127735 -0.0276859 0.883828
-0.127942 -0.0292456 0.884494
-0.128109 -0.0308037 0.88493
-0.128282 -0.0323639 0.885394
-0.128481 -0.0339305 0.886023
-0.128729 -0.0355061 0.886918
-0.129019 -0.0370915 0.888052
-0.129397 -0.0386963 0.889691
-0.129927 -0.0403333 0.892192
-0.130484 -0.0419843 0.894848
-0.131059 -0.0436475 0.897596
-0.131558 -0.0453056 0.89992
-0.132089 -0.0469777 0.90241
-0.132516 -0.0486357 0.904311
-0.132607 -0.0502218 0.904295
-0.129862 -0.058795 0.885574
-0.131035 -0.0606765 0.891701
-0.132243 -0.0625894 0.898019
-0.133485 -0.0645342 0.904519
-0.134416 -0.0663997 0.909258
-0.135313 -0.0682693 0.913794
-0.135592 -0.0699411 0.914838
-0.135884 -0.0716213 0.915956
-0.136216 -0.0733199 0.917293
-0.13656 -0.0750282 0.918703
-0.136911 -0.0767442 0.920149
-0.137156 -0.0784234 0.92099
-0.137255 -0.0800469 0.921008
-0.137906 -0.0818991 0.924146
-0.138671 -0.0838087 0.927906
-0.139499 -0.0849869 0.922902
-0.139499 -0.085758 0.932013
-0.139827 -0.0867146 0.924191
-0.134793 -0.110017 0.896684
-0.134872 -0.111598 0.896603
-0.134983 -0.113199 0.896705
-0.135097 -0.114802 0.896825
-0.135299 -0.116461 0.897429
-0.13544 -0.118083 0.897695
-0.13567 -0.119764 0.898453
-0.135863 -0.121423 0.898992
-0.136108 -0.12312 0.899842
-0.125268 0.00631046 0.890094
-0.125307 0.0047563 0.889785
-0.125356 0.00320269 0.88955
-0.1254 0.00164951 0.889278
-0.125348 9.0084e-05 0.888435
-0.125221 -0.00147209 0.887169
-0.125049 -0.00303287 0.885636
-0.124872 -0.00458935 0.884076
-0.124701 -0.00614052 0.882553
-0.124594 -0.00768538 0.881401
-0.124526 -0.00922612 0.880482
-0.124488 -0.010764 0.879738
-0.124515 -0.0123 0.879371
-0.124549 -0.0138353 0.879042
-0.124659 -0.0153717 0.879159
-0.124823 -0.0169106 0.879591
-0.125038 -0.0184536 0.880319
-0.125205 -0.0199968 0.880765
-0.125418 -0.0215447 0.881476
-0.125632 -0.0230954 0.882193
-0.125832 -0.0246479 0.882833
-0.126018 -0.0262013 0.88338
-0.126179 -0.0277553 0.883798
-0.126371 -0.0293136 0.884381
-0.126535 -0.0308712 0.884809
-0.126706 -0.0324315 0.885272
-0.126907 -0.0339974 0.885901
-0.127155 -0.0355737 0.886815
-0.127461 -0.0371618 0.88805
-0.127854 -0.0387695 0.889789
-0.128415 -0.0404137 0.892501
-0.129023 -0.0420754 0.89547
-0.129651 -0.0437519 0.898557
-0.130224 -0.0454275 0.901322
-0.13081 -0.0471155 0.90416
-0.131257 -0.0487821 0.906199
-0.131596 -0.0504296 0.907604
-0.131989 -0.0516367 0.90025
-0.131259 -0.0519173 0.905137
-0.129991 -0.0593599 0.895225
-0.130775 -0.0611432 0.899178
-0.131607 -0.0629552 0.903406
-0.132498 -0.0648004 0.907962
-0.133124 -0.0665738 0.911005
-0.13375 -0.0683573 0.914038
-0.134083 -0.0700492 0.915403
-0.13441 -0.0717437 0.916731
-0.134781 -0.0734591 0.918306
-0.135185 -0.0751931 0.920073
-0.135596 -0.0769352 0.921867
-0.135906 -0.0786435 0.923083
-0.136137 -0.080325 0.92386
-0.136906 -0.0822324 0.927685
-0.138072 -0.0843217 0.93376
-0.13933 -0.0864718 0.940355
-0.140299 -0.0877102 0.935972
-0.133404 -0.11174 0.897248
-0.133521 -0.113345 0.897378
-0.133651 -0.11496 0.897589
-0.133834 -0.116608 0.898092
-0.133932 -0.118205 0.898121
-0.134103 -0.119849 0.898551
-0.134229 -0.121467 0.898743
-0.134371 -0.123095 0.899009
-0.134457 -0.124686 0.898964
-0.123775 0.00468945 0.88993
-0.123821 0.00313549 0.889668
-0.123846 0.00158021 0.889285
-0.123789 1.97622e-05 0.888415
-0.123629 -0.00154418 0.886936
-0.123443 -0.00310544 0.885302
-0.12325 -0.00466198 0.883636
-0.123081 -0.00621236 0.882108
-0.122941 -0.00775723 0.880762
-0.122873 -0.00929692 0.87983
-0.122836 -0.0108337 0.879084
-0.122846 -0.0123687 0.878619
-0.122865 -0.0139025 0.878199
-0.122972 -0.0154373 0.878303
-0.123132 -0.0169748 0.878714
-0.123347 -0.0185164 0.879448
-0.123546 -0.0200601 0.880092
-0.123778 -0.0216083 0.880925
-0.124025 -0.0231608 0.881845
-0.124243 -0.0247143 0.882595
-0.124445 -0.0262692 0.883249
-0.124608 -0.027823 0.883676
-0.1248 -0.0293812 0.88426
-0.124961 -0.0309386 0.884678
-0.125129 -0.0324984 0.885132
-0.125348 -0.0340675 0.885881
-0.125615 -0.0356463 0.886904
-0.125958 -0.0372415 0.888378
-0.126383 -0.0388557 0.890319
-0.126996 -0.0405109 0.893353
-0.127656 -0.0421857 0.896661
-0.128319 -0.0438726 0.899986
-0.128944 -0.0455623 0.903072
-0.129547 -0.0472584 0.906038
-0.129962 -0.0489212 0.907902
-0.13024 -0.0505584 0.908977
-0.130149 -0.0521078 0.907905
-0.130796 -0.0533647 0.901947
-0.129944 -0.0536256 0.906191
-0.130226 -0.054774 0.898152
-0.129658 -0.0551153 0.903991
-0.129526 -0.0576799 0.893086
-0.129678 -0.056177 0.894486
-0.129422 -0.056612 0.902085
-0.12953 -0.0582019 0.902179
-0.12996 -0.0598879 0.904133
-0.130438 -0.0615948 0.906353
-0.130971 -0.0633273 0.908893
-0.131548 -0.0650824 0.911679
-0.131888 -0.0667683 0.9131
-0.132259 -0.0684704 0.914704
-0.13259 -0.0701635 0.916069
-0.132934 -0.0718662 0.917506
-0.133341 -0.073598 0.91931
-0.133787 -0.0753501 0.921324
-0.134219 -0.0771046 0.923264
-0.134603 -0.0788461 0.92492
-0.134893 -0.0805549 0.926035
-0.135954 -0.0825925 0.93158
-0.137514 -0.0848623 0.93997
-0.139154 -0.0871952 0.948806
-0.140578 -0.0886388 0.946875
-0.143099 -0.0946967 0.959492
-0.142906 -0.0938274 0.968595
-0.142985 -0.0955237 0.968478
-0.14355 -0.0965574 0.961489
-0.143067 -0.0972216 0.968379
-0.122177 0.00617433 0.890228
-0.122217 0.00461949 0.889928
-0.122264 0.00306557 0.889665
-0.122271 0.00150896 0.889172
-0.122196 -5.21854e-05 0.888182
-0.122035 -0.00161607 0.886676
-0.121837 -0.0031781 0.884968
-0.121633 -0.00473435 0.883214
-0.121466 -0.00628393 0.881695
-0.121327 -0.00782819 0.880333
-0.121242 -0.00936734 0.879295
-0.121219 -0.0109031 0.878627
-0.121231 -0.0124372 0.878168
-0.121249 -0.0139703 0.877747
-0.121338 -0.0155042 0.877745
-0.121496 -0.0170406 0.878147
-0.121691 -0.0185806 0.878777
-0.121891 -0.0201233 0.87943
-0.122123 -0.0216706 0.880271
-0.122404 -0.0232247 0.881401
-0.12264 -0.0247793 0.882265
-0.12286 -0.0263358 0.883035
-0.123039 -0.0278904 0.883554
-0.123243 -0.0294506 0.88423
-0.123402 -0.0310079 0.884638
-0.123568 -0.0325675 0.885084
-0.123804 -0.0341391 0.885942
-0.12409 -0.0357211 0.887086
-0.12447 -0.0373234 0.888789
-0.124963 -0.0389514 0.891161
-0.12563 -0.0406191 0.894544
-0.126345 -0.0423073 0.8982
-0.127046 -0.0440054 0.901773
-0.127687 -0.0457035 0.904997
-0.128232 -0.0473909 0.907641
-0.128598 -0.0490468 0.909248
-0.128812 -0.0506718 0.909965
-0.128956 -0.0522813 0.910259
-0.128998 -0.0538656 0.909957
-0.128974 -0.0554316 0.90927
-0.128989 -0.0570066 0.908813
-0.129096 -0.0586075 0.908896
-0.129227 -0.0602159 0.909117
-0.129435 -0.0618495 0.909787
-0.129719 -0.0635102 0.910906
-0.130065 -0.0651946 0.912373
-0.1304 -0.0668813 0.913784
-0.130769 -0.068584 0.915378
-0.131094 -0.0702773 0.916725
-0.131474 -0.0719952 0.918383
-0.131902 -0.0737381 0.920333
-0.132365 -0.0755002 0.922465
-0.132811 -0.0772636 0.924506
-0.133227 -0.0790214 0.926363
-0.133537 -0.0807427 0.927615
-0.134317 -0.0826672 0.931577
-0.135787 -0.0849055 0.939536
-0.14237 -0.0919218 0.966096
-0.140387 -0.0918673 0.964444
-0.141164 -0.0938865 0.968362
-0.141289 -0.0956045 0.96851
-0.141425 -0.097329 0.968722
-0.120608 0.00610382 0.890152
-0.120648 0.00454847 0.889852
-0.120699 0.0029955 0.889608
-0.120692 0.00143781 0.889023
-0.120617 -0.000123377 0.888032
-0.120458 -0.00168719 0.886526
-0.120263 -0.00324863 0.884818
-0.120049 -0.0048052 0.882987
-0.119885 -0.0063544 0.881467
-0.11973 -0.00789857 0.879998
-0.119628 -0.00943746 0.878853
-0.119606 -0.0109725 0.878185
-0.11962 -0.0125059 0.877733
-0.11964 -0.0140383 0.877323
-0.119728 -0.0155714 0.877312
-0.119882 -0.0171072 0.877702
-0.120058 -0.0186457 0.878222
-0.120259 -0.0201877 0.878884
-0.120504 -0.0217351 0.879818
-0.120801 -0.02329 0.881058
-0.121054 -0.0248457 0.882032
-0.121291 -0.0264035 0.882913
-0.121485 -0.0279599 0.883533
-0.121688 -0.0295202 0.884209
-0.121847 -0.0310774 0.884618
-0.122012 -0.0326372 0.885063
-0.122262 -0.0342109 0.886014
-0.122565 -0.0357966 0.887276
-0.123044 -0.037416 0.889585
-0.123682 -0.0390711 0.89283
-0.124442 -0.0407605 0.896809
-0.125217 -0.0424665 0.900869
-0.125948 -0.0441762 0.904643
-0.126527 -0.0458671 0.907527
-0.126939 -0.0475311 0.909428
-0.127205 -0.0491666 0.910447
-0.127336 -0.0507737 0.910677
-0.127435 -0.052373 0.910706
-0.127445 -0.0539501 0.91022
-0.127427 -0.0555176 0.909561
-0.127464 -0.0570994 0.909231
-0.12759 -0.0587064 0.909425
-0.127723 -0.0603168 0.909664
-0.127951 -0.0619582 0.910462
-0.128235 -0.06362 0.911581
-0.128579 -0.0653063 0.913057
-0.128906 -0.0669928 0.914441
-0.12927 -0.0686962 0.916026
-0.129596 -0.0703919 0.91739
-0.129996 -0.0721198 0.919185
-0.130441 -0.0738713 0.921245
-0.1309 -0.0756357 0.923387
-0.13136 -0.0774071 0.925519
-0.131769 -0.0791663 0.927367
-0.13208 -0.08089 0.928628
-0.132811 -0.0827985 0.932342
-0.134234 -0.0850235 0.9401
-0.137337 -0.0872054 0.947942
-0.135736 -0.0873103 0.948313
-0.138916 -0.089547 0.95651
-0.137213 -0.0896138 0.956377
-0.138608 -0.0919052 0.963946
-0.139388 -0.0939283 0.967918
-0.13953 -0.0956541 0.968167
-0.139705 -0.0973976 0.968608
-0.118975 0.0060256 0.889679
-0.119032 0.00447308 0.889481
-0.119095 0.00292119 0.88932
-0.119081 0.00136331 0.888688
-0.119026 -0.000195516 0.8878
-0.118884 -0.00175804 0.886395
-0.118706 -0.00331806 0.88477
-0.118498 -0.00487467 0.88296
-0.118351 -0.00642313 0.881526
-0.118181 -0.0079679 0.879955
-0.118077 -0.00950667 0.878785
-0.118043 -0.0110416 0.878037
-0.118045 -0.0125748 0.877509
-0.118068 -0.0141067 0.877109
-0.118153 -0.0156395 0.877088
-0.118305 -0.017175 0.877471
-0.118465 -0.0187124 0.877898
-0.118661 -0.0202538 0.878548
-0.118904 -0.0218007 0.879476
-0.119199 -0.0233552 0.88071
-0.119436 -0.0249092 0.881605
-0.119688 -0.0264677 0.88258
-0.119898 -0.0280259 0.883311
-0.120088 -0.0295839 0.883903
-0.120262 -0.0311428 0.884413
-0.120442 -0.0327052 0.884969
-0.12069 -0.0342787 0.88591
-0.12104 -0.035872 0.887466
-0.121671 -0.0375185 0.890721
-0.122444 -0.0392006 0.894811
-0.123307 -0.0409141 0.899441
-0.124152 -0.0426389 0.903941
-0.124864 -0.0443532 0.907669
-0.125307 -0.0460206 0.909763
-0.125566 -0.0476538 0.910755
-0.125714 -0.0492645 0.911086
-0.125766 -0.0508528 0.910839
-0.12581 -0.0524393 0.910556
-0.125806 -0.054012 0.909979
-0.125825 -0.0555888 0.90953
-0.125881 -0.0571765 0.90932
-0.126025 -0.0587891 0.909624
-0.126177 -0.0604054 0.909973
-0.126424 -0.0620537 0.91089
-0.126708 -0.0637175 0.912027
-0.127065 -0.0654105 0.913604
-0.12739 -0.0670974 0.914978
-0.127768 -0.0688079 0.916664
-0.128113 -0.0705121 0.918148
-0.128514 -0.0722438 0.919979
-0.12896 -0.0739987 0.922066
-0.129413 -0.0757635 0.924189
-0.129848 -0.0775283 0.926202
-0.130237 -0.079281 0.92794
-0.130563 -0.0810138 0.929311
-0.131513 -0.0830219 0.934361
-0.13292 -0.0852504 0.942109
-0.134371 -0.0875236 0.950093
-0.135824 -0.0898257 0.958093
-0.13717 -0.0921037 0.965451
-0.137699 -0.0940113 0.967978
-0.137838 -0.0957365 0.968218
-0.138054 -0.0975019 0.968915
-0.117363 0.00594936 0.889336
-0.11743 0.00439835 0.889202
-0.117499 0.00284779 0.889078
-0.117489 0.00129086 0.888456
-0.117452 -0.000267002 0.887687
-0.117346 -0.00182659 0.886476
-0.11719 -0.00338576 0.88497
-0.116984 -0.00494239 0.883159
-0.116839 -0.00649119 0.881721
-0.116683 -0.00803576 0.880217
-0.116567 -0.00957523 0.87896
-0.116517 -0.0111105 0.878117
-0.11652 -0.0126438 0.877589
-0.116542 -0.0141759 0.877181
-0.116612 -0.0157085 0.877067
-0.116764 -0.0172439 0.87745
-0.116923 -0.0187814 0.877878
-0.117102 -0.0203219 0.878427
-0.117326 -0.0218676 0.87925
-0.117598 -0.0234203 0.88037
-0.117801 -0.024971 0.881062
-0.118034 -0.0265273 0.881936
-0.118259 -0.0280857 0.882757
-0.118465 -0.0296457 0.883469
-0.118658 -0.0312063 0.884098
-0.118872 -0.0327721 0.884847
-0.119148 -0.0343505 0.885981
-0.119677 -0.0359736 0.888649
-0.120461 -0.0376482 0.892849
-0.121374 -0.0393614 0.897838
-0.122337 -0.0411007 0.903119
-0.123185 -0.0428348 0.907692
-0.123709 -0.0445163 0.9103
-0.123989 -0.0461538 0.911439
-0.124095 -0.0477556 0.911523
-0.124133 -0.0493408 0.911184
-0.124146 -0.0509199 0.910708
-0.124171 -0.0525008 0.910305
-0.12417 -0.0540742 0.909746
-0.124208 -0.0556564 0.909417
-0.124297 -0.0572522 0.909391
-0.124459 -0.0588713 0.909813
-0.124646 -0.0604989 0.910373
-0.12491 -0.0621538 0.9114
-0.12521 -0.0638252 0.912656
-0.125565 -0.0655187 0.914224
-0.125906 -0.0672138 0.915717
-0.126285 -0.0689275 0.91743
-0.126632 -0.0706347 0.918941
-0.12703 -0.072368 0.920772
-0.127488 -0.0741297 0.922942
-0.127919 -0.0758895 0.924964
-0.128334 -0.0776489 0.926876
-0.128718 -0.079403 0.928614
-0.129222 -0.081214 0.931056
-0.130344 -0.0833049 0.937185
-0.131723 -0.0855319 0.944841
-0.133156 -0.087809 0.952806
-0.134532 -0.090086 0.960422
-0.135624 -0.0922533 0.966343
-0.135924 -0.094053 0.967534
-0.136081 -0.0957868 0.967884
-0.136303 -0.0975548 0.968618
-0.115711 0.00742705 0.889292
-0.115782 0.00587699 0.889177
-0.115853 0.00432692 0.889062
-0.115924 0.00277677 0.888946
-0.11593 0.00122113 0.888426
-0.115898 -0.000336165 0.887675
-0.115826 -0.00189418 0.886676
-0.115691 -0.00345223 0.885281
-0.115489 -0.00500924 0.883482
-0.115335 -0.00655895 0.881969
-0.115194 -0.00810364 0.880548
-0.115079 -0.00964354 0.879282
-0.115014 -0.0111794 0.878334
-0.11503 -0.0127131 0.877885
-0.115065 -0.014246 0.877554
-0.115136 -0.0157791 0.877443
-0.115273 -0.0173148 0.877743
-0.115431 -0.0188528 0.878167
-0.115576 -0.020392 0.878516
-0.115764 -0.0219357 0.879129
-0.115999 -0.0234854 0.880029
-0.116165 -0.0250323 0.8805
-0.116375 -0.0265857 0.881245
-0.116612 -0.028145 0.882158
-0.116836 -0.0297064 0.882989
-0.117049 -0.031269 0.883747
-0.117309 -0.032841 0.884789
-0.117668 -0.0344319 0.886438
-0.118341 -0.0360799 0.890014
-0.119277 -0.037785 0.895197
-0.120309 -0.0395251 0.900957
-0.121305 -0.0412782 0.906495
-0.12208 -0.0430054 0.910673
-0.122458 -0.0446623 0.912418
-0.122585 -0.0462697 0.912629
-0.122564 -0.0478441 0.911942
-0.122544 -0.0494164 0.911254
-0.122537 -0.0509901 0.91065
-0.12255 -0.0525675 0.910164
-0.122553 -0.0541406 0.909615
-0.122624 -0.0557321 0.909487
-0.122733 -0.0573346 0.909589
-0.122896 -0.0589543 0.910021
-0.123099 -0.060588 0.910691
-0.12336 -0.0622436 0.911718
-0.123661 -0.0639157 0.912974
-0.124014 -0.065611 0.914559
-0.124391 -0.0673201 0.916282
-0.124771 -0.069036 0.918013
-0.125149 -0.0707581 0.919744
-0.125545 -0.0724922 0.921566
-0.125995 -0.074255 0.923726
-0.126403 -0.0760083 0.925629
-0.126814 -0.077769 0.927541
-0.127163 -0.0795102 0.929077
-0.127657 -0.0813196 0.931482
-0.128696 -0.0833794 0.937172
-0.130012 -0.085585 0.944535
-0.131388 -0.0878417 0.952235
-0.132733 -0.0901106 0.95975
-0.133798 -0.0922683 0.965561
-0.134139 -0.0940894 0.967027
-0.134318 -0.0958332 0.967505
-0.134536 -0.0975991 0.96822
-0.137546 -0.0998533 0.975403
-0.134709 -0.0993448 0.96867
-0.114153 0.00735731 0.889271
-0.114224 0.00580725 0.889156
-0.114294 0.00425719 0.889041
-0.114365 0.00270703 0.888925
-0.114388 0.0011529 0.888506
-0.114374 -0.00040369 0.887866
-0.114322 -0.00196016 0.886977
-0.114207 -0.00351761 0.885693
-0.114012 -0.00507539 0.883918
-0.113858 -0.00662574 0.88239
-0.113719 -0.00817106 0.880972
-0.113591 -0.00971182 0.879614
-0.113513 -0.0112483 0.878574
-0.113541 -0.0127825 0.878195
-0.113576 -0.0143159 0.877859
-0.113648 -0.0158496 0.87776
-0.113786 -0.017386 0.878067
-0.113942 -0.0189246 0.87849
-0.114067 -0.0204632 0.878713
-0.114218 -0.0220048 0.879107
-0.114402 -0.0235505 0.879696
-0.114528 -0.0250936 0.879929
-0.114717 -0.0266441 0.880552
-0.114951 -0.0282021 0.881452
-0.115177 -0.0297627 0.882307
-0.115425 -0.0313289 0.883285
-0.115764 -0.0329123 0.884842
-0.116306 -0.034532 0.887639
-0.117131 -0.036208 0.892198
-0.118217 -0.0379451 0.898362
-0.119307 -0.0397032 0.904535
-0.120253 -0.0414551 0.909824
-0.120853 -0.0431537 0.912964
-0.121096 -0.0447863 0.913892
-0.121099 -0.0463689 0.913351
-0.121025 -0.0479308 0.912315
-0.120969 -0.0494951 0.911407
-0.120948 -0.0510648 0.910702
-0.120946 -0.0526389 0.910134
-0.12095 -0.0542118 0.909584
-0.121025 -0.0558041 0.909475
-0.121151 -0.057412 0.909687
-0.121317 -0.0590329 0.910137
-0.121539 -0.0606736 0.910935
-0.121815 -0.0623351 0.912063
-0.122129 -0.0640139 0.913429
-0.122481 -0.0657102 0.915014
-0.122891 -0.0674331 0.916957
-0.123271 -0.0691513 0.918706
-0.123648 -0.070876 0.920455
-0.124019 -0.0726033 0.922148
-0.124462 -0.0743654 0.924281
-0.124851 -0.0761131 0.926084
-0.12526 -0.0778754 0.928004
-0.125588 -0.0796099 0.92943
-0.12608 -0.0814214 0.931854
-0.127286 -0.0835612 0.938614
-0.128582 -0.0857663 0.945931
-0.129909 -0.0880099 0.95342
-0.131232 -0.0902755 0.960862
-0.132271 -0.0924291 0.96659
-0.132421 -0.0941573 0.966904
-0.132599 -0.0959009 0.967381
-0.132719 -0.0976175 0.967521
-0.132765 -0.0992952 0.967203
-0.112593 0.00728753 0.88925
-0.112664 0.00573748 0.889135
-0.112735 0.00418741 0.88902
-0.112792 0.00263563 0.888812
-0.112816 0.00108191 0.888393
-0.112803 -0.000474062 0.887753
-0.112771 -0.00202935 0.886984
-0.112674 -0.00358605 0.885801
-0.112512 -0.00514269 0.884223
-0.112374 -0.00669277 0.882779
-0.112253 -0.00823829 0.881456
-0.112112 -0.00978009 0.880005
-0.11202 -0.0113172 0.878869
-0.11205 -0.0128519 0.878498
-0.112085 -0.0143859 0.878164
-0.112162 -0.0159203 0.878093
-0.1123 -0.0174573 0.878407
-0.112452 -0.0189964 0.878806
-0.112557 -0.0205343 0.878906
-0.112674 -0.0220739 0.879085
-0.112807 -0.0236158 0.879369
-0.112898 -0.0251551 0.879384
-0.113066 -0.0267029 0.879884
-0.113283 -0.0282581 0.880691
-0.113496 -0.0298159 0.881469
-0.113789 -0.0313876 0.88275
-0.114272 -0.0329912 0.885216
-0.114959 -0.034635 0.888959
-0.115932 -0.0363396 0.894491
-0.117086 -0.0380945 0.901142
-0.118115 -0.0398486 0.907002
-0.118919 -0.0415786 0.911455
-0.119378 -0.0432523 0.913751
-0.119503 -0.0448611 0.913953
-0.119478 -0.0464369 0.913229
-0.119408 -0.0479999 0.91222
-0.119353 -0.0495636 0.911303
-0.119329 -0.0511323 0.910579
-0.119329 -0.0527056 0.910002
-0.119334 -0.0542796 0.909471
-0.119424 -0.0558764 0.909463
-0.119568 -0.0574896 0.909785
-0.119752 -0.0591166 0.910354
-0.119991 -0.0607634 0.911262
-0.120283 -0.0624314 0.9125
-0.120613 -0.0641166 0.913966
-0.120962 -0.0658146 0.915561
-0.121369 -0.0675386 0.917503
-0.121745 -0.0692585 0.919262
-0.122121 -0.0709836 0.921001
-0.122489 -0.0727126 0.922704
-0.12293 -0.0744765 0.924845
-0.12333 -0.0762315 0.926739
-0.123738 -0.0779964 0.928678
-0.12408 -0.0797385 0.930196
-0.124737 -0.0816268 0.933662
-0.125898 -0.083756 0.94023
-0.127127 -0.0859389 0.947208
-0.128434 -0.088181 0.954642
-0.129722 -0.0904393 0.961955
-0.130589 -0.0925148 0.966687
-0.130764 -0.0942561 0.967155
-0.13094 -0.0960002 0.967633
-0.132136 -0.0982819 0.974364
-0.111035 0.0072178 0.889229
-0.111088 0.00566581 0.888995
