ply
format ascii 1.0
element vertex 1630
property float x
property float y
property float z
end_header
0.000898112 -0.300233 0.613038
0.000993878 -0.300878 0.612505
0.0010899 -0.301462 0.611859
0.00118699 -0.302036 0.611196
0.00128147 -0.302767 0.610828
0.00137621 -0.303448 0.610368
0.00146996 -0.304188 0.610017
0.0015626 -0.305018 0.609833
0.00165511 -0.305841 0.609633
0.00174913 -0.306597 0.60931
0.00184115 -0.307519 0.609289
0.00193256 -0.308477 0.609329
0.0020244 -0.309409 0.609318
0.00211515 -0.310439 0.609482
0.00220684 -0.311399 0.609516
0.00229832 -0.312416 0.609649
0.0023891 -0.313524 0.609939
0.00247947 -0.314695 0.610335
0.00257044 -0.315852 0.610701
0.00266133 -0.317031 0.611099
0.00275424 -0.31807 0.611247
0.00284773 -0.31904 0.61127
0.00294228 -0.319919 0.611131
0.00303791 -0.32071 0.610839
0.00313401 -0.321386 0.610349
0.00323035 -0.322024 0.609793
0.00332844 -0.322455 0.608883
0.00342648 -0.322874 0.607957
0.00352441 -0.323233 0.606934
0.00362206 -0.323597 0.605924
0.00371952 -0.323993 0.604973
0.00381523 -0.324527 0.604257
0.00391063 -0.325069 0.603557
0.00400617 -0.325679 0.602973
0.00410194 -0.32635 0.602491
0.00419745 -0.326904 0.601817
0.00429302 -0.32747 0.601165
0.00438854 -0.328117 0.600647
0.00448283 -0.328783 0.600162
0.00457728 -0.329554 0.599848
0.00467217 -0.330443 0.599726
0.00476685 -0.331323 0.599586
0.00486183 -0.332112 0.5993
0.00495687 -0.332958 0.599103
0.00505141 -0.33384 0.598962
0.0051473 -0.33474 0.59885
0.00524206 -0.335665 0.598773
0.00533785 -0.336582 0.598683
0.00543282 -0.337553 0.598674
0.00552891 -0.33848 0.598595
-0.0023255 -0.274968 0.638939
-0.00223216 -0.275801 0.638754
-0.00213822 -0.276608 0.638513
-0.00204686 -0.277511 0.63848
-0.00195916 -0.278506 0.638651
-0.00186919 -0.279461 0.638725
-0.00178006 -0.280434 0.638838
-0.00169024 -0.28141 0.63895
-0.00159753 -0.282293 0.638857
-0.00150353 -0.283123 0.638647
-0.00140611 -0.283865 0.638246
-0.00130554 -0.284499 0.637611
-0.00120422 -0.285101 0.636912
-0.00110388 -0.285733 0.636278
-0.0010044 -0.286399 0.635718
-0.00090785 -0.287141 0.635322
-0.000810564 -0.287886 0.63493
-0.000713543 -0.288629 0.634534
-0.000613844 -0.289271 0.633928
-0.000513519 -0.289876 0.633248
-0.000413164 -0.290475 0.632557
-0.000310449 -0.291 0.631715
-0.000206095 -0.291423 0.630669
-0.000100858 -0.291778 0.629491
6.69211e-06 -0.292045 0.62814
0.000114746 -0.292231 0.626631
0.000224115 -0.292349 0.624997
0.000332373 -0.292514 0.623467
0.000438675 -0.292727 0.622042
0.00054409 -0.292967 0.620678
0.000647607 -0.293291 0.61949
0.000746959 -0.293767 0.618609
0.000844941 -0.294333 0.617908
0.000942039 -0.294933 0.617275
0.0010378 -0.295603 0.616783
0.00113339 -0.296243 0.616231
0.00123055 -0.296858 0.615633
0.00132661 -0.297468 0.615027
0.00142223 -0.29813 0.614523
0.00151837 -0.298774 0.613986
0.00161314 -0.299444 0.613499
0.00170841 -0.30014 0.613063
0.00180374 -0.300785 0.61253
0.00189988 -0.301374 0.611892
0.00199571 -0.301953 0.611238
0.00209006 -0.302708 0.610916
0.00218471 -0.303414 0.610502
0.00227879 -0.304157 0.610155
0.0023709 -0.305013 0.610017
0.00246418 -0.305886 0.609908
0.00255809 -0.306645 0.60959
0.00265037 -0.307566 0.609563
0.00274312 -0.308519 0.609595
0.00283528 -0.309424 0.609534
0.00292758 -0.310403 0.609606
0.00302103 -0.311358 0.609631
0.0031138 -0.312353 0.609722
0.00320582 -0.313463 0.610016
0.00329729 -0.314638 0.61042
0.00338904 -0.315824 0.610836
0.00348211 -0.316979 0.611192
0.00357539 -0.318014 0.611332
0.00367015 -0.318979 0.611346
0.00376503 -0.31986 0.611211
0.00386066 -0.320659 0.610931
0.00395627 -0.321398 0.610548
0.004053 -0.322072 0.610054
0.00414976 -0.322566 0.60925
0.00424659 -0.32302 0.608382
0.00434319 -0.323409 0.607408
0.00444006 -0.323745 0.606349
0.00453613 -0.32413 0.605377
0.00463201 -0.324599 0.604549
0.00472736 -0.325108 0.603792
0.00482267 -0.325657 0.603105
0.00491787 -0.326323 0.602615
0.00501283 -0.326873 0.601933
0.0051078 -0.327441 0.601284
0.00520277 -0.328091 0.600771
0.00529776 -0.328785 0.60033
0.00539251 -0.329529 0.599972
0.00548753 -0.330386 0.599796
0.00558261 -0.331235 0.599608
0.00567722 -0.331993 0.599269
0.00577319 -0.332838 0.599072
0.00586819 -0.33372 0.598931
0.00596423 -0.334618 0.598814
0.00605997 -0.335517 0.598697
0.00615532 -0.336401 0.598554
0.00625165 -0.337345 0.598505
0.00634803 -0.338242 0.598378
0.00562895 -0.341637 0.602005
0.006444 -0.33915 0.598266
-0.00150094 -0.274947 0.639149
-0.00140587 -0.275748 0.638895
-0.00131054 -0.276541 0.638618
-0.00121765 -0.277388 0.638463
-0.00112677 -0.278335 0.638525
-0.00103513 -0.279236 0.638482
-0.000944137 -0.280183 0.638538
-0.000852971 -0.281132 0.638594
-0.000759372 -0.282015 0.638501
-0.000665279 -0.282864 0.638335
-0.000568794 -0.283632 0.63799
-0.000469394 -0.284294 0.637416
-0.000369885 -0.284949 0.636829
-0.000270633 -0.285609 0.636256
-0.000171363 -0.286277 0.6357
-7.43306e-05 -0.28702 0.635304
2.27065e-05 -0.287763 0.634908
0.000119738 -0.288505 0.634512
0.000218525 -0.289147 0.633906
0.000317932 -0.289753 0.633226
0.000418508 -0.29035 0.63253
0.00051925 -0.2909 0.63174
0.000622842 -0.291332 0.630711
0.000725792 -0.291721 0.629602
0.000831055 -0.292018 0.62831
0.000937312 -0.292205 0.626802
0.0010445 -0.292343 0.625206
0.00114946 -0.29253 0.623719
0.00125405 -0.292748 0.622302
0.00135827 -0.292967 0.620895
0.0014603 -0.293283 0.61969
0.00155988 -0.293702 0.618694
0.0016581 -0.294215 0.617887
0.0017552 -0.294814 0.617254
0.00184988 -0.295513 0.616817
0.00194543 -0.296186 0.616329
0.00204081 -0.296827 0.615782
0.00213705 -0.297468 0.615235
0.00223245 -0.298129 0.614726
0.00232784 -0.298744 0.614133
0.00242368 -0.299386 0.613592
0.00251881 -0.300052 0.613096
0.00261435 -0.300695 0.612559
0.00270986 -0.301286 0.611926
0.00280535 -0.301869 0.61128
0.0028994 -0.302652 0.611008
0.00299396 -0.303383 0.61064
0.00308762 -0.304126 0.610293
0.00318098 -0.304985 0.610159
0.00327403 -0.305885 0.6101
0.00336817 -0.306643 0.609777
0.00346133 -0.307541 0.609709
0.0035546 -0.308494 0.60974
0.00364835 -0.309397 0.609675
0.00374184 -0.310349 0.609696
0.00383506 -0.311302 0.609717
0.00392894 -0.312294 0.609804
0.00402209 -0.313402 0.610093
0.00411555 -0.314582 0.610506
0.00420902 -0.31577 0.610925
0.0043035 -0.316899 0.611236
0.00439851 -0.317929 0.611367
0.00449345 -0.318866 0.611331
0.00458909 -0.319749 0.611201
0.00468489 -0.320586 0.610987
0.00478074 -0.32139 0.610715
0.00487671 -0.322125 0.610323
0.00497238 -0.322706 0.609668
0.00506848 -0.323187 0.608844
0.00516423 -0.323606 0.607919
0.00525986 -0.323937 0.606847
0.00535501 -0.324296 0.605829
0.00545013 -0.324707 0.604903
0.00554482 -0.325185 0.604092
0.00563917 -0.325671 0.603299
0.00573456 -0.326276 0.602706
0.00582865 -0.326819 0.602012
0.00592319 -0.327388 0.601363
0.00601806 -0.328041 0.600853
0.00611291 -0.328737 0.600417
0.00620799 -0.329476 0.60005
0.00630296 -0.330296 0.599813
0.00639847 -0.331115 0.599576
0.0064936 -0.331847 0.599196
0.00658958 -0.332693 0.598999
0.00668504 -0.333575 0.598859
0.00678154 -0.334472 0.598742
0.00687774 -0.335371 0.598624
0.00697413 -0.336286 0.598531
0.00707095 -0.33723 0.598481
0.00716692 -0.338127 0.598354
0.00726425 -0.339035 0.598242
-0.000673068 -0.274888 0.639277
-0.00057808 -0.275671 0.638978
-0.00048209 -0.27645 0.638671
-0.000387989 -0.277266 0.638446
-0.00029467 -0.278158 0.638386
-0.00020038 -0.279005 0.638226
-0.000107727 -0.279903 0.638174
-1.54575e-05 -0.280823 0.638169
7.89563e-05 -0.281701 0.638068
0.000173456 -0.28255 0.637901
0.000269394 -0.283344 0.637613
0.000367374 -0.284057 0.637152
0.000465292 -0.284744 0.636635
0.000563697 -0.285434 0.636126
0.000662084 -0.286129 0.635626
0.000759115 -0.286872 0.63523
0.000856153 -0.287614 0.634834
0.000953184 -0.288357 0.634438
0.00105125 -0.288997 0.633828
0.00115112 -0.289603 0.633148
0.0012505 -0.290198 0.632448
0.00135 -0.290775 0.631714
0.0014517 -0.291236 0.630745
0.00155378 -0.29166 0.629704
0.00165622 -0.291983 0.628464
0.00176087 -0.292167 0.626951
0.00186567 -0.292328 0.625398
0.00196912 -0.292518 0.623915
0.00207125 -0.292739 0.622502
0.00217373 -0.292933 0.621044
0.00227454 -0.293243 0.619826
0.00237393 -0.293609 0.618724
0.00247145 -0.294094 0.617862
0.0025681 -0.294693 0.617229
0.00266281 -0.295419 0.616842
0.00275775 -0.29612 0.616409
0.00285283 -0.296792 0.615921
0.00294777 -0.29746 0.615425
0.00304341 -0.298129 0.614933
0.0031384 -0.298746 0.61434
0.00323394 -0.299359 0.613743
0.00332912 -0.299992 0.613185
0.00342477 -0.300628 0.612635
0.00351986 -0.30122 0.612001
0.00361503 -0.301808 0.611364
0.00370889 -0.302623 0.611151
0.00380353 -0.303377 0.610824
0.00389752 -0.304122 0.610481
0.00399141 -0.304981 0.610347
0.00408508 -0.305887 0.610296
0.00417948 -0.306624 0.609935
0.00427342 -0.307495 0.609817
0.00436753 -0.308444 0.609839
0.00446139 -0.309321 0.609728
0.00455588 -0.310248 0.609703
0.00465 -0.311227 0.60977
0.00474471 -0.312214 0.609848
0.00483929 -0.313296 0.610091
0.004934 -0.314497 0.610541
0.00502979 -0.315685 0.61096
0.00512492 -0.316786 0.611221
0.00522058 -0.317813 0.611348
0.00531662 -0.318748 0.611308
0.00541272 -0.319631 0.611177
0.00550873 -0.320499 0.611017
0.00560499 -0.321365 0.610852
0.00570142 -0.322163 0.610567
0.00579736 -0.322831 0.61006
0.00589286 -0.323344 0.60929
0.00598772 -0.323794 0.608413
0.00608176 -0.324152 0.607386
0.00617613 -0.324513 0.606368
0.00626989 -0.324898 0.605396
0.00636452 -0.325379 0.604589
0.00645854 -0.325837 0.603746
0.00655177 -0.326377 0.603043
0.00664605 -0.326889 0.602295
0.0067399 -0.327426 0.601593
0.00683429 -0.328027 0.600997
0.00692869 -0.328694 0.600512
0.00702359 -0.329399 0.600088
0.00711867 -0.330186 0.599798
0.00721424 -0.330973 0.599508
0.00730908 -0.331703 0.599124
0.00740536 -0.33255 0.598931
0.0075016 -0.333435 0.598794
0.00759844 -0.334335 0.598682
0.00769523 -0.335231 0.59856
0.00779284 -0.336174 0.598511
0.00788968 -0.337118 0.598461
0.00798762 -0.33802 0.598342
0.00808513 -0.338925 0.598226
0.000154044 -0.274864 0.639482
0.000250117 -0.275622 0.639127
0.000346205 -0.276376 0.638763
0.000442625 -0.277144 0.638429
0.000537432 -0.277981 0.638247
0.000633424 -0.278775 0.63797
0.000727471 -0.279616 0.637796
0.000821595 -0.280511 0.637735
0.000915913 -0.281388 0.637634
0.00101056 -0.282238 0.637472
0.00110574 -0.283059 0.637245
0.00120304 -0.283826 0.636901
0.00130054 -0.284543 0.636449
0.00139755 -0.28526 0.635996
0.00149553 -0.285981 0.635553
0.00159256 -0.286723 0.635157
0.0016896 -0.287466 0.634761
0.00178663 -0.288209 0.634365
0.00188512 -0.288826 0.633707
0.00198427 -0.28943 0.633023
0.00208245 -0.290023 0.632319
0.0021822 -0.290602 0.631589
0.00228238 -0.291089 0.630672
0.00238168 -0.291561 0.629729
0.00248328 -0.291888 0.628497
0.00258605 -0.292099 0.627036
0.00268824 -0.292283 0.62553
0.00278894 -0.292474 0.624047
0.0028906 -0.292676 0.622596
0.00299072 -0.292866 0.621129
0.00309042 -0.29315 0.619856
0.00318866 -0.293488 0.618699
0.00328553 -0.293949 0.61779
0.00338172 -0.294549 0.617157
0.00347643 -0.295274 0.61677
0.00357113 -0.295999 0.616384
0.0036656 -0.2967 0.615951
0.00376071 -0.297399 0.615514
0.00385505 -0.298095 0.615072
0.00395018 -0.298716 0.614488
0.00404597 -0.299306 0.613844
0.00414099 -0.299908 0.613227
0.00423555 -0.300513 0.612618
0.00433066 -0.301105 0.611984
0.00442549 -0.30172 0.611397
0.00451933 -0.302564 0.611239
0.0046137 -0.303345 0.610962
0.00470823 -0.304143 0.610715
0.00480246 -0.305005 0.610585
0.00489695 -0.305913 0.610538
0.00499113 -0.306649 0.610173
0.00508548 -0.307515 0.610045
0.00518038 -0.308437 0.610018
0.00527492 -0.309313 0.609902
0.00537101 -0.310218 0.60984
0.00546564 -0.311197 0.609906
0.00556135 -0.312159 0.609938
0.0056568 -0.313211 0.610127
0.00575281 -0.314382 0.610523
0.00585016 -0.315567 0.610938
0.00594684 -0.31664 0.611148
0.00604342 -0.317667 0.611275
0.00614008 -0.318599 0.611231
0.00623641 -0.319506 0.611142
0.00633338 -0.3204 0.611027
0.00643014 -0.3213 0.610919
0.00652664 -0.322131 0.610692
0.00662306 -0.322862 0.610291
0.00671799 -0.323386 0.609537
0.00681195 -0.323865 0.60871
0.0069061 -0.324287 0.607789
0.00699886 -0.324675 0.606816
0.00709254 -0.325071 0.60586
0.00718593 -0.325576 0.60509
0.00727915 -0.326005 0.604197
0.00737202 -0.326487 0.603395
0.00746485 -0.326965 0.60259
0.00755797 -0.327471 0.601835
0.00765144 -0.328013 0.601141
0.00774509 -0.328649 0.600603
0.00783935 -0.329319 0.600121
0.00793482 -0.330076 0.599783
0.00803003 -0.33083 0.59944
0.00812509 -0.331588 0.599101
0.00822243 -0.332466 0.598956
0.00831957 -0.333383 0.598872
0.00841704 -0.334314 0.598807
0.00851477 -0.33521 0.598686
0.00861243 -0.336153 0.598636
0.00871039 -0.33707 0.598542
0.00880808 -0.337943 0.598378
0.00890557 -0.338815 0.59821
0.000983513 -0.274759 0.639505
0.00108006 -0.275509 0.639132
0.00117658 -0.276256 0.63875
0.00127355 -0.276998 0.63836
0.00136941 -0.277784 0.638065
0.00146538 -0.278548 0.637723
0.00156161 -0.27934 0.637441
0.00165636 -0.280206 0.637319
0.00175128 -0.281081 0.637214
0.00184568 -0.281936 0.637065
0.00194177 -0.282787 0.636903
0.00203787 -0.283604 0.636667
0.00213491 -0.284347 0.636271
0.00223194 -0.285089 0.635875
0.00232898 -0.285832 0.635479
0.00242601 -0.286575 0.635083
0.00252304 -0.287318 0.634687
0.00261977 -0.288036 0.634239
0.002718 -0.288652 0.633577
0.00281713 -0.289256 0.632894
0.00291511 -0.28985 0.632194
0.00301405 -0.290405 0.631413
0.00311276 -0.290887 0.630487
0.00321169 -0.291334 0.629494
0.00331161 -0.291659 0.628258
0.00341209 -0.291874 0.626805
0.00351193 -0.292088 0.625359
0.00361172 -0.292309 0.623936
0.00371048 -0.292532 0.622527
0.00380876 -0.292723 0.621061
0.00390635 -0.293005 0.619784
0.0040032 -0.293343 0.618627
0.00409943 -0.293781 0.617671
0.00419488 -0.294378 0.617034
0.0042893 -0.295101 0.616643
0.00438427 -0.295828 0.616261
0.00447923 -0.296555 0.615879
0.00457369 -0.297304 0.615539
0.0046684 -0.29803 0.615152
0.00476336 -0.298653 0.614572
0.00485772 -0.299239 0.61392
0.00495203 -0.299817 0.613256
0.00504744 -0.300396 0.612597
0.0051418 -0.300985 0.611959
0.00523613 -0.30163 0.611426
0.00533056 -0.302478 0.611276
0.0054252 -0.303291 0.611058
0.00552011 -0.304114 0.610857
0.00561495 -0.304981 0.610735
0.0057092 -0.305887 0.610683
0.00580453 -0.306621 0.610314
0.00589954 -0.307455 0.610128
0.0059946 -0.308345 0.610042
0.00609054 -0.30922 0.609926
0.00618505 -0.310099 0.609813
0.00628209 -0.311082 0.609888
0.006378 -0.312042 0.609916
0.00647457 -0.313066 0.610055
0.00657186 -0.31418 0.610351
0.00667046 -0.31536 0.610757
0.00676803 -0.316432 0.610968
0.00686582 -0.317462 0.611099
0.00696319 -0.318396 0.611059
0.00706013 -0.319301 0.610965
0.00715769 -0.320192 0.610846
0.0072549 -0.321091 0.610739
0.00735189 -0.321956 0.61057
0.00744894 -0.322725 0.610235
0.00754283 -0.323307 0.60958
0.00763672 -0.323822 0.608814
0.00773035 -0.324303 0.607991
0.00782252 -0.324701 0.607034
0.00791546 -0.325154 0.606173
0.00800892 -0.325689 0.605451
0.00810041 -0.32609 0.604509
0.00819196 -0.326514 0.603609
0.00828409 -0.326982 0.602787
0.00837617 -0.327455 0.601974
0.00846793 -0.327935 0.601179
0.00856238 -0.328596 0.600681
0.00865606 -0.329261 0.600192
0.00875104 -0.329988 0.599804
0.00884603 -0.330715 0.599416
0.00894182 -0.3315 0.599122
0.00903902 -0.332381 0.598981
0.00913758 -0.333306 0.598909
0.00923586 -0.33424 0.598848
0.00933406 -0.335161 0.598767
0.00943268 -0.336105 0.598717
0.00953113 -0.336995 0.598582
0.009629 -0.337867 0.598414
0.00972602 -0.338731 0.598234
0.00181344 -0.27465 0.639519
0.00191018 -0.275391 0.639124
0.00200692 -0.276131 0.638729
0.00210365 -0.276872 0.638335
0.00220039 -0.277612 0.63794
0.00229712 -0.278353 0.637545
0.00239358 -0.279117 0.637202
0.00248898 -0.279981 0.637076
0.00258384 -0.280855 0.636971
0.0026794 -0.281738 0.636883
0.00277475 -0.282613 0.636773
0.00287131 -0.283456 0.636593
0.00296835 -0.284198 0.636197
0.00306538 -0.284941 0.635801
0.00316241 -0.285684 0.635405
0.00325945 -0.286427 0.635009
0.00335648 -0.28717 0.634613
0.00345386 -0.287864 0.634114
0.00355108 -0.288475 0.633443
0.00364902 -0.289077 0.632756
0.00374766 -0.289651 0.632013
0.00384543 -0.290155 0.631129
0.00394406 -0.290633 0.630195
0.00404199 -0.291046 0.629134
0.00414016 -0.29135 0.627855
0.00423799 -0.291593 0.626459
0.00433591 -0.291836 0.625073
0.00443337 -0.292086 0.62371
0.00452992 -0.292334 0.622348
0.00462678 -0.29255 0.620934
0.00472276 -0.292834 0.619661
0.00481821 -0.293198 0.618555
0.00491324 -0.293634 0.617595
0.00500776 -0.294206 0.616907
0.00510309 -0.294928 0.616516
0.00519731 -0.295653 0.61613
0.00529254 -0.296382 0.615752
0.00538708 -0.297136 0.615421
0.00548202 -0.297885 0.61508
0.0055758 -0.298507 0.614496
0.00567042 -0.299094 0.613848
0.00576492 -0.29967 0.61318
0.00585894 -0.300249 0.612521
0.00595313 -0.300841 0.611887
0.00604713 -0.301512 0.611405
0.00614183 -0.302363 0.611259
0.00623737 -0.303206 0.611095
0.00633201 -0.304056 0.610944
0.00642735 -0.304922 0.610822
0.00652339 -0.305806 0.610729
0.0066179 -0.306533 0.610346
0.00671299 -0.307313 0.61006
0.00680847 -0.308173 0.609919
0.0069044 -0.309048 0.609804
0.00700074 -0.309926 0.609691
0.00709753 -0.310882 0.609716
0.00719376 -0.311837 0.609735
0.00729187 -0.312832 0.609825
0.00739041 -0.313915 0.610067
0.0074893 -0.315064 0.61042
0.0075882 -0.316136 0.61063
0.00768697 -0.317169 0.61077
0.00778503 -0.318079 0.610689
0.00788234 -0.318983 0.610595
0.00797972 -0.319869 0.610468
0.00807732 -0.320768 0.610361
0.00817583 -0.321663 0.610245
0.00827237 -0.322487 0.610006
0.00836758 -0.323131 0.609457
0.00846164 -0.323707 0.608794
0.00855543 -0.324277 0.608124
0.00864684 -0.324711 0.607224
0.00873965 -0.325196 0.606415
0.00883165 -0.325704 0.605648
0.00892169 -0.326071 0.604649
0.00901159 -0.326434 0.603647
0.00910294 -0.326871 0.602772
0.00919332 -0.327312 0.601906
0.00928432 -0.32779 0.601107
0.00937831 -0.328451 0.600609
0.00947199 -0.329116 0.60012
0.00956697 -0.329843 0.599732
0.00966196 -0.33057 0.599344
0.00975905 -0.331388 0.599102
0.00985661 -0.332271 0.598966
0.00995637 -0.333231 0.59895
0.0100558 -0.334193 0.598934
0.0101555 -0.335148 0.598905
0.0102546 -0.336091 0.598855
0.0103525 -0.336978 0.598711
0.0104504 -0.337816 0.598491
0.0105486 -0.338649 0.598262
0.00264412 -0.274502 0.639445
0.00274086 -0.275243 0.639051
0.00283759 -0.275984 0.638656
0.00293433 -0.276724 0.638261
0.00303107 -0.277465 0.637866
0.0031278 -0.278205 0.637471
0.00322454 -0.278946 0.637077
0.00332114 -0.279786 0.636898
0.00341647 -0.280634 0.636738
0.00351317 -0.281493 0.636598
0.0036087 -0.282342 0.636436
0.00370472 -0.283207 0.636304
0.0038022 -0.283976 0.635964
0.00389925 -0.284745 0.635624
0.00399559 -0.285512 0.63528
0.00409289 -0.286279 0.634936
0.00418965 -0.286997 0.634488
0.00428666 -0.287662 0.633929
0.00438454 -0.288271 0.633254
0.00448148 -0.288869 0.632558
0.00457889 -0.289422 0.631772
0.00467677 -0.289902 0.630837
0.00477374 -0.290348 0.629839
0.00487022 -0.290728 0.62871
0.00496724 -0.291004 0.627376
0.00506357 -0.291275 0.62604
0.00515965 -0.291552 0.624723
0.0052548 -0.291851 0.623458
0.00534969 -0.292126 0.622153
0.00544451 -0.292375 0.620802
0.00553844 -0.292661 0.619533
0.00563321 -0.293053 0.618483
0.00572733 -0.293489 0.617523
0.00582157 -0.294059 0.616831
0.00591636 -0.294777 0.616432
0.00601086 -0.295504 0.61605
0.00610515 -0.296234 0.615672
0.00620043 -0.296989 0.615344
0.00629518 -0.29774 0.615009
0.00638967 -0.298386 0.61447
0.00648291 -0.298996 0.613865
0.00657679 -0.299574 0.613201
0.00667065 -0.300156 0.612546
0.00676458 -0.300746 0.611908
0.00685859 -0.301417 0.611426
0.00695375 -0.302246 0.611237
0.00704916 -0.303113 0.61112
0.00714536 -0.30399 0.611019
0.00724147 -0.304859 0.610901
0.00733692 -0.305716 0.610757
0.00743162 -0.306441 0.61037
0.00752699 -0.307193 0.610034
0.00762234 -0.308001 0.609798
0.00771793 -0.308844 0.609623
0.00781487 -0.309719 0.609507
0.00791214 -0.310649 0.609486
0.00800928 -0.311578 0.60946
0.00810758 -0.312563 0.609533
0.00820642 -0.313616 0.609721
0.00830697 -0.314708 0.609974
0.00840642 -0.315776 0.610181
0.00850629 -0.316785 0.610279
0.00860427 -0.317695 0.610199
0.00870247 -0.318624 0.610151
0.00880101 -0.319538 0.610074
0.00889946 -0.320436 0.609967
0.00899752 -0.321356 0.609897
0.00909575 -0.322208 0.609706
0.00919067 -0.322883 0.609212
0.00928503 -0.323517 0.608648
0.00937962 -0.324152 0.608088
0.0094711 -0.324649 0.607295
0.00956329 -0.325166 0.606539
0.00965519 -0.325699 0.605813
0.00974449 -0.326065 0.60481
0.00983307 -0.326421 0.603795
0.00992339 -0.326854 0.602912
0.0100123 -0.327268 0.602001
0.0101019 -0.327724 0.601165
0.0101956 -0.32836 0.600626
0.0102886 -0.328998 0.600092
0.0103829 -0.329698 0.59966
0.0104779 -0.330425 0.599272
0.0105755 -0.331273 0.599079
0.0106742 -0.332161 0.59895
0.0107743 -0.333149 0.598979
0.0108753 -0.334141 0.599011
0.0109764 -0.335127 0.59903
0.0110761 -0.336045 0.598939
0.0111755 -0.336936 0.598804
0.0112723 -0.337736 0.598523
0.0113693 -0.338534 0.598238
0.00347549 -0.274397 0.639468
0.00357218 -0.275126 0.639047
0.00366887 -0.275859 0.638635
0.00376547 -0.276576 0.638188
0.0038622 -0.277317 0.637793
0.00395894 -0.278058 0.637398
0.00405568 -0.278798 0.637003
0.00415249 -0.279636 0.636821
0.0042485 -0.280482 0.636655
0.00434494 -0.281313 0.636455
0.0044421 -0.28216 0.636289
0.00453828 -0.283023 0.636152
0.00463506 -0.283793 0.635817
0.0047324 -0.284568 0.63549
0.00482878 -0.285362 0.635202
0.00492634 -0.286131 0.634862
0.00502328 -0.286825 0.634363
0.00511993 -0.287461 0.633743
0.00521728 -0.288066 0.63306
0.00531342 -0.288639 0.632312
0.00540994 -0.289144 0.631429
0.00550597 -0.289594 0.630434
0.00560242 -0.290007 0.629368
0.00569738 -0.290334 0.628132
0.00579244 -0.29061 0.626799
0.00588729 -0.29091 0.625523
0.00598134 -0.291212 0.624258
0.00607484 -0.291542 0.623057
0.00616877 -0.291847 0.621812
0.00626191 -0.292123 0.620517
0.00635446 -0.292439 0.619308
0.00644759 -0.292859 0.618313
0.00654076 -0.293321 0.617404
0.00663453 -0.293891 0.616712
0.00672912 -0.294585 0.616267
0.00682369 -0.295305 0.615872
0.00691825 -0.296037 0.615498
0.00701302 -0.296792 0.615171
0.00710856 -0.297572 0.61489
0.00720212 -0.298217 0.614352
0.00729636 -0.298832 0.613755
0.00738931 -0.29941 0.613091
0.00748223 -0.299992 0.612436
0.00757524 -0.300582 0.611798
0.00766973 -0.301275 0.611358
0.00776507 -0.302102 0.611166
0.0078614 -0.302969 0.611048
0.0079576 -0.303846 0.610947
0.00805417 -0.304715 0.610829
0.00815054 -0.305571 0.610685
0.00824524 -0.306296 0.610298
0.00834032 -0.307046 0.609958
0.00843546 -0.307827 0.609671
0.00853145 -0.308639 0.609443
0.00862809 -0.309512 0.609323
0.00872646 -0.310414 0.609251
0.00882331 -0.311314 0.609176
0.00892222 -0.312272 0.609199
0.00902169 -0.313289 0.609325
0.00912222 -0.314321 0.609475
0.00922191 -0.315358 0.609628
0.00932215 -0.316333 0.609669
0.00942064 -0.317239 0.609585
0.00951917 -0.318168 0.609537
0.00961916 -0.319111 0.609514
0.00971817 -0.320039 0.609461
0.00981816 -0.32099 0.609445
0.00991714 -0.32187 0.609305
0.0100125 -0.3226 0.608905
0.0101075 -0.323272 0.608406
0.0102024 -0.323943 0.607908
0.0102941 -0.3245 0.607218
0.0103861 -0.325049 0.606516
0.0104775 -0.325583 0.605789
0.0105665 -0.325975 0.604831
0.0106539 -0.326329 0.603812
0.010743 -0.326767 0.602937
0.0108315 -0.327211 0.602076
0.0109213 -0.327673 0.601247
0.0110128 -0.328277 0.600656
0.0111056 -0.328913 0.600118
0.0112005 -0.32961 0.599681
0.0112951 -0.330338 0.599293
0.0113937 -0.331216 0.599149
0.0114932 -0.332107 0.599024
0.0115957 -0.333125 0.599101
0.0116972 -0.334117 0.599133
0.0117986 -0.335108 0.59916
0.0118986 -0.336003 0.599032
0.0119977 -0.336887 0.598885
0.0120945 -0.337654 0.598551
0.012191 -0.338419 0.598213
0.00430564 -0.274294 0.639495
0.00440325 -0.275011 0.639047
0.0044992 -0.275735 0.638613
0.00459615 -0.276429 0.638114
0.00469288 -0.277169 0.637719
0.00478962 -0.27791 0.637324
0.00488635 -0.278651 0.63693
0.0049841 -0.279488 0.636747
0.00508033 -0.280332 0.636577
0.00517694 -0.281157 0.636364
0.0052743 -0.282003 0.636193
0.00537141 -0.282865 0.636057
0.00546845 -0.283637 0.635726
0.00556534 -0.284416 0.635408
0.0056627 -0.285213 0.635128
0.00575951 -0.285958 0.634737
0.0058561 -0.286624 0.634177
0.00595266 -0.287233 0.633502
0.00604917 -0.287809 0.632759
0.006145 -0.288361 0.631968
0.0062404 -0.288839 0.631029
0.00633532 -0.289262 0.629979
0.00642955 -0.28962 0.628802
0.00652261 -0.289918 0.627507
0.00661591 -0.290191 0.626171
0.00670863 -0.290497 0.624908
0.00680133 -0.290806 0.62366
0.0068946 -0.291187 0.622563
0.00698582 -0.291514 0.621365
0.00707725 -0.291818 0.620125
0.00716904 -0.292187 0.619023
0.00726191 -0.292661 0.618135
0.00735401 -0.293129 0.617239
0.00744731 -0.293699 0.616547
0.00754112 -0.294365 0.616047
0.00763564 -0.295059 0.615601
0.00772936 -0.295762 0.615173
0.00782554 -0.296543 0.614896
0.00792084 -0.297324 0.61462
0.00801423 -0.297998 0.614137
0.00810778 -0.298637 0.613586
0.00820063 -0.299244 0.612977
0.00829336 -0.299828 0.612326
0.00838637 -0.30044 0.611731
0.00848058 -0.301131 0.611286
0.00857639 -0.301957 0.611094
0.00867319 -0.302824 0.610977
0.0087703 -0.303701 0.610875
0.00886734 -0.30457 0.610757
0.00896416 -0.305427 0.610613
0.00905886 -0.306152 0.610227
0.00915357 -0.306877 0.60984
0.00924849 -0.307629 0.609504
0.00934411 -0.308409 0.609217
0.00944082 -0.30925 0.609038
0.00953845 -0.310123 0.608917
0.00963674 -0.311028 0.60885
0.00973578 -0.311957 0.608824
0.00983554 -0.312943 0.608896
0.009935 -0.313912 0.608935
0.0100354 -0.314884 0.608977
0.010134 -0.315795 0.608906
0.010233 -0.316697 0.608818
0.0103318 -0.317598 0.608726
0.010433 -0.318573 0.608761
0.0105333 -0.319534 0.608767
0.0106348 -0.32054 0.608849
0.0107346 -0.321453 0.608767
0.010833 -0.322273 0.608524
0.0109281 -0.323005 0.608128
0.0110242 -0.323736 0.607733
0.0111177 -0.324356 0.607149
0.0112106 -0.324964 0.606545
0.0113019 -0.325529 0.605872
0.0113901 -0.325956 0.604971
0.0114768 -0.326346 0.604009
0.0115663 -0.326816 0.603187
0.0116548 -0.327268 0.602337
0.0117427 -0.327725 0.601501
0.0118344 -0.32832 0.600893
0.0119272 -0.328949 0.600342
0.0120205 -0.329615 0.599852
0.0121154 -0.330345 0.599468
0.0122142 -0.331198 0.599283
0.0123138 -0.332087 0.599154
0.0124158 -0.333075 0.599182
0.012518 -0.334039 0.599169
0.0126208 -0.33503 0.599196
0.0127206 -0.335924 0.599065
0.0128198 -0.336779 0.598872
0.0129159 -0.337542 0.598531
0.0130123 -0.338301 0.598185
0.00513725 -0.274198 0.639539
0.00523424 -0.274926 0.639113
0.00533052 -0.275659 0.638701
0.00542762 -0.276332 0.638154
0.00552438 -0.277073 0.637759
0.00562062 -0.277809 0.637355
0.00571768 -0.278527 0.636908
0.00581457 -0.279317 0.636622
0.00591198 -0.280163 0.636456
0.00600883 -0.280989 0.636247
0.00610616 -0.281835 0.636077
0.0062042 -0.282697 0.63594
0.006301 -0.283493 0.635661
0.00639833 -0.284246 0.635287
0.00649589 -0.285041 0.635003
0.00659263 -0.285759 0.634555
0.00668913 -0.286398 0.63394
0.00678464 -0.286981 0.633209
0.00688013 -0.287552 0.632457
0.00697482 -0.288055 0.631565
0.00706832 -0.288481 0.630519
0.00716203 -0.288872 0.629405
0.00725437 -0.289201 0.628169
0.00734572 -0.2895 0.626878
0.00743691 -0.289779 0.625555
0.00752892 -0.290134 0.624396
0.00762045 -0.290494 0.623251
0.00771221 -0.2909 0.622205
0.00780279 -0.291233 0.62102
0.00789329 -0.291581 0.61987
0.00798435 -0.291978 0.618824
0.00807521 -0.292458 0.617948
0.00816737 -0.292956 0.617112
0.00825926 -0.293526 0.61642
0.00835325 -0.294164 0.615865
0.0084469 -0.294826 0.615356
0.00854028 -0.2955 0.614873
0.00863551 -0.296258 0.614554
0.00873149 -0.297041 0.614282
0.00882536 -0.297742 0.61385
0.00891922 -0.298408 0.613354
0.00901213 -0.299042 0.612796
0.00910448 -0.299652 0.612196
0.00919787 -0.300293 0.611655
0.0092919 -0.300987 0.611215
0.00938816 -0.301813 0.611022
0.00948543 -0.30268 0.610905
0.00958301 -0.303557 0.610803
0.00968004 -0.304426 0.610685
0.00977732 -0.305282 0.610541
0.00987202 -0.306007 0.610155
0.00996673 -0.306732 0.609768
0.0100618 -0.307482 0.609427
0.0101572 -0.308235 0.609091
0.0102536 -0.309043 0.608854
0.0103511 -0.309912 0.608725
0.0104494 -0.310791 0.608612
0.0105487 -0.311696 0.608544
0.0106483 -0.312651 0.608563
0.0107481 -0.313556 0.60849
0.0108469 -0.314439 0.608375
0.0109444 -0.315285 0.608193
0.0110425 -0.316129 0.608007
0.0111419 -0.317031 0.607919
0.011244 -0.318031 0.608
0.0113459 -0.319023 0.608064
0.0114491 -0.320065 0.608209
0.011552 -0.321065 0.608279
0.0116513 -0.321947 0.608143
0.0117489 -0.322743 0.607859
0.011846 -0.323535 0.607566
0.011941 -0.324239 0.607126
0.0120344 -0.324881 0.606579
0.0121268 -0.325488 0.605975
0.0122155 -0.325974 0.605172
0.0123041 -0.32643 0.60432
0.0123929 -0.326935 0.603555
0.0124803 -0.327386 0.602701
0.0125677 -0.327839 0.601856
0.0126582 -0.328403 0.601195
0.0127492 -0.328995 0.600583
0.0128415 -0.329632 0.600044
0.0129368 -0.330365 0.599664
0.0130357 -0.331218 0.599478
0.0131358 -0.332107 0.599349
0.0132388 -0.333088 0.599365
0.0133421 -0.33405 0.599348
0.0134448 -0.335037 0.599366
0.0135455 -0.33593 0.599234
0.0136442 -0.336756 0.598993
0.0137398 -0.337488 0.598603
0.0139091 -0.340498 0.601793
0.00596945 -0.274173 0.639744
0.00606621 -0.274899 0.639314
0.0061628 -0.275635 0.638906
0.00625949 -0.276309 0.638358
0.00635631 -0.27705 0.637963
0.00645358 -0.277787 0.637559
0.00654953 -0.278477 0.637051
0.00664651 -0.279242 0.636708
0.00674422 -0.280064 0.636491
0.00684113 -0.280869 0.636234
0.00693902 -0.281697 0.636024
0.00703683 -0.282561 0.635893
0.00713432 -0.283355 0.635609
0.0072311 -0.284078 0.63517
0.00732809 -0.284842 0.634822
0.00742471 -0.28553 0.634309
0.00751988 -0.286118 0.633587
0.00761454 -0.286672 0.632796
0.00770899 -0.28722 0.631998
0.00780231 -0.287693 0.631045
0.00789515 -0.288092 0.629944
0.00798692 -0.288502 0.62887
0.00807723 -0.288807 0.627587
0.00816818 -0.289132 0.626352
0.00825759 -0.289438 0.625086
0.00834799 -0.289799 0.62394
0.00843872 -0.290186 0.62285
0.00852895 -0.290617 0.621856
0.00861808 -0.29095 0.620671
0.00870737 -0.291326 0.619577
0.00879788 -0.291773 0.618633
0.00888906 -0.29226 0.61777
0.00898009 -0.29276 0.616938
0.00907236 -0.293351 0.616289
0.00916455 -0.293957 0.61567
0.0092577 -0.294592 0.615111
0.00935101 -0.29524 0.614577
0.00944564 -0.295994 0.61425
0.00954105 -0.29675 0.613928
0.00963567 -0.297478 0.61355
0.00972975 -0.298169 0.613101
0.0098228 -0.298833 0.612602
0.00991578 -0.299475 0.612061
0.0100091 -0.300144 0.611575
0.0101029 -0.300841 0.611139
0.0101995 -0.301669 0.61095
0.0102972 -0.302536 0.610833
0.0103952 -0.303413 0.610732
0.0104932 -0.304281 0.610613
0.0105909 -0.305137 0.610469
0.0106856 -0.305862 0.610083
0.0107804 -0.306588 0.609696
0.010875 -0.307312 0.60931
0.0109698 -0.308038 0.608923
0.0110656 -0.308816 0.608632
0.011163 -0.309654 0.608449
0.0112614 -0.310504 0.608287
0.0113607 -0.311409 0.608219
0.0114604 -0.312336 0.608188
0.0115592 -0.313208 0.608057
0.0116572 -0.31405 0.607872
0.0117548 -0.314865 0.607637
0.0118523 -0.315678 0.607398
0.0119522 -0.316576 0.607306
0.0120549 -0.317578 0.607392
0.0121579 -0.318593 0.607497
0.0122637 -0.319666 0.6077
0.0123681 -0.320725 0.607873
0.0124704 -0.321676 0.607857
0.0125699 -0.322534 0.607679
0.0126684 -0.323359 0.607444
0.0127647 -0.324122 0.607102
0.0128592 -0.324798 0.606613
0.0129531 -0.325468 0.606115
0.0130446 -0.32605 0.605471
0.0131336 -0.326568 0.604721
0.0132227 -0.327101 0.604
0.0133096 -0.327555 0.60315
0.0133953 -0.327978 0.602252
0.0134828 -0.32848 0.601488
0.0135728 -0.329021 0.600791
0.013663 -0.329626 0.600199
0.0137585 -0.330357 0.599815
0.0138568 -0.33118 0.59958
0.0139565 -0.33204 0.599402
0.0140602 -0.333016 0.59941
0.0141622 -0.333945 0.59934
0.0142657 -0.334901 0.599309
0.0143666 -0.335792 0.599174
0.0144657 -0.336617 0.598933
0.0145612 -0.337349 0.598543
0.00680286 -0.274225 0.640124
0.00689959 -0.274966 0.639724
0.00699669 -0.275691 0.639289
0.00709288 -0.276345 0.638698
0.00719002 -0.277085 0.638298
0.00728598 -0.277794 0.637829
0.00738234 -0.278461 0.637268
0.00747982 -0.279222 0.636916
0.00757727 -0.280039 0.636686
0.00767493 -0.280842 0.636424
0.0077724 -0.28167 0.636215
0.00787102 -0.282515 0.636039
0.00796851 -0.283283 0.635699
0.00806433 -0.283954 0.635148
0.00816099 -0.284664 0.634683
0.00825649 -0.285295 0.634051
0.00835043 -0.285858 0.633277
0.008444 -0.286362 0.632383
0.00853734 -0.286884 0.631529
0.00862852 -0.287303 0.630466
0.00871929 -0.287675 0.629309
0.00880976 -0.288081 0.628231
0.00889897 -0.288415 0.627009
0.00898871 -0.288775 0.625848
0.00907775 -0.289156 0.624735
0.00916735 -0.289544 0.623645
0.00925677 -0.289954 0.622603
0.00934637 -0.290391 0.621622
0.0094343 -0.290752 0.620492
0.0095232 -0.291132 0.619407
0.00961244 -0.291603 0.61851
0.00970251 -0.292092 0.617652
0.00979298 -0.292613 0.616862
0.00988451 -0.293203 0.616209
0.00997605 -0.293785 0.615543
0.0100687 -0.294394 0.614933
0.0101607 -0.295013 0.614345
0.010255 -0.295738 0.613963
0.0103496 -0.296466 0.613586
0.0104443 -0.297192 0.613205
0.010538 -0.297886 0.612764
0.0106321 -0.298581 0.612324
0.0107249 -0.299251 0.611838
0.0108191 -0.299949 0.611406
0.0109135 -0.300672 0.611021
0.0110108 -0.301525 0.610879
0.011109 -0.302391 0.610761
0.0112079 -0.303268 0.61066
0.0113064 -0.304137 0.610541
0.0114046 -0.304993 0.610397
0.0114993 -0.305718 0.610011
0.011594 -0.306443 0.609624
0.0116887 -0.307168 0.609238
0.0117834 -0.307893 0.608851
0.0118785 -0.308643 0.60851
0.0119753 -0.309452 0.608273
0.0120726 -0.310267 0.608049
0.0121712 -0.311118 0.607886
0.0122706 -0.311991 0.60776
0.0123695 -0.31286 0.607625
0.0124661 -0.313647 0.607345
0.0125638 -0.314459 0.607106
0.0126613 -0.315269 0.606863
0.0127608 -0.316138 0.606723
0.0128624 -0.317079 0.606705
0.0129673 -0.318116 0.606852
0.0130731 -0.31916 0.607006
0.0131792 -0.320225 0.607192
0.0132833 -0.32123 0.607271
0.0133853 -0.322152 0.607204
0.0134861 -0.323039 0.607076
0.0135861 -0.323891 0.606886
0.0136824 -0.324654 0.606544
0.0137782 -0.325387 0.606153
0.013872 -0.326057 0.605655
0.0139616 -0.32661 0.604963
0.0140502 -0.327147 0.604246
0.0141375 -0.327626 0.603436
0.0142217 -0.328047 0.602533
0.0143081 -0.328523 0.601725
0.0143966 -0.329059 0.601019
0.014487 -0.329662 0.600423
0.0145816 -0.330364 0.59999
0.0146802 -0.331185 0.599751
0.0147788 -0.332015 0.599524
0.0148826 -0.332966 0.599491
0.0149839 -0.33386 0.599364
0.0150873 -0.334785 0.599285
0.0151882 -0.335651 0.599109
0.0152871 -0.336479 0.598872
0.0153827 -0.337211 0.598482
0.00763779 -0.274248 0.640438
0.00773497 -0.275018 0.640103
0.00783201 -0.275757 0.639698
0.00792903 -0.276456 0.639202
0.00802541 -0.277171 0.638746
0.00812207 -0.277859 0.638228
0.00821665 -0.278498 0.637603
0.00831314 -0.27921 0.637142
0.00841119 -0.279976 0.636798
0.00850859 -0.280774 0.636524
0.00860678 -0.281574 0.636253
0.00870494 -0.282392 0.636021
0.00880246 -0.283161 0.635681
0.00889825 -0.283828 0.635122
0.00899366 -0.28451 0.634597
0.00908845 -0.285116 0.633913
0.00918133 -0.285649 0.633074
0.00927267 -0.286125 0.632121
0.00936467 -0.286595 0.63116
0.00945378 -0.286965 0.629994
0.00954249 -0.287328 0.628821
0.00963208 -0.287742 0.62776
0.00971994 -0.288084 0.626556
0.00980898 -0.288498 0.625506
0.00989785 -0.288932 0.624505
0.00998713 -0.289348 0.62347
0.0100758 -0.289785 0.622484
0.0101652 -0.290269 0.621596
0.0102527 -0.29066 0.620527
0.0103396 -0.291042 0.619446
0.0104287 -0.291516 0.618552
0.0105175 -0.291998 0.617681
0.0106073 -0.292497 0.616845
0.0106987 -0.293088 0.616196
0.0107896 -0.293673 0.615535
0.0108806 -0.294258 0.614878
0.0109715 -0.294849 0.614235
0.0110653 -0.295542 0.61379
0.0111584 -0.296217 0.613312
0.0112528 -0.29694 0.612926
0.0113472 -0.297663 0.612541
0.0114418 -0.298383 0.612151
0.0115355 -0.299082 0.61172
0.0116299 -0.299805 0.611335
0.0117244 -0.300528 0.610949
0.0118226 -0.30138 0.610807
0.0119212 -0.302247 0.610689
0.0120202 -0.303124 0.610588
0.0121191 -0.303992 0.610469
0.0122177 -0.304848 0.610325
0.0123124 -0.305573 0.609939
0.0124071 -0.306298 0.609552
0.0125018 -0.307023 0.609166
0.0125965 -0.307748 0.608779
0.0126912 -0.308473 0.608393
0.0127875 -0.309252 0.608102
0.012884 -0.310035 0.607819
0.0129815 -0.310848 0.60759
0.0130797 -0.311667 0.607369
0.0131781 -0.312509 0.607189
0.0132744 -0.313273 0.606868
0.0133721 -0.314084 0.606629
0.0134695 -0.314893 0.606386
0.0135699 -0.315766 0.606254
0.0136709 -0.316673 0.60618
0.0137754 -0.317674 0.606265
0.0138796 -0.31865 0.606305
0.0139857 -0.319685 0.606442
0.0140908 -0.320691 0.606525
0.0141956 -0.321672 0.606561
0.0142988 -0.322618 0.606536
0.0144017 -0.323559 0.606498
0.0145024 -0.324415 0.606316
0.0146012 -0.325239 0.606076
0.0146973 -0.325975 0.605689
0.0147894 -0.326613 0.605139
0.0148805 -0.327214 0.604528
0.0149665 -0.327693 0.603718
0.0150514 -0.328142 0.602859
0.0151375 -0.328642 0.602087
0.0152245 -0.329152 0.601336
0.0153136 -0.329725 0.600691
0.0154077 -0.33042 0.600246
0.0155057 -0.331215 0.599962
0.0156034 -0.332015 0.599686
0.0157071 -0.332936 0.599604
0.0158071 -0.333797 0.599425
0.0159109 -0.334723 0.599346
0.016012 -0.335586 0.599166
0.0161106 -0.336389 0.598888
0.0162062 -0.337121 0.598498
0.00847501 -0.274315 0.640853
0.00857261 -0.275103 0.640556
0.00866966 -0.275828 0.640116
0.00876561 -0.276529 0.639624
0.00886201 -0.27723 0.639132
0.00895747 -0.277867 0.638502
0.00905224 -0.278485 0.637828
0.00914767 -0.279175 0.637315
0.00924534 -0.279915 0.636915
0.00934277 -0.280683 0.636575
0.00944 -0.281454 0.63624
0.00953818 -0.282246 0.635952
0.00963591 -0.283013 0.635608
0.00973148 -0.283682 0.635052
0.00982717 -0.284366 0.634532
0.00992102 -0.284973 0.633848
0.0100125 -0.285479 0.632954
0.0101016 -0.285904 0.631893
0.010191 -0.286339 0.630859
0.010278 -0.286655 0.629582
0.0103647 -0.286995 0.628362
0.0104529 -0.287409 0.627302
0.0105405 -0.287804 0.626209
0.0106292 -0.288249 0.625224
0.0107186 -0.28874 0.624338
0.0108067 -0.289183 0.623359
0.0108957 -0.289671 0.622475
0.0109852 -0.290159 0.621596
0.0110714 -0.290574 0.620573
0.0111574 -0.290956 0.619492
0.0112451 -0.29143 0.618599
0.0113328 -0.291886 0.617673
0.0114219 -0.292404 0.616875
0.0115129 -0.293 0.616234
0.0116032 -0.293591 0.615586
0.0116938 -0.294177 0.614929
0.0117848 -0.294761 0.614273
0.0118765 -0.2954 0.613723
0.0119687 -0.296046 0.61319
0.0120631 -0.296769 0.612804
0.0121575 -0.297492 0.612419
0.012252 -0.298215 0.612034
0.0123464 -0.298938 0.611648
0.0124408 -0.299661 0.611263
0.0125352 -0.300384 0.610877
0.0126339 -0.301236 0.610735
0.012733 -0.302103 0.610618
0.0128329 -0.302979 0.610516
0.0129322 -0.303848 0.610398
0.0130314 -0.304704 0.610253
0.0131261 -0.305429 0.609867
0.0132216 -0.306179 0.609526
0.0133161 -0.306906 0.609144
0.0134109 -0.307631 0.608757
0.0135064 -0.308382 0.608416
0.0136029 -0.309158 0.608121
0.0136987 -0.309913 0.607789
0.0137956 -0.310696 0.607505
0.0138919 -0.311478 0.607218
0.0139906 -0.31229 0.606984
0.0140859 -0.313049 0.606655
0.0141847 -0.313869 0.606433
0.0142827 -0.314682 0.606199
0.0143831 -0.315555 0.606067
0.0144829 -0.316405 0.605893
0.0145859 -0.317339 0.605864
0.0146867 -0.318222 0.605743
0.0147914 -0.319191 0.605769
0.0148959 -0.320163 0.605795
0.0150014 -0.321142 0.605833
0.0151063 -0.322123 0.605869
0.0152143 -0.323159 0.605995
0.0153188 -0.324111 0.605977
0.0154205 -0.325002 0.605852
0.0155202 -0.325828 0.605616
0.0156152 -0.32653 0.605172
0.0157062 -0.327163 0.604614
0.015794 -0.327705 0.603905
0.0158807 -0.328216 0.603149
0.0159669 -0.328723 0.602389
0.0160529 -0.329229 0.601629
0.0161414 -0.329798 0.600976
0.0162341 -0.330464 0.600481
0.0163311 -0.331229 0.600149
0.0164279 -0.332 0.599824
0.0165304 -0.332888 0.599689
0.01663 -0.333715 0.599453
0.0167334 -0.334633 0.599362
0.0168341 -0.335471 0.599141
0.0169347 -0.336304 0.598912
0.0170311 -0.337064 0.598566
0.00941258 -0.275196 0.641026
0.00950926 -0.275917 0.640577
0.00960586 -0.276627 0.640102
0.00970101 -0.277299 0.639545
0.00979551 -0.277919 0.63887
0.00988965 -0.278531 0.638183
0.00998564 -0.279221 0.63767
0.0100814 -0.279917 0.63717
0.0101792 -0.280662 0.636778
0.0102766 -0.281427 0.63643
0.0103736 -0.282192 0.636081
0.0104712 -0.282939 0.635694
0.0105671 -0.283636 0.635198
0.0106622 -0.284323 0.634682
0.0107554 -0.284909 0.633955
0.0108449 -0.285367 0.632957
0.0109318 -0.285738 0.631781
0.0110192 -0.28612 0.630635
0.011103 -0.286408 0.629299
0.0111873 -0.286744 0.628071
0.0112753 -0.287182 0.627062
0.0113626 -0.287604 0.626025
0.0114507 -0.288074 0.625091
0.0115411 -0.288617 0.624312
0.0116279 -0.289065 0.623342
0.0117173 -0.289582 0.622518
0.0118056 -0.290094 0.621686
0.0118926 -0.290536 0.620718
0.0119775 -0.290921 0.619641
0.0120638 -0.291392 0.618739
0.0121494 -0.29182 0.617758
0.0122378 -0.292336 0.616956
0.0123283 -0.292933 0.616315
0.0124177 -0.293505 0.615628
0.0125086 -0.294093 0.614976
0.0125978 -0.294671 0.614307
0.0126887 -0.295282 0.613701
0.0127796 -0.295902 0.613118
0.012874 -0.296625 0.612733
0.0129684 -0.297348 0.612347
0.0130628 -0.298071 0.611962
0.0131572 -0.298794 0.611576
0.0132517 -0.299517 0.611191
0.0133461 -0.30024 0.610806
0.0134452 -0.301092 0.610663
0.0135452 -0.301958 0.610546
0.0136451 -0.302835 0.610444
0.0137454 -0.303703 0.610326
0.0138445 -0.304559 0.610181
0.0139392 -0.305284 0.609795
0.0140359 -0.306061 0.609504
0.0141307 -0.306791 0.609126
0.0142266 -0.307544 0.608789
0.0143234 -0.308322 0.608498
0.0144197 -0.309101 0.608207
0.0145149 -0.309833 0.607833
0.0146109 -0.310586 0.607496
0.0147058 -0.31131 0.607105
0.0148012 -0.312059 0.606759
0.0148968 -0.312813 0.606422
0.0149957 -0.31363 0.606196
0.0150954 -0.314478 0.606023
0.0151968 -0.315356 0.6059
0.0152952 -0.316173 0.605669
0.0153961 -0.317042 0.605528
0.0154956 -0.31786 0.605296
0.0155976 -0.31876 0.605204
0.0157017 -0.319699 0.605177
0.0158073 -0.320675 0.605211
0.0159147 -0.321684 0.605297
0.0160255 -0.322781 0.60553
0.0161338 -0.323801 0.605626
0.0162389 -0.324762 0.60562
0.0163432 -0.325679 0.605539
0.0164399 -0.326443 0.605197
0.0165335 -0.327115 0.604704
0.0166237 -0.327723 0.604105
0.0167121 -0.328299 0.603454
0.0167999 -0.328841 0.602751
0.0168865 -0.32938 0.602044
0.0169757 -0.329978 0.601435
0.017068 -0.33064 0.600932
0.0171644 -0.331378 0.600554
0.0172583 -0.332089 0.600132
0.0173587 -0.33291 0.599888
0.0174553 -0.333672 0.599546
0.0175555 -0.334499 0.59931
0.0176529 -0.335274 0.598988
0.0177534 -0.336107 0.598759
0.0178504 -0.336872 0.598421
0.0103507 -0.276014 0.641056
0.0104454 -0.276653 0.640419
0.0105401 -0.277281 0.639762
0.0106326 -0.27787 0.639018
0.0107259 -0.278457 0.638274
0.01082 -0.279103 0.637661
0.010916 -0.2798 0.637166
0.0110142 -0.280567 0.636821
0.0111124 -0.281356 0.636524
0.0112104 -0.282126 0.636184
0.0113078 -0.282897 0.635848
0.0114042 -0.28362 0.635409
0.0115003 -0.284311 0.634901
0.0115917 -0.284873 0.634117
0.0116791 -0.285303 0.63306
0.0117628 -0.285619 0.631768
0.0118473 -0.285948 0.630511
0.0119269 -0.286181 0.629059
0.01201 -0.286496 0.627788
0.0120965 -0.286912 0.626733
0.0121828 -0.287356 0.625743
0.0122706 -0.287849 0.624856
0.012362 -0.288444 0.624184
0.0124497 -0.288944 0.623321
0.0125384 -0.289489 0.622552
0.0126279 -0.290028 0.621775
0.0127138 -0.290492 0.62085
0.0127969 -0.290878 0.619773
0.0128827 -0.29133 0.618833
0.0129672 -0.291756 0.617847
0.0130543 -0.292266 0.617032
0.0131445 -0.292863 0.616391
0.013233 -0.293414 0.615662
0.0133227 -0.294 0.615005
0.0134117 -0.294577 0.614332
0.0135012 -0.295161 0.613676
0.0135909 -0.295758 0.613046
0.0136853 -0.296481 0.612661
0.0137797 -0.297204 0.612275
0.0138741 -0.297927 0.61189
0.0139685 -0.29865 0.611505
0.014063 -0.299372 0.611119
0.0141574 -0.300095 0.610734
0.014257 -0.300948 0.610592
0.014357 -0.301814 0.610474
0.0144578 -0.30269 0.610372
0.0145581 -0.303559 0.610254
0.0146581 -0.304414 0.61011
0.0147528 -0.305139 0.609723
0.0148506 -0.305944 0.609482
0.0149469 -0.306704 0.609158
0.0150443 -0.307491 0.608884
0.0151423 -0.308297 0.608642
0.0152406 -0.309105 0.608405
0.0153352 -0.309841 0.608034
0.0154307 -0.310571 0.607656
0.015523 -0.311237 0.607161
0.0156162 -0.311921 0.606699
0.0157095 -0.312617 0.606259
0.0158058 -0.31338 0.605938
0.0159052 -0.314204 0.605724
0.0160064 -0.315076 0.605593
0.0161053 -0.315893 0.605362
0.0162047 -0.316729 0.605164
0.0163023 -0.317513 0.604875
0.0164029 -0.318355 0.604684
0.0165056 -0.319257 0.604596
0.0166109 -0.320201 0.604577
0.0167187 -0.321209 0.604663
0.0168325 -0.322334 0.604945
0.0169459 -0.323442 0.605194
0.017055 -0.324467 0.605298
0.0171619 -0.325446 0.60532
0.0172635 -0.326299 0.605128
0.017359 -0.32703 0.604733
0.0174525 -0.327704 0.604244
0.0175438 -0.328347 0.603703
0.0176336 -0.328957 0.603109
0.0177225 -0.329559 0.602503
0.0178137 -0.330189 0.601946
0.0179062 -0.330857 0.601451
0.0180015 -0.331587 0.601056
0.0180958 -0.332294 0.600626
0.0181928 -0.333051 0.600276
0.0182867 -0.333748 0.599829
0.0183835 -0.334507 0.599483
0.0184781 -0.335217 0.599057
0.0185761 -0.335989 0.598731
0.0187863 -0.338991 0.601928
0.0112864 -0.276686 0.640754
0.0113805 -0.277306 0.640074
0.0114736 -0.277899 0.639338
0.0115664 -0.278505 0.638634
0.0116594 -0.279123 0.63796
0.0117548 -0.279802 0.637421
0.0118518 -0.280548 0.637029
0.0119509 -0.281359 0.636779
0.0120504 -0.282159 0.636503
0.0121491 -0.282963 0.636236
0.0122466 -0.283713 0.635852
0.0123423 -0.284401 0.635335
0.0124308 -0.284906 0.634431
0.0125149 -0.285281 0.633253
0.0125955 -0.285543 0.631844
0.0126756 -0.285797 0.630429
0.0127533 -0.286003 0.628921
0.0128343 -0.286317 0.627646
0.0129181 -0.286708 0.62654
0.0130033 -0.287154 0.625555
0.0130911 -0.287674 0.624724
0.0131821 -0.288269 0.624052
0.01327 -0.288796 0.623244
0.0133601 -0.28937 0.622534
0.013449 -0.289935 0.621809
0.0135342 -0.290404 0.620892
0.0136177 -0.290815 0.619866
0.0137014 -0.291265 0.618922
0.0137853 -0.291695 0.61794
0.0138703 -0.292177 0.61707
0.01396 -0.29277 0.616421
0.0140468 -0.293293 0.615637
0.014135 -0.293856 0.614933
0.0142235 -0.294433 0.61426
0.0143125 -0.295017 0.613604
0.0144017 -0.295614 0.612974
0.0144961 -0.296337 0.612589
0.0145906 -0.29706 0.612204
0.014685 -0.297783 0.611818
0.0147794 -0.298505 0.611433
0.0148738 -0.299228 0.611048
0.0149682 -0.299951 0.610662
0.0150683 -0.300803 0.61052
0.0151688 -0.30167 0.610402
0.0152701 -0.302546 0.610301
0.0153712 -0.303414 0.610182
0.0154718 -0.30427 0.610038
0.0155665 -0.304995 0.609651
0.0156654 -0.305827 0.60946
0.0157631 -0.306616 0.60919
0.0158618 -0.307435 0.608974
0.0159624 -0.308273 0.608791
0.0160623 -0.309112 0.608607
0.0161571 -0.309846 0.608232
0.0162526 -0.310577 0.607853
0.0163426 -0.311213 0.607304
0.0164331 -0.311839 0.606739
0.0165255 -0.312502 0.606241
0.0166199 -0.313228 0.605854
0.016718 -0.314024 0.60559
0.01682 -0.314898 0.605463
0.0169193 -0.315715 0.605232
0.0170178 -0.316524 0.604989
0.0171143 -0.317282 0.604655
0.0172136 -0.318095 0.604415
0.0173148 -0.318944 0.604236
0.0174188 -0.319856 0.604164
0.0175249 -0.320803 0.604149
0.0176377 -0.321891 0.60437
0.0177517 -0.322996 0.604614
0.0178648 -0.324079 0.604817
0.0179764 -0.325124 0.604953
0.018084 -0.326094 0.604958
0.0181838 -0.326913 0.604709
0.0182796 -0.327647 0.604318
0.018374 -0.328351 0.603878
0.018467 -0.329025 0.60339
0.0185582 -0.329667 0.602848
0.0186501 -0.330334 0.602348
0.0187445 -0.331034 0.601905
0.0188388 -0.331737 0.601465
0.0189326 -0.33244 0.601026
0.0190266 -0.333138 0.600579
0.0191167 -0.333768 0.600023
0.0192105 -0.33446 0.599568
0.0193025 -0.335126 0.599073
0.0193972 -0.335833 0.598642
0.012131 -0.276753 0.641162
0.0122249 -0.277396 0.640534
0.0123181 -0.278024 0.639872
0.0124128 -0.278689 0.639296
0.0125047 -0.279283 0.638566
0.0125984 -0.27993 0.637952
0.0126945 -0.280647 0.637495
0.0127938 -0.281441 0.637206
0.0128923 -0.282225 0.636895
0.0129928 -0.283058 0.636688
0.0130916 -0.283833 0.636355
0.0131857 -0.284494 0.635777
0.0132717 -0.284946 0.634757
0.0133541 -0.285289 0.63351
0.0134294 -0.285472 0.631934
0.0135047 -0.28567 0.630399
0.0135798 -0.285852 0.628839
0.0136591 -0.28616 0.627552
0.0137402 -0.28653 0.626403
0.0138255 -0.287 0.625465
0.0139135 -0.287523 0.624643
0.0140033 -0.288121 0.623975
0.0140918 -0.288675 0.623222
0.0141813 -0.289252 0.622517
0.0142695 -0.289819 0.621796
0.014354 -0.290285 0.620875
0.0144371 -0.290723 0.6199
0.0145209 -0.291178 0.618964
0.0146027 -0.291609 0.617987
