ply
format ascii 1.0
element vertex 1626
property float x
property float y
property float z
end_header
-0.103696 -0.108876 0.503313
-0.103452 -0.109316 0.503794
-0.103229 -0.109775 0.504342
-0.103025 -0.110252 0.504954
-0.102804 -0.110717 0.505516
-0.10259 -0.111191 0.506106
-0.102374 -0.111666 0.506693
-0.1022 -0.112178 0.507413
-0.102012 -0.112681 0.508093
-0.101834 -0.113196 0.508811
-0.101662 -0.113719 0.509553
-0.101689 -0.114417 0.510906
-0.101926 -0.115304 0.512913
-0.102178 -0.116212 0.514982
-0.102445 -0.117144 0.517118
-0.102658 -0.118038 0.519105
-0.102634 -0.118728 0.520373
-0.102285 -0.11913 0.520635
-0.10191 -0.119509 0.520818
-0.117273 -0.0924841 0.492947
-0.116847 -0.0927715 0.492883
-0.116435 -0.0930656 0.492852
-0.116001 -0.0933479 0.492769
-0.115567 -0.0936291 0.49268
-0.115123 -0.0939048 0.49257
-0.114704 -0.0941938 0.49252
-0.114228 -0.0944492 0.492323
-0.113725 -0.0946888 0.49206
-0.113193 -0.09491 0.491721
-0.112662 -0.09513 0.491378
-0.112111 -0.0953371 0.490985
-0.11162 -0.0955783 0.490742
-0.1112 -0.0958611 0.490678
-0.110823 -0.0961694 0.490723
-0.110471 -0.0964938 0.490836
-0.110153 -0.0968392 0.491036
-0.10983 -0.0971818 0.491223
-0.109475 -0.0975055 0.49133
-0.109107 -0.0978207 0.491402
-0.108728 -0.0981292 0.491446
-0.108337 -0.0984298 0.491457
-0.107989 -0.0987582 0.491582
-0.107666 -0.0991041 0.491776
-0.107361 -0.0994616 0.492017
-0.107372 -0.100032 0.493114
-0.107543 -0.100714 0.494648
-0.107808 -0.101467 0.496453
-0.108066 -0.102223 0.49825
-0.108331 -0.102991 0.500083
-0.108279 -0.103545 0.501058
-0.108097 -0.104012 0.501681
-0.107814 -0.104409 0.502031
-0.107502 -0.104787 0.5023
-0.107132 -0.105125 0.502412
-0.106739 -0.105445 0.502457
-0.106319 -0.105747 0.502429
-0.105875 -0.10603 0.502333
-0.10543 -0.106312 0.502232
-0.104989 -0.106595 0.502139
-0.104593 -0.106913 0.502175
-0.104245 -0.107267 0.50235
-0.103946 -0.10766 0.502668
-0.10367 -0.108072 0.503051
-0.103437 -0.108519 0.503565
-0.103191 -0.108958 0.504046
-0.102956 -0.109408 0.504562
-0.102741 -0.109875 0.505141
-0.102507 -0.11033 0.505668
-0.102282 -0.110795 0.506229
-0.102076 -0.111277 0.506846
-0.101902 -0.11179 0.507569
-0.101733 -0.112309 0.508311
-0.101578 -0.112842 0.5091
-0.101462 -0.113414 0.510016
-0.101573 -0.114184 0.511633
-0.101819 -0.115078 0.513676
-0.102044 -0.115964 0.515673
-0.102278 -0.116867 0.517717
-0.102421 -0.117699 0.519496
-0.102319 -0.11832 0.520526
-0.101971 -0.118722 0.520791
-0.101597 -0.119102 0.520976
-0.116496 -0.0923608 0.492864
-0.11608 -0.0926524 0.492821
-0.115642 -0.0929325 0.492728
-0.115208 -0.0932137 0.492639
-0.114756 -0.093484 0.492505
-0.114336 -0.0937723 0.492451
-0.11386 -0.0940279 0.492255
-0.113367 -0.0942731 0.492016
-0.112838 -0.094496 0.491681
-0.112317 -0.0947222 0.491365
-0.111779 -0.0949367 0.491001
-0.111301 -0.0951855 0.49079
-0.110884 -0.0954699 0.490732
-0.110507 -0.0957785 0.490778
-0.110155 -0.0961026 0.490891
-0.109825 -0.0964404 0.491061
-0.109503 -0.0967832 0.49125
-0.109148 -0.0971067 0.491357
-0.108792 -0.0974295 0.49146
-0.108413 -0.0977377 0.491503
-0.10803 -0.0980437 0.491536
-0.10768 -0.0983705 0.491655
-0.107346 -0.0987083 0.491819
-0.10709 -0.0990986 0.492195
-0.107195 -0.0997308 0.493547
-0.107416 -0.100447 0.495225
-0.107645 -0.101175 0.496939
-0.107878 -0.101913 0.498675
-0.108054 -0.102619 0.500271
-0.107908 -0.103107 0.500989
-0.107675 -0.103538 0.501474
-0.107425 -0.103957 0.501914
-0.107137 -0.104352 0.502251
-0.106792 -0.104707 0.502431
-0.106422 -0.105045 0.502543
-0.106027 -0.105364 0.502585
-0.105608 -0.105666 0.502557
-0.105176 -0.105957 0.502494
-0.104745 -0.106249 0.50243
-0.104349 -0.106567 0.502467
-0.104 -0.106921 0.502639
-0.103699 -0.107313 0.502954
-0.103422 -0.107724 0.503338
-0.103178 -0.108162 0.503822
-0.102919 -0.108591 0.504268
-0.102672 -0.109031 0.504749
-0.102446 -0.10949 0.505298
-0.1022 -0.109935 0.505791
-0.101974 -0.110398 0.506348
-0.101777 -0.110888 0.506999
-0.101603 -0.1114 0.507722
-0.101457 -0.111938 0.508535
-0.101312 -0.11248 0.509359
-0.10125 -0.113098 0.510444
-0.101434 -0.113931 0.512292
-0.101682 -0.114827 0.514352
-0.101882 -0.115691 0.51628
-0.102094 -0.116575 0.518266
-0.102187 -0.117363 0.519899
-0.102017 -0.117923 0.52072
-0.101669 -0.118325 0.520984
-0.101297 -0.118708 0.521179
-0.116572 -0.0916641 0.492911
-0.116136 -0.0919454 0.49282
-0.115718 -0.0922363 0.492775
-0.115285 -0.0925184 0.492689
-0.114853 -0.0928006 0.492606
-0.114389 -0.0930643 0.492442
-0.113956 -0.0933446 0.492353
-0.113475 -0.0935973 0.492143
-0.112993 -0.0938484 0.491929
-0.112467 -0.094073 0.4916
-0.111963 -0.0943089 0.491325
-0.111449 -0.0945379 0.491022
-0.110994 -0.0948001 0.490868
-0.11057 -0.0950805 0.490793
-0.110194 -0.0953892 0.49084
-0.109841 -0.0957128 0.490951
-0.109496 -0.0960409 0.49108
-0.109163 -0.0963771 0.491242
-0.108819 -0.0967068 0.491377
-0.108476 -0.0970375 0.491515
-0.108107 -0.0973523 0.491585
-0.107745 -0.0976711 0.491672
-0.107393 -0.0979973 0.491789
-0.107059 -0.0983352 0.491954
-0.10687 -0.0987694 0.49251
-0.107044 -0.0994468 0.494054
-0.107264 -0.100162 0.495736
-0.10748 -0.100881 0.497424
-0.107689 -0.101602 0.499101
-0.10778 -0.102249 0.500468
-0.107556 -0.102684 0.500975
-0.107312 -0.103105 0.501428
-0.10706 -0.103523 0.501865
-0.106781 -0.103924 0.502229
-0.106449 -0.104288 0.502444
-0.106103 -0.104642 0.502624
-0.105734 -0.10498 0.502737
-0.105338 -0.105299 0.502776
-0.10493 -0.105609 0.50278
-0.104512 -0.105911 0.502757
-0.104127 -0.106238 0.502826
-0.103778 -0.106592 0.502999
-0.103464 -0.106974 0.503276
-0.103176 -0.107377 0.50363
-0.102917 -0.107804 0.504074
-0.102649 -0.108225 0.504493
-0.102388 -0.108654 0.504936
-0.102159 -0.109111 0.505478
-0.101912 -0.109555 0.50597
-0.101697 -0.110027 0.506564
-0.101491 -0.110509 0.507187
-0.101327 -0.111029 0.507946
-0.101191 -0.111576 0.508792
-0.101047 -0.112119 0.509622
-0.100998 -0.112747 0.510751
-0.101136 -0.11354 0.512466
-0.101356 -0.114412 0.514449
-0.101523 -0.115246 0.516282
-0.101723 -0.116118 0.518236
-0.10181 -0.116899 0.519853
-0.101697 -0.11751 0.520856
-0.101363 -0.117925 0.521167
-0.101001 -0.118317 0.521394
-0.115784 -0.0915345 0.492795
-0.115368 -0.091826 0.492752
-0.11494 -0.0921108 0.49268
-0.114509 -0.0923935 0.4926
-0.114032 -0.0926497 0.4924
-0.113573 -0.0929157 0.492246
-0.113089 -0.0931662 0.492026
-0.11261 -0.0934186 0.491817
-0.112088 -0.0936453 0.491497
-0.111609 -0.093896 0.491285
-0.11112 -0.094139 0.491043
-0.110689 -0.0944162 0.490952
-0.110289 -0.0947107 0.490938
-0.109914 -0.0950202 0.490989
-0.109558 -0.095342 0.491092
-0.109199 -0.0956612 0.491183
-0.108851 -0.0959882 0.491309
-0.108498 -0.096312 0.491418
-0.108168 -0.096651 0.491592
-0.107802 -0.0969674 0.491669
-0.107462 -0.0973006 0.491817
-0.107124 -0.0976352 0.491968
-0.106814 -0.0979887 0.492198
-0.106674 -0.0984553 0.492892
-0.106864 -0.099143 0.494486
-0.107078 -0.0998539 0.49616
-0.107259 -0.100549 0.497756
-0.107436 -0.101247 0.499351
-0.107476 -0.101859 0.500583
-0.107231 -0.102278 0.501033
-0.106985 -0.102699 0.501484
-0.106742 -0.103122 0.501945
-0.106462 -0.103522 0.502307
-0.106129 -0.103885 0.502519
-0.105796 -0.104248 0.502734
-0.105438 -0.104595 0.502882
-0.105055 -0.104923 0.50296
-0.104661 -0.105243 0.503002
-0.104256 -0.105555 0.503014
-0.103882 -0.105891 0.503119
-0.103533 -0.106246 0.503293
-0.103207 -0.106618 0.503536
-0.102916 -0.107019 0.503885
-0.102646 -0.107437 0.504296
-0.102365 -0.107849 0.50468
-0.102093 -0.108269 0.505091
-0.101862 -0.108724 0.50563
-0.101615 -0.109168 0.506125
-0.101411 -0.109649 0.506751
-0.101216 -0.11014 0.507413
-0.101064 -0.110669 0.508207
-0.100938 -0.111224 0.509089
-0.100803 -0.111775 0.509952
-0.100743 -0.112393 0.511052
-0.100835 -0.113146 0.51263
-0.101003 -0.113973 0.514458
-0.10114 -0.114781 0.516208
-0.101339 -0.11565 0.518162
-0.101443 -0.116445 0.51984
-0.10138 -0.117099 0.521001
-0.101102 -0.117565 0.521495
-0.10077 -0.117984 0.521817
-0.115447 -0.091132 0.492808
-0.11504 -0.0914282 0.492786
-0.114608 -0.0917108 0.492703
-0.114175 -0.0919924 0.492617
-0.113684 -0.0922407 0.49238
-0.113201 -0.0924928 0.492164
-0.112707 -0.0927379 0.491919
-0.11224 -0.092997 0.491739
-0.111734 -0.0932326 0.491457
-0.11128 -0.0934978 0.491309
-0.110814 -0.0937545 0.491125
-0.110407 -0.0940453 0.491094
-0.110018 -0.0943473 0.491111
-0.109635 -0.0946523 0.491142
-0.109266 -0.0949653 0.491208
-0.108892 -0.095276 0.491263
-0.108521 -0.0955883 0.491325
-0.108158 -0.0959055 0.491409
-0.10784 -0.0962517 0.491613
-0.107488 -0.0965764 0.491727
-0.107172 -0.0969253 0.491941
-0.106869 -0.0972823 0.492188
-0.106584 -0.0976527 0.492488
-0.106512 -0.0981633 0.493367
-0.106703 -0.0988516 0.494972
-0.106903 -0.0995527 0.496614
-0.107053 -0.100226 0.49813
-0.107199 -0.100903 0.499647
-0.107172 -0.101469 0.500698
-0.106928 -0.101888 0.501151
-0.106672 -0.102301 0.501575
-0.106427 -0.102724 0.502034
-0.106147 -0.103123 0.502395
-0.105814 -0.103486 0.502611
-0.105481 -0.103849 0.502826
-0.105133 -0.104202 0.503001
-0.104771 -0.104546 0.503138
-0.104399 -0.104883 0.503245
-0.104016 -0.105212 0.503322
-0.103656 -0.105558 0.503468
-0.103316 -0.10592 0.50367
-0.102969 -0.106277 0.503853
-0.102665 -0.106668 0.504164
-0.102372 -0.107069 0.504512
-0.10208 -0.107472 0.504864
-0.101797 -0.107883 0.505246
-0.101566 -0.108338 0.505785
-0.101319 -0.108781 0.50628
-0.101126 -0.109271 0.506945
-0.100934 -0.109764 0.507614
-0.100792 -0.110302 0.508445
-0.100673 -0.110862 0.509351
-0.100559 -0.111431 0.510283
-0.100497 -0.112047 0.51138
-0.100543 -0.112761 0.512823
-0.100646 -0.11353 0.514456
-0.100739 -0.1143 0.516073
-0.100925 -0.115157 0.517996
-0.101062 -0.115979 0.51978
-0.101072 -0.116697 0.521179
-0.100863 -0.117225 0.521893
-0.100574 -0.117683 0.522356
-0.115114 -0.0907317 0.492828
-0.114716 -0.0910332 0.492831
-0.114289 -0.0913179 0.492759
-0.113853 -0.0915981 0.492665
-0.11335 -0.0918402 0.492398
-0.112856 -0.0920859 0.492151
-0.112363 -0.0923314 0.491907
-0.111909 -0.092598 0.49176
-0.111406 -0.0928354 0.491484
-0.110964 -0.0931069 0.491364
-0.110509 -0.0933705 0.491209
-0.110113 -0.0936682 0.491208
-0.109728 -0.0939715 0.491231
-0.109356 -0.0942834 0.491292
-0.108976 -0.0945903 0.491331
-0.108589 -0.0948928 0.491351
-0.108205 -0.0951968 0.491378
-0.107841 -0.0955135 0.49146
-0.107524 -0.0958598 0.491667
-0.107194 -0.0961985 0.49184
-0.106911 -0.0965681 0.492143
-0.106643 -0.0969477 0.492485
-0.106404 -0.0973479 0.492912
-0.106406 -0.0979077 0.493999
-0.106588 -0.0985898 0.495585
-0.106758 -0.0992709 0.497152
-0.106878 -0.0999245 0.498593
-0.106977 -0.100569 0.499986
-0.10688 -0.101087 0.500845
-0.106635 -0.101505 0.501299
-0.106379 -0.101918 0.501723
-0.106114 -0.102326 0.502128
-0.105835 -0.102726 0.502492
-0.105502 -0.103088 0.502707
-0.105167 -0.103451 0.50292
-0.104829 -0.103811 0.503122
-0.104488 -0.104169 0.503319
-0.104127 -0.104515 0.503461
-0.103757 -0.104854 0.503577
-0.103408 -0.105208 0.503752
-0.103058 -0.105563 0.503927
-0.102709 -0.105919 0.504108
-0.102393 -0.1063 0.504383
-0.102098 -0.1067 0.504727
-0.101806 -0.107102 0.505078
-0.101533 -0.107522 0.505493
-0.101301 -0.107976 0.506032
-0.101065 -0.108428 0.506563
-0.100873 -0.108919 0.507233
-0.10067 -0.109403 0.507873
-0.100527 -0.10994 0.508704
-0.100396 -0.11049 0.509578
-0.100292 -0.111067 0.510543
-0.10022 -0.111675 0.511616
-0.100232 -0.11236 0.512959
-0.100261 -0.113065 0.514367
-0.100308 -0.113792 0.515844
-0.100489 -0.114643 0.517756
-0.100655 -0.11549 0.519636
-0.100722 -0.116257 0.52122
-0.100604 -0.116866 0.522228
-0.100965 -0.117913 0.524782
-0.114818 -0.0903515 0.492943
-0.114421 -0.0906535 0.492949
-0.113983 -0.0909325 0.492847
-0.113537 -0.0912069 0.492725
-0.113032 -0.0914482 0.492454
-0.112527 -0.091688 0.492179
-0.112035 -0.0919341 0.491935
-0.111582 -0.0922009 0.491789
-0.11109 -0.0924446 0.491539
-0.110648 -0.0927166 0.49142
-0.110204 -0.0929867 0.491294
-0.10982 -0.0932911 0.491322
-0.109436 -0.0935953 0.491349
-0.109064 -0.0939072 0.49141
-0.108684 -0.094214 0.491449
-0.108296 -0.094516 0.491466
-0.107902 -0.0948138 0.491466
-0.107547 -0.095136 0.491572
-0.107228 -0.0954814 0.491776
-0.10691 -0.095827 0.49198
-0.106648 -0.0962099 0.492341
-0.106403 -0.0966047 0.492749
-0.106221 -0.0970411 0.49333
-0.106237 -0.0976098 0.49446
-0.106408 -0.0982843 0.496023
-0.106553 -0.0989481 0.497526
-0.106654 -0.0995887 0.498922
-0.106698 -0.100196 0.500168
-0.10659 -0.100706 0.501001
-0.106344 -0.101124 0.501452
-0.106085 -0.101534 0.501871
-0.105809 -0.101934 0.502243
-0.105528 -0.102332 0.502605
-0.105196 -0.102696 0.502823
-0.104862 -0.103058 0.503039
-0.104535 -0.103426 0.503273
-0.104206 -0.103794 0.503508
-0.103858 -0.104149 0.503686
-0.103512 -0.104506 0.503872
-0.103183 -0.104875 0.504107
-0.102822 -0.105222 0.504252
-0.10247 -0.105576 0.504425
-0.102141 -0.105949 0.504665
-0.101835 -0.10634 0.504976
-0.101533 -0.106735 0.505301
-0.101271 -0.107163 0.505748
-0.101041 -0.107618 0.506296
-0.100813 -0.108077 0.506854
-0.100619 -0.108566 0.507522
-0.100404 -0.109041 0.50813
-0.100259 -0.109576 0.508955
-0.100127 -0.110125 0.50983
-0.100034 -0.110711 0.510833
-0.0999652 -0.111322 0.51192
-0.0999557 -0.111988 0.513201
-0.0999136 -0.112631 0.514392
-0.0999041 -0.113309 0.515695
-0.100076 -0.11415 0.517584
-0.100246 -0.114999 0.519487
-0.100358 -0.115805 0.521218
-0.100333 -0.116497 0.522526
-0.114522 -0.0899715 0.493058
-0.114127 -0.0902742 0.493066
-0.113689 -0.0905533 0.492964
-0.113244 -0.0908283 0.492846
-0.112739 -0.0910698 0.492572
-0.112234 -0.0913097 0.492295
-0.111741 -0.0915556 0.492049
-0.111287 -0.0918225 0.491901
-0.110795 -0.0920662 0.49165
-0.110353 -0.0923383 0.49153
-0.10991 -0.0926088 0.491404
-0.109516 -0.0929074 0.491406
-0.109131 -0.0932112 0.491432
-0.108758 -0.0935226 0.491491
-0.108378 -0.0938293 0.491529
-0.107992 -0.0941319 0.49155
-0.107608 -0.0944365 0.491579
-0.107254 -0.0947593 0.491688
-0.106947 -0.0951114 0.491922
-0.106638 -0.095463 0.492153
-0.106398 -0.0958594 0.492574
-0.106186 -0.0962754 0.493073
-0.106059 -0.0967477 0.493809
-0.106082 -0.0973208 0.494963
-0.106243 -0.0979885 0.496504
-0.10637 -0.0986406 0.497968
-0.106446 -0.0992637 0.499296
-0.106444 -0.0998406 0.500421
-0.106326 -0.100342 0.501227
-0.106076 -0.100758 0.50167
-0.105803 -0.101159 0.502051
-0.105513 -0.101549 0.502386
-0.105221 -0.101939 0.502715
-0.104887 -0.102301 0.502931
-0.104554 -0.102664 0.503149
-0.10424 -0.103041 0.503422
-0.103925 -0.103419 0.503695
-0.103581 -0.103776 0.503886
-0.103245 -0.104141 0.504102
-0.102926 -0.104519 0.504369
-0.102565 -0.104865 0.504515
-0.102213 -0.10522 0.504688
-0.101893 -0.105599 0.504955
-0.101587 -0.10599 0.505269
-0.101283 -0.106385 0.505591
-0.101033 -0.106822 0.506077
-0.100803 -0.107277 0.506627
-0.100565 -0.107729 0.507159
-0.100358 -0.108208 0.507789
-0.100128 -0.10867 0.508353
-0.0999589 -0.109185 0.509109
-0.0998153 -0.109724 0.509951
-0.0997438 -0.110327 0.511025
-0.0996978 -0.110957 0.512186
-0.0996794 -0.111615 0.513446
-0.0995914 -0.112219 0.514496
-0.0995382 -0.112858 0.515666
-0.0997011 -0.113691 0.517534
-0.0998624 -0.114531 0.519413
-0.100003 -0.115361 0.521243
-0.100057 -0.116122 0.52281
-0.114227 -0.0895915 0.493173
-0.113845 -0.089901 0.493214
-0.113416 -0.0901859 0.493138
-0.112972 -0.0904614 0.49302
-0.112468 -0.0907036 0.492747
-0.111962 -0.0909435 0.492467
-0.111458 -0.0911835 0.492191
-0.110993 -0.0914443 0.492015
-0.1105 -0.0916882 0.491763
-0.110058 -0.0919601 0.49164
-0.109616 -0.0922314 0.491517
-0.109211 -0.0925235 0.49149
-0.108814 -0.09282 0.491483
-0.108439 -0.0931298 0.491536
-0.108058 -0.0934361 0.491572
-0.107685 -0.0937467 0.491627
-0.107315 -0.0940598 0.491694
-0.106974 -0.0943899 0.491835
-0.106677 -0.0947486 0.4921
-0.106389 -0.0951132 0.492388
-0.106163 -0.0955184 0.492848
-0.105985 -0.0959558 0.493443
-0.105904 -0.0964582 0.494308
-0.10595 -0.0970457 0.495531
-0.106112 -0.0977145 0.497083
-0.106234 -0.0983632 0.498539
-0.106293 -0.0989755 0.499828
-0.106257 -0.0995291 0.500861
-0.106105 -0.100008 0.501576
-0.10583 -0.100407 0.501951
-0.105523 -0.100784 0.502234
-0.105198 -0.10115 0.502472
-0.104882 -0.101523 0.502736
-0.104537 -0.101877 0.502919
-0.104194 -0.102232 0.503108
-0.103901 -0.102624 0.503443
-0.103609 -0.103019 0.503784
-0.103288 -0.103393 0.504043
-0.102974 -0.103773 0.504324
-0.102676 -0.104167 0.504654
-0.102316 -0.104514 0.504802
-0.101965 -0.10487 0.50498
-0.101644 -0.105249 0.505248
-0.101338 -0.10564 0.505562
-0.101045 -0.106043 0.505917
-0.100795 -0.106481 0.506406
-0.100565 -0.106936 0.506959
-0.100316 -0.107379 0.507458
-0.100095 -0.107847 0.508051
-0.0998413 -0.10829 0.508545
-0.0996593 -0.108794 0.509265
-0.0995044 -0.109324 0.510075
-0.0994416 -0.109934 0.511179
-0.0994184 -0.110582 0.512417
-0.0994004 -0.11124 0.513683
-0.0992914 -0.111827 0.514671
-0.0992009 -0.112433 0.515727
-0.0993662 -0.113267 0.517609
-0.0995382 -0.114115 0.51953
-0.0997033 -0.114966 0.521445
-0.0998027 -0.115768 0.523166
-0.113931 -0.0892115 0.493288
-0.113549 -0.0895211 0.493329
-0.113133 -0.0898122 0.493283
-0.11269 -0.0900886 0.493167
-0.112197 -0.0903375 0.492924
-0.111691 -0.090578 0.492644
-0.111187 -0.090818 0.492366
-0.110711 -0.0910728 0.492159
-0.110218 -0.091317 0.491906
-0.109766 -0.0915837 0.491758
-0.109323 -0.0918544 0.491632
-0.108907 -0.09214 0.491574
-0.108496 -0.0924289 0.491533
-0.108119 -0.0927371 0.491578
-0.10775 -0.0930497 0.491644
-0.10739 -0.0933687 0.491737
-0.107055 -0.0937026 0.491897
-0.106736 -0.094047 0.4921
-0.106461 -0.0944188 0.492423
-0.106195 -0.0947978 0.492774
-0.105983 -0.0952123 0.493276
-0.105809 -0.0956521 0.493884
-0.10576 -0.0961752 0.494844
-0.105816 -0.0967695 0.496099
-0.105967 -0.0974309 0.497628
-0.106087 -0.0980777 0.499082
-0.106143 -0.0986876 0.500368
-0.106074 -0.0992198 0.501316
-0.105886 -0.0996751 0.501932
-0.105588 -0.100058 0.502243
-0.105253 -0.100416 0.50245
-0.104894 -0.100759 0.502593
-0.104555 -0.101116 0.502789
-0.104198 -0.10146 0.502937
-0.103842 -0.101807 0.503091
-0.103549 -0.102198 0.503426
-0.103268 -0.1026 0.503799
-0.102959 -0.102983 0.504094
-0.102656 -0.103371 0.504408
-0.10238 -0.10378 0.504803
-0.102031 -0.104137 0.504987
-0.101694 -0.104503 0.505206
-0.101386 -0.104891 0.505512
-0.101088 -0.105289 0.505853
-0.100795 -0.105692 0.506211
-0.100543 -0.106129 0.506697
-0.100313 -0.106585 0.507253
-0.100052 -0.107018 0.50772
-0.0998189 -0.107476 0.508274
-0.0995523 -0.107908 0.508731
-0.0993583 -0.108403 0.509416
-0.0991824 -0.108915 0.510163
-0.0991176 -0.109523 0.511265
-0.0990922 -0.110168 0.512501
-0.0990755 -0.110827 0.513775
-0.098957 -0.111404 0.514736
-0.0988537 -0.111999 0.515755
-0.0989437 -0.112766 0.517404
-0.0991305 -0.113626 0.519377
-0.0993177 -0.114495 0.521369
-0.0994648 -0.115338 0.523251
-0.113636 -0.0888313 0.493403
-0.113254 -0.0891408 0.493443
-0.112849 -0.0894387 0.493427
-0.112408 -0.0897164 0.493317
-0.111929 -0.0899727 0.493106
-0.111423 -0.0902135 0.492826
-0.110918 -0.0904535 0.492546
-0.11043 -0.0907023 0.492309
-0.109947 -0.0909523 0.49208
-0.109496 -0.0912194 0.491933
-0.109054 -0.0914911 0.491809
-0.108636 -0.091776 0.491748
-0.108224 -0.092064 0.491701
-0.107845 -0.0923714 0.491743
-0.107477 -0.0926853 0.491814
-0.107141 -0.0930183 0.49197
-0.106831 -0.0933672 0.492196
-0.106535 -0.0937257 0.492464
-0.10628 -0.094111 0.492846
-0.106037 -0.0945043 0.493261
-0.105837 -0.0949266 0.493798
-0.105654 -0.0953616 0.494387
-0.105622 -0.0958953 0.495395
-0.10569 -0.096497 0.496689
-0.105831 -0.0971516 0.498197
-0.105952 -0.0977996 0.499663
-0.106005 -0.0984079 0.500947
-0.105912 -0.0989246 0.501832
-0.105679 -0.0993496 0.502325
-0.105354 -0.0997147 0.502562
-0.104984 -0.100049 0.502669
-0.104612 -0.100383 0.502773
-0.104239 -0.100716 0.502875
-0.103869 -0.101052 0.502985
-0.103509 -0.101395 0.503128
-0.103204 -0.101778 0.503428
-0.102924 -0.102179 0.503804
-0.102628 -0.102571 0.504137
-0.102347 -0.102975 0.504516
-0.102083 -0.103393 0.50495
-0.101756 -0.103766 0.505198
-0.10142 -0.104133 0.505423
-0.101122 -0.104529 0.505762
-0.100814 -0.10492 0.506073
-0.100521 -0.105323 0.506434
-0.100258 -0.105751 0.506887
-0.100027 -0.106205 0.507441
-0.0997533 -0.106629 0.50787
-0.0995191 -0.107085 0.508425
-0.0992416 -0.107509 0.508848
-0.0990372 -0.107995 0.509504
-0.0988484 -0.108496 0.510214
-0.098791 -0.109109 0.511343
-0.0987739 -0.109761 0.51261
-0.0987682 -0.110428 0.513922
-0.0986706 -0.111023 0.514955
-0.0985669 -0.111617 0.515977
-0.0985764 -0.112314 0.517372
-0.0986522 -0.113076 0.518995
-0.0987315 -0.113848 0.520642
-0.113381 -0.0884724 0.49362
-0.113003 -0.0887844 0.493672
-0.112601 -0.0890839 0.493664
-0.112171 -0.0893677 0.49358
-0.111703 -0.0896311 0.493402
-0.111199 -0.0898732 0.493124
-0.110695 -0.0901145 0.492847
-0.110216 -0.0903683 0.49263
-0.109733 -0.090619 0.492401
-0.109271 -0.0908807 0.492228
-0.108829 -0.0911531 0.492105
-0.108401 -0.0914325 0.492016
-0.107977 -0.0917143 0.49194
-0.107599 -0.0920219 0.491982
-0.107242 -0.0923425 0.492084
-0.10693 -0.0926899 0.492304
-0.106643 -0.0930539 0.492598
-0.106359 -0.0934202 0.4929
-0.106127 -0.0938192 0.493344
-0.105894 -0.0942196 0.49379
-0.105683 -0.0946356 0.494301
-0.105486 -0.0950622 0.494854
-0.10547 -0.095606 0.495912
-0.105547 -0.0962133 0.497236
-0.105682 -0.0968645 0.498737
-0.105807 -0.0975142 0.500216
-0.105855 -0.09812 0.501496
-0.105738 -0.0986199 0.502314
-0.105458 -0.0990146 0.502679
-0.105109 -0.0993635 0.502848
-0.104714 -0.0996812 0.502885
-0.104328 -0.100006 0.502951
-0.103924 -0.100317 0.502961
-0.103541 -0.100644 0.503035
-0.10318 -0.100986 0.503173
-0.102863 -0.10136 0.50344
-0.102583 -0.101761 0.503816
-0.102297 -0.10216 0.504182
-0.102029 -0.102573 0.504599
-0.101766 -0.102992 0.505039
-0.101461 -0.10338 0.505353
-0.101125 -0.103747 0.505577
-0.100837 -0.104151 0.505946
-0.100528 -0.104541 0.506258
-0.100244 -0.104951 0.506646
-0.0999714 -0.105371 0.507072
-0.0997384 -0.105824 0.507624
-0.0994537 -0.106239 0.50802
-0.0992182 -0.106694 0.508572
-0.0989307 -0.10711 0.508966
-0.0987159 -0.107586 0.509592
-0.0985039 -0.108068 0.510231
-0.0984439 -0.108678 0.511356
-0.0984239 -0.109327 0.512617
-0.0984203 -0.109995 0.513941
-0.098344 -0.110607 0.515045
-0.0982605 -0.111218 0.516136
-0.0981985 -0.111853 0.517305
-0.0981736 -0.112525 0.518607
-0.0981395 -0.113195 0.519889
-0.113151 -0.0881263 0.493903
-0.112758 -0.0884313 0.493919
-0.112357 -0.0887311 0.493912
-0.111924 -0.0890141 0.493822
-0.111469 -0.0892843 0.493674
-0.110966 -0.089528 0.493401
-0.110474 -0.0897763 0.493154
-0.109995 -0.0900307 0.492937
-0.109511 -0.0902814 0.492706
-0.109038 -0.0905376 0.492504
-0.108598 -0.090811 0.492384
-0.10817 -0.0910911 0.492296
-0.107756 -0.0913787 0.492245
-0.107389 -0.0916937 0.49232
-0.107054 -0.0920279 0.492482
-0.106764 -0.092389 0.492766
-0.106489 -0.0927601 0.493092
-0.106207 -0.093128 0.4934
-0.105974 -0.0935271 0.493845
-0.105738 -0.0939265 0.494288
-0.105507 -0.0943297 0.494744
-0.105315 -0.0947597 0.495314
-0.105329 -0.0953228 0.496462
-0.105439 -0.0959519 0.497887
-0.105581 -0.0966068 0.49941
-0.105715 -0.0972632 0.500926
-0.105748 -0.0978589 0.502167
-0.105582 -0.0983274 0.502853
-0.105245 -0.0986845 0.503058
-0.104863 -0.0990111 0.503133
-0.104443 -0.0993128 0.503101
-0.104035 -0.0996223 0.503102
-0.10361 -0.0999189 0.503052
-0.103216 -0.100238 0.503094
-0.102844 -0.100572 0.503198
-0.102516 -0.100938 0.503436
-0.102237 -0.101339 0.503815
-0.10196 -0.101744 0.504206
-0.101714 -0.102173 0.504691
-0.101462 -0.102599 0.505163
-0.101169 -0.102997 0.505516
-0.100841 -0.10337 0.505765
-0.100551 -0.103772 0.506131
-0.100232 -0.104154 0.506413
-0.0999471 -0.104563 0.506798
-0.099673 -0.104982 0.507222
-0.0994297 -0.105427 0.507744
-0.0991447 -0.105841 0.508141
-0.0989084 -0.106296 0.508693
-0.0986206 -0.106711 0.509087
-0.098394 -0.107178 0.509677
-0.0981699 -0.107649 0.510282
-0.0980953 -0.108247 0.511363
-0.0980757 -0.108895 0.51263
-0.0980734 -0.109563 0.513963
-0.0980199 -0.110194 0.515144
-0.0979478 -0.110814 0.516276
-0.0978283 -0.111399 0.517263
-0.0976993 -0.111979 0.518229
-0.0975536 -0.112549 0.519149
-0.112525 -0.0880832 0.494194
-0.11211 -0.0883764 0.494151
-0.11168 -0.0886612 0.49407
-0.111234 -0.0889368 0.493946
-0.110745 -0.0891885 0.493708
-0.110266 -0.089445 0.493496
-0.109799 -0.0897067 0.493312
-0.109324 -0.0899633 0.493105
-0.108851 -0.0902195 0.4929
-0.108409 -0.0904927 0.492777
-0.107981 -0.0907733 0.492689
-0.107578 -0.0910683 0.49267
-0.107211 -0.0913835 0.492745
-0.106888 -0.0917249 0.492939
-0.106599 -0.0920875 0.49323
-0.106325 -0.0924598 0.493561
-0.106041 -0.0928268 0.493866
-0.105803 -0.0932236 0.494302
-0.105545 -0.0936096 0.494685
-0.105301 -0.0940052 0.495108
-0.10512 -0.0944421 0.495711
-0.105159 -0.0950208 0.496933
-0.105286 -0.0956603 0.49841
-0.105443 -0.0963252 0.499986
-0.105562 -0.0969713 0.501464
-0.105554 -0.0975406 0.502598
-0.105338 -0.0979759 0.503142
-0.104966 -0.0983099 0.50325
-0.104561 -0.0986215 0.503259
-0.104141 -0.0989227 0.503225
-0.103732 -0.0992314 0.503223
-0.103305 -0.0995275 0.50317
-0.102912 -0.0998463 0.503212
-0.10254 -0.10018 0.503317
-0.102202 -0.100539 0.503525
-0.101921 -0.100939 0.503901
-0.101644 -0.101343 0.504292
-0.101408 -0.101779 0.50481
-0.101158 -0.102207 0.505288
-0.100874 -0.102612 0.50567
-0.100557 -0.102992 0.505952
-0.100266 -0.103394 0.506318
-0.0999473 -0.103776 0.5066
-0.0996622 -0.104185 0.506989
-0.0993966 -0.104611 0.50744
-0.099143 -0.105047 0.507932
-0.0988672 -0.105469 0.508359
-0.0986208 -0.105915 0.508881
-0.098332 -0.10633 0.509275
-0.0980935 -0.106786 0.509831
-0.0978672 -0.107256 0.51043
-0.0977803 -0.107843 0.511476
-0.0977501 -0.108481 0.512714
-0.0977453 -0.109147 0.514045
-0.0977034 -0.109787 0.515267
-0.0976429 -0.110417 0.51644
-0.0974443 -0.110932 0.517174
-0.0972086 -0.111419 0.517794
-0.0969472 -0.111886 0.518335
-0.112689 -0.0874324 0.494466
-0.112293 -0.0877361 0.494474
-0.111875 -0.0880281 0.494426
-0.111443 -0.0883124 0.494339
-0.110997 -0.0885883 0.494215
-0.110521 -0.0888473 0.494009
-0.110055 -0.0891115 0.493831
-0.109601 -0.089381 0.493682
-0.109137 -0.0896442 0.493504
-0.108673 -0.0899067 0.493325
-0.10823 -0.09018 0.4932
-0.107812 -0.0904667 0.493139
-0.10742 -0.0907689 0.493151
-0.107064 -0.0910913 0.493258
-0.106743 -0.0914347 0.49346
-0.106454 -0.0917971 0.493749
-0.106167 -0.0921625 0.494048
-0.105857 -0.0925149 0.494287
-0.105596 -0.0928975 0.494659
-0.105325 -0.0932755 0.495009
-0.105068 -0.0936638 0.4954
-0.104954 -0.0941422 0.49619
-0.105054 -0.0947593 0.497589
-0.105213 -0.0954194 0.499165
-0.105379 -0.0960902 0.500774
-0.105487 -0.09673 0.502231
-0.105387 -0.0972389 0.503105
-0.105111 -0.0976358 0.503484
-0.104705 -0.0979473 0.503493
-0.104277 -0.0982437 0.503437
-0.103846 -0.0985379 0.503373
-0.103447 -0.0988532 0.503399
-0.103011 -0.0991434 0.503319
-0.102618 -0.0994626 0.503363
-0.102255 -0.099803 0.503495
-0.101916 -0.10016 0.503698
-0.101624 -0.100553 0.504044
-0.101347 -0.100957 0.504438
-0.101121 -0.1014 0.504986
-0.100862 -0.101821 0.505439
-0.100579 -0.102226 0.505825
-0.100271 -0.102613 0.506137
-0.0999813 -0.103016 0.506506
-0.0996645 -0.103399 0.506796
-0.0993782 -0.103807 0.507182
-0.0991227 -0.104241 0.507666
-0.098858 -0.104669 0.508126
-0.098593 -0.105099 0.508588
-0.0983353 -0.105536 0.509078
-0.0980452 -0.105949 0.50947
-0.097795 -0.106397 0.50999
-0.097568 -0.106865 0.510589
-0.0974594 -0.107434 0.51157
-0.0974152 -0.10806 0.512768
-0.0973958 -0.108713 0.514055
-0.0973518 -0.10935 0.515275
-0.097302 -0.109988 0.516487
-0.0971262 -0.110523 0.517298
-0.0968016 -0.110933 0.517628
-0.0964416 -0.111312 0.517844
-0.112081 -0.0873988 0.494806
-0.111654 -0.0876868 0.494736
-0.111225 -0.087973 0.494658
-0.110793 -0.0882567 0.494568
-0.110317 -0.0885167 0.494365
-0.109864 -0.0887884 0.494222
-0.109423 -0.0890655 0.494105
-0.10896 -0.0893299 0.493929
-0.108495 -0.089593 0.49375
-0.108063 -0.0898734 0.493656
-0.107646 -0.0901618 0.4936
-0.107256 -0.0904652 0.493616
-0.1069 -0.0907882 0.493725
-0.106576 -0.0911305 0.493921
-0.106274 -0.0914863 0.494179
-0.105974 -0.0918442 0.494445
-0.105641 -0.0921826 0.494619
-0.105356 -0.0925511 0.494928
-0.105061 -0.0929149 0.495214
-0.104877 -0.0933475 0.495809
-0.104856 -0.0938846 0.496865
-0.105023 -0.0945435 0.498458
-0.10521 -0.0952218 0.500122
-0.105374 -0.0958922 0.501734
-0.105366 -0.0964576 0.502868
-0.105161 -0.0968985 0.503446
-0.104827 -0.0972574 0.503662
-0.104399 -0.0975544 0.503606
-0.10396 -0.0978437 0.50352
-0.103541 -0.0981458 0.503489
-0.103153 -0.0984689 0.503547
-0.102729 -0.0987673 0.503502
-0.102347 -0.0990945 0.50358
-0.101985 -0.0994354 0.503714
-0.101644 -0.0997919 0.503914
-0.101339 -0.100175 0.504223
-0.101052 -0.100572 0.504586
-0.100815 -0.101007 0.505105
-0.100556 -0.101427 0.505559
-0.100282 -0.101839 0.505974
-0.0999857 -0.102235 0.506322
-0.099697 -0.102638 0.506696
-0.0993907 -0.103029 0.50702
-0.0991039 -0.103437 0.507405
-0.0988492 -0.103871 0.507895
-0.0985733 -0.10429 0.508322
-0.0983181 -0.104728 0.508817
-0.0980489 -0.105156 0.509272
-0.0977687 -0.105577 0.509697
-0.0975177 -0.106024 0.510217
-0.0973005 -0.106501 0.510849
-0.0971623 -0.107045 0.511741
-0.0970922 -0.107649 0.51286
-0.0970361 -0.10827 0.514033
-0.0969548 -0.108875 0.515136
-0.0968949 -0.109504 0.516318
-0.0967312 -0.110048 0.51717
-0.0964399 -0.110485 0.51761
-0.096112 -0.110893 0.517933
-0.111868 -0.0870606 0.495138
-0.11145 -0.0873535 0.49509
-0.111031 -0.0876456 0.495038
-0.110605 -0.0879338 0.494968
-0.110127 -0.0881934 0.49476
-0.109674 -0.0884652 0.494613
-0.109222 -0.0887372 0.49447
-0.10876 -0.089003 0.494299
-0.108307 -0.0892731 0.49415
-0.107876 -0.0895545 0.494058
-0.10746 -0.0898445 0.494007
-0.10708 -0.0901543 0.494052
-0.106724 -0.0904776 0.494161
-0.106398 -0.090819 0.494354
-0.106083 -0.0911679 0.494579
-0.105769 -0.0915177 0.494807
-0.105414 -0.0918439 0.494924
-0.105106 -0.0921987 0.495171
-0.104788 -0.092548 0.495391
-0.104691 -0.0930344 0.496234
-0.104768 -0.0936322 0.497571
-0.104982 -0.0943208 0.499306
-0.105184 -0.0950089 0.501019
-0.105342 -0.0956754 0.502621
-0.10522 -0.0961684 0.503438
-0.104921 -0.0965493 0.503752
-0.104554 -0.0968864 0.503873
-0.104125 -0.0971828 0.503814
-0.103688 -0.0974734 0.503731
-0.103279 -0.0977826 0.50373
-0.102893 -0.0981075 0.503796
-0.10248 -0.098414 0.503784
-0.102101 -0.098743 0.503869
-0.101728 -0.0990771 0.503974
-0.101387 -0.0994334 0.504174
-0.101071 -0.0998088 0.50445
-0.10078 -0.100203 0.504806
-0.100532 -0.10063 0.505292
-0.10027 -0.101048 0.50574
-0.0999971 -0.10146 0.506159
-0.09971 -0.101863 0.506536
-0.0994225 -0.102267 0.506917
-0.0991264 -0.102667 0.507273
-0.0988493 -0.103082 0.507692
-0.0985933 -0.103515 0.508179
-0.0983071 -0.103926 0.508576
-0.0980505 -0.104363 0.509069
-0.097771 -0.104783 0.509493
-0.0974911 -0.105205 0.509921
-0.0972404 -0.105651 0.510444
-0.0970332 -0.106136 0.511112
-0.0968745 -0.106663 0.511942
-0.0967785 -0.107246 0.512982
-0.0966842 -0.107834 0.514035
-0.0965653 -0.108407 0.515018
-0.0964828 -0.109015 0.51613
-0.0963292 -0.109567 0.517018
-0.0960627 -0.110025 0.51754
-0.0957685 -0.110461 0.517975
-0.111297 -0.087047 0.495582
-0.110882 -0.0873419 0.495541
-0.110462 -0.0876338 0.495487
-0.109999 -0.0879024 0.495319
-0.109521 -0.0881617 0.495108
-0.109054 -0.0884267 0.494927
-0.10859 -0.0886921 0.49475
-0.108149 -0.0889696 0.494634
-0.10773 -0.0892589 0.494577
-0.107325 -0.0895555 0.494555
-0.106944 -0.0898654 0.494599
-0.106575 -0.0901824 0.494675
-0.106226 -0.0905113 0.494808
-0.105889 -0.0908476 0.494974
-0.105554 -0.0911852 0.495145
-0.105187 -0.0915046 0.495229
-0.104908 -0.0918769 0.495558
-0.104674 -0.0922777 0.496015
-0.104674 -0.0928241 0.497135
-0.104818 -0.0934639 0.498668
-0.105058 -0.0941695 0.500485
-0.105192 -0.0948159 0.502017
-0.105229 -0.0954063 0.503283
-0.104985 -0.0958214 0.503755
-0.104607 -0.096151 0.503843
-0.104217 -0.0964733 0.503899
-0.1038 -0.0967778 0.503876
-0.103387 -0.0970845 0.503863
-0.103002 -0.0974094 0.50393
-0.102637 -0.0977487 0.504059
-0.102235 -0.0980625 0.504077
-0.101865 -0.098399 0.504192
-0.101505 -0.0987417 0.504335
-0.101163 -0.0990985 0.504535
-0.100835 -0.0994658 0.504779
-0.100541 -0.0998575 0.505124
-0.10027 -0.100268 0.505545
-0.099987 -0.100671 0.50593
-0.0997128 -0.101082 0.506346
-0.0994258 -0.101485 0.506727
-0.0991396 -0.10189 0.507113
-0.0988624 -0.102304 0.507529
-0.0985961 -0.102727 0.507983
-0.0983298 -0.103153 0.508441
-0.0980511 -0.10357 0.508863
-0.0977919 -0.104004 0.50935
-0.0974927 -0.104409 0.509715
-0.0972124 -0.104831 0.510143
-0.0969719 -0.105286 0.510702
-0.0967658 -0.105771 0.511375
-0.096595 -0.106288 0.51217
-0.0964666 -0.106844 0.513109
-0.0963344 -0.107401 0.514043
-0.0961693 -0.107933 0.514879
-0.0960414 -0.108502 0.515843
-0.0958775 -0.109043 0.516699
-0.0956423 -0.109527 0.517325
-0.0953835 -0.109993 0.517877
-0.111183 -0.0867599 0.496177
-0.11077 -0.0870563 0.496142
-0.110337 -0.0873424 0.496056
-0.109876 -0.087613 0.495893
-0.10938 -0.0878645 0.495638
-0.10889 -0.0881175 0.495394
-0.108414 -0.0883772 0.495186
-0.107971 -0.0886545 0.495066
-0.107552 -0.0889443 0.495009
-0.107147 -0.0892417 0.49499
-0.106765 -0.0895517 0.495031
-0.106394 -0.0898683 0.495105
-0.106034 -0.0901909 0.495205
-0.105684 -0.0905203 0.495338
-0.105338 -0.0908522 0.495483
-0.10499 -0.0911829 0.495619
-0.104766 -0.0915889 0.496105
-0.104637 -0.092054 0.496861
-0.104737 -0.092662 0.498268
-0.10493 -0.093333 0.499949
-0.105143 -0.0940231 0.501702
-0.105197 -0.09462 0.503014
-0.105102 -0.0951275 0.50391
-0.104753 -0.095476 0.504083
-0.10432 -0.0957705 0.504014
-0.10392 -0.0960861 0.504039
-0.103507 -0.0963934 0.504027
-0.103118 -0.0967158 0.504083
-0.102746 -0.0970506 0.504193
-0.102392 -0.0973969 0.504352
-0.10199 -0.0977112 0.504372
-0.101629 -0.0980539 0.504515
-0.101278 -0.098404 0.504688
-0.100938 -0.0987625 0.504896
-0.1006 -0.0991224 0.505108
-0.100303 -0.0995132 0.50545
-0.100009 -0.0999066 0.5058
-0.0997153 -0.100302 0.506156
-0.0994396 -0.100712 0.506569
-0.0991618 -0.101122 0.50698
-0.0988762 -0.101528 0.507369
-0.0986097 -0.101949 0.507821
-0.0983446 -0.102374 0.508281
-0.098067 -0.102791 0.508705
-0.0977885 -0.103208 0.50913
-0.0975165 -0.103633 0.50958
-0.0972056 -0.104029 0.509909
-0.0969239 -0.104449 0.510335
-0.0966821 -0.104903 0.510891
-0.0964667 -0.10538 0.511538
-0.0962855 -0.105889 0.512302
-0.0961438 -0.106433 0.513201
-0.0959781 -0.106961 0.514028
-0.0957792 -0.107465 0.514755
-0.0956248 -0.10801 0.515635
-0.0954672 -0.108556 0.516513
-0.0952541 -0.109058 0.517213
-0.0950324 -0.109555 0.517892
-0.110675 -0.0867792 0.496792
-0.110221 -0.0870552 0.496652
-0.109751 -0.0873224 0.496468
-0.109241 -0.0875672 0.496175
-0.108725 -0.0878075 0.495863
-0.108236 -0.0880606 0.495618
-0.107783 -0.0883329 0.495472
-0.107363 -0.0886233 0.495415
-0.106948 -0.0889152 0.495366
-0.106565 -0.0892253 0.495407
-0.106182 -0.0895354 0.495448
-0.10581 -0.0898518 0.495519
-0.105449 -0.0901752 0.495622
-0.105089 -0.0904991 0.495728
-0.104741 -0.0908303 0.495867
-0.104596 -0.0912829 0.496574
-0.104572 -0.0918114 0.49763
-0.104773 -0.0924817 0.499331
-0.104985 -0.0931649 0.501075
-0.105158 -0.0938313 0.502726
-0.105095 -0.0943554 0.503709
-0.104876 -0.0947853 0.504255
-0.104424 -0.0950681 0.504131
-0.103978 -0.0953548 0.504026
-0.103569 -0.0956644 0.504024
-0.103169 -0.0959792 0.504047
-0.102793 -0.0963107 0.504144
-0.102434 -0.0966536 0.504289
-0.102071 -0.0969939 0.504424
-0.101687 -0.0973208 0.504499
-0.101336 -0.09767 0.504669
-0.100987 -0.0980216 0.50485
-0.10066 -0.0983889 0.505097
-0.100331 -0.0987554 0.505338
-0.100033 -0.0991454 0.505678
-0.0997268 -0.0995302 0.505993
-0.0994418 -0.0999318 0.506376
-0.0991654 -0.100341 0.506789
-0.0988985 -0.100759 0.507236
-0.0986132 -0.101165 0.507628
-0.0983572 -0.101595 0.508115
-0.0980923 -0.10202 0.508578
-0.0978056 -0.10243 0.508976
-0.0975246 -0.102846 0.509395
-0.097241 -0.103261 0.50981
-0.0969194 -0.103648 0.510107
-0.0966348 -0.104066 0.510524
-0.0963921 -0.104519 0.51108
-0.0961751 -0.104996 0.511725
-0.0959933 -0.105503 0.512489
-0.0958497 -0.106046 0.513385
-0.0956637 -0.106557 0.514151
-0.0954408 -0.10704 0.514801
-0.0952443 -0.107549 0.515545
-0.0950821 -0.10809 0.516409
-0.0948785 -0.108599 0.517142
-0.0946921 -0.109127 0.517942
-0.110618 -0.0865211 0.497549
-0.110137 -0.0867844 0.497338
-0.109629 -0.0870326 0.497053
-0.109096 -0.0872661 0.496698
-0.108558 -0.0874958 0.496329
-0.108057 -0.0877437 0.496054
-0.107591 -0.0880093 0.49587
-0.10716 -0.0882938 0.495783
-0.106732 -0.0885795 0.495701
-0.106338 -0.0888836 0.495712
-0.105945 -0.0891882 0.495726
-0.105571 -0.0895043 0.495794
-0.105199 -0.089821 0.495865
-0.104827 -0.090138 0.495939
-0.104478 -0.0904685 0.496075
-0.104422 -0.0909744 0.497038
-0.10451 -0.0915707 0.498415
-0.104725 -0.0922491 0.500163
-0.10493 -0.0929286 0.501898
-0.105073 -0.0935758 0.503467
-0.104888 -0.0940247 0.504108
-0.104548 -0.0943786 0.504308
-0.104093 -0.0946598 0.504176
-0.103648 -0.0949461 0.504068
-0.103229 -0.0952497 0.504039
-0.102849 -0.0955778 0.504122
-0.102484 -0.0959158 0.504249
-0.102124 -0.0962578 0.504392
-0.101751 -0.096592 0.504499
-0.101377 -0.096925 0.504601
-0.101017 -0.097268 0.504747
-0.100669 -0.0976203 0.504931
-0.100354 -0.0979954 0.505213
-0.100036 -0.0983699 0.50549
-0.0997479 -0.0987664 0.505859
-0.0994417 -0.0991514 0.506177
-0.0991669 -0.0995604 0.506594
-0.0988813 -0.0999631 0.50698
-0.0986253 -0.100389 0.507462
-0.098349 -0.100802 0.507884
-0.0981047 -0.10124 0.50841
-0.0978383 -0.101664 0.50887
-0.0975602 -0.102081 0.509298
-0.0972778 -0.102496 0.509715
-0.0969738 -0.102896 0.510067
-0.0966408 -0.103274 0.510328
-0.0963452 -0.103683 0.510713
-0.0960909 -0.104127 0.511234
-0.0958631 -0.104594 0.511846
-0.0956806 -0.105101 0.512611
-0.0955367 -0.105643 0.51351
-0.09535 -0.106153 0.514276
-0.0951167 -0.106628 0.514894
-0.0949064 -0.107124 0.515594
-0.0947614 -0.107679 0.516519
-0.0945797 -0.108207 0.517329
-0.0944467 -0.108781 0.518312
-0.110461 -0.0862102 0.498043
-0.109974 -0.0864712 0.497815
-0.109451 -0.086712 0.49749
-0.108917 -0.0869464 0.497134
-0.108366 -0.0871696 0.496727
-0.107864 -0.0874178 0.49645
-0.107397 -0.0876838 0.496265
-0.106954 -0.0879625 0.496146
-0.106524 -0.0882476 0.496059
-0.106127 -0.0885509 0.496064
-0.105733 -0.0888553 0.496075
-0.105341 -0.0891608 0.496092
-0.104957 -0.0894713 0.496133
-0.104613 -0.0898048 0.496282
-0.104315 -0.090166 0.496566
-0.104339 -0.0907191 0.497758
-0.104534 -0.0913798 0.499446
-0.104756 -0.0920632 0.501225
-0.104913 -0.0927134 0.50283
-0.104971 -0.0933092 0.504165
-0.104672 -0.093688 0.504483
-0.10422 -0.0939717 0.504359
-0.103763 -0.0942518 0.504221
-0.103309 -0.0945327 0.504088
-0.102891 -0.0948362 0.50406
-0.102521 -0.0951704 0.50417
-0.102153 -0.0955069 0.504291
-0.101782 -0.0958413 0.504401
-0.101407 -0.0961735 0.5045
-0.101032 -0.0965057 0.5046
-0.100673 -0.0968492 0.504748
-0.100338 -0.0972097 0.50497
-0.100033 -0.0975919 0.505285
-0.0997258 -0.0979734 0.505595
-0.0994391 -0.0983709 0.50597
-0.0991344 -0.0987568 0.506294
-0.0988706 -0.0991734 0.506746
-0.0985952 -0.0995833 0.507165
-0.098351 -0.100018 0.507685
-0.0980855 -0.100439 0.508143
-0.0978508 -0.100884 0.508702
-0.0975734 -0.1013 0.50913
-0.0972843 -0.101708 0.509525
-0.0969988 -0.102121 0.509934
-0.096685 -0.102514 0.510256
-0.0963421 -0.102884 0.510487
-0.096036 -0.103285 0.510839
-0.0957788 -0.103726 0.511352
-0.095541 -0.104185 0.511934
-0.0953578 -0.104691 0.5127
-0.0952049 -0.105225 0.513572
-0.0950266 -0.105741 0.514368
-0.0947926 -0.106215 0.514986
-0.0945825 -0.106711 0.515689
-0.0944479 -0.107275 0.516653
-0.0943059 -0.107836 0.5176
-0.0942284 -0.108458 0.518775
-0.0943534 -0.109394 0.519437
-0.0942034 -0.109131 0.520139
-0.11065 -0.0855632 0.498384
-0.1102 -0.0858448 0.49826
-0.109724 -0.086112 0.498062
-0.109215 -0.0863613 0.497774
-0.108702 -0.086607 0.497473
-0.108151 -0.0868311 0.497065
-0.107649 -0.08708 0.496788
-0.107182 -0.0873467 0.496603
-0.106728 -0.0876198 0.496454
-0.106286 -0.0878984 0.496334
-0.105888 -0.0882015 0.496337
-0.105493 -0.0885057 0.496346
-0.1051 -0.0888114 0.496362
-0.104737 -0.0891338 0.49646
-0.104427 -0.0894874 0.496708
-0.104184 -0.0898816 0.497149
-0.104235 -0.0904509 0.498424
-0.104419 -0.0911047 0.500089
-0.104615 -0.0917718 0.5018
-0.104729 -0.0923961 0.503291
-0.104721 -0.092951 0.504442
-0.104388 -0.0933089 0.504664
-0.103935 -0.0935918 0.504534
-0.103467 -0.0938653 0.504364
-0.103003 -0.0941399 0.504201
-0.102576 -0.0944375 0.504145
-0.102206 -0.0947721 0.504258
-0.101827 -0.0951008 0.504344
-0.101445 -0.0954283 0.504424
-0.101058 -0.0957517 0.504485
-0.100682 -0.096083 0.504582
-0.100312 -0.0964188 0.504698
-0.0999778 -0.0967794 0.504923
-0.0996723 -0.0971607 0.505235
-0.0993756 -0.0975492 0.505577
-0.0991002 -0.097954 0.505988
-0.0988068 -0.0983476 0.506347
-0.0985638 -0.0987788 0.506865
-0.0983091 -0.0992036 0.50735
-0.0980754 -0.0996456 0.507906
-0.0978214 -0.100075 0.508402
-0.0975854 -0.10052 0.508959
-0.0972986 -0.100928 0.509359
-0.0969963 -0.101327 0.509714
-0.0967007 -0.101731 0.510093
-0.0963764 -0.102116 0.510382
-0.0960325 -0.102486 0.510611
-0.0957152 -0.102877 0.510927
-0.0954564 -0.103317 0.511438
-0.0952074 -0.103767 0.511984
-0.0950136 -0.104263 0.512717
-0.0948591 -0.104795 0.513587
-0.0946901 -0.105319 0.514416
-0.0944572 -0.105793 0.51504
-0.0942774 -0.106314 0.515848
-0.0941743 -0.106904 0.516921
-0.094057 -0.107487 0.517957
-0.0940341 -0.108156 0.519324
-0.0940743 -0.108886 0.520919
-0.1104 -0.0852035 0.498634
-0.109955 -0.0854876 0.49852
-0.109485 -0.0857584 0.498338
-0.108975 -0.0860077 0.498048
-0.108463 -0.0862547 0.497749
-0.107914 -0.0864806 0.497347
-0.107411 -0.0867296 0.497067
-0.106945 -0.0869972 0.496885
-0.106491 -0.0872708 0.496735
-0.10605 -0.0875505 0.496619
-0.105651 -0.0878532 0.496619
-0.105266 -0.0881637 0.496657
-0.104885 -0.0884763 0.496706
-0.104544 -0.0888119 0.496867
-0.104269 -0.0891861 0.497216
-0.104067 -0.0896042 0.497774
-0.104145 -0.0901901 0.499134
-0.10432 -0.090838 0.50078
-0.104479 -0.0914832 0.502394
-0.104551 -0.0920816 0.503772
-0.104503 -0.0926124 0.504814
-0.104131 -0.092946 0.504922
-0.103666 -0.0932221 0.504759
-0.103196 -0.0934943 0.50458
-0.102721 -0.0937625 0.504385
-0.102273 -0.0940473 0.504269
-0.101902 -0.0943812 0.504379
-0.101524 -0.0947102 0.504468
-0.101123 -0.0950245 0.504488
-0.100724 -0.0953404 0.504516
-0.100346 -0.0956701 0.504605
-0.099964 -0.0959975 0.504685
-0.0996194 -0.0963506 0.504877
-0.0993141 -0.0967314 0.505192
-0.0990173 -0.0971193 0.505535
-0.0987417 -0.0975235 0.505946
-0.0984582 -0.0979235 0.506335
-0.0982255 -0.0983616 0.506886
-0.0979832 -0.0987948 0.507412
-0.0977597 -0.0992439 0.508001
-0.0975262 -0.099688 0.508563
-0.0972902 -0.100132 0.509122
-0.0970022 -0.10054 0.509521
-0.0966979 -0.100937 0.50987
-0.0964001 -0.10134 0.510244
-0.0960643 -0.101715 0.510497
-0.0957213 -0.102086 0.510729
-0.0953934 -0.102469 0.511012
-0.0951236 -0.1029 0.511488
-0.0948615 -0.103338 0.511993
-0.0946572 -0.103826 0.512694
-0.0944912 -0.104348 0.513528
-0.0943313 -0.104878 0.51439
-0.0941177 -0.105367 0.51508
-0.0939714 -0.105916 0.516003
-0.0939035 -0.106536 0.517201
-0.0938277 -0.107154 0.518382
-0.0938551 -0.107866 0.519928
-0.0939383 -0.108634 0.52168
-0.110122 -0.0848291 0.498807
-0.10969 -0.0851204 0.498729
-0.109217 -0.0853899 0.498539
-0.10872 -0.0856465 0.498284
-0.1082 -0.0858894 0.49796
-0.107652 -0.0861166 0.497561
-0.107151 -0.0863666 0.497283
-0.106694 -0.08664 0.497128
-0.106241 -0.0869144 0.496982
-0.105811 -0.0872004 0.496895
-0.105414 -0.0875047 0.4969
-0.105031 -0.0878163 0.496944
-0.104649 -0.0881292 0.496993
-0.104331 -0.0884779 0.497219
-0.104092 -0.088873 0.497672
-0.103991 -0.0893507 0.498522
-0.104095 -0.0899515 0.499962
-0.104268 -0.0905989 0.501612
-0.104395 -0.0912249 0.503142
-0.104424 -0.091798 0.504403
-0.104282 -0.0922708 0.505176
-0.103887 -0.0925914 0.50522
-0.10341 -0.0928605 0.505023
-0.10293 -0.0931268 0.504814
-0.102441 -0.0933865 0.504577
-0.101981 -0.0936638 0.504426
-0.101609 -0.0939964 0.50453
-0.10123 -0.0943257 0.504619
-0.10083 -0.0946404 0.504642
-0.100431 -0.0949567 0.50467
-0.100042 -0.0952786 0.504726
-0.0996477 -0.0955978 0.504768
-0.099301 -0.0959493 0.504955
-0.0989859 -0.0963231 0.50524
-0.098688 -0.0967099 0.50558
-0.0984104 -0.0971122 0.505986
-0.0981274 -0.0975123 0.506378
-0.0978949 -0.09795 0.506931
-0.0976638 -0.098391 0.507493
-0.0974415 -0.0988405 0.508088
-0.0972274 -0.0992984 0.508713
-0.0969916 -0.0997429 0.509275
-0.0967039 -0.10015 0.509677
-0.0963982 -0.100546 0.510023
-0.0960985 -0.100948 0.510391
-0.0957531 -0.101315 0.510615
-0.0954099 -0.101686 0.510847
-0.0950718 -0.102061 0.511098
-0.0947908 -0.102482 0.511537
-0.094516 -0.10291 0.512002
-0.0942994 -0.103387 0.512664
-0.0941212 -0.103898 0.513461
-0.0939705 -0.104435 0.514356
-0.0937784 -0.104942 0.515121
-0.0936655 -0.105518 0.516159
-0.0936195 -0.106156 0.517436
-0.0935856 -0.106809 0.518766
-0.0936525 -0.107556 0.520455
-0.093754 -0.10834 0.522279
-0.0939413 -0.10934 0.523172
-0.0937477 -0.109038 0.523748
-0.0943882 -0.110446 0.526219
-0.0936194 -0.109634 0.524805
-0.109771 -0.084418 0.498785
-0.109352 -0.0847159 0.498742
-0.108887 -0.0849894 0.498571
-0.108412 -0.0852569 0.498373
-0.107902 -0.085506 0.498079
-0.107365 -0.0857392 0.497706
-0.106865 -0.0859901 0.497432
-0.106418 -0.0862687 0.497301
-0.105966 -0.086544 0.497157
-0.105548 -0.0868373 0.497106
-0.105173 -0.0871533 0.497171
-0.104801 -0.0874718 0.497248
-0.10442 -0.0877853 0.497299
-0.104104 -0.0881357 0.497534
-0.103894 -0.0885475 0.498071
-0.103878 -0.0890744 0.499167
-0.104002 -0.0896871 0.500673
-0.104179 -0.0903364 0.50234
-0.104299 -0.0909587 0.50386
-0.104288 -0.0915073 0.505009
-0.104048 -0.0919217 0.505504
-0.103642 -0.0922357 0.505517
-0.103155 -0.092499 0.505289
-0.102662 -0.0927575 0.505041
-0.10216 -0.0930097 0.504767
-0.101688 -0.0932794 0.504577
-0.101303 -0.0936042 0.504646
-0.100935 -0.0939397 0.504765
-0.100535 -0.0942554 0.50479
-0.100138 -0.0945728 0.504824
-0.0997469 -0.0948936 0.504874
-0.099352 -0.0952122 0.504914
-0.0989945 -0.0955561 0.505068
-0.0986792 -0.0959297 0.505353
-0.0983801 -0.0963155 0.50569
-0.0981013 -0.0967168 0.506094
-0.0978161 -0.097115 0.50648
-0.097584 -0.0975526 0.507037
-0.0973628 -0.0980004 0.507632
-0.0971414 -0.0984502 0.508232
-0.0969265 -0.0989073 0.508858
-0.0966911 -0.0993517 0.509423
-0.0964031 -0.0997591 0.509824
-0.0960784 -0.10014 0.510111
-0.0957783 -0.100541 0.510479
-0.0954321 -0.100908 0.5107
-0.0950894 -0.101279 0.510934
-0.094742 -0.101646 0.511155
-0.0944589 -0.102066 0.51159
-0.0941721 -0.102484 0.512017
-0.0939419 -0.102949 0.512635
-0.0937542 -0.103452 0.513402
-0.0936126 -0.103996 0.51433
-0.0934514 -0.104527 0.515202
-0.0933704 -0.10513 0.516353
-0.0933369 -0.105777 0.517677
-0.0933223 -0.106447 0.519079
-0.0933865 -0.107191 0.520766
-0.0934675 -0.107957 0.522528
-0.0934485 -0.108643 0.523958
-0.0933501 -0.109266 0.525126
-0.109432 -0.0840133 0.498795
-0.109024 -0.0843162 0.498779
-0.108565 -0.0845933 0.498627
-0.108102 -0.084867 0.498459
-0.107603 -0.0851216 0.498192
-0.107087 -0.0853662 0.497877
-0.106596 -0.0856225 0.497626
-0.106162 -0.0859083 0.497531
-0.105722 -0.0861903 0.49742
-0.105314 -0.0864896 0.497398
-0.10494 -0.0868069 0.497469
-0.104568 -0.0871255 0.497546
-0.104186 -0.0874387 0.497595
-0.103866 -0.0877869 0.497819
-0.103603 -0.0881687 0.498209
-0.10362 -0.0887132 0.499401
-0.10376 -0.0893347 0.500959
-0.103946 -0.0899884 0.502659
-0.104066 -0.0906097 0.504183
-0.104087 -0.0911773 0.505431
-0.103811 -0.0915699 0.505823
-0.103392 -0.0918763 0.505796
-0.102904 -0.0921399 0.505568
-0.10241 -0.0923986 0.505318
-0.101898 -0.0926449 0.505014
-0.101404 -0.0929006 0.504755
-0.101008 -0.0932187 0.504795
-0.100639 -0.0935539 0.50491
-0.100231 -0.0938637 0.504909
-0.0998346 -0.0941815 0.504945
-0.0994442 -0.094503 0.504998
-0.0990484 -0.0948211 0.505035
-0.0986808 -0.0951581 0.505159
-0.0983654 -0.0955314 0.505444
-0.0980676 -0.0959178 0.505787
-0.097798 -0.0963253 0.506221
-0.0975133 -0.0967237 0.50661
-0.0972784 -0.0971591 0.507159
-0.0970562 -0.0976056 0.507754
-0.0968336 -0.0980543 0.508352
-0.0966182 -0.0985108 0.508978
