ply
format ascii 1.0
element vertex 1613
property float x
property float y
property float z
end_header
-0.064248 -0.238059 0.476347
-0.0647213 -0.238762 0.476741
-0.0652114 -0.23952 0.477236
-0.0656816 -0.240203 0.477584
-0.0661305 -0.240806 0.477782
-0.0665423 -0.241277 0.47773
-0.0669373 -0.241687 0.477566
-0.0672878 -0.241943 0.477116
-0.0676202 -0.242137 0.476554
-0.0679334 -0.242267 0.475878
-0.0682406 -0.242379 0.475171
-0.0685523 -0.242509 0.4745
-0.0688929 -0.24274 0.474012
-0.0692633 -0.243071 0.473708
-0.0696584 -0.243485 0.473553
-0.0700942 -0.244032 0.473638
-0.0705608 -0.24468 0.4739
-0.0710326 -0.245341 0.474183
-0.0715172 -0.246041 0.474531
-0.0719906 -0.2467 0.474804
-0.0724687 -0.247372 0.475096
-0.0729136 -0.247934 0.47519
-0.0733772 -0.248554 0.475383
-0.0738619 -0.249237 0.475686
-0.0744203 -0.250151 0.476388
-0.0750664 -0.251335 0.477556
-0.0758317 -0.252884 0.479349
-0.0765918 -0.254406 0.481082
-0.0773332 -0.255858 0.482684
-0.0780206 -0.257133 0.483969
-0.0785869 -0.258028 0.484592
-0.0790523 -0.258609 0.484672
-0.0795143 -0.259178 0.484728
-0.0803342 -0.26083 0.486627
-0.0811627 -0.262495 0.488535
-0.082052 -0.264331 0.49072
-0.0829138 -0.266072 0.492729
-0.0837373 -0.267687 0.494512
-0.0841655 -0.26812 0.494302
-0.0545628 -0.232904 0.491454
-0.0549127 -0.233108 0.490864
-0.0552613 -0.233308 0.490269
-0.055607 -0.233499 0.489657
-0.0559267 -0.233579 0.488823
-0.0562651 -0.233744 0.488165
-0.0565979 -0.23389 0.487469
-0.0569347 -0.234055 0.486815
-0.0572544 -0.234151 0.486026
-0.0575763 -0.234261 0.485268
-0.0578794 -0.234297 0.484366
-0.0581719 -0.234294 0.483392
-0.0584405 -0.2342 0.482243
-0.0587104 -0.234117 0.481122
-0.0589818 -0.234047 0.480032
-0.0592551 -0.233991 0.478973
-0.0595447 -0.234005 0.478055
-0.0598643 -0.234142 0.477378
-0.0601989 -0.234339 0.476822
-0.0605488 -0.234598 0.476386
-0.0609166 -0.234927 0.476084
-0.0612891 -0.235274 0.475817
-0.0616615 -0.235621 0.47555
-0.0620572 -0.236055 0.475449
-0.0624558 -0.236499 0.475365
-0.0628801 -0.237037 0.475458
-0.0633304 -0.237668 0.475724
-0.0638081 -0.238396 0.476168
-0.0642809 -0.239101 0.476566
-0.0647798 -0.239897 0.477126
-0.0652556 -0.240604 0.477518
-0.0657152 -0.241248 0.47779
-0.0661384 -0.24176 0.477813
-0.0665432 -0.242205 0.477712
-0.0668953 -0.242463 0.477268
-0.0672334 -0.242675 0.476737
-0.0675427 -0.242788 0.47603
-0.0678495 -0.242895 0.475314
-0.0681515 -0.242989 0.474576
-0.0684909 -0.243213 0.474077
-0.0688555 -0.243523 0.473736
-0.069245 -0.243918 0.473547
-0.0696704 -0.244433 0.473571
-0.0701301 -0.245061 0.473795
-0.0705945 -0.2457 0.474038
-0.0710718 -0.24638 0.474349
-0.0715438 -0.247038 0.474619
-0.0720215 -0.247712 0.474913
-0.0724714 -0.248292 0.475039
-0.0729407 -0.248933 0.475268
-0.0734312 -0.249639 0.475608
-0.0740014 -0.250596 0.476383
-0.0746794 -0.25189 0.477737
-0.0754508 -0.253469 0.479577
-0.0762099 -0.254999 0.481317
-0.0769466 -0.256446 0.482903
-0.0776236 -0.257697 0.484142
-0.078162 -0.25851 0.48462
-0.078627 -0.259091 0.4847
-0.0790946 -0.259679 0.484787
-0.0799127 -0.261337 0.48669
-0.0807398 -0.26301 0.488605
-0.0816192 -0.264829 0.490755
-0.0824711 -0.266553 0.492729
-0.0832756 -0.268122 0.49443
-0.0836964 -0.268534 0.494183
-0.085008 -0.269774 0.496133
-0.0841468 -0.269033 0.494081
-0.0544767 -0.233516 0.490806
-0.0548242 -0.233709 0.490196
-0.0551695 -0.233895 0.489575
-0.05549 -0.233975 0.488742
-0.055825 -0.234122 0.488048
-0.0561507 -0.234233 0.487284
-0.0564839 -0.23438 0.486595
-0.0567951 -0.234437 0.48573
-0.057108 -0.234506 0.484893
-0.0574064 -0.234518 0.483948
-0.0576988 -0.234511 0.482968
-0.0579727 -0.234434 0.481855
-0.0582526 -0.234387 0.480808
-0.0585354 -0.234359 0.479801
-0.058815 -0.234323 0.478783
-0.0591103 -0.234355 0.477903
-0.0594317 -0.234496 0.477236
-0.0597667 -0.234693 0.476679
-0.0601165 -0.234951 0.47624
-0.0604843 -0.235279 0.475938
-0.0608568 -0.235626 0.475672
-0.0612292 -0.235973 0.475405
-0.0616203 -0.236391 0.475272
-0.0620181 -0.236833 0.475185
-0.0624373 -0.237354 0.475245
-0.0628818 -0.237968 0.475476
-0.0633538 -0.23868 0.475889
-0.0638389 -0.239435 0.476378
-0.0643425 -0.240253 0.476979
-0.0648332 -0.241018 0.477477
-0.0653086 -0.241723 0.477858
-0.0657421 -0.242273 0.47795
-0.0661426 -0.242702 0.47782
-0.0664948 -0.24296 0.477373
-0.0668332 -0.243169 0.47684
-0.0671389 -0.243266 0.476103
-0.0674471 -0.243375 0.47539
-0.0677491 -0.243465 0.474647
-0.0680882 -0.243686 0.474142
-0.0684476 -0.243978 0.473766
-0.0688321 -0.244356 0.473545
-0.0692558 -0.244866 0.473561
-0.0697036 -0.245456 0.473716
-0.0701601 -0.246072 0.473916
-0.0706308 -0.246733 0.474193
-0.0711015 -0.24739 0.474459
-0.0715739 -0.248051 0.474727
-0.0720291 -0.248651 0.474887
-0.0724982 -0.249294 0.475119
-0.0729878 -0.25 0.475459
-0.0735565 -0.250959 0.476233
-0.0742584 -0.252339 0.477733
-0.0750365 -0.253953 0.479626
-0.0758028 -0.255516 0.481418
-0.0765427 -0.256983 0.483035
-0.0772162 -0.258232 0.484264
-0.0777254 -0.258957 0.48459
-0.0781821 -0.259514 0.484627
-0.0786492 -0.260102 0.484714
-0.0794572 -0.261741 0.486578
-0.0802892 -0.263442 0.488535
-0.0811639 -0.265261 0.490678
-0.0820125 -0.266988 0.492651
-0.0828069 -0.268538 0.494314
-0.0832267 -0.268946 0.494061
-0.0836611 -0.269398 0.493881
-0.0540302 -0.233878 0.490653
-0.0543801 -0.234079 0.490061
-0.0547293 -0.23428 0.489469
-0.0550578 -0.234391 0.488701
-0.0553895 -0.23452 0.487972
-0.0557119 -0.234613 0.487174
-0.056041 -0.234739 0.486443
-0.0563482 -0.234774 0.485537
-0.056649 -0.234787 0.484592
-0.0569387 -0.234759 0.483567
-0.0572307 -0.234746 0.48258
-0.0575027 -0.234655 0.481444
-0.0577845 -0.234612 0.480406
-0.0580772 -0.23462 0.479472
-0.0583698 -0.234633 0.478552
-0.0586715 -0.234687 0.477717
-0.0589979 -0.234846 0.477084
-0.0593383 -0.235062 0.476566
-0.0596884 -0.23532 0.476127
-0.060052 -0.235631 0.475793
-0.0604245 -0.235978 0.475526
-0.060797 -0.236325 0.475259
-0.0611874 -0.236741 0.475123
-0.061585 -0.237184 0.475036
-0.0620033 -0.237704 0.475094
-0.0624421 -0.2383 0.47529
-0.0629073 -0.238991 0.475661
-0.0633958 -0.239764 0.476182
-0.0639081 -0.24062 0.476852
-0.0644092 -0.241428 0.477428
-0.0648962 -0.242179 0.477892
-0.0653397 -0.242767 0.478053
-0.0657404 -0.243198 0.477922
-0.066087 -0.243433 0.477435
-0.0664158 -0.243606 0.476835
-0.0667211 -0.243698 0.47609
-0.067031 -0.24381 0.475383
-0.0673343 -0.243901 0.474643
-0.0676758 -0.244128 0.47415
-0.0680346 -0.244417 0.473768
-0.0684136 -0.244776 0.473512
-0.0688301 -0.245263 0.473485
-0.0692651 -0.245811 0.473566
-0.0697094 -0.246389 0.473697
-0.0701778 -0.247046 0.473965
-0.0706486 -0.247707 0.474237
-0.0711207 -0.24837 0.474508
-0.0715819 -0.248993 0.474707
-0.0720557 -0.249655 0.47497
-0.0725438 -0.25036 0.475307
-0.073104 -0.251297 0.476041
-0.0738274 -0.252758 0.477676
-0.0746126 -0.254407 0.479624
-0.0753867 -0.256007 0.481474
-0.0761322 -0.257504 0.483135
-0.0768075 -0.258766 0.484383
-0.0772895 -0.259407 0.484564
-0.0777437 -0.259959 0.48459
-0.0782104 -0.260547 0.484676
-0.079009 -0.262169 0.486506
-0.0798452 -0.263896 0.488501
-0.0807235 -0.26574 0.490679
-0.0815613 -0.267447 0.492611
-0.0823453 -0.268976 0.494235
-0.0827641 -0.269381 0.493976
-0.0831828 -0.269786 0.493718
-0.0535806 -0.234226 0.49047
-0.0539341 -0.234441 0.489908
-0.0542888 -0.234665 0.489364
-0.0546207 -0.234787 0.488619
-0.0549544 -0.234922 0.487903
-0.0552734 -0.234995 0.487066
-0.0555988 -0.235101 0.486297
-0.0559029 -0.235118 0.485356
-0.0561956 -0.235091 0.484334
-0.0564779 -0.235026 0.48324
-0.0567658 -0.234991 0.482212
-0.0570387 -0.234899 0.481077
-0.0573225 -0.234859 0.480049
-0.0576245 -0.234902 0.479186
-0.0579303 -0.234965 0.478364
-0.0582417 -0.235056 0.4776
-0.0585694 -0.235217 0.476973
-0.0589185 -0.235467 0.476519
-0.0592689 -0.235724 0.47608
-0.0596286 -0.236019 0.475714
-0.0599969 -0.236349 0.475415
-0.0603733 -0.236711 0.475178
-0.0607596 -0.237112 0.475012
-0.0611566 -0.237554 0.474922
-0.0615737 -0.238071 0.474974
-0.062007 -0.238648 0.475135
-0.0624611 -0.239301 0.475434
-0.0629529 -0.240093 0.475986
-0.063465 -0.240955 0.476664
-0.0639732 -0.241795 0.477297
-0.0644697 -0.242586 0.477833
-0.0649183 -0.243195 0.478031
-0.0653124 -0.243602 0.477857
-0.0656581 -0.243833 0.477361
-0.065981 -0.243982 0.476719
-0.0662817 -0.244054 0.47594
-0.0665971 -0.244183 0.475265
-0.0669075 -0.244296 0.474564
-0.0672557 -0.244545 0.474111
-0.0676162 -0.244838 0.473738
-0.067999 -0.24521 0.473505
-0.0684092 -0.245677 0.473441
-0.0688377 -0.246205 0.473484
-0.0692755 -0.246763 0.473578
-0.0697427 -0.247419 0.473842
-0.0702078 -0.248064 0.474086
-0.0706791 -0.248727 0.474357
-0.0711402 -0.249353 0.474558
-0.0716131 -0.250015 0.474821
-0.0720944 -0.250702 0.475123
-0.0726461 -0.251617 0.475818
-0.0733842 -0.253137 0.477551
-0.0741741 -0.254815 0.479542
-0.0749542 -0.256448 0.481443
-0.0757108 -0.257992 0.483178
-0.0763893 -0.259272 0.484454
-0.0768574 -0.259872 0.484561
-0.0773108 -0.260422 0.484584
-0.0778375 -0.261202 0.484993
-0.0786325 -0.262824 0.486816
-0.0794675 -0.264559 0.488817
-0.0803336 -0.266379 0.490946
-0.0811562 -0.26805 0.492812
-0.0818693 -0.26937 0.494082
-0.0822874 -0.269773 0.493821
-0.082698 -0.270153 0.49352
-0.0535031 -0.234874 0.489897
-0.0538536 -0.235075 0.489308
-0.0541921 -0.235224 0.488617
-0.054527 -0.23536 0.487903
-0.0548391 -0.235396 0.486996
-0.0551606 -0.235481 0.486187
-0.0554615 -0.235479 0.485211
-0.0557483 -0.23542 0.484127
-0.0560269 -0.235332 0.482992
-0.0563147 -0.235292 0.481956
-0.0565884 -0.235198 0.480818
-0.0568738 -0.23516 0.479796
-0.0571809 -0.23522 0.478969
-0.0574921 -0.235302 0.478186
-0.0578089 -0.235412 0.47746
-0.0581423 -0.235594 0.476874
-0.0584961 -0.235862 0.476455
-0.0588465 -0.236118 0.476013
-0.0592057 -0.23641 0.475641
-0.0595691 -0.23672 0.475305
-0.0599455 -0.237082 0.475067
-0.0603322 -0.237485 0.474904
-0.0607298 -0.237929 0.47482
-0.0611465 -0.238447 0.474871
-0.0615784 -0.239022 0.475026
-0.0620219 -0.239638 0.475256
-0.0625166 -0.240446 0.475837
-0.0630277 -0.241311 0.476517
-0.0635405 -0.242174 0.47719
-0.0640421 -0.24299 0.477769
-0.0644943 -0.243615 0.477995
-0.0648829 -0.244002 0.477784
-0.0652282 -0.244229 0.477282
-0.0655408 -0.244339 0.476568
-0.0658366 -0.24439 0.475752
-0.0661565 -0.244532 0.475103
-0.0664742 -0.244668 0.474446
-0.0668241 -0.244922 0.474001
-0.0671902 -0.245235 0.473662
-0.067578 -0.245624 0.473461
-0.0679831 -0.246074 0.473365
-0.0684066 -0.246586 0.473379
-0.0688438 -0.247145 0.473473
-0.0693098 -0.247799 0.473734
-0.0697681 -0.248425 0.47394
-0.0702386 -0.249088 0.474211
-0.0706985 -0.249713 0.47441
-0.0711706 -0.250376 0.474672
-0.0716452 -0.251043 0.47494
-0.0721831 -0.251918 0.475563
-0.0729234 -0.253459 0.477326
-0.0737159 -0.25516 0.479351
-0.0744953 -0.256803 0.481264
-0.0752614 -0.258391 0.48307
-0.0759494 -0.259712 0.484409
-0.0764104 -0.26029 0.48448
-0.076864 -0.260842 0.484504
-0.0774611 -0.261852 0.485298
-0.0782624 -0.263505 0.487167
-0.0790983 -0.265255 0.489186
-0.0799571 -0.267065 0.491291
-0.0807623 -0.268692 0.493078
-0.0813998 -0.269784 0.493963
-0.0818103 -0.270164 0.493663
-0.0822208 -0.270544 0.493362
-0.0834685 -0.271631 0.495033
-0.0826165 -0.270878 0.492987
-0.0534305 -0.235543 0.489368
-0.0537726 -0.235705 0.488703
-0.0541111 -0.235852 0.488013
-0.0544191 -0.235865 0.487059
-0.0547344 -0.235916 0.486185
-0.0550326 -0.235896 0.485174
-0.0553159 -0.235815 0.48405
-0.0555869 -0.235687 0.482839
-0.0558684 -0.235613 0.481738
-0.0561426 -0.235514 0.480595
-0.0564293 -0.235477 0.479577
-0.0567378 -0.23554 0.478755
-0.0570582 -0.235658 0.478043
-0.0573844 -0.235803 0.477387
-0.0577198 -0.235991 0.476813
-0.0580742 -0.236261 0.476397
-0.0584243 -0.236513 0.475949
-0.0587788 -0.236785 0.475539
-0.0591371 -0.237073 0.475162
-0.0595181 -0.237455 0.474959
-0.0599054 -0.23786 0.474802
-0.0603031 -0.238307 0.474721
-0.0607238 -0.238842 0.474804
-0.0611552 -0.239418 0.474958
-0.0615937 -0.240017 0.475156
-0.0620956 -0.240859 0.475797
-0.0626056 -0.241725 0.476477
-0.0631166 -0.242588 0.477146
-0.0636164 -0.243402 0.477719
-0.064068 -0.244028 0.477945
-0.0644473 -0.24438 0.47767
-0.0647926 -0.244605 0.477165
-0.0651007 -0.244695 0.476417
-0.0653972 -0.244746 0.475601
-0.0657177 -0.244887 0.474952
-0.0660408 -0.245041 0.474327
-0.0663914 -0.245296 0.473885
-0.0667586 -0.245612 0.473552
-0.0671513 -0.246019 0.473382
-0.0675566 -0.246471 0.473289
-0.0679812 -0.246988 0.473312
-0.068418 -0.247547 0.473405
-0.0688833 -0.248203 0.473666
-0.0693344 -0.248806 0.473832
-0.0698032 -0.249467 0.474097
-0.0702624 -0.250092 0.474295
-0.0707339 -0.250756 0.474557
-0.0712081 -0.251426 0.474828
-0.0717326 -0.252261 0.475379
-0.0724679 -0.253798 0.47713
-0.0732505 -0.25548 0.479117
-0.0740269 -0.257127 0.481033
-0.0747914 -0.258722 0.482845
-0.0754894 -0.260086 0.484254
-0.0759499 -0.260665 0.484325
-0.0764098 -0.261239 0.484386
-0.0770787 -0.262487 0.485578
-0.0778877 -0.264177 0.487501
-0.0787307 -0.265963 0.489572
-0.0795819 -0.267761 0.49165
-0.0803751 -0.269361 0.493384
-0.0809365 -0.270219 0.493878
-0.0813477 -0.270601 0.49358
-0.0817578 -0.270979 0.493277
-0.0821389 -0.271267 0.492826
-0.0529906 -0.235934 0.489274
-0.0533371 -0.236114 0.488645
-0.0536819 -0.236288 0.488008
-0.0539965 -0.236325 0.487103
-0.0543123 -0.236373 0.486224
-0.0546076 -0.236332 0.485175
-0.0548877 -0.236229 0.48401
-0.0551518 -0.236063 0.482726
-0.0554256 -0.235949 0.48155
-0.055697 -0.235831 0.480372
-0.0559846 -0.235793 0.479354
-0.0562946 -0.235858 0.478539
-0.0566236 -0.23601 0.477894
-0.0569589 -0.236192 0.477308
-0.0572955 -0.236382 0.47674
-0.0576507 -0.236653 0.476327
-0.0580008 -0.236904 0.475876
-0.0583504 -0.237154 0.475426
-0.0587047 -0.237426 0.475017
-0.0590898 -0.237824 0.474845
-0.0594815 -0.238248 0.474723
-0.0598845 -0.238717 0.474682
-0.0603137 -0.239289 0.474831
-0.0607495 -0.239884 0.47502
-0.0611883 -0.240487 0.475223
-0.0616808 -0.241297 0.475803
-0.0621831 -0.242139 0.476436
-0.0626827 -0.242965 0.477033
-0.0631755 -0.243757 0.477565
-0.0636268 -0.244386 0.477793
-0.0640112 -0.244757 0.477553
-0.0643623 -0.245002 0.477086
-0.0646716 -0.245093 0.476341
-0.0649691 -0.245143 0.475525
-0.065285 -0.245265 0.474842
-0.0656082 -0.245417 0.474214
-0.0659543 -0.245654 0.473741
-0.0663211 -0.245968 0.473405
-0.0667191 -0.246395 0.473269
-0.0671246 -0.246848 0.473178
-0.0675547 -0.247388 0.473238
-0.0679966 -0.247966 0.473366
-0.0684612 -0.248623 0.473626
-0.0689062 -0.249207 0.473758
-0.0693738 -0.249867 0.474019
-0.0698315 -0.25049 0.474211
-0.0702975 -0.251138 0.474445
-0.0707715 -0.25181 0.474718
-0.0712885 -0.252625 0.475233
-0.0720188 -0.254158 0.476971
-0.0727911 -0.255819 0.478918
-0.0735643 -0.257469 0.480832
-0.074327 -0.259071 0.482652
-0.075029 -0.260459 0.484096
-0.0754895 -0.26104 0.48417
-0.0759549 -0.261635 0.484264
-0.0766929 -0.263117 0.485845
-0.0775069 -0.264835 0.487809
-0.0783517 -0.26664 0.489904
-0.0791947 -0.268424 0.491952
-0.0799717 -0.269984 0.493612
-0.0804593 -0.27061 0.49372
-0.0808709 -0.270993 0.493425
-0.0812805 -0.27137 0.493119
-0.0819981 -0.272714 0.494397
-0.0525567 -0.236356 0.489239
-0.0528979 -0.236506 0.488554
-0.0532492 -0.236708 0.487973
-0.05357 -0.236769 0.487116
-0.0538837 -0.236801 0.486207
-0.0541721 -0.236722 0.485085
-0.0544519 -0.236611 0.483905
-0.0547126 -0.236421 0.482578
-0.0549797 -0.236269 0.481332
-0.0552519 -0.236149 0.480152
-0.055544 -0.236125 0.479163
-0.055855 -0.236191 0.478351
-0.0561852 -0.236345 0.477712
-0.0565251 -0.236545 0.477162
-0.0568622 -0.236735 0.476594
-0.0572168 -0.237003 0.476175
-0.0575668 -0.237252 0.475722
-0.0579166 -0.237502 0.475271
-0.0582715 -0.237775 0.474865
-0.058661 -0.238192 0.474729
-0.0590534 -0.23862 0.474612
-0.0594602 -0.239106 0.474603
-0.0598943 -0.2397 0.474792
-0.0603388 -0.240333 0.47505
-0.0607835 -0.240963 0.475299
-0.0612703 -0.241755 0.475843
-0.0617619 -0.242561 0.476407
-0.0622483 -0.24334 0.476917
-0.0627298 -0.244094 0.477376
-0.0631762 -0.244707 0.477576
-0.0635662 -0.2451 0.477376
-0.0639281 -0.245385 0.47698
-0.0642436 -0.245496 0.476273
-0.0645419 -0.245546 0.475457
-0.0648539 -0.24565 0.474743
-0.0651764 -0.245796 0.474106
-0.0655171 -0.246012 0.473596
-0.0658836 -0.246325 0.473258
-0.0662863 -0.24677 0.473153
-0.066692 -0.247224 0.473065
-0.0671266 -0.247782 0.473156
-0.0675739 -0.248383 0.47332
-0.0680383 -0.249041 0.473583
-0.0684778 -0.249608 0.473683
-0.0689438 -0.250266 0.473938
-0.0694013 -0.250891 0.474133
-0.0698619 -0.251523 0.474339
-0.0703357 -0.252198 0.474614
-0.0708505 -0.25301 0.475122
-0.0715364 -0.254403 0.476617
-0.0722896 -0.256014 0.478473
-0.0730576 -0.257662 0.480377
-0.073812 -0.25925 0.482168
-0.0745144 -0.260651 0.483632
-0.075016 -0.261372 0.483941
-0.0754813 -0.261969 0.484039
-0.0762103 -0.263433 0.485585
-0.0770269 -0.265174 0.487582
-0.077868 -0.266981 0.489675
-0.0787013 -0.268748 0.491688
-0.0794819 -0.270332 0.493385
-0.0799756 -0.270981 0.493528
-0.0803873 -0.271364 0.493233
-0.0811191 -0.272767 0.49461
-0.0525095 -0.237149 0.488955
-0.0528366 -0.237228 0.488132
-0.0531499 -0.237246 0.487193
-0.0534606 -0.237259 0.486246
-0.0537499 -0.237176 0.485118
-0.0540235 -0.237028 0.483868
-0.0542816 -0.236817 0.482504
-0.0545418 -0.236626 0.481185
-0.0548147 -0.236501 0.479999
-0.0551074 -0.236475 0.479008
-0.0554195 -0.236542 0.478199
-0.055751 -0.236699 0.477566
-0.0560952 -0.236916 0.477048
-0.0564355 -0.237118 0.476503
-0.056783 -0.237353 0.476023
-0.0571329 -0.2376 0.475567
-0.0574833 -0.237851 0.47512
-0.0578389 -0.238126 0.474717
-0.0582243 -0.238527 0.474551
-0.0586206 -0.238972 0.474467
-0.0590315 -0.239477 0.474492
-0.05947 -0.240093 0.474719
-0.05992 -0.240751 0.475022
-0.0603688 -0.2414 0.475305
-0.0608498 -0.242175 0.475815
-0.0613344 -0.242958 0.476334
-0.0618134 -0.243713 0.476798
-0.0622887 -0.244447 0.47722
-0.0627348 -0.245062 0.477422
-0.0631353 -0.245497 0.477296
-0.0635036 -0.245806 0.476944
-0.0638254 -0.245938 0.476274
-0.0641247 -0.245987 0.475458
-0.0644315 -0.246068 0.474704
-0.0647491 -0.246193 0.47403
-0.0650843 -0.246387 0.47348
-0.0654461 -0.246681 0.47311
-0.0658485 -0.247126 0.473005
-0.066254 -0.247581 0.472917
-0.0666881 -0.248139 0.473008
-0.0671401 -0.24876 0.473206
-0.0676047 -0.249423 0.473475
-0.0680496 -0.250011 0.473611
-0.0685145 -0.250668 0.473863
-0.0689765 -0.251312 0.474089
-0.0694309 -0.251925 0.47426
-0.0699044 -0.252602 0.474538
-0.0704125 -0.253396 0.475012
-0.0710643 -0.254682 0.47632
-0.0717986 -0.256242 0.478084
-0.0725602 -0.257882 0.479971
-0.0733062 -0.259455 0.481733
-0.0740086 -0.260868 0.483214
-0.0745418 -0.2617 0.483708
-0.0750064 -0.262297 0.483805
-0.0756635 -0.263534 0.484967
-0.0764035 -0.265036 0.486562
-0.0788545 -0.27023 0.492414
-0.0794232 -0.271127 0.492969
-0.0802255 -0.272775 0.494747
-0.0520915 -0.237653 0.489081
-0.0524162 -0.237714 0.488223
-0.0527205 -0.237682 0.487187
-0.053029 -0.237677 0.486208
-0.0533123 -0.237559 0.485013
-0.0535828 -0.237388 0.483723
-0.0538383 -0.237156 0.482321
-0.0540933 -0.236932 0.480941
-0.0543669 -0.236805 0.479753
-0.0546679 -0.236811 0.478826
-0.0549856 -0.236899 0.478059
-0.0553179 -0.237057 0.477429
-0.0556659 -0.237289 0.476939
-0.0560063 -0.237489 0.476392
-0.05635 -0.237706 0.475878
-0.0567004 -0.237954 0.475424
-0.0570511 -0.238205 0.474977
-0.0574069 -0.23848 0.474574
-0.0577918 -0.238879 0.474406
-0.0581878 -0.239325 0.474321
-0.0586069 -0.239866 0.474412
-0.0590496 -0.240503 0.474676
-0.0594997 -0.241165 0.474986
-0.059952 -0.241832 0.4753
-0.0604275 -0.242589 0.475774
-0.0609017 -0.243336 0.476224
-0.0613737 -0.244067 0.476644
-0.0618523 -0.24482 0.477097
-0.0622986 -0.245439 0.477305
-0.0627099 -0.245917 0.477257
-0.0630887 -0.246266 0.476976
-0.0634162 -0.246417 0.47634
-0.063712 -0.246447 0.475493
-0.0640131 -0.246503 0.474693
-0.0643255 -0.246605 0.47398
-0.0646514 -0.246761 0.473364
-0.0650087 -0.247038 0.472963
-0.0654108 -0.247483 0.472858
-0.065816 -0.247938 0.47277
-0.0662495 -0.248497 0.472861
-0.0667063 -0.249137 0.473093
-0.067171 -0.249804 0.473366
-0.0676158 -0.250395 0.473505
-0.0680799 -0.251052 0.473757
-0.0685459 -0.251713 0.474011
-0.0689946 -0.252309 0.474151
-0.0694669 -0.252985 0.474425
-0.0699852 -0.253819 0.474967
-0.0706095 -0.255019 0.476124
-0.0713203 -0.25651 0.477766
-0.0720649 -0.258106 0.479574
-0.0728032 -0.259667 0.48131
-0.0734889 -0.261035 0.482711
-0.0740471 -0.261958 0.483356
-0.0745183 -0.26258 0.483496
-0.075102 -0.263579 0.484259
-0.0757585 -0.264815 0.485409
-0.0785318 -0.271123 0.493086
-0.0513392 -0.238063 0.490001
-0.0516585 -0.238086 0.489066
-0.0519803 -0.238127 0.48817
-0.0522767 -0.238049 0.487046
-0.0525852 -0.238039 0.486058
-0.0528665 -0.237903 0.484832
-0.0531378 -0.237728 0.483536
-0.0533949 -0.237494 0.482135
-0.0536543 -0.237283 0.480782
-0.0539338 -0.237176 0.479635
-0.0542444 -0.237221 0.478785
-0.0545668 -0.237327 0.478052
-0.0549005 -0.237488 0.477428
-0.0552446 -0.2377 0.476901
-0.0555856 -0.2379 0.476354
-0.0559258 -0.238099 0.475807
-0.0562732 -0.238332 0.475325
-0.0566235 -0.23858 0.474872
-0.0569788 -0.238851 0.474463
-0.0573593 -0.239232 0.47426
-0.057759 -0.239695 0.474207
-0.0581825 -0.240257 0.474336
-0.0586248 -0.240896 0.474602
-0.0590742 -0.241559 0.474911
-0.0595249 -0.242224 0.475219
-0.0599898 -0.242942 0.475621
-0.0604622 -0.243686 0.476065
-0.0609344 -0.244423 0.476494
-0.0614175 -0.245199 0.476987
-0.0618686 -0.245841 0.477234
-0.0622889 -0.246356 0.477252
-0.0626736 -0.246728 0.477011
-0.0630027 -0.246881 0.476381
-0.0632984 -0.246907 0.475526
-0.0635954 -0.246942 0.474691
-0.0639024 -0.24702 0.473935
-0.0642187 -0.247137 0.473251
-0.0645759 -0.247412 0.472847
-0.0649731 -0.24784 0.472711
-0.065378 -0.248295 0.472622
-0.065811 -0.248854 0.472713
-0.0662718 -0.249513 0.472976
-0.0667362 -0.250182 0.473252
-0.0671809 -0.250775 0.473394
-0.0676444 -0.251434 0.473646
-0.0681096 -0.252095 0.473899
-0.0685522 -0.252671 0.474005
-0.0690287 -0.253366 0.47431
-0.0695632 -0.254263 0.474955
-0.0701691 -0.255407 0.476013
-0.0708629 -0.25685 0.47757
-0.0715952 -0.258417 0.479323
-0.0723159 -0.259929 0.480974
-0.0729761 -0.261221 0.482242
-0.0735471 -0.262195 0.482972
-0.0740238 -0.262839 0.483147
-0.0745378 -0.263608 0.483527
-0.0765682 -0.266553 0.487382
-0.0754759 -0.265809 0.486271
-0.0510361 -0.238131 0.491121
-0.0509157 -0.238554 0.490098
-0.0512323 -0.238555 0.489121
-0.0515485 -0.238563 0.488161
-0.0518405 -0.238454 0.486978
-0.052137 -0.238378 0.485865
-0.0524165 -0.238225 0.48461
-0.0526815 -0.238011 0.483242
-0.0529353 -0.237753 0.481797
-0.0532005 -0.237562 0.480485
-0.0534897 -0.237494 0.479418
-0.0538137 -0.237599 0.478682
-0.0541453 -0.237744 0.478025
-0.0544834 -0.237922 0.477433
-0.0548236 -0.238113 0.476868
-0.0551644 -0.23831 0.476316
-0.0555053 -0.238509 0.475769
-0.0558535 -0.238744 0.47529
-0.0562038 -0.23899 0.474834
-0.0565626 -0.239275 0.474451
-0.0569429 -0.239655 0.474245
-0.0573428 -0.24012 0.474194
-0.0577666 -0.240686 0.474329
-0.0582087 -0.241327 0.474598
-0.0586529 -0.241972 0.474872
-0.0590973 -0.242614 0.475136
-0.0595564 -0.243312 0.4755
-0.0600282 -0.244059 0.475947
-0.0605001 -0.2448 0.47638
-0.060988 -0.245601 0.476916
-0.0614392 -0.246246 0.477169
-0.0618644 -0.246783 0.477224
-0.0622488 -0.247153 0.47698
-0.0625834 -0.247326 0.476384
-0.0628809 -0.247354 0.475535
-0.0631786 -0.247387 0.474698
-0.0634807 -0.247442 0.473902
-0.0637915 -0.247534 0.473175
-0.0641434 -0.247788 0.472734
-0.0645354 -0.248196 0.472563
-0.06494 -0.248652 0.472475
-0.0653725 -0.249211 0.472565
-0.0658325 -0.249871 0.472828
-0.0662961 -0.250541 0.473104
-0.0667451 -0.251153 0.473277
-0.0672078 -0.251811 0.473528
-0.0676722 -0.252473 0.473781
-0.0681198 -0.25307 0.47392
-0.0686015 -0.253787 0.474262
-0.0691421 -0.254712 0.474952
-0.0697323 -0.255808 0.475925
-0.0704116 -0.257212 0.47741
-0.0711262 -0.258729 0.479075
-0.0718282 -0.260188 0.480632
-0.0724676 -0.261417 0.481793
-0.0730532 -0.262449 0.482618
-0.0735352 -0.263117 0.48283
-0.0739866 -0.263675 0.482859
-0.0504852 -0.239012 0.49013
-0.0508024 -0.23901 0.489147
-0.0511156 -0.238994 0.488143
-0.0513873 -0.238774 0.486746
-0.0516755 -0.238648 0.48554
-0.0519504 -0.238465 0.484229
-0.0522141 -0.238237 0.482839
-0.0524721 -0.237992 0.481421
-0.0527429 -0.23782 0.480151
-0.0530378 -0.237775 0.479128
-0.0533681 -0.237906 0.478445
-0.0537051 -0.238074 0.477832
-0.0540504 -0.238284 0.477302
-0.0543948 -0.238492 0.476769
-0.0547391 -0.238702 0.476242
-0.0550808 -0.238903 0.475699
-0.0554289 -0.239135 0.475216
-0.0557835 -0.239399 0.474792
-0.0561468 -0.239702 0.474444
-0.0565282 -0.240087 0.474246
-0.0569361 -0.240589 0.474262
-0.057364 -0.241174 0.474431
-0.0578016 -0.241799 0.474668
-0.0582357 -0.242404 0.474866
-0.0586707 -0.243009 0.475061
-0.0591191 -0.243667 0.47535
-0.0595902 -0.244415 0.475799
-0.0600666 -0.24518 0.476273
-0.060559 -0.246006 0.476851
-0.0610139 -0.24667 0.477135
-0.0614427 -0.247223 0.477218
-0.0618264 -0.24759 0.476969
-0.0621669 -0.247783 0.47641
-0.0624667 -0.247816 0.475569
-0.0627659 -0.24785 0.474735
-0.063064 -0.247885 0.473905
-0.063369 -0.247951 0.473133
-0.0637154 -0.248182 0.472652
-0.0641027 -0.248572 0.47245
-0.0645123 -0.249048 0.472396
-0.0649443 -0.249608 0.472486
-0.0654036 -0.250269 0.472748
-0.0658612 -0.250919 0.47299
-0.066314 -0.251548 0.473191
-0.066772 -0.252193 0.473416
-0.0672406 -0.252873 0.4737
-0.0676985 -0.253511 0.473907
-0.0681913 -0.254272 0.474321
-0.0687385 -0.255227 0.475058
-0.0693456 -0.256391 0.476143
-0.0700125 -0.257761 0.477565
-0.0707059 -0.259213 0.479116
-0.0713902 -0.260622 0.480583
-0.0720076 -0.261782 0.481625
-0.0725675 -0.262731 0.482309
-0.0730549 -0.26342 0.482558
-0.0735115 -0.263999 0.482621
-0.0503292 -0.239237 0.488729
-0.0509196 -0.239016 0.486365
-0.0511926 -0.238805 0.484998
-0.0514625 -0.23859 0.48363
-0.0517331 -0.23839 0.482296
-0.0520027 -0.238194 0.480978
-0.052282 -0.238058 0.479779
-0.0525855 -0.23805 0.47883
-0.0529241 -0.23822 0.478219
-0.0532687 -0.238422 0.477674
-0.053619 -0.238654 0.477184
-0.0539637 -0.238861 0.476652
-0.0543089 -0.239073 0.476128
-0.0546509 -0.239273 0.475585
-0.0549998 -0.239507 0.475105
-0.0553594 -0.239792 0.474722
-0.0557315 -0.240135 0.474446
-0.0561179 -0.240542 0.474289
-0.0565349 -0.241085 0.474379
-0.0569624 -0.241672 0.474547
-0.057395 -0.242276 0.474746
-0.0578236 -0.24286 0.474904
-0.0582526 -0.243442 0.475055
-0.0586915 -0.244062 0.475275
-0.0591616 -0.244812 0.475724
-0.059637 -0.245578 0.476197
-0.0601283 -0.246404 0.476774
-0.0605829 -0.247071 0.477061
-0.0610108 -0.247623 0.477141
-0.0613942 -0.247989 0.476888
-0.0617399 -0.248201 0.476364
-0.0620415 -0.248236 0.475529
-0.0623473 -0.248293 0.474736
-0.062646 -0.248325 0.473903
-0.0629466 -0.24837 0.473094
-0.0632927 -0.248597 0.472607
-0.0636749 -0.248968 0.472371
-0.0640851 -0.249448 0.472322
-0.0645171 -0.25001 0.472415
-0.0649753 -0.250669 0.472674
-0.0654266 -0.251299 0.472878
-0.0658792 -0.25193 0.473082
-0.0663312 -0.252556 0.473273
-0.0667999 -0.25324 0.473562
-0.0672629 -0.2539 0.473805
-0.0677669 -0.254707 0.474296
-0.0683246 -0.255707 0.475106
-0.0689418 -0.256916 0.476262
-0.0695945 -0.258245 0.47761
-0.0702719 -0.259651 0.479079
-0.0709341 -0.260991 0.480426
-0.0715311 -0.262087 0.481359
-0.072078 -0.262997 0.481975
-0.0725759 -0.263727 0.482291
-0.0730391 -0.264332 0.482396
-0.050979 -0.23873 0.48306
-0.051258 -0.238566 0.4818
-0.0515398 -0.238425 0.480591
-0.0518329 -0.238352 0.479515
-0.0521434 -0.238374 0.478625
-0.052482 -0.238542 0.478012
-0.0528316 -0.238766 0.477507
-0.0531862 -0.239017 0.477056
-0.053536 -0.239246 0.476563
-0.0538821 -0.239461 0.476046
-0.0542283 -0.239678 0.475534
-0.0545779 -0.239913 0.475058
-0.0549452 -0.240233 0.474738
-0.0553231 -0.240601 0.474508
-0.055715 -0.241034 0.474397
-0.0561367 -0.241599 0.474528
-0.0565598 -0.242168 0.474661
-0.0569834 -0.242736 0.47479
-0.0574063 -0.243296 0.474904
-0.0578341 -0.243875 0.47505
-0.0582732 -0.2445 0.475275
-0.0587462 -0.245266 0.475751
-0.0592247 -0.246051 0.476255
-0.0597106 -0.24686 0.476798
-0.0601596 -0.247506 0.477047
-0.060578 -0.24802 0.477058
-0.0609567 -0.248366 0.476771
-0.0613033 -0.24858 0.47625
-0.0616104 -0.248634 0.47545
-0.0619227 -0.248713 0.474696
-0.0622228 -0.248747 0.473866
-0.0625239 -0.248789 0.473054
-0.06287 -0.249015 0.472565
-0.0632478 -0.249368 0.472297
-0.0636586 -0.249851 0.472254
-0.0640901 -0.250413 0.472346
-0.0645476 -0.251074 0.472605
-0.0649924 -0.251681 0.47277
-0.0654486 -0.252329 0.473001
-0.0658953 -0.252937 0.473161
-0.066364 -0.253626 0.473456
-0.0668316 -0.254306 0.473732
-0.0673408 -0.255138 0.474262
-0.0678984 -0.256144 0.475079
-0.0685195 -0.257377 0.476272
-0.0691632 -0.258682 0.477577
-0.0698243 -0.260041 0.47896
-0.0704706 -0.261334 0.480225
-0.0710592 -0.262407 0.481118
-0.0715942 -0.263281 0.481673
-0.0720977 -0.264036 0.482027
-0.0725601 -0.264641 0.482132
-0.0504966 -0.238868 0.48249
-0.0507766 -0.238703 0.481231
-0.0510642 -0.238587 0.480073
-0.0513655 -0.238551 0.479071
-0.0516847 -0.238614 0.478259
-0.0520283 -0.238804 0.47769
-0.0523816 -0.239046 0.477221
-0.0527442 -0.239335 0.476842
-0.0531022 -0.239603 0.476423
-0.0534526 -0.239836 0.47594
-0.0538028 -0.24007 0.475461
-0.0541564 -0.240323 0.475016
-0.054532 -0.24068 0.474766
-0.0549147 -0.24107 0.474576
-0.0553112 -0.241524 0.474502
-0.0557321 -0.242089 0.47463
-0.0561542 -0.242655 0.474757
-0.0565727 -0.243201 0.474845
-0.0569917 -0.243747 0.47493
-0.0574195 -0.244328 0.475078
-0.0578628 -0.244974 0.47534
-0.0583316 -0.245728 0.47579
-0.0588097 -0.246515 0.476297
-0.0592893 -0.247302 0.476799
-0.059737 -0.247946 0.477042
-0.0601502 -0.24844 0.477015
-0.0605291 -0.248786 0.476728
-0.0608801 -0.249016 0.476236
-0.0611929 -0.249089 0.47547
-0.0615064 -0.249169 0.474719
-0.0618084 -0.249206 0.473895
-0.062115 -0.249265 0.473114
-0.0624568 -0.249471 0.472591
-0.0628303 -0.249807 0.472292
-0.0632405 -0.250288 0.472245
-0.0636667 -0.250832 0.472303
-0.0641189 -0.251475 0.472531
-0.0645576 -0.252061 0.472658
-0.0650174 -0.252727 0.472918
-0.0654587 -0.253317 0.473046
-0.0659267 -0.254006 0.473341
-0.066398 -0.254704 0.473645
-0.0669056 -0.255535 0.474171
-0.0674518 -0.256505 0.474926
-0.0680711 -0.257742 0.476121
-0.0687061 -0.259026 0.477385
-0.0693533 -0.260344 0.478698
-0.0699953 -0.261632 0.479951
-0.070587 -0.262726 0.480874
-0.0711263 -0.26362 0.481462
-0.0716367 -0.264405 0.481864
-0.0720996 -0.265014 0.481974
-0.0502809 -0.238757 0.480508
-0.0505854 -0.238726 0.479514
-0.0509004 -0.238756 0.478641
-0.0512283 -0.23886 0.477909
-0.0515759 -0.23907 0.477378
-0.0519371 -0.23935 0.476982
-0.0523068 -0.239675 0.47667
-0.0526728 -0.239982 0.476323
-0.0530274 -0.240234 0.475875
-0.0533787 -0.240471 0.475402
-0.0537353 -0.240736 0.47498
-0.0541152 -0.241113 0.474768
-0.0544983 -0.241506 0.474581
-0.0548987 -0.241979 0.474541
-0.0553221 -0.242557 0.474691
-0.0557395 -0.243103 0.47478
-0.0561534 -0.243631 0.474834
-0.0565759 -0.244195 0.47495
-0.0570083 -0.244799 0.475138
-0.0574572 -0.245474 0.475448
-0.0579264 -0.246233 0.475907
-0.0584036 -0.247021 0.476412
-0.0588729 -0.247768 0.476839
-0.0593107 -0.248372 0.477011
-0.0597143 -0.248826 0.476912
-0.0600929 -0.249171 0.476622
-0.0604396 -0.249381 0.476095
-0.0607582 -0.249474 0.475367
-0.0610772 -0.249573 0.47465
-0.0613848 -0.249629 0.473861
-0.0616979 -0.249711 0.47312
-0.0620438 -0.249932 0.472622
-0.0624128 -0.250248 0.472289
-0.062822 -0.250726 0.472237
-0.0632425 -0.251249 0.472258
-0.0636892 -0.251873 0.472451
-0.0641223 -0.25244 0.472544
-0.0645813 -0.253106 0.472803
-0.065017 -0.253677 0.472898
-0.0654837 -0.254365 0.473189
-0.0659536 -0.255062 0.47349
-0.0664587 -0.255889 0.474007
-0.0670029 -0.256859 0.474759
-0.0676143 -0.258075 0.475916
-0.068242 -0.259343 0.47715
-0.0688862 -0.260661 0.478458
-0.0695258 -0.261951 0.479711
-0.0701161 -0.263047 0.480637
-0.0706609 -0.263968 0.481266
-0.0711772 -0.264779 0.481709
-0.0716329 -0.265365 0.48178
-0.05247 -0.241504 0.478341
-0.052598 -0.240611 0.475773
-0.052953 -0.240865 0.475331
-0.0533177 -0.241168 0.474979
-0.0537016 -0.241565 0.474801
-0.0540811 -0.24194 0.474582
-0.0544851 -0.242431 0.474574
-0.0549038 -0.24299 0.474686
-0.0553126 -0.243498 0.474706
-0.0557266 -0.244028 0.474762
-0.0561528 -0.244611 0.474913
-0.0565898 -0.24524 0.475143
-0.0570469 -0.245955 0.475525
-0.057516 -0.246719 0.475988
-0.0579881 -0.247489 0.476459
-0.0584467 -0.248193 0.476808
-0.0588741 -0.248755 0.476902
-0.0592685 -0.249169 0.476735
-0.0596479 -0.249518 0.476451
-0.059995 -0.249727 0.475924
-0.0603226 -0.249856 0.475258
-0.060652 -0.249996 0.474613
-0.0609659 -0.250074 0.473863
-0.0612846 -0.250176 0.473157
-0.0616316 -0.250398 0.472662
-0.0619952 -0.250691 0.472289
-0.0623938 -0.251127 0.472163
-0.0628087 -0.251628 0.472147
-0.0632493 -0.252231 0.472302
-0.0636819 -0.252799 0.472396
-0.0641402 -0.253466 0.472654
-0.0645753 -0.254037 0.472749
-0.0650365 -0.254707 0.473009
-0.0654952 -0.255364 0.473242
-0.0659877 -0.256149 0.473686
-0.0665179 -0.257072 0.474359
-0.0671255 -0.258285 0.475507
-0.0677505 -0.259554 0.47674
-0.0683983 -0.260898 0.478087
-0.0690475 -0.262235 0.479415
-0.0696531 -0.263398 0.480446
-0.0702103 -0.264371 0.481159
-0.070732 -0.265207 0.481641
-0.0711929 -0.265813 0.481745
-0.053129 -0.242742 0.477068
-0.0532756 -0.241958 0.474727
-0.0536558 -0.242336 0.474514
-0.0540628 -0.242844 0.474534
-0.0544778 -0.243387 0.474617
-0.0548899 -0.243913 0.474668
-0.0553031 -0.244442 0.474722
-0.0557334 -0.245047 0.474909
-0.0561743 -0.245697 0.475177
-0.0566399 -0.246456 0.475632
-0.0571047 -0.247204 0.476067
-0.0575698 -0.247948 0.476488
-0.0580177 -0.248608 0.476757
-0.0584348 -0.249126 0.476773
-0.0588207 -0.249504 0.47654
-0.0591996 -0.24985 0.476253
-0.0595518 -0.250081 0.475764
-0.0598899 -0.250252 0.475172
-0.0602249 -0.250412 0.474564
-0.0605459 -0.250516 0.47386
-0.06087 -0.250637 0.473188
-0.0612136 -0.250843 0.472664
-0.0615721 -0.251112 0.472252
-0.061965 -0.251526 0.472086
-0.0623743 -0.252006 0.472033
-0.0628095 -0.25259 0.472154
-0.0632415 -0.253158 0.472247
-0.063699 -0.253825 0.472506
-0.0641335 -0.254397 0.4726
-0.0645939 -0.255068 0.47286
-0.0650463 -0.255704 0.473057
-0.0655274 -0.256448 0.473432
-0.066044 -0.257326 0.474026
-0.0666269 -0.258454 0.475031
-0.0672638 -0.25978 0.476356
-0.0679213 -0.261173 0.477781
-0.068588 -0.262589 0.479234
-0.0692119 -0.26383 0.48039
-0.0697891 -0.264884 0.481234
-0.0702931 -0.265658 0.481612
-0.0707475 -0.266243 0.481679
-0.0534806 -0.243976 0.476702
-0.0536466 -0.243289 0.474552
-0.0540566 -0.24381 0.474595
-0.0544692 -0.24434 0.474651
-0.0548835 -0.244876 0.474716
-0.0553131 -0.245481 0.474903
-0.0557543 -0.246136 0.475176
-0.0562189 -0.246895 0.475631
-0.0566745 -0.247606 0.475996
-0.0571296 -0.248309 0.476343
-0.0575705 -0.248942 0.476563
-0.0579818 -0.249436 0.476536
-0.0583715 -0.249831 0.476334
-0.0587555 -0.2502 0.476087
-0.0591177 -0.250473 0.475672
-0.0594657 -0.250685 0.475152
-0.059807 -0.25087 0.474587
-0.0601296 -0.250977 0.473888
-0.0604596 -0.251119 0.473253
-0.0607984 -0.251301 0.47269
-0.0611478 -0.251531 0.472209
-0.0615351 -0.251922 0.472003
-0.0619394 -0.252382 0.471916
-0.0623696 -0.252948 0.472006
-0.0628011 -0.253516 0.472099
-0.0632578 -0.254184 0.472357
-0.0636918 -0.254756 0.472451
-0.0641514 -0.255429 0.472711
-0.0646027 -0.256063 0.472904
-0.0650815 -0.256803 0.473272
-0.0655903 -0.257657 0.473823
-0.066154 -0.258719 0.474715
-0.0667983 -0.260086 0.476103
-0.0674671 -0.261535 0.477617
-0.0681406 -0.262988 0.479128
-0.06877 -0.26426 0.480331
-0.0693622 -0.26538 0.481277
-0.0698473 -0.266086 0.481544
-0.0705087 -0.267449 0.482873
-0.053223 -0.243699 0.474506
-0.0536311 -0.244213 0.474535
-0.0540422 -0.244738 0.474582
-0.0544554 -0.245271 0.474641
-0.0548869 -0.245889 0.474848
-0.0553392 -0.246601 0.475221
-0.0558073 -0.247382 0.475712
-0.0562582 -0.248075 0.476043
-0.0567021 -0.24873 0.476303
-0.0571316 -0.249313 0.476434
-0.0575348 -0.249771 0.476344
-0.0579246 -0.250168 0.476146
-0.05831 -0.250544 0.47591
-0.0586771 -0.250838 0.475532
-0.0590299 -0.251069 0.475046
-0.0593815 -0.251296 0.474555
-0.0597006 -0.251385 0.473825
-0.0600309 -0.251525 0.473187
-0.0603687 -0.251701 0.472613
-0.0607131 -0.251907 0.472092
-0.0610918 -0.252261 0.471824
-0.0615001 -0.25274 0.471768
-0.0619249 -0.253286 0.471824
-0.0623559 -0.253855 0.471917
-0.0628113 -0.254522 0.472172
-0.0632451 -0.255096 0.472269
-0.0637039 -0.255769 0.472528
-0.0641595 -0.256424 0.472755
-0.0646373 -0.257165 0.473122
-0.0651351 -0.257981 0.473608
-0.0657098 -0.259095 0.474584
-0.0663633 -0.26051 0.476047
-0.0670413 -0.262007 0.477636
-0.0677185 -0.263487 0.479185
-0.0683557 -0.264799 0.480448
-0.0689223 -0.265827 0.481243
-0.0695948 -0.267252 0.482674
-0.0536134 -0.245129 0.474499
-0.0540253 -0.245657 0.474548
-0.0544538 -0.246264 0.474735
-0.0549975 -0.247425 0.475902
-0.0554677 -0.248218 0.47641
-0.0559061 -0.248852 0.476633
-0.0563295 -0.249411 0.476721
-0.0567431 -0.24992 0.47672
-0.0570935 -0.250133 0.476198
-0.0574889 -0.250556 0.476046
-0.057875 -0.250935 0.475815
-0.0582467 -0.251249 0.475472
-0.0586032 -0.251494 0.475011
-0.0589552 -0.251722 0.47452
-0.0592674 -0.251775 0.473731
-0.0595926 -0.25189 0.473051
-0.0599252 -0.25204 0.472434
-0.0602603 -0.252205 0.471842
-0.0606256 -0.252502 0.471478
-0.061033 -0.252979 0.471419
-0.0614567 -0.253524 0.471473
-0.0618912 -0.254112 0.471597
-0.0623509 -0.254801 0.471888
-0.0627937 -0.255416 0.472053
-0.0632565 -0.256109 0.472345
-0.0637121 -0.256768 0.472578
-0.0641798 -0.257473 0.472883
-0.0647062 -0.25841 0.473568
-0.0653033 -0.259623 0.474702
-0.0659687 -0.261096 0.476257
-0.0666327 -0.26255 0.477769
-0.0675193 -0.264866 0.480677
-0.0681479 -0.266148 0.481885
-0.0557217 -0.250452 0.478667
-0.0561056 -0.250814 0.478401
-0.0564854 -0.251156 0.478101
-0.0567751 -0.251073 0.477062
-0.0571194 -0.251254 0.476484
-0.0574561 -0.251402 0.475852
-0.0578318 -0.251732 0.475536
-0.0581924 -0.251994 0.475104
-0.0585962 -0.252453 0.47501
-0.0589052 -0.252485 0.474184
-0.0592244 -0.252567 0.473447
-0.0595408 -0.252641 0.472699
-0.0598587 -0.252726 0.471972
-0.0602237 -0.25302 0.471602
-0.0607039 -0.253812 0.472074
-0.0611993 -0.254664 0.47264
-0.0617 -0.25553 0.473227
-0.0622161 -0.256455 0.473906
-0.0626522 -0.257036 0.474006
-0.0630986 -0.257656 0.47417
-0.0635413 -0.258258 0.474299
-0.0639957 -0.258904 0.474501
-0.064505 -0.259771 0.475063
-0.0650358 -0.260718 0.475753
-0.065642 -0.261962 0.476922
-0.0662617 -0.263248 0.478153
-0.0671622 -0.26564 0.481177
-0.0677964 -0.266953 0.482428
-0.068917 -0.267965 0.483953
-0.0566051 -0.25274 0.479183
-0.0569461 -0.252891 0.478548
-0.0572911 -0.253065 0.477954
-0.0576835 -0.253462 0.477747
-0.0580574 -0.253773 0.477393
-0.058472 -0.254271 0.477359
-0.059743 -0.254522 0.474259
-0.0601113 -0.254819 0.473887
-0.0605958 -0.255625 0.474373
-0.0610927 -0.256479 0.474933
-0.0615843 -0.257302 0.475439
-0.0620929 -0.258192 0.47605
-0.0625207 -0.25873 0.476072
-0.0629533 -0.259286 0.476121
-0.0633818 -0.259823 0.476136
-0.0638259 -0.260421 0.476252
-0.0643146 -0.261201 0.476664
-0.0648071 -0.261991 0.477088
-0.0653472 -0.262969 0.477816
-0.0659038 -0.264007 0.478634
-0.0670646 -0.267468 0.483387
-0.0564484 -0.254509 0.481469
-0.0567883 -0.254639 0.480792
-0.0571406 -0.254833 0.480228
-0.057552 -0.25531 0.480149
-0.0579414 -0.25568 0.479889
-0.0583657 -0.256213 0.479907
-0.0600351 -0.256818 0.476496
-0.060516 -0.257601 0.476934
-0.0610063 -0.258421 0.477427
-0.0614836 -0.259176 0.477809
-0.0619746 -0.259985 0.478277
-0.0623916 -0.260469 0.478201
-0.0628052 -0.260936 0.478096
-0.0632193 -0.261404 0.477991
-0.0636431 -0.261912 0.47795
-0.0641095 -0.262596 0.478198
-0.0645859 -0.263317 0.478503
-0.0650837 -0.264122 0.478941
-0.0556232 -0.255109 0.485248
-0.0550374 -0.256441 0.487697
-0.0553884 -0.256589 0.487032
-0.0562778 -0.25625 0.483696
-0.0566284 -0.256418 0.483077
-0.057 -0.256691 0.482641
-0.0574317 -0.257253 0.482702
-0.0599682 -0.258903 0.479236
-0.0604273 -0.259581 0.479488
-0.0608927 -0.260283 0.479775
-0.0613463 -0.260927 0.479963
-0.0618161 -0.261638 0.480259
-0.0622285 -0.262094 0.48013
-0.0626296 -0.2625 0.479917
-0.0630265 -0.262887 0.479673
-0.0634367 -0.263331 0.479521
-0.0638896 -0.263954 0.479663
-0.0643293 -0.264518 0.479706
-0.0647806 -0.265128 0.479821
-0.054234 -0.256703 0.488275
-0.0546332 -0.257092 0.488029
-0.055035 -0.257494 0.487806
-0.0556881 -0.256483 0.485928
-0.0553847 -0.257631 0.48712
-0.0559939 -0.256417 0.484896
-0.0557332 -0.257766 0.486436
-0.0560785 -0.257889 0.485732
-0.056443 -0.258112 0.485203
-0.0568363 -0.258478 0.484921
-0.0572853 -0.259115 0.485102
-0.0578413 -0.257707 0.482576
-0.0577119 -0.25964 0.485089
-0.0582769 -0.258282 0.482656
-0.0581599 -0.260264 0.485243
-0.0599011 -0.261033 0.482038
-0.0603362 -0.261593 0.48208
-0.0607744 -0.262163 0.48214
-0.0611984 -0.262667 0.482086
-0.0616404 -0.263249 0.482161
-0.062038 -0.263631 0.481904
-0.062424 -0.263963 0.481562
-0.0628106 -0.264297 0.481227
-0.0632129 -0.2647 0.481003
-0.0636202 -0.265124 0.480813
-0.0640176 -0.265505 0.480553
-0.064435 -0.26597 0.48043
-0.0538232 -0.256252 0.488412
-0.053364 -0.25662 0.488249
-0.0537659 -0.257026 0.488032
-0.0541612 -0.257395 0.487751
-0.0545584 -0.257774 0.487488
-0.054953 -0.258141 0.487203
-0.0553478 -0.258507 0.486917
-0.0557466 -0.258895 0.486668
-0.0561684 -0.259397 0.486615
-0.0566201 -0.260045 0.486812
-0.0570797 -0.260729 0.487065
-0.0575175 -0.2613 0.487124
-0.0579367 -0.261776 0.487021
-0.0585276 -0.260503 0.484742
-0.0583249 -0.262103 0.486662
-0.0588602 -0.260579 0.483967
-0.0586735 -0.262241 0.485988
-0.0591956 -0.260673 0.483225
-0.0590258 -0.262401 0.48535
-0.0595383 -0.260805 0.48255
-0.0593825 -0.262585 0.484756
-0.0597327 -0.262741 0.484117
-0.0600867 -0.262918 0.483516
-0.0604399 -0.263094 0.482915
-0.0607844 -0.263234 0.482255
-0.0611562 -0.263501 0.481807
-0.0615535 -0.263883 0.48155
-0.0619455 -0.264242 0.481254
-0.0623374 -0.2646 0.480958
-0.0627395 -0.265003 0.480735
-0.0631512 -0.265447 0.480578
-0.0635505 -0.265836 0.480332
-0.0641044 -0.266888 0.481158
-0.0533005 -0.257361 0.487811
-0.0536927 -0.257714 0.487503
-0.0540825 -0.258056 0.487174
-0.0544736 -0.258404 0.486857
-0.0548677 -0.258768 0.486569
-0.0552708 -0.259179 0.48636
-0.0556965 -0.259704 0.486347
-0.0561513 -0.260373 0.486578
-0.0566138 -0.261075 0.486862
-0.0570591 -0.261687 0.486988
-0.0574919 -0.262232 0.487001
-0.0578921 -0.262616 0.486739
-0.0582517 -0.262803 0.486146
-0.0586057 -0.262966 0.485515
-0.0589523 -0.263097 0.484833
-0.0592885 -0.263184 0.484078
-0.0596291 -0.263295 0.483367
-0.0599736 -0.263428 0.482696
-0.0603178 -0.263564 0.482031
-0.0606853 -0.26381 0.481549
-0.0610828 -0.264194 0.481295
-0.0614792 -0.264573 0.481033
-0.0618807 -0.264974 0.480807
-0.0622788 -0.26536 0.480555
-0.0626946 -0.265823 0.48043
-0.0630954 -0.266219 0.480195
-0.0637708 -0.267806 0.481882
-0.0528526 -0.257791 0.487754
-0.0532384 -0.258109 0.487386
-0.0536165 -0.258386 0.486946
-0.0539987 -0.258687 0.486549
-0.0543923 -0.25905 0.486258
-0.0547947 -0.259459 0.486047
-0.0552237 -0.260004 0.486068
-0.0556816 -0.260694 0.486332
-0.0561466 -0.261415 0.486647
-0.0566003 -0.262072 0.48685
-0.0570471 -0.26269 0.486985
-0.0574502 -0.263088 0.486745
-0.0578204 -0.263323 0.486234
-0.0581741 -0.263481 0.485594
-0.0585118 -0.263565 0.484833
-0.0588402 -0.263609 0.484008
-0.059176 -0.263694 0.483255
-0.0595172 -0.263808 0.482553
-0.0598664 -0.263964 0.481922
-0.0602387 -0.26423 0.481474
-0.0606362 -0.264614 0.48122
-0.0610376 -0.265016 0.480994
-0.0614395 -0.265418 0.48077
-0.0618332 -0.265784 0.480485
-0.0622438 -0.266225 0.480323
-0.0626435 -0.266616 0.48008
-0.0524095 -0.25825 0.487748
-0.0527897 -0.258535 0.487323
-0.053166 -0.258801 0.486863
-0.0535436 -0.259075 0.486421
-0.0539325 -0.259413 0.486087
-0.0543345 -0.25982 0.485873
-0.0547599 -0.26035 0.485865
-0.0552127 -0.261018 0.486093
-0.0556775 -0.261743 0.486413
-0.0561348 -0.262424 0.486655
-0.0565877 -0.263077 0.486846
-0.0569997 -0.263519 0.486683
-0.0573748 -0.263777 0.486209
-0.0577326 -0.263951 0.485597
-0.058066 -0.264009 0.484794
-0.0583946 -0.264049 0.483963
-0.0587317 -0.264135 0.483213
-0.0590776 -0.264268 0.482542
-0.0594326 -0.264448 0.481951
-0.0598104 -0.264738 0.481542
-0.0602046 -0.265105 0.481259
-0.0606057 -0.265505 0.48103
-0.061007 -0.265905 0.480801
-0.0613918 -0.266229 0.480449
-0.0617978 -0.266649 0.480253
-0.0621913 -0.267013 0.479965
-0.0507109 -0.260035 0.496492
-0.0497317 -0.259392 0.495478
-0.0500162 -0.259053 0.493933
-0.0513843 -0.258067 0.490209
-0.0506045 -0.258536 0.491149
-0.0509342 -0.258507 0.490165
-0.0512662 -0.258499 0.489223
-0.0516184 -0.258614 0.4885
-0.051972 -0.258744 0.487802
-0.0523446 -0.258983 0.487297
-0.0527157 -0.259219 0.486786
-0.0530895 -0.25947 0.486304
-0.0534747 -0.259786 0.485933
-0.0538732 -0.260175 0.485687
-0.0542944 -0.260685 0.485646
-0.054738 -0.26131 0.485799
-0.0552017 -0.262036 0.486119
-0.0556585 -0.262719 0.486364
-0.0561186 -0.263414 0.486626
-0.0565353 -0.263882 0.486505
-0.0569191 -0.264181 0.486101
-0.0572768 -0.264352 0.485484
-0.0576151 -0.26443 0.484715
-0.0579401 -0.264447 0.483848
-0.0582821 -0.264553 0.483132
-0.0586336 -0.26471 0.4825
-0.0589946 -0.264915 0.481951
-0.0593739 -0.26521 0.48155
-0.0597686 -0.265579 0.481271
-0.0601692 -0.265976 0.481036
-0.0605699 -0.266372 0.480801
-0.0609497 -0.266672 0.480409
-0.0613501 -0.267067 0.480171
-0.0617437 -0.267431 0.479883
-0.0486419 -0.258013 0.493165
-0.0490491 -0.258432 0.492962
-0.0494371 -0.258733 0.49255
-0.0502634 -0.258506 0.492033
-0.0498031 -0.258902 0.491908
-0.0501507 -0.258963 0.491082
-0.0504844 -0.25895 0.490127
-0.0508236 -0.258977 0.489248
-0.0511755 -0.259086 0.488513
-0.0515341 -0.259238 0.487856
-0.0519019 -0.259448 0.487299
-0.0522705 -0.259665 0.486757
-0.0526405 -0.259893 0.486235
-0.0530222 -0.260189 0.48583
-0.0534171 -0.260558 0.48555
-0.053837 -0.261063 0.4855
-0.054276 -0.261667 0.485616
-0.0547327 -0.262362 0.485882
-0.0551876 -0.26304 0.486119
-0.0556468 -0.263736 0.48638
-0.0560643 -0.264209 0.486267
-0.0564527 -0.264532 0.485904
-0.0568151 -0.264724 0.485323
-0.0571586 -0.264823 0.484591
-0.0574892 -0.264864 0.483764
-0.0578334 -0.264976 0.483059
-0.0581905 -0.265156 0.482467
-0.0585565 -0.265384 0.481954
-0.0589369 -0.265683 0.481559
-0.0593275 -0.266031 0.481245
-0.0597271 -0.266423 0.481002
-0.0601268 -0.266814 0.480758
-0.0605066 -0.267113 0.480364
-0.0609078 -0.267511 0.480132
-0.0613056 -0.267894 0.479874
-0.0484053 -0.25868 0.495291
-0.0482393 -0.259827 0.498281
-0.0475978 -0.259085 0.49613
-0.047853 -0.258502 0.494149
-0.0481762 -0.258378 0.492986
-0.0485827 -0.258794 0.492777
-0.0489718 -0.2591 0.492377
-0.0493419 -0.25929 0.491773
-0.0496918 -0.259361 0.490963
-0.0500352 -0.2594 0.490101
-0.0503822 -0.259466 0.48929
-0.0507333 -0.259565 0.488538
-0.0510961 -0.259737 0.487915
-0.0514642 -0.259945 0.487355
-0.0518315 -0.26015 0.486793
-0.0521985 -0.260358 0.486237
-0.0525807 -0.260654 0.485832
-0.0529758 -0.261023 0.485552
-0.0533949 -0.261525 0.485496
-0.0538239 -0.262078 0.485524
-0.0542667 -0.262702 0.485671
-0.0547115 -0.263331 0.485823
-0.0551652 -0.264003 0.486044
-0.0555831 -0.264482 0.48594
-0.0559772 -0.264835 0.485627
-0.0563492 -0.265074 0.485125
-0.0567023 -0.265219 0.48447
-0.0570389 -0.265284 0.483685
-0.0573933 -0.265444 0.483059
-0.0577599 -0.265669 0.48254
-0.0581311 -0.265918 0.482063
-0.0585118 -0.266216 0.481665
-0.0588974 -0.266539 0.48131
-0.0592922 -0.266906 0.481027
-0.0596873 -0.267276 0.480747
-0.0600726 -0.267598 0.480391
-0.0604798 -0.268025 0.480203
-0.0608885 -0.268457 0.480024
-0.0469902 -0.258525 0.494311
-0.0473248 -0.258462 0.493254
-0.0477225 -0.258821 0.492945
-0.0481258 -0.259216 0.492699
-0.0485185 -0.259544 0.492335
-0.0488903 -0.25974 0.491742
-0.0492484 -0.259857 0.491013
-0.0495965 -0.259916 0.490188
-0.0499476 -0.260001 0.489409
-0.0502991 -0.260095 0.488651
-0.0506627 -0.260267 0.488028
-0.0510287 -0.260457 0.487437
-0.0513996 -0.26068 0.486906
-0.05177 -0.260904 0.486375
-0.0521495 -0.261181 0.485939
-0.0525445 -0.261549 0.485656
-0.0529562 -0.26201 0.485528
-0.0533728 -0.262496 0.485443
