ply
format ascii 1.0
element vertex 1653
property float x
property float y
property float z
end_header
-0.164625 0.0176621 0.884164
-0.16524 0.0170557 0.883812
-0.165834 0.0164441 0.883374
-0.166427 0.0158329 0.882933
-0.167004 0.0152172 0.882423
-0.167599 0.0146101 0.882001
-0.168176 0.0139979 0.881507
-0.168788 0.0133987 0.881172
-0.169411 0.0128037 0.880888
-0.170054 0.012216 0.880697
-0.170674 0.0116222 0.88041
-0.171305 0.0110329 0.880172
-0.171924 0.0104402 0.879885
-0.172553 0.00985171 0.879645
-0.173181 0.00926354 0.879403
-0.173811 0.00867638 0.879169
-0.174427 0.00808662 0.878886
-0.175041 0.00749674 0.878592
-0.175651 0.00690702 0.878286
-0.176251 0.0063154 0.877944
-0.176875 0.00573135 0.877702
-0.177512 0.00515029 0.877519
-0.178187 0.00457932 0.877488
-0.178876 0.00401144 0.877519
-0.179592 0.00345047 0.877659
-0.180309 0.00288861 0.877798
-0.181025 0.0023267 0.877935
-0.181714 0.0017584 0.877967
-0.182368 0.00118313 0.877852
-0.183064 0.000616068 0.877909
-0.183726 4.35495e-05 0.877833
-0.184403 -0.000526858 0.877814
-0.185063 -0.00109995 0.877733
-0.15015 0.0337721 0.899447
-0.14884 0.0336458 0.899387
-0.149544 0.0330455 0.899339
-0.150883 0.0331889 0.899558
-0.150261 0.0324535 0.899369
-0.150946 0.0318429 0.899219
-0.151619 0.0312267 0.899014
-0.152262 0.0305949 0.898651
-0.152878 0.0299496 0.898146
-0.153444 0.0292808 0.897395
-0.154006 0.0286119 0.89663
-0.154556 0.0279398 0.895813
-0.155088 0.0272617 0.894917
-0.155607 0.0265797 0.893964
-0.15612 0.0258987 0.892998
-0.15663 0.0252198 0.892025
-0.157161 0.0245539 0.891176
-0.157695 0.0238921 0.890347
-0.15827 0.0232511 0.889727
-0.158861 0.0226198 0.889202
-0.159466 0.0219954 0.888745
-0.160062 0.0213696 0.888254
-0.160635 0.0207359 0.88766
-0.161189 0.0200962 0.886979
-0.161735 0.0194552 0.886272
-0.162304 0.0188256 0.885678
-0.162859 0.0181934 0.885034
-0.163478 0.0175868 0.884688
-0.164094 0.0169806 0.884337
-0.164721 0.0163784 0.884036
-0.165328 0.0157711 0.883649
-0.165932 0.0151641 0.88326
-0.166523 0.0145533 0.882807
-0.16713 0.0139495 0.882439
-0.167718 0.0133406 0.881986
-0.16833 0.0127411 0.881649
-0.168943 0.0121433 0.881317
-0.169586 0.0115552 0.881123
-0.170207 0.010961 0.880833
-0.17084 0.0103718 0.880599
-0.171449 0.00977597 0.880264
-0.172089 0.00918987 0.880069
-0.172719 0.00860186 0.879833
-0.173352 0.00801532 0.879608
-0.173983 0.00742909 0.879379
-0.174632 0.00684831 0.879232
-0.175271 0.00626475 0.879042
-0.175911 0.00568304 0.87886
-0.176574 0.00510704 0.878777
-0.177228 0.00452919 0.878654
-0.177915 0.00395941 0.87867
-0.178616 0.0033927 0.878743
-0.179333 0.00282952 0.878877
-0.180039 0.002264 0.878972
-0.180768 0.00170289 0.879155
-0.181461 0.00113391 0.87919
-0.182139 0.000561854 0.879167
-0.182851 -3.74609e-06 0.879281
-0.18354 -0.000573359 0.879302
-0.147549 0.0335305 0.899431
-0.14826 0.0329342 0.899423
-0.148953 0.0323278 0.899314
-0.14963 0.0317127 0.899124
-0.150297 0.031093 0.89888
-0.15095 0.030466 0.898564
-0.151581 0.029829 0.898138
-0.152182 0.0291771 0.897558
-0.152767 0.0285193 0.896906
-0.15334 0.0278576 0.896196
-0.153903 0.027193 0.895445
-0.154445 0.0265216 0.8946
-0.154985 0.0258515 0.893754
-0.15551 0.0251768 0.892837
-0.156031 0.0245038 0.891919
-0.156573 0.0238435 0.891115
-0.157119 0.0231882 0.890347
-0.157706 0.0225531 0.889784
-0.158311 0.0219279 0.889321
-0.158935 0.0213131 0.888959
-0.159543 0.0206919 0.88852
-0.160127 0.0200624 0.887972
-0.160684 0.0194243 0.887304
-0.161232 0.0187843 0.886596
-0.161782 0.0181475 0.88591
-0.162337 0.017514 0.885256
-0.162946 0.0169043 0.884862
-0.163574 0.0163023 0.884564
-0.164212 0.0157048 0.884311
-0.164831 0.0151008 0.883976
-0.165448 0.0144981 0.883638
-0.16604 0.0138883 0.883193
-0.16665 0.0132851 0.882828
-0.167251 0.0126801 0.882429
-0.167875 0.0120844 0.88214
-0.168488 0.0114853 0.881805
-0.169142 0.0109005 0.881654
-0.169763 0.0103059 0.881362
-0.170385 0.00971258 0.881077
-0.170994 0.00911638 0.88074
-0.171636 0.00853038 0.880544
-0.172267 0.00794198 0.880306
-0.172911 0.00735834 0.880129
-0.173555 0.00677514 0.879955
-0.174232 0.00620039 0.879921
-0.174901 0.00562387 0.879848
-0.175569 0.00504775 0.87978
-0.176261 0.0044774 0.879808
-0.17694 0.00390463 0.879785
-0.177641 0.00333608 0.87985
-0.178343 0.00276811 0.879921
-0.179058 0.00220312 0.880044
-0.17974 0.00163044 0.880032
-0.180452 0.00106396 0.880145
-0.18113 0.000490601 0.880116
-0.181808 -8.22837e-05 0.880089
-0.147027 0.0328539 0.899793
-0.147722 0.0322474 0.89969
-0.14838 0.0316207 0.899393
-0.149027 0.0309885 0.89903
-0.14966 0.0303498 0.898601
-0.150282 0.0297069 0.898118
-0.150894 0.0290607 0.897594
-0.151495 0.0284103 0.897015
-0.152103 0.0277654 0.896479
-0.152688 0.0271111 0.895831
-0.153272 0.0264585 0.89519
-0.153826 0.0257937 0.894401
-0.154368 0.0251255 0.89356
-0.154893 0.0244519 0.892643
-0.155425 0.0237854 0.891777
-0.155969 0.0231265 0.890979
-0.156537 0.0224817 0.890314
-0.157134 0.0218521 0.889805
-0.157751 0.021232 0.889392
-0.158376 0.0206172 0.889031
-0.158992 0.0199996 0.88863
-0.159586 0.0193751 0.888127
-0.160165 0.0187454 0.887559
-0.160718 0.0181079 0.886874
-0.161272 0.0174727 0.886198
-0.161827 0.0168397 0.885536
-0.162425 0.0162255 0.885089
-0.163044 0.0156203 0.884746
-0.163685 0.0150234 0.884504
-0.164324 0.0144268 0.884261
-0.164963 0.0138311 0.884019
-0.165569 0.0132256 0.883629
-0.166192 0.0126268 0.883323
-0.166804 0.0120251 0.882972
-0.16743 0.0114286 0.882683
-0.168035 0.0108269 0.882309
-0.1687 0.010245 0.882203
-0.169333 0.00965323 0.881955
-0.169967 0.00906289 0.881718
-0.1706 0.00847295 0.881481
-0.171263 0.00789262 0.881375
-0.171906 0.00730628 0.881181
-0.172551 0.00672183 0.881003
-0.173219 0.00614306 0.880922
-0.173899 0.00556811 0.880896
-0.174582 0.00499421 0.880879
-0.175267 0.00442039 0.880873
-0.175984 0.00385463 0.881
-0.176654 0.00327775 0.880935
-0.177357 0.00270807 0.881
-0.178046 0.00213584 0.881016
-0.17874 0.00156436 0.881045
-0.179396 0.00098535 0.880924
-0.180083 0.000412504 0.880926
-0.180754 -0.000163393 0.880867
-0.145838 0.0328008 0.900424
-0.146512 0.0321809 0.900199
-0.147168 0.0315513 0.899877
-0.147799 0.0309086 0.899422
-0.148415 0.030259 0.898887
-0.149025 0.0296083 0.898331
-0.149633 0.0289591 0.897777
-0.150228 0.028304 0.897154
-0.150832 0.0276565 0.896587
-0.15146 0.027023 0.896161
-0.152048 0.0263712 0.895528
-0.152644 0.0257255 0.894947
-0.153228 0.0250762 0.894311
-0.153791 0.0244187 0.893571
-0.154319 0.0237479 0.892668
-0.154863 0.0230865 0.891855
-0.155408 0.022429 0.891058
-0.155976 0.0217843 0.890387
-0.156574 0.0211557 0.889882
-0.157192 0.0205361 0.889475
-0.157818 0.0199223 0.889113
-0.158423 0.0193007 0.888656
-0.159017 0.0186757 0.888149
-0.159607 0.0180514 0.887632
-0.160186 0.0174238 0.887066
-0.160752 0.0167934 0.886445
-0.161338 0.0161728 0.885929
-0.161945 0.0155612 0.885515
-0.162555 0.0149525 0.885122
-0.163197 0.0143557 0.884884
-0.163849 0.0137634 0.884698
-0.164491 0.0131688 0.884464
-0.165098 0.0125624 0.884073
-0.165742 0.0119701 0.883859
-0.166367 0.0113719 0.88356
-0.166997 0.0107765 0.883287
-0.167614 0.0101782 0.882959
-0.16828 0.00959499 0.882852
-0.168926 0.00900669 0.882658
-0.169564 0.00841661 0.882433
-0.170211 0.00782966 0.882254
-0.170877 0.0072487 0.882154
-0.171532 0.00666527 0.882011
-0.172178 0.00607957 0.881831
-0.172859 0.00550333 0.881799
-0.173551 0.00493043 0.881817
-0.174245 0.0043576 0.881843
-0.17494 0.00378482 0.88187
-0.175656 0.00321772 0.881994
-0.176316 0.00263673 0.881876
-0.177009 0.00206387 0.881898
-0.177687 0.00148793 0.881862
-0.178347 0.000907818 0.881745
-0.178966 0.00032052 0.881466
-0.179626 -0.000258247 0.881359
-0.145382 0.0321631 0.901175
-0.146 0.0315086 0.900622
-0.146625 0.0308605 0.900123
-0.147229 0.0302023 0.89951
-0.147804 0.0295306 0.898753
-0.148393 0.0288689 0.898077
-0.148991 0.0282145 0.897463
-0.149576 0.0275561 0.896788
-0.15019 0.0269143 0.896274
-0.150837 0.0262918 0.895949
-0.151438 0.025647 0.895381
-0.152045 0.0250074 0.894857
-0.15265 0.0243687 0.894326
-0.153225 0.0237173 0.893644
-0.153766 0.0230529 0.892802
-0.154312 0.0223934 0.891994
-0.154857 0.0217361 0.891191
-0.155423 0.0210913 0.89051
-0.156023 0.0204628 0.890005
-0.156634 0.0198402 0.889555
-0.15727 0.0192305 0.889244
-0.157866 0.0186053 0.888737
-0.158459 0.0179809 0.888224
-0.159061 0.0173608 0.887756
-0.159663 0.0167429 0.8873
-0.160234 0.0161149 0.8867
-0.160841 0.0155017 0.886278
-0.161456 0.0148933 0.885903
-0.162056 0.0142806 0.88546
-0.162699 0.0136838 0.885223
-0.163354 0.0130921 0.885041
-0.164006 0.0125003 0.884856
-0.164616 0.0118951 0.884473
-0.165272 0.0113056 0.884311
-0.165909 0.0107112 0.884062
-0.166561 0.0101215 0.883881
-0.167191 0.0095266 0.883607
-0.16787 0.00894639 0.883556
-0.168549 0.00836705 0.883506
-0.169203 0.00778054 0.883345
-0.169867 0.00719722 0.883232
-0.170549 0.00661887 0.883194
-0.171217 0.00603716 0.883101
-0.171855 0.0054484 0.882875
-0.172537 0.00487091 0.882845
-0.173228 0.00429618 0.882854
-0.173912 0.0037193 0.882829
-0.174603 0.00314503 0.88284
-0.175319 0.0025757 0.882953
-0.175968 0.00199149 0.882783
-0.176658 0.00141715 0.882793
-0.144279 0.0321639 0.90233
-0.144885 0.0314997 0.901697
-0.145471 0.0308263 0.900962
-0.146075 0.0301656 0.900334
-0.146662 0.0294982 0.899627
-0.147221 0.0288172 0.898766
-0.147792 0.0281463 0.897989
-0.148381 0.0274881 0.897325
-0.148956 0.0268248 0.896592
-0.149569 0.0261836 0.896073
-0.150217 0.0255616 0.89575
-0.150829 0.024923 0.895237
-0.151447 0.0242897 0.894768
-0.152073 0.0236609 0.894343
-0.15266 0.023016 0.893721
-0.153214 0.022358 0.892943
-0.153762 0.0217 0.892138
-0.154305 0.0210426 0.891321
-0.15487 0.0203969 0.890627
-0.155471 0.019769 0.89012
-0.156074 0.0191438 0.889632
-0.156721 0.0185387 0.889374
-0.157326 0.0179171 0.888907
-0.15792 0.0172927 0.888392
-0.158531 0.0166772 0.887973
-0.159156 0.0160681 0.887621
-0.159742 0.015445 0.887084
-0.160363 0.014837 0.886725
-0.16099 0.0142324 0.886403
-0.161591 0.0136192 0.885956
-0.162234 0.0130221 0.885715
-0.162877 0.0124258 0.885478
-0.16352 0.0118309 0.885245
-0.164129 0.0112248 0.884854
-0.164798 0.0106391 0.884745
-0.165448 0.0100485 0.884554
-0.166115 0.00946275 0.884437
-0.166768 0.00887359 0.884261
-0.167468 0.00829896 0.8843
-0.168173 0.00772552 0.884361
-0.168842 0.0071421 0.884263
-0.169543 0.00656752 0.884304
-0.170247 0.00599398 0.88436
-0.170928 0.00541432 0.884317
-0.171568 0.00482396 0.884094
-0.172263 0.00424816 0.884111
-0.172936 0.00366756 0.884034
-0.173596 0.00308407 0.883903
-0.174266 0.00250286 0.883815
-0.174959 0.0019269 0.883825
-0.143176 0.0321679 0.903525
-0.143763 0.0314891 0.90276
-0.14436 0.0308191 0.902066
-0.144925 0.0301331 0.9012
-0.145508 0.0294609 0.900455
-0.146087 0.0287888 0.89969
-0.146655 0.0281138 0.898879
-0.147219 0.0274395 0.898062
-0.147801 0.0267776 0.897351
-0.148366 0.0261093 0.896556
-0.148968 0.025463 0.895975
-0.149607 0.024837 0.895601
-0.150221 0.0241998 0.895096
-0.15085 0.0235722 0.894682
-0.151495 0.0229533 0.894359
-0.152093 0.0223141 0.893794
-0.15266 0.0216624 0.893072
-0.153218 0.0210095 0.892319
-0.153772 0.0203563 0.891547
-0.154328 0.0197071 0.890799
-0.154928 0.0190796 0.890288
-0.155531 0.0184545 0.889799
-0.156171 0.0178459 0.889497
-0.156776 0.0172248 0.889031
-0.15738 0.0166045 0.888562
-0.158003 0.0159936 0.888193
-0.15864 0.0153888 0.8879
-0.159248 0.0147744 0.88747
-0.159883 0.0141707 0.887169
-0.160523 0.0135704 0.886905
-0.161135 0.0129606 0.886506
-0.16178 0.0123635 0.886267
-0.162432 0.0117695 0.886068
-0.163074 0.0111733 0.885825
-0.163692 0.0105699 0.885473
-0.164363 0.00998444 0.88537
-0.165018 0.00939366 0.885193
-0.165687 0.00880847 0.885082
-0.166353 0.00822228 0.884959
-0.167066 0.00765016 0.885056
-0.167786 0.00707975 0.885178
-0.168491 0.00650495 0.885231
-0.169216 0.00593528 0.885377
-0.169943 0.00536616 0.885531
-0.170638 0.00478816 0.885536
-0.17129 0.00419982 0.885359
-0.171976 0.00362005 0.88533
-0.172639 0.00303497 0.885204
-0.173288 0.00244731 0.885018
-0.173947 0.00186243 0.884876
-0.142044 0.0321571 0.904577
-0.142622 0.0314696 0.903742
-0.143211 0.0307921 0.902984
-0.1438 0.0301176 0.902241
-0.144343 0.0294194 0.901245
-0.144914 0.0287402 0.900418
-0.145493 0.0280692 0.899652
-0.146063 0.0273955 0.898849
-0.146631 0.026724 0.898044
-0.147214 0.026063 0.897335
-0.147777 0.0253942 0.896524
-0.148376 0.0247469 0.895924
-0.148998 0.0241126 0.895455
-0.149612 0.0234768 0.894953
-0.150252 0.0228546 0.894592
-0.150906 0.0222403 0.894318
-0.151525 0.0216111 0.893858
-0.152114 0.0209695 0.893245
-0.152694 0.0203266 0.892599
-0.153259 0.0196794 0.891884
-0.153816 0.0190303 0.891135
-0.154417 0.0184024 0.89062
-0.15502 0.0177774 0.890127
-0.15565 0.0171652 0.889775
-0.156257 0.0165443 0.889309
-0.156862 0.0159246 0.888841
-0.157478 0.0153107 0.888436
-0.158125 0.0147095 0.888188
-0.158757 0.0141035 0.887865
-0.159412 0.0135071 0.887663
-0.160076 0.0129142 0.887508
-0.160712 0.0123124 0.887216
-0.161368 0.0117178 0.887027
-0.162022 0.0111235 0.886832
-0.162654 0.0105232 0.886533
-0.163272 0.00991941 0.886175
-0.163943 0.00933264 0.886066
-0.164601 0.00874204 0.885895
-0.165261 0.00815336 0.885745
-0.165949 0.00757233 0.885714
-0.166664 0.00699945 0.885813
-0.167397 0.00643151 0.885989
-0.168117 0.0058598 0.886111
-0.168857 0.00529225 0.886314
-0.169586 0.0047224 0.886474
-0.170293 0.00414598 0.886527
-0.170959 0.00355934 0.886401
-0.171636 0.00297639 0.88633
-0.172299 0.00239005 0.886194
-0.140834 0.0321003 0.905196
-0.141461 0.0314408 0.904635
-0.142046 0.030758 0.903837
-0.142645 0.0300868 0.903131
-0.143227 0.0294082 0.902342
-0.143756 0.0287025 0.901255
-0.144328 0.0280244 0.900431
-0.144908 0.0273539 0.899665
-0.14548 0.0266826 0.898868
-0.146051 0.0260127 0.898075
-0.146625 0.0253477 0.897311
-0.147187 0.0246791 0.896489
-0.147785 0.0240313 0.895879
-0.148389 0.0233889 0.895308
-0.149004 0.0227536 0.894806
-0.149652 0.0221361 0.894495
-0.150308 0.0215231 0.894224
-0.150938 0.0208992 0.893821
-0.151548 0.020268 0.89332
-0.152151 0.0196348 0.892788
-0.152731 0.0189945 0.892144
-0.153299 0.018351 0.891451
-0.1539 0.0177232 0.890931
-0.154503 0.0170973 0.890426
-0.155123 0.0164807 0.890019
-0.155741 0.0158643 0.889605
-0.156346 0.0152451 0.889137
-0.156974 0.0146349 0.888781
-0.157623 0.0140339 0.888539
-0.158264 0.013431 0.888261
-0.158923 0.0128353 0.88807
-0.159598 0.0122458 0.887964
-0.160247 0.0116482 0.887732
-0.160916 0.0110578 0.887603
-0.161586 0.010468 0.887475
-0.162219 0.00986683 0.887178
-0.162859 0.0092687 0.886917
-0.16353 0.00868112 0.886802
-0.164198 0.00809287 0.886676
-0.164869 0.00750613 0.886564
-0.165576 0.00693016 0.886621
-0.166294 0.0063561 0.886729
-0.16704 0.00579025 0.886958
-0.167783 0.00522335 0.887179
-0.168525 0.00465462 0.887386
-0.169259 0.00408412 0.887558
-0.169968 0.00350651 0.887615
-0.170635 0.00291911 0.887492
-0.171303 0.0023326 0.887369
-0.171954 0.00174209 0.887178
-0.14016 0.0327317 0.905476
-0.138918 0.0326572 0.905928
-0.139582 0.0320183 0.905575
-0.140249 0.0313819 0.905244
-0.140881 0.0307258 0.904712
-0.141467 0.0300447 0.903915
-0.142048 0.0293632 0.9031
-0.142622 0.0286803 0.902254
-0.143152 0.027976 0.901171
-0.143725 0.0272992 0.900344
-0.144305 0.0266296 0.899578
-0.144895 0.0259681 0.898877
-0.145467 0.0252993 0.898082
-0.146043 0.024636 0.897326
-0.146606 0.023968 0.896503
-0.147204 0.0233212 0.895891
-0.147799 0.0226744 0.895266
-0.148413 0.0220395 0.894761
-0.149061 0.0214221 0.894443
-0.149719 0.02081 0.894179
-0.15036 0.0201915 0.893833
-0.150982 0.0195662 0.893395
-0.151609 0.0189438 0.892982
-0.15221 0.0183127 0.892446
-0.152802 0.0176783 0.891864
-0.153403 0.0170506 0.891342
-0.154016 0.0164288 0.890884
-0.154626 0.0158082 0.890424
-0.155244 0.0151914 0.890001
-0.155851 0.0145719 0.889537
-0.156487 0.0139649 0.889222
-0.157138 0.0133644 0.888983
-0.15779 0.0127649 0.888751
-0.15845 0.0121692 0.888563
-0.159127 0.0115798 0.888465
-0.159788 0.0109851 0.888285
-0.16046 0.0103949 0.888164
-0.161142 0.00980793 0.88809
-0.161789 0.0092107 0.887855
-0.162443 0.00861646 0.887651
-0.163116 0.00802809 0.88754
-0.163794 0.00744219 0.887459
-0.164465 0.00685369 0.88734
-0.165185 0.00628025 0.887452
-0.165914 0.00570812 0.887605
-0.166663 0.00514155 0.887845
-0.167418 0.00457571 0.888111
-0.168171 0.00400895 0.888366
-0.168906 0.00343676 0.888538
-0.169615 0.00285787 0.888593
-0.170295 0.00227251 0.88852
-0.137644 0.0325641 0.906199
-0.138341 0.031945 0.906041
-0.139002 0.0313032 0.905663
-0.139661 0.0306626 0.905285
-0.140296 0.0300084 0.904766
-0.140881 0.0293265 0.903951
-0.141442 0.0286338 0.903014
-0.142016 0.0279518 0.902164
-0.142548 0.0272491 0.901079
-0.143121 0.0265731 0.900253
-0.143711 0.0259097 0.899537
-0.144311 0.025254 0.898887
-0.144892 0.0245905 0.898141
-0.145479 0.023933 0.897441
-0.146044 0.0232668 0.896625
-0.146635 0.0226166 0.895968
-0.147229 0.0219698 0.895336
-0.147843 0.0213347 0.894825
-0.148483 0.0207135 0.894458
-0.14914 0.0201018 0.894196
-0.149791 0.0194881 0.893901
-0.150424 0.0188677 0.893513
-0.151062 0.0182504 0.893158
-0.151685 0.0176279 0.892729
-0.152299 0.0170031 0.892257
-0.152902 0.0163761 0.891742
-0.153526 0.0157588 0.891333
-0.154128 0.0151338 0.890821
-0.154736 0.0145131 0.890348
-0.155343 0.0138941 0.889879
-0.155982 0.0132872 0.88957
-0.156633 0.0126863 0.889329
-0.157296 0.0120909 0.88915
-0.157965 0.0114976 0.889004
-0.158644 0.0109078 0.888908
-0.159314 0.0103158 0.88877
-0.159986 0.00972525 0.888646
-0.160678 0.00914102 0.888618
-0.161338 0.00854714 0.888438
-0.162006 0.00795587 0.888294
-0.162683 0.00736774 0.888197
-0.163364 0.00678206 0.888124
-0.164046 0.00619592 0.888054
-0.164779 0.00562496 0.888226
-0.165514 0.00505365 0.888399
-0.166275 0.00448859 0.888692
-0.16705 0.00392609 0.889045
-0.167804 0.00335757 0.889297
-0.168551 0.00278695 0.889518
-0.169284 0.00221245 0.889674
-0.137123 0.0318872 0.90666
-0.13778 0.0312419 0.90625
-0.138424 0.0305896 0.905763
-0.139075 0.0299435 0.90533
-0.139698 0.0292825 0.904732
-0.140282 0.0286008 0.903915
-0.140844 0.027909 0.902971
-0.141418 0.0272278 0.902118
-0.141949 0.0265255 0.901026
-0.142525 0.0258516 0.900208
-0.143117 0.0251896 0.899499
-0.143719 0.0245357 0.898856
-0.14431 0.0238783 0.898165
-0.144908 0.0232268 0.897522
-0.145476 0.0225622 0.896714
-0.146068 0.0219128 0.89606
-0.146661 0.0212661 0.895419
-0.147267 0.020627 0.894855
-0.147899 0.0200028 0.894443
-0.148556 0.0193909 0.894175
-0.149215 0.0187813 0.893924
-0.149848 0.0181603 0.893532
-0.150495 0.0175475 0.893223
-0.151129 0.0169296 0.89285
-0.151763 0.0163143 0.892483
-0.152371 0.0156884 0.891986
-0.153005 0.0150753 0.891631
-0.153617 0.0144539 0.891159
-0.154225 0.0138337 0.890687
-0.154825 0.0132108 0.890166
-0.155464 0.0126044 0.889861
-0.156117 0.0120041 0.889622
-0.15678 0.0114078 0.889443
-0.157461 0.0108182 0.889352
-0.15815 0.0102316 0.889302
-0.15882 0.00963917 0.889162
-0.1595 0.00905043 0.889075
-0.160182 0.00846213 0.888991
-0.160842 0.00786831 0.888807
-0.161511 0.00727711 0.88867
-0.162201 0.00669283 0.888634
-0.162894 0.00610909 0.888612
-0.1636 0.00552912 0.88865
-0.164347 0.00496112 0.888882
-0.165096 0.00439232 0.889118
-0.16587 0.00382886 0.889469
-0.166657 0.0032683 0.889873
-0.167411 0.00269848 0.890125
-0.168183 0.00213227 0.89045
-0.135983 0.0318828 0.907797
-0.136572 0.0311909 0.906942
-0.137205 0.0305297 0.906377
-0.137835 0.0298684 0.905797
-0.138477 0.0292175 0.905305
-0.139099 0.0285565 0.9047
-0.139685 0.0278758 0.903882
-0.140237 0.0271794 0.902881
-0.140812 0.0264991 0.902022
-0.141344 0.0257982 0.900927
-0.14192 0.0251255 0.900111
-0.142523 0.0244702 0.899462
-0.143136 0.0238224 0.898881
-0.14374 0.0231717 0.898253
-0.144348 0.0225253 0.897662
-0.144917 0.0218624 0.89686
-0.1455 0.0212084 0.896146
-0.146102 0.0205659 0.895548
-0.146707 0.0199275 0.894979
-0.147332 0.0192995 0.894522
-0.14799 0.0186882 0.894259
-0.148647 0.0180776 0.893995
-0.149279 0.0174564 0.893594
-0.149927 0.0168441 0.893287
-0.150581 0.0162357 0.893019
-0.151228 0.0156241 0.892714
-0.151847 0.0150032 0.892269
-0.152492 0.0143938 0.891964
-0.153104 0.0137725 0.891494
-0.153714 0.0131528 0.89102
-0.154314 0.01253 0.890501
-0.154954 0.0119237 0.890191
-0.155596 0.0113198 0.889903
-0.15626 0.0107236 0.889721
-0.156934 0.0101309 0.889591
-0.157625 0.00954452 0.88955
-0.158297 0.00895264 0.889416
-0.158978 0.00836351 0.889328
-0.159657 0.00777463 0.889232
-0.160327 0.0071831 0.889091
-0.161006 0.00659468 0.888997
-0.161707 0.00601272 0.889013
-0.162412 0.0054323 0.889043
-0.16314 0.00485751 0.889183
-0.163899 0.00429099 0.889469
-0.164672 0.00372746 0.889819
-0.16548 0.00317156 0.890321
-0.166303 0.00261776 0.890886
-0.134901 0.0319203 0.909345
-0.135448 0.0311964 0.908195
-0.136016 0.0304904 0.907197
-0.136637 0.0298217 0.90655
-0.137251 0.0291511 0.905868
-0.137878 0.0284909 0.905274
-0.1385 0.0278298 0.904664
-0.139085 0.0271495 0.90384
-0.139623 0.0264456 0.902739
-0.140198 0.025766 0.901881
-0.140739 0.0250713 0.900835
-0.141317 0.0244 0.900021
-0.141922 0.0237466 0.89938
-0.142544 0.0231041 0.89885
-0.143149 0.0224545 0.898227
-0.143758 0.021809 0.897636
-0.144329 0.0211472 0.896835
-0.144911 0.0204936 0.896115
-0.145522 0.019856 0.895563
-0.146137 0.0192222 0.895045
-0.146772 0.0185992 0.894644
-0.147439 0.0179919 0.894428
-0.148098 0.0173821 0.894167
-0.14873 0.0167615 0.893766
-0.149379 0.0161492 0.893461
-0.150045 0.0155449 0.893249
-0.150703 0.0149379 0.893002
-0.151333 0.0143212 0.892612
-0.151988 0.0137154 0.892353
-0.152601 0.0130946 0.891884
-0.153203 0.0124711 0.891362
-0.153804 0.0118492 0.890845
-0.154443 0.0112421 0.890526
-0.155085 0.0106373 0.89023
-0.155759 0.0100447 0.890095
-0.156443 0.00945478 0.890015
-0.157137 0.00886896 0.889985
-0.157821 0.00828044 0.889906
-0.158504 0.00769138 0.889824
-0.159175 0.00709906 0.889687
-0.159845 0.00650709 0.889542
-0.160513 0.0059146 0.889392
-0.161214 0.0053322 0.889405
-0.16192 0.00475141 0.889438
-0.16266 0.00417948 0.889634
-0.163431 0.00361488 0.889972
-0.164237 0.00305838 0.890469
-0.134305 0.0326161 0.910197
-0.133698 0.0333073 0.910992
-0.133091 0.0325719 0.910954
-0.133709 0.0318886 0.910226
-0.134327 0.0312082 0.909509
-0.134883 0.0304901 0.908401
-0.135441 0.0297778 0.907333
-0.136047 0.0290997 0.906583
-0.13665 0.0284227 0.905827
-0.137269 0.0277578 0.905182
-0.137883 0.0270927 0.904517
-0.138468 0.0264131 0.903685
-0.139007 0.0257107 0.902587
-0.139583 0.025033 0.901736
-0.140136 0.0243454 0.900748
-0.140722 0.0236798 0.899984
-0.141328 0.0230267 0.899339
-0.14195 0.0223843 0.898807
-0.142555 0.0217356 0.898179
-0.143155 0.0210865 0.897536
-0.143726 0.0204252 0.896729
-0.144309 0.019773 0.896011
-0.144921 0.0191365 0.895465
-0.145548 0.0185085 0.895007
-0.146203 0.0178948 0.894715
-0.146882 0.017293 0.894563
-0.147551 0.016687 0.894354
-0.148194 0.0160706 0.894005
-0.148844 0.0154589 0.893703
-0.149511 0.0148551 0.8935
-0.150171 0.0142487 0.893255
-0.150803 0.0136325 0.892869
-0.151457 0.0130263 0.892605
-0.15208 0.0124092 0.892187
-0.152693 0.0117898 0.891717
-0.153296 0.011168 0.891199
-0.153945 0.0105645 0.89093
-0.154586 0.00995927 0.890625
-0.15526 0.00936494 0.890486
-0.155945 0.00877603 0.890407
-0.156649 0.00819248 0.890426
-0.157335 0.00760364 0.890353
-0.15803 0.00701787 0.890325
-0.158703 0.00642525 0.890192
-0.159374 0.00583292 0.89005
-0.160044 0.00524053 0.889906
-0.160756 0.00466094 0.889966
-0.161484 0.00408485 0.8901
-0.162256 0.00351984 0.890445
-0.163051 0.00296013 0.890895
-0.163892 0.00241025 0.891551
-0.132484 0.0318366 0.910914
-0.133128 0.0311712 0.910353
-0.133755 0.0304966 0.909687
-0.134313 0.0297803 0.908587
-0.134861 0.0290621 0.90744
-0.135452 0.0283745 0.906588
-0.136048 0.027694 0.905784
-0.136659 0.027025 0.905085
-0.137273 0.0263601 0.904413
-0.137857 0.0256808 0.903571
-0.138398 0.0249803 0.90248
-0.138977 0.0243051 0.901638
-0.13954 0.0236235 0.900707
-0.140128 0.022959 0.899947
-0.140733 0.0223063 0.899297
-0.141356 0.0216647 0.898762
-0.141951 0.0210116 0.898073
-0.142542 0.0203586 0.897375
-0.143111 0.0196974 0.896556
-0.143696 0.0190468 0.895844
-0.144312 0.0184127 0.895312
-0.14495 0.0177905 0.89492
-0.145625 0.0171861 0.894737
-0.146316 0.0165892 0.894648
-0.146997 0.0159886 0.894505
-0.147659 0.0153806 0.89426
-0.148318 0.0147721 0.894004
-0.148986 0.0141684 0.8938
-0.149646 0.0135616 0.893553
-0.150278 0.0129459 0.893164
-0.150924 0.0123362 0.892856
-0.151558 0.0117223 0.89248
-0.152181 0.0111074 0.892064
-0.152795 0.0104894 0.891602
-0.153457 0.00988964 0.891391
-0.154111 0.00928772 0.891143
-0.154786 0.00869345 0.891006
-0.155471 0.00810328 0.890923
-0.156176 0.00751936 0.890941
-0.156871 0.00693271 0.890912
-0.157577 0.00634888 0.890935
-0.158262 0.00576001 0.890858
-0.158945 0.00517007 0.890769
-0.159626 0.0045801 0.890671
-0.16035 0.00400201 0.890784
-0.161101 0.00343066 0.891028
-0.16189 0.00286834 0.891448
-0.131882 0.0311044 0.910903
-0.132528 0.0304408 0.910352
-0.133142 0.0297578 0.909594
-0.133694 0.0290383 0.908447
-0.13425 0.0283264 0.907348
-0.134834 0.027635 0.906445
-0.13543 0.0269552 0.905637
-0.136034 0.0262826 0.904887
-0.136647 0.0256182 0.904209
-0.137223 0.0249351 0.903314
-0.137772 0.0242401 0.902265
-0.138346 0.0235629 0.901385
-0.138918 0.0228882 0.900512
-0.139508 0.0222254 0.899757
-0.140114 0.0215735 0.899105
-0.140736 0.0209327 0.898568
-0.141331 0.02028 0.897875
-0.141914 0.0196241 0.897125
-0.142491 0.0189678 0.89635
-0.143086 0.0183222 0.895687
-0.143703 0.0176894 0.895165
-0.14436 0.0170765 0.894879
-0.145055 0.0164805 0.894805
-0.145757 0.0158886 0.894776
-0.146449 0.0152927 0.894693
-0.147131 0.0146923 0.894553
-0.147792 0.0140848 0.894304
-0.148459 0.0134797 0.894091
-0.149118 0.0128729 0.893838
-0.149758 0.0122599 0.893488
-0.150406 0.0116503 0.893181
-0.151041 0.0110378 0.892814
-0.151676 0.0104258 0.892451
-0.152303 0.00981196 0.892049
-0.152968 0.00921288 0.891852
-0.153625 0.00861199 0.891613
-0.154311 0.00802097 0.891532
-0.155006 0.00743306 0.891494
-0.155722 0.0068515 0.891562
-0.156428 0.00626726 0.891585
-0.157146 0.00568576 0.891661
-0.157852 0.00510148 0.89168
-0.158547 0.004514 0.891647
-0.159241 0.00392649 0.891609
-0.159979 0.00335049 0.891781
-0.160733 0.00277841 0.892037
-0.131282 0.0303739 0.910911
-0.131909 0.0296976 0.910227
-0.132511 0.0290075 0.909383
-0.133065 0.0282907 0.908243
-0.133631 0.0275857 0.907204
-0.134216 0.0268958 0.906302
-0.13482 0.0262214 0.90554
-0.135424 0.0255496 0.904786
-0.136022 0.024877 0.90401
-0.13659 0.0241902 0.903059
-0.137148 0.0235017 0.90206
-0.137713 0.0228206 0.901123
-0.138287 0.0221476 0.900255
-0.138886 0.0214905 0.899551
-0.139501 0.0208441 0.898952
-0.140133 0.0202086 0.898468
-0.140731 0.0195585 0.897792
-0.141307 0.0188993 0.896991
-0.141892 0.0182479 0.896261
-0.142486 0.0176028 0.895593
-0.143096 0.0169673 0.895027
-0.143772 0.0163627 0.894842
-0.144484 0.0157746 0.894869
-0.145196 0.0151868 0.894894
-0.145898 0.0145947 0.894868
-0.14659 0.0139989 0.894783
-0.147253 0.0133914 0.894539
-0.147922 0.0127874 0.89433
-0.14858 0.0121792 0.894069
-0.14922 0.0115667 0.893715
-0.149869 0.0109572 0.893408
-0.150515 0.0103484 0.893096
-0.151162 0.0097405 0.892791
-0.151809 0.00913393 0.892494
-0.152495 0.0085412 0.892402
-0.153173 0.00794631 0.892271
-0.153871 0.00735766 0.89224
-0.154578 0.00677257 0.89226
-0.155296 0.00619075 0.892335
-0.156006 0.00560623 0.892367
-0.156725 0.00502442 0.892448
-0.157434 0.00443939 0.892475
-0.158131 0.0038516 0.892447
-0.158838 0.00326604 0.892466
-0.159598 0.00269475 0.892744
-0.130075 0.0303347 0.911752
-0.130661 0.029629 0.910773
-0.131272 0.0289426 0.909977
-0.131862 0.0282461 0.909054
-0.132425 0.0275363 0.907969
-0.132995 0.0268346 0.906945
-0.133581 0.0261463 0.906045
-0.134194 0.025478 0.905333
-0.134805 0.0248113 0.904627
-0.13539 0.0241321 0.90376
-0.135957 0.023446 0.902802
-0.136522 0.0227619 0.90184
-0.137087 0.0220819 0.900897
-0.137664 0.0214112 0.900041
-0.13828 0.0207638 0.899438
-0.138913 0.0201276 0.898949
-0.139554 0.0194971 0.898519
-0.140165 0.0188532 0.897908
-0.140751 0.0181997 0.897168
-0.141347 0.0175531 0.89649
-0.141941 0.0169086 0.895818
-0.142552 0.0162732 0.895247
-0.143228 0.015669 0.895066
-0.143941 0.015081 0.895095
-0.144645 0.0144891 0.895073
-0.145347 0.0138968 0.89504
-0.146039 0.0133005 0.894955
-0.146703 0.0126937 0.894715
-0.147374 0.0120901 0.894517
-0.148042 0.011486 0.894306
-0.148684 0.0108731 0.893955
-0.149333 0.0102641 0.89365
-0.149991 0.00965904 0.893394
-0.150649 0.00905483 0.893142
-0.151307 0.00845147 0.892899
-0.152003 0.0078619 0.892858
-0.152693 0.00726983 0.892778
-0.153391 0.00668121 0.892751
-0.15411 0.00609848 0.892827
-0.154839 0.00551941 0.892959
-0.155563 0.00493787 0.893057
-0.156294 0.00435841 0.893193
-0.157023 0.00377797 0.893318
-0.157732 0.0031917 0.893341
-0.158452 0.00260817 0.893416
-0.159225 0.00203839 0.893753
-0.128849 0.0302857 0.912496
-0.129467 0.0295987 0.911715
-0.130041 0.0288844 0.910637
-0.130637 0.0281892 0.909735
-0.131212 0.0274839 0.908708
-0.131784 0.0267811 0.907679
-0.132357 0.0260821 0.906669
-0.132945 0.0253965 0.905777
-0.133566 0.0247336 0.905118
-0.134194 0.0240779 0.904518
-0.134781 0.0234003 0.903657
-0.135351 0.0227167 0.902707
-0.135921 0.0220366 0.901778
-0.136487 0.0213576 0.900834
-0.137058 0.0206847 0.899936
-0.137677 0.0200398 0.899348
-0.138328 0.0194128 0.898963
-0.13898 0.0187879 0.898593
-0.139602 0.0181498 0.898048
-0.140208 0.0175055 0.897418
-0.140822 0.0168676 0.89684
-0.141426 0.0162276 0.896222
-0.142038 0.0155925 0.895653
-0.142724 0.0149917 0.895519
-0.143429 0.0143996 0.895498
-0.144124 0.0138037 0.895426
-0.144816 0.0132065 0.895332
-0.145515 0.0126123 0.895284
-0.146171 0.0120024 0.894996
-0.146844 0.011399 0.894804
-0.147515 0.0107959 0.894605
-0.148167 0.0101867 0.894304
-0.148817 0.00957729 0.893999
-0.149485 0.0089758 0.893795
-0.150144 0.00837167 0.893548
-0.150814 0.00777203 0.893358
-0.151511 0.00718121 0.893318
-0.152211 0.00659182 0.893289
-0.152921 0.00600605 0.893318
-0.153661 0.0054288 0.893497
-0.154402 0.00485161 0.893685
-0.155135 0.00427229 0.893829
-0.155868 0.00369208 0.893969
-0.156598 0.00311038 0.894096
-0.157318 0.00252601 0.894168
-0.15805 0.00194446 0.894297
-0.12824 0.0309827 0.913359
-0.127593 0.0302178 0.913056
-0.128224 0.029537 0.912343
-0.128832 0.0288433 0.911482
-0.129396 0.0281239 0.910339
-0.12998 0.0274216 0.909345
-0.13054 0.0267084 0.908211
-0.131114 0.026008 0.907188
-0.131694 0.0253156 0.906228
-0.132292 0.0246373 0.905401
-0.132929 0.023985 0.904844
-0.133577 0.0233408 0.904364
-0.134166 0.0226657 0.903516
-0.134737 0.0219835 0.902571
-0.135317 0.0213094 0.901689
-0.135884 0.0206319 0.900747
-0.136449 0.0199564 0.899805
-0.137078 0.0193173 0.899282
-0.137738 0.0186948 0.898947
-0.1384 0.0180751 0.898636
-0.139039 0.0174458 0.89819
-0.139665 0.0168117 0.897675
-0.1403 0.0161829 0.897216
-0.140925 0.0155519 0.89671
-0.141547 0.0149207 0.896193
-0.142233 0.0143193 0.896058
-0.142929 0.0137225 0.895983
-0.143615 0.0131218 0.895847
-0.144297 0.0125205 0.895696
-0.144986 0.0119214 0.895585
-0.145633 0.0113081 0.895244
-0.146306 0.0107048 0.89505
-0.146978 0.0101013 0.894852
-0.147639 0.00949517 0.894601
-0.148301 0.00889036 0.894352
-0.148979 0.00829118 0.8942
-0.149649 0.0076907 0.894006
-0.150328 0.00709375 0.893864
-0.151027 0.00650259 0.893826
-0.151728 0.00591281 0.893801
-0.152439 0.00532668 0.893833
-0.15318 0.00474905 0.894016
-0.153922 0.00417103 0.894205
-0.154656 0.00359089 0.894351
-0.155399 0.00301203 0.894535
-0.15614 0.00243269 0.894713
-0.156872 0.00185023 0.894843
-0.126299 0.030124 0.913358
-0.126947 0.0294535 0.91275
-0.127583 0.0287769 0.912071
-0.128192 0.0280854 0.911217
-0.128744 0.027359 0.909978
-0.129309 0.0266457 0.908854
-0.129877 0.0259388 0.907767
-0.130451 0.0252403 0.906745
-0.131033 0.0245498 0.905791
-0.131648 0.0238831 0.905074
-0.132303 0.0232421 0.904629
-0.132968 0.0226087 0.904263
-0.133569 0.021941 0.903487
-0.134152 0.0212658 0.902606
-0.134731 0.0205921 0.901724
-0.135306 0.0199194 0.900823
-0.135872 0.0192452 0.899882
-0.13652 0.0186153 0.899463
-0.137189 0.0179975 0.899185
-0.13786 0.0173819 0.898924
-0.138508 0.0167567 0.898527
-0.139153 0.0161311 0.898121
-0.139801 0.0155079 0.897734
-0.14044 0.0148826 0.897305
-0.141073 0.0142558 0.896845
-0.141759 0.0136535 0.896701
-0.142436 0.0130476 0.896511
-0.143104 0.0124393 0.89627
-0.143776 0.0118326 0.896055
-0.144457 0.0112307 0.895895
-0.145096 0.0106134 0.8955
-0.145768 0.0100096 0.895299
-0.146438 0.00940565 0.895089
-0.1471 0.00879961 0.894836
-0.147763 0.00819441 0.894592
-0.148453 0.00759979 0.894502
-0.149135 0.00700254 0.894365
-0.149824 0.00640784 0.894275
-0.150532 0.00581934 0.894283
-0.151243 0.00523186 0.894306
-0.151956 0.00464539 0.894345
-0.152698 0.00406693 0.89453
-0.15344 0.00348852 0.894717
-0.154174 0.00290701 0.894855
-0.154926 0.00232993 0.89509
-0.155679 0.00175252 0.895326
-0.125665 0.0293681 0.91314
-0.126292 0.0286832 0.91238
-0.126908 0.0279945 0.911556
-0.127505 0.0272956 0.910609
-0.128065 0.0265766 0.909427
-0.128629 0.0258647 0.908294
-0.129206 0.025165 0.907265
-0.129789 0.0244736 0.906299
-0.130382 0.0237908 0.905413
-0.131013 0.0231347 0.9048
-0.131677 0.0225001 0.904422
-0.132352 0.0218728 0.90412
-0.132979 0.0212205 0.903509
-0.133573 0.0205516 0.902689
-0.134154 0.0198795 0.901811
-0.134737 0.0192108 0.900953
-0.135311 0.0185411 0.900054
-0.13596 0.0179125 0.899642
-0.136632 0.017296 0.899375
-0.137303 0.0166804 0.899113
-0.137959 0.0160583 0.898759
-0.138622 0.0154409 0.898455
-0.139283 0.0148237 0.898146
-0.139943 0.0142066 0.897831
-0.140594 0.0135875 0.897473
-0.141271 0.0129806 0.897271
-0.141939 0.0123699 0.89702
-0.142597 0.011757 0.896717
-0.14327 0.0111503 0.8965
-0.143935 0.0105414 0.896246
-0.144565 0.00992023 0.895793
-0.145227 0.00931243 0.89553
-0.145895 0.00870759 0.895309
-0.146559 0.00810251 0.895063
-0.147242 0.00750403 0.894927
-0.147953 0.00691573 0.894945
-0.148636 0.00631814 0.894815
-0.149327 0.00572357 0.894728
-0.150036 0.00513516 0.894741
-0.150748 0.00454726 0.894766
-0.151461 0.00395994 0.894802
-0.152221 0.00338634 0.895081
-0.152974 0.00280928 0.89532
-0.153709 0.00222697 0.895464
-0.154473 0.00165185 0.895754
-0.155248 0.001079 0.896094
-0.124427 0.0293157 0.91387
-0.125039 0.028618 0.912981
-0.125653 0.0279252 0.912125
-0.126253 0.027226 0.911178
-0.126832 0.0265167 0.910102
-0.127401 0.0258046 0.908973
-0.127965 0.0250942 0.907835
-0.128543 0.0243969 0.906812
-0.129129 0.0237081 0.905858
-0.129739 0.0230376 0.90509
-0.130387 0.0223922 0.90459
-0.131061 0.0217639 0.904274
-0.131745 0.0211421 0.904029
-0.132389 0.0204994 0.903525
-0.132984 0.019832 0.902712
-0.133567 0.0191611 0.901836
-0.13415 0.0184935 0.900975
-0.134733 0.0178289 0.900126
-0.135384 0.0172009 0.899722
-0.136067 0.0165896 0.89952
-0.136739 0.0159746 0.899262
-0.137402 0.015356 0.898947
-0.138073 0.0147421 0.898689
-0.138745 0.0141296 0.898438
-0.139416 0.0135175 0.898189
-0.140078 0.0129022 0.897886
-0.140753 0.0122937 0.897668
-0.141412 0.0116793 0.897359
-0.14207 0.011066 0.897051
-0.142745 0.0104595 0.896843
-0.143411 0.00985063 0.896588
-0.144041 0.00922955 0.896131
-0.144701 0.00862084 0.895858
-0.145362 0.00801302 0.895585
-0.146035 0.00741106 0.895393
-0.14674 0.00681937 0.895372
-0.147462 0.00623381 0.895453
-0.148157 0.00563945 0.895375
-0.148866 0.00504971 0.895384
-0.149576 0.00446048 0.895399
-0.15029 0.00387231 0.895431
-0.151014 0.00328725 0.895518
-0.151775 0.00271238 0.895801
-0.15252 0.00213188 0.895993
-0.153248 0.00154663 0.896094
-0.123819 0.0300206 0.914815
-0.122587 0.0299786 0.915645
-0.123198 0.0292729 0.914705
-0.123794 0.0285602 0.913667
-0.124391 0.0278523 0.91266
-0.124982 0.0271448 0.911627
-0.125567 0.0264368 0.910573
-0.126147 0.0257296 0.909497
-0.126715 0.0250191 0.908361
-0.127288 0.0243158 0.907274
-0.127875 0.0236256 0.906311
-0.128471 0.0229449 0.905428
-0.129098 0.0222854 0.904773
-0.129763 0.0216509 0.904386
-0.130445 0.021028 0.904128
-0.13113 0.020407 0.903887
-0.131789 0.0197729 0.90348
-0.132385 0.0191068 0.902668
-0.132971 0.0184381 0.901803
-0.133555 0.0177716 0.900941
-0.134155 0.017116 0.900193
-0.134808 0.0164893 0.899798
-0.1355 0.0158829 0.899658
-0.136174 0.0152681 0.899405
-0.136844 0.0146529 0.899134
-0.137516 0.0140391 0.89887
-0.138188 0.0134263 0.89862
-0.138861 0.0128154 0.898379
-0.13954 0.0122072 0.898176
-0.140216 0.0115987 0.897959
-0.140884 0.0109875 0.897699
-0.141552 0.0103775 0.897445
-0.142238 0.00977561 0.8973
-0.142889 0.00916041 0.896952
-0.143518 0.00853889 0.896486
-0.144168 0.00792573 0.896143
-0.144829 0.00731844 0.895875
-0.145508 0.00671718 0.895703
-0.146233 0.00613264 0.895799
-0.146967 0.00554983 0.895938
-0.147679 0.00495981 0.895956
-0.148399 0.00437283 0.896016
-0.14911 0.00378278 0.896031
-0.149835 0.00319735 0.896121
-0.150562 0.00261157 0.896214
-0.151324 0.00203542 0.896501
-0.152071 0.00145456 0.896696
-0.121236 0.0313012 0.916587
-0.119884 0.0311722 0.916544
-0.120607 0.0305458 0.916424
-0.121918 0.0306434 0.916158
-0.121288 0.0298877 0.915986
-0.12195 0.0292179 0.915412
-0.12257 0.0285195 0.914531
-0.123171 0.0278112 0.91353
-0.123763 0.0271012 0.912477
-0.124339 0.0263833 0.911324
-0.124906 0.0256648 0.910132
-0.125477 0.0249535 0.908993
-0.126046 0.0242447 0.907854
-0.126627 0.0235488 0.906828
-0.127224 0.0228662 0.905929
-0.127837 0.0221965 0.905162
-0.12848 0.0215475 0.90461
-0.129154 0.0209187 0.904286
-0.12983 0.0202925 0.903985
-0.130515 0.0196718 0.90374
-0.131173 0.0190378 0.903326
-0.131769 0.0183723 0.902508
-0.132357 0.0177056 0.901652
-0.132951 0.0170455 0.900851
-0.133567 0.0163988 0.900208
-0.134229 0.0157764 0.899863
-0.134931 0.0151746 0.899784
-0.135607 0.0145606 0.899538
-0.136278 0.0139459 0.89927
-0.136948 0.013331 0.898994
-0.13762 0.0127183 0.898741
-0.138295 0.0121078 0.898504
-0.138984 0.0115037 0.898362
-0.139671 0.0108995 0.898207
-0.140348 0.0102924 0.897999
-0.141028 0.00968644 0.897806
-0.141724 0.0090878 0.897721
-0.142377 0.00847313 0.897377
-0.143015 0.00785428 0.896954
-0.143665 0.00724079 0.896607
-0.144327 0.00663357 0.896339
-0.145016 0.00603456 0.896219
-0.145754 0.00545327 0.896378
-0.14649 0.00487013 0.896529
-0.147213 0.00428283 0.896601
-0.147942 0.0036976 0.896707
-0.148656 0.00310725 0.896732
-0.149393 0.00252375 0.89688
-0.15013 0.00193979 0.897026
-0.150893 0.00136283 0.897313
-0.151639 0.000780158 0.897503
-0.0143337 0.146271 1.04806
-0.0129381 0.144718 1.0423
-0.0138235 0.144085 1.04281
-0.0152517 0.1455 1.04804
-0.0147221 0.143388 1.04307
-0.0161397 0.144901 1.04871
-0.0156064 0.142772 1.04366
-0.119154 0.0317928 0.9166
-0.1178 0.0316625 0.916538
-0.118532 0.0310431 0.916494
-0.11925 0.0304119 0.916331
-0.119961 0.0297766 0.916123
-0.120642 0.0291202 0.915686
-0.121295 0.028444 0.915038
-0.121917 0.0277488 0.914176
-0.122513 0.0270382 0.913127
-0.1231 0.0263254 0.912028
-0.123677 0.02561 0.91088
-0.124244 0.0248931 0.909686
-0.124809 0.0241787 0.908491
-0.125384 0.0234763 0.9074
-0.125969 0.0227833 0.90639
-0.126568 0.0221037 0.905504
-0.127197 0.0214452 0.904849
-0.127855 0.0208061 0.904405
-0.128538 0.0201829 0.904139
-0.129215 0.0195571 0.90384
-0.129899 0.0189365 0.903589
-0.130556 0.0183023 0.903164
-0.13116 0.0176423 0.902396
-0.131758 0.0169816 0.901605
-0.132371 0.016331 0.900916
-0.132997 0.0156896 0.900331
-0.133659 0.0150672 0.899984
-0.134361 0.0144654 0.899903
-0.13503 0.0138485 0.899609
-0.135695 0.0132305 0.899295
-0.136364 0.0126158 0.899016
-0.137035 0.0120031 0.898757
-0.13771 0.0113924 0.898521
-0.13841 0.0107931 0.898438
-0.139108 0.0101931 0.898348
-0.139805 0.00959305 0.898257
-0.140503 0.00899406 0.898173
-0.14121 0.008399 0.898143
-0.141873 0.0077875 0.897854
-0.142529 0.00717484 0.897531
-0.143189 0.00656446 0.897232
-0.143862 0.00595907 0.897017
-0.14456 0.00536319 0.896949
-0.145308 0.00478367 0.897158
-0.146044 0.00419922 0.897304
-0.146769 0.00361159 0.897383
-0.147501 0.00302565 0.897499
-0.148217 0.00243499 0.89753
-0.148955 0.0018502 0.897677
-0.149692 0.00126543 0.897823
-0.150457 0.000686295 0.898109
-0.0104759 0.149312 1.05475
-0.00877462 0.149199 1.05488
-0.00999972 0.147034 1.04921
-0.0118017 0.146583 1.0468
-0.0111779 0.145032 1.04416
-0.0121869 0.143803 1.04224
-0.0130718 0.143169 1.04275
-0.0139656 0.142494 1.0431
-0.0148495 0.141878 1.04369
-0.0162788 0.143326 1.04912
-0.015619 0.141877 1.04686
-0.117059 0.032275 0.916514
-0.11647 0.0315523 0.916678
-0.117196 0.0309263 0.916574
-0.117913 0.0302946 0.916403
-0.11861 0.0296482 0.91608
-0.119307 0.0290024 0.915758
-0.119971 0.0283339 0.915189
-0.120605 0.0276448 0.914389
-0.121226 0.0269508 0.913519
-0.121831 0.0262483 0.912536
-0.122428 0.0255437 0.91151
-0.123008 0.0248326 0.910382
-0.123584 0.0241229 0.909246
-0.124149 0.0234104 0.908045
-0.124733 0.0227143 0.907008
-0.125318 0.0220237 0.906005
-0.125927 0.0213509 0.905187
-0.126572 0.020703 0.904638
-0.127239 0.0200695 0.904251
-0.127923 0.0194468 0.903993
-0.128601 0.0188225 0.903696
-0.129283 0.0182015 0.903439
-0.129938 0.017567 0.903
-0.130552 0.0169127 0.90229
-0.131161 0.0162583 0.901563
-0.131793 0.0156179 0.901
-0.132429 0.0149814 0.900473
-0.133091 0.0143592 0.900123
-0.133792 0.0137561 0.900029
-0.134452 0.0131356 0.899679
-0.135109 0.0125142 0.899313
-0.135778 0.0118996 0.899032
-0.13645 0.0112871 0.898769
-0.137125 0.010677 0.898533
-0.137834 0.0100812 0.898507
-0.138542 0.00948531 0.898477
-0.13925 0.00888921 0.898446
-0.139957 0.00829357 0.898417
-0.140666 0.00769824 0.898391
-0.141346 0.00709329 0.898205
-0.142023 0.00648774 0.897997
-0.142696 0.00588108 0.897773
-0.143381 0.00527938 0.897617
-0.144088 0.00468522 0.897593
-0.144825 0.00410037 0.897738
-0.145553 0.00351292 0.897833
-0.146295 0.00292918 0.898005
-0.147038 0.00234549 0.89818
-0.147766 0.00175765 0.898274
-0.148515 0.00117425 0.89847
-0.14926 0.000589838 0.898657
-0.00846767 0.146223 1.04649
-0.00952608 0.144809 1.04384
-0.0105635 0.143471 1.04146
-0.0114452 0.142843 1.04199
-0.0123301 0.142207 1.0425
-0.0132153 0.141571 1.04301
-0.0141013 0.140941 1.04354
-0.0149617 0.140443 1.04465
-0.115909 0.0308525 0.917078
-0.116612 0.0302076 0.916782
-0.117307 0.0295572 0.916423
-0.117983 0.0288938 0.915923
-0.118655 0.0282298 0.915401
-0.119303 0.0275502 0.914705
-0.119916 0.0268475 0.913744
-0.120538 0.0261552 0.912871
-0.121151 0.0254602 0.911951
-0.121757 0.024764 0.910992
-0.122341 0.0240566 0.909884
-0.122926 0.0233541 0.908808
-0.12349 0.0226432 0.907605
-0.124082 0.0219539 0.906623
-0.124677 0.0212699 0.905678
-0.125303 0.0206085 0.904975
-0.125962 0.0199696 0.90453
-0.126638 0.0193415 0.904205
-0.127323 0.0187201 0.90395
-0.127994 0.0180922 0.903605
-0.128676 0.0174712 0.903342
-0.129331 0.016837 0.9029
-0.129954 0.0161879 0.902248
-0.130574 0.0155398 0.901589
-0.131225 0.0149092 0.901151
-0.131871 0.0142775 0.900682
-0.132533 0.0136553 0.900327
-0.133224 0.0130476 0.900164
-0.133883 0.012426 0.8998
-0.134531 0.011801 0.899379
-0.135193 0.0111838 0.89905
-0.135865 0.0105713 0.898786
-0.13654 0.00996097 0.898545
-0.137249 0.00936516 0.898519
-0.137965 0.00877261 0.898543
-0.138682 0.00818006 0.898566
-0.139399 0.0075875 0.89859
-0.140116 0.00699499 0.898613
-0.140808 0.00639366 0.898485
-0.141496 0.0057917 0.898344
-0.142183 0.00518923 0.898197
-0.14288 0.00459117 0.898105
-0.143588 0.00399665 0.898083
-0.144314 0.00340823 0.898166
-0.145049 0.00282196 0.898295
-0.145801 0.00224049 0.898524
-0.146547 0.00165652 0.898714
-0.147287 0.00107049 0.898862
-0.148043 0.000488302 0.899101
-0.148798 -9.47757e-05 0.899335
-0.00685052 0.145832 1.04549
-0.00802909 0.143922 1.04078
-0.00893305 0.143186 1.04087
-0.00984012 0.142435 1.0409
-0.0107161 0.141828 1.04151
-0.0115918 0.141229 1.04217
-0.0124639 0.140652 1.04293
-0.0133478 0.140026 1.04349
-0.0142079 0.139527 1.04459
-0.0157442 0.140376 1.04758
-0.0150819 0.138966 1.04543
-0.114646 0.0307999 0.917803
-0.115343 0.0301481 0.917442
-0.116021 0.0294824 0.916933
-0.116694 0.0288146 0.91639
-0.117349 0.0281345 0.91571
-0.118013 0.027465 0.915119
-0.118647 0.0267761 0.914309
-0.119254 0.02607 0.913292
-0.11987 0.0253744 0.912371
-0.12049 0.0246858 0.911501
-0.121104 0.0239965 0.910602
-0.121696 0.0232963 0.909552
-0.122283 0.0225963 0.908482
-0.122855 0.0218911 0.907325
-0.123454 0.0212077 0.906395
-0.124052 0.0205264 0.905464
-0.124687 0.0198714 0.904828
-0.125355 0.019238 0.904443
-0.126038 0.0186148 0.904168
-0.126723 0.0179934 0.903912
-0.127388 0.0173622 0.903518
-0.12807 0.0167415 0.90325
-0.128718 0.016104 0.902759
-0.129349 0.01546 0.90216
-0.129979 0.0148174 0.901568
-0.130648 0.0141959 0.901239
-0.131303 0.0135688 0.900831
-0.131974 0.0129506 0.900524
-0.132655 0.0123383 0.900302
-0.133313 0.0117163 0.899929
-0.133962 0.011092 0.899504
-0.134618 0.0104714 0.899129
-0.13529 0.00985951 0.898863
-0.135963 0.00924863 0.898615
-0.136664 0.00864959 0.898532
-0.137372 0.00805383 0.898506
-0.138089 0.00746128 0.898529
-0.138806 0.00686872 0.898553
-0.139523 0.00627621 0.898576
-0.140232 0.00568044 0.898551
-0.140939 0.00508505 0.898521
-0.141647 0.00448969 0.898489
-0.142354 0.00389429 0.89846
-0.143079 0.00330495 0.898533
-0.143806 0.00271526 0.898613
-0.144542 0.00212862 0.898746
-0.145305 0.00154937 0.899034
-0.146072 0.000970289 0.899334
-0.146823 0.000386087 0.899547
-0.147581 -0.000196421 0.899793
-0.148373 -0.000771171 0.900227
-0.00528962 0.14523 1.0436
-0.00629913 0.144064 1.04195
-0.00732511 0.142814 1.03992
-0.00821275 0.142144 1.04028
-0.00911398 0.141418 1.0404
-0.00998337 0.140835 1.04112
-0.0108527 0.140258 1.04188
-0.0117157 0.139721 1.04281
-0.0125932 0.13912 1.04348
-0.0134512 0.138623 1.04459
-0.0143258 0.138056 1.04542
-0.015861 0.138919 1.04848
-0.0152002 0.137497 1.04629
-0.0166415 0.138898 1.05167
-0.0160774 0.136934 1.04714
-0.113385 0.0307521 0.918576
-0.114065 0.0300836 0.918055
-0.114744 0.0294164 0.917539
-0.115409 0.0287391 0.916903
-0.116069 0.028062 0.916253
-0.116717 0.0273777 0.915515
-0.117367 0.0266982 0.914809
-0.117996 0.0260053 0.913942
-0.118603 0.0253007 0.912923
-0.119219 0.024607 0.912
-0.11984 0.0239201 0.911133
-0.120468 0.0232413 0.910336
-0.121068 0.0225471 0.909341
-0.121656 0.021849 0.908273
-0.122235 0.0211497 0.907169
-0.122843 0.0204722 0.906288
-0.123435 0.0197886 0.905317
-0.124073 0.0191354 0.904691
-0.12475 0.0185076 0.904365
-0.125432 0.0178843 0.904085
-0.126118 0.0172634 0.903831
-0.126789 0.016636 0.903481
-0.127471 0.0160158 0.903213
-0.128127 0.0153827 0.90277
-0.128774 0.0147471 0.902273
-0.129413 0.0141093 0.901735
-0.130091 0.0134919 0.901466
-0.130755 0.0128693 0.901112
-0.131426 0.0122506 0.900807
-0.132102 0.0116355 0.900542
-0.132761 0.0110138 0.900167
-0.133411 0.0103898 0.899746
-0.13406 0.00976681 0.899324
-0.134723 0.0091511 0.899
-0.135388 0.00853667 0.898692
-0.136079 0.00793372 0.898548
-0.136779 0.00733455 0.898469
-0.137496 0.006742 0.898492
-0.138213 0.00614945 0.898516
-0.138929 0.00555693 0.898539
-0.139655 0.00496718 0.898612
-0.140372 0.00437486 0.898639
-0.141089 0.00378258 0.898664
-0.141814 0.00319236 0.898736
-0.142549 0.00260476 0.898861
-0.143277 0.00201554 0.898949
-0.144033 0.00143379 0.899193
-0.144816 0.000859337 0.899597
-0.145597 0.000283105 0.899971
-0.146377 -0.000294948 0.90034
-0.147155 -0.000873928 0.900694
-0.00371047 0.144735 1.04216
-0.00490233 0.142849 1.03754
-0.00574353 0.142354 1.03861
-0.0066213 0.141715 1.03908
-0.0074932 0.141106 1.03969
-0.00837903 0.140442 1.04007
-0.00924237 0.139883 1.0409
-0.010101 0.139346 1.04183
-0.0109537 0.13885 1.04294
-0.011826 0.138274 1.04371
-0.0126815 0.137781 1.04485
-0.0135557 0.137212 1.04567
-0.0144346 0.136628 1.04644
-0.01532 0.136018 1.0471
-0.0168592 0.136897 1.05028
-0.0161968 0.13546 1.048
-0.112797 0.0300302 0.918785
-0.113478 0.0293613 0.918255
-0.114139 0.0286787 0.917575
-0.114784 0.0279865 0.916775
-0.115435 0.0273025 0.916041
-0.116078 0.026615 0.915253
-0.116722 0.0259317 0.914493
-0.117351 0.0252402 0.913625
-0.117965 0.0245414 0.912656
-0.118583 0.0238497 0.911738
-0.119211 0.0231688 0.910926
-0.119846 0.022496 0.910182
-0.120455 0.0218084 0.909249
-0.121052 0.0211168 0.90824
-0.121641 0.0204241 0.907194
