ply
format ascii 1.0
element vertex 1796
property float x
property float y
property float z
end_header
0.329845 0.182337 0.697802
0.331246 0.182247 0.698261
0.332651 0.182157 0.698724
0.334078 0.182085 0.699245
0.335506 0.18201 0.699759
0.336971 0.181965 0.700374
0.338408 0.181892 0.700898
0.339828 0.181801 0.701364
0.341284 0.181738 0.701926
0.34274 0.181673 0.702481
0.34419 0.1816 0.70301
0.345624 0.181509 0.703485
0.347114 0.181464 0.70411
0.348547 0.181367 0.704568
0.350024 0.181304 0.705138
0.351469 0.181211 0.705613
0.353015 0.181199 0.706359
0.35457 0.181192 0.70712
0.356112 0.181169 0.707834
0.357716 0.181193 0.708706
0.359387 0.181266 0.709746
0.361076 0.181349 0.710822
0.362782 0.181441 0.71193
0.364504 0.181541 0.713069
0.366182 0.181601 0.714076
0.367864 0.181658 0.71508
0.369536 0.181705 0.716047
0.371156 0.181706 0.716866
0.372852 0.181762 0.717872
0.374594 0.181849 0.718985
0.376449 0.182016 0.720374
0.378272 0.182153 0.721664
0.380219 0.182377 0.723255
0.382338 0.182722 0.725261
0.384329 0.182965 0.726924
0.386332 0.183209 0.728599
0.3884 0.183495 0.730418
0.390391 0.183718 0.732026
0.39412 0.185184 0.737898
0.253352 0.219818 0.757613
0.254425 0.219218 0.756519
0.255427 0.218507 0.755094
0.256286 0.217573 0.75299
0.257112 0.216599 0.750761
0.257874 0.215537 0.748262
0.258691 0.214575 0.746062
0.259556 0.213699 0.744117
0.260493 0.212945 0.742542
0.261416 0.212176 0.740917
0.262351 0.211434 0.739374
0.263229 0.210616 0.737593
0.264123 0.20983 0.735908
0.264973 0.208988 0.73405
0.265875 0.208232 0.73245
0.266845 0.207581 0.73117
0.267862 0.207003 0.730111
0.268865 0.20641 0.729004
0.269894 0.205859 0.728024
0.270878 0.205249 0.726861
0.271808 0.20457 0.725484
0.272776 0.203949 0.724286
0.273756 0.20335 0.72315
0.274722 0.202737 0.721971
0.275682 0.202123 0.720784
0.276622 0.201486 0.719528
0.277572 0.200868 0.718324
0.278509 0.200238 0.717086
0.279433 0.199598 0.715812
0.280379 0.19899 0.714637
0.281361 0.198434 0.713618
0.282334 0.197869 0.712574
0.283336 0.197346 0.711656
0.284352 0.196843 0.710798
0.285391 0.196371 0.710039
0.286443 0.195918 0.709336
0.287457 0.195422 0.708496
0.288537 0.195007 0.707912
0.28963 0.19461 0.707381
0.290712 0.194202 0.706814
0.291795 0.193796 0.706254
0.292933 0.193455 0.705899
0.294058 0.1931 0.705497
0.295169 0.19273 0.705051
0.296323 0.192409 0.704756
0.297445 0.192054 0.704354
0.298568 0.1917 0.703955
0.299659 0.191312 0.703446
0.300779 0.190956 0.703042
0.301869 0.190569 0.702537
0.303004 0.190232 0.70219
0.304142 0.189897 0.701851
0.305263 0.189546 0.701459
0.306395 0.189208 0.701108
0.307509 0.188851 0.700695
0.308593 0.188463 0.700186
0.309693 0.188094 0.699733
0.31081 0.187743 0.699339
0.31196 0.187426 0.699055
0.313129 0.187129 0.698833
0.314364 0.186898 0.698824
0.315603 0.18667 0.698826
0.316863 0.186462 0.698889
0.318105 0.186235 0.698894
0.319379 0.186038 0.698997
0.320656 0.185843 0.699107
0.321856 0.185572 0.69897
0.323061 0.185305 0.69885
0.324241 0.185014 0.69865
0.325371 0.184676 0.698298
0.326541 0.184376 0.698068
0.327785 0.184145 0.698064
0.329091 0.18397 0.698243
0.330439 0.183832 0.698541
0.331861 0.18376 0.699055
0.333269 0.183672 0.69952
0.334695 0.183597 0.700029
0.336121 0.183519 0.70053
0.33757 0.183459 0.701091
0.339006 0.183384 0.701605
0.340431 0.183297 0.70208
0.341889 0.183235 0.702641
0.343334 0.183159 0.703157
0.344763 0.183066 0.70362
0.346177 0.182958 0.704033
0.347643 0.182892 0.704585
0.349077 0.182795 0.705039
0.350558 0.182735 0.705616
0.352047 0.182678 0.706206
0.353601 0.182672 0.706967
0.355163 0.18267 0.70774
0.35667 0.182618 0.708353
0.358295 0.182659 0.709275
0.359972 0.182737 0.710324
0.361692 0.182845 0.711477
0.363402 0.18294 0.712589
0.365162 0.18307 0.71382
0.366862 0.183147 0.714877
0.368547 0.183207 0.715884
0.370209 0.183246 0.716818
0.371849 0.183262 0.71768
0.373568 0.183335 0.718738
0.375324 0.183432 0.719879
0.377269 0.183667 0.721488
0.379184 0.183874 0.723004
0.381212 0.184158 0.724787
0.38329 0.184473 0.726679
0.38529 0.184721 0.728353
0.387165 0.184871 0.729697
0.389079 0.185045 0.731123
0.3909 0.185144 0.732303
0.397983 0.186724 0.744041
0.39685 0.188225 0.743628
0.2537 0.22123 0.757769
0.254804 0.220676 0.756821
0.255847 0.220029 0.755593
0.256762 0.21918 0.753756
0.257589 0.218201 0.751527
0.258349 0.21713 0.749015
0.259162 0.216156 0.74679
0.260003 0.215238 0.74473
0.260943 0.214483 0.743158
0.261883 0.213736 0.74161
0.262835 0.213015 0.740138
0.263741 0.212233 0.738476
0.264661 0.211481 0.736904
0.265525 0.210652 0.735098
0.266426 0.209889 0.733485
0.267394 0.20923 0.732188
0.268397 0.208626 0.731056
0.269387 0.20801 0.729884
0.270406 0.20744 0.728853
0.271391 0.206827 0.727688
0.272322 0.206145 0.726308
0.273276 0.205501 0.725046
0.274257 0.204899 0.723907
0.275223 0.204283 0.722724
0.276188 0.203668 0.721545
0.277131 0.203031 0.720294
0.278094 0.202426 0.71914
0.27906 0.20183 0.71801
0.280004 0.20121 0.716805
0.280971 0.200625 0.715707
0.281971 0.200086 0.71475
0.282957 0.199533 0.713747
0.283946 0.198988 0.712767
0.284959 0.198477 0.71189
0.285983 0.197983 0.711066
0.287019 0.197506 0.710294
0.288004 0.19697 0.709335
0.28904 0.196499 0.708579
0.290089 0.196047 0.707878
0.291154 0.195616 0.707245
0.292225 0.195193 0.706635
0.293366 0.194854 0.706286
0.29451 0.194519 0.705951
0.295639 0.194168 0.705563
0.296796 0.193848 0.705273
0.297933 0.193507 0.704919
0.299073 0.193169 0.704572
0.300165 0.192779 0.704061
0.301284 0.19242 0.703647
0.30237 0.192027 0.703125
0.303487 0.191667 0.70271
0.304609 0.191314 0.702312
0.305717 0.190947 0.701873
0.306838 0.190594 0.701477
0.307939 0.190222 0.70102
0.309024 0.189833 0.700508
0.310125 0.189463 0.700054
0.311256 0.189124 0.699702
0.312408 0.188808 0.699421
0.313576 0.188508 0.699192
0.314814 0.188279 0.699186
0.316055 0.188052 0.699189
0.317316 0.187843 0.699252
0.318576 0.187633 0.699309
0.319884 0.187468 0.699514
0.321166 0.187276 0.699632
0.322366 0.187004 0.699494
0.323591 0.186754 0.699427
0.324792 0.186482 0.699288
0.325929 0.186148 0.69895
0.327139 0.185884 0.698838
0.328424 0.185689 0.69895
0.329735 0.185517 0.699137
0.331086 0.18538 0.699435
0.33249 0.185289 0.699888
0.333861 0.185166 0.700235
0.335253 0.185059 0.700637
0.336662 0.184965 0.701083
0.338076 0.184873 0.701537
0.339515 0.1848 0.702053
0.34096 0.18473 0.702581
0.342423 0.184672 0.703151
0.343873 0.184599 0.703674
0.345303 0.184507 0.704133
0.346716 0.184397 0.704536
0.348165 0.184315 0.705036
0.349604 0.184222 0.705499
0.351091 0.184167 0.706088
0.352605 0.184131 0.70674
0.354164 0.184129 0.707508
0.355727 0.184127 0.708278
0.357234 0.184074 0.708884
0.358883 0.184135 0.709865
0.360584 0.184233 0.710974
0.362291 0.184331 0.712084
0.364022 0.184443 0.713245
0.365825 0.184607 0.714582
0.367574 0.184722 0.71576
0.369252 0.184777 0.71674
0.370958 0.184848 0.71778
0.372597 0.184863 0.718633
0.374325 0.184943 0.719706
0.376076 0.185036 0.720824
0.378058 0.1853 0.722519
0.379973 0.185506 0.724025
0.382035 0.185816 0.725885
0.384088 0.186113 0.727704
0.386041 0.186328 0.729252
0.387866 0.186441 0.730463
0.389717 0.186568 0.731723
0.393352 0.187994 0.737374
0.255244 0.222237 0.757422
0.256302 0.221608 0.756256
0.257239 0.220792 0.754526
0.258094 0.219852 0.752424
0.258829 0.218734 0.749786
0.259625 0.217727 0.747475
0.26044 0.216762 0.745286
0.261381 0.216005 0.743717
0.262338 0.215279 0.742239
0.263317 0.214595 0.740885
0.26424 0.213832 0.739294
0.265188 0.213116 0.737839
0.266069 0.212309 0.736106
0.266973 0.211544 0.734497
0.267942 0.21088 0.733191
0.268939 0.210263 0.732027
0.269913 0.20962 0.73078
0.270919 0.209026 0.729682
0.271906 0.208411 0.728517
0.272839 0.207727 0.72714
0.273781 0.207061 0.725818
0.274746 0.206434 0.724609
0.275712 0.205813 0.723418
0.276678 0.205197 0.72224
0.277627 0.204564 0.721009
0.278609 0.203979 0.719921
0.279605 0.203417 0.718904
0.280578 0.20283 0.717809
0.281564 0.202264 0.716774
0.282568 0.201726 0.715825
0.283556 0.201171 0.714823
0.284543 0.200619 0.713826
0.285531 0.200072 0.712846
0.286529 0.199541 0.71191
0.287549 0.199041 0.711071
0.288501 0.198462 0.709985
0.289477 0.197916 0.709001
0.290495 0.197423 0.708181
0.291544 0.196971 0.707482
0.292613 0.196543 0.706861
0.29377 0.196222 0.706567
0.294959 0.195937 0.70639
0.296108 0.195606 0.706066
0.297297 0.195322 0.705889
0.298453 0.195 0.705594
0.29961 0.194678 0.705301
0.300692 0.194274 0.704748
0.30181 0.193911 0.704326
0.30288 0.193496 0.70374
0.303982 0.193118 0.703268
0.30509 0.192748 0.702818
0.3062 0.192381 0.70238
0.307322 0.192027 0.701982
0.308455 0.191685 0.701624
0.309557 0.191313 0.701168
0.310675 0.190958 0.700764
0.31181 0.19062 0.700418
0.312976 0.190316 0.700174
0.314131 0.19 0.699897
0.315369 0.189769 0.699886
0.316599 0.189528 0.699845
0.317863 0.189321 0.699911
0.319107 0.189093 0.699913
0.320416 0.188928 0.700115
0.321684 0.188721 0.700182
0.322904 0.188466 0.700099
0.324149 0.188234 0.700088
0.325369 0.187978 0.700004
0.326546 0.18768 0.699783
0.327781 0.187436 0.699735
0.329088 0.18726 0.699907
0.3304 0.187087 0.700089
0.331747 0.186944 0.700369
0.333096 0.186801 0.700649
0.334448 0.186659 0.700934
0.335803 0.186517 0.70122
0.337181 0.186394 0.70157
0.338579 0.186287 0.701971
0.340003 0.1862 0.702439
0.341448 0.186129 0.702959
0.342917 0.186076 0.703542
0.344405 0.186036 0.704167
0.345842 0.18595 0.704643
0.347294 0.185872 0.705151
0.34875 0.185796 0.705662
0.350197 0.185708 0.70614
0.351671 0.185641 0.706685
0.353207 0.185623 0.707393
0.354763 0.185619 0.708148
0.356329 0.185618 0.708917
0.357855 0.185581 0.709569
0.359526 0.185659 0.710602
0.361213 0.185746 0.711665
0.362904 0.18583 0.712725
0.364655 0.185959 0.713933
0.366468 0.186131 0.715289
0.368273 0.186291 0.716607
0.369988 0.186374 0.717674
0.371721 0.186467 0.718775
0.373382 0.186498 0.719678
0.375134 0.186596 0.720805
0.376871 0.186678 0.721879
0.378784 0.186888 0.723386
0.3806 0.187019 0.724631
0.38255 0.187247 0.726203
0.384617 0.187555 0.72805
0.386493 0.187713 0.729398
0.388339 0.187844 0.730657
0.390137 0.187933 0.731782
0.25559 0.223644 0.757555
0.256692 0.223085 0.756601
0.257686 0.222357 0.755143
0.258586 0.221484 0.753252
0.259344 0.220396 0.750717
0.260135 0.219374 0.748373
0.260932 0.218376 0.746098
0.261847 0.217572 0.7444
0.262804 0.216841 0.742915
0.263784 0.216153 0.741557
0.264732 0.215426 0.740078
0.265699 0.214732 0.738699
0.266613 0.213968 0.737105
0.267535 0.213223 0.735567
0.268505 0.212556 0.734259
0.269488 0.211913 0.733024
0.270447 0.211243 0.731701
0.271452 0.210643 0.730592
0.272441 0.210026 0.729427
0.273375 0.209339 0.728049
0.274304 0.20865 0.726665
0.275266 0.208014 0.725435
0.27623 0.207384 0.724226
0.277212 0.206786 0.723107
0.27818 0.206173 0.721944
0.279193 0.205625 0.720975
0.280204 0.205079 0.720012
0.281192 0.204506 0.718967
0.28218 0.203937 0.717929
0.283198 0.203413 0.717026
0.284187 0.202854 0.716017
0.285164 0.202283 0.714971
0.28614 0.201717 0.713935
0.287124 0.201164 0.71294
0.288119 0.200629 0.711998
0.28904 0.200007 0.710789
0.289985 0.199419 0.709681
0.290967 0.19888 0.70872
0.291999 0.198404 0.707956
0.293055 0.19796 0.707285
0.294216 0.197641 0.707
0.295422 0.197374 0.706876
0.296588 0.19706 0.706608
0.29778 0.196777 0.706436
0.298972 0.196493 0.70626
0.300164 0.196209 0.706085
0.30128 0.19584 0.705646
0.302404 0.19548 0.705235
0.303491 0.19508 0.704697
0.304579 0.194683 0.70417
0.305673 0.194294 0.703666
0.306769 0.193909 0.703174
0.30789 0.193551 0.702766
0.309038 0.193223 0.702451
0.310161 0.192869 0.702054
0.311302 0.192535 0.701721
0.312459 0.192217 0.701438
0.313643 0.191929 0.701246
0.314814 0.191627 0.701012
0.316056 0.191396 0.701003
0.317273 0.191139 0.700913
0.318522 0.190914 0.700923
0.319749 0.190667 0.700862
0.32101 0.190452 0.700906
0.322246 0.190211 0.700866
0.323467 0.189955 0.700779
0.324714 0.189723 0.70077
0.32594 0.18947 0.700694
0.327171 0.189222 0.700632
0.328443 0.189011 0.700693
0.329772 0.188854 0.700922
0.331086 0.18868 0.701101
0.332415 0.188518 0.701317
0.333706 0.188319 0.701419
0.335037 0.188156 0.701633
0.336356 0.18798 0.701809
0.337719 0.187842 0.702107
0.3391 0.187719 0.702452
0.340521 0.187629 0.702909
0.341949 0.187542 0.703373
0.343421 0.187492 0.70396
0.344917 0.187459 0.704603
0.346396 0.187407 0.705189
0.347876 0.187354 0.70577
0.349358 0.187299 0.706347
0.350828 0.18723 0.706884
0.352321 0.187178 0.707476
0.353856 0.187159 0.708173
0.355416 0.187156 0.70893
0.356964 0.18714 0.709643
0.358515 0.187123 0.710357
0.360192 0.187205 0.711397
0.361883 0.187295 0.712463
0.363574 0.187379 0.713515
0.36535 0.187527 0.714779
0.367191 0.187723 0.716202
0.369034 0.187913 0.717612
0.370763 0.188007 0.718706
0.372503 0.188104 0.719817
0.374185 0.188151 0.720766
0.375917 0.188233 0.721831
0.377586 0.188261 0.722722
0.379422 0.188413 0.724025
0.381113 0.188448 0.724948
0.382897 0.188551 0.726093
0.384886 0.188803 0.72774
0.386782 0.188978 0.729135
0.38871 0.189173 0.730597
0.39049 0.18925 0.731674
0.257127 0.224637 0.757161
0.258166 0.223977 0.755912
0.259134 0.223209 0.754341
0.259966 0.222232 0.752147
0.260756 0.2212 0.749791
0.261548 0.220186 0.74748
0.262423 0.219313 0.745586
0.263327 0.218494 0.743848
0.264291 0.217777 0.742411
0.265238 0.217042 0.740919
0.266222 0.216369 0.739606
0.267179 0.215663 0.738196
0.268133 0.214959 0.73679
0.269119 0.214309 0.735542
0.270091 0.213645 0.734249
0.271024 0.212931 0.732805
0.272004 0.21229 0.731577
0.27298 0.21165 0.73035
0.273902 0.210941 0.728914
0.274831 0.210248 0.727522
0.275794 0.209607 0.726286
0.276757 0.208972 0.725068
0.277738 0.208368 0.72394
0.278721 0.207771 0.722829
0.279739 0.207225 0.721872
0.280751 0.206676 0.720906
0.28174 0.206099 0.719853
0.282738 0.205539 0.718851
0.283746 0.204997 0.7179
0.284722 0.204417 0.716832
0.285683 0.203822 0.715718
0.286657 0.203249 0.714668
0.287615 0.202661 0.71357
0.288583 0.202089 0.712521
0.289488 0.201444 0.711247
0.290414 0.20083 0.710065
0.291379 0.200267 0.709037
0.292412 0.19979 0.708272
0.293471 0.199347 0.707609
0.294635 0.199029 0.70733
0.295842 0.198762 0.707206
0.297008 0.198446 0.706933
0.298204 0.198166 0.70677
0.299429 0.197918 0.706704
0.300658 0.197674 0.706654
0.301811 0.197345 0.706339
0.302956 0.197005 0.705992
0.30406 0.196621 0.705509
0.305149 0.196223 0.704979
0.306245 0.195832 0.704472
0.30734 0.195443 0.703971
0.308461 0.195082 0.703556
0.309627 0.194771 0.703295
0.310772 0.194437 0.702963
0.31194 0.194128 0.70271
0.313133 0.193846 0.70254
0.314339 0.193576 0.702409
0.315513 0.193273 0.702173
0.316759 0.193044 0.702169
0.317976 0.192784 0.70207
0.319208 0.192539 0.702016
0.320417 0.19227 0.70189
0.32166 0.192034 0.701865
0.322876 0.191772 0.701759
0.324082 0.191497 0.701616
0.325314 0.191249 0.701554
0.326543 0.190997 0.70148
0.327794 0.190765 0.701472
0.329071 0.190558 0.701541
0.330406 0.190403 0.70178
0.33172 0.190228 0.701952
0.333051 0.190066 0.702167
0.334307 0.189833 0.702159
0.33562 0.189651 0.702313
0.33692 0.189457 0.702428
0.338263 0.189299 0.702661
0.339609 0.189142 0.702898
0.341026 0.189049 0.703337
0.342455 0.188962 0.703801
0.343928 0.188912 0.704384
0.345431 0.188885 0.705041
0.346954 0.188872 0.705745
0.34846 0.18884 0.706394
0.349967 0.188806 0.707034
0.351458 0.188755 0.707622
0.35295 0.1887 0.708202
0.354484 0.188679 0.708891
0.35605 0.188681 0.709656
0.357587 0.188655 0.710333
0.359205 0.188693 0.71122
0.360927 0.188812 0.712374
0.36263 0.188911 0.713462
0.364322 0.188996 0.714511
0.36612 0.189162 0.715824
0.367945 0.189343 0.717193
0.369776 0.189524 0.718561
0.371508 0.189619 0.719657
0.373232 0.189704 0.720719
0.374913 0.189749 0.721654
0.376559 0.189763 0.722492
0.378139 0.189721 0.723147
0.379838 0.189769 0.724099
0.381443 0.189739 0.724799
0.383092 0.189739 0.7256
0.389154 0.190556 0.730716
0.25765 0.226338 0.758146
0.258722 0.225726 0.757045
0.259749 0.225046 0.755742
0.260646 0.224166 0.753848
0.261439 0.22313 0.751493
0.262207 0.222068 0.749055
0.263028 0.221102 0.746896
0.263874 0.220187 0.744886
0.264806 0.219416 0.743297
0.265739 0.218653 0.741729
0.266725 0.217979 0.740422
0.267712 0.217312 0.739135
0.268695 0.216647 0.737849
0.269684 0.215995 0.736603
0.27067 0.215345 0.73536
0.271603 0.214626 0.73391
0.272571 0.213963 0.732622
0.273547 0.213317 0.731385
0.274482 0.212619 0.729992
0.275399 0.211905 0.728544
0.276351 0.211244 0.727256
0.277315 0.210606 0.726034
0.278285 0.209981 0.72485
0.279267 0.209379 0.723732
0.280285 0.208827 0.722765
0.281284 0.208257 0.721738
0.282272 0.207674 0.720674
0.283256 0.207093 0.719613
0.284252 0.20653 0.718605
0.285228 0.205947 0.717532
0.286188 0.205348 0.716412
0.287145 0.204749 0.715288
0.288085 0.204133 0.714115
0.289037 0.203538 0.713001
0.289915 0.202857 0.711623
0.290841 0.202239 0.710436
0.291821 0.201693 0.709464
0.292872 0.201234 0.708759
0.293937 0.200796 0.708112
0.295117 0.200494 0.707885
0.296309 0.200208 0.707702
0.297459 0.199871 0.707365
0.298668 0.199604 0.707245
0.299913 0.199378 0.707245
0.301163 0.199155 0.707259
0.302369 0.198882 0.707118
0.303533 0.198562 0.706835
0.304642 0.198181 0.70636
0.305761 0.197811 0.705924
0.306858 0.197419 0.705416
0.307941 0.197013 0.704865
0.309065 0.196652 0.704453
0.310249 0.196357 0.704244
0.311383 0.196009 0.703868
0.312572 0.195719 0.703675
0.313804 0.195473 0.703621
0.315047 0.19524 0.703603
0.316261 0.194974 0.703486
0.317528 0.194763 0.703539
0.318749 0.194504 0.703441
0.319963 0.194237 0.703322
0.321153 0.193945 0.703124
0.322344 0.193655 0.70293
0.323526 0.193355 0.702707
0.324728 0.193074 0.702546
0.325944 0.192808 0.702427
0.327157 0.192538 0.702299
0.328428 0.192323 0.702345
0.32971 0.192118 0.702419
0.331034 0.191951 0.702616
0.332371 0.191795 0.702849
0.333705 0.191634 0.703066
0.334948 0.191387 0.703013
0.336263 0.191205 0.703167
0.337583 0.191026 0.703329
0.33891 0.190852 0.703509
0.340274 0.190711 0.703792
0.341694 0.190618 0.704231
0.343124 0.19053 0.704689
0.344564 0.19045 0.705171
0.346066 0.190421 0.705819
0.347573 0.190392 0.706471
0.349083 0.190364 0.707123
0.350597 0.190334 0.707776
0.352109 0.1903 0.708414
0.353606 0.190249 0.709002
0.355145 0.190231 0.709695
0.356775 0.190287 0.71063
0.358361 0.190301 0.711431
0.360072 0.190415 0.712559
0.36183 0.190563 0.713798
0.363562 0.190685 0.714954
0.365201 0.190724 0.715847
0.366955 0.190853 0.717035
0.368694 0.190964 0.718167
0.370456 0.191089 0.719347
0.372146 0.191151 0.720325
0.373842 0.191212 0.721305
0.37546 0.191207 0.722073
0.377016 0.191151 0.722673
0.378519 0.191049 0.723129
0.380102 0.191007 0.723783
0.38159 0.190888 0.724186
0.38315 0.190823 0.724766
0.25928 0.227481 0.758181
0.260364 0.226887 0.757137
0.261296 0.226056 0.755398
0.262162 0.225128 0.753371
0.262913 0.224028 0.750838
0.263689 0.222984 0.748462
0.264479 0.221975 0.746185
0.265406 0.221188 0.74456
0.266313 0.220379 0.742864
0.267286 0.21968 0.741491
0.268287 0.219027 0.740254
0.269273 0.218361 0.738973
0.270251 0.217688 0.737671
0.27125 0.217051 0.736475
0.272196 0.216344 0.735067
0.273138 0.215639 0.733662
0.274114 0.214988 0.732418
0.275062 0.214303 0.731069
0.275981 0.213584 0.729619
0.276924 0.212906 0.728287
0.27789 0.212266 0.727064
0.278845 0.211615 0.72581
0.279825 0.211005 0.724675
0.28083 0.210432 0.723647
0.281818 0.209842 0.722569
0.282802 0.209252 0.721487
0.283788 0.208667 0.72042
0.28477 0.208082 0.719352
0.285736 0.207482 0.718237
0.286708 0.206894 0.717155
0.287662 0.206287 0.716014
0.288587 0.20565 0.714781
0.289509 0.205013 0.713548
0.290398 0.204341 0.712206
0.29134 0.203739 0.711073
0.29233 0.203201 0.710132
0.29339 0.202751 0.709454
0.294472 0.202328 0.70886
0.29562 0.201987 0.708514
0.296778 0.201657 0.7082
0.297911 0.201299 0.707801
0.299137 0.20105 0.707731
0.300402 0.200844 0.707795
0.301686 0.200659 0.707925
0.302925 0.200421 0.707892
0.304123 0.200136 0.707715
0.30525 0.199772 0.707296
0.306389 0.199422 0.706921
0.307504 0.199045 0.706465
0.308591 0.198639 0.705917
0.309719 0.198279 0.70551
0.310922 0.198001 0.705355
0.312072 0.197667 0.705024
0.313279 0.197392 0.704881
0.31453 0.197164 0.704881
0.315796 0.196951 0.704925
0.317018 0.19669 0.704824
0.318275 0.196465 0.704835
0.319481 0.196187 0.704681
0.320679 0.195901 0.704501
0.321856 0.195592 0.704251
0.323015 0.195266 0.70395
0.324179 0.194946 0.703664
0.32538 0.194661 0.703489
0.326579 0.194375 0.703313
0.327778 0.194089 0.703133
0.329067 0.193889 0.703225
0.330352 0.193684 0.703301
0.331677 0.193517 0.703495
0.333054 0.193397 0.703839
0.334429 0.193273 0.704171
0.335701 0.193049 0.704193
0.337057 0.192903 0.704458
0.3384 0.192743 0.704679
0.339731 0.19257 0.704861
0.341102 0.192432 0.705154
0.342513 0.192328 0.705556
0.343911 0.192209 0.705912
0.345331 0.192108 0.706327
0.346812 0.192059 0.706906
0.3483 0.192012 0.707497
0.349794 0.191967 0.708093
0.35131 0.191938 0.708743
0.352808 0.191891 0.709337
0.354292 0.191827 0.709879
0.355837 0.191813 0.710583
0.357477 0.191877 0.711535
0.359091 0.191913 0.712403
0.360854 0.192071 0.713663
0.362646 0.192247 0.714984
0.364392 0.192379 0.716167
0.366029 0.192414 0.717044
0.367733 0.192502 0.718091
0.369403 0.192556 0.719032
0.371092 0.192622 0.720014
0.372713 0.192627 0.720806
0.374358 0.192649 0.72165
0.37591 0.192592 0.722242
0.377394 0.192478 0.722655
0.378842 0.192334 0.722968
0.380401 0.192274 0.723557
0.381879 0.192148 0.723932
0.259862 0.229279 0.759425
0.260992 0.228755 0.75859
0.262002 0.22804 0.757199
0.262947 0.227229 0.755526
0.263722 0.226159 0.753091
0.264459 0.225041 0.750516
0.265205 0.223953 0.748022
0.266066 0.223056 0.746085
0.266919 0.222158 0.744138
0.267841 0.221374 0.742525
0.268853 0.220733 0.741329
0.269827 0.220042 0.739982
0.270792 0.219346 0.738619
0.271792 0.218705 0.737416
0.272749 0.218009 0.736049
0.27368 0.217281 0.734588
0.274659 0.216629 0.733346
0.275621 0.21596 0.732052
0.276556 0.215258 0.73066
0.277499 0.214575 0.729319
0.278466 0.21393 0.72809
0.279417 0.21327 0.726815
0.280385 0.212637 0.725619
0.281376 0.212042 0.724532
0.282352 0.211431 0.723398
0.283337 0.210837 0.72231
0.284321 0.210246 0.721231
0.285318 0.209676 0.720214
0.286286 0.209074 0.719099
0.28725 0.208471 0.717978
0.288207 0.207865 0.716846
0.28913 0.20722 0.715596
0.29005 0.206576 0.714348
0.290969 0.205936 0.713109
0.29196 0.20539 0.712153
0.292973 0.204875 0.711286
0.294038 0.204426 0.710617
0.295102 0.203979 0.709951
0.296201 0.203575 0.709417
0.297312 0.203186 0.708928
0.298429 0.202807 0.708466
0.299645 0.202543 0.708353
0.300898 0.202322 0.708371
0.302186 0.202139 0.708504
0.30344 0.201916 0.708517
0.304641 0.201632 0.708345
0.305787 0.201287 0.707985
0.306947 0.200957 0.707674
0.308082 0.2006 0.707278
0.30919 0.200214 0.706796
0.310333 0.199867 0.706431
0.311523 0.199573 0.706226
0.312673 0.199234 0.705887
0.313878 0.198955 0.705729
0.315131 0.198727 0.705728
0.316385 0.198499 0.705726
0.317627 0.198256 0.705682
0.318885 0.19803 0.705689
0.320094 0.197752 0.705537
0.321279 0.197449 0.705306
0.322456 0.197139 0.705053
0.323602 0.196797 0.704703
0.324768 0.196475 0.704415
0.32597 0.19619 0.70424
0.327173 0.195905 0.704065
0.328375 0.195619 0.70389
0.329682 0.195435 0.70403
0.330984 0.195245 0.704151
0.332329 0.195095 0.704398
0.333747 0.195012 0.704854
0.335166 0.194927 0.705308
0.336483 0.194743 0.705453
0.337848 0.194603 0.705735
0.339214 0.194462 0.706013
0.340553 0.194293 0.706209
0.341935 0.194162 0.706522
0.343353 0.194061 0.706933
0.344771 0.193959 0.707339
0.346191 0.193855 0.707743
0.347653 0.193785 0.708256
0.34914 0.193735 0.708832
0.350616 0.193673 0.709372
0.352095 0.19361 0.709908
0.353634 0.193596 0.710604
0.355163 0.193569 0.711262
0.356741 0.193582 0.712045
0.358388 0.193649 0.713004
0.360045 0.19372 0.713977
0.361799 0.193868 0.715199
0.36358 0.194034 0.71648
0.36529 0.194134 0.717555
0.366923 0.194165 0.718413
0.368582 0.194213 0.719328
0.370205 0.194228 0.720139
0.371812 0.194225 0.720895
0.373361 0.194173 0.721494
0.374897 0.194105 0.722048
0.376357 0.193975 0.722402
0.377734 0.193776 0.722535
0.37912 0.193583 0.722688
0.380662 0.193511 0.723232
0.261592 0.23058 0.7599
0.262627 0.229899 0.758613
0.263622 0.229162 0.757163
0.264483 0.228219 0.755114
0.265234 0.227113 0.752587
0.265954 0.225973 0.749958
0.266774 0.225004 0.747821
0.267583 0.22403 0.745665
0.268448 0.223151 0.743784
0.269419 0.222443 0.7424
0.270377 0.221722 0.740974
0.271332 0.221005 0.739556
0.272318 0.220339 0.738287
0.27329 0.219659 0.736974
0.274223 0.218929 0.735514
0.275205 0.218277 0.734278
0.276169 0.217605 0.732985
0.277118 0.216918 0.731643
0.278049 0.216212 0.730244
0.279003 0.215544 0.728954
0.279939 0.214859 0.727611
0.280904 0.214218 0.726398
0.281883 0.213602 0.725256
0.282862 0.212991 0.724127
0.283864 0.212414 0.723097
0.284861 0.211837 0.722065
0.28586 0.211266 0.721049
0.286831 0.210663 0.719935
0.287811 0.210077 0.718871
0.288772 0.209469 0.717743
0.289715 0.208845 0.716562
0.290654 0.208221 0.715382
0.291604 0.207615 0.71425
0.292629 0.207107 0.71341
0.293662 0.206611 0.712606
0.294713 0.20614 0.711876
0.29574 0.205643 0.711067
0.296787 0.205172 0.710335
0.29785 0.204724 0.709669
0.298954 0.204325 0.709151
0.300175 0.204065 0.709049
0.301416 0.203827 0.709018
0.302688 0.203624 0.709089
0.303924 0.203379 0.709033
0.305126 0.203094 0.70886
0.306279 0.202754 0.708517
0.307478 0.202465 0.708331
0.308632 0.202127 0.707996
0.309754 0.201753 0.707553
0.3109 0.201407 0.707192
0.312075 0.201093 0.706929
0.313211 0.200738 0.70654
0.314417 0.200457 0.706377
0.315655 0.20021 0.706319
0.316892 0.199963 0.706259
0.318132 0.199716 0.706202
0.319389 0.199487 0.706199
0.320613 0.199223 0.706089
0.321817 0.198938 0.705913
0.323016 0.198647 0.705724
0.324183 0.198324 0.705431
0.325369 0.19802 0.705201
0.326592 0.197753 0.705082
0.327817 0.197488 0.704971
0.329043 0.197223 0.704858
0.330338 0.197025 0.704956
0.33164 0.196833 0.705069
0.332989 0.196683 0.705317
0.334413 0.196605 0.705786
0.335845 0.19653 0.706267
0.337204 0.196384 0.706528
0.338592 0.196263 0.706869
0.339962 0.196123 0.70715
0.341322 0.195972 0.707398
0.342745 0.195876 0.707819
0.344207 0.195813 0.708348
0.34565 0.19573 0.708813
0.347111 0.195661 0.709321
0.348597 0.19561 0.709892
0.350093 0.195565 0.710481
0.351577 0.195506 0.711028
0.353076 0.195458 0.711611
0.354637 0.195461 0.712355
0.356193 0.195455 0.713073
0.357782 0.195474 0.713873
0.359436 0.195544 0.714838
0.361095 0.195615 0.715806
0.362821 0.195737 0.716938
0.364546 0.195853 0.718055
0.36619 0.195896 0.718944
0.367845 0.195944 0.71985
0.369511 0.195996 0.720773
0.371106 0.195986 0.7215
0.37272 0.195987 0.722264
0.374309 0.195964 0.722955
0.375718 0.195792 0.723172
0.377059 0.195564 0.723212
0.378314 0.195266 0.723028
0.262041 0.232161 0.760487
0.263099 0.231513 0.759303
0.264135 0.230837 0.758038
0.26506 0.22999 0.756274
0.265891 0.229003 0.754106
0.266637 0.227896 0.751587
0.267435 0.226882 0.749333
0.268225 0.225871 0.747082
0.269058 0.224936 0.74505
0.269986 0.224157 0.743465
0.270929 0.223408 0.741967
0.271857 0.222644 0.74042
0.272829 0.221953 0.739086
0.273817 0.221291 0.737834
0.274765 0.22058 0.736434
0.275766 0.219948 0.735267
0.276745 0.219292 0.734025
0.277693 0.218598 0.732671
0.278611 0.21787 0.731214
0.279551 0.217178 0.72986
0.280475 0.21647 0.72846
0.281425 0.215804 0.727179
0.282404 0.215184 0.726031
0.283383 0.214569 0.724895
0.28439 0.213995 0.72388
0.285392 0.213419 0.722858
0.286421 0.212883 0.721951
0.287434 0.21233 0.720992
0.288461 0.2118 0.720098
0.289456 0.211231 0.71909
0.290446 0.210659 0.718074
0.291419 0.210073 0.717009
0.292379 0.209472 0.715902
0.293412 0.208967 0.715077
0.29443 0.208447 0.714209
0.295446 0.207929 0.71334
0.296438 0.207383 0.71239
0.297451 0.206867 0.711528
0.298485 0.206379 0.710749
0.299591 0.205979 0.710229
0.300799 0.2057 0.710073
0.30201 0.205424 0.709926
0.303246 0.205178 0.709867
0.304448 0.20489 0.709684
0.305635 0.204586 0.709453
0.306793 0.204249 0.709123
0.308012 0.20398 0.708999
0.309186 0.203661 0.70872
0.310323 0.203302 0.708323
0.311471 0.202955 0.707963
0.312634 0.202625 0.707653
0.313772 0.202269 0.707263
0.314961 0.201968 0.707041
0.316182 0.201701 0.706921
0.317403 0.201433 0.7068
0.318641 0.201183 0.706732
0.319882 0.200936 0.706672
0.321124 0.200688 0.706614
0.322332 0.200405 0.706447
0.323553 0.200135 0.706318
0.324757 0.199847 0.706138
0.325982 0.199581 0.706021
0.327229 0.199336 0.70597
0.328497 0.19911 0.70598
0.329746 0.198865 0.705929
0.331046 0.198669 0.706032
0.332352 0.198478 0.706148
0.333721 0.198346 0.706451
0.335152 0.198272 0.706929
0.336589 0.1982 0.707417
0.337952 0.198055 0.70768
0.33934 0.197932 0.708012
0.34071 0.197789 0.708284
0.342091 0.197654 0.70858
0.343556 0.197596 0.709116
0.345063 0.197572 0.709761
0.346556 0.197532 0.710357
0.348069 0.197506 0.711001
0.349588 0.197483 0.711652
0.351097 0.197447 0.712267
0.352588 0.197391 0.712821
0.354095 0.197346 0.713411
0.355662 0.197352 0.71416
0.357225 0.197349 0.714886
0.358829 0.197378 0.715714
0.360487 0.19745 0.716677
0.362146 0.197517 0.717629
0.363806 0.19758 0.718571
0.365461 0.197636 0.719491
0.367039 0.197621 0.720192
0.368717 0.197686 0.721149
0.370402 0.197753 0.722112
0.372021 0.19776 0.72289
0.373668 0.197787 0.723732
0.375215 0.197727 0.724303
0.376526 0.197474 0.724259
0.377777 0.19717 0.72406
0.26353 0.233063 0.759797
0.264589 0.23242 0.758633
0.265564 0.231647 0.757093
0.266452 0.230746 0.755183
0.267257 0.229723 0.752919
0.268042 0.228683 0.7506
0.268812 0.227633 0.748251
0.26963 0.226667 0.746141
0.27053 0.22584 0.744425
0.271459 0.225064 0.742856
0.272383 0.224289 0.741288
0.273356 0.223594 0.739949
0.274345 0.22293 0.738698
0.275298 0.222219 0.737306
0.276287 0.221567 0.736085
0.277252 0.220886 0.734779
0.278198 0.220185 0.73341
0.279115 0.219449 0.73194
0.280045 0.218738 0.730539
0.280984 0.218046 0.729192
0.281919 0.217356 0.727847
0.282881 0.216709 0.726626
0.283861 0.21609 0.725487
0.284884 0.215535 0.72453
0.285906 0.214981 0.723579
0.286968 0.214485 0.722794
0.287999 0.213952 0.721898
0.289058 0.213457 0.721116
0.290085 0.212926 0.720223
0.291111 0.212396 0.719335
0.292134 0.211865 0.718441
0.293141 0.211319 0.717501
0.294161 0.210791 0.716616
0.295163 0.210246 0.715676
0.296147 0.209681 0.714677
0.297106 0.209092 0.713603
0.298092 0.208538 0.712635
0.299127 0.208047 0.711849
0.300236 0.207646 0.711332
0.30143 0.207347 0.711117
0.302609 0.207031 0.71085
0.303809 0.206739 0.710656
0.304974 0.206406 0.71034
0.306144 0.206079 0.710041
0.307306 0.205744 0.709718
0.308514 0.205461 0.709551
0.309703 0.205157 0.709319
0.310841 0.204796 0.708919
0.311974 0.20443 0.708502
0.313123 0.204083 0.708142
0.314277 0.203741 0.707798
0.31545 0.203422 0.70752
0.316655 0.203136 0.707344
0.317859 0.202848 0.707163
0.319065 0.202563 0.706988
0.32029 0.202297 0.706873
0.321536 0.202054 0.706825
0.322766 0.201791 0.706722
0.324026 0.201561 0.706713
0.325303 0.201346 0.706754
0.326587 0.201136 0.706812
0.327876 0.200931 0.706883
0.329183 0.200743 0.707005
0.330454 0.200517 0.707015
0.331757 0.200321 0.707117
0.333066 0.20013 0.707234
0.334438 0.199998 0.707532
0.335854 0.199908 0.707959
0.337291 0.199834 0.708436
0.338651 0.199684 0.708684
0.340022 0.199542 0.708956
0.341357 0.199364 0.709119
0.342739 0.199229 0.709412
0.344189 0.199154 0.709895
0.345726 0.199158 0.71062
0.347272 0.199165 0.711359
0.348878 0.199222 0.712254
0.350466 0.199259 0.713089
0.352042 0.199281 0.713879
0.353562 0.199248 0.714503
0.355077 0.199208 0.715105
0.356653 0.199218 0.715865
0.358227 0.199222 0.716608
0.359833 0.19925 0.717428
0.361461 0.199294 0.718298
0.3631 0.199341 0.719184
0.364702 0.199354 0.719962
0.36629 0.19935 0.720692
0.367842 0.199311 0.721315
0.369569 0.199416 0.72239
0.371294 0.199515 0.723449
0.372958 0.199558 0.724334
0.374631 0.199605 0.725233
0.376247 0.1996 0.725973
0.377692 0.199451 0.726263
0.379065 0.199242 0.726363
0.264956 0.233865 0.758822
0.265993 0.233188 0.757566
0.266902 0.232315 0.755745
0.267718 0.231304 0.753526
0.268499 0.230251 0.751186
0.269297 0.229239 0.748957
0.270147 0.228319 0.746988
0.271022 0.227447 0.745155
0.271964 0.226685 0.743635
0.272887 0.225904 0.742056
0.273861 0.225206 0.740715
0.274851 0.224538 0.739459
0.275832 0.223863 0.738181
0.276808 0.223187 0.736896
0.277759 0.222481 0.735523
0.278688 0.221752 0.734081
0.279604 0.22101 0.7326
0.280521 0.220276 0.731141
0.281462 0.219584 0.729801
0.282385 0.218871 0.728398
0.283344 0.218216 0.727159
0.284321 0.21759 0.726005
0.285359 0.217052 0.725103
0.286401 0.216523 0.724227
0.287495 0.216065 0.723557
0.28856 0.215572 0.722784
0.28964 0.2151 0.722072
0.290675 0.214574 0.7212
0.291734 0.214081 0.720426
0.292788 0.213586 0.719641
0.293797 0.213037 0.718701
0.294801 0.212484 0.717746
0.2958 0.21193 0.716785
0.296766 0.21134 0.715716
0.297714 0.210731 0.714593
0.298722 0.210199 0.713694
0.299778 0.209729 0.712975
0.300905 0.209345 0.712511
0.302083 0.209024 0.712231
0.30323 0.208666 0.711842
0.304381 0.208314 0.711472
0.305512 0.207939 0.711032
0.30665 0.207572 0.710617
0.307794 0.207214 0.710227
0.309003 0.20693 0.710057
0.310193 0.206625 0.709825
0.311333 0.206263 0.709424
0.312467 0.205897 0.709009
0.313617 0.205548 0.708644
0.314755 0.205187 0.708243
0.315911 0.204847 0.707905
0.3171 0.204542 0.707671
0.318288 0.204236 0.707435
0.319494 0.20395 0.707258
0.320738 0.203703 0.7072
0.32202 0.203495 0.70726
0.323289 0.203272 0.707274
0.324591 0.203082 0.707389
0.32591 0.202908 0.707553
0.327237 0.202741 0.707737
0.328553 0.20256 0.707882
0.329882 0.202392 0.708064
0.331188 0.202197 0.708168
0.332493 0.202002 0.70827
0.333806 0.201811 0.708389
0.335181 0.20168 0.708688
0.33656 0.201551 0.708994
0.337958 0.201438 0.70935
0.33928 0.201249 0.709476
0.340596 0.201053 0.709582
0.341894 0.200839 0.709633
0.343275 0.200701 0.709918
0.344711 0.200613 0.710355
0.346274 0.20064 0.711148
0.347886 0.200707 0.712064
0.34954 0.200809 0.713091
0.351179 0.200891 0.71406
0.352819 0.200969 0.71502
0.354381 0.200973 0.71575
0.355944 0.200973 0.716474
0.357568 0.201023 0.717354
0.359187 0.201065 0.718209
0.360797 0.201094 0.719029
0.362448 0.201155 0.719948
0.364007 0.201131 0.720609
0.365607 0.201139 0.721369
0.367214 0.20115 0.722139
0.368809 0.201146 0.722867
0.37061 0.201312 0.724125
0.3724 0.201462 0.72534
0.374074 0.201511 0.726239
0.375705 0.20152 0.727017
0.377328 0.201518 0.727762
0.380234 0.202564 0.731791
0.266245 0.234445 0.757223
0.267216 0.233669 0.755686
0.268057 0.232694 0.753582
0.26887 0.231689 0.751387
0.269722 0.230755 0.749395
0.270622 0.229907 0.747641
0.271508 0.229047 0.745851
0.272438 0.228263 0.744274
0.273375 0.227498 0.742753
0.274367 0.226822 0.741481
0.275374 0.226175 0.74029
0.276383 0.225535 0.739118
0.277355 0.224849 0.737813
0.278278 0.224097 0.736317
0.279177 0.22332 0.734744
0.280078 0.222551 0.733195
0.280982 0.221796 0.73168
0.281897 0.221063 0.730229
0.282832 0.220364 0.728873
0.283791 0.219705 0.727631
0.284767 0.219074 0.726467
0.285807 0.218536 0.72557
0.28688 0.218043 0.724803
0.287993 0.217608 0.724204
0.289091 0.217155 0.72355
0.290202 0.21672 0.722949
0.291269 0.216232 0.722192
0.292346 0.215758 0.721477
0.293402 0.21526 0.720691
0.294397 0.214689 0.719688
0.295386 0.214113 0.718672
0.29637 0.213536 0.717648
0.297336 0.21294 0.71657
0.29829 0.212334 0.715461
0.299317 0.211822 0.714624
0.300394 0.211373 0.713974
0.30154 0.211009 0.713569
0.302707 0.21067 0.713239
0.303853 0.210307 0.71284
0.305004 0.209952 0.71246
0.306121 0.209557 0.711964
0.307229 0.209152 0.711439
0.308356 0.208771 0.710984
0.309546 0.208464 0.710745
0.310706 0.208121 0.710403
0.311831 0.207741 0.70995
0.312967 0.207374 0.709533
0.314132 0.20704 0.709214
0.315272 0.206678 0.708813
0.316429 0.206336 0.708472
0.317619 0.20603 0.708235
0.318822 0.205739 0.708045
0.320031 0.205452 0.707868
0.321311 0.205242 0.70792
0.322633 0.205075 0.708098
0.323943 0.204892 0.708234
0.325268 0.204724 0.708412
0.326612 0.204573 0.708643
0.327929 0.204392 0.708788
0.329248 0.204213 0.708935
0.33058 0.204044 0.709115
0.331907 0.203868 0.709275
0.333219 0.203676 0.709386
0.334553 0.203504 0.70956
0.33593 0.203372 0.709857
0.33729 0.203222 0.710097
0.338649 0.203069 0.710331
0.339951 0.202859 0.710391
0.341233 0.202627 0.710388
0.342494 0.202375 0.710324
0.343855 0.202217 0.710546
0.345268 0.202106 0.710911
0.346814 0.202117 0.711648
0.348427 0.202186 0.712565
0.350106 0.20231 0.713653
0.351768 0.202413 0.71468
0.353454 0.202533 0.715761
0.355084 0.202597 0.716673
0.356752 0.20269 0.717675
0.35839 0.202751 0.718584
0.360013 0.202794 0.71944
0.361584 0.202788 0.720145
0.363171 0.202791 0.720881
0.364639 0.202687 0.721291
0.366206 0.202666 0.721955
0.367815 0.202678 0.722726
0.369617 0.20285 0.723992
0.371572 0.203146 0.725647
0.373423 0.203347 0.72701
0.375113 0.203406 0.727938
0.376719 0.203392 0.728638
0.379556 0.204393 0.732498
0.269147 0.232979 0.751165
0.270048 0.23212 0.749392
0.271005 0.231356 0.747888
0.271949 0.230581 0.746349
0.272919 0.229853 0.74494
0.273874 0.229111 0.743489
0.274899 0.22848 0.742353
0.275912 0.227836 0.741178
0.276909 0.227174 0.739951
0.27788 0.226481 0.738631
0.278813 0.225739 0.737171
0.2797 0.224939 0.735541
0.280601 0.224166 0.733988
0.281502 0.2234 0.732453
0.282401 0.222641 0.730932
0.283295 0.22188 0.729406
0.284225 0.221179 0.728047
0.285202 0.220546 0.726884
0.286245 0.220007 0.72599
0.287334 0.219534 0.725286
0.288465 0.21912 0.724747
0.289592 0.218701 0.724198
0.29072 0.218286 0.723656
0.291818 0.217833 0.723005
0.292897 0.217359 0.722292
0.293969 0.216877 0.721557
0.294964 0.216301 0.720548
0.295953 0.215721 0.719524
0.296923 0.215123 0.718445
0.297892 0.214527 0.717373
0.298861 0.213936 0.716312
0.299907 0.213443 0.715536
0.30102 0.213033 0.715001
0.302202 0.212708 0.714716
0.303389 0.212389 0.714446
0.304555 0.212046 0.714104
0.305725 0.211708 0.713781
0.306831 0.211296 0.713236
0.307926 0.210872 0.712657
0.309037 0.210469 0.71214
0.310194 0.210119 0.711779
0.31132 0.209735 0.711316
0.312429 0.209333 0.7108
0.313567 0.208965 0.710382
0.314752 0.20865 0.710124
0.315913 0.208308 0.709784
0.317076 0.20797 0.709454
0.318281 0.207676 0.709258
0.319486 0.207384 0.709065
0.320699 0.207099 0.708893
0.321988 0.206895 0.708963
0.323334 0.206751 0.709209
0.32465 0.206571 0.709353
0.325979 0.206405 0.709536
0.327324 0.206252 0.709761
0.328638 0.206065 0.709887
0.329958 0.205883 0.710025
0.331291 0.205713 0.710201
0.332641 0.205558 0.710423
0.333978 0.205388 0.710601
0.335322 0.205223 0.710793
0.336683 0.205073 0.711034
0.338025 0.204902 0.711211
0.339349 0.204712 0.711331
0.340614 0.204463 0.711276
0.341859 0.204194 0.71116
0.343097 0.203919 0.711025
0.344436 0.203738 0.711176
0.345811 0.20359 0.711427
0.347315 0.20356 0.712038
0.348922 0.203623 0.712931
0.350598 0.203745 0.714004
0.352247 0.203837 0.714989
0.353998 0.204016 0.716243
0.355699 0.204144 0.717345
0.357424 0.204289 0.7185
0.359093 0.204377 0.719486
0.360694 0.2044 0.720273
0.362184 0.20432 0.720749
0.363701 0.204262 0.721293
0.365106 0.204102 0.721527
0.366647 0.204058 0.722118
0.370265 0.204421 0.724692
0.372437 0.204903 0.726907
0.374299 0.205113 0.728289
0.377192 0.206184 0.732333
0.379927 0.207107 0.735924
0.270346 0.23344 0.749261
0.27136 0.232764 0.748012
0.272375 0.232094 0.746777
0.27339 0.231431 0.745558
0.274376 0.230731 0.744233
0.275447 0.230164 0.743285
0.276481 0.229545 0.742189
0.277466 0.228862 0.740906
0.278436 0.228162 0.739575
0.279397 0.227454 0.738219
0.280303 0.226675 0.736659
0.281222 0.225922 0.735171
0.282152 0.225192 0.733745
0.283031 0.224397 0.732133
0.283876 0.223564 0.730409
0.284764 0.222797 0.72887
0.285728 0.222143 0.727651
0.286759 0.221584 0.726704
0.287864 0.221128 0.726052
0.288997 0.220713 0.725516
0.290142 0.220315 0.725027
0.291257 0.21988 0.724431
0.292357 0.219425 0.72378
0.293421 0.218928 0.723004
0.294481 0.218427 0.722217
0.295475 0.217846 0.721197
0.296467 0.217266 0.72018
0.297438 0.216665 0.7191
0.29841 0.216069 0.718032
0.299393 0.215491 0.717015
0.300439 0.214995 0.716234
0.301598 0.214638 0.715854
0.302804 0.214339 0.715646
0.304031 0.214064 0.715506
0.305233 0.21376 0.715282
0.306438 0.21346 0.715067
0.30755 0.21305 0.714535
0.308666 0.212646 0.714019
0.309794 0.212258 0.713546
0.310949 0.211901 0.713168
0.312057 0.211492 0.712635
0.313149 0.211067 0.712053
0.314288 0.210696 0.711631
0.315482 0.210386 0.711388
0.316651 0.21005 0.711067
0.317821 0.209714 0.710748
0.319028 0.209419 0.710548
0.320218 0.209107 0.710297
0.321434 0.208822 0.710128
0.322731 0.208623 0.710212
0.324084 0.208481 0.710466
0.32542 0.208321 0.710665
0.326748 0.20815 0.710834
0.328056 0.207955 0.710935
0.329349 0.207744 0.710985
0.330664 0.207554 0.711101
0.332 0.207384 0.711276
0.333379 0.207256 0.711576
0.334743 0.20711 0.711825
0.336092 0.206947 0.712023
0.337419 0.206761 0.712153
0.338724 0.206551 0.712212
0.34001 0.206321 0.712214
0.341259 0.206054 0.712106
0.342486 0.205765 0.711931
0.343726 0.205489 0.711793
0.345062 0.205304 0.711929
0.346418 0.205136 0.71212
0.34788 0.205066 0.712605
0.349525 0.205164 0.713596
0.35124 0.205322 0.714774
0.352935 0.205456 0.715879
0.354741 0.205685 0.717279
0.35651 0.205874 0.718557
0.358232 0.206014 0.719691
0.35987 0.206074 0.720584
0.361392 0.206024 0.721148
0.362798 0.205868 0.721389
0.364227 0.205731 0.72169
0.365536 0.205486 0.721663
0.376882 0.208336 0.734013
0.271705 0.234157 0.748087
0.272787 0.233588 0.747143
0.273861 0.233012 0.746175
0.274917 0.232412 0.745139
0.276019 0.231888 0.744315
0.277082 0.231308 0.743335
0.278081 0.230638 0.742097
0.279064 0.229951 0.740811
0.280072 0.229305 0.739638
0.281017 0.228576 0.738227
0.281963 0.227854 0.736836
0.282909 0.22714 0.735462
0.283755 0.226291 0.733705
0.284578 0.225418 0.731879
0.285432 0.224598 0.730199
0.28638 0.223916 0.728907
0.287383 0.223313 0.72784
0.288489 0.222855 0.727184
0.289595 0.222398 0.726534
0.290743 0.222 0.726046
0.29186 0.221562 0.725447
0.292992 0.221145 0.724907
0.294089 0.220686 0.724243
0.295137 0.220165 0.723405
0.296117 0.219561 0.722325
0.297107 0.218974 0.721292
0.298049 0.218332 0.720098
0.298993 0.217695 0.71892
0.299975 0.217113 0.717896
0.301019 0.216609 0.717097
0.302183 0.216255 0.716729
0.30341 0.215979 0.716586
0.304662 0.215731 0.716525
0.305902 0.215468 0.716422
0.307144 0.215207 0.716324
0.308276 0.214817 0.715851
0.309428 0.21445 0.715445
0.310594 0.214102 0.715092
0.311772 0.213767 0.714779
0.312898 0.213373 0.714294
0.314024 0.21298 0.713811
0.315182 0.212624 0.713436
0.316397 0.212334 0.713252
0.317575 0.212001 0.712945
0.318747 0.211663 0.712621
0.319941 0.211349 0.712366
0.321114 0.211012 0.712046
0.322318 0.210709 0.711825
0.3236 0.210489 0.711849
0.324938 0.210329 0.712046
0.326255 0.210144 0.712174
0.327567 0.209952 0.712279
0.328841 0.209718 0.712265
0.330116 0.209486 0.712254
0.331433 0.209295 0.712365
0.332793 0.209146 0.712602
0.334198 0.209041 0.712969
0.335606 0.208937 0.713341
0.336996 0.208811 0.71365
0.338342 0.208639 0.713821
0.339611 0.208389 0.713764
0.340839 0.208098 0.713583
0.342049 0.20779 0.713351
0.343295 0.207516 0.713223
0.344564 0.207265 0.713162
0.34599 0.207162 0.713545
0.347471 0.207109 0.714077
0.348982 0.207082 0.714688
0.350676 0.207222 0.715803
0.352428 0.207411 0.717066
0.354119 0.207537 0.718145
0.355876 0.207719 0.719393
0.357649 0.207908 0.720667
0.359292 0.207974 0.721572
0.360766 0.207881 0.722001
0.362186 0.207738 0.722278
0.36347 0.207471 0.722183
0.272053 0.235554 0.748172
0.273217 0.23511 0.747579
0.274342 0.234609 0.746825
0.275462 0.234103 0.746058
0.276627 0.233669 0.745491
0.277718 0.233126 0.744619
0.278719 0.232451 0.743376
0.279719 0.231783 0.742149
0.280745 0.23116 0.741045
0.281727 0.230476 0.73977
0.282699 0.229784 0.738471
0.283693 0.22913 0.737276
0.284528 0.228258 0.735465
0.285347 0.227371 0.733609
0.286165 0.226493 0.731775
0.287082 0.225761 0.730349
0.288038 0.225088 0.72909
0.289144 0.224625 0.728424
0.290248 0.224161 0.727756
0.291399 0.223762 0.727271
0.292521 0.223325 0.726677
0.29367 0.222927 0.726193
0.294786 0.222486 0.725587
0.295837 0.221965 0.724751
0.296849 0.221395 0.723775
0.297852 0.220819 0.722779
0.298795 0.220171 0.721578
0.29972 0.219506 0.720323
0.300704 0.218919 0.719293
0.301719 0.218375 0.718382
0.302886 0.218019 0.718014
0.304132 0.217762 0.717926
0.305391 0.217518 0.717878
0.306634 0.217255 0.717774
0.307896 0.217014 0.717733
0.309032 0.216623 0.717262
0.310175 0.216242 0.716818
0.311365 0.215916 0.716531
0.312568 0.215606 0.716292
0.313722 0.215239 0.715889
0.314872 0.214868 0.715473
0.316067 0.21455 0.715209
0.317286 0.214259 0.715025
0.318465 0.213922 0.714707
0.319637 0.213578 0.714369
0.320831 0.213259 0.714104
0.321989 0.2129 0.713722
0.323192 0.212592 0.713486
0.324455 0.212347 0.713438
0.325757 0.212144 0.713511
0.327055 0.211935 0.713568
0.32837 0.211742 0.713671
0.329668 0.211531 0.713722
0.330955 0.211306 0.713733
0.332295 0.211135 0.713905
0.333698 0.211027 0.71426
0.335091 0.210906 0.714578
0.33649 0.210788 0.714909
0.337882 0.210661 0.715213
0.33921 0.210468 0.715322
0.34044 0.210176 0.71514
0.341645 0.209859 0.714883
0.342853 0.209544 0.714635
0.344105 0.209274 0.714516
0.345519 0.209159 0.714859
0.34707 0.209173 0.715588
0.348736 0.209292 0.716631
0.350374 0.20938 0.717583
0.352163 0.209605 0.718946
0.353889 0.209765 0.720117
0.355557 0.209864 0.721111
0.357215 0.209949 0.722064
0.358925 0.210076 0.723146
0.360465 0.210043 0.723752
0.361796 0.209816 0.723779
0.363124 0.209586 0.723795
0.364311 0.209228 0.723429
0.274678 0.238238 0.75247
0.275685 0.237537 0.751169
0.276764 0.236954 0.750193
0.277899 0.236459 0.749464
0.278975 0.23588 0.748495
0.27939 0.23432 0.744791
0.280397 0.233654 0.743577
0.281455 0.23307 0.742589
0.282452 0.232402 0.741366
0.283438 0.231723 0.740111
0.284453 0.231093 0.73899
0.285349 0.230299 0.737408
0.286163 0.229396 0.735519
0.286983 0.228512 0.733678
0.287883 0.227748 0.732171
0.288803 0.227019 0.730763
0.28985 0.226469 0.729855
0.290954 0.225999 0.729173
0.292093 0.225578 0.728629
0.293217 0.22514 0.728035
0.294371 0.224742 0.727555
0.295523 0.224344 0.727074
0.296595 0.223843 0.726301
0.297643 0.223314 0.725447
0.298663 0.222753 0.724499
0.299605 0.222098 0.723284
0.3005 0.221387 0.721908
0.301481 0.220791 0.720856
0.302481 0.220222 0.719882
0.303635 0.219845 0.719455
0.304899 0.219605 0.719417
0.306172 0.219375 0.719407
0.307403 0.219092 0.719248
0.308667 0.218849 0.719202
0.30982 0.218473 0.718778
0.310966 0.21809 0.718331
0.312179 0.217786 0.71811
0.313424 0.217519 0.717998
0.314621 0.217197 0.717726
0.315799 0.216853 0.717389
0.317005 0.216541 0.717147
0.318211 0.216229 0.716904
0.319369 0.215863 0.716506
0.320522 0.215493 0.716094
0.3217 0.215151 0.715765
0.322847 0.214776 0.715338
0.32405 0.214463 0.715091
0.325279 0.214177 0.714923
0.326559 0.213946 0.714916
0.327859 0.213736 0.714969
0.329199 0.213566 0.715139
0.330547 0.213402 0.715329
0.3319 0.213242 0.715531
0.333268 0.213096 0.715773
0.334675 0.212988 0.716129
0.336053 0.212848 0.71639
0.337436 0.212709 0.716658
0.338796 0.212546 0.716853
0.340112 0.212336 0.716915
0.341307 0.212005 0.716618
0.342494 0.211666 0.716301
0.343715 0.21136 0.716081
0.34503 0.211147 0.716132
0.346546 0.211128 0.716757
0.348249 0.211285 0.717904
0.350067 0.211547 0.719363
0.351793 0.211713 0.720543
0.353644 0.211992 0.72206
0.355352 0.212129 0.72316
0.356996 0.212201 0.724068
0.358586 0.212217 0.724813
0.360206 0.212256 0.725631
0.361632 0.212114 0.725908
0.362886 0.211812 0.725712
0.364171 0.211538 0.725599
0.281296 0.238036 0.751317
0.281704 0.236462 0.74759
0.28276 0.23586 0.746562
0.283817 0.235266 0.745552
0.284833 0.234615 0.744385
0.28585 0.233971 0.743235
0.286747 0.233163 0.741625
0.287647 0.232368 0.740048
0.28857 0.231611 0.738577
0.289509 0.230884 0.737187
0.290371 0.230058 0.735516
0.291308 0.229343 0.734155
0.291708 0.227906 0.730766
0.292814 0.227436 0.730087
0.293915 0.226962 0.729394
0.295071 0.226562 0.728911
0.296241 0.226182 0.728485
0.297319 0.225683 0.727721
0.298389 0.225178 0.726938
0.299435 0.224643 0.726074
0.300399 0.224009 0.724924
0.301308 0.223309 0.723586
0.302303 0.222723 0.722572
0.303304 0.22215 0.72159
0.30443 0.221733 0.721052
0.305695 0.221489 0.721004
0.306937 0.221215 0.720871
0.308151 0.220909 0.720646
0.309399 0.220641 0.720531
