ply
format ascii 1.0
element vertex 1729
property float x
property float y
property float z
end_header
-0.212222 -0.295679 1.01609
-0.21318 -0.298117 1.01864
-0.275857 -0.0923418 1.17949
-0.275307 -0.0937473 1.1781
-0.274629 -0.0951196 1.17637
-0.27382 -0.0964589 1.17431
-0.272843 -0.0977501 1.1718
-0.271795 -0.099017 1.16911
-0.270726 -0.100271 1.16637
-0.269774 -0.101544 1.16393
-0.268862 -0.102822 1.1616
-0.26811 -0.104135 1.15968
-0.267444 -0.105464 1.15798
-0.266939 -0.106832 1.15671
-0.266407 -0.10819 1.15536
-0.265974 -0.109573 1.15428
-0.265536 -0.11095 1.15318
-0.264896 -0.112268 1.15155
-0.264278 -0.113587 1.14998
-0.263614 -0.114888 1.14829
-0.262922 -0.116176 1.14653
-0.262244 -0.117463 1.14481
-0.261708 -0.11879 1.14345
-0.261214 -0.120126 1.1422
-0.260754 -0.121469 1.14105
-0.260265 -0.122802 1.13981
-0.259598 -0.124071 1.13812
-0.258876 -0.125317 1.13627
-0.258145 -0.126554 1.13441
-0.257464 -0.127805 1.13267
-0.25688 -0.129082 1.13119
-0.256407 -0.130396 1.13
-0.256066 -0.131755 1.12915
-0.255723 -0.133111 1.1283
-0.255322 -0.134443 1.12729
-0.254853 -0.135749 1.12611
-0.254338 -0.137033 1.12481
-0.253608 -0.138232 1.12294
-0.252836 -0.139408 1.12097
-0.252072 -0.140583 1.11902
-0.251348 -0.141767 1.11717
-0.250408 -0.142859 1.11476
-0.249502 -0.143957 1.11243
-0.248515 -0.145014 1.1099
-0.247509 -0.146055 1.10731
-0.246498 -0.147087 1.10471
-0.245723 -0.14821 1.10273
-0.24499 -0.149345 1.10085
-0.244293 -0.150491 1.09907
-0.243604 -0.151636 1.09731
-0.242973 -0.1528 1.09571
-0.242349 -0.153964 1.09412
-0.241605 -0.155067 1.09222
-0.240791 -0.156133 1.09013
-0.240081 -0.157241 1.08831
-0.239266 -0.158294 1.08622
-0.238591 -0.159407 1.0845
-0.237897 -0.160506 1.08273
-0.237195 -0.161596 1.08093
-0.23639 -0.162629 1.07887
-0.235703 -0.163715 1.07711
-0.234916 -0.164746 1.0751
-0.234353 -0.165883 1.07366
-0.233883 -0.167063 1.07248
-0.233363 -0.168215 1.07116
-0.232867 -0.169375 1.0699
-0.232367 -0.17053 1.06863
-0.231752 -0.17162 1.06707
-0.231162 -0.17272 1.06556
-0.230627 -0.173844 1.06421
-0.230047 -0.17494 1.06273
-0.229556 -0.176081 1.06148
-0.229102 -0.177238 1.06034
-0.22856 -0.178344 1.05896
-0.228068 -0.179473 1.05771
-0.227514 -0.180565 1.0563
-0.226969 -0.181656 1.05492
-0.226427 -0.182746 1.05354
-0.225975 -0.183884 1.05239
-0.22547 -0.184989 1.05111
-0.22494 -0.186074 1.04977
-0.224401 -0.187151 1.0484
-0.223831 -0.188205 1.04694
-0.223208 -0.189222 1.04535
-0.222617 -0.190255 1.04385
-0.222081 -0.191316 1.04248
-0.221581 -0.192396 1.04121
-0.221058 -0.193458 1.03988
-0.220507 -0.194498 1.03848
-0.219861 -0.195474 1.03683
-0.219262 -0.196475 1.0353
-0.218591 -0.197425 1.03358
-0.218017 -0.198433 1.03212
-0.217532 -0.199495 1.03089
-0.217105 -0.200592 1.02981
-0.216626 -0.201651 1.02859
-0.216087 -0.202666 1.02722
-0.215539 -0.203671 1.02582
-0.214881 -0.204597 1.02414
-0.214279 -0.205556 1.0226
-0.213657 -0.206496 1.02101
-0.213041 -0.207437 1.01944
-0.212474 -0.208406 1.01799
-0.211938 -0.209393 1.01662
-0.211437 -0.210401 1.01535
-0.211022 -0.211467 1.0143
-0.210744 -0.212629 1.01361
-0.210501 -0.213815 1.01301
-0.210314 -0.215041 1.01256
-0.210102 -0.216248 1.01205
-0.209857 -0.21743 1.01144
-0.209527 -0.218547 1.01062
-0.209138 -0.219617 1.00964
-0.208749 -0.220686 1.00866
-0.208338 -0.221734 1.00762
-0.207956 -0.222802 1.00665
-0.207601 -0.223888 1.00576
-0.207195 -0.224932 1.00474
-0.206864 -0.226033 1.00391
-0.206587 -0.227174 1.00322
-0.206429 -0.228407 1.00284
-0.206332 -0.22969 1.00263
-0.20634 -0.231057 1.00269
-0.206421 -0.232485 1.00294
-0.206509 -0.233921 1.00321
-0.206574 -0.23534 1.00342
-0.206613 -0.23674 1.00356
-0.206613 -0.238109 1.0036
-0.206507 -0.239391 1.00337
-0.206396 -0.240669 1.00311
-0.206236 -0.241906 1.00273
-0.206178 -0.24323 1.00262
-0.206179 -0.244604 1.00266
-0.206214 -0.24601 1.00279
-0.206251 -0.247419 1.00293
-0.206302 -0.248842 1.00311
-0.206274 -0.250197 1.00307
-0.206245 -0.251553 1.00303
-0.206246 -0.252937 1.00308
-0.206251 -0.254326 1.00313
-0.206234 -0.255696 1.00313
-0.206259 -0.257105 1.00323
-0.206258 -0.258493 1.00327
-0.206289 -0.259911 1.00339
-0.206377 -0.261383 1.00366
-0.206496 -0.262887 1.00402
-0.206612 -0.26439 1.00436
-0.206702 -0.265871 1.00464
-0.206811 -0.267374 1.00497
-0.206877 -0.268837 1.00518
-0.206913 -0.270275 1.00531
-0.20689 -0.271658 1.00529
-0.206908 -0.273081 1.00538
-0.206905 -0.274486 1.00542
-0.206965 -0.275953 1.00561
-0.207059 -0.277456 1.0059
-0.207226 -0.279033 1.00638
-0.207367 -0.280588 1.00679
-0.207617 -0.282253 1.00749
-0.207931 -0.283988 1.00836
-0.208286 -0.285767 1.00933
-0.208634 -0.287546 1.01029
-0.209027 -0.289374 1.01136
-0.274506 -0.0923274 1.18029
-0.273948 -0.0937319 1.17887
-0.273228 -0.0950961 1.17703
-0.272376 -0.0964226 1.17485
-0.271369 -0.0977066 1.17225
-0.270365 -0.0989837 1.16967
-0.269309 -0.10024 1.16695
-0.268363 -0.101515 1.16451
-0.267458 -0.102795 1.16219
-0.2667 -0.104104 1.16024
-0.266001 -0.105424 1.15846
-0.265461 -0.106784 1.15709
-0.264924 -0.10814 1.15572
-0.264455 -0.109512 1.15454
-0.263987 -0.110881 1.15336
-0.263353 -0.112197 1.15174
-0.26274 -0.113516 1.15018
-0.262079 -0.114817 1.14849
-0.261414 -0.116112 1.14679
-0.260732 -0.117397 1.14505
-0.260164 -0.118713 1.1436
-0.259668 -0.120048 1.14235
-0.259175 -0.12138 1.1411
-0.258621 -0.122689 1.13969
-0.257923 -0.123946 1.1379
-0.2572 -0.12519 1.13605
-0.256472 -0.126427 1.13419
-0.25583 -0.127688 1.13255
-0.25529 -0.128981 1.13118
-0.254855 -0.130308 1.13008
-0.254513 -0.131665 1.12923
-0.254134 -0.133007 1.12828
-0.253697 -0.134324 1.12717
-0.253196 -0.135616 1.1259
-0.25264 -0.136883 1.12449
-0.251946 -0.138094 1.12271
-0.251211 -0.139281 1.12082
-0.250488 -0.14047 1.11897
-0.249808 -0.14167 1.11723
-0.248899 -0.142773 1.11489
-0.247969 -0.143858 1.11249
-0.246954 -0.144901 1.10987
-0.245922 -0.14593 1.1072
-0.244916 -0.146961 1.10461
-0.244177 -0.148098 1.10271
-0.243515 -0.149262 1.10101
-0.24289 -0.150439 1.09942
-0.242243 -0.151599 1.09776
-0.241646 -0.152778 1.09624
-0.241023 -0.153941 1.09464
-0.240246 -0.155029 1.09264
-0.239431 -0.156093 1.09055
-0.238696 -0.157188 1.08866
-0.237883 -0.158241 1.08657
-0.23721 -0.159353 1.08484
-0.23655 -0.160468 1.08315
-0.235888 -0.161575 1.08145
-0.235119 -0.162626 1.07948
-0.234464 -0.163726 1.0778
-0.233677 -0.164756 1.07577
-0.233082 -0.165877 1.07425
-0.232613 -0.167057 1.07306
-0.232126 -0.168225 1.07182
-0.231638 -0.169389 1.07058
-0.231171 -0.170561 1.0694
-0.230584 -0.171666 1.0679
-0.229992 -0.172764 1.06638
-0.229458 -0.173888 1.06502
-0.228878 -0.174984 1.06354
-0.228391 -0.176127 1.0623
-0.227911 -0.17727 1.06108
-0.22737 -0.178376 1.0597
-0.226849 -0.179489 1.05837
-0.226298 -0.180581 1.05696
-0.225725 -0.181657 1.0555
-0.225214 -0.182764 1.0542
-0.224765 -0.183903 1.05306
-0.224295 -0.185028 1.05186
-0.223794 -0.18613 1.05059
-0.223315 -0.187242 1.04937
-0.222775 -0.188314 1.04799
-0.222156 -0.189334 1.0464
-0.221562 -0.190364 1.04488
-0.220994 -0.191406 1.04343
-0.220437 -0.19245 1.042
-0.219883 -0.193493 1.04059
-0.219334 -0.194534 1.03918
-0.218692 -0.195511 1.03754
-0.218097 -0.196515 1.03601
-0.217458 -0.197484 1.03437
-0.216886 -0.198492 1.03291
-0.216402 -0.199555 1.03167
-0.215973 -0.20065 1.03059
-0.215496 -0.20171 1.02937
-0.214985 -0.202743 1.02807
-0.214443 -0.203752 1.02668
-0.213789 -0.204681 1.025
-0.213186 -0.205638 1.02345
-0.212563 -0.206578 1.02185
-0.211948 -0.207518 1.02027
-0.211385 -0.20849 1.01883
-0.210877 -0.209496 1.01753
-0.210407 -0.210526 1.01634
-0.210022 -0.211614 1.01536
-0.209746 -0.212778 1.01468
-0.209525 -0.213982 1.01414
-0.209363 -0.215227 1.01375
-0.20918 -0.216457 1.01331
-0.208937 -0.217641 1.01271
-0.208611 -0.218762 1.01189
-0.208248 -0.219854 1.01098
-0.207837 -0.220906 1.00994
-0.20743 -0.221958 1.0089
-0.207052 -0.22303 1.00795
-0.206695 -0.224115 1.00705
-0.206266 -0.225143 1.00596
-0.205958 -0.226262 1.00519
-0.205682 -0.227405 1.0045
-0.205521 -0.228638 1.00412
-0.205422 -0.229921 1.00389
-0.205451 -0.231307 1.00401
-0.205532 -0.232738 1.00427
-0.205623 -0.234178 1.00455
-0.205716 -0.235624 1.00484
-0.205777 -0.237044 1.00504
-0.205798 -0.238434 1.00514
-0.205717 -0.239739 1.00496
-0.205632 -0.241042 1.00478
-0.2055 -0.242304 1.00447
-0.205441 -0.24363 1.00436
-0.205415 -0.244985 1.00433
-0.205399 -0.24635 1.00433
-0.205382 -0.247715 1.00433
-0.20538 -0.249094 1.00437
-0.205324 -0.250427 1.00426
-0.205267 -0.25176 1.00415
-0.205268 -0.253145 1.00419
-0.205276 -0.254539 1.00426
-0.205259 -0.255911 1.00426
-0.205309 -0.257346 1.00443
-0.205336 -0.25876 1.00454
-0.205423 -0.260232 1.00481
-0.205568 -0.261761 1.00524
-0.205745 -0.263321 1.00575
-0.205918 -0.264882 1.00625
-0.206059 -0.266415 1.00666
-0.206168 -0.267922 1.00699
-0.206253 -0.269407 1.00726
-0.206259 -0.27082 1.00732
-0.206153 -0.272127 1.00708
-0.206106 -0.273492 1.007
-0.206096 -0.274893 1.00702
-0.206137 -0.276345 1.00717
-0.206262 -0.277882 1.00754
-0.206461 -0.279494 1.00811
-0.2066 -0.28105 1.00852
-0.206821 -0.282692 1.00915
-0.207078 -0.284373 1.00987
-0.207376 -0.2861 1.0107
-0.273181 -0.0923206 1.18116
-0.272594 -0.0937177 1.17967
-0.271834 -0.0950729 1.17771
-0.270937 -0.09639 1.1754
-0.269899 -0.097666 1.17271
-0.268934 -0.0989505 1.17022
-0.267917 -0.100215 1.16759
-0.26698 -0.101494 1.16517
-0.266072 -0.102771 1.16282
-0.265317 -0.104081 1.16088
-0.26458 -0.105391 1.15899
-0.264008 -0.106741 1.15753
-0.263473 -0.108096 1.15616
-0.263002 -0.109468 1.15497
-0.262502 -0.110827 1.1537
-0.261866 -0.112144 1.15207
-0.261221 -0.113454 1.15042
-0.260528 -0.114744 1.14864
-0.259833 -0.116027 1.14685
-0.259147 -0.117309 1.14509
-0.258547 -0.118614 1.14356
-0.258052 -0.119948 1.1423
-0.257565 -0.12128 1.14106
-0.256979 -0.122577 1.13957
-0.256276 -0.123832 1.13776
-0.255556 -0.125075 1.13591
-0.254831 -0.12631 1.13404
-0.254204 -0.127574 1.13244
-0.2537 -0.128879 1.13115
-0.2533 -0.130217 1.13015
-0.252956 -0.131571 1.12928
-0.252584 -0.132915 1.12835
-0.252145 -0.134231 1.12724
-0.25164 -0.135519 1.12595
-0.251018 -0.13676 1.12436
-0.250349 -0.137977 1.12264
-0.249619 -0.139167 1.12076
-0.248935 -0.140368 1.119
-0.248197 -0.141543 1.1171
-0.247292 -0.142645 1.11476
-0.246327 -0.143715 1.11226
-0.24532 -0.144759 1.10965
-0.244241 -0.145765 1.10685
-0.243303 -0.146821 1.10442
-0.24263 -0.147984 1.10268
-0.242003 -0.149162 1.10107
-0.241423 -0.150356 1.09959
-0.240842 -0.151546 1.0981
-0.24025 -0.152725 1.09658
-0.239622 -0.153885 1.09497
-0.238848 -0.154973 1.09297
-0.238037 -0.156038 1.09088
-0.237278 -0.15712 1.08892
-0.236495 -0.158185 1.08689
-0.235825 -0.159298 1.08517
-0.235198 -0.160427 1.08356
-0.234572 -0.161551 1.08195
-0.233841 -0.162619 1.08006
-0.233159 -0.163706 1.07831
-0.232371 -0.164733 1.07627
-0.231746 -0.165838 1.07466
-0.231279 -0.167018 1.07347
-0.230825 -0.168203 1.07232
-0.23037 -0.169384 1.07116
-0.229905 -0.170556 1.06998
-0.22932 -0.171661 1.06847
-0.2287 -0.172743 1.06688
-0.228171 -0.17387 1.06553
-0.227596 -0.174968 1.06405
-0.227142 -0.176128 1.0629
-0.226659 -0.177269 1.06166
-0.226147 -0.17839 1.06035
-0.2256 -0.179488 1.05895
-0.225083 -0.180599 1.05763
-0.224485 -0.181659 1.05609
-0.224005 -0.182784 1.05487
-0.223555 -0.183923 1.05372
-0.223143 -0.185081 1.05268
-0.222675 -0.186203 1.05148
-0.222254 -0.18735 1.05041
-0.221772 -0.188457 1.04918
-0.221158 -0.18948 1.0476
-0.220536 -0.190493 1.046
-0.219937 -0.191516 1.04446
-0.219319 -0.192523 1.04287
-0.218713 -0.193531 1.04131
-0.218164 -0.194572 1.0399
-0.21753 -0.195554 1.03826
-0.216943 -0.196562 1.03676
-0.216334 -0.197549 1.03519
-0.215759 -0.198556 1.03371
-0.215274 -0.199617 1.03247
-0.214844 -0.200711 1.03137
-0.214392 -0.201788 1.03022
-0.213911 -0.202842 1.02899
-0.213372 -0.203852 1.02761
-0.212724 -0.204784 1.02593
-0.212123 -0.205743 1.02439
-0.211477 -0.206666 1.02272
-0.210863 -0.207606 1.02114
-0.210332 -0.2086 1.01977
-0.20988 -0.209647 1.01862
-0.209466 -0.210717 1.01757
-0.209133 -0.211843 1.01673
-0.208885 -0.213029 1.01611
-0.208668 -0.214237 1.01558
-0.20848 -0.215465 1.01513
-0.208293 -0.216694 1.01467
-0.208052 -0.217881 1.01408
-0.20775 -0.219022 1.01332
-0.20744 -0.220154 1.01254
-0.207083 -0.221249 1.01164
-0.206704 -0.222324 1.01068
-0.206324 -0.223396 1.00971
-0.205967 -0.224484 1.00881
-0.205512 -0.225492 1.00765
-0.205177 -0.226592 1.0068
-0.204878 -0.227719 1.00605
-0.204691 -0.228933 1.0056
-0.20454 -0.230177 1.00524
-0.204561 -0.231559 1.00534
-0.204641 -0.232991 1.0056
-0.204758 -0.234457 1.00595
-0.204854 -0.235907 1.00625
-0.204935 -0.237347 1.00651
-0.204956 -0.238739 1.00661
-0.204874 -0.240046 1.00643
-0.20477 -0.241334 1.0062
-0.204665 -0.242622 1.00596
-0.204582 -0.24393 1.00579
-0.204551 -0.245283 1.00575
-0.204529 -0.246645 1.00574
-0.204512 -0.248012 1.00573
-0.204485 -0.249372 1.00571
-0.204425 -0.250704 1.00559
-0.204318 -0.251995 1.00535
-0.204315 -0.253378 1.00539
-0.204322 -0.254774 1.00545
-0.204334 -0.256174 1.00553
-0.204412 -0.257637 1.00578
-0.204488 -0.259099 1.00602
-0.2046 -0.260597 1.00636
-0.204802 -0.262182 1.00694
-0.205033 -0.263797 1.0076
-0.205234 -0.265388 1.00818
-0.205448 -0.266994 1.00879
-0.20556 -0.268508 1.00914
-0.205619 -0.269974 1.00934
-0.20557 -0.271338 1.00925
-0.20543 -0.272615 1.00892
-0.205307 -0.273909 1.00864
-0.20527 -0.275287 1.00859
-0.205336 -0.276766 1.00881
-0.205497 -0.278342 1.00928
-0.205727 -0.27999 1.00994
-0.205865 -0.28155 1.01035
-0.20605 -0.283159 1.01088
-0.206197 -0.284734 1.01132
-0.271781 -0.0922973 1.18184
-0.271211 -0.0936991 1.18039
-0.270444 -0.0950518 1.17841
-0.269511 -0.0963597 1.17599
-0.268468 -0.0976332 1.17328
-0.267509 -0.09892 1.17079
-0.266529 -0.100193 1.16824
-0.265596 -0.101471 1.16582
-0.264722 -0.102757 1.16356
-0.263936 -0.104059 1.16152
-0.263199 -0.105369 1.15962
-0.26256 -0.1067 1.15798
-0.262024 -0.108055 1.15661
-0.261518 -0.109416 1.15532
-0.261014 -0.110773 1.15403
-0.260374 -0.112087 1.15239
-0.259729 -0.113396 1.15073
-0.258998 -0.114673 1.14884
-0.258271 -0.115946 1.14697
-0.25756 -0.11722 1.14513
-0.256965 -0.118525 1.14361
-0.256509 -0.119871 1.14245
-0.256026 -0.121203 1.14121
-0.255405 -0.122488 1.13962
-0.254694 -0.123737 1.13778
-0.25397 -0.124977 1.13591
-0.253226 -0.126205 1.13399
-0.25261 -0.127472 1.13241
-0.252138 -0.128786 1.1312
-0.25177 -0.130133 1.13028
-0.251433 -0.131491 1.12943
-0.251065 -0.132834 1.1285
-0.2506 -0.13414 1.12732
-0.250054 -0.135411 1.12592
-0.249398 -0.136638 1.12423
-0.24867 -0.137832 1.12235
-0.247913 -0.139007 1.12039
-0.247232 -0.140207 1.11863
-0.246493 -0.14138 1.11672
-0.245589 -0.142478 1.11437
-0.244656 -0.143558 1.11194
-0.243687 -0.144616 1.10942
-0.242644 -0.145634 1.1067
-0.241745 -0.146705 1.10436
-0.241112 -0.147882 1.10273
-0.240493 -0.149063 1.10114
-0.239951 -0.150272 1.09975
-0.239403 -0.151475 1.09834
-0.238814 -0.152655 1.09683
-0.238129 -0.153787 1.09505
-0.237385 -0.154887 1.09313
-0.236578 -0.155951 1.09103
-0.235797 -0.157022 1.08901
-0.235049 -0.158102 1.08707
-0.234436 -0.15924 1.08549
-0.233816 -0.160371 1.08389
-0.233196 -0.161497 1.08229
-0.2325 -0.162581 1.08049
-0.231819 -0.163667 1.07872
-0.231032 -0.164694 1.07668
-0.230408 -0.165798 1.07507
-0.229944 -0.166979 1.07388
-0.229493 -0.168164 1.07273
-0.229011 -0.16933 1.0715
-0.228544 -0.170501 1.07031
-0.22796 -0.171605 1.0688
-0.227345 -0.172689 1.06722
-0.226854 -0.173835 1.06596
-0.226311 -0.174949 1.06456
-0.22586 -0.176111 1.06341
-0.225403 -0.177265 1.06224
-0.22492 -0.178403 1.061
-0.224377 -0.179502 1.05961
-0.223894 -0.180632 1.05837
-0.223298 -0.181693 1.05683
-0.222816 -0.182816 1.0556
-0.222367 -0.183955 1.05445
-0.221957 -0.185115 1.0534
-0.221496 -0.186241 1.05222
-0.221134 -0.187423 1.05131
-0.220691 -0.188554 1.05018
-0.220083 -0.189581 1.04861
-0.219462 -0.190594 1.047
-0.218859 -0.191614 1.04544
-0.218181 -0.192583 1.04368
-0.217547 -0.193573 1.04204
-0.216997 -0.194613 1.04062
-0.216395 -0.195614 1.03907
-0.215813 -0.196624 1.03757
-0.215257 -0.197647 1.03613
-0.214687 -0.198656 1.03466
-0.214198 -0.199715 1.03341
-0.213746 -0.200794 1.03225
-0.21329 -0.201869 1.03108
-0.212787 -0.202907 1.02979
-0.212249 -0.203918 1.0284
-0.211606 -0.204852 1.02673
-0.211004 -0.20581 1.02518
-0.210385 -0.206751 1.02358
-0.209804 -0.207713 1.02207
-0.209303 -0.208728 1.02078
-0.208909 -0.209817 1.01978
-0.208548 -0.210926 1.01886
-0.20825 -0.212079 1.01812
-0.208032 -0.213288 1.01758
-0.20784 -0.214517 1.01712
-0.207651 -0.215746 1.01666
-0.207437 -0.216956 1.01613
-0.207191 -0.218142 1.01552
-0.20689 -0.219284 1.01476
-0.206609 -0.22044 1.01406
-0.206279 -0.221557 1.01323
-0.205956 -0.222678 1.01241
-0.205601 -0.223771 1.01151
-0.205243 -0.22486 1.0106
-0.204779 -0.225863 1.00941
-0.20442 -0.226946 1.0085
-0.204093 -0.228051 1.00767
-0.203882 -0.229249 1.00715
-0.203727 -0.230491 1.00679
-0.203698 -0.231835 1.00675
-0.203774 -0.233267 1.007
-0.203863 -0.234712 1.00728
-0.203934 -0.236144 1.00752
-0.203991 -0.237567 1.00772
-0.20401 -0.238959 1.00781
-0.20393 -0.240269 1.00764
-0.203855 -0.241585 1.00749
-0.203778 -0.242899 1.00733
-0.20372 -0.24423 1.00722
-0.203687 -0.245584 1.00718
-0.203661 -0.246945 1.00715
-0.203639 -0.24831 1.00714
-0.203612 -0.249673 1.00712
-0.203555 -0.251009 1.00701
-0.203469 -0.252321 1.00683
-0.203464 -0.253706 1.00686
-0.203472 -0.255104 1.00693
-0.203507 -0.256529 1.00706
-0.203637 -0.258042 1.00746
-0.203769 -0.25956 1.00786
-0.203912 -0.261091 1.00828
-0.20416 -0.262723 1.00899
-0.204341 -0.264296 1.00952
-0.204515 -0.265866 1.01003
-0.20468 -0.267431 1.01052
-0.204767 -0.268924 1.0108
-0.204779 -0.270348 1.01088
-0.204753 -0.271737 1.01086
-0.20459 -0.272994 1.01047
-0.204485 -0.274308 1.01023
-0.204475 -0.275715 1.01025
-0.204571 -0.277229 1.01056
-0.204786 -0.278862 1.01118
-0.205069 -0.280567 1.01198
-0.205233 -0.282158 1.01247
-0.205388 -0.283742 1.01293
-0.270353 -0.0922663 1.18245
-0.269766 -0.0936646 1.18094
-0.269002 -0.0950174 1.17896
-0.268081 -0.0963279 1.17657
-0.267039 -0.097601 1.17384
-0.266087 -0.0988885 1.17136
-0.265117 -0.100164 1.16883
-0.264184 -0.101441 1.1664
-0.263317 -0.102728 1.16415
-0.262493 -0.10402 1.16201
-0.261759 -0.10533 1.1601
-0.261116 -0.10666 1.15845
-0.260581 -0.108016 1.15707
-0.260075 -0.109375 1.15578
-0.259538 -0.110722 1.1544
-0.258863 -0.112026 1.15266
-0.258178 -0.113321 1.15088
-0.257414 -0.114588 1.1489
-0.256653 -0.115849 1.14692
-0.255944 -0.117121 1.14509
-0.255383 -0.118435 1.14364
-0.25497 -0.119793 1.1426
-0.254461 -0.121116 1.14129
-0.253803 -0.122387 1.13959
-0.253088 -0.123634 1.13774
-0.252361 -0.124872 1.13585
-0.251596 -0.12609 1.13386
-0.251015 -0.127368 1.13237
-0.250578 -0.128693 1.13125
-0.250208 -0.130039 1.13032
-0.249847 -0.131386 1.12941
-0.249484 -0.13273 1.12849
-0.24902 -0.134036 1.12731
-0.248442 -0.135294 1.12582
-0.247783 -0.136517 1.12411
-0.247056 -0.137707 1.12222
-0.246243 -0.13886 1.1201
-0.245532 -0.140045 1.11826
-0.244757 -0.141201 1.11624
-0.243852 -0.142297 1.11388
-0.242922 -0.143375 1.11145
-0.242028 -0.14446 1.10912
-0.241028 -0.145494 1.1065
-0.240169 -0.146579 1.10426
-0.239564 -0.147768 1.1027
-0.238954 -0.14895 1.10112
-0.238448 -0.150173 1.09982
-0.237906 -0.151377 1.09842
-0.237349 -0.15257 1.09698
-0.236633 -0.153688 1.09513
-0.235917 -0.154798 1.09326
-0.235119 -0.155865 1.09118
-0.234346 -0.156937 1.08917
-0.233634 -0.158032 1.08732
-0.233051 -0.159185 1.08581
-0.232436 -0.160316 1.08422
-0.231822 -0.161444 1.08263
-0.231187 -0.162557 1.08099
-0.23051 -0.163644 1.07923
-0.229726 -0.164671 1.07718
-0.2291 -0.165773 1.07556
-0.228638 -0.166955 1.07438
-0.228189 -0.168141 1.07323
-0.227709 -0.169307 1.07199
-0.227242 -0.170477 1.07079
-0.226682 -0.171594 1.06935
-0.226073 -0.172679 1.06777
-0.225583 -0.173825 1.06651
-0.225049 -0.174944 1.06513
-0.224598 -0.176105 1.06398
-0.224145 -0.177261 1.06281
-0.223692 -0.178415 1.06165
-0.223156 -0.179518 1.06027
-0.222703 -0.180665 1.05911
-0.222136 -0.181742 1.05764
-0.221626 -0.182849 1.05632
-0.221174 -0.183986 1.05516
-0.220766 -0.185146 1.05412
-0.220311 -0.186275 1.05295
-0.219958 -0.187463 1.05206
-0.219572 -0.188629 1.05107
-0.218998 -0.189676 1.04959
-0.218384 -0.190694 1.04799
-0.217779 -0.191713 1.04642
-0.217096 -0.192677 1.04465
-0.216431 -0.193648 1.04292
-0.215879 -0.194686 1.04149
-0.215306 -0.195706 1.04
-0.214754 -0.196735 1.03857
-0.214204 -0.197762 1.03715
-0.21366 -0.198788 1.03574
-0.213149 -0.199832 1.03442
-0.212695 -0.200911 1.03326
-0.212244 -0.201988 1.0321
-0.211766 -0.203043 1.03086
-0.211231 -0.204057 1.02948
-0.210609 -0.205005 1.02786
-0.209983 -0.205946 1.02624
-0.209362 -0.206885 1.02462
-0.208808 -0.207867 1.02318
-0.208338 -0.208905 1.02198
-0.20798 -0.210019 1.02106
-0.207652 -0.211153 1.02023
-0.207383 -0.212328 1.01956
-0.207167 -0.213541 1.01903
-0.206953 -0.214755 1.0185
-0.206762 -0.215985 1.01804
-0.206565 -0.21721 1.01756
-0.206319 -0.218397 1.01695
-0.206045 -0.219561 1.01626
-0.20582 -0.220762 1.0157
-0.205525 -0.221907 1.01496
-0.205255 -0.223071 1.01428
-0.204928 -0.224188 1.01345
-0.204545 -0.225259 1.01248
-0.204053 -0.226242 1.01121
-0.203661 -0.227301 1.0102
-0.20328 -0.228365 1.00923
-0.203017 -0.229522 1.00857
-0.202835 -0.230744 1.00813
-0.202801 -0.232087 1.00808
-0.202875 -0.233519 1.00833
-0.202967 -0.23497 1.00862
-0.203062 -0.236425 1.00893
-0.203141 -0.237868 1.00919
-0.203159 -0.239263 1.00928
-0.203102 -0.240596 1.00918
-0.203053 -0.241935 1.00909
-0.202979 -0.243255 1.00894
-0.202923 -0.24459 1.00884
-0.202913 -0.245966 1.00886
-0.202887 -0.24733 1.00884
-0.20287 -0.248704 1.00884
-0.202872 -0.250094 1.00889
-0.20284 -0.251457 1.00886
-0.20273 -0.25275 1.00861
-0.202721 -0.254135 1.00863
-0.202723 -0.255531 1.00869
-0.20279 -0.256988 1.00891
-0.202954 -0.258537 1.0094
-0.203143 -0.260111 1.00996
-0.203289 -0.261649 1.0104
-0.203535 -0.263285 1.0111
-0.203658 -0.264808 1.01148
-0.203798 -0.26635 1.01191
-0.203933 -0.26789 1.01232
-0.203992 -0.269362 1.01253
-0.20398 -0.270766 1.01254
-0.203978 -0.272181 1.01259
-0.203814 -0.27344 1.01219
-0.203718 -0.274766 1.01199
-0.20376 -0.276227 1.01215
-0.203884 -0.277772 1.01253
-0.204125 -0.279436 1.01323
-0.204411 -0.28115 1.01404
-0.268807 -0.0922106 1.18274
-0.268229 -0.0936101 1.18125
-0.267495 -0.0949682 1.17935
-0.266645 -0.096295 1.17713
-0.265687 -0.0975875 1.17462
-0.264774 -0.0988846 1.17223
-0.263811 -0.100162 1.16971
-0.262879 -0.101439 1.16727
-0.262018 -0.102728 1.16502
-0.261163 -0.104012 1.16279
-0.260431 -0.105323 1.16089
-0.259779 -0.106649 1.1592
-0.259209 -0.107995 1.15773
-0.258671 -0.109345 1.15634
-0.258138 -0.110694 1.15497
-0.2574 -0.111978 1.15305
-0.256644 -0.113252 1.15108
-0.255873 -0.114515 1.14907
-0.255075 -0.115764 1.14699
-0.25437 -0.117036 1.14515
-0.253879 -0.118371 1.14389
-0.253471 -0.11973 1.14285
-0.252967 -0.121053 1.14155
-0.252281 -0.122315 1.13977
-0.251559 -0.123557 1.13789
-0.250802 -0.124783 1.13592
-0.250039 -0.126001 1.13393
-0.249431 -0.127268 1.13235
-0.249056 -0.128614 1.1314
-0.248656 -0.129948 1.13038
-0.248294 -0.131294 1.12946
-0.247901 -0.132626 1.12846
-0.247403 -0.133916 1.12718
-0.246788 -0.135159 1.12559
-0.246131 -0.136381 1.12388
-0.245379 -0.13756 1.12192
-0.24457 -0.138711 1.1198
-0.243819 -0.139879 1.11784
-0.24301 -0.141017 1.11573
-0.242107 -0.142111 1.11336
-0.241228 -0.143207 1.11106
-0.240384 -0.144311 1.10885
-0.239455 -0.145371 1.10641
-0.238631 -0.146469 1.10425
-0.238028 -0.147657 1.10269
-0.237418 -0.148838 1.1011
-0.236916 -0.150062 1.09981
-0.236407 -0.151279 1.0985
-0.235856 -0.152473 1.09707
-0.235142 -0.153589 1.09521
-0.234457 -0.154712 1.09342
-0.233688 -0.155791 1.09141
-0.232897 -0.156853 1.08934
-0.23222 -0.157964 1.08757
-0.231672 -0.159131 1.08615
-0.231059 -0.160263 1.08456
-0.23045 -0.161392 1.08298
-0.229848 -0.16252 1.08141
-0.229175 -0.163608 1.07966
-0.228396 -0.164636 1.07762
-0.227775 -0.16574 1.076
-0.22731 -0.16692 1.07481
-0.226889 -0.168119 1.07373
-0.226413 -0.169287 1.0725
-0.225977 -0.170473 1.07138
-0.225447 -0.171605 1.07001
-0.224867 -0.172706 1.0685
-0.22435 -0.173837 1.06717
-0.223844 -0.17497 1.06586
-0.223366 -0.176116 1.06462
-0.222915 -0.177273 1.06346
-0.222467 -0.178429 1.06231
-0.221967 -0.179552 1.06102
-0.221489 -0.180685 1.05978
-0.220952 -0.181779 1.05839
-0.22041 -0.182866 1.05699
-0.219931 -0.183987 1.05575
-0.219521 -0.185145 1.0547
-0.219093 -0.186291 1.0536
-0.218743 -0.18748 1.05271
-0.218414 -0.188681 1.05187
-0.217898 -0.189764 1.05054
-0.217291 -0.190785 1.04895
-0.216689 -0.191806 1.04739
-0.216009 -0.192772 1.04561
-0.215312 -0.193722 1.04379
-0.214735 -0.194743 1.04228
-0.214189 -0.19578 1.04087
-0.21367 -0.19683 1.03952
-0.213154 -0.197879 1.03818
-0.212664 -0.198942 1.03691
-0.212184 -0.200007 1.03567
-0.211728 -0.201085 1.03449
-0.211278 -0.202163 1.03333
-0.210798 -0.203218 1.03209
-0.21024 -0.204216 1.03064
-0.209618 -0.205164 1.02902
-0.208991 -0.206104 1.02738
-0.208369 -0.207042 1.02575
-0.207815 -0.208025 1.02431
-0.207352 -0.209067 1.02312
-0.20702 -0.210201 1.02227
-0.206722 -0.211358 1.02152
-0.206478 -0.212553 1.02091
-0.206287 -0.213786 1.02045
-0.206071 -0.215 1.01991
-0.205878 -0.21623 1.01944
-0.205684 -0.217459 1.01897
-0.205441 -0.218649 1.01836
-0.205169 -0.219817 1.01768
-0.204972 -0.221041 1.0172
-0.204706 -0.222211 1.01653
-0.204468 -0.223401 1.01594
-0.204174 -0.224546 1.0152
-0.203817 -0.22564 1.01429
-0.203349 -0.226643 1.01308
-0.20295 -0.227697 1.01205
-0.202542 -0.228742 1.011
-0.202248 -0.229877 1.01026
-0.202037 -0.231077 1.00974
-0.201976 -0.2324 1.00962
-0.202027 -0.233817 1.00981
-0.202094 -0.235249 1.01004
-0.202188 -0.236706 1.01034
-0.202267 -0.238153 1.0106
-0.202283 -0.239548 1.01069
-0.202252 -0.240905 1.01066
-0.202229 -0.24227 1.01065
-0.202158 -0.243595 1.01051
-0.202126 -0.244954 1.01047
-0.202118 -0.246335 1.0105
-0.202071 -0.247683 1.01042
-0.202056 -0.24906 1.01043
-0.202062 -0.250458 1.0105
-0.202009 -0.251804 1.0104
-0.201922 -0.253121 1.01022
-0.201915 -0.25451 1.01025
-0.201919 -0.255911 1.01031
-0.202034 -0.257416 1.01067
-0.202277 -0.259041 1.01138
-0.202505 -0.260658 1.01204
-0.202681 -0.262228 1.01257
-0.202946 -0.263887 1.01333
-0.203029 -0.265377 1.01361
-0.203109 -0.266867 1.01388
-0.203207 -0.268376 1.01419
-0.203267 -0.269851 1.0144
-0.203247 -0.271252 1.0144
-0.203246 -0.272672 1.01445
-0.203084 -0.273935 1.01406
-0.202994 -0.275269 1.01387
-0.203043 -0.276742 1.01405
-0.203144 -0.278269 1.01438
-0.266545 -0.0935217 1.18117
-0.265876 -0.0948924 1.17943
-0.265129 -0.0962435 1.17748
-0.264302 -0.0975673 1.17531
-0.263469 -0.0988832 1.17313
-0.262576 -0.100178 1.17079
-0.261647 -0.101457 1.16834
-0.260789 -0.102747 1.16609
-0.259899 -0.104021 1.16376
-0.259133 -0.105323 1.16175
-0.258444 -0.106639 1.15995
-0.257839 -0.107975 1.15839
-0.257305 -0.109327 1.15701
-0.256775 -0.110676 1.15563
-0.256036 -0.11196 1.1537
-0.255243 -0.113223 1.15163
-0.254466 -0.114482 1.14959
-0.253605 -0.115711 1.14733
-0.252899 -0.116982 1.14549
-0.25238 -0.118306 1.14415
-0.251943 -0.119656 1.14303
-0.251374 -0.120957 1.14155
-0.250685 -0.122215 1.13975
-0.24993 -0.123445 1.13777
-0.249211 -0.124684 1.13589
-0.248454 -0.125901 1.13391
-0.247881 -0.127179 1.13242
-0.24754 -0.128536 1.13156
-0.247139 -0.129868 1.13054
-0.246714 -0.131191 1.12945
-0.246281 -0.132507 1.12834
-0.24574 -0.133779 1.12693
-0.245064 -0.134996 1.12517
-0.244413 -0.136218 1.12347
-0.243666 -0.137397 1.12151
-0.242828 -0.138533 1.11931
-0.242043 -0.139686 1.11725
-0.241196 -0.140805 1.11502
-0.240298 -0.141897 1.11266
-0.239468 -0.14301 1.11048
-0.238706 -0.144145 1.10848
-0.237859 -0.145238 1.10625
-0.237098 -0.146361 1.10425
-0.236495 -0.147547 1.10268
-0.235853 -0.148712 1.101
-0.23535 -0.149934 1.0997
-0.234875 -0.151165 1.09847
-0.234332 -0.152362 1.09707
-0.233625 -0.153478 1.09521
-0.233001 -0.154628 1.09358
-0.232265 -0.155721 1.09165
-0.231482 -0.156785 1.08959
-0.23084 -0.157911 1.08792
-0.230324 -0.159093 1.08658
-0.229714 -0.160225 1.08499
-0.229106 -0.161354 1.0834
-0.228536 -0.162497 1.08192
-0.22787 -0.163588 1.08017
-0.227127 -0.164633 1.07822
-0.226535 -0.165751 1.07668
-0.226071 -0.16693 1.07548
-0.225652 -0.168131 1.0744
-0.225207 -0.169315 1.07325
-0.224781 -0.170506 1.07215
-0.224258 -0.171642 1.0708
-0.223706 -0.172757 1.06936
-0.223163 -0.173874 1.06795
-0.222651 -0.175004 1.06662
-0.222169 -0.176147 1.06537
-0.221719 -0.177305 1.06421
-0.221274 -0.178463 1.06306
-0.220806 -0.179604 1.06184
-0.220328 -0.180736 1.06061
-0.219794 -0.181832 1.05922
-0.219225 -0.182903 1.05773
-0.218745 -0.184022 1.05649
-0.218329 -0.185178 1.05542
-0.217875 -0.186307 1.05424
-0.217497 -0.187479 1.05327
-0.217192 -0.188694 1.0525
-0.21668 -0.189779 1.05117
-0.216082 -0.190805 1.04961
-0.215514 -0.191847 1.04813
-0.214863 -0.19283 1.04642
-0.214168 -0.19378 1.04459
-0.213594 -0.194803 1.04309
-0.213076 -0.195857 1.04174
-0.212591 -0.196931 1.04048
-0.212106 -0.198 1.03922
-0.211652 -0.199086 1.03805
-0.211196 -0.200168 1.03687
-0.210743 -0.201248 1.03569
-0.210291 -0.202326 1.03452
-0.209788 -0.203366 1.03322
-0.209229 -0.204363 1.03175
-0.20861 -0.205313 1.03013
-0.207984 -0.206253 1.02849
-0.207366 -0.207194 1.02687
-0.206835 -0.208192 1.02548
-0.206394 -0.209252 1.02434
-0.206089 -0.210407 1.02357
-0.205794 -0.211567 1.02282
-0.205547 -0.212761 1.0222
-0.205374 -0.214009 1.02179
-0.205132 -0.215205 1.02118
-0.204916 -0.216419 1.02065
-0.204725 -0.217651 1.02018
-0.204508 -0.218863 1.01965
-0.204266 -0.220055 1.01904
-0.204097 -0.221303 1.01864
-0.203882 -0.222514 1.01811
-0.203695 -0.223745 1.01765
-0.203456 -0.224936 1.01705
-0.203106 -0.226038 1.01616
-0.202667 -0.227065 1.01502
-0.202268 -0.228122 1.01399
-0.201831 -0.229145 1.01286
-0.201484 -0.230238 1.01197
-0.20122 -0.231397 1.0113
-0.201129 -0.232699 1.01111
-0.201153 -0.234096 1.01123
-0.201223 -0.235533 1.01147
-0.201318 -0.236994 1.01178
-0.201445 -0.238484 1.01217
-0.201463 -0.239885 1.01227
-0.201436 -0.241247 1.01225
-0.201414 -0.242616 1.01224
-0.201342 -0.243942 1.0121
-0.20131 -0.245304 1.01206
-0.201325 -0.246709 1.01216
-0.201307 -0.248085 1.01216
-0.201319 -0.24949 1.01224
-0.201346 -0.25091 1.01237
-0.201289 -0.252256 1.01227
-0.201181 -0.253557 1.01203
-0.201173 -0.254949 1.01206
-0.201203 -0.256376 1.01219
-0.20137 -0.257933 1.01269
-0.201647 -0.259595 1.0135
-0.201954 -0.26129 1.01438
-0.202158 -0.262893 1.01499
-0.202396 -0.264531 1.01569
-0.202422 -0.265973 1.01581
-0.202445 -0.267412 1.01593
-0.202464 -0.26885 1.01603
-0.202493 -0.270299 1.01616
-0.202448 -0.271678 1.01609
-0.202445 -0.273099 1.01614
-0.202307 -0.27439 1.01582
-0.202243 -0.275753 1.0157
-0.202294 -0.277231 1.01589
-0.202392 -0.278758 1.01621
-0.264236 -0.0948126 1.17945
-0.263602 -0.0961881 1.1778
-0.262896 -0.0975405 1.17595
-0.262169 -0.0988838 1.17404
-0.261309 -0.100187 1.17178
-0.260381 -0.101465 1.16933
-0.259526 -0.102758 1.16708
-0.258608 -0.104025 1.16465
-0.257797 -0.105313 1.16252
-0.257107 -0.10663 1.16071
-0.256469 -0.107957 1.15905
-0.255942 -0.10931 1.15768
-0.25541 -0.110659 1.1563
-0.254635 -0.11193 1.15426
-0.253803 -0.113181 1.15207
-0.253026 -0.114441 1.15003
-0.252138 -0.115659 1.14769
-0.251378 -0.116911 1.14569
-0.250821 -0.118225 1.14424
-0.250308 -0.119547 1.14291
-0.249665 -0.120823 1.14123
-0.248973 -0.122078 1.13941
-0.248295 -0.123332 1.13764
-0.247649 -0.124593 1.13594
-0.246969 -0.125837 1.13416
-0.246462 -0.127136 1.13285
-0.246094 -0.128482 1.13191
-0.245632 -0.129793 1.13071
-0.245134 -0.131087 1.12942
-0.244624 -0.132372 1.1281
-0.244016 -0.133618 1.12651
-0.243304 -0.134819 1.12464
-0.242656 -0.136038 1.12294
-0.241891 -0.137208 1.12093
-0.241023 -0.13833 1.11864
-0.240205 -0.139464 1.11648
-0.23939 -0.140594 1.11433
-0.238558 -0.14171 1.11213
-0.237808 -0.142854 1.11016
-0.237121 -0.144018 1.10835
-0.236344 -0.145139 1.1063
-0.235588 -0.146262 1.10431
-0.234957 -0.147435 1.10266
-0.234317 -0.148599 1.10098
-0.233812 -0.149818 1.09967
-0.23334 -0.151049 1.09844
-0.23283 -0.152259 1.09712
-0.232137 -0.15338 1.09529
-0.23152 -0.154532 1.09368
-0.230819 -0.155639 1.09183
-0.230096 -0.15673 1.08993
-0.229462 -0.157859 1.08826
-0.228979 -0.159056 1.08701
-0.228399 -0.160202 1.08549
-0.227791 -0.16133 1.0839
-0.227224 -0.162474 1.08242
-0.226591 -0.16358 1.08076
-0.225881 -0.164641 1.07889
-0.225326 -0.165778 1.07744
-0.224865 -0.166959 1.07624
-0.224446 -0.16816 1.07516
-0.224032 -0.16936 1.07409
-0.223613 -0.170555 1.07301
-0.223126 -0.17171 1.07174
-0.22261 -0.172846 1.0704
-0.222036 -0.173945 1.06889
-0.221493 -0.175058 1.06748
-0.221005 -0.176198 1.06621
-0.220528 -0.17734 1.06497
-0.220084 -0.178498 1.06382
-0.219643 -0.179655 1.06267
-0.219167 -0.180788 1.06144
-0.218632 -0.181883 1.06004
-0.218039 -0.182939 1.05848
-0.217557 -0.184058 1.05723
-0.217114 -0.185196 1.05608
-0.216658 -0.186324 1.05489
-0.216252 -0.187479 1.05385
-0.215946 -0.188693 1.05307
-0.215435 -0.189777 1.05173
-0.214891 -0.190837 1.05031
-0.214333 -0.191884 1.04885
-0.213715 -0.192888 1.04722
-0.213049 -0.193856 1.04547
-0.212502 -0.194895 1.04404
-0.212015 -0.195971 1.04277
-0.211565 -0.197067 1.0416
-0.211139 -0.198175 1.04049
-0.210713 -0.199282 1.03939
-0.21026 -0.200366 1.03821
-0.209785 -0.201432 1.03697
-0.209304 -0.202491 1.03572
-0.208774 -0.203512 1.03433
-0.20821 -0.204506 1.03285
-0.20762 -0.205476 1.0313
-0.207004 -0.206424 1.02968
-0.20644 -0.207403 1.0282
-0.205936 -0.208421 1.02688
-0.205495 -0.209481 1.02573
-0.205162 -0.210617 1.02488
-0.204862 -0.211775 1.02412
-0.20459 -0.212952 1.02343
-0.204394 -0.214184 1.02295
-0.204176 -0.215399 1.02241
-0.203985 -0.216634 1.02195
-0.20382 -0.217887 1.02155
-0.203608 -0.219104 1.02103
-0.203365 -0.220297 1.02042
-0.203169 -0.221525 1.01994
-0.202952 -0.222736 1.0194
-0.202765 -0.22397 1.01895
-0.202579 -0.225204 1.01849
-0.202287 -0.226352 1.01775
-0.201929 -0.227447 1.01683
-0.201587 -0.228551 1.01595
-0.201204 -0.229621 1.01496
-0.200857 -0.230717 1.01407
-0.200583 -0.231871 1.01338
-0.200438 -0.23313 1.01303
-0.200407 -0.234485 1.013
-0.200425 -0.235883 1.01311
-0.200495 -0.237325 1.01335
-0.200598 -0.238798 1.01368
-0.200645 -0.240226 1.01387
-0.200646 -0.241616 1.01392
-0.20065 -0.24301 1.01399
-0.2006 -0.244359 1.01391
-0.200589 -0.245742 1.01393
-0.200582 -0.247131 1.01396
-0.200538 -0.248488 1.0139
-0.200544 -0.24989 1.01397
-0.200567 -0.25131 1.01409
-0.20051 -0.252658 1.01398
-0.20045 -0.254006 1.01387
-0.200469 -0.255425 1.01398
-0.200527 -0.256883 1.01419
-0.200744 -0.258491 1.01484
-0.20105 -0.260185 1.01573
-0.201364 -0.261892 1.01664
-0.201569 -0.263502 1.01725
-0.201777 -0.265117 1.01788
-0.201754 -0.266515 1.01787
-0.201748 -0.267931 1.0179
-0.201719 -0.269327 1.01788
-0.201746 -0.270778 1.01801
-0.201701 -0.27216 1.01794
-0.201672 -0.273559 1.01792
-0.201559 -0.274877 1.01766
-0.201517 -0.276265 1.01761
-0.201564 -0.277744 1.01779
-0.201633 -0.279245 1.01803
-0.262565 -0.0947248 1.17938
-0.262009 -0.0961166 1.17793
-0.26138 -0.0974886 1.17629
-0.260743 -0.098853 1.17462
-0.259966 -0.100176 1.17257
-0.25905 -0.101458 1.17014
-0.258198 -0.10275 1.16789
-0.257308 -0.104024 1.16553
-0.25646 -0.105304 1.16329
-0.255767 -0.106619 1.16146
-0.255097 -0.107937 1.15971
-0.25457 -0.109289 1.15833
-0.254007 -0.110629 1.15686
-0.253198 -0.111891 1.15473
-0.252297 -0.113119 1.15234
-0.251523 -0.114378 1.15029
-0.250641 -0.115599 1.14796
-0.249818 -0.11683 1.14578
-0.249222 -0.118129 1.14422
-0.248624 -0.119421 1.14265
-0.2479 -0.120669 1.14074
-0.24721 -0.121921 1.13893
-0.246607 -0.123199 1.13734
-0.246022 -0.124478 1.13581
-0.24545 -0.125758 1.13432
-0.245021 -0.127086 1.13321
-0.244619 -0.128419 1.13218
-0.244092 -0.129706 1.1308
-0.243522 -0.13097 1.12931
-0.242936 -0.132227 1.12778
-0.242256 -0.133442 1.12598
-0.241518 -0.13463 1.12403
-0.240878 -0.13585 1.12235
-0.240143 -0.137028 1.12041
-0.239284 -0.138151 1.11813
-0.238471 -0.139285 1.11598
-0.237659 -0.140413 1.11382
-0.236841 -0.141532 1.11165
-0.236125 -0.142687 1.10976
-0.235477 -0.143865 1.10806
-0.234733 -0.144998 1.10609
-0.234014 -0.146136 1.10419
-0.23339 -0.147309 1.10255
-0.232752 -0.148472 1.10087
-0.232248 -0.149689 1.09955
-0.231775 -0.150918 1.09832
-0.231301 -0.152143 1.09709
-0.230675 -0.153294 1.09544
-0.230067 -0.154449 1.09384
-0.229399 -0.15557 1.09208
-0.22871 -0.156676 1.09026
-0.228082 -0.157806 1.08861
-0.227577 -0.158992 1.08729
-0.227026 -0.160151 1.08584
-0.226419 -0.161278 1.08425
-0.22588 -0.162435 1.08284
-0.225255 -0.163544 1.08119
-0.22461 -0.164638 1.07949
-0.224088 -0.165791 1.07812
-0.223634 -0.166975 1.07694
-0.223215 -0.168176 1.07586
-0.222826 -0.169389 1.07485
-0.222408 -0.170584 1.07377
-0.221929 -0.171744 1.07252
-0.221443 -0.172896 1.07125
-0.220846 -0.173982 1.06968
-0.220298 -0.175092 1.06824
-0.219809 -0.176231 1.06696
-0.219306 -0.177358 1.06565
-0.218866 -0.178518 1.0645
-0.218421 -0.179672 1.06334
-0.217946 -0.180806 1.0621
-0.217411 -0.1819 1.0607
-0.21685 -0.182975 1.05922
-0.216368 -0.184093 1.05797
-0.215927 -0.185232 1.05682
-0.215473 -0.186361 1.05563
-0.215039 -0.187498 1.05451
-0.214704 -0.188695 1.05365
-0.214216 -0.189793 1.05237
-0.213703 -0.190871 1.05103
-0.213178 -0.191938 1.04965
-0.212618 -0.192979 1.04818
-0.212013 -0.193986 1.04658
-0.211468 -0.195027 1.04515
-0.211012 -0.196123 1.04396
-0.210561 -0.19722 1.04278
-0.210141 -0.198333 1.04169
-0.209743 -0.199458 1.04066
-0.209317 -0.200562 1.03955
-0.208867 -0.201646 1.03837
-0.208387 -0.202706 1.03712
-0.207851 -0.203724 1.03571
-0.207284 -0.204716 1.03421
-0.206695 -0.205687 1.03266
-0.206087 -0.206641 1.03105
-0.205532 -0.207627 1.02959
-0.205058 -0.208667 1.02835
-0.204615 -0.209727 1.02719
-0.204284 -0.210866 1.02634
-0.203985 -0.212026 1.02558
-0.203736 -0.213221 1.02495
-0.203539 -0.214454 1.02447
-0.203324 -0.215673 1.02394
-0.203137 -0.216914 1.02348
-0.202996 -0.218187 1.02315
-0.202781 -0.219405 1.02262
-0.202537 -0.220598 1.022
-0.202363 -0.221846 1.02158
-0.202145 -0.223058 1.02104
-0.201933 -0.224274 1.02052
-0.201796 -0.22555 1.0202
-0.201583 -0.226763 1.01967
-0.201288 -0.227911 1.01892
-0.200984 -0.229049 1.01814
-0.20063 -0.230144 1.01723
-0.200258 -0.231223 1.01627
-0.199908 -0.232316 1.01536
-0.199681 -0.233511 1.0148
-0.199614 -0.234839 1.01467
-0.1996 -0.236211 1.01468
-0.199666 -0.237654 1.01492
-0.199795 -0.239153 1.01533
-0.199894 -0.240629 1.01566
-0.199925 -0.242048 1.0158
-0.199979 -0.243489 1.016
-0.199954 -0.244863 1.01599
-0.199945 -0.246253 1.01602
-0.199936 -0.247643 1.01605
-0.199864 -0.248979 1.01591
-0.19984 -0.250358 1.0159
-0.199835 -0.251756 1.01594
-0.199778 -0.253108 1.01584
-0.199722 -0.254462 1.01575
-0.199767 -0.25591 1.01593
-0.19985 -0.257395 1.01621
-0.200074 -0.259013 1.01688
-0.200357 -0.260692 1.01771
-0.200641 -0.262376 1.01855
-0.200838 -0.263981 1.01915
-0.200996 -0.265554 1.01964
-0.200997 -0.266979 1.0197
-0.200993 -0.2684 1.01974
-0.200963 -0.269798 1.01972
-0.200987 -0.27125 1.01984
-0.200967 -0.27266 1.01984
-0.200918 -0.274043 1.01977
-0.200831 -0.275389 1.01958
-0.200786 -0.276778 1.01952
-0.200806 -0.278233 1.01963
-0.260426 -0.0960493 1.17809
-0.259883 -0.097441 1.17668
-0.259341 -0.0988285 1.17526
-0.258644 -0.100172 1.17342
-0.257738 -0.101457 1.17101
-0.256892 -0.10275 1.16876
-0.256038 -0.104033 1.1665
-0.255155 -0.105302 1.16415
-0.254461 -0.106618 1.16231
-0.253758 -0.107926 1.16046
-0.253199 -0.109271 1.15899
-0.252599 -0.110599 1.15742
-0.251758 -0.111851 1.15518
-0.250822 -0.113067 1.15268
-0.250077 -0.114335 1.15071
-0.249203 -0.115555 1.14838
-0.248319 -0.116767 1.14603
-0.247678 -0.118049 1.14434
-0.246962 -0.119303 1.14245
-0.246164 -0.120523 1.14033
-0.24548 -0.121776 1.13852
-0.244966 -0.123081 1.13717
-0.244436 -0.124379 1.13579
-0.243976 -0.125697 1.13459
-0.243578 -0.127034 1.13357
-0.243142 -0.128354 1.13243
-0.242581 -0.129627 1.13096
-0.241968 -0.130876 1.12935
-0.241281 -0.132091 1.12753
-0.240539 -0.133281 1.12556
-0.239771 -0.134454 1.12352
-0.239074 -0.13565 1.12167
-0.238315 -0.136817 1.11966
-0.237514 -0.137958 1.11753
-0.236712 -0.139094 1.1154
-0.235946 -0.140238 1.11336
-0.235198 -0.141384 1.11137
-0.234517 -0.142551 1.10957
-0.233842 -0.143716 1.10778
-0.233125 -0.144858 1.10588
-0.232411 -0.145995 1.10399
-0.231763 -0.147155 1.10227
-0.231161 -0.148331 1.10068
-0.230688 -0.149562 1.09945
-0.230219 -0.150791 1.09822
-0.229749 -0.152016 1.097
-0.229183 -0.153193 1.09551
-0.228582 -0.15435 1.09392
-0.227947 -0.155485 1.09224
-0.227291 -0.156605 1.0905
-0.226699 -0.157751 1.08894
-0.226173 -0.158925 1.08756
-0.225621 -0.160083 1.08611
-0.225011 -0.161208 1.08449
-0.224449 -0.162352 1.08301
-0.223829 -0.163462 1.08137
-0.223248 -0.164587 1.07984
-0.222789 -0.165772 1.07864
-0.222342 -0.16696 1.07748
-0.22195 -0.168174 1.07646
-0.221557 -0.169385 1.07544
-0.221134 -0.170578 1.07434
-0.220657 -0.171738 1.07309
-0.220203 -0.172906 1.0719
-0.219609 -0.173994 1.07034
-0.219088 -0.175118 1.06896
-0.218575 -0.176243 1.06762
-0.218047 -0.177356 1.06623
-0.217607 -0.178515 1.06508
-0.217163 -0.179669 1.06392
-0.216665 -0.180788 1.06261
-0.21613 -0.181882 1.0612
-0.215571 -0.182957 1.05973
-0.215094 -0.184077 1.05847
-0.214657 -0.185218 1.05733
-0.214231 -0.186364 1.05622
-0.2138 -0.187502 1.0551
-0.213466 -0.188699 1.05424
-0.212974 -0.189794 1.05295
-0.212516 -0.190907 1.05175
-0.212027 -0.191997 1.05046
-0.211506 -0.193062 1.04909
-0.210956 -0.194104 1.04764
-0.210437 -0.195163 1.04627
-0.209983 -0.196261 1.04508
-0.209536 -0.19736 1.04391
-0.209141 -0.198491 1.04289
-0.208739 -0.199614 1.04184
-0.208343 -0.200738 1.04081
-0.207919 -0.201841 1.0397
-0.207445 -0.202906 1.03846
-0.206907 -0.203923 1.03704
-0.206337 -0.204913 1.03553
-0.205748 -0.205885 1.03397
-0.205142 -0.20684 1.03236
-0.204619 -0.207849 1.03098
-0.204172 -0.208911 1.02981
-0.203759 -0.209993 1.02873
-0.203431 -0.211135 1.02788
-0.203154 -0.212313 1.02718
-0.202934 -0.213532 1.02663
-0.202766 -0.21479 1.02623
-0.202579 -0.216033 1.02577
-0.202416 -0.217293 1.02538
-0.202277 -0.218572 1.02505
-0.202062 -0.219791 1.02452
-0.201792 -0.220967 1.02383
-0.201612 -0.222213 1.0234
-0.201393 -0.223427 1.02285
-0.201182 -0.224646 1.02233
-0.201072 -0.225946 1.02208
-0.200936 -0.227225 1.02177
-0.200724 -0.228442 1.02124
-0.200506 -0.229653 1.0207
-0.200185 -0.230779 1.01987
-0.199807 -0.231856 1.01889
-0.199401 -0.232907 1.01783
-0.199066 -0.234014 1.01696
-0.198895 -0.235258 1.01655
-0.198845 -0.236604 1.01647
-0.198885 -0.238027 1.01664
-0.199016 -0.239532 1.01706
-0.199167 -0.241057 1.01753
-0.199224 -0.242502 1.01775
-0.199309 -0.243975 1.01804
-0.199339 -0.2454 1.01818
-0.199335 -0.246798 1.01823
-0.199277 -0.248149 1.01812
-0.199193 -0.249478 1.01795
-0.19916 -0.250853 1.01792
-0.199109 -0.252212 1.01784
-0.199061 -0.253576 1.01776
-0.199054 -0.254979 1.0178
-0.199101 -0.256433 1.01799
-0.199186 -0.257924 1.01828
-0.199409 -0.259547 1.01896
-0.199662 -0.261202 1.01971
-0.199888 -0.262836 1.0204
-0.200049 -0.264412 1.0209
-0.200151 -0.265934 1.02124
-0.200127 -0.267338 1.02123
-0.200126 -0.268765 1.02129
-0.200096 -0.270166 1.02127
-0.20012 -0.27162 1.02139
-0.2001 -0.273034 1.02139
-0.200052 -0.27442 1.02132
-0.258279 -0.0973659 1.17677
-0.257805 -0.0987695 1.17554
-0.257188 -0.100133 1.17391
-0.25638 -0.101442 1.17176
-0.255579 -0.102748 1.16962
-0.254767 -0.104043 1.16746
-0.25389 -0.105314 1.16512
-0.253168 -0.106623 1.1632
-0.252427 -0.10792 1.16123
-0.251825 -0.109251 1.15964
-0.251123 -0.110548 1.15778
-0.250246 -0.111789 1.15544
-0.249276 -0.112991 1.15284
-0.248534 -0.11426 1.15086
-0.247663 -0.115479 1.14853
-0.246848 -0.116712 1.14636
-0.246147 -0.117974 1.1445
-0.245422 -0.119223 1.14257
-0.244591 -0.120432 1.14035
-0.243907 -0.121682 1.13854
-0.243412 -0.122993 1.13724
-0.242955 -0.124315 1.13605
-0.242532 -0.125645 1.13495
-0.242129 -0.12698 1.1339
-0.241664 -0.12829 1.13269
-0.241035 -0.129536 1.13103
-0.240357 -0.130759 1.12922
-0.239605 -0.131948 1.12722
-0.238827 -0.133121 1.12514
-0.238006 -0.134272 1.12295
-0.237303 -0.135462 1.12108
-0.236544 -0.136625 1.11906
-0.235755 -0.137769 1.11695
-0.234992 -0.138917 1.11491
-0.234298 -0.140089 1.11306
-0.23359 -0.141248 1.11118
-0.232916 -0.142416 1.10939
-0.232236 -0.143577 1.10758
-0.231492 -0.144705 1.10559
-0.230778 -0.14584 1.10369
-0.230135 -0.147 1.10198
-0.229569 -0.148191 1.10049
-0.229131 -0.149435 1.09934
-0.228668 -0.150665 1.09813
-0.228199 -0.15189 1.0969
-0.227636 -0.153066 1.09541
-0.227037 -0.154221 1.09383
-0.226436 -0.155371 1.09223
-0.225843 -0.156519 1.09066
-0.225286 -0.157682 1.08919
-0.22476 -0.158855 1.0878
-0.224209 -0.160012 1.08635
-0.223567 -0.161119 1.08464
-0.223007 -0.162262 1.08316
-0.222393 -0.163374 1.08153
-0.221876 -0.164531 1.08016
-0.22148 -0.165748 1.07913
-0.221066 -0.166953 1.07806
-0.220677 -0.168168 1.07704
-0.220307 -0.169392 1.07608
-0.219883 -0.170583 1.07498
-0.219406 -0.171742 1.07372
-0.218984 -0.172929 1.07262
-0.218392 -0.174017 1.07105
-0.217849 -0.175128 1.06961
-0.217334 -0.176252 1.06825
-0.21678 -0.177348 1.06679
-0.216315 -0.178493 1.06556
-0.215872 -0.179647 1.06441
-0.215399 -0.18078 1.06316
-0.214843 -0.18186 1.06169
-0.214313 -0.182952 1.06028
-0.213865 -0.184089 1.05911
-0.213434 -0.185234 1.05798
-0.213011 -0.18638 1.05688
-0.212606 -0.187535 1.05582
-0.212274 -0.188733 1.05496
-0.211788 -0.189831 1.05368
-0.211387 -0.19098 1.05263
-0.210933 -0.192092 1.05144
-0.210445 -0.193179 1.05015
-0.209953 -0.194259 1.04885
-0.209463 -0.195338 1.04756
-0.208984 -0.196419 1.0463
-0.208531 -0.197515 1.04511
-0.208132 -0.198644 1.04407
-0.207705 -0.199751 1.04295
-0.207313 -0.200879 1.04192
-0.206922 -0.202005 1.0409
-0.206454 -0.203074 1.03967
-0.205945 -0.204112 1.03832
-0.205378 -0.205104 1.03682
-0.20481 -0.206091 1.03531
-0.20423 -0.207065 1.03376
-0.20373 -0.208092 1.03244
-0.203312 -0.209175 1.03134
-0.202926 -0.210279 1.03034
-0.202599 -0.211424 1.02949
-0.202329 -0.212609 1.02881
-0.202111 -0.213831 1.02826
-0.201946 -0.215093 1.02787
-0.201787 -0.216359 1.02749
-0.201627 -0.217625 1.0271
-0.201489 -0.218907 1.02678
-0.201296 -0.220146 1.02631
-0.201026 -0.221324 1.02562
-0.200848 -0.222574 1.02519
-0.200654 -0.22381 1.02471
-0.200471 -0.225054 1.02426
-0.20036 -0.226356 1.02402
-0.200277 -0.227681 1.02385
-0.200125 -0.22895 1.02348
-0.199964 -0.230211 1.0231
-0.199718 -0.231402 1.02248
-0.199357 -0.232497 1.02154
-0.198967 -0.233565 1.02052
-0.198603 -0.234651 1.01957
-0.198399 -0.235871 1.01906
-0.198296 -0.237177 1.01884
-0.198308 -0.238581 1.01893
-0.198366 -0.240027 1.01915
-0.19852 -0.241558 1.01964
-0.198554 -0.242988 1.0198
-0.198643 -0.244468 1.0201
-0.198727 -0.245946 1.0204
-0.19873 -0.247354 1.02046
-0.198646 -0.248686 1.02029
-0.198553 -0.250009 1.02009
-0.19854 -0.251407 1.02012
-0.198466 -0.25275 1.01997
-0.198447 -0.254144 1.01998
-0.198494 -0.2556 1.02017
-0.19859 -0.257104 1.0205
-0.198678 -0.258603 1.0208
-0.198872 -0.260205 1.02141
-0.199066 -0.261811 1.022
-0.1992 -0.263362 1.02244
-0.199276 -0.264861 1.02271
-0.199301 -0.266314 1.02284
-0.199251 -0.267696 1.02276
-0.199222 -0.269098 1.02274
-0.199192 -0.270501 1.02272
-0.199215 -0.271958 1.02285
-0.199196 -0.273375 1.02286
-0.199148 -0.274764 1.02278
-0.256626 -0.0972784 1.17673
-0.256218 -0.0986974 1.17567
-0.255695 -0.100085 1.1743
-0.254992 -0.101421 1.17242
-0.254232 -0.102736 1.1704
-0.253498 -0.104053 1.16844
-0.252668 -0.105338 1.16621
-0.251911 -0.106635 1.16419
-0.25113 -0.107922 1.1621
-0.250486 -0.109241 1.16039
-0.24968 -0.110508 1.15824
-0.24873 -0.111724 1.15568
-0.24776 -0.112928 1.15307
-0.247021 -0.114194 1.1511
-0.246162 -0.115417 1.14879
-0.24536 -0.116651 1.14664
-0.244728 -0.117936 1.14496
-0.24398 -0.119176 1.14296
-0.243185 -0.120396 1.14083
-0.242538 -0.121659 1.13911
-0.242103 -0.122991 1.13798
-0.241584 -0.124289 1.13661
-0.241185 -0.125629 1.13557
-0.240713 -0.126939 1.13433
-0.24015 -0.128211 1.13284
-0.239427 -0.129421 1.13091
-0.238715 -0.130629 1.12901
-0.237902 -0.131793 1.12683
-0.237092 -0.132952 1.12465
-0.236236 -0.134085 1.12235
-0.235507 -0.135262 1.1204
-0.234748 -0.136422 1.11837
-0.233991 -0.137576 1.11634
-0.23327 -0.138739 1.11441
-0.232623 -0.139927 1.11269
-0.231949 -0.141098 1.11089
-0.23128 -0.142267 1.1091
-0.230599 -0.143425 1.10728
-0.229828 -0.144538 1.10522
-0.229145 -0.145684 1.10339
