ply
format ascii 1.0
element vertex 1759
property float x
property float y
property float z
end_header
0.195287 0.0891155 0.698616
0.196142 0.0897556 0.697859
0.196997 0.0903953 0.697106
0.197874 0.091045 0.696431
0.198751 0.091695 0.695761
0.19965 0.0923548 0.695164
0.200483 0.0929827 0.694359
0.20129 0.0935979 0.693475
0.202025 0.0941781 0.692369
0.202798 0.0947762 0.691394
0.203574 0.0953752 0.690434
0.204356 0.0959772 0.6895
0.205174 0.0965955 0.688686
0.206052 0.0972425 0.688059
0.206936 0.0978922 0.687458
0.207848 0.0985556 0.686948
0.208783 0.0992297 0.68651
0.209668 0.0998792 0.685919
0.210544 0.100525 0.685307
0.211419 0.101168 0.684691
0.212325 0.101828 0.684176
0.213281 0.102512 0.683813
0.214259 0.103206 0.683514
0.21514 0.103853 0.682929
0.21601 0.104494 0.682315
0.216811 0.1051 0.681501
0.217638 0.10572 0.680769
0.218494 0.106353 0.680124
0.219438 0.10703 0.679743
0.220343 0.107687 0.679244
0.221219 0.108329 0.678667
0.222059 0.108954 0.677991
0.222896 0.109577 0.677309
0.223736 0.110201 0.67664
0.224655 0.110864 0.676197
0.225625 0.111553 0.675898
0.226618 0.112253 0.675667
0.227604 0.112951 0.675416
0.228616 0.11366 0.675234
0.229655 0.114385 0.675129
0.230727 0.115125 0.675113
0.231799 0.115866 0.675093
0.232889 0.116616 0.675123
0.233979 0.117366 0.675149
0.23505 0.118107 0.675122
0.236125 0.11885 0.675106
0.237218 0.119602 0.675134
0.238361 0.12038 0.675292
0.239509 0.121161 0.675462
0.240667 0.121947 0.675654
0.24182 0.122731 0.67583
0.242967 0.123512 0.675986
0.244065 0.124268 0.67601
0.245165 0.125025 0.67604
0.246272 0.125786 0.676082
0.247454 0.126585 0.676318
0.24862 0.127377 0.676507
0.249859 0.128207 0.676884
0.251208 0.129095 0.677532
0.252571 0.129991 0.67821
0.253941 0.13089 0.678898
0.255357 0.131814 0.679695
0.256695 0.132698 0.680287
0.257929 0.133528 0.680613
0.259237 0.134396 0.681118
0.260501 0.135243 0.681509
0.261848 0.136133 0.682098
0.263259 0.137057 0.682841
0.264788 0.138044 0.683864
0.266364 0.139056 0.68499
0.268002 0.140103 0.68626
0.269735 0.1412 0.687746
0.271621 0.142379 0.68959
0.273534 0.143573 0.691482
0.275342 0.144713 0.693104
0.277246 0.145904 0.69494
0.123843 0.0344246 0.805946
0.124863 0.0351863 0.805055
0.125858 0.035939 0.804031
0.126735 0.0366519 0.802367
0.127639 0.0373722 0.80087
0.128483 0.038071 0.799063
0.129242 0.0387393 0.796819
0.129945 0.0393865 0.794308
0.130699 0.0400488 0.792096
0.131462 0.0407128 0.789969
0.132221 0.0413731 0.787845
0.133112 0.0420785 0.786439
0.133988 0.0427777 0.784975
0.134839 0.0434666 0.7834
0.135662 0.0441443 0.781702
0.136512 0.04483 0.780156
0.137304 0.0454936 0.77834
0.138126 0.0461669 0.7767
0.138942 0.0468365 0.775046
0.139717 0.0474899 0.773214
0.140492 0.0481414 0.771399
0.141265 0.0487908 0.769598
0.142038 0.0494388 0.767818
0.142787 0.0500765 0.765946
0.14356 0.050722 0.764211
0.144314 0.0513588 0.762406
0.145124 0.0520157 0.760882
0.14597 0.0526859 0.759546
0.146866 0.0533748 0.758456
0.147759 0.0540615 0.757362
0.148683 0.0547599 0.75642
0.149557 0.0554377 0.755261
0.150358 0.0560859 0.753788
0.151147 0.0567278 0.752272
0.151946 0.0573729 0.750821
0.152701 0.0579992 0.749189
0.153511 0.0586465 0.747815
0.154421 0.0593342 0.746895
0.155283 0.0600014 0.745773
0.156071 0.0606374 0.744343
0.156878 0.0612805 0.743012
0.157662 0.061913 0.741594
0.158453 0.0625472 0.740219
0.159336 0.0632193 0.739245
0.160277 0.0639156 0.738525
0.161198 0.0646029 0.737726
0.162131 0.0652948 0.736983
0.163078 0.065992 0.7363
0.164013 0.0666845 0.73558
0.164914 0.0673616 0.734723
0.165807 0.0680345 0.733841
0.166633 0.0686783 0.7327
0.167454 0.0693193 0.731551
0.1683 0.0699702 0.730508
0.169195 0.0706419 0.729667
0.170105 0.0713203 0.728895
0.171063 0.0720189 0.728312
0.171923 0.0726744 0.727357
0.17278 0.0733276 0.726396
0.173653 0.0739875 0.725504
0.174455 0.0746153 0.72435
0.175157 0.0751982 0.722833
0.175898 0.075797 0.721471
0.176614 0.0763842 0.720032
0.177302 0.0769578 0.718501
0.178071 0.0775669 0.717281
0.17893 0.0782166 0.716405
0.179791 0.0788664 0.715541
0.180635 0.0795079 0.714621
0.18149 0.0801544 0.713752
0.182285 0.0807729 0.712673
0.183017 0.0813615 0.711376
0.183783 0.0819653 0.710212
0.184571 0.0825785 0.709135
0.185371 0.0831966 0.708108
0.186208 0.0838318 0.707222
0.187096 0.0844901 0.706519
0.187921 0.0851188 0.705602
0.188726 0.0857371 0.70462
0.189506 0.0863436 0.703564
0.190341 0.0869758 0.702704
0.191099 0.0875708 0.701587
0.191896 0.0881837 0.700613
0.19271 0.0888045 0.699703
0.193567 0.0894449 0.698941
0.194408 0.0900777 0.698132
0.195289 0.090729 0.697461
0.196163 0.091377 0.696773
0.197058 0.0920345 0.696157
0.197956 0.0926929 0.695553
0.198837 0.0933434 0.694899
0.199674 0.0939723 0.694106
0.2005 0.0945953 0.693284
0.201256 0.0951844 0.692246
0.202033 0.0957828 0.691277
0.202831 0.0963912 0.690388
0.203635 0.097002 0.689518
0.204455 0.0976202 0.688707
0.205332 0.0982663 0.688082
0.206218 0.0989162 0.687483
0.207132 0.09958 0.686978
0.208088 0.100264 0.686604
0.208996 0.100924 0.686082
0.209873 0.101569 0.685471
0.21075 0.102214 0.68486
0.211654 0.102871 0.684336
0.212586 0.103544 0.6839
0.213543 0.104227 0.683537
0.214447 0.104885 0.683023
0.215342 0.105538 0.68248
0.216169 0.106156 0.681738
0.217021 0.106787 0.681078
0.217899 0.10743 0.680498
0.218848 0.108109 0.680124
0.219776 0.108778 0.679693
0.220655 0.109421 0.679121
0.2215 0.110047 0.678455
0.222336 0.110669 0.677768
0.223178 0.111293 0.677103
0.224098 0.111957 0.676659
0.225092 0.112658 0.676426
0.226108 0.11337 0.676256
0.227121 0.114081 0.676077
0.228155 0.114803 0.675956
0.229194 0.115528 0.675849
0.230266 0.116269 0.675829
0.231341 0.117012 0.675816
0.232437 0.117766 0.675858
0.233528 0.118517 0.675887
0.234575 0.119246 0.675792
0.235643 0.119986 0.675754
0.236735 0.120739 0.675777
0.237902 0.12153 0.675999
0.239056 0.122315 0.676182
0.240239 0.123115 0.67644
0.241394 0.123901 0.676619
0.24254 0.124683 0.676772
0.243617 0.125428 0.676736
0.244718 0.126186 0.676766
0.245826 0.126948 0.676809
0.247031 0.127762 0.677105
0.248222 0.128567 0.677357
0.249495 0.129417 0.677815
0.250849 0.130309 0.678478
0.252214 0.131208 0.679159
0.253559 0.132096 0.679783
0.254948 0.133009 0.680511
0.256258 0.133879 0.681031
0.257492 0.134711 0.681357
0.2588 0.135581 0.68186
0.260089 0.136442 0.682311
0.261444 0.137338 0.682921
0.262862 0.138268 0.683679
0.264392 0.139259 0.684706
0.26599 0.140286 0.685889
0.267601 0.141321 0.68709
0.269361 0.142436 0.688642
0.271271 0.143633 0.690548
0.273213 0.144847 0.692509
0.275027 0.145994 0.694148
0.12415 0.0363756 0.805632
0.125139 0.0371254 0.80457
0.126037 0.0378432 0.803008
0.126961 0.0385687 0.801612
0.127845 0.0392789 0.800012
0.128623 0.0399507 0.797851
0.129351 0.0406031 0.795452
0.130109 0.0412643 0.793248
0.130857 0.04192 0.791021
0.131601 0.0425722 0.788801
0.132455 0.043263 0.787192
0.133313 0.0439534 0.785618
0.134131 0.0446283 0.783863
0.134937 0.0452972 0.782065
0.135771 0.0459751 0.780432
0.136551 0.0466314 0.778545
0.137363 0.0472983 0.776842
0.138165 0.0479603 0.775113
0.13894 0.0486104 0.773267
0.139693 0.0492508 0.771339
0.140465 0.0498974 0.76953
0.141241 0.0505438 0.767757
0.142009 0.0511859 0.76597
0.142767 0.0518227 0.764155
0.143522 0.0524568 0.762345
0.14433 0.0531108 0.760808
0.145163 0.0537736 0.759405
0.14606 0.0544614 0.758319
0.146953 0.0551465 0.75722
0.147842 0.0558297 0.756121
0.148678 0.0564904 0.754787
0.149478 0.0571354 0.753303
0.150267 0.0577749 0.751788
0.151072 0.05842 0.750358
0.151865 0.0590592 0.748892
0.152711 0.0597197 0.747678
0.153624 0.0604069 0.746764
0.154485 0.0610722 0.745636
0.155289 0.0617125 0.744271
0.156113 0.0623607 0.743009
0.156902 0.0629931 0.741608
0.157714 0.0636345 0.74032
0.158601 0.064307 0.739359
0.159556 0.0650086 0.738696
0.160462 0.065688 0.737827
0.161395 0.0663791 0.737082
0.162341 0.0670758 0.736399
0.163259 0.0677593 0.7356
0.164142 0.0684277 0.734671
0.165016 0.0690911 0.73371
0.165858 0.0697403 0.732632
0.166664 0.0703726 0.731416
0.167547 0.0710387 0.730521
0.168441 0.0717089 0.729674
0.16937 0.0723946 0.728974
0.17031 0.0730849 0.728321
0.171209 0.0737563 0.727513
0.172052 0.0744018 0.726493
0.172945 0.0750699 0.725678
0.173786 0.0757138 0.724669
0.174512 0.0763049 0.723234
0.17524 0.076896 0.721817
0.175957 0.0774811 0.720373
0.176625 0.0780432 0.71876
0.177353 0.0786318 0.717384
0.178194 0.0792719 0.716439
0.179055 0.0799208 0.715575
0.179922 0.0805717 0.714736
0.180804 0.0812297 0.713962
0.181641 0.0818661 0.71303
0.182354 0.0824437 0.711658
0.183094 0.0830337 0.710397
0.183858 0.0836342 0.709232
0.184615 0.0842309 0.708053
0.185415 0.0848473 0.707033
0.186321 0.0855128 0.70639
0.187148 0.0861413 0.705481
0.187934 0.0867495 0.704434
0.188712 0.0873534 0.703369
0.189524 0.0879731 0.702428
0.190244 0.0885482 0.701182
0.19104 0.0891591 0.700203
0.191855 0.0897785 0.699293
0.192734 0.0904285 0.698606
0.1936 0.0910724 0.697882
0.194504 0.0917339 0.697289
0.195382 0.0923825 0.69661
0.196272 0.093037 0.695979
0.197169 0.0936944 0.695369
0.19803 0.0943342 0.694651
0.198866 0.0949613 0.693856
0.199686 0.0955805 0.693014
0.200443 0.0961679 0.691975
0.201199 0.0967548 0.690942
0.202004 0.0973649 0.690069
0.202828 0.0979847 0.689269
0.203671 0.0986129 0.688526
0.204573 0.0992702 0.687978
0.205481 0.0999304 0.687448
0.206416 0.100604 0.687008
0.207393 0.101299 0.686697
0.208326 0.101971 0.68625
0.209208 0.102618 0.685654
0.210084 0.103261 0.685038
0.210983 0.103916 0.684499
0.211891 0.104575 0.683989
0.212846 0.105258 0.683619
0.213776 0.105928 0.683178
0.214697 0.106593 0.682713
0.215549 0.107224 0.682047
0.216424 0.107865 0.681448
0.217301 0.108508 0.680863
0.218248 0.109185 0.68048
0.219177 0.109854 0.680049
0.220079 0.110509 0.679542
0.220928 0.111136 0.678886
0.221768 0.111759 0.678205
0.222634 0.112395 0.677605
0.223577 0.11307 0.677225
0.224577 0.113774 0.677008
0.22562 0.114501 0.676911
0.226659 0.115226 0.676803
0.227695 0.115949 0.676683
0.228713 0.116663 0.676514
0.229803 0.117414 0.676544
0.230902 0.11817 0.676594
0.231975 0.118913 0.676574
0.233043 0.119653 0.676534
0.234105 0.12039 0.676478
0.235148 0.121118 0.67637
0.236221 0.121861 0.676342
0.237416 0.122668 0.676636
0.238598 0.123469 0.676894
0.239806 0.124283 0.677215
0.240987 0.125084 0.677463
0.24214 0.12587 0.67763
0.243218 0.126617 0.677598
0.24432 0.127377 0.677624
0.245423 0.128137 0.677656
0.246633 0.128954 0.67796
0.247853 0.129777 0.678286
0.249155 0.130643 0.678818
0.250535 0.131551 0.679542
0.251875 0.132439 0.68016
0.253193 0.133314 0.680712
0.254553 0.134214 0.681367
0.25584 0.135074 0.681829
0.257049 0.135893 0.682088
0.258385 0.13678 0.682661
0.259706 0.13766 0.683193
0.261096 0.138577 0.683888
0.262573 0.139541 0.684792
0.264136 0.140552 0.685895
0.265733 0.141582 0.687074
0.267342 0.142619 0.688273
0.26907 0.143721 0.689746
0.270899 0.144878 0.691454
0.272832 0.146093 0.693401
0.27465 0.147246 0.69505
0.124389 0.0383025 0.804934
0.125315 0.0390281 0.803522
0.126255 0.0397573 0.802201
0.127158 0.0404725 0.800697
0.127993 0.0411619 0.798835
0.128739 0.0418176 0.796516
0.129516 0.0424828 0.794398
0.130242 0.0431272 0.79203
0.13098 0.0437745 0.789764
0.1318 0.0444501 0.787955
0.13264 0.045132 0.786277
0.133429 0.0457934 0.784356
0.134248 0.0464647 0.782614
0.135067 0.0471348 0.780896
0.135831 0.047782 0.778914
0.136599 0.0484297 0.776982
0.137366 0.0490756 0.775069
0.13812 0.0497145 0.773111
0.138856 0.0503453 0.771094
0.139631 0.0509899 0.769291
0.140424 0.0516403 0.767598
0.141214 0.0522881 0.765907
0.141959 0.0529169 0.764023
0.142731 0.0535551 0.762289
0.143539 0.0542067 0.760747
0.144358 0.0548617 0.759275
0.145256 0.0555484 0.758191
0.146149 0.056232 0.757091
0.147005 0.0568998 0.755834
0.147807 0.0575443 0.754342
0.148605 0.0581859 0.752846
0.14938 0.058817 0.751264
0.150187 0.0594607 0.749844
0.151015 0.0601121 0.74853
0.151877 0.0607776 0.747386
0.152791 0.0614639 0.746477
0.153652 0.0621273 0.745346
0.15447 0.0627717 0.74404
0.155312 0.0634256 0.742853
0.156122 0.0640647 0.741537
0.156955 0.0647134 0.740335
0.15786 0.0653924 0.739447
0.1588 0.0660866 0.738719
0.159688 0.0667575 0.737776
0.160603 0.0674396 0.736953
0.161551 0.0681359 0.736275
0.162451 0.0688107 0.735404
0.163351 0.0694848 0.734539
0.164206 0.0701388 0.733502
0.165052 0.0707879 0.732436
0.165841 0.0714106 0.73115
0.166725 0.0720756 0.730255
0.167614 0.0727427 0.729391
0.168563 0.0734365 0.728769
0.169523 0.0741346 0.728191
0.170462 0.0748235 0.727541
0.171326 0.0754773 0.7266
0.172223 0.0761459 0.725795
0.1731 0.0768051 0.724923
0.173865 0.0774118 0.723627
0.174596 0.0780026 0.72222
0.175315 0.0785866 0.720776
0.175978 0.079144 0.719138
0.176668 0.0797126 0.717614
0.177471 0.0803336 0.716524
0.178337 0.0809834 0.715673
0.179228 0.0816446 0.714921
0.180138 0.0823147 0.714244
0.181021 0.0829715 0.713474
0.181759 0.0835596 0.71219
0.182478 0.0841377 0.710847
0.183215 0.0847234 0.709578
0.183925 0.0852962 0.708228
0.184682 0.0858901 0.707051
0.185568 0.0865455 0.706338
0.186378 0.0871646 0.705368
0.187166 0.0877721 0.704325
0.187947 0.0883756 0.703267
0.188723 0.0889764 0.7022
0.189421 0.0895388 0.700876
0.190214 0.0901471 0.699888
0.191029 0.090765 0.698979
0.19193 0.0914252 0.698367
0.192839 0.0920885 0.697784
0.193745 0.0927506 0.697198
0.194642 0.0934075 0.696581
0.195531 0.094061 0.695945
0.196428 0.0947174 0.695335
0.197268 0.0953463 0.694549
0.198101 0.0959705 0.69374
0.198896 0.096576 0.692817
0.199647 0.097159 0.69176
0.200386 0.0977357 0.690671
0.201193 0.0983454 0.689804
0.202041 0.0989758 0.689074
0.202907 0.0996147 0.688407
0.203832 0.100283 0.687932
0.204765 0.100956 0.687479
0.205723 0.10164 0.687107
0.206701 0.102335 0.686799
0.207655 0.103018 0.686417
0.208521 0.103656 0.685771
0.2094 0.1043 0.685164
0.210276 0.104942 0.684549
0.211178 0.105598 0.684021
0.212109 0.106268 0.68358
0.213063 0.10695 0.683209
0.214012 0.107629 0.682827
0.214892 0.108273 0.682242
0.215767 0.108914 0.681642
0.216638 0.109553 0.681038
0.217558 0.110217 0.680578
0.218485 0.110884 0.680141
0.219412 0.111551 0.679703
0.220308 0.112202 0.67918
0.221173 0.112837 0.678571
0.222085 0.113496 0.678097
0.223032 0.114173 0.677726
0.224056 0.11489 0.677575
0.225107 0.115621 0.677499
0.226172 0.11636 0.677461
0.227189 0.117074 0.677288
0.228228 0.117799 0.677173
0.229317 0.11855 0.677198
0.230413 0.119305 0.67724
0.231487 0.120049 0.677216
0.232551 0.120788 0.677167
0.233588 0.121513 0.677041
0.234608 0.122229 0.676867
0.235682 0.122973 0.676841
0.236861 0.123773 0.677095
0.238046 0.124576 0.677357
0.23928 0.125406 0.677749
0.240488 0.126221 0.678064
0.241644 0.12701 0.678241
0.242747 0.127771 0.678273
0.243895 0.128556 0.678421
0.245002 0.129319 0.678456
0.246242 0.130153 0.678836
0.247491 0.130992 0.679235
0.24882 0.131875 0.679837
0.250177 0.132773 0.680502
0.251512 0.13366 0.681103
0.252797 0.13452 0.68157
0.254129 0.135406 0.682151
0.255417 0.136269 0.682615
0.256656 0.137105 0.682948
0.258051 0.138027 0.683671
0.259433 0.138941 0.684351
0.260882 0.139892 0.685191
0.262366 0.140863 0.686109
0.263954 0.14189 0.687278
0.265557 0.142927 0.688469
0.267145 0.143956 0.689613
0.268793 0.145018 0.690892
0.270553 0.146142 0.692433
0.272427 0.147329 0.694234
0.274217 0.148471 0.695818
0.124554 0.0402006 0.803819
0.125503 0.0409315 0.802543
0.126426 0.0416521 0.801143
0.127292 0.0423502 0.79944
0.128103 0.0430266 0.797458
0.128885 0.0436908 0.79535
0.129615 0.0443334 0.792986
0.130369 0.0449836 0.790786
0.131186 0.0456558 0.788946
0.132011 0.04633 0.787179
0.132776 0.0469793 0.785113
0.133585 0.0476444 0.783307
0.134368 0.0482981 0.781391
0.135097 0.0489288 0.779219
0.135827 0.0495584 0.777082
0.136561 0.050188 0.774993
0.137313 0.0508234 0.773021
0.138035 0.0514452 0.770925
0.138813 0.0520881 0.769131
0.139611 0.0527377 0.767454
0.140435 0.0533967 0.765923
0.141169 0.0540182 0.763981
0.141958 0.0546607 0.762323
0.142767 0.0553102 0.760777
0.143586 0.0559632 0.759301
0.144471 0.0566426 0.758149
0.145365 0.057325 0.75705
0.146203 0.0579835 0.755706
0.146988 0.0586181 0.754128
0.147783 0.0592563 0.752617
0.148561 0.0598863 0.751045
0.14937 0.0605286 0.749631
0.150215 0.0611854 0.748392
0.151077 0.0618488 0.747241
0.151957 0.0625195 0.746184
0.152801 0.0631735 0.744974
0.153619 0.0638159 0.743669
0.154466 0.0644699 0.742499
0.155297 0.0651163 0.741272
0.156167 0.0657792 0.740224
0.157088 0.0664642 0.739404
0.158044 0.0671645 0.73874
0.158933 0.0678344 0.737798
0.159849 0.0685162 0.73698
0.160796 0.0692111 0.736294
0.161678 0.0698766 0.735346
0.162577 0.0705495 0.734479
0.163433 0.071202 0.733441
0.164299 0.0718587 0.732453
0.165074 0.0724731 0.731106
0.165957 0.0731365 0.730206
0.166827 0.0737935 0.729264
0.167774 0.0744858 0.728635
0.168719 0.0751766 0.728
0.169682 0.0758754 0.727439
0.170567 0.0765379 0.72658
0.171483 0.0772143 0.725847
0.172379 0.0778807 0.725041
0.173147 0.0784872 0.723756
0.173899 0.0790856 0.722422
0.174618 0.0796675 0.720974
0.175299 0.0802302 0.719394
0.17597 0.0807878 0.717794
0.176772 0.0814067 0.716695
0.177638 0.0820555 0.715842
0.178565 0.0827333 0.715222
0.1795 0.0834146 0.714634
0.180431 0.0840934 0.714033
0.181197 0.0846928 0.712841
0.181903 0.0852628 0.711445
0.182594 0.0858249 0.710007
0.183259 0.0863734 0.708488
0.183972 0.0869444 0.707152
0.184838 0.0875894 0.706368
0.185668 0.0882164 0.705463
0.18646 0.0888243 0.704431
0.187242 0.0894272 0.703376
0.188018 0.0900263 0.702305
0.188714 0.0905858 0.700971
0.189488 0.091183 0.699914
0.190303 0.0917997 0.699002
0.191205 0.0924594 0.698391
0.192134 0.0931324 0.697878
0.193043 0.0937948 0.697296
0.19394 0.0944518 0.696681
0.19483 0.0951041 0.696043
0.195725 0.0957597 0.695429
0.196527 0.0963678 0.694515
0.197358 0.09699 0.693697
0.198133 0.0975842 0.692707
0.198883 0.098165 0.691641
0.199621 0.0987397 0.690549
0.200425 0.0993469 0.689675
0.201273 0.0999762 0.688946
0.202161 0.100625 0.688344
0.203112 0.101306 0.68795
0.204052 0.101982 0.68752
0.205032 0.102677 0.687215
0.206029 0.103381 0.686965
0.207004 0.104075 0.686649
0.207852 0.104703 0.685944
0.208733 0.105347 0.685338
0.209605 0.105987 0.684715
0.210486 0.106631 0.684117
0.211395 0.10729 0.68361
0.21237 0.107983 0.683306
0.213344 0.108675 0.682997
0.21425 0.109331 0.682485
0.215147 0.109983 0.681951
0.216019 0.110621 0.681343
0.216914 0.111272 0.68081
0.217817 0.111926 0.680297
0.218744 0.112593 0.679862
0.219645 0.113246 0.679351
0.220538 0.113895 0.678822
0.221474 0.114566 0.678415
0.222466 0.115267 0.678169
0.223516 0.115998 0.67809
0.224589 0.116741 0.678078
0.22568 0.117494 0.67811
0.226719 0.11822 0.677995
0.227758 0.118945 0.677881
0.228827 0.119687 0.677846
0.229902 0.120432 0.677826
0.230954 0.121164 0.677743
0.231995 0.121891 0.677627
0.233031 0.122616 0.677496
0.234074 0.123344 0.677386
0.235176 0.124104 0.677432
0.236355 0.124905 0.677684
0.237537 0.125708 0.677941
0.23877 0.126538 0.678326
0.240002 0.127368 0.678708
0.241192 0.128176 0.678968
0.242325 0.128954 0.679078
0.243499 0.129754 0.679293
0.24463 0.130531 0.67939
0.245848 0.131355 0.679711
0.24708 0.132186 0.680066
0.248412 0.133072 0.680672
0.249742 0.133958 0.681266
0.251046 0.13483 0.681789
0.252329 0.135691 0.682249
0.25366 0.136578 0.682828
0.254948 0.137442 0.683291
0.256243 0.138311 0.683765
0.257671 0.139252 0.684568
0.259087 0.140186 0.685331
0.260569 0.141158 0.686254
0.262076 0.142144 0.68723
0.263695 0.143192 0.688473
0.265304 0.144235 0.689678
0.266897 0.14527 0.690835
0.268517 0.14632 0.692044
0.270213 0.147413 0.693428
0.272045 0.148581 0.695131
0.273857 0.149739 0.696769
0.124736 0.0421011 0.802803
0.125667 0.0428224 0.801434
0.126554 0.0435266 0.799844
0.127427 0.0442239 0.798194
0.12824 0.0448966 0.796234
0.128978 0.0455392 0.793898
0.129752 0.0461939 0.791787
0.130584 0.0468697 0.790014
0.131385 0.047532 0.788099
0.132154 0.0481801 0.78604
0.132938 0.0488329 0.78409
0.133688 0.0494705 0.781985
0.134377 0.0500822 0.779599
0.135053 0.0506864 0.777173
0.13574 0.0512936 0.774835
0.136494 0.0519264 0.772864
0.137205 0.0525405 0.770708
0.137987 0.0531818 0.768924
0.138802 0.0538359 0.767327
0.139643 0.0545002 0.76588
0.140381 0.0551198 0.763946
0.141188 0.0557671 0.762366
0.141982 0.0564081 0.760745
0.1428 0.0570586 0.759259
0.143669 0.0577293 0.758027
0.144563 0.0584101 0.756924
0.145386 0.0590598 0.755505
0.146169 0.0596914 0.753917
0.146963 0.0603269 0.752398
0.147758 0.0609615 0.750897
0.148554 0.061596 0.749421
0.1494 0.0622514 0.748185
0.150263 0.0629131 0.747033
0.151108 0.0635668 0.745818
0.151932 0.0642102 0.74452
0.152752 0.0648511 0.743219
0.153601 0.0655042 0.742057
0.154438 0.0661516 0.740858
0.155343 0.0668287 0.739962
0.156282 0.0675208 0.739219
0.157241 0.0682211 0.738563
0.158145 0.0688968 0.737686
0.15906 0.0695768 0.73686
0.15999 0.0702633 0.736104
0.160854 0.0709187 0.735077
0.16177 0.0715981 0.734278
0.162628 0.0722502 0.733247
0.163514 0.0729146 0.732339
0.164291 0.073528 0.730998
0.165171 0.0741889 0.730087
0.166039 0.0748437 0.729133
0.166985 0.0755343 0.728497
0.167937 0.0762273 0.727887
0.168918 0.0769341 0.727398
0.169822 0.0776045 0.726613
0.170738 0.0782801 0.725878
0.171653 0.0789548 0.725145
0.172425 0.0795613 0.72387
0.173183 0.0801598 0.72255
0.173905 0.0807411 0.721109
0.174587 0.0813021 0.71953
0.175238 0.0818476 0.717851
0.176042 0.0824655 0.716754
0.176904 0.0831113 0.715884
0.17783 0.083788 0.71526
0.1788 0.0844855 0.714797
0.179791 0.0851931 0.714415
0.180585 0.0858047 0.71332
0.181298 0.0863756 0.71194
0.181988 0.0869352 0.710493
0.182629 0.0874694 0.70888
0.183284 0.0880099 0.707333
0.184132 0.0886447 0.706481
0.184981 0.0892802 0.705641
0.185792 0.0898963 0.704674
0.186577 0.0904988 0.703622
0.187354 0.0910968 0.702551
0.188067 0.0916629 0.701272
0.188839 0.0922573 0.700201
0.189657 0.0928746 0.699297
0.190542 0.0935251 0.698629
0.191472 0.0941979 0.698112
0.192379 0.0948587 0.697523
0.193257 0.0955054 0.696844
0.194129 0.096148 0.696144
0.195024 0.0968024 0.695527
0.195826 0.0974097 0.694608
0.196639 0.0980217 0.693731
0.197415 0.098615 0.692744
0.198167 0.0991953 0.691682
0.198907 0.0997689 0.69059
0.199731 0.100385 0.689778
0.200596 0.101022 0.689102
0.201504 0.101681 0.688567
0.20248 0.102375 0.688246
0.203443 0.103062 0.687885
0.204427 0.103759 0.687594
0.205402 0.104452 0.687274
0.206374 0.105144 0.686946
0.207221 0.10577 0.686232
0.208102 0.106414 0.685628
0.208957 0.107045 0.684947
0.209836 0.107687 0.684344
0.210723 0.108334 0.683769
0.211698 0.109026 0.683459
0.212673 0.109719 0.683154
0.213603 0.110387 0.682715
0.214527 0.111053 0.682256
0.215421 0.111702 0.681712
0.216317 0.112353 0.681179
0.217219 0.113006 0.680664
0.218167 0.113684 0.680287
0.219093 0.11435 0.679846
0.219994 0.115002 0.679334
0.220956 0.115687 0.679001
0.221969 0.116399 0.678813
0.223019 0.117131 0.678734
0.224095 0.117876 0.678725
0.225207 0.118641 0.678818
0.226247 0.119367 0.678702
0.227267 0.120083 0.678529
0.228335 0.120825 0.678492
0.229412 0.121571 0.678476
0.230465 0.122305 0.678392
0.231509 0.123034 0.678283
0.232572 0.123773 0.678224
0.233618 0.124503 0.678117
0.234696 0.125251 0.678097
0.235871 0.126051 0.678336
0.237051 0.126854 0.678585
0.238279 0.127683 0.678959
0.239515 0.128517 0.679349
0.240731 0.12934 0.679682
0.241872 0.130123 0.679808
0.243051 0.130927 0.680033
0.244207 0.131718 0.680197
0.245428 0.132545 0.680523
0.246682 0.13339 0.68093
0.248013 0.134278 0.681533
0.249317 0.135151 0.682061
0.250598 0.136012 0.682523
0.251878 0.136873 0.682977
0.253215 0.137765 0.683567
0.254535 0.138649 0.684111
0.25591 0.139562 0.684787
0.257372 0.140525 0.685676
0.258819 0.141479 0.686517
0.2603 0.142453 0.687435
0.261807 0.143442 0.688409
0.263402 0.144479 0.68959
0.265037 0.14554 0.690861
0.26664 0.146583 0.692038
0.26826 0.147637 0.693248
0.269954 0.148732 0.694627
0.271804 0.149915 0.696375
0.27359 0.151063 0.69795
0.124844 0.0439694 0.801374
0.125761 0.0446827 0.799944
0.12668 0.0453955 0.798539
0.12755 0.046088 0.796883
0.128309 0.0467356 0.794648
0.129104 0.0473956 0.792634
0.129957 0.0480774 0.790958
0.130775 0.0487438 0.789117
0.131547 0.0493905 0.78706
0.13233 0.0500401 0.785086
0.133049 0.0506618 0.782803
0.133704 0.0512558 0.78022
0.134332 0.0518366 0.777533
0.134987 0.0524268 0.775021
0.135713 0.0530451 0.772903
0.136427 0.0536567 0.770748
0.137194 0.0542893 0.768887
0.138008 0.0549404 0.767278
0.138851 0.055603 0.765832
0.139592 0.0562206 0.763902
0.140402 0.0568672 0.762336
0.14121 0.0575116 0.760775
0.142029 0.0581599 0.759285
0.142881 0.0588215 0.757968
0.143758 0.0594936 0.756786
0.144565 0.0601341 0.755288
0.145333 0.0607561 0.753621
0.146127 0.0613893 0.7521
0.146939 0.0620292 0.750676
0.147757 0.062671 0.749295
0.148623 0.0633332 0.748143
0.149484 0.0639928 0.746983
0.15031 0.0646358 0.745677
0.15113 0.0652753 0.744358
0.151947 0.0659131 0.743042
0.152799 0.066566 0.741893
0.153656 0.06722 0.740772
0.154582 0.0679056 0.739965
0.155508 0.0685907 0.739164
0.156467 0.0692906 0.73851
0.157373 0.0699656 0.737636
0.158273 0.0706375 0.736745
0.159184 0.0713141 0.735907
0.160063 0.0719755 0.734946
0.160979 0.0726535 0.734142
0.16184 0.0733055 0.733122
0.162746 0.0739782 0.732295
0.163542 0.0745987 0.731029
0.164405 0.0752498 0.730043
0.165271 0.0759024 0.72908
0.166216 0.0765917 0.728437
0.167167 0.0772836 0.727824
0.168167 0.0779993 0.727411
0.169109 0.0786868 0.726772
0.170026 0.0793618 0.726037
0.170961 0.0800455 0.725381
0.171718 0.0806422 0.724039
0.172459 0.0812311 0.722652
0.173162 0.0818008 0.721135
0.173849 0.0823614 0.719567
0.174486 0.0828971 0.717828
0.175308 0.0835228 0.7168
0.176169 0.0841667 0.715923
0.177095 0.0848425 0.715295
0.178064 0.0855389 0.714827
0.179091 0.0862643 0.714577
0.179909 0.0868858 0.713564
0.180626 0.087457 0.712196
0.181318 0.0880149 0.710748
0.181976 0.0885555 0.709193
0.182596 0.0890762 0.707516
0.183428 0.0897018 0.706603
0.184296 0.0903453 0.705825
0.185108 0.0909604 0.704857
0.185896 0.091563 0.703813
0.186673 0.09216 0.702742
0.187407 0.0927342 0.701528
0.188182 0.093329 0.700464
0.18902 0.093955 0.699626
0.189888 0.094596 0.698895
0.190815 0.0952671 0.698368
0.191719 0.095926 0.697767
0.192578 0.0965618 0.697019
0.193431 0.0971939 0.696254
0.194325 0.0978473 0.695633
0.195126 0.0984521 0.694706
0.195939 0.0990634 0.693831
0.196739 0.099667 0.692916
0.197498 0.10025 0.691875
0.198239 0.100822 0.690783
0.199064 0.101438 0.68997
0.199931 0.102075 0.689296
0.200841 0.102734 0.688763
0.201838 0.103439 0.688511
0.202822 0.104137 0.688215
0.203806 0.104835 0.687923
0.204758 0.105515 0.687531
0.205707 0.106195 0.687127
0.206531 0.106808 0.686341
0.207412 0.107452 0.685737
0.208269 0.108082 0.68506
0.209149 0.108725 0.684459
0.210035 0.10937 0.683876
0.211005 0.11006 0.683556
0.211959 0.110741 0.683184
0.212912 0.111421 0.682813
0.213862 0.1121 0.682431
0.214785 0.112764 0.681974
0.215708 0.113428 0.681514
0.216629 0.114092 0.681056
0.217598 0.11478 0.680737
0.218549 0.115459 0.680365
0.219475 0.116125 0.679925
0.220463 0.116823 0.679662
0.221478 0.117537 0.67948
0.222504 0.118256 0.67933
0.223558 0.11899 0.679256
0.224649 0.119744 0.679284
0.225668 0.12046 0.67911
0.226709 0.121187 0.678996
0.227801 0.121942 0.679022
0.228899 0.122701 0.679065
0.229976 0.123448 0.679046
0.231046 0.124192 0.679005
0.232112 0.124933 0.678952
0.23316 0.125665 0.678849
0.234241 0.126414 0.678834
0.235414 0.127215 0.679067
0.23659 0.128017 0.679304
0.237817 0.128847 0.679675
0.239078 0.129696 0.680128
0.240322 0.130535 0.680532
0.241492 0.131336 0.680737
0.242675 0.132142 0.680969
0.243831 0.132935 0.681129
0.245022 0.133746 0.681374
0.246251 0.134579 0.681715
0.247531 0.135441 0.682185
0.248831 0.136314 0.682704
0.250137 0.13719 0.683228
0.25145 0.13807 0.683764
0.252823 0.138985 0.684447
0.254198 0.1399 0.685131
0.255608 0.140836 0.685894
0.25707 0.1418 0.686779
0.258492 0.142744 0.687557
0.25997 0.143718 0.688467
0.261477 0.14471 0.689438
0.26307 0.14575 0.690617
0.264739 0.146832 0.69197
0.266421 0.147923 0.693344
0.268077 0.149 0.694643
0.26981 0.150121 0.696114
0.27167 0.151314 0.697885
0.27343 0.152451 0.699397
0.124912 0.0458165 0.799727
0.125865 0.0465411 0.798512
0.126771 0.0472457 0.797049
0.127598 0.0479169 0.795167
0.128429 0.0485889 0.793339
0.129317 0.0492828 0.791841
0.13015 0.0499529 0.790064
0.130951 0.0506089 0.788146
0.131705 0.0512437 0.786002
0.132396 0.0518506 0.783557
0.133019 0.0524269 0.78079
0.133631 0.0529967 0.778005
0.134243 0.0535647 0.775258
0.134954 0.0541731 0.773051
0.135666 0.0547804 0.770876
0.136416 0.0554025 0.768917
0.137213 0.0560441 0.767221
0.138056 0.056704 0.765766
0.138813 0.0573261 0.763914
0.139642 0.057978 0.762428
0.140471 0.0586294 0.760962
0.141291 0.059276 0.759472
0.14214 0.0599343 0.758133
0.142985 0.0605906 0.756796
0.143759 0.0612138 0.755135
0.144511 0.0618263 0.753393
0.145307 0.0624573 0.751871
0.146108 0.0630902 0.750395
0.146945 0.0637385 0.749098
0.147813 0.0643999 0.747953
0.148675 0.0650579 0.746792
0.149481 0.06569 0.745397
0.150301 0.0663272 0.744073
0.151101 0.0669551 0.742681
0.151953 0.0676059 0.741527
0.152824 0.0682653 0.740472
0.153768 0.0689578 0.73974
0.154698 0.0696435 0.738955
0.155658 0.0703433 0.738306
0.15658 0.0710246 0.737498
0.157462 0.0716868 0.73653
0.158357 0.0723546 0.735625
0.159252 0.073022 0.734728
0.160185 0.073707 0.733994
0.161051 0.0743599 0.732993
0.161978 0.0750413 0.732248
0.162794 0.0756694 0.73106
0.16364 0.0763114 0.730005
0.164505 0.0769614 0.729031
0.165448 0.0776494 0.728384
0.166399 0.0783408 0.72777
0.167384 0.0790486 0.727296
0.168345 0.0797443 0.726728
0.169263 0.0804193 0.726
0.1702 0.081103 0.725349
0.170938 0.0816886 0.723932
0.171693 0.082282 0.722595
0.172394 0.082848 0.721063
0.173082 0.0834065 0.719494
0.173722 0.0839412 0.717765
0.174566 0.084576 0.716815
0.17543 0.0852199 0.715945
0.176357 0.0858956 0.715321
0.177327 0.0865924 0.714858
0.178355 0.0873178 0.714608
0.179227 0.0879654 0.713793
0.179968 0.0885464 0.712505
0.180665 0.0891045 0.711069
0.181343 0.0896528 0.70958
0.181963 0.0901704 0.707893
0.18274 0.090767 0.706781
0.183608 0.0914098 0.706003
0.18444 0.0920335 0.7051
0.185232 0.0926368 0.704067
0.186033 0.093244 0.703072
0.186791 0.0938291 0.701938
0.187567 0.0944226 0.700873
0.18841 0.0950503 0.700048
0.189259 0.0956807 0.699247
0.190163 0.0963393 0.698641
0.191062 0.0969951 0.69802
0.1919 0.0976191 0.6972
0.192735 0.0982412 0.696374
0.193627 0.0988923 0.695743
0.194425 0.0994949 0.694807
0.195239 0.100105 0.693929
0.196063 0.10072 0.693088
0.196846 0.101313 0.692122
0.19761 0.101896 0.691102
0.198457 0.102523 0.690356
0.199326 0.10316 0.689688
0.200241 0.103821 0.689167
0.201239 0.104527 0.688917
0.202223 0.105224 0.688618
0.203203 0.10592 0.688313
0.204137 0.106591 0.687857
0.205061 0.107257 0.687378
0.205861 0.107857 0.686513
0.206741 0.108499 0.685903
0.207603 0.109131 0.68524
0.208487 0.109775 0.684648
0.209369 0.110418 0.684055
0.210336 0.111105 0.683721
0.211265 0.111773 0.683276
0.212221 0.112455 0.68291
0.213194 0.113146 0.6826
0.214146 0.113825 0.682223
0.215094 0.114503 0.681841
0.216043 0.11518 0.68146
0.217014 0.11587 0.681144
0.217986 0.116561 0.680835
0.218938 0.11724 0.680463
0.219928 0.117939 0.680207
0.220942 0.118652 0.680019
0.221988 0.119383 0.679925
0.223039 0.120116 0.679841
0.22413 0.120871 0.679869
0.225174 0.1216 0.679759
0.226237 0.122341 0.679707
0.227308 0.123085 0.679673
0.228385 0.123832 0.679654
0.229486 0.124593 0.6797
0.230582 0.125352 0.679729
0.231654 0.126097 0.67969
0.232727 0.126843 0.679654
0.233826 0.127603 0.679686
0.234978 0.128393 0.679858
0.236136 0.129186 0.680042
0.237368 0.130021 0.680427
0.23863 0.130871 0.680883
0.239875 0.131713 0.681289
0.241044 0.132513 0.681487
0.242248 0.133333 0.681775
0.243406 0.134127 0.681935
0.24457 0.134926 0.682112
0.245795 0.135758 0.682442
0.247071 0.136618 0.682899
0.248352 0.137482 0.683363
0.249683 0.138374 0.683953
0.25105 0.139287 0.684629
0.252457 0.140222 0.685399
0.253869 0.141161 0.686176
0.255306 0.142114 0.687006
0.256741 0.143066 0.687823
0.258158 0.144009 0.688587
0.259606 0.144969 0.68942
0.261089 0.14595 0.690331
0.262684 0.146994 0.691513
0.264433 0.148125 0.693067
0.266181 0.149257 0.694606
0.267939 0.150395 0.696153
0.269769 0.151574 0.697863
0.271614 0.152763 0.699597
0.124041 0.0469407 0.799389
0.125053 0.0476876 0.798498
0.125991 0.0484031 0.797206
0.126887 0.0491005 0.795698
0.127761 0.0497877 0.794091
0.12867 0.0504887 0.792695
0.129507 0.0511581 0.790928
0.130324 0.0518179 0.789077
0.131063 0.0524432 0.786837
0.131758 0.0530479 0.784392
0.132371 0.0536157 0.781555
0.132983 0.0541814 0.778754
0.133562 0.0547304 0.775817
0.134239 0.0553204 0.773421
0.13492 0.0559107 0.771077
0.135652 0.056522 0.769021
0.136434 0.057154 0.767239
0.137274 0.0578109 0.765769
0.138051 0.0584386 0.764004
0.138884 0.0590905 0.762535
0.139719 0.0597421 0.761089
0.140541 0.0603872 0.759601
0.141391 0.0610444 0.758265
0.142187 0.0616759 0.756684
0.14294 0.062287 0.754921
0.143673 0.0628877 0.753082
0.144454 0.0635098 0.751492
0.145258 0.0641413 0.750023
0.14613 0.0648037 0.748885
0.147001 0.0654646 0.747749
0.147864 0.0661213 0.746592
0.148671 0.0667517 0.745198
0.14949 0.0673865 0.743867
0.150277 0.0680059 0.742412
0.151129 0.0686551 0.741259
0.152016 0.0693202 0.74027
0.152976 0.0700192 0.739606
0.15389 0.0706966 0.738753
0.154865 0.0714026 0.738168
0.155802 0.0720897 0.737421
0.156685 0.0727513 0.736457
0.157565 0.0734107 0.735487
0.158477 0.074085 0.73466
0.159411 0.0747697 0.73393
0.16028 0.0754223 0.732936
0.16121 0.0761044 0.732204
0.162046 0.07674 0.731091
0.162893 0.0773808 0.730036
0.163741 0.0780214 0.728993
0.164683 0.0787083 0.72834
0.165634 0.0793988 0.727725
0.16662 0.0801068 0.727256
0.167583 0.0808031 0.726697
0.168522 0.0814872 0.726046
0.16946 0.0821703 0.725395
0.170177 0.0827434 0.723894
0.17091 0.0833237 0.722468
0.171606 0.0838846 0.720912
0.172292 0.0844402 0.719337
0.172939 0.0849747 0.717624
0.173803 0.0856184 0.71675
0.17469 0.0862727 0.715964
0.175619 0.0869484 0.715344
0.176573 0.0876368 0.714822
0.177599 0.0883613 0.714566
0.178474 0.0890093 0.71376
0.179237 0.0895997 0.71255
0.17994 0.0901584 0.71113
0.180656 0.0907237 0.709774
0.181276 0.0912387 0.708082
0.18205 0.0918321 0.706955
0.182917 0.092473 0.706168
0.183769 0.0931061 0.705335
0.184566 0.0937105 0.704316
0.185391 0.0943285 0.7034
0.186171 0.0949234 0.702337
0.186949 0.0955165 0.701276
0.187775 0.0961342 0.700387
0.188602 0.0967524 0.69951
0.189484 0.0973987 0.698826
0.190381 0.0980527 0.698195
0.191201 0.0986659 0.697311
0.192037 0.0992871 0.696485
0.192928 0.0999373 0.695849
0.193744 0.100548 0.694969
0.194558 0.101157 0.694091
0.195406 0.101784 0.693327
0.196212 0.102388 0.692432
0.197019 0.102992 0.691546
0.197867 0.103618 0.690801
0.198739 0.104256 0.690136
0.199654 0.104918 0.689616
0.200633 0.105613 0.6893
0.201596 0.106299 0.688936
0.202576 0.106995 0.688625
0.203489 0.107654 0.688103
0.20439 0.108307 0.68755
0.205208 0.108915 0.686741
0.206089 0.109557 0.686129
0.206953 0.11019 0.685469
0.207842 0.110836 0.684893
0.208724 0.111478 0.684297
0.209667 0.112153 0.683891
0.210573 0.112807 0.683372
0.211527 0.113487 0.683001
0.212523 0.114191 0.682758
0.213499 0.114883 0.682454
0.214473 0.115575 0.682145
0.215446 0.116266 0.681834
0.21642 0.116957 0.681526
0.217395 0.117648 0.681222
0.218368 0.118339 0.680913
0.219362 0.119041 0.680663
0.220399 0.119767 0.680541
0.221466 0.120509 0.680501
0.222537 0.121254 0.680477
0.223632 0.122011 0.680511
0.224698 0.122753 0.680466
0.225743 0.123484 0.680358
0.226814 0.124229 0.680322
0.227871 0.124966 0.680245
0.228971 0.125727 0.680288
0.230071 0.126488 0.680326
0.231167 0.127248 0.680352
0.232244 0.127996 0.680323
0.233366 0.12877 0.680417
0.234521 0.129563 0.680598
0.235682 0.130358 0.680789
0.236919 0.131197 0.681183
0.238182 0.13205 0.681641
0.239424 0.132892 0.682039
0.240617 0.133706 0.682297
0.241824 0.134529 0.682591
0.242982 0.135325 0.682751
0.244124 0.136111 0.682864
0.245343 0.136942 0.68318
0.246597 0.137791 0.683576
0.247901 0.13867 0.684103
0.249264 0.139582 0.684775
0.25069 0.140529 0.685602
0.252126 0.141483 0.686445
0.253541 0.142426 0.687228
0.254947 0.143364 0.68798
0.256329 0.144289 0.688661
0.257714 0.145216 0.689342
0.259137 0.146164 0.690111
0.260618 0.147146 0.691017
0.262217 0.148196 0.692213
0.264082 0.149397 0.694056
0.265927 0.150588 0.695837
0.267816 0.151804 0.697707
0.269748 0.153046 0.69967
0.124219 0.0488247 0.798363
0.125203 0.0495577 0.797319
0.126148 0.0502739 0.796079
0.127042 0.0509673 0.794571
0.127972 0.0516751 0.793277
0.128811 0.052343 0.791509
0.129645 0.0530075 0.789736
0.13039 0.053632 0.787513
0.131105 0.0542418 0.785161
0.131734 0.0548124 0.782391
0.132348 0.0553742 0.779576
0.13291 0.0559113 0.776535
0.133556 0.0564838 0.773965
0.134218 0.0570618 0.771509
0.134921 0.0576568 0.769294
0.135689 0.0582796 0.767431
0.1365 0.058921 0.765808
0.137278 0.0595462 0.764039
0.138098 0.0601899 0.7625
0.138922 0.0608346 0.761001
0.139746 0.0614781 0.759514
0.140596 0.0621332 0.758174
0.141358 0.0627464 0.756426
0.142094 0.0633464 0.754574
0.14282 0.0639412 0.752702
0.143584 0.0645525 0.751027
0.14439 0.0651822 0.749562
0.145296 0.0658587 0.748579
0.146183 0.0665257 0.747518
0.147065 0.0671898 0.746445
0.14789 0.0678266 0.745129
0.148729 0.0684687 0.743884
0.149534 0.0690943 0.742502
0.150374 0.0697359 0.74129
0.151262 0.0704003 0.740303
0.152221 0.0710982 0.739635
0.153118 0.0717659 0.738703
0.15406 0.0724552 0.737975
0.155011 0.0731483 0.737289
0.155879 0.0738009 0.736257
0.156744 0.0744517 0.735222
0.157674 0.0751335 0.734468
0.158608 0.0758172 0.733739
0.159477 0.0764688 0.732747
0.160409 0.0771504 0.732019
0.161261 0.0777926 0.730973
0.162109 0.0784326 0.729921
0.162976 0.0790807 0.72895
0.16392 0.0797675 0.728302
0.164888 0.0804661 0.727756
0.165875 0.0811742 0.72729
0.166838 0.0818698 0.726729
0.167776 0.0825524 0.726071
0.168713 0.0832347 0.725417
0.169433 0.0838068 0.723923
0.170149 0.0843758 0.722424
0.170844 0.084934 0.720863
0.171531 0.0854869 0.719282
0.172197 0.0860288 0.71764
0.173066 0.0866734 0.71678
0.173972 0.0873371 0.716068
0.174901 0.0880121 0.715446
0.175835 0.0886895 0.714847
0.176805 0.0893853 0.714386
0.177678 0.0900307 0.713569
0.178463 0.0906304 0.712435
0.179176 0.0911923 0.711051
0.179916 0.0917673 0.709774
0.180569 0.092297 0.708199
0.18134 0.0928871 0.707058
0.182187 0.0935168 0.706198
0.18306 0.0941596 0.705437
0.183879 0.094774 0.704492
0.18471 0.095394 0.703595
0.185508 0.0959963 0.702589
0.186306 0.0965984 0.701593
0.187109 0.0972031 0.700621
0.187917 0.0978098 0.699676
0.188797 0.0984541 0.69898
0.189674 0.0990967 0.698282
0.190477 0.0997 0.697336
0.191314 0.100321 0.696515
0.192206 0.10097 0.695879
0.193043 0.101591 0.695067
0.19388 0.102211 0.694259
0.19477 0.102859 0.693635
0.195621 0.103486 0.692882
0.196452 0.104102 0.692073
0.19732 0.104738 0.691388
0.198191 0.105375 0.690718
0.199084 0.106024 0.690121
0.200022 0.106697 0.68967
0.200981 0.107381 0.689291
0.201921 0.108055 0.688854
0.202814 0.108703 0.688269
0.203698 0.109346 0.687657
0.204533 0.109963 0.686899
0.205415 0.110604 0.686289
0.206303 0.111249 0.685703
0.207217 0.111908 0.685198
0.208102 0.112551 0.684611
0.209042 0.113224 0.684192
0.209925 0.113865 0.683604
0.210856 0.114533 0.683161
0.211832 0.115225 0.682854
0.212826 0.115928 0.682607
0.213802 0.11662 0.682303
0.214798 0.117323 0.68206
0.215816 0.118038 0.68188
0.216814 0.118743 0.681642
0.217811 0.119447 0.681402
0.218829 0.120162 0.681219
0.219869 0.12089 0.681106
0.220918 0.121623 0.681012
0.221992 0.12237 0.680992
0.223067 0.123117 0.680973
0.224138 0.123862 0.680936
0.225206 0.124606 0.680895
0.226301 0.125365 0.680923
0.227377 0.126113 0.680898
0.228499 0.126887 0.680998
0.229622 0.127662 0.681099
0.230703 0.128414 0.68108
0.231781 0.129164 0.681053
0.232905 0.129939 0.68115
0.23408 0.130744 0.681383
0.235245 0.131543 0.681583
0.236508 0.132398 0.682045
0.237747 0.133239 0.682441
0.238987 0.134081 0.68283
0.240154 0.134882 0.683019
0.241366 0.135709 0.683323
0.242531 0.13651 0.6835
0.243701 0.137313 0.683687
0.244944 0.138158 0.684062
0.24622 0.139022 0.684516
0.247534 0.139908 0.685065
0.24893 0.14084 0.685822
0.250384 0.141807 0.686722
0.251821 0.142764 0.687565
0.25323 0.143706 0.688331
0.254608 0.144629 0.689009
0.255959 0.145538 0.689608
0.257341 0.146465 0.69028
0.258765 0.147417 0.691052
0.260227 0.148391 0.691911
0.261959 0.14952 0.69344
0.263973 0.150811 0.69566
0.265928 0.15207 0.697711
0.267924 0.153352 0.699845
0.269966 0.154663 0.702077
0.125296 0.0510962 0.802388
0.125847 0.05164 0.798904
0.126702 0.052315 0.797151
0.127387 0.052914 0.794489
0.128001 0.0534795 0.791477
0.128884 0.0541632 0.789963
0.129678 0.0548058 0.787988
0.130428 0.0554279 0.785811
0.131065 0.0559975 0.783063
0.131682 0.056556 0.780245
0.132243 0.0570878 0.777181
0.132859 0.0576425 0.774439
0.133506 0.0582096 0.771892
0.134196 0.0587951 0.769598
0.134935 0.0594015 0.767578
0.135731 0.0600336 0.765873
0.136506 0.0606547 0.764082
0.13731 0.0612883 0.762457
0.138133 0.0619304 0.760948
0.138971 0.0625781 0.759525
0.139824 0.0632322 0.75819
0.140556 0.0638287 0.756294
0.141274 0.0644173 0.754352
0.141982 0.065 0.752386
0.142731 0.0656011 0.750633
0.143521 0.0662212 0.749095
0.144458 0.0669112 0.748258
0.145366 0.0675866 0.747292
0.146253 0.0682512 0.746237
0.147097 0.0688949 0.745002
0.147951 0.0695429 0.743825
0.148761 0.0701683 0.742458
0.149603 0.0708096 0.741256
0.150509 0.0714812 0.740345
0.151452 0.0721705 0.739605
0.152332 0.0728283 0.738594
0.153271 0.0735153 0.737852
0.154222 0.0742076 0.737166
0.155093 0.0748598 0.736142
0.155976 0.0755181 0.735183
0.156923 0.0762074 0.734499
0.15784 0.0768816 0.733696
0.158708 0.077531 0.732695
0.159621 0.0782025 0.73189
0.160473 0.078843 0.730839
0.161323 0.079482 0.72979
0.162209 0.0801388 0.728898
0.163155 0.0808259 0.728259
0.164142 0.0815334 0.727787
0.165129 0.0822407 0.727317
0.166091 0.0829352 0.726751
0.167029 0.0836175 0.726095
0.167947 0.0842894 0.725367
0.16867 0.0848602 0.723877
0.169389 0.0854285 0.722386
0.170107 0.0859959 0.720909
0.170797 0.0865481 0.719337
0.171503 0.0871073 0.717837
0.172374 0.0877522 0.716983
0.173278 0.088414 0.716262
0.174188 0.089078 0.715564
0.175098 0.0897427 0.714876
0.176026 0.0904157 0.714255
0.176892 0.0910565 0.713412
0.177697 0.091665 0.712351
0.178414 0.0922266 0.710977
0.179182 0.0928146 0.709801
0.179859 0.0933538 0.708303
0.180629 0.0939422 0.707158
0.181457 0.0945605 0.706228
0.182351 0.095213 0.705538
0.183173 0.0958276 0.7046
0.184005 0.096447 0.703704
0.184801 0.0970473 0.702693
0.185578 0.0976364 0.701617
0.186342 0.0982186 0.700506
0.187148 0.0988225 0.699552
0.188007 0.0994549 0.698785
0.188867 0.100088 0.698029
0.189689 0.1007 0.697148
0.190548 0.101331 0.696396
0.191442 0.101981 0.695769
0.192322 0.102623 0.695099
0.193203 0.103266 0.694437
0.19414 0.103939 0.693962
0.195034 0.104589 0.693353
0.19591 0.105228 0.692685
0.196784 0.105866 0.692013
0.197634 0.106491 0.691268
0.198479 0.107113 0.690516
0.199368 0.107759 0.689907
0.200284 0.108419 0.689388
0.201183 0.109071 0.688821
0.202075 0.109718 0.688231
0.202958 0.11036 0.687617
0.203797 0.110977 0.686868
0.204682 0.11162 0.686267
0.205615 0.112289 0.685819
0.20655 0.112958 0.68538
0.207438 0.113603 0.684799
0.208398 0.114286 0.68444
0.209302 0.114938 0.68391
0.210211 0.115594 0.683402
0.211185 0.116285 0.683089
0.212179 0.116987 0.682837
0.213131 0.117666 0.682463
0.214128 0.11837 0.682219
0.215167 0.119097 0.682105
0.216169 0.119804 0.681877
0.217213 0.120534 0.681771
0.218255 0.121263 0.681661
0.219321 0.122006 0.681619
0.220394 0.122752 0.681594
0.221495 0.123515 0.681649
0.222571 0.124263 0.681628
0.223686 0.125034 0.681719
0.22478 0.125793 0.681746
0.225879 0.126555 0.681785
0.226956 0.127304 0.68176
0.228078 0.128079 0.681859
0.229176 0.12884 0.681886
0.230236 0.129581 0.681806
0.231338 0.130345 0.681841
0.232487 0.131136 0.682005
0.233665 0.131943 0.682246
0.234831 0.132744 0.682447
0.23609 0.133598 0.682897
0.237304 0.134426 0.68322
0.238543 0.13527 0.683606
0.239736 0.136087 0.683863
0.240978 0.136932 0.684247
0.242177 0.137753 0.684509
0.243373 0.138572 0.684762
0.244619 0.13942 0.685141
0.245899 0.140288 0.685605
0.247241 0.141192 0.686229
0.248645 0.142132 0.687005
0.250103 0.143103 0.68791
0.251511 0.144045 0.688678
0.25289 0.144972 0.689363
0.254188 0.145852 0.689833
0.255507 0.146745 0.690353
0.256868 0.147662 0.690969
0.258318 0.14863 0.691807
0.262174 0.150991 0.698717
0.264296 0.15235 0.701205
0.122074 0.0464585 0.854319
0.12043 0.0470113 0.857171
0.120834 0.0475209 0.851997
0.122149 0.0468372 0.847244
0.121228 0.0480222 0.846843
0.123294 0.0476573 0.846713
0.122379 0.0488444 0.846354
0.124463 0.0484874 0.846332
0.123548 0.0496739 0.845973
0.124656 0.0504773 0.845233
0.125936 0.0531913 0.803949
0.126483 0.0537267 0.800434
0.126853 0.0541799 0.795993
0.127209 0.0546239 0.791543
0.128143 0.0553288 0.790302
0.128975 0.0559858 0.788522
0.129763 0.0566215 0.786527
0.130435 0.0572028 0.783948
0.131071 0.0577659 0.781213
0.13164 0.0582962 0.778166
0.132242 0.0588402 0.775333
0.132877 0.0593973 0.772702
0.133549 0.059971 0.770302
0.134243 0.0605534 0.768043
0.135006 0.0611672 0.766162
0.135763 0.0617766 0.764268
0.136548 0.0623989 0.762542
0.137338 0.0630223 0.76086
0.138177 0.0636687 0.75944
0.139028 0.0643198 0.758092
0.139749 0.0649078 0.756136
0.140453 0.0654864 0.75412
0.141163 0.0660666 0.752155
0.141895 0.066657 0.750322
0.142671 0.0672672 0.748711
0.143626 0.067965 0.747958
0.144538 0.0686407 0.747009
0.145443 0.0693129 0.746038
0.146307 0.0699643 0.74489
0.147178 0.0706187 0.743785
0.148004 0.0712504 0.74249
0.148865 0.0718989 0.741364
0.149775 0.0725711 0.740466
0.150699 0.0732501 0.73964
0.151576 0.0739051 0.738613
0.152498 0.0745824 0.737795
0.15345 0.0752746 0.737114
0.154323 0.0759266 0.736098
0.155225 0.0765927 0.735214
0.156172 0.0772814 0.73453
0.157071 0.0779455 0.733649
0.157938 0.0785927 0.73264
0.15883 0.0792524 0.731745
0.159683 0.0798917 0.730696
0.160533 0.0805292 0.729646
0.161441 0.0811961 0.728842
0.16239 0.0818839 0.728213
0.163396 0.0826007 0.727818
0.164382 0.0833074 0.727346
0.165327 0.0839922 0.726709
0.166262 0.0846723 0.726041
0.167181 0.0853434 0.725312
0.167941 0.0859312 0.723964
0.168684 0.0865099 0.722564
0.169427 0.0870879 0.721176
0.170139 0.0876486 0.719679
0.170864 0.0882162 0.718252
0.171701 0.0888418 0.717262
0.172589 0.0894937 0.716473
0.173492 0.0901539 0.71575
0.174363 0.0907964 0.714909
0.175248 0.0914465 0.71413
0.176108 0.0920826 0.713262
0.176926 0.0926963 0.712247
0.177651 0.0932601 0.7109
0.178445 0.0938599 0.709814
0.179144 0.0944087 0.708394
0.179917 0.0949966 0.707255
0.180728 0.0956042 0.706259
0.18164 0.096266 0.705633
0.182464 0.0968804 0.7047
0.183296 0.0974984 0.703801
0.184092 0.098097 0.702785
0.184866 0.0986834 0.701697
0.185592 0.0992432 0.700452
0.186397 0.099845 0.69949
0.187256 0.100476 0.698722
0.188097 0.101097 0.697899
0.18892 0.101709 0.697019
0.189796 0.102348 0.696327
0.190695 0.103 0.695713
0.191581 0.103645 0.695063
0.192486 0.1043 0.694481
0.193446 0.104985 0.694083
0.194388 0.10566 0.693627
0.195311 0.106325 0.693113
0.19623 0.106987 0.692583
0.197097 0.10762 0.691892
0.197939 0.10824 0.691125
0.1988 0.10887 0.690421
0.199691 0.109516 0.689819
0.200568 0.110154 0.689175
0.201439 0.110789 0.688518
0.202299 0.111417 0.687827
0.20314 0.112035 0.687084
0.204008 0.112667 0.686427
0.204945 0.113338 0.68599
0.205902 0.11402 0.68562
0.206792 0.114664 0.685042
0.207756 0.11535 0.684694
0.20866 0.116002 0.684162
0.209551 0.116646 0.683596
0.210521 0.117335 0.683272
0.211514 0.118037 0.683016
0.212465 0.118715 0.682637
0.213483 0.119431 0.682455
0.214546 0.120172 0.682412
0.215552 0.120881 0.682195
0.216622 0.121626 0.682167
0.217687 0.122368 0.682121
0.218802 0.123139 0.682219
0.219922 0.123914 0.682332
0.221069 0.124703 0.682516
0.222189 0.125477 0.682619
0.223328 0.126262 0.682774
0.224404 0.127011 0.682745
0.225509 0.127777 0.682797
0.226568 0.128517 0.682718
0.227665 0.129279 0.682745
0.228762 0.130041 0.682767
0.229841 0.130792 0.682734
0.230925 0.131546 0.682718
0.232097 0.132352 0.682942
0.23328 0.133163 0.683192
0.234421 0.133951 0.683325
0.235658 0.134794 0.683714
