ply
format ascii 1.0
element vertex 1475
property float x
property float y
property float z
end_header
0.00564945 -0.036346 0.00788508
0.00569862 -0.0363008 0.00786872
0.00574704 -0.0362551 0.0078508
0.00579216 -0.036207 0.00782569
0.00583726 -0.036159 0.00780056
0.00588106 -0.0361101 0.00777277
0.00592775 -0.0360634 0.00775144
0.00597116 -0.0360144 0.00772302
0.00601748 -0.0359676 0.00770113
0.00606226 -0.0359197 0.00767605
0.00610413 -0.0358699 0.00764474
0.00614391 -0.0358187 0.00760907
0.00618639 -0.0357696 0.00757941
0.00622572 -0.0357183 0.00754318
0.00626397 -0.0356665 0.00750482
0.00630511 -0.0356167 0.00747285
0.00634614 -0.035567 0.00744086
0.00638384 -0.0355152 0.00740195
0.00642793 -0.0354678 0.00737678
0.0064757 -0.0354229 0.00735943
0.0065257 -0.0353796 0.00734692
0.00657908 -0.0353386 0.00734149
0.00663538 -0.0352994 0.00734211
0.00668846 -0.0352581 0.00733601
0.00674636 -0.03522 0.00733989
0.00680815 -0.0351843 0.0073517
0.00686889 -0.0351478 0.00736124
0.00693136 -0.0351124 0.00737425
0.00699158 -0.0350755 0.00738254
0.00704492 -0.0350342 0.0073767
0.00709285 -0.0349896 0.00735991
0.00714027 -0.0349447 0.00734215
0.00718574 -0.0348987 0.00732047
0.0072331 -0.0348539 0.00730276
0.0072825 -0.0348103 0.00728926
0.00733053 -0.034766 0.00727299
0.00737832 -0.0347215 0.00725634
0.00742423 -0.034676 0.00723596
0.00747166 -0.0346315 0.00721878
0.00751953 -0.0345872 0.00720248
0.00757097 -0.0345451 0.0071933
0.00762069 -0.0345019 0.00718069
0.00767332 -0.0344605 0.00717386
0.00772239 -0.0344171 0.00716009
0.00776838 -0.0343719 0.00714041
0.00781384 -0.0343265 0.00711981
0.00785724 -0.0342801 0.00709529
0.00789493 -0.0342305 0.00705982
0.00793202 -0.0341808 0.00702357
0.00797253 -0.034133 0.00699389
0.008007 -0.034082 0.00695289
0.00804483 -0.0340331 0.00691855
0.00808584 -0.0339859 0.00689032
0.00812683 -0.0339388 0.00686224
0.00817392 -0.0338949 0.00684571
0.00822873 -0.0338552 0.0068438
0.00828591 -0.0338166 0.00684629
0.00833932 -0.033776 0.00684163
0.0083935 -0.0337359 0.00683847
0.00844024 -0.033692 0.00682145
0.00848683 -0.0336481 0.00680429
0.00852991 -0.0336024 0.00678063
0.00857288 -0.0335568 0.00675698
0.00861369 -0.0335101 0.00672941
0.00865424 -0.0334635 0.00670148
0.008693 -0.033416 0.00667049
0.00873397 -0.0333697 0.00664359
0.00878037 -0.033326 0.00662665
0.00883069 -0.0332843 0.00661688
0.00888713 -0.0332455 0.00661806
0.00894393 -0.0332068 0.0066199
0.00900438 -0.0331697 0.0066283
0.00906448 -0.0331325 0.00663591
0.00912321 -0.0330945 0.00664097
0.00917816 -0.0330548 0.00663933
0.00923281 -0.033015 0.00663715
0.00928512 -0.0329741 0.00663072
0.00933161 -0.0329307 0.00661418
0.00937589 -0.0328862 0.00659384
0.00941978 -0.0328417 0.0065728
0.00945644 -0.0327941 0.00653925
0.00949251 -0.0327463 0.00650492
0.00953012 -0.0326994 0.00647336
0.00956248 -0.0326502 0.00643279
0.0095911 -0.0325997 0.00638606
0.00962428 -0.0325511 0.00634743
0.00965199 -0.0325004 0.00629953
0.009674 -0.0324476 0.00624211
0.00969573 -0.0323948 0.00618461
0.00970736 -0.0323381 0.00611013
0.00970871 -0.0322775 0.00601863
0.00970146 -0.0322138 0.00591315
0.00969343 -0.0321502 0.00580684
0.0096844 -0.0320865 0.00569938
0.00968345 -0.0320264 0.00560609
0.00968528 -0.0319676 0.00551784
0.00968701 -0.0319091 0.00542995
0.00967718 -0.0318464 0.00532324
0.00965676 -0.0317802 0.00519957
0.0096296 -0.0317118 0.0050654
0.00960979 -0.0316466 0.00494397
0.00960278 -0.0315865 0.00484427
0.00961616 -0.0315343 0.00477854
0.00965645 -0.031492 0.00475709
0.00972525 -0.0314601 0.00478224
0.00982226 -0.0314381 0.00485313
0.00993727 -0.0314223 0.00495284
0.0100704 -0.0314124 0.00508119
0.0102132 -0.0314055 0.0052245
0.0103629 -0.0314004 0.00537819
0.0105136 -0.0313952 0.00553253
0.0106682 -0.0313907 0.00569238
0.0108161 -0.0313835 0.00584063
0.0109492 -0.0313706 0.00596448
0.0110673 -0.0313524 0.00606371
0.0111708 -0.031329 0.00613943
0.0112668 -0.0313028 0.0062028
0.0113654 -0.0312773 0.00626986
0.0114707 -0.0312537 0.00634717
0.0115793 -0.0312308 0.00642915
0.00261783 -0.0412489 0.0122996
0.00264848 -0.0411646 0.0122029
0.00268215 -0.0410848 0.0121166
0.00272165 -0.0410131 0.0120488
0.00275244 -0.0409305 0.011955
0.00277994 -0.0408443 0.0118519
0.00280293 -0.0407529 0.011736
0.0028339 -0.0406722 0.0116452
0.00286421 -0.0405912 0.0115533
0.00290062 -0.0405183 0.0114805
0.00293966 -0.0404491 0.0114161
0.00297573 -0.0403765 0.0113434
0.00301096 -0.0403034 0.0112688
0.00304611 -0.0402305 0.0111947
0.00308296 -0.0401601 0.0111261
0.00312022 -0.0400905 0.0110592
0.00316288 -0.0400276 0.0110086
0.00319843 -0.0399567 0.0109379
0.00323609 -0.0398886 0.0108738
0.00327075 -0.0398174 0.0108015
0.00330131 -0.0397418 0.0107182
0.00332857 -0.0396629 0.0106262
0.00335509 -0.0395837 0.0105329
0.00337562 -0.0394982 0.0104235
0.00339893 -0.0394164 0.0103228
0.00342534 -0.0393386 0.0102315
0.00345369 -0.0392634 0.0101464
0.00348614 -0.0391931 0.0100731
0.00352121 -0.039126 0.0100078
0.00355367 -0.0390564 0.00993576
0.00358581 -0.0389868 0.00986349
0.00361633 -0.0389159 0.00978734
0.00364212 -0.0388404 0.00969892
0.00366732 -0.0387648 0.00960963
0.00369089 -0.0386878 0.00951667
0.00371451 -0.0386114 0.00942461
0.00374243 -0.0385399 0.00934465
0.00377365 -0.0384721 0.00927403
0.00380379 -0.0384036 0.00920113
0.00383511 -0.0383366 0.00913186
0.0038687 -0.0382722 0.00906907
0.00389935 -0.0382052 0.008999
0.00393308 -0.0381416 0.00893755
0.00397246 -0.0380838 0.00889111
0.00401663 -0.0380308 0.00885731
0.00406254 -0.0379796 0.00882827
0.00410992 -0.03793 0.00880313
0.00415689 -0.0378801 0.00877703
0.00419768 -0.0378244 0.00873549
0.0042324 -0.0377633 0.00867888
0.00427347 -0.0377083 0.00863866
0.00431529 -0.0376542 0.00860057
0.00435669 -0.0375998 0.00856166
0.00440066 -0.037548 0.00852943
0.00445105 -0.0375021 0.0085133
0.00449017 -0.0374461 0.00846945
0.00453504 -0.0373955 0.00844004
0.00458133 -0.0373462 0.00841423
0.00463077 -0.0372998 0.00839623
0.00467755 -0.0372511 0.00837189
0.00472397 -0.0372022 0.00834682
0.00476543 -0.0371491 0.00831
0.00480784 -0.037097 0.00827561
0.00484633 -0.0370417 0.00823207
0.0048863 -0.0369878 0.00819235
0.00492897 -0.0369363 0.00815933
0.00497151 -0.0368849 0.00812617
0.00501403 -0.0368336 0.00809312
0.00505938 -0.0367847 0.00806698
0.00510663 -0.0367375 0.00804542
0.00515572 -0.0366918 0.0080282
0.00520795 -0.0366487 0.00801842
0.00525872 -0.0366045 0.00800523
0.00530612 -0.0365577 0.00798435
0.0053528 -0.0365103 0.00796196
0.00539945 -0.036463 0.00793956
0.00544501 -0.0364149 0.00791487
0.00549252 -0.0363684 0.00789468
0.00554458 -0.0363255 0.00788487
0.00559518 -0.0362814 0.00787188
0.00564115 -0.0362339 0.00784845
0.0056896 -0.0361884 0.00783073
0.00573478 -0.0361404 0.0078058
0.00577994 -0.0360925 0.00778095
0.00582497 -0.0360447 0.0077559
0.00587165 -0.0359981 0.00773474
0.00591353 -0.035948 0.00770305
0.0059582 -0.0359002 0.00767763
0.00600111 -0.0358511 0.00764857
0.00604127 -0.0358002 0.00761357
0.00608099 -0.0357491 0.0075779
0.00612497 -0.0357012 0.00755162
0.00616632 -0.0356514 0.00751987
0.00620807 -0.0356021 0.00748908
0.00625275 -0.0355549 0.00746479
0.00629544 -0.0355065 0.00743637
0.00633479 -0.0354558 0.00740094
0.00637884 -0.0354085 0.00737568
0.00642484 -0.0353625 0.00735471
0.00647341 -0.0353183 0.00733924
0.00652651 -0.0352772 0.0073333
0.00658097 -0.0352369 0.00733019
0.00663351 -0.0351953 0.00732309
0.0066912 -0.0351571 0.00732673
0.00675284 -0.0351214 0.00733839
0.00681382 -0.0350852 0.00734862
0.00687621 -0.0350497 0.00736164
0.00693816 -0.035014 0.0073736
0.00699339 -0.034974 0.00737177
0.00704322 -0.0349306 0.00735891
0.00709235 -0.0348868 0.00734468
0.00713817 -0.034841 0.00732373
0.00718567 -0.0347963 0.00730637
0.00723364 -0.034752 0.00728998
0.00727831 -0.0347057 0.00726708
0.00732403 -0.0346601 0.0072463
0.00736909 -0.0346142 0.00722438
0.00741284 -0.0345676 0.00719994
0.007457 -0.0345213 0.00717638
0.00750629 -0.034478 0.00716309
0.00755389 -0.0344338 0.00714658
0.00760489 -0.0343915 0.0071367
0.00765431 -0.0343484 0.00712375
0.00770175 -0.0343042 0.00710709
0.00774873 -0.0342598 0.00708954
0.00779172 -0.0342132 0.00706437
0.00782946 -0.0341638 0.00702912
0.00786857 -0.0341154 0.0069968
0.00790986 -0.0340681 0.00696879
0.00794644 -0.0340185 0.00693183
0.00798617 -0.0339706 0.00690111
0.00802869 -0.0339243 0.00687592
0.00807166 -0.0338783 0.00685156
0.00812053 -0.0338355 0.0068386
0.00817543 -0.0337958 0.00683689
0.00823252 -0.0337573 0.00683931
0.00828738 -0.0337176 0.00683747
0.00833987 -0.0336766 0.00683124
0.00838639 -0.0336327 0.0068139
0.00843295 -0.0335887 0.00679665
0.00847609 -0.0335432 0.00677322
0.00851741 -0.0334968 0.00674655
0.00855991 -0.0334511 0.00672214
0.00860055 -0.0334045 0.0066944
0.00863963 -0.0333573 0.00666396
0.00868233 -0.0333119 0.00664035
0.00873226 -0.0332701 0.00662988
0.00878304 -0.0332286 0.00662096
0.00884126 -0.0331906 0.00662548
0.00889963 -0.0331527 0.00663026
0.00895976 -0.0331155 0.00663809
0.00901814 -0.0330775 0.00664265
0.00907677 -0.0330395 0.00664771
0.00913169 -0.0329998 0.00664607
0.0091862 -0.0329599 0.00664366
0.00923821 -0.032919 0.00663682
0.00928256 -0.0328746 0.0066165
0.00932464 -0.0328293 0.00659229
0.00936469 -0.0327831 0.00656449
0.00939708 -0.0327338 0.00652358
0.00942925 -0.0326844 0.00648242
0.00946297 -0.0326359 0.00644419
0.00949332 -0.032586 0.00640028
0.00952009 -0.0325349 0.00635036
0.00955147 -0.0324857 0.00630871
0.00957743 -0.0324345 0.00625791
0.00960112 -0.0323825 0.00620343
0.00962107 -0.0323291 0.00614286
0.00963273 -0.0322727 0.00606855
0.00963421 -0.0322124 0.00597722
0.00963081 -0.0321504 0.00587816
0.00962551 -0.032088 0.00577633
0.00962108 -0.0320264 0.00567657
0.00962462 -0.0319682 0.00559072
0.00963024 -0.031911 0.00550877
0.00963179 -0.0318525 0.00542039
0.00961815 -0.0317886 0.0053072
0.00959547 -0.0317217 0.00517958
0.00956997 -0.0316542 0.00504794
0.00955078 -0.0315894 0.00492738
0.00954474 -0.0315299 0.00482916
0.00956555 -0.0314804 0.00477555
0.00961296 -0.0314408 0.00476583
0.00968774 -0.031411 0.00480091
0.00978918 -0.0313905 0.00487921
0.00990994 -0.0313766 0.0049885
0.0100491 -0.0313687 0.00512702
0.0101929 -0.031362 0.00527228
0.0103395 -0.0313556 0.0054212
0.0104856 -0.0313485 0.00556842
0.010633 -0.0313415 0.00571712
0.01077 -0.0313303 0.00584819
0.0108985 -0.0313159 0.00596515
0.0110142 -0.0312968 0.00606103
0.0111194 -0.0312738 0.00613953
0.0112129 -0.0312469 0.00619928
0.0113086 -0.0312204 0.00626199
0.0114025 -0.031193 0.00632159
0.0114949 -0.031165 0.0063784
0.00256755 -0.0411798 0.0122993
0.00260633 -0.0411063 0.0122279
0.00264737 -0.0410361 0.012164
0.00268939 -0.0409676 0.0121037
0.00271903 -0.0408835 0.0120059
0.00274504 -0.0407953 0.0118977
0.00276649 -0.0407019 0.0117767
0.0027946 -0.0406176 0.0116769
0.00282219 -0.0405332 0.0115764
0.00285707 -0.0404584 0.0114988
0.00289454 -0.0403873 0.0114294
0.00293049 -0.0403146 0.0113562
0.00296591 -0.0402417 0.011282
0.0030014 -0.0401693 0.0112086
0.00303974 -0.0401007 0.0111443
0.00307825 -0.0400327 0.0110809
0.00312094 -0.0399699 0.0110303
0.00315654 -0.0398991 0.0109594
0.00319718 -0.0398344 0.0109038
0.00323211 -0.0397635 0.0108321
0.00326296 -0.0396883 0.0107492
0.00329026 -0.0396095 0.0106571
0.00331679 -0.0395302 0.0105634
0.00333606 -0.0394434 0.0104501
0.0033609 -0.0393633 0.0103533
0.00338888 -0.0392872 0.0102661
0.0034189 -0.0392139 0.0101852
0.00345285 -0.0391452 0.0101159
0.00348946 -0.0390797 0.0100546
0.00352178 -0.03901 0.00998187
0.0035541 -0.0389406 0.00990969
0.0035845 -0.0388695 0.00983291
0.00361165 -0.0387954 0.00974785
0.00363712 -0.03872 0.00965885
0.00366097 -0.0386433 0.00956626
0.00368486 -0.0385672 0.00947449
0.00371291 -0.0384957 0.00939455
0.00374295 -0.0384267 0.00932046
0.0037731 -0.0383582 0.00924732
0.00380305 -0.0382898 0.00917405
0.00383628 -0.038225 0.00911012
0.00386555 -0.0381566 0.00903621
0.00389919 -0.0380929 0.00897418
0.00393858 -0.0380351 0.00892765
0.00398428 -0.0379836 0.00889768
0.00402917 -0.0379314 0.00886582
0.00407659 -0.0378818 0.00884061
0.00412207 -0.0378304 0.00881066
0.00416135 -0.0377734 0.00876513
0.0041946 -0.0377108 0.00870464
0.0042356 -0.0376558 0.00866411
0.00427599 -0.0376004 0.0086223
0.00431723 -0.0375459 0.008583
0.00435963 -0.0374927 0.00854675
0.00440838 -0.0374453 0.00852652
0.00444727 -0.0373892 0.00848201
0.00449354 -0.0373398 0.008456
0.00454021 -0.0372909 0.00843113
0.00458996 -0.0372448 0.00841387
0.00463808 -0.0371973 0.00839281
0.00468442 -0.0371484 0.00836749
0.00472434 -0.037094 0.0083268
0.00476669 -0.0370419 0.00829229
0.00480615 -0.0369874 0.008251
0.00484616 -0.0369336 0.00821124
0.00489046 -0.0368835 0.00818205
0.00493631 -0.0368349 0.00815666
0.00497934 -0.036784 0.00812473
0.00502528 -0.0367356 0.00809986
0.00507256 -0.0366884 0.00807824
0.00512005 -0.0366414 0.00805731
0.00517071 -0.0365971 0.00804381
0.00522139 -0.0365528 0.00803043
0.00526744 -0.0365049 0.00800636
0.0053127 -0.0364564 0.00798067
0.0053576 -0.0364077 0.00795423
0.00540003 -0.0363573 0.00792229
0.00544412 -0.0363082 0.00789435
0.00549258 -0.0362626 0.0078765
0.00553945 -0.0362158 0.0078551
0.00558336 -0.0361668 0.00782718
0.00563173 -0.0361213 0.00780943
0.00567527 -0.0360723 0.00778089
0.00572052 -0.0360246 0.00775634
0.00576545 -0.0359768 0.00773126
0.00581212 -0.0359303 0.00771008
0.00585411 -0.0358805 0.00767877
0.00589887 -0.0358328 0.00765371
0.00594182 -0.0357839 0.0076248
0.0059817 -0.0357329 0.00758937
0.00602146 -0.035682 0.00755384
0.0060657 -0.0356343 0.00752822
0.00611043 -0.0355871 0.00750381
0.00615565 -0.0355403 0.00748064
0.00620372 -0.0354955 0.0074636
0.00624827 -0.0354484 0.00743914
0.00628918 -0.0353988 0.00740714
0.00633304 -0.0353514 0.00738143
0.00637905 -0.0353055 0.0073605
0.00642728 -0.0352612 0.00734432
0.00647881 -0.035219 0.00733515
0.00653159 -0.0351776 0.00732868
0.00658265 -0.0351352 0.00731853
0.00663882 -0.0350961 0.0073191
0.00669735 -0.0350584 0.00732454
0.00675818 -0.0350222 0.00733463
0.00682035 -0.0349867 0.00734735
0.00688367 -0.0349518 0.00736233
0.00694032 -0.0349128 0.00736354
0.00699202 -0.0348706 0.00735456
0.00704311 -0.0348281 0.00734437
0.00709064 -0.0347834 0.00732701
0.00713838 -0.034739 0.0073101
0.00718481 -0.0346937 0.00729068
0.00722909 -0.0346473 0.00726698
0.00727265 -0.0346005 0.00724198
0.00731401 -0.0345525 0.00721266
0.00735557 -0.0345047 0.00718394
0.00739914 -0.0344581 0.00715931
0.00744649 -0.0344138 0.00714233
0.0074923 -0.0343687 0.00712231
0.0075429 -0.0343263 0.00711182
0.00759052 -0.0342823 0.00709559
0.00763645 -0.0342373 0.00707601
0.00768352 -0.0341931 0.00705881
0.00772835 -0.0341477 0.00703732
0.00776838 -0.0340997 0.00700664
0.00781006 -0.0340527 0.00697927
0.00785355 -0.0340067 0.00695555
0.0078936 -0.0339591 0.00692536
0.00793513 -0.0339122 0.00689808
0.0079795 -0.033867 0.00687638
0.00802436 -0.0338221 0.00685571
0.00807327 -0.0337793 0.00684277
0.00812782 -0.0337395 0.00684049
0.00818263 -0.0336998 0.00683871
0.00823544 -0.0336591 0.00683312
0.00828594 -0.0336172 0.00682325
0.00833253 -0.0335733 0.00680612
0.00837567 -0.0335278 0.00678268
0.00841875 -0.0334823 0.00675917
0.00845991 -0.033436 0.00673222
0.00850243 -0.0333904 0.00670794
0.00854508 -0.0333449 0.00668398
0.00858781 -0.0332995 0.00666027
0.00863236 -0.033255 0.00664
0.00868582 -0.0332149 0.00663599
0.00874022 -0.0331751 0.00663367
0.00879894 -0.0331374 0.00663916
0.00885752 -0.0330995 0.00664438
0.0089191 -0.0330631 0.00665491
0.00897542 -0.0330241 0.00665592
0.00903184 -0.0329852 0.00665703
0.00908652 -0.0329454 0.00665497
0.00913897 -0.0329046 0.00664898
0.00918739 -0.0328621 0.00663587
0.00922826 -0.0328162 0.0066094
0.00926661 -0.0327694 0.00657858
0.0093026 -0.0327216 0.00654377
0.00933309 -0.0326715 0.00649953
0.00936326 -0.0326215 0.00645496
0.00939484 -0.0325722 0.00641309
0.00942306 -0.0325216 0.00636554
0.00944923 -0.0324703 0.00631469
0.009479 -0.0324206 0.00627029
0.00950476 -0.0323695 0.0062192
0.00952883 -0.0323178 0.00616547
0.00954858 -0.0322645 0.00610456
0.0095603 -0.0322083 0.00603032
0.00956368 -0.0321489 0.00594221
0.00956275 -0.0320881 0.00584726
0.00956193 -0.0320277 0.00575294
0.00956005 -0.0319672 0.00565735
0.00956393 -0.0319093 0.00557198
0.00956783 -0.0318516 0.0054871
0.00956591 -0.031792 0.00539288
0.00954835 -0.0317269 0.00527297
0.00952723 -0.0316607 0.00514777
0.00950553 -0.0315948 0.00502226
0.00949248 -0.0315325 0.00491178
0.00949244 -0.0314754 0.00482333
0.00952056 -0.0314287 0.00478174
0.00957531 -0.0313918 0.00478415
0.00965616 -0.0313641 0.00482927
0.00976199 -0.0313451 0.00491492
0.00988685 -0.0313324 0.00503112
0.0100315 -0.0313263 0.00517887
0.0101758 -0.0313194 0.00532523
0.0103213 -0.0313125 0.00547265
0.0104613 -0.0313032 0.0056105
0.0106017 -0.0312935 0.00574812
0.0107293 -0.031279 0.00586453
0.0108494 -0.0312617 0.00596829
0.0109591 -0.0312405 0.00605478
0.0110661 -0.0312182 0.00613664
0.0111595 -0.0311911 0.00619637
0.0112512 -0.0311633 0.00625301
0.0113406 -0.0311345 0.00630565
0.0114256 -0.0311042 0.00635127
0.00256458 -0.0410485 0.012254
0.00261179 -0.0409864 0.0122091
0.00265425 -0.0409184 0.01215
0.00267992 -0.0408291 0.0120394
0.00270454 -0.0407391 0.0119266
0.00272569 -0.0406453 0.0118041
0.00275116 -0.0405577 0.011696
0.00277744 -0.0404717 0.0115911
0.00281222 -0.0403969 0.011513
0.00284691 -0.0403223 0.0114352
0.00288263 -0.0402495 0.0113611
0.00291969 -0.0401787 0.0112916
0.00295548 -0.0401067 0.011219
0.00299545 -0.0400401 0.0111593
0.00303662 -0.0399753 0.0111036
0.00307941 -0.0399126 0.011053
0.00311649 -0.0398436 0.0109863
0.00315996 -0.0397823 0.0109386
0.00319643 -0.0397131 0.0108711
0.00322879 -0.0396396 0.0107923
0.00325752 -0.0395624 0.0107039
0.00328414 -0.0394832 0.01061
0.00330222 -0.039395 0.0104928
0.00332703 -0.0393149 0.0103955
0.00335515 -0.0392389 0.0103083
0.00338537 -0.0391658 0.0102278
0.00341823 -0.0390959 0.0101551
0.00345605 -0.0390317 0.0100969
0.00348843 -0.038962 0.010024
0.00351926 -0.038891 0.00994749
0.00354832 -0.0388185 0.00986665
0.00357695 -0.038746 0.00978539
0.00360268 -0.0386708 0.00969675
0.00362708 -0.0385947 0.00960528
0.00365272 -0.0385203 0.0095179
0.0036823 -0.0384504 0.00944169
0.00371213 -0.0383812 0.00936672
0.0037435 -0.0383139 0.00929652
0.00377324 -0.0382452 0.00922243
0.00380516 -0.0381791 0.00915461
0.00383425 -0.0381105 0.00907994
0.00386651 -0.0380454 0.0090141
0.00390332 -0.0379851 0.00896066
0.003949 -0.0379335 0.00893051
0.00399382 -0.0378813 0.00889836
0.0040399 -0.0378304 0.00886963
0.00408388 -0.0377776 0.00883574
0.00412298 -0.0377204 0.00878962
0.00415487 -0.0376566 0.00872552
0.00419474 -0.0376006 0.00868203
0.00423384 -0.037544 0.0086369
0.00427645 -0.0374908 0.00860089
0.00431875 -0.0374375 0.00856436
0.00436751 -0.0373902 0.00854411
0.00440781 -0.0373354 0.00850304
0.0044541 -0.0372861 0.00847701
0.00450077 -0.0372372 0.00845209
0.00454914 -0.0371899 0.0084315
0.0045959 -0.0371412 0.00840701
0.00464214 -0.0370922 0.00838144
0.00468204 -0.0370379 0.00834065
0.00472447 -0.0369858 0.00830624
0.00476402 -0.0369315 0.00826512
0.00480535 -0.0368789 0.00822848
0.00484963 -0.0368288 0.0081992
0.00489867 -0.0367828 0.00818136
0.00494244 -0.0367326 0.0081511
0.00499004 -0.0366856 0.00813009
0.00503726 -0.0366383 0.00810826
0.00508437 -0.036591 0.00808638
0.00513339 -0.0365454 0.00806904
0.00518415 -0.0365011 0.00805581
0.00523027 -0.0364533 0.00803184
0.00527562 -0.0364049 0.00800625
0.00532049 -0.0363562 0.00797969
0.00536128 -0.0363045 0.00794393
0.00540204 -0.0362529 0.00790836
0.00544684 -0.0362045 0.00788217
0.00549023 -0.0361551 0.00785285
0.00553074 -0.0361037 0.00781726
0.00557711 -0.0360568 0.00779513
0.00562079 -0.0360079 0.00776697
0.00566449 -0.0359592 0.00773906
0.00570955 -0.0359116 0.00771432
0.00575611 -0.0358651 0.00769307
0.00579825 -0.0358155 0.00766214
0.00584153 -0.0357669 0.00763391
0.00588605 -0.0357192 0.00760854
0.00592602 -0.0356684 0.00757328
0.00596744 -0.0356188 0.00754149
0.00601345 -0.0355725 0.0075198
0.00606146 -0.0355276 0.00750258
0.00610838 -0.035482 0.00748305
0.00615978 -0.0354396 0.00747323
0.0062046 -0.0353926 0.00744939
0.00624576 -0.0353433 0.00741783
0.0062895 -0.0352959 0.00739193
0.00633527 -0.0352499 0.00737047
0.0063818 -0.0352044 0.00735071
0.00643335 -0.0351623 0.00734166
0.00648619 -0.0351211 0.00733534
0.00653744 -0.0350788 0.00732566
0.00659364 -0.0350397 0.00732635
0.00665053 -0.035001 0.00732844
0.00670784 -0.0349626 0.00733135
0.00676623 -0.0349248 0.00733643
0.00682744 -0.0348887 0.00734722
0.00688251 -0.0348487 0.00734533
0.006936 -0.0348078 0.00734017
0.00698899 -0.0347665 0.00733395
0.00703814 -0.0347229 0.00731996
0.00708568 -0.0346784 0.00730275
0.00713153 -0.0346329 0.00728219
0.0071742 -0.0345855 0.00725531
0.00721745 -0.0345386 0.00722975
0.00725711 -0.0344897 0.00719713
0.00729857 -0.034442 0.00716824
0.00734231 -0.0343956 0.00714407
0.00738801 -0.0343504 0.00712386
0.00743341 -0.0343052 0.00710319
0.00748368 -0.0342627 0.00709219
0.00753098 -0.0342186 0.00707537
0.00757699 -0.0341738 0.00705607
0.0076244 -0.0341299 0.00703962
0.00766983 -0.0340849 0.00701939
0.00771347 -0.034039 0.00699577
0.00775716 -0.0339932 0.00697238
0.00780249 -0.0339483 0.00695225
0.007846 -0.0339025 0.00692868
0.00789071 -0.0338575 0.00690755
0.00793564 -0.0338125 0.0068869
0.00798079 -0.0337678 0.0068668
0.00802791 -0.0337242 0.00685045
0.00808024 -0.0336832 0.00684406
0.00812938 -0.0336407 0.00683168
0.00817835 -0.0335981 0.00681898
0.00822509 -0.0335543 0.00680214
0.00827158 -0.0335105 0.00678492
0.00831451 -0.033465 0.00676117
0.00835926 -0.0334205 0.00674091
0.00840211 -0.033375 0.00671712
0.00844824 -0.0333313 0.00669958
0.00849268 -0.0332867 0.00667898
0.00853765 -0.0332425 0.00665943
0.00858405 -0.033199 0.00664255
0.00863954 -0.0331598 0.00664237
0.00869419 -0.0331202 0.00664053
0.00875142 -0.0330818 0.00664344
0.00881002 -0.0330441 0.00664878
0.00886977 -0.0330067 0.00665609
0.00892403 -0.0329669 0.00665347
0.00897836 -0.032927 0.00665093
0.00903264 -0.0328871 0.00664826
0.00908141 -0.0328448 0.00663579
0.0091279 -0.0328015 0.00661931
0.00916841 -0.0327556 0.00659231
0.00920493 -0.032708 0.00655832
0.00923907 -0.0326595 0.00652037
0.00927123 -0.0326103 0.00647908
0.00930296 -0.032561 0.00643726
0.00933288 -0.0325111 0.00639249
0.00935915 -0.0324598 0.00634152
0.00938302 -0.0324077 0.00628667
0.00940874 -0.0323565 0.00623536
0.00943073 -0.032304 0.00617777
0.00945315 -0.0322518 0.00612129
0.00947308 -0.0321988 0.00606073
0.00948515 -0.0321429 0.00598716
0.0094906 -0.0320845 0.0059025
0.00949174 -0.0320248 0.00581107
0.00949317 -0.0319655 0.00572056
0.00949349 -0.031906 0.00562861
0.00949917 -0.031849 0.00554619
0.00950117 -0.0317907 0.00545803
0.00949729 -0.0317306 0.0053604
0.00947995 -0.0316657 0.00524077
0.00946117 -0.0316007 0.00511938
0.00944344 -0.0315365 0.00500033
0.00943838 -0.0314773 0.00490296
0.00944627 -0.0314232 0.00482756
0.00948217 -0.0313794 0.00479878
0.00954647 -0.0313458 0.0048169
0.00963369 -0.0313204 0.00487257
0.00974213 -0.0313021 0.00496271
0.00986848 -0.0312899 0.0050816
0.0100141 -0.0312838 0.00523118
0.0101545 -0.0312754 0.00537151
0.0102963 -0.0312671 0.00551339
0.0104303 -0.0312555 0.00564172
0.0105638 -0.0312433 0.00576854
0.0106823 -0.0312257 0.0058707
0.0107939 -0.0312054 0.00596105
0.0108992 -0.0311828 0.00604094
0.0110085 -0.0311611 0.00612654
0.0111043 -0.0311348 0.00619039
0.0111984 -0.0311078 0.00625118
0.0112937 -0.0310808 0.00631337
0.0113788 -0.0310505 0.00635926
0.00253004 -0.0410001 0.0123027
0.00257564 -0.0409359 0.0122527
0.00261629 -0.0408655 0.0121876
0.0026404 -0.0407742 0.0120718
0.00266346 -0.0406822 0.0119536
0.00268452 -0.0405883 0.0118305
0.00271013 -0.0405009 0.0117223
0.00273653 -0.0404151 0.0116175
0.00277011 -0.0403388 0.0115354
0.00280334 -0.0402625 0.011453
0.00283895 -0.0401895 0.0113783
0.00287613 -0.0401189 0.0113091
0.00291355 -0.0400489 0.011241
0.00295526 -0.0399845 0.0111863
0.00299808 -0.0399216 0.0111353
0.0030423 -0.0398606 0.0110888
0.00308237 -0.039795 0.0110305
0.00312612 -0.039734 0.0109834
0.00316426 -0.0396667 0.0109204
0.00319799 -0.0395948 0.0108452
0.00322683 -0.0395176 0.0107566
0.00325217 -0.039437 0.0106587
0.00327026 -0.0393487 0.010541
0.003295 -0.0392685 0.0104431
0.00332448 -0.039194 0.0103594
0.00335619 -0.0391224 0.0102826
0.00338938 -0.0390528 0.0102106
0.00342731 -0.0389887 0.0101523
0.00345813 -0.0389173 0.0100747
0.00348617 -0.0388432 0.00999015
0.00351243 -0.0387678 0.00990138
0.003541 -0.0386952 0.00981957
0.00356698 -0.0386203 0.00973136
0.00359325 -0.0385461 0.0096446
0.00361902 -0.0384719 0.0095572
0.00364992 -0.0384034 0.0094842
0.00367825 -0.0383325 0.00940498
0.00370831 -0.0382639 0.00933094
0.00373808 -0.0381953 0.00925663
0.00377009 -0.0381293 0.0091889
0.00379928 -0.0380608 0.00911422
0.00383164 -0.0379958 0.00904838
0.00386834 -0.0379353 0.00899442
0.00391253 -0.0378823 0.00896027
0.00395708 -0.0378298 0.00892731
0.00400162 -0.0377775 0.00889458
0.00404531 -0.0377244 0.00885983
0.00408451 -0.0376673 0.00881389
0.00411641 -0.0376036 0.00874954
0.00415517 -0.0375465 0.00870315
0.00419427 -0.03749 0.00865787
0.00423696 -0.0374369 0.00862201
0.00427947 -0.0373838 0.00858592
0.00432854 -0.0373368 0.00856647
0.00437045 -0.0372835 0.00852925
0.00441678 -0.0372342 0.00850325
0.00446337 -0.0371852 0.00847808
0.00451009 -0.0371365 0.0084533
0.00455516 -0.0370864 0.00842473
0.00460114 -0.0370372 0.00839848
0.00464002 -0.036982 0.00835507
0.00468122 -0.036929 0.00831761
0.00472103 -0.0368749 0.00827706
0.00476387 -0.0368236 0.00824406
0.004807 -0.0367726 0.00821193
0.00485755 -0.0367279 0.00819774
0.00490251 -0.0366787 0.00817029
0.00495144 -0.0366328 0.00815241
0.00499848 -0.0365854 0.00813015
0.00504702 -0.0365393 0.00811153
0.005096 -0.0364936 0.00809402
0.00514824 -0.0364505 0.00808424
0.00519447 -0.0364028 0.0080605
0.0052399 -0.0363544 0.00803502
0.00528331 -0.0363046 0.00800503
0.00532236 -0.0362516 0.00796519
0.0053586 -0.0361965 0.00791913
0.0054002 -0.0361457 0.00788561
0.00544029 -0.0360939 0.00784885
0.00547901 -0.0360412 0.00780921
0.00552397 -0.0359934 0.0077839
0.00556911 -0.0359457 0.00775914
0.00561282 -0.0358971 0.0077313
0.00565776 -0.0358495 0.00770636
0.00570407 -0.0358029 0.00768459
0.00574768 -0.0357545 0.00765697
0.00578973 -0.035705 0.00762603
0.00583433 -0.0356575 0.00760088
0.00587564 -0.0356078 0.00756867
0.00591869 -0.0355593 0.00754041
0.00596503 -0.0355133 0.0075195
0.00601485 -0.0354697 0.00750625
0.00606488 -0.0354264 0.00749351
0.00611641 -0.035384 0.00748405
0.00616135 -0.0353372 0.00746043
0.0062041 -0.0352891 0.00743225
0.00624938 -0.0352427 0.00740961
0.00629532 -0.0351968 0.0073885
0.0063435 -0.0351525 0.00737224
0.0063981 -0.0351124 0.00736962
0.00645106 -0.0350712 0.00736353
0.00650237 -0.0350289 0.00735397
0.00655527 -0.0349877 0.00734777
0.00660842 -0.0349467 0.00734207
0.00666012 -0.0349047 0.00733337
0.00671309 -0.0348635 0.00732732
0.00676919 -0.0348243 0.00732774
0.00682412 -0.0347844 0.0073257
0.00687787 -0.0347437 0.00732121
0.00693103 -0.0347026 0.00731551
0.00698161 -0.03466 0.00730456
0.00703041 -0.0346163 0.00728999
0.00707614 -0.0345708 0.00726927
0.00711868 -0.0345235 0.00724218
0.00716374 -0.0344777 0.00722035
0.00720391 -0.0344292 0.00718876
0.00724578 -0.0343818 0.00716077
0.00728971 -0.0343356 0.00713701
0.00733558 -0.0342906 0.00711718
0.00737954 -0.0342446 0.00709375
0.00742958 -0.0342021 0.00708233
0.00747659 -0.0341579 0.00706505
0.00752249 -0.0341132 0.00704567
0.00756992 -0.0340693 0.00702932
0.00761703 -0.0340253 0.00701248
0.00766234 -0.0339804 0.00699206
0.00770767 -0.0339355 0.00697192
0.0077544 -0.0338915 0.00695455
0.00780132 -0.0338476 0.00693756
0.00784822 -0.0338037 0.00692062
0.00789356 -0.0337591 0.00690077
0.00793877 -0.0337144 0.00688077
0.00798388 -0.0336697 0.00686062
0.00803239 -0.0336268 0.00684699
0.00807746 -0.0335823 0.00682701
0.0081245 -0.0335387 0.00681071
0.00816909 -0.033494 0.00678996
0.00821542 -0.0334502 0.00677251
0.00825837 -0.0334048 0.00674882
0.00830159 -0.0333596 0.00672577
0.00834596 -0.033315 0.00670492
0.00839403 -0.0332722 0.00669101
0.00844076 -0.0332289 0.00667466
0.00848787 -0.0331857 0.00665909
0.00853636 -0.0331433 0.00664616
0.00859186 -0.0331042 0.00664603
0.00864645 -0.0330646 0.00664423
0.00870359 -0.0330262 0.00664704
0.0087621 -0.0329884 0.00665228
0.00881994 -0.0329502 0.00665619
0.00887043 -0.0329086 0.00664685
0.00892085 -0.0328671 0.0066374
0.0089713 -0.0328256 0.00662802
0.00901808 -0.0327824 0.00661208
0.00906438 -0.0327391 0.00659537
0.00910449 -0.0326932 0.00656778
0.00914246 -0.0326463 0.0065364
0.00917655 -0.0325979 0.0064984
0.00920895 -0.032549 0.0064576
0.00924298 -0.0325008 0.00641981
0.00927323 -0.0324511 0.00637563
0.0092977 -0.0323992 0.00632155
0.00932122 -0.0323471 0.0062661
0.00934443 -0.032295 0.00621041
0.00936283 -0.0322411 0.00614666
0.00938316 -0.0321883 0.00608657
0.0094015 -0.0321348 0.00602341
0.00941346 -0.032079 0.00594956
0.00942106 -0.0320217 0.0058686
0.00942469 -0.0319632 0.00578131
0.00942651 -0.0319042 0.0056914
0.00942654 -0.0318448 0.0055989
0.00943003 -0.031787 0.00551274
0.00942637 -0.0317269 0.00541498
0.00942076 -0.0316663 0.00531442
0.00940535 -0.0316024 0.00519791
0.00939091 -0.0315392 0.00508364
0.00938174 -0.0314784 0.00497879
0.0093869 -0.0314231 0.00489832
0.00940297 -0.0313721 0.00483641
0.00944851 -0.0313318 0.00482357
0.00952236 -0.0313016 0.00485755
0.009616 -0.0312783 0.00492395
0.00972682 -0.0312608 0.0050181
0.00985427 -0.0312487 0.00513899
0.00999539 -0.0312408 0.00528154
0.010129 -0.0312299 0.00541113
0.0102629 -0.0312187 0.00554034
0.0103923 -0.0312054 0.00566174
0.0105194 -0.031191 0.00577856
0.0106314 -0.0311711 0.0058704
0.010738 -0.0311491 0.00595307
0.010841 -0.0311257 0.00602953
0.01095 -0.0311039 0.00611502
0.0110483 -0.0310784 0.00618314
0.011147 -0.0310528 0.00625147
0.0112449 -0.0310266 0.00631804
0.0113344 -0.0309976 0.00637098
0.0114511 -0.031016 0.00638456
0.0114117 -0.0309646 0.00640435
0.00250396 -0.0409629 0.0123785
0.00254591 -0.0408938 0.0123165
0.00258197 -0.0408174 0.0122367
0.00260294 -0.040722 0.0121104
0.00262336 -0.0406266 0.0119837
0.00264473 -0.0405331 0.011861
0.00267064 -0.0404461 0.0117534
0.00269859 -0.0403622 0.0116529
0.00273089 -0.0402842 0.0115666
0.00276404 -0.0402078 0.0114836
0.00279826 -0.0401332 0.0114045
0.00283531 -0.0400624 0.0113346
0.00287315 -0.039993 0.0112677
0.00291647 -0.0399305 0.0112175
0.00296099 -0.0398696 0.0111713
0.00300543 -0.0398089 0.0111253
0.0030471 -0.0397451 0.0110715
0.00308984 -0.0396829 0.0110212
0.00312966 -0.0396176 0.0109628
0.00316356 -0.0395457 0.0108878
0.00319519 -0.0394717 0.0108068
0.00322202 -0.0393927 0.0107128
0.00324302 -0.0393077 0.0106029
0.00326919 -0.039229 0.0105086
0.00329997 -0.0391559 0.0104281
0.00333052 -0.0390829 0.0103476
0.00336241 -0.0390118 0.0102715
0.00339759 -0.0389446 0.0102052
0.00342553 -0.0388701 0.0101193
0.00345061 -0.0387929 0.0100261
0.00347526 -0.0387157 0.00993251
0.00350378 -0.038643 0.00985029
0.00353249 -0.038571 0.00976926
0.00356035 -0.0384985 0.00968649
0.00358633 -0.0384245 0.00959931
0.00361842 -0.0383571 0.00952932
0.0036466 -0.0382861 0.00944928
0.00367559 -0.0382164 0.00937202
0.00370574 -0.0381481 0.00929851
0.00373946 -0.0380838 0.00923498
0.00376888 -0.0380155 0.00916056
0.0038011 -0.0379504 0.00909414
0.00383782 -0.0378899 0.00903998
0.00388038 -0.0378353 0.0090014
0.00392343 -0.0377813 0.00896441
0.00396638 -0.0377274 0.00892739
0.00400865 -0.037673 0.00888883
0.00404656 -0.0376147 0.0088394
0.00407851 -0.0375511 0.00877501
0.00411718 -0.037494 0.00872824
0.0041562 -0.0374374 0.00868266
0.00419874 -0.0373842 0.0086463
0.00424297 -0.0373327 0.00861444
0.00429388 -0.0372873 0.00859954
0.00433641 -0.0372345 0.00856376
0.00438277 -0.0371852 0.00853774
0.00442897 -0.0371359 0.00851149
0.00447248 -0.0370843 0.00847873
0.00451587 -0.0370328 0.00844589
0.00456171 -0.0369835 0.00841927
0.00460056 -0.0369283 0.00837573
0.00464208 -0.0368756 0.008339
0.00468208 -0.0368217 0.00829878
0.00472361 -0.0367693 0.00826254
0.00476656 -0.0367182 0.00822992
0.00481699 -0.0366735 0.0082154
0.00486186 -0.0366242 0.0081877
0.0049122 -0.0365794 0.00817315
0.0049606 -0.0365332 0.0081541
0.00500795 -0.0364861 0.00813265
0.005057 -0.0364405 0.00811529
0.00510787 -0.0363964 0.00810229
0.00515406 -0.0363486 0.00807843
0.00519956 -0.0363004 0.00805308
0.00524292 -0.0362506 0.00802292
0.00528051 -0.0361964 0.00797961
0.00531648 -0.0361412 0.00793286
0.00535647 -0.0360892 0.0078956
0.00539366 -0.0360353 0.00785221
0.00543401 -0.0359839 0.00781623
0.00547898 -0.0359361 0.00779094
0.00552437 -0.0358887 0.00776676
0.00556816 -0.0358402 0.00773911
0.00561446 -0.0357936 0.00771721
0.00565902 -0.0357458 0.00769156
0.0057026 -0.0356974 0.00766384
0.00574461 -0.035648 0.00763281
0.00578922 -0.0356005 0.00760769
0.00583201 -0.0355519 0.00757871
0.00587667 -0.0355046 0.007554
0.00592327 -0.0354588 0.00753362
0.00597476 -0.0354164 0.00752405
0.00602634 -0.0353741 0.00751466
0.00607632 -0.0353307 0.00750184
0.0061212 -0.035284 0.00747809
0.00616539 -0.0352368 0.00745294
0.00621239 -0.0351916 0.00743396
0.00626034 -0.035147 0.0074171
0.00631207 -0.035105 0.00740835
0.0063685 -0.0350661 0.0074096
0.00642148 -0.0350249 0.00740351
0.00647099 -0.0349814 0.00739009
0.00652021 -0.0349379 0.00737612
0.00656796 -0.0348934 0.00735911
0.0066141 -0.0348479 0.00733883
0.00666321 -0.0348044 0.0073248
0.00671552 -0.0347629 0.00731747
0.0067672 -0.034721 0.00730886
0.00682075 -0.0346802 0.0073041
0.00687229 -0.0346383 0.00729521
0.00692147 -0.0345949 0.0072815
0.00696849 -0.0345502 0.00726346
0.0070142 -0.0345049 0.00724282
0.00705689 -0.0344578 0.00721616
0.00710417 -0.0344135 0.00719892
0.00714791 -0.0343671 0.0071746
0.00719341 -0.0343219 0.00715394
0.00724078 -0.0342778 0.00713711
0.00728849 -0.0342339 0.00712101
0.00733418 -0.0341889 0.00710099
0.00738436 -0.0341465 0.00708991
0.00743145 -0.0341025 0.00707286
0.00747727 -0.0340577 0.00705324
0.00752443 -0.0340137 0.00703646
0.00757121 -0.0339696 0.00701891
0.00761609 -0.0339245 0.00699775
0.00766131 -0.0338796 0.00697737
0.00770835 -0.0338358 0.00696066
0.00775721 -0.033793 0.00694743
0.00780452 -0.0337493 0.0069313
0.00784992 -0.0337047 0.00691156
0.00789492 -0.03366 0.00689117
0.00793943 -0.0336151 0.00686988
0.007986 -0.0335713 0.00685264
0.00802944 -0.0335259 0.00682951
0.00807435 -0.0334813 0.00680925
0.00811699 -0.0334357 0.00678481
0.00816137 -0.033391 0.00676379
0.00820272 -0.0333449 0.0067372
0.00824764 -0.0333006 0.00671735
0.00829426 -0.0332572 0.00670076
0.00834431 -0.0332154 0.00669056
0.00839313 -0.0331731 0.00667816
0.0084438 -0.0331317 0.00666926
0.00849264 -0.0330895 0.00665689
0.00854627 -0.0330495 0.00665345
0.00859873 -0.0330089 0.00664774
0.00865329 -0.0329694 0.006646
0.00870795 -0.0329298 0.00664432
0.0087638 -0.0328908 0.00664481
0.00881234 -0.0328485 0.00663199
0.00886058 -0.032806 0.00661876
0.00890887 -0.0327636 0.00660559
0.00895361 -0.0327197 0.0065861
0.00899799 -0.0326756 0.00656606
0.00903979 -0.0326305 0.00654155
0.00907784 -0.0325839 0.00651049
0.00911223 -0.0325357 0.00647305
0.00914469 -0.0324869 0.00643238
0.00917897 -0.0324389 0.00639512
0.00920801 -0.0323889 0.00634884
0.00923262 -0.0323372 0.00629504
0.00925623 -0.0322852 0.00623976
0.00927897 -0.0322331 0.00618326
0.00929719 -0.0321794 0.00611922
0.00931551 -0.0321258 0.00605562
0.00933353 -0.0320724 0.00599189
0.0093454 -0.0320167 0.00591788
0.00935341 -0.0319598 0.00583762
0.00935743 -0.0319015 0.00575094
0.00936117 -0.0318435 0.00566421
0.00936117 -0.0317843 0.00557162
0.00936104 -0.0317253 0.00547925
0.00935536 -0.0316646 0.00537801
0.00934934 -0.0316041 0.00527665
0.00933601 -0.0315412 0.00516354
0.00932603 -0.0314799 0.00505667
0.00932709 -0.031423 0.00496881
0.00934235 -0.0313715 0.00490511
0.00936838 -0.0313242 0.00485971
0.00942528 -0.0312879 0.00486571
0.00951077 -0.0312618 0.00491903
0.00961066 -0.0312405 0.00499574
0.00972368 -0.0312236 0.00509368
0.00984892 -0.0312105 0.00521116
0.00998171 -0.0311995 0.00534028
0.0101035 -0.0311844 0.00545074
0.0102269 -0.0311694 0.00556318
0.0103499 -0.0311539 0.00567437
0.0104706 -0.0311372 0.00578122
0.0105768 -0.0311153 0.00586403
0.010679 -0.0310919 0.00593982
0.0107791 -0.0310674 0.00601193
0.0108855 -0.0310448 0.00609366
0.010986 -0.03102 0.00616548
0.0110889 -0.0309956 0.00624074
0.0111934 -0.0309715 0.00631815
0.0112895 -0.0309446 0.0063818
0.0113758 -0.0309143 0.00642963
0.00243394 -0.0409928 0.0125112
0.00247504 -0.040922 0.0124456
0.00251608 -0.0408516 0.0123804
0.0025465 -0.0407677 0.0122822
0.0025648 -0.0406688 0.0121472
0.00258513 -0.0405733 0.0120196
0.00260818 -0.040482 0.0119016
0.00263312 -0.0403937 0.0117905
0.00266265 -0.0403117 0.0116946
0.00269629 -0.0402354 0.011612
0.00272812 -0.0401574 0.0115246
0.00276224 -0.0400826 0.0114448
0.00279924 -0.0400117 0.0113745
0.0028371 -0.0399423 0.0113073
0.00287933 -0.0398784 0.0112536
0.00292532 -0.0398193 0.0112117
0.00296973 -0.0397585 0.0111653
0.00301291 -0.0396965 0.0111157
0.00305589 -0.0396345 0.0110659
0.00309725 -0.0395709 0.0110117
0.00313248 -0.0395006 0.0109402
0.00316575 -0.0394283 0.0108636
0.00319433 -0.0393513 0.0107742
0.00321719 -0.0392682 0.010669
0.00324504 -0.0391913 0.010579
0.00327744 -0.0391199 0.0105027
0.00330943 -0.0390484 0.0104258
0.00334141 -0.0389773 0.0103494
0.00337507 -0.0389083 0.0102784
0.00340119 -0.0388317 0.0101869
0.00342167 -0.0387495 0.0100806
0.00344198 -0.0386677 0.00997452
0.00346894 -0.0385934 0.00988767
0.00349784 -0.0385216 0.00980681
0.00352596 -0.0384493 0.00972447
0.00355484 -0.0383783 0.00964476
0.00358708 -0.0383111 0.00957487
0.00361532 -0.0382401 0.00949471
0.00364434 -0.0381703 0.00941721
0.00367471 -0.0381023 0.00934396
0.00370739 -0.0380369 0.00927739
0.00373832 -0.0379701 0.00920671
0.00377064 -0.037905 0.00914019
0.00380608 -0.0378433 0.00908241
0.00384715 -0.0377872 0.00903978
0.00388875 -0.0377318 0.00899882
0.00393019 -0.0376765 0.00895776
0.00397131 -0.037621 0.00891612
0.00400909 -0.0375626 0.00886617
0.00404117 -0.0374991 0.00880194
0.00407957 -0.0374417 0.00875432
0.00411852 -0.0373851 0.00870844
0.00416095 -0.0373318 0.0086717
0.00420667 -0.0372817 0.00864352
0.00425921 -0.0372378 0.00863267
0.00430203 -0.0371852 0.0085975
0.00434843 -0.0371359 0.00857146
0.00439441 -0.0370864 0.00854457
0.00443494 -0.0370323 0.00850431
0.00447665 -0.0369793 0.00846725
0.00452104 -0.0369288 0.008437
0.0045598 -0.0368735 0.00839315
0.00459993 -0.0368197 0.00835294
0.00464109 -0.0367668 0.00831549
0.00468242 -0.0367143 0.00827868
0.00472522 -0.0366631 0.00824565
0.00477424 -0.0366172 0.00822779
0.00481897 -0.0365678 0.00819973
0.0048694 -0.0365232 0.00818541
0.00491831 -0.0364774 0.00816756
0.00496598 -0.0364306 0.00814686
0.00501653 -0.0363863 0.00813306
0.00506721 -0.036342 0.00811962
0.00511333 -0.0362942 0.00809555
0.0051589 -0.0362461 0.00807035
0.00520235 -0.0361963 0.00804034
0.00523991 -0.0361422 0.00799688
0.00527565 -0.0360869 0.00794951
0.00531419 -0.0360339 0.00790886
0.00535124 -0.0359799 0.00786505
0.00539323 -0.0359298 0.00783278
0.00543719 -0.0358812 0.00780517
0.00548281 -0.035834 0.00778149
0.00552649 -0.0357854 0.00775354
0.00557122 -0.0357377 0.00772811
0.0056158 -0.03569 0.00770249
0.00565938 -0.0356417 0.00767476
0.00570138 -0.0355923 0.00764368
0.0057459 -0.0355448 0.00761835
0.00579012 -0.0354972 0.00759253
0.00583495 -0.0354501 0.00756815
0.00588331 -0.0354056 0.00755164
0.00593639 -0.0353643 0.00754554
0.00598947 -0.035323 0.00753944
0.00603929 -0.0352796 0.00752627
0.00608559 -0.0352337 0.00750551
0.00613121 -0.0351875 0.00748339
0.00618027 -0.0351437 0.00746878
0.00623025 -0.0351005 0.0074562
0.00628417 -0.0350598 0.00745207
0.00634089 -0.0350211 0.0074539
0.00639238 -0.0349789 0.00744457
0.00644 -0.0349342 0.00742707
0.00648547 -0.0348882 0.00740514
0.0065279 -0.0348403 0.00737692
0.00656858 -0.0347915 0.00734521
0.00661405 -0.0347457 0.00732364
0.00666143 -0.0347012 0.00730614
0.00670942 -0.0346571 0.00729
0.00676236 -0.0346161 0.00728412
0.00681205 -0.0345731 0.00727158
0.00686282 -0.0345308 0.00726125
0.00691025 -0.0344865 0.00724416
0.00695777 -0.0344423 0.00722734
0.00700209 -0.0343963 0.00720405
0.00705274 -0.034354 0.0071937
0.0070969 -0.034308 0.00717027
0.00714599 -0.0342649 0.00715689
0.00719654 -0.0342227 0.00714647
0.00724585 -0.0341797 0.0071336
0.00729346 -0.0341359 0.00711738
0.00734567 -0.0340947 0.00711039
0.0073931 -0.0340508 0.00709391
0.00743715 -0.0340051 0.00707086
0.00748232 -0.03396 0.00705011
0.00752857 -0.0339156 0.00703155
0.00757202 -0.0338698 0.00700762
0.00761741 -0.033825 0.00698754
0.00766634 -0.0337823 0.00697447
0.00771536 -0.0337396 0.00696163
0.00776112 -0.0336951 0.00694246
0.00780625 -0.0336505 0.00692225
0.00785091 -0.0336056 0.00690115
0.00789203 -0.033559 0.00687345
0.00793677 -0.0335143 0.00685272
0.00797848 -0.0334681 0.00682631
0.00802156 -0.0334227 0.00680268
0.00806426 -0.0333772 0.00677842
0.00811014 -0.0333333 0.00676022
0.00815342 -0.0332882 0.00673727
0.00820019 -0.0332448 0.00672094
0.00825036 -0.0332032 0.00671102
0.00830053 -0.0331615 0.0067011
0.00835139 -0.0331202 0.00669249
0.00840387 -0.0330797 0.00668695
0.00845263 -0.0330375 0.00667447
0.0085025 -0.0329957 0.00666405
0.00855225 -0.032954 0.00665356
0.00860282 -0.0329126 0.00664445
0.0086536 -0.0328713 0.00663582
0.00870584 -0.0328307 0.00662985
0.00875222 -0.0327875 0.00661328
0.00879803 -0.032744 0.00659571
0.00884232 -0.0327 0.00657552
0.00888337 -0.0326545 0.00654948
0.00892584 -0.0326098 0.00652624
0.00896808 -0.032565 0.00650258
0.00900466 -0.0325178 0.00646899
0.00904102 -0.0324707 0.00643513
0.00907538 -0.0324228 0.00639797
0.00911124 -0.0323756 0.0063636
0.00914196 -0.0323265 0.00632035
0.00916867 -0.0322758 0.00627024
0.00919429 -0.0322248 0.00621848
0.00921763 -0.032173 0.00616308
0.00923766 -0.0321201 0.00610213
0.00925243 -0.0320653 0.00603236
0.00926809 -0.0320111 0.0059645
0.00927791 -0.0319547 0.0058869
0.00928588 -0.031898 0.00580655
0.00928709 -0.0318388 0.00571496
0.00929114 -0.0317811 0.00562877
0.00929102 -0.0317221 0.00553594
0.00928903 -0.0316626 0.00544031
0.00928174 -0.0316014 0.00533624
0.00927578 -0.0315412 0.00523498
0.00926954 -0.0314811 0.00513375
0.00926732 -0.0314229 0.00503984
0.00927838 -0.0313698 0.00496864
0.00930514 -0.0313226 0.00492412
0.00934438 -0.03128 0.00490064
0.00940928 -0.0312466 0.00491993
0.00950276 -0.0312232 0.0049866
0.0096071 -0.0312033 0.00507083
0.00972025 -0.0311862 0.00516907
0.00984174 -0.0311715 0.00528051
0.00996641 -0.0311576 0.00539652
0.0100783 -0.0311389 0.005491
0.0101908 -0.0311201 0.00558589
0.0103091 -0.0311029 0.00568976
0.0104239 -0.0310841 0.00578727
0.0105264 -0.031061 0.00586431
0.0106244 -0.0310361 0.00593362
0.0107215 -0.0310107 0.00600115
0.0108215 -0.030986 0.00607288
0.0109232 -0.0309615 0.00614692
0.0110284 -0.0309379 0.00622623
0.0111371 -0.0309151 0.00631066
0.0112394 -0.03089 0.00638446
0.0113339 -0.0308622 0.0064453
0.00240397 -0.0409505 0.0125756
0.00244317 -0.0408772 0.0125036
0.00248282 -0.0408049 0.0124335
0.00250882 -0.0407152 0.012321
0.00252691 -0.040616 0.0121847
0.00254888 -0.0405226 0.0120618
0.00257363 -0.0404333 0.0119486
0.00259879 -0.0403453 0.0118377
0.00262971 -0.0402651 0.0117456
0.002662 -0.040187 0.0116583
0.00269281 -0.0401076 0.0115675
0.00272683 -0.0400327 0.0114871
0.00276387 -0.0399619 0.0114166
0.00280155 -0.0398922 0.0113484
0.00284236 -0.0398266 0.0112904
0.00288822 -0.0397673 0.0112478
0.00293252 -0.0397063 0.011201
0.00297699 -0.0396458 0.011155
0.00301856 -0.0395822 0.0111008
0.0030612 -0.03952 0.0110502
0.00309921 -0.0394529 0.0109864
0.00313431 -0.0393827 0.0109149
0.0031649 -0.0393078 0.0108308
0.00319243 -0.0392299 0.0107386
0.00322348 -0.0391565 0.0106573
0.00325632 -0.0390854 0.0105817
0.0032885 -0.039014 0.0105047
0.00331899 -0.0389411 0.0104238
0.00334826 -0.0388674 0.01034
0.00336989 -0.0387858 0.0102355
0.0033872 -0.0387003 0.0101197
0.00340584 -0.0386167 0.0100087
0.00343146 -0.038541 0.00991778
0.00346192 -0.0384708 0.00984093
0.00349304 -0.0384016 0.00976649
0.00352653 -0.0383353 0.0096991
0.00355918 -0.0382685 0.00962995
0.00358898 -0.0381991 0.00955364
0.00361771 -0.0381289 0.00947498
0.0036479 -0.0380607 0.00940088
0.00367784 -0.0379925 0.00932666
0.0037102 -0.0379271 0.00925944
0.00374282 -0.0378622 0.00919342
0.00377693 -0.0377991 0.00913181
0.00381669 -0.0377417 0.00908552
0.00385813 -0.0376862 0.00904395
0.00389681 -0.0376282 0.00899548
0.00393792 -0.0375727 0.00895365
0.00397567 -0.0375142 0.00890344
0.00400774 -0.0374507 0.00883893
0.00404491 -0.0373922 0.00878796
0.00408525 -0.0373369 0.00874548
0.00412786 -0.0372837 0.00870904
0.00417482 -0.0372347 0.00868387
0.00422738 -0.0371908 0.00867301
0.00427012 -0.0371381 0.00863746
0.00431507 -0.0370876 0.00860771
0.00435956 -0.0370367 0.00857699
0.00440004 -0.0369825 0.00853647
0.00444051 -0.0369284 0.00849619
0.00448486 -0.0368779 0.00846577
0.00452358 -0.0368227 0.00842166
0.00456063 -0.0367662 0.0083738
0.00459867 -0.0367108 0.00832865
0.0046382 -0.0366567 0.00828742
0.00467949 -0.0366044 0.00825072
0.00472701 -0.0365573 0.00822928
0.00477489 -0.0365106 0.00820878
0.00482702 -0.0364674 0.00819859
0.00487774 -0.036423 0.00818506
0.00492694 -0.0363775 0.00816796
0.00497751 -0.0363332 0.0081542
0.00502632 -0.0362875 0.00813636
0.00507239 -0.0362397 0.00811216
0.00511788 -0.0361915 0.00808671
0.00516173 -0.0361421 0.00805762
0.00520091 -0.0360893 0.00801782
0.00523671 -0.036034 0.00797047
0.00527506 -0.0359809 0.00792929
0.00531204 -0.0359269 0.00788522
0.00535422 -0.0358769 0.00785332
0.00539828 -0.0358285 0.00782589
0.00544532 -0.0357823 0.00780537
0.005489 -0.0357338 0.00777737
0.00553359 -0.035686 0.00775158
0.00557843 -0.0356385 0.00772649
0.00562208 -0.0355902 0.00769886
0.00566418 -0.0355409 0.00766792
0.00570852 -0.0354934 0.00764215
0.00575296 -0.0354459 0.00761674
0.00579791 -0.0353989 0.00759259
0.00584644 -0.0353545 0.00757643
0.00589952 -0.0353132 0.00757032
0.0059526 -0.035272 0.00756422
0.00600243 -0.0352285 0.00755104
0.00605035 -0.0351838 0.00753376
0.00609777 -0.0351388 0.0075155
0.00614874 -0.0350962 0.00750495
0.00620055 -0.0350541 0.00749623
0.00625611 -0.0350146 0.00749557
0.00631134 -0.0349748 0.00749416
0.00636111 -0.0349314 0.00748111
0.00640687 -0.0348855 0.00745963
0.00645056 -0.0348384 0.00743385
0.00649124 -0.0347895 0.00740187
0.00653038 -0.0347397 0.00736686
0.006574 -0.0346928 0.00734138
0.00661634 -0.0346452 0.00731337
0.00665891 -0.0345978 0.00728599
0.00670811 -0.0345546 0.00727247
0.00675569 -0.0345104 0.00725563
0.00680519 -0.0344674 0.00724286
0.0068543 -0.0344242 0.00722931
0.00690504 -0.034382 0.00721915
0.00695098 -0.034337 0.00719921
0.00700334 -0.0342958 0.00719241
0.00705097 -0.0342519 0.00717607
0.00710176 -0.0342098 0.00716615
0.0071526 -0.0341678 0.00715635
0.00720357 -0.0341258 0.00714683
0.00725134 -0.0340821 0.00713096
0.00730371 -0.034041 0.00712433
0.00735127 -0.0339972 0.00710811
0.0073952 -0.0339515 0.00708481
0.00743861 -0.0339055 0.00706056
0.00748484 -0.0338611 0.00704198
0.00752848 -0.0338154 0.00701839
0.00757583 -0.0337718 0.0070022
0.00762663 -0.03373 0.00699278
0.00767561 -0.0336873 0.00697982
0.00772087 -0.0336426 0.00695971
0.00776405 -0.033597 0.00693568
0.00780512 -0.0335503 0.00690769
0.00784466 -0.0335029 0.00687692
0.00788774 -0.0334574 0.00685302
0.00792935 -0.0334113 0.0068265
0.00797081 -0.0333651 0.00679978
0.00801505 -0.0333204 0.00677847
0.00806132 -0.0332768 0.00676113
0.0081065 -0.0332327 0.00674173
0.00815516 -0.0331903 0.00672897
0.00820716 -0.0331496 0.0067225
0.00825922 -0.0331089 0.00671618
0.00830998 -0.0330675 0.00670738
0.00836233 -0.033027 0.00670161
0.00840915 -0.0329838 0.00668557
0.00845694 -0.0329411 0.00667134
0.00850111 -0.0328968 0.00665058
0.00854742 -0.0328536 0.00663381
0.0085942 -0.0328105 0.00661793
0.00864268 -0.0327683 0.00660527
0.00868717 -0.0327243 0.00658533
0.00873114 -0.0326802 0.00656455
0.00877302 -0.0326352 0.00654009
0.00881356 -0.0325896 0.00651336
0.00885595 -0.032545 0.00649004
0.0088985 -0.0325005 0.00646711
0.00893726 -0.0324544 0.0064375
0.0089738 -0.0324074 0.0064041
0.00900772 -0.0323595 0.00636618
