ply
format ascii 1.0
element vertex 1753
property float x
property float y
property float z
end_header
0.137302 -0.361469 1.12952
0.138415 -0.360139 1.12972
0.139471 -0.358744 1.12968
0.140557 -0.357382 1.12976
0.141677 -0.356057 1.12999
0.142806 -0.354739 1.13025
0.14393 -0.353417 1.13049
0.145046 -0.352083 1.13069
0.14608 -0.350653 1.13053
0.147055 -0.349163 1.13014
0.147887 -0.347521 1.12915
0.14825 -0.345385 1.12624
0.148328 -0.342963 1.12217
0.148045 -0.340186 1.11666
0.147703 -0.337373 1.11096
0.147389 -0.334617 1.10541
0.147526 -0.332343 1.10174
0.147807 -0.330229 1.09867
0.148282 -0.328322 1.09641
0.148635 -0.326307 1.09368
0.149035 -0.324349 1.09116
0.14956 -0.322521 1.08916
0.15005 -0.320669 1.08703
0.150362 -0.318661 1.08422
0.150585 -0.316582 1.08108
0.150784 -0.314491 1.07787
0.150647 -0.312111 1.07339
0.150714 -0.309934 1.06973
0.154302 -0.310735 1.07423
0.153692 -0.270826 1.00798
0.15402 -0.269135 1.00576
0.154318 -0.267433 1.00346
0.154562 -0.2657 1.00097
0.154874 -0.264026 0.998748
0.155196 -0.262367 0.996575
0.155582 -0.260761 0.99464
0.156044 -0.259216 0.992984
0.156528 -0.257691 0.991411
0.157057 -0.256203 0.990008
0.157588 -0.254721 0.98862
0.158101 -0.253233 0.987177
0.158607 -0.251746 0.985723
0.15921 -0.250327 0.984608
0.159716 -0.248849 0.983171
0.160229 -0.247382 0.981766
0.160783 -0.245946 0.98051
0.161326 -0.244507 0.979223
0.161794 -0.243027 0.977692
0.162336 -0.241598 0.976421
0.162935 -0.240207 0.975346
0.163517 -0.23881 0.974224
0.16415 -0.237446 0.973272
0.164774 -0.236081 0.972301
0.165345 -0.234688 0.97116
0.165806 -0.233239 0.969667
0.166282 -0.231803 0.968235
0.166705 -0.230343 0.966638
0.167183 -0.228919 0.96523
0.167749 -0.227547 0.964112
0.168451 -0.22625 0.963439
0.169185 -0.224972 0.962866
0.169972 -0.223723 0.962469
0.170725 -0.222458 0.961964
0.171449 -0.22118 0.961373
0.172146 -0.21989 0.960695
0.172845 -0.218603 0.96003
0.173542 -0.217318 0.959365
0.174188 -0.21601 0.958541
0.174799 -0.214688 0.957613
0.175427 -0.213377 0.956745
0.176031 -0.212058 0.95581
0.176588 -0.21072 0.954733
0.177216 -0.209418 0.95388
0.177868 -0.208129 0.953102
0.178471 -0.206821 0.952182
0.179101 -0.205528 0.95135
0.179786 -0.204261 0.950688
0.180445 -0.202985 0.94995
0.181131 -0.201722 0.949298
0.181813 -0.20046 0.948637
0.182495 -0.1992 0.947981
0.183175 -0.197941 0.94732
0.183855 -0.196683 0.946661
0.184504 -0.195416 0.945917
0.185235 -0.194182 0.945419
0.185973 -0.192952 0.944942
0.186714 -0.191725 0.944476
0.187398 -0.190477 0.943847
0.188039 -0.189217 0.943093
0.188619 -0.187936 0.94217
0.189224 -0.186668 0.941324
0.189871 -0.185416 0.940603
0.190554 -0.184179 0.939988
0.191397 -0.182997 0.939834
0.192276 -0.181827 0.939782
0.193134 -0.180649 0.939671
0.193939 -0.179455 0.939408
0.194808 -0.178281 0.93933
0.195427 -0.17703 0.938545
0.195977 -0.17576 0.937569
0.196485 -0.174481 0.936484
0.197018 -0.173212 0.935472
0.19745 -0.171917 0.934187
0.19802 -0.170665 0.933288
0.198588 -0.169415 0.932391
0.199187 -0.168177 0.931584
0.199817 -0.166949 0.930867
0.200531 -0.165746 0.930382
0.201138 -0.164516 0.929606
0.201791 -0.1633 0.928961
0.202411 -0.162077 0.928227
0.202949 -0.160836 0.927277
0.203459 -0.159591 0.926254
0.204071 -0.158373 0.925512
0.204692 -0.15716 0.924797
0.205294 -0.155944 0.924038
0.205979 -0.154749 0.923503
0.20666 -0.153554 0.922955
0.207336 -0.15236 0.922403
0.208016 -0.151168 0.921858
0.208787 -0.149996 0.921558
0.209563 -0.148826 0.921274
0.210284 -0.147645 0.920842
0.210962 -0.146457 0.920304
0.21157 -0.145257 0.919585
0.212113 -0.144047 0.918701
0.212661 -0.14284 0.917831
0.213297 -0.141651 0.917195
0.213973 -0.140471 0.916664
0.214714 -0.139303 0.916303
0.215515 -0.138146 0.916095
0.216286 -0.136984 0.915816
0.217114 -0.135831 0.915677
0.217942 -0.134679 0.915543
0.218804 -0.133531 0.91549
0.219698 -0.132388 0.915522
0.220566 -0.131241 0.915486
0.221399 -0.130088 0.91536
0.222254 -0.128939 0.91529
0.223081 -0.127786 0.915151
0.223884 -0.12663 0.914952
0.224746 -0.125481 0.914898
0.225577 -0.124328 0.914768
0.226346 -0.123169 0.914484
0.227202 -0.122019 0.914416
0.228094 -0.120872 0.914438
0.228999 -0.119727 0.914488
0.230028 -0.118593 0.914842
0.231183 -0.117469 0.9155
0.232326 -0.116342 0.916125
0.233795 -0.11524 0.917536
0.235513 -0.114155 0.919537
0.237301 -0.113066 0.921699
0.239025 -0.111968 0.923692
0.120392 -0.378892 1.12689
0.121361 -0.377399 1.12648
0.122388 -0.375987 1.12634
0.123447 -0.374615 1.12634
0.124525 -0.373267 1.12643
0.125625 -0.371943 1.12662
0.126701 -0.370592 1.1267
0.12776 -0.369214 1.1267
0.128866 -0.367895 1.1269
0.129971 -0.366574 1.1271
0.131053 -0.365223 1.12719
0.132164 -0.363906 1.12741
0.133328 -0.362649 1.12787
0.134473 -0.361368 1.12823
0.135593 -0.360055 1.12847
0.136708 -0.358732 1.1287
0.137789 -0.35737 1.12877
0.138871 -0.356007 1.12884
0.139987 -0.354679 1.12906
0.141081 -0.353326 1.12918
0.142145 -0.351939 1.12916
0.143198 -0.350539 1.1291
0.144143 -0.349019 1.12859
0.145004 -0.347411 1.12772
0.145749 -0.345682 1.12638
0.146079 -0.343518 1.12333
0.146164 -0.341109 1.11928
0.145923 -0.33838 1.11392
0.145647 -0.335642 1.10847
0.145369 -0.332929 1.10305
0.145484 -0.330637 1.09928
0.145649 -0.328412 1.09574
0.145973 -0.326363 1.09288
0.146181 -0.324211 1.08956
0.146463 -0.322148 1.08657
0.146852 -0.320202 1.08404
0.147239 -0.318267 1.08151
0.147523 -0.316243 1.0786
0.147718 -0.314151 1.07536
0.147901 -0.312061 1.07209
0.147814 -0.309739 1.0678
0.147905 -0.307599 1.06425
0.153261 -0.272449 1.00984
0.151302 -0.272936 1.01097
0.15174 -0.271313 1.00911
0.15212 -0.269655 1.00706
0.152375 -0.267913 1.00458
0.152648 -0.266196 1.00218
0.152913 -0.264481 0.999765
0.153234 -0.262817 0.997567
0.153594 -0.261187 0.995519
0.154032 -0.259622 0.993765
0.154471 -0.258062 0.99202
0.154921 -0.256518 0.990333
0.155394 -0.254995 0.988732
0.155876 -0.253484 0.98717
0.15639 -0.252001 0.985736
0.156955 -0.250555 0.984479
0.157565 -0.249144 0.98339
0.158106 -0.247692 0.98207
0.158641 -0.246242 0.980738
0.159165 -0.244789 0.979379
0.159682 -0.243338 0.978005
0.160154 -0.241864 0.97649
0.160723 -0.240455 0.97531
0.161354 -0.239086 0.974341
0.161987 -0.237721 0.973384
0.162649 -0.236376 0.97253
0.163278 -0.235016 0.971573
0.163826 -0.233613 0.970356
0.164285 -0.232165 0.968856
0.164763 -0.230733 0.967423
0.165215 -0.229292 0.965921
0.165752 -0.227902 0.964701
0.166373 -0.226561 0.963758
0.167101 -0.225279 0.963167
0.167863 -0.224017 0.962688
0.168623 -0.222755 0.962203
0.169352 -0.221479 0.961623
0.170074 -0.220201 0.961021
0.170767 -0.21891 0.960334
0.171441 -0.217613 0.959589
0.172112 -0.216317 0.958839
0.172726 -0.214995 0.957918
0.173275 -0.213646 0.956796
0.173847 -0.212311 0.955756
0.174423 -0.210982 0.954729
0.175008 -0.20966 0.953739
0.17567 -0.208376 0.952991
0.176354 -0.207104 0.952315
0.176988 -0.205812 0.95149
0.177647 -0.204533 0.950745
0.178329 -0.203267 0.950074
0.178987 -0.201992 0.949334
0.179672 -0.200731 0.94868
0.180358 -0.199472 0.948031
0.181014 -0.198203 0.947296
0.181691 -0.196945 0.946627
0.182366 -0.195688 0.945958
0.183022 -0.194425 0.945234
0.183726 -0.193183 0.944657
0.184463 -0.191955 0.944179
0.185176 -0.190719 0.943633
0.18586 -0.189474 0.943005
0.186533 -0.188227 0.942345
0.187171 -0.18697 0.941592
0.187815 -0.185716 0.940858
0.188494 -0.184478 0.940228
0.189176 -0.183241 0.939609
0.189988 -0.18205 0.939369
0.190833 -0.18087 0.939222
0.191692 -0.179695 0.939116
0.192496 -0.178501 0.938854
0.193366 -0.177329 0.938781
0.194011 -0.176088 0.938068
0.194563 -0.174821 0.937097
0.195071 -0.173543 0.936011
0.195604 -0.172276 0.934997
0.19601 -0.170976 0.933635
0.196525 -0.16971 0.932583
0.19709 -0.168462 0.931678
0.197689 -0.167226 0.930868
0.19832 -0.166 0.930153
0.199066 -0.164807 0.929761
0.199702 -0.163587 0.929066
0.200357 -0.162373 0.928426
0.200977 -0.161152 0.927692
0.201542 -0.159919 0.926813
0.202108 -0.15869 0.925942
0.202783 -0.157489 0.925369
0.203441 -0.156285 0.924753
0.204073 -0.155077 0.924073
0.204757 -0.153882 0.923532
0.205431 -0.152686 0.922968
0.206111 -0.151494 0.922421
0.206824 -0.150309 0.921967
0.207627 -0.149144 0.92175
0.208432 -0.14798 0.921541
0.209179 -0.146805 0.921179
0.209887 -0.145623 0.920716
0.210495 -0.144423 0.919994
0.21107 -0.143219 0.919189
0.211644 -0.142017 0.918384
0.21229 -0.14083 0.917772
0.212971 -0.13965 0.917251
0.21374 -0.138487 0.91696
0.214538 -0.137328 0.916744
0.215283 -0.136162 0.916393
0.216081 -0.135004 0.916181
0.21688 -0.133847 0.915968
0.21774 -0.132699 0.915912
0.21864 -0.131556 0.915959
0.219574 -0.130417 0.916089
0.220446 -0.12927 0.916061
0.221332 -0.128124 0.91607
0.222154 -0.126969 0.915914
0.222953 -0.125812 0.915704
0.223785 -0.124659 0.915574
0.22465 -0.123509 0.915529
0.225455 -0.122353 0.915332
0.22632 -0.121203 0.915286
0.227244 -0.120059 0.915383
0.228182 -0.118916 0.915516
0.229242 -0.117783 0.915944
0.230402 -0.116657 0.916615
0.231574 -0.115531 0.91731
0.233128 -0.114433 0.918932
0.23491 -0.113349 0.921095
0.236766 -0.112262 0.923426
0.11893 -0.377752 1.12686
0.119949 -0.376329 1.12668
0.121001 -0.374949 1.12666
0.122058 -0.373575 1.12666
0.123114 -0.372196 1.12665
0.124184 -0.370838 1.1267
0.125228 -0.369444 1.12664
0.126252 -0.368023 1.12648
0.127302 -0.366637 1.12644
0.128375 -0.36528 1.1265
0.129426 -0.363893 1.12646
0.130507 -0.362539 1.12655
0.131644 -0.361255 1.12689
0.132789 -0.359978 1.12726
0.133935 -0.358698 1.12763
0.135077 -0.357411 1.12798
0.136161 -0.356054 1.12807
0.137214 -0.35466 1.12802
0.138295 -0.353297 1.12809
0.139326 -0.351877 1.12795
0.140307 -0.3504 1.1276
0.141271 -0.348906 1.12717
0.142122 -0.347291 1.12626
0.142858 -0.345553 1.12488
0.143503 -0.343722 1.12312
0.1438 -0.341531 1.11992
0.143948 -0.339196 1.11613
0.143828 -0.336602 1.11126
0.143646 -0.333965 1.10618
0.14342 -0.331308 1.10095
0.143505 -0.328992 1.09705
0.143554 -0.326656 1.09303
0.143746 -0.324481 1.08962
0.143973 -0.322358 1.08638
0.144312 -0.320359 1.08362
0.144591 -0.318313 1.08064
0.144959 -0.316367 1.07804
0.145215 -0.314324 1.07502
0.145287 -0.312125 1.07129
0.145302 -0.30989 1.06737
0.14539 -0.307739 1.06376
0.145504 -0.305628 1.06029
0.147967 -0.305445 1.0606
0.145716 -0.30362 1.05722
0.146074 -0.301758 1.05475
0.14795 -0.301068 1.05285
0.146289 -0.299778 1.05174
0.146582 -0.29788 1.04905
0.148396 -0.297157 1.04698
0.146914 -0.296027 1.04654
0.148591 -0.295198 1.04398
0.14713 -0.294087 1.0436
0.148909 -0.293355 1.04146
0.147444 -0.292242 1.04105
0.148843 -0.291201 1.03751
0.147457 -0.290156 1.03739
0.148995 -0.289246 1.03442
0.147624 -0.288213 1.03434
0.148917 -0.287116 1.03049
0.147636 -0.286157 1.03072
0.147831 -0.284265 1.02782
0.148998 -0.283096 1.02359
0.147921 -0.2823 1.02455
0.148173 -0.280478 1.02191
0.14959 -0.279535 1.01868
0.148471 -0.278704 1.01945
0.149913 -0.277792 1.01635
0.148705 -0.276891 1.01678
0.150442 -0.276217 1.01478
0.149147 -0.275247 1.01488
0.150825 -0.274537 1.0127
0.149467 -0.27352 1.01256
0.149838 -0.27184 1.01044
0.1502 -0.270162 1.00831
0.150533 -0.268472 1.00608
0.150766 -0.266718 1.00351
0.151019 -0.264988 1.00103
0.151314 -0.263299 0.998716
0.151665 -0.261657 0.996618
0.152028 -0.260034 0.994579
0.152471 -0.258474 0.992835
0.152902 -0.256912 0.991064
0.153328 -0.255354 0.989284
0.153729 -0.253786 0.987428
0.154211 -0.252279 0.98587
0.154748 -0.250814 0.984511
0.155318 -0.249375 0.983277
0.15591 -0.247955 0.982125
0.156494 -0.246534 0.980951
0.156999 -0.245068 0.979517
0.157497 -0.243603 0.978067
0.158017 -0.242157 0.976704
0.158518 -0.240704 0.975287
0.159075 -0.23929 0.974062
0.159754 -0.237953 0.973256
0.160394 -0.236596 0.972323
0.161106 -0.235283 0.971639
0.16174 -0.233928 0.970695
0.162335 -0.232554 0.969632
0.16282 -0.231123 0.968214
0.163327 -0.229709 0.966878
0.163786 -0.228273 0.965391
0.164376 -0.226914 0.964339
0.165022 -0.225588 0.963481
0.165731 -0.224297 0.962825
0.166492 -0.223036 0.962344
0.167253 -0.221776 0.961863
0.167983 -0.220502 0.961285
0.168705 -0.219226 0.960686
0.169402 -0.217938 0.960008
0.170048 -0.216628 0.959176
0.170663 -0.215307 0.958248
0.171241 -0.21397 0.957212
0.171737 -0.212598 0.955924
0.172278 -0.211251 0.954784
0.172852 -0.209924 0.953756
0.173464 -0.208617 0.952848
0.174107 -0.207327 0.952041
0.174798 -0.206061 0.95139
0.175435 -0.204773 0.950574
0.176119 -0.203507 0.949907
0.176802 -0.202243 0.949241
0.177463 -0.200973 0.94851
0.178145 -0.199712 0.94785
0.178852 -0.198464 0.947262
0.179508 -0.197198 0.946529
0.180192 -0.195944 0.945884
0.180899 -0.194702 0.945309
0.181605 -0.19346 0.944734
0.182338 -0.192231 0.944241
0.183076 -0.191004 0.943769
0.183788 -0.18977 0.94322
0.184495 -0.188534 0.94266
0.18517 -0.18729 0.942009
0.185817 -0.186037 0.941277
0.186493 -0.184796 0.940636
0.187198 -0.183567 0.940082
0.187876 -0.182331 0.939452
0.188658 -0.18113 0.939125
0.189471 -0.179941 0.938889
0.190302 -0.178757 0.938703
0.191075 -0.177556 0.938354
0.191916 -0.176376 0.938199
0.19258 -0.175142 0.937545
0.193134 -0.173877 0.936578
0.193647 -0.172603 0.935501
0.194183 -0.171339 0.934497
0.194585 -0.17004 0.933121
0.19507 -0.168768 0.931983
0.195633 -0.167521 0.931071
0.196234 -0.166287 0.930267
0.196846 -0.165059 0.9295
0.197596 -0.163868 0.92912
0.198236 -0.162651 0.928434
0.198893 -0.161439 0.927802
0.199542 -0.160228 0.927146
0.200163 -0.159011 0.926424
0.200787 -0.157797 0.925709
0.201528 -0.156612 0.925312
0.202217 -0.155416 0.924782
0.202878 -0.154216 0.924175
0.203584 -0.153026 0.923694
0.204259 -0.151831 0.92313
0.204942 -0.150639 0.92259
0.205687 -0.149463 0.92222
0.206493 -0.148298 0.922011
0.2073 -0.147134 0.921808
0.208075 -0.145965 0.921519
0.208815 -0.144789 0.921138
0.209458 -0.143595 0.920504
0.210097 -0.142403 0.919862
0.210711 -0.141208 0.919161
0.211361 -0.140022 0.918553
0.212041 -0.138842 0.918028
0.212805 -0.137676 0.917722
0.213574 -0.136513 0.917429
0.214345 -0.13535 0.917142
0.215143 -0.134191 0.916925
0.215938 -0.133033 0.916705
0.216798 -0.131884 0.916647
0.217698 -0.13074 0.916693
0.218639 -0.129601 0.91684
0.219514 -0.128454 0.916819
0.220432 -0.12731 0.916908
0.221285 -0.126159 0.91683
0.22212 -0.125005 0.916706
0.222956 -0.12385 0.916586
0.223851 -0.122703 0.916613
0.224656 -0.121546 0.916413
0.225488 -0.120391 0.916285
0.226415 -0.119246 0.916387
0.227354 -0.118102 0.916521
0.228423 -0.116968 0.916971
0.229586 -0.115841 0.917652
0.230784 -0.114715 0.918412
0.232398 -0.113619 0.920185
0.234182 -0.11253 0.922359
0.23611 -0.111445 0.924871
0.117465 -0.376608 1.12682
0.118535 -0.375255 1.12688
0.119609 -0.373904 1.12696
0.120664 -0.372527 1.12695
0.121691 -0.371113 1.12681
0.122735 -0.369721 1.12674
0.123753 -0.368297 1.12656
0.12475 -0.366843 1.12628
0.125773 -0.365424 1.12612
0.126821 -0.364036 1.12607
0.127845 -0.362616 1.12591
0.128894 -0.361229 1.12587
0.130001 -0.359909 1.12609
0.131113 -0.358596 1.12632
0.132258 -0.357319 1.12669
0.1334 -0.356034 1.12705
0.134482 -0.35468 1.12714
0.135508 -0.353257 1.12698
0.136556 -0.35186 1.12692
0.137527 -0.350378 1.12652
0.138444 -0.348832 1.12589
0.139297 -0.34722 1.12499
0.140024 -0.345474 1.12357
0.140634 -0.343605 1.12166
0.141171 -0.341669 1.11945
0.141496 -0.339514 1.11637
0.141774 -0.337326 1.11312
0.141807 -0.334897 1.10887
0.141743 -0.332387 1.10426
0.141612 -0.329832 1.09941
0.141672 -0.327492 1.09538
0.141648 -0.325087 1.09105
0.141861 -0.322938 1.08772
0.142097 -0.320828 1.08451
0.14247 -0.318865 1.08188
0.142755 -0.31683 1.07892
0.143117 -0.314881 1.07629
0.143386 -0.312858 1.07331
0.143538 -0.310736 1.06989
0.143597 -0.308544 1.06612
0.143708 -0.306417 1.0626
0.143882 -0.304364 1.05934
0.14409 -0.302356 1.05625
0.144441 -0.300488 1.05374
0.144737 -0.298584 1.05103
0.145038 -0.296693 1.04837
0.145364 -0.294839 1.04582
0.145596 -0.292913 1.04293
0.145907 -0.291068 1.04037
0.145975 -0.28903 1.0369
0.146155 -0.287099 1.03388
0.146275 -0.285132 1.03065
0.146481 -0.28325 1.02778
0.146625 -0.281329 1.0247
0.146902 -0.279528 1.02213
0.147172 -0.277731 1.01956
0.14741 -0.27592 1.01689
0.147746 -0.274197 1.0146
0.148038 -0.272449 1.01216
0.148354 -0.27073 1.00984
0.148692 -0.269036 1.0076
0.149027 -0.267349 1.00538
0.149267 -0.265602 1.00282
0.149523 -0.263876 1.00034
0.149821 -0.262191 0.998034
0.150178 -0.260557 0.995951
0.150545 -0.258938 0.993919
0.150964 -0.257364 0.992086
0.15137 -0.255787 0.990223
0.151795 -0.254231 0.988437
0.152175 -0.252651 0.9865
0.152659 -0.251149 0.984948
0.153198 -0.249688 0.983595
0.15379 -0.248266 0.982433
0.154354 -0.24683 0.981184
0.154914 -0.245397 0.979925
0.15539 -0.243915 0.978389
0.155885 -0.242452 0.97693
0.156388 -0.240998 0.975509
0.156893 -0.239551 0.974102
0.157476 -0.238156 0.972965
0.158133 -0.236809 0.972089
0.158775 -0.235456 0.971166
0.159489 -0.234148 0.970489
0.160149 -0.23281 0.969633
0.16075 -0.231443 0.968587
0.161286 -0.230043 0.967339
0.161845 -0.22866 0.966169
0.16236 -0.227257 0.964863
0.162956 -0.225903 0.963832
0.163656 -0.224607 0.963145
0.164364 -0.223318 0.962486
0.165124 -0.222058 0.962003
0.16586 -0.220786 0.961441
0.166588 -0.219512 0.960857
0.167261 -0.218213 0.9601
0.167958 -0.216928 0.959426
0.168578 -0.215607 0.95851
0.169167 -0.214274 0.9575
0.16974 -0.212938 0.956449
0.170233 -0.211567 0.955147
0.170749 -0.210211 0.953929
0.171303 -0.208877 0.952834
0.171913 -0.207572 0.951925
0.172529 -0.206272 0.951035
0.173242 -0.205018 0.950451
0.173877 -0.203732 0.94963
0.174588 -0.202481 0.94905
0.175277 -0.201222 0.9484
0.175964 -0.199964 0.947751
0.176645 -0.198706 0.947086
0.177377 -0.19747 0.946582
0.178037 -0.196207 0.94586
0.178774 -0.194976 0.945375
0.179511 -0.193747 0.944889
0.180249 -0.19252 0.944412
0.18099 -0.191294 0.943944
0.181727 -0.190069 0.943466
0.182435 -0.188834 0.942905
0.183111 -0.187589 0.942254
0.183787 -0.186346 0.941606
0.184438 -0.185096 0.940888
0.185115 -0.183857 0.940247
0.185791 -0.182619 0.939609
0.186462 -0.181382 0.938959
0.187215 -0.180174 0.93855
0.188028 -0.178986 0.938314
0.188854 -0.177802 0.93812
0.189623 -0.176601 0.937759
0.190457 -0.175421 0.937587
0.191148 -0.174197 0.937008
0.191732 -0.172943 0.936128
0.192255 -0.171674 0.935076
0.192791 -0.170412 0.934069
0.193191 -0.169114 0.932686
0.193642 -0.167834 0.931451
0.194179 -0.166582 0.930464
0.194809 -0.165358 0.929741
0.195425 -0.164133 0.928987
0.196176 -0.162944 0.928609
0.196842 -0.161735 0.927996
0.197527 -0.160532 0.927439
0.198181 -0.159322 0.926798
0.198866 -0.158123 0.926247
0.199556 -0.156925 0.925711
0.200331 -0.155749 0.925412
0.201051 -0.154561 0.924964
0.201713 -0.153361 0.924356
0.202387 -0.152165 0.923786
0.203062 -0.150971 0.923224
0.203748 -0.149781 0.922691
0.204499 -0.148605 0.922336
0.205334 -0.147447 0.922206
0.206169 -0.146289 0.922075
0.206947 -0.14512 0.921794
0.20772 -0.14395 0.921499
0.208404 -0.142765 0.920972
0.20911 -0.141585 0.920503
0.209758 -0.140396 0.919888
0.210436 -0.139213 0.91935
0.211114 -0.138032 0.918815
0.211876 -0.136866 0.918502
0.212617 -0.135697 0.918136
0.21336 -0.134529 0.917777
0.214155 -0.13337 0.91755
0.214946 -0.13221 0.917315
0.215804 -0.13106 0.917254
0.216704 -0.129916 0.917298
0.21767 -0.12878 0.917509
0.218544 -0.127631 0.917485
0.219493 -0.126491 0.917654
0.220386 -0.125344 0.917674
0.221257 -0.124193 0.917642
0.22213 -0.123042 0.917612
0.223052 -0.121896 0.917703
0.223853 -0.120737 0.917492
0.224679 -0.11958 0.917345
0.225602 -0.118433 0.917438
0.22654 -0.117288 0.917567
0.227613 -0.116152 0.918028
0.22875 -0.115021 0.918643
0.22995 -0.113893 0.919411
0.231476 -0.112788 0.920972
0.23332 -0.111701 0.923301
0.115977 -0.375434 1.12666
0.117078 -0.374123 1.12687
0.118172 -0.3728 1.12705
0.11922 -0.371416 1.12701
0.120247 -0.37 1.12687
0.121269 -0.368581 1.12671
0.122289 -0.367159 1.12653
0.123285 -0.365706 1.12625
0.124283 -0.364257 1.12597
0.125306 -0.362838 1.12581
0.126328 -0.36142 1.12565
0.127376 -0.360031 1.12561
0.128452 -0.358677 1.12569
0.129508 -0.357296 1.12568
0.13059 -0.355948 1.12578
0.131697 -0.354627 1.12599
0.132755 -0.353248 1.12598
0.133758 -0.351801 1.12572
0.134799 -0.350401 1.12564
0.135762 -0.348913 1.12522
0.136618 -0.347306 1.12433
0.137361 -0.345574 1.12296
0.137995 -0.34373 1.12114
0.138482 -0.341735 1.1187
0.138886 -0.339661 1.11593
0.139239 -0.337545 1.11297
0.139667 -0.335524 1.11035
0.139861 -0.33327 1.10676
0.139928 -0.330899 1.10268
0.139938 -0.328491 1.0984
0.139995 -0.32615 1.09435
0.139948 -0.323724 1.08989
0.140121 -0.32154 1.08639
0.140372 -0.319446 1.08323
0.140747 -0.317489 1.0806
0.141004 -0.315429 1.07752
0.141311 -0.313431 1.07465
0.141547 -0.31138 1.07154
0.141746 -0.309307 1.06829
0.141845 -0.307155 1.06467
0.141975 -0.305049 1.06121
0.142159 -0.303008 1.05798
0.142399 -0.301032 1.05501
0.142698 -0.29912 1.05228
0.142996 -0.29722 1.04958
0.143339 -0.295372 1.04707
0.14365 -0.293507 1.04446
0.143934 -0.291629 1.04176
0.144189 -0.289739 1.03897
0.144364 -0.287795 1.0359
0.144581 -0.285897 1.03301
0.144772 -0.283992 1.03005
0.145019 -0.282143 1.02732
0.14527 -0.280311 1.02462
0.14557 -0.278528 1.02213
0.14579 -0.276693 1.01936
0.146026 -0.274882 1.01667
0.146288 -0.273102 1.0141
0.146558 -0.271339 1.01157
0.146878 -0.269625 1.00925
0.147244 -0.267953 1.00711
0.147583 -0.266272 1.00489
0.147847 -0.264544 1.00241
0.148128 -0.262838 1.00002
0.148409 -0.261142 0.997634
0.148744 -0.259494 0.995464
0.149089 -0.257862 0.993349
0.14948 -0.25627 0.991409
0.149864 -0.254681 0.989462
0.150316 -0.253145 0.987763
0.150726 -0.251588 0.985934
0.151237 -0.250105 0.984468
0.151777 -0.248646 0.983112
0.152343 -0.247209 0.981858
0.152857 -0.245743 0.980433
0.153363 -0.244278 0.97899
0.153815 -0.242785 0.977367
0.154267 -0.241297 0.975757
0.154766 -0.239845 0.97432
0.155273 -0.238402 0.972921
0.155855 -0.23701 0.971783
0.156511 -0.235665 0.9709
0.15717 -0.234325 0.970039
0.157911 -0.233035 0.969453
0.158576 -0.231704 0.968616
0.159231 -0.230369 0.967755
0.159824 -0.229004 0.96669
0.160417 -0.227642 0.965631
0.160941 -0.226246 0.964351
0.161586 -0.224919 0.96348
0.162265 -0.223614 0.962723
0.162948 -0.222313 0.961984
0.163705 -0.221053 0.96149
0.164408 -0.219766 0.960822
0.165109 -0.218481 0.960152
0.165782 -0.217183 0.959397
0.166454 -0.215888 0.958644
0.167049 -0.214558 0.957646
0.167657 -0.213237 0.956697
0.168208 -0.211892 0.955574
0.168708 -0.210527 0.954296
0.169234 -0.209179 0.953106
0.169784 -0.207845 0.951999
0.170391 -0.206541 0.951079
0.171023 -0.205251 0.950241
0.171734 -0.203998 0.949653
0.172394 -0.202725 0.948908
0.173157 -0.201498 0.948488
0.17385 -0.200243 0.947851
0.174541 -0.198988 0.947215
0.175226 -0.197733 0.946563
0.175981 -0.196509 0.94613
0.176669 -0.195258 0.945495
0.17744 -0.194042 0.945109
0.178236 -0.192837 0.944803
0.179031 -0.191632 0.944497
0.179775 -0.190408 0.944038
0.180486 -0.189174 0.943484
0.18119 -0.187938 0.94291
0.181837 -0.186683 0.942169
0.182461 -0.185423 0.941364
0.183082 -0.184164 0.940558
0.183727 -0.182915 0.939823
0.184344 -0.181659 0.939011
0.18499 -0.180416 0.938287
0.185742 -0.179209 0.937879
0.186558 -0.178023 0.937657
0.187383 -0.176841 0.937457
0.188175 -0.175649 0.937169
0.189006 -0.174469 0.936989
0.189706 -0.17325 0.936435
0.190322 -0.172008 0.935645
0.19085 -0.170742 0.934609
0.191386 -0.169481 0.933601
0.191811 -0.168192 0.932281
0.192263 -0.166915 0.93105
0.192802 -0.165665 0.930067
0.193461 -0.164451 0.929426
0.194076 -0.163226 0.928667
0.194796 -0.162031 0.928203
0.195481 -0.160828 0.927641
0.196166 -0.159626 0.927085
0.19683 -0.158421 0.926473
0.197578 -0.157237 0.926097
0.19833 -0.156056 0.925731
0.199138 -0.154888 0.925521
0.199891 -0.153707 0.925157
0.200579 -0.152513 0.924624
0.201253 -0.151318 0.924054
0.20193 -0.150125 0.923491
0.202616 -0.148935 0.922958
0.203367 -0.147759 0.922603
0.204202 -0.146601 0.922473
0.205037 -0.145443 0.922342
0.205845 -0.14428 0.922138
0.206651 -0.143116 0.92193
0.207426 -0.141947 0.921641
0.208198 -0.140779 0.921346
0.208883 -0.139595 0.920821
0.209559 -0.138412 0.920277
0.210229 -0.137229 0.919718
0.210933 -0.136052 0.919252
0.211647 -0.134879 0.918813
0.212365 -0.133706 0.918384
0.21313 -0.132542 0.918082
0.213895 -0.131379 0.917777
0.21475 -0.130228 0.91771
0.215621 -0.129079 0.917679
0.216581 -0.127942 0.917876
0.21748 -0.126796 0.917914
0.218487 -0.125663 0.918229
0.219419 -0.124519 0.918351
0.220361 -0.123376 0.918496
0.221298 -0.122231 0.918626
0.22222 -0.121084 0.918717
0.223017 -0.119923 0.918496
0.22381 -0.118762 0.918262
0.224729 -0.117614 0.918343
0.225635 -0.116463 0.918392
0.226704 -0.115327 0.918846
0.227809 -0.114191 0.919382
0.229008 -0.113061 0.92015
0.230622 -0.11196 0.921933
0.232574 -0.110878 0.924532
0.114586 -0.37439 1.12696
0.115691 -0.373083 1.12719
0.116785 -0.371764 1.12737
0.117833 -0.370379 1.12734
0.11886 -0.368964 1.12719
0.119883 -0.367545 1.12703
0.120902 -0.366122 1.12685
0.121899 -0.36467 1.12657
0.122897 -0.363221 1.1263
0.123898 -0.361773 1.12604
0.124894 -0.360322 1.12576
0.125889 -0.358871 1.12548
0.12691 -0.35745 1.12531
0.127907 -0.356002 1.12503
0.128954 -0.354614 1.12499
0.130004 -0.353229 1.12495
0.131053 -0.351842 1.12491
0.132053 -0.350397 1.12465
0.133046 -0.348946 1.12436
0.133956 -0.3474 1.12371
0.13478 -0.345759 1.12269
0.135433 -0.343932 1.12093
0.135987 -0.342007 1.11876
0.13642 -0.339958 1.11609
0.136801 -0.337865 1.11322
0.137185 -0.335791 1.11038
0.13768 -0.333845 1.10804
0.137967 -0.331693 1.10485
0.138125 -0.329423 1.10113
0.138216 -0.3271 1.09717
0.138276 -0.324766 1.09311
0.138262 -0.322374 1.08878
0.138448 -0.320203 1.08531
0.138731 -0.318145 1.08227
0.139087 -0.316172 1.07956
0.13932 -0.314091 1.07636
0.139547 -0.31202 1.07317
0.139733 -0.309924 1.06983
0.139915 -0.307839 1.06651
0.140025 -0.305702 1.06293
0.140193 -0.303636 1.05961
0.14041 -0.301628 1.0565
0.140673 -0.299676 1.05361
0.140941 -0.297741 1.05075
0.141236 -0.295842 1.04803
0.141578 -0.293996 1.04551
0.141894 -0.292138 1.04291
0.14218 -0.290267 1.04022
0.142464 -0.288405 1.03753
0.142721 -0.286533 1.03477
0.143002 -0.284692 1.03211
0.143282 -0.282861 1.02948
0.14359 -0.281065 1.02697
0.143848 -0.279239 1.02429
0.1441 -0.277419 1.0216
0.144293 -0.275564 1.01872
0.144507 -0.273738 1.01594
0.144749 -0.271945 1.01328
0.145049 -0.270207 1.01086
0.145379 -0.268502 1.00856
0.145775 -0.266856 1.00653
0.146144 -0.265198 1.00441
0.146438 -0.263494 1.00204
0.146726 -0.261794 0.999652
0.147007 -0.2601 0.997262
0.147292 -0.258418 0.994904
0.147607 -0.256767 0.992672
0.147998 -0.255177 0.990728
0.148411 -0.25361 0.988875
0.148894 -0.252097 0.987284
0.149358 -0.250578 0.985638
0.149899 -0.249116 0.984275
0.150418 -0.247645 0.982841
0.150957 -0.246192 0.98149
0.151419 -0.244695 0.979879
0.151899 -0.243215 0.97834
0.152326 -0.241708 0.976631
0.152753 -0.240208 0.974932
0.15323 -0.238744 0.973411
0.153731 -0.237301 0.971989
0.154283 -0.235893 0.97075
0.154914 -0.234536 0.969788
0.155575 -0.2332 0.968929
0.156335 -0.231925 0.968411
0.157028 -0.230612 0.967672
0.157692 -0.229286 0.966839
0.158321 -0.227942 0.965893
0.158939 -0.226596 0.96492
0.159491 -0.225218 0.96373
0.160144 -0.223898 0.962884
0.160847 -0.222607 0.962205
0.161524 -0.221305 0.961449
0.162277 -0.220044 0.960942
0.16293 -0.218734 0.960113
0.163627 -0.217448 0.959429
0.164293 -0.21615 0.958652
0.164938 -0.214843 0.957812
0.16553 -0.213514 0.956805
0.166166 -0.212209 0.955947
0.166727 -0.210871 0.95485
0.167257 -0.209523 0.953667
0.167837 -0.208201 0.952647
0.168389 -0.206871 0.951545
0.168994 -0.205567 0.950615
0.169624 -0.204278 0.949768
0.17031 -0.203016 0.949105
0.170975 -0.201746 0.948377
0.171767 -0.200533 0.948048
0.172461 -0.19928 0.947417
0.17318 -0.198039 0.946866
0.173889 -0.196795 0.946288
0.174651 -0.195574 0.945873
0.175344 -0.194327 0.945252
0.176143 -0.193123 0.944954
0.176943 -0.19192 0.94466
0.177741 -0.190717 0.944363
0.178484 -0.189494 0.943902
0.179194 -0.18826 0.943344
0.17987 -0.187015 0.942683
0.180515 -0.185761 0.941939
0.181109 -0.184491 0.941043
0.181671 -0.183213 0.94006
0.182256 -0.181946 0.939149
0.182839 -0.180681 0.938235
0.183458 -0.17943 0.937435
0.184188 -0.178218 0.936963
0.185007 -0.177036 0.936752
0.185831 -0.175856 0.936554
0.186652 -0.174675 0.936352
0.187491 -0.1735 0.936201
0.188249 -0.1723 0.935815
0.188899 -0.171069 0.93512
0.18948 -0.169821 0.934235
0.190018 -0.168562 0.933231
0.190497 -0.167291 0.932063
0.190958 -0.166017 0.930853
0.191528 -0.164777 0.929955
0.192189 -0.163564 0.929321
0.192801 -0.16234 0.928548
0.193461 -0.16113 0.927917
0.194141 -0.159927 0.927343
0.194826 -0.158727 0.926786
0.195521 -0.15753 0.926261
0.19633 -0.156362 0.926051
0.19714 -0.155195 0.925847
0.197977 -0.154034 0.925716
0.198733 -0.152855 0.92536
0.199422 -0.151661 0.924827
0.2001 -0.150467 0.924264
0.200773 -0.149273 0.923694
0.201461 -0.148084 0.92316
0.202236 -0.146914 0.92287
0.203071 -0.145755 0.92274
0.203906 -0.144597 0.922609
0.204741 -0.143439 0.922478
0.205576 -0.142281 0.922347
0.206383 -0.141118 0.922143
0.207189 -0.139955 0.921935
0.207876 -0.138772 0.921415
0.208552 -0.137588 0.920865
0.209218 -0.136404 0.920298
0.209922 -0.135227 0.919825
0.210637 -0.134053 0.919387
0.211354 -0.132881 0.918955
0.212117 -0.131716 0.918645
0.21285 -0.130548 0.918258
0.21368 -0.129393 0.918123
0.214523 -0.128241 0.91802
0.21551 -0.127107 0.918286
0.216438 -0.125964 0.918402
0.217481 -0.124834 0.918809
0.218448 -0.123693 0.919019
0.219422 -0.122553 0.919245
0.220359 -0.121407 0.919377
0.221256 -0.120257 0.919404
0.222056 -0.119095 0.919187
0.222883 -0.117937 0.919038
0.223806 -0.116788 0.919128
0.22471 -0.115637 0.919172
0.225799 -0.1145 0.919677
0.226897 -0.113363 0.920197
0.228066 -0.112229 0.920892
0.22977 -0.111132 0.922903
0.231792 -0.110051 0.925684
0.113203 -0.373357 1.12729
0.114305 -0.372048 1.12752
0.115402 -0.370731 1.12771
0.116454 -0.36935 1.12769
0.117481 -0.367936 1.12755
0.118503 -0.366517 1.12739
0.119522 -0.365093 1.12721
0.120515 -0.363637 1.12691
0.121512 -0.362185 1.12663
0.122485 -0.360704 1.12624
0.123454 -0.359218 1.12583
0.124418 -0.35773 1.12541
0.125385 -0.356245 1.125
0.126329 -0.354734 1.12449
0.127319 -0.353281 1.12419
0.128282 -0.351796 1.12377
0.129273 -0.350345 1.12348
0.130246 -0.348873 1.1231
0.131191 -0.347369 1.12261
0.132069 -0.345795 1.12182
0.132888 -0.344153 1.12078
0.133512 -0.342301 1.1189
0.13407 -0.340381 1.11674
0.13456 -0.3384 1.11431
0.134976 -0.33635 1.11159
0.135391 -0.33431 1.10888
0.135912 -0.332397 1.10665
0.136231 -0.330282 1.10357
0.136379 -0.328002 1.0998
0.136506 -0.325722 1.09597
0.136601 -0.323424 1.09205
0.136645 -0.321092 1.08794
0.136859 -0.318952 1.08457
0.137149 -0.316902 1.08155
0.137508 -0.314932 1.07883
0.137719 -0.312832 1.07553
0.137899 -0.310718 1.07213
0.13804 -0.308582 1.0686
0.138227 -0.306505 1.06529
0.138322 -0.304356 1.06163
0.138521 -0.302321 1.05842
0.138717 -0.300296 1.05522
0.138952 -0.298323 1.05221
0.139166 -0.296343 1.04913
0.139407 -0.294401 1.04619
0.139677 -0.292496 1.04338
0.139971 -0.290626 1.04069
0.140262 -0.288764 1.03801
0.140603 -0.286956 1.03554
0.140965 -0.285175 1.03318
0.141357 -0.283431 1.03095
0.141752 -0.281698 1.02874
0.142119 -0.279951 1.02645
0.142404 -0.278148 1.02386
0.142605 -0.27629 1.02097
0.142749 -0.274398 1.0179
0.142938 -0.272555 1.01501
0.143182 -0.270766 1.01235
0.143514 -0.269056 1.01004
0.143899 -0.267395 1.00794
0.144353 -0.265794 1.00611
0.144758 -0.264163 1.00412
0.145084 -0.262484 1.00185
0.145354 -0.260773 0.99939
0.14561 -0.259062 0.996902
0.145842 -0.257345 0.994344
0.146127 -0.255674 0.991996
0.146494 -0.25407 0.989955
0.146935 -0.252524 0.988201
0.147455 -0.251038 0.986738
0.147977 -0.24956 0.985292
0.148549 -0.24812 0.984035
0.149094 -0.246667 0.98269
0.149608 -0.245199 0.981244
0.150041 -0.243685 0.979528
0.150491 -0.242188 0.97788
0.150896 -0.240668 0.976084
0.151299 -0.239155 0.974298
0.151771 -0.237691 0.972761
0.152271 -0.236249 0.97133
0.152802 -0.234831 0.970017
0.153409 -0.233463 0.968969
0.154043 -0.232113 0.96802
0.154803 -0.23084 0.967506
0.155476 -0.229518 0.9667
0.156168 -0.22821 0.965961
0.156818 -0.226881 0.965088
0.15749 -0.225567 0.964295
0.158068 -0.224205 0.963191
0.158769 -0.222913 0.962502
0.159473 -0.221624 0.961826
0.160152 -0.220324 0.961074
0.160878 -0.219051 0.96048
0.161503 -0.217727 0.959556
0.162149 -0.216419 0.958711
0.162813 -0.215121 0.957925
0.163431 -0.213804 0.956999
0.164025 -0.212477 0.955997
0.164665 -0.211177 0.955148
0.165276 -0.209865 0.954217
0.16584 -0.208535 0.953139
0.166472 -0.207239 0.952281
0.16703 -0.205913 0.951198
0.167634 -0.20461 0.95026
0.168268 -0.203324 0.949428
0.168958 -0.202065 0.948776
0.169631 -0.200801 0.948071
0.170453 -0.199602 0.947834
0.171196 -0.19837 0.947357
0.171917 -0.19713 0.94681
0.172626 -0.195887 0.946231
0.173388 -0.194667 0.945816
0.174106 -0.193431 0.945269
0.174908 -0.192229 0.944983
0.175709 -0.191027 0.944692
0.176504 -0.189823 0.944386
0.177241 -0.188598 0.943907
0.177924 -0.187355 0.943264
0.178573 -0.186101 0.942526
0.179195 -0.18484 0.941709
0.179759 -0.183561 0.940722
0.180264 -0.182265 0.939567
0.180813 -0.180987 0.938545
0.181368 -0.179715 0.937551
0.182011 -0.178474 0.936821
0.182767 -0.177272 0.936429
0.183614 -0.176101 0.936302
0.184443 -0.174923 0.93612
0.185291 -0.173752 0.935998
0.186134 -0.172579 0.93586
0.186897 -0.171382 0.935489
0.187576 -0.170161 0.934879
0.188184 -0.168922 0.934066
0.188727 -0.167666 0.933074
0.189239 -0.166405 0.931999
0.189734 -0.165142 0.930882
0.19034 -0.163913 0.930084
0.191028 -0.162708 0.929523
0.19164 -0.161484 0.92875
0.192271 -0.160267 0.928033
0.192948 -0.159064 0.92745
0.193633 -0.157864 0.926894
0.194332 -0.156669 0.926377
0.195169 -0.155508 0.926246
0.196006 -0.154347 0.926114
0.196843 -0.153186 0.925983
0.197599 -0.152007 0.925628
0.198288 -0.150814 0.925094
0.198966 -0.14962 0.924531
0.199642 -0.148427 0.923961
0.200329 -0.147238 0.923428
0.201105 -0.146068 0.923137
0.20194 -0.14491 0.923006
0.202775 -0.143752 0.922876
0.20361 -0.142594 0.922745
0.204445 -0.141435 0.922614
0.205279 -0.140277 0.922483
0.206114 -0.139119 0.922352
0.206805 -0.137937 0.921841
0.207481 -0.136753 0.921291
0.208146 -0.135569 0.920714
0.20882 -0.134388 0.920164
0.209509 -0.13321 0.919653
0.210223 -0.132037 0.919215
0.211013 -0.130877 0.918972
0.211744 -0.129708 0.918578
0.212571 -0.128553 0.918435
0.213413 -0.1274 0.918331
0.214433 -0.12627 0.918687
0.21537 -0.125128 0.918824
0.216449 -0.124001 0.919325
0.217446 -0.122863 0.919613
0.218446 -0.121725 0.919906
0.21938 -0.120578 0.920029
0.220306 -0.11943 0.920129
0.221141 -0.118272 0.919999
0.222007 -0.117116 0.919946
0.222937 -0.115967 0.920055
0.223844 -0.114815 0.920104
0.224904 -0.113674 0.920535
0.225966 -0.112532 0.920969
0.227101 -0.111394 0.921578
0.22869 -0.110287 0.923312
0.230768 -0.109205 0.926245
0.111841 -0.375193 1.13289
0.111799 -0.372298 1.12753
0.112898 -0.370984 1.12774
0.114018 -0.369697 1.12805
0.115069 -0.368316 1.12803
0.116098 -0.366906 1.12789
0.117121 -0.365487 1.12773
0.118138 -0.364059 1.12755
0.119131 -0.362603 1.12725
0.120125 -0.361149 1.12696
0.121074 -0.359636 1.12645
0.122012 -0.358112 1.1259
0.122943 -0.356582 1.12532
0.123878 -0.355061 1.12477
0.124797 -0.35352 1.12414
0.125738 -0.352009 1.12362
0.126622 -0.350432 1.12284
0.127551 -0.348912 1.12227
0.12846 -0.347369 1.12162
0.129328 -0.345783 1.12079
0.130185 -0.344187 1.11992
0.131023 -0.342573 1.11897
0.131648 -0.340724 1.11709
0.132239 -0.33885 1.11508
0.132771 -0.336918 1.11282
0.133196 -0.33488 1.11013
0.133586 -0.332817 1.1073
0.134124 -0.330925 1.10514
0.134446 -0.328817 1.10207
0.134628 -0.326577 1.09843
0.134853 -0.324398 1.095
0.135036 -0.322194 1.09143
0.135117 -0.3199 1.08745
0.135361 -0.317791 1.0842
0.135657 -0.315747 1.08118
0.135966 -0.31373 1.07824
0.136126 -0.311582 1.07472
0.136305 -0.309465 1.0713
0.136401 -0.307289 1.06758
0.136567 -0.305195 1.06416
0.136663 -0.303051 1.06049
0.136862 -0.301018 1.05727
0.136964 -0.298911 1.05368
0.137153 -0.296899 1.05047
0.137315 -0.294876 1.04718
0.137509 -0.292897 1.04405
0.137731 -0.290958 1.04105
0.138055 -0.289117 1.03847
0.138401 -0.287308 1.036
0.13882 -0.285571 1.03383
0.139273 -0.283872 1.03182
0.139753 -0.282203 1.02992
0.140186 -0.280505 1.02786
0.140557 -0.278764 1.02557
0.140818 -0.276944 1.02288
0.14097 -0.275049 1.0198
0.141085 -0.273138 1.0166
0.141275 -0.271299 1.01371
0.141548 -0.269536 1.01115
0.141911 -0.267852 1.00895
0.142375 -0.266254 1.00714
0.142886 -0.264697 1.00552
0.143345 -0.263109 1.00372
0.143706 -0.261457 1.00157
0.144002 -0.259766 0.9992
0.144236 -0.258041 0.996621
0.144439 -0.256303 0.993942
0.144721 -0.254633 0.991575
0.145089 -0.253031 0.989536
0.145542 -0.251495 0.987816
0.146117 -0.250048 0.986546
0.146694 -0.248607 0.985292
0.147295 -0.247187 0.984134
0.147843 -0.245737 0.982794
0.148358 -0.24427 0.981345
0.148765 -0.24274 0.979528
0.149166 -0.241212 0.9777
0.14952 -0.239663 0.975718
0.149899 -0.238137 0.973845
0.150328 -0.236648 0.972152
0.150805 -0.235194 0.97064
0.15136 -0.233793 0.969405
0.151945 -0.232413 0.968282
0.152605 -0.231081 0.967423
0.153366 -0.22981 0.96691
0.154057 -0.2285 0.966165
0.154725 -0.227181 0.965346
0.155397 -0.225866 0.964546
0.156066 -0.224553 0.963742
0.156671 -0.223207 0.962727
0.157356 -0.221907 0.961985
0.158061 -0.22062 0.961314
0.158761 -0.219334 0.960631
0.159464 -0.21805 0.959962
0.160093 -0.216731 0.959049
0.160713 -0.215411 0.958118
0.161351 -0.214102 0.957248
0.161943 -0.212774 0.956236
0.162539 -0.211451 0.955242
0.163181 -0.210154 0.954403
0.163822 -0.208858 0.953561
0.164411 -0.207542 0.952562
0.165047 -0.20625 0.951718
0.165635 -0.204939 0.950726
0.16627 -0.203652 0.94989
0.166956 -0.20239 0.949219
0.167699 -0.201156 0.94873
0.168425 -0.199915 0.948193
0.169275 -0.198728 0.948045
0.170048 -0.197509 0.94766
0.170767 -0.196268 0.947105
0.171476 -0.195026 0.946523
0.172235 -0.193804 0.946098
0.172952 -0.192568 0.945547
0.173753 -0.191365 0.945255
0.174526 -0.190152 0.94488
0.17529 -0.188937 0.944479
0.175995 -0.187702 0.9439
0.17665 -0.186449 0.94317
0.177251 -0.185179 0.942285
0.177822 -0.183901 0.941313
0.178329 -0.182604 0.940154
0.178805 -0.1813 0.93891
0.179328 -0.180015 0.937813
0.179884 -0.178745 0.93682
0.180554 -0.177516 0.93617
0.18134 -0.176326 0.935866
0.182187 -0.175155 0.935743
0.183038 -0.173986 0.935629
0.183911 -0.172824 0.935581
0.18478 -0.17166 0.93552
0.185569 -0.170472 0.935228
0.186275 -0.16926 0.934695
0.186914 -0.168031 0.933973
0.18746 -0.166777 0.932984
0.188005 -0.165527 0.932003
0.18853 -0.164273 0.930964
0.189143 -0.163046 0.930187
0.189808 -0.161836 0.929557
0.190447 -0.16062 0.928859
0.191078 -0.159404 0.92814
0.191758 -0.158202 0.927566
0.192472 -0.15701 0.927088
0.193198 -0.155822 0.926644
0.194035 -0.15466 0.926513
0.194872 -0.153499 0.926382
0.195709 -0.152338 0.926251
0.196462 -0.151159 0.925887
0.19715 -0.149966 0.925348
0.197826 -0.148772 0.924776
0.198504 -0.14758 0.924215
0.199194 -0.146392 0.923686
0.199973 -0.145222 0.923404
0.200808 -0.144064 0.923274
0.201643 -0.142906 0.923143
0.202478 -0.141748 0.923012
0.203313 -0.140589 0.922881
0.204148 -0.139431 0.92275
0.204982 -0.138273 0.92262
0.205674 -0.137091 0.922107
0.206351 -0.135908 0.921557
0.207017 -0.134725 0.920981
0.207719 -0.133548 0.920503
0.208437 -0.132375 0.920069
0.209156 -0.131203 0.91964
0.209946 -0.130042 0.919399
0.210674 -0.128873 0.918993
0.211473 -0.127714 0.918777
0.212311 -0.126561 0.918663
0.213364 -0.125434 0.919105
0.214337 -0.124295 0.919337
0.215425 -0.123169 0.919863
0.216419 -0.122031 0.920145
0.21741 -0.12089 0.920416
0.21834 -0.119742 0.920528
0.219296 -0.118596 0.920706
0.220196 -0.117444 0.920739
0.221157 -0.116297 0.920926
0.222125 -0.115149 0.921128
0.223068 -0.113998 0.921269
0.224156 -0.112858 0.921769
0.225194 -0.111712 0.922141
0.226237 -0.110565 0.922524
0.227907 -0.10946 0.924464
0.230043 -0.108379 0.927547
0.110454 -0.374161 1.13324
0.11039 -0.371228 1.12773
0.111488 -0.369915 1.12795
0.112606 -0.368628 1.12825
0.113681 -0.367277 1.12834
0.114708 -0.365864 1.1282
0.115731 -0.364445 1.12804
0.11675 -0.36302 1.12786
0.117743 -0.361565 1.12756
0.11874 -0.360114 1.12728
0.119663 -0.358568 1.12666
0.120573 -0.35701 1.12597
0.121473 -0.355444 1.12525
0.122358 -0.35386 1.12446
0.123226 -0.352259 1.1236
0.124142 -0.350718 1.12297
0.12497 -0.349078 1.12194
0.125814 -0.34746 1.12099
0.126662 -0.34585 1.12007
0.127469 -0.344198 1.11897
0.128297 -0.342574 1.11797
0.129136 -0.340967 1.11703
0.129822 -0.339192 1.11542
0.130471 -0.337385 1.11366
0.131042 -0.3355 1.11158
0.131471 -0.33347 1.10889
0.131863 -0.331412 1.10606
0.132372 -0.329492 1.10376
0.132719 -0.327412 1.10079
0.132962 -0.325239 1.0974
0.133275 -0.323153 1.09433
0.133526 -0.321018 1.09103
0.133649 -0.318768 1.08721
0.133877 -0.316642 1.08387
0.13417 -0.314597 1.08083
0.134429 -0.312531 1.07767
0.134562 -0.310358 1.07402
0.134742 -0.308246 1.07059
0.134814 -0.306048 1.06674
0.134932 -0.303909 1.06312
0.135 -0.30174 1.05932
0.13515 -0.299666 1.05589
0.135181 -0.297498 1.052
0.135326 -0.295449 1.04861
0.135439 -0.293388 1.04511
0.135586 -0.291372 1.04178
0.135812 -0.28944 1.03879
0.136186 -0.28765 1.03641
0.136591 -0.285895 1.03416
0.137098 -0.284238 1.03234
0.137638 -0.282616 1.03066
0.138181 -0.281002 1.02901
0.138643 -0.279329 1.02705
0.138992 -0.277574 1.02467
0.139225 -0.275734 1.02187
0.139348 -0.273819 1.01866
0.139444 -0.271896 1.01538
0.139637 -0.270062 1.01249
0.139943 -0.268328 1.01005
0.140338 -0.266671 1.00796
0.140831 -0.265098 1.00626
0.141373 -0.263567 1.00475
0.141862 -0.262003 1.00305
0.142273 -0.260389 1.00109
0.142597 -0.258721 0.998809
0.142858 -0.257016 0.996314
0.143067 -0.255284 0.993649
0.14333 -0.253602 0.991202
0.1437 -0.252003 0.989159
0.144179 -0.250486 0.987529
0.144782 -0.24906 0.986358
0.145414 -0.247657 0.985299
0.146043 -0.246255 0.984233
0.146593 -0.244807 0.982894
0.147084 -0.243326 0.981356
0.147491 -0.241796 0.97953
0.147894 -0.240271 0.977701
0.148225 -0.238708 0.975636
0.14858 -0.237168 0.973665
0.149006 -0.235679 0.971961
0.149462 -0.234214 0.970366
0.149999 -0.232803 0.969067
0.150611 -0.23144 0.968033
0.151296 -0.230124 0.967257
0.152055 -0.228853 0.966739
0.152746 -0.227545 0.965994
0.15341 -0.226224 0.965158
0.154056 -0.224896 0.964271
0.154703 -0.223571 0.963389
0.155286 -0.222215 0.962298
0.155971 -0.220917 0.961556
0.15668 -0.219634 0.960897
0.15741 -0.218364 0.960312
0.158112 -0.217082 0.959639
0.158764 -0.215776 0.958806
0.159384 -0.214457 0.957867
0.160022 -0.21315 0.956998
0.160614 -0.211823 0.955983
0.161214 -0.210503 0.954997
0.161854 -0.209206 0.954151
0.162495 -0.207912 0.95331
0.163084 -0.206597 0.952307
0.163725 -0.205308 0.95148
0.164341 -0.204011 0.950575
0.164981 -0.202728 0.94975
0.165668 -0.201467 0.949082
0.166412 -0.200234 0.948602
0.167166 -0.199006 0.948146
0.168018 -0.19782 0.948007
0.16882 -0.196614 0.947712
0.169566 -0.195386 0.947239
0.170303 -0.194155 0.946744
0.171059 -0.192932 0.946309
0.1718 -0.191705 0.945829
0.172573 -0.190492 0.945453
0.173318 -0.189269 0.944989
0.174052 -0.188043 0.944494
0.174729 -0.186798 0.943829
0.175356 -0.185536 0.943014
0.17593 -0.184257 0.942044
0.176468 -0.182969 0.94097
0.176947 -0.181664 0.939726
0.177419 -0.18036 0.938467
0.177949 -0.17908 0.93739
0.17854 -0.177823 0.936499
0.179244 -0.176606 0.935946
0.180057 -0.175426 0.935726
0.180905 -0.174256 0.935605
0.181756 -0.173088 0.935493
0.182622 -0.171924 0.935428
0.183489 -0.17076 0.93536
0.184278 -0.169573 0.935071
0.184986 -0.168363 0.934542
0.185654 -0.167143 0.933902
0.186202 -0.165892 0.93292
0.186775 -0.164649 0.932012
0.187325 -0.163404 0.931047
0.187938 -0.162178 0.930265
0.188579 -0.160961 0.929566
0.189244 -0.159753 0.928939
0.189879 -0.158539 0.928228
0.190564 -0.157339 0.927667
0.191309 -0.156154 0.927277
0.192064 -0.154974 0.926912
0.192901 -0.153813 0.926781
0.193738 -0.152652 0.92665
0.194575 -0.15149 0.926518
0.195299 -0.150305 0.926076
0.195985 -0.149112 0.925529
0.19666 -0.147918 0.924951
0.197341 -0.146727 0.924395
0.198034 -0.14554 0.923875
0.198842 -0.144377 0.923671
0.199677 -0.143219 0.92354
0.200512 -0.14206 0.92341
0.201347 -0.140902 0.923279
0.202182 -0.139744 0.923148
0.203016 -0.138586 0.923017
0.203851 -0.137428 0.922886
0.20457 -0.13625 0.922447
0.205277 -0.135072 0.921974
0.205973 -0.133894 0.921478
0.206708 -0.132722 0.921084
0.207457 -0.131553 0.920731
0.208209 -0.130386 0.920383
0.208977 -0.129221 0.920084
0.209678 -0.128048 0.919609
0.210472 -0.126888 0.919376
0.211307 -0.125733 0.919254
0.212334 -0.124602 0.919629
0.213338 -0.123467 0.919941
0.214453 -0.122343 0.920537
0.215446 -0.121203 0.920817
0.216436 -0.120062 0.921084
0.217365 -0.118912 0.921196
0.218324 -0.117766 0.921381
0.21923 -0.116613 0.921428
0.220227 -0.115468 0.921708
0.221228 -0.114322 0.921994
0.222261 -0.113178 0.922359
0.223446 -0.112044 0.923105
0.22458 -0.110903 0.923718
0.225655 -0.109756 0.92418
0.227559 -0.108662 0.926706
0.229673 -0.107573 0.929744
0.1091 -0.373173 1.13376
0.109012 -0.370202 1.1281
0.110099 -0.368873 1.12825
0.111218 -0.367588 1.12857
0.112288 -0.366235 1.12864
0.113316 -0.364819 1.1285
0.114338 -0.3634 1.12834
0.115357 -0.361978 1.12816
0.116355 -0.360526 1.12788
0.117354 -0.359078 1.12761
0.118254 -0.357502 1.12687
0.119139 -0.355913 1.12607
0.120015 -0.354316 1.12523
0.120848 -0.35267 1.1242
0.121689 -0.351037 1.12321
0.122576 -0.349463 1.12244
0.123352 -0.347764 1.12118
0.124115 -0.346053 1.11986
0.124927 -0.344402 1.11877
0.125674 -0.342684 1.1174
0.126474 -0.341034 1.11628
0.127318 -0.339438 1.11537
0.128085 -0.337758 1.11412
0.128771 -0.335994 1.11252
0.129371 -0.334143 1.11056
0.12983 -0.332148 1.10799
0.130217 -0.330088 1.10513
0.130655 -0.328095 1.10252
0.131005 -0.32602 1.09955
0.131283 -0.323885 1.09629
0.131631 -0.32184 1.09337
0.13195 -0.319775 1.09034
0.132153 -0.317609 1.08685
0.132388 -0.315489 1.08352
0.132659 -0.313422 1.08037
0.132869 -0.311309 1.07699
0.132978 -0.309112 1.07322
0.13311 -0.306956 1.06957
0.133137 -0.304718 1.06553
0.133209 -0.30254 1.0617
0.133249 -0.300348 1.05777
0.133352 -0.298233 1.05413
0.13336 -0.296047 1.05014
0.133506 -0.294004 1.04674
0.133622 -0.29195 1.04324
0.13377 -0.28994 1.03991
0.134023 -0.288036 1.03702
0.134407 -0.286258 1.03467
0.134869 -0.284558 1.03265
0.135462 -0.282977 1.03117
0.136038 -0.281389 1.02963
0.136587 -0.279783 1.02799
0.137067 -0.278129 1.02611
0.137387 -0.276351 1.0236
0.137549 -0.274457 1.02051
0.137675 -0.272547 1.01731
0.1378 -0.270651 1.01413
0.138028 -0.268847 1.01136
0.13837 -0.267144 1.00905
0.138839 -0.265547 1.00724
0.139365 -0.264 1.00565
0.139907 -0.262471 1.00414
0.140398 -0.260911 1.00245
0.14081 -0.2593 1.00048
0.14114 -0.257637 0.998213
0.141435 -0.255959 0.995839
0.14168 -0.254255 0.993294
0.141973 -0.252595 0.990947
0.142367 -0.251014 0.988987
0.14287 -0.249515 0.987436
0.143477 -0.248092 0.986271
0.144113 -0.246692 0.985221
0.144743 -0.245292 0.984158
0.145291 -0.243844 0.982809
0.145783 -0.242363 0.981267
0.146195 -0.240839 0.979454
0.146626 -0.239332 0.977719
0.146963 -0.237774 0.97566
0.147317 -0.236234 0.97368
0.147715 -0.234728 0.971867
0.148169 -0.233264 0.970263
0.148684 -0.23184 0.968881
0.149301 -0.230482 0.967862
0.149989 -0.229169 0.967094
0.150722 -0.227884 0.966489
0.15144 -0.226592 0.965834
0.152079 -0.225258 0.964911
0.152732 -0.223935 0.964042
0.153398 -0.222622 0.963227
0.154004 -0.22128 0.962211
0.154667 -0.219971 0.961388
0.155396 -0.218699 0.960799
0.156128 -0.217431 0.96022
0.156811 -0.21614 0.95948
0.157489 -0.214848 0.958731
0.158109 -0.21353 0.957792
0.158749 -0.212225 0.956927
0.159341 -0.210899 0.955909
0.159937 -0.209579 0.954909
0.160554 -0.208272 0.953984
0.161193 -0.206978 0.953135
0.161785 -0.205665 0.952141
0.16245 -0.204388 0.951385
0.163065 -0.203092 0.950477
0.163705 -0.20181 0.949652
0.164394 -0.200551 0.948986
0.165163 -0.199329 0.948582
0.165942 -0.198113 0.948211
0.166799 -0.19693 0.948085
0.167628 -0.195735 0.947875
0.168399 -0.194517 0.947484
0.16914 -0.193287 0.946996
0.169876 -0.192058 0.946499
0.170644 -0.190842 0.946102
0.171391 -0.189619 0.945643
0.172109 -0.188386 0.945095
0.172816 -0.18715 0.944514
0.173466 -0.185895 0.943763
0.174066 -0.184624 0.942867
0.174614 -0.183338 0.941813
0.17512 -0.18204 0.94064
0.175591 -0.180734 0.939368
0.176064 -0.179432 0.93811
0.176604 -0.178157 0.937057
0.177256 -0.176922 0.936347
0.177993 -0.175717 0.935896
