ply
format ascii 1.0
element vertex 1613
property float x
property float y
property float z
end_header
0.0480783 -0.0759158 0.680829
0.0491475 -0.0761149 0.679895
0.0501779 -0.0762696 0.678589
0.0512397 -0.0764646 0.677635
0.0522739 -0.076629 0.676433
0.053298 -0.076787 0.675169
0.0543207 -0.0769432 0.67392
0.0553877 -0.0771545 0.673127
0.05644 -0.0773516 0.672217
0.0575702 -0.0776337 0.672038
0.0587336 -0.0779505 0.672156
0.0598905 -0.0782613 0.672213
0.0610624 -0.0785867 0.672393
0.0622479 -0.0789267 0.672683
0.0633937 -0.079224 0.672622
0.0645325 -0.0795131 0.672498
0.0657074 -0.0798377 0.672671
0.0668711 -0.0801524 0.672747
0.0680273 -0.0804577 0.672754
0.0692141 -0.0807943 0.673002
0.0704146 -0.0811422 0.673347
0.0716601 -0.0815327 0.674028
0.0389614 -0.0734214 0.693434
0.0400159 -0.0735715 0.69197
0.0411029 -0.0737666 0.690936
0.0421788 -0.0739505 0.689805
0.0432292 -0.0741052 0.688419
0.0442451 -0.0742197 0.686687
0.0452748 -0.0743588 0.685171
0.0462738 -0.0744634 0.683365
0.0473001 -0.074605 0.681905
0.0483395 -0.0747657 0.680625
0.0493867 -0.074939 0.679464
0.0503984 -0.0750753 0.677978
0.0514411 -0.0752512 0.676845
0.0524642 -0.0754057 0.675547
0.0534789 -0.0755564 0.674208
0.0545076 -0.0757239 0.673035
0.0555845 -0.0759471 0.672345
0.0566458 -0.0761539 0.671525
0.0577751 -0.0764365 0.671347
0.0589437 -0.0767595 0.67152
0.0601008 -0.0770706 0.671583
0.0612727 -0.077397 0.671771
0.0624587 -0.0777359 0.672068
0.063603 -0.0780319 0.671999
0.0647421 -0.0783214 0.671883
0.0659151 -0.0786466 0.672049
0.0670802 -0.0789614 0.672139
0.0682364 -0.0792684 0.672153
0.0694238 -0.0796034 0.672408
0.0706247 -0.0799509 0.672759
0.0718718 -0.0803409 0.673454
0.0394663 -0.0725716 0.696177
0.0402627 -0.0723789 0.691535
0.0413627 -0.0725939 0.690668
0.042438 -0.0727796 0.689537
0.0434868 -0.0729365 0.688145
0.0445026 -0.0730546 0.686421
0.045527 -0.0731889 0.684849
0.0465255 -0.0732947 0.683043
0.0475488 -0.0734376 0.681563
0.0485712 -0.0735799 0.680111
0.0495983 -0.073734 0.678756
0.050598 -0.073859 0.67716
0.0516221 -0.0740161 0.675855
0.0526347 -0.0741641 0.674475
0.0536572 -0.0743257 0.673226
0.054695 -0.0745069 0.672157
0.0557803 -0.0747405 0.671557
0.0568485 -0.0749575 0.670813
0.0579854 -0.0752483 0.670711
0.0591456 -0.0755631 0.670816
0.0603018 -0.075874 0.670879
0.0614734 -0.0761982 0.671066
0.0626593 -0.076538 0.67137
0.0638028 -0.0768339 0.671302
0.0649486 -0.0771301 0.671247
0.0661202 -0.0774533 0.671406
0.0672853 -0.0777691 0.671503
0.0684446 -0.0780772 0.671545
0.0696312 -0.0784134 0.6718
0.0708319 -0.0787587 0.672151
0.0720875 -0.0791556 0.672914
0.0408171 -0.0715851 0.694811
0.0416284 -0.071431 0.690476
0.0426886 -0.0715989 0.689173
0.0437225 -0.0717388 0.687614
0.0447293 -0.0718515 0.685808
0.0457522 -0.0719859 0.68423
0.0467427 -0.0720877 0.682355
0.0477651 -0.0722311 0.680876
0.0487698 -0.0723587 0.679258
0.0497773 -0.0724938 0.677718
0.0507646 -0.0726097 0.676019
0.0517774 -0.0727563 0.674617
0.0527829 -0.0729007 0.673189
0.0538212 -0.0730824 0.672113
0.0548756 -0.0732839 0.671217
0.0559675 -0.0735275 0.670694
0.0570531 -0.073765 0.670123
0.0581898 -0.0740567 0.670027
0.059341 -0.0743616 0.670056
0.0604958 -0.0746704 0.670112
0.0616567 -0.0749854 0.670217
0.0628419 -0.0753237 0.670521
0.0639944 -0.0756277 0.670535
0.0651482 -0.075933 0.670557
0.0663192 -0.076256 0.670716
0.0674922 -0.0765785 0.670882
0.068649 -0.0768854 0.67091
0.0698273 -0.0772123 0.671103
0.0710252 -0.0775572 0.67144
0.0722785 -0.0779509 0.67219
0.0418802 -0.07025 0.690118
0.0429305 -0.0704095 0.688711
0.0439541 -0.0705408 0.68705
0.0449576 -0.0706517 0.685216
0.0459655 -0.0707717 0.683486
0.0469531 -0.0708751 0.681599
0.0479676 -0.0710125 0.68005
0.0489568 -0.0711265 0.678288
0.0499462 -0.0712454 0.676583
0.05093 -0.0713626 0.674871
0.0519346 -0.0715034 0.673407
0.0529471 -0.0716598 0.672069
0.0540016 -0.0718618 0.671166
0.0550723 -0.072082 0.670436
0.0561734 -0.0723371 0.67001
0.057268 -0.0725843 0.669528
0.058405 -0.0728764 0.66944
0.0595461 -0.0731721 0.669386
0.0606891 -0.0734695 0.669346
0.0618459 -0.0737811 0.669423
0.0630225 -0.0741091 0.669658
0.0641663 -0.0744072 0.669611
0.0653206 -0.0747138 0.669646
0.0664918 -0.0750344 0.669812
0.0676618 -0.0753562 0.669964
0.0688263 -0.0756698 0.670061
0.0700018 -0.0759948 0.670241
0.071199 -0.0763374 0.670578
0.0724399 -0.076719 0.671238
0.0740324 -0.078796 0.676714
0.0736897 -0.0771069 0.671946
0.0421388 -0.0690764 0.689836
0.0431785 -0.0692269 0.688319
0.0441927 -0.0693503 0.686561
0.0451878 -0.0694545 0.684645
0.0461845 -0.0695678 0.682812
0.0471709 -0.069673 0.680925
0.0481765 -0.0698053 0.679301
0.0491565 -0.0699118 0.677457
0.0501383 -0.0700257 0.67569
0.0511207 -0.070144 0.673978
0.0521246 -0.07029 0.672529
0.0531452 -0.0704566 0.671281
0.0541998 -0.0706619 0.670393
0.0552778 -0.0708925 0.669746
0.0563797 -0.071149 0.669333
0.0574741 -0.0713972 0.668859
0.0586029 -0.0716804 0.668702
0.0597407 -0.0719739 0.668627
0.060871 -0.0722594 0.668484
0.0620173 -0.072561 0.668478
0.0631827 -0.0728803 0.668631
0.0643346 -0.0731847 0.66866
0.0654985 -0.0735012 0.668784
0.0666703 -0.0738232 0.668964
0.0678405 -0.0741433 0.669123
0.0690117 -0.0744643 0.669282
0.0701866 -0.0747877 0.669461
0.0713731 -0.0751213 0.669723
0.0725925 -0.0754827 0.670225
0.0738376 -0.0758662 0.670906
0.0426668 -0.0682282 0.692701
0.0434292 -0.0680492 0.687962
0.0444347 -0.0681655 0.686115
0.045414 -0.0682571 0.68404
0.0463948 -0.0683556 0.682049
0.0473719 -0.0684546 0.680079
0.0483596 -0.0685704 0.678283
0.0493296 -0.0686706 0.676357
0.0503163 -0.0687939 0.674659
0.0513055 -0.0689248 0.673038
0.0523178 -0.069082 0.671686
0.0533531 -0.069268 0.670597
0.0544157 -0.0694819 0.669792
0.055492 -0.0697132 0.669138
0.0565932 -0.0699695 0.668726
0.057686 -0.0702177 0.668245
0.0588038 -0.070492 0.667998
0.0599233 -0.0707659 0.667765
0.0610343 -0.0710337 0.667463
0.06216 -0.0713164 0.667293
0.0633136 -0.0716238 0.667356
0.0644643 -0.0719295 0.667392
0.0656349 -0.0722531 0.667586
0.0668155 -0.0725831 0.667848
0.0679936 -0.0729122 0.668083
0.0691662 -0.0732337 0.668263
0.0703502 -0.0735667 0.668525
0.0715376 -0.0739003 0.6688
0.0727553 -0.0742589 0.669295
0.0739858 -0.0746294 0.669873
0.0439366 -0.0671671 0.690521
0.0446575 -0.066959 0.685454
0.045643 -0.0670614 0.683462
0.0466231 -0.0671641 0.681479
0.0475972 -0.0672653 0.679496
0.0485673 -0.0673653 0.677528
0.0495329 -0.0674654 0.675575
0.0505176 -0.06759 0.67387
0.0515075 -0.0677247 0.67227
0.0525195 -0.0678865 0.670933
0.0535633 -0.0680815 0.669934
0.054623 -0.0682962 0.669115
0.0556915 -0.0685188 0.668392
0.0567811 -0.0687651 0.667884
0.0578702 -0.0690123 0.667383
0.0589692 -0.069269 0.666978
0.0600776 -0.0695356 0.666662
0.0611857 -0.0698007 0.666347
0.0623002 -0.070074 0.666094
0.0634433 -0.0703725 0.666082
0.0645899 -0.070675 0.666097
0.0657497 -0.0709888 0.666215
0.0669199 -0.0713109 0.666409
0.0681076 -0.0716472 0.666734
0.0692974 -0.0719863 0.667065
0.0704935 -0.0723283 0.66743
0.0716909 -0.072672 0.667795
0.0729165 -0.0730379 0.668359
0.0741353 -0.0733954 0.668854
0.0441858 -0.0659824 0.690136
0.0448835 -0.0657589 0.684834
0.0458812 -0.0658805 0.682996
0.046847 -0.06597 0.680868
0.0478201 -0.066073 0.678886
0.0487792 -0.0661673 0.676822
0.0497504 -0.0662763 0.674937
0.0507256 -0.066397 0.673158
0.0517319 -0.0665505 0.671731
0.0527436 -0.0667146 0.670401
0.0537951 -0.0669201 0.669485
0.0548384 -0.0671188 0.668514
0.0558868 -0.0673264 0.66762
0.0569495 -0.0675458 0.66687
0.0580187 -0.0677762 0.666204
0.059107 -0.068023 0.665717
0.0602134 -0.0682898 0.665402
0.0613284 -0.0685636 0.665163
0.0624494 -0.0688439 0.664979
0.0635892 -0.0691411 0.664953
0.0647254 -0.0694339 0.664892
0.0658746 -0.0697381 0.664935
0.067031 -0.0700496 0.665033
0.0682074 -0.0703767 0.665282
0.069406 -0.0707226 0.665696
0.0706215 -0.0710826 0.666226
0.0718304 -0.0714342 0.666687
0.0730674 -0.0718094 0.667347
0.0742933 -0.0721737 0.667904
0.075855 -0.0741746 0.673043
0.0754731 -0.0724985 0.668103
0.0450824 -0.0645305 0.683918
0.0460888 -0.0646646 0.682191
0.0470595 -0.0647658 0.680139
0.048032 -0.0648717 0.678165
0.0489896 -0.0649684 0.676101
0.0499596 -0.0650821 0.674225
0.050935 -0.0652055 0.67246
0.0519421 -0.0653635 0.671054
0.0529605 -0.0655369 0.6698
0.0540033 -0.0657346 0.668808
0.055034 -0.0659255 0.667735
0.0560644 -0.0661164 0.666682
0.0571064 -0.06632 0.665761
0.0581634 -0.0665402 0.664999
0.0592489 -0.0667874 0.664505
0.0603467 -0.067047 0.664128
0.0614703 -0.0673298 0.663979
0.0625923 -0.0676111 0.663815
0.0637223 -0.0679011 0.663721
0.064847 -0.0681838 0.663578
0.065991 -0.0684843 0.663594
0.067144 -0.0687931 0.663678
0.0683178 -0.0691186 0.66392
0.0695235 -0.0694708 0.664403
0.0707481 -0.0698383 0.665016
0.0719682 -0.0701985 0.665573
0.0732059 -0.070573 0.666247
0.0744528 -0.0709537 0.666968
0.0756538 -0.0712963 0.667332
0.0771754 -0.0732505 0.672105
0.0768225 -0.0716124 0.667449
0.0452721 -0.0632971 0.682913
0.0462779 -0.063435 0.6812
0.0472483 -0.0635394 0.679163
0.0482193 -0.0636493 0.677196
0.0491768 -0.0637486 0.675147
0.0501544 -0.0638741 0.673368
0.051138 -0.0640094 0.6717
0.052152 -0.0641777 0.670377
0.0531701 -0.0643527 0.66913
0.0542013 -0.0645432 0.668043
0.0552223 -0.0647257 0.666887
0.0562399 -0.0649081 0.665731
0.0572703 -0.0651041 0.664721
0.0583253 -0.0653228 0.663952
0.0594091 -0.065571 0.663458
0.0605062 -0.0658313 0.663089
0.0616319 -0.0661157 0.662967
0.0627542 -0.0663983 0.662817
0.0638828 -0.0666879 0.662723
0.0649961 -0.0669619 0.662498
0.0661266 -0.0672533 0.662418
0.0672775 -0.0675592 0.662495
0.0684489 -0.0678831 0.662731
0.0696453 -0.0682273 0.663152
0.0708766 -0.0685995 0.663826
0.0721041 -0.0689669 0.664452
0.0733427 -0.0693401 0.66514
0.0745911 -0.0697212 0.665882
0.0758115 -0.0700792 0.666397
0.0769933 -0.0704053 0.666617
0.045465 -0.0620679 0.681943
0.0464851 -0.0622242 0.680403
0.0474614 -0.0623401 0.678449
0.0484384 -0.0624592 0.676558
0.0494023 -0.0625701 0.674593
0.0503784 -0.0626993 0.672814
0.0513629 -0.062839 0.671167
0.0523753 -0.0630081 0.669838
0.0533855 -0.0631772 0.668523
0.0543974 -0.0633521 0.667264
0.0554092 -0.0635275 0.666032
0.0564156 -0.0637023 0.664788
0.0574369 -0.0638926 0.663709
0.0584824 -0.0641057 0.662871
0.0595658 -0.0643533 0.662385
0.0606702 -0.0646211 0.662091
0.0618021 -0.0649145 0.662038
0.0629323 -0.065204 0.661965
0.0640691 -0.0655006 0.661946
0.0651796 -0.0657741 0.661708
0.0663 -0.0660559 0.661552
0.0674402 -0.0663549 0.661554
0.0685933 -0.0666628 0.661652
0.0697797 -0.0669977 0.662004
0.070999 -0.0673589 0.662596
0.0722234 -0.0677229 0.663209
0.0734475 -0.0680861 0.6638
0.0747047 -0.068473 0.664618
0.0759461 -0.0688467 0.665298
0.07716 -0.0691968 0.665758
0.0460033 -0.061197 0.684754
0.0466854 -0.0610113 0.679544
0.0476537 -0.0611226 0.677522
0.0486288 -0.0612447 0.675632
0.0495989 -0.0613664 0.67375
0.050582 -0.0615047 0.672054
0.0515734 -0.0616541 0.67049
0.0525837 -0.0618251 0.669155
0.053584 -0.0619879 0.667757
0.054586 -0.0621559 0.666416
0.0555856 -0.0623245 0.665088
0.0565919 -0.0625019 0.663858
0.0576133 -0.0626941 0.662793
0.0586599 -0.0629097 0.661977
0.0597498 -0.0631649 0.661559
0.0608612 -0.0634391 0.661335
0.0619914 -0.0637312 0.661275
0.0631295 -0.064029 0.661277
0.0642747 -0.0643327 0.661335
0.0653855 -0.0646058 0.661103
0.0664958 -0.0648808 0.660872
0.0676354 -0.0651776 0.660874
0.0687685 -0.0654699 0.660821
0.0699329 -0.0657868 0.661008
0.0711287 -0.0661295 0.661429
0.0723482 -0.0664884 0.662014
0.0735516 -0.0668347 0.662461
0.0748156 -0.0672264 0.66334
0.0760754 -0.0676135 0.664164
0.0773212 -0.0679884 0.664865
0.0468574 -0.0597709 0.678381
0.0478364 -0.0598983 0.676498
0.0488177 -0.0600299 0.674692
0.0497947 -0.060163 0.6729
0.0507857 -0.0603124 0.671301
0.0517911 -0.0604787 0.66989
0.0527927 -0.0606433 0.668478
0.0537887 -0.060806 0.667054
0.0547812 -0.0609687 0.665637
0.0557796 -0.0611384 0.66431
0.0567947 -0.0613248 0.66317
0.0578239 -0.0615277 0.662188
0.0588711 -0.0617453 0.661385
0.0599671 -0.0620079 0.66103
0.0610771 -0.0622815 0.660799
0.0621997 -0.0625665 0.660677
0.0633388 -0.0628651 0.660693
0.0644854 -0.0631683 0.660764
0.0655869 -0.0634357 0.660464
0.0666863 -0.0637015 0.66015
0.0678129 -0.0639892 0.660056
0.0689413 -0.0642787 0.659976
0.0700924 -0.0645851 0.660067
0.0712755 -0.0649171 0.660399
0.0724823 -0.0652646 0.660894
0.0736815 -0.0656084 0.661322
0.0749352 -0.06599 0.662132
0.0761957 -0.0663758 0.66297
0.077464 -0.0667663 0.663841
0.047044 -0.0585494 0.677385
0.0480287 -0.0586853 0.675578
0.0490157 -0.0588283 0.673855
0.050002 -0.0589734 0.672174
0.0510104 -0.0591425 0.670762
0.0520233 -0.0593179 0.669434
0.0530248 -0.0594848 0.66803
0.0540029 -0.0596356 0.666447
0.0549931 -0.059798 0.665017
0.0559822 -0.0599618 0.663615
0.0569965 -0.0601517 0.662482
0.058028 -0.0603569 0.661528
0.059082 -0.0605822 0.660794
0.0601686 -0.0608375 0.660363
0.0612778 -0.0611109 0.660132
0.0624006 -0.0613956 0.660018
0.0635406 -0.0616955 0.660048
0.0646872 -0.0619997 0.660125
0.0657966 -0.0622731 0.659894
0.0668933 -0.062539 0.659567
0.0680081 -0.062817 0.659384
0.0691236 -0.0630961 0.659207
0.0702532 -0.0633864 0.659141
0.0714227 -0.0637071 0.659376
0.0726183 -0.0640462 0.659796
0.0738064 -0.0643802 0.660148
0.0750493 -0.0647538 0.66089
0.0763178 -0.0651449 0.661796
0.0775858 -0.0655348 0.662675
0.0472216 -0.0573222 0.6763
0.048204 -0.057461 0.674494
0.0491913 -0.0576076 0.672792
0.0501874 -0.0577651 0.671228
0.051212 -0.0579526 0.669996
0.0522254 -0.0581324 0.668689
0.0532336 -0.0583073 0.667361
0.0542107 -0.0584593 0.665779
0.0551997 -0.0586234 0.664349
0.0561952 -0.0587985 0.663023
0.0572173 -0.0589953 0.661966
0.0582478 -0.0592023 0.661012
0.059301 -0.0594282 0.660279
0.0603861 -0.0596835 0.659842
0.0614781 -0.0599423 0.659466
0.0625902 -0.0602198 0.659269
0.0637196 -0.0605105 0.659217
0.064855 -0.0608067 0.659212
0.0659537 -0.0610732 0.658906
0.0670504 -0.0613373 0.658585
0.0681523 -0.0616079 0.658313
0.0692577 -0.0618791 0.658068
0.070384 -0.0621681 0.657988
0.071545 -0.0624818 0.658169
0.0727382 -0.0628194 0.658582
0.0739351 -0.0631584 0.659009
0.0751852 -0.0635368 0.659813
0.0764536 -0.0639267 0.660726
0.0777387 -0.0643287 0.661735
0.0487235 -0.0565548 0.676986
0.0493319 -0.056358 0.671377
0.0503498 -0.0565407 0.670063
0.0513911 -0.056744 0.66901
0.0524185 -0.0569385 0.667854
0.0534248 -0.0571164 0.666527
0.0544011 -0.0572711 0.664953
0.0553964 -0.0574452 0.663599
0.0564083 -0.0576346 0.662432
0.0574319 -0.057834 0.661395
0.058469 -0.0580494 0.660511
0.0595284 -0.0582825 0.659839
0.0606141 -0.0585376 0.659409
0.061687 -0.0587821 0.658875
0.062786 -0.0590504 0.658576
0.0639013 -0.0593306 0.658414
0.0650158 -0.0596098 0.658244
0.0661039 -0.0598687 0.657862
0.0671999 -0.0601342 0.657549
0.0683032 -0.0604053 0.657298
0.0694079 -0.060678 0.65706
0.0705339 -0.0609664 0.656987
0.0716926 -0.06128 0.657161
0.0728846 -0.0616166 0.657575
0.0740915 -0.0619627 0.658084
0.0753418 -0.0623393 0.658894
0.0766076 -0.062726 0.659794
0.0778805 -0.0631162 0.66072
0.0489181 -0.0553484 0.676101
0.0494996 -0.0551392 0.670253
0.0505414 -0.0553444 0.669194
0.0515886 -0.0555569 0.668217
0.0526148 -0.0557525 0.667062
0.0536183 -0.0559305 0.665721
0.0546021 -0.0560937 0.66423
0.0556082 -0.0562788 0.662987
0.0566303 -0.0564795 0.661923
0.0576611 -0.0566884 0.660962
0.0586987 -0.0569034 0.660085
0.0597489 -0.0571307 0.659338
0.0608163 -0.0573728 0.658757
0.0618775 -0.0576103 0.658134
0.0629551 -0.0578625 0.657663
0.0640468 -0.058125 0.657316
0.0651482 -0.0583944 0.65705
0.0662346 -0.0586529 0.656669
0.0673391 -0.0589271 0.656438
0.0684533 -0.0592067 0.656283
0.0695762 -0.0594931 0.656196
0.070701 -0.0597819 0.656124
0.071868 -0.0601002 0.656366
0.0730508 -0.0604301 0.656718
0.0742662 -0.0607822 0.657296
0.0755073 -0.0611515 0.658045
0.0767725 -0.0615353 0.658944
0.0780236 -0.0619081 0.659719
0.0490878 -0.0541213 0.674962
0.0496523 -0.0539082 0.668978
0.0507097 -0.0541309 0.668098
0.0517561 -0.0543442 0.667128
0.0527782 -0.0545393 0.665953
0.0537872 -0.0547248 0.664682
0.0547781 -0.0548994 0.66328
0.0558013 -0.0551008 0.662209
0.0568428 -0.0553182 0.661331
0.0578826 -0.0555362 0.660461
0.0589185 -0.0557526 0.659577
0.0599673 -0.0559793 0.658823
0.0610164 -0.0562083 0.658091
0.0620579 -0.0564328 0.657311
0.0631157 -0.0566692 0.656682
0.0641861 -0.0569166 0.65617
0.0652663 -0.057172 0.655747
0.0663593 -0.0574375 0.655434
0.0674745 -0.0577187 0.6553
0.0685972 -0.0580077 0.655228
0.0697197 -0.0582943 0.655148
0.0708514 -0.0585879 0.655137
0.0720073 -0.0588977 0.655304
0.0731972 -0.0592324 0.655718
0.0744153 -0.0595842 0.656323
0.075664 -0.0599584 0.657133
0.0769293 -0.0603411 0.658039
0.0781874 -0.0607171 0.658869
0.0491877 -0.0528375 0.673113
0.0497964 -0.0526755 0.667627
0.050869 -0.0529135 0.66692
0.0519132 -0.0531282 0.665951
0.0529345 -0.0533241 0.664783
0.0539557 -0.053524 0.66365
0.0549547 -0.0537068 0.662338
0.0559892 -0.053919 0.661384
0.0570465 -0.0541525 0.660665
0.0580948 -0.0543778 0.659877
0.0591203 -0.0545885 0.658911
0.0601585 -0.0548088 0.658075
0.0612042 -0.0550361 0.657322
0.0622354 -0.0552551 0.656467
0.0632831 -0.0554848 0.655763
0.0643519 -0.0557338 0.655251
0.06543 -0.0559884 0.654822
0.0665142 -0.0562473 0.654448
0.0676299 -0.0565292 0.654327
0.0687523 -0.0568184 0.654262
0.0698735 -0.0571046 0.654182
0.0710042 -0.0573966 0.654171
0.0721569 -0.0577058 0.654325
0.0733468 -0.0580387 0.654745
0.0745628 -0.0583897 0.655344
0.0758106 -0.0587616 0.656154
0.0770645 -0.0591351 0.656984
0.0783205 -0.0595089 0.657807
0.0492909 -0.0515639 0.671314
0.0499552 -0.0514602 0.666436
0.0510414 -0.0517107 0.66588
0.0520848 -0.0519269 0.664918
0.0531051 -0.0521242 0.663757
0.0541339 -0.0523335 0.662714
0.0551416 -0.0525263 0.661499
0.0561846 -0.0527467 0.660635
0.0572417 -0.0529812 0.659923
0.0582955 -0.0532136 0.659197
0.0593106 -0.0534179 0.658149
0.0603381 -0.0536323 0.657231
0.0613818 -0.0538589 0.656472
0.062421 -0.0540842 0.655692
0.063468 -0.0543166 0.654995
0.0645461 -0.0545719 0.654566
0.0656335 -0.054834 0.654219
0.0667167 -0.055094 0.653845
0.0678298 -0.0553755 0.653711
0.0689527 -0.0556636 0.653653
0.0700725 -0.0559486 0.653566
0.0711923 -0.0562342 0.65348
0.0723343 -0.0565358 0.653559
0.0735133 -0.056861 0.653904
0.0747162 -0.0572026 0.654413
0.0759444 -0.0575588 0.655086
0.0771943 -0.0579285 0.655896
0.0784384 -0.0582944 0.656644
0.0801715 -0.0602784 0.662763
0.0796748 -0.0586527 0.657316
0.0490221 -0.0499921 0.665745
0.0501305 -0.0502617 0.665417
0.0512149 -0.0505108 0.664854
0.0522652 -0.0507346 0.663975
0.0532841 -0.0509359 0.662822
0.0543218 -0.0511533 0.661875
0.0553381 -0.0513536 0.66075
0.0563788 -0.0515759 0.65988
0.0574265 -0.0518038 0.659092
0.0584774 -0.0520364 0.658353
0.059475 -0.052228 0.657161
0.0604901 -0.0524374 0.656154
0.0615332 -0.0526647 0.655402
0.0625795 -0.0528981 0.654698
0.0636376 -0.0531393 0.654105
0.0647252 -0.0534031 0.653765
0.0658209 -0.0536722 0.653494
0.066911 -0.0539377 0.653182
0.0680235 -0.0542183 0.653048
0.0691349 -0.0544991 0.652907
0.0702628 -0.0547893 0.652889
0.0713809 -0.055075 0.652796
0.0725132 -0.0553681 0.652806
0.0736792 -0.0556853 0.653062
0.0748806 -0.0560235 0.653565
0.0760946 -0.0563697 0.654142
0.0773203 -0.0567243 0.654788
0.0785627 -0.057086 0.655528
0.0797968 -0.0574428 0.656194
0.0485661 -0.048912 0.669954
0.0491781 -0.0487796 0.66452
0.0502688 -0.0490366 0.664033
0.0513502 -0.0492861 0.663464
0.0524062 -0.0495163 0.662662
0.0534405 -0.0497312 0.661674
0.0544858 -0.0499573 0.660817
0.0555086 -0.0501648 0.659768
0.0565476 -0.0503881 0.658898
0.0575916 -0.050615 0.65809
0.0586249 -0.0508349 0.657207
0.0596178 -0.0510281 0.655994
0.060633 -0.0512379 0.655002
0.0616918 -0.0514797 0.654402
0.0627482 -0.0517214 0.653794
0.0638341 -0.0519836 0.653441
0.064933 -0.0522545 0.653197
0.0660288 -0.0525246 0.652933
0.0671079 -0.0527828 0.652538
0.0682079 -0.0530569 0.652316
0.0692992 -0.0533234 0.652024
0.0704169 -0.0536078 0.651938
0.0715338 -0.0538925 0.651846
0.072664 -0.0541848 0.651848
0.0738271 -0.0544994 0.652091
0.0750152 -0.0548288 0.652504
0.0762261 -0.0551724 0.653068
0.0774392 -0.0555172 0.653632
0.0786663 -0.0558701 0.654277
0.0798991 -0.0562245 0.654942
0.0816678 -0.0582041 0.661213
0.0811456 -0.0565859 0.655682
0.0477257 -0.0475137 0.670255
0.0482813 -0.0473434 0.664174
0.0493588 -0.0475914 0.663557
0.0504411 -0.0478407 0.662994
0.0515224 -0.0480921 0.662439
0.0525845 -0.0483294 0.661713
0.0536179 -0.0485464 0.660732
0.0546635 -0.0487731 0.659889
0.0556759 -0.048978 0.658765
0.0567049 -0.0491935 0.657813
0.057729 -0.0494101 0.656848
0.0587503 -0.0496229 0.655876
0.0597417 -0.049818 0.654671
0.0607636 -0.0500352 0.653755
0.0618401 -0.0502905 0.653319
0.0629165 -0.0505467 0.65289
0.0640202 -0.0508227 0.652695
0.065129 -0.0511017 0.65254
0.0662337 -0.0513768 0.652351
0.0673015 -0.0516291 0.651875
0.0684 -0.0519018 0.651646
0.0694894 -0.0521683 0.651347
0.0706064 -0.0524525 0.651262
0.0717126 -0.0527303 0.651094
0.0728429 -0.0530222 0.651104
0.0739846 -0.0533229 0.651196
0.0751594 -0.0536442 0.65152
0.0763483 -0.0539724 0.651933
0.0775505 -0.0543091 0.652428
0.0787646 -0.0546528 0.652991
0.0799929 -0.055004 0.653636
0.0812268 -0.0553572 0.654301
0.0484556 -0.0461514 0.663135
0.049542 -0.046407 0.662621
0.0506124 -0.0466494 0.661956
0.0516919 -0.0469017 0.661402
0.0527535 -0.0471391 0.660682
0.053785 -0.0473578 0.659702
0.0548143 -0.0475744 0.658722
0.0558333 -0.0477852 0.657674
0.0568502 -0.0479964 0.656633
0.0578643 -0.0482062 0.655593
0.0588819 -0.0484197 0.654607
0.0598818 -0.0486217 0.653492
0.0609122 -0.0488471 0.652665
0.0619983 -0.0491119 0.652326
0.0630914 -0.0493808 0.652048
0.0642062 -0.0496626 0.651949
0.0653235 -0.0499472 0.65187
0.0664271 -0.0502235 0.651681
0.0675029 -0.050481 0.651274
0.0685999 -0.0507524 0.651037
0.0696786 -0.0510134 0.650664
0.0707939 -0.0512969 0.650572
0.0719001 -0.0515749 0.650411
0.0730183 -0.0518614 0.650339
0.0741501 -0.0521542 0.650362
0.0753241 -0.0524732 0.650687
0.0765005 -0.0527945 0.651018
0.0776902 -0.0531229 0.651431
0.0788933 -0.0534592 0.651926
0.0801097 -0.053801 0.652495
0.0813172 -0.0541384 0.652989
0.0462647 -0.0456292 0.664012
0.0464925 -0.0444779 0.663509
0.0475704 -0.0447268 0.662892
0.0486538 -0.0449797 0.662344
0.0497084 -0.0452121 0.661521
0.0507788 -0.0454581 0.660877
0.0518499 -0.0457043 0.660254
0.0529089 -0.0459422 0.659528
0.0539471 -0.046166 0.658624
0.0549651 -0.0463795 0.657562
0.0559741 -0.0465849 0.656439
0.0569884 -0.0467959 0.655392
0.0579902 -0.0470006 0.654262
0.0589986 -0.0472101 0.653216
0.0600048 -0.04742 0.652177
0.0610454 -0.0476533 0.651453
0.0621406 -0.0479244 0.651203
0.0632513 -0.0482051 0.651083
0.0643814 -0.0484987 0.651121
0.0654975 -0.0487837 0.651043
0.0666011 -0.0490595 0.650861
0.0676768 -0.0493173 0.65046
0.0687629 -0.0495831 0.650149
0.0698316 -0.0498375 0.649707
0.0709447 -0.0501203 0.649608
0.0720497 -0.050398 0.649447
0.0731667 -0.0506834 0.649375
0.0742962 -0.0509754 0.649392
0.0754662 -0.0512927 0.649696
0.0766405 -0.0516124 0.650021
0.0778205 -0.0519326 0.650372
0.0790206 -0.0522662 0.650853
0.0802228 -0.0526004 0.651334
0.0814168 -0.0529292 0.651746
0.0831496 -0.0548471 0.657677
0.0825784 -0.0532369 0.651926
0.0466876 -0.0433049 0.66267
0.0477626 -0.0435516 0.662032
0.048842 -0.0438031 0.661457
0.0498932 -0.0440347 0.660614
0.0509551 -0.0442766 0.659902
0.0520156 -0.0445167 0.65919
0.0530634 -0.0447491 0.658375
0.0540997 -0.0449739 0.657471
0.055109 -0.0451811 0.656341
0.056115 -0.0453883 0.655211
0.0571179 -0.0455947 0.654082
0.0581186 -0.0458001 0.65296
0.0591247 -0.046011 0.651914
0.0601393 -0.0462278 0.650965
0.0611876 -0.0464689 0.650324
0.0622903 -0.0467455 0.65015
0.0634098 -0.0470315 0.650112
0.0645376 -0.0473249 0.650143
0.0656629 -0.0476153 0.650147
0.0667662 -0.0478914 0.649972
0.0678317 -0.0481447 0.649503
0.0689058 -0.0484044 0.64911
0.0699813 -0.0486629 0.64873
0.0710838 -0.0489404 0.648563
0.0721874 -0.0492184 0.648402
0.0733133 -0.0495089 0.648406
0.0744502 -0.0498058 0.648484
0.0756097 -0.0501157 0.64872
0.076782 -0.0504334 0.649038
0.0779589 -0.0507516 0.649375
0.0791481 -0.0510778 0.649788
0.0803371 -0.0514034 0.650187
0.0815158 -0.0517227 0.650504
0.0826622 -0.0520239 0.650595
0.0469467 -0.0421788 0.662498
0.0480092 -0.0424184 0.661737
0.0490815 -0.0426655 0.661093
0.0501305 -0.042898 0.660236
0.0511678 -0.0431218 0.659284
0.0522178 -0.0433574 0.658483
0.0532565 -0.0435853 0.657593
0.0542754 -0.0437999 0.656538
0.055275 -0.0440026 0.655333
0.0562711 -0.0442051 0.654128
0.0572644 -0.0444079 0.652931
0.0582544 -0.0446098 0.651734
0.0592683 -0.0448265 0.650771
0.0602799 -0.0450457 0.649815
0.0613365 -0.045292 0.649257
0.0624384 -0.0455694 0.64909
0.0635555 -0.0458552 0.649045
0.0646747 -0.0461421 0.649015
0.0657986 -0.0464314 0.649019
0.0669002 -0.0467077 0.648844
0.067963 -0.0469615 0.648369
0.0690446 -0.0472256 0.648044
0.0701266 -0.0474895 0.647726
0.0712289 -0.0477665 0.647566
0.0723331 -0.0480445 0.647419
0.0734577 -0.0483347 0.647423
0.0745944 -0.0486311 0.647508
0.0757516 -0.0489409 0.647737
0.0769249 -0.0492572 0.648068
0.0780995 -0.0495753 0.6484
0.0792858 -0.0498989 0.648799
0.0804616 -0.0502167 0.649116
0.081629 -0.0505285 0.649364
0.0827638 -0.0508227 0.649387
0.0844836 -0.0527055 0.655149
0.0838973 -0.0511148 0.649397
0.0471769 -0.0410336 0.66203
0.0482339 -0.0412713 0.661222
0.0493035 -0.0415176 0.660557
0.0503524 -0.0417511 0.659708
0.0513812 -0.0419706 0.65868
0.0524218 -0.0422007 0.657796
0.0534506 -0.0424243 0.656824
0.05446 -0.0426351 0.655695
0.0554418 -0.0428283 0.654339
0.0564344 -0.0430321 0.653121
0.0574102 -0.0432243 0.65178
0.0583992 -0.0434276 0.650591
0.0594023 -0.0436409 0.649553
0.0604128 -0.0438608 0.648604
0.0614586 -0.0441022 0.647971
0.062558 -0.0443779 0.647797
0.0636732 -0.044664 0.647753
0.0647897 -0.0449499 0.647716
0.0659119 -0.0452382 0.64772
0.067011 -0.0455136 0.647539
0.0680729 -0.0457666 0.647071
0.0691438 -0.0460248 0.646678
0.0702226 -0.0462897 0.646353
0.071323 -0.0465662 0.646193
0.0724363 -0.0468503 0.646129
0.0735706 -0.0471461 0.646215
0.0747169 -0.0474487 0.646383
0.0758845 -0.0477628 0.646694
0.0770661 -0.0480839 0.647093
0.0782406 -0.0484022 0.647431
0.0794159 -0.0487183 0.647762
0.0805784 -0.049029 0.647997
0.0817426 -0.0493373 0.648232
0.0828862 -0.0496371 0.648324
0.0840318 -0.0499363 0.648422
0.0484573 -0.0401233 0.660692
0.0495234 -0.0403684 0.660001
0.0505703 -0.0406015 0.659138
0.0515965 -0.040822 0.658096
0.0526211 -0.0410432 0.657069
0.0536408 -0.0412625 0.656022
0.0546399 -0.0414689 0.654811
0.0556176 -0.0416631 0.653435
0.0565998 -0.0418619 0.652135
0.0575729 -0.0420559 0.650788
0.0585517 -0.0422544 0.649523
0.0595441 -0.0424642 0.64841
0.0605513 -0.0426834 0.647448
0.0615865 -0.0429203 0.646742
0.0626769 -0.0431908 0.646507
0.0637893 -0.0434744 0.646453
0.0649033 -0.0437593 0.64641
0.0660124 -0.0440415 0.646326
0.0671094 -0.0443164 0.646145
0.0681694 -0.0445696 0.645677
0.0692297 -0.0448233 0.645221
0.0703175 -0.0450934 0.644979
0.0714167 -0.0453695 0.644824
0.0725282 -0.0456531 0.644761
0.0736621 -0.0459484 0.644857
0.0748161 -0.0462556 0.645093
0.075984 -0.0465696 0.645418
0.0771649 -0.0468908 0.645825
0.0783379 -0.0472073 0.646163
0.0795116 -0.0475223 0.646494
0.0806827 -0.0478364 0.646797
0.0818544 -0.0481503 0.647094
0.0830089 -0.0484546 0.647267
0.0841748 -0.048765 0.647509
0.0858771 -0.0506134 0.653075
0.085317 -0.0490625 0.647586
0.0486323 -0.0389448 0.659676
0.0497062 -0.0391976 0.659081
0.0507783 -0.0394489 0.658479
0.0517884 -0.0396612 0.657294
0.0527969 -0.039873 0.656123
0.0538209 -0.0400968 0.655131
0.0548104 -0.0402993 0.653845
0.055779 -0.0404899 0.652401
0.0567659 -0.0406957 0.651163
0.0577291 -0.040885 0.649741
0.0586972 -0.0410808 0.648402
0.0596776 -0.0412853 0.647202
0.0606746 -0.0415003 0.64617
0.0616976 -0.041731 0.645378
0.0627852 -0.0420017 0.645138
0.0638867 -0.0422793 0.645011
0.0649893 -0.042558 0.644892
0.0660955 -0.042839 0.644802
0.0671893 -0.0431131 0.644613
0.0682487 -0.0433668 0.644159
0.0693168 -0.0436264 0.643779
0.0704122 -0.0439011 0.64361
0.0715091 -0.044177 0.643453
0.0726281 -0.044465 0.643459
0.07377 -0.0447652 0.643626
0.0749245 -0.0450717 0.643876
0.0760898 -0.0453847 0.644195
0.0772683 -0.0457031 0.644593
0.0784404 -0.046018 0.644936
0.0796016 -0.0463264 0.645192
0.0807711 -0.0466393 0.645495
0.0819421 -0.0469527 0.645799
0.0831052 -0.0472624 0.646041
0.0842844 -0.0475777 0.646378
0.0854501 -0.0478888 0.646619
0.0488261 -0.0377803 0.658852
0.0498896 -0.0380284 0.658168
0.0509596 -0.0382797 0.65756
0.0519683 -0.0384931 0.656375
0.0529653 -0.038702 0.655116
0.0539967 -0.0389314 0.654206
0.054984 -0.0391346 0.652913
0.0559507 -0.0393281 0.65147
0.0569243 -0.0395257 0.650123
0.0578765 -0.0397136 0.648626
0.0588334 -0.0399047 0.647206
0.059794 -0.0400996 0.645853
0.0607783 -0.04031 0.644733
0.0617908 -0.0405367 0.643874
0.062876 -0.0408065 0.643631
0.0639755 -0.0410835 0.643505
0.0650833 -0.0413667 0.643448
0.0661884 -0.0416466 0.643363
0.0672902 -0.0419257 0.643253
0.0683571 -0.0421851 0.642873
0.0694332 -0.0424503 0.642568
0.0705187 -0.0427196 0.642337
0.0716121 -0.042994 0.642168
0.0727294 -0.0432815 0.642173
0.0738596 -0.0435755 0.642269
0.0750023 -0.0438755 0.642447
0.0761746 -0.0441914 0.642827
0.0773495 -0.0445081 0.643213
0.0785181 -0.0448207 0.643543
0.0796767 -0.0451284 0.643796
0.0808554 -0.0454454 0.644173
0.0820269 -0.0457579 0.644491
0.0832017 -0.0460739 0.644822
0.0844034 -0.0464002 0.645315
0.0856038 -0.0467275 0.645789
0.0873536 -0.0485766 0.651583
0.0867743 -0.047038 0.646057
0.0489514 -0.0365769 0.657349
0.0500115 -0.0368237 0.656652
0.0510777 -0.0370742 0.65603
0.0520959 -0.0372965 0.654963
0.0531004 -0.0375113 0.653793
0.0541293 -0.0377429 0.652884
0.0551149 -0.0379486 0.651598
0.0560818 -0.0381437 0.650176
0.0570445 -0.0383391 0.648755
0.0579961 -0.0385287 0.647272
0.0589493 -0.0387208 0.645841
0.0599065 -0.0389169 0.644481
0.0608882 -0.0391272 0.643358
0.0618986 -0.0393553 0.6425
0.0629822 -0.0396244 0.642259
0.0640799 -0.039902 0.642136
0.0651876 -0.0401844 0.642091
0.0662907 -0.0404644 0.642007
0.0673918 -0.0407434 0.641906
0.0684577 -0.0410034 0.641533
0.0695329 -0.0412685 0.641237
0.0706159 -0.0415378 0.641002
0.0717082 -0.0418118 0.640838
0.072822 -0.0420976 0.640832
0.0739401 -0.0423856 0.640853
0.0750802 -0.0426844 0.641027
0.0762502 -0.0429982 0.641402
0.0774123 -0.0433078 0.641712
0.0785771 -0.0436187 0.64203
0.0797434 -0.0439294 0.642348
0.0809222 -0.0442462 0.642739
0.0821024 -0.0445638 0.643128
0.083298 -0.0448878 0.643606
0.0845208 -0.0452248 0.644247
0.0857589 -0.0455705 0.644972
0.0869779 -0.0459031 0.645554
0.0886597 -0.0477062 0.650841
0.0881364 -0.0462075 0.645741
0.0501405 -0.0356288 0.655218
0.0512009 -0.0358779 0.654563
0.0522213 -0.0361029 0.653537
0.0532247 -0.0363201 0.652381
0.0542544 -0.0365536 0.651501
0.0552377 -0.0367608 0.650216
0.0562014 -0.0369576 0.648787
0.0571617 -0.0371538 0.647366
0.0581097 -0.0373449 0.645874
0.0590612 -0.0375389 0.64445
0.0600175 -0.0377369 0.643102
0.0609983 -0.0379498 0.641992
0.0620067 -0.038178 0.641136
0.0630887 -0.0384475 0.640899
0.0641849 -0.0387242 0.640778
0.0652916 -0.0390067 0.64074
0.066394 -0.0392865 0.640665
0.0675023 -0.0395696 0.640634
0.0685756 -0.0398349 0.640334
0.0696511 -0.0401005 0.640052
0.0707326 -0.0403693 0.639818
0.0718221 -0.0406431 0.639647
0.0729132 -0.0409169 0.639486
0.0740192 -0.0411988 0.639433
0.0751556 -0.041496 0.639594
0.0763142 -0.0418035 0.639903
0.0774746 -0.0421123 0.640216
0.0786487 -0.0424273 0.640611
0.0798141 -0.0427375 0.640934
0.0810008 -0.0430573 0.641391
0.0821904 -0.0433784 0.641852
0.083386 -0.043702 0.642341
0.0846179 -0.0440431 0.643052
0.0858789 -0.0443975 0.643931
0.0871115 -0.0447365 0.644608
0.0883068 -0.0450585 0.645034
0.05021 -0.0344039 0.65321
0.051286 -0.034663 0.652733
0.0523259 -0.0349033 0.651927
0.0533431 -0.0351297 0.650923
0.0543712 -0.0353644 0.65005
0.0553531 -0.0355722 0.648772
0.0563041 -0.0357659 0.647255
0.0572511 -0.0359587 0.645742
0.058189 -0.0361467 0.644186
0.0591316 -0.0363388 0.64271
0.0600875 -0.03654 0.641386
0.0610665 -0.0367539 0.640285
0.0620736 -0.0369833 0.63944
0.0631615 -0.0372568 0.639272
0.0642561 -0.0375331 0.639157
0.0653606 -0.0378148 0.63912
0.0664592 -0.0380934 0.639034
0.0675643 -0.0383755 0.638996
0.0686268 -0.0386356 0.638631
0.0697089 -0.0389054 0.638418
0.070789 -0.0391747 0.638193
0.0718761 -0.0394474 0.63802
0.0729638 -0.0397202 0.637852
0.074074 -0.040005 0.637847
0.0752085 -0.0403009 0.63801
0.0763662 -0.040608 0.638328
0.0775362 -0.0409211 0.638721
0.0787283 -0.0412439 0.639253
0.0799036 -0.0415588 0.639655
0.0810815 -0.041874 0.640064
0.0822693 -0.0421934 0.640525
0.0834596 -0.0425141 0.640989
0.0846786 -0.0428475 0.641626
0.0859377 -0.0431995 0.642504
0.0872028 -0.0435532 0.643398
0.0884455 -0.0438961 0.644129
0.0902663 -0.0457419 0.650209
0.0896473 -0.044219 0.644588
0.051391 -0.0334658 0.65111
0.0524667 -0.0337282 0.650668
0.0534936 -0.0339618 0.649774
0.0544952 -0.0341841 0.648674
0.0554747 -0.0343933 0.647397
0.0564143 -0.0345836 0.6458
0.0573428 -0.0347688 0.644146
0.0582689 -0.0349546 0.642515
0.0592173 -0.0351525 0.641113
0.0601714 -0.0353554 0.639797
0.0611504 -0.0355714 0.638717
0.0621544 -0.0358015 0.637869
0.0632393 -0.0360739 0.637695
0.0643308 -0.0363496 0.637574
0.0654331 -0.0366303 0.637537
0.0665388 -0.0369127 0.637523
0.0676495 -0.037198 0.637546
0.0687187 -0.037462 0.637247
0.0697997 -0.0377324 0.637042
0.0708785 -0.0380013 0.636822
0.0719628 -0.0382736 0.636643
0.0730386 -0.0385413 0.636404
0.074137 -0.0388198 0.636328
0.0752597 -0.0391101 0.636422
0.0764057 -0.039411 0.636672
0.0775734 -0.0397223 0.637065
0.078775 -0.0400495 0.637676
0.0799615 -0.0403684 0.638168
0.0811477 -0.0406876 0.638645
0.0823443 -0.0410102 0.639175
0.0835312 -0.041329 0.63963
0.0847344 -0.0416536 0.640175
0.0859892 -0.042002 0.641035
0.0872747 -0.0423644 0.64207
0.0885315 -0.0427114 0.642899
0.0897591 -0.0430459 0.643528
0.0915663 -0.0448726 0.649448
0.0909229 -0.0433502 0.643748
0.0504637 -0.0320366 0.650354
0.0515448 -0.032301 0.649967
0.0526033 -0.0325534 0.649374
0.0536276 -0.0327892 0.648481
0.0546112 -0.0330026 0.647231
0.0555708 -0.0332051 0.645801
0.0565004 -0.0333936 0.644141
0.0574264 -0.0335809 0.642491
0.058357 -0.0337714 0.640923
0.0592949 -0.0339672 0.639457
0.0602542 -0.034175 0.638207
0.0612383 -0.0343961 0.637193
0.0622408 -0.0346273 0.636352
0.0633149 -0.0348948 0.636108
0.064403 -0.0351691 0.635978
0.0654935 -0.0354451 0.635868
0.0665884 -0.0357224 0.635789
0.0676983 -0.036007 0.635823
0.0687652 -0.0362714 0.635528
0.0698428 -0.0365401 0.635316
0.0709284 -0.0368132 0.635164
0.0720123 -0.0370858 0.635001
0.0730867 -0.0373535 0.634769
0.0741827 -0.0376313 0.634692
0.0753111 -0.0379248 0.634844
0.0764446 -0.0382194 0.635021
0.0776094 -0.0385292 0.63541
0.0788087 -0.0388541 0.63602
0.0800033 -0.0391767 0.636581
0.0811802 -0.03949 0.637009
0.0823741 -0.0398116 0.637537
0.0835554 -0.0401262 0.637967
0.0847433 -0.0404441 0.638428
0.0859829 -0.0407838 0.639205
0.0872665 -0.0411434 0.640241
0.0885222 -0.0414895 0.641078
0.0897641 -0.0418293 0.641811
0.090964 -0.0421501 0.642267
0.0506659 -0.0308994 0.64967
0.0517345 -0.0311579 0.649174
0.052778 -0.0314037 0.648452
0.0537856 -0.0316318 0.647414
0.0547481 -0.0318378 0.645993
0.0556971 -0.0320373 0.644485
0.0566099 -0.0322198 0.642697
0.0575263 -0.0324058 0.640987
0.0584462 -0.0325944 0.639351
0.0593795 -0.0327909 0.63787
0.0603291 -0.0329964 0.636561
0.0613121 -0.0332192 0.635561
0.0623041 -0.0334467 0.634656
0.0633642 -0.0337084 0.634321
0.0644394 -0.0339771 0.634109
0.0655272 -0.0342518 0.633998
0.0666221 -0.0345298 0.633941
0.06774 -0.0348189 0.634057
0.0688226 -0.0350909 0.6339
0.0698986 -0.0353597 0.633693
0.0709912 -0.0356369 0.633612
0.0720834 -0.035913 0.633524
0.0731662 -0.0361854 0.633369
0.0742513 -0.0364586 0.633229
0.0753758 -0.0367499 0.633366
0.0764942 -0.0370382 0.633455
0.0776453 -0.0373408 0.633761
0.078831 -0.037659 0.634294
0.080023 -0.0379795 0.634853
0.0811967 -0.0382914 0.635275
0.0823776 -0.0386057 0.635732
0.0835466 -0.0389146 0.636098
0.0847085 -0.0392204 0.636408
0.085911 -0.0395433 0.636967
0.0871659 -0.0398888 0.63784
0.0883942 -0.0402217 0.638527
0.0896221 -0.0405543 0.639194
0.0908198 -0.0408736 0.63966
0.0497728 -0.0294898 0.649223
0.050845 -0.0297522 0.648768
0.0519032 -0.0300055 0.648183
0.0529382 -0.0302502 0.647399
0.0539194 -0.0304663 0.646134
0.0548702 -0.0306686 0.644624
0.0558006 -0.0308621 0.642973
0.0567033 -0.0310437 0.641122
0.0576004 -0.0312229 0.639268
0.0585166 -0.031413 0.637627
0.0594396 -0.0316074 0.636084
0.0603883 -0.0318151 0.634795
0.0613695 -0.0320395 0.633804
0.062367 -0.0322716 0.632968
0.0634157 -0.0325286 0.63256
0.0644772 -0.0327917 0.632261
0.065561 -0.033065 0.63214
0.0666537 -0.033342 0.632086
0.0677619 -0.0336271 0.632149
0.0688342 -0.0338953 0.631937
0.0699062 -0.0341629 0.631723
0.0710051 -0.0344432 0.631708
0.0721062 -0.0347235 0.631705
0.073209 -0.0350054 0.631712
0.0743108 -0.0352867 0.631708
0.0754413 -0.0355806 0.631903
0.0765457 -0.0358626 0.631907
0.0776738 -0.0361547 0.632071
0.0788345 -0.0364611 0.632449
0.0800202 -0.0367779 0.632983
0.0811786 -0.0370827 0.63332
0.0823468 -0.0373909 0.633711
0.0835234 -0.0377029 0.634145
0.0846706 -0.038002 0.634378
0.0858346 -0.0383083 0.634711
0.0870577 -0.0386384 0.635403
0.0882524 -0.0389572 0.635902
0.0894357 -0.0392703 0.636318
0.0906269 -0.0395863 0.63677
0.048867 -0.028077 0.648646
0.0499586 -0.0283488 0.648383
0.0510303 -0.0286096 0.647927
0.0520767 -0.0288597 0.647247
0.053097 -0.0290973 0.646337
0.0540687 -0.029312 0.645003
0.0550095 -0.0295124 0.643423
0.0559213 -0.0296999 0.641625
0.0568041 -0.0298753 0.639621
0.0576807 -0.0300489 0.637615
0.0585849 -0.0302359 0.635895
0.059505 -0.0304325 0.634355
0.0604533 -0.0306425 0.633086
0.0614426 -0.0308723 0.632185
0.0624461 -0.031109 0.631419
0.0634832 -0.0313614 0.630937
0.064532 -0.0316194 0.630557
0.0656119 -0.0318916 0.630425
0.0666841 -0.03216 0.630233
0.0677803 -0.0324399 0.630225
0.0688401 -0.0327025 0.629939
0.0698981 -0.0329649 0.629644
0.0709949 -0.0332449 0.629637
0.0721037 -0.0335295 0.629713
0.0732272 -0.0338199 0.629888
0.074339 -0.0341057 0.629974
0.0754676 -0.0343986 0.630172
0.0765568 -0.034674 0.630088
0.0776595 -0.0349556 0.630097
0.0787846 -0.0352463 0.630252
0.079954 -0.0355556 0.630697
0.0811178 -0.0358621 0.631092
0.082282 -0.0361687 0.631478
0.083477 -0.036488 0.632052
0.0846317 -0.0367897 0.632352
0.0857874 -0.0370921 0.63265
0.0869675 -0.037404 0.63309
0.0881269 -0.0377074 0.63339
0.089266 -0.0380016 0.633556
0.0904359 -0.0383088 0.633904
0.0490594 -0.0269396 0.64786
0.0501339 -0.0272032 0.647439
0.0511941 -0.0274608 0.64689
0.0522239 -0.0277039 0.646067
0.0532248 -0.0279337 0.644994
0.054194 -0.0281501 0.643659
0.0551253 -0.028349 0.642015
0.0560181 -0.0285312 0.640073
0.0568808 -0.0287009 0.637918
0.0577353 -0.0288677 0.635747
0.0586263 -0.0290531 0.633946
0.0595443 -0.0292513 0.632416
0.0604912 -0.0294631 0.631163
0.061487 -0.029698 0.630342
0.0624888 -0.0299355 0.629586
0.0635069 -0.0301803 0.628975
0.0645353 -0.0304302 0.628458
0.0655921 -0.030693 0.628172
0.0666318 -0.0309484 0.627756
0.0677041 -0.0312174 0.627595
0.0687392 -0.0314708 0.627155
0.0697812 -0.0317275 0.626774
0.0708709 -0.032005 0.626747
0.0719782 -0.0322888 0.626842
0.0731203 -0.0325881 0.627182
0.0742606 -0.0328861 0.627498
0.075398 -0.0331824 0.627782
0.0764932 -0.0334613 0.627766
0.0775883 -0.0337396 0.627745
0.0786866 -0.0340192 0.627743
0.0798397 -0.0343217 0.628105
0.0809989 -0.0346259 0.628494
0.082172 -0.0349358 0.628962
0.0833866 -0.0352618 0.629684
0.08455 -0.0355668 0.630062
0.0857133 -0.0358722 0.630429
0.0868643 -0.0361717 0.630707
0.0879932 -0.0364627 0.63084
0.0890999 -0.0367439 0.630831
0.0902525 -0.0370442 0.631098
0.0492075 -0.0257838 0.646643
0.0502754 -0.0260457 0.646176
0.0513224 -0.0262977 0.645519
0.0523007 -0.0265191 0.64423
0.0532657 -0.0267351 0.642854
0.0541995 -0.0269373 0.641227
0.0550948 -0.0271241 0.6393
0.055961 -0.0272984 0.637164
0.0568332 -0.0274765 0.635138
0.0577062 -0.0276562 0.633171
0.0586021 -0.027847 0.63145
0.0595413 -0.0280576 0.630135
0.0605022 -0.0282784 0.62903
0.0614961 -0.0285138 0.628221
0.062487 -0.0287482 0.627404
0.0635005 -0.0289932 0.626786
0.0645065 -0.0292345 0.626119
0.0655408 -0.0294888 0.625687
0.0665649 -0.0297385 0.625182
0.0676211 -0.0300014 0.624928
0.0686301 -0.0302454 0.624326
0.0696479 -0.0304932 0.623799
0.0707222 -0.0307641 0.623693
0.0718155 -0.0310429 0.623722
0.0729442 -0.0313362 0.623999
0.074083 -0.0316336 0.624337
0.0752176 -0.031929 0.624635
0.0763081 -0.0322061 0.624619
0.0774069 -0.0324869 0.624657
0.0785186 -0.032772 0.624777
0.0796776 -0.0330765 0.625207
0.0808557 -0.0333882 0.625748
0.0820466 -0.0337047 0.626358
0.0832718 -0.0340341 0.627173
0.084435 -0.0343389 0.627573
0.0855982 -0.034643 0.62796
0.0867471 -0.0349418 0.628248
0.0878731 -0.0352314 0.628386
0.0889658 -0.0355077 0.628314
0.0901271 -0.0358111 0.628656
0.0503499 -0.0248618 0.644272
0.0514051 -0.025119 0.643722
0.0523982 -0.0253492 0.642602
0.0533718 -0.0255717 0.64133
0.0543223 -0.0257848 0.639882
0.0551845 -0.0259596 0.637679
0.0560147 -0.0261227 0.635253
0.0568584 -0.0262922 0.633009
0.0577063 -0.026465 0.630861
0.0585642 -0.0266438 0.628854
0.0595194 -0.0268637 0.627709
0.0604784 -0.0270855 0.626622
0.0614596 -0.0273182 0.625743
0.0624284 -0.0275454 0.624782
0.0634272 -0.0277853 0.624079
0.0644192 -0.0280225 0.623338
0.0654476 -0.0282753 0.622892
0.0664664 -0.0285241 0.622382
0.0675165 -0.0287857 0.622115
0.068512 -0.0290257 0.621446
0.0695155 -0.0292686 0.620847
0.0705738 -0.029534 0.620658
0.0716319 -0.0297994 0.620468
0.0727228 -0.0300781 0.620512
0.0738439 -0.0303683 0.620763
0.0749547 -0.0306534 0.620932
0.0760237 -0.0309235 0.62081
0.0771366 -0.0312098 0.620984
0.0782648 -0.0315016 0.621251
0.079432 -0.0318089 0.62177
0.0806279 -0.0321272 0.622462
0.0818462 -0.0324535 0.623281
0.0830882 -0.0327883 0.624232
0.0842821 -0.0331043 0.624854
0.0854775 -0.0334204 0.625469
0.0866576 -0.0337307 0.625974
0.0878178 -0.034033 0.626342
0.0889317 -0.0343179 0.626419
0.0901051 -0.0346243 0.626849
0.0504468 -0.0236937 0.642597
0.0515088 -0.0239553 0.642137
0.0525257 -0.0241974 0.641263
0.0535143 -0.0244284 0.640152
0.0544766 -0.024649 0.63883
0.0553297 -0.0248244 0.636567
0.0561437 -0.0249844 0.634019
0.0568907 -0.0251186 0.630958
0.0576893 -0.0252748 0.62842
0.0585128 -0.0254431 0.626159
0.0594517 -0.0256591 0.624918
0.0603845 -0.0258725 0.623653
0.06136 -0.0261044 0.622766
0.0623127 -0.0263272 0.621716
0.0633046 -0.0265661 0.620998
0.0643001 -0.0268069 0.620324
0.0653348 -0.0270633 0.619964
0.0663603 -0.0273163 0.61954
0.0674164 -0.027581 0.619351
0.0684099 -0.0278218 0.618701
0.0694012 -0.0280615 0.618045
0.070436 -0.0283183 0.617717
0.0714563 -0.0285699 0.61729
0.0725072 -0.0288333 0.617085
0.0735875 -0.0291075 0.617086
0.0746676 -0.0293816 0.617083
0.0757204 -0.0296461 0.616892
0.0768416 -0.0299353 0.617161
0.0779787 -0.0302316 0.61753
0.079146 -0.0305378 0.618085
0.0803474 -0.0308569 0.618848
0.0815793 -0.0311874 0.619789
0.0828365 -0.0315267 0.620869
0.0840682 -0.031856 0.621762
0.0853151 -0.0321901 0.622728
0.0865505 -0.0325201 0.6236
0.0877529 -0.0328372 0.624249
0.0889022 -0.0331346 0.624559
0.0900747 -0.0334405 0.624999
0.0494387 -0.0222511 0.640961
0.0505232 -0.0225225 0.640738
0.0515943 -0.0227882 0.640389
0.0524764 -0.0229779 0.638289
0.053458 -0.023208 0.637157
0.0544201 -0.023431 0.635879
0.0552594 -0.0236052 0.63354
0.056038 -0.0237564 0.630732
0.0569469 -0.0239608 0.629126
0.0576508 -0.0240841 0.625812
0.0584125 -0.0242322 0.623071
0.0593214 -0.0244393 0.621624
0.0602285 -0.0246452 0.620194
0.0611619 -0.0248631 0.619014
0.0621155 -0.0250887 0.61802
0.0631199 -0.0253338 0.617448
0.06413 -0.0255817 0.616931
0.0651807 -0.0258455 0.616736
0.0662399 -0.026112 0.616606
0.0673222 -0.0263876 0.616648
0.0683328 -0.0266358 0.616155
0.069321 -0.0268762 0.615508
0.0703416 -0.0271286 0.615106
0.0713258 -0.0273674 0.61445
0.0723304 -0.027614 0.61395
0.0733696 -0.0278739 0.613699
0.0744304 -0.0281413 0.613599
0.075466 -0.0283997 0.613326
0.0765913 -0.0286904 0.613661
0.077735 -0.0289887 0.614108
0.0788984 -0.0292933 0.614671
0.080093 -0.0296092 0.615424
0.0813175 -0.029935 0.616348
0.0825476 -0.0302628 0.617286
0.0837971 -0.0305975 0.618325
0.0850638 -0.0309374 0.619445
0.0863333 -0.0312778 0.620557
0.0875793 -0.0316098 0.6215
0.0887178 -0.0319037 0.62177
0.0898285 -0.032187 0.621864
0.0912878 -0.0337613 0.62567
0.0909747 -0.0324827 0.622163
0.0496077 -0.0211215 0.639985
0.0504288 -0.0212897 0.637257
0.0513569 -0.0215005 0.635613
0.0520667 -0.0216262 0.631989
0.05787 -0.0228645 0.616296
0.0589137 -0.0231257 0.616056
0.059946 -0.0233824 0.615726
0.0609469 -0.0236276 0.615148
0.0619245 -0.0238645 0.614396
0.0629609 -0.0241229 0.61412
0.0640041 -0.0243847 0.613902
0.0650725 -0.0246548 0.613877
0.066157 -0.0249315 0.613972
0.0672561 -0.0252129 0.614168
0.0682744 -0.0254649 0.613761
0.0692594 -0.0257053 0.613118
0.070265 -0.0259534 0.612636
0.0712343 -0.0261882 0.611903
0.0722063 -0.0264245 0.611203
0.0732124 -0.0266726 0.610751
0.0742657 -0.026938 0.610631
0.0752855 -0.0271918 0.610284
0.0764056 -0.0274807 0.610614
0.0775527 -0.0277789 0.611113
0.0787163 -0.0280828 0.611706
0.0798925 -0.0283908 0.612365
0.0810991 -0.0287092 0.613203
0.0822924 -0.0290231 0.613936
0.0835268 -0.0293503 0.614909
0.0847595 -0.0296771 0.615848
0.085995 -0.030004 0.616782
0.0872168 -0.0303267 0.617611
0.0883252 -0.0306096 0.617735
0.0893993 -0.0308802 0.617646
0.0905143 -0.0311653 0.617801
0.0584813 -0.0218222 0.61032
0.0596197 -0.0221181 0.610928
0.0606929 -0.0223913 0.610993
0.061714 -0.0226456 0.61064
0.0627752 -0.0229137 0.610605
0.0638571 -0.0231894 0.610727
0.0649307 -0.023462 0.610779
0.0660216 -0.0237405 0.610957
0.0671351 -0.0240272 0.611295
0.0681751 -0.0242882 0.611082
0.0691578 -0.0245291 0.610454
0.0701765 -0.0247824 0.610095
0.0711519 -0.0250206 0.609434
0.0721307 -0.0252602 0.608809
0.0731358 -0.0255096 0.608378
0.0741967 -0.0257776 0.608334
0.0751962 -0.0260244 0.607873
0.0762823 -0.0263018 0.608
0.0773914 -0.0265864 0.608272
0.0785165 -0.0268764 0.608641
0.0796649 -0.0271735 0.609147
0.0808647 -0.0274885 0.609972
0.0820599 -0.027802 0.610747
0.0832844 -0.0281243 0.611685
0.084504 -0.0284448 0.612572
0.0857088 -0.0287607 0.613346
0.086899 -0.0290707 0.614012
0.0879748 -0.0293428 0.613973
0.0890047 -0.0295998 0.613658
0.0900538 -0.0298633 0.613459
0.0580678 -0.0205447 0.604777
0.0592914 -0.0208699 0.606144
0.0604367 -0.021168 0.606846
0.0615096 -0.0214406 0.606953
0.0626022 -0.0217201 0.607208
0.0637216 -0.0220085 0.607659
0.0648054 -0.0222852 0.607825
0.0658914 -0.0225623 0.608
0.0669992 -0.022846 0.608328
0.0680347 -0.0231058 0.608115
0.0690138 -0.0233465 0.607495
0.0700222 -0.0235971 0.607096
0.0710048 -0.0238392 0.606521
0.0719898 -0.0240828 0.605973
0.0730125 -0.024338 0.605694
0.074083 -0.0246096 0.605744
0.0751085 -0.0248661 0.605486
0.0761813 -0.0251385 0.605548
0.0772719 -0.0254168 0.605722
0.0783695 -0.0256967 0.605934
0.0794916 -0.0259854 0.606298
0.0806588 -0.0262879 0.606939
0.081847 -0.0265973 0.607696
0.0830509 -0.0269117 0.608534
0.0842474 -0.0272235 0.609304
0.085413 -0.0275251 0.609868
0.0865764 -0.0278259 0.610403
0.0876175 -0.0280867 0.610188
0.0886295 -0.0283386 0.609803
0.0896371 -0.0285889 0.609395
0.0910693 -0.0301147 0.613065
0.0906032 -0.0288265 0.608752
0.0919856 -0.0303347 0.6121
0.0914583 -0.0290278 0.607474
0.0928001 -0.0305204 0.610566
0.092346 -0.0292401 0.606406
0.0519204 -0.0190058 0.606314
0.050523 -0.0174979 0.600886
0.0514243 -0.0177131 0.5996
0.0526353 -0.0191524 0.603322
0.0523269 -0.0179296 0.598361
0.0532784 -0.0192748 0.599787
0.0532157 -0.0181409 0.597031
0.0542555 -0.0195151 0.599206
0.0542905 -0.0184159 0.597322
0.0555383 -0.0198633 0.60122
0.0554386 -0.0187149 0.598219
0.0568209 -0.0202103 0.603173
0.0566245 -0.0190268 0.599401
0.0578132 -0.0193387 0.60057
0.0590022 -0.0196504 0.601707
0.060209 -0.019968 0.602951
0.061313 -0.0202514 0.603353
0.0624367 -0.020541 0.603892
0.0635682 -0.0208326 0.604473
