ply
format ascii 1.0
element vertex 1639
property float x
property float y
property float z
end_header
0.084907 -0.0559086 0.400727
0.0851272 -0.0552105 0.400553
0.0852891 -0.0544961 0.400143
0.0854706 -0.0537886 0.399816
0.0856721 -0.0530878 0.399571
0.0858753 -0.0523883 0.399334
0.0860695 -0.0516872 0.399061
0.0862616 -0.0509866 0.398781
0.0864305 -0.0502812 0.39841
0.0866085 -0.0495792 0.398076
0.0867775 -0.0488763 0.397709
0.0869369 -0.0481724 0.397305
0.087105 -0.0474719 0.396938
0.0872607 -0.04677 0.396522
0.0874148 -0.0460691 0.396104
0.0875826 -0.0453724 0.39574
0.0877844 -0.0446835 0.395511
0.0880092 -0.0439993 0.395376
0.0882559 -0.0433196 0.395326
0.0885124 -0.0426417 0.395316
0.088759 -0.0419622 0.395266
0.0890046 -0.0412826 0.395213
0.0892601 -0.0406046 0.395197
0.0895166 -0.0399268 0.395187
0.0897951 -0.039252 0.395262
0.0900854 -0.0385785 0.395382
0.0903555 -0.037902 0.395421
0.0905906 -0.0372212 0.395329
0.09081 -0.0365391 0.395175
0.0910062 -0.0358549 0.394934
0.0912033 -0.0351717 0.394698
0.0913939 -0.0344886 0.394437
0.0915933 -0.0338071 0.39421
0.091801 -0.0331268 0.394018
0.0920097 -0.0324474 0.393828
0.0922108 -0.0317679 0.393613
0.0924328 -0.0310905 0.393476
0.0926214 -0.0304118 0.393212
0.0927922 -0.0297328 0.392887
0.0929401 -0.0290542 0.392474
0.093075 -0.0283762 0.392017
0.0931915 -0.0276993 0.391493
0.0933374 -0.0270246 0.391081
0.0934854 -0.0263515 0.390677
0.0936782 -0.02568 0.390441
0.0938967 -0.0250092 0.390302
0.0941524 -0.0243389 0.390299
0.094452 -0.0236684 0.390456
0.0947642 -0.0229971 0.390659
0.0950675 -0.0223252 0.390829
0.0953824 -0.0216526 0.391039
0.0957184 -0.0209786 0.391325
0.0960015 -0.0203055 0.39142
0.0962802 -0.0196322 0.391497
0.096521 -0.0189604 0.391438
0.0967474 -0.0182898 0.391325
0.0969293 -0.017622 0.391055
0.0971119 -0.0169549 0.390788
0.0972934 -0.0162887 0.390519
0.0974976 -0.0156218 0.39033
0.0977048 -0.0149551 0.390153
0.0979467 -0.0142858 0.390101
0.0981893 -0.0136166 0.390051
0.0984406 -0.0129467 0.390032
0.0987019 -0.0122757 0.390049
0.0989667 -0.0116041 0.390078
0.0992246 -0.0109333 0.390082
0.0994692 -0.0102643 0.390039
0.0997085 -0.00959606 0.389979
0.0999109 -0.00893253 0.389791
0.100115 -0.00826941 0.389605
0.10032 -0.00760669 0.389427
0.100536 -0.00694273 0.389289
0.100719 -0.00628433 0.389035
0.100909 -0.0056259 0.388807
0.101086 -0.00496962 0.388536
0.101228 -0.00432049 0.388142
0.10138 -0.00367093 0.387788
0.10153 -0.0030224 0.387427
0.101681 -0.00237485 0.387072
0.101868 -0.00172124 0.38684
0.102094 -0.00106105 0.38674
0.102325 -0.000400154 0.38666
0.102566 0.000262755 0.386613
0.102802 0.000924417 0.386552
0.103002 0.00157808 0.386365
0.103191 0.00222907 0.386144
0.10338 0.00287941 0.385925
0.103557 0.00352628 0.385665
0.103733 0.0041717 0.385401
0.103893 0.00481334 0.385091
0.104067 0.00545689 0.384822
0.104242 0.00610047 0.384561
0.104429 0.00674598 0.384342
0.104651 0.00740048 0.384238
0.104924 0.00806752 0.384302
0.105193 0.0087339 0.384353
0.105473 0.00940338 0.384438
0.105772 0.0100785 0.384587
0.106045 0.0107473 0.384653
0.106297 0.0114096 0.384647
0.106561 0.0120753 0.384678
0.106823 0.0127412 0.384708
0.107063 0.0134 0.38466
0.107301 0.0140583 0.384609
0.107539 0.0147161 0.384557
0.107728 0.0153587 0.384348
0.107925 0.0160033 0.384166
0.108118 0.0166461 0.383972
0.108278 0.0172777 0.383671
0.108424 0.0179036 0.38333
0.10858 0.0185315 0.383018
0.108698 0.0191462 0.382587
0.10878 0.0197471 0.382043
0.108846 0.0203406 0.381451
0.108848 0.0209097 0.38066
0.108812 0.0214625 0.379746
0.108672 0.0219756 0.378513
0.108491 0.0224697 0.377153
0.108282 0.0229491 0.375708
0.108101 0.0234358 0.37436
0.107941 0.0239264 0.37308
0.107833 0.0244339 0.371971
0.107703 0.0249291 0.370794
0.107507 0.0253957 0.369421
0.107279 0.0258455 0.367949
0.107073 0.0263003 0.366553
0.106935 0.026779 0.365373
0.106918 0.0273041 0.364569
0.107058 0.0278931 0.364257
0.107342 0.0285417 0.364388
0.107824 0.0292751 0.365127
0.108397 0.0300497 0.366142
0.109052 0.030863 0.367407
0.109788 0.0317149 0.368912
0.110694 0.0326465 0.370934
0.111633 0.0335977 0.373045
0.112606 0.0345708 0.375253
0.113565 0.035543 0.377411
0.11442 0.0364736 0.379245
0.115081 0.0373186 0.380483
0.115639 0.0381198 0.381409
0.116218 0.0389324 0.382391
0.116832 0.0397652 0.383479
0.11755 0.04065 0.384871
0.118331 0.0415694 0.386449
0.0788962 -0.102359 0.447261
0.0789596 -0.101421 0.446169
0.0788961 -0.100389 0.44447
0.0788019 -0.0993402 0.442637
0.0787541 -0.0983341 0.441035
0.0787432 -0.0973623 0.439616
0.0787551 -0.096413 0.438317
0.0788548 -0.0955337 0.437441
0.0789327 -0.0946419 0.436466
0.0789995 -0.0937462 0.435444
0.0790452 -0.0928398 0.434329
0.0791527 -0.0919807 0.43351
0.0792638 -0.0911275 0.432714
0.0794003 -0.0902944 0.432038
0.0795487 -0.089472 0.431423
0.0796719 -0.0886354 0.430694
0.0797793 -0.0877916 0.429897
0.0798937 -0.0869554 0.429134
0.0800239 -0.0861321 0.428451
0.0801588 -0.0853143 0.427791
0.0803126 -0.0845107 0.427222
0.0804315 -0.0836883 0.426497
0.0805233 -0.0828528 0.425655
0.080605 -0.0820147 0.42477
0.0806582 -0.0811636 0.423761
0.0807119 -0.0803168 0.42276
0.0807514 -0.0794661 0.421702
0.0807677 -0.0786067 0.420545
0.0807722 -0.0777454 0.419341
0.0808188 -0.0769109 0.418331
0.0808593 -0.0760773 0.417301
0.080932 -0.075264 0.416418
0.081014 -0.0744588 0.415581
0.0811151 -0.0736662 0.414832
0.0811883 -0.0728628 0.413966
0.0812699 -0.0720667 0.41314
0.0813186 -0.0712583 0.412175
0.081364 -0.0704519 0.4112
0.0813994 -0.0696447 0.410188
0.0814372 -0.0688424 0.409191
0.0815156 -0.0680615 0.408376
0.0816061 -0.0672888 0.407616
0.0816969 -0.0665191 0.406862
0.0817958 -0.0657555 0.406147
0.0819138 -0.0650022 0.405516
0.0820156 -0.0642447 0.404821
0.0821476 -0.0635016 0.404256
0.0823211 -0.0627764 0.403871
0.0824952 -0.0620526 0.40349
0.0826918 -0.0613385 0.403206
0.0828986 -0.060629 0.402967
0.0830946 -0.0599166 0.402684
0.0832603 -0.0591949 0.402273
0.083411 -0.0584695 0.401804
0.0835911 -0.0577555 0.40146
0.0837854 -0.0570472 0.401175
0.0839663 -0.0563357 0.400837
0.084173 -0.0556332 0.400606
0.0844037 -0.0549386 0.400478
0.0845664 -0.0542248 0.400068
0.0847487 -0.0535179 0.399741
0.0849498 -0.0528174 0.399493
0.0851526 -0.0521181 0.399254
0.0853475 -0.0514176 0.398984
0.0855419 -0.0507179 0.398712
0.0857225 -0.0500156 0.398386
0.0859104 -0.0493164 0.398091
0.0860805 -0.0486139 0.397725
0.0862415 -0.0479107 0.397325
0.0864187 -0.0472123 0.396991
0.0865651 -0.0465087 0.396536
0.0867198 -0.0458082 0.396116
0.0868976 -0.0451137 0.395791
0.0870995 -0.0444249 0.395563
0.0873257 -0.0437411 0.395431
0.0875822 -0.0430632 0.39542
0.0878288 -0.0423836 0.395371
0.0880642 -0.0417024 0.395276
0.0882977 -0.0410211 0.395175
0.0885305 -0.04034 0.395073
0.088765 -0.0396594 0.394977
0.0890312 -0.0389835 0.395005
0.0893105 -0.0383091 0.395083
0.0895698 -0.0376319 0.395083
0.089815 -0.0369531 0.395029
0.0900445 -0.0362727 0.394916
0.0902411 -0.0355892 0.394675
0.0904399 -0.034907 0.394443
0.0906401 -0.0342254 0.394218
0.0908393 -0.0335444 0.393992
0.0910379 -0.0328641 0.393764
0.091245 -0.0321853 0.393568
0.0914441 -0.0315065 0.393343
0.0916434 -0.0308283 0.393121
0.09182 -0.0301498 0.392813
0.0919913 -0.029472 0.392487
0.0921388 -0.0287942 0.392073
0.0922779 -0.0281176 0.391629
0.0924162 -0.0274422 0.391185
0.0925763 -0.0267688 0.390823
0.0927265 -0.0260964 0.390426
0.0929186 -0.0254256 0.390188
0.0931365 -0.0247555 0.390045
0.0933794 -0.0240859 0.389996
0.0936464 -0.0234161 0.390035
0.0939346 -0.0227459 0.390152
0.0942135 -0.0220754 0.390235
0.094513 -0.021404 0.390393
0.0948367 -0.0207314 0.390639
0.0951301 -0.020059 0.390772
0.0954327 -0.019386 0.390938
0.0957073 -0.0187136 0.391002
0.0959483 -0.018043 0.390944
0.0961444 -0.0173752 0.390724
0.0963487 -0.0167076 0.390534
0.096541 -0.0160414 0.390303
0.0967446 -0.015375 0.390112
0.0969625 -0.0147079 0.389974
0.0971938 -0.0140402 0.389883
0.0974242 -0.0133727 0.38979
0.0976528 -0.0127056 0.389692
0.0978927 -0.0120376 0.389633
0.0981352 -0.0113693 0.389585
0.0983903 -0.0107002 0.38958
0.098633 -0.010032 0.389534
0.0988839 -0.00936295 0.389514
0.0991003 -0.0086989 0.389374
0.0993058 -0.00803636 0.389196
0.099511 -0.00737469 0.389018
0.0997041 -0.00671515 0.388799
0.0998607 -0.00606197 0.388453
0.100023 -0.00540898 0.388128
0.100195 -0.00475511 0.387838
0.100326 -0.0041092 0.387409
0.100479 -0.00346076 0.387057
0.100641 -0.00281184 0.386738
0.100805 -0.00216329 0.386426
0.101006 -0.00150837 0.386244
0.101258 -0.000844132 0.386235
0.101525 -0.000176536 0.386278
0.10178 0.000488365 0.386278
0.10203 0.00115225 0.386263
0.102231 0.00180519 0.386083
0.102432 0.00245809 0.385901
0.102622 0.00310775 0.385684
0.1028 0.00375457 0.385429
0.102974 0.00439885 0.38516
0.103147 0.0050427 0.384887
0.10332 0.00568543 0.384617
0.103495 0.00632802 0.384354
0.103695 0.00697652 0.384175
0.10393 0.00763336 0.384114
0.104203 0.00830067 0.384183
0.104472 0.00896671 0.384231
0.104763 0.00963928 0.384359
0.105075 0.010318 0.384549
0.105361 0.0109897 0.384657
0.105627 0.0116561 0.384697
0.105891 0.0123225 0.384732
0.106142 0.0129845 0.384722
0.106368 0.0136389 0.38463
0.106581 0.0142893 0.384499
0.106793 0.0149392 0.384364
0.106957 0.015573 0.384073
0.107128 0.0162081 0.383805
0.107297 0.0168422 0.383532
0.107432 0.0174642 0.383151
0.107554 0.0180805 0.382729
0.107695 0.0187027 0.382371
0.107799 0.0193104 0.381894
0.107869 0.0199054 0.381311
0.107936 0.0204976 0.380721
0.107941 0.0210654 0.379935
0.107891 0.0216114 0.378977
0.107753 0.0221221 0.377741
0.107597 0.0226224 0.376455
0.107429 0.0231149 0.375136
0.107293 0.023616 0.373922
0.107187 0.0241253 0.372808
0.107108 0.0246423 0.371787
0.106981 0.025137 0.370612
0.106776 0.025598 0.369204
0.106538 0.0260413 0.367695
0.106334 0.0264945 0.366295
0.10621 0.026977 0.365153
0.106206 0.0275063 0.364389
0.106369 0.0281047 0.364148
0.106691 0.0287689 0.364396
0.107197 0.0295138 0.365214
0.107805 0.030305 0.366343
0.108506 0.0311401 0.367754
0.109277 0.0320097 0.369376
0.110147 0.0329286 0.371295
0.111041 0.033863 0.373282
0.111967 0.0348174 0.375356
0.11287 0.0357672 0.377355
0.113675 0.0366761 0.379043
0.114347 0.0375284 0.380325
0.114906 0.0383305 0.381257
0.115456 0.039131 0.382159
0.116027 0.0399436 0.38312
0.11668 0.0407989 0.384326
0.117384 0.0416821 0.385683
0.0782131 -0.10213 0.447721
0.0783191 -0.101225 0.446826
0.0781979 -0.100145 0.444832
0.07807 -0.0990679 0.44282
0.0780088 -0.0980506 0.441139
0.0780405 -0.09711 0.439918
0.0780897 -0.0961874 0.438784
0.0781941 -0.0953102 0.437921
0.0782724 -0.0944175 0.436939
0.0783294 -0.0935135 0.435865
0.078355 -0.0925916 0.434644
0.0784407 -0.0917166 0.433716
0.0785411 -0.0908553 0.43286
0.0786677 -0.0900152 0.432136
0.078816 -0.0891924 0.431515
0.0789397 -0.0883559 0.430781
0.0790482 -0.0875124 0.429983
0.0791535 -0.0866702 0.429175
0.0792743 -0.0858408 0.428441
0.0793997 -0.0850171 0.427733
0.0795543 -0.0842141 0.427164
0.0796655 -0.0833872 0.426401
0.0797716 -0.0825602 0.425615
0.0798661 -0.0817296 0.424784
0.0799324 -0.0808859 0.423827
0.0799871 -0.0800395 0.422824
0.0800377 -0.0791946 0.421807
0.0800548 -0.0783353 0.420644
0.0800715 -0.0774803 0.419487
0.0801204 -0.0766468 0.418481
0.0801739 -0.0758196 0.4175
0.0802593 -0.0750124 0.416667
0.0803633 -0.0742179 0.415923
0.0804681 -0.0734265 0.415185
0.0805531 -0.0726282 0.414362
0.0806361 -0.071832 0.413535
0.0806868 -0.0710239 0.412571
0.0807239 -0.0702131 0.411554
0.0807504 -0.0694013 0.410494
0.0807868 -0.0685978 0.409484
0.0808553 -0.0678121 0.408618
0.0809459 -0.0670391 0.407854
0.0810391 -0.06627 0.407105
0.0811404 -0.0655071 0.406394
0.0812502 -0.0647502 0.405724
0.0813518 -0.0639925 0.405022
0.0814745 -0.0632456 0.404414
0.0816371 -0.062516 0.403978
0.0818131 -0.061793 0.403602
0.0820098 -0.0610788 0.403319
0.0822167 -0.0603694 0.403077
0.0824139 -0.0596574 0.402796
0.0825793 -0.0589355 0.402384
0.0827212 -0.0582073 0.401872
0.0828986 -0.0574924 0.401515
0.0830815 -0.0567805 0.401182
0.0832615 -0.056069 0.400837
0.0834589 -0.0553639 0.400568
0.0836907 -0.0546699 0.400442
0.0838442 -0.0539537 0.399993
0.0840275 -0.0532475 0.399667
0.0842291 -0.0525474 0.399421
0.0844437 -0.0518516 0.399229
0.0846399 -0.0511517 0.398962
0.0848444 -0.0504548 0.39873
0.0850253 -0.0497529 0.398403
0.0852039 -0.0490516 0.398069
0.0853645 -0.0483472 0.397663
0.0855352 -0.0476466 0.397299
0.0857057 -0.0469471 0.396936
0.085862 -0.0462458 0.396519
0.0860277 -0.0455479 0.396141
0.0862146 -0.0448554 0.39585
0.086417 -0.0441667 0.395622
0.086652 -0.0434847 0.395525
0.0869085 -0.0428068 0.395515
0.0871546 -0.0421272 0.395461
0.0873784 -0.0414441 0.395322
0.0875995 -0.040761 0.395171
0.0878188 -0.0400781 0.395014
0.0880411 -0.0393961 0.39487
0.0882772 -0.0387164 0.394782
0.0885352 -0.0380399 0.394778
0.0887934 -0.0373632 0.394775
0.0890189 -0.0366829 0.394645
0.0892393 -0.0360024 0.394496
0.0894375 -0.0353201 0.394262
0.0896358 -0.0346386 0.394028
0.0898251 -0.033957 0.393763
0.0900343 -0.0332779 0.393573
0.0902216 -0.0325979 0.393301
0.0904284 -0.0319199 0.393104
0.0906249 -0.0312419 0.392871
0.0908021 -0.0305636 0.392563
0.0909654 -0.0298857 0.392205
0.091147 -0.0292096 0.391917
0.0913076 -0.0285337 0.391552
0.0914612 -0.0278587 0.391161
0.0916344 -0.0271855 0.390846
0.0918066 -0.0265131 0.39053
0.091957 -0.0258415 0.390133
0.0921502 -0.0251715 0.389897
0.0923682 -0.0245023 0.389754
0.0926006 -0.0238332 0.389668
0.0928559 -0.0231643 0.389665
0.0931304 -0.0224949 0.389733
0.0933835 -0.0218258 0.389722
0.0936687 -0.0211558 0.389829
0.0939796 -0.0204845 0.39003
0.0942834 -0.0198128 0.390204
0.0945984 -0.01914 0.390419
0.0948986 -0.0184672 0.390578
0.0951533 -0.0177966 0.390571
0.0953723 -0.0171283 0.390434
0.095588 -0.0164606 0.390285
0.095791 -0.0157943 0.390091
0.0960064 -0.0151276 0.389943
0.0962351 -0.0144599 0.389845
0.0964552 -0.0137937 0.389714
0.0966735 -0.0131277 0.389578
0.0968799 -0.0124637 0.389399
0.0970959 -0.0117988 0.389257
0.0973152 -0.0111343 0.389126
0.0975575 -0.010467 0.389078
0.097789 -0.00980131 0.388991
0.0980394 -0.0091336 0.388971
0.0982666 -0.00846896 0.38887
0.0984736 -0.00780741 0.388698
0.0986772 -0.00714675 0.388516
0.0988677 -0.00648891 0.388287
0.0990211 -0.00583718 0.387928
0.0991707 -0.00518773 0.38756
0.0993426 -0.0045349 0.38727
0.0994755 -0.00389007 0.386845
0.0996305 -0.00324279 0.3865
0.0998062 -0.00259266 0.386226
0.0999816 -0.00194286 0.385955
0.100197 -0.00128635 0.38582
0.100462 -0.000620219 0.385858
0.100742 4.89276e-05 0.385949
0.100998 0.000713937 0.385955
0.10126 0.00137929 0.385978
0.101473 0.00203456 0.385837
0.101685 0.00268917 0.385695
0.101874 0.00333847 0.385475
0.102063 0.00398645 0.385256
0.102238 0.0046309 0.38499
0.102412 0.00527373 0.384719
0.102574 0.00591343 0.384412
0.102751 0.00655598 0.384154
0.102962 0.00720684 0.384014
0.103199 0.00786358 0.383958
0.103475 0.00853126 0.384033
0.103753 0.00919967 0.384116
0.104054 0.00987469 0.384277
0.104353 0.0105499 0.384428
0.104643 0.0112229 0.38455
0.104909 0.0118892 0.384591
0.105174 0.0125545 0.384626
0.105423 0.0132162 0.384611
0.105635 0.0138659 0.384476
0.105833 0.0145111 0.384295
0.106029 0.015155 0.384105
0.106179 0.0157837 0.383767
0.106325 0.0164101 0.38342
0.106481 0.0170388 0.383105
0.106604 0.0176557 0.382683
0.106704 0.0182632 0.382188
0.106832 0.0188794 0.381789
0.106926 0.0194827 0.381279
0.106985 0.0200716 0.380656
0.107042 0.020658 0.380032
0.107035 0.0212199 0.379205
0.106964 0.0217557 0.378175
0.106839 0.0222686 0.376978
0.106709 0.0227764 0.375771
0.106574 0.0232785 0.37455
0.10649 0.0237972 0.373498
0.106424 0.0243201 0.372505
0.106358 0.0248402 0.371516
0.106219 0.0253287 0.370303
0.106014 0.025787 0.368887
0.105768 0.0262245 0.367345
0.105568 0.0266775 0.365955
0.10545 0.0271598 0.364823
0.105459 0.0276932 0.364097
0.105637 0.0282965 0.363899
0.105993 0.028976 0.364258
0.106525 0.0297328 0.365163
0.10717 0.0305413 0.366412
0.107927 0.0314033 0.368005
0.108744 0.0322962 0.369776
0.109603 0.0332129 0.371672
0.110468 0.0341371 0.373576
0.111356 0.0350776 0.375547
0.112202 0.0360032 0.377379
0.112956 0.0368909 0.378921
0.113615 0.0377382 0.380168
0.114183 0.0385458 0.381135
0.114704 0.0393332 0.381954
0.115241 0.0401306 0.382817
0.115819 0.0409502 0.383804
0.116418 0.0417824 0.384847
0.077224 -0.0977368 0.441054
0.0772922 -0.0968234 0.439999
0.0773836 -0.0959319 0.439062
0.0775192 -0.0950767 0.438342
0.0775906 -0.0941778 0.437318
0.0776381 -0.0932658 0.436187
0.0776531 -0.0923354 0.434906
0.0777279 -0.0914518 0.433917
0.0777985 -0.0905695 0.432915
0.0779145 -0.089722 0.432134
0.0780507 -0.088891 0.431451
0.0781655 -0.0880487 0.430672
0.0782745 -0.0872057 0.42987
0.0783834 -0.0863658 0.429073
0.0785052 -0.0855373 0.428341
0.0786307 -0.0847137 0.427628
0.0787958 -0.0839174 0.427104
0.0789097 -0.0830921 0.426346
0.0790392 -0.0822791 0.425665
0.0791476 -0.0814563 0.424889
0.0792265 -0.0806197 0.423984
0.0792822 -0.0797734 0.422977
0.0793331 -0.0789283 0.421954
0.0793415 -0.0780638 0.420744
0.0793705 -0.0772152 0.419635
0.0794227 -0.0763831 0.418635
0.0794893 -0.0755624 0.417707
0.0795862 -0.0747608 0.416917
0.0797019 -0.0739716 0.41622
0.0797998 -0.0731763 0.415443
0.0798956 -0.0723828 0.414664
0.0799803 -0.071587 0.413839
0.080032 -0.0707788 0.412871
0.0800799 -0.0699724 0.411893
0.0801168 -0.0691647 0.410871
0.0801545 -0.0683613 0.40986
0.0802236 -0.0675752 0.408989
0.0803164 -0.0668026 0.408228
0.080402 -0.0660298 0.407439
0.0804966 -0.0652636 0.406693
0.0806073 -0.0645066 0.406022
0.080698 -0.0637442 0.405266
0.0808107 -0.0629931 0.404611
0.0809634 -0.0622596 0.404131
0.0811501 -0.0615405 0.403798
0.081349 -0.0608269 0.403521
0.0815585 -0.0601182 0.403289
0.0817655 -0.0594095 0.403047
0.0819291 -0.0586867 0.402623
0.0820506 -0.0579514 0.402023
0.0822169 -0.0572329 0.401615
0.0823884 -0.0565174 0.401232
0.0825574 -0.0558026 0.400838
0.0827444 -0.0550945 0.400523
0.082976 -0.0544007 0.400397
0.0831296 -0.0536849 0.399945
0.0833232 -0.0529819 0.399663
0.083527 -0.0522826 0.399423
0.0837526 -0.0515899 0.399274
0.0839598 -0.050893 0.399051
0.0841647 -0.0501962 0.398819
0.0843355 -0.049492 0.398449
0.0845132 -0.0487906 0.398108
0.0846641 -0.0480843 0.39766
0.0848253 -0.0473817 0.397256
0.0850052 -0.0466845 0.396931
0.0851844 -0.0459883 0.396603
0.0853638 -0.0452933 0.396277
0.0855624 -0.044603 0.396032
0.0857743 -0.0439161 0.395841
0.0859988 -0.043232 0.395701
0.0862446 -0.0425521 0.395648
0.0864808 -0.0418708 0.395555
0.086694 -0.041186 0.395371
0.0869022 -0.0405011 0.39517
0.0871107 -0.0398169 0.394968
0.0873115 -0.0391322 0.39474
0.0875258 -0.03845 0.394564
0.0877711 -0.0377725 0.394511
0.0880061 -0.0370936 0.39442
0.0882104 -0.0364118 0.394206
0.0884313 -0.0357323 0.394059
0.0886303 -0.0350511 0.393828
0.0888292 -0.0343705 0.393597
0.0890275 -0.0336908 0.393364
0.0892366 -0.0330125 0.393177
0.0894139 -0.0323326 0.392865
0.0896102 -0.031655 0.392628
0.0897945 -0.0309773 0.392347
0.0899608 -0.0302997 0.391997
0.0901242 -0.029623 0.391638
0.0903163 -0.0289487 0.39139
0.0904907 -0.0282743 0.391077
0.0906683 -0.0276013 0.390776
0.0908652 -0.0269294 0.390551
0.091049 -0.0262581 0.390278
0.0912109 -0.0255874 0.389922
0.0914042 -0.0249181 0.389685
0.0916104 -0.0242494 0.389499
0.0918337 -0.0235811 0.389378
0.0920873 -0.0229128 0.389369
0.0923497 -0.0222443 0.389393
0.0925994 -0.021576 0.389371
0.0928829 -0.0209066 0.389475
0.0931928 -0.0202359 0.389674
0.0934981 -0.0195647 0.389855
0.0938124 -0.0188924 0.39007
0.0941241 -0.0182197 0.390273
0.094391 -0.0175489 0.390312
0.0946227 -0.0168803 0.390222
0.0948499 -0.0162123 0.390115
0.0950555 -0.0155465 0.389929
0.0952719 -0.0148801 0.389786
0.0954917 -0.0142139 0.389653
0.0956898 -0.0135501 0.389444
0.0958949 -0.0128863 0.38926
0.0960957 -0.0122235 0.389062
0.0962882 -0.0115621 0.388835
0.0964836 -0.0109013 0.388618
0.096712 -0.0102365 0.388522
0.0969298 -0.00957389 0.388388
0.0971698 -0.00890834 0.388332
0.0973994 -0.00824452 0.38824
0.0976165 -0.00758315 0.388104
0.0978303 -0.00692225 0.387958
0.0980183 -0.00626559 0.387721
0.0981725 -0.00561516 0.387365
0.0983357 -0.00496456 0.387044
0.0985131 -0.00431249 0.386773
0.0986603 -0.00366628 0.386397
0.0988279 -0.00301755 0.386094
0.0990136 -0.00236657 0.385857
0.0992024 -0.0017151 0.385629
0.0994292 -0.00105724 0.385537
0.0996949 -0.000391339 0.385577
0.0999747 0.000277557 0.385667
0.10024 0.000943498 0.385706
0.10049 0.00160643 0.385693
0.100702 0.00226051 0.385549
0.100914 0.00291455 0.385405
0.101105 0.00356315 0.385188
0.101283 0.0042079 0.384933
0.10147 0.0048543 0.384704
0.101644 0.00549689 0.384436
0.101809 0.00613614 0.384136
0.101997 0.0067806 0.383917
0.102231 0.00743662 0.383853
0.102471 0.00809385 0.383808
0.102758 0.00876446 0.383923
0.103046 0.00943524 0.38404
0.103345 0.0101099 0.384194
0.103633 0.0107817 0.384309
0.103922 0.0114546 0.38443
0.104188 0.0121204 0.384472
0.104451 0.0127856 0.384504
0.104699 0.0134459 0.384484
0.104897 0.0140913 0.384304
0.105082 0.0147314 0.384077
0.105254 0.015367 0.383807
0.105377 0.0159857 0.383382
0.105499 0.0166034 0.382953
0.105631 0.0172229 0.382559
0.105742 0.0178342 0.382098
0.105831 0.0184362 0.381565
0.105948 0.0190474 0.38113
0.106032 0.019645 0.380586
0.106102 0.0202361 0.379998
0.106148 0.0208174 0.379337
0.106143 0.0213774 0.378512
0.106074 0.0219115 0.377485
0.105974 0.0224314 0.376365
0.105863 0.0229441 0.375212
0.105758 0.0234554 0.374083
0.105704 0.0239835 0.37312
0.105662 0.0245144 0.372203
0.105596 0.0250328 0.371208
0.105435 0.02551 0.369918
0.105218 0.0259608 0.368456
0.104984 0.0264008 0.366944
0.104789 0.0268533 0.365565
0.104678 0.0273367 0.364452
0.104734 0.0278888 0.363871
0.104957 0.0285106 0.363813
0.10535 0.0292062 0.36429
0.105909 0.029976 0.365283
0.106588 0.0308014 0.366646
0.107381 0.0316818 0.368359
0.108202 0.032579 0.370153
0.10904 0.0334892 0.371991
0.109874 0.0344022 0.373809
0.110716 0.0353235 0.375646
0.111492 0.0362195 0.377272
0.112216 0.037095 0.37873
0.112858 0.0379361 0.379937
0.113436 0.0387489 0.380936
0.113941 0.0395295 0.381712
0.114459 0.040318 0.382523
0.114966 0.0411037 0.383297
0.115463 0.0418863 0.384038
0.0764121 -0.0974019 0.440832
0.0765417 -0.0965354 0.44007
0.0766889 -0.0956851 0.439396
0.0768439 -0.0948432 0.438763
0.0769074 -0.0939372 0.437693
0.0769449 -0.0930169 0.436503
0.0769496 -0.0920782 0.435163
0.077004 -0.0911797 0.434071
0.0770557 -0.0902836 0.432968
0.0771612 -0.0894288 0.432132
0.0772866 -0.0885904 0.431392
0.0774012 -0.0877479 0.430606
0.0775124 -0.0869063 0.42981
0.0776248 -0.0860686 0.429022
0.0777582 -0.0852474 0.428339
0.0778934 -0.0844299 0.427667
0.0780593 -0.0836339 0.427143
0.0781743 -0.0828092 0.426384
0.0783259 -0.0820093 0.425802
0.0784368 -0.0811877 0.425033
0.078519 -0.0803525 0.424133
0.0785758 -0.0795064 0.423125
0.0786278 -0.0786615 0.422099
0.0786281 -0.0777923 0.420844
0.0786693 -0.0769499 0.41978
0.0787336 -0.076124 0.418829
0.0788133 -0.0753097 0.417951
0.0789213 -0.0745133 0.417208
0.079049 -0.0737297 0.416556
0.0791462 -0.0729335 0.415773
0.0792441 -0.0721404 0.414995
0.0793286 -0.071344 0.414164
0.0793907 -0.0705401 0.413235
0.0794415 -0.0697344 0.412261
0.0794813 -0.0689274 0.411244
0.0795219 -0.0681245 0.410236
0.0795925 -0.0673386 0.409367
0.0796777 -0.0665621 0.408565
0.079764 -0.0657891 0.407774
0.0798497 -0.0650187 0.406982
0.0799585 -0.0642607 0.406298
0.08004 -0.0634942 0.405497
0.0801528 -0.0627429 0.404835
0.080306 -0.0620093 0.404354
0.0805036 -0.061294 0.404067
0.0806958 -0.0605779 0.403757
0.0809058 -0.059869 0.403525
0.0811024 -0.0591564 0.403237
0.0812559 -0.05843 0.402767
0.0813677 -0.0576915 0.402122
0.081534 -0.056973 0.40171
0.0816961 -0.0562546 0.401284
0.081864 -0.0555394 0.400886
0.0820405 -0.0548283 0.400524
0.082261 -0.0541315 0.400349
0.0824136 -0.0534157 0.399891
0.0826172 -0.0527158 0.399648
0.0828236 -0.0520174 0.399419
0.0830516 -0.0513256 0.399279
0.0832683 -0.0506314 0.399094
0.0834728 -0.0499346 0.39886
0.0836336 -0.0492281 0.398445
0.083811 -0.0485269 0.398102
0.083969 -0.0478224 0.397681
0.0841311 -0.0471203 0.397276
0.0843223 -0.0464258 0.396996
0.0845245 -0.0457345 0.39676
0.0847076 -0.0450402 0.396447
0.0849105 -0.0443507 0.396218
0.0851228 -0.0436638 0.396026
0.0853365 -0.0429776 0.395842
0.0855718 -0.0422958 0.395745
0.0858072 -0.0416144 0.39565
0.0860116 -0.0409283 0.395429
0.0862104 -0.0402421 0.395189
0.0864072 -0.0395564 0.39494
0.0865874 -0.0388693 0.394627
0.0867789 -0.0381846 0.39436
0.0869998 -0.0375044 0.394212
0.0872101 -0.0368234 0.394022
0.0874007 -0.0361409 0.393756
0.0876212 -0.0354623 0.393609
0.0878098 -0.0347812 0.393335
0.0880097 -0.0341019 0.393108
0.0882076 -0.0334231 0.392874
0.0884172 -0.0327461 0.392687
0.0885957 -0.0320674 0.39238
0.0887927 -0.0313908 0.392147
0.0889777 -0.0307143 0.391868
0.0891425 -0.0300376 0.391512
0.0893067 -0.0293621 0.391155
0.089501 -0.0286889 0.390915
0.0896984 -0.0280165 0.390689
0.0898991 -0.0273448 0.390478
0.0901191 -0.0266744 0.390338
0.0903157 -0.0260039 0.390111
0.0904881 -0.0253339 0.389796
0.0906805 -0.0246651 0.389554
0.0908871 -0.0239969 0.389368
0.0911085 -0.0233291 0.389239
0.0913515 -0.0226613 0.389192
0.0916026 -0.0219933 0.389177
0.0918429 -0.0213259 0.389118
0.0921165 -0.0206573 0.389186
0.0924055 -0.0199878 0.389311
0.0927097 -0.0193172 0.389491
0.0930227 -0.0186457 0.389702
0.093343 -0.0179729 0.38994
0.0936195 -0.0173022 0.390016
0.0938637 -0.0166335 0.389971
0.0941037 -0.0159652 0.389912
0.0943205 -0.0152988 0.389768
0.0945389 -0.0146329 0.38963
0.0947487 -0.0139681 0.389462
0.0949447 -0.0133051 0.389243
0.095136 -0.0126433 0.389009
0.0953132 -0.0119838 0.388724
0.0954916 -0.011325 0.388446
0.0956832 -0.0106652 0.388216
0.0958995 -0.0100031 0.388077
0.096106 -0.00934292 0.387901
0.0963435 -0.00867856 0.387838
0.0965616 -0.00801752 0.387708
0.096769 -0.00735809 0.387537
0.0969839 -0.00669855 0.387395
0.0971843 -0.00604134 0.387202
0.0973536 -0.00538973 0.3869
0.0975338 -0.00473709 0.386637
0.0977257 -0.00408313 0.386418
0.0978958 -0.00343423 0.386121
0.0980753 -0.00278383 0.385859
0.0982734 -0.00213136 0.385663
0.0984745 -0.0014783 0.38548
0.0987018 -0.000820616 0.385387
0.0989653 -0.000155485 0.385421
0.0992303 0.000510167 0.385461
0.0994828 0.00117279 0.385456
0.0997203 0.0018322 0.3854
0.0999327 0.00248619 0.385258
0.100123 0.00313418 0.385041
0.100313 0.00378177 0.384823
0.100491 0.00442574 0.384564
0.100678 0.00507088 0.384337
0.100866 0.00571573 0.384114
0.101054 0.00636049 0.383894
0.101254 0.00700753 0.383714
0.101511 0.00766933 0.383727
0.101774 0.00833272 0.383761
0.102064 0.00900378 0.383886
0.102353 0.00967528 0.384009
0.102661 0.010352 0.384195
0.102936 0.0110201 0.384268
0.103211 0.0116884 0.384342
0.103476 0.0123537 0.384379
0.103726 0.0130146 0.384368
0.103951 0.0136677 0.384274
0.104128 0.0143057 0.38402
0.104289 0.0149376 0.383715
0.104435 0.0155639 0.383362
0.104547 0.0161778 0.382897
0.104657 0.0167898 0.382428
0.104776 0.0174034 0.381991
0.104875 0.0180088 0.381486
0.10496 0.0186083 0.380942
0.105068 0.0192145 0.380474
0.105152 0.0198103 0.379927
0.105224 0.0204009 0.379348
0.10527 0.0209802 0.378684
0.105266 0.0215387 0.37786
0.10521 0.0220755 0.376872
0.105127 0.0225995 0.375801
0.105046 0.0231211 0.374738
0.104958 0.0236372 0.373659
0.104907 0.0241647 0.372702
0.104856 0.0246896 0.37175
0.104769 0.0251976 0.370687
0.104585 0.0256631 0.369317
0.104379 0.0261161 0.367884
0.10417 0.0265637 0.366447
0.104016 0.0270303 0.365188
0.103943 0.0275282 0.364192
0.104045 0.0280988 0.363754
0.104314 0.0287398 0.363841
0.104744 0.0294524 0.364438
0.105329 0.0302353 0.365518
0.106032 0.0310736 0.366963
0.106858 0.0319708 0.368785
0.10768 0.0328718 0.370591
0.108509 0.0337806 0.37241
0.109303 0.0346784 0.374116
0.110099 0.0355812 0.375819
0.110816 0.0364516 0.37727
0.111486 0.0373032 0.37857
0.11209 0.0381268 0.379663
0.112678 0.0389458 0.380702
0.113182 0.0397261 0.381477
0.113674 0.0405034 0.382215
0.114152 0.0412754 0.382906
0.114604 0.0420356 0.383512
0.0757943 -0.0962495 0.440156
0.0759877 -0.0954335 0.439702
0.0761463 -0.0945937 0.439083
0.0761817 -0.0936661 0.437865
0.07621 -0.0927383 0.436622
0.0762136 -0.0917981 0.435266
0.0762499 -0.0908863 0.434077
0.076293 -0.0899839 0.432925
0.0763987 -0.0891291 0.432083
0.0765043 -0.0882774 0.431244
0.0766182 -0.0874346 0.430449
0.0767423 -0.0866015 0.429707
0.0768574 -0.0857658 0.428929
0.0770035 -0.0849526 0.4283
0.0771586 -0.0841476 0.427718
0.0773259 -0.0833524 0.427196
0.0774522 -0.0825343 0.426484
0.0776248 -0.0817467 0.425995
0.0777476 -0.0809317 0.425275
0.0778412 -0.0801026 0.424423
0.0779092 -0.0792622 0.423459
0.0779629 -0.0784175 0.422431
0.0779558 -0.0775433 0.421131
0.0779979 -0.0767008 0.420063
0.0780641 -0.0758753 0.419112
0.0781457 -0.0750615 0.418238
0.0782468 -0.074261 0.417456
0.0783835 -0.0734816 0.416841
0.078482 -0.0726855 0.416056
0.0785698 -0.0718871 0.415228
0.078646 -0.0710861 0.41435
0.078719 -0.0702872 0.413466
0.0787727 -0.0694824 0.412496
0.0788173 -0.0686772 0.411493
0.0788711 -0.0678798 0.410537
0.0789532 -0.0670985 0.409711
0.0790378 -0.0663212 0.4089
0.0791333 -0.0655516 0.408144
0.079218 -0.0647803 0.407342
0.0793185 -0.0640183 0.406613
0.0793995 -0.0632512 0.405804
0.0795031 -0.0624959 0.405098
0.0796386 -0.0617553 0.404537
0.0798365 -0.06104 0.404247
0.0800284 -0.0603235 0.403934
0.0802294 -0.0596113 0.403661
0.0804158 -0.0588951 0.403327
0.0805685 -0.0581685 0.402851
0.0806715 -0.0574271 0.402164
0.0808303 -0.0567063 0.401718
0.0809838 -0.0559854 0.401252
0.081162 -0.0552737 0.400893
0.081338 -0.0545626 0.400528
0.0815589 -0.0538661 0.400353
0.0817215 -0.0531534 0.399935
0.0819255 -0.0524537 0.399692
0.0821323 -0.0517556 0.399463
0.0823507 -0.0510614 0.399284
0.0825585 -0.0503651 0.399059
0.0827625 -0.0496685 0.398822
0.0829235 -0.0489623 0.398406
0.083102 -0.0482617 0.398065
0.083261 -0.0475578 0.397645
0.0834324 -0.046858 0.397278
0.0836239 -0.0461638 0.396996
0.0838479 -0.0454772 0.396849
0.0840363 -0.044784 0.396556
0.0842508 -0.0440968 0.396371
0.0844628 -0.0434098 0.396177
0.0846741 -0.0427232 0.395982
0.0848983 -0.0420395 0.39584
0.0851344 -0.0413581 0.395747
0.0853395 -0.0406723 0.395527
0.0855393 -0.0399863 0.395289
0.0857359 -0.0393006 0.395039
0.0859054 -0.0386121 0.394681
0.0860747 -0.0379247 0.394325
0.0862713 -0.0372418 0.394079
0.0864588 -0.0365588 0.393796
0.0866269 -0.0358744 0.393439
0.0868343 -0.0351953 0.393241
0.0870241 -0.0345151 0.392971
0.087214 -0.0338358 0.392705
0.087413 -0.0331581 0.392476
0.0876222 -0.0324819 0.392287
0.087802 -0.0318042 0.391985
0.0879896 -0.031128 0.391714
0.0881854 -0.030453 0.391477
0.0883516 -0.0297776 0.391124
0.088527 -0.0291034 0.390811
0.0887333 -0.0284315 0.390617
0.0889527 -0.0277605 0.390476
0.0891651 -0.0270898 0.390307
0.0894073 -0.0264203 0.390253
0.0896058 -0.0257502 0.390033
0.0897803 -0.0250808 0.389723
0.089972 -0.0244123 0.389479
0.0901773 -0.0237444 0.389287
0.0903875 -0.0230771 0.389115
0.0906309 -0.0224097 0.38907
0.0908827 -0.0217422 0.389056
0.0911241 -0.021075 0.389003
0.0913979 -0.0204067 0.389072
0.0916762 -0.019738 0.389158
0.0919573 -0.0190688 0.389253
0.0922453 -0.018399 0.389374
0.0925517 -0.0177276 0.389563
0.0928179 -0.0170582 0.389601
0.0930738 -0.0163894 0.389602
0.0933264 -0.0157209 0.38959
0.0935541 -0.0150544 0.389486
0.0937714 -0.0143892 0.389344
0.0939777 -0.0137255 0.389162
0.0941634 -0.0130644 0.388906
0.094353 -0.0124036 0.388666
0.0945195 -0.0117461 0.388342
0.0946977 -0.0110882 0.388062
0.0948909 -0.0104293 0.387837
0.0950967 -0.0097694 0.38766
0.0953007 -0.00911041 0.387477
0.0955363 -0.00844744 0.387408
0.0957526 -0.00778736 0.38727
0.0959608 -0.00712866 0.387103
0.0961779 -0.0064693 0.386969
0.0963825 -0.00581245 0.386791
0.0965756 -0.00515792 0.386573
0.0967691 -0.00450403 0.386357
0.0969732 -0.00384899 0.38618
0.0971657 -0.00319626 0.385962
0.097366 -0.002543 0.385773
0.0975678 -0.00188968 0.385589
0.0977711 -0.00123685 0.385412
0.097987 -0.000581551 0.38528
0.0982363 8.01256e-05 0.385265
0.0984651 0.000737318 0.385179
0.098693 0.00139434 0.38509
0.0989067 0.00204787 0.384951
0.0991188 0.00270043 0.384808
0.0993083 0.00334722 0.384587
0.0995095 0.00399627 0.384408
0.0996986 0.0046422 0.384187
0.0999087 0.00529243 0.38404
0.100108 0.00593958 0.383857
0.100311 0.00658715 0.383685
0.100523 0.00723679 0.383546
0.100793 0.00790149 0.383605
0.101057 0.0085654 0.383644
0.101338 0.00923358 0.383739
0.101627 0.00990446 0.383863
0.101923 0.0105781 0.38401
0.102185 0.0112418 0.38404
0.102447 0.0119059 0.384071
0.102709 0.01257 0.3841
0.102936 0.0132234 0.384013
0.103149 0.0138718 0.383878
0.103324 0.0145078 0.383618
0.103474 0.0151354 0.383275
0.103609 0.0157567 0.382885
0.103732 0.016373 0.382456
0.103853 0.0169872 0.382019
0.103962 0.0175964 0.381548
0.104048 0.0181965 0.381003
0.10412 0.0187899 0.380411
0.104204 0.0193855 0.379862
0.104264 0.0199716 0.379237
0.104327 0.0205568 0.378626
0.104375 0.021135 0.377966
0.104374 0.0216924 0.377151
0.104332 0.0222326 0.376203
0.104264 0.0227593 0.375175
0.104197 0.0232844 0.374158
0.104125 0.0238042 0.373123
0.104085 0.0243347 0.372201
0.104024 0.0248534 0.371211
0.103926 0.0253549 0.370107
0.103745 0.0258188 0.368741
0.103555 0.0262755 0.367354
0.103373 0.0267315 0.365994
0.103269 0.0272175 0.364892
0.103247 0.027735 0.364052
0.103398 0.0283258 0.363767
0.103725 0.0289933 0.364041
0.104194 0.0297239 0.364763
0.104795 0.0305151 0.365897
0.105505 0.0313591 0.367373
0.106334 0.0322611 0.369216
0.107131 0.0331527 0.37095
0.107935 0.0340531 0.372702
0.10869 0.0349353 0.374293
0.109442 0.0358196 0.375867
0.110101 0.0366647 0.377146
0.110717 0.0374919 0.378285
0.111294 0.0383032 0.3793
0.111894 0.0391292 0.380383
0.112412 0.039917 0.381206
0.112919 0.0407018 0.381993
0.113432 0.0414923 0.382798
0.113883 0.042253 0.383407
0.0751 -0.0960041 0.440503
0.075282 -0.0951789 0.43999
0.0754274 -0.0943283 0.439301
0.0754525 -0.0933924 0.438024
0.0754708 -0.0924565 0.43672
0.075475 -0.091516 0.435356
0.0755135 -0.0906052 0.434167
0.0755585 -0.0897037 0.433016
0.0756565 -0.088843 0.432129
0.0757522 -0.0879845 0.431237
0.0758662 -0.0871416 0.430435
0.0759915 -0.0863094 0.429697
0.0761196 -0.0854818 0.428972
0.0762788 -0.0846768 0.428401
0.0764462 -0.0838794 0.427874
0.0766243 -0.0830904 0.427399
0.0767727 -0.0822853 0.426786
0.0769479 -0.0814987 0.426304
0.0770832 -0.0806904 0.425637
0.0771873 -0.0798666 0.424827
0.0772571 -0.0790263 0.423861
0.0773023 -0.078176 0.422787
0.0772966 -0.0773017 0.421483
0.077339 -0.0764587 0.420408
0.0774157 -0.075638 0.419498
0.0775086 -0.0748294 0.418668
0.0776126 -0.0740297 0.417894
0.0777508 -0.0732501 0.417278
0.0778389 -0.072448 0.416439
0.0779078 -0.0716397 0.415518
0.0779646 -0.070829 0.414547
0.0780385 -0.07003 0.413658
0.0780946 -0.0692261 0.412693
0.0781532 -0.068427 0.411745
0.0782089 -0.0676301 0.41079
0.0783013 -0.0668529 0.410002
0.0783758 -0.0660709 0.409141
0.078463 -0.0652974 0.408341
0.0785488 -0.0645263 0.407537
0.0786504 -0.0637645 0.40681
0.0787329 -0.0629978 0.406001
0.0788379 -0.0622429 0.405295
0.0789732 -0.0615021 0.404728
0.079161 -0.0607828 0.404392
0.0793514 -0.0600656 0.404069
0.0795417 -0.0593496 0.403749
0.0797264 -0.0586328 0.403406
0.0798803 -0.0579067 0.402932
0.0799843 -0.0571657 0.402242
0.0801357 -0.0564426 0.401762
0.08029 -0.055722 0.401295
0.0804687 -0.0550107 0.400938
0.0806467 -0.0543004 0.400579
0.0808697 -0.0536045 0.400413
0.0810439 -0.0528953 0.40004
0.0812484 -0.0521958 0.399798
0.0814548 -0.0514976 0.399565
0.0816624 -0.0508005 0.399338
0.0818585 -0.0501013 0.399065
0.0820611 -0.0494045 0.39882
0.0822158 -0.0486971 0.398374
0.0823863 -0.0479949 0.397997
0.0825475 -0.047292 0.397584
0.0827294 -0.0465948 0.397259
0.0829136 -0.0458994 0.396945
0.0831478 -0.0452151 0.39684
0.0833446 -0.0445239 0.39658
0.0835683 -0.0438386 0.396433
0.0837792 -0.0431514 0.396233
0.0840003 -0.0424667 0.396077
0.0842245 -0.041783 0.395933
0.0844706 -0.0411033 0.39588
0.0846765 -0.0404176 0.395663
0.084877 -0.0397317 0.395426
0.0850642 -0.0390447 0.395136
0.0852223 -0.0383548 0.39473
0.0853618 -0.0376639 0.394251
0.0855374 -0.0369789 0.393919
0.085703 -0.0362938 0.393549
0.0858597 -0.035609 0.393145
0.0860581 -0.0349297 0.39291
0.0862578 -0.0342513 0.39268
0.0864481 -0.0335728 0.392414
0.0866468 -0.0328958 0.392183
0.0868545 -0.0322202 0.391988
0.0870445 -0.031544 0.391725
0.0872243 -0.0308681 0.391423
0.0874211 -0.030194 0.391188
0.0875963 -0.0295196 0.390871
0.0877831 -0.0288468 0.3906
0.0879917 -0.0281755 0.390415
0.0882234 -0.0275055 0.39032
0.0884564 -0.0268357 0.390231
0.0886994 -0.0261664 0.390181
0.088899 -0.0254968 0.389964
0.0890844 -0.0248278 0.389694
0.0892865 -0.0241597 0.389488
0.089493 -0.023492 0.389301
0.0897142 -0.0228248 0.38917
0.0899776 -0.022157 0.389201
0.0902302 -0.0214894 0.38919
0.090472 -0.0208221 0.389138
0.0907242 -0.0201546 0.389126
0.090978 -0.019487 0.38912
0.0912224 -0.0188199 0.389078
0.0914751 -0.0181524 0.389068
0.0917481 -0.0174836 0.389134
0.0920135 -0.0168151 0.389171
0.0922712 -0.016147 0.389179
0.0925251 -0.0154792 0.389173
0.0927623 -0.0148128 0.389105
0.0929879 -0.0141476 0.388994
0.0931937 -0.0134847 0.388811
0.0933789 -0.0128245 0.388552
0.0935806 -0.0121633 0.388356
0.0937507 -0.0115063 0.388044
0.093932 -0.0108489 0.387775
0.0941266 -0.0101905 0.387555
0.0943338 -0.00953099 0.387382
0.0945289 -0.00887415 0.387167
0.094763 -0.00821171 0.387093
0.0949778 -0.00755262 0.386949
0.0951855 -0.00689528 0.386781
0.095403 -0.00623656 0.386649
0.0956186 -0.00557871 0.386511
0.0958226 -0.00492268 0.38633
0.096027 -0.00426774 0.386153
0.0962403 -0.00361163 0.386009
0.0964548 -0.00295544 0.385869
0.0966693 -0.0022997 0.385729
0.0968739 -0.00164631 0.385555
0.0970778 -0.000993671 0.38538
0.097281 -0.000341334 0.385202
0.0975059 0.000315111 0.385101
0.0977092 0.000965969 0.384926
0.0979249 0.00161987 0.384794
0.0981251 0.0022692 0.384609
0.0983365 0.002921 0.384463
0.0985264 0.00356714 0.384243
0.0987181 0.00421321 0.384031
0.0989172 0.00486045 0.383845
0.0991398 0.00551319 0.38374
0.099354 0.00616362 0.383607
0.0995706 0.00681426 0.383484
0.099796 0.00746662 0.383391
0.100066 0.00813132 0.38345
0.10033 0.00879436 0.383489
0.10061 0.00946226 0.383583
0.100898 0.0101329 0.383706
0.101182 0.0108029 0.383813
0.10142 0.0114592 0.383763
0.101658 0.0121152 0.383712
0.101896 0.0127711 0.383661
0.102111 0.0134199 0.383533
0.102322 0.0140671 0.383395
0.102495 0.0147013 0.383129
0.102655 0.0153308 0.382817
0.10279 0.015951 0.382426
0.102915 0.0165667 0.382003
0.103051 0.017185 0.381614
0.103163 0.0177939 0.38115
0.103239 0.0183888 0.380568
0.103309 0.0189801 0.37997
0.103377 0.019569 0.379368
0.103416 0.0201455 0.378671
0.103467 0.0207246 0.378017
0.103506 0.0212971 0.377326
0.103505 0.0218529 0.376508
0.103478 0.0223964 0.375605
0.103426 0.0229277 0.374626
0.103363 0.0234521 0.373616
0.10329 0.0239694 0.372575
0.103238 0.0244928 0.371609
0.103143 0.0249954 0.370505
0.103036 0.0254904 0.369367
0.102868 0.0259573 0.368039
0.102707 0.0264232 0.366737
0.102579 0.0268995 0.365547
0.10254 0.0274111 0.364647
0.102569 0.0279494 0.363967
0.10278 0.0285659 0.363873
0.103166 0.0292595 0.364336
0.103674 0.0300086 0.365185
0.104287 0.0308081 0.366366
0.105003 0.031657 0.367865
0.105803 0.0325483 0.369624
0.106555 0.0334227 0.371228
0.107309 0.0343017 0.372829
0.108035 0.035172 0.374336
0.108745 0.0360392 0.37579
0.109363 0.0368655 0.376946
0.109947 0.0376791 0.377992
0.110508 0.0384838 0.378965
0.111106 0.0393094 0.380046
0.111638 0.040105 0.38092
0.112172 0.040904 0.381797
0.112701 0.0417028 0.382653
0.113178 0.0424776 0.383347
0.114255 0.042975 0.383771
0.113581 0.0432157 0.383807
0.074467 -0.0958061 0.441164
0.0746227 -0.0949594 0.440512
0.0747352 -0.0940832 0.439654
0.0747389 -0.0931303 0.438256
0.0747387 -0.09218 0.436853
0.0747466 -0.0912413 0.435495
0.0747884 -0.0903321 0.434313
0.0748456 -0.0894385 0.433213
0.0749353 -0.0885714 0.432277
0.0750313 -0.0877126 0.431379
0.0751357 -0.0868628 0.430527
0.0752611 -0.0860303 0.42978
0.0753926 -0.0852048 0.429068
0.075564 -0.0844074 0.428551
0.0757441 -0.0836176 0.428081
0.0759241 -0.0828295 0.427611
0.0760844 -0.0820312 0.427051
0.076253 -0.0812401 0.426531
0.0764009 -0.0804387 0.425918
0.0765068 -0.0796154 0.425112
0.0765973 -0.0787863 0.424235
0.076654 -0.0779416 0.423207
0.0766703 -0.0770785 0.421992
0.0767235 -0.0762403 0.42096
0.0768103 -0.0754239 0.420088
0.0768957 -0.0746102 0.419215
0.0769911 -0.073805 0.418394
0.0771103 -0.0730149 0.417686
0.0771788 -0.0722023 0.41675
0.077228 -0.0713836 0.415729
0.0772745 -0.0705676 0.414703
0.0773488 -0.0697686 0.413809
0.0774248 -0.0689737 0.412929
0.0774957 -0.0681798 0.412028
0.0775536 -0.0673835 0.411075
0.0776548 -0.0666097 0.410323
0.0777292 -0.0658271 0.409453
0.0778099 -0.0650504 0.408615
0.0778987 -0.0642802 0.407821
0.078013 -0.0635232 0.407143
0.0780978 -0.062757 0.406338
0.0782023 -0.0620014 0.405626
0.0783383 -0.0612604 0.405056
0.078515 -0.0605366 0.404669
0.0786953 -0.0598155 0.404299
0.0788751 -0.0590955 0.40393
0.0790504 -0.0583752 0.403542
0.0791959 -0.0576462 0.403027
0.0793008 -0.0569056 0.402338
0.0794522 -0.0561825 0.401854
0.0796061 -0.0554619 0.401383
0.0797844 -0.0547504 0.401021
0.0799744 -0.0540438 0.40071
0.0802101 -0.0533516 0.400598
0.0803889 -0.0526436 0.400242
0.0805938 -0.051944 0.4
0.0807978 -0.0512451 0.399755
0.0809836 -0.0505421 0.399434
0.0811687 -0.0498401 0.399112
0.0813707 -0.0491434 0.398862
0.0815254 -0.0484362 0.398415
0.0816985 -0.0477348 0.398047
0.0818614 -0.0470323 0.397638
0.0820349 -0.0463336 0.397275
0.0822181 -0.0456381 0.396955
0.0824518 -0.0449539 0.396847
0.0826482 -0.0442628 0.396584
0.0828814 -0.0435795 0.396475
0.0831017 -0.0428943 0.396314
0.083315 -0.0422083 0.396124
0.0835398 -0.0415248 0.395982
0.0837768 -0.0408437 0.395891
0.0839826 -0.0401581 0.395673
0.0841839 -0.0394726 0.395438
0.0843711 -0.0387859 0.395146
0.0845198 -0.038095 0.394699
0.0846581 -0.0374044 0.394213
0.0848233 -0.0367185 0.393837
0.0849701 -0.0360318 0.393389
0.0851379 -0.0353487 0.393028
0.0853367 -0.0346699 0.392793
0.0855384 -0.0339921 0.392571
0.0857296 -0.0333142 0.392307
0.0859374 -0.0326383 0.392111
0.0861339 -0.0319623 0.391871
0.086324 -0.0312866 0.391607
0.0865039 -0.0306112 0.391304
0.086701 -0.0299376 0.39107
0.0868863 -0.0292642 0.39079
0.087084 -0.0285922 0.390561
0.0872945 -0.0279213 0.390383
0.0875372 -0.0272518 0.390331
0.0877805 -0.0265824 0.390282
0.0880134 -0.0259131 0.390192
0.0882129 -0.0252437 0.389974
0.0884079 -0.024575 0.389739
0.0886215 -0.023907 0.389576
0.0888413 -0.0232394 0.389439
0.0890858 -0.0225717 0.389397
0.089361 -0.0219034 0.389473
0.0896138 -0.0212355 0.389462
0.0898438 -0.0205684 0.389365
0.0900721 -0.0199017 0.389261
0.0902908 -0.0192357 0.389122
0.0904992 -0.0185707 0.388944
0.0907268 -0.017905 0.38884
0.0909753 -0.0172383 0.388815
0.0912197 -0.0165719 0.388774
0.0914763 -0.0159047 0.388779
0.0917197 -0.0152385 0.388735
0.091948 -0.0145738 0.388634
0.0921624 -0.0139107 0.388483
0.0923684 -0.0132489 0.3883
0.0925549 -0.0125897 0.388047
0.0927713 -0.0119279 0.387905
0.0929648 -0.0112691 0.387679
0.0931697 -0.0106097 0.387496
0.0933867 -0.00994916 0.387358
0.093606 -0.00928871 0.387229
0.0938124 -0.00863049 0.387054
0.0940476 -0.0079684 0.386984
0.094263 -0.00731004 0.386843
0.0944703 -0.00665259 0.386672
0.0946864 -0.00599491 0.386535
0.0949 -0.00533744 0.386389
0.0951015 -0.00468262 0.3862
0.0953054 -0.00402802 0.38602
0.0955209 -0.00337213 0.385883
0.095748 -0.00271392 0.385787
0.0959652 -0.00205808 0.385657
0.0961704 -0.00140488 0.385485
0.0963731 -0.000752895 0.385304
0.0965728 -0.000101923 0.385114
0.0967856 0.000551365 0.38497
0.0969786 0.00119996 0.384757
0.097181 0.0018501 0.384578
0.0973691 0.0024963 0.38435
0.0975683 0.00314444 0.384162
0.0977485 0.0037872 0.383908
0.0979512 0.00443526 0.383733
0.0981648 0.00508537 0.383598
0.0984 0.00574106 0.383538
0.0986276 0.00639422 0.383451
0.0988668 0.00705015 0.383406
0.0990945 0.00770326 0.383321
0.0993524 0.00836425 0.38334
0.0996029 0.00902357 0.383333
0.0998666 0.00968618 0.383373
0.100131 0.0103496 0.383414
0.100403 0.0110151 0.38348
0.100629 0.0116673 0.383389
0.100853 0.0123181 0.383293
0.101077 0.0129693 0.383197
0.101279 0.0136131 0.383027
0.101479 0.0142557 0.38285
0.101663 0.0148923 0.38262
0.101824 0.0155205 0.382311
0.101962 0.0161405 0.381928
0.102087 0.0167553 0.381506
0.102225 0.0173729 0.381124
0.10233 0.017978 0.380635
0.102407 0.0185719 0.380056
0.102479 0.0191623 0.37946
0.102545 0.0197488 0.378849
0.102584 0.0203234 0.378148
0.102623 0.0208967 0.377453
0.102661 0.021467 0.376755
0.102661 0.0220211 0.375936
0.102637 0.0225638 0.375041
0.102588 0.0230944 0.374071
0.102539 0.023622 0.373099
0.102466 0.0241375 0.372057
0.102394 0.0246501 0.371018
0.102287 0.0251458 0.369872
0.102178 0.025638 0.368725
0.102025 0.0261082 0.367438
0.101893 0.0265837 0.366225
0.101829 0.0270856 0.365238
0.101854 0.0276227 0.364537
0.101945 0.0281869 0.364055
0.102226 0.0288344 0.364185
0.102683 0.0295605 0.364878
0.103228 0.0303286 0.36585
0.103854 0.0311358 0.367075
0.104555 0.0319803 0.368533
0.105301 0.0328504 0.370131
0.105979 0.0336929 0.371507
0.106667 0.0345429 0.372906
0.107351 0.0353957 0.374291
0.108021 0.0362456 0.375625
0.108602 0.0370553 0.376673
0.109158 0.0378557 0.377637
0.109701 0.0386525 0.378558
0.110282 0.0394701 0.379593
0.110826 0.0402729 0.380511
0.111385 0.041085 0.38147
0.111953 0.0419045 0.382455
0.11247 0.0427001 0.383276
0.112927 0.0434671 0.383908
0.0736634 -0.0964484 0.442417
0.0738126 -0.0955926 0.441724
0.0739619 -0.0947397 0.441035
0.0740345 -0.093832 0.439964
0.0740192 -0.0928636 0.438465
0.0740203 -0.0919133 0.437053
0.0740417 -0.0909834 0.435751
0.0740774 -0.090069 0.434528
0.0741471 -0.0891833 0.433481
0.074247 -0.0883226 0.432589
0.0743344 -0.0874571 0.431641
0.0744391 -0.0866067 0.430781
0.0745645 -0.0857737 0.43003
0.0746968 -0.0849481 0.429316
0.074861 -0.0841455 0.428759
0.0750521 -0.0833622 0.428337
0.0752323 -0.0825737 0.427863
0.0754039 -0.0817819 0.427352
0.0755743 -0.0809913 0.426839
0.0757338 -0.0801962 0.426275
0.0758499 -0.079378 0.42551
0.0759525 -0.0785551 0.424684
0.0760227 -0.077717 0.423709
0.076053 -0.0768606 0.422552
0.0761191 -0.0760281 0.42157
0.0762179 -0.075217 0.420746
0.0763141 -0.0744077 0.419916
0.076411 -0.0736018 0.419093
0.0765199 -0.0728053 0.41833
0.0765765 -0.0719855 0.41733
0.076594 -0.0711502 0.416156
0.0766113 -0.0703193 0.414985
0.0766755 -0.069515 0.414038
0.0767538 -0.0687208 0.41316
0.0768271 -0.0679276 0.412264
0.0769064 -0.0671405 0.411399
0.0770092 -0.0663669 0.410648
0.0770848 -0.0655844 0.409778
0.0771662 -0.0648075 0.408938
0.0772574 -0.0640378 0.408147
0.0773651 -0.0632777 0.407434
0.077461 -0.0625155 0.406673
0.0775669 -0.06176 0.40596
0.0776946 -0.0610154 0.405348
0.0778614 -0.0602875 0.404914
0.078032 -0.0595626 0.404498
0.0782018 -0.0588389 0.404082
0.0783696 -0.0581159 0.403658
0.0785147 -0.0573868 0.403138
0.0786212 -0.0566467 0.40245
0.0787711 -0.0559231 0.401956
0.0789251 -0.0552026 0.401483
0.079103 -0.0544911 0.401116
0.0793035 -0.0537876 0.400849
0.0795504 -0.0530987 0.400784
0.0797313 -0.0523911 0.400435
0.0799367 -0.0516916 0.400193
0.0801394 -0.0509921 0.39994
0.0803054 -0.0502839 0.399532
0.0804795 -0.0495792 0.39916
0.0806719 -0.0488802 0.398869
0.0808266 -0.0481732 0.398418
0.0809906 -0.04747 0.398009
0.0811618 -0.0467697 0.397633
0.0813342 -0.046071 0.397264
0.0815168 -0.0453757 0.396939
0.0817412 -0.0446899 0.396792
0.0819369 -0.0439989 0.396525
0.0821709 -0.0433161 0.396419
0.0823948 -0.0426317 0.396271
0.0826104 -0.0419464 0.39609
0.0828454 -0.0412649 0.39599
0.0830813 -0.0405839 0.395894
0.0832868 -0.0398985 0.395674
0.0834889 -0.0392133 0.39544
0.0836768 -0.038527 0.39515
0.0838259 -0.0378365 0.394702
0.0839631 -0.037146 0.394208
0.0841191 -0.0364594 0.393793
0.0842655 -0.0357731 0.393341
0.0844446 -0.0350916 0.393024
0.084637 -0.0344125 0.392761
0.0848404 -0.0337351 0.392544
0.0850311 -0.0330574 0.392278
0.0852288 -0.0323811 0.39204
0.0854257 -0.0317055 0.391801
0.0856161 -0.0310302 0.391537
0.0857963 -0.0303552 0.391233
0.0859931 -0.029682 0.390996
0.086188 -0.0290095 0.390754
0.0863871 -0.0283378 0.390529
0.0866094 -0.0276676 0.390396
