ply
format ascii 1.0
element vertex 1631
property float x
property float y
property float z
end_header
0.0136636 -0.237914 0.779557
0.0144688 -0.236907 0.780148
0.015295 -0.235951 0.780949
0.0161231 -0.234992 0.781758
0.0169796 -0.234101 0.782865
0.0178575 -0.233253 0.784167
0.0187414 -0.232411 0.785506
0.019601 -0.231499 0.786561
0.0204647 -0.230591 0.787653
0.0212718 -0.22954 0.788132
0.0220678 -0.22846 0.788484
0.0228562 -0.227361 0.788762
0.0236476 -0.226265 0.789061
0.0244501 -0.225191 0.789465
0.0252632 -0.224138 0.789959
0.026107 -0.223147 0.790745
0.0269966 -0.222249 0.791963
0.0279169 -0.221404 0.793444
0.0288744 -0.220628 0.79526
0.0298872 -0.21995 0.797555
0.0309317 -0.219319 0.800095
0.0335631 -0.220215 0.806149
0.0319629 -0.218648 0.802479
0.0819917 -0.0795357 0.637005
0.0824713 -0.0785396 0.636308
0.0828138 -0.0775096 0.634972
0.0831491 -0.0764825 0.633609
0.0834296 -0.0754459 0.632007
0.0837406 -0.074422 0.630558
0.0840063 -0.0733922 0.628911
0.0844151 -0.0723999 0.627939
0.0848088 -0.0714073 0.626906
0.0852123 -0.07042 0.625926
0.0856097 -0.0694344 0.624929
0.0860367 -0.0684579 0.624071
0.086456 -0.0674825 0.623188
0.086933 -0.0665203 0.62257
0.0874486 -0.0655663 0.622132
0.087954 -0.0646122 0.621651
0.0885142 -0.0636682 0.621418
0.0890516 -0.0627214 0.621085
0.089558 -0.0617708 0.62062
0.0899864 -0.0608111 0.619814
0.0904152 -0.059854 0.619015
0.090787 -0.0588921 0.617976
0.0911784 -0.0579359 0.617028
0.0915845 -0.0569839 0.616153
0.0920599 -0.0560416 0.615583
0.0925496 -0.0551024 0.615079
0.0930614 -0.0541668 0.614671
0.0935892 -0.0532335 0.614337
0.0941588 -0.0523046 0.614181
0.0946973 -0.0513736 0.613895
0.0952487 -0.0504445 0.613665
0.0958136 -0.0495168 0.613494
0.0964121 -0.0485908 0.613465
0.0970161 -0.0476656 0.613458
0.0975926 -0.046739 0.613337
0.0981457 -0.045812 0.61312
0.0986633 -0.0448847 0.612758
0.0991813 -0.0439584 0.612399
0.0996285 -0.0430314 0.611759
0.100098 -0.0421069 0.611211
0.100559 -0.0411836 0.610634
0.10105 -0.0402621 0.610178
0.101551 -0.0393416 0.609769
0.10215 -0.038421 0.609752
0.102767 -0.0374999 0.60981
0.103399 -0.0365788 0.609929
0.104074 -0.0356555 0.610211
0.104757 -0.0347309 0.610524
0.105459 -0.0338049 0.610911
0.106241 -0.0328741 0.611606
0.107024 -0.0319415 0.612302
0.00956476 -0.246049 0.784502
0.0079753 -0.247479 0.788636
0.00815049 -0.244537 0.781516
0.00866025 -0.242656 0.778585
0.0094495 -0.24162 0.779035
0.0102087 -0.240495 0.779126
0.0109736 -0.239384 0.779284
0.0117553 -0.238319 0.779629
0.0125235 -0.237214 0.779809
0.0133286 -0.236207 0.780401
0.0141536 -0.235247 0.781202
0.0149727 -0.234269 0.781928
0.0158185 -0.233351 0.782924
0.0166833 -0.232474 0.784106
0.0175456 -0.231581 0.785236
0.0183925 -0.230643 0.786178
0.0192377 -0.229694 0.787091
0.0200433 -0.228644 0.78757
0.0208294 -0.227542 0.78784
0.0216248 -0.226462 0.788192
0.0224143 -0.225366 0.788484
0.0232354 -0.224336 0.789083
0.0240566 -0.223303 0.789674
0.02491 -0.222337 0.790572
0.0257779 -0.221395 0.791596
0.0266708 -0.220499 0.792837
0.0275772 -0.219621 0.794183
0.0285278 -0.218825 0.795932
0.0295814 -0.218224 0.798615
0.0306576 -0.217649 0.801463
0.0803338 -0.0847876 0.64418
0.0789503 -0.0851953 0.645294
0.079251 -0.0841219 0.64366
0.0806457 -0.0837214 0.642625
0.0795794 -0.0830625 0.642176
0.0809811 -0.0826676 0.641197
0.0799332 -0.0820159 0.640827
0.0802676 -0.0809679 0.639398
0.0816493 -0.0805735 0.638362
0.0806173 -0.0799292 0.638053
0.080976 -0.0788971 0.636768
0.0814288 -0.0778947 0.635938
0.0817465 -0.0768597 0.634476
0.0820756 -0.0758325 0.633081
0.0823325 -0.074792 0.631357
0.0826596 -0.073774 0.629975
0.0829291 -0.0727471 0.628339
0.0833387 -0.0717564 0.627368
0.0837187 -0.0707624 0.626267
0.0841353 -0.0697796 0.625345
0.0845353 -0.068796 0.624356
0.0849804 -0.0678244 0.623579
0.0854286 -0.0668559 0.622821
0.0859308 -0.0658988 0.62232
0.0864494 -0.0649463 0.621892
0.0869698 -0.0639955 0.621475
0.0875448 -0.0630539 0.62131
0.0880958 -0.0621096 0.621034
0.0886166 -0.0611616 0.620631
0.0890736 -0.0602064 0.619946
0.0895085 -0.0592506 0.619168
0.0898834 -0.0582897 0.618136
0.0902897 -0.0573354 0.617249
0.0906972 -0.056384 0.616372
0.0911609 -0.0554406 0.615748
0.0916512 -0.0545018 0.615242
0.0921746 -0.0535671 0.614884
0.0927032 -0.0526339 0.61455
0.0932759 -0.0517049 0.614405
0.0938319 -0.0507752 0.614191
0.0943999 -0.0498471 0.614028
0.0949671 -0.0489189 0.613864
0.0955678 -0.0479927 0.613843
0.0961722 -0.0470669 0.613836
0.0967606 -0.0461406 0.613761
0.0973123 -0.0452128 0.613537
0.0978438 -0.0442858 0.613228
0.0983755 -0.043359 0.612925
0.0988253 -0.0424322 0.612288
0.099283 -0.0415074 0.611686
0.099745 -0.0405839 0.611108
0.100222 -0.0396623 0.610593
0.100725 -0.0387415 0.610189
0.10134 -0.0378203 0.610237
0.101976 -0.0368981 0.610366
0.102623 -0.0359753 0.610543
0.103328 -0.0350501 0.610948
0.104026 -0.0341237 0.611318
0.10473 -0.0331962 0.61171
0.105494 -0.0322646 0.612338
0.106273 -0.0313302 0.613016
0.00627986 -0.245073 0.782112
0.00675776 -0.243068 0.778687
0.00754487 -0.242031 0.77913
0.00832492 -0.240968 0.779475
0.00907871 -0.239824 0.779498
0.00984549 -0.23872 0.779679
0.0106276 -0.237654 0.780024
0.0113864 -0.236522 0.780099
0.0121888 -0.235509 0.780669
0.0130033 -0.234524 0.781365
0.0138215 -0.233543 0.782084
0.0146556 -0.232597 0.782967
0.0154997 -0.231669 0.78394
0.0163391 -0.230725 0.784846
0.0171742 -0.229761 0.785684
0.0180092 -0.22879 0.786499
0.0188139 -0.227742 0.786986
0.0195986 -0.22664 0.787248
0.0203844 -0.225541 0.787518
0.0211815 -0.224464 0.787893
0.0220111 -0.223458 0.788596
0.0228429 -0.222453 0.789307
0.0237057 -0.22151 0.790316
0.0245699 -0.220563 0.791318
0.0254296 -0.219599 0.792253
0.0262882 -0.218627 0.793166
0.0271791 -0.217716 0.794377
0.0281831 -0.217024 0.796634
0.0292826 -0.216509 0.799758
0.078181 -0.0873015 0.647771
0.0764596 -0.0876014 0.647247
0.0769678 -0.0865875 0.646609
0.0786138 -0.0862624 0.646765
0.0774226 -0.0855581 0.645711
0.0778124 -0.0845107 0.644499
0.0781225 -0.0834426 0.642903
0.078463 -0.082389 0.641472
0.0788302 -0.0813481 0.640184
0.0791976 -0.0803115 0.638909
0.079566 -0.0792796 0.63765
0.0799356 -0.0782522 0.636406
0.0803539 -0.0772414 0.63541
0.080672 -0.0762083 0.633942
0.0809839 -0.0751785 0.632458
0.081262 -0.0741454 0.630825
0.0815924 -0.0731297 0.629454
0.0818765 -0.072108 0.627878
0.0822707 -0.0711153 0.62683
0.0826385 -0.0701206 0.625666
0.0830569 -0.0691394 0.624751
0.0834755 -0.0681613 0.623843
0.0839377 -0.0671944 0.62314
0.0844019 -0.0662296 0.622457
0.0849325 -0.0652788 0.622079
0.0854524 -0.0643271 0.621657
0.0859726 -0.0633767 0.621239
0.0865477 -0.0624361 0.621071
0.0870948 -0.0614916 0.620781
0.0876038 -0.0605428 0.620322
0.0880891 -0.0595924 0.619759
0.0885396 -0.058639 0.61905
0.0889315 -0.0576813 0.618085
0.0893659 -0.0567308 0.617317
0.0898054 -0.0557833 0.616575
0.09026 -0.0548394 0.615905
0.0907529 -0.053901 0.615407
0.0912751 -0.0529664 0.61504
0.0918026 -0.0520331 0.614699
0.0923754 -0.0511041 0.614554
0.0929481 -0.0501753 0.614411
0.0935331 -0.0492479 0.614318
0.0941181 -0.0483205 0.614228
0.0947182 -0.0473937 0.614204
0.0953218 -0.0464675 0.614192
0.0958948 -0.0455399 0.614052
0.0964319 -0.0446121 0.613762
0.0969609 -0.0436844 0.613443
0.0974791 -0.0427576 0.61308
0.0979437 -0.0418314 0.6125
0.0984185 -0.0409067 0.611964
0.0989136 -0.0399838 0.611515
0.0993971 -0.0390616 0.611025
0.0999323 -0.0381402 0.610747
0.10055 -0.0372179 0.610802
0.101199 -0.0362952 0.610987
0.101861 -0.0353705 0.611223
0.102583 -0.034443 0.611693
0.10328 -0.0335152 0.612061
0.103969 -0.0325874 0.612395
0.104729 -0.0316541 0.613004
0.105476 -0.0307205 0.613562
0.00488286 -0.24357 0.779148
0.0056312 -0.242414 0.779112
0.00641713 -0.241371 0.779539
0.00719789 -0.24031 0.779899
0.00795211 -0.239167 0.779923
0.00872203 -0.238068 0.780133
0.00951131 -0.237025 0.780568
0.0102618 -0.235869 0.780547
0.0110546 -0.234828 0.781004
0.0118592 -0.233816 0.781595
0.0126674 -0.23281 0.78221
0.0134837 -0.231818 0.782906
0.0143072 -0.230842 0.783669
0.0151336 -0.229866 0.78444
0.0159567 -0.228876 0.785167
0.0167793 -0.227881 0.785878
0.0175835 -0.226833 0.786364
0.0183752 -0.225753 0.786716
0.01916 -0.224654 0.786986
0.0199492 -0.223561 0.787293
0.0207883 -0.222582 0.788109
0.02163 -0.221601 0.788939
0.0224925 -0.220661 0.789957
0.023346 -0.219695 0.790869
0.0242 -0.218723 0.791774
0.0250174 -0.217668 0.792298
0.0258519 -0.216644 0.792978
0.0267852 -0.215818 0.7946
0.0278127 -0.21517 0.797097
0.0747203 -0.0942582 0.65798
0.0720455 -0.0941741 0.652555
0.0725277 -0.0931333 0.651729
0.0736917 -0.0926141 0.649349
0.0729752 -0.0920817 0.650733
0.0741964 -0.0915899 0.648671
0.0734315 -0.0910369 0.649793
0.0747574 -0.0905891 0.648286
0.0738838 -0.0899937 0.648841
0.0753052 -0.089585 0.647836
0.0743177 -0.0889472 0.647804
0.075884 -0.0885932 0.647549
0.0747822 -0.0879152 0.646932
0.07527 -0.0868943 0.646184
0.0757089 -0.0858591 0.645199
0.0761761 -0.0848368 0.644362
0.07657 -0.0837937 0.64317
0.0769097 -0.0827377 0.641717
0.0772766 -0.081695 0.640412
0.0776704 -0.0806644 0.639252
0.0780543 -0.0796349 0.638051
0.0784457 -0.0786114 0.636899
0.0788201 -0.0775871 0.635677
0.0791906 -0.0765658 0.634445
0.0795244 -0.0755393 0.633046
0.0798541 -0.0745161 0.631642
0.0801537 -0.0734904 0.630104
0.0805011 -0.0724808 0.628807
0.0807998 -0.0714643 0.627294
0.0811792 -0.0704701 0.626171
0.0815469 -0.0694769 0.625005
0.0819785 -0.0685002 0.624147
0.0824149 -0.0675272 0.623317
0.0828939 -0.0665644 0.622693
0.083388 -0.0656066 0.622142
0.0839487 -0.0646614 0.621903
0.0844709 -0.0637108 0.62149
0.0849914 -0.0627612 0.621071
0.0855611 -0.0618197 0.620881
0.0860823 -0.0608722 0.620472
0.0865773 -0.0599225 0.619948
0.0870639 -0.0589732 0.61939
0.0875145 -0.058021 0.618678
0.0879236 -0.0570664 0.617786
0.0883875 -0.0561204 0.617144
0.088859 -0.0551769 0.61654
0.0893314 -0.0542353 0.615944
0.0898415 -0.0532987 0.615519
0.0903624 -0.0523642 0.615142
0.0908886 -0.0514311 0.614792
0.0914467 -0.0505011 0.614583
0.0920341 -0.0495732 0.614502
0.092634 -0.0486465 0.614474
0.0932342 -0.0477195 0.61445
0.093836 -0.0467929 0.614428
0.094438 -0.0458662 0.614409
0.0950091 -0.0449383 0.614261
0.0955332 -0.0440101 0.613915
0.0960515 -0.0430827 0.613546
0.0965677 -0.0421558 0.613175
0.097047 -0.0412303 0.61265
0.0975388 -0.040306 0.612182
0.0980679 -0.0393826 0.611871
0.0985853 -0.0384601 0.611515
0.0991527 -0.0375378 0.611365
0.0997854 -0.0366142 0.61148
0.100451 -0.0356894 0.611731
0.101116 -0.034764 0.611975
0.101854 -0.0338341 0.61251
0.102552 -0.0329048 0.612884
0.103241 -0.0319759 0.613213
0.103984 -0.0310416 0.613761
0.00372745 -0.242825 0.779214
0.00447388 -0.241663 0.779148
0.00525198 -0.240598 0.779485
0.00603862 -0.239556 0.779928
0.00680052 -0.238436 0.780048
0.00757793 -0.237362 0.780356
0.00836799 -0.236321 0.780813
0.00912644 -0.235184 0.780874
0.0099011 -0.234096 0.781129
0.0106883 -0.233037 0.781519
0.0114867 -0.232005 0.782036
0.0122925 -0.230991 0.782628
0.0131067 -0.229992 0.783294
0.0139219 -0.228991 0.783968
0.0147319 -0.227973 0.784567
0.0155445 -0.226955 0.785173
0.0163476 -0.225908 0.785668
0.0171391 -0.224831 0.786027
0.0179225 -0.223733 0.786297
0.018718 -0.222659 0.786687
0.0195631 -0.221698 0.787584
0.0204165 -0.220748 0.788549
0.021279 -0.219812 0.789589
0.0221403 -0.218865 0.790599
0.0229904 -0.217888 0.791481
0.0237772 -0.216769 0.791706
0.0245603 -0.21564 0.791886
0.0254124 -0.214655 0.792754
0.02633 -0.213795 0.794234
0.0288374 -0.214501 0.799519
0.0272382 -0.212906 0.795594
0.0716686 -0.0952621 0.653941
0.0703786 -0.0957463 0.655755
0.0707989 -0.0946713 0.654574
0.0712325 -0.0936058 0.653475
0.0716496 -0.0925374 0.6523
0.0720373 -0.091462 0.650981
0.0724597 -0.0904042 0.649856
0.0728751 -0.0893478 0.648705
0.0732626 -0.0882853 0.64742
0.0736762 -0.0872364 0.646283
0.074124 -0.0862029 0.645331
0.0745345 -0.0851603 0.644198
0.0749631 -0.0841277 0.643164
0.0753569 -0.0830872 0.641968
0.0756998 -0.0820351 0.640526
0.0760967 -0.081004 0.639366
0.076508 -0.0799809 0.638292
0.0769077 -0.0789581 0.637167
0.077288 -0.0779337 0.635957
0.0776616 -0.0769116 0.634725
0.078006 -0.0758857 0.633362
0.0783539 -0.0748653 0.632027
0.0787014 -0.0738489 0.630705
0.0790338 -0.0728335 0.62932
0.0793985 -0.0718299 0.628101
0.0797251 -0.0708218 0.62671
0.0800908 -0.0698262 0.62552
0.0804724 -0.0688378 0.624414
0.08092 -0.067866 0.623627
0.0813702 -0.0668967 0.622861
0.0818777 -0.0659403 0.622368
0.0824024 -0.0649887 0.621956
0.0829803 -0.064047 0.621795
0.083505 -0.0630972 0.621392
0.0840251 -0.0621479 0.620969
0.0845793 -0.0612048 0.620706
0.0850851 -0.0602557 0.620227
0.0855646 -0.0593045 0.619631
0.0860524 -0.0583563 0.619078
0.0865047 -0.0574056 0.618368
0.0869301 -0.056454 0.617545
0.0874107 -0.0555105 0.616974
0.0879134 -0.0545708 0.616505
0.0884163 -0.0536324 0.616042
0.0889426 -0.0526975 0.615683
0.0894764 -0.0517638 0.615363
0.0900154 -0.0508314 0.615068
0.0905605 -0.0499006 0.614798
0.091148 -0.0489725 0.614717
0.091748 -0.0480457 0.614687
0.0923343 -0.0471178 0.614601
0.0929215 -0.0461903 0.614519
0.0935225 -0.0452634 0.614496
0.0940951 -0.0443361 0.614351
0.0946343 -0.0434081 0.614067
0.0951536 -0.0424808 0.613701
0.0956716 -0.0415541 0.613334
0.096165 -0.0406287 0.612866
0.096673 -0.0397046 0.61246
0.0972229 -0.0387807 0.612234
0.0977723 -0.0378577 0.612007
0.0983722 -0.0369342 0.611985
0.0990179 -0.0360094 0.612154
0.0996853 -0.0350832 0.612411
0.100367 -0.0341561 0.612723
0.101123 -0.0332237 0.61333
0.101841 -0.0322922 0.61378
0.102558 -0.0313598 0.614227
0.103332 -0.0304219 0.614898
0.00214212 -0.244301 0.783581
0.00255306 -0.24202 0.779025
0.0033005 -0.240861 0.778982
0.00407098 -0.239774 0.779229
0.00484954 -0.238709 0.779575
0.00561081 -0.237589 0.779695
0.0063865 -0.236514 0.779996
0.00716854 -0.235452 0.780363
0.00793448 -0.23434 0.780521
0.00870828 -0.23325 0.780776
0.00949311 -0.232188 0.781159
0.0102964 -0.231174 0.781743
0.0111024 -0.230161 0.78235
0.0119077 -0.229142 0.782926
0.012713 -0.228121 0.783503
0.0135125 -0.227076 0.78399
0.0143132 -0.226035 0.784492
0.0151151 -0.22499 0.784986
0.0159083 -0.223918 0.785375
0.0166908 -0.222821 0.785645
0.0174915 -0.221763 0.786102
0.0183332 -0.220798 0.786985
0.0191831 -0.219845 0.787935
0.0200379 -0.218896 0.788923
0.020897 -0.217951 0.789932
0.0217173 -0.216911 0.790524
0.0224609 -0.215704 0.790322
0.0231905 -0.214468 0.789994
0.0239546 -0.213307 0.79001
0.0247654 -0.212239 0.790481
0.0255544 -0.211125 0.790728
0.0663421 -0.102849 0.658309
0.065586 -0.103777 0.657687
0.0648306 -0.101947 0.655429
0.0685155 -0.0959859 0.654522
0.0689923 -0.0949355 0.653634
0.0694044 -0.0938613 0.652411
0.0698559 -0.0928074 0.65141
0.070294 -0.0917518 0.650346
0.0707164 -0.0906936 0.649211
0.0711959 -0.0896612 0.648386
0.0716558 -0.0886243 0.647466
0.0720758 -0.0875761 0.646347
0.0724971 -0.0865323 0.645246
0.0729458 -0.0855015 0.644298
0.0733539 -0.0844605 0.643148
0.0737686 -0.0834254 0.642046
0.0741649 -0.0823884 0.640856
0.074536 -0.0813475 0.639552
0.0749597 -0.0803268 0.638524
0.0753886 -0.0793108 0.637533
0.0757905 -0.0782905 0.636416
0.0761588 -0.0772649 0.635141
0.0765171 -0.0762406 0.633829
0.076851 -0.0752144 0.632409
0.0772132 -0.0741999 0.63114
0.0775926 -0.0731936 0.629966
0.0779547 -0.0721871 0.628718
0.0783486 -0.0711918 0.627635
0.078703 -0.0701912 0.626374
0.0790738 -0.0691981 0.6252
0.079458 -0.0682114 0.624101
0.0799076 -0.067241 0.623318
0.0803595 -0.0662734 0.622555
0.0808811 -0.0653203 0.622127
0.0814203 -0.0643717 0.621784
0.0820137 -0.0634328 0.621696
0.0825408 -0.0624838 0.621302
0.0830737 -0.0615371 0.620935
0.0836136 -0.0605921 0.620607
0.0841048 -0.0596416 0.620056
0.0845702 -0.0586895 0.619393
0.0850553 -0.0577419 0.618824
0.0855091 -0.0567921 0.61812
0.0859498 -0.0558432 0.617361
0.086449 -0.0549024 0.61687
0.0869803 -0.0539659 0.616527
0.0875139 -0.0530306 0.616197
0.0880557 -0.052097 0.615905
0.088606 -0.0511645 0.615654
0.0891599 -0.0502329 0.615421
0.0897061 -0.0493019 0.615153
0.0902929 -0.0483733 0.615067
0.0908784 -0.047445 0.614975
0.0914496 -0.0465167 0.614819
0.0920209 -0.0455882 0.614669
0.0926077 -0.044661 0.614583
0.0931805 -0.0437334 0.614439
0.093736 -0.0428057 0.614225
0.0942593 -0.0418784 0.613873
0.0947776 -0.0409524 0.613502
0.0952977 -0.0400269 0.613144
0.0958222 -0.0391025 0.612805
0.0963909 -0.0381781 0.612655
0.0969747 -0.0372541 0.612566
0.0976025 -0.0363288 0.61266
0.0982647 -0.0354025 0.612894
0.0989467 -0.0344744 0.613209
0.0996615 -0.0335446 0.613655
0.100464 -0.0326087 0.614455
0.101245 -0.0316714 0.615158
0.102015 -0.0307332 0.615816
0.102827 -0.0297901 0.616636
0.000621818 -0.242338 0.778753
0.0013784 -0.241211 0.778829
0.00213309 -0.240076 0.778883
0.00289574 -0.238966 0.779041
0.00366668 -0.237881 0.779296
0.00442571 -0.236756 0.779394
0.00520093 -0.235679 0.779687
0.0059824 -0.234619 0.780062
0.00675592 -0.233532 0.780332
0.00753063 -0.232445 0.780595
0.00831414 -0.231381 0.78097
0.00911513 -0.230365 0.781547
0.00991982 -0.229352 0.782146
0.0107182 -0.228318 0.782663
0.0115235 -0.227296 0.78324
0.0123193 -0.226248 0.783704
0.0131099 -0.225179 0.784094
0.0139101 -0.224134 0.784588
0.0147124 -0.22309 0.78509
0.0154794 -0.221956 0.785195
0.0162687 -0.220874 0.78554
0.0170874 -0.219859 0.786199
0.0179239 -0.21888 0.787029
0.0187505 -0.217873 0.78774
0.019598 -0.216907 0.788653
0.0203863 -0.215804 0.788938
0.0210946 -0.214524 0.788385
0.0217706 -0.213181 0.787526
0.0224502 -0.211849 0.786712
0.023151 -0.210566 0.786123
0.0238236 -0.20923 0.785271
0.0626073 -0.101986 0.652093
0.0633686 -0.101071 0.652781
0.0655885 -0.101022 0.656074
0.0641492 -0.100162 0.653571
0.0662267 -0.100038 0.656048
0.0648299 -0.0992024 0.653797
0.0668271 -0.099036 0.655814
0.0654542 -0.098216 0.653706
0.0673882 -0.098017 0.655369
0.0660258 -0.097206 0.653325
0.0679837 -0.0970149 0.655116
0.0666169 -0.0962057 0.653057
0.0671185 -0.0951676 0.652304
0.0675752 -0.094113 0.651314
0.0679839 -0.093042 0.650074
0.0684521 -0.0919996 0.649165
0.0689231 -0.0909612 0.648283
0.0693914 -0.0899251 0.647393
0.0699285 -0.0889178 0.646875
0.0704197 -0.0878955 0.64612
0.0708703 -0.0868613 0.64516
0.0712968 -0.0858217 0.644086
0.0717455 -0.0847936 0.643133
0.0721538 -0.0837551 0.641984
0.0725564 -0.0827188 0.640813
0.0729545 -0.0816849 0.639634
0.0733537 -0.0806555 0.638469
0.0737941 -0.079642 0.637523
0.0742248 -0.0786289 0.636538
0.07464 -0.0776146 0.635483
0.0750201 -0.0765942 0.634266
0.0753801 -0.0755728 0.632956
0.0757275 -0.0745522 0.631598
0.0761183 -0.0735469 0.630466
0.0765141 -0.0725465 0.629364
0.0768937 -0.0715458 0.628197
0.0773037 -0.0705553 0.627188
0.0776748 -0.0695598 0.626
0.0780626 -0.0685718 0.624901
0.0784631 -0.0675896 0.623874
0.0789148 -0.0666204 0.623099
0.0793798 -0.065656 0.622394
0.0799146 -0.064706 0.622026
0.0804554 -0.0637579 0.621689
0.0810497 -0.0628193 0.621606
0.0815894 -0.0618729 0.621266
0.082109 -0.0609243 0.620839
0.0826238 -0.0599766 0.62039
0.0831001 -0.0590249 0.61977
0.0835772 -0.0580752 0.619157
0.0840496 -0.0571266 0.61853
0.0845187 -0.0561796 0.617891
0.0849873 -0.0552348 0.617253
0.0855016 -0.0542959 0.616829
0.0860347 -0.0533599 0.616493
0.0865972 -0.0524273 0.61629
0.0871555 -0.051495 0.61607
0.0877245 -0.0505638 0.6159
0.0882948 -0.0496334 0.615735
0.0888564 -0.0487026 0.615535
0.0894434 -0.0477737 0.615447
0.0900132 -0.0468442 0.615285
0.0905676 -0.0459147 0.615056
0.0911226 -0.044986 0.61483
0.0916927 -0.0440578 0.614675
0.0922522 -0.04313 0.614472
0.0928243 -0.0422032 0.614324
0.0933639 -0.0412761 0.614041
0.0938989 -0.0403497 0.61374
0.0944474 -0.0394245 0.613497
0.0950019 -0.0384996 0.61328
0.0956019 -0.0375744 0.613257
0.0962188 -0.0366484 0.613306
0.0968647 -0.0357221 0.613472
0.0975284 -0.0347938 0.613712
0.0982394 -0.0338637 0.614146
0.0989847 -0.0329301 0.614717
0.0998245 -0.0319902 0.615669
0.10066 -0.0310473 0.616595
0.101483 -0.030103 0.617466
0.102316 -0.0291556 0.618371
-0.00136755 -0.242448 0.777636
-0.00059287 -0.241388 0.777981
0.00016671 -0.240275 0.778117
0.000932048 -0.239179 0.77832
0.00168662 -0.238047 0.778381
0.00245584 -0.236959 0.778629
0.00322035 -0.235855 0.778809
0.00399383 -0.234776 0.779095
0.00477449 -0.233717 0.77947
0.00555534 -0.232656 0.779845
0.00632936 -0.231573 0.780122
0.00711363 -0.230513 0.780512
0.00791358 -0.229497 0.781089
0.00872462 -0.228505 0.781778
0.00953002 -0.227493 0.782392
0.0103346 -0.226473 0.782984
0.0111293 -0.225424 0.783441
0.0119244 -0.224371 0.783898
0.0127233 -0.223325 0.784392
0.0135262 -0.222283 0.784909
0.0143015 -0.221172 0.785119
0.0150739 -0.220049 0.78527
0.0158613 -0.218962 0.785599
0.0166661 -0.217913 0.786109
0.01746 -0.216835 0.786483
0.0182596 -0.215768 0.786917
0.0190236 -0.214617 0.786963
0.0196987 -0.213271 0.786089
0.0203572 -0.211894 0.785051
0.0210073 -0.210506 0.783945
0.0216309 -0.209071 0.782593
0.0222243 -0.207581 0.780965
0.0247647 -0.208437 0.787058
0.0228573 -0.206183 0.779755
0.0602591 -0.104682 0.649616
0.0586256 -0.105009 0.649529
0.0592286 -0.104018 0.649336
0.0609678 -0.103747 0.650028
0.0598566 -0.103042 0.649289
0.0617997 -0.102875 0.651136
0.0606033 -0.102127 0.649924
0.0613582 -0.101214 0.650594
0.0620598 -0.100271 0.650957
0.0627991 -0.0993458 0.651532
0.063485 -0.0983928 0.651797
0.0640812 -0.0973972 0.65156
0.0646269 -0.0963795 0.651046
0.0652029 -0.0953769 0.650703
0.0656899 -0.094337 0.649876
0.0661125 -0.0932727 0.648707
0.0665499 -0.0922188 0.647625
0.0670613 -0.0911985 0.646958
0.0675641 -0.0901771 0.64625
0.0680763 -0.0891618 0.645597
0.0686628 -0.0881764 0.645348
0.069179 -0.0871662 0.64473
0.0696329 -0.086136 0.643788
0.0700718 -0.0851036 0.642776
0.0705324 -0.0840823 0.641886
0.0709524 -0.0830504 0.640795
0.0713695 -0.0820214 0.639696
0.0717977 -0.0809993 0.638669
0.0722264 -0.079981 0.637652
0.0726835 -0.0789744 0.636788
0.0731149 -0.0779632 0.635803
0.0735175 -0.0769473 0.634682
0.0738853 -0.0759259 0.633394
0.0742467 -0.0749068 0.63209
0.0745984 -0.0738898 0.630746
0.0750055 -0.0728905 0.629689
0.075417 -0.0718956 0.628664
0.0758242 -0.0709028 0.627628
0.0762507 -0.0699179 0.626694
0.0766505 -0.06893 0.62564
0.0770546 -0.0679466 0.624614
0.0774826 -0.0669708 0.623715
0.0779482 -0.066005 0.623002
0.0784267 -0.0650434 0.622359
0.0789631 -0.064094 0.621995
0.0795044 -0.0631465 0.621659
0.0800845 -0.062206 0.621508
0.0806222 -0.0612594 0.621159
0.0811412 -0.0603114 0.620726
0.0816441 -0.0593627 0.620219
0.0821208 -0.0584117 0.619597
0.0826108 -0.0574643 0.619042
0.0830851 -0.0565168 0.618418
0.0835577 -0.0555708 0.617793
0.0840415 -0.0546278 0.617223
0.0845698 -0.0536908 0.616858
0.0851162 -0.0527562 0.61658
0.0856942 -0.0518251 0.616444
0.0862692 -0.0508939 0.616298
0.086868 -0.0499643 0.61626
0.0874555 -0.0490345 0.61617
0.0880189 -0.0481037 0.615973
0.0886063 -0.0471742 0.615885
0.0891624 -0.0462437 0.615661
0.0896885 -0.0453132 0.615304
0.0902379 -0.0443836 0.615055
0.0908067 -0.0434556 0.614889
0.0913664 -0.0425276 0.614687
0.0919675 -0.0416005 0.614664
0.0925243 -0.0406736 0.614449
0.0930624 -0.039747 0.614158
0.0936132 -0.0388213 0.613922
0.0941962 -0.0378954 0.613825
0.094802 -0.0369691 0.613825
0.0954518 -0.0360417 0.614009
0.0961294 -0.0351127 0.614307
0.0968222 -0.0341825 0.614667
0.0975494 -0.0332497 0.615165
0.0983284 -0.0323121 0.615875
0.0992036 -0.0313673 0.616975
0.100091 -0.030419 0.618116
0.100967 -0.029468 0.619204
0.101836 -0.0285147 0.620251
-0.00257487 -0.241512 0.776923
-0.00180684 -0.240435 0.777194
-0.0010472 -0.239324 0.777337
-0.000276432 -0.238253 0.777637
0.000471156 -0.237101 0.777608
0.00123258 -0.235993 0.777767
0.00200262 -0.234911 0.778037
0.00278124 -0.233855 0.778412
0.00356161 -0.232799 0.778802
0.00435001 -0.231764 0.779282
0.00513894 -0.230726 0.779754
0.00592135 -0.229667 0.780144
0.00672813 -0.228673 0.780818
0.00754558 -0.227703 0.781605
0.00835828 -0.226714 0.782324
0.00915504 -0.225674 0.782826
0.0099559 -0.224644 0.783372
0.0107506 -0.223592 0.783829
0.0115489 -0.222545 0.784324
0.0123506 -0.221503 0.784833
0.0131347 -0.220413 0.785148
0.0139053 -0.219288 0.785298
0.0146649 -0.218134 0.785314
0.0154374 -0.217011 0.785479
0.0161886 -0.215837 0.785405
0.016948 -0.214682 0.785421
0.0176622 -0.213425 0.784951
0.0183088 -0.212021 0.783778
0.0189395 -0.210589 0.782456
0.01958 -0.209188 0.78126
0.0201972 -0.207745 0.779848
0.0208129 -0.206308 0.778452
0.0214743 -0.204973 0.777533
0.0237852 -0.205381 0.781482
0.0221083 -0.20359 0.776368
0.0247688 -0.204675 0.783718
0.0271179 -0.198798 0.777309
0.0247877 -0.198398 0.773271
0.0254914 -0.197175 0.772854
0.0274911 -0.196964 0.773776
0.0262346 -0.196025 0.772818
0.028197 -0.195747 0.773389
0.0269709 -0.194864 0.772714
0.0292596 -0.195156 0.776274
0.0276653 -0.19363 0.772222
0.0303478 -0.194592 0.779361
0.0547637 -0.113573 0.656983
0.0529578 -0.113799 0.655925
0.053586 -0.11281 0.655846
0.0553827 -0.112576 0.65684
0.0541899 -0.111805 0.655613
0.0559038 -0.111519 0.65611
0.0546899 -0.110737 0.654758
0.0563851 -0.11044 0.655148
0.0551379 -0.109641 0.653594
0.0567467 -0.109293 0.653485
0.055534 -0.108519 0.652131
0.0570925 -0.108144 0.651748
0.055932 -0.107403 0.650701
0.0574156 -0.106989 0.649893
0.0563423 -0.106299 0.649355
0.0579867 -0.105979 0.64951
0.0569166 -0.105293 0.64899
0.0575579 -0.104325 0.649023
0.0581657 -0.103338 0.648861
0.0587979 -0.102365 0.648843
0.0594872 -0.101421 0.649152
0.0601818 -0.100479 0.64949
0.0608348 -0.0995145 0.649584
0.0615031 -0.0985571 0.649766
0.0621402 -0.0975843 0.649768
0.0627186 -0.0965843 0.649442
0.063239 -0.0955592 0.648791
0.0637904 -0.09455 0.648323
0.0642909 -0.0935207 0.647574
0.0647536 -0.092478 0.646626
0.0652237 -0.0914416 0.64573
0.0657797 -0.0904428 0.64531
0.0663217 -0.0894401 0.644818
0.0668554 -0.0884358 0.644282
0.0674273 -0.0874474 0.643962
0.0679419 -0.0864394 0.643336
0.0683948 -0.0854118 0.642387
0.0688445 -0.0843861 0.641432
0.069306 -0.0833677 0.640547
0.0697396 -0.0823431 0.639527
0.0701729 -0.081322 0.63851
0.0706174 -0.0803076 0.637567
0.0710514 -0.0792933 0.636574
0.0715228 -0.078293 0.635784
0.0719554 -0.0772843 0.634804
0.0723815 -0.0762774 0.633797
0.0727631 -0.0752615 0.632578
0.0731537 -0.0742523 0.631412
0.0735236 -0.0732415 0.630156
0.0739588 -0.0722508 0.629233
0.0743721 -0.0712575 0.628213
0.0747941 -0.0702697 0.627244
0.0752217 -0.0692861 0.626311
0.0756503 -0.0683056 0.625391
0.076069 -0.0673261 0.624433
0.0765128 -0.0663542 0.623606
0.0769927 -0.0653916 0.622958
0.0774862 -0.0644335 0.622381
0.0780233 -0.0634845 0.62202
0.0785653 -0.0625373 0.621683
0.0791435 -0.0615964 0.621523
0.0796807 -0.0606503 0.621169
0.0801986 -0.0597024 0.620727
0.0807022 -0.058754 0.620222
0.0811795 -0.0578036 0.619599
0.081671 -0.0568566 0.619048
0.0821621 -0.0559116 0.618497
0.0826387 -0.0549667 0.617886
0.0831253 -0.0540241 0.617325
0.0836661 -0.0530884 0.617015
0.0842263 -0.0521548 0.616799
0.0848182 -0.0512244 0.616725
0.0854101 -0.0502941 0.616652
0.0860368 -0.0493659 0.616738
0.0866257 -0.0484355 0.616652
0.0871893 -0.0475043 0.616452
0.087764 -0.0465737 0.616306
0.0883193 -0.0456427 0.616075
0.0888315 -0.0447113 0.615654
0.0893825 -0.0437821 0.615407
0.0899509 -0.0428532 0.61524
0.0904981 -0.0419251 0.614979
0.0911129 -0.0409977 0.615014
0.0916719 -0.0400704 0.614807
0.0922265 -0.0391436 0.614583
0.0927953 -0.0382172 0.614421
0.0934089 -0.0372901 0.614452
0.0940164 -0.036363 0.614457
0.0946963 -0.0354337 0.614766
0.0954066 -0.034502 0.615201
0.0961177 -0.0335692 0.615637
0.0968763 -0.032633 0.616268
0.0976996 -0.0316909 0.617163
0.0985965 -0.0307418 0.618354
0.0995028 -0.0297892 0.619575
0.100408 -0.0288329 0.620784
-0.00379797 -0.240512 0.775941
-0.00302502 -0.239457 0.776301
-0.00225802 -0.238381 0.776572
-0.00148361 -0.237324 0.77694
-0.00073019 -0.236195 0.777008
3.04205e-05 -0.235089 0.777166
0.000799652 -0.234008 0.777437
0.00158566 -0.232979 0.777924
0.00237342 -0.23195 0.778426
0.00316844 -0.230939 0.779004
0.00397037 -0.229944 0.779663
0.00475955 -0.228906 0.780143
0.00555946 -0.227894 0.780742
0.00636765 -0.226902 0.781439
0.00717815 -0.22591 0.782143
0.00797456 -0.224873 0.782652
0.0087769 -0.223847 0.783229
0.00957951 -0.222818 0.783791
0.0103848 -0.221793 0.784375
0.0111862 -0.220751 0.784899
0.0119698 -0.219661 0.785206
0.0127321 -0.218515 0.78526
0.0134662 -0.217299 0.784991
0.0142076 -0.216103 0.784812
0.0149187 -0.214836 0.784297
0.0156359 -0.213587 0.783864
0.0163141 -0.212253 0.78302
0.0169425 -0.210811 0.781646
0.0175488 -0.209332 0.780077
0.0181819 -0.207919 0.778799
0.0187919 -0.206466 0.77732
0.0194163 -0.205053 0.776013
0.0200882 -0.203748 0.775222
0.020753 -0.202433 0.774363
0.0227477 -0.202224 0.775271
0.0214023 -0.201091 0.773371
0.0234128 -0.200915 0.774442
0.022069 -0.199791 0.772572
0.024105 -0.199664 0.773898
0.0227589 -0.198539 0.772005
0.0234489 -0.197292 0.771461
0.0241525 -0.196074 0.771059
0.024915 -0.194966 0.771217
0.0256891 -0.193879 0.771495
0.0264237 -0.192719 0.771384
0.0283521 -0.192385 0.771671
0.0271431 -0.191532 0.771138
0.0290338 -0.191133 0.771082
0.0278563 -0.190336 0.770841
0.0296896 -0.189842 0.770268
0.0285042 -0.189032 0.769945
0.0307378 -0.189207 0.772997
0.0291205 -0.187679 0.768774
0.0476696 -0.124491 0.663299
0.0458258 -0.124674 0.662
0.0463446 -0.123585 0.661152
0.0480784 -0.123315 0.661739
0.0468179 -0.122463 0.66002
0.0485991 -0.122231 0.660924
0.0473804 -0.121414 0.659478
0.0491302 -0.121158 0.66019
0.0479266 -0.120356 0.658841
0.0496955 -0.120113 0.659677
0.0485144 -0.11933 0.65848
0.0502718 -0.119078 0.659242
0.0491239 -0.118321 0.658262
0.0508884 -0.118073 0.659064
0.0497402 -0.117318 0.658085
0.0513817 -0.116983 0.658115
0.050251 -0.116243 0.657246
0.051912 -0.115922 0.657411
0.050786 -0.115187 0.656568
0.0524258 -0.114853 0.656606
0.0513011 -0.11412 0.655773
0.0518132 -0.113055 0.654967
0.0524027 -0.112043 0.654651
0.0529916 -0.111031 0.654333
0.05349 -0.109965 0.653465
0.0539321 -0.108868 0.652265
0.054375 -0.107776 0.651082
0.0548202 -0.10669 0.649926
0.0552889 -0.105621 0.648923
0.0558506 -0.104609 0.648484
0.0564793 -0.103635 0.648448
0.0570979 -0.102655 0.64835
0.0577304 -0.101683 0.648337
0.058386 -0.100723 0.648454
0.0590537 -0.0997684 0.648644
0.0596763 -0.0987908 0.64857
0.0602822 -0.0978054 0.648399
0.060869 -0.0968114 0.648126
0.0614322 -0.0958076 0.647718
0.0619284 -0.0947751 0.646936
0.0624545 -0.0937584 0.646331
0.0629788 -0.092743 0.645722
0.0634807 -0.0917206 0.644991
0.063971 -0.0906957 0.644209
0.0645647 -0.0897149 0.644001
0.06513 -0.0887238 0.643638
0.0656607 -0.0877207 0.643092
0.0662054 -0.0867247 0.642624
0.0667175 -0.0857185 0.641986
0.0671571 -0.0846888 0.640968
0.0676083 -0.0836667 0.640019
0.0680818 -0.082655 0.639202
0.0685443 -0.0816426 0.638332
0.0690076 -0.0806335 0.637473
0.0694671 -0.0796259 0.636605
0.0699266 -0.0786213 0.635743
0.0703983 -0.0776231 0.634952
0.0708189 -0.0766132 0.633906
0.0712595 -0.0756121 0.632971
0.0716687 -0.0746057 0.631887
0.0720792 -0.0736033 0.630818
0.0724773 -0.0726012 0.629697
0.0729277 -0.0716152 0.628849
0.0733399 -0.0706231 0.627818
0.0737627 -0.0696368 0.626847
0.0741921 -0.0686547 0.625919
0.0746354 -0.0676783 0.625071
0.0750688 -0.0667028 0.624179
0.0755298 -0.0657355 0.623427
0.0760232 -0.0647758 0.622845
0.0765328 -0.0638212 0.622343
0.0770716 -0.0628727 0.621987
0.0776264 -0.0619278 0.621711
0.0782045 -0.0609872 0.621549
0.078753 -0.0600427 0.621247
0.0792742 -0.0590956 0.620818
0.0797796 -0.0581475 0.620318
0.0802598 -0.0571983 0.619702
0.08075 -0.0562515 0.61914
0.0812421 -0.0553065 0.618593
0.0817213 -0.0543622 0.617988
0.0822112 -0.0534205 0.617438
0.0827637 -0.0524857 0.617181
0.0833384 -0.0515534 0.617028
0.0839326 -0.0506227 0.616965
0.0845405 -0.0496933 0.616962
0.0851673 -0.0487648 0.617046
0.0857407 -0.047833 0.616891
0.0863025 -0.0469013 0.616683
0.0868751 -0.0459706 0.616525
0.0874331 -0.04504 0.6163
0.0879597 -0.0441087 0.615943
0.088527 -0.0431796 0.615763
0.0890985 -0.0422506 0.615608
0.0896346 -0.0413221 0.615297
0.0902486 -0.0403943 0.615326
0.0908191 -0.0394666 0.615167
0.0913908 -0.038539 0.615017
0.0919755 -0.0376119 0.614921
0.092619 -0.0366834 0.615078
0.0932542 -0.0357547 0.615198
0.093951 -0.0348234 0.615579
0.0946775 -0.0338893 0.616082
0.0954213 -0.0329538 0.616654
0.096228 -0.0320124 0.617487
0.0970712 -0.0310669 0.618464
0.0979812 -0.0301142 0.619713
0.098898 -0.0291574 0.620981
0.0997863 -0.0281996 0.622119
-0.00573035 -0.240785 0.775489
-0.00500383 -0.239566 0.775176
-0.00424589 -0.238463 0.775334
-0.00347507 -0.237406 0.775687
-0.00269502 -0.236376 0.776152
-0.00193447 -0.235274 0.776326
-0.0011612 -0.234214 0.776678
-0.000379592 -0.23318 0.777136
0.000419256 -0.232195 0.777818
0.00122255 -0.231217 0.778537
0.00202515 -0.230231 0.779226
0.00282692 -0.229237 0.779893
0.00361478 -0.228196 0.780365
0.00439853 -0.227139 0.78077
0.00519795 -0.226123 0.781362
0.00600782 -0.225131 0.782066
0.00680277 -0.224092 0.782576
0.00760475 -0.223068 0.78316
0.00840811 -0.222043 0.783737
0.00921354 -0.22102 0.784343
0.0100056 -0.219956 0.784763
0.0107884 -0.218865 0.785063
0.0115427 -0.2177 0.785034
0.0122609 -0.216445 0.784579
0.012975 -0.215186 0.784101
0.0136646 -0.213869 0.783346
0.0143533 -0.212555 0.782592
0.0150134 -0.211181 0.781546
0.0156426 -0.209744 0.780179
0.0162413 -0.208249 0.778505
0.0168724 -0.206834 0.777213
0.0174638 -0.205344 0.775532
0.0180876 -0.203934 0.774217
0.0187519 -0.202616 0.773344
0.0194175 -0.201308 0.772515
0.0200598 -0.199955 0.771448
0.0207332 -0.198674 0.770724
0.0214202 -0.197422 0.770142
0.0221184 -0.196195 0.76968
0.0228389 -0.195015 0.769457
0.0236116 -0.193931 0.769735
0.0244143 -0.192901 0.770304
0.0251806 -0.191802 0.770507
0.0259319 -0.190675 0.770568
0.0266595 -0.189505 0.770405
0.0272982 -0.188184 0.76942
0.0279091 -0.186823 0.768189
0.0301468 -0.187008 0.77133
0.0284929 -0.185424 0.766733
0.0429015 -0.131458 0.668592
0.042287 -0.13249 0.668857
0.0410504 -0.131626 0.66725
0.0416621 -0.130595 0.666974
0.0434348 -0.130356 0.667776
0.0421688 -0.129473 0.665975
0.0439308 -0.129225 0.666711
0.0426736 -0.128353 0.664976
0.0443896 -0.128067 0.665408
0.0431333 -0.127199 0.663678
0.0448615 -0.126925 0.664215
0.0436061 -0.126062 0.662485
0.0453325 -0.125788 0.663024
0.044066 -0.12492 0.661224
0.0445731 -0.12382 0.660292
0.045084 -0.122728 0.659394
0.045592 -0.121637 0.658492
0.0461654 -0.1206 0.65803
0.046724 -0.119554 0.657476
0.0473224 -0.118538 0.657189
0.0479553 -0.11755 0.657125
0.0485733 -0.11655 0.656968
0.0490986 -0.115487 0.65622
0.0496246 -0.114427 0.655487
0.0501392 -0.113363 0.654685
0.0506379 -0.112291 0.653799
0.0511926 -0.111259 0.65327
0.0517566 -0.110234 0.652801
0.0522645 -0.109177 0.651995
0.0527122 -0.108086 0.650824
0.0531722 -0.107007 0.649746
0.0536436 -0.105939 0.648748
0.0541464 -0.104893 0.647948
0.0547092 -0.103883 0.647517
0.0553377 -0.102911 0.647485
0.055967 -0.101939 0.647457
0.056587 -0.100962 0.647373
0.0572285 -0.0999964 0.647416
0.0578819 -0.0990366 0.647528
0.0585019 -0.0980599 0.647444
0.059084 -0.0970651 0.647145
0.0596709 -0.0960738 0.646872
0.0602209 -0.0950664 0.646392
0.0607148 -0.0940354 0.645601
0.0612282 -0.0930158 0.644927
0.0617621 -0.0920075 0.644373
0.0622871 -0.0909972 0.643776
0.062792 -0.089981 0.643072
0.0634001 -0.0890082 0.642947
0.0639627 -0.0880179 0.642574
0.0644789 -0.0870115 0.64195
0.0649973 -0.086008 0.641342
0.0655088 -0.0850042 0.640703
0.0659383 -0.0839737 0.639629
0.0664039 -0.0829592 0.63876
0.0669055 -0.0819595 0.638091
0.0673851 -0.0809551 0.637308
0.0678514 -0.0799491 0.636465
0.0683249 -0.078948 0.635668
0.0687936 -0.077948 0.634854
0.0692511 -0.0769476 0.63399
0.069686 -0.0759438 0.633013
0.0701536 -0.0749519 0.632219
0.070594 -0.0739556 0.631289
0.0710353 -0.0729625 0.630373
0.0714624 -0.0719691 0.629392
0.0719132 -0.070984 0.628543
0.0723244 -0.0699928 0.627501
0.0727463 -0.0690074 0.626521
0.0731647 -0.0680243 0.625532
0.0736224 -0.0670522 0.624749
0.0740844 -0.0660833 0.623995
0.0745605 -0.0651195 0.623316
0.0750708 -0.0641636 0.62281
0.0755932 -0.0632114 0.622368
0.0761326 -0.0622633 0.622014
0.0766884 -0.0613186 0.621741
0.0772683 -0.0603782 0.621588
0.077821 -0.0594349 0.621301
0.0783441 -0.058488 0.62088
0.0788385 -0.0575392 0.620323
0.0793176 -0.05659 0.6197
0.0798073 -0.0556435 0.619134
0.0803114 -0.0547005 0.618637
0.0808046 -0.0537581 0.618093
0.081308 -0.0528177 0.617603
0.0818744 -0.0518838 0.61741
0.0824636 -0.0509527 0.617319
0.0830611 -0.0500218 0.61727
0.0836694 -0.0490918 0.617271
0.0842967 -0.0481628 0.617356
0.0848537 -0.0472303 0.617122
0.0853996 -0.0462977 0.61684
0.085957 -0.0453664 0.616612
0.0865161 -0.0444357 0.616394
0.0870604 -0.0435054 0.61611
0.0876456 -0.0425761 0.616012
0.0882335 -0.0416471 0.615925
0.0887819 -0.0407186 0.615664
0.0893944 -0.0397899 0.615688
0.0899777 -0.0388618 0.615583
0.0905659 -0.037934 0.615499
0.091167 -0.0370056 0.615474
0.0918287 -0.0360759 0.615707
0.0924775 -0.0351456 0.615885
0.093187 -0.0342125 0.616319
0.0939434 -0.0332755 0.61695
0.0947081 -0.032337 0.617613
0.0955474 -0.0313918 0.618585
0.0964211 -0.0304414 0.619693
0.0973161 -0.0294867 0.620881
0.098186 -0.0285311 0.621956
-0.00614371 -0.24321 0.780644
-0.00758643 -0.241349 0.776212
-0.00690475 -0.239951 0.775173
-0.00618557 -0.238707 0.774755
-0.00544516 -0.237541 0.774659
-0.00467584 -0.236484 0.775004
-0.00389585 -0.235458 0.775484
-0.00312252 -0.234407 0.775867
-0.00234165 -0.233375 0.776332
-0.00154103 -0.232406 0.777074
-0.000734553 -0.231449 0.777876
7.48218e-05 -0.230496 0.7787
0.000878485 -0.229515 0.779419
0.00167962 -0.228521 0.780086
0.0024598 -0.227457 0.780461
0.00323356 -0.22637 0.780739
0.00402264 -0.225327 0.781211
0.00482873 -0.224327 0.781885
0.00562263 -0.223288 0.782395
0.00642536 -0.222269 0.782994
0.00723471 -0.221263 0.783668
0.00803857 -0.220238 0.78426
0.00882152 -0.219151 0.784582
0.00960209 -0.218058 0.784867
0.0103568 -0.216893 0.784838
0.0110672 -0.21562 0.784293
0.0117654 -0.21432 0.783621
0.0124466 -0.212982 0.782762
0.0131181 -0.211629 0.781813
0.0137538 -0.210198 0.780483
0.0143678 -0.208726 0.778936
0.0149637 -0.207226 0.777225
0.0155671 -0.205753 0.775626
0.0161382 -0.20422 0.773714
0.0167609 -0.202809 0.772384
0.0174149 -0.201477 0.771414
0.0180729 -0.200156 0.770503
0.0187227 -0.198825 0.769525
0.0193945 -0.197545 0.768794
0.0200715 -0.196278 0.768115
0.0207683 -0.195054 0.76766
0.0214803 -0.193864 0.767363
0.0222261 -0.192737 0.767401
0.0230004 -0.191663 0.767717
0.0237388 -0.190521 0.767681
0.0244809 -0.189386 0.767682
0.0252195 -0.188246 0.767646
0.0258861 -0.18698 0.76693
0.0265439 -0.185704 0.766147
0.0272032 -0.184434 0.765386
0.02954 -0.184788 0.769506
0.0278689 -0.183179 0.7647
0.0392391 -0.131823 0.666146
0.0398201 -0.130766 0.665658
0.0403956 -0.129707 0.665135
0.0408834 -0.128571 0.664005
0.0413777 -0.127447 0.662933
0.041824 -0.126286 0.661546
0.0422974 -0.125154 0.660359
0.0427626 -0.12402 0.659132
0.0432935 -0.122944 0.658369
0.043808 -0.121859 0.657502
0.0443587 -0.120805 0.656885
0.044934 -0.119773 0.656444
0.0455043 -0.118738 0.655974
0.0461018 -0.117726 0.655683
0.0467524 -0.116753 0.655746
0.0473614 -0.11575 0.655537
0.04791 -0.114706 0.654942
0.0484484 -0.113657 0.654289
0.048974 -0.112603 0.653561
0.0494837 -0.11154 0.65274
0.050027 -0.110503 0.652138
0.0505781 -0.109473 0.651595
0.0510957 -0.108424 0.650846
0.0515555 -0.107343 0.64975
0.0520298 -0.106275 0.648757
0.0525263 -0.105223 0.647906
0.0530401 -0.104185 0.647173
0.0535923 -0.103171 0.64668
0.0542086 -0.102194 0.64658
0.0548262 -0.101217 0.646486
0.0554336 -0.100236 0.646332
0.0560618 -0.0992654 0.646304
0.056701 -0.0983006 0.646341
0.0573198 -0.0973256 0.646256
0.0579028 -0.0963338 0.645963
0.05848 -0.0953401 0.645641
0.0590302 -0.0943352 0.645166
0.0595345 -0.0933116 0.644431
0.0600466 -0.0922938 0.643751
0.0605905 -0.0912921 0.643256
0.061128 -0.0902893 0.642733
0.0616326 -0.089275 0.642029
0.062239 -0.0883033 0.6419
0.0627887 -0.0873103 0.641457
0.0632928 -0.0863016 0.640767
0.0637996 -0.0852963 0.640095
0.0643231 -0.0842991 0.639525
0.064756 -0.0832725 0.638466
0.0652482 -0.0822693 0.637741
0.0657757 -0.0812803 0.637211
0.0662825 -0.0802864 0.636574
0.0667632 -0.0792865 0.635804
0.0672479 -0.0782902 0.635067
0.0677162 -0.0772918 0.634247
0.0681621 -0.0762897 0.633315
0.06861 -0.075291 0.632407
0.0690931 -0.074305 0.631685
0.0695513 -0.0733144 0.630847
0.0700202 -0.0723295 0.630069
0.0704636 -0.0713409 0.629167
0.0709033 -0.0703545 0.628253
0.0713137 -0.0693642 0.627202
0.0717329 -0.0683794 0.626204
0.0721415 -0.0673951 0.625163
0.0726138 -0.0664272 0.624447
0.0730916 -0.0654622 0.623769
0.0735818 -0.0645019 0.623155
0.0741054 -0.0635491 0.622712
0.0746415 -0.0625996 0.622337
0.0751824 -0.0616521 0.621986
0.0757511 -0.0607097 0.621775
0.0763451 -0.0597715 0.621688
0.0768998 -0.0588282 0.621411
0.077437 -0.0578835 0.621054
0.077933 -0.0569348 0.6205
0.0784099 -0.0559856 0.619862
0.0788866 -0.0550383 0.619228
0.0794021 -0.0540965 0.618783
0.079898 -0.0531545 0.618247
0.0804168 -0.0522157 0.617826
0.0809988 -0.0512831 0.617701
0.0816004 -0.0503521 0.61767
0.0821992 -0.0494209 0.617625
0.0827956 -0.0484899 0.617568
0.0834081 -0.0475597 0.617585
0.0839492 -0.0466263 0.617277
0.0844789 -0.0456931 0.61692
0.085024 -0.0447615 0.616634
0.0855972 -0.0438312 0.616479
0.0861588 -0.0429013 0.616271
0.0867594 -0.041972 0.616241
0.0873619 -0.041043 0.616218
0.0879239 -0.040114 0.616015
0.0885364 -0.0391854 0.616035
0.0891338 -0.0382564 0.615993
0.0897382 -0.0373275 0.615978
0.0903592 -0.0363985 0.616035
0.0910346 -0.0354671 0.616329
0.0916853 -0.0345356 0.616514
0.0923945 -0.0336014 0.616947
0.0931662 -0.0326621 0.617648
0.0939604 -0.0317199 0.618435
0.0948194 -0.0307719 0.619494
0.0957112 -0.029818 0.620679
0.0966033 -0.0288607 0.621862
0.0974522 -0.0279043 0.622851
-0.00873313 -0.240625 0.776345
-0.00806415 -0.239172 0.775081
-0.00734578 -0.237923 0.774641
-0.00661225 -0.236734 0.77444
-0.00584118 -0.235684 0.774823
-0.00506271 -0.234657 0.775296
-0.0042762 -0.233654 0.775888
-0.00349383 -0.23263 0.776383
-0.00267915 -0.231711 0.777342
-0.00186638 -0.230779 0.778248
-0.00105063 -0.229845 0.77917
-0.000248216 -0.228864 0.779889
0.000551381 -0.227866 0.780548
0.00132399 -0.226776 0.780811
0.0020887 -0.225663 0.780977
0.0028615 -0.224572 0.78124
0.00365054 -0.223526 0.781712
0.00444382 -0.222487 0.782221
0.00524483 -0.221466 0.782813
0.00604638 -0.22044 0.783397
0.00684742 -0.219412 0.783974
0.00762783 -0.218318 0.784267
0.00839928 -0.217202 0.784455
0.00914417 -0.216017 0.784313
0.00985572 -0.214745 0.783776
0.0105466 -0.213429 0.783021
0.0112195 -0.212072 0.782057
0.0118832 -0.2107 0.781011
0.0124968 -0.209216 0.779412
0.0130861 -0.207687 0.777574
0.013648 -0.20611 0.775474
0.0142237 -0.204577 0.773561
0.0147685 -0.202989 0.771357
0.0153817 -0.201564 0.769923
0.0160268 -0.200218 0.76887
0.0166904 -0.198916 0.768034
0.0173463 -0.197605 0.767131
0.0180181 -0.19633 0.7664
0.018704 -0.195089 0.76584
0.0194005 -0.193872 0.765393
0.02013 -0.19272 0.76529
0.020881 -0.191612 0.765404
0.0216756 -0.190581 0.765943
0.0224312 -0.189478 0.766094
0.0232093 -0.188413 0.766462
0.0239329 -0.187249 0.766291
0.0245787 -0.18595 0.765381
0.0252335 -0.184671 0.764568
0.0259183 -0.183449 0.764054
0.0266192 -0.182256 0.763697
0.0285141 -0.181895 0.763835
0.027313 -0.181054 0.763287
0.0292659 -0.180787 0.763956
0.028103 -0.180006 0.763752
0.0299658 -0.179594 0.763599
0.0288371 -0.17887 0.763716
0.0372924 -0.134808 0.666172
0.0355726 -0.135082 0.665678
0.0361852 -0.134053 0.665404
0.037974 -0.133845 0.666401
0.0368131 -0.13304 0.665249
0.0386034 -0.132831 0.666249
0.0373915 -0.13198 0.664737
0.0379909 -0.130942 0.664384
0.0385792 -0.129896 0.663952
0.0391381 -0.128825 0.663319
0.0396287 -0.127696 0.662206
0.0401199 -0.126572 0.661118
0.0405544 -0.125405 0.659645
0.0410071 -0.124259 0.65832
0.0414756 -0.123132 0.657115
0.0420297 -0.12208 0.656514
0.0425759 -0.121023 0.655869
0.0431587 -0.119998 0.655475
0.0437465 -0.118978 0.655117
0.0443266 -0.117954 0.654719
0.0449209 -0.116942 0.654416
0.0455583 -0.115962 0.654401
0.0461631 -0.114959 0.654171
0.0467332 -0.113933 0.653717
0.0472946 -0.112903 0.653214
0.0478356 -0.11186 0.652583
0.0483567 -0.110808 0.651836
0.0488902 -0.109766 0.651172
0.0494197 -0.108724 0.650494
0.0499242 -0.107669 0.649665
0.0503944 -0.106597 0.648628
0.0508711 -0.105533 0.647646
0.0513792 -0.104491 0.646872
0.051904 -0.103461 0.646202
0.0524543 -0.102447 0.645699
0.0530474 -0.101459 0.645463
0.0536516 -0.100478 0.645294
0.0542448 -0.0994914 0.645063
0.0548607 -0.0985174 0.644966
0.0554869 -0.0975487 0.644931
0.0561161 -0.0965815 0.644917
0.0567107 -0.0955976 0.6447
0.0573007 -0.0946125 0.644454
0.0578729 -0.09362 0.644114
0.0583904 -0.0926044 0.643454
0.0589045 -0.0915895 0.642786
0.0594506 -0.0905907 0.642305
0.0599887 -0.0895901 0.641786
0.0604721 -0.0885694 0.640958
0.0610635 -0.0875938 0.640752
0.061611 -0.0866022 0.640297
0.0621153 -0.085596 0.639608
0.0626234 -0.0845934 0.638947
0.0631716 -0.0836073 0.638515
0.0636302 -0.0825917 0.637594
0.0641366 -0.0815951 0.636947
0.0646784 -0.0806125 0.636492
0.0652092 -0.0796277 0.635986
0.0656908 -0.0786294 0.63522
0.066176 -0.0776348 0.63448
0.0666459 -0.0766384 0.633664
0.0670927 -0.0756379 0.632737
0.0675552 -0.0746449 0.631899
0.0680518 -0.0736634 0.631249
0.0685365 -0.0726809 0.630542
0.0690315 -0.0717033 0.629895
0.0695011 -0.0707218 0.629124
0.0699305 -0.0697336 0.628153
0.070341 -0.0687441 0.627095
0.0707476 -0.0677574 0.626026
0.0711569 -0.0667745 0.624981
0.0716314 -0.0658077 0.624273
0.0721243 -0.0648463 0.623667
0.0726289 -0.0638891 0.62312
0.0731655 -0.0629387 0.622743
0.0737019 -0.0619899 0.622362
0.0742307 -0.0610404 0.621953
0.0747998 -0.0600986 0.62174
0.0753935 -0.0591606 0.621651
0.0759483 -0.0582174 0.621375
0.0764868 -0.0572733 0.621019
0.076993 -0.0563264 0.620513
0.0774706 -0.0553775 0.619876
0.0779475 -0.0544309 0.619236
0.0784657 -0.0534897 0.618802
0.0789762 -0.0525491 0.618335
0.0795123 -0.051612 0.617991
0.080111 -0.0506807 0.617942
0.0807128 -0.0497495 0.617909
0.0813224 -0.0488189 0.617913
0.0819042 -0.0478866 0.617788
0.082502 -0.0469553 0.617738
0.083031 -0.0460213 0.617372
0.083559 -0.0450886 0.617003
0.0840911 -0.0441564 0.616659
0.0846775 -0.0432266 0.616561
0.0852676 -0.0422973 0.61648
0.0858838 -0.0413679 0.616519
0.0864883 -0.0404387 0.616503
0.0870639 -0.0395095 0.616358
0.0876752 -0.0385799 0.616376
0.0882777 -0.0376507 0.616352
0.0888982 -0.036721 0.616406
0.0895493 -0.0357904 0.616594
0.0902266 -0.0348579 0.616895
0.0908789 -0.0339255 0.617086
0.0915854 -0.0329897 0.617512
0.0923565 -0.0320498 0.618208
0.0931673 -0.0311048 0.619073
0.0940569 -0.0301519 0.620266
0.0949623 -0.0291953 0.621517
0.0958551 -0.0282357 0.622704
0.0966886 -0.027278 0.623631
-0.00990343 -0.239807 0.776096
-0.00923826 -0.238334 0.77475
-0.00851917 -0.237089 0.774317
-0.00778013 -0.23592 0.774206
-0.00700372 -0.234893 0.774679
-0.00622053 -0.233887 0.775241
-0.0054218 -0.232931 0.776028
-0.00462716 -0.231952 0.776725
-0.00380502 -0.231062 0.777804
-0.00298649 -0.230149 0.778808
-0.00217201 -0.229215 0.779729
-0.00137126 -0.228227 0.780426
-0.000579395 -0.227204 0.780981
0.000184221 -0.226089 0.781139
0.000935069 -0.224931 0.78111
0.00169336 -0.223795 0.781178
0.00246703 -0.222705 0.781448
0.00325066 -0.22164 0.781846
0.00404306 -0.220601 0.782348
0.00484319 -0.219575 0.78294
0.00564288 -0.218545 0.783502
0.00642094 -0.21745 0.783787
0.00719036 -0.21633 0.783952
0.00792752 -0.215126 0.783728
0.00863842 -0.213855 0.783183
0.00932254 -0.21252 0.782332
0.00997973 -0.211126 0.781173
0.0106197 -0.209695 0.779843
0.0111994 -0.208132 0.77784
0.0117543 -0.206524 0.775598
0.0122917 -0.204892 0.773199
0.0128515 -0.203326 0.771107
0.0133982 -0.201748 0.76891
0.0140272 -0.200362 0.767663
0.0146805 -0.199039 0.766707
0.0153526 -0.197761 0.765961
0.0160179 -0.196474 0.765163
0.0166891 -0.195204 0.764446
0.0173759 -0.19397 0.763902
0.0180841 -0.192782 0.76359
0.0188046 -0.191619 0.763412
0.0195465 -0.190498 0.763451
0.0203328 -0.18946 0.763938
0.0210891 -0.188364 0.764112
0.0218602 -0.187293 0.764435
0.0226099 -0.186182 0.764541
0.023273 -0.184917 0.763795
0.0239741 -0.183723 0.763438
0.0247025 -0.182577 0.763342
0.0254291 -0.181428 0.763231
