ply
format ascii 1.0
element vertex 1631
property float x
property float y
property float z
end_header
-0.0688215 -0.243555 0.570235
-0.0679178 -0.243128 0.570864
-0.0670517 -0.242769 0.571652
-0.066169 -0.242382 0.572378
-0.0652806 -0.241985 0.573084
-0.0643699 -0.24155 0.573702
-0.063475 -0.241144 0.57439
-0.0625846 -0.240749 0.575104
-0.0616976 -0.240361 0.575837
-0.0608583 -0.240063 0.576781
-0.0600507 -0.239824 0.577872
-0.0592118 -0.239531 0.578837
-0.058402 -0.239298 0.579942
-0.0576415 -0.239156 0.581272
-0.0568157 -0.238898 0.582328
-0.0554636 -0.239784 0.58369
-0.0559739 -0.238609 0.583321
-0.133912 -0.283716 0.564379
-0.132909 -0.283139 0.564698
-0.131881 -0.282522 0.564943
-0.130853 -0.281909 0.565188
-0.129856 -0.281339 0.565525
-0.128862 -0.280773 0.565869
-0.127889 -0.280239 0.566274
-0.126863 -0.279627 0.566525
-0.125734 -0.278862 0.566467
-0.12462 -0.278119 0.566452
-0.123458 -0.277305 0.566288
-0.122259 -0.276434 0.566006
-0.12111 -0.275637 0.565872
-0.119961 -0.274836 0.565731
-0.118741 -0.273929 0.565367
-0.117541 -0.273049 0.565058
-0.116388 -0.27224 0.564891
-0.115198 -0.271371 0.564599
-0.114061 -0.270583 0.564468
-0.112878 -0.269723 0.564188
-0.111601 -0.268717 0.563603
-0.110268 -0.267624 0.56283
-0.108913 -0.266494 0.561975
-0.107546 -0.265341 0.561069
-0.106277 -0.264336 0.560467
-0.105061 -0.26341 0.560026
-0.103831 -0.262463 0.559535
-0.10264 -0.26157 0.559154
-0.101449 -0.260677 0.558774
-0.100182 -0.259662 0.55813
-0.0989983 -0.258776 0.557754
-0.0978811 -0.257992 0.557596
-0.0967769 -0.257227 0.557475
-0.0957606 -0.256601 0.557648
-0.0948083 -0.256075 0.558039
-0.0939179 -0.25565 0.558644
-0.0930136 -0.255202 0.559205
-0.0921481 -0.254819 0.559904
-0.0911775 -0.254267 0.560239
-0.0901984 -0.253702 0.560544
-0.0891326 -0.252993 0.56054
-0.0880694 -0.25229 0.560543
-0.0869934 -0.251563 0.560495
-0.0859406 -0.250874 0.560529
-0.084943 -0.250276 0.560757
-0.0840072 -0.249779 0.561212
-0.0830418 -0.249233 0.561559
-0.0820951 -0.24872 0.561976
-0.081196 -0.248284 0.56257
-0.0803159 -0.247882 0.56324
-0.0793915 -0.247405 0.563746
-0.0785172 -0.247019 0.564447
-0.0776208 -0.246592 0.565068
-0.076699 -0.246123 0.565593
-0.0757586 -0.245623 0.566049
-0.0748401 -0.245163 0.566594
-0.0739245 -0.244707 0.567152
-0.0730274 -0.244284 0.567786
-0.0721071 -0.243824 0.568331
-0.0711861 -0.243361 0.568877
-0.0702274 -0.242834 0.569278
-0.0693039 -0.242369 0.569818
-0.0683999 -0.241938 0.57044
-0.0675334 -0.241576 0.571222
-0.0666532 -0.241191 0.571953
-0.0657844 -0.240827 0.572735
-0.0648752 -0.240395 0.57336
-0.063981 -0.239988 0.574047
-0.0630905 -0.239589 0.574755
-0.0622024 -0.2392 0.575482
-0.0613658 -0.238902 0.576432
-0.0605411 -0.238632 0.577446
-0.0597018 -0.238335 0.578404
-0.0588927 -0.238097 0.579503
-0.0580999 -0.237893 0.580685
-0.0572582 -0.237602 0.581664
-0.0564284 -0.237331 0.582702
-0.0558238 -0.239643 0.587459
-0.0556067 -0.237083 0.583791
-0.141411 -0.290135 0.569713
-0.140992 -0.286807 0.563734
-0.13993 -0.286147 0.563893
-0.139227 -0.287883 0.566757
-0.138787 -0.285373 0.563826
-0.137141 -0.285765 0.564043
-0.137639 -0.284589 0.56374
-0.136046 -0.285056 0.564104
-0.136522 -0.28385 0.563739
-0.134963 -0.284362 0.564195
-0.135441 -0.28316 0.563837
-0.134391 -0.282514 0.564021
-0.133366 -0.281904 0.564278
-0.132313 -0.281253 0.564449
-0.131257 -0.280599 0.564613
-0.130229 -0.279982 0.564852
-0.129204 -0.279371 0.565102
-0.128204 -0.278796 0.565427
-0.127156 -0.278151 0.56561
-0.126001 -0.27735 0.565471
-0.124862 -0.276567 0.565375
-0.123697 -0.27575 0.565198
-0.122527 -0.274922 0.565002
-0.121429 -0.274198 0.565017
-0.120358 -0.273514 0.565111
-0.11919 -0.272687 0.564908
-0.118019 -0.271851 0.564685
-0.116864 -0.271039 0.564512
-0.115697 -0.270209 0.564295
-0.114564 -0.269426 0.564176
-0.113409 -0.26861 0.563982
-0.112157 -0.267644 0.563478
-0.110846 -0.266588 0.56278
-0.10949 -0.265459 0.561925
-0.108119 -0.264305 0.561006
-0.106828 -0.263269 0.560336
-0.105609 -0.262341 0.559889
-0.104354 -0.261356 0.559317
-0.103124 -0.260404 0.558812
-0.101888 -0.259443 0.558281
-0.100596 -0.258393 0.557556
-0.0993694 -0.257441 0.557036
-0.0982368 -0.256633 0.556822
-0.0971554 -0.255904 0.556775
-0.0961635 -0.255315 0.557029
-0.095214 -0.254794 0.557427
-0.0943425 -0.254398 0.558093
-0.0934593 -0.253982 0.558723
-0.0925983 -0.253603 0.559434
-0.0916324 -0.253057 0.559782
-0.0906703 -0.252517 0.560143
-0.0896027 -0.251807 0.560133
-0.0885395 -0.251104 0.560136
-0.0874828 -0.25041 0.560157
-0.0864307 -0.249724 0.56019
-0.0854526 -0.249155 0.560487
-0.0845138 -0.248653 0.560929
-0.0835658 -0.248137 0.56134
-0.0826196 -0.247621 0.561757
-0.0817395 -0.247218 0.56242
-0.0808613 -0.246818 0.563096
-0.079954 -0.246371 0.563665
-0.0790856 -0.245989 0.564385
-0.0781914 -0.245566 0.565012
-0.0772711 -0.245099 0.565543
-0.0763109 -0.244568 0.565924
-0.0753732 -0.244072 0.566393
-0.0744374 -0.243581 0.566868
-0.0735209 -0.243126 0.567426
-0.0725857 -0.242635 0.567908
-0.0716633 -0.242171 0.568448
-0.0707076 -0.241645 0.568854
-0.0697673 -0.241151 0.569324
-0.0688627 -0.240716 0.56994
-0.0679934 -0.24035 0.570709
-0.0671128 -0.239962 0.571433
-0.0662667 -0.239634 0.572305
-0.0653941 -0.239266 0.573074
-0.0645035 -0.238863 0.573775
-0.06361 -0.238461 0.574469
-0.0627367 -0.238093 0.575253
-0.0618823 -0.237763 0.576127
-0.0610452 -0.237463 0.577078
-0.0602052 -0.237164 0.578029
-0.0593967 -0.236925 0.579127
-0.0585719 -0.236657 0.580163
-0.0577129 -0.236331 0.581059
-0.0568786 -0.236051 0.58207
-0.0560427 -0.235772 0.583088
-0.143061 -0.288882 0.566344
-0.14468 -0.288435 0.566027
-0.142574 -0.286322 0.563332
-0.141498 -0.285642 0.563456
-0.140431 -0.284977 0.563603
-0.139283 -0.284194 0.563524
-0.138114 -0.283383 0.563376
-0.137001 -0.282649 0.563388
-0.135924 -0.281965 0.563497
-0.134875 -0.28132 0.563681
-0.133823 -0.280672 0.563858
-0.132742 -0.279982 0.563948
-0.131634 -0.279252 0.563959
-0.130548 -0.278552 0.564031
-0.129469 -0.277862 0.56412
-0.128421 -0.277216 0.564296
-0.127373 -0.27657 0.564472
-0.126246 -0.275809 0.564413
-0.125135 -0.275069 0.564397
-0.124 -0.274293 0.564307
-0.122874 -0.273532 0.56424
-0.121806 -0.272852 0.564341
-0.120786 -0.272243 0.56459
-0.119647 -0.271459 0.564473
-0.118501 -0.270662 0.564331
-0.117347 -0.269853 0.564158
-0.116182 -0.269025 0.563946
-0.115025 -0.26821 0.563753
-0.113894 -0.267428 0.563634
-0.112663 -0.266499 0.563197
-0.111354 -0.265447 0.562506
-0.110019 -0.264354 0.561719
-0.108673 -0.263241 0.560888
-0.10736 -0.262174 0.560149
-0.106144 -0.261251 0.559708
-0.104886 -0.260264 0.55913
-0.10363 -0.259277 0.558544
-0.102369 -0.25828 0.557932
-0.101075 -0.257227 0.557201
-0.099826 -0.256241 0.556606
-0.098708 -0.255459 0.556441
-0.0976304 -0.254737 0.556407
-0.0966426 -0.254153 0.556673
-0.0956937 -0.253632 0.557071
-0.0948234 -0.253236 0.557737
-0.0939208 -0.252789 0.558298
-0.0930613 -0.25241 0.559009
-0.0920956 -0.251865 0.559356
-0.091155 -0.251358 0.559792
-0.0901095 -0.250685 0.559858
-0.0890675 -0.250016 0.559936
-0.0880318 -0.249356 0.560032
-0.0869975 -0.248697 0.560128
-0.0860173 -0.248128 0.560419
-0.0850592 -0.247594 0.560792
-0.0841121 -0.247077 0.561202
-0.0831471 -0.246531 0.56155
-0.0822502 -0.246098 0.56215
-0.0813712 -0.245695 0.562819
-0.0804828 -0.245279 0.563458
-0.0796171 -0.244901 0.564184
-0.0787427 -0.24451 0.564886
-0.0778429 -0.244076 0.565494
-0.0768662 -0.243515 0.565811
-0.0759081 -0.242986 0.566198
-0.0749522 -0.24246 0.566597
-0.0740143 -0.241965 0.567066
-0.07306 -0.241441 0.567472
-0.0721372 -0.240974 0.568005
-0.0711802 -0.240448 0.568405
-0.0702421 -0.239954 0.568881
-0.069335 -0.239517 0.569484
-0.0684693 -0.23915 0.570259
-0.0675896 -0.238762 0.570983
-0.0667426 -0.238434 0.571848
-0.0658924 -0.238101 0.572707
-0.0650039 -0.237702 0.573414
-0.0641132 -0.237301 0.574114
-0.0632387 -0.23693 0.574892
-0.0623664 -0.236563 0.575682
-0.061512 -0.236232 0.576556
-0.0606732 -0.235932 0.577507
-0.0598492 -0.235661 0.578529
-0.0589937 -0.235333 0.579423
-0.0581147 -0.234966 0.580223
-0.0572633 -0.23465 0.581151
-0.0564282 -0.234369 0.582162
-0.0558704 -0.236744 0.587119
-0.0555699 -0.234046 0.583079
-0.146387 -0.288108 0.565943
-0.144236 -0.285945 0.563152
-0.143105 -0.285193 0.563128
-0.142001 -0.284474 0.563172
-0.140933 -0.283807 0.563319
-0.139782 -0.283022 0.563227
-0.138592 -0.28218 0.563024
-0.137505 -0.281486 0.56311
-0.136428 -0.280802 0.563213
-0.135376 -0.280153 0.56339
-0.134273 -0.279433 0.563419
-0.133162 -0.278699 0.563423
-0.131997 -0.277888 0.563267
-0.130883 -0.27715 0.563259
-0.12978 -0.276425 0.563274
-0.128733 -0.275779 0.56345
-0.127688 -0.275136 0.563632
-0.126566 -0.274382 0.563585
-0.125458 -0.273647 0.563574
-0.12433 -0.272883 0.563502
-0.123212 -0.272131 0.563454
-0.122147 -0.271457 0.563567
-0.121151 -0.270883 0.563883
-0.120039 -0.270138 0.563847
-0.118939 -0.269411 0.56384
-0.117836 -0.268676 0.563822
-0.116694 -0.267883 0.563679
-0.115512 -0.267031 0.563411
-0.114375 -0.266242 0.563273
-0.113139 -0.265307 0.562824
-0.111815 -0.264234 0.562082
-0.110505 -0.263182 0.561377
-0.109225 -0.262172 0.560757
-0.107916 -0.261115 0.560037
-0.106701 -0.260196 0.559603
-0.105463 -0.25924 0.559086
-0.10418 -0.258217 0.558419
-0.102877 -0.257155 0.55767
-0.101575 -0.256094 0.556914
-0.100323 -0.255107 0.556313
-0.0992071 -0.254327 0.556154
-0.0981274 -0.253605 0.556114
-0.0971402 -0.253021 0.55638
-0.09619 -0.252498 0.556771
-0.0952815 -0.252039 0.557306
-0.0943561 -0.251555 0.557785
-0.0934743 -0.25114 0.558414
-0.0925095 -0.250595 0.558762
-0.0915732 -0.250095 0.55921
-0.0905746 -0.249495 0.559438
-0.0895385 -0.248836 0.559535
-0.0885426 -0.24824 0.559769
-0.087525 -0.24761 0.559928
-0.0865695 -0.247078 0.560307
-0.0855947 -0.246518 0.560617
-0.0846646 -0.246028 0.56109
-0.0836982 -0.245479 0.561432
-0.0827829 -0.245015 0.561962
-0.0818856 -0.244582 0.562562
-0.0810153 -0.244192 0.563263
-0.0801308 -0.243784 0.56392
-0.0792593 -0.243395 0.564628
-0.078377 -0.24299 0.565299
-0.0774187 -0.24246 0.565686
-0.0764618 -0.241931 0.566079
-0.0755212 -0.24143 0.566535
-0.074564 -0.240902 0.566928
-0.0736048 -0.240372 0.567315
-0.0726804 -0.239901 0.567842
-0.0717066 -0.239345 0.568172
-0.0707671 -0.238847 0.568641
-0.0698621 -0.238412 0.569251
-0.0689803 -0.238015 0.569955
-0.0680857 -0.237599 0.570616
-0.067238 -0.237267 0.571474
-0.0663867 -0.236932 0.572327
-0.0655043 -0.236541 0.573052
-0.0646153 -0.236142 0.573759
-0.0637426 -0.235771 0.574536
-0.0628676 -0.235398 0.575314
-0.061996 -0.235034 0.576111
-0.0611577 -0.23473 0.577055
-0.0603167 -0.234427 0.578
-0.059443 -0.234065 0.578812
-0.0585449 -0.23366 0.579522
-0.0576778 -0.233311 0.580373
-0.0568285 -0.233001 0.581313
-0.0559722 -0.232678 0.582229
-0.0547256 -0.233751 0.584066
-0.0551451 -0.232411 0.583286
-0.146981 -0.287059 0.565904
-0.144794 -0.284853 0.563021
-0.143636 -0.284063 0.562924
-0.142504 -0.283309 0.562894
-0.141458 -0.282671 0.563097
-0.140309 -0.281891 0.563011
-0.139096 -0.281019 0.562746
-0.13801 -0.280326 0.562831
-0.136925 -0.279631 0.562917
-0.135846 -0.278944 0.563013
-0.134689 -0.278147 0.562889
-0.133551 -0.277376 0.562813
-0.132358 -0.276527 0.562576
-0.13122 -0.275752 0.562493
-0.130094 -0.274995 0.562441
-0.129048 -0.274351 0.562616
-0.128027 -0.273743 0.562865
-0.126933 -0.273029 0.562898
-0.125832 -0.272304 0.562906
-0.124731 -0.271579 0.562914
-0.123636 -0.270861 0.562934
-0.122573 -0.270188 0.563046
-0.12158 -0.269618 0.563368
-0.120514 -0.268942 0.563468
-0.119444 -0.268256 0.563555
-0.118366 -0.267562 0.563617
-0.117247 -0.266805 0.563548
-0.116062 -0.26595 0.563268
-0.114916 -0.26515 0.563105
-0.113681 -0.264216 0.562656
-0.112378 -0.263179 0.561989
-0.111076 -0.262139 0.561308
-0.109842 -0.261201 0.560838
-0.108535 -0.26015 0.560124
-0.107318 -0.259232 0.55969
-0.106057 -0.258247 0.559105
-0.104752 -0.257189 0.558363
-0.103424 -0.256095 0.55754
-0.102119 -0.255034 0.556777
-0.100869 -0.25405 0.556182
-0.0997542 -0.253275 0.55603
-0.098677 -0.252555 0.555996
-0.0976667 -0.251938 0.556187
-0.0966913 -0.251373 0.55649
-0.0957393 -0.250845 0.556875
-0.0947686 -0.25029 0.557197
-0.0938656 -0.249839 0.557751
-0.0928981 -0.249289 0.558085
-0.0919852 -0.248824 0.558608
-0.091032 -0.248296 0.558993
-0.0900234 -0.247679 0.559184
-0.0890503 -0.247121 0.5595
-0.0880736 -0.246557 0.559803
-0.0871202 -0.246029 0.560188
-0.0861525 -0.245477 0.560523
-0.0852402 -0.245017 0.56106
-0.0842891 -0.244493 0.561458
-0.0833534 -0.243994 0.561913
-0.0824374 -0.24353 0.562443
-0.0815638 -0.243135 0.563132
-0.0806616 -0.242693 0.56372
-0.0797876 -0.242301 0.564415
-0.0789069 -0.241899 0.565092
-0.0779522 -0.241372 0.565491
-0.0769776 -0.240815 0.565814
-0.0760373 -0.240314 0.566271
-0.0750608 -0.239753 0.566588
-0.0740862 -0.239194 0.566911
-0.0731631 -0.238723 0.567437
-0.0721895 -0.238167 0.567767
-0.0712667 -0.237699 0.5683
-0.0703814 -0.237295 0.568985
-0.0695013 -0.2369 0.569697
-0.0686054 -0.236481 0.570351
-0.0677543 -0.236141 0.57119
-0.0669028 -0.235801 0.572035
-0.0660193 -0.235407 0.572754
-0.0651357 -0.235016 0.57348
-0.0642629 -0.234645 0.574257
-0.0633879 -0.234269 0.575028
-0.062496 -0.233869 0.575736
-0.0616402 -0.233532 0.576604
-0.0607862 -0.2332 0.577485
-0.0598934 -0.2328 0.578207
-0.058976 -0.232359 0.578827
-0.0580911 -0.231976 0.579594
-0.0572265 -0.231634 0.580458
-0.0563718 -0.23131 0.581373
-0.0555619 -0.231073 0.5825
-0.0550714 -0.233558 0.587787
-0.0547608 -0.230855 0.583679
-0.14535 -0.28376 0.562885
-0.144194 -0.282973 0.562794
-0.143063 -0.28222 0.562763
-0.142041 -0.281616 0.563034
-0.140893 -0.280838 0.562954
-0.139677 -0.279965 0.562683
-0.138592 -0.279272 0.562768
-0.137478 -0.278539 0.562773
-0.13637 -0.277812 0.562791
-0.135182 -0.276974 0.56258
-0.134018 -0.276166 0.56243
-0.1328 -0.275282 0.562119
-0.131664 -0.274512 0.562042
-0.130538 -0.273756 0.561989
-0.129495 -0.273115 0.56217
-0.128477 -0.27251 0.562426
-0.127383 -0.271797 0.562459
-0.126282 -0.271072 0.562467
-0.125176 -0.27034 0.562455
-0.124079 -0.26962 0.562469
-0.123014 -0.268945 0.562575
-0.122022 -0.268375 0.562897
-0.120982 -0.267737 0.563077
-0.119939 -0.267092 0.563244
-0.118895 -0.266445 0.563405
-0.117804 -0.265731 0.563423
-0.11662 -0.264879 0.563149
-0.11547 -0.264075 0.562974
-0.114232 -0.263138 0.562519
-0.112929 -0.262105 0.561852
-0.111653 -0.261107 0.561258
-0.110443 -0.260207 0.560869
-0.109136 -0.259159 0.560155
-0.107916 -0.258239 0.559715
-0.106652 -0.257251 0.559124
-0.105325 -0.256164 0.558314
-0.103996 -0.255071 0.55749
-0.102713 -0.254045 0.556803
-0.101465 -0.25307 0.55622
-0.100356 -0.252303 0.556087
-0.0992795 -0.251586 0.556059
-0.0982418 -0.250928 0.556156
-0.0972214 -0.250294 0.556309
-0.09622 -0.24969 0.556525
-0.095206 -0.249066 0.556697
-0.0942564 -0.248542 0.557087
-0.0932879 -0.24799 0.557415
-0.092378 -0.247526 0.557944
-0.0914688 -0.247067 0.55848
-0.0904838 -0.24649 0.558752
-0.089535 -0.245967 0.559149
-0.0885994 -0.245466 0.559597
-0.0876671 -0.244973 0.560057
-0.0867046 -0.244429 0.560411
-0.0858119 -0.244 0.561017
-0.0848783 -0.243504 0.561478
-0.0839235 -0.242974 0.561863
-0.0829875 -0.242476 0.562318
-0.0821121 -0.242078 0.563
-0.0811868 -0.241597 0.5635
-0.0803151 -0.241206 0.564201
-0.0794336 -0.240801 0.564871
-0.0784827 -0.240281 0.565283
-0.0775095 -0.239725 0.565613
-0.0765863 -0.239253 0.566132
-0.0756114 -0.238695 0.566456
-0.0746404 -0.23814 0.566792
-0.0737192 -0.237672 0.567324
-0.0727436 -0.237115 0.567648
-0.0718247 -0.236651 0.568193
-0.0709394 -0.236247 0.568879
-0.0700631 -0.235856 0.569602
-0.0691649 -0.235432 0.570244
-0.0682933 -0.235055 0.571
-0.067421 -0.234678 0.571757
-0.0665365 -0.234281 0.572469
-0.0656571 -0.233893 0.573208
-0.0647852 -0.233523 0.573984
-0.0639105 -0.233147 0.574756
-0.0630181 -0.23274 0.575457
-0.0621292 -0.232344 0.576178
-0.0612566 -0.231976 0.576976
-0.0603617 -0.231573 0.577685
-0.0594467 -0.231131 0.578311
-0.0585443 -0.230716 0.578995
-0.0576797 -0.230369 0.579852
-0.0568058 -0.230009 0.580678
-0.0559796 -0.229737 0.581721
-0.0551803 -0.229519 0.5829
-0.0539421 -0.230606 0.584789
-0.0543661 -0.229274 0.584022
-0.0538004 -0.231628 0.589025
-0.0535023 -0.228941 0.584926
-0.147057 -0.284234 0.565866
-0.144835 -0.281997 0.56289
-0.143703 -0.281244 0.56286
-0.142659 -0.280609 0.563069
-0.14151 -0.279831 0.562989
-0.140294 -0.27896 0.562719
-0.139204 -0.278262 0.562791
-0.138066 -0.277494 0.562729
-0.136929 -0.276729 0.562666
-0.135741 -0.275892 0.562455
-0.134574 -0.275083 0.562299
-0.133333 -0.274168 0.561927
-0.132172 -0.273365 0.561776
-0.131046 -0.272607 0.561723
-0.129977 -0.271931 0.56183
-0.128959 -0.271326 0.562085
-0.127866 -0.270614 0.562118
-0.126763 -0.269887 0.562119
-0.125653 -0.269151 0.562096
-0.124552 -0.268425 0.562097
-0.123463 -0.267715 0.562128
-0.122471 -0.267146 0.56245
-0.121456 -0.266543 0.562704
-0.120441 -0.265938 0.562952
-0.119425 -0.265332 0.5632
-0.118362 -0.26466 0.563305
-0.117226 -0.26388 0.56318
-0.116105 -0.263118 0.563098
-0.114889 -0.262217 0.562711
-0.11361 -0.261221 0.562125
-0.11235 -0.260253 0.561587
-0.11112 -0.259325 0.561136
-0.109807 -0.258271 0.56041
-0.108563 -0.257317 0.559895
-0.107293 -0.256324 0.559286
-0.105986 -0.25527 0.558551
-0.104677 -0.254213 0.557796
-0.103398 -0.253196 0.557128
-0.102191 -0.252285 0.556683
-0.101083 -0.251521 0.556556
-0.0999849 -0.250772 0.55646
-0.0989232 -0.250079 0.556482
-0.0978745 -0.249404 0.556542
-0.0968075 -0.2487 0.556538
-0.095749 -0.248008 0.55656
-0.0947557 -0.247416 0.5568
-0.093766 -0.24683 0.557053
-0.0928367 -0.246336 0.557513
-0.0919482 -0.245908 0.558117
-0.0910081 -0.245399 0.558546
-0.0900795 -0.244908 0.559012
-0.0891832 -0.244469 0.559598
-0.0882704 -0.244005 0.560128
-0.0873081 -0.243464 0.560481
-0.0863992 -0.243008 0.56103
-0.0854851 -0.242543 0.56156
-0.0845319 -0.242015 0.561952
-0.0835958 -0.241517 0.562407
-0.0827206 -0.241117 0.563089
-0.0817901 -0.24063 0.56357
-0.0809165 -0.240235 0.564265
-0.0800216 -0.239804 0.564885
-0.0790692 -0.239284 0.565291
-0.0780946 -0.238725 0.565614
-0.0771716 -0.238251 0.566133
-0.0761818 -0.237667 0.5664
-0.0752086 -0.237113 0.56673
-0.074289 -0.236647 0.567269
-0.0733141 -0.236089 0.567592
-0.072395 -0.235624 0.568138
-0.0715139 -0.235224 0.568835
-0.0706372 -0.234834 0.569559
-0.0697396 -0.23441 0.570201
-0.0688519 -0.234002 0.570887
-0.0679595 -0.233589 0.571561
-0.067055 -0.233158 0.572191
-0.0661749 -0.232767 0.572922
-0.0652898 -0.232371 0.573642
-0.0644165 -0.231995 0.574413
-0.063523 -0.231587 0.575108
-0.062614 -0.231153 0.575739
-0.0617241 -0.230753 0.57646
-0.0608324 -0.23035 0.577175
-0.0599181 -0.229912 0.577801
-0.0590036 -0.22947 0.578428
-0.058153 -0.229147 0.579342
-0.0572761 -0.228778 0.580148
-0.0564351 -0.228477 0.581121
-0.0556363 -0.228256 0.582293
-0.0548225 -0.228008 0.583408
-0.0539599 -0.227673 0.584312
-0.0526332 -0.228602 0.585819
-0.0531064 -0.22736 0.585269
-0.0523872 -0.229433 0.589616
-0.0521859 -0.226924 0.585924
-0.146601 -0.282547 0.566038
-0.144402 -0.280347 0.563115
-0.143361 -0.279718 0.563337
-0.14221 -0.27894 0.563251
-0.141044 -0.278137 0.563122
-0.139955 -0.27744 0.563202
-0.138818 -0.276679 0.563145
-0.137656 -0.27588 0.563015
-0.136438 -0.275003 0.562725
-0.135243 -0.274155 0.562488
-0.134003 -0.273244 0.562123
-0.132815 -0.272406 0.561898
-0.131685 -0.271645 0.561833
-0.130611 -0.27096 0.561928
-0.129566 -0.270317 0.562103
-0.128448 -0.269573 0.562068
-0.127345 -0.268847 0.562069
-0.126211 -0.268078 0.561978
-0.125086 -0.267318 0.561904
-0.12397 -0.266572 0.561862
-0.122955 -0.265968 0.562109
-0.12194 -0.265365 0.562363
-0.120972 -0.264828 0.562753
-0.119982 -0.264261 0.563081
-0.118969 -0.26366 0.563335
-0.117883 -0.262953 0.563365
-0.116788 -0.262232 0.563364
-0.115576 -0.261339 0.562996
-0.11432 -0.260379 0.562485
-0.113058 -0.259411 0.561948
-0.111801 -0.258446 0.561416
-0.110485 -0.257391 0.560684
-0.109212 -0.256399 0.560082
-0.10794 -0.255404 0.559473
-0.106654 -0.254386 0.558807
-0.105371 -0.253369 0.558139
-0.104094 -0.252361 0.557484
-0.102926 -0.25151 0.55717
-0.101791 -0.250711 0.556962
-0.10067 -0.249926 0.556792
-0.0995853 -0.249201 0.556739
-0.098517 -0.248495 0.556736
-0.0973846 -0.247693 0.556514
-0.0963014 -0.246964 0.556454
-0.0952642 -0.246305 0.556544
-0.0942528 -0.245685 0.556721
-0.0933036 -0.24516 0.557112
-0.0924361 -0.244762 0.557785
-0.0915151 -0.244282 0.558276
-0.090611 -0.24383 0.558831
-0.0897349 -0.243423 0.559486
-0.0888422 -0.242989 0.560084
-0.0878987 -0.242476 0.560508
-0.0870099 -0.24205 0.561126
-0.0861164 -0.241619 0.561731
-0.0851839 -0.241126 0.562199
-0.0842505 -0.240632 0.562667
-0.0833753 -0.24023 0.563349
-0.0824257 -0.239713 0.56376
-0.0815524 -0.239315 0.564456
-0.0806371 -0.238854 0.565
-0.0796843 -0.238331 0.565405
-0.0786895 -0.23774 0.565653
-0.0777614 -0.237259 0.566153
-0.0767533 -0.236644 0.566351
-0.0757805 -0.23609 0.56668
-0.0748595 -0.235621 0.567213
-0.0738844 -0.235062 0.567536
-0.072964 -0.234594 0.568075
-0.0720812 -0.234192 0.568767
-0.0712054 -0.233802 0.56949
-0.0703112 -0.233381 0.570145
-0.0694237 -0.232974 0.570831
-0.0685146 -0.232531 0.571435
-0.0675906 -0.232064 0.571982
-0.0666895 -0.231635 0.572625
-0.0658049 -0.23124 0.573344
-0.0649339 -0.230866 0.574121
-0.0640426 -0.23046 0.574822
-0.0631323 -0.230022 0.575447
-0.0622391 -0.229615 0.576149
-0.0613315 -0.229182 0.576794
-0.0604225 -0.228751 0.577439
-0.0595105 -0.228313 0.578071
-0.0586461 -0.227963 0.578921
-0.0577694 -0.227591 0.579721
-0.0569261 -0.227283 0.580681
-0.0560977 -0.227004 0.581712
-0.0552819 -0.226752 0.582814
-0.0544349 -0.226442 0.583782
-0.0535824 -0.226128 0.584738
-0.0526952 -0.22575 0.585541
-0.145187 -0.279565 0.563604
-0.144119 -0.278899 0.563752
-0.142946 -0.278092 0.563612
-0.141804 -0.277324 0.56355
-0.140716 -0.276632 0.563636
-0.139582 -0.275876 0.563592
-0.138393 -0.27504 0.563389
-0.137169 -0.274158 0.563086
-0.135942 -0.273268 0.562764
-0.134699 -0.272357 0.562392
-0.133515 -0.271523 0.56218
-0.132379 -0.270758 0.562103
-0.131298 -0.270064 0.56218
-0.130248 -0.269416 0.562342
-0.12913 -0.268671 0.562307
-0.12803 -0.267952 0.562321
-0.126921 -0.267218 0.562304
-0.125771 -0.266426 0.562163
-0.124629 -0.265643 0.56204
-0.123585 -0.264999 0.562208
-0.122544 -0.264359 0.562381
-0.121555 -0.263792 0.562709
-0.120565 -0.263226 0.563037
-0.119576 -0.262659 0.563365
-0.118536 -0.26202 0.563538
-0.117493 -0.261374 0.563699
-0.116311 -0.260528 0.563431
-0.115076 -0.259602 0.562988
-0.113809 -0.25863 0.562439
-0.112502 -0.257593 0.561752
-0.111157 -0.256502 0.560939
-0.10986 -0.255476 0.560263
-0.108589 -0.254487 0.55966
-0.107325 -0.253504 0.559069
-0.106069 -0.252532 0.558495
-0.104814 -0.251557 0.557914
-0.103665 -0.250738 0.55767
-0.102503 -0.249899 0.557375
-0.101356 -0.249079 0.557123
-0.100267 -0.248348 0.557058
-0.0991575 -0.247584 0.556924
-0.0980059 -0.246754 0.55664
-0.0969168 -0.246016 0.556561
-0.0958552 -0.245321 0.55657
-0.0948213 -0.244668 0.556672
-0.0938708 -0.24414 0.557056
-0.0930011 -0.24374 0.557723
-0.092102 -0.243293 0.55829
-0.0912037 -0.242848 0.558863
-0.0903333 -0.242449 0.559537
-0.0894423 -0.242015 0.560142
-0.0885131 -0.241526 0.560615
-0.0876237 -0.2411 0.561234
-0.0867724 -0.240732 0.56199
-0.0858638 -0.240278 0.562546
-0.0849721 -0.23985 0.563165
-0.084098 -0.23945 0.563854
-0.0831665 -0.23896 0.564335
-0.0822718 -0.238531 0.564955
-0.0813375 -0.238038 0.56543
-0.0803454 -0.237452 0.565691
-0.0793248 -0.23682 0.565844
-0.0783599 -0.236277 0.566205
-0.0773269 -0.235626 0.566307
-0.0763559 -0.235071 0.566643
-0.0754151 -0.234569 0.5671
-0.0744389 -0.234008 0.567417
-0.0735152 -0.233535 0.567943
-0.0726328 -0.233133 0.568635
-0.0717563 -0.23274 0.569352
-0.0708808 -0.23235 0.570082
-0.0699953 -0.231945 0.570775
-0.0690693 -0.231473 0.571309
-0.0681256 -0.230971 0.571773
-0.0672199 -0.230534 0.572397
-0.0663351 -0.230134 0.57311
-0.0654523 -0.229739 0.573836
-0.0645635 -0.229335 0.574543
-0.0636525 -0.228895 0.575161
-0.0627403 -0.228453 0.57578
-0.0618154 -0.227989 0.576348
-0.0609237 -0.227586 0.577063
-0.0600152 -0.227154 0.577708
-0.0591533 -0.226806 0.578565
-0.0582772 -0.226434 0.579364
-0.0574338 -0.226122 0.580317
-0.056589 -0.225811 0.581271
-0.055775 -0.225557 0.582373
-0.0549266 -0.225246 0.583335
-0.0540762 -0.224931 0.58429
-0.053222 -0.224611 0.58524
-0.0524974 -0.226656 0.589557
-0.0523353 -0.224236 0.58605
-0.14591 -0.279471 0.566983
-0.143706 -0.277275 0.564033
-0.142589 -0.276545 0.564046
-0.141507 -0.275861 0.56415
-0.140374 -0.275107 0.564113
-0.139154 -0.274233 0.56383
-0.137917 -0.273335 0.56349
-0.136683 -0.272438 0.563157
-0.135442 -0.271531 0.562791
-0.134286 -0.27074 0.562666
-0.133179 -0.270015 0.562675
-0.132117 -0.26935 0.562807
-0.131039 -0.268665 0.562896
-0.12992 -0.26792 0.562862
-0.128799 -0.267172 0.562814
-0.127693 -0.266444 0.56281
-0.126515 -0.265615 0.562595
-0.125341 -0.264789 0.562379
-0.124265 -0.264102 0.562454
-0.12322 -0.263456 0.562615
-0.12223 -0.262889 0.562944
-0.121244 -0.262327 0.563285
-0.120279 -0.261794 0.563687
-0.119261 -0.261187 0.563929
-0.118218 -0.260546 0.564096
-0.11706 -0.259735 0.563902
-0.115826 -0.258813 0.563466
-0.114556 -0.257839 0.562917
-0.113198 -0.256734 0.562075
-0.111848 -0.255638 0.56125
-0.110506 -0.254549 0.560437
-0.109234 -0.253562 0.559834
-0.107992 -0.252613 0.559318
-0.106761 -0.251679 0.558826
-0.105506 -0.25071 0.558252
-0.104377 -0.249923 0.558076
-0.103211 -0.24908 0.557775
-0.102038 -0.248227 0.557442
-0.100948 -0.247494 0.557378
-0.0998367 -0.246728 0.557238
-0.0986816 -0.245896 0.556947
-0.097571 -0.245129 0.5568
-0.0965069 -0.24443 0.556802
-0.0954706 -0.243774 0.556899
-0.0945015 -0.243217 0.557221
-0.0936138 -0.242787 0.557825
-0.0927308 -0.242367 0.558448
-0.0918364 -0.241925 0.559033
-0.0909695 -0.241531 0.55972
-0.0900979 -0.241128 0.560394
-0.0891878 -0.240669 0.560937
-0.0883178 -0.240273 0.561624
-0.0874919 -0.239945 0.562476
-0.0866071 -0.239527 0.56312
-0.0857356 -0.239132 0.563815
-0.0848593 -0.238729 0.564498
-0.0839267 -0.238239 0.564979
-0.083014 -0.237779 0.565537
-0.0820571 -0.23725 0.56593
-0.0810418 -0.236628 0.566109
-0.0799974 -0.23596 0.566173
-0.0790105 -0.235381 0.566453
-0.0779751 -0.234726 0.566549
-0.0770018 -0.23417 0.566879
-0.0760608 -0.233668 0.567335
-0.075102 -0.233136 0.567722
-0.0741604 -0.232633 0.568179
-0.0732604 -0.232199 0.568801
-0.0723657 -0.231775 0.569448
-0.0714718 -0.231353 0.570103
-0.0705688 -0.230919 0.570725
-0.0696257 -0.230418 0.571189
-0.0686635 -0.229884 0.571577
-0.0677383 -0.229412 0.572118
-0.0668511 -0.229008 0.572818
-0.0659686 -0.228612 0.573544
-0.0650854 -0.228215 0.57427
-0.064176 -0.227777 0.574895
-0.0632635 -0.227331 0.575507
-0.0623163 -0.22683 0.57598
-0.0614082 -0.226394 0.576618
-0.0605164 -0.225989 0.577333
-0.0596566 -0.225645 0.578196
-0.0587991 -0.225302 0.579071
-0.0579556 -0.224989 0.580018
-0.0571111 -0.224676 0.580972
-0.0562827 -0.224392 0.582003
-0.0554184 -0.22405 0.582887
-0.0545548 -0.223708 0.583779
-0.0537034 -0.223391 0.584735
-0.0528347 -0.223045 0.585621
-0.0521048 -0.225074 0.589927
-0.0519185 -0.222615 0.586296
-0.14431 -0.277022 0.567107
-0.142236 -0.275003 0.564492
-0.141102 -0.27425 0.564456
-0.139855 -0.27334 0.564099
-0.138586 -0.272401 0.563673
-0.137371 -0.271532 0.563395
-0.136157 -0.270665 0.56311
-0.135037 -0.269924 0.563089
-0.133964 -0.269245 0.563198
-0.132952 -0.268653 0.563478
-0.131848 -0.267931 0.563494
-0.130727 -0.267188 0.563459
-0.129604 -0.266438 0.563413
-0.128492 -0.265706 0.563396
-0.127287 -0.26484 0.563101
-0.126109 -0.26401 0.56288
-0.125003 -0.263281 0.562868
-0.123931 -0.2626 0.562955
-0.122939 -0.262031 0.563277
-0.121953 -0.261469 0.563618
-0.120987 -0.260935 0.564021
-0.119992 -0.260363 0.564337
-0.118973 -0.259754 0.564579
-0.117838 -0.258979 0.564461
-0.116623 -0.25809 0.564093
-0.115329 -0.257083 0.56347
-0.11394 -0.255939 0.562541
-0.112563 -0.254806 0.561636
-0.111172 -0.253651 0.560674
-0.109877 -0.252632 0.560003
-0.108652 -0.251713 0.559542
-0.107421 -0.250781 0.559057
-0.106169 -0.249819 0.558495
-0.105061 -0.249064 0.558389
-0.103897 -0.248228 0.558101
-0.102723 -0.247373 0.557768
-0.10163 -0.246638 0.557697
-0.100516 -0.24587 0.557551
-0.0993618 -0.245041 0.557267
-0.0982503 -0.244274 0.55712
-0.0971852 -0.243577 0.557123
-0.0961506 -0.242923 0.557225
-0.09518 -0.242367 0.557548
-0.0942727 -0.241905 0.558083
-0.0933872 -0.241481 0.558699
-0.092507 -0.241063 0.559335
-0.0916416 -0.24067 0.560028
-0.0907736 -0.240271 0.560716
-0.0899043 -0.239873 0.561403
-0.0890562 -0.239512 0.562173
-0.088234 -0.23919 0.563037
-0.08737 -0.238804 0.563757
-0.08652 -0.23844 0.564534
-0.0856215 -0.238004 0.565142
-0.0846866 -0.237511 0.565617
-0.0837511 -0.237016 0.566093
-0.0827745 -0.236456 0.566417
-0.0817532 -0.235826 0.566577
-0.080706 -0.235155 0.566635
-0.0797 -0.234546 0.566846
-0.078665 -0.233892 0.566948
-0.0776912 -0.233336 0.567278
-0.0767349 -0.232809 0.567678
-0.0757758 -0.232277 0.568065
-0.0748172 -0.231747 0.568459
-0.0738976 -0.23128 0.569005
-0.0729822 -0.230823 0.56957
-0.0720657 -0.230363 0.570135
-0.0711441 -0.229896 0.570682
-0.0701991 -0.229392 0.57114
-0.0692201 -0.228829 0.571458
-0.0682934 -0.228354 0.571992
-0.0674068 -0.227948 0.572692
-0.0665263 -0.227554 0.573424
-0.065643 -0.227157 0.574151
-0.0647515 -0.226747 0.574845
-0.0638204 -0.226271 0.575381
-0.062856 -0.225737 0.575777
-0.0619419 -0.225292 0.576389
-0.0610513 -0.224886 0.577104
-0.0601775 -0.224515 0.577903
-0.0593366 -0.224201 0.578849
-0.0585114 -0.223916 0.579872
-0.0576505 -0.223573 0.580749
-0.0568069 -0.22326 0.581709
-0.0559429 -0.222914 0.582587
-0.0550629 -0.222541 0.583402
-0.0542245 -0.222247 0.584415
-0.0533595 -0.221905 0.585314
-0.0524612 -0.221504 0.586066
-0.139005 -0.271908 0.566286
-0.136824 -0.269731 0.563293
-0.135765 -0.269075 0.563445
-0.134724 -0.268442 0.563646
-0.133765 -0.267922 0.564081
-0.132682 -0.267232 0.564165
-0.13156 -0.266488 0.564131
-0.130429 -0.265731 0.564066
-0.129318 -0.264999 0.564056
-0.128082 -0.264093 0.563675
-0.126875 -0.263226 0.563373
-0.125745 -0.262466 0.563294
-0.12465 -0.261752 0.563313
-0.123658 -0.261184 0.563642
-0.12267 -0.26062 0.563977
-0.121726 -0.260119 0.564448
-0.120733 -0.259549 0.564771
-0.119715 -0.258942 0.565019
-0.118601 -0.258199 0.564969
-0.117405 -0.25734 0.564664
-0.116113 -0.256339 0.564054
-0.114724 -0.255197 0.563132
-0.113313 -0.254023 0.562127
-0.111891 -0.252825 0.561072
-0.110543 -0.251734 0.560239
-0.109273 -0.250752 0.559642
-0.108037 -0.249818 0.559144
-0.106827 -0.248919 0.55872
-0.105724 -0.248172 0.558632
-0.104606 -0.247404 0.558494
-0.103472 -0.246614 0.558299
-0.102384 -0.245886 0.558248
-0.101266 -0.245115 0.558096
-0.100131 -0.244318 0.557881
-0.0990202 -0.243554 0.55774
-0.097957 -0.242862 0.557756
-0.0969395 -0.242236 0.557922
-0.0959702 -0.241682 0.55825
-0.0950413 -0.241189 0.558717
-0.0941339 -0.240728 0.559259
-0.0932258 -0.240269 0.559801
-0.0923579 -0.239872 0.560488
-0.0914929 -0.239478 0.561188
-0.0906482 -0.239118 0.561963
-0.0898228 -0.238791 0.562815
-0.0889985 -0.238464 0.563673
-0.0881153 -0.238048 0.564331
-0.0872407 -0.237648 0.56502
-0.0863229 -0.23718 0.565559
-0.0853857 -0.236682 0.566028
-0.0844288 -0.236154 0.566428
-0.0834511 -0.235594 0.566752
-0.0824284 -0.234963 0.566906
-0.0813837 -0.234296 0.566978
-0.0803598 -0.23366 0.567125
-0.0793427 -0.233037 0.567297
-0.0783716 -0.232485 0.56764
-0.0774146 -0.231959 0.56804
-0.0764564 -0.231428 0.568434
-0.0754979 -0.230897 0.568828
-0.0745564 -0.230396 0.569291
-0.0736183 -0.2299 0.569768
-0.0726793 -0.229402 0.570244
-0.0717365 -0.2289 0.570708
-0.070773 -0.228365 0.57109
-0.0697939 -0.227802 0.571408
-0.0688514 -0.227301 0.571879
-0.0679635 -0.226892 0.572572
-0.0670826 -0.226495 0.573298
-0.0662013 -0.2261 0.574031
-0.0653117 -0.225691 0.574732
-0.0643792 -0.225213 0.575261
-0.0633968 -0.224649 0.57558
-0.0624652 -0.224172 0.576116
-0.0615736 -0.223763 0.576825
-0.0606847 -0.223363 0.577553
-0.0598638 -0.223081 0.578582
-0.0590555 -0.222824 0.579675
-0.0581996 -0.222486 0.580571
-0.0573365 -0.222138 0.581442
-0.0564689 -0.221783 0.5823
-0.0555516 -0.221341 0.582942
-0.0547134 -0.221044 0.583949
-0.0538494 -0.220702 0.584847
-0.0529516 -0.220301 0.585599
-0.052229 -0.222323 0.589931
-0.052029 -0.219857 0.586242
-0.136619 -0.269176 0.567318
-0.134668 -0.26731 0.564943
-0.133583 -0.266619 0.565021
-0.132458 -0.265872 0.564981
-0.132357 -0.26653 0.567906
-0.112261 -0.252349 0.563802
-0.109877 -0.249767 0.559686
-0.10866 -0.24886 0.559251
-0.107492 -0.248025 0.558964
-0.106391 -0.247286 0.558889
-0.10532 -0.246588 0.558907
-0.104233 -0.245866 0.558868
-0.103165 -0.24517 0.558886
-0.10207 -0.244437 0.558815
-0.100975 -0.2437 0.558738
-0.0998846 -0.24297 0.558674
-0.0988427 -0.24231 0.558765
-0.0978268 -0.241689 0.558944
-0.096832 -0.241098 0.559191
-0.0958775 -0.240568 0.559577
-0.0949452 -0.240071 0.560038
-0.0940141 -0.239579 0.560505
-0.0931475 -0.239181 0.561199
-0.0922828 -0.23879 0.561905
-0.0914178 -0.2384 0.562612
-0.0905732 -0.238039 0.563394
-0.0897263 -0.237678 0.564178
-0.0888166 -0.237222 0.564741
-0.0879383 -0.236814 0.565418
-0.087018 -0.236344 0.56595
-0.0860991 -0.235875 0.566489
-0.0851433 -0.235349 0.566896
-0.0841636 -0.234787 0.567214
-0.0831239 -0.234129 0.567311
-0.0820799 -0.233465 0.567389
-0.0810573 -0.232833 0.567543
-0.0800615 -0.232244 0.567798
-0.0790873 -0.23169 0.568135
-0.0781298 -0.231162 0.568535
-0.0771672 -0.230626 0.568916
-0.0761886 -0.230061 0.569234
-0.0752094 -0.2295 0.569552
-0.0742492 -0.228969 0.569946
-0.0732896 -0.228437 0.570341
-0.072326 -0.227902 0.570722
-0.0713642 -0.227367 0.57111
-0.0704037 -0.226835 0.571505
-0.0694789 -0.226362 0.572045
-0.0685907 -0.225954 0.572739
-0.0677093 -0.225557 0.573465
-0.0668085 -0.225127 0.574114
-0.065902 -0.224689 0.574746
-0.0649547 -0.224184 0.575211
-0.0639723 -0.223619 0.57553
-0.0630247 -0.223114 0.575996
-0.0621301 -0.222701 0.576692
-0.0612434 -0.222302 0.577426
-0.0604228 -0.222019 0.578455
-0.0596179 -0.221766 0.579561
-0.0587792 -0.221455 0.580527
-0.0579012 -0.221077 0.581328
-0.0570136 -0.220686 0.582097
-0.0560737 -0.220206 0.582635
-0.0552039 -0.219849 0.583495
-0.0543243 -0.219475 0.584316
-0.0534304 -0.219079 0.58508
-0.0525226 -0.21866 0.585787
-0.0517715 -0.220626 0.589999
-0.0515588 -0.21814 0.586238
-0.136563 -0.268035 0.568616
-0.135504 -0.267385 0.568789
-0.111564 -0.250334 0.563163
-0.109239 -0.247842 0.559219
-0.108116 -0.247073 0.559076
-0.107043 -0.246374 0.559095
-0.106016 -0.245743 0.559257
-0.104975 -0.245089 0.559368
-0.103931 -0.244431 0.559474
-0.102881 -0.243763 0.559554
-0.101828 -0.24309 0.559621
-0.100761 -0.242397 0.559638
-0.0997599 -0.241799 0.559874
-0.0987811 -0.241236 0.560185
-0.0977841 -0.240645 0.560433
-0.096806 -0.24008 0.560744
-0.0958457 -0.239545 0.561117
-0.0948733 -0.238989 0.561447
-0.0939839 -0.238559 0.562066
-0.0931185 -0.238165 0.562773
-0.0922538 -0.237775 0.563486
-0.0914023 -0.237407 0.564251
-0.0905282 -0.237003 0.56494
-0.0895912 -0.236506 0.565409
-0.0886732 -0.236037 0.565948
-0.0877346 -0.235537 0.566417
-0.0867982 -0.235042 0.566893
-0.0858434 -0.234518 0.567306
-0.0848648 -0.233958 0.567631
-0.0838415 -0.233327 0.567792
-0.0828152 -0.232693 0.56794
-0.0818113 -0.232091 0.568169
-0.0808327 -0.231532 0.568494
-0.0798414 -0.230949 0.568768
-0.0788594 -0.230385 0.56908
-0.0778748 -0.229813 0.569379
-0.0768551 -0.229186 0.569546
-0.075838 -0.228564 0.569718
-0.074859 -0.228001 0.570036
-0.0738794 -0.227438 0.570354
-0.0729176 -0.226904 0.570742
-0.0719742 -0.226401 0.571207
-0.0710345 -0.225902 0.571684
-0.0701129 -0.225435 0.572237
-0.0692245 -0.225024 0.572931
-0.0683213 -0.22459 0.573568
-0.0674032 -0.224131 0.574148
-0.0664768 -0.22366 0.574696
-0.0655302 -0.223154 0.575161
-0.0645477 -0.22259 0.57548
-0.0635833 -0.222056 0.575876
-0.0626876 -0.22164 0.576565
-0.0618004 -0.221237 0.577293
-0.060982 -0.220956 0.578328
-0.0601796 -0.220705 0.579441
-0.0593573 -0.220421 0.580477
-0.0584472 -0.219987 0.581137
-0.0575262 -0.219536 0.581752
-0.0565681 -0.21902 0.582207
-0.0556655 -0.218603 0.582913
-0.0547699 -0.2182 0.583657
-0.0538928 -0.217831 0.584491
-0.0530029 -0.217442 0.585275
-0.052044 -0.21693 0.585744
-0.0512543 -0.218818 0.589784
-0.0510338 -0.216325 0.585976
-0.107736 -0.24637 0.562909
-0.105688 -0.244267 0.559774
-0.104667 -0.243643 0.559955
-0.103662 -0.243043 0.560185
-0.102658 -0.242443 0.560422
-0.101655 -0.241846 0.560658
-0.1007 -0.241317 0.561051
-0.0997451 -0.240789 0.561451
-0.0987464 -0.240197 0.561699
-0.0977603 -0.239624 0.561992
-0.0967767 -0.239054 0.562291
-0.0957818 -0.238466 0.562552
-0.0948685 -0.238003 0.563096
-0.093979 -0.237574 0.563722
-0.0930895 -0.237145 0.564354
-0.0921942 -0.236711 0.564968
-0.0912765 -0.236242 0.565507
-0.0903177 -0.23571 0.565901
-0.0893773 -0.235208 0.566364
-0.0884195 -0.23468 0.566764
-0.0874857 -0.234189 0.567253
-0.0865304 -0.233664 0.567667
-0.0855507 -0.233103 0.567992
-0.0845443 -0.232501 0.568215
-0.0835358 -0.231893 0.568433
-0.0825324 -0.231294 0.56867
-0.0815538 -0.230735 0.568994
-0.0805593 -0.23015 0.569262
-0.0795568 -0.229552 0.569499
-0.0785297 -0.228915 0.56964
-0.0774864 -0.228252 0.569718
-0.0764493 -0.227597 0.569814
-0.0754503 -0.227003 0.570056
-0.0744529 -0.226412 0.570305
-0.0735105 -0.225908 0.570769
-0.0725884 -0.225439 0.571316
-0.0716704 -0.224977 0.571882
-0.0707706 -0.224545 0.572524
-0.069882 -0.224133 0.573218
-0.0689585 -0.223664 0.573773
-0.0680156 -0.223164 0.574251
-0.0670688 -0.22266 0.574716
-0.0661053 -0.222125 0.575111
-0.0651229 -0.221561 0.575431
-0.0641571 -0.221024 0.57582
-0.0632458 -0.220578 0.576439
-0.0623549 -0.220172 0.577154
-0.0615215 -0.219861 0.578119
-0.0607044 -0.21958 0.579161
-0.0598666 -0.219269 0.580127
-0.0589541 -0.21883 0.580773
-0.058018 -0.21835 0.581318
-0.0570608 -0.217834 0.581773
-0.0561544 -0.21741 0.582459
-0.0552586 -0.217004 0.583197
-0.0543967 -0.216659 0.584095
-0.0535285 -0.216307 0.584974
-0.0526067 -0.215858 0.585611
-0.0516334 -0.215322 0.586016
-0.106483 -0.244406 0.563948
-0.104477 -0.242367 0.56093
-0.104642 -0.243463 0.565013
-0.103789 -0.243087 0.565771
-0.102908 -0.242674 0.566442
-0.101935 -0.242126 0.566806
-0.100849 -0.241414 0.566795
-0.0987655 -0.239234 0.563403
-0.0977547 -0.238626 0.563622
-0.0967087 -0.237967 0.563714
-0.0957502 -0.237435 0.564108
-0.0948172 -0.236942 0.56459
-0.0938857 -0.236452 0.565078
-0.0929495 -0.235956 0.565553
-0.0920094 -0.235453 0.566017
-0.0910482 -0.234919 0.566405
-0.0901074 -0.234417 0.566868
-0.0891693 -0.233919 0.567345
-0.0882318 -0.233422 0.567821
-0.0872724 -0.232892 0.568222
-0.0862694 -0.232296 0.568465
-0.0852443 -0.231666 0.568627
-0.0842193 -0.231035 0.568788
-0.0832177 -0.23044 0.569031
-0.0822378 -0.229879 0.569356
-0.0812398 -0.229288 0.569611
-0.0802367 -0.228689 0.569848
-0.0792069 -0.228049 0.569983
-0.0781617 -0.227383 0.570054
-0.0771204 -0.226724 0.570138
-0.0761189 -0.226127 0.570374
-0.0751194 -0.225533 0.570616
-0.0741777 -0.225031 0.571087
-0.0732587 -0.224566 0.571647
-0.0723438 -0.22411 0.572226
-0.0714257 -0.223649 0.572799
-0.0705207 -0.223206 0.573423
-0.0695742 -0.222701 0.573888
-0.0686109 -0.222168 0.574284
-0.0676459 -0.221632 0.574672
-0.0666807 -0.221096 0.575062
-0.0656983 -0.220531 0.575381
-0.0647159 -0.219967 0.5757
-0.0637864 -0.21949 0.576242
-0.0628935 -0.219078 0.576944
-0.0620433 -0.218736 0.577832
-0.0612068 -0.218423 0.578791
-0.0603677 -0.218104 0.579744
-0.0594564 -0.217665 0.580391
-0.0585012 -0.217154 0.580852
-0.0575455 -0.216638 0.581307
-0.0566085 -0.216158 0.581852
-0.0557122 -0.215751 0.582582
-0.0548518 -0.215405 0.58348
-0.0539895 -0.215059 0.584379
-0.0531016 -0.214671 0.585169
-0.0521958 -0.214251 0.585882
-0.0996722 -0.239569 0.568125
-0.097557 -0.237342 0.564599
-0.0965516 -0.236743 0.564837
-0.0955716 -0.236182 0.565162
-0.0946158 -0.235655 0.565568
-0.0936575 -0.235125 0.565969
-0.0926956 -0.234592 0.566357
-0.0917547 -0.234088 0.566821
-0.0908347 -0.233618 0.56736
-0.0899192 -0.233153 0.567919
-0.0889614 -0.232625 0.568326
-0.0879937 -0.232086 0.568702
-0.0869658 -0.231453 0.568857
-0.0859213 -0.230793 0.568949
-0.0848806 -0.230138 0.569054
-0.0838965 -0.229571 0.569366
-0.0829163 -0.229009 0.569692
-0.0819158 -0.228417 0.569941
-0.0809121 -0.227819 0.570178
-0.0798866 -0.227185 0.570332
-0.0788424 -0.226523 0.57041
-0.077798 -0.225861 0.570488
-0.0767957 -0.225263 0.570724
-0.0757959 -0.224668 0.570967
-0.0748523 -0.224165 0.571431
-0.0739311 -0.223697 0.571984
-0.0730158 -0.223237 0.572564
-0.0720948 -0.222771 0.573124
-0.0711678 -0.222297 0.573666
-0.0702035 -0.22176 0.574054
-0.069221 -0.221195 0.574374
-0.0682386 -0.220631 0.574693
-0.0672562 -0.220066 0.575012
-0.0662738 -0.219502 0.575331
-0.0652914 -0.218937 0.57565
-0.0643439 -0.21843 0.576116
-0.0634337 -0.217986 0.576741
-0.0625449 -0.21758 0.577463
-0.0616919 -0.217235 0.578345
-0.0608347 -0.216884 0.579214
-0.0599048 -0.216413 0.579778
-0.0589354 -0.215874 0.580168
-0.0579954 -0.215386 0.580693
-0.0570281 -0.214853 0.581097
-0.0561353 -0.214445 0.581834
-0.0552903 -0.214124 0.582795
-0.0544434 -0.213803 0.583758
-0.0535781 -0.21345 0.584644
-0.0527206 -0.213115 0.585575
-0.0520349 -0.21516 0.590078
-0.0518324 -0.212726 0.586372
-0.0982902 -0.23742 0.568767
-0.0962578 -0.235316 0.565495
-0.0952976 -0.234784 0.56589
-0.0943351 -0.23425 0.566278
-0.0933731 -0.233715 0.566666
-0.0924533 -0.233242 0.567205
-0.0915382 -0.232779 0.567764
-0.0906274 -0.232323 0.568341
-0.0896687 -0.231796 0.568749
-0.0886989 -0.231252 0.569119
-0.0876651 -0.23061 0.569255
-0.0866365 -0.229976 0.569411
-0.0856122 -0.229348 0.569579
-0.0846292 -0.228783 0.569898
-0.0836462 -0.228218 0.570217
-0.0826276 -0.227598 0.570404
-0.0816049 -0.226972 0.570571
-0.080564 -0.226315 0.570668
-0.0795214 -0.225657 0.570759
-0.0784803 -0.225002 0.57085
-0.0774789 -0.224405 0.571093
-0.0764779 -0.223811 0.571335
-0.0755327 -0.223304 0.571794
-0.0746091 -0.222831 0.572341
-0.073669 -0.222334 0.572825
-0.0727273 -0.221834 0.573303
-0.0717802 -0.221325 0.573762
-0.0707961 -0.220758 0.574075
-0.0697962 -0.220166 0.574324
-0.0688137 -0.219602 0.574643
-0.0678313 -0.219037 0.574962
-0.0668489 -0.218473 0.575281
-0.0658665 -0.217908 0.5756
-0.0649011 -0.217371 0.575989
-0.0639712 -0.216894 0.576532
-0.0630468 -0.216426 0.5771
-0.0621578 -0.216019 0.577822
-0.061266 -0.215608 0.578538
-0.0603216 -0.215109 0.57903
-0.0593369 -0.214543 0.57935
-0.058397 -0.214054 0.579869
-0.0574471 -0.213547 0.580342
-0.0565521 -0.213137 0.581066
-0.0557247 -0.212842 0.582098
-0.0548966 -0.21255 0.583137
-0.0540648 -0.212252 0.58417
-0.0532127 -0.211923 0.58512
-0.0523435 -0.211566 0.586001
-0.0509606 -0.212369 0.587253
-0.0514739 -0.21121 0.586888
-0.0979212 -0.235877 0.569176
-0.0959134 -0.233814 0.565978
-0.094931 -0.23325 0.566297
-0.0939486 -0.232685 0.566616
-0.0930481 -0.232243 0.567225
-0.0921762 -0.231843 0.567934
-0.0913121 -0.231453 0.568676
-0.0904161 -0.231021 0.56931
-0.089509 -0.230569 0.569908
-0.0885132 -0.229987 0.57019
-0.0874833 -0.229354 0.570346
-0.0864556 -0.228724 0.570507
-0.0854507 -0.228126 0.570751
-0.084446 -0.22753 0.570995
-0.0834057 -0.226878 0.571106
-0.0823794 -0.226248 0.571267
-0.0813354 -0.225589 0.571359
-0.0802903 -0.224929 0.571444
-0.0792509 -0.224276 0.571548
-0.0782301 -0.223653 0.571721
-0.0772296 -0.22306 0.571971
-0.0762639 -0.222521 0.572353
-0.0753207 -0.222017 0.572825
-0.0743603 -0.221489 0.573233
-0.0734145 -0.220983 0.573698
-0.0724299 -0.220415 0.574011
-0.0714264 -0.219818 0.574247
-0.0704075 -0.219194 0.57442
-0.0694062 -0.218599 0.574663
-0.0684068 -0.218008 0.574912
-0.0674244 -0.217443 0.575231
-0.0664419 -0.216879 0.57555
-0.0654595 -0.216314 0.575869
-0.0645124 -0.215806 0.576335
-0.0635653 -0.215302 0.576808
-0.0626396 -0.214831 0.57737
-0.061713 -0.214361 0.577932
-0.0607679 -0.213859 0.578418
-0.0597843 -0.213294 0.578737
-0.0588301 -0.212777 0.579185
-0.0578949 -0.212296 0.579722
-0.0570029 -0.211887 0.580452
-0.0561768 -0.211593 0.581484
-0.0553515 -0.211302 0.582529
-0.0545534 -0.211061 0.583709
-0.0537223 -0.210765 0.584749
-0.0528721 -0.210439 0.585713
-0.0520035 -0.210082 0.5866
-0.0513693 -0.212209 0.591377
-0.0511306 -0.209719 0.587475
-0.0964885 -0.232785 0.565928
-0.0955061 -0.232221 0.566247
-0.0945435 -0.231685 0.566635
-0.0936852 -0.231302 0.567389
-0.0928756 -0.230994 0.568319
-0.0920768 -0.230701 0.569293
-0.0912477 -0.230368 0.570168
-0.0903865 -0.229986 0.570936
-0.0894194 -0.229448 0.571326
-0.0883907 -0.228819 0.571495
-0.0873649 -0.228191 0.57167
-0.0863352 -0.22756 0.571832
-0.0853067 -0.226929 0.571994
-0.0842389 -0.226239 0.572011
-0.0831897 -0.225573 0.572091
-0.0821182 -0.224876 0.572088
-0.0810686 -0.224211 0.57216
-0.0800263 -0.223554 0.572259
-0.0790027 -0.222929 0.572426
-0.0779995 -0.222332 0.572669
-0.0770148 -0.221765 0.572982
-0.0760524 -0.221233 0.573384
-0.0750739 -0.220675 0.573723
-0.0741108 -0.220143 0.574125
-0.0730893 -0.219517 0.574292
-0.0720639 -0.218886 0.574446
-0.0710209 -0.218225 0.574523
-0.0700005 -0.2176 0.57469
-0.0689819 -0.216979 0.574862
-0.0679995 -0.216414 0.575181
-0.0670171 -0.21585 0.5755
-0.0660347 -0.215285 0.57582
-0.0650692 -0.214747 0.576209
-0.0641048 -0.214212 0.576605
-0.0631571 -0.213705 0.577071
-0.0622112 -0.213202 0.57755
-0.0612476 -0.212668 0.577952
-0.0602646 -0.212103 0.578272
-0.0592944 -0.211562 0.578648
-0.0583624 -0.211081 0.579192
-0.0574697 -0.21067 0.579915
-0.056648 -0.21038 0.580959
-0.0558252 -0.210091 0.58201
-0.0550645 -0.209908 0.583351
-0.0542509 -0.209641 0.584468
-0.0534043 -0.20932 0.585444
-0.0525354 -0.208959 0.586325
-0.0516591 -0.208588 0.58718
-0.0971288 -0.232709 0.569805
-0.0951206 -0.230657 0.566592
-0.0942843 -0.230306 0.567421
-0.093522 -0.230064 0.568514
-0.0927698 -0.22984 0.569653
-0.0920135 -0.229612 0.570786
-0.0912189 -0.229329 0.571794
-0.0902983 -0.228861 0.572354
-0.089292 -0.228266 0.572612
-0.0882829 -0.227667 0.572857
-0.0872486 -0.227028 0.573008
-0.086195 -0.226362 0.573088
-0.0851014 -0.225637 0.573017
-0.084026 -0.224936 0.573009
-0.0829318 -0.224203 0.572924
-0.0818603 -0.223508 0.572921
-0.0807945 -0.222818 0.572937
-0.0797482 -0.222158 0.573022
-0.0787228 -0.221528 0.573184
-0.0777154 -0.220927 0.573415
-0.0767359 -0.220369 0.573753
-0.075757 -0.219811 0.574092
-0.0747919 -0.219276 0.574488
-0.073769 -0.21865 0.574655
-0.0727228 -0.217987 0.574727
-0.0716567 -0.217291 0.574715
-0.0706123 -0.216629 0.574786
-0.0695744 -0.215976 0.574883
-0.068575 -0.215384 0.575132
-0.0675925 -0.21482 0.575451
-0.0666101 -0.214255 0.57577
-0.0656277 -0.213691 0.576089
-0.0646453 -0.213126 0.576408
-0.0636798 -0.212589 0.576797
-0.0627155 -0.212053 0.577193
-0.0617344 -0.211491 0.577519
-0.0607514 -0.210926 0.577838
-0.0597817 -0.210385 0.578215
-0.0588681 -0.209933 0.578835
-0.0579764 -0.209522 0.579558
-0.0571715 -0.209258 0.580672
-0.0563673 -0.208996 0.5818
-0.0556089 -0.208815 0.583147
-0.0547822 -0.208522 0.584199
-0.053937 -0.208198 0.585176
-0.0530486 -0.207806 0.585966
-0.0521417 -0.207379 0.586674
-0.0514866 -0.209451 0.591349
-0.0511988 -0.206894 0.587221
-0.0939334 -0.230539 0.57548
-0.0921682 -0.228838 0.573061
-0.0912662 -0.228397 0.573698
-0.0902778 -0.227831 0.574026
-0.0892856 -0.227259 0.574341
-0.088231 -0.226595 0.574429
-0.0871527 -0.225895 0.574429
-0.0860347 -0.225133 0.574276
-0.0849367 -0.224401 0.574192
-0.0838042 -0.223616 0.573975
-0.0827125 -0.22289 0.573903
-0.0816215 -0.222165 0.573831
-0.0805518 -0.221471 0.573835
-0.079503 -0.220809 0.573914
-0.0784945 -0.220207 0.574145
-0.077509 -0.21964 0.574465
-0.0765273 -0.219079 0.574798
-0.0755434 -0.218516 0.575124
-0.0745003 -0.21786 0.575215
-0.0734336 -0.217166 0.575211
-0.0723297 -0.216413 0.575053
-0.0712461 -0.215691 0.574972
-0.0701859 -0.215005 0.574979
-0.0691674 -0.214382 0.575152
-0.068168 -0.21379 0.575401
-0.0671856 -0.213226 0.57572
-0.0662031 -0.212661 0.576039
-0.0652207 -0.212097 0.576358
-0.0642383 -0.211532 0.576677
-0.0632559 -0.210968 0.576996
-0.062274 -0.210403 0.577315
-0.0612916 -0.209839 0.577634
-0.0603092 -0.209274 0.577953
-0.0593941 -0.208822 0.578567
