ply
format ascii 1.0
element vertex 1662
property float x
property float y
property float z
end_header
0.0938914 0.0380876 0.273575
0.0937943 0.0374769 0.273185
0.0937178 0.0368784 0.272864
0.0936335 0.0362775 0.272518
0.0935765 0.0356916 0.272261
0.0935281 0.0351113 0.272034
0.0935092 0.0345466 0.271905
0.0934581 0.0339666 0.271669
0.0934218 0.0333949 0.271482
0.0933545 0.0328091 0.271193
0.0932848 0.0322234 0.270895
0.0931829 0.0316237 0.27049
0.0931086 0.0310386 0.270178
0.0930524 0.0304628 0.269926
0.0930342 0.0299053 0.2698
0.0930203 0.0293503 0.269689
0.0930166 0.0288002 0.26961
0.0930008 0.0282453 0.269492
0.0929809 0.0276894 0.269361
0.0929354 0.0271232 0.269144
0.0928728 0.026551 0.268872
0.0928355 0.0259901 0.268683
0.0927725 0.0254198 0.26841
0.0926915 0.0248434 0.268076
0.0926158 0.0242704 0.267761
0.0925494 0.0237024 0.267476
0.0924857 0.0231364 0.2672
0.0924698 0.0225894 0.267083
0.092474 0.0220503 0.267032
0.0924612 0.0215055 0.266925
0.0924532 0.0209629 0.266834
0.0924424 0.0204197 0.266734
0.0924257 0.0198751 0.266615
0.0924124 0.0193321 0.266506
0.0924173 0.0187957 0.266457
0.0924115 0.0182561 0.266374
0.0923693 0.0177055 0.266171
0.0923318 0.0171571 0.265983
0.0922777 0.0166044 0.26574
0.0922067 0.0160476 0.265442
0.0921338 0.0154915 0.265137
0.0920776 0.0149414 0.264888
0.0920151 0.0143906 0.264619
0.0919644 0.0138441 0.264387
0.0919308 0.0133033 0.264213
0.0918871 0.0127605 0.264005
0.091842 0.0122184 0.263794
0.0918045 0.0116789 0.263607
0.0917966 0.0111477 0.263518
0.0918196 0.0106244 0.26353
0.0918565 0.0101044 0.263588
0.09189 0.00958368 0.263635
0.0919103 0.00905993 0.263639
0.0919008 0.00852971 0.263544
0.091858 0.00799294 0.26334
0.091822 0.00745838 0.263159
0.0917965 0.00692676 0.263012
0.0917813 0.00639778 0.262898
0.0917773 0.00587146 0.262822
0.0917993 0.00535036 0.262832
0.0918133 0.00482798 0.262815
0.0918434 0.00430855 0.262851
0.091874 0.00378918 0.262888
0.0919055 0.00326998 0.262929
0.0919195 0.00274805 0.262912
0.0919392 0.0022272 0.262914
0.091931 0.00170247 0.262825
0.0919151 0.00117709 0.26271
0.0918999 0.000652364 0.262598
0.0919031 0.000130483 0.262546
0.0919081 -0.000390836 0.2625
0.0919309 -0.000909835 0.262512
0.09197 -0.00142694 0.262578
0.0920099 -0.00194405 0.262646
0.0920502 -0.00246125 0.262714
0.0920897 -0.00297862 0.262782
0.0921378 -0.00349532 0.262877
0.0921697 -0.00401356 0.262919
0.09221 -0.00453119 0.262989
0.0922506 -0.00504887 0.263058
0.092282 -0.00556724 0.263099
0.092304 -0.00608619 0.263109
0.0923335 -0.00660465 0.263143
0.0923545 -0.00712343 0.26315
0.0923855 -0.00764174 0.263189
0.0924174 -0.00816001 0.263231
0.092449 -0.00867831 0.263271
0.0924883 -0.00919642 0.263337
0.0925456 -0.00971428 0.263463
0.09265 -0.0102319 0.263741
0.0927791 -0.0107502 0.2641
0.0929542 -0.0112696 0.264608
0.0931377 -0.0117907 0.265144
0.0933117 -0.0123134 0.265649
0.0934399 -0.0128369 0.266005
0.0935636 -0.0133615 0.266346
0.0936506 -0.013886 0.266567
0.0937292 -0.014411 0.26676
0.0938341 -0.0149375 0.267039
0.0939979 -0.0154675 0.26751
0.0942398 -0.0160029 0.268235
0.0944832 -0.0165407 0.268964
0.0947811 -0.0170843 0.26987
0.0950762 -0.0176307 0.270768
0.107167 0.094564 0.32147
0.10722 0.0939462 0.321571
0.107232 0.0932874 0.321533
0.10723 0.0926142 0.321445
0.107191 0.0919049 0.321231
0.107149 0.0911952 0.321012
0.107056 0.0904383 0.320623
0.106985 0.0897019 0.320304
0.106866 0.088922 0.319826
0.106746 0.0881435 0.319345
0.106664 0.0874019 0.318989
0.106584 0.0866644 0.318643
0.106508 0.085932 0.31831
0.10647 0.0852354 0.318103
0.10643 0.0845392 0.317892
0.106357 0.0838129 0.317569
0.106303 0.0831043 0.317309
0.106223 0.0823755 0.316965
0.106118 0.0816256 0.316536
0.106001 0.0808665 0.316067
0.105893 0.0801171 0.315627
0.105728 0.0793203 0.314999
0.105573 0.0785347 0.314404
0.105407 0.0777408 0.313768
0.105206 0.0769209 0.31302
0.104981 0.0760842 0.312193
0.104778 0.0752683 0.311438
0.104531 0.0744192 0.310537
0.104288 0.0735768 0.309649
0.103964 0.0726713 0.308489
0.103597 0.071736 0.30719
0.103187 0.0707703 0.305745
0.102825 0.0698487 0.304461
0.102467 0.068936 0.303194
0.102177 0.068081 0.302152
0.101884 0.0672285 0.301103
0.101608 0.0663918 0.300107
0.101215 0.0654706 0.298726
0.100834 0.0645628 0.297381
0.100496 0.0636925 0.296182
0.1002 0.0628587 0.295123
0.099904 0.0620294 0.294066
0.0996919 0.0612655 0.293287
0.0994897 0.0605121 0.292542
0.0992992 0.0597701 0.291837
0.0991151 0.0590353 0.291153
0.0988991 0.0582809 0.290364
0.0986983 0.0575399 0.289624
0.0984734 0.056785 0.288806
0.0982354 0.0560241 0.287944
0.0979703 0.055248 0.286993
0.0977648 0.0545163 0.28624
0.0975589 0.0537868 0.285485
0.0973696 0.0530719 0.284787
0.0971843 0.052362 0.284102
0.0970378 0.0516806 0.283546
0.0969089 0.0510127 0.283049
0.0967744 0.0503433 0.282534
0.096653 0.0496841 0.282061
0.0965396 0.0490321 0.281617
0.0964261 0.0483817 0.281172
0.096235 0.0476849 0.28047
0.0960304 0.0469824 0.279723
0.0958113 0.0462741 0.278928
0.0955927 0.0455691 0.278137
0.0954094 0.0448881 0.277461
0.0952604 0.0442302 0.2769
0.0951139 0.043576 0.276348
0.0950016 0.0429436 0.275908
0.0949094 0.0423246 0.275536
0.0947955 0.0416949 0.275093
0.0947014 0.0410778 0.274714
0.0946398 0.0404804 0.274443
0.09456 0.0398742 0.274113
0.0944658 0.0392614 0.273734
0.0943809 0.0386552 0.273387
0.0943107 0.0380584 0.27309
0.0942331 0.0374586 0.272766
0.0941745 0.0368701 0.272507
0.0941187 0.0362843 0.272257
0.0940724 0.0357041 0.272037
0.0940332 0.0351286 0.271842
0.0940143 0.034564 0.271713
0.093962 0.0339837 0.271476
0.0939177 0.0334082 0.271264
0.09385 0.0328225 0.270975
0.0937811 0.0322373 0.270682
0.0936685 0.0316331 0.270245
0.093593 0.0310475 0.26993
0.0935354 0.0304716 0.269677
0.0935177 0.0299143 0.269552
0.093504 0.0293596 0.269443
0.093508 0.028813 0.269391
0.0935 0.0282616 0.269299
0.0934802 0.0277058 0.26917
0.0934344 0.0271395 0.268953
0.0933711 0.0265672 0.268681
0.093333 0.0260061 0.268491
0.0932615 0.0254324 0.26819
0.0931889 0.0248597 0.267888
0.0931152 0.0242876 0.26758
0.093049 0.0237197 0.267299
0.0929847 0.0231537 0.267022
0.0929673 0.0226061 0.266901
0.0929617 0.0220635 0.266819
0.0929397 0.0215154 0.266682
0.0929222 0.0209696 0.266561
0.092902 0.0204233 0.26643
0.0928844 0.0198786 0.266309
0.0928717 0.019336 0.266203
0.0928763 0.0187997 0.266155
0.0928688 0.0182599 0.266067
0.0928233 0.0177084 0.265854
0.0927761 0.0171572 0.265635
0.0927036 0.0165993 0.265334
0.092632 0.0160429 0.265036
0.0925604 0.0154877 0.264738
0.0925045 0.0149382 0.264492
0.0924423 0.0143879 0.264225
0.0923983 0.0138437 0.264018
0.0923722 0.0133053 0.263869
0.0923383 0.0127654 0.263695
0.0922955 0.012224 0.263492
0.0922588 0.011685 0.263309
0.0922497 0.0111537 0.263217
0.0922628 0.0106282 0.263197
0.0922806 0.010104 0.263192
0.0923051 0.00958145 0.263209
0.0923249 0.00905796 0.263212
0.0923177 0.00852872 0.263126
0.0922766 0.00799268 0.262929
0.0922509 0.00746073 0.262782
0.0922407 0.00693249 0.262687
0.0922338 0.00640536 0.262602
0.0922384 0.00588093 0.262555
0.0922695 0.00536157 0.262594
0.0922921 0.00484076 0.262606
0.0923226 0.00432139 0.262643
0.0923451 0.00380069 0.262654
0.0923757 0.00328142 0.262692
0.0923899 0.00275958 0.262676
0.0924108 0.0022389 0.262682
0.0924139 0.00171584 0.26263
0.0924066 0.00119169 0.262545
0.0923902 0.00066673 0.262428
0.0923912 0.000144531 0.26237
0.0923943 -0.000377072 0.262318
0.0924082 -0.000897162 0.262301
0.0924562 -0.00141328 0.262396
0.092506 -0.00192948 0.262496
0.0925564 -0.00244575 0.262598
0.0926062 -0.00296236 0.262698
0.0926636 -0.0034785 0.262823
0.0926956 -0.003997 0.262866
0.0927372 -0.00451477 0.262939
0.0927773 -0.00503282 0.263008
0.0928094 -0.00555143 0.263051
0.0928315 -0.00607064 0.26306
0.0928599 -0.00658939 0.263091
0.0928804 -0.00710852 0.263096
0.0929114 -0.00762711 0.263135
0.0929435 -0.00814565 0.263178
0.092976 -0.00866417 0.263221
0.0930148 -0.00918258 0.263285
0.0930813 -0.00970059 0.263439
0.0931969 -0.0102184 0.263754
0.0933363 -0.010737 0.264143
0.0935223 -0.0112568 0.264685
0.0937061 -0.0117783 0.265219
0.0938787 -0.0123015 0.265716
0.0940053 -0.0128255 0.266064
0.0941292 -0.0133505 0.266405
0.0942092 -0.0138754 0.266602
0.0942977 -0.014401 0.266826
0.0943955 -0.0149277 0.26708
0.0945688 -0.0154585 0.267579
0.0948058 -0.0159941 0.268284
0.0950608 -0.0165329 0.269047
0.0953568 -0.0170768 0.269942
0.0956581 -0.0176239 0.270854
0.107745 0.0945734 0.321193
0.107805 0.0939623 0.321316
0.107802 0.0932888 0.321228
0.107788 0.0926046 0.321101
0.107747 0.0918945 0.320885
0.107691 0.0911728 0.320622
0.107586 0.0904035 0.320191
0.107476 0.0896319 0.319747
0.10734 0.0888379 0.319217
0.107208 0.0880484 0.318696
0.107113 0.0872964 0.318301
0.107035 0.0865622 0.317965
0.106972 0.0858435 0.317679
0.106931 0.0851456 0.317465
0.106878 0.084437 0.317208
0.106799 0.0837074 0.316869
0.106731 0.0829885 0.316565
0.106639 0.08225 0.316183
0.106524 0.0814928 0.315724
0.10643 0.0807554 0.315334
0.106326 0.0800113 0.314911
0.106176 0.0792293 0.314336
0.106046 0.0784663 0.313828
0.105891 0.0776845 0.313236
0.105679 0.0768563 0.312455
0.105464 0.0760289 0.311665
0.105271 0.075223 0.310946
0.105036 0.0743858 0.310093
0.104814 0.0735624 0.309282
0.104501 0.0726675 0.308166
0.10413 0.0717309 0.306861
0.103705 0.0707557 0.305377
0.103318 0.0698161 0.304018
0.102937 0.0688861 0.302679
0.10262 0.0680131 0.301558
0.102316 0.0671529 0.300477
0.10204 0.0663186 0.299488
0.10169 0.0654322 0.298257
0.101333 0.0645455 0.297004
0.10103 0.0637032 0.295927
0.100753 0.062885 0.294939
0.100463 0.0620609 0.293906
0.100227 0.0612807 0.293055
0.100022 0.0605255 0.292303
0.0998294 0.059783 0.291596
0.0996424 0.0590473 0.290908
0.0994274 0.0582943 0.290127
0.0992268 0.0575542 0.289393
0.0990032 0.0568009 0.288583
0.0987637 0.0560401 0.287722
0.0984872 0.0552573 0.286739
0.098268 0.0545168 0.285945
0.0980475 0.0537792 0.285149
0.0978363 0.0530504 0.284383
0.0976384 0.0523333 0.28366
0.0974903 0.0516517 0.283103
0.0973624 0.0509854 0.282612
0.0972288 0.0503175 0.282104
0.0971158 0.0496648 0.281663
0.0970111 0.0490188 0.281249
0.0969054 0.0483741 0.280833
0.0967241 0.0476843 0.280168
0.0965273 0.0469874 0.279451
0.0963152 0.0462842 0.278685
0.0961056 0.0455855 0.277928
0.0959232 0.0449058 0.27726
0.0957763 0.0442494 0.276709
0.0956295 0.0435955 0.276159
0.0955155 0.0429626 0.275717
0.0954032 0.0423325 0.275282
0.095288 0.0417022 0.274836
0.0951828 0.0410795 0.274424
0.0951008 0.0404714 0.274089
0.0950094 0.0398594 0.273722
0.0949034 0.0392409 0.273308
0.0948078 0.0386296 0.272928
0.0947377 0.0380334 0.272631
0.0946779 0.0374437 0.272369
0.0946313 0.0368621 0.272151
0.0945878 0.036283 0.271944
0.0945513 0.0357083 0.271758
0.0945216 0.0351376 0.271595
0.0945021 0.034573 0.271466
0.0944593 0.0339975 0.271261
0.0944245 0.0334267 0.271081
0.0943574 0.0328413 0.270796
0.0942872 0.0322559 0.270501
0.0941729 0.031651 0.270061
0.0940869 0.0310609 0.269715
0.0940284 0.0304847 0.269459
0.09401 0.0299274 0.269334
0.0939962 0.0293727 0.269225
0.0940008 0.0288263 0.269175
0.0939937 0.0282754 0.269088
0.0939741 0.0277198 0.26896
0.0939285 0.0271538 0.268746
0.0938645 0.0265813 0.268472
0.0938254 0.0260199 0.26828
0.093752 0.0254458 0.267977
0.0936874 0.0248763 0.267702
0.0936134 0.0243042 0.267395
0.0935473 0.0237365 0.267116
0.0934827 0.0231706 0.266841
0.0934635 0.0226224 0.266715
0.093449 0.0220765 0.266604
0.0934266 0.0215284 0.266467
0.0934087 0.0209825 0.266346
0.0933882 0.0204362 0.266215
0.0933706 0.0198915 0.266095
0.0933572 0.0193489 0.265988
0.0933527 0.0188097 0.26591
0.0933359 0.0182669 0.265792
0.0932795 0.0177122 0.265546
0.0932219 0.0171581 0.265295
0.0931398 0.0165976 0.264964
0.0930683 0.0160416 0.264668
0.0930048 0.0154891 0.264398
0.0929497 0.0149402 0.264156
0.0928869 0.0143901 0.263889
0.0928413 0.0138459 0.263679
0.0928237 0.01331 0.263559
0.0927833 0.0127687 0.263366
0.0927506 0.0122302 0.263196
0.0927157 0.011692 0.263021
0.0927043 0.0111602 0.262922
0.0927075 0.0106324 0.26287
0.0927139 0.0101058 0.262828
0.0927369 0.00958325 0.262842
0.0927555 0.00905974 0.26284
0.0927492 0.00853101 0.262758
0.0927176 0.00799734 0.262593
0.09271 0.00746938 0.262507
0.0927013 0.00694163 0.262417
0.092704 0.00641647 0.262363
0.0927167 0.00589362 0.262343
0.0927477 0.00537427 0.262382
0.0927787 0.00485495 0.262421
0.0928014 0.00433421 0.262433
0.0928146 0.00381198 0.262415
0.0928356 0.00329116 0.262421
0.092857 0.00277059 0.262429
0.0928804 0.00225035 0.262443
0.092895 0.00172901 0.262429
0.0928982 0.00120626 0.262377
0.0928893 0.000682235 0.262287
0.0928792 0.000158527 0.262193
0.0928725 -0.000364291 0.26211
0.0928936 -0.000883523 0.262117
0.0929434 -0.00139955 0.262217
0.0929949 -0.00191559 0.262322
0.0930562 -0.00243093 0.262459
0.0931159 -0.00294672 0.262591
0.0931748 -0.00346292 0.262721
0.0932157 -0.00398091 0.262792
0.0932644 -0.00449842 0.262888
0.0933132 -0.00501612 0.262985
0.093354 -0.0055345 0.263055
0.0933852 -0.00605359 0.263095
0.0934238 -0.00657226 0.263158
0.0934447 -0.00709187 0.263165
0.0934668 -0.00761127 0.263175
0.0934893 -0.00813059 0.263187
0.0935205 -0.00864955 0.263225
0.0935603 -0.00916831 0.263294
0.093645 -0.00968635 0.263505
0.0937701 -0.0102045 0.263848
0.0939191 -0.0107236 0.264267
0.0940964 -0.011244 0.264777
0.0942707 -0.011766 0.265277
0.0944257 -0.0122894 0.265715
0.0945436 -0.0128136 0.266035
0.0946603 -0.0133388 0.266349
0.0947507 -0.0138641 0.266578
0.094857 -0.0143907 0.266859
0.0949652 -0.0149182 0.267145
0.0951579 -0.0154503 0.267704
0.0953967 -0.0159864 0.268411
0.0956515 -0.0165258 0.269169
0.0959223 -0.0170685 0.269977
0.0961862 -0.0176136 0.270765
0.108316 0.0945772 0.320895
0.108361 0.093951 0.320966
0.108356 0.0932754 0.320872
0.108327 0.0925778 0.320698
0.108275 0.0918573 0.320446
0.108206 0.0911235 0.320141
0.108085 0.0903411 0.319664
0.107951 0.0895474 0.319141
0.107826 0.0887652 0.318651
0.107693 0.0879763 0.31813
0.107599 0.0872267 0.317742
0.107521 0.0864935 0.317407
0.107455 0.0857731 0.317114
0.107377 0.0850421 0.316778
0.107308 0.0843211 0.316472
0.107213 0.0835785 0.316083
0.107133 0.0828499 0.31574
0.10704 0.0821128 0.315358
0.10695 0.0813783 0.314982
0.106871 0.0806556 0.314645
0.10678 0.0799243 0.314269
0.106666 0.079175 0.313817
0.106551 0.0784257 0.313361
0.106419 0.0776645 0.312849
0.106216 0.0768463 0.312105
0.106001 0.0760195 0.311319
0.105803 0.0752113 0.310591
0.105566 0.0743737 0.309735
0.105308 0.073522 0.308808
0.104992 0.0726264 0.30769
0.104619 0.07169 0.306386
0.104196 0.0707192 0.30492
0.10381 0.0697832 0.303575
0.10344 0.0688637 0.30228
0.103132 0.0679984 0.301193
0.102826 0.0671389 0.300113
0.102549 0.0663054 0.299128
0.102233 0.0654469 0.298017
0.1019 0.0645793 0.296849
0.101598 0.0637389 0.295782
0.101328 0.0629272 0.294824
0.101033 0.0621 0.293781
0.100772 0.0613028 0.292855
0.100544 0.0605319 0.292032
0.100339 0.0597817 0.29129
0.10015 0.0590449 0.290597
0.0999448 0.0582998 0.289853
0.0997557 0.0575687 0.289162
0.099545 0.0568255 0.2884
0.0993131 0.0560709 0.287569
0.0990236 0.0552802 0.286551
0.0987897 0.0545306 0.285714
0.098548 0.0537794 0.284852
0.0983232 0.0530424 0.284045
0.0981125 0.0523181 0.283287
0.0979613 0.0516354 0.282723
0.097822 0.0509626 0.282198
0.0976792 0.0502896 0.281662
0.0975566 0.0496316 0.281193
0.0974512 0.0489862 0.28078
0.0973452 0.0483422 0.280366
0.0971737 0.0476594 0.279736
0.0969866 0.0469698 0.279057
0.0967933 0.0462789 0.278358
0.0965943 0.0455873 0.277639
0.0964229 0.0449149 0.277012
0.0962765 0.0442595 0.276466
0.0961456 0.0436153 0.275972
0.0960303 0.0429821 0.275529
0.0959068 0.0423459 0.27506
0.0957889 0.0417147 0.274608
0.0956718 0.0410858 0.27416
0.0955625 0.0404629 0.273737
0.0954596 0.0398452 0.273336
0.0953414 0.0392208 0.272884
0.0952346 0.0386043 0.27247
0.0951646 0.0380088 0.272176
0.0951248 0.0374303 0.271982
0.09509 0.0368552 0.271804
0.0950755 0.0362912 0.271691
0.0950497 0.0357221 0.271542
0.0950295 0.0351564 0.271412
0.0950087 0.0345911 0.27128
0.0949743 0.0340198 0.271103
0.0949399 0.0334493 0.270927
0.0948831 0.032869 0.270677
0.094812 0.032283 0.270381
0.0946954 0.0316774 0.269937
0.094598 0.0310823 0.269556
0.0945296 0.0305017 0.269269
0.0945026 0.0299404 0.269117
0.0944885 0.0293857 0.269008
0.0945024 0.0288436 0.268989
0.0944967 0.0282933 0.268907
0.0944788 0.0277383 0.268785
0.0944415 0.0271759 0.2686
0.0943763 0.0266029 0.268324
0.0943283 0.0260379 0.268104
0.0942527 0.0254631 0.267796
0.0941862 0.024893 0.267516
0.0941017 0.0243171 0.267178
0.0940346 0.0237492 0.266898
0.0939689 0.023183 0.266621
0.0939503 0.0226351 0.266498
0.0939357 0.0220894 0.266388
0.0939134 0.0215413 0.266252
0.0938956 0.0209954 0.266131
0.0938745 0.0204491 0.266001
0.0938566 0.0199044 0.26588
0.0938432 0.0193618 0.265774
0.09383 0.0188198 0.265668
0.0938123 0.0182768 0.265548
0.0937465 0.0177194 0.265273
0.0936713 0.0171601 0.264967
0.0935782 0.0165967 0.264603
0.0935129 0.016043 0.264329
0.0934489 0.0154907 0.26406
0.0933953 0.0149425 0.263825
0.093341 0.0143951 0.263587
0.0933032 0.0138533 0.263403
0.0932854 0.0133176 0.263284
0.0932459 0.0127768 0.263095
0.0932226 0.0122408 0.262957
0.0931952 0.0117045 0.262807
0.093175 0.0111707 0.26268
0.093168 0.0106407 0.262597
0.0931559 0.0101098 0.262496
0.0931681 0.00958495 0.262474
0.0931772 0.00905964 0.262441
0.0931784 0.00853288 0.262384
0.093156 0.00800151 0.26225
0.0931671 0.00747761 0.262225
0.0931693 0.00695219 0.262171
0.0931813 0.00642899 0.262149
0.0931949 0.00590632 0.262132
0.0932259 0.00538697 0.262171
0.093257 0.00486765 0.26221
0.0932707 0.00434536 0.262193
0.0932736 0.00382152 0.262142
0.0932837 0.00329912 0.262113
0.0933119 0.00277969 0.262142
0.0933457 0.00226117 0.262191
0.0933723 0.00174156 0.262215
0.0933851 0.00122019 0.262196
0.0933842 0.00069719 0.262132
0.0933649 0.000172244 0.262009
0.0933495 -0.000351626 0.261899
0.0933714 -0.000870806 0.261908
0.0934216 -0.00138677 0.262009
0.0934732 -0.00190279 0.262115
0.0935435 -0.00241727 0.262281
0.093613 -0.00293227 0.262443
0.0936815 -0.00344779 0.262603
0.0937322 -0.00396518 0.262704
0.0937891 -0.00448228 0.262827
0.0938465 -0.00499964 0.26295
0.0938966 -0.00551777 0.263051
0.0939395 -0.00603653 0.263128
0.0939886 -0.00655513 0.263225
0.0940193 -0.00707471 0.263262
0.0940402 -0.00759473 0.263269
0.094061 -0.00811464 0.263276
0.0940914 -0.00863417 0.263313
0.0941316 -0.00915345 0.263381
0.0942176 -0.00967198 0.263596
0.0943352 -0.0101908 0.263912
0.094484 -0.0107103 0.264328
0.0946516 -0.0112311 0.264805
0.0948168 -0.0117535 0.265274
0.0949632 -0.0122772 0.265682
0.0950822 -0.0128017 0.266002
0.0952005 -0.0133272 0.26632
0.0953002 -0.0138531 0.266578
0.0954264 -0.0143807 0.266921
0.095563 -0.0149097 0.267297
0.0957946 -0.0154441 0.267977
0.096045 -0.0159815 0.268718
0.0963102 -0.0165223 0.269505
0.0965626 -0.0170648 0.270249
0.0968444 -0.0176117 0.271089
0.109451 0.0958102 0.322535
0.108869 0.0945621 0.320535
0.108901 0.0939232 0.320563
0.108896 0.093249 0.320472
0.108856 0.0925412 0.320263
0.108791 0.0918094 0.319971
0.108718 0.0910719 0.319653
0.108584 0.0902778 0.319134
0.108435 0.089472 0.318568
0.108301 0.0886823 0.318049
0.108179 0.0879062 0.317572
0.108073 0.0871472 0.317147
0.107992 0.086412 0.316805
0.107901 0.0856699 0.31643
0.107807 0.0849265 0.316045
0.107712 0.0841831 0.315657
0.107606 0.0834318 0.315232
0.107512 0.0826932 0.314846
0.107432 0.0819691 0.31451
0.107366 0.0812577 0.314217
0.107311 0.0805571 0.31396
0.107247 0.0798492 0.313673
0.107169 0.0791319 0.313343
0.107075 0.0784027 0.312961
0.106958 0.0776552 0.312502
0.106756 0.0768387 0.311765
0.106538 0.0760105 0.310973
0.106315 0.0751829 0.31017
0.106051 0.0743243 0.309228
0.105767 0.0734532 0.308223
0.105445 0.0725559 0.307096
0.105083 0.0716305 0.305836
0.104684 0.0706809 0.304456
0.104316 0.0697602 0.303176
0.103956 0.0688517 0.301925
0.103657 0.067995 0.300875
0.103348 0.0671347 0.299792
0.103071 0.0663019 0.298811
0.102786 0.0654686 0.29781
0.102476 0.0646196 0.296723
0.102175 0.0637813 0.295668
0.101892 0.0629607 0.294671
0.101581 0.0621231 0.293583
0.101295 0.0613085 0.29258
0.101045 0.0605229 0.291692
0.100829 0.0597654 0.290917
0.100648 0.0590356 0.290255
0.100462 0.0583051 0.289578
0.100274 0.0575758 0.288896
0.100083 0.0568475 0.288205
0.0998604 0.0561 0.28741
0.0995783 0.0553151 0.28642
0.0993324 0.0545584 0.28555
0.0990881 0.0538062 0.284686
0.0988412 0.0530555 0.283813
0.0986185 0.052324 0.283019
0.0984443 0.0516269 0.282383
0.098293 0.0509474 0.281824
0.0981374 0.0502671 0.281249
0.0980043 0.0496032 0.280748
0.0978979 0.0489581 0.280335
0.0977739 0.0483038 0.279866
0.0975926 0.0476163 0.279209
0.0974061 0.0469281 0.278535
0.0972249 0.0462457 0.277879
0.097037 0.045562 0.277202
0.0968843 0.0449016 0.276639
0.0967548 0.044257 0.276153
0.096642 0.0436236 0.27572
0.0965357 0.0429961 0.27531
0.0964031 0.0423551 0.274813
0.0962919 0.0417281 0.274386
0.0961723 0.0410983 0.273934
0.0960432 0.040465 0.27345
0.0959302 0.0398423 0.273017
0.0958096 0.0392172 0.272561
0.095692 0.0385957 0.272115
0.0956219 0.0380006 0.271823
0.0955927 0.037428 0.271664
0.0955685 0.0368586 0.271522
0.0955731 0.0363046 0.271473
0.0955569 0.0357403 0.271355
0.0955358 0.0351744 0.271224
0.0955151 0.0346092 0.271093
0.0954891 0.034042 0.270944
0.0954551 0.0334717 0.27077
0.0954087 0.0328963 0.270555
0.0953464 0.0323146 0.270291
0.095238 0.0317127 0.269875
0.0951384 0.0311167 0.269491
0.0950605 0.0305317 0.269175
0.095023 0.0299658 0.268989
0.0949991 0.0294067 0.268849
0.0950128 0.0288644 0.26883
0.0949988 0.0283106 0.268722
0.0949809 0.0277556 0.268601
0.0949424 0.0271929 0.268414
0.0948769 0.0266199 0.268139
0.0948197 0.0260514 0.267891
0.0947435 0.0254765 0.267583
0.0946762 0.0249062 0.267302
0.0945895 0.0243298 0.26696
0.0945221 0.0237619 0.266679
0.0944553 0.0231955 0.266402
0.0944369 0.0226477 0.266279
0.0944224 0.0221021 0.266171
0.0944003 0.0215542 0.266037
0.0943821 0.0210084 0.265916
0.0943607 0.020462 0.265786
0.0943428 0.0199173 0.265665
0.0943291 0.0193747 0.265559
0.0943156 0.0188327 0.265453
0.0942889 0.018287 0.265306
0.0942224 0.0177295 0.265029
0.0941455 0.0171699 0.26472
0.0940426 0.0166037 0.264327
0.0939762 0.0160499 0.264052
0.0939198 0.0155002 0.263809
0.0938582 0.0149499 0.26355
0.0938044 0.0144029 0.263315
0.0937752 0.0138635 0.26316
0.0937574 0.0133279 0.263042
0.0937173 0.0127871 0.262852
0.0937013 0.0122532 0.26274
0.0936724 0.0117165 0.262585
0.0936527 0.0111829 0.262461
0.0936449 0.0106527 0.262375
0.0936249 0.0101201 0.26225
0.0936272 0.00959308 0.262197
0.0936262 0.00906571 0.262133
0.0936185 0.00853725 0.262047
0.0935956 0.00800606 0.261913
0.0936163 0.00748434 0.261919
0.0936288 0.00696112 0.261898
0.0936507 0.00643995 0.261908
0.0936734 0.00591903 0.26192
0.0937044 0.00539967 0.261959
0.0937354 0.00488035 0.261998
0.0937481 0.00435792 0.261979
0.0937413 0.00383245 0.261896
0.0937482 0.00330965 0.261858
0.0937763 0.00279033 0.261888
0.0938102 0.00227185 0.261936
0.0938387 0.00175265 0.261967
0.0938606 0.00123255 0.261977
0.0938592 0.000709539 0.261912
0.0938406 0.000184693 0.261793
0.0938259 -0.00033906 0.261685
0.0938572 -0.000857139 0.261725
0.0939074 -0.00137317 0.261826
0.0939675 -0.0018884 0.261958
0.094044 -0.00240238 0.262142
0.0941221 -0.00291675 0.262332
0.0941844 -0.003433 0.262471
0.0942444 -0.00394976 0.262603
0.0943023 -0.00446701 0.262727
0.094361 -0.00498449 0.262855
0.0944222 -0.00550212 0.26299
0.094485 -0.00602002 0.26313
0.0945452 -0.00653838 0.263262
0.0945855 -0.007058 0.263331
0.0946145 -0.00757819 0.263363
0.0946426 -0.00809839 0.263393
0.0946819 -0.00861818 0.263458
0.0947234 -0.00913805 0.26353
0.0948199 -0.00965705 0.263778
0.0949287 -0.0101767 0.264065
0.0950598 -0.0106969 0.264423
0.0951995 -0.0112183 0.264807
0.0953553 -0.011741 0.265243
0.0954842 -0.0122648 0.265593
0.0956124 -0.0127896 0.265942
0.0957324 -0.0133154 0.266263
0.0958508 -0.0138421 0.26658
0.0960061 -0.014371 0.267014
0.096167 -0.0149013 0.267464
0.0964236 -0.0154374 0.26822
0.096705 -0.0159771 0.269055
0.0970004 -0.0165203 0.269933
0.0972738 -0.0170651 0.270741
0.0975872 -0.0176152 0.271676
0.109972 0.0957606 0.322059
0.109394 0.0945209 0.320087
0.109429 0.0938849 0.320124
0.109439 0.0932255 0.320083
0.109401 0.0925198 0.31988
0.109321 0.0917755 0.319543
0.109232 0.0910236 0.319176
0.109093 0.0902261 0.318643
0.108932 0.0894109 0.318042
0.108799 0.0886226 0.317529
0.108689 0.0878595 0.317096
0.108572 0.0870901 0.316635
0.108476 0.0863429 0.316248
0.108369 0.0855877 0.315823
0.108262 0.0848326 0.315396
0.108143 0.0840695 0.314932
0.108034 0.0833182 0.314504
0.107942 0.082582 0.314125
0.107863 0.0818602 0.313796
0.107797 0.0811509 0.313506
0.107757 0.080464 0.313299
0.107703 0.0797671 0.313048
0.107649 0.0790709 0.312798
0.107572 0.0783564 0.312471
0.107468 0.0776209 0.312059
0.107278 0.0768157 0.311366
0.107058 0.0759878 0.310574
0.106809 0.0751398 0.309689
0.106528 0.0742698 0.308702
0.106228 0.0733881 0.307652
0.105915 0.0724991 0.306558
0.105564 0.071585 0.305342
0.105189 0.0706567 0.304049
0.104844 0.0697559 0.302852
0.104505 0.0688657 0.301678
0.104196 0.0680015 0.300599
0.103884 0.0671406 0.299514
0.103615 0.0663161 0.298567
0.10333 0.0654831 0.29757
0.10302 0.0646349 0.29649
0.102727 0.0638045 0.295468
0.10243 0.0629755 0.294436
0.102094 0.0621211 0.293274
0.101805 0.0613046 0.292263
0.101553 0.0605194 0.291377
0.101326 0.0597555 0.290572
0.101155 0.0590331 0.289945
0.100986 0.0583161 0.28933
0.100799 0.0575886 0.288656
0.10061 0.0568611 0.287971
0.100396 0.0561211 0.287212
0.100122 0.0553425 0.286254
0.0998665 0.0545801 0.285357
0.0996219 0.0538285 0.284497
0.0993739 0.0530781 0.283626
0.0991386 0.0523391 0.282797
0.0989422 0.0516287 0.282094
0.0987773 0.050941 0.281493
0.0985997 0.0502475 0.280851
0.0984441 0.0495706 0.280282
0.0983256 0.0489187 0.279832
0.0981889 0.0482575 0.279324
0.0980064 0.0475705 0.278667
0.0978389 0.046895 0.278059
0.0976781 0.046226 0.277474
0.0975099 0.045555 0.276866
0.097368 0.0449016 0.276341
0.0972455 0.0442616 0.27588
0.0971342 0.0436297 0.275455
0.0970299 0.0430036 0.275054
0.0968904 0.0423594 0.274539
0.0967774 0.0417319 0.274109
0.0966464 0.0410964 0.273622
0.0965058 0.0404574 0.273104
0.0963741 0.0398252 0.272614
0.0962522 0.0392002 0.272157
0.0961425 0.0385835 0.271739
0.096082 0.037994 0.27148
0.096063 0.037427 0.271355
0.0960482 0.0368628 0.271244
0.0960611 0.0363131 0.271223
0.0960445 0.0357489 0.271105
0.0960245 0.0351836 0.270978
0.0960037 0.0346183 0.270847
0.0959947 0.0340596 0.270755
0.0959702 0.0334939 0.270613
0.0959342 0.0329236 0.270434
0.0958827 0.0323468 0.270205
0.0957842 0.0317496 0.269824
0.095684 0.0311532 0.269439
0.0956043 0.0305674 0.26912
0.095556 0.0299967 0.268902
0.095521 0.0294327 0.268727
0.0955327 0.0288893 0.268702
0.0955082 0.028331 0.268561
0.095481 0.0277723 0.268411
0.0954412 0.027209 0.268221
0.0953744 0.0266357 0.267944
0.0953081 0.0260636 0.267668
0.0952325 0.0254891 0.267363
0.0951648 0.024919 0.267084
0.0950696 0.0243395 0.266716
0.0950009 0.0237713 0.266433
0.0949335 0.0232049 0.266155
0.094906 0.0226541 0.266006
0.0948915 0.0221086 0.265898
0.0948777 0.0215638 0.265791
0.0948594 0.0210181 0.265671
0.0948385 0.020472 0.265543
0.09482 0.0199274 0.265422
0.0947969 0.0193817 0.265287
0.0947822 0.0188395 0.265179
0.0947461 0.018291 0.265002
0.0946704 0.0177309 0.264698
0.0945922 0.0171713 0.264387
0.0944881 0.0166052 0.263992
0.0944207 0.0160515 0.263716
0.0943745 0.015505 0.263507
0.0943223 0.0149576 0.263279
0.0942775 0.0144133 0.263075
0.0942565 0.0138763 0.262947
0.0942384 0.0133407 0.262829
0.094189 0.0127975 0.26261
0.0941719 0.0122634 0.262495
0.0941421 0.0117267 0.26234
0.094123 0.0111933 0.262218
0.0941085 0.0106616 0.262112
0.0940873 0.0101289 0.261984
0.0940796 0.00959976 0.261899
0.0940688 0.00907042 0.261805
0.0940515 0.00854014 0.261689
0.0940377 0.00801114 0.261585
0.0940678 0.00749158 0.261621
0.0940897 0.00697037 0.261631
0.0941207 0.00645105 0.26167
0.0941517 0.00593173 0.261709
0.0941828 0.00541238 0.261748
0.0942054 0.00489156 0.26176
0.0942089 0.00436765 0.261712
0.0941927 0.00384081 0.2616
0.0941903 0.00331667 0.261533
0.0942183 0.00279755 0.261562
0.0942614 0.00228065 0.26164
0.0942984 0.00176277 0.261698
0.0943291 0.00124395 0.261736
0.094344 0.000723136 0.261724
0.0943347 0.000199435 0.261634
0.0943294 -0.000323285 0.261558
0.0943706 -0.000840372 0.26163
0.0944205 -0.00135666 0.261729
0.0944707 -0.00187313 0.261829
0.0945385 -0.00238809 0.261985
0.094608 -0.00290334 0.262146
0.0946619 -0.00342035 0.262258
0.0947227 -0.00393706 0.262391
0.0947815 -0.00445422 0.262518
0.0948581 -0.00497051 0.262702
0.0949306 -0.00548756 0.262873
0.0950129 -0.00600452 0.263074
0.0950921 -0.00652217 0.263266
0.0951499 -0.00704139 0.26339
0.0951808 -0.00756195 0.263428
0.0952199 -0.00808226 0.263493
0.0952694 -0.00860235 0.26359
0.0953209 -0.00912258 0.263694
0.0954181 -0.0096422 0.263943
0.0955177 -0.0101626 0.264199
0.0956381 -0.0106835 0.26452
0.0957577 -0.0112055 0.26484
0.0958955 -0.0117284 0.265216
0.0960237 -0.0122525 0.265562
0.0961541 -0.0127777 0.265916
0.0962831 -0.013304 0.266264
0.0964215 -0.0138316 0.266642
0.0966172 -0.0143621 0.267201
0.0968113 -0.0148944 0.267755
0.0971224 -0.0154336 0.268679
0.0974399 -0.0159761 0.269622
0.0977676 -0.0165223 0.270598
0.0980822 -0.017071 0.271532
0.0984243 -0.0176245 0.272552
0.109934 0.094495 0.319691
0.109971 0.0938611 0.319735
0.109996 0.0932162 0.31974
0.109959 0.0925121 0.319544
0.109877 0.0917665 0.319203
0.109763 0.090991 0.318754
0.109607 0.0901798 0.318173
0.109445 0.0893646 0.317572
0.109311 0.0885769 0.31706
0.109203 0.0878162 0.316633
0.109081 0.0870445 0.316163
0.108984 0.0862969 0.315773
0.108851 0.0855186 0.315266
0.10873 0.0847537 0.314799
0.108597 0.0839792 0.314293
0.108488 0.0832289 0.313865
0.108382 0.0824824 0.313447
0.108304 0.0817619 0.313118
0.108251 0.081065 0.312875
0.108223 0.0803901 0.312711
0.108184 0.0797066 0.31251
0.108145 0.0790238 0.312309
0.10809 0.0783294 0.312059
0.107988 0.0775962 0.311653
0.10781 0.0768023 0.311004
0.107588 0.0759745 0.310212
0.107336 0.0751251 0.309321
0.107042 0.0742454 0.308295
0.106749 0.0733709 0.307275
0.106437 0.0724849 0.306192
0.106108 0.0715901 0.305056
0.105746 0.0706731 0.303811
0.10541 0.0697809 0.302651
0.105069 0.0688899 0.301478
0.104744 0.0680164 0.300357
0.104409 0.0671385 0.299203
0.104126 0.0663049 0.298217
0.103838 0.0654712 0.297217
0.103526 0.0646237 0.296138
0.103243 0.0638016 0.295154
0.102946 0.0629731 0.294124
0.102606 0.0621173 0.292957
0.102312 0.0612994 0.291939
0.102058 0.0605141 0.291053
0.101823 0.059745 0.290224
0.101662 0.0590311 0.289636
0.101503 0.0583214 0.289055
0.101306 0.0575876 0.288352
0.101105 0.0568541 0.287638
0.1009 0.0561205 0.28691
0.100635 0.0553493 0.285989
0.100381 0.0545889 0.285102
0.100148 0.0538456 0.284283
0.0999172 0.0531075 0.283474
0.0996893 0.0523742 0.282674
0.0994726 0.0516512 0.28191
0.099286 0.0509501 0.281243
0.0990841 0.0502423 0.280528
0.0988943 0.0495447 0.279851
0.0987338 0.0488678 0.27927
0.0985742 0.0481938 0.278691
0.0983974 0.0475115 0.278056
0.0982472 0.0468479 0.277509
0.0980995 0.0461878 0.276969
0.0979527 0.0455303 0.276433
0.0978284 0.0448881 0.275969
0.0977158 0.0442545 0.275543
0.0976046 0.0436234 0.275121
0.0975126 0.0430049 0.274762
0.0973837 0.0423671 0.274283
0.0972792 0.0417448 0.273884
0.0971465 0.0411087 0.273395
0.0970045 0.0404694 0.272875
0.0968621 0.0398321 0.272355
0.0967387 0.0392069 0.271896
0.0966289 0.0385905 0.27148
0.0965691 0.0380016 0.271225
0.0965509 0.0374353 0.271104
0.0965359 0.0368711 0.270993
0.096539 0.0363165 0.27094
0.0965208 0.0357517 0.270819
0.0965007 0.0351867 0.270692
0.0964807 0.0346222 0.270565
0.0964821 0.0340685 0.270507
0.096476 0.0335117 0.270425
0.0964595 0.0329505 0.27031
0.0964206 0.0323796 0.270123
0.0963321 0.0317869 0.269776
0.0962415 0.0311948 0.269425
0.0961604 0.0306083 0.269103
0.096093 0.030029 0.268825
0.0960455 0.0294595 0.268612
0.0960454 0.028911 0.268549
0.096001 0.0283444 0.268346
0.0959634 0.0277815 0.268164
0.0959133 0.0272141 0.267941
0.0958448 0.0266405 0.267661
0.0957771 0.0260682 0.267383
0.0957111 0.0254978 0.267111
0.0956444 0.0249282 0.266837
0.0955582 0.0243525 0.2665
0.0954889 0.0237843 0.266218
0.095421 0.0232178 0.26594
0.0953842 0.0226637 0.265761
0.0953682 0.0221178 0.265649
0.0953534 0.0215729 0.265541
0.0953356 0.0210274 0.265423
0.0953067 0.0204788 0.265271
0.0952875 0.0199341 0.265149
0.0952535 0.0193851 0.264979
0.0952287 0.0188399 0.26484
0.0951827 0.0182885 0.264632
0.0951059 0.0177286 0.264327
0.0950264 0.017169 0.264014
0.0949315 0.0166062 0.263652
0.0948743 0.0160557 0.263409
0.094838 0.0155124 0.263234
0.0947953 0.0149679 0.263038
0.0947591 0.0144261 0.262862
0.0947378 0.0138891 0.262735
0.0947195 0.0133535 0.262616
0.0946611 0.012808 0.262371
0.0946431 0.0122738 0.262254
0.094605 0.0117352 0.262073
0.0945855 0.0112019 0.261951
0.0945714 0.0106704 0.261847
0.0945585 0.0101397 0.261746
0.0945503 0.00961057 0.261661
0.0945468 0.00908292 0.26159
0.0945289 0.00855258 0.261474
0.0945152 0.00802363 0.261371
0.0945454 0.00750409 0.261407
0.094568 0.00698307 0.26142
0.094599 0.00646375 0.261459
0.0946301 0.00594443 0.261498
0.0946611 0.00542508 0.261537
0.0946746 0.00490271 0.26152
0.0946688 0.00437729 0.261443
0.0946513 0.00385037 0.261328
0.0946503 0.00332656 0.261265
0.0946789 0.00280763 0.261297
0.0947324 0.00229238 0.261407
0.0947689 0.00177441 0.261464
0.0947991 0.0012556 0.2615
0.0948227 0.00073593 0.261516
0.0948233 0.000213494 0.261458
0.0948288 -0.000308021 0.261417
0.0948877 -0.000823243 0.261544
0.0949382 -0.00133968 0.261645
0.0949803 -0.00185717 0.261719
0.0950378 -0.00237335 0.261842
0.0950984 -0.00288952 0.261974
0.0951422 -0.00340745 0.262053
0.0952019 -0.00392429 0.262183
0.0952686 -0.00444087 0.262335
0.0953644 -0.00495592 0.262578
0.095457 -0.0054719 0.262811
0.0955582 -0.00598806 0.263071
0.0956561 -0.00650511 0.263321
0.095724 -0.00702433 0.263476
0.095765 -0.00754505 0.263547
0.0958161 -0.0080655 0.263649
0.0958777 -0.00858587 0.263784
0.09594 -0.00910657 0.263921
0.096046 -0.0096268 0.264196
0.0961366 -0.010148 0.264422
0.096246 -0.0106698 0.264708
0.0963462 -0.0111925 0.264964
0.0964724 -0.011716 0.265302
0.0965832 -0.0122405 0.265592
0.0967144 -0.0127661 0.265946
0.096855 -0.013293 0.266329
0.0970419 -0.0138223 0.266857
0.0972707 -0.0143546 0.267518
0.0975171 -0.0148897 0.268233
0.0978816 -0.0154322 0.26932
0.0982323 -0.0159777 0.270362
0.0985602 -0.0165255 0.271333
0.0989007 -0.0170772 0.272342
0.110503 0.0944967 0.319387
0.110516 0.093841 0.319356
0.110542 0.0931964 0.319364
0.110504 0.0924916 0.319165
0.110396 0.0917229 0.318743
0.110267 0.090935 0.318251
0.11011 0.0901234 0.317667
0.109947 0.0893089 0.317067
0.109813 0.0885222 0.316558
0.109727 0.0877833 0.316207
0.109606 0.0870125 0.315741
0.109507 0.0862656 0.315351
0.109373 0.0854866 0.314841
0.109239 0.0847114 0.314335
0.109079 0.0839148 0.313747
0.108956 0.0831527 0.313277
0.108835 0.0823948 0.312813
0.108756 0.0816747 0.312484
0.108716 0.0809888 0.312281
0.108688 0.0803156 0.312119
0.108662 0.0796439 0.311962
0.108634 0.0789721 0.3118
0.108582 0.0782806 0.31156
0.10848 0.0775485 0.311158
0.108313 0.0767639 0.310546
0.108099 0.0759454 0.309788
0.107848 0.075099 0.308907
0.107566 0.0742296 0.307925
0.107285 0.0733665 0.306948
0.106995 0.0724997 0.305945
0.10668 0.0716168 0.30486
0.106341 0.0707198 0.303698
0.106002 0.0698266 0.302536
0.105656 0.0689332 0.301353
0.105315 0.068048 0.300187
0.104964 0.0671596 0.298988
0.104666 0.0663164 0.297963
0.104376 0.0654823 0.296961
0.104062 0.0646344 0.295882
0.103778 0.0638128 0.294901
0.103469 0.0629772 0.293842
0.103117 0.0621141 0.292643
0.102821 0.0612955 0.291623
0.102566 0.0605105 0.290738
0.102321 0.0597358 0.289883
0.10217 0.0590298 0.289332
0.102011 0.0583207 0.288754
0.101801 0.0575793 0.288016
0.101588 0.0568381 0.287265
0.101381 0.0561041 0.286535
0.101125 0.0553403 0.285647
0.100891 0.0545949 0.284833
0.10067 0.0538606 0.284058
0.100469 0.0531426 0.283349
0.100261 0.0524222 0.282615
0.100033 0.051693 0.281823
0.0998253 0.0509789 0.281091
0.0995987 0.050256 0.280301
0.099364 0.0495313 0.279485
0.0991587 0.0488277 0.278763
0.0989663 0.0481349 0.278084
0.0987775 0.0474467 0.277415
0.0986381 0.0467907 0.276906
0.0985013 0.0461384 0.276405
0.0983778 0.0454957 0.275946
0.0982734 0.044866 0.275549
0.0981795 0.044244 0.275186
0.0980769 0.0436183 0.274794
0.0979947 0.0430059 0.274469
0.0978831 0.0423784 0.274049
0.0977898 0.0417626 0.273688
0.0976566 0.0411265 0.273199
0.097513 0.0404869 0.272678
0.097368 0.0398486 0.272153
0.0972355 0.0392188 0.271668
0.0971241 0.0386021 0.27125
0.0970652 0.038014 0.271
0.0970475 0.037448 0.270881
0.0970323 0.0368838 0.27077
0.0970424 0.0363328 0.27074
0.0970229 0.0357675 0.270616
0.0970029 0.0352025 0.27049
0.0969842 0.0346388 0.270369
0.0969863 0.0340855 0.270313
0.0969817 0.0335294 0.270237
0.0969847 0.0329773 0.270184
0.0969573 0.0324116 0.270035
0.0968788 0.0318235 0.269723
0.096797 0.0312353 0.269402
0.0967149 0.0306482 0.269079
0.0966287 0.0300606 0.268743
0.096571 0.0294867 0.268498
0.0965586 0.0289329 0.268398
0.0965031 0.0283616 0.26816
0.0964552 0.0277945 0.267946
0.0964038 0.0272269 0.267722
0.0963345 0.0266531 0.267441
0.0962659 0.0260807 0.267162
0.0961998 0.0255104 0.266891
0.0961329 0.0249409 0.266618
0.0960469 0.0243654 0.266284
0.095977 0.0237973 0.266002
0.0959086 0.0232308 0.265724
0.0958617 0.0226732 0.265515
0.0958443 0.0221269 0.265399
0.0958277 0.0215815 0.265287
0.0958111 0.0210366 0.265174
0.095774 0.0204854 0.264996
0.0957534 0.0199404 0.26487
0.0957076 0.0193878 0.264665
0.0956711 0.018839 0.264489
0.0956153 0.018285 0.264253
0.095539 0.0177256 0.263951
0.0954595 0.0171665 0.26364
0.095373 0.0166066 0.263306
0.0953259 0.0160595 0.263098
0.0953011 0.0155196 0.26296
0.0952683 0.0149782 0.262796
0.0952406 0.0144389 0.262649
0.0952191 0.0139018 0.262522
0.0952005 0.0133662 0.262404
0.0951503 0.012823 0.262186
0.0951326 0.0122889 0.262071
0.0951022 0.0117522 0.261915
0.0950826 0.0112188 0.261794
0.0950676 0.0106871 0.261688
0.0950459 0.0101543 0.26156
0.0950286 0.00962314 0.261447
0.0950164 0.00909361 0.261349
0.0949981 0.0085633 0.261233
0.0949843 0.00803444 0.26113
0.0950153 0.00751509 0.261169
0.0950464 0.00699577 0.261208
0.0950774 0.00647645 0.261247
0.0951084 0.00595713 0.261286
0.0951394 0.00543778 0.261325
0.0951434 0.00491377 0.261279
0.0951445 0.00438957 0.261224
0.0951256 0.00386247 0.261106
0.0951342 0.00334022 0.261074
0.0951652 0.00282163 0.261113
0.0952276 0.00230756 0.261251
0.0952566 0.00178848 0.261283
0.0952947 0.00127067 0.261345
0.0953205 0.000751204 0.261367
0.0953311 0.0002299 0.261342
0.095348 -0.000290427 0.261337
0.0954081 -0.000805778 0.261467
0.0954672 -0.00132155 0.261595
0.0955172 -0.00183856 0.261693
0.0955759 -0.00235494 0.261819
0.0956351 -0.00287158 0.261947
0.0956766 -0.00339002 0.262019
0.0957167 -0.00390869 0.262086
0.0957824 -0.00442561 0.262234
0.0958802 -0.0049407 0.262483
0.0959751 -0.00545671 0.262722
0.0960889 -0.00597241 0.26302
0.0961955 -0.00648938 0.263296
0.0962738 -0.00700844 0.263483
0.0963343 -0.00752873 0.263614
0.0964054 -0.00804897 0.263779
0.0964862 -0.00856938 0.263973
0.0965671 -0.00909032 0.264168
0.0966666 -0.0096115 0.264421
0.0967483 -0.0101336 0.264619
0.0968382 -0.0106563 0.264842
0.0969275 -0.0111795 0.265063
0.0970441 -0.0117036 0.265369
0.097156 -0.0122285 0.265661
0.0972881 -0.0127546 0.266015
0.0974579 -0.0132825 0.266488
0.0976769 -0.0138133 0.267114
0.097941 -0.0143474 0.267881
0.0982306 -0.0148851 0.268727
0.0986372 -0.0154305 0.269939
0.0990122 -0.0159785 0.271051
0.0993511 -0.0165283 0.272051
0.111673 0.0957509 0.321094
0.111074 0.0945014 0.319094
0.111073 0.0938316 0.319016
0.111084 0.0931732 0.318975
0.111018 0.0924433 0.318691
0.110896 0.0916618 0.318223
0.110764 0.0908726 0.317725
0.110607 0.090063 0.317148
0.110445 0.0892494 0.316551
0.110322 0.0884762 0.316086
0.110238 0.0877392 0.315742
0.110118 0.0869705 0.315283
0.11002 0.0862246 0.314896
0.109873 0.0854365 0.314351
0.109738 0.0846599 0.313842
0.109563 0.0838516 0.313208
0.109423 0.0830768 0.312689
0.1093 0.0823185 0.312222
0.109231 0.0816075 0.311926
0.109191 0.0809233 0.311726
0.109176 0.0802619 0.311608
0.109162 0.0796011 0.31149
0.109122 0.0789193 0.311289
0.109068 0.0782276 0.311046
0.108952 0.0774847 0.310601
0.108783 0.0767011 0.309989
0.108583 0.0758943 0.309278
0.108346 0.0750605 0.308448
0.108077 0.0742042 0.307515
0.107831 0.0733706 0.306658
0.107566 0.0725242 0.305738
0.107265 0.071654 0.304706
0.106948 0.0707752 0.303621
0.106608 0.0698825 0.302463
0.106245 0.0689778 0.301235
0.105888 0.0680812 0.300024
0.105522 0.0671825 0.298782
0.105209 0.0663295 0.297715
0.104918 0.0654957 0.296717
0.104601 0.064647 0.295636
0.104307 0.0638189 0.294627
0.103986 0.0629759 0.293535
0.10362 0.0621048 0.292301
0.103321 0.0612859 0.29128
0.103066 0.0605015 0.290398
0.10283 0.0597347 0.28958
0.102679 0.0590301 0.289033
0.102518 0.0583198 0.288451
0.102295 0.0575701 0.287673
0.102077 0.0568274 0.286914
0.101857 0.0560856 0.286148
0.10161 0.0553287 0.285294
0.101388 0.0545921 0.284522
0.101178 0.053866 0.283787
0.100989 0.0531564 0.28312
0.100802 0.0524507 0.282459
0.100576 0.0517232 0.281677
0.100356 0.0510022 0.280912
0.100104 0.0502638 0.280043
0.0998317 0.049517 0.279114
0.0995923 0.0487935 0.278289
0.0993783 0.0480886 0.277545
0.0991875 0.0474006 0.276875
0.0990686 0.046758 0.276434
0.0989452 0.0461144 0.275978
0.0988434 0.0454852 0.275591
0.0987495 0.0448622 0.27523
0.098665 0.0442459 0.274899
0.0985519 0.043615 0.274477
0.0984778 0.0430075 0.274179
0.0983755 0.0423856 0.273792
0.0982927 0.041776 0.273466
0.0981609 0.0411412 0.272986
0.0980361 0.0405121 0.272528
0.0978898 0.0398734 0.272001
0.0977455 0.0392378 0.271482
0.0976326 0.0386206 0.271062
0.0975723 0.0380319 0.270809
0.0975451 0.0374612 0.270661
0.0975296 0.036897 0.27055
0.0975307 0.0363416 0.270492
0.0975101 0.0357759 0.270365
0.0974897 0.0352109 0.270239
0.0974709 0.0346473 0.270118
0.0974735 0.0340944 0.270065
0.0974868 0.0335468 0.270046
0.0975002 0.0329995 0.270027
0.0974833 0.0324386 0.269912
0.097424 0.0318592 0.269663
0.09735 0.0312744 0.269368
0.0972677 0.0306871 0.269047
0.0971708 0.0300948 0.26868
0.0971026 0.0295163 0.268403
0.0970709 0.0289542 0.268242
0.0970047 0.0283787 0.267972
0.0969469 0.0278076 0.267729
0.0968958 0.0272402 0.267507
0.0968352 0.02667 0.267255
0.0967671 0.026098 0.26698
0.0967093 0.025531 0.266737
0.0966418 0.0249614 0.266464
0.0965629 0.0243887 0.266155
0.0964841 0.0238172 0.265846
0.0964147 0.0232505 0.265567
0.0963577 0.0226892 0.265328
0.0963302 0.0221395 0.265181
0.0963037 0.0215907 0.265038
0.0962868 0.0210458 0.264925
0.0962403 0.0204916 0.264719
0.0962102 0.0199437 0.264564
0.096152 0.0193874 0.264322
0.0961048 0.0188356 0.264113
0.0960397 0.0182791 0.263849
0.0959628 0.01772 0.263548
0.0958934 0.0171645 0.26327
0.0958249 0.0166103 0.262996
0.0957881 0.0160664 0.262821
0.0957728 0.0155295 0.262714
0.0957495 0.0149908 0.262581
0.0957222 0.0144517 0.262437
0.0957004 0.0139146 0.262309
0.0956815 0.013379 0.262191
0.0956401 0.0128381 0.262002
0.0956232 0.0123042 0.26189
0.0955928 0.0117675 0.261736
0.0955807 0.0112359 0.26164
0.0955641 0.0107038 0.261529
0.0955341 0.0101691 0.261376
0.0955167 0.00963787 0.261263
0.0955039 0.0091082 0.261165
0.0954767 0.00857601 0.261021
0.0954627 0.00804714 0.260919
0.0954937 0.00752779 0.260958
0.0955247 0.00700847 0.260997
0.0955557 0.00648915 0.261036
0.0955868 0.00596983 0.261075
0.0956093 0.00544894 0.261087
0.0956032 0.0049233 0.26101
0.0956114 0.0044004 0.260977
0.0955928 0.00387345 0.260861
0.0956115 0.00335285 0.260861
0.0956528 0.00283581 0.260933
0.0957249 0.00232307 0.261101
0.0957525 0.00180372 0.261129
0.0957993 0.00128692 0.261217
0.0958259 0.000767399 0.261242
0.0958476 0.000247329 0.261252
0.0958744 -0.000272063 0.261278
0.0959435 -0.000786684 0.261436
0.0960124 -0.00130175 0.261594
0.096072 -0.00181816 0.261722
0.0961408 -0.00233401 0.261879
0.096209 -0.00285034 0.262034
0.0962331 -0.00337076 0.262051
0.0962618 -0.00389077 0.262083
0.0963262 -0.00440812 0.262226
0.096425 -0.00492357 0.262476
0.0965237 -0.00543971 0.262726
0.0966477 -0.00595523 0.263055
0.0967642 -0.0064721 0.26336
0.096842 -0.00699168 0.263545
0.0969033 -0.00751244 0.263678
0.0969847 -0.00803282 0.263873
0.0970854 -0.00855319 0.264129
0.0971772 -0.00907453 0.264357
0.0972856 -0.00959622 0.264637
0.0973678 -0.0101191 0.264835
0.0974493 -0.0106426 0.26503
0.0975293 -0.0111665 0.265221
0.0976369 -0.0116912 0.265498
0.0977404 -0.0122166 0.265762
0.0978829 -0.0127433 0.266147
0.098073 -0.0132723 0.26668
0.0983439 -0.013805 0.267464
0.0986442 -0.0143413 0.268339
0.0989702 -0.0148813 0.269294
0.0993972 -0.0154288 0.270563
0.0997915 -0.0159791 0.271729
0.100113 -0.0165294 0.272669
0.112242 0.0957507 0.320783
0.111631 0.0944924 0.318754
0.111602 0.0937964 0.318589
0.111584 0.0931111 0.318455
0.111488 0.092354 0.318076
0.111363 0.0915701 0.317602
0.111218 0.0907715 0.317068
0.111076 0.0899753 0.316538
0.110914 0.0891647 0.315948
0.110805 0.0884053 0.315529
0.110721 0.0876693 0.315188
0.110613 0.086914 0.314772
0.110517 0.0861701 0.314392
0.110381 0.0853935 0.313887
0.110244 0.0846162 0.313375
0.110067 0.0838078 0.312741
0.109926 0.0830327 0.312219
0.109802 0.0822738 0.31175
0.109721 0.0815547 0.311422
0.10967 0.0808621 0.311188
0.109643 0.080191 0.311031
0.109616 0.0795199 0.310873
0.109561 0.0788267 0.310627
0.109492 0.0781239 0.310338
0.109374 0.0773811 0.30989
0.109216 0.0766072 0.309314
0.10904 0.0758221 0.308686
0.108831 0.0750124 0.307948
0.108611 0.074197 0.307178
0.108403 0.0733945 0.306447
0.108172 0.0725764 0.305643
0.107892 0.0717241 0.304684
0.107599 0.0708646 0.303682
0.107259 0.0699726 0.302531
0.106883 0.0690587 0.301269
0.106498 0.0681421 0.299976
0.106103 0.0672236 0.298653
0.105767 0.0663537 0.297517
0.105463 0.0655118 0.296484
0.105157 0.0646721 0.295444
0.10486 0.0638439 0.294435
0.104536 0.0629992 0.293338
0.104166 0.0621268 0.292099
0.103864 0.0613068 0.291074
0.103597 0.0605151 0.29016
0.103371 0.0597561 0.289378
0.103219 0.0590511 0.288831
0.103046 0.0583332 0.288214
0.102808 0.0575747 0.287396
0.102576 0.0568227 0.286596
0.102335 0.0560674 0.285764
0.102076 0.0553049 0.284881
0.101863 0.0545747 0.284141
0.101664 0.0538572 0.283446
0.101496 0.0531623 0.282851
0.101332 0.0524718 0.282266
0.101117 0.051752 0.281524
0.100886 0.0510244 0.280727
0.100608 0.0502716 0.279786
0.100301 0.0495038 0.27875
0.100027 0.0487603 0.27782
0.0998015 0.0480498 0.277045
0.0996114 0.0473634 0.276382
0.0995133 0.046734 0.276009
0.099411 0.0461035 0.275623
0.0993296 0.0454869 0.275303
0.099246 0.0448702 0.274977
0.0991702 0.0442594 0.274675
0.0990471 0.0436231 0.274224
0.0989717 0.0430153 0.273924
0.0988787 0.042399 0.273569
0.0987976 0.0417907 0.273251
0.0986774 0.0411625 0.27281
0.0985709 0.0405435 0.272413
0.098434 0.03991 0.271919
0.0982886 0.039274 0.2714
0.0981839 0.0386611 0.271008
0.0981115 0.0380662 0.270719
0.0980728 0.0374896 0.270536
0.098047 0.0369202 0.270394
0.098039 0.0363602 0.270307
0.0980196 0.0357952 0.270185
0.0979993 0.0352303 0.27006
0.0979789 0.034666 0.269935
0.0979798 0.0341123 0.269877
0.0979921 0.0335642 0.269855
0.0980061 0.0330172 0.269838
0.0979898 0.0324566 0.269727
0.0979315 0.0318778 0.269482
0.0978477 0.0312888 0.269159
0.0977722 0.0307047 0.268861
0.0976741 0.0301121 0.268492
0.0976063 0.0295339 0.268219
0.0975742 0.0289718 0.268058
0.0975157 0.0283995 0.267814
0.0974476 0.0278243 0.26754
0.0973969 0.0272572 0.267321
0.0973468 0.0266913 0.267103
0.0972806 0.0261201 0.266836
0.0972311 0.0255563 0.266621
0.0971712 0.0249896 0.266373
0.0970915 0.0244166 0.266064
0.0970032 0.0238416 0.265727
0.0969326 0.0232743 0.265447
0.0968651 0.0227094 0.265175
0.0968182 0.0221528 0.264969
0.0967811 0.0216005 0.264794
0.0967632 0.0210554 0.264679
0.0967069 0.0204981 0.264443
0.0966671 0.0199472 0.26426
0.0965986 0.0193878 0.263986
0.0965401 0.0188328 0.263744
0.0964653 0.0182736 0.263451
0.0963888 0.0177152 0.263153
0.0963204 0.0171604 0.262881
0.0962612 0.0166095 0.262637
0.0962334 0.0160685 0.262492
0.0962188 0.015532 0.262387
0.0962041 0.014996 0.262283
0.0961855 0.0144595 0.262167
