ply
format ascii 1.0
element vertex 1632
property float x
property float y
property float z
end_header
0.0364795 0.00175157 0.740985
0.0377769 0.00108919 0.74429
0.0390419 0.000426096 0.746949
0.0403365 -0.000244474 0.749934
0.0415327 -0.000904042 0.751339
0.0427534 -0.00157061 0.753045
0.0771935 -0.0223643 0.734902
0.0787233 -0.0231504 0.738626
0.0797752 -0.0237784 0.738298
0.08089 -0.0244275 0.738491
0.0820292 -0.0250861 0.73888
0.0831861 -0.0257498 0.739392
0.0843455 -0.0264158 0.739915
0.0855001 -0.02708 0.740385
0.0866621 -0.0277478 0.740902
0.0878506 -0.0284249 0.741606
0.089043 -0.0291039 0.742323
0.0902167 -0.0297771 0.742884
0.0914289 -0.0304637 0.743712
0.0926522 -0.0311557 0.744605
0.0938818 -0.0318507 0.745523
0.0951298 -0.0325534 0.746552
0.0964644 -0.0332889 0.748171
0.0978718 -0.0340527 0.750265
0.09942 -0.0348706 0.753292
0.101046 -0.0357202 0.75679
0.102676 -0.0365732 0.760248
0.104278 -0.0374182 0.763446
0.00124726 0.0234633 0.77404
0.000779214 0.0252662 0.774613
0.00188494 0.0245715 0.773232
0.00234634 0.0227659 0.772356
0.00298474 0.0238761 0.771701
0.00407612 0.0231782 0.769958
0.00515765 0.0224781 0.767954
0.00623168 0.0217794 0.765854
0.0073064 0.0210894 0.764043
0.00837395 0.020401 0.762144
0.00944105 0.0197183 0.76044
0.0105103 0.0190431 0.758971
0.0115773 0.0183709 0.757574
0.0126315 0.0176967 0.755876
0.0136786 0.0170242 0.754095
0.0147178 0.0163533 0.75223
0.0157517 0.0156851 0.750367
0.0167791 0.0150202 0.748454
0.017804 0.0143583 0.746634
0.0188248 0.0137004 0.744819
0.0198318 0.0130431 0.742797
0.020838 0.0123904 0.740884
0.0218367 0.0117398 0.738926
0.0228347 0.0110939 0.737067
0.0238411 0.0104523 0.735508
0.0248635 0.00981455 0.734383
0.0258886 0.00917987 0.733364
0.0269325 0.00854748 0.732779
0.0279901 0.00791667 0.732486
0.0290447 0.00728629 0.732148
0.0301016 0.00665547 0.731874
0.0311607 0.00602622 0.731636
0.0322425 0.00539617 0.731808
0.0333443 0.00476472 0.732306
0.0344639 0.00413128 0.733074
0.0356978 0.00348928 0.735649
0.0370058 0.00283697 0.739275
0.0383116 0.00218007 0.742699
0.039585 0.00152196 0.745475
0.040885 0.000856684 0.748526
0.0420725 0.000200348 0.74982
0.0785597 -0.0218207 0.731879
0.0801695 -0.0226264 0.736221
0.081279 -0.0232726 0.736391
0.0824144 -0.0239278 0.736765
0.0835514 -0.0245842 0.737142
0.0847096 -0.0252473 0.737673
0.0858627 -0.0259098 0.738153
0.087006 -0.0265692 0.738544
0.088164 -0.0272335 0.739035
0.0893313 -0.0279015 0.739583
0.0904672 -0.0285591 0.739886
0.0916338 -0.029228 0.740406
0.09284 -0.0299113 0.741201
0.0940555 -0.0305981 0.742043
0.0953175 -0.031303 0.743201
0.0966498 -0.0320333 0.744824
0.0980618 -0.032794 0.746971
0.0995703 -0.0335915 0.749738
0.101193 -0.0344316 0.753222
0.102828 -0.0352803 0.756728
0.104452 -0.0361261 0.760086
-0.000334078 0.0259561 0.77572
-0.00079838 0.0277792 0.776831
0.000305854 0.027064 0.77487
0.00141608 0.026371 0.773683
0.00251805 0.0256726 0.772196
0.00361597 0.0249764 0.770708
0.00470418 0.0242762 0.768911
0.00577912 0.02357 0.766726
0.00684094 0.0228606 0.764225
0.00789942 0.0221584 0.761877
0.00895484 0.0214627 0.759671
0.0100097 0.0207746 0.757675
0.0110674 0.0200951 0.755976
0.0121249 0.0194211 0.754418
0.0131735 0.0187469 0.752724
0.014218 0.0180758 0.751045
0.0152596 0.0174079 0.749422
0.0162949 0.0167425 0.747734
0.0173201 0.0160774 0.74591
0.0183429 0.0154162 0.744152
0.0193585 0.0147575 0.742332
0.0203612 0.0140995 0.74032
0.0213671 0.0134471 0.738515
0.0223719 0.0127984 0.736796
0.023373 0.0121522 0.73511
0.0243832 0.0115109 0.73371
0.0254027 0.0108732 0.732592
0.0264216 0.0102383 0.73151
0.0274548 0.00960567 0.730773
0.0285126 0.00897633 0.730536
0.0295673 0.00834701 0.730253
0.0306286 0.00771776 0.730103
0.0316965 0.00708929 0.730068
0.0327907 0.00646062 0.730483
0.0338881 0.00583162 0.730922
0.0350149 0.00520041 0.73182
0.0805786 -0.0214849 0.73429
0.0816652 -0.0221229 0.734294
0.0827779 -0.0227698 0.734508
0.0838766 -0.023412 0.734602
0.0850206 -0.024069 0.735046
0.0861599 -0.0247246 0.73544
0.0873105 -0.0253849 0.735913
0.0884602 -0.0260441 0.736362
0.0896264 -0.0267102 0.736928
0.0907581 -0.0273649 0.737223
0.0919193 -0.0280305 0.737728
0.0931019 -0.0287031 0.738373
0.0943193 -0.0293883 0.739252
0.0956047 -0.0300976 0.740591
0.0969403 -0.0308255 0.742254
0.0983283 -0.0315734 0.744244
0.0997978 -0.0323504 0.746749
0.1014 -0.0331768 0.750105
0.10302 -0.0340119 0.753512
0.104645 -0.0348517 0.75689
-0.00125192 0.0296391 0.778969
-0.000148928 0.0289052 0.776605
0.000950043 0.0281802 0.774404
0.00205585 0.0274809 0.773004
0.00315301 0.0267761 0.771334
0.00424375 0.0260717 0.769592
0.00532405 0.0253634 0.767546
0.00639446 0.0246539 0.765313
0.00744951 0.0239394 0.762668
0.00849741 0.0232289 0.76005
0.00954118 0.0225256 0.757548
0.0105849 0.0218314 0.755304
0.011629 0.0211453 0.753292
0.0126742 0.0204663 0.751498
0.0137177 0.0197925 0.749801
0.0147596 0.0191226 0.748206
0.0158004 0.018457 0.746695
0.0168365 0.0177936 0.745176
0.0178602 0.0171293 0.743442
0.0188789 0.0164681 0.741693
0.0198877 0.0158082 0.739819
0.0208857 0.0151495 0.737816
0.0218902 0.0144968 0.736096
0.0228976 0.0138491 0.73454
0.0238993 0.0132035 0.732956
0.0249156 0.0125637 0.73177
0.0259358 0.0119271 0.730725
0.0269475 0.0112911 0.729572
0.0279818 0.0106599 0.72891
0.0290411 0.0100315 0.728758
0.0300948 0.00940335 0.7285
0.0311615 0.00877603 0.728483
0.0322434 0.00814943 0.728727
0.0333328 0.00752257 0.729078
0.0344121 0.00689453 0.729246
0.0814831 -0.0208109 0.727669
0.0831231 -0.0216133 0.732132
0.0841988 -0.0222468 0.732068
0.0853264 -0.0228974 0.73241
0.0864492 -0.0235457 0.732701
0.087604 -0.0242052 0.733229
0.0887617 -0.0248658 0.733765
0.0899491 -0.0255362 0.734507
0.0911092 -0.0261989 0.735035
0.0923059 -0.0268739 0.735812
0.0934882 -0.0275449 0.736471
0.0946938 -0.0282238 0.737277
0.0959652 -0.0289249 0.738526
0.0972755 -0.0296412 0.740022
0.0986101 -0.0303658 0.741651
0.100032 -0.0311217 0.743844
0.101576 -0.0319215 0.746815
0.103218 -0.0327576 0.750381
0.104865 -0.0335974 0.753903
0.106225 -0.0356766 0.759894
0.106479 -0.034428 0.757144
0.107684 -0.0364602 0.76206
0.10797 -0.0352181 0.75953
-0.003476 0.0311248 0.783948
-0.00460032 0.0318658 0.786183
-0.00282136 0.0322587 0.783656
-0.00235395 0.0303995 0.782116
-0.00169945 0.0315344 0.781909
-0.000597899 0.0307751 0.778971
0.000500466 0.0300312 0.776367
0.00159238 0.029293 0.773822
0.00269047 0.0285816 0.772061
0.00377857 0.0278653 0.770045
0.00486408 0.0271565 0.768162
0.00593946 0.0264444 0.766048
0.00700631 0.025733 0.763816
0.00805588 0.025014 0.761125
0.00909272 0.0242947 0.758228
0.0101262 0.0235845 0.755491
0.0111582 0.0228831 0.753002
0.0121908 0.0221914 0.750747
0.0132269 0.0215095 0.748813
0.0142678 0.0208365 0.747193
0.0153054 0.0201667 0.745612
0.0163467 0.0195033 0.744254
0.0173822 0.0188418 0.742828
0.0184052 0.0181781 0.741198
0.019418 0.0175158 0.739409
0.0204218 0.0168548 0.73753
0.0214126 0.0161943 0.735464
0.0224126 0.0155412 0.733743
0.0234194 0.0148942 0.73227
0.024424 0.0142496 0.73084
0.0254444 0.0136118 0.729806
0.0264677 0.0129758 0.728902
0.0274763 0.0123398 0.72775
0.0285094 0.011709 0.727125
0.0295657 0.0110823 0.726951
0.0306144 0.010455 0.726649
0.0834505 -0.0204585 0.729646
0.084496 -0.021083 0.729376
0.0855999 -0.021724 0.729557
0.0866967 -0.0223635 0.729681
0.0878354 -0.0230161 0.730116
0.0889912 -0.0236734 0.730663
0.0902127 -0.0243523 0.731684
0.0914204 -0.0250269 0.732579
0.0926577 -0.0257121 0.733668
0.09388 -0.026394 0.734627
0.0951059 -0.0270769 0.735587
0.0963837 -0.0277776 0.73689
0.0976828 -0.0284869 0.738314
0.0990022 -0.0292032 0.739844
0.10037 -0.0299369 0.741672
0.101861 -0.0307133 0.744287
0.103485 -0.0315355 0.747731
0.10512 -0.032364 0.751184
0.106727 -0.0331858 0.754387
0.108242 -0.0339792 0.756932
-0.00328829 0.034135 0.78546
-0.00216455 0.0333991 0.783545
-0.00104433 0.0326719 0.781815
5.6084e-05 0.0319106 0.778938
0.00114891 0.031155 0.776067
0.00223232 0.0304014 0.773152
0.00332138 0.0296762 0.770989
0.00440407 0.0289539 0.768822
0.00548615 0.0282426 0.766926
0.00655406 0.0275233 0.764612
0.00761504 0.0268072 0.762283
0.00865492 0.0260799 0.759363
0.00967921 0.0253504 0.756163
0.0106972 0.0246284 0.75306
0.0117236 0.0239255 0.750539
0.0127492 0.023231 0.748227
0.0137811 0.0225486 0.746321
0.0148208 0.0218778 0.744795
0.0158545 0.0212079 0.743228
0.0168914 0.0205444 0.741866
0.0179203 0.0198817 0.740382
0.0189395 0.0192181 0.738767
0.0199482 0.0185553 0.736996
0.0209482 0.0178941 0.735131
0.0219334 0.0172322 0.733055
0.0229285 0.0165786 0.731323
0.023934 0.0159322 0.729919
0.0249386 0.0152886 0.728574
0.0259567 0.0146515 0.727574
0.0269918 0.0140195 0.726969
0.0280099 0.0133855 0.726067
0.0290442 0.0127559 0.72551
0.0301003 0.0121304 0.725374
0.0831908 -0.0191504 0.722602
0.0847618 -0.019918 0.72647
0.0858438 -0.0205512 0.726512
0.0869252 -0.0211848 0.726551
0.0880578 -0.0218332 0.726968
0.0892168 -0.0224896 0.727568
0.0904461 -0.0231677 0.728671
0.0916897 -0.0238506 0.729851
0.0929663 -0.0245446 0.73124
0.094221 -0.0252326 0.732442
0.0954868 -0.025926 0.733699
0.0967936 -0.0266324 0.735211
0.0981103 -0.0273442 0.736762
0.0994274 -0.0280564 0.73828
0.10077 -0.028778 0.739938
0.102198 -0.0295287 0.742133
0.103778 -0.0303304 0.745291
0.105394 -0.031146 0.748617
0.107002 -0.0319618 0.751827
0.108543 -0.0327576 0.754546
-0.00263283 0.0352678 0.785057
-0.00150962 0.0345344 0.783304
-0.000391882 0.0338014 0.781467
0.00070509 0.0330341 0.778514
0.00179142 0.0322663 0.775409
0.00286916 0.031504 0.772323
0.00395212 0.0307705 0.769995
0.00503074 0.030044 0.767756
0.00609454 0.0293092 0.765116
0.00715025 0.0285778 0.762459
0.00819852 0.027851 0.759787
0.00922276 0.0271111 0.756479
0.0102314 0.0263703 0.752946
0.0112561 0.025659 0.750306
0.012281 0.0249579 0.747935
0.0133047 0.0242648 0.745737
0.0143379 0.023586 0.744015
0.0153766 0.0229165 0.742595
0.0164041 0.0222454 0.74096
0.0174337 0.02158 0.739517
0.0184526 0.0209139 0.737888
0.0194649 0.0202495 0.736204
0.0204663 0.0195851 0.734375
0.021464 0.0189241 0.73258
0.0224418 0.0182606 0.730446
0.0234325 0.0176069 0.728727
0.0244308 0.0169595 0.727268
0.0254316 0.0163168 0.725938
0.0264425 0.0156792 0.724887
0.0274841 0.0150508 0.724488
0.0285127 0.0144209 0.723853
0.0295504 0.0137939 0.723417
0.030607 0.01317 0.723345
0.0844993 -0.018622 0.719546
0.0861103 -0.0193948 0.723682
0.0871802 -0.0200233 0.723658
0.0882906 -0.0206637 0.723937
0.0894353 -0.0213134 0.724459
0.0906421 -0.0219818 0.725421
0.0919011 -0.0226662 0.726737
0.0932251 -0.0233696 0.728483
0.0945392 -0.0240721 0.730124
0.0958559 -0.0247771 0.731749
0.0972131 -0.0254951 0.733616
0.0985588 -0.0262119 0.735369
0.0998766 -0.0269218 0.736896
0.101186 -0.0276296 0.738333
0.102555 -0.0283579 0.740138
0.104081 -0.0291362 0.742938
0.105657 -0.0299323 0.746005
0.107247 -0.0307356 0.749101
0.108812 -0.0315336 0.751988
-0.00309838 0.0371656 0.787151
-0.0019676 0.0364374 0.785674
-0.000844332 0.0357012 0.783917
0.000272767 0.0349639 0.782033
0.00136163 0.0341755 0.778627
0.00244158 0.0333941 0.775275
0.00351252 0.032619 0.771912
0.00458427 0.031867 0.769108
0.00565218 0.0311258 0.766501
0.00669933 0.03037 0.763285
0.00773597 0.0296177 0.760003
0.00876797 0.0288762 0.756903
0.00977674 0.0281243 0.753252
0.01077 0.0273735 0.749416
0.0117992 0.0266713 0.747181
0.0128328 0.025982 0.745286
0.0138618 0.025296 0.743416
0.0148991 0.024623 0.741946
0.0159371 0.023955 0.740617
0.0169602 0.0232826 0.738973
0.0179782 0.0226127 0.737309
0.0189837 0.0219409 0.735453
0.019985 0.0212728 0.733621
0.020979 0.0206072 0.731724
0.0219696 0.0199448 0.729883
0.0229433 0.0192812 0.727775
0.0239299 0.0186274 0.726075
0.0249209 0.0179795 0.724558
0.0259138 0.0173356 0.723171
0.0269327 0.0167026 0.722361
0.0279801 0.0160778 0.722144
0.02902 0.0154526 0.721783
0.0859088 -0.0181268 0.717354
0.0875189 -0.0188927 0.721426
0.0886154 -0.0195282 0.721624
0.0897385 -0.0201698 0.722005
0.0909215 -0.0208291 0.722814
0.0921585 -0.0215035 0.723987
0.0934688 -0.0221997 0.725654
0.0948199 -0.0229082 0.727569
0.0961701 -0.0236187 0.729439
0.0975712 -0.0243455 0.731619
0.0989693 -0.0250731 0.733733
0.100326 -0.0257908 0.735524
0.101615 -0.0264901 0.736833
0.102941 -0.027201 0.738351
0.104413 -0.0279579 0.7408
0.105945 -0.0287347 0.74358
0.107501 -0.0295217 0.746469
0.109091 -0.0303206 0.749509
-0.00243692 0.0383179 0.787176
-0.00130932 0.0375801 0.78552
-0.00018711 0.0368421 0.783783
0.000928177 0.036101 0.781873
0.00199511 0.035263 0.777246
0.00305465 0.0344446 0.772948
0.0041075 0.0336435 0.768941
0.00516474 0.0328759 0.76572
0.00623184 0.0321427 0.763389
0.00726986 0.0313817 0.760059
0.00829129 0.0306165 0.756447
0.00930381 0.0298593 0.752865
0.0103015 0.0291027 0.749124
0.0112899 0.0283535 0.745431
0.0123276 0.0276663 0.743721
0.0133706 0.0269905 0.742318
0.0144112 0.0263179 0.740973
0.0154525 0.0256507 0.73975
0.0164897 0.0249854 0.738492
0.0175083 0.024312 0.736839
0.0185159 0.0236376 0.735018
0.0195055 0.0229589 0.732879
0.0204933 0.0222857 0.730843
0.0214756 0.021616 0.728809
0.0224618 0.0209542 0.726984
0.0234339 0.0202913 0.724966
0.0244204 0.0196396 0.723367
0.0254066 0.0189916 0.721857
0.0263943 0.0183483 0.720452
0.0274118 0.0177167 0.719705
0.0284539 0.0170938 0.719449
0.0294971 0.0164717 0.719222
0.0879089 -0.0177816 0.719601
0.0889842 -0.0184103 0.719658
0.0900813 -0.0190439 0.719868
0.09123 -0.0196918 0.720444
0.0924235 -0.0203518 0.721324
0.0936718 -0.0210272 0.722569
0.094999 -0.0217247 0.724335
0.0963293 -0.0224248 0.726087
0.0977713 -0.0231577 0.728563
0.0992319 -0.0238983 0.731116
0.100672 -0.0246346 0.733479
0.102023 -0.025348 0.7352
0.103405 -0.0260725 0.7371
0.1048 -0.0268024 0.739041
0.106276 -0.0275572 0.741463
0.10779 -0.0283259 0.744083
0.109376 -0.0291174 0.747102
-0.00291162 0.0401924 0.788383
-0.00177338 0.0394783 0.787401
-0.000647694 0.0387341 0.785652
0.000447038 0.0379156 0.781943
0.00153203 0.0371052 0.778291
0.00256955 0.0362157 0.772404
0.00361069 0.035378 0.767647
0.00465291 0.0345757 0.763638
0.0057137 0.0338308 0.76108
0.00677424 0.0331009 0.758821
0.00780164 0.0323363 0.755424
0.00881147 0.0315672 0.751707
0.00980984 0.0308029 0.747975
0.0107992 0.0300465 0.74429
0.0118016 0.0293206 0.741391
0.0128509 0.0286521 0.740271
0.0139035 0.0279906 0.739349
0.0149524 0.0273298 0.738393
0.0159995 0.0266706 0.73746
0.017033 0.0260056 0.736214
0.0180474 0.0253316 0.734567
0.0190447 0.0246526 0.732604
0.020024 0.0239698 0.730331
0.0209981 0.0232916 0.728082
0.0219725 0.0226203 0.725983
0.0229502 0.0219562 0.724098
0.0239214 0.0212952 0.722173
0.024907 0.020645 0.72066
0.025892 0.0199982 0.719228
0.0268747 0.0193547 0.717818
0.0278902 0.0187251 0.717106
0.0289123 0.018099 0.716553
0.0888231 -0.0171711 0.713853
0.0904472 -0.0179299 0.71792
0.0915343 -0.0185607 0.718072
0.0926632 -0.0192017 0.718512
0.0938526 -0.0198585 0.719364
0.0951368 -0.0205408 0.720854
0.0964287 -0.0212261 0.722362
0.0978605 -0.0219503 0.72479
0.09939 -0.0227027 0.727823
0.100917 -0.0234577 0.730782
0.102347 -0.0241887 0.733037
0.103777 -0.0249218 0.735251
0.105184 -0.0256504 0.737275
0.106618 -0.0263886 0.739432
0.108102 -0.0271432 0.741864
0.109688 -0.0279292 0.744883
0.110936 -0.0299044 0.749906
0.111297 -0.0287247 0.747997
-0.0040555 0.0408885 0.788893
-0.00339102 0.042055 0.789164
0.00518959 0.0354928 0.758331
0.00624502 0.0347556 0.755958
0.00730025 0.0340322 0.753856
0.00831516 0.0332629 0.750342
0.0103109 0.0317366 0.743177
0.0113025 0.0309924 0.739891
0.0123165 0.030287 0.737657
0.0133741 0.0296337 0.736987
0.014425 0.0289766 0.736179
0.015475 0.0283221 0.735399
0.0165206 0.0276671 0.734544
0.0175448 0.0269991 0.733194
0.0185546 0.026326 0.731559
0.0195418 0.0256442 0.729481
0.0205151 0.0249606 0.727212
0.0214801 0.0242794 0.724902
0.0224515 0.0236096 0.722866
0.0234268 0.0229473 0.721049
0.0244023 0.0222903 0.719335
0.02539 0.0216429 0.717978
0.0263757 0.0209989 0.716642
0.0273573 0.0203567 0.715302
0.0283694 0.0197284 0.7146
0.0293832 0.0191021 0.713962
0.0902491 -0.0166912 0.711955
0.0918348 -0.017435 0.715696
0.0929082 -0.0180615 0.71577
0.09404 -0.0187019 0.716243
0.09529 -0.0193718 0.717517
0.0965377 -0.0200416 0.718747
0.0979368 -0.0207516 0.720973
0.0995236 -0.0215121 0.724407
0.101134 -0.0222818 0.727929
0.10264 -0.0230274 0.730696
0.10413 -0.0237712 0.733303
0.105574 -0.0245063 0.735573
0.106969 -0.0252289 0.737476
0.108425 -0.0259714 0.739737
0.11 -0.0267477 0.742691
0.111623 -0.0275414 0.745894
0.112796 -0.0294911 0.750376
0.113155 -0.0283112 0.748471
0.00466181 0.0371289 0.75526
0.0057133 0.0363868 0.752817
0.00677779 0.0356824 0.751264
0.00782785 0.0349647 0.749274
0.00884436 0.0342097 0.746194
0.00984515 0.0334505 0.742845
0.0108398 0.0327008 0.73963
0.011831 0.0319631 0.736586
0.0128537 0.0312731 0.734831
0.0138976 0.0306117 0.733882
0.0149423 0.029955 0.733021
0.0159897 0.0293037 0.732308
0.0170259 0.0286464 0.731331
0.0180345 0.0279712 0.729719
0.019036 0.0272972 0.728027
0.0200145 0.0266137 0.725898
0.0209825 0.0259308 0.723662
0.0219478 0.0252538 0.721507
0.0229281 0.0245915 0.719812
0.0239053 0.0239329 0.718149
0.0248891 0.0232823 0.716719
0.0258835 0.0226405 0.715579
0.0268797 0.0220025 0.714533
0.0278742 0.0213666 0.713509
0.028891 0.0207414 0.712945
0.0299041 0.0201163 0.712341
0.0921461 -0.0163199 0.713428
0.0931944 -0.016939 0.713344
0.0942728 -0.0175647 0.713468
0.0954695 -0.0182186 0.714396
0.0966686 -0.0188739 0.71532
0.0980163 -0.019566 0.71722
0.0995679 -0.02031 0.720434
0.101232 -0.0210852 0.724322
0.102834 -0.0218481 0.727731
0.104396 -0.0226052 0.730818
0.105896 -0.0233488 0.733449
0.107352 -0.0240842 0.73575
0.108794 -0.024817 0.737916
0.110356 -0.0255851 0.740796
0.111982 -0.0263725 0.744008
0.113532 -0.0271429 0.746702
0.00515823 0.0379496 0.748362
0.0062362 0.0372804 0.747669
0.00731434 0.0366155 0.747055
0.00836167 0.0359058 0.745259
0.00937699 0.0351596 0.742443
0.0103804 0.0344127 0.739469
0.0113772 0.0336731 0.736568
0.0123681 0.0329407 0.733735
0.0134 0.0322661 0.732433
0.0144343 0.0315997 0.731308
0.0154648 0.0309343 0.730161
0.0164999 0.0302774 0.729224
0.0175226 0.0296139 0.728028
0.0185195 0.0289348 0.726255
0.0195089 0.0282568 0.724425
0.0204837 0.0275752 0.722364
0.0214525 0.0268967 0.720298
0.0224225 0.0262259 0.718387
0.0234093 0.0255708 0.716954
0.0243927 0.0249181 0.715529
0.0253833 0.0242733 0.714329
0.0263899 0.0236394 0.713509
0.0274001 0.0230093 0.712801
0.0284093 0.0223805 0.712105
0.0294352 0.02176 0.711747
0.030457 0.0211388 0.711329
0.092963 -0.0157122 0.70736
0.0945595 -0.0164482 0.711096
0.0957081 -0.0170884 0.711712
0.096864 -0.017731 0.712365
0.0981439 -0.0184029 0.713829
0.0996223 -0.0191228 0.716572
0.101237 -0.0198777 0.720152
0.102855 -0.0206371 0.72368
0.104469 -0.0213994 0.727119
0.106038 -0.0221541 0.730206
0.10757 -0.0229027 0.733001
0.10907 -0.0236459 0.735541
0.11067 -0.024417 0.738654
0.112303 -0.0251995 0.741907
0.113844 -0.0259623 0.744552
0.00469411 0.0396814 0.748222
0.00578064 0.0390272 0.747906
0.00685215 0.038347 0.746964
0.00791896 0.0376647 0.745933
0.00895061 0.0369327 0.743634
0.00995892 0.0361799 0.740714
0.0109591 0.035432 0.737798
0.0119549 0.0346938 0.735008
0.0129422 0.0339594 0.732198
0.0139578 0.0332695 0.730491
0.0149809 0.0325952 0.729141
0.0159972 0.0319196 0.727698
0.0170125 0.0312493 0.726342
0.0180187 0.0305766 0.724842
0.0190005 0.0298902 0.722839
0.0199773 0.0292075 0.720849
0.0209466 0.0285265 0.718812
0.0219219 0.0278567 0.71704
0.0229011 0.0271952 0.71546
0.0238977 0.0265491 0.71434
0.0248885 0.0259031 0.713164
0.025895 0.025269 0.712364
0.0269112 0.0246416 0.71179
0.0279361 0.0240199 0.711407
0.0289587 0.023398 0.711002
0.0300059 0.022787 0.711048
0.0955224 -0.0158766 0.706194
0.0972293 -0.0166338 0.710577
0.0984543 -0.0172903 0.711684
0.0998394 -0.0179837 0.713818
0.101353 -0.0187086 0.716746
0.102886 -0.0194409 0.719739
0.104475 -0.0201893 0.723028
0.1061 -0.02095 0.726492
0.107693 -0.0217065 0.729682
0.109271 -0.0224627 0.732722
0.110953 -0.0232476 0.736343
0.112679 -0.024047 0.74017
0.114294 -0.0248222 0.743254
0.115282 -0.0266992 0.746525
0.115732 -0.0255556 0.74522
0.00423993 0.0414368 0.748592
0.00531808 0.0407616 0.747835
0.00639699 0.040093 0.747197
0.00745955 0.039398 0.745937
0.00851099 0.0386922 0.744371
0.00953262 0.0379484 0.741841
0.0105342 0.0371898 0.738847
0.0115295 0.0364389 0.735922
0.0125228 0.0357011 0.733207
0.0135098 0.0349692 0.730531
0.0145159 0.0342715 0.728643
0.0155284 0.0335892 0.727093
0.016528 0.0329007 0.7253
0.0175254 0.0322179 0.723584
0.0185124 0.0315328 0.721721
0.0194825 0.0308412 0.719574
0.0204511 0.0301566 0.717534
0.0214214 0.0294808 0.715663
0.0224013 0.0288181 0.714119
0.023392 0.0281675 0.712896
0.0243955 0.0275285 0.712007
0.0253927 0.0268888 0.711043
0.0264094 0.0262625 0.710508
0.0274336 0.0256413 0.710139
0.0284654 0.0250248 0.709932
0.0976507 -0.0155532 0.709181
0.0988525 -0.0162023 0.71014
0.100129 -0.0168683 0.711569
0.101522 -0.017561 0.713717
0.102968 -0.0182678 0.716164
0.104485 -0.0189933 0.719016
0.106074 -0.0197377 0.722262
0.107665 -0.0204864 0.725462
0.109286 -0.0212452 0.728783
0.110966 -0.0220215 0.732408
0.112688 -0.0228116 0.736219
0.114234 -0.0235633 0.738906
0.115731 -0.0243057 0.741253
0.00593427 0.0418249 0.747098
0.00700333 0.041139 0.746092
0.00806172 0.0404397 0.744754
0.009102 0.0397179 0.742857
0.0101142 0.0389629 0.740124
0.0111073 0.0381958 0.737002
0.0120978 0.0374423 0.734078
0.0130845 0.0366994 0.731298
0.0140655 0.0359636 0.728582
0.015064 0.0352606 0.726588
0.0160706 0.0345755 0.724982
0.017063 0.0338833 0.72311
0.0180478 0.0331918 0.721179
0.0190242 0.0325008 0.719173
0.0199947 0.0318129 0.717158
0.0209632 0.0311312 0.715228
0.0219423 0.0304644 0.713658
0.0229289 0.0298084 0.712341
0.0239258 0.0291638 0.711317
0.0249294 0.0285267 0.710488
0.0259273 0.0278887 0.709585
0.026941 0.0272623 0.709036
0.0279616 0.0266411 0.708641
0.09756 -0.0143771 0.704416
0.0992937 -0.0151271 0.708893
0.100457 -0.0157674 0.709589
0.101735 -0.0164319 0.711002
0.103087 -0.0171135 0.712861
0.104513 -0.0178131 0.71515
0.106032 -0.0185352 0.717978
0.107583 -0.0192675 0.72095
0.109201 -0.020018 0.724278
0.00653992 0.0428661 0.745931
0.00760099 0.0421678 0.744677
0.00865312 0.0414615 0.743204
0.00967999 0.0407212 0.740938
0.0106817 0.0399547 0.738002
0.0116696 0.039185 0.734882
0.0126563 0.0384308 0.732
0.0136369 0.0376841 0.729186
0.0146161 0.0369499 0.726561
0.0156124 0.0362482 0.724631
0.0166106 0.0355576 0.7229
0.0175964 0.0348617 0.720965
0.0185741 0.0341667 0.718965
0.0195513 0.0334794 0.717089
0.0205275 0.0327989 0.715311
0.0215058 0.0321269 0.713693
0.0224931 0.0314678 0.712373
0.0234868 0.0308178 0.711262
0.0244783 0.0301703 0.710172
0.0254799 0.0295329 0.709342
0.0264771 0.0288953 0.708467
0.0274872 0.0282681 0.707882
0.0284987 0.0276431 0.707353
0.099759 -0.0140598 0.707816
0.100901 -0.0146943 0.708376
0.102084 -0.0153373 0.709184
0.103333 -0.0159946 0.710399
0.104669 -0.0166708 0.712134
0.1061 -0.0173685 0.714422
0.107505 -0.0180635 0.71651
0.109045 -0.0187894 0.719379
0.110663 -0.0195355 0.722671
0.00712791 0.0438703 0.744077
0.00818296 0.0431665 0.742717
0.00923692 0.0424698 0.741455
0.0102519 0.0417142 0.738901
0.0112466 0.0409421 0.735901
0.0122298 0.0401702 0.732796
0.0132103 0.0394121 0.729883
0.0141825 0.0386587 0.726969
0.0151588 0.0379252 0.724408
0.0161506 0.0372223 0.722474
0.0171421 0.0365281 0.720674
0.0181265 0.0358346 0.71882
0.0191058 0.0351443 0.71697
0.0200912 0.0344673 0.715387
0.0210741 0.0337944 0.713844
0.022063 0.0331325 0.712535
0.0230582 0.0324805 0.711437
0.0240595 0.0318368 0.710528
0.0250522 0.0311901 0.709491
0.026052 0.0305517 0.708653
0.0270431 0.0299106 0.707691
0.0280463 0.0292796 0.706999
0.029054 0.0286533 0.706424
0.0997189 -0.012906 0.703478
0.101416 -0.0136373 0.707633
0.102578 -0.0142746 0.708309
0.103784 -0.0149213 0.709246
0.10503 -0.0155769 0.710422
0.106353 -0.0162488 0.712044
0.107624 -0.0169123 0.713316
0.108996 -0.0175979 0.715181
0.110415 -0.0182953 0.717295
0.00771683 0.0448775 0.742376
0.00876855 0.0441728 0.741007
0.00980919 0.0434569 0.739369
0.0108077 0.0426794 0.736406
0.011792 0.0418976 0.733249
0.0127691 0.0411236 0.730146
0.0137408 0.0403592 0.727144
0.0147167 0.0396168 0.724517
0.0156967 0.038893 0.72221
0.016686 0.0381913 0.72033
0.0176762 0.0374996 0.718609
0.0186629 0.036812 0.71692
0.0196501 0.036132 0.715352
0.0206452 0.0354663 0.714072
0.021638 0.0348034 0.712819
0.0226378 0.0341516 0.711795
0.0236448 0.033509 0.71098
0.0246504 0.0328685 0.710184
0.0256426 0.0322209 0.709158
0.0266398 0.0315804 0.708286
0.02762 0.0309317 0.707136
0.0996397 -0.011759 0.698936
0.101952 -0.0125854 0.707023
0.103104 -0.0132198 0.707642
0.104278 -0.0138588 0.708378
0.105478 -0.0145037 0.709267
0.10672 -0.0151572 0.710388
0.107979 -0.0158156 0.7116
0.109307 -0.0164885 0.713198
0.110733 -0.0171826 0.715355
0.00829435 0.0458614 0.740314
0.00934532 0.0451623 0.739061
0.0103762 0.0444349 0.73721
0.0113654 0.043648 0.73411
0.0123411 0.0428586 0.730855
0.0133121 0.0420814 0.727739
0.0142766 0.0413126 0.724694
0.0152554 0.0405794 0.722301
0.0162362 0.0398609 0.720145
0.0172269 0.039165 0.718416
0.0182169 0.0384764 0.716788
0.0192089 0.0377973 0.71532
0.0202055 0.0371293 0.714053
0.0212129 0.0364768 0.713116
0.0222167 0.0358247 0.712152
0.0232303 0.0351848 0.711456
0.0242447 0.034548 0.710812
0.0252568 0.0339117 0.710156
0.0262476 0.0332621 0.709116
0.102517 -0.0115398 0.706612
0.10367 -0.012173 0.707229
0.104823 -0.0128071 0.707836
0.106001 -0.0134463 0.708582
0.107206 -0.0140912 0.709477
0.108422 -0.0147394 0.710426
0.109637 -0.0153886 0.711352
0.00886632 0.0468348 0.738159
0.00991031 0.0461297 0.736792
0.0109276 0.0453848 0.734623
0.011906 0.0445872 0.73136
0.0128734 0.0437922 0.728043
0.0138411 0.0430174 0.72502
0.0148035 0.0422521 0.722091
0.0157883 0.0415329 0.72002
0.0167757 0.0408275 0.718168
0.017771 0.0401411 0.716661
0.0187669 0.0394621 0.715265
0.0197674 0.0387945 0.714075
0.0207765 0.0381409 0.713159
0.0217948 0.0375 0.712504
0.0228073 0.0368563 0.711761
0.0238284 0.0362228 0.71124
0.0248463 0.0355885 0.710677
0.0258602 0.0349531 0.710066
0.103095 -0.0104967 0.706278
0.104247 -0.0111285 0.706885
0.105391 -0.01176 0.707433
0.106548 -0.0123945 0.70805
0.107739 -0.0130354 0.708863
0.108942 -0.0136793 0.709727
0.110197 -0.0143335 0.710889
0.111605 -0.0150161 0.712933
0.00941964 0.0477705 0.735424
0.0104581 0.0470642 0.73403
0.0114654 0.0463101 0.731707
0.012436 0.0455082 0.728408
0.0133954 0.0447087 0.72505
0.0143577 0.0439337 0.722061
0.0153181 0.0431728 0.719255
0.0163112 0.0424716 0.71756
0.017308 0.0417836 0.716081
0.0183113 0.041111 0.714872
0.0193177 0.0404475 0.713818
0.0203275 0.0397924 0.712911
0.0213435 0.0391477 0.712201
0.0223674 0.0385136 0.711705
0.0233903 0.0378803 0.711213
0.0244194 0.0372544 0.710876
0.0254494 0.0366303 0.71057
0.0264798 0.0360074 0.710287
0.102479 -0.00928651 0.698463
0.104245 -0.0100009 0.702952
0.105971 -0.0107153 0.707109
0.107118 -0.0113471 0.707665
0.108311 -0.0119868 0.708483
0.109513 -0.0126289 0.709338
0.110806 -0.0132872 0.710721
0.112263 -0.0139748 0.713042
0.113143 -0.0157248 0.715701
0.113784 -0.0146762 0.715699
0.114572 -0.0164167 0.71779
0.115192 -0.0153611 0.717648
0.116031 -0.017117 0.720015
0.116595 -0.0160475 0.719538
0.0109946 0.0479776 0.731026
0.0119905 0.0472126 0.728523
0.0129553 0.0464107 0.725263
0.0139113 0.0456148 0.722014
0.0148711 0.0448442 0.719143
0.0158389 0.0441013 0.716716
0.0168407 0.0434178 0.715377
0.0178469 0.0427468 0.714245
0.0188564 0.0420854 0.71327
0.019869 0.0414322 0.712432
0.0208801 0.040781 0.711613
0.0219054 0.0401482 0.711157
0.022936 0.0395225 0.710842
0.0239671 0.0388982 0.710548
0.0250075 0.0382832 0.710458
0.104214 -0.00888127 0.69888
0.106572 -0.00967406 0.706915
0.107708 -0.0103033 0.707402
0.108913 -0.0109432 0.708285
0.110135 -0.011587 0.70926
0.111456 -0.0122474 0.710798
0.112935 -0.0129348 0.713233
0.114406 -0.013624 0.71558
0.115751 -0.0142954 0.71716
0.117154 -0.0149785 0.719041
0.0104945 0.0495805 0.729284
0.0115114 0.0488538 0.727517
0.0125104 0.0481061 0.725331
0.0134806 0.0473233 0.722453
0.0144384 0.0465383 0.719447
0.0153986 0.0457751 0.716751
0.0163763 0.0450524 0.714732
0.0173775 0.0443728 0.713474
0.0183866 0.0437098 0.712498
0.0193966 0.0430528 0.71161
0.0204074 0.0424009 0.710796
0.0214161 0.0417501 0.70998
0.0224453 0.0411247 0.709665
0.0234818 0.0405076 0.709516
0.0245198 0.0398923 0.709403
0.0255797 0.0392972 0.709732
0.107089 -0.00909864 0.699846
0.108947 -0.00982179 0.704698
0.110792 -0.0105496 0.709382
0.112116 -0.0112081 0.710931
0.113587 -0.0118905 0.713305
0.11508 -0.0125792 0.715758
0.116466 -0.0132547 0.717564
0.0120386 0.0497511 0.72453
0.0130392 0.0490164 0.72258
0.0140165 0.0482541 0.720093
0.0149772 0.0474805 0.717331
0.0159383 0.0467241 0.714797
0.0169228 0.0460159 0.713067
0.0179212 0.0453363 0.711818
0.0189276 0.0446735 0.710847
0.019932 0.0440129 0.709891
0.0209369 0.0433577 0.70901
0.0219365 0.0427003 0.708058
0.0229658 0.042079 0.7078
0.0239998 0.0414631 0.707651
0.0115922 0.051443 0.724545
0.0126061 0.0507268 0.722974
0.0136057 0.0499951 0.721101
0.0145755 0.0492244 0.718512
0.0155379 0.0484577 0.715919
0.0165013 0.0477081 0.713548
0.017486 0.0470028 0.711899
0.0184794 0.0463187 0.710585
0.0194777 0.045648 0.709477
0.0204759 0.0449825 0.708433
0.0214719 0.0443194 0.707404
0.0224681 0.0436614 0.706441
0.0234906 0.0430359 0.706086
0.0245152 0.042414 0.705791
0.0121475 0.0523895 0.722571
0.0131625 0.051682 0.721152
0.0141592 0.0509506 0.719304
0.0151368 0.0501984 0.717061
0.0161037 0.0494428 0.714699
0.0170723 0.0487039 0.712555
0.0180566 0.0480004 0.710963
0.0190426 0.0473076 0.709517
0.0200297 0.0466241 0.708193
0.0210157 0.0459459 0.706929
0.0219996 0.0452713 0.705692
0.0229916 0.0446118 0.704702
0.0240024 0.0439772 0.704156
0.0250106 0.0433422 0.703586
0.0117038 0.0540817 0.722641
0.0127276 0.0533867 0.721467
0.0137437 0.052685 0.720159
0.0147313 0.0519401 0.718126
0.0157037 0.0511822 0.715828
0.0166711 0.0504305 0.71357
0.0176421 0.0496979 0.711568
0.0186187 0.0489849 0.709843
0.0195984 0.0482859 0.70831
0.0205739 0.0475891 0.706774
0.0215515 0.0469031 0.705382
0.0225353 0.0462315 0.704209
0.0235286 0.0455762 0.7033
0.0245378 0.0449427 0.702769
0.0123027 0.0551162 0.722125
0.0133211 0.0544116 0.720826
0.0143309 0.0536995 0.71938
0.0153099 0.0529413 0.717176
0.0162849 0.0521905 0.715032
0.0172532 0.051442 0.712867
0.0182243 0.0507107 0.710927
0.019193 0.049987 0.709059
0.0201645 0.0492778 0.707382
0.0211264 0.0485646 0.705592
0.0220986 0.0478737 0.704135
0.0230838 0.0472061 0.703046
0.024077 0.0465527 0.702178
0.0250846 0.0459195 0.701648
0.0128937 0.0561341 0.721379
0.0139055 0.0554185 0.719935
0.0149133 0.0547052 0.718493
0.0158905 0.0539462 0.716315
0.0168665 0.0531991 0.714267
0.0178374 0.0524566 0.712237
0.0188088 0.0517269 0.710359
0.0197692 0.0509917 0.708345
0.02073 0.0502684 0.706468
0.0216833 0.0495453 0.704544
0.0226447 0.0488424 0.702908
0.0236314 0.0481788 0.701896
0.0246269 0.0475304 0.70112
0.0124748 0.0578803 0.722226
0.0134817 0.0571456 0.720565
0.014488 0.0564217 0.719023
0.0154929 0.0557058 0.717561
0.0164764 0.054961 0.715631
0.0174508 0.0542127 0.713603
0.0184228 0.0534733 0.711659
0.019392 0.0527409 0.709775
0.0203469 0.0519984 0.707684
0.0212967 0.0512605 0.70561
0.0222503 0.050539 0.703748
0.0232104 0.0498354 0.702128
0.0241943 0.0491694 0.701093
0.0251832 0.0485146 0.700217
0.0150748 0.0574338 0.718265
0.0160799 0.0567206 0.716865
0.0170721 0.0559931 0.715223
0.0180479 0.0552481 0.713282
0.019024 0.0545156 0.711482
0.0199915 0.0537804 0.709594
0.0209489 0.0530412 0.7076
0.021897 0.0522999 0.70552
0.0228468 0.0515722 0.703603
0.0237957 0.0508536 0.701781
0.0247684 0.0501738 0.700541
0.0257499 0.0495104 0.699539
0.015685 0.0584932 0.718191
0.0166918 0.0577826 0.716858
0.0176877 0.0570615 0.715343
0.0186632 0.0563147 0.713419
0.0196413 0.0555843 0.711691
0.0206129 0.0548541 0.709923
0.0215731 0.0541169 0.708007
0.0225164 0.0533665 0.705843
0.023457 0.0526243 0.703749
0.0243871 0.0518796 0.701563
0.0162858 0.0595335 0.717853
0.017304 0.0588455 0.716855
0.0183084 0.058139 0.715577
0.0192884 0.0573986 0.713787
0.0202749 0.0566799 0.712269
0.0212524 0.055956 0.71064
0.0222143 0.0552184 0.70877
0.0231479 0.0544508 0.706405
0.0159175 0.0613712 0.71993
0.0169225 0.0606454 0.71848
0.0179371 0.0599475 0.717376
0.0189415 0.0592386 0.716098
0.0199246 0.058501 0.714392
0.0209154 0.0577866 0.712973
0.0219008 0.0570722 0.711521
0.0228708 0.056343 0.709823
0.0155263 0.0631746 0.721435
0.0165426 0.0624611 0.720204
0.0175486 0.0617358 0.718793
0.018563 0.061036 0.717689
0.019571 0.0603315 0.7165
0.0205625 0.0596064 0.715003
0.0215676 0.0589128 0.713908
0.0225703 0.0582219 0.712827
0.0144932 0.0638593 0.722274
0.0161297 0.0642184 0.721082
0.0171511 0.0635163 0.720018
0.0181612 0.0627994 0.718738
0.0191816 0.0621103 0.717798
0.0201967 0.0614177 0.716791
0.0211983 0.0607084 0.715538
0.0222184 0.0600371 0.714773
0.0232459 0.0593817 0.71421
0.0156854 0.0659117 0.721116
0.0167278 0.0652508 0.720593
0.0177517 0.0645553 0.719626
0.0187662 0.063848 0.71849
0.019789 0.0631637 0.717626
0.0208152 0.0624912 0.716898
0.0218226 0.0617906 0.715785
0.0228622 0.0611496 0.715442
0.0238975 0.0605038 0.715026
0.0183483 0.0655861 0.71914
0.0193688 0.0648918 0.718182
0.0203939 0.0642124 0.717393
0.0214266 0.0635515 0.716825
0.0224369 0.0628556 0.715795
0.0234789 0.0622181 0.715503
0.017944 0.0673592 0.720169
0.0189708 0.0666702 0.719311
0.019986 0.0659641 0.718229
0.0210113 0.0652846 0.717453
0.0220405 0.0646166 0.716807
0.017516 0.0690875 0.720611
0.0185624 0.0684354 0.720215
0.0195912 0.0677497 0.719415
0.0206036 0.0670375 0.718279
0.0216226 0.0663452 0.717364
0.0226539 0.0656804 0.71677
0.0181394 0.0701757 0.72078
0.0191898 0.0695308 0.720477
0.0202227 0.0688518 0.71977
0.0212334 0.0681342 0.718596
0.0187707 0.071281 0.721129
0.019822 0.0706358 0.720831
0.0436919 -0.006415 0.611523
0.0432887 -0.00498792 0.611157
0.043685 -0.00540593 0.60542
0.0440774 -0.00681822 0.605696
0.0445792 -0.005931 0.605433
0.0449507 -0.00733834 0.605475
0.0454608 -0.00645325 0.605304
0.0458207 -0.00785738 0.605221
0.046331 -0.00697262 0.605054
0.0467035 -0.00837968 0.60511
0.0472137 -0.00749499 0.604943
0.0475903 -0.00890282 0.605043
0.0480961 -0.00801713 0.604832
0.0484774 -0.00942617 0.604981
0.0489786 -0.00853926 0.604721
0.0499184 -0.0101025 0.610608
0.04987 -0.00906364 0.604704
0.0508761 -0.0106482 0.611176
0.0507717 -0.00959083 0.604787
0.042356 -0.00346165 0.604629
0.0432663 -0.00398917 0.604839
0.0441632 -0.00451448 0.604891
0.0450627 -0.00504034 0.604967
0.0459494 -0.00556358 0.6049
0.0468235 -0.00608405 0.604697
0.0477054 -0.00660603 0.604581
0.0485865 -0.00712788 0.604459
0.0494636 -0.00764877 0.604298
0.0503503 -0.00817186 0.604236
0.0512469 -0.00869735 0.604272
0.0516745 -0.0101185 0.604879
0.0521491 -0.00922434 0.60436
0.0525876 -0.0106489 0.605066
0.0530568 -0.00975295 0.604498
0.0535064 -0.0111813 0.605301
0.0539703 -0.0102833 0.604686
0.0549799 -0.0118703 0.610786
0.05488 -0.0108128 0.604831
0.0373349 -0.000367304 0.608854
0.0364497 0.0011072 0.602143
0.0373481 0.0005846 0.602286
0.0377331 -0.000817841 0.602515
0.0382506 6.1176e-05 0.602473
0.0386602 -0.00134586 0.603005
0.0391638 -0.000463924 0.602781
0.0395869 -0.00187441 0.603469
0.0400804 -0.000990123 0.603118
0.0405012 -0.00240146 0.603767
0.0409895 -0.00151566 0.603353
0.0414233 -0.00293034 0.604143
0.0419096 -0.00204332 0.603707
0.0428342 -0.00257227 0.604098
0.0437472 -0.00309979 0.604344
0.0446442 -0.00362453 0.6044
0.0455441 -0.0041502 0.604485
0.0464315 -0.00467337 0.60443
0.0473096 -0.00519466 0.604276
0.0481906 -0.00571644 0.604155
0.0490704 -0.00623802 0.604023
0.0499465 -0.00675862 0.603856
0.0508327 -0.00728145 0.603794
0.0517248 -0.00780567 0.603789
0.0526227 -0.00833116 0.603839
0.05353 -0.00885927 0.603976
0.0544434 -0.00938891 0.604166
0.0553527 -0.00991779 0.604311
0.0557904 -0.0113426 0.604977
0.0562622 -0.0104469 0.60445
0.0572626 -0.012027 0.610258
0.0571658 -0.0109747 0.604532
0.0355507 0.00162949 0.601985
0.035199 0.00302773 0.602192
0.0360822 0.00250695 0.602139
0.0369748 0.00198548 0.602204
0.0378676 0.00146363 0.602269
0.0387655 0.000940991 0.602394
0.039665 0.00041807 0.602531
0.0405759 -0.000106715 0.602797
0.0414819 -0.000631218 0.602995
0.0423938 -0.00115692 0.603253
0.0433098 -0.00168373 0.603546
0.0442253 -0.00221093 0.603823
0.0451207 -0.00273508 0.603866
0.0460203 -0.00326009 0.603952
0.0469117 -0.00378371 0.603945
0.047794 -0.00430592 0.603842
0.0486744 -0.00482748 0.603719
0.0495544 -0.00534908 0.603593
0.0504302 -0.00586962 0.603428
0.0513161 -0.00639222 0.603366
0.0522075 -0.00691597 0.603358
0.0531044 -0.00744106 0.603402
0.0540119 -0.00796864 0.603543
0.0549259 -0.00849787 0.60374
0.0558355 -0.00902639 0.603888
0.0567447 -0.00955498 0.604028
0.0576478 -0.0100823 0.604107
0.0580591 -0.0114999 0.604518
0.0585404 -0.0106072 0.60409
0.0589418 -0.0120223 0.604407
0.0594229 -0.0111295 0.603983
0.0603817 -0.0126964 0.609166
0.0603102 -0.011653 0.603917
0.0357222 0.00390694 0.602233
0.0366098 0.0033858 0.602232
0.0374973 0.00286456 0.602229
0.0383867 0.00234306 0.602246
0.039282 0.00182089 0.602334
0.0401771 0.00129859 0.602413
0.0410804 0.000775181 0.602586
0.0419824 0.000251518 0.602735
0.0428902 -0.000273138 0.602943
0.0438018 -0.000798576 0.603186
0.0447128 -0.00132446 0.603412
0.0456072 -0.00184817 0.603448
0.0465059 -0.00237266 0.603527
0.0473965 -0.00289599 0.603515
0.0482785 -0.00341787 0.603412
0.0491593 -0.00393952 0.603298
0.0500396 -0.00446115 0.603181
0.0509157 -0.00498174 0.603023
0.0518012 -0.00550413 0.602961
0.0526917 -0.00602756 0.602946
0.0535877 -0.00655201 0.602983
0.0544992 -0.00708 0.603165
0.0554133 -0.00760872 0.603363
0.0563242 -0.00813699 0.603524
0.0572337 -0.00866532 0.603668
0.0581368 -0.00919227 0.603749
0.0590241 -0.00971571 0.603687
0.0599114 -0.0102392 0.603625
0.0607988 -0.0107626 0.603563
0.0617329 -0.0123167 0.608435
0.0616751 -0.0112834 0.603407
0.0353428 0.00530825 0.602071
0.0362411 0.00478685 0.602214
0.0371344 0.00426546 0.602283
0.0380228 0.00374409 0.602286
0.0389102 0.00322265 0.602274
0.039798 0.00270123 0.602265
0.0406888 0.00217933 0.602291
0.0415847 0.00165694 0.602372
0.0424821 0.00113416 0.602467
0.0433893 0.000610085 0.602668
0.044297 8.55801e-05 0.602865
0.0452043 -0.000439158 0.603051
0.046099 -0.000962634 0.603091
0.0469972 -0.00148669 0.603167
0.047883 -0.00200912 0.603108
0.0487644 -0.00253089 0.603003
0.0496494 -0.00305324 0.602935
0.05053 -0.00357479 0.602824
0.0514061 -0.00409548 0.60267
0.0522913 -0.00461764 0.602607
0.0531812 -0.00514079 0.60259
0.0540718 -0.005664 0.602578
0.0549832 -0.00619141 0.602758
0.0558968 -0.00671955 0.602953
0.0568126 -0.00724831 0.603161
0.0577276 -0.00777728 0.603356
0.0586366 -0.00830534 0.603489
0.0595293 -0.00882982 0.603475
0.0604217 -0.00935433 0.603458
0.0613091 -0.00987776 0.603396
0.0621848 -0.0103985 0.603236
0.0344394 0.00582932 0.601853
0.0340329 0.00722926 0.601315
0.0349334 0.00670917 0.601506
0.0358423 0.00618858 0.601798
0.0367468 0.00566749 0.60202
0.0376392 0.00514636 0.602077
0.0385303 0.00462496 0.602113
0.0394175 0.00410363 0.602099
0.0403017 0.00358241 0.602047
0.0411934 0.00306072 0.602081
0.0420887 0.00253861 0.602156
0.0429813 0.00201652 0.602196
0.0438834 0.00149337 0.602337
0.0447866 0.00096977 0.602486
0.0456907 0.000446021 0.602637
0.0465857 -7.72099e-05 0.602685
0.0474799 -0.000600412 0.602721
0.0483651 -0.00112258 0.602659
0.0492455 -0.0016441 0.602548
0.0501301 -0.00216618 0.602481
0.05101 -0.00268754 0.602368
0.0518899 -0.00320876 0.602255
0.0527791 -0.0037315 0.602235
0.0536695 -0.00425438 0.602225
0.0545603 -0.00477754 0.602217
0.0554717 -0.00530439 0.602398
0.0563846 -0.00583183 0.602588
0.0572949 -0.00635912 0.602747
0.058215 -0.00688843 0.602987
0.0591295 -0.00741717 0.603171
0.0600285 -0.00794273 0.603213
0.0609268 -0.00846846 0.603247
0.0618193 -0.00899301 0.60323
0.062695 -0.00951388 0.60307
0.0636033 -0.0110483 0.607601
0.0635689 -0.0100343 0.602898
0.0336574 0.00862869 0.6012
0.0345436 0.00810869 0.601199
0.0354321 0.00758861 0.601226
0.0363387 0.00706859 0.601487
0.0372442 0.00654806 0.60172
0.0381354 0.00602715 0.601763
0.039029 0.00550603 0.601833
0.0399203 0.00498471 0.601869
0.0408051 0.00446366 0.601824
0.0416974 0.00394204 0.601867
0.0425928 0.00342015 0.601942
0.0434807 0.00289845 0.601928
0.0443777 0.0023761 0.602014
0.0452761 0.0018535 0.602109
0.0461756 0.00133044 0.602212
0.0470745 0.000807278 0.602304
0.0479688 0.000284339 0.602343
0.0488538 -0.000237614 0.602283
0.0497336 -0.000759039 0.60217
0.0506174 -0.00128082 0.602098
0.0514919 -0.00180139 0.601934
0.0523715 -0.00232249 0.601824
0.0532649 -0.00284553 0.601847
0.0541557 -0.00336837 0.601843
0.0550523 -0.00389225 0.601892
0.055964 -0.00441866 0.602076
0.0568765 -0.00494551 0.602262
0.0577805 -0.0054712 0.602365
0.0587052 -0.00600088 0.602646
0.059616 -0.00652824 0.602798
0.0605159 -0.00705386 0.60285
0.0614198 -0.00758039 0.602934
0.062318 -0.00810585 0.602965
0.0631946 -0.00862705 0.602815
0.0640751 -0.00914899 0.602699
0.0644412 -0.0105542 0.602715
0.0649545 -0.00967061 0.602576
0.0333011 0.0100295 0.601353
0.0341722 0.00950842 0.60114
0.0350475 0.00898779 0.600991
0.0359273 0.00846756 0.600902
0.0368294 0.00794796 0.601105
0.0377318 0.00742797 0.6013
0.038623 0.00690749 0.601346
0.0395168 0.00638682 0.60142
0.0404077 0.0058659 0.601455
0.0412963 0.00534485 0.60146
0.0421929 0.00482351 0.601555
0.043089 0.00430182 0.60164
0.0439768 0.00378039 0.601625
0.0448727 0.0032584 0.6017
0.0457658 0.00273642 0.60174
0.0466597 0.0022142 0.601784
0.047558 0.00169157 0.601872
0.0484517 0.00116906 0.601907
0.0493364 0.00064727 0.601848
0.0502158 0.000125987 0.601735
0.0510992 -0.000395455 0.601664
0.0519689 -0.00091543 0.601458
0.0528475 -0.0014363 0.601342
0.053746 -0.00195978 0.601418
0.0546419 -0.00248311 0.601465
0.0555446 -0.00300746 0.601572
0.056461 -0.00353408 0.6018
0.0573736 -0.00406055 0.601986
0.0582714 -0.00458488 0.602034
0.059196 -0.00511384 0.602314
0.0601064 -0.00564074 0.602463
0.0610127 -0.00616722 0.60257
0.0619227 -0.00669455 0.602706
0.0628268 -0.00722099 0.602787
0.0637095 -0.00774347 0.602688
0.0645973 -0.00826686 0.602631
0.0654786 -0.00878908 0.602522
0.0663559 -0.0103067 0.606639
0.0663414 -0.00930738 0.602268
0.0329721 0.0114347 0.601896
0.0338299 0.0109112 0.601486
0.0347003 0.0103895 0.601259
0.035568 0.00986806 0.601002
0.0364389 0.009347 0.600796
0.0373326 0.00882743 0.600887
0.038227 0.00830754 0.600979
0.0391106 0.0077871 0.600934
0.0400043 0.00726681 0.60101
0.0408944 0.00674622 0.601039
0.0417866 0.00622552 0.601089
0.0426872 0.00570455 0.601232
0.0435881 0.00518305 0.601372
0.0444807 0.00466168 0.601412
0.0453767 0.00413987 0.601487
0.0462648 0.00361834 0.601473
0.0471574 0.0030965 0.601505
0.0480554 0.00257408 0.601589
0.0489449 0.00205212 0.601583
0.0498299 0.00153049 0.601529
0.050713 0.00100901 0.601455
0.0515961 0.000487494 0.601383
0.0524614 -3.22207e-05 0.601137
0.0533446 -0.000553527 0.601068
0.054248 -0.00107725 0.601191
0.0551445 -0.0016004 0.601243
0.0560482 -0.00212457 0.601358
0.05697 -0.00265154 0.601634
0.0578829 -0.00317757 0.60182
0.0587804 -0.00370167 0.601864
0.059705 -0.00423018 0.602142
0.0606152 -0.00475671 0.602288
0.0615214 -0.00528286 0.602394
0.0624312 -0.00580983 0.602526
0.0633357 -0.00633609 0.60261
0.0642245 -0.00685981 0.602561
0.0651186 -0.00738444 0.602555
0.0660005 -0.00790683 0.60245
0.066863 -0.00842535 0.602193
0.0677475 -0.00994011 0.606293
0.067735 -0.00894563 0.602014
0.032619 0.0128394 0.602106
0.0334852 0.0123159 0.601803
0.0343493 0.0117926 0.601482
0.0352219 0.0112708 0.601283
0.0360938 0.0107492 0.601082
0.0369619 0.0102276 0.600835
0.0378513 0.00970763 0.600866
0.0387449 0.00918786 0.600944
0.0396242 0.00866715 0.600844
0.0405104 0.00814671 0.600829
0.0414003 0.00762636 0.600853
0.0422918 0.00710576 0.600895
0.0431889 0.00658504 0.600997
0.0440911 0.00606393 0.601149
0.0449883 0.0055426 0.601241
0.0458807 0.00502119 0.601276
0.0467686 0.0044998 0.601259
0.0476572 0.00397821 0.601248
0.048551 0.00345635 0.601289
0.0494361 0.00293488 0.60124
0.0503199 0.00241344 0.601177
0.0512076 0.00189167 0.601152
0.0520961 0.00136991 0.601133
0.0529663 0.000849466 0.600938
0.0538593 0.000327253 0.600963
0.0547672 -0.000196646 0.601124
0.0556597 -0.000719245 0.601138
0.0565684 -0.00124382 0.601297
0.0574966 -0.00177106 0.601626
0.05841 -0.00229696 0.601813
0.0593086 -0.00282121 0.601864
0.060233 -0.00334908 0.602136
0.0611378 -0.00387475 0.602231
0.0620382 -0.00439972 0.602286
0.0629429 -0.0049257 0.602373
0.0638472 -0.0054517 0.602453
0.0647352 -0.00597519 0.602399
0.0656291 -0.00649969 0.602391
0.0665101 -0.007022 0.602279
0.0673715 -0.00754069 0.602014
0.0682418 -0.00806079 0.601823
0.0691414 -0.00957404 0.60597
0.06912 -0.00858229 0.601695
0.0331072 0.0137171 0.601661
0.0339792 0.0131944 0.601446
0.034853 0.0126724 0.601261
0.035732 0.0121512 0.601152
0.03661 0.0116301 0.601028
0.0374859 0.0111088 0.600882
0.0383755 0.0105889 0.60091
0.0392688 0.0100689 0.600981
0.040148 0.00954801 0.600875
0.0410304 0.00902732 0.60081
0.0419163 0.00850675 0.600786
0.0428073 0.00798616 0.60082
0.0437005 0.00746555 0.600873
0.0445987 0.00694475 0.60098
0.0454964 0.00642359 0.601075
0.0463931 0.0059023 0.601155
0.0472859 0.00538081 0.601189
0.0481797 0.00485908 0.601231
0.0490785 0.00433701 0.601321
0.0499686 0.00381527 0.601319
0.0508526 0.00329361 0.601253
0.0517403 0.00277171 0.601225
0.0526298 0.00224959 0.601212
0.0535017 0.00172885 0.601031
0.0543958 0.00120643 0.601062
0.055304 0.000682562 0.601221
0.0562016 0.000159433 0.601277
0.0571105 -0.000365028 0.601432
0.05804 -0.000892059 0.601766
0.0589544 -0.0014178 0.601955
0.0598543 -0.00194228 0.602013
0.0607688 -0.00246865 0.602193
0.0616681 -0.00299329 0.602238
0.0625617 -0.00351747 0.602233
0.0634603 -0.00404232 0.602268
0.0643588 -0.00456726 0.602299
0.0652465 -0.00509072 0.602241
0.0661398 -0.00561501 0.602227
0.0670203 -0.00613732 0.602113
0.0678815 -0.0066563 0.601848
0.0687517 -0.00717662 0.601657
0.06963 -0.00769821 0.601531
0.0711178 -0.00932157 0.610071
0.0710527 -0.00831899 0.605512
0.0336039 0.0145956 0.60134
0.034476 0.014073 0.601133
0.0353534 0.0135515 0.601
0.0362349 0.0130307 0.600924
0.0371214 0.0125106 0.600914
0.0380061 0.0119901 0.600877
0.0388973 0.0114703 0.600921
0.0397913 0.0109505 0.600996
0.0406704 0.0104294 0.600886
0.0415491 0.00990823 0.600775
0.0424314 0.00938729 0.600706
0.0433217 0.00886682 0.600729
0.0442144 0.00834627 0.600776
0.0451077 0.00782554 0.600826
0.046005 0.00730466 0.600914
0.0469016 0.00678348 0.600993
0.0477994 0.00626208 0.601078
0.0486988 0.0057405 0.601175
0.0495989 0.00521853 0.601276
0.050493 0.00469655 0.601311
0.0513813 0.00417464 0.601287
0.0522747 0.00365232 0.60131
0.0531656 0.00313017 0.601308
0.0540431 0.00260861 0.601176
0.0549377 0.002086 0.601207
0.0558464 0.00156224 0.601364
0.0567444 0.00103905 0.601419
0.0576543 0.000514656 0.601578
0.0585847 -1.20878e-05 0.601911
0.0595 -0.000537847 0.602103
0.0603996 -0.00106228 0.602154
0.0613037 -0.00158734 0.602239
0.0622021 -0.00211191 0.602274
0.0630952 -0.00263605 0.602261
0.0639882 -0.00316014 0.602247
0.064881 -0.00368424 0.60223
0.0657683 -0.00420768 0.602168
0.0666557 -0.00473112 0.602106
0.0675311 -0.00525286 0.60195
0.0683988 -0.00577311 0.601737
0.0692711 -0.00629398 0.601563
0.0701499 -0.00681576 0.60144
0.0710324 -0.0073381 0.601346
0.0725502 -0.00895875 0.609964
0.0719335 -0.00786375 0.601391
0.0332211 0.0159951 0.60113
0.0340969 0.015473 0.600973
0.0349685 0.0149503 0.600764
0.0358483 0.0144294 0.600667
0.0367374 0.01391 0.600693
0.0376323 0.0133912 0.60079
0.0385254 0.0128718 0.600858
0.0394218 0.0123526 0.60096
0.040324 0.0118336 0.601129
0.0412077 0.0113124 0.60107
0.0420875 0.0107911 0.600966
0.0429705 0.0102699 0.600899
0.0438571 0.00974894 0.600874
0.0447408 0.00922783 0.600814
0.045625 0.00870669 0.600762
0.0465175 0.0081858 0.600796
0.04741 0.00766481 0.600829
0.0483083 0.00714354 0.600918
0.0492085 0.00662219 0.601023
0.0501133 0.00610044 0.601169
0.0510131 0.00557839 0.601259
