ply
format ascii 1.0
element vertex 1697
property float x
property float y
property float z
end_header
0.103534 -0.273102 0.793849
0.104397 -0.272717 0.792713
0.105265 -0.272349 0.791624
0.1061 -0.271924 0.790372
0.106951 -0.271538 0.789235
0.107818 -0.271191 0.788209
0.108735 -0.270943 0.78747
0.109705 -0.2708 0.787032
0.110768 -0.270831 0.787103
0.11193 -0.271044 0.787698
0.113122 -0.271306 0.788435
0.11435 -0.271628 0.789347
0.115555 -0.271903 0.790121
0.116718 -0.272098 0.790663
0.117816 -0.272173 0.790861
0.11888 -0.272188 0.790883
0.119897 -0.272123 0.790671
0.120877 -0.271995 0.790281
0.121831 -0.271824 0.789765
0.122794 -0.271671 0.789301
0.123748 -0.271505 0.7888
0.124715 -0.271364 0.78837
0.125704 -0.27126 0.788048
0.126715 -0.271193 0.787832
0.127717 -0.271113 0.787577
0.128743 -0.27107 0.787433
0.129779 -0.271045 0.787339
0.130804 -0.271002 0.787194
0.131839 -0.270975 0.787096
0.132875 -0.27095 0.787
0.1339 -0.270908 0.786857
0.134924 -0.270865 0.786712
0.135946 -0.270819 0.786557
0.136968 -0.270772 0.786401
0.137952 -0.270671 0.786086
0.138985 -0.270643 0.785984
0.139981 -0.27056 0.785723
0.141015 -0.270534 0.785627
0.141998 -0.270434 0.785316
0.143016 -0.270385 0.785155
0.143993 -0.270279 0.784826
0.14501 -0.270229 0.784661
0.146003 -0.270149 0.784406
0.147038 -0.270124 0.784312
0.148071 -0.270099 0.784218
0.149092 -0.270056 0.784075
0.150151 -0.270066 0.784082
0.151242 -0.270118 0.78421
0.152353 -0.270195 0.784411
0.153468 -0.270276 0.784624
0.154604 -0.270384 0.784914
0.155727 -0.270472 0.785148
0.156867 -0.270581 0.785442
0.158073 -0.270773 0.785977
0.159334 -0.271032 0.786703
0.1606 -0.271294 0.78744
0.161894 -0.271588 0.788269
0.163174 -0.271858 0.789027
0.164778 -0.27253 0.790946
0.167138 -0.274127 0.795541
0.176817 -0.28194 0.818054
0.179561 -0.283897 0.823687
0.181484 -0.284845 0.826403
0.182711 -0.284954 0.826694
0.183922 -0.285041 0.826922
0.185112 -0.285102 0.827077
0.186263 -0.285118 0.827099
0.0179224 -0.273548 0.800081
0.0189464 -0.273309 0.799362
0.0199732 -0.273133 0.798826
0.0209909 -0.272869 0.798034
0.0219939 -0.272472 0.796854
0.0229978 -0.272125 0.79582
0.0240004 -0.271796 0.79484
0.0250008 -0.271477 0.793887
0.026009 -0.271253 0.793214
0.0270267 -0.271128 0.792827
0.0280463 -0.271027 0.792513
0.0290727 -0.270985 0.792369
0.030099 -0.270943 0.792225
0.0311248 -0.270899 0.792077
0.0321504 -0.270855 0.791927
0.0331785 -0.270829 0.79183
0.0342069 -0.270805 0.79174
0.0352382 -0.270799 0.791703
0.0362696 -0.270793 0.791664
0.037301 -0.270785 0.791622
0.0383326 -0.270777 0.791579
0.039378 -0.270845 0.791757
0.0404259 -0.270922 0.791959
0.0414825 -0.271038 0.792279
0.0425509 -0.271207 0.792752
0.0436177 -0.271359 0.793173
0.044687 -0.271513 0.793603
0.045762 -0.271686 0.794086
0.0468314 -0.271823 0.794465
0.0478936 -0.27192 0.794728
0.0489683 -0.272067 0.795135
0.050033 -0.272162 0.795393
0.0511091 -0.272301 0.795777
0.0522092 -0.272531 0.796428
0.0533278 -0.272826 0.797267
0.0544556 -0.273143 0.798172
0.0555935 -0.273486 0.799151
0.0567339 -0.273823 0.800115
0.0578574 -0.274084 0.800855
0.0589769 -0.274319 0.80152
0.0600998 -0.274557 0.802192
0.0612105 -0.274742 0.802711
0.0623007 -0.274849 0.803002
0.0633986 -0.274977 0.803354
0.0644806 -0.275047 0.803537
0.0655604 -0.275106 0.803689
0.0666602 -0.275227 0.80402
0.0677684 -0.27537 0.804415
0.068871 -0.275489 0.804742
0.0759771 -0.280612 0.819571
0.0771557 -0.280854 0.820257
0.078287 -0.280956 0.820532
0.0794669 -0.281189 0.821188
0.0805381 -0.281118 0.820961
0.0816313 -0.281108 0.820909
0.0826633 -0.280936 0.820385
0.0836895 -0.280752 0.819829
0.0846232 -0.280335 0.818592
0.0855676 -0.279956 0.817464
0.0865021 -0.279561 0.816291
0.0874602 -0.279234 0.815317
0.0884171 -0.278912 0.814356
0.0893551 -0.278551 0.813284
0.0902522 -0.278102 0.811953
0.0911161 -0.277585 0.810426
0.0919567 -0.277026 0.808776
0.0927944 -0.276474 0.807144
0.093648 -0.27597 0.805654
0.0945242 -0.275527 0.804344
0.0954243 -0.275148 0.803217
0.0963322 -0.274793 0.802163
0.0972476 -0.274462 0.801178
0.098152 -0.274115 0.800145
0.0990319 -0.273723 0.798982
0.0999324 -0.273382 0.797967
0.100824 -0.27303 0.796922
0.101746 -0.272746 0.796073
0.102668 -0.272467 0.79524
0.103601 -0.272219 0.794496
0.104475 -0.271856 0.793418
0.105342 -0.271486 0.79232
0.106167 -0.271043 0.791008
0.107008 -0.270638 0.789807
0.107867 -0.270275 0.788731
0.108795 -0.270048 0.788049
0.109786 -0.269944 0.787726
0.110862 -0.269998 0.787862
0.112047 -0.27025 0.788573
0.113263 -0.270552 0.789433
0.114504 -0.270894 0.790406
0.115713 -0.271169 0.791189
0.116886 -0.271378 0.791776
0.117986 -0.271455 0.791977
0.119051 -0.271469 0.791996
0.12007 -0.271404 0.791788
0.121051 -0.271275 0.791392
0.122018 -0.271124 0.790931
0.122972 -0.270954 0.790415
0.123916 -0.27077 0.789858
0.124859 -0.270587 0.789303
0.12582 -0.270437 0.788847
0.126795 -0.27031 0.788455
0.127772 -0.270189 0.788083
0.128774 -0.270108 0.787829
0.129798 -0.270064 0.787678
0.130823 -0.27002 0.787529
0.131848 -0.269977 0.787384
0.132884 -0.269952 0.78729
0.13392 -0.269927 0.787196
0.134957 -0.269902 0.787102
0.13598 -0.269858 0.786953
0.137015 -0.269831 0.786853
0.138013 -0.26975 0.786596
0.139045 -0.26972 0.78649
0.140031 -0.269622 0.786184
0.141053 -0.269577 0.786031
0.142023 -0.26946 0.78567
0.143028 -0.269391 0.785449
0.143992 -0.269267 0.785068
0.145008 -0.269216 0.784898
0.146 -0.269134 0.78464
0.147034 -0.269109 0.784546
0.14808 -0.269101 0.784502
0.149128 -0.269095 0.784463
0.150202 -0.269125 0.784529
0.151309 -0.269196 0.784714
0.152419 -0.269272 0.784913
0.15352 -0.269332 0.785068
0.15463 -0.269404 0.785257
0.155753 -0.269492 0.785491
0.156882 -0.269586 0.785744
0.158119 -0.269816 0.786392
0.159395 -0.270094 0.787178
0.160676 -0.270372 0.787966
0.161969 -0.270662 0.788788
0.163607 -0.271377 0.790845
0.165621 -0.27255 0.794231
0.168442 -0.274698 0.800453
0.175014 -0.280038 0.815929
0.177856 -0.282121 0.821958
0.180175 -0.283549 0.826087
0.181707 -0.284024 0.827443
0.182935 -0.284129 0.827728
0.18415 -0.28422 0.827967
0.185345 -0.284285 0.828136
0.0189469 -0.272341 0.799748
0.0199733 -0.272157 0.799188
0.0209891 -0.27187 0.798324
0.0219938 -0.271492 0.797195
0.0230016 -0.271183 0.796268
0.0240067 -0.270878 0.79535
0.0250095 -0.270578 0.794451
0.0260164 -0.270338 0.793727
0.0270321 -0.270193 0.793279
0.0280476 -0.270055 0.792855
0.0290716 -0.269993 0.792652
0.0300979 -0.269951 0.792508
0.0311264 -0.269926 0.792415
0.0321549 -0.269901 0.792321
0.0331835 -0.269876 0.792228
0.034212 -0.269851 0.792134
0.0352433 -0.269843 0.792091
0.036275 -0.269837 0.792053
0.037307 -0.269831 0.792015
0.0383455 -0.26986 0.792083
0.0393948 -0.269947 0.792318
0.0404435 -0.270024 0.792524
0.0414975 -0.270123 0.792793
0.0425658 -0.270289 0.793259
0.0436295 -0.270421 0.793627
0.0446957 -0.270557 0.794007
0.0457672 -0.270711 0.794439
0.0468365 -0.270846 0.794814
0.0478904 -0.270905 0.794966
0.0489564 -0.271012 0.795259
0.0500201 -0.271104 0.795509
0.0510912 -0.271221 0.795834
0.0521819 -0.271414 0.796377
0.0532985 -0.2717 0.797198
0.0544259 -0.272017 0.798105
0.0555586 -0.272339 0.799032
0.0566943 -0.27266 0.799951
0.057821 -0.272934 0.800734
0.0589351 -0.273151 0.80135
0.0600516 -0.273366 0.801962
0.0611614 -0.27355 0.802481
0.0622504 -0.273655 0.802768
0.0633486 -0.273786 0.803131
0.0644355 -0.273875 0.80337
0.0655204 -0.273952 0.803577
0.0666199 -0.274074 0.803913
0.0677328 -0.274232 0.804357
0.0688352 -0.274352 0.804688
0.0702555 -0.276469 0.807577
0.0700827 -0.27491 0.806303
0.0716578 -0.27747 0.810475
0.0713284 -0.275444 0.807848
0.0730641 -0.278451 0.813315
0.0725787 -0.275975 0.809382
0.0764391 -0.277776 0.814599
0.077642 -0.278106 0.815546
0.0789065 -0.278594 0.816957
0.0800666 -0.278786 0.817499
0.0812713 -0.279091 0.818371
0.0823933 -0.279169 0.818578
0.0834922 -0.279185 0.818603
0.0844947 -0.278952 0.8179
0.0854973 -0.278726 0.817216
0.086448 -0.278375 0.816167
0.0874152 -0.278074 0.815262
0.0883882 -0.277794 0.814419
0.0893421 -0.277474 0.813461
0.0902563 -0.277067 0.812249
0.0911306 -0.276577 0.810791
0.0919971 -0.27608 0.809314
0.0928453 -0.275553 0.807749
0.0936995 -0.275051 0.806257
0.094568 -0.274592 0.804892
0.0954583 -0.274192 0.803698
0.0963489 -0.2738 0.80253
0.0972551 -0.273451 0.801486
0.0981504 -0.273085 0.800394
0.0990385 -0.272712 0.799282
0.0999398 -0.272374 0.798271
0.100841 -0.272043 0.79728
0.101773 -0.271781 0.796491
0.102714 -0.271542 0.795772
0.10366 -0.271318 0.795095
0.104554 -0.270995 0.794128
0.105421 -0.270626 0.793026
0.106246 -0.270182 0.791705
0.107085 -0.269775 0.790494
0.107945 -0.269413 0.789415
0.108875 -0.269191 0.788744
0.109889 -0.269127 0.788535
0.110979 -0.269204 0.788741
0.112176 -0.269474 0.789511
0.113404 -0.269794 0.790427
0.114645 -0.270131 0.791394
0.115855 -0.270406 0.792178
0.117038 -0.270629 0.79281
0.118138 -0.270703 0.793005
0.119204 -0.270716 0.793023
0.120247 -0.270689 0.792922
0.121233 -0.270566 0.792544
0.122205 -0.270421 0.792099
0.123162 -0.270254 0.791588
0.124097 -0.270053 0.790981
0.125007 -0.269814 0.79026
0.125944 -0.269623 0.78968
0.126891 -0.269451 0.789157
0.127844 -0.26929 0.788665
0.128833 -0.269188 0.788347
0.129856 -0.269141 0.788189
0.130879 -0.269096 0.788035
0.131904 -0.269052 0.787885
0.13294 -0.269026 0.787791
0.133977 -0.269001 0.787697
0.135002 -0.268959 0.787552
0.136015 -0.268898 0.787353
0.137037 -0.268852 0.787198
0.138035 -0.268771 0.786941
0.139057 -0.268725 0.786787
0.140053 -0.268643 0.786526
0.141086 -0.268614 0.78642
0.142068 -0.268512 0.786103
0.143074 -0.268446 0.785887
0.144052 -0.26834 0.785559
0.145068 -0.268291 0.785394
0.146063 -0.268211 0.785139
0.147097 -0.268185 0.785045
0.148145 -0.268179 0.785005
0.149194 -0.268174 0.784971
0.150259 -0.26819 0.784997
0.151353 -0.268243 0.785131
0.15245 -0.2683 0.785277
0.153533 -0.268337 0.785366
0.154641 -0.268407 0.785549
0.155765 -0.268495 0.785787
0.156897 -0.268591 0.786046
0.158147 -0.268837 0.786744
0.159436 -0.269128 0.787575
0.16072 -0.26941 0.788377
0.162029 -0.269717 0.789253
0.163695 -0.270463 0.791413
0.166133 -0.27215 0.796323
0.1761 -0.280281 0.820022
0.178924 -0.282323 0.825967
0.180852 -0.28327 0.828712
0.182047 -0.283335 0.82888
0.183296 -0.283464 0.829235
0.184532 -0.283575 0.829537
0.0189498 -0.271404 0.800228
0.0199771 -0.271224 0.799678
0.0209941 -0.270948 0.798843
0.0219994 -0.270573 0.797716
0.0230079 -0.270267 0.796794
0.0240135 -0.269964 0.795879
0.0250172 -0.269668 0.794984
0.0260226 -0.269412 0.794209
0.027036 -0.269244 0.793695
0.0280491 -0.269085 0.793205
0.0290706 -0.269002 0.792939
0.0300944 -0.268941 0.79274
0.031123 -0.268916 0.792647
0.0321515 -0.268891 0.792553
0.0331826 -0.268883 0.792511
0.0342141 -0.268877 0.792472
0.0352489 -0.268889 0.792489
0.0362844 -0.268904 0.792512
0.0373231 -0.268935 0.792584
0.0383662 -0.268987 0.792718
0.039417 -0.269077 0.792965
0.040467 -0.269157 0.793179
0.0415242 -0.269268 0.793489
0.04259 -0.269415 0.793903
0.043651 -0.26953 0.794222
0.0447137 -0.269646 0.794544
0.0457812 -0.269777 0.794912
0.0468422 -0.269872 0.795172
0.0478955 -0.269926 0.795311
0.048953 -0.269995 0.795496
0.050016 -0.270083 0.795735
0.0510817 -0.270178 0.795994
0.0521679 -0.270351 0.796485
0.0532711 -0.270583 0.797151
0.0543978 -0.270897 0.798057
0.055525 -0.271199 0.798927
0.0566599 -0.271518 0.799846
0.0577812 -0.271772 0.800577
0.0588985 -0.272002 0.801233
0.0600081 -0.272194 0.801782
0.061111 -0.272355 0.802237
0.0621934 -0.27244 0.802466
0.0632901 -0.272569 0.802826
0.0643771 -0.27266 0.803074
0.0654674 -0.272758 0.803343
0.0665721 -0.272898 0.803735
0.0676903 -0.273074 0.804235
0.0687983 -0.273212 0.804622
0.0699125 -0.273365 0.805051
0.0710103 -0.273462 0.805318
0.0721028 -0.27354 0.805528
0.073913 -0.276732 0.811583
0.0732933 -0.273899 0.806564
0.0757417 -0.274771 0.809096
0.0769979 -0.275276 0.810562
0.07833 -0.275972 0.812594
0.0795627 -0.27638 0.813777
0.0808459 -0.27691 0.815318
0.0820356 -0.277181 0.816094
0.0832016 -0.277381 0.816665
0.0842613 -0.277306 0.816422
0.0853203 -0.27723 0.816176
0.0863192 -0.277006 0.815496
0.0873184 -0.276788 0.814833
0.0883174 -0.276575 0.814184
0.0892954 -0.276316 0.8134
0.0902267 -0.275953 0.81231
0.0911182 -0.275506 0.810973
0.0920037 -0.275055 0.809625
0.0928706 -0.274573 0.808182
0.093744 -0.274116 0.806815
0.0946293 -0.273695 0.805555
0.0955208 -0.273297 0.804362
0.0964096 -0.272902 0.803178
0.0973058 -0.272531 0.802066
0.0981824 -0.272127 0.800854
0.0990538 -0.271719 0.799634
0.0999465 -0.271365 0.79857
0.100849 -0.271037 0.797585
0.10179 -0.270794 0.796848
0.102751 -0.270596 0.796245
0.103708 -0.270395 0.795632
0.104622 -0.270112 0.794779
0.105501 -0.269765 0.793738
0.106335 -0.26934 0.792464
0.107176 -0.268936 0.791255
0.108045 -0.268592 0.790224
0.108976 -0.26837 0.789549
0.109991 -0.268308 0.789346
0.111094 -0.268405 0.789612
0.112293 -0.268675 0.790388
0.113521 -0.268991 0.791297
0.114762 -0.269324 0.792256
0.115971 -0.269594 0.793033
0.117146 -0.269799 0.793615
0.118247 -0.269872 0.79381
0.119315 -0.269887 0.793833
0.12037 -0.269879 0.793789
0.121371 -0.269779 0.793476
0.122367 -0.269674 0.793147
0.12334 -0.269531 0.792705
0.124288 -0.26935 0.792151
0.125197 -0.269108 0.79142
0.126134 -0.268915 0.790833
0.127071 -0.268725 0.790252
0.128013 -0.268545 0.789703
0.12899 -0.268422 0.789323
0.13 -0.268353 0.789099
0.131012 -0.268287 0.788885
0.132026 -0.268226 0.788683
0.133075 -0.268218 0.78864
0.134113 -0.268194 0.78855
0.135128 -0.268133 0.788351
0.136138 -0.268068 0.78814
0.137147 -0.268001 0.787921
0.138132 -0.2679 0.787605
0.139143 -0.267837 0.7874
0.140141 -0.267756 0.787141
0.14116 -0.267707 0.786977
0.142154 -0.267622 0.786707
0.143161 -0.267557 0.786494
0.144156 -0.267475 0.786234
0.145176 -0.26743 0.78608
0.146185 -0.267367 0.785877
0.147219 -0.267342 0.785782
0.148282 -0.267353 0.785796
0.149335 -0.267352 0.785773
0.150416 -0.267388 0.785857
0.151483 -0.267404 0.785885
0.152549 -0.267418 0.785906
0.1536 -0.267413 0.785872
0.154694 -0.267462 0.785995
0.155819 -0.267551 0.786236
0.157118 -0.26786 0.787124
0.158523 -0.268298 0.788391
0.159829 -0.268607 0.789279
0.161117 -0.268887 0.790081
0.162387 -0.269141 0.790808
0.164281 -0.270162 0.793789
0.167045 -0.272234 0.799859
0.177172 -0.280494 0.82407
0.179593 -0.282035 0.828578
0.18116 -0.282543 0.830048
0.182376 -0.282632 0.830287
0.0179214 -0.270615 0.801172
0.0189499 -0.270429 0.8006
0.0199784 -0.270263 0.800086
0.021 -0.270034 0.799389
0.022009 -0.269696 0.798365
0.0230201 -0.269411 0.7975
0.0240268 -0.269111 0.796588
0.0250314 -0.268817 0.795696
0.026037 -0.268557 0.794905
0.0270489 -0.268369 0.79433
0.0280597 -0.268187 0.79377
0.0290791 -0.268084 0.793445
0.0301032 -0.268022 0.793241
0.0311298 -0.26798 0.793096
0.0321586 -0.267953 0.792999
0.0331902 -0.267946 0.792958
0.0342224 -0.267942 0.792927
0.0352584 -0.267959 0.792958
0.0363005 -0.268011 0.793091
0.037344 -0.268065 0.793235
0.0383917 -0.268139 0.793434
0.0394472 -0.26825 0.793743
0.0405014 -0.268346 0.794008
0.0415597 -0.268457 0.794318
0.0426227 -0.268584 0.794676
0.0436804 -0.268677 0.794933
0.0447398 -0.268772 0.795196
0.0457996 -0.268864 0.795448
0.046852 -0.268916 0.795584
0.0479047 -0.268966 0.795713
0.0489581 -0.269015 0.795839
0.0500172 -0.269085 0.796028
0.0510784 -0.26916 0.796231
0.0521596 -0.269312 0.796661
0.0532529 -0.269504 0.797212
0.0543743 -0.269797 0.79806
0.0554961 -0.270078 0.798875
0.05663 -0.270393 0.799789
0.0577502 -0.270644 0.800514
0.0588613 -0.270852 0.801111
0.0599646 -0.271023 0.8016
0.0610651 -0.271178 0.802039
0.0621406 -0.271241 0.802206
0.0632311 -0.271351 0.802512
0.0643216 -0.271457 0.802806
0.0654119 -0.271557 0.803083
0.0665166 -0.271698 0.803484
0.0676408 -0.271895 0.804048
0.0687542 -0.272052 0.804492
0.0698684 -0.272205 0.804926
0.0709721 -0.272321 0.805251
0.072064 -0.272399 0.805461
0.0731557 -0.272473 0.805659
0.0744822 -0.274241 0.807553
0.0742341 -0.272505 0.805737
0.075387 -0.272745 0.806427
0.0765559 -0.27302 0.807224
0.0778063 -0.273509 0.808651
0.0790676 -0.274011 0.810121
0.0803856 -0.274649 0.81199
0.0816315 -0.275081 0.813249
0.0828509 -0.275432 0.81427
0.0839776 -0.275538 0.814563
0.0850958 -0.275619 0.814784
0.0861515 -0.275544 0.81454
0.0871854 -0.275417 0.814144
0.0882175 -0.275288 0.813741
0.0892126 -0.275074 0.813087
0.09017 -0.274776 0.812184
0.0910952 -0.27441 0.811082
0.0920086 -0.274026 0.809923
0.0929033 -0.273609 0.808666
0.0938046 -0.273215 0.807479
0.094693 -0.272801 0.806234
0.0955762 -0.272386 0.804982
0.0964549 -0.271969 0.803729
0.0973321 -0.271558 0.802492
0.0981897 -0.271115 0.801159
0.0990595 -0.270706 0.799929
0.099943 -0.270334 0.798807
0.100845 -0.270009 0.797822
0.101795 -0.269784 0.797137
0.102775 -0.269625 0.796646
0.103745 -0.269448 0.796102
0.104681 -0.269208 0.795371
0.105579 -0.2689 0.794441
0.106425 -0.268498 0.793231
0.107268 -0.268097 0.792023
0.108138 -0.267755 0.790992
0.109069 -0.267533 0.790313
0.110084 -0.267468 0.790101
0.111186 -0.267561 0.790359
0.112377 -0.267814 0.791087
0.113604 -0.268126 0.79199
0.114846 -0.268456 0.792949
0.116046 -0.268707 0.793671
0.117212 -0.268895 0.794208
0.118315 -0.26897 0.794411
0.119395 -0.269003 0.794488
0.120452 -0.268997 0.794451
0.121475 -0.268935 0.794247
0.122496 -0.268869 0.794032
0.123492 -0.268762 0.793695
0.124453 -0.2686 0.793197
0.125376 -0.26838 0.792525
0.126315 -0.268189 0.79194
0.127255 -0.268001 0.791366
0.128199 -0.267824 0.79082
0.129178 -0.267702 0.790442
0.13019 -0.267633 0.790218
0.131203 -0.267567 0.790002
0.132218 -0.267504 0.789797
0.133258 -0.267481 0.789707
0.134286 -0.267439 0.789563
0.135288 -0.267358 0.789303
0.136284 -0.26727 0.789025
0.137278 -0.26718 0.788738
0.138251 -0.267059 0.788361
0.139248 -0.266976 0.788097
0.140234 -0.266877 0.787785
0.141254 -0.266828 0.787618
0.142264 -0.266765 0.787413
0.143312 -0.266756 0.787367
0.144389 -0.266787 0.787438
0.145455 -0.266801 0.78746
0.146519 -0.266812 0.787472
0.147621 -0.266874 0.787637
0.148741 -0.266959 0.787869
0.149829 -0.267001 0.787971
0.150982 -0.267125 0.788321
0.15216 -0.267283 0.788766
0.153316 -0.267408 0.789117
0.154447 -0.267499 0.789366
0.155606 -0.267624 0.789715
0.156795 -0.267785 0.790171
0.158072 -0.268056 0.790954
0.159426 -0.26842 0.792009
0.160703 -0.268681 0.792761
0.16195 -0.268902 0.793395
0.163174 -0.269091 0.793932
0.164968 -0.269977 0.796532
0.0190904 -0.27125 0.806334
0.0200428 -0.270056 0.802749
0.0210091 -0.269157 0.800048
0.0220242 -0.268877 0.799192
0.0230381 -0.268611 0.798378
0.0240477 -0.268328 0.797515
0.0250534 -0.268035 0.796621
0.02606 -0.267774 0.795823
0.0270685 -0.26755 0.795136
0.0280777 -0.267347 0.794512
0.0290934 -0.267209 0.79408
0.0301156 -0.267128 0.793819
0.0311402 -0.267067 0.79362
0.0321694 -0.26704 0.793521
0.0332014 -0.267033 0.79348
0.0342345 -0.267031 0.793453
0.0352715 -0.26705 0.793494
0.0363174 -0.267121 0.793686
0.0373648 -0.267194 0.793885
0.0384168 -0.267287 0.794143
0.0394739 -0.267401 0.794464
0.0405317 -0.267511 0.794774
0.0415908 -0.26762 0.795081
0.0426512 -0.267729 0.795385
0.0437063 -0.267805 0.795593
0.0447614 -0.267876 0.795786
0.0458131 -0.267926 0.795916
0.0468572 -0.267938 0.795934
0.0479098 -0.267987 0.79606
0.0489599 -0.26802 0.796141
0.0500201 -0.268094 0.796342
0.0510851 -0.268183 0.79659
0.0521657 -0.268331 0.797011
0.0532493 -0.268483 0.797445
0.0543643 -0.268749 0.79822
0.0554843 -0.269023 0.799017
0.0566084 -0.2693 0.799824
0.0577243 -0.269535 0.800506
0.0588298 -0.269723 0.801048
0.059926 -0.269871 0.80147
0.061015 -0.269987 0.801797
0.0620836 -0.27003 0.801904
0.0631666 -0.270117 0.802146
0.064256 -0.270222 0.802439
0.0653448 -0.27032 0.802712
0.0664496 -0.270465 0.803124
0.0675792 -0.27068 0.803748
0.0686984 -0.270857 0.804254
0.0698127 -0.271012 0.804698
0.0709161 -0.271129 0.805027
0.072013 -0.271223 0.805288
0.073104 -0.271296 0.805486
0.0741819 -0.27133 0.805566
0.0752672 -0.271382 0.805702
0.0763675 -0.271473 0.805954
0.0775415 -0.271759 0.806788
0.078725 -0.272062 0.807672
0.079974 -0.272528 0.80904
0.0812377 -0.273018 0.810481
0.0824849 -0.273452 0.811754
0.0836591 -0.273689 0.812443
0.0848281 -0.273907 0.813072
0.0859339 -0.273963 0.813219
0.0870091 -0.273943 0.813141
0.0880735 -0.273898 0.812984
0.0890945 -0.27375 0.812524
0.0900847 -0.273533 0.811859
0.0910465 -0.273256 0.811013
0.0919959 -0.272957 0.810103
0.0929272 -0.272624 0.809089
0.0938643 -0.272311 0.808138
0.0947724 -0.271941 0.807016
0.0956667 -0.271549 0.805828
0.0965457 -0.271133 0.804569
0.0974124 -0.270699 0.80326
0.0982419 -0.270197 0.801745
0.0991004 -0.269766 0.80044
0.0999651 -0.269356 0.799201
0.100857 -0.269011 0.798153
0.101799 -0.268772 0.79742
0.102789 -0.268632 0.796984
0.103761 -0.268459 0.796452
0.104717 -0.26826 0.795839
0.105646 -0.268011 0.795078
0.106524 -0.26767 0.794041
0.10738 -0.267294 0.792903
0.108261 -0.266972 0.791925
0.109189 -0.266744 0.791226
0.110193 -0.266656 0.790948
0.111276 -0.266714 0.791099
0.112458 -0.266946 0.791771
0.113666 -0.267221 0.792572
0.114898 -0.267531 0.793473
0.116088 -0.267763 0.794146
0.117257 -0.267952 0.79469
0.118361 -0.268027 0.794894
0.119451 -0.268078 0.795026
0.120508 -0.268072 0.794987
0.121543 -0.268027 0.794836
0.122577 -0.267981 0.794679
0.123587 -0.267897 0.794411
0.124572 -0.267773 0.794022
0.12553 -0.267608 0.793512
0.126497 -0.26746 0.79305
0.127465 -0.267316 0.792603
0.128436 -0.267178 0.792173
0.129418 -0.267059 0.7918
0.13042 -0.266972 0.791521
0.131422 -0.266887 0.791249
0.132427 -0.266807 0.790991
0.133457 -0.266765 0.790847
0.134486 -0.266722 0.790699
0.135489 -0.26664 0.790437
0.136485 -0.266549 0.790147
0.137478 -0.266457 0.789853
0.138451 -0.266335 0.789471
0.139449 -0.26625 0.789199
0.140447 -0.266167 0.788932
0.14147 -0.266119 0.788772
0.14252 -0.26611 0.788726
0.143629 -0.266182 0.78892
0.144782 -0.266315 0.789295
0.145899 -0.266394 0.789511
0.147036 -0.266499 0.789804
0.148172 -0.266601 0.790089
0.149315 -0.266712 0.7904
0.15044 -0.266795 0.790627
0.151619 -0.266949 0.791064
0.152851 -0.26717 0.791702
0.154079 -0.267381 0.792311
0.155285 -0.267561 0.792827
0.156492 -0.267739 0.793335
0.157751 -0.26798 0.794034
0.159051 -0.268271 0.794879
0.16039 -0.268605 0.795852
0.161658 -0.268846 0.796548
0.162884 -0.269031 0.797078
0.164061 -0.269154 0.797424
0.165864 -0.270038 0.800034
0.168086 -0.272465 0.803865
0.168617 -0.272062 0.80603
0.021072 -0.268882 0.802519
0.0220392 -0.268054 0.800015
0.0230561 -0.267808 0.799258
0.0240672 -0.267531 0.798406
0.0250739 -0.267237 0.797506
0.0260816 -0.266977 0.796706
0.0270888 -0.266734 0.795958
0.028097 -0.266516 0.795286
0.029111 -0.266358 0.794793
0.0301316 -0.266259 0.794476
0.031154 -0.266178 0.794216
0.0321812 -0.266133 0.794063
0.0332136 -0.266124 0.794016
0.0342473 -0.266122 0.793992
0.0352841 -0.266138 0.79402
0.0363304 -0.266207 0.79421
0.0373813 -0.266296 0.79446
0.0384342 -0.266391 0.794726
0.0394948 -0.26652 0.795092
0.0405568 -0.266648 0.795458
0.0416172 -0.266759 0.795772
0.0426749 -0.266849 0.796026
0.0437299 -0.266921 0.796222
0.0447778 -0.266953 0.796301
0.0458254 -0.266982 0.796369
0.0468696 -0.266993 0.796382
0.0479231 -0.267043 0.796514
0.0489744 -0.26708 0.796607
0.0500354 -0.267155 0.796813
0.0511013 -0.267246 0.797066
0.0521773 -0.267372 0.797426
0.0532512 -0.267484 0.797742
0.0543552 -0.267706 0.79839
0.0554695 -0.267957 0.799124
0.0565835 -0.268196 0.799822
0.0576942 -0.268412 0.800453
0.058799 -0.268599 0.800993
0.0598946 -0.268745 0.801413
0.060982 -0.268857 0.801731
0.062045 -0.268882 0.801786
0.0631214 -0.268949 0.801969
0.0642034 -0.269031 0.802197
0.065285 -0.269109 0.80241
0.0663828 -0.269234 0.802765
0.0675168 -0.269465 0.803441
0.068642 -0.269662 0.804011
0.0697624 -0.269837 0.804517
0.0708714 -0.269972 0.804902
0.0719685 -0.270067 0.80517
0.0730587 -0.27014 0.805368
0.0741369 -0.270175 0.805455
0.0752216 -0.270227 0.805592
0.0763219 -0.270319 0.805849
0.077432 -0.270434 0.806174
0.078546 -0.270555 0.806518
0.079724 -0.27084 0.807352
0.0809253 -0.271175 0.808339
0.0821282 -0.271505 0.809308
0.0833431 -0.271855 0.810339
0.0845562 -0.272191 0.811326
0.0857102 -0.272373 0.811852
0.0868242 -0.272454 0.812074
0.0879199 -0.272488 0.812157
0.0889729 -0.272421 0.811936
0.0899982 -0.27229 0.811525
0.0909882 -0.272081 0.81088
0.0919664 -0.27185 0.810168
0.092934 -0.2716 0.8094
0.0938988 -0.271349 0.808629
0.0948275 -0.271025 0.807639
0.0957403 -0.270674 0.806567
0.0966284 -0.270277 0.805359
0.097487 -0.269827 0.803991
0.0983061 -0.269303 0.802405
0.0991455 -0.268833 0.800978
0.0999994 -0.268402 0.799668
0.100891 -0.268056 0.798611
0.101824 -0.267799 0.797823
0.102814 -0.26766 0.797386
0.103794 -0.267505 0.796905
0.10477 -0.267343 0.796401
0.105712 -0.26712 0.795714
0.106613 -0.266823 0.794806
0.10749 -0.266486 0.793776
0.108382 -0.266183 0.792851
0.109293 -0.265922 0.792051
0.110286 -0.265812 0.791703
0.111357 -0.265847 0.791788
0.112519 -0.266041 0.792349
0.113708 -0.266279 0.793043
0.114938 -0.266584 0.793938
0.116128 -0.266813 0.794606
0.117297 -0.267002 0.79515
0.118402 -0.267077 0.795357
0.119503 -0.267144 0.795539
0.120559 -0.267136 0.795496
0.121596 -0.267093 0.795349
0.122631 -0.267049 0.795198
0.123654 -0.266986 0.79499
0.124653 -0.266885 0.794668
0.125639 -0.266763 0.794285
0.126632 -0.266655 0.793942
0.127638 -0.266569 0.793666
0.128647 -0.266489 0.793409
0.129656 -0.266409 0.793151
0.130673 -0.266342 0.79293
0.131687 -0.266272 0.792703
0.132693 -0.266189 0.792435
0.133711 -0.266127 0.792231
0.134741 -0.266082 0.792078
0.135744 -0.265998 0.791807
0.136744 -0.265912 0.791529
0.137744 -0.265825 0.791251
0.13872 -0.265705 0.790873
0.13972 -0.265621 0.790602
0.14073 -0.265552 0.790376
0.141781 -0.26554 0.790324
0.142877 -0.265592 0.790458
0.144047 -0.265745 0.790898
0.145266 -0.265962 0.791528
0.146436 -0.266108 0.791946
0.147615 -0.266264 0.792392
0.148771 -0.266385 0.792738
0.149923 -0.266502 0.793068
0.151073 -0.266613 0.793379
0.152277 -0.266791 0.793893
0.15357 -0.267083 0.794748
0.154876 -0.267388 0.795639
0.156172 -0.267674 0.796477
0.157455 -0.26794 0.797253
0.158769 -0.268242 0.798136
0.160086 -0.268543 0.799017
0.161392 -0.268824 0.799839
0.162622 -0.269009 0.800372
0.163819 -0.269149 0.800772
0.165017 -0.269289 0.80117
0.166488 -0.269757 0.802549
0.1688 -0.271234 0.806946
0.0211353 -0.268604 0.805006
0.0220492 -0.267175 0.800674
0.0230687 -0.26695 0.799976
0.0240827 -0.266693 0.799183
0.0250903 -0.266401 0.79828
0.0261012 -0.266161 0.797539
0.0271095 -0.265919 0.79679
0.0281187 -0.265702 0.796116
0.0291331 -0.26554 0.79561
0.030152 -0.265421 0.795234
0.0311726 -0.265321 0.794912
0.0321977 -0.265257 0.794701
0.033228 -0.265229 0.7946
0.034259 -0.265207 0.794513
0.0352931 -0.265202 0.794482
0.0363392 -0.265267 0.794661
0.0373901 -0.265354 0.794905
0.0384406 -0.265432 0.795121
0.0395015 -0.26556 0.795491
0.0405674 -0.265706 0.795912
0.0416281 -0.265816 0.796226
0.0426834 -0.265892 0.796438
0.0437418 -0.265978 0.796679
0.0447897 -0.266009 0.796753
0.0458379 -0.266038 0.796823
0.0468831 -0.266052 0.796846
0.0479412 -0.26612 0.797032
0.0489935 -0.266158 0.797131
0.0500548 -0.266232 0.797335
0.0511213 -0.266322 0.79759
0.0521935 -0.266431 0.797898
0.0532636 -0.266525 0.798165
0.0543581 -0.266708 0.798699
0.0554614 -0.266916 0.799308
0.0565693 -0.267131 0.799939
0.0576747 -0.267328 0.800514
0.0587742 -0.267496 0.801002
0.0598741 -0.267658 0.801472
0.0609615 -0.26777 0.801792
0.0620189 -0.267777 0.801794
0.0630947 -0.267843 0.801975
0.0641755 -0.267923 0.802196
0.0652443 -0.26796 0.802291
0.0663394 -0.268078 0.802626
0.0674723 -0.268306 0.803298
0.0685913 -0.268485 0.803818
0.0697061 -0.268645 0.804282
0.0708137 -0.268778 0.804663
0.0719086 -0.268869 0.804919
0.0729984 -0.268942 0.805121
0.0740842 -0.269001 0.805281
0.0751761 -0.269074 0.805482
0.0762824 -0.269183 0.805793
0.0773842 -0.269277 0.806057
0.0784891 -0.269375 0.806334
0.0796217 -0.269542 0.806818
0.0807733 -0.269752 0.807432
0.0819379 -0.269988 0.808126
0.0831245 -0.270272 0.808964
0.0843212 -0.270573 0.809852
0.0854974 -0.270816 0.810563
0.0866412 -0.270973 0.811021
0.08776 -0.271067 0.811285
0.0888448 -0.271079 0.811302
0.0899049 -0.271033 0.811143
0.0909308 -0.270909 0.810751
0.0919363 -0.270742 0.810229
0.0929304 -0.270553 0.809641
0.0939139 -0.270344 0.808993
0.0948622 -0.270064 0.808129
0.0957958 -0.269758 0.807188
0.0966957 -0.269386 0.806051
0.0975627 -0.268954 0.804731
0.09839 -0.268449 0.803189
0.0992215 -0.267963 0.801706
0.100075 -0.267531 0.800386
0.100975 -0.267203 0.799381
0.101899 -0.266927 0.798529
0.10287 -0.26675 0.79798
0.103849 -0.266591 0.797482
0.104825 -0.266429 0.796975
0.105779 -0.266228 0.796351
0.106703 -0.265975 0.795569
0.107612 -0.265697 0.794716
0.108515 -0.265415 0.793847
0.109426 -0.265151 0.793034
0.11041 -0.265024 0.792633
0.111471 -0.265038 0.792657
0.112603 -0.265176 0.793053
0.113769 -0.26537 0.79362
0.114986 -0.26565 0.794445
0.116155 -0.265841 0.795
0.117305 -0.265994 0.795444
0.118409 -0.266069 0.79565
0.119509 -0.266134 0.795827
0.120556 -0.266109 0.795732
0.121603 -0.266083 0.795637
0.122649 -0.266058 0.795542
0.123685 -0.266015 0.795395
0.124709 -0.265953 0.795188
0.125741 -0.265905 0.795026
0.126773 -0.265858 0.794866
0.127819 -0.265832 0.794771
0.128868 -0.265811 0.794687
0.129903 -0.265768 0.794541
0.130922 -0.265702 0.794324
0.131938 -0.265631 0.79409
0.132943 -0.265546 0.793817
0.133951 -0.265464 0.793552
0.134971 -0.265402 0.793345
0.135976 -0.265319 0.793078
0.13698 -0.265236 0.792809
0.137998 -0.265172 0.792598
0.138992 -0.265075 0.792288
0.140032 -0.265045 0.79218
0.141072 -0.265015 0.792072
0.142155 -0.265045 0.792143
0.143284 -0.265139 0.792405
0.144501 -0.265349 0.79302
0.145744 -0.265594 0.793737
0.146937 -0.265764 0.794232
0.148133 -0.265937 0.794732
0.149308 -0.266079 0.79514
0.150475 -0.266209 0.795514
0.151655 -0.266352 0.795925
0.152891 -0.266568 0.796555
0.154238 -0.266921 0.797599
0.155597 -0.267286 0.798678
0.156945 -0.267631 0.799695
0.158271 -0.267943 0.800616
0.159627 -0.268288 0.801634
0.160971 -0.268614 0.802595
0.162267 -0.268875 0.803362
0.163484 -0.269034 0.803819
0.164688 -0.269176 0.804227
0.165905 -0.26933 0.804671
0.167398 -0.269816 0.806113
0.169271 -0.27075 0.808904
0.171444 -0.272029 0.812731
0.0157618 -0.284522 0.853186
0.0146273 -0.284481 0.853082
0.0146242 -0.283382 0.85337
0.0157581 -0.283414 0.853448
0.0168951 -0.284534 0.853203
0.0168912 -0.283421 0.853451
0.0221688 -0.267445 0.804827
0.0231367 -0.26664 0.802363
0.0240975 -0.265847 0.799937
0.0251079 -0.265573 0.799089
0.0261219 -0.265352 0.798399
0.0271336 -0.26513 0.797707
0.0281442 -0.264915 0.797038
0.02916 -0.264755 0.796534
0.0301793 -0.264631 0.796139
0.0311981 -0.264511 0.795758
0.0322214 -0.264428 0.795487
0.0332499 -0.264382 0.795331
0.0342787 -0.264339 0.795184
0.0353103 -0.264315 0.795094
0.0363537 -0.26436 0.795213
0.0373991 -0.264412 0.795353
0.0384494 -0.264486 0.79556
0.0395111 -0.264616 0.795936
0.0405776 -0.264762 0.796362
0.0416361 -0.264858 0.796636
0.0426912 -0.264931 0.796839
0.0437496 -0.265016 0.797077
0.0447981 -0.265047 0.797155
0.0458477 -0.265081 0.797241
0.0468981 -0.265116 0.797329
0.0479611 -0.265203 0.797574
0.0490173 -0.265256 0.797718
0.0500788 -0.265327 0.797916
0.0511501 -0.265434 0.798222
0.0522233 -0.265543 0.798535
0.0532946 -0.265638 0.798807
0.0543806 -0.265785 0.799235
0.0554737 -0.265952 0.799721
0.0565705 -0.266124 0.800227
0.0576695 -0.266297 0.800732
0.0587596 -0.26643 0.80112
0.0598547 -0.266575 0.801542
0.0609468 -0.266704 0.801913
0.0619988 -0.266693 0.801863
0.0630691 -0.266742 0.801994
0.0641437 -0.266802 0.802157
0.0651994 -0.266799 0.802131
0.0662807 -0.266875 0.802344
0.0674056 -0.267082 0.80295
0.0685174 -0.267241 0.803415
0.0696251 -0.267382 0.803825
0.0707302 -0.26751 0.804195
0.0718225 -0.267596 0.804439
0.0729169 -0.267686 0.804692
0.0740088 -0.267765 0.804913
0.0751089 -0.267863 0.805192
0.0762279 -0.268008 0.805615
0.0773287 -0.2681 0.805876
0.0784246 -0.268176 0.806088
0.0795351 -0.268287 0.806407
0.0806688 -0.268453 0.806892
0.0818079 -0.268628 0.807403
0.0829744 -0.268865 0.808103
0.0841456 -0.269106 0.808817
0.0853181 -0.269344 0.809518
0.0864679 -0.269521 0.810036
0.0876025 -0.269657 0.810429
0.0887054 -0.269714 0.810586
0.0897986 -0.269748 0.81067
0.0908574 -0.269703 0.810514
0.0918886 -0.269596 0.810171
0.0929074 -0.269463 0.809751
0.0939094 -0.269297 0.809228
0.0948763 -0.269057 0.808485
0.0958209 -0.268776 0.807613
0.0967313 -0.268428 0.806541
0.0976089 -0.268019 0.805284
0.098456 -0.267556 0.803861
0.0993067 -0.267109 0.802492
0.100173 -0.266704 0.801244
0.101084 -0.266396 0.800293
0.102008 -0.26612 0.79944
0.102969 -0.265922 0.798822
0.103937 -0.265739 0.79825
0.104921 -0.265592 0.797785
0.105878 -0.265395 0.797173
0.106814 -0.265164 0.796454
0.107753 -0.264942 0.795763
0.108669 -0.264681 0.794954
0.109583 -0.264422 0.794152
0.110577 -0.26431 0.793794
0.111619 -0.264286 0.793706
0.11271 -0.264349 0.793876
0.113842 -0.264482 0.794261
0.115026 -0.2647 0.794905
0.116162 -0.264834 0.795292
0.117301 -0.264968 0.79568
0.118416 -0.265059 0.795937
0.119527 -0.265142 0.796172
0.120586 -0.265136 0.796134
0.121644 -0.265129 0.796095
0.122701 -0.265121 0.796052
0.123749 -0.265095 0.795956
0.124785 -0.265053 0.79581
0.125832 -0.265027 0.795715
0.12688 -0.265004 0.795624
0.127952 -0.265018 0.795649
0.129028 -0.265036 0.795686
0.130092 -0.265035 0.795665
0.131127 -0.26499 0.795512
0.132155 -0.264937 0.795332
0.133162 -0.26485 0.795051
0.134147 -0.264733 0.79468
0.135155 -0.264652 0.794415
0.136173 -0.264586 0.794198
0.137192 -0.264522 0.793985
0.138226 -0.264479 0.793839
0.139273 -0.264455 0.793748
0.140358 -0.264485 0.79382
0.141445 -0.264518 0.793901
0.142562 -0.26459 0.794101
0.143723 -0.264721 0.794479
0.144943 -0.264932 0.795099
0.146184 -0.265166 0.795789
0.147376 -0.26533 0.796268
0.148583 -0.265513 0.796802
0.149772 -0.265669 0.797255
0.15094 -0.265793 0.797614
0.152146 -0.265966 0.798118
0.153399 -0.266197 0.798797
0.15477 -0.266575 0.799923
0.156184 -0.267004 0.801202
0.157585 -0.267408 0.802406
0.158957 -0.267771 0.803485
0.16036 -0.268168 0.804666
0.161578 -0.268327 0.805129
0.16272 -0.268391 0.805304
0.16393 -0.268537 0.805728
0.165121 -0.268658 0.806074
0.166358 -0.268831 0.80658
0.0157609 -0.282416 0.854046
0.0168899 -0.282351 0.853827
0.0179248 -0.281974 0.849036
0.0179794 -0.281717 0.851871
0.0232637 -0.266905 0.806532
0.0241669 -0.265511 0.802258
0.0251213 -0.264705 0.799781
0.0261361 -0.264485 0.799092
0.0271513 -0.264287 0.798467
0.028165 -0.264089 0.797848
0.0291798 -0.263915 0.797299
0.0301977 -0.263774 0.796851
0.031217 -0.263652 0.796462
0.0322381 -0.263549 0.796129
0.0332645 -0.263486 0.795919
0.0342937 -0.263442 0.795768
0.0353258 -0.263417 0.795675
0.036364 -0.263427 0.795689
0.0374093 -0.263476 0.795821
0.0384601 -0.26355 0.796029
0.0395187 -0.263661 0.79635
0.0405822 -0.263789 0.796723
0.0416404 -0.263882 0.79699
0.0426918 -0.263935 0.797134
0.0437504 -0.264019 0.797373
0.0448033 -0.26407 0.797512
0.0458583 -0.264127 0.797669
0.0469173 -0.264199 0.797871
0.0479849 -0.264302 0.798169
0.0490418 -0.264355 0.798312
0.0501037 -0.264425 0.798508
0.0511797 -0.264547 0.798865
0.0522544 -0.264659 0.799187
0.0533266 -0.264754 0.799461
0.0544086 -0.264882 0.799834
0.0554963 -0.265025 0.800252
0.0565821 -0.265154 0.80063
0.0576706 -0.265287 0.801018
0.0587556 -0.265402 0.80135
0.0598505 -0.265545 0.80177
0.0609427 -0.265674 0.802144
0.0619946 -0.265663 0.802092
0.0630594 -0.265693 0.802168
0.0641221 -0.265715 0.802217
0.0651652 -0.265674 0.802073
0.0662274 -0.265692 0.802111
0.0673381 -0.265856 0.802595
0.0684423 -0.265995 0.802999
0.0695414 -0.266113 0.803342
0.0706382 -0.26622 0.803651
0.0717337 -0.266319 0.803937
0.0728272 -0.266409 0.804192
0.0739255 -0.266509 0.804479
0.0750386 -0.266645 0.804877
0.0761646 -0.266811 0.805365
0.0772659 -0.266906 0.805637
0.078367 -0.266997 0.805898
0.07947 -0.26709 0.806163
0.0805813 -0.267201 0.806482
0.0817108 -0.267353 0.806929
0.0828585 -0.267545 0.807498
0.0840033 -0.267725 0.808028
0.0851564 -0.267919 0.808602
0.0863112 -0.268112 0.80917
0.0874449 -0.268249 0.809571
0.0885719 -0.268367 0.809913
0.0896912 -0.268463 0.810189
0.0907751 -0.268477 0.810213
0.0918314 -0.268429 0.810048
0.0928754 -0.268354 0.809801
0.0938946 -0.268226 0.809394
0.0948876 -0.268045 0.808823
0.09585 -0.267802 0.808065
0.0967794 -0.267494 0.807111
0.0976764 -0.267126 0.805971
0.0985442 -0.266706 0.804674
0.0994092 -0.266289 0.803385
0.100297 -0.265927 0.802264
0.101221 -0.265643 0.801379
0.102147 -0.265369 0.800529
0.103099 -0.265151 0.799846
0.104066 -0.264965 0.799263
0.105049 -0.264815 0.798786
0.106017 -0.264637 0.798226
0.106974 -0.264443 0.797619
0.107946 -0.264279 0.797103
0.108885 -0.264058 0.79641
0.109803 -0.263803 0.795616
0.110798 -0.26369 0.795255
0.111811 -0.263611 0.794997
0.11285 -0.263578 0.794879
0.113928 -0.263614 0.794972
0.115076 -0.263768 0.795422
0.11617 -0.263827 0.795585
0.117298 -0.263942 0.795916
0.118423 -0.264051 0.79623
0.119547 -0.264154 0.796526
0.120608 -0.264152 0.796502
0.121679 -0.264164 0.796521
0.122748 -0.264173 0.796532
0.123796 -0.264148 0.796439
0.124844 -0.264124 0.796348
0.125925 -0.264152 0.796415
0.126999 -0.264166 0.796441
0.128099 -0.264221 0.79659
0.1292 -0.264277 0.796741
0.130278 -0.264295 0.796779
0.131305 -0.264236 0.796581
0.132325 -0.264168 0.796357
0.133321 -0.264063 0.796021
0.134305 -0.263945 0.795642
0.135314 -0.263862 0.795373
0.136345 -0.263812 0.795203
0.137378 -0.263765 0.795043
0.138437 -0.263757 0.795
0.139525 -0.26379 0.795082
0.140657 -0.263883 0.795347
0.141792 -0.263977 0.795617
0.142944 -0.264094 0.795954
0.144119 -0.26424 0.79638
0.14531 -0.264405 0.796865
0.14648 -0.26454 0.797257
0.147637 -0.264653 0.797584
0.148801 -0.264774 0.797935
0.149939 -0.264859 0.798176
0.151069 -0.264932 0.798381
0.152261 -0.265084 0.798826
0.153471 -0.265257 0.799333
0.154742 -0.265505 0.800069
0.156091 -0.265847 0.801092
0.157436 -0.266181 0.80209
0.158788 -0.266518 0.803097
0.160152 -0.266864 0.804133
0.161429 -0.267098 0.804824
0.162615 -0.267217 0.805169
0.16386 -0.267406 0.805724
0.165072 -0.267551 0.806148
0.166343 -0.267765 0.806782
0.0146399 -0.281602 0.855229
0.015768 -0.281491 0.854871
0.0168947 -0.281375 0.854494
0.0180223 -0.281284 0.854198
0.0243031 -0.265791 0.806493
0.0251948 -0.26437 0.802112
0.0261484 -0.263601 0.799735
0.0271666 -0.263422 0.799166
0.0281816 -0.263229 0.798559
0.0291996 -0.263074 0.798064
0.0302161 -0.262916 0.797565
0.031236 -0.262793 0.797169
0.0322554 -0.262673 0.796784
0.0332797 -0.262592 0.796518
0.0343069 -0.262532 0.796317
0.0353396 -0.262507 0.796224
0.0363752 -0.2625 0.796185
0.0374178 -0.262529 0.796259
0.038468 -0.262598 0.796454
0.0395267 -0.262707 0.79677
0.0405875 -0.262818 0.797095
0.0416453 -0.262907 0.79735
0.0426958 -0.262955 0.797481
0.0437543 -0.263036 0.797714
0.0448081 -0.26309 0.797864
0.0458713 -0.263184 0.798133
0.0469394 -0.263293 0.798451
0.0480122 -0.263416 0.798811
0.0490742 -0.263486 0.79901
0.0501418 -0.263576 0.799267
0.0512194 -0.2637 0.799632
0.0522952 -0.263811 0.799956
0.053373 -0.263924 0.800287
0.0544512 -0.264033 0.800602
0.0555295 -0.264137 0.800904
0.056605 -0.264225 0.801158
0.0576878 -0.264335 0.801479
0.0587678 -0.26443 0.801754
0.0598582 -0.264556 0.802124
0.0609501 -0.264682 0.802492
0.062001 -0.264667 0.802429
0.063055 -0.264662 0.802396
0.0641057 -0.264645 0.802328
0.0651409 -0.26458 0.80211
0.0661953 -0.264575 0.802079
0.0672929 -0.2647 0.802445
0.0683894 -0.264817 0.802785
0.0694806 -0.264913 0.803065
0.0705701 -0.265002 0.803318
0.0716522 -0.265065 0.803496
0.0727443 -0.265154 0.80375
0.0738483 -0.265272 0.804095
0.0749687 -0.26543 0.804563
0.0760956 -0.2656 0.805067
0.0772023 -0.265711 0.805391
0.0783096 -0.26582 0.805708
0.0794117 -0.265912 0.805972
0.080516 -0.266006 0.806244
0.0816366 -0.266137 0.806629
0.0827672 -0.266289 0.807076
0.0838922 -0.266423 0.807469
0.0850262 -0.266573 0.807913
0.08617 -0.266743 0.808415
0.0873101 -0.266898 0.808875
0.0884607 -0.267074 0.809395
0.0895961 -0.267209 0.809793
0.0906984 -0.267267 0.809952
0.0917805 -0.267277 0.809967
0.0928357 -0.267229 0.8098
0.0938563 -0.267105 0.809404
0.0948578 -0.266943 0.808891
0.0958283 -0.266719 0.808187
0.0967674 -0.266434 0.807296
0.0976835 -0.266108 0.806278
0.0985881 -0.265765 0.805209
0.099475 -0.265393 0.804052
0.100393 -0.265091 0.803109
0.101338 -0.264847 0.802346
0.102283 -0.26461 0.801601
0.103229 -0.264377 0.80087
0.104206 -0.26421 0.800341
0.1052 -0.264077 0.799917
0.106171 -0.263903 0.799365
0.107141 -0.26373 0.798819
0.108153 -0.263638 0.798519
0.109117 -0.263459 0.797956
0.11005 -0.263228 0.797228
0.111057 -0.263133 0.796921
0.112068 -0.263047 0.796639
0.113055 -0.262919 0.79623
0.114088 -0.262871 0.796068
0.11518 -0.262928 0.796223
0.116239 -0.262925 0.796199
0.117326 -0.262969 0.796317
0.118443 -0.263061 0.796582
0.119558 -0.263149 0.796834
0.120621 -0.26315 0.796818
0.121682 -0.263147 0.796792
0.122763 -0.263175 0.79686
0.123823 -0.263169 0.796824
0.124894 -0.263181 0.796845
0.126001 -0.263248 0.797031
0.127099 -0.263299 0.79717
0.128222 -0.263387 0.797424
0.129337 -0.263461 0.797632
0.130429 -0.263499 0.797731
0.131468 -0.263457 0.797584
0.132501 -0.263405 0.797409
0.133485 -0.263281 0.797013
0.134469 -0.26316 0.796626
0.135465 -0.263058 0.796296
0.136486 -0.262993 0.796079
0.137509 -0.26293 0.79587
0.138594 -0.262957 0.795935
0.139725 -0.263047 0.796194
0.140889 -0.263182 0.79659
0.142061 -0.263324 0.797005
0.143238 -0.263472 0.797441
0.144387 -0.263579 0.797751
0.145523 -0.263664 0.797995
0.146634 -0.263716 0.798136
0.147744 -0.263765 0.798269
0.148853 -0.263813 0.798397
0.149965 -0.263863 0.798532
0.151097 -0.263937 0.798742
0.152273 -0.264068 0.799127
0.153469 -0.26422 0.799575
0.154708 -0.264426 0.800186
0.156036 -0.264741 0.801133
0.157349 -0.265033 0.802009
0.158701 -0.265368 0.803017
0.160052 -0.265697 0.804005
0.161343 -0.265948 0.804754
0.162529 -0.266067 0.805101
0.163784 -0.266267 0.805695
0.164986 -0.2664 0.806085
0.16626 -0.266617 0.806733
0.0135296 -0.281068 0.857288
0.0146554 -0.280852 0.856602
0.0157803 -0.280655 0.855978
0.0169047 -0.280478 0.855411
0.0180283 -0.280313 0.854885
0.0190559 -0.279944 0.850063
0.019105 -0.279544 0.852493
0.0200651 -0.278478 0.845542
0.0201689 -0.278716 0.849917
0.0252734 -0.264073 0.804586
0.026161 -0.262718 0.800386
0.0271799 -0.262539 0.799817
0.0281978 -0.262364 0.79926
0.0292187 -0.262225 0.798815
0.0302341 -0.262054 0.798269
0.0312521 -0.261912 0.797817
0.0322718 -0.26179 0.797424
0.033294 -0.261691 0.7971
0.0343191 -0.261615 0.796847
0.0353522 -0.261589 0.796754
0.0363883 -0.261581 0.796711
0.0374281 -0.261592 0.79673
0.0384785 -0.261659 0.79692
0.0395344 -0.26175 0.797184
0.0405916 -0.261841 0.797448
0.0416458 -0.26191 0.797646
0.0426961 -0.261956 0.79777
0.0437544 -0.262035 0.797999
0.0448121 -0.262107 0.798205
0.0458801 -0.26222 0.798537
0.0469531 -0.262349 0.798918
0.0480311 -0.262491 0.79934
0.0490988 -0.262583 0.799607
0.0501757 -0.262707 0.799974
0.0512595 -0.262852 0.800405
0.0523413 -0.262983 0.800791
0.0534291 -0.263129 0.801227
0.0545082 -0.263236 0.80154
0.0555832 -0.263322 0.801789
0.0566543 -0.26339 0.801982
0.0577326 -0.26348 0.802242
0.0588026 -0.263536 0.802399
0.0598831 -0.263625 0.802658
0.0609645 -0.263714 0.802913
0.0620102 -0.26368 0.802794
0.0630571 -0.263651 0.802688
0.0641013 -0.263614 0.802556
0.0651355 -0.263546 0.802329
0.0661835 -0.263521 0.802237
0.0672685 -0.263608 0.802487
0.0683569 -0.263701 0.802758
0.0694356 -0.263762 0.80293
0.0705118 -0.263813 0.803072
0.0715872 -0.26386 0.803198
0.0726774 -0.263945 0.803445
0.0737745 -0.264046 0.80374
0.0748998 -0.26422 0.804257
0.0760338 -0.26441 0.804828
0.0771467 -0.264539 0.805209
0.07826 -0.264665 0.80558
0.079368 -0.264772 0.805895
0.0804726 -0.264868 0.806174
0.081585 -0.26498 0.806502
0.0826984 -0.26509 0.806825
0.0838058 -0.265183 0.807093
0.0849217 -0.265292 0.807413
0.0860477 -0.265422 0.807796
0.0871774 -0.265556 0.808192
0.0883342 -0.265748 0.808768
0.0894774 -0.265904 0.809232
0.0905978 -0.266005 0.809526
0.0916981 -0.266058 0.809673
0.0927709 -0.266049 0.809629
0.0938003 -0.265947 0.809297
0.0948184 -0.265823 0.808897
0.0957986 -0.265621 0.808258
0.0967554 -0.265375 0.807482
0.0976906 -0.265089 0.806585
0.0986238 -0.264805 0.805693
0.099538 -0.264489 0.804702
0.100486 -0.264247 0.803938
0.101451 -0.264041 0.803288
0.102418 -0.263845 0.802665
0.103374 -0.263632 0.801992
0.104354 -0.263466 0.801465
0.105352 -0.263339 0.801056
0.106335 -0.263185 0.800564
0.107327 -0.263051 0.800134
0.108364 -0.263001 0.799963
0.109362 -0.262879 0.799572
0.110329 -0.262706 0.799021
0.11135 -0.262631 0.798774
0.112352 -0.262523 0.798423
0.113317 -0.262353 0.797883
0.114305 -0.262225 0.797472
0.115352 -0.2622 0.79738
0.116368 -0.262122 0.797121
0.117421 -0.262108 0.797062
0.118517 -0.262162 0.797213
0.11962 -0.26223 0.797403
0.120673 -0.262212 0.797331
0.121733 -0.262207 0.7973
0.122825 -0.262251 0.797418
0.123899 -0.262267 0.79745
0.124986 -0.262302 0.797542
0.126119 -0.262407 0.797849
0.127243 -0.262496 0.798106
0.128371 -0.262589 0.798376
0.129487 -0.262662 0.798584
0.130588 -0.262712 0.79872
0.131628 -0.262668 0.79857
0.132662 -0.262618 0.798396
0.133658 -0.26251 0.798048
0.134655 -0.262405 0.797709
0.135629 -0.262269 0.797273
0.136626 -0.262168 0.796945
0.137624 -0.262069 0.796621
0.13871 -0.262096 0.796689
0.139846 -0.262192 0.796967
0.141042 -0.262367 0.79749
0.142227 -0.262526 0.797962
0.143416 -0.262687 0.79844
0.144537 -0.262753 0.798626
0.14563 -0.26278 0.798693
0.146699 -0.262774 0.798659
0.14778 -0.262784 0.798672
0.148862 -0.262794 0.798686
0.14996 -0.262825 0.798763
0.15109 -0.262896 0.798966
0.152253 -0.263009 0.799296
0.153445 -0.263157 0.799736
0.154654 -0.263323 0.800229
0.155968 -0.263619 0.801123
0.157267 -0.263892 0.801946
0.15862 -0.264228 0.802961
0.159972 -0.264557 0.803958
0.161292 -0.264842 0.804817
0.162474 -0.264956 0.805153
0.16372 -0.265144 0.805712
0.164894 -0.265244 0.806002
0.166112 -0.265394 0.806447
0.0124059 -0.280355 0.858811
0.0135371 -0.280187 0.858272
0.0146669 -0.280022 0.857741
0.0157932 -0.279823 0.857106
0.0169184 -0.279636 0.856508
0.0180424 -0.279457 0.855933
0.0191595 -0.279208 0.855144
0.0202715 -0.278926 0.854251
0.0262339 -0.26234 0.802611
0.0271888 -0.26162 0.800358
0.0282091 -0.261461 0.799849
0.0292307 -0.261321 0.799399
0.0302486 -0.261165 0.798899
0.0312676 -0.261026 0.79845
0.0322878 -0.260903 0.798053
0.0333103 -0.260802 0.797722
0.0343355 -0.260722 0.797458
0.0353663 -0.260679 0.797309
0.0363971 -0.260637 0.797163
0.0374339 -0.26063 0.797125
0.0384842 -0.260694 0.797308
0.039537 -0.260766 0.797516
0.0405916 -0.260842 0.797736
0.0416492 -0.260928 0.797986
0.0427033 -0.26099 0.798163
0.0437587 -0.261054 0.798347
0.0448167 -0.261126 0.798552
0.0458885 -0.261255 0.798936
0.0469625 -0.261385 0.799325
0.0480457 -0.261548 0.799814
0.0491226 -0.261675 0.800195
0.0502095 -0.261837 0.800679
0.0512995 -0.262003 0.801179
0.0523873 -0.262152 0.801624
0.0534771 -0.2623 0.80207
0.0545576 -0.262408 0.802388
0.0556339 -0.262495 0.80264
0.0567013 -0.262545 0.80278
0.0577746 -0.262613 0.802974
0.0588393 -0.262647 0.803066
0.0599102 -0.262701 0.803216
0.0609808 -0.262751 0.803354
0.0620249 -0.262711 0.803215
0.0630662 -0.262663 0.80305
0.0641053 -0.262609 0.802865
0.0651398 -0.262541 0.80264
0.0661879 -0.262517 0.802548
0.0672673 -0.262586 0.802745
0.0683555 -0.262678 0.803014
0.069433 -0.262735 0.803174
0.0705086 -0.262784 0.803311
0.0715769 -0.26281 0.803376
0.0726595 -0.262874 0.803559
0.0737541 -0.262968 0.803834
0.0748731 -0.263124 0.804302
0.0760003 -0.263297 0.80482
0.0771131 -0.263426 0.805204
0.0782325 -0.263567 0.805627
0.0793342 -0.263659 0.805897
0.0804385 -0.263755 0.806176
0.0815431 -0.263847 0.806447
0.0826466 -0.263934 0.806701
0.0837292 -0.263968 0.806789
0.0848275 -0.264038 0.806988
0.0859443 -0.264148 0.807313
0.0870644 -0.264262 0.807651
0.0882111 -0.264433 0.808165
0.0893533 -0.264589 0.808633
0.090488 -0.264724 0.809035
0.0915973 -0.264799 0.809252
0.0926871 -0.26483 0.809331
0.0937414 -0.264784 0.809171
0.0947757 -0.264696 0.80888
0.0957653 -0.264515 0.808306
0.0967334 -0.264294 0.807604
0.0976787 -0.264031 0.806771
0.0986221 -0.26377 0.805944
0.0995636 -0.26351 0.805121
