ply
format ascii 1.0
element vertex 1675
property float x
property float y
property float z
end_header
0.0471764 0.0577224 0.346088
0.0476082 0.0572165 0.345579
0.0480574 0.0567357 0.345187
0.0485291 0.0562857 0.34494
0.048977 0.0558069 0.34455
0.0494171 0.0553205 0.34412
0.0498667 0.054848 0.343753
0.0503102 0.0543699 0.343355
0.0507549 0.0538953 0.342971
0.0512247 0.0534518 0.342739
0.0517011 0.0530173 0.342551
0.0521904 0.0525983 0.342439
0.0526804 0.0521805 0.342332
0.0531765 0.05177 0.342262
0.0536856 0.0513738 0.342266
0.0542023 0.0509859 0.342312
0.0547138 0.0505918 0.342328
0.0552318 0.0502045 0.342379
0.0557552 0.0498223 0.342458
0.056294 0.0494555 0.34262
0.0566411 0.0488932 0.341742
0.0561683 0.0474079 0.338684
0.0568494 0.0481963 0.340131
0.056558 0.0452697 0.330623
0.0566706 0.0445231 0.328637
0.0569258 0.0439196 0.327418
0.0574228 0.0435453 0.327459
0.0578636 0.0431194 0.327212
0.05824 0.0426364 0.326642
0.0586023 0.0421433 0.326008
0.0589276 0.0416206 0.325198
0.0592379 0.0410885 0.324324
0.0595815 0.0405886 0.323625
0.0599613 0.0401224 0.323113
0.0603526 0.0396678 0.322663
0.0607719 0.0392381 0.322355
0.0612176 0.0388311 0.322177
0.0616557 0.0384188 0.321964
0.062095 0.0380081 0.32176
0.0625479 0.0376088 0.321622
0.0630083 0.0372157 0.32152
0.0634695 0.0368236 0.321423
0.0639454 0.0364428 0.321395
0.0644218 0.0360624 0.321369
0.0649132 0.0356929 0.321412
0.0653983 0.0353187 0.321425
0.0658839 0.0349445 0.32144
0.0663757 0.0345746 0.321482
0.0668904 0.0342203 0.321625
0.0673865 0.0338525 0.321683
0.0678891 0.0334888 0.321769
0.0683661 0.0331075 0.321743
0.0687934 0.0326935 0.3215
0.0691546 0.0322373 0.320974
0.0694942 0.0317693 0.320362
0.0697992 0.0312816 0.31961
0.0701047 0.0307971 0.318868
0.070426 0.0303251 0.318201
0.0707706 0.0298696 0.317639
0.0711395 0.0294309 0.317185
0.0715169 0.0289988 0.31677
0.0719273 0.0285875 0.316496
0.072347 0.0281825 0.316262
0.0727611 0.027775 0.316008
0.0732113 0.0273888 0.315903
0.0737108 0.0270301 0.315997
0.0742351 0.0266845 0.316189
0.0747822 0.0263504 0.316469
0.0753673 0.0260355 0.316897
0.0759431 0.0257139 0.317282
0.0765355 0.0253996 0.317728
0.0771595 0.0250996 0.318292
0.0778086 0.0248103 0.318947
0.0784522 0.0245157 0.319574
0.0790669 0.0242046 0.320082
0.0796593 0.0238809 0.3205
0.0802183 0.0235396 0.320787
0.0808097 0.0232126 0.321193
0.0814424 0.0229032 0.321748
0.0821102 0.0226078 0.322429
0.0827989 0.0223194 0.32318
0.0834613 0.0220168 0.323827
0.0841395 0.0217186 0.324524
0.0847561 0.0213915 0.324988
0.0852671 0.0210176 0.325064
0.0857285 0.0206226 0.324959
0.0861803 0.0202239 0.324819
0.0865406 0.0197882 0.324354
0.0909101 0.0191863 0.332821
0.0922535 0.0191137 0.335763
0.0934013 0.0189584 0.337996
0.0943037 0.0187058 0.339357
0.0950379 0.0183876 0.340126
0.0959116 0.0181164 0.341364
0.0967655 0.0178348 0.342524
0.0976018 0.017543 0.343612
0.098452 0.0172523 0.344737
0.099252 0.0169414 0.345682
0.0999066 0.0165793 0.34613
0.101157 0.0164098 0.348561
0.102782 0.0163521 0.35221
0.045428 0.0631395 0.355658
0.0456675 0.0623168 0.353755
0.0460125 0.0616556 0.352581
0.046309 0.0609332 0.351111
0.0466259 0.0602475 0.349798
0.0469471 0.0595752 0.348536
0.0473064 0.0589615 0.347538
0.0477043 0.0584047 0.346801
0.048124 0.0578804 0.346211
0.0485673 0.0573897 0.345778
0.0490391 0.0569377 0.345527
0.0494871 0.056457 0.345134
0.049928 0.0559695 0.344705
0.0503829 0.0555014 0.344366
0.0508262 0.0550209 0.343963
0.0512578 0.0545285 0.343498
0.0517147 0.0540682 0.343187
0.0521771 0.0536158 0.342913
0.0526534 0.0531804 0.342722
0.0531363 0.0527535 0.342573
0.0536333 0.0523429 0.342504
0.0541358 0.0519386 0.342468
0.0546466 0.0515432 0.342478
0.0551589 0.0511492 0.342495
0.0556777 0.050762 0.342548
0.0562098 0.0503881 0.342672
0.0567714 0.0500438 0.342953
0.057244 0.0496075 0.342751
0.0575865 0.0490417 0.341857
0.0572302 0.0460358 0.332025
0.0572026 0.0451516 0.329313
0.0573391 0.0444343 0.327484
0.0578667 0.0440877 0.327679
0.0583368 0.0436877 0.32758
0.0587281 0.0432168 0.327084
0.0590974 0.0427284 0.326485
0.0594213 0.0422027 0.325668
0.0597176 0.0416565 0.324724
0.0600396 0.0411366 0.32392
0.0604096 0.0406609 0.32336
0.0607855 0.0401923 0.322836
0.0611907 0.0397502 0.322459
0.0616301 0.0393374 0.322249
0.0620686 0.0389248 0.322039
0.0624939 0.0385025 0.321768
0.0629379 0.0380958 0.321588
0.0633894 0.0376955 0.321444
0.0638422 0.0372968 0.321308
0.0643112 0.0369108 0.321248
0.0647879 0.0365305 0.321224
0.0652858 0.0361659 0.321295
0.0657774 0.0357963 0.321337
0.0662689 0.0354262 0.321378
0.066768 0.0350614 0.321452
0.0672832 0.0347072 0.321595
0.06778 0.0343398 0.321656
0.0682837 0.0339766 0.321745
0.0687701 0.0336015 0.321759
0.0692149 0.0331985 0.321591
0.0696013 0.032758 0.321175
0.0699497 0.0322946 0.320602
0.0702623 0.0318104 0.319882
0.0705578 0.0313183 0.3191
0.0708615 0.0308342 0.31836
0.0711896 0.0303677 0.31773
0.0715503 0.0299233 0.317242
0.0719203 0.0294861 0.316797
0.0723302 0.029074 0.316521
0.0727577 0.028673 0.316319
0.0731706 0.0282643 0.316061
0.0735966 0.027864 0.315857
0.0740689 0.02749 0.315841
0.0745556 0.0271239 0.315882
0.0750581 0.0267662 0.315985
0.0756095 0.0264341 0.316279
0.0761678 0.0261046 0.316597
0.0767439 0.0257831 0.316981
0.0773602 0.0254807 0.317516
0.0779989 0.0251877 0.31813
0.0786326 0.0248899 0.318719
0.0792439 0.0245789 0.319217
0.0798269 0.0242522 0.319601
0.0803669 0.0239035 0.319818
0.0809288 0.0235642 0.320115
0.0815204 0.0232377 0.32052
0.0821343 0.02292 0.321003
0.0827786 0.0226143 0.321593
0.0834156 0.0223033 0.322151
0.08406 0.0219934 0.322729
0.0846564 0.0216607 0.323126
0.0851573 0.0212855 0.323173
0.0855924 0.0208822 0.322982
0.0859722 0.0204564 0.322595
0.0862953 0.0200084 0.322008
0.0867191 0.0196031 0.321785
0.0940043 0.018945 0.336837
0.0949131 0.0186952 0.338212
0.0960591 0.0185264 0.340384
0.0971988 0.0183483 0.342515
0.0980945 0.0180785 0.343799
0.0989738 0.0177983 0.345015
0.0998053 0.0174986 0.34606
0.100695 0.0172147 0.34729
0.10224 0.017142 0.350682
0.0461077 0.0640606 0.357362
0.0461992 0.063019 0.354477
0.0465768 0.0624016 0.353517
0.046904 0.0617193 0.352247
0.0472148 0.0610215 0.350893
0.0475158 0.0603181 0.3495
0.0478549 0.0596739 0.348371
0.0482323 0.059087 0.347501
0.0486381 0.0585421 0.346822
0.0490751 0.0580411 0.346346
0.0495429 0.0575819 0.346066
0.0499921 0.0571008 0.345678
0.0504336 0.056612 0.345249
0.0508834 0.0561357 0.344876
0.0513207 0.0556461 0.344435
0.0517447 0.055143 0.343922
0.0521933 0.0546713 0.343561
0.0526412 0.0542005 0.3432
0.0531034 0.053748 0.342926
0.0535737 0.0533057 0.342702
0.0540638 0.0528867 0.342594
0.054561 0.0524758 0.342525
0.0550719 0.05208 0.342534
0.0555906 0.0516924 0.342585
0.0561174 0.0513129 0.342678
0.056672 0.0509619 0.342922
0.0572576 0.0506413 0.343327
0.0578626 0.0503384 0.34383
0.0583408 0.0499056 0.343653
0.0577617 0.0458065 0.330119
0.0577735 0.0449689 0.327655
0.0583233 0.0446424 0.32796
0.0588164 0.0442623 0.327974
0.05921 0.043792 0.327488
0.0595855 0.0433076 0.326919
0.0599085 0.0427794 0.326098
0.0601967 0.0422246 0.325117
0.0605054 0.0416916 0.324248
0.0608754 0.0412145 0.323688
0.0612425 0.0407374 0.323121
0.0616394 0.0402872 0.322703
0.0620635 0.0398611 0.32242
0.0624949 0.0394419 0.322174
0.0629125 0.0390126 0.321866
0.0633497 0.0386 0.321654
0.0637927 0.0381927 0.32147
0.0642447 0.0377929 0.32133
0.0647133 0.0374061 0.321267
0.0651904 0.0370259 0.321244
0.0656824 0.0366566 0.321287
0.0661664 0.0362812 0.321294
0.0666508 0.0359059 0.321302
0.0671424 0.0355356 0.321341
0.0676505 0.0351765 0.321452
0.0681461 0.0348083 0.321507
0.0686498 0.0344452 0.321596
0.0691439 0.0340752 0.321642
0.069605 0.0336829 0.321545
0.0700089 0.0332535 0.321205
0.0703743 0.0328003 0.320706
0.0707028 0.0323254 0.320056
0.0709977 0.0318317 0.319272
0.0712922 0.0313408 0.318495
0.0716116 0.030868 0.31783
0.0719633 0.0304173 0.317306
0.0723263 0.0299752 0.316834
0.0727281 0.0295579 0.316525
0.0731459 0.0291508 0.316284
0.0735563 0.0287403 0.316015
0.0739652 0.0283298 0.315743
0.0744116 0.0279413 0.315624
0.0748704 0.02756 0.315554
0.0753421 0.0271858 0.315536
0.0758563 0.0268346 0.315685
0.0763964 0.0264964 0.315932
0.0769573 0.0261682 0.316258
0.0775657 0.0258633 0.316763
0.0782047 0.025572 0.317379
0.0788375 0.0252754 0.317965
0.0794489 0.0249659 0.318464
0.0800393 0.0246442 0.318877
0.0805784 0.0242963 0.319093
0.0811013 0.0239397 0.319246
0.0816508 0.023595 0.319496
0.0822022 0.0232502 0.31975
0.0827848 0.0229188 0.320116
0.0833698 0.0225871 0.320487
0.0839865 0.022268 0.320969
0.0845586 0.0219278 0.321285
0.085052 0.0215522 0.321313
0.0854734 0.0211458 0.321082
0.0858423 0.020718 0.320666
0.0861419 0.0202628 0.320007
0.0864206 0.0198011 0.319281
0.0994137 0.017733 0.34328
0.100287 0.017449 0.34446
0.0466903 0.0636626 0.35492
0.0470991 0.0630878 0.354165
0.0474587 0.0624484 0.353105
0.0477879 0.0617732 0.351869
0.0480847 0.0610609 0.350449
0.0484097 0.0603946 0.34923
0.048767 0.059778 0.348231
0.0491526 0.0592041 0.347425
0.049577 0.0586848 0.346869
0.0500325 0.0582081 0.34651
0.050483 0.0577267 0.346127
0.050925 0.0572371 0.345699
0.0513765 0.056761 0.345333
0.0518197 0.0562768 0.344924
0.0522446 0.055773 0.344415
0.0526918 0.0552979 0.344042
0.0531325 0.054817 0.343637
0.0535864 0.0543533 0.343314
0.054043 0.0538941 0.343009
0.0545266 0.0534666 0.342861
0.0550111 0.0530407 0.342719
0.0555216 0.0526435 0.342722
0.0560408 0.0522556 0.342773
0.0565755 0.0518836 0.342906
0.057148 0.0515503 0.343241
0.0577449 0.0512404 0.343701
0.0583536 0.0509401 0.344216
0.0589557 0.0506304 0.344689
0.0583539 0.0456413 0.328565
0.0587837 0.0452008 0.328254
0.0592931 0.0448346 0.328347
0.0596871 0.0443633 0.327863
0.0600552 0.0438709 0.327256
0.060375 0.0433384 0.32642
0.0606633 0.0427822 0.325441
0.0609726 0.0422483 0.324577
0.0613439 0.041771 0.324023
0.0617094 0.0412911 0.323448
0.0621046 0.0408383 0.323021
0.0625199 0.0404037 0.322694
0.0629439 0.0399775 0.322412
0.0633537 0.0395411 0.322068
0.0637835 0.0391218 0.321819
0.0642123 0.0387026 0.321569
0.0646574 0.038297 0.321397
0.0651191 0.0379045 0.321301
0.0655963 0.0375239 0.321277
0.0660809 0.0371488 0.321286
0.0665658 0.0367738 0.321295
0.0670517 0.0363993 0.321308
0.0675367 0.036024 0.321318
0.068037 0.0356593 0.321393
0.0685305 0.0352894 0.321438
0.0690245 0.0349196 0.321484
0.0695176 0.0345489 0.321525
0.0699872 0.0341622 0.321465
0.0704155 0.0337485 0.32123
0.0707996 0.0333068 0.32081
0.0711457 0.0328423 0.320236
0.0714488 0.0323527 0.319488
0.0717419 0.0318596 0.318707
0.0720511 0.0313794 0.318001
0.0723938 0.0309223 0.31744
0.0727554 0.0304785 0.316963
0.0731416 0.030051 0.31659
0.07355 0.029638 0.316311
0.073951 0.0292215 0.316005
0.074343 0.028801 0.315666
0.074757 0.028394 0.315418
0.0751966 0.0280021 0.315273
0.07564 0.0276127 0.315145
0.0761104 0.0272383 0.315123
0.0766222 0.026886 0.315261
0.0771549 0.0265441 0.315479
0.0777279 0.0262223 0.315849
0.0783571 0.025928 0.316429
0.0789902 0.0256334 0.317018
0.079613 0.0253315 0.317561
0.0802214 0.0250203 0.318044
0.0807759 0.0246813 0.318321
0.0812861 0.0243199 0.318429
0.0818128 0.0239658 0.318597
0.0823234 0.0236036 0.318703
0.0828544 0.0232502 0.318883
0.0833971 0.0229014 0.319103
0.0839592 0.0225605 0.319392
0.0844858 0.0222029 0.319549
0.0849434 0.0218145 0.319456
0.0853501 0.0214045 0.319182
0.0857605 0.0209968 0.318924
0.0861374 0.020576 0.318549
0.0865093 0.0201542 0.31816
0.087214 0.019549 0.320372
0.0871406 0.019839 0.318684
0.0883331 0.0194227 0.322594
0.0880305 0.0196254 0.320104
0.0475086 0.0647771 0.357486
0.0477955 0.0640209 0.355924
0.0480547 0.0632353 0.354212
0.0482859 0.062421 0.352352
0.0486086 0.0617422 0.351099
0.0489336 0.0610736 0.349881
0.0492821 0.0604431 0.348829
0.0496517 0.0598461 0.347923
0.0500621 0.0593067 0.34728
0.0505049 0.0588123 0.346842
0.050961 0.0583366 0.34649
0.0514085 0.0578522 0.346093
0.051861 0.0573758 0.345731
0.0523116 0.0568991 0.345363
0.0527438 0.0564022 0.344895
0.0531807 0.0559132 0.34446
0.0536214 0.0554307 0.344053
0.0540619 0.0549501 0.34365
0.0545094 0.0544794 0.343294
0.0549853 0.0540421 0.3431
0.0554623 0.0536069 0.342914
0.05596 0.0531949 0.342844
0.0564855 0.0528129 0.342926
0.0570281 0.0524486 0.343099
0.0576108 0.0521253 0.343484
0.0582182 0.0518252 0.343994
0.0588359 0.0515332 0.34455
0.0594454 0.0512298 0.345055
0.0590157 0.0497803 0.342316
0.0596464 0.0505179 0.343427
0.0591488 0.0465171 0.330549
0.0594231 0.0459264 0.329443
0.0598013 0.0454364 0.328871
0.0601873 0.044956 0.328345
0.06054 0.0444481 0.327662
0.0608436 0.0438997 0.326748
0.0611366 0.043346 0.325794
0.0614463 0.042811 0.324933
0.0618198 0.0423342 0.324388
0.0621862 0.0418536 0.323817
0.0625805 0.0413987 0.323385
0.0629742 0.0409452 0.322955
0.0633895 0.0405109 0.322631
0.0637909 0.0400667 0.322247
0.0642201 0.0396461 0.321995
0.064643 0.0392216 0.321717
0.0650883 0.0388153 0.321544
0.0655421 0.0384162 0.321412
0.0660117 0.0380294 0.321351
0.0664891 0.0376485 0.321326
0.0669742 0.0372731 0.321335
0.0674521 0.0368925 0.321312
0.0679297 0.0365117 0.321288
0.0684141 0.0361356 0.321292
0.0688984 0.0357592 0.321297
0.0693838 0.0353835 0.321305
0.0698763 0.0350126 0.321344
0.0703539 0.0346313 0.321318
0.0708064 0.0342334 0.321186
0.0712087 0.0338031 0.320844
0.071573 0.0333496 0.320348
0.0718924 0.0328694 0.319669
0.0721858 0.0323753 0.318891
0.0724921 0.0318922 0.318175
0.0728257 0.0314284 0.317577
0.0731773 0.0309778 0.31706
0.073547 0.0305398 0.316621
0.0739463 0.0301208 0.316305
0.0743377 0.0296983 0.315961
0.0747218 0.0292728 0.315592
0.0751205 0.0288569 0.315284
0.0755344 0.0284505 0.315039
0.0759508 0.0280462 0.314806
0.0763848 0.0276524 0.314643
0.0768605 0.0272814 0.314643
0.0773637 0.0269249 0.314749
0.077905 0.0265879 0.314999
0.0785046 0.02628 0.315468
0.0791189 0.0259778 0.315987
0.0797518 0.025683 0.316571
0.0803729 0.0253802 0.317103
0.0809562 0.0250569 0.317489
0.0814837 0.0247051 0.317665
0.0820169 0.0243554 0.317859
0.0825162 0.023989 0.317926
0.0830102 0.0236197 0.317973
0.0835223 0.0232585 0.318085
0.084024 0.0228921 0.318159
0.0844891 0.0225091 0.318099
0.0849507 0.0221246 0.318028
0.0853933 0.0217321 0.317889
0.0858365 0.0213402 0.317753
0.0862811 0.0209492 0.317623
0.0867261 0.0205587 0.317496
0.087168 0.0201674 0.317359
0.087839 0.0198688 0.318019
0.0889313 0.0194115 0.321547
0.0885021 0.0195648 0.318644
0.0487797 0.0642025 0.356122
0.0488934 0.0632199 0.353516
0.0491217 0.0624086 0.351671
0.0494533 0.0617469 0.350496
0.0498006 0.0611127 0.349437
0.0501613 0.0605017 0.348476
0.050557 0.0599414 0.347742
0.0509793 0.059419 0.347179
0.0514273 0.0589318 0.346778
0.0518684 0.0584382 0.346342
0.0523204 0.0579601 0.345975
0.0527734 0.0574851 0.345621
0.0532197 0.0570038 0.345232
0.0536647 0.056523 0.344842
0.0541066 0.0560405 0.344441
0.0545471 0.0555583 0.344037
0.0549938 0.0550852 0.343673
0.0554686 0.0546452 0.34347
0.0559323 0.0541939 0.343208
0.0564291 0.0537797 0.34313
0.0569539 0.0533959 0.343205
0.0575121 0.0530471 0.343456
0.0580974 0.0527253 0.343849
0.0587139 0.0524335 0.3444
0.0593308 0.0521393 0.344944
0.0599402 0.0518348 0.345442
0.0602873 0.0512665 0.344575
0.0602609 0.0468384 0.331608
0.0604769 0.0461931 0.330219
0.0607118 0.0455714 0.328941
0.0610473 0.045046 0.328172
0.0613353 0.0444818 0.327182
0.0616193 0.0439185 0.326186
0.0619227 0.0433764 0.325295
0.0622959 0.042898 0.324749
0.062663 0.0424166 0.324181
0.0630571 0.0419603 0.323746
0.0634448 0.0415004 0.323287
0.0638527 0.0410589 0.322928
0.064253 0.0406126 0.322537
0.0646744 0.0401848 0.322248
0.0650892 0.0397529 0.321931
0.0655272 0.0393402 0.321724
0.0659659 0.0389288 0.321522
0.0664265 0.0385346 0.32142
0.066888 0.0381414 0.321323
0.0673577 0.0377544 0.321263
0.0678267 0.0373672 0.3212
0.0683026 0.0369851 0.321168
0.0687711 0.0365976 0.321104
0.0692548 0.036221 0.321106
0.0697326 0.0358401 0.321082
0.0702255 0.0354697 0.321122
0.0707111 0.0350939 0.32113
0.0711883 0.0347124 0.321103
0.0716087 0.0342937 0.320838
0.071999 0.0338564 0.320451
0.0723274 0.033381 0.319812
0.0726194 0.032885 0.31903
0.0729171 0.0323954 0.31828
0.0732329 0.0319199 0.317612
0.0735761 0.0314634 0.317061
0.0739434 0.0310234 0.316613
0.0743341 0.0305989 0.316264
0.0747247 0.0301754 0.315918
0.0751084 0.0297493 0.315548
0.0754905 0.0293235 0.315175
0.0758869 0.028907 0.314863
0.0762924 0.0284966 0.314588
0.0766998 0.0280882 0.314324
0.0771485 0.027703 0.314221
0.077622 0.0273313 0.314214
0.0781243 0.0269746 0.314316
0.0786832 0.026647 0.314631
0.0792664 0.0263305 0.315034
0.0798816 0.0260287 0.315553
0.0805132 0.0257331 0.316127
0.0811191 0.0254228 0.3166
0.0816783 0.0250879 0.316895
0.0822318 0.0247492 0.317166
0.0827501 0.0243927 0.317305
0.0832338 0.0240196 0.317317
0.0837345 0.0236541 0.31739
0.0841991 0.0232719 0.317332
0.0846606 0.0228884 0.317263
0.0851204 0.0225043 0.317188
0.0855635 0.0221131 0.317055
0.0860076 0.0217226 0.316927
0.086469 0.0213398 0.31686
0.0869218 0.0209535 0.316763
0.0873839 0.0205714 0.316699
0.0878744 0.0202009 0.316734
0.088339 0.0198198 0.31668
0.0891947 0.0192702 0.319365
0.0888028 0.0194384 0.316623
0.0497563 0.0632406 0.352986
0.0499845 0.0624355 0.35117
0.0503317 0.0617987 0.35011
0.0506915 0.0611844 0.349144
0.0510735 0.0606039 0.348325
0.0514824 0.0600623 0.34768
0.0519155 0.0595545 0.347188
0.0523554 0.0590577 0.346743
0.0527957 0.0585638 0.346307
0.0532488 0.0580875 0.34595
0.0537086 0.0576211 0.345638
0.0541611 0.0571474 0.345288
0.054605 0.0566656 0.344895
0.0550524 0.0561897 0.344527
0.0555002 0.055716 0.344167
0.0559688 0.0552674 0.343926
0.0564328 0.0548147 0.343663
0.0569299 0.0543994 0.343582
0.057449 0.0540079 0.343621
0.0580081 0.0536587 0.343872
0.058588 0.0533297 0.344229
0.0591918 0.0530236 0.344705
0.0598 0.0527195 0.345198
0.0604156 0.0524203 0.345721
0.0609085 0.0519961 0.345606
0.0604454 0.0505164 0.342748
0.061243 0.0514162 0.344682
0.0609673 0.047629 0.333095
0.0610188 0.0468273 0.33089
0.0612254 0.0461773 0.329474
0.0615379 0.0456293 0.328593
0.0618167 0.0450552 0.32756
0.062092 0.0444827 0.326524
0.0623932 0.0439372 0.325624
0.0627661 0.0434572 0.325076
0.0631394 0.0429797 0.324537
0.0635345 0.0425228 0.324106
0.063922 0.0420615 0.323645
0.0643228 0.0416129 0.323251
0.0647222 0.0411648 0.322855
0.0651435 0.0407357 0.322564
0.0655522 0.0402978 0.322219
0.065982 0.0398777 0.321973
0.0664101 0.0394572 0.321722
0.0668539 0.0390495 0.321543
0.0672847 0.0386328 0.321309
0.0677303 0.0382278 0.321142
0.0681819 0.0378278 0.321004
0.068641 0.0374336 0.320899
0.0690928 0.0370346 0.320764
0.0695774 0.036659 0.32077
0.0700547 0.0362782 0.320745
0.0705493 0.0359093 0.320793
0.0710431 0.0355395 0.320837
0.0715374 0.0351697 0.320883
0.0719753 0.0347625 0.320692
0.0723907 0.0343413 0.32041
0.0727433 0.0338807 0.319873
0.0730506 0.0333935 0.319156
0.0733483 0.032903 0.318408
0.0736625 0.0324254 0.317734
0.0739967 0.0319626 0.317149
0.074355 0.0315164 0.316666
0.0747301 0.0310819 0.316255
0.0751195 0.0306573 0.315904
0.0754945 0.0302256 0.315501
0.0758596 0.0297896 0.315063
0.0762371 0.0293622 0.314678
0.0766314 0.0289454 0.314361
0.0770119 0.0285222 0.313995
0.0774352 0.0281234 0.313796
0.0778831 0.0277385 0.313693
0.0783493 0.0273636 0.313659
0.0788609 0.0270124 0.313798
0.079411 0.0266804 0.314078
0.0800012 0.0263678 0.314505
0.0806404 0.0260781 0.31511
0.0812672 0.02578 0.315662
0.0818667 0.0254666 0.316108
0.0824518 0.0251445 0.316496
0.0829978 0.0248023 0.316738
0.0834906 0.0244342 0.316785
0.0839908 0.0240693 0.316857
0.0844624 0.0236909 0.316826
0.0849244 0.0233082 0.316761
0.0853857 0.0229253 0.316694
0.0858291 0.0225347 0.316564
0.0862805 0.0221479 0.316463
0.0867322 0.0217615 0.316364
0.0872026 0.0213831 0.316331
0.087667 0.0210023 0.316276
0.0881589 0.0206329 0.316317
0.088633 0.020256 0.316296
0.0891046 0.0198782 0.316267
0.0894966 0.0191468 0.317349
0.0895563 0.0194925 0.31617
0.0901809 0.0188491 0.318037
0.0899958 0.0191023 0.316033
0.0908637 0.0185485 0.318713
0.0904347 0.0187123 0.315894
0.0503882 0.0640684 0.354264
0.0505105 0.063117 0.351802
0.0508713 0.0624961 0.350825
0.0512381 0.0618884 0.349899
0.0516134 0.0612967 0.349039
0.0520088 0.0607353 0.348311
0.0524215 0.0601996 0.347695
0.0528529 0.0596904 0.347198
0.053286 0.0591859 0.346718
0.0537396 0.0587087 0.346363
0.0542002 0.0582416 0.346052
0.0546584 0.0577731 0.345732
0.055109 0.0572974 0.345374
0.0555651 0.0568297 0.345051
0.0560212 0.0563637 0.344734
0.0564998 0.0559242 0.344543
0.0569649 0.0554707 0.344281
0.0574566 0.0550474 0.344166
0.057968 0.0546457 0.344158
0.0585213 0.0542886 0.344371
0.0590813 0.0539372 0.344616
0.0596705 0.0536148 0.34501
0.0602569 0.0532874 0.345383
0.0608576 0.0529725 0.345824
0.0614795 0.0526763 0.346367
0.0619812 0.0522588 0.346291
0.0616265 0.0483766 0.334329
0.061525 0.0474291 0.331376
0.0617176 0.0467642 0.329896
0.062015 0.0462009 0.328942
0.0622916 0.0456233 0.327901
0.0625658 0.0450482 0.326862
0.0628581 0.0444935 0.325922
0.0632226 0.044005 0.325334
0.063595 0.0435257 0.32479
0.0639822 0.0430611 0.324322
0.0643773 0.042605 0.323896
0.0647855 0.0421614 0.323536
0.0651928 0.0417185 0.323175
0.0656154 0.0412892 0.322888
0.0660232 0.0408495 0.322537
0.0664376 0.0404163 0.32222
0.0668425 0.039977 0.321865
0.0672608 0.0395492 0.321572
0.067666 0.0391128 0.321226
0.0680865 0.038689 0.32095
0.0685204 0.0382761 0.320735
0.0689702 0.0378754 0.320591
0.0694072 0.0374661 0.320394
0.0698906 0.0370902 0.320396
0.0703681 0.03671 0.320374
0.0708628 0.0363416 0.320423
0.0713569 0.0359725 0.320469
0.0718679 0.0356144 0.320585
0.0723227 0.0352185 0.320466
0.0727485 0.0348042 0.320229
0.0731182 0.0343543 0.319764
0.0734417 0.0338769 0.319116
0.0737471 0.0333905 0.318402
0.0740616 0.0329124 0.317732
0.0743945 0.032448 0.317143
0.0747521 0.0320008 0.316659
0.0751185 0.0315606 0.316214
0.0755002 0.0311311 0.315834
0.0758651 0.0306931 0.315393
0.0762199 0.0302507 0.314916
0.0765786 0.0298123 0.314459
0.0769616 0.0293892 0.314101
0.077325 0.0289564 0.313671
0.0777309 0.0285483 0.313408
0.0781617 0.0281546 0.313241
0.0786019 0.0277664 0.313111
0.0790685 0.0273923 0.313082
0.0795798 0.0270415 0.313219
0.0801295 0.0267098 0.313498
0.0807462 0.0264108 0.31402
0.0813706 0.0261137 0.314566
0.0820156 0.0258247 0.315181
0.0826396 0.0255233 0.315713
0.0832249 0.0252013 0.3161
0.083745 0.024847 0.316247
0.0842615 0.0244905 0.316379
0.0847247 0.0241088 0.31632
0.0851871 0.0237269 0.316259
0.0856492 0.0233449 0.316196
0.0861017 0.0229588 0.3161
0.0865533 0.0225726 0.316002
0.0870122 0.0221897 0.31593
0.0874921 0.0218159 0.31593
0.087966 0.0214395 0.315911
0.0884511 0.0210677 0.315929
0.0889335 0.0206946 0.315938
0.0894042 0.0203167 0.315906
0.0898546 0.0199308 0.315806
0.090294 0.0195408 0.315669
0.0907623 0.0191624 0.315631
0.0911939 0.0184431 0.316829
0.0913691 0.0188365 0.316054
0.0921692 0.018251 0.318474
0.092177 0.0185843 0.31714
0.0931868 0.0180693 0.320245
0.0930086 0.0183377 0.318296
0.0942513 0.0178984 0.322154
0.0938789 0.0181008 0.319566
0.0509497 0.0648002 0.355092
0.0510337 0.0637948 0.352406
0.0514148 0.0631985 0.351551
0.0517898 0.0625989 0.350672
0.0521588 0.0619964 0.349773
0.0525464 0.0614226 0.348996
0.0529441 0.0608657 0.348291
0.0533611 0.0603366 0.347708
0.0537869 0.0598212 0.347183
0.0542341 0.0593344 0.346788
0.0546936 0.0588643 0.346468
0.0551525 0.0583952 0.34615
0.0556099 0.0579258 0.345827
0.0560674 0.057458 0.345509
0.0565322 0.0570002 0.345237
0.0570119 0.0565602 0.345048
0.0574849 0.0561137 0.344825
0.0579706 0.0556819 0.344673
0.0584835 0.0552803 0.344668
0.0590358 0.0549203 0.344869
0.0595801 0.054551 0.345026
0.0601471 0.0542041 0.345298
0.0607178 0.0538595 0.345585
0.0613107 0.0535359 0.34598
0.0619348 0.0532413 0.346529
0.0625826 0.0529674 0.347189
0.062112 0.0514804 0.344345
0.0627389 0.0522107 0.345375
0.0620385 0.0480381 0.331891
0.0622276 0.0473679 0.330397
0.0625176 0.046796 0.329409
0.0627874 0.0462105 0.328337
0.0630598 0.045632 0.32729
0.0633375 0.0450628 0.326282
0.0636933 0.0445654 0.325654
0.0640506 0.044072 0.325039
0.0644225 0.0435934 0.3245
0.0648094 0.0431296 0.324036
0.0652182 0.0426856 0.323678
0.0656343 0.0422491 0.323358
0.0660658 0.0418262 0.32311
0.0664824 0.0413923 0.322798
0.0668887 0.0409517 0.322444
0.067276 0.0404979 0.32201
0.0676691 0.0400502 0.321606
0.0680562 0.0395996 0.321181
0.0684516 0.0391568 0.320796
0.068869 0.0387317 0.320511
0.0693098 0.0383246 0.32033
0.0697308 0.037904 0.320065
0.0702055 0.0375223 0.320032
0.0706819 0.0371418 0.320006
0.071175 0.0367727 0.320049
0.0716701 0.0364048 0.320101
0.0721879 0.0360518 0.320245
0.0726517 0.0356623 0.320165
0.0730868 0.0352541 0.319968
0.0734741 0.0348157 0.319578
0.0738164 0.0343499 0.319009
0.0741386 0.0338736 0.318366
0.0744618 0.0334002 0.317733
0.0747934 0.0329344 0.31714
0.0751507 0.0324864 0.316656
0.0755149 0.0320443 0.316204
0.0758885 0.0316094 0.315793
0.076244 0.0311654 0.315316
0.0765888 0.0307168 0.314802
0.076929 0.0302676 0.314276
0.0772944 0.0298343 0.313852
0.0776561 0.0294004 0.313418
0.078053 0.0289874 0.313122
0.0784819 0.0285928 0.312949
0.0789201 0.0282037 0.312813
0.0793604 0.027816 0.312686
0.0798362 0.0274472 0.312692
0.0803478 0.0270968 0.31283
0.0809257 0.0267796 0.313211
0.0815199 0.026469 0.313647
0.0821635 0.0261812 0.314258
0.0827977 0.0258866 0.314829
0.083404 0.0255763 0.315293
0.083944 0.0252328 0.315514
0.0844789 0.0248861 0.315714
0.0849681 0.0245174 0.31575
0.0854491 0.0241446 0.315756
0.0859299 0.0237717 0.315762
0.0863918 0.0233902 0.3157
0.086843 0.0230042 0.315602
0.087302 0.0226217 0.315532
0.0877821 0.0222485 0.315534
0.0882568 0.0218728 0.315518
0.0887506 0.0215051 0.315567
0.0892404 0.0211354 0.315602
0.0897106 0.0207576 0.31557
0.0901608 0.0203719 0.31547
0.0906114 0.0199865 0.315372
0.0911011 0.0196165 0.315406
0.0915563 0.0192332 0.315324
0.0921864 0.018916 0.315821
0.0928453 0.0186081 0.316409
0.0935322 0.0183082 0.317082
0.09925 0.0172012 0.329022
0.0982552 0.0174207 0.327423
0.0981128 0.0177211 0.325607
0.0992997 0.0175715 0.327823
0.100504 0.0170631 0.331436
0.100268 0.0173415 0.329322
0.101466 0.0168218 0.3329
0.100882 0.0169895 0.329684
0.051538 0.0655683 0.356069
0.0515997 0.0645297 0.353257
0.0519968 0.0639518 0.352495
0.0523722 0.0633495 0.351615
0.0527333 0.0627339 0.350666
0.0531124 0.0621461 0.349836
0.053489 0.0615598 0.349005
0.0538915 0.0610102 0.348335
0.0543163 0.0604914 0.347802
0.0547573 0.059995 0.347369
0.0552109 0.0595159 0.347012
0.0556698 0.0590447 0.34669
0.0561206 0.0585657 0.346327
0.0565788 0.0580969 0.34601
0.0570514 0.0576462 0.345776
0.0575384 0.0572125 0.345622
0.0580126 0.0567654 0.345402
0.0585047 0.0563388 0.34528
0.0590112 0.0559282 0.345234
0.0595497 0.0555517 0.345357
0.0600799 0.0551658 0.345434
0.0606368 0.0548072 0.345649
0.0611849 0.0544382 0.345814
0.0617631 0.0540988 0.346129
0.0623792 0.0537956 0.346632
0.0630201 0.0535144 0.347251
0.0632785 0.0528563 0.345955
0.06268 0.0512552 0.342513
0.0632355 0.0519136 0.343183
0.0626214 0.0487121 0.332735
0.0627109 0.0479476 0.330763
0.0630018 0.0473749 0.329781
0.0632844 0.0467992 0.328772
0.0635498 0.0462127 0.327694
0.063826 0.0456406 0.326681
0.0641743 0.0451352 0.326016
0.0645217 0.0446318 0.325356
0.06487 0.0441321 0.324708
0.0652546 0.0436654 0.324234
0.0656563 0.0432147 0.323843
0.0660749 0.0427793 0.323533
0.0665013 0.0423515 0.323262
0.0669254 0.0419227 0.322983
0.0673305 0.0414803 0.322623
0.0677103 0.0410198 0.322156
0.0680871 0.0405588 0.321681
0.0684565 0.0400942 0.321179
0.0688267 0.0396321 0.320686
0.0692271 0.0391942 0.320329
0.0696525 0.0387759 0.320083
0.0700649 0.0383491 0.319783
0.0705301 0.037961 0.319711
0.0709963 0.0375737 0.319642
0.0714733 0.037194 0.31962
0.071952 0.0368155 0.319604
0.0724609 0.0364573 0.319713
0.0729307 0.0360725 0.319661
0.0733739 0.0356703 0.319499
0.0737797 0.0352443 0.319187
0.0741547 0.0347996 0.318754
0.0744954 0.0343347 0.318189
0.0748364 0.0338722 0.31763
0.075184 0.0334158 0.317103
0.0755485 0.0329717 0.316649
0.0759124 0.0325288 0.316197
0.0762851 0.0320929 0.315784
0.0766314 0.0316428 0.315272
0.0769586 0.0311835 0.314692
0.0772888 0.030728 0.31413
0.0776449 0.0302892 0.313671
0.0779983 0.0298505 0.313208
0.0783863 0.0294325 0.312879
0.078813 0.0290367 0.3127
0.079241 0.0286422 0.312527
0.0796719 0.0282497 0.312366
0.0801384 0.0278764 0.312338
0.0806231 0.0275125 0.312378
0.0811619 0.0271762 0.312615
0.0817161 0.0268465 0.312905
0.0823285 0.0265448 0.313404
0.082954 0.0262477 0.313944
0.0835803 0.0259488 0.314481
0.0841495 0.0256208 0.314809
0.0847132 0.0252888 0.315114
0.0852216 0.0249299 0.315219
0.0857208 0.0245662 0.315291
0.0862117 0.0241985 0.315333
0.0866748 0.0238179 0.315278
0.0871256 0.0234321 0.31518
0.087584 0.0230499 0.315109
0.0880631 0.0226766 0.315109
0.088538 0.0223016 0.315095
0.0890405 0.021938 0.315175
0.0895403 0.021573 0.315244
0.0900196 0.0211992 0.315243
0.0904709 0.0208142 0.315149
0.0909317 0.0204331 0.315086
0.0914325 0.0200678 0.315157
0.0918986 0.0196887 0.315112
0.0923833 0.0193168 0.315129
0.0928932 0.0189542 0.315227
0.0933971 0.0185889 0.315305
0.094363 0.0180581 0.318218
0.094033 0.0182714 0.315811
0.0992973 0.0179218 0.326465
0.10047 0.0177645 0.328613
0.101269 0.0174756 0.32956
0.101815 0.0167404 0.33105
0.101703 0.0170633 0.329351
0.102799 0.0165028 0.332562
0.102171 0.0166627 0.329248
0.0521159 0.0663221 0.356968
0.0521851 0.0652906 0.35421
0.05259 0.0647198 0.35349
0.0529657 0.0641147 0.352609
0.0533196 0.0634862 0.351614
0.0536943 0.0628899 0.350755
0.0540556 0.0622814 0.349833
0.0544448 0.0617124 0.349084
0.0548573 0.0611759 0.348477
0.0552977 0.0606765 0.348036
0.0557446 0.060187 0.347638
0.0561967 0.0597057 0.347274
0.0566482 0.0592255 0.346912
0.0571063 0.0587546 0.34659
0.0575723 0.0582942 0.346316
0.0580451 0.0578429 0.346082
0.0585247 0.0574001 0.345887
0.059011 0.0569653 0.345729
0.0595124 0.0565477 0.345653
0.0600447 0.0561632 0.345739
0.0605732 0.0557742 0.345803
0.0611094 0.0553927 0.345905
0.061634 0.0549986 0.345947
0.0622032 0.0546494 0.346212
0.0628038 0.0543303 0.346632
0.0634231 0.0540275 0.347139
0.0636727 0.0533603 0.345806
0.0636454 0.0524317 0.343127
0.0630715 0.0508686 0.339853
0.0634913 0.0513949 0.339864
0.0628405 0.0497764 0.336242
0.0632714 0.0503114 0.336324
0.0630759 0.0492672 0.332949
0.0631914 0.0485251 0.33111
0.0634831 0.0479515 0.330133
0.0637726 0.0473805 0.329158
0.0640436 0.0467973 0.328109
0.0643187 0.0462224 0.327092
0.0646523 0.0457027 0.32636
0.0649904 0.0451901 0.325657
0.0653202 0.0446734 0.324924
0.0656874 0.0441911 0.324371
0.0660729 0.0437263 0.323907
0.0664916 0.0432903 0.323597
0.0669184 0.0428622 0.323327
0.0673428 0.0424332 0.32305
0.0677552 0.0419958 0.322723
0.0681353 0.0415347 0.322258
0.0684974 0.0410617 0.321719
0.0688654 0.0405953 0.321213
0.0692259 0.0401254 0.32068
0.0696101 0.0396751 0.320254
0.0700265 0.0392499 0.319969
0.0704298 0.0388164 0.319633
0.0708706 0.0384108 0.319458
0.0713265 0.0380165 0.319348
0.071779 0.0376201 0.319224
0.0722318 0.0372243 0.319103
0.0727226 0.0368547 0.319139
0.07319 0.0364691 0.319078
0.0736327 0.0360673 0.318918
0.0740555 0.0356531 0.318679
0.0744568 0.0352258 0.318356
0.0748243 0.0347782 0.317901
0.0751821 0.0343261 0.317412
0.0755403 0.0338761 0.31693
0.0759121 0.0334362 0.316506
0.0762764 0.0329933 0.316058
0.0766488 0.0325568 0.315645
0.0769954 0.0321066 0.315137
0.0773203 0.0316455 0.31455
0.0776494 0.031189 0.313986
0.0779962 0.0307445 0.313494
0.0783407 0.0303005 0.312999
0.0787195 0.0298773 0.312638
0.0791381 0.0294771 0.312429
0.0795487 0.0290733 0.312192
0.0799702 0.028676 0.311998
0.0804345 0.0283021 0.311964
0.0809096 0.0279337 0.311969
0.081421 0.0275838 0.312106
0.0819531 0.0272439 0.312316
0.0825333 0.0269273 0.312699
0.0831279 0.0266163 0.313128
0.0837435 0.026314 0.313628
0.0843331 0.0259971 0.31403
0.0849184 0.0256769 0.314414
0.0854562 0.0253328 0.314625
0.0859759 0.0249795 0.314771
0.0864767 0.0246171 0.314849
0.0869489 0.0242412 0.314826
0.0874083 0.0238597 0.31476
0.0878834 0.0234852 0.314748
0.0883625 0.0231123 0.314749
0.088847 0.0227417 0.314769
0.0893503 0.0223789 0.314851
0.0898513 0.0220148 0.314925
0.090332 0.021642 0.31493
0.090803 0.0212651 0.314902
0.091274 0.0208882 0.314874
0.0917747 0.020523 0.314945
0.0922491 0.0201473 0.314928
0.0927328 0.0197751 0.314941
0.0932429 0.0194129 0.31504
0.0937463 0.0190477 0.315117
0.0942236 0.0186725 0.315107
0.0950602 0.018093 0.317577
0.09505 0.0184237 0.316222
0.100453 0.0181115 0.327216
0.101458 0.017895 0.328815
0.102076 0.0175448 0.329184
0.102545 0.0171444 0.329086
0.102672 0.0162727 0.32925
0.103046 0.0167543 0.329086
0.103163 0.0158798 0.32922
0.103537 0.0163614 0.329057
0.103656 0.0154872 0.329197
0.104019 0.0159652 0.328998
0.104183 0.0151051 0.329279
0.104532 0.0155792 0.329038
0.1047 0.0147197 0.329327
0.105024 0.0151866 0.329012
0.105217 0.0143341 0.329377
0.105517 0.0147938 0.328988
0.106189 0.0140805 0.330806
0.105987 0.0143944 0.328894
0.0525734 0.0669121 0.357131
0.0527753 0.0660579 0.355178
0.0531872 0.065493 0.354494
0.0535702 0.0648942 0.353652
0.0539223 0.06426 0.352643
0.0542889 0.0636499 0.351734
0.0546352 0.0630192 0.350722
0.055004 0.0624219 0.349853
0.0554083 0.0618729 0.349198
0.0558415 0.0613622 0.348712
0.0562752 0.0608547 0.348237
0.056727 0.0603708 0.347867
0.0571848 0.0598959 0.347536
0.0576425 0.0594225 0.347208
0.0581089 0.0589605 0.346932
0.0585889 0.0585151 0.346731
0.0590622 0.0580631 0.346498
0.0595348 0.0576115 0.346264
0.0600281 0.0571832 0.346141
0.0605547 0.056791 0.346191
0.0610776 0.0563946 0.346222
0.0616074 0.0560049 0.346287
0.0621249 0.0556021 0.346288
0.0626712 0.0552285 0.346433
0.063247 0.0548837 0.346724
0.0638414 0.0545557 0.347102
0.0640999 0.0538965 0.34582
0.0640866 0.0529803 0.343223
0.0639622 0.05197 0.34012
0.0637481 0.0508898 0.336625
0.0635637 0.0498538 0.333319
0.0636745 0.0491054 0.331463
0.0639727 0.0485362 0.330519
0.0642627 0.0479639 0.329549
0.0645319 0.0473774 0.328493
0.0648061 0.0468002 0.327473
0.0651307 0.0462711 0.3267
0.0654616 0.0457508 0.325964
0.0657817 0.0452246 0.325188
0.0661313 0.0447265 0.324555
0.0664983 0.0442453 0.324008
0.0669075 0.043801 0.323656
0.0673186 0.0433595 0.323316
0.0677418 0.0429291 0.323034
0.0681618 0.0424973 0.322741
0.0685438 0.0420371 0.322285
0.0689004 0.0415593 0.321725
0.069275 0.0410973 0.321248
0.0696255 0.0406192 0.320673
0.0699923 0.0401554 0.320174
0.0704004 0.0397239 0.319856
0.0707953 0.039284 0.319485
0.0712117 0.0388609 0.319208
0.0716495 0.038454 0.319024
0.072082 0.038044 0.318819
0.0725082 0.0376304 0.318591
0.0729805 0.0372489 0.318553
0.0734371 0.0368569 0.318451
0.0738714 0.0364505 0.31826
0.0742946 0.0360374 0.318026
0.0747129 0.0356219 0.317775
0.0751064 0.0351915 0.317428
0.0754834 0.0347518 0.317019
0.0758663 0.0343175 0.316638
0.0762559 0.0338885 0.316286
0.0766298 0.0334513 0.315877
0.077002 0.0330145 0.315466
0.0773565 0.0325687 0.31499
0.0776806 0.0321067 0.314403
0.0780091 0.0316494 0.313839
0.0783548 0.031204 0.313345
0.0786983 0.030759 0.312848
0.0790763 0.0303352 0.312485
0.079494 0.0299344 0.312274
0.0799049 0.0295306 0.312039
0.0803179 0.0291287 0.311815
0.080773 0.0287498 0.311747
0.0812388 0.0283766 0.311718
0.081724 0.0280136 0.31176
0.0822283 0.0276601 0.31187
0.0827683 0.027324 0.312107
0.0833303 0.026998 0.31242
0.0839162 0.0266825 0.312815
0.0845055 0.0263671 0.313218
0.0851033 0.0260543 0.313647
0.0856711 0.0257257 0.313965
0.0862188 0.0253866 0.314211
0.0867476 0.0250377 0.314387
0.0872481 0.0246753 0.314464
0.0877269 0.0243029 0.314466
0.0882213 0.0239372 0.314521
0.0887012 0.0235649 0.314525
0.089185 0.0231941 0.314542
0.0896891 0.0228318 0.314627
0.0901913 0.0224685 0.314705
0.0906737 0.0220964 0.314716
0.0911553 0.021724 0.314724
0.0916355 0.0213509 0.314727
0.0921259 0.0209817 0.314763
0.0925989 0.0206055 0.314741
0.0930803 0.0202326 0.314747
0.0935816 0.019867 0.314817
0.0940742 0.0194981 0.314858
0.0945497 0.0191224 0.314843
0.0951913 0.0188073 0.315361
0.0962599 0.0183085 0.318556
0.0961993 0.0186228 0.317045
0.100387 0.0184389 0.325672
0.101578 0.0182893 0.327853
0.102373 0.0180002 0.328779
0.102842 0.0176003 0.328683
0.103333 0.0172075 0.328654
0.103824 0.0168148 0.328624
0.104303 0.0164185 0.328559
0.104803 0.0160287 0.32856
0.105282 0.0156325 0.328495
0.105762 0.0152363 0.328432
0.106229 0.0148368 0.328332
0.106935 0.0141341 0.330243
0.106706 0.0144402 0.328262
0.107898 0.0138738 0.331625
0.107161 0.0140372 0.328125
0.0527093 0.0682036 0.358546
0.0530008 0.0674611 0.35711
0.0533318 0.0667798 0.355931
0.0537439 0.0662125 0.355245
0.0541355 0.0656223 0.354451
0.0545017 0.0650036 0.353523
0.0548756 0.0643998 0.352652
0.0552204 0.0637641 0.35163
0.0555812 0.063154 0.350714
0.0559765 0.062591 0.350003
0.0564014 0.0620676 0.349467
0.056827 0.0615478 0.348943
0.057273 0.0610547 0.348537
0.0577314 0.0605782 0.348205
0.0581902 0.0601038 0.347879
0.0586574 0.0596404 0.347601
0.059132 0.0591867 0.347368
0.0596048 0.0587321 0.347127
0.0600769 0.0582778 0.346886
0.0605633 0.0578401 0.346722
0.0610822 0.0574378 0.346727
0.0616132 0.057048 0.346793
0.0621383 0.0566517 0.346829
0.0626503 0.0562416 0.346797
0.0631876 0.0558571 0.346892
0.0637456 0.055493 0.347088
0.0643154 0.0551393 0.347339
0.0646782 0.0545811 0.346572
0.0646636 0.0536606 0.343977
0.0641423 0.0505255 0.334116
0.0641398 0.0496695 0.331727
0.0644462 0.0491065 0.330824
0.0647362 0.0485328 0.329855
0.0650032 0.0479429 0.328791
0.0652828 0.0473689 0.3278
0.0656006 0.0468325 0.326995
0.0659316 0.046311 0.326261
0.066244 0.0457769 0.325451
0.0665842 0.0452696 0.324777
0.0669268 0.0447672 0.32412
0.067317 0.0443066 0.323684
0.0677035 0.0438447 0.323236
0.0681178 0.0434069 0.322916
0.068538 0.0429751 0.322625
0.0689284 0.0425211 0.322207
0.0692859 0.0420435 0.321653
0.0696677 0.0415866 0.321209
0.0700173 0.0411072 0.320632
0.0703758 0.0406368 0.320099
0.070767 0.0401925 0.319711
0.0711602 0.0397512 0.319335
0.0715519 0.0393103 0.318957
0.0719716 0.0388907 0.318698
0.0723772 0.0384621 0.318385
0.0727838 0.0380354 0.318078
0.0732294 0.0376365 0.317934
0.0736766 0.037239 0.317797
0.0741015 0.0368271 0.317572
0.0745314 0.0364195 0.317369
0.0749667 0.0360159 0.317189
0.0753772 0.0355971 0.316913
0.0757725 0.0351695 0.31658
0.0761813 0.0347516 0.316303
0.076572 0.0343235 0.315958
0.0769535 0.0338911 0.315582
0.0773269 0.033455 0.315177
0.0776887 0.0330135 0.314733
0.0780145 0.0325523 0.314155
0.0783593 0.0321043 0.313655
0.0787056 0.0316589 0.313166
0.079064 0.0312222 0.312727
0.079441 0.0307974 0.312362
0.0798595 0.0303969 0.312155
0.0802703 0.0299928 0.31192
0.0806737 0.0295855 0.311661
0.0811107 0.029197 0.311527
0.0815752 0.0288233 0.311494
0.0820528 0.0284565 0.311508
0.0825319 0.0280903 0.311528
0.0830343 0.0277358 0.31163
0.0835461 0.0273855 0.311765
0.0840802 0.0270456 0.311977
0.0846312 0.0267132 0.312246
0.085211 0.0263935 0.312614
0.0857899 0.0260721 0.312974
0.0863743 0.0257518 0.31335
0.0869411 0.025422 0.313661
0.0874899 0.0250828 0.313907
0.0880099 0.0247297 0.314051
0.088545 0.0243827 0.314245
0.0890449 0.0240194 0.314318
0.0895292 0.0236491 0.314337
0.0900209 0.0232816 0.31438
0.0905217 0.0229179 0.314454
0.0910036 0.0225459 0.314463
0.0914864 0.0221742 0.314475
0.0919776 0.0218057 0.314515
0.092468 0.0214367 0.314551
0.0929492 0.0210639 0.314556
0.0934204 0.020687 0.314529
0.093911 0.0203176 0.314564
0.0943832 0.019941 0.31454
0.0948458 0.0195607 0.314484
0.0953062 0.01918 0.314422
0.0961113 0.0189247 0.315458
0.101513 0.0186188 0.326321
0.102503 0.0183989 0.327856
0.103124 0.0180508 0.328233
0.103601 0.017654 0.328165
0.104079 0.017258 0.328099
0.104547 0.0168584 0.328001
0.105048 0.0164692 0.328002
0.105535 0.0160763 0.327966
0.106013 0.0156802 0.3279
0.106476 0.01528 0.32779
0.106962 0.0148866 0.327749
0.107429 0.0144875 0.327649
0.107603 0.0136313 0.327953
0.107896 0.0140891 0.327554
0.108078 0.0132348 0.327879
0.10841 0.0137039 0.327594
0.108565 0.0128419 0.327842
0.108938 0.0133223 0.327678
0.109106 0.0124636 0.327963
0.109494 0.0129482 0.327842
0.10964 0.0120827 0.328061
0.110041 0.0125711 0.327978
0.110208 0.0117104 0.328257
0.110607 0.0121985 0.328168
0.111203 0.011448 0.329694
0.111134 0.0118152 0.328244
0.112237 0.0111909 0.331231
0.111659 0.011431 0.328314
0.053456 0.0680478 0.357252
0.0538428 0.0674405 0.356405
0.0542564 0.0668734 0.355728
0.054657 0.0662931 0.354985
0.055045 0.0657005 0.354181
0.0554275 0.0651055 0.353359
0.0557807 0.0644778 0.352384
0.056147 0.0638718 0.351496
0.0565401 0.0633036 0.350771
0.0569564 0.0627671 0.350184
0.0573818 0.0622447 0.349655
0.0578148 0.0617338 0.349174
0.0582734 0.0612553 0.348838
0.0587409 0.0607888 0.348555
0.0592102 0.0603256 0.348285
0.0596871 0.0598721 0.348057
0.0601681 0.0594245 0.347855
0.0606324 0.0589592 0.347568
0.0611103 0.0585101 0.347355
0.061621 0.0580969 0.347313
0.0621536 0.057707 0.347381
0.06268 0.0573102 0.347418
0.0632014 0.0569079 0.347428
0.063725 0.0565076 0.347449
0.0642674 0.0561259 0.347562
0.0648101 0.0557438 0.347674
0.0652591 0.055269 0.347327
0.0652232 0.0543246 0.344636
0.0645416 0.0526495 0.340897
0.0650828 0.0532929 0.341479
0.0646785 0.0511583 0.334702
0.0645655 0.0501974 0.3318
0.064879 0.04964 0.330932
0.0651686 0.0490649 0.329965
0.0654354 0.0484738 0.328905
0.0657196 0.0479028 0.327937
0.0660368 0.0473649 0.327132
0.0663762 0.0468497 0.326438
0.0666982 0.0463227 0.325674
0.0670385 0.0458144 0.325001
0.0673637 0.0452963 0.324268
0.0677357 0.0448198 0.323751
0.0680965 0.0443365 0.323191
0.0684944 0.0438852 0.3228
0.0689138 0.0434525 0.322506
0.0693117 0.043004 0.322123
0.0696696 0.0425263 0.321572
0.0700517 0.0420693 0.321131
0.0704002 0.0415887 0.320552
0.0707503 0.0411116 0.319986
0.0711253 0.0406551 0.319531
0.0715169 0.0402125 0.31915
0.0718911 0.0397588 0.318701
0.0722856 0.0393213 0.318341
0.0726636 0.0388737 0.317917
0.0730515 0.0384345 0.317537
0.0734723 0.0380192 0.317295
0.0739029 0.0376115 0.317095
0.0743252 0.0371989 0.316863
0.0747527 0.0367906 0.316654
0.0751952 0.0363928 0.316508
0.0756161 0.0359816 0.316277
0.0760291 0.0355661 0.316017
0.0764471 0.0351546 0.315779
0.0768451 0.0347317 0.315466
0.0772258 0.034299 0.315089
0.0776062 0.0338676 0.314715
0.0779768 0.0334317 0.314308
0.0783199 0.0329809 0.3138
0.0786834 0.0325439 0.313374
0.0790476 0.0321088 0.312955
0.0794158 0.0316774 0.312554
0.07981 0.0312622 0.312255
0.0802366 0.0308659 0.312078
0.0806478 0.0304618 0.311846
0.0810501 0.0300536 0.311583
0.0814855 0.029664 0.311443
0.0819312 0.0292803 0.311342
0.0823827 0.0288998 0.311262
0.082843 0.0285241 0.311214
0.0833089 0.0281514 0.311187
0.0837723 0.0277773 0.31115
0.0842631 0.027417 0.311211
0.0847799 0.0270691 0.311362
0.0853195 0.0267315 0.311591
0.0858871 0.0264066 0.311915
0.086482 0.0260933 0.31233
0.0870881 0.0257836 0.312779
0.0876909 0.0254708 0.313212
0.0882736 0.0251473 0.313572
0.0888619 0.0248249 0.313948
0.0894007 0.0244792 0.314153
0.0898837 0.0241084 0.314168
0.0903635 0.0237359 0.314171
0.0908502 0.0233664 0.314197
0.0913308 0.0229941 0.314203
0.0918146 0.022623 0.314218
0.0923178 0.0222597 0.314297
0.0928005 0.0218878 0.314308
0.0932903 0.0215185 0.314342
0.0937609 0.0211415 0.314313
0.0942321 0.0207649 0.314286
0.0946745 0.020377 0.314166
0.0951227 0.0199918 0.314066
0.0955601 0.0196027 0.313932
0.0961602 0.0192737 0.314315
0.0972759 0.0187948 0.317622
0.0971221 0.0190743 0.315836
0.101182 0.0188536 0.323973
0.102372 0.0187069 0.326131
0.103167 0.0184201 0.327051
0.103793 0.0180744 0.327443
0.104256 0.017674 0.327333
0.104712 0.0172717 0.327202
0.105214 0.0168841 0.327212
0.105716 0.0164963 0.32722
0.106192 0.0161007 0.327151
0.106654 0.0157009 0.32704
0.107148 0.0153108 0.327026
0.107625 0.0149159 0.326961
0.108119 0.0145256 0.326946
0.108657 0.0141486 0.327063
0.109221 0.0137777 0.327251
0.10979 0.0134077 0.327454
0.110352 0.0130351 0.327633
0.11092 0.0126637 0.327829
0.111448 0.012281 0.327908
0.11195 0.0118913 0.327912
0.112982 0.0112481 0.330673
0.112848 0.0116025 0.329048
0.0551164 0.0668827 0.355154
0.0555205 0.06631 0.354444
0.0559193 0.0657344 0.353716
0.0562946 0.0651332 0.352866
0.0566688 0.0645351 0.352023
0.05707 0.0639748 0.351341
0.0575 0.0634529 0.350826
0.0579264 0.0629294 0.3503
0.0583522 0.0624079 0.349778
0.0588175 0.0619351 0.349474
0.0592852 0.0614666 0.349187
0.0597428 0.060988 0.348851
0.0602208 0.0605339 0.348626
0.0607094 0.0600925 0.348458
0.0611661 0.0596169 0.348128
0.0616385 0.0591599 0.347883
0.0621498 0.0587457 0.347839
0.0626815 0.0583531 0.347897
0.0632005 0.0579468 0.347891
0.0637245 0.0575455 0.34791
0.0642421 0.0571376 0.347896
0.06477 0.0567398 0.347933
0.0652954 0.0563393 0.347956
0.0657295 0.0558485 0.347536
0.0656754 0.0548847 0.34477
0.0655404 0.0538564 0.341654
0.0648747 0.0522119 0.33804
0.0653148 0.0527568 0.338148
0.065117 0.0516999 0.334818
0.0650028 0.0507361 0.331924
0.0653243 0.0501851 0.331097
0.0656069 0.0496026 0.3301
0.0658799 0.0490159 0.329072
0.0661554 0.0484361 0.328067
0.0664718 0.0478966 0.327261
0.0668119 0.047381 0.326572
0.0671498 0.0468665 0.32588
0.0674856 0.0463533 0.325188
0.0678019 0.0458268 0.324418
0.0681566 0.0453352 0.323826
0.0684978 0.0448351 0.323181
0.0688714 0.0443638 0.322685
0.0692748 0.0439182 0.322323
0.0696718 0.0434689 0.321938
0.0700289 0.0429904 0.321387
0.0704181 0.0425386 0.320978
0.0707672 0.0420582 0.320404
0.0711246 0.0415862 0.319872
0.0714907 0.0411228 0.319381
0.0718801 0.0406784 0.318993
0.0722368 0.0402119 0.318474
0.0726148 0.0397626 0.318048
0.0729749 0.0393024 0.317553
0.07336 0.0388615 0.317166
0.0737554 0.0384291 0.316823
0.074169 0.0380104 0.316557
0.0745815 0.0375919 0.31629
0.0749996 0.0371781 0.316047
0.0754252 0.0367701 0.315836
0.075846 0.0363596 0.315609
0.0762599 0.0359456 0.315356
0.0766768 0.0355343 0.315118
0.0770817 0.0351164 0.314836
0.0774693 0.0346888 0.31449
0.0778641 0.0342668 0.314175
0.0782534 0.0338426 0.313842
0.0786222 0.0334074 0.313435
0.0790055 0.0329821 0.313086
0.0793885 0.0325579 0.31274
0.0797757 0.0321373 0.312412
0.0801888 0.0317325 0.312184
0.0806263 0.0313422 0.312047
0.0810378 0.0309378 0.311816
0.0814392 0.0305287 0.31155
0.0818641 0.0301331 0.311373
0.0822906 0.029739 0.311202
0.0827214 0.0293476 0.311048
0.0831621 0.0289618 0.310931
0.0835988 0.0285744 0.3108
0.0840141 0.0281764 0.310595
0.0844556 0.0277922 0.310484
0.0849191 0.0274191 0.310451
0.0854251 0.0270668 0.310565
0.0859703 0.0267329 0.310814
0.0865726 0.0264251 0.311257
0.0872283 0.0261408 0.311879
0.0879033 0.0258631 0.312561
0.0885521 0.0255711 0.313147
0.0892029 0.0252777 0.313734
0.0897816 0.0249502 0.314072
0.0902738 0.0245833 0.314117
0.0907427 0.024206 0.314084
0.0912084 0.0238274 0.314039
0.0916677 0.0234461 0.313974
0.0921408 0.0230707 0.313955
0.0926364 0.0227046 0.314009
0.0931106 0.0223295 0.313993
0.0936008 0.0219608 0.314029
0.0940709 0.0215838 0.313999
0.0945222 0.0211997 0.313909
0.0949515 0.020807 0.313748
0.0953762 0.0204134 0.313575
0.0957886 0.020015 0.313363
0.096194 0.0196153 0.313132
0.0969504 0.0193438 0.314005
0.102143 0.0189778 0.324114
0.103124 0.0187584 0.325612
0.103909 0.0184684 0.326495
0.104344 0.0180601 0.326304
0.104788 0.017655 0.32614
0.105291 0.0172691 0.326156
0.105806 0.0168871 0.326208
0.106296 0.0164972 0.326186
0.10677 0.0161018 0.326113
0.107288 0.0157201 0.326171
0.107777 0.0153301 0.326147
0.108294 0.0149475 0.326202
0.108845 0.0145748 0.326357
0.109432 0.0142115 0.326614
0.110013 0.0138462 0.326853
0.110597 0.0134807 0.327099
0.11118 0.0131141 0.327338
0.111733 0.0127388 0.327491
0.112248 0.0123528 0.327532
0.112763 0.0119666 0.327572
0.113793 0.0113227 0.330309
0.11328 0.0115806 0.327618
0.0571074 0.0650951 0.352081
0.0575325 0.0645634 0.351533
0.0579724 0.0640525 0.351072
0.0584071 0.0635378 0.350591
0.0588387 0.0630218 0.350099
0.0593178 0.0625639 0.349867
0.0597851 0.0620934 0.349575
0.0602504 0.061622 0.349277
0.0607355 0.0611743 0.349085
0.0612241 0.0607313 0.348915
0.061675 0.0602477 0.348552
0.0621482 0.0597899 0.348308
0.0626528 0.0593671 0.348226
0.0631778 0.058966 0.348247
0.0636964 0.058558 0.348235
0.0642348 0.0581704 0.348321
0.0647485 0.057757 0.348285
0.0652702 0.0573517 0.348287
0.0657867 0.0569409 0.348263
0.0662098 0.0564381 0.347789
0.0661323 0.0554496 0.344923
0.0659888 0.0544112 0.341781
0.065755 0.053302 0.338253
