ply
format ascii 1.0
element vertex 1664
property float x
property float y
property float z
end_header
-0.222716 -0.144827 0.913939
-0.224084 -0.145692 0.914166
-0.225428 -0.14655 0.914281
-0.226806 -0.147419 0.914543
-0.228131 -0.148271 0.91456
-0.229498 -0.149138 0.914766
-0.230866 -0.150005 0.914971
-0.232233 -0.150872 0.915166
-0.233559 -0.151725 0.915175
-0.234924 -0.152592 0.915348
-0.236294 -0.153461 0.915545
-0.237732 -0.154354 0.916031
-0.239201 -0.155257 0.916636
-0.24073 -0.156182 0.917494
-0.242304 -0.157124 0.918532
-0.243975 -0.1581 0.919964
-0.245752 -0.159115 0.921817
-0.247806 -0.16023 0.924813
-0.24996 -0.161382 0.92818
-0.252203 -0.162569 0.931869
-0.254411 -0.163747 0.935371
-0.256456 -0.16487 0.93816
-0.258403 -0.16596 0.940516
-0.260429 -0.16708 0.943163
-0.262427 -0.168193 0.945661
-0.264422 -0.169306 0.948119
-0.266622 -0.170498 0.951352
-0.268886 -0.171716 0.954799
-0.271464 -0.173052 0.959433
-0.274275 -0.174481 0.964921
-0.277118 -0.175925 0.970462
-0.279638 -0.177253 0.974699
-0.281875 -0.178477 0.977797
-0.283531 -0.179485 0.978653
-0.284832 -0.180357 0.978154
-0.285961 -0.181164 0.977008
-0.287099 -0.181974 0.975911
-0.288264 -0.182793 0.974918
-0.289642 -0.183694 0.974729
-0.291277 -0.184695 0.975484
-0.293233 -0.185821 0.977401
-0.295257 -0.186975 0.979541
-0.29725 -0.188119 0.981541
-0.299144 -0.189226 0.983166
-0.300893 -0.190277 0.98425
-0.302416 -0.191239 0.984517
-0.303957 -0.192209 0.984843
-0.305437 -0.193155 0.98495
-0.306896 -0.194093 0.984976
-0.30839 -0.195045 0.985123
-0.309883 -0.195997 0.985269
-0.311289 -0.196913 0.985102
-0.312707 -0.197835 0.984984
-0.314067 -0.198734 0.984663
-0.31534 -0.199597 0.984047
-0.316545 -0.200431 0.983209
-0.123288 -0.0789427 0.967877
-0.124594 -0.0798176 0.967386
-0.125866 -0.0806932 0.966553
-0.127107 -0.0815683 0.965442
-0.128331 -0.082442 0.964196
-0.129513 -0.083314 0.962559
-0.130698 -0.0841833 0.961003
-0.131885 -0.0850502 0.959493
-0.13308 -0.0859148 0.958102
-0.134205 -0.0867755 0.956095
-0.135284 -0.0876314 0.953726
-0.13632 -0.0884818 0.951033
-0.137196 -0.0893199 0.94699
-0.137948 -0.0901445 0.941976
-0.13874 -0.0909635 0.937419
-0.139602 -0.0917803 0.933556
-0.140481 -0.0925925 0.929929
-0.141555 -0.0934157 0.927995
-0.142755 -0.0942476 0.927134
-0.143978 -0.0950806 0.926469
-0.145214 -0.0959142 0.925918
-0.146541 -0.0967573 0.926094
-0.147875 -0.0976018 0.926321
-0.149203 -0.0984461 0.926485
-0.150548 -0.0992932 0.926778
-0.151912 -0.100144 0.927204
-0.153238 -0.100989 0.927328
-0.154543 -0.101833 0.927297
-0.155882 -0.102681 0.927506
-0.157242 -0.103533 0.927855
-0.15861 -0.104388 0.928259
-0.160011 -0.105249 0.92888
-0.161416 -0.106111 0.929515
-0.162842 -0.106978 0.930277
-0.16423 -0.10784 0.930758
-0.165594 -0.108698 0.931069
-0.166906 -0.109547 0.931012
-0.168224 -0.110397 0.931003
-0.169539 -0.111247 0.93096
-0.170874 -0.112101 0.931049
-0.172246 -0.112964 0.931378
-0.173666 -0.113836 0.931998
-0.175131 -0.11472 0.932894
-0.176585 -0.115602 0.933699
-0.178027 -0.116483 0.934415
-0.179439 -0.117358 0.934921
-0.180804 -0.118224 0.935133
-0.18209 -0.119071 0.934855
-0.183323 -0.119906 0.934265
-0.184476 -0.120721 0.9332
-0.185624 -0.121534 0.932121
-0.186755 -0.122341 0.930954
-0.187916 -0.123156 0.929984
-0.189079 -0.123969 0.929033
-0.190285 -0.124793 0.928348
-0.191479 -0.125613 0.927595
-0.192687 -0.126436 0.926939
-0.19388 -0.127255 0.926201
-0.195069 -0.128072 0.925449
-0.196254 -0.128887 0.924688
-0.197436 -0.129701 0.923918
-0.19862 -0.130514 0.92317
-0.199819 -0.131332 0.922512
-0.201036 -0.132154 0.921955
-0.202271 -0.13298 0.921499
-0.203524 -0.133812 0.921143
-0.204794 -0.134649 0.920878
-0.206081 -0.13549 0.920698
-0.207383 -0.136336 0.920602
-0.20867 -0.137177 0.920422
-0.209956 -0.138018 0.920241
-0.211205 -0.138848 0.919871
-0.212449 -0.139676 0.919481
-0.213654 -0.140492 0.918903
-0.214842 -0.141302 0.918247
-0.215991 -0.142099 0.917408
-0.217168 -0.142905 0.916712
-0.218366 -0.143716 0.916123
-0.219588 -0.144535 0.915654
-0.220894 -0.145381 0.915591
-0.222241 -0.146241 0.915716
-0.223593 -0.147102 0.915859
-0.22492 -0.147956 0.915883
-0.226283 -0.148821 0.916067
-0.22761 -0.149675 0.916088
-0.228959 -0.150537 0.916202
-0.230308 -0.151399 0.916312
-0.231654 -0.15226 0.916406
-0.23296 -0.153107 0.916316
-0.234324 -0.153975 0.91648
-0.235695 -0.154845 0.916678
-0.237134 -0.15574 0.917164
-0.238599 -0.156644 0.917752
-0.240146 -0.157577 0.918685
-0.241747 -0.158531 0.919832
-0.243506 -0.159542 0.921638
-0.24538 -0.160596 0.923905
-0.24761 -0.161781 0.927634
-0.249904 -0.162991 0.931581
-0.252243 -0.164222 0.935671
-0.254439 -0.165403 0.939109
-0.256424 -0.166511 0.941646
-0.258263 -0.167567 0.943551
-0.260188 -0.168656 0.945778
-0.262137 -0.169757 0.948079
-0.264136 -0.170878 0.950546
-0.266415 -0.172106 0.954095
-0.268755 -0.17336 0.957839
-0.271415 -0.174738 0.962796
-0.274043 -0.176108 0.967572
-0.276633 -0.177468 0.972138
-0.278882 -0.1787 0.975333
-0.280828 -0.179819 0.977328
-0.282213 -0.180723 0.977152
-0.283483 -0.181583 0.976543
-0.284552 -0.182364 0.975181
-0.285627 -0.183147 0.973851
-0.286703 -0.183929 0.972538
-0.287989 -0.184793 0.972016
-0.289495 -0.185743 0.972315
-0.291387 -0.186847 0.974022
-0.293361 -0.187984 0.976005
-0.295386 -0.189144 0.978156
-0.297424 -0.19031 0.980323
-0.299342 -0.19143 0.982035
-0.301007 -0.19245 0.982822
-0.302629 -0.193453 0.983449
-0.304159 -0.194419 0.983738
-0.305613 -0.195354 0.983755
-0.3071 -0.196304 0.98389
-0.308591 -0.197255 0.984031
-0.309988 -0.198168 0.983847
-0.311403 -0.199088 0.983722
-0.312727 -0.199971 0.983283
-0.313969 -0.200819 0.98257
-0.31511 -0.201626 0.981519
-0.318926 -0.201747 0.986328
-0.316144 -0.202387 0.980114
-0.321276 -0.203053 0.989309
-0.326279 -0.207132 0.97702
-0.321843 -0.206725 0.970295
-0.322987 -0.207527 0.96934
-0.326935 -0.207734 0.974461
-0.324636 -0.208542 0.970028
-0.329273 -0.209039 0.977329
-0.326385 -0.209602 0.971031
-0.123736 -0.0811689 0.967616
-0.12502 -0.0820434 0.966903
-0.126267 -0.0829175 0.965838
-0.127497 -0.0837899 0.964623
-0.128679 -0.0846601 0.96298
-0.129877 -0.085528 0.961524
-0.131065 -0.0863933 0.960016
-0.132273 -0.087257 0.95872
-0.133466 -0.0881182 0.957323
-0.134626 -0.0889757 0.955655
-0.135739 -0.0898281 0.953603
-0.136677 -0.0906665 0.95005
-0.13745 -0.0914877 0.945138
-0.138193 -0.092299 0.940087
-0.138972 -0.0931054 0.935459
-0.13978 -0.0939073 0.931185
-0.140806 -0.0947241 0.928824
-0.141975 -0.0955522 0.927689
-0.143176 -0.0963825 0.92684
-0.1444 -0.0972144 0.926189
-0.145715 -0.0980567 0.926264
-0.147037 -0.0989003 0.9264
-0.148353 -0.0997436 0.926475
-0.149674 -0.100588 0.926584
-0.151012 -0.101435 0.926821
-0.152309 -0.102277 0.926739
-0.153576 -0.103114 0.926428
-0.154898 -0.10396 0.926522
-0.156242 -0.10481 0.926776
-0.157594 -0.105661 0.927079
-0.15898 -0.10652 0.927615
-0.160394 -0.107384 0.928331
-0.161807 -0.10825 0.929022
-0.163205 -0.109114 0.929592
-0.164579 -0.109974 0.929981
-0.165902 -0.110824 0.930018
-0.16722 -0.111674 0.930014
-0.168535 -0.112524 0.929986
-0.169839 -0.113371 0.929885
-0.171191 -0.114229 0.930092
-0.172591 -0.115098 0.9306
-0.174038 -0.115978 0.931406
-0.175504 -0.116864 0.932303
-0.176975 -0.117752 0.93322
-0.178419 -0.118635 0.933946
-0.179831 -0.119512 0.934458
-0.18118 -0.120374 0.934569
-0.182463 -0.12122 0.93428
-0.183681 -0.12205 0.933599
-0.184877 -0.122874 0.932799
-0.186043 -0.123689 0.931835
-0.187224 -0.124507 0.930967
-0.188403 -0.125324 0.930101
-0.189613 -0.126149 0.929423
-0.190807 -0.126969 0.928663
-0.192016 -0.127792 0.927999
-0.193223 -0.128614 0.927327
-0.194414 -0.129431 0.926579
-0.195601 -0.130246 0.925816
-0.196787 -0.131061 0.925056
-0.197986 -0.131878 0.924378
-0.199189 -0.132696 0.923728
-0.200425 -0.133524 0.923261
-0.201677 -0.134356 0.922889
-0.202931 -0.135188 0.922523
-0.204184 -0.13602 0.92216
-0.205454 -0.136857 0.921885
-0.206741 -0.137698 0.921698
-0.207995 -0.13853 0.921346
-0.209298 -0.139377 0.921241
-0.210564 -0.140212 0.920951
-0.21183 -0.141047 0.920665
-0.213059 -0.14187 0.920193
-0.214304 -0.142698 0.919805
-0.215477 -0.143503 0.919072
-0.216684 -0.144318 0.918506
-0.217908 -0.145139 0.918032
-0.219154 -0.145966 0.917663
-0.220463 -0.146814 0.917597
-0.22181 -0.147675 0.917711
-0.223157 -0.148536 0.91782
-0.224483 -0.149391 0.917829
-0.225845 -0.150257 0.918
-0.227156 -0.151107 0.917931
-0.228469 -0.151958 0.917873
-0.229779 -0.152807 0.917794
-0.231103 -0.153662 0.917785
-0.232392 -0.154504 0.917611
-0.233741 -0.155367 0.917706
-0.235134 -0.156246 0.917988
-0.236574 -0.157143 0.918471
-0.23806 -0.158056 0.919148
-0.239615 -0.158996 0.920113
-0.2413 -0.159983 0.92162
-0.243137 -0.161027 0.92375
-0.245085 -0.162113 0.92633
-0.247414 -0.163342 0.930482
-0.249805 -0.164597 0.934838
-0.252137 -0.165833 0.93889
-0.254311 -0.167015 0.942235
-0.256293 -0.168128 0.94475
-0.258063 -0.169162 0.946365
-0.259924 -0.170233 0.948325
-0.261875 -0.171339 0.950625
-0.263922 -0.172485 0.95328
-0.266237 -0.173734 0.956971
-0.26864 -0.175021 0.960966
-0.271186 -0.176366 0.965478
-0.273617 -0.17767 0.96948
-0.275942 -0.178935 0.973022
-0.277958 -0.180084 0.97532
-0.279669 -0.181115 0.976416
-0.281 -0.181998 0.976043
-0.282213 -0.182834 0.975222
-0.283221 -0.183588 0.973628
-0.28421 -0.184334 0.971983
-0.285144 -0.185057 0.970147
-0.28628 -0.185859 0.969083
-0.287651 -0.186755 0.968895
-0.289404 -0.187805 0.970115
-0.2913 -0.188913 0.971844
-0.293329 -0.190077 0.974039
-0.295456 -0.191283 0.97656
-0.297519 -0.192464 0.978824
-0.299336 -0.193546 0.980178
-0.301081 -0.1946 0.981258
-0.302755 -0.195626 0.982073
-0.304261 -0.196583 0.982285
-0.305747 -0.197531 0.982422
-0.307236 -0.198482 0.982566
-0.308602 -0.199381 0.982281
-0.309956 -0.200276 0.981956
-0.311247 -0.201144 0.981413
-0.312482 -0.201988 0.980683
-0.313595 -0.20278 0.979546
-0.314654 -0.203549 0.978232
-0.317033 -0.203087 0.978236
-0.315604 -0.204271 0.976563
-0.317915 -0.203784 0.976354
-0.316521 -0.204978 0.9748
-0.318839 -0.204496 0.974624
-0.317482 -0.205703 0.973201
-0.319719 -0.205189 0.972769
-0.318486 -0.206445 0.971755
-0.320741 -0.20594 0.971394
-0.319606 -0.207236 0.970707
-0.320782 -0.208051 0.969849
-0.322025 -0.208894 0.969218
-0.323249 -0.209728 0.968532
-0.324469 -0.21056 0.967834
-0.328631 -0.210874 0.973619
-0.326164 -0.211598 0.968669
-0.331363 -0.212356 0.977728
-0.328292 -0.212824 0.970883
-0.122859 -0.082521 0.967653
-0.124159 -0.0833946 0.967095
-0.125416 -0.0842674 0.966125
-0.126654 -0.0851387 0.964977
-0.127852 -0.0860074 0.963474
-0.129062 -0.0868741 0.962124
-0.130242 -0.0877377 0.960514
-0.131451 -0.0886001 0.959214
-0.132645 -0.0894599 0.957807
-0.133845 -0.090318 0.95649
-0.135011 -0.0911719 0.954893
-0.136003 -0.0920102 0.951774
-0.136819 -0.0928293 0.947183
-0.137589 -0.0936371 0.942298
-0.138325 -0.0944342 0.937241
-0.139081 -0.0952258 0.932471
-0.14007 -0.0960361 0.929767
-0.141207 -0.0968598 0.928352
-0.142388 -0.0976869 0.927323
-0.143599 -0.0985168 0.926563
-0.144889 -0.0993564 0.926444
-0.146188 -0.100197 0.926387
-0.14748 -0.101037 0.926281
-0.148787 -0.10188 0.926287
-0.150099 -0.102723 0.926332
-0.151381 -0.103562 0.92614
-0.152621 -0.104394 0.92564
-0.153914 -0.105235 0.925532
-0.155217 -0.106077 0.925502
-0.15654 -0.106924 0.925605
-0.157898 -0.107777 0.925958
-0.159308 -0.108641 0.926672
-0.160704 -0.109504 0.927269
-0.162111 -0.110369 0.927926
-0.163495 -0.111231 0.928407
-0.164845 -0.112087 0.928641
-0.166165 -0.112936 0.928665
-0.167505 -0.113791 0.928821
-0.168807 -0.114637 0.928716
-0.170155 -0.115494 0.928916
-0.171524 -0.116356 0.92924
-0.172963 -0.117235 0.930007
-0.174411 -0.118117 0.930814
-0.175877 -0.119005 0.93172
-0.177321 -0.119889 0.932463
-0.178748 -0.12077 0.933086
-0.180113 -0.121636 0.933316
-0.181428 -0.122489 0.933233
-0.182695 -0.12333 0.932855
-0.183957 -0.12417 0.93245
-0.185202 -0.125005 0.931952
-0.186449 -0.12584 0.931468
-0.18768 -0.12667 0.930902
-0.188923 -0.127503 0.930408
-0.190133 -0.128327 0.929725
-0.191358 -0.129154 0.92914
-0.192567 -0.129976 0.928472
-0.193759 -0.130794 0.927719
-0.194946 -0.131608 0.926943
-0.196148 -0.132427 0.926259
-0.197352 -0.133246 0.925597
-0.198575 -0.13407 0.925044
-0.199813 -0.134898 0.924579
-0.201064 -0.13573 0.924186
-0.202299 -0.136557 0.923712
-0.203534 -0.137383 0.923245
-0.204787 -0.138215 0.922871
-0.206074 -0.139057 0.922681
-0.20733 -0.139889 0.922329
-0.208653 -0.140743 0.92232
-0.209926 -0.141581 0.922061
-0.211215 -0.142424 0.92188
-0.212486 -0.143261 0.921609
-0.213774 -0.144103 0.921422
-0.214991 -0.144922 0.92089
-0.216259 -0.145758 0.920609
-0.217508 -0.146587 0.920236
-0.218764 -0.147418 0.9199
-0.22005 -0.14826 0.919715
-0.221358 -0.149109 0.919631
-0.222665 -0.149958 0.919538
-0.223972 -0.150807 0.919448
-0.225298 -0.151662 0.919442
-0.226589 -0.152505 0.919271
-0.227878 -0.153348 0.919096
-0.229166 -0.15419 0.918909
-0.230472 -0.155039 0.918809
-0.231763 -0.155883 0.918639
-0.233134 -0.156755 0.918827
-0.234532 -0.157637 0.919127
-0.236016 -0.158552 0.919804
-0.237569 -0.159492 0.920765
-0.239274 -0.160489 0.922377
-0.241042 -0.161511 0.924235
-0.242974 -0.162595 0.926772
-0.245015 -0.163722 0.929734
-0.247383 -0.164975 0.934048
-0.249708 -0.166214 0.938121
-0.251987 -0.16744 0.94195
-0.25411 -0.16861 0.945079
-0.256052 -0.169713 0.947425
-0.257794 -0.170741 0.948914
-0.259629 -0.171807 0.950763
-0.261592 -0.172923 0.953106
-0.263689 -0.174094 0.955959
-0.26599 -0.175346 0.959595
-0.268417 -0.176651 0.963685
-0.270836 -0.177955 0.967697
-0.273111 -0.179206 0.971085
-0.275212 -0.180391 0.973756
-0.277055 -0.181475 0.97539
-0.278565 -0.182429 0.975716
-0.279866 -0.183299 0.975231
-0.280998 -0.184101 0.974099
-0.281944 -0.184828 0.972278
-0.28282 -0.185524 0.970206
-0.283644 -0.186199 0.967959
-0.284613 -0.186931 0.966276
-0.285828 -0.187762 0.965524
-0.287412 -0.188744 0.966148
-0.289143 -0.189787 0.967298
-0.291057 -0.190907 0.969107
-0.293172 -0.19211 0.971624
-0.295356 -0.193345 0.974357
-0.29731 -0.194485 0.976234
-0.299235 -0.195615 0.977986
-0.301057 -0.196703 0.979349
-0.302703 -0.197719 0.980071
-0.304221 -0.198681 0.980334
-0.305767 -0.199655 0.980693
-0.307162 -0.200566 0.980518
-0.30854 -0.20147 0.980283
-0.309797 -0.202322 0.979633
-0.311026 -0.203162 0.978891
-0.312137 -0.203951 0.977752
-0.313231 -0.204732 0.976564
-0.314252 -0.205482 0.975141
-0.31524 -0.206216 0.973618
-0.316265 -0.206965 0.972233
-0.317354 -0.207742 0.971072
-0.318537 -0.208558 0.970231
-0.319725 -0.209376 0.969416
-0.321004 -0.210234 0.968904
-0.322256 -0.211079 0.968307
-0.323473 -0.211909 0.967599
-0.324681 -0.212735 0.96687
-0.326277 -0.213731 0.967392
-0.330468 -0.214073 0.973227
-0.327916 -0.214747 0.968043
-0.332639 -0.215321 0.975535
-0.329477 -0.215728 0.968438
-0.123299 -0.084746 0.967308
-0.124553 -0.0856179 0.966287
-0.125784 -0.0864876 0.965072
-0.126994 -0.0873548 0.963663
-0.128223 -0.0882207 0.962484
-0.129396 -0.0890821 0.960798
-0.130616 -0.0899437 0.959587
-0.131811 -0.0908019 0.958174
-0.133002 -0.0916579 0.956755
-0.134137 -0.0925073 0.954864
-0.135165 -0.0933443 0.952052
-0.136007 -0.0941593 0.947651
-0.136807 -0.0949634 0.94299
-0.137562 -0.0957557 0.938049
-0.138353 -0.0965448 0.933534
-0.139312 -0.0973482 0.930542
-0.140427 -0.0981676 0.928925
-0.141588 -0.0989911 0.927717
-0.142798 -0.0998201 0.926941
-0.144064 -0.100656 0.926624
-0.145337 -0.101494 0.926365
-0.146614 -0.102332 0.926145
-0.147909 -0.103172 0.926057
-0.149209 -0.104014 0.926011
-0.150478 -0.10485 0.925726
-0.151702 -0.105678 0.925107
-0.152946 -0.10651 0.92464
-0.154219 -0.107346 0.924402
-0.155501 -0.108184 0.924226
-0.156828 -0.109031 0.924369
-0.158219 -0.109892 0.924971
-0.1596 -0.110751 0.92548
-0.160992 -0.111614 0.926055
-0.162385 -0.112477 0.926627
-0.16376 -0.113338 0.927051
-0.165095 -0.114191 0.927199
-0.166463 -0.115051 0.927558
-0.167777 -0.1159 0.927553
-0.169122 -0.116755 0.92774
-0.170473 -0.117613 0.927963
-0.171882 -0.118486 0.928557
-0.173321 -0.119367 0.92933
-0.17478 -0.120254 0.930209
-0.176218 -0.121137 0.930934
-0.17764 -0.122016 0.931544
-0.17903 -0.122889 0.931948
-0.180361 -0.123746 0.931973
-0.18166 -0.124595 0.931804
-0.182972 -0.125447 0.931708
-0.184285 -0.1263 0.931622
-0.185601 -0.127153 0.931546
-0.1869 -0.128002 0.931373
-0.188194 -0.128849 0.931172
-0.189439 -0.129683 0.930688
-0.190681 -0.130515 0.93019
-0.191893 -0.131338 0.929528
-0.193103 -0.132159 0.928859
-0.194294 -0.132975 0.928099
-0.195497 -0.133794 0.927408
-0.196703 -0.134613 0.926744
-0.197928 -0.135437 0.926193
-0.199153 -0.136262 0.925648
-0.20039 -0.137089 0.925173
-0.201608 -0.13791 0.924598
-0.202824 -0.138731 0.924022
-0.204056 -0.139556 0.923536
-0.205328 -0.140393 0.923258
-0.206586 -0.141226 0.922912
-0.20793 -0.142087 0.92301
-0.209241 -0.142938 0.922937
-0.210573 -0.143796 0.922967
-0.211886 -0.144647 0.922901
-0.213249 -0.145515 0.923075
-0.214525 -0.146355 0.922822
-0.215836 -0.147206 0.922739
-0.217109 -0.148043 0.922465
-0.218361 -0.148874 0.922096
-0.21961 -0.149704 0.921717
-0.220879 -0.15054 0.921434
-0.222131 -0.15137 0.921072
-0.223421 -0.152214 0.920891
-0.224729 -0.153064 0.920792
-0.226 -0.1539 0.920519
-0.227268 -0.154736 0.920238
-0.22855 -0.155577 0.920021
-0.229856 -0.156426 0.919912
-0.231169 -0.157278 0.919836
-0.232586 -0.158169 0.920223
-0.23403 -0.159069 0.920722
-0.235618 -0.160024 0.92185
-0.237246 -0.160995 0.923135
-0.239051 -0.162034 0.925173
-0.240902 -0.163092 0.927382
-0.242886 -0.164202 0.930135
-0.244914 -0.165332 0.933039
-0.247189 -0.166558 0.936952
-0.249367 -0.16775 0.940403
-0.251519 -0.168935 0.943699
-0.253567 -0.170082 0.94652
-0.255492 -0.171183 0.948793
-0.257298 -0.17224 0.950546
-0.259193 -0.173334 0.952639
-0.261203 -0.174474 0.955176
-0.263328 -0.175662 0.958141
-0.26561 -0.176915 0.961704
-0.267942 -0.17819 0.965418
-0.270243 -0.179456 0.968966
-0.272372 -0.180655 0.971787
-0.27433 -0.181788 0.973905
-0.276044 -0.182824 0.97504
-0.277503 -0.183757 0.97517
-0.27875 -0.184604 0.974476
-0.279796 -0.185369 0.973018
-0.280683 -0.186068 0.970968
-0.281473 -0.186726 0.96857
-0.282217 -0.187363 0.966028
-0.283048 -0.188035 0.963833
-0.284093 -0.188794 0.962463
-0.28544 -0.189678 0.962224
-0.286953 -0.190631 0.9626
-0.2887 -0.191682 0.963826
-0.290735 -0.192855 0.966089
-0.29293 -0.194098 0.968908
-0.294992 -0.195286 0.971211
-0.29707 -0.196482 0.973543
-0.299039 -0.197635 0.975462
-0.30086 -0.198725 0.976835
-0.302523 -0.199749 0.977627
-0.304153 -0.200759 0.978296
-0.305632 -0.201705 0.978426
-0.307037 -0.20262 0.978298
-0.308318 -0.203481 0.977741
-0.309574 -0.204331 0.977099
-0.310714 -0.20513 0.976067
-0.311845 -0.205925 0.97501
-0.312964 -0.206714 0.973921
-0.313998 -0.207466 0.972556
-0.315059 -0.208228 0.971295
-0.316205 -0.209028 0.970328
-0.317416 -0.209855 0.969583
-0.318579 -0.210661 0.968684
-0.319858 -0.211517 0.968175
-0.321103 -0.212359 0.967559
-0.322285 -0.213172 0.966743
-0.323459 -0.213981 0.965905
-0.32463 -0.214788 0.965061
-0.325798 -0.215594 0.964219
-0.326816 -0.216332 0.962898
-0.331582 -0.216951 0.970554
-0.328337 -0.217296 0.963192
-0.123657 -0.0869675 0.966122
-0.12488 -0.0878352 0.964813
-0.126091 -0.0887003 0.963415
-0.127322 -0.0895646 0.962245
-0.128509 -0.0904244 0.960686
-0.129739 -0.091285 0.959563
-0.130935 -0.0921415 0.958157
-0.132117 -0.0929946 0.956646
-0.133222 -0.0938383 0.954457
-0.134251 -0.0946712 0.951645
-0.135125 -0.0954828 0.947494
-0.135945 -0.0962821 0.942976
-0.136725 -0.09707 0.938217
-0.137574 -0.0978602 0.934171
-0.138537 -0.0986601 0.931185
-0.139622 -0.0994734 0.929298
-0.140774 -0.100294 0.927999
-0.141985 -0.101122 0.927222
-0.143227 -0.101955 0.926708
-0.144475 -0.102788 0.926252
-0.145737 -0.103623 0.925912
-0.147019 -0.104461 0.925732
-0.148309 -0.105301 0.925613
-0.149578 -0.106137 0.925333
-0.15078 -0.10696 0.924544
-0.151996 -0.107785 0.923876
-0.153229 -0.108612 0.923345
-0.154468 -0.109441 0.922863
-0.155752 -0.110279 0.922717
-0.157125 -0.111135 0.923211
-0.158489 -0.111991 0.923627
-0.159877 -0.112853 0.924197
-0.16128 -0.113719 0.924855
-0.162665 -0.114582 0.925379
-0.164014 -0.115437 0.925636
-0.165396 -0.116301 0.92611
-0.166721 -0.117151 0.926195
-0.168065 -0.118007 0.926394
-0.169413 -0.118864 0.926613
-0.170817 -0.119736 0.927192
-0.172239 -0.120613 0.92787
-0.173679 -0.121496 0.928648
-0.175093 -0.122373 0.929249
-0.176493 -0.123247 0.929743
-0.177876 -0.124118 0.930119
-0.179218 -0.124977 0.930229
-0.180532 -0.125829 0.930164
-0.18189 -0.126693 0.930368
-0.183281 -0.127568 0.930764
-0.184667 -0.128441 0.931114
-0.186036 -0.129311 0.931358
-0.187396 -0.130178 0.931545
-0.188706 -0.13103 0.93143
-0.189986 -0.131873 0.931141
-0.19122 -0.132703 0.930599
-0.19245 -0.13353 0.930033
-0.193656 -0.13435 0.929344
-0.194861 -0.135169 0.928653
-0.19607 -0.135988 0.927992
-0.197314 -0.136819 0.927533
-0.198542 -0.137644 0.926995
-0.19978 -0.138472 0.926513
-0.200964 -0.139282 0.925745
-0.202146 -0.140091 0.924978
-0.203379 -0.140916 0.924486
-0.204668 -0.14176 0.924295
-0.205948 -0.1426 0.924051
-0.207312 -0.143469 0.924246
-0.20866 -0.144333 0.924351
-0.210012 -0.145199 0.924477
-0.21133 -0.146052 0.92442
-0.212717 -0.146931 0.924713
-0.214035 -0.147785 0.924652
-0.215385 -0.14865 0.924747
-0.216644 -0.149484 0.924396
-0.217893 -0.150314 0.923999
-0.21912 -0.151136 0.923495
-0.220367 -0.151965 0.923094
-0.221586 -0.152784 0.922562
-0.222878 -0.153629 0.922381
-0.224169 -0.154473 0.922195
-0.225421 -0.155303 0.921827
-0.22667 -0.156132 0.921448
-0.227936 -0.156967 0.921151
-0.229226 -0.157811 0.92096
-0.230542 -0.158665 0.920891
-0.232038 -0.159586 0.921631
-0.233589 -0.16053 0.922604
-0.235317 -0.161541 0.924343
-0.237063 -0.162561 0.926137
-0.238987 -0.16365 0.928689
-0.240867 -0.164725 0.931013
-0.242825 -0.165832 0.93364
-0.244802 -0.166948 0.936318
-0.246946 -0.168132 0.939667
-0.249009 -0.169286 0.942629
-0.251011 -0.170419 0.945293
-0.252982 -0.171542 0.947796
-0.254886 -0.172641 0.949984
-0.256768 -0.173732 0.952053
-0.25872 -0.174853 0.954384
-0.260803 -0.176028 0.957214
-0.262971 -0.17724 0.960356
-0.265204 -0.17848 0.963719
-0.267439 -0.179724 0.967052
-0.269635 -0.180954 0.970181
-0.271654 -0.182115 0.972576
-0.273483 -0.183199 0.974187
-0.275097 -0.184197 0.974933
-0.2765 -0.185107 0.974846
-0.277691 -0.18593 0.973937
-0.27863 -0.186648 0.97207
-0.279459 -0.187319 0.969795
-0.280166 -0.187938 0.967084
-0.280831 -0.188537 0.964236
-0.281555 -0.189159 0.961644
-0.282541 -0.18989 0.960061
-0.283666 -0.190679 0.959011
-0.284969 -0.191543 0.958629
-0.286553 -0.192527 0.959283
-0.288443 -0.193641 0.96105
-0.290536 -0.194844 0.963534
-0.292656 -0.19606 0.966084
-0.294838 -0.197304 0.968829
-0.296946 -0.198518 0.97128
-0.298921 -0.199677 0.973226
-0.300729 -0.200764 0.974556
-0.302477 -0.201827 0.975662
-0.30404 -0.202809 0.976106
-0.305478 -0.203738 0.976102
-0.306791 -0.204611 0.975668
-0.308075 -0.205472 0.975133
-0.309272 -0.206294 0.974301
-0.310493 -0.207127 0.973558
-0.311681 -0.207945 0.972714
-0.312754 -0.20871 0.971481
-0.313816 -0.209471 0.970226
-0.314959 -0.210267 0.969252
-0.31614 -0.21108 0.968414
-0.317302 -0.211883 0.967516
-0.318577 -0.212737 0.966998
-0.319812 -0.213573 0.966351
-0.320986 -0.214381 0.965515
-0.32213 -0.215175 0.964581
-0.32327 -0.215967 0.963648
-0.324434 -0.216769 0.962795
-0.325511 -0.217531 0.96167
-0.326518 -0.218262 0.960331
-0.329856 -0.218258 0.963474
-0.327507 -0.218983 0.958945
-0.331428 -0.219246 0.963916
-0.328522 -0.219715 0.957654
-0.333478 -0.220449 0.965851
-0.329984 -0.220651 0.95778
-0.123933 -0.0891793 0.964111
-0.125156 -0.0900428 0.962833
-0.126392 -0.0909055 0.961717
-0.1276 -0.0917644 0.960357
-0.128832 -0.0926234 0.95925
-0.130039 -0.0934787 0.957943
-0.131222 -0.0943298 0.956433
-0.132307 -0.095168 0.954049
-0.133286 -0.0959906 0.950759
-0.134175 -0.0967972 0.946726
-0.135 -0.0975898 0.942228
-0.135789 -0.0983712 0.93752
-0.136668 -0.0991589 0.933706
-0.137672 -0.0999603 0.931063
-0.138749 -0.10077 0.929094
-0.139902 -0.101589 0.927805
-0.141125 -0.102418 0.927125
-0.142367 -0.10325 0.92661
-0.143614 -0.104082 0.926138
-0.144863 -0.104914 0.925699
-0.146133 -0.10575 0.925428
-0.147402 -0.106585 0.925145
-0.14866 -0.107418 0.924785
-0.149849 -0.108237 0.923903
-0.15105 -0.109058 0.923127
-0.152257 -0.109879 0.922403
-0.153466 -0.1107 0.921714
-0.154722 -0.11153 0.921373
-0.156066 -0.112381 0.921676
-0.157402 -0.11323 0.921908
-0.158761 -0.114085 0.922304
-0.160146 -0.114947 0.922858
-0.161525 -0.115809 0.923368
-0.162884 -0.116666 0.92372
-0.164264 -0.117529 0.924206
-0.165603 -0.118382 0.924397
-0.166954 -0.119239 0.924668
-0.168298 -0.120095 0.924882
-0.169701 -0.120967 0.925474
-0.171121 -0.121844 0.92616
-0.172543 -0.122723 0.926849
-0.173952 -0.123599 0.927434
-0.175345 -0.124471 0.927904
-0.176709 -0.125336 0.928185
-0.178047 -0.126194 0.928291
-0.179384 -0.127052 0.928388
-0.180754 -0.127919 0.928682
-0.182176 -0.128803 0.92928
-0.183623 -0.129695 0.930019
-0.185074 -0.130589 0.930762
-0.186518 -0.131482 0.931445
-0.18791 -0.13236 0.931816
-0.189257 -0.133224 0.931909
-0.190542 -0.134069 0.93165
-0.191808 -0.134908 0.931281
-0.19302 -0.135729 0.930609
-0.194226 -0.136548 0.929916
-0.195449 -0.137372 0.92932
-0.196711 -0.138209 0.92895
-0.197944 -0.139036 0.928421
-0.199202 -0.13987 0.928033
-0.200402 -0.140685 0.927343
-0.201582 -0.141493 0.926549
-0.202818 -0.142319 0.92606
-0.204129 -0.143171 0.925973
-0.205432 -0.14402 0.92584
-0.206817 -0.144898 0.926128
-0.208166 -0.145763 0.926228
-0.209501 -0.146624 0.926251
-0.210802 -0.147473 0.926102
-0.212172 -0.148347 0.926297
-0.213494 -0.149203 0.926244
-0.214833 -0.150066 0.926279
-0.216094 -0.150901 0.925923
-0.217342 -0.151731 0.925509
-0.218568 -0.152552 0.924993
-0.219798 -0.153375 0.924499
-0.221037 -0.154201 0.924053
-0.222332 -0.155048 0.923872
-0.223605 -0.155886 0.923591
-0.224841 -0.15671 0.923141
-0.226071 -0.157532 0.922665
-0.22734 -0.158369 0.922371
-0.22869 -0.159236 0.922449
-0.230052 -0.160108 0.922582
-0.231639 -0.161066 0.923722
-0.233321 -0.162063 0.925274
-0.235152 -0.163119 0.927462
-0.236937 -0.164159 0.929425
-0.238933 -0.165283 0.932281
-0.240807 -0.166361 0.934566
-0.242712 -0.167453 0.936953
-0.244651 -0.168561 0.939452
-0.246668 -0.169702 0.942252
-0.248615 -0.170817 0.94472
-0.250521 -0.171917 0.946979
-0.25242 -0.173017 0.949177
-0.254305 -0.174112 0.951289
-0.256216 -0.17522 0.953477
-0.25817 -0.176347 0.955818
-0.26025 -0.177527 0.958642
-0.262413 -0.178743 0.961769
-0.264578 -0.179962 0.964863
-0.266785 -0.181201 0.968084
-0.268926 -0.182415 0.971003
-0.270891 -0.183559 0.973191
-0.272642 -0.184614 0.974493
-0.274225 -0.1856 0.975123
-0.275573 -0.186488 0.974825
-0.27671 -0.187287 0.973702
-0.277567 -0.187967 0.971507
-0.278311 -0.188598 0.968907
-0.278915 -0.189167 0.965791
-0.279503 -0.189728 0.962656
-0.280172 -0.190322 0.959857
-0.281122 -0.191034 0.95814
-0.282163 -0.191785 0.956784
-0.283401 -0.19262 0.956172
-0.284863 -0.193551 0.956392
-0.286576 -0.194592 0.957533
-0.288506 -0.195728 0.959449
-0.290515 -0.196899 0.961632
-0.292644 -0.198124 0.964222
-0.294805 -0.199365 0.966894
-0.296869 -0.200566 0.969191
-0.298769 -0.201695 0.970877
-0.300627 -0.202807 0.972397
-0.302277 -0.203829 0.973165
-0.303777 -0.204784 0.973396
-0.305181 -0.205696 0.973289
-0.306524 -0.206582 0.972973
-0.307782 -0.20743 0.972361
-0.309061 -0.208287 0.971831
-0.310281 -0.209117 0.971096
-0.31141 -0.209906 0.970062
-0.312499 -0.210676 0.968902
-0.313638 -0.211468 0.967916
-0.314787 -0.212265 0.966976
-0.315946 -0.213065 0.966071
-0.317188 -0.213903 0.965454
-0.318419 -0.214736 0.964803
-0.319592 -0.215541 0.963963
-0.320702 -0.216318 0.96293
-0.321808 -0.217093 0.96189
-0.322942 -0.217879 0.960949
-0.32402 -0.21864 0.959834
-0.325036 -0.219371 0.958527
-0.326064 -0.220108 0.957273
-0.327117 -0.220855 0.956108
-0.328084 -0.221562 0.954679
-0.332027 -0.221855 0.959719
-0.329512 -0.222482 0.954712
-0.334235 -0.223134 0.962144
-0.331056 -0.223457 0.955101
-0.12419 -0.0913809 0.961919
-0.125445 -0.092243 0.961003
-0.126681 -0.0931021 0.959911
-0.127922 -0.0939603 0.958899
-0.129132 -0.0948139 0.957615
-0.130307 -0.0956617 0.956026
-0.131383 -0.096495 0.953545
-0.132363 -0.0973124 0.950238
-0.133272 -0.0981155 0.946375
-0.134103 -0.0989019 0.941898
-0.134907 -0.0996781 0.937285
-0.135796 -0.100462 0.933541
-0.136782 -0.101256 0.930719
-0.13784 -0.102059 0.928574
-0.138994 -0.102876 0.927294
-0.140228 -0.103706 0.926709
-0.141464 -0.104535 0.926144
-0.14271 -0.105367 0.925681
-0.143958 -0.106198 0.925232
-0.145226 -0.107033 0.924945
-0.146482 -0.107865 0.924575
-0.14775 -0.1087 0.924296
-0.148949 -0.109519 0.92349
-0.150128 -0.110334 0.922544
-0.151308 -0.111147 0.921629
-0.152493 -0.111961 0.920759
-0.153709 -0.112782 0.920138
-0.155014 -0.113623 0.920172
-0.156322 -0.114465 0.920223
-0.157638 -0.115309 0.920332
-0.15898 -0.116161 0.920609
-0.160338 -0.117016 0.920996
-0.16168 -0.117869 0.921257
-0.163056 -0.118731 0.921744
-0.164391 -0.119582 0.921944
-0.165749 -0.12044 0.922287
-0.167102 -0.121298 0.922583
-0.168515 -0.122172 0.923272
-0.169947 -0.123054 0.924069
-0.171395 -0.12394 0.924945
-0.1728 -0.124815 0.925529
-0.174189 -0.125686 0.925997
-0.175551 -0.12655 0.926285
-0.176887 -0.127407 0.926398
-0.178222 -0.128264 0.926506
-0.179613 -0.129138 0.926943
-0.181059 -0.130029 0.927708
-0.182565 -0.13094 0.92882
-0.184095 -0.13186 0.930049
-0.185635 -0.132785 0.931316
-0.187111 -0.13369 0.932184
-0.18854 -0.134581 0.932755
-0.189864 -0.135439 0.932711
-0.191165 -0.13629 0.932532
-0.192393 -0.137116 0.931944
-0.193617 -0.137941 0.931336
-0.194843 -0.138766 0.930747
-0.196126 -0.139609 0.930478
-0.197363 -0.140437 0.929958
-0.198625 -0.141274 0.929579
-0.199843 -0.142095 0.928968
-0.201043 -0.142909 0.92827
-0.202299 -0.143743 0.927874
-0.203618 -0.144598 0.927811
-0.204945 -0.145457 0.927792
-0.206316 -0.146331 0.927998
-0.207647 -0.147191 0.927993
-0.20896 -0.148045 0.927891
-0.210257 -0.148893 0.927709
-0.21161 -0.149762 0.927807
-0.212929 -0.150618 0.927734
-0.214269 -0.151482 0.927763
-0.215533 -0.152319 0.927413
-0.21677 -0.153145 0.926934
-0.217981 -0.15396 0.926331
-0.219215 -0.154784 0.925843
-0.220456 -0.155611 0.925396
-0.221735 -0.156452 0.925138
-0.223011 -0.157292 0.924858
-0.224262 -0.158122 0.924469
-0.225494 -0.158945 0.923991
-0.226766 -0.159783 0.923704
-0.228181 -0.160676 0.924071
-0.229629 -0.161583 0.924588
-0.231307 -0.162581 0.926134
-0.233088 -0.16362 0.928122
-0.235016 -0.16472 0.930743
-0.236814 -0.16577 0.932742
-0.238802 -0.166898 0.935556
-0.240605 -0.167953 0.937522
-0.24246 -0.169031 0.939682
-0.244355 -0.170127 0.941991
-0.246286 -0.171239 0.944416
-0.248128 -0.172317 0.946427
-0.249999 -0.173408 0.948541
-0.251854 -0.174494 0.950554
-0.253702 -0.175579 0.952513
-0.255662 -0.176712 0.954906
-0.257663 -0.177863 0.957441
-0.25972 -0.17904 0.960173
-0.261834 -0.180242 0.963105
-0.263946 -0.181446 0.965989
-0.266101 -0.18267 0.969009
-0.268169 -0.183859 0.971643
-0.27008 -0.184984 0.973615
-0.271799 -0.186028 0.974796
-0.273328 -0.186993 0.975215
-0.274599 -0.187848 0.974609
-0.275678 -0.18862 0.973262
-0.276476 -0.189271 0.970838
-0.277117 -0.189853 0.967831
-0.27764 -0.190382 0.964404
-0.278194 -0.190922 0.961133
-0.278812 -0.191488 0.958139
-0.279687 -0.192164 0.956147
-0.280673 -0.192888 0.954591
-0.281852 -0.193696 0.95377
-0.283202 -0.194577 0.953591
-0.284801 -0.19557 0.954333
-0.286602 -0.196651 0.955801
-0.288507 -0.19778 0.95763
-0.290556 -0.198974 0.95996
-0.292674 -0.2002 0.962513
-0.294751 -0.201409 0.964891
-0.296731 -0.202577 0.966893
-0.298694 -0.203738 0.968812
-0.30046 -0.204812 0.970012
-0.302075 -0.205819 0.970666
-0.303569 -0.206772 0.970891
-0.304971 -0.207683 0.970789
-0.306286 -0.208555 0.970388
-0.307599 -0.209426 0.969978
-0.308823 -0.210256 0.96927
-0.309977 -0.211055 0.968329
-0.311086 -0.211832 0.967242
-0.31222 -0.21262 0.966247
-0.313367 -0.213413 0.965303
-0.314526 -0.214212 0.964409
-0.315738 -0.215035 0.963697
-0.316972 -0.215867 0.963062
-0.318113 -0.216657 0.962129
-0.319196 -0.217419 0.961012
-0.3203 -0.21819 0.959969
-0.321454 -0.218984 0.959102
-0.322533 -0.219743 0.957994
-0.32361 -0.2205 0.956894
-0.324678 -0.221253 0.955771
-0.32576 -0.222011 0.954705
-0.32676 -0.222731 0.953382
-0.327697 -0.22342 0.951877
-0.328648 -0.224115 0.950425
-0.332637 -0.224449 0.955603
-0.329647 -0.224832 0.949137
-0.334192 -0.225429 0.956014
-0.330595 -0.225525 0.9477
-0.123162 -0.0927101 0.96035
-0.124457 -0.093574 0.959862
-0.125722 -0.0944338 0.959065
-0.126975 -0.0952915 0.958179
-0.128205 -0.0961453 0.957088
-0.129389 -0.0969916 0.955581
-0.130458 -0.0978201 0.953023
-0.131431 -0.0986312 0.949634
-0.132346 -0.0994287 0.945796
-0.133171 -0.100207 0.941241
-0.133967 -0.100974 0.936535
-0.134867 -0.101753 0.932858
-0.135851 -0.102543 0.930006
-0.136897 -0.10334 0.92776
-0.138061 -0.104156 0.926566
-0.139307 -0.104987 0.926088
-0.140545 -0.105816 0.925548
-0.141804 -0.106649 0.925192
-0.143062 -0.107482 0.924828
-0.144328 -0.108316 0.924534
-0.145581 -0.109147 0.924143
-0.146848 -0.109981 0.923858
-0.148036 -0.110797 0.922969
-0.149204 -0.111607 0.921939
-0.150373 -0.112416 0.92094
-0.151544 -0.113225 0.919977
-0.152736 -0.114038 0.919176
-0.154012 -0.114872 0.919016
-0.155289 -0.115706 0.918855
-0.156563 -0.116539 0.918673
-0.157848 -0.117375 0.918571
-0.159161 -0.118219 0.918665
-0.160481 -0.119065 0.918805
-0.161829 -0.119919 0.919128
-0.163137 -0.120761 0.919163
-0.164501 -0.121621 0.919581
-0.165873 -0.122483 0.920042
-0.167297 -0.123361 0.920832
-0.168757 -0.124251 0.92184
-0.170242 -0.125149 0.922986
-0.171658 -0.126027 0.923664
-0.173058 -0.126902 0.924227
-0.174435 -0.127771 0.924627
-0.175771 -0.128627 0.924762
-0.177105 -0.129483 0.924873
-0.178478 -0.130351 0.925223
-0.179889 -0.131233 0.925795
-0.181388 -0.132143 0.926887
-0.182975 -0.133083 0.928489
-0.1846 -0.134037 0.930283
-0.186177 -0.134977 0.931757
-0.187719 -0.135907 0.933001
-0.18912 -0.136791 0.933404
-0.190454 -0.137653 0.933412
-0.191704 -0.138486 0.932932
-0.192946 -0.139316 0.932418
-0.194175 -0.140142 0.931835
-0.195459 -0.140987 0.931566
-0.196716 -0.141822 0.931147
-0.197998 -0.142665 0.93087
-0.199239 -0.143494 0.930368
-0.200462 -0.144316 0.929779
-0.20174 -0.145158 0.92949
-0.203062 -0.146015 0.929434
-0.20439 -0.146875 0.929406
-0.205745 -0.147745 0.929519
-0.207076 -0.148606 0.929506
-0.208371 -0.149454 0.929301
-0.209648 -0.150295 0.929005
-0.210996 -0.151163 0.929071
-0.212332 -0.152026 0.929076
-0.213672 -0.152891 0.929097
-0.214957 -0.153736 0.928839
-0.216216 -0.15457 0.928453
-0.217432 -0.155388 0.927866
-0.218669 -0.156213 0.927385
-0.219914 -0.157041 0.926942
-0.221196 -0.157884 0.926683
-0.222473 -0.158724 0.926404
-0.223726 -0.159555 0.926011
-0.224957 -0.160378 0.925517
-0.226305 -0.161246 0.925572
-0.227809 -0.162177 0.926345
-0.229356 -0.163125 0.927299
-0.231133 -0.164167 0.929289
-0.233018 -0.165253 0.931734
-0.234929 -0.166353 0.934266
-0.236685 -0.167391 0.936071
-0.238543 -0.168472 0.938296
-0.240277 -0.169504 0.939944
-0.242027 -0.170544 0.941644
-0.243823 -0.171604 0.943516
-0.245671 -0.172687 0.94559
-0.247516 -0.17377 0.947616
-0.249362 -0.174856 0.949623
-0.251221 -0.175948 0.951656
-0.253102 -0.177051 0.953755
-0.25511 -0.17821 0.956356
-0.257111 -0.179366 0.95889
-0.259142 -0.180538 0.961519
-0.261208 -0.181726 0.964259
-0.263291 -0.182924 0.967029
-0.265395 -0.184132 0.969849
-0.267407 -0.185302 0.972262
-0.269264 -0.186408 0.974023
-0.270952 -0.187442 0.975085
-0.272428 -0.188385 0.975291
-0.273622 -0.189205 0.974382
-0.274644 -0.189951 0.972811
-0.275387 -0.190573 0.970166
-0.275947 -0.191114 0.966837
-0.276415 -0.191612 0.963196
-0.276915 -0.192122 0.959713
-0.277482 -0.19266 0.956523
-0.278308 -0.193311 0.954349
-0.279223 -0.194 0.952532
-0.280349 -0.194782 0.951523
-0.281637 -0.195636 0.951126
-0.283175 -0.196601 0.951655
-0.284837 -0.197623 0.952635
-0.286668 -0.198722 0.954221
-0.288614 -0.199872 0.956205
-0.29068 -0.201079 0.958601
-0.292717 -0.202275 0.960862
-0.294759 -0.203473 0.963117
-0.296797 -0.204671 0.965332
-0.298647 -0.205785 0.96685
-0.300324 -0.206821 0.967745
-0.301903 -0.207813 0.968284
-0.30336 -0.208749 0.96839
-0.304705 -0.209633 0.968103
-0.306047 -0.210517 0.967809
-0.307299 -0.211359 0.967203
-0.308482 -0.212168 0.966368
-0.309594 -0.212944 0.965298
-0.310731 -0.213732 0.964322
-0.311873 -0.214521 0.963373
-0.313058 -0.21533 0.962572
-0.314271 -0.216151 0.96187
-0.315507 -0.216984 0.961254
-0.316652 -0.217773 0.960336
-0.317732 -0.218531 0.959216
-0.318798 -0.219283 0.95806
-0.319923 -0.220061 0.957103
-0.321024 -0.220828 0.956076
-0.322132 -0.221597 0.95508
-0.323231 -0.222362 0.954065
-0.324346 -0.223135 0.953105
-0.325402 -0.223878 0.951968
-0.326431 -0.224609 0.950755
-0.327492 -0.225353 0.94965
-0.328578 -0.22611 0.948635
-0.329632 -0.226851 0.947529
-0.332271 -0.226562 0.94852
-0.330719 -0.227607 0.94653
-0.334065 -0.227656 0.949695
-0.331771 -0.228346 0.945433
-0.335878 -0.228759 0.950918
-0.332847 -0.229096 0.944418
-0.33767 -0.229853 0.95206
-0.333885 -0.229827 0.943295
-0.122128 -0.0940336 0.958693
-0.123452 -0.094899 0.958513
-0.124764 -0.0957629 0.958215
-0.126019 -0.0966191 0.957353
-0.127259 -0.0974721 0.956363
-0.128444 -0.0983159 0.954861
-0.129512 -0.09914 0.952289
-0.13046 -0.0999413 0.948642
-0.131386 -0.100734 0.944894
-0.132207 -0.101504 0.940273
-0.133018 -0.102266 0.935681
-0.133919 -0.103039 0.932003
-0.134923 -0.103828 0.929317
-0.135949 -0.104617 0.926886
-0.13711 -0.10543 0.925669
-0.138345 -0.106258 0.925104
-0.139583 -0.107086 0.924571
-0.140843 -0.107918 0.924238
-0.142109 -0.108752 0.923954
-0.143374 -0.109585 0.923662
-0.144628 -0.110415 0.923282
-0.145894 -0.111248 0.923003
-0.147082 -0.112062 0.922118
-0.148249 -0.11287 0.921088
-0.149406 -0.113674 0.920002
-0.150563 -0.114478 0.918936
-0.15174 -0.115286 0.918034
-0.152978 -0.116108 0.917598
-0.154224 -0.116933 0.917233
-0.155467 -0.117757 0.916846
-0.156696 -0.118577 0.916359
-0.157953 -0.119404 0.91608
-0.159239 -0.120239 0.916011
-0.160544 -0.12108 0.916065
-0.16182 -0.121913 0.915921
-0.163167 -0.122767 0.916258
-0.164557 -0.123634 0.916875
-0.166031 -0.124527 0.918036
-0.167531 -0.125429 0.919342
-0.169042 -0.126336 0.920691
-0.170493 -0.127226 0.921624
-0.1719 -0.128103 0.922259
-0.17326 -0.128966 0.92257
-0.174597 -0.129822 0.922733
-0.175943 -0.130682 0.922945
-0.177313 -0.131549 0.923294
-0.178688 -0.132419 0.923671
-0.180152 -0.133319 0.924575
-0.181733 -0.134259 0.926172
-0.183433 -0.13524 0.928441
-0.18511 -0.136217 0.930541
-0.186784 -0.137193 0.932575
-0.188312 -0.138122 0.933726
-0.18974 -0.139017 0.934275
-0.191022 -0.139862 0.933977
-0.192285 -0.140699 0.93357
-0.193518 -0.141526 0.932999
-0.194803 -0.142371 0.932724
-0.196059 -0.143206 0.93229
-0.197343 -0.14405 0.932015
-0.198608 -0.144888 0.931637
-0.199856 -0.145719 0.931167
-0.201154 -0.146568 0.930976
-0.202491 -0.147432 0.930989
-0.203832 -0.148297 0.931021
-0.205187 -0.149169 0.931128
-0.206522 -0.150032 0.931117
-0.20782 -0.150882 0.930919
-0.209102 -0.151725 0.930636
-0.210418 -0.152582 0.930533
-0.21174 -0.15344 0.930451
-0.21308 -0.154307 0.930466
-0.214368 -0.155152 0.930215
-0.215647 -0.155995 0.929921
-0.216868 -0.156814 0.929339
-0.218122 -0.157646 0.928928
-0.219385 -0.158482 0.928565
-0.220653 -0.159319 0.928231
-0.221934 -0.160162 0.927957
-0.223224 -0.161008 0.927729
-0.224479 -0.16184 0.927334
-0.225913 -0.162744 0.927779
-0.227528 -0.163722 0.929053
-0.229152 -0.164705 0.93035
-0.23098 -0.165773 0.932565
-0.232929 -0.166891 0.935293
-0.234752 -0.167961 0.937415
-0.236437 -0.168974 0.938887
-0.238224 -0.170031 0.940793
-0.239895 -0.171041 0.942153
-0.241566 -0.172052 0.943498
-0.243298 -0.17309 0.945091
-0.245077 -0.174148 0.94686
-0.246872 -0.175215 0.948674
-0.248696 -0.176296 0.950589
-0.250541 -0.177386 0.952564
-0.252453 -0.178507 0.954797
-0.254487 -0.179682 0.957514
-0.256487 -0.180844 0.960052
-0.258494 -0.182011 0.962587
-0.260556 -0.183203 0.965313
-0.262635 -0.184404 0.968071
-0.264684 -0.185594 0.970675
-0.266642 -0.186747 0.972876
-0.268467 -0.187842 0.974508
-0.270101 -0.188855 0.97536
-0.271526 -0.189776 0.975365
-0.272692 -0.190583 0.974344
-0.273684 -0.191312 0.972645
-0.274376 -0.191907 0.969792
-0.274838 -0.192398 0.966075
-0.275204 -0.192844 0.962031
-0.275623 -0.193312 0.95823
-0.276111 -0.193808 0.954743
-0.27689 -0.194433 0.952392
-0.277778 -0.195107 0.950476
-0.278896 -0.195883 0.949445
-0.280151 -0.196721 0.948935
-0.28163 -0.19766 0.949262
-0.283231 -0.198655 0.950033
-0.284998 -0.199727 0.951405
-0.286852 -0.200839 0.953075
-0.288846 -0.202017 0.955237
-0.290835 -0.203194 0.957356
-0.29289 -0.204402 0.959684
-0.294979 -0.205628 0.962105
-0.296909 -0.206781 0.963935
-0.298672 -0.207858 0.965151
-0.300331 -0.208887 0.96599
-0.301815 -0.209836 0.966205
-0.303211 -0.210743 0.966106
-0.30458 -0.211639 0.965915
-0.305862 -0.212493 0.965422
-0.307079 -0.213317 0.964711
-0.308223 -0.214106 0.96376
-0.309365 -0.214894 0.962804
-0.310513 -0.215684 0.961877
-0.311724 -0.216504 0.961172
-0.312936 -0.217323 0.960477
-0.31417 -0.218153 0.959853
-0.315311 -0.218939 0.958933
-0.316387 -0.219693 0.957804
-0.317424 -0.220428 0.956554
-0.318547 -0.221204 0.955595
-0.319648 -0.221969 0.954575
-0.320758 -0.222737 0.953594
-0.321884 -0.223513 0.952665
-0.323031 -0.224299 0.951817
-0.32409 -0.225042 0.950694
-0.325187 -0.225803 0.949697
-0.326346 -0.226593 0.948905
-0.327507 -0.227384 0.948124
-0.328635 -0.228159 0.947246
-0.329813 -0.228958 0.946532
-0.330925 -0.229724 0.945615
-0.332003 -0.230473 0.944604
-0.333045 -0.231205 0.943493
-0.33642 -0.231281 0.946725
-0.334864 -0.232316 0.944751
-0.339814 -0.233153 0.952726
-0.337405 -0.233781 0.94819
-0.121184 -0.0953632 0.957944
-0.122505 -0.0962275 0.957746
-0.123825 -0.0970918 0.95754
-0.125073 -0.0979453 0.956612
-0.126313 -0.0987966 0.955628
-0.127498 -0.0996376 0.954124
-0.128566 -0.100457 0.95154
-0.129487 -0.101248 0.947618
-0.130404 -0.102033 0.943764
-0.131224 -0.102795 0.939115
-0.132042 -0.10355 0.934561
-0.132941 -0.104316 0.930853
-0.13396 -0.105103 0.928296
-0.134986 -0.105888 0.925857
-0.136134 -0.106696 0.924536
-0.137354 -0.107519 0.923861
-0.138579 -0.108343 0.923234
-0.139836 -0.109173 0.922886
-0.141113 -0.110008 0.922701
-0.142388 -0.110843 0.922512
-0.143654 -0.111675 0.922241
-0.14493 -0.11251 0.922061
-0.146129 -0.113325 0.921266
-0.147295 -0.11413 0.920228
-0.148449 -0.114932 0.919125
-0.149595 -0.11573 0.917977
-0.150747 -0.11653 0.916895
-0.151957 -0.117344 0.916266
-0.153165 -0.118157 0.915626
-0.154367 -0.118968 0.914956
-0.155555 -0.119774 0.914201
-0.156769 -0.120587 0.913637
-0.15801 -0.121408 0.913273
-0.159281 -0.122238 0.913118
-0.160514 -0.123056 0.912704
-0.161818 -0.123896 0.912781
-0.163177 -0.124753 0.91323
-0.164682 -0.125656 0.914647
-0.166221 -0.126572 0.916256
-0.167787 -0.127497 0.918009
-0.1693 -0.128408 0.919378
-0.170764 -0.129304 0.920409
-0.172105 -0.130161 0.920621
-0.173437 -0.131015 0.920773
-0.17478 -0.131873 0.920985
-0.17612 -0.132731 0.921171
-0.177447 -0.133584 0.92127
-0.178867 -0.13447 0.921935
-0.180391 -0.135392 0.923219
-0.182056 -0.136365 0.925324
-0.183825 -0.137375 0.928007
-0.185631 -0.138402 0.930859
-0.18731 -0.139386 0.93292
-0.188885 -0.140334 0.934331
-0.190307 -0.141228 0.934836
-0.191605 -0.142079 0.934624
-0.192855 -0.142912 0.934139
-0.194138 -0.143757 0.933847
-0.195409 -0.144596 0.933484
-0.196695 -0.145442 0.933208
-0.197995 -0.146293 0.933017
-0.199281 -0.147138 0.932741
-0.200583 -0.14799 0.932558
-0.201903 -0.148848 0.93247
-0.203241 -0.149713 0.932476
-0.204581 -0.150579 0.93249
-0.205921 -0.151446 0.932503
-0.207228 -0.152299 0.932339
-0.208531 -0.153151 0.932157
-0.209835 -0.154004 0.931975
-0.211141 -0.154857 0.931808
-0.212452 -0.155712 0.931662
-0.213757 -0.156565 0.931492
-0.21504 -0.157409 0.931205
-0.216278 -0.158235 0.930703
-0.217554 -0.159076 0.930387
-0.218835 -0.159919 0.930102
-0.220104 -0.160757 0.929755
-0.221443 -0.161624 0.929749
-0.2228 -0.162498 0.92983
-0.224143 -0.163366 0.929835
-0.225689 -0.164319 0.930793
-0.227412 -0.165345 0.932559
-0.229114 -0.166365 0.934199
-0.230926 -0.167432 0.936323
-0.232811 -0.16853 0.938748
-0.234523 -0.169558 0.940354
-0.236121 -0.170539 0.941421
-0.237786 -0.171549 0.942775
-0.239415 -0.172544 0.943946
-0.241063 -0.173549 0.945181
-0.242747 -0.174569 0.946559
-0.244474 -0.17561 0.948099
-0.246245 -0.17667 0.949815
-0.248072 -0.177757 0.951742
-0.249904 -0.178846 0.953669
-0.251816 -0.179972 0.955906
-0.253849 -0.181151 0.958618
-0.255847 -0.182318 0.961153
-0.257836 -0.183482 0.963615
-0.259897 -0.18468 0.966346
-0.261974 -0.185886 0.969104
-0.263996 -0.18707 0.9716
-0.265926 -0.188215 0.973689
-0.267721 -0.189301 0.975208
-0.269306 -0.190293 0.975859
-0.270704 -0.191203 0.975755
-0.271843 -0.191996 0.97462
-0.272785 -0.1927 0.972719
-0.273403 -0.193257 0.969568
-0.273788 -0.193706 0.965541
-0.274076 -0.194109 0.961179
-0.274392 -0.194523 0.956976
-0.274825 -0.194987 0.953269
-0.275548 -0.195583 0.950707
-0.276407 -0.196239 0.948684
-0.27747 -0.196988 0.947456
-0.278693 -0.197809 0.946833
-0.280111 -0.198721 0.946951
-0.281654 -0.199691 0.947524
-0.283334 -0.200724 0.948596
-0.285096 -0.201797 0.94995
-0.286973 -0.202924 0.951709
-0.288923 -0.204085 0.953708
-0.290997 -0.205307 0.956138
-0.293164 -0.206572 0.958868
-0.295204 -0.20778 0.961114
-0.297098 -0.208921 0.962816
-0.298808 -0.209976 0.963854
-0.300317 -0.210936 0.964166
-0.301711 -0.211843 0.964076
-0.303077 -0.212736 0.963885
-0.304387 -0.213602 0.963498
-0.305661 -0.214451 0.962993
-0.306871 -0.21527 0.962271
-0.308047 -0.216073 0.961439
-0.309221 -0.216873 0.960605
-0.310428 -0.21769 0.959893
-0.311639 -0.218507 0.959194
-0.312846 -0.219323 0.958489
-0.313984 -0.220106 0.957563
-0.31508 -0.220868 0.956505
-0.316147 -0.221615 0.955357
-0.317244 -0.222376 0.954319
-0.31835 -0.223142 0.953318
-0.319485 -0.22392 0.952418
-0.320613 -0.224696 0.951505
-0.321764 -0.225482 0.950672
-0.32286 -0.226241 0.949669
-0.324019 -0.22703 0.94887
-0.325237 -0.227848 0.948269
-0.326459 -0.228668 0.947682
-0.32765 -0.229472 0.947001
-0.328889 -0.230299 0.946478
-0.330039 -0.231083 0.945679
-0.331123 -0.231834 0.944681
-0.332196 -0.232579 0.94366
-0.33336 -0.233369 0.942924
-0.3351 -0.234443 0.943944
-0.340022 -0.235286 0.951826
-0.336895 -0.235546 0.945122
-0.118964 -0.0958323 0.957848
-0.120271 -0.0966944 0.957503
-0.121581 -0.0975568 0.957199
-0.122901 -0.0984205 0.957001
-0.124139 -0.0992708 0.955973
-0.12537 -0.100119 0.954902
-0.126534 -0.100954 0.953197
-0.127585 -0.101765 0.95043
-0.128466 -0.102542 0.946119
-0.12937 -0.103317 0.942135
-0.130199 -0.104072 0.937548
-0.131042 -0.104825 0.933207
-0.13196 -0.105589 0.929659
-0.133015 -0.106378 0.927417
-0.134042 -0.107159 0.924986
-0.135169 -0.10796 0.92348
-0.136354 -0.108774 0.92251
-0.137554 -0.10959 0.921684
-0.138786 -0.110413 0.921152
-0.140071 -0.111249 0.921061
-0.141368 -0.112088 0.921065
-0.142657 -0.112925 0.921
-0.143955 -0.113765 0.92101
-0.145174 -0.114584 0.920386
-0.14634 -0.115387 0.919349
-0.147495 -0.116187 0.918254
-0.148628 -0.11698 0.91701
-0.149766 -0.117773 0.915832
-0.150962 -0.118582 0.915104
-0.152144 -0.119385 0.914283
-0.153309 -0.120184 0.913356
-0.154471 -0.120981 0.912422
-0.155633 -0.121777 0.911499
-0.156807 -0.122576 0.910683
-0.158019 -0.123385 0.910139
-0.159206 -0.124187 0.909437
-0.160465 -0.125012 0.909236
-0.161792 -0.125858 0.909504
-0.163263 -0.126751 0.91074
-0.164847 -0.127683 0.912701
-0.166466 -0.128628 0.914854
-0.168023 -0.129554 0.916552
-0.169538 -0.130468 0.917945
-0.170946 -0.131347 0.918615
-0.172272 -0.132199 0.918751
-0.173611 -0.133056 0.91896
-0.17496 -0.133916 0.919224
-0.17628 -0.134767 0.919304
-0.177647 -0.135634 0.919665
-0.179111 -0.136536 0.920607
-0.180698 -0.137484 0.922276
-0.182401 -0.138475 0.924609
-0.184286 -0.139534 0.927979
-0.186102 -0.14057 0.930885
-0.18782 -0.141573 0.93316
-0.18941 -0.142531 0.934652
-0.190861 -0.143438 0.935319
-0.192129 -0.144278 0.934934
-0.193412 -0.145122 0.934628
-0.194696 -0.145967 0.934336
-0.195982 -0.146813 0.934057
