ply
format ascii 1.0
element vertex 1462
property float x
property float y
property float z
end_header
-0.00531699 -0.0503067 0.0698248
-0.00538138 -0.0505754 0.0698637
-0.00544958 -0.0508749 0.0699665
-0.0055195 -0.0511879 0.0700963
-0.00559394 -0.051535 0.0702956
-0.00566893 -0.0518871 0.0705028
-0.00574665 -0.0522587 0.0707484
-0.00582776 -0.0526569 0.0710461
-0.00590564 -0.0530275 0.0712838
-0.00598334 -0.0533952 0.0715128
-0.00743354 -0.0578739 0.0658132
-0.00748678 -0.0580572 0.0656815
-0.00753856 -0.0582301 0.0655312
-0.00758868 -0.0583906 0.0653594
-0.00763146 -0.0584996 0.0650953
-0.00767383 -0.0586067 0.064829
-0.00771664 -0.0587176 0.0645709
-0.00776059 -0.0588366 0.0643285
-0.00780497 -0.0589589 0.0640931
-0.00785222 -0.0591019 0.0638956
-0.00790403 -0.0592777 0.0637563
-0.00795702 -0.059461 0.0636311
-0.00801252 -0.0596617 0.0635364
-0.00807007 -0.0598773 0.0634676
-0.00813042 -0.0601125 0.0634328
-0.00818613 -0.0603139 0.0633392
-0.00824027 -0.0605057 0.0632292
-0.00829395 -0.0606946 0.0631142
-0.00834955 -0.0608972 0.0630231
-0.00840498 -0.0610979 0.0629287
-0.00846488 -0.0613283 0.0628848
-0.0085255 -0.0615646 0.0628505
-0.00858715 -0.0618074 0.0628271
-0.00865003 -0.062058 0.0628163
-0.00871334 -0.0623118 0.0628101
-0.00878003 -0.0625872 0.0628394
-0.00884884 -0.0628776 0.0628927
-0.00913393 -0.0630767 0.0629096
-0.00891487 -0.063148 0.0629121
-0.00931005 -0.0640642 0.0641126
-0.00897856 -0.063403 0.0629052
-5.95699e-05 -0.0375834 0.100464
-0.000121428 -0.0377103 0.0999686
-0.000182463 -0.0378316 0.0994586
-0.000244479 -0.0379792 0.0990406
-0.000306967 -0.0381404 0.0986709
-0.000370328 -0.0383252 0.0983813
-0.000434753 -0.0385329 0.0981686
-0.000499305 -0.0387462 0.0979749
-0.000563734 -0.038957 0.0977741
-0.000628588 -0.0391759 0.0976009
-0.000693357 -0.0393966 0.0974336
-0.000644962 -0.0342222 0.0772177
-0.000700944 -0.034407 0.0770511
-0.000755356 -0.0345693 0.0768165
-0.000808008 -0.034702 0.0764939
-0.000858563 -0.0348077 0.0760917
-0.000908912 -0.0349114 0.0756872
-0.000958794 -0.035012 0.0752768
-0.00100889 -0.0351175 0.0748843
-0.00106024 -0.0352442 0.0745578
-0.00111101 -0.0353661 0.0742199
-0.00116278 -0.0355059 0.0739371
-0.0012152 -0.0356558 0.0736855
-0.00126924 -0.0358293 0.0735042
-0.00132395 -0.0360131 0.0733536
-0.00137969 -0.0362108 0.0732435
-0.00143526 -0.0364084 0.0731334
-0.00149083 -0.0366055 0.0730221
-0.00154602 -0.0367974 0.0728964
-0.00160035 -0.0369796 0.0727438
-0.00165499 -0.0371647 0.0726
-0.00170996 -0.0373547 0.0724706
-0.00176503 -0.0375463 0.072346
-0.00182034 -0.0377434 0.0722366
-0.00187611 -0.0379445 0.0721386
-0.00193101 -0.0381355 0.0720136
-0.00198552 -0.0383211 0.0718739
-0.00204029 -0.0385103 0.0717447
-0.00209382 -0.0386868 0.0715817
-0.00214742 -0.038863 0.0714187
-0.00220171 -0.0390473 0.0712782
-0.002255 -0.0392223 0.0711134
-0.00230825 -0.0393973 0.0709496
-0.0023637 -0.0395956 0.0708476
-0.00241822 -0.0397862 0.0707255
-0.00247293 -0.0399773 0.0706052
-0.00252823 -0.0401762 0.0705052
-0.00258353 -0.0403749 0.0704051
-0.00263808 -0.0405651 0.0702833
-0.00269392 -0.04077 0.0701991
-0.00274977 -0.0409748 0.0701149
-0.00280561 -0.0411796 0.0700307
-0.00286096 -0.0413798 0.0699347
-0.00291675 -0.0415843 0.0698497
-0.00297315 -0.0417937 0.0697769
-0.00303043 -0.0420142 0.0697314
-0.00308799 -0.0422365 0.06969
-0.00314368 -0.0424391 0.0695999
-0.00319837 -0.0426329 0.0694883
-0.00325234 -0.0428186 0.0693576
-0.00330592 -0.0430002 0.0692172
-0.00335965 -0.0431847 0.0690842
-0.00341815 -0.0434156 0.0690629
-0.00347789 -0.0436589 0.0690707
-0.00353798 -0.0439048 0.0690837
-0.00359862 -0.0441553 0.0691065
-0.00366022 -0.0444149 0.0691499
-0.00372043 -0.0446597 0.0691575
-0.00378067 -0.044906 0.0691679
-0.00384161 -0.0451576 0.0691896
-0.00390211 -0.0454043 0.069199
-0.00396276 -0.0456516 0.069209
-0.00402342 -0.0458983 0.0692169
-0.00408344 -0.0461402 0.0692128
-0.00414359 -0.046382 0.069208
-0.00420325 -0.0466188 0.069191
-0.0042629 -0.0468549 0.069172
-0.00432322 -0.047097 0.0691658
-0.00438367 -0.0473403 0.0691617
-0.0044457 -0.0475959 0.069184
-0.0045095 -0.0478686 0.0692432
-0.00457181 -0.0481258 0.0692672
-0.00463599 -0.0484 0.0693275
-0.00470022 -0.0486744 0.069387
-0.00476562 -0.0489568 0.0694625
-0.00483204 -0.0492486 0.0695569
-0.00489866 -0.0495408 0.0696509
-0.00496385 -0.0498207 0.0697168
-0.00502879 -0.0500969 0.0697736
-0.00509399 -0.0503743 0.0698319
-0.00515731 -0.0506363 0.0698561
-0.0052245 -0.05093 0.0699463
-0.00529486 -0.0512492 0.0700887
-0.00536817 -0.0515916 0.0702779
-0.00544355 -0.0519504 0.0704986
-0.0055215 -0.0523302 0.0707605
-0.00560362 -0.0527419 0.0710854
-0.00568128 -0.0531147 0.0713271
-0.00576038 -0.0534986 0.0715886
-0.00727832 -0.0582171 0.0658496
-0.00733057 -0.0583914 0.0657015
-0.00738191 -0.0585603 0.0655437
-0.00742516 -0.0586699 0.06528
-0.00746613 -0.0587639 0.0649894
-0.00750753 -0.0588615 0.0647069
-0.00755151 -0.0589788 0.0644613
-0.00759539 -0.0590947 0.064214
-0.00764203 -0.059232 0.0640058
-0.00769399 -0.0594071 0.0638651
-0.00774711 -0.0595909 0.0637397
-0.00780164 -0.0597849 0.0636329
-0.00785839 -0.0599946 0.0635534
-0.00791895 -0.0602308 0.0635201
-0.00797452 -0.0604321 0.0634255
-0.00802762 -0.0606166 0.0633025
-0.00807927 -0.0607905 0.0631615
-0.00813292 -0.0609784 0.063045
-0.00818617 -0.0611639 0.0629244
-0.00824478 -0.0613859 0.0628661
-0.00830537 -0.0616223 0.0628321
-0.00836807 -0.0618729 0.0628213
-0.00843195 -0.0621318 0.0628239
-0.00849621 -0.0623929 0.0628298
-0.00856253 -0.0626679 0.0628582
-0.00863121 -0.0629585 0.0629116
-0.00869712 -0.0632291 0.0629311
-0.00876082 -0.0634854 0.0629261
-0.00904187 -0.0636548 0.0628926
-0.00882402 -0.0637374 0.0629134
0.000204799 -0.0376199 0.100366
0.000142334 -0.0377482 0.0998758
8.03419e-05 -0.0378746 0.0993834
1.77696e-05 -0.0380221 0.0989656
-4.47274e-05 -0.0381771 0.0985756
-0.000108357 -0.0383617 0.098286
-0.00017292 -0.038564 0.0980561
-0.00023764 -0.0387766 0.097861
-0.000302498 -0.0389949 0.0976849
-0.000367719 -0.0392211 0.0975349
-0.00047409 -0.0344533 0.0770155
-0.000528973 -0.0346191 0.0767917
-0.000582447 -0.0347589 0.0764906
-0.000633558 -0.0348646 0.0760888
-0.000684862 -0.0349733 0.0756994
-0.000735604 -0.0350781 0.0753016
-0.000786245 -0.0351841 0.0749107
-0.000838162 -0.0353155 0.074598
-0.000889474 -0.035438 0.0742619
-0.000941624 -0.0355774 0.0739775
-0.000994057 -0.0357224 0.0737114
-0.00104799 -0.0358904 0.0735142
-0.00110217 -0.0360647 0.073336
-0.0011578 -0.0362616 0.0732235
-0.00121353 -0.0364593 0.0731134
-0.00126947 -0.0366615 0.0730164
-0.00132512 -0.0368587 0.0729055
-0.00137997 -0.0370458 0.0727663
-0.00143478 -0.0372313 0.0726237
-0.00148978 -0.037421 0.072493
-0.00154489 -0.0376123 0.0723671
-0.00160036 -0.037809 0.0722567
-0.00165623 -0.0380104 0.0721593
-0.00171117 -0.038202 0.0720353
-0.0017658 -0.0383882 0.0718972
-0.00182076 -0.0385788 0.0717714
-0.00187461 -0.0387558 0.0716094
-0.00192859 -0.0389364 0.0714579
-0.00198289 -0.0391204 0.0713163
-0.00203643 -0.0392953 0.071151
-0.00208996 -0.0394701 0.0709863
-0.00214528 -0.0396677 0.070882
-0.00219913 -0.0398486 0.0707344
-0.00225343 -0.0400338 0.0705984
-0.00230831 -0.0402275 0.0704851
-0.00236319 -0.0404211 0.0703716
-0.00241736 -0.0406068 0.0702383
-0.0024732 -0.0408117 0.0701541
-0.00252905 -0.0410165 0.0700699
-0.00258539 -0.041226 0.0699975
-0.00264163 -0.041436 0.0699261
-0.00269799 -0.0416461 0.0698549
-0.0027548 -0.0418612 0.069796
-0.00281301 -0.0420918 0.0697752
-0.00287107 -0.0423198 0.0697472
-0.00292693 -0.0425236 0.0696597
-0.0029823 -0.042723 0.0695614
-0.00303685 -0.0429138 0.0694424
-0.00309054 -0.0430959 0.0693028
-0.00314449 -0.043281 0.0691708
-0.0032024 -0.0435077 0.0691385
-0.00326152 -0.0437457 0.069133
-0.00332089 -0.0439855 0.0691309
-0.00338073 -0.0442301 0.0691393
-0.00344114 -0.0444797 0.0691587
-0.00350117 -0.0447247 0.0691667
-0.00356133 -0.0449711 0.0691767
-0.00362218 -0.0452232 0.0691993
-0.00368271 -0.0454712 0.0692113
-0.00374425 -0.0457289 0.0692448
-0.00380485 -0.0459773 0.0692561
-0.00386487 -0.0462195 0.0692523
-0.00392495 -0.0464608 0.0692458
-0.00398423 -0.0466958 0.0692246
-0.00404309 -0.046926 0.0691917
-0.00410333 -0.0471681 0.0691852
-0.00416433 -0.0474172 0.0691937
-0.00422609 -0.0476736 0.0692173
-0.00428925 -0.0479414 0.0692652
-0.00435077 -0.0481936 0.0692777
-0.00441518 -0.0484727 0.0693483
-0.00447952 -0.0487494 0.0694124
-0.00454609 -0.049046 0.0695182
-0.00461364 -0.0493498 0.069638
-0.00468047 -0.0496467 0.0697414
-0.0047447 -0.0499192 0.0697906
-0.00480871 -0.050189 0.0698333
-0.00487223 -0.0504541 0.0698647
-0.00493473 -0.0507109 0.0698775
-0.00500161 -0.0510043 0.0699667
-0.00507173 -0.0513244 0.0701103
-0.00514446 -0.0516672 0.0702996
-0.00521953 -0.0520276 0.0705234
-0.00529845 -0.0524205 0.0708117
-0.00538007 -0.0528338 0.0711391
-0.0054569 -0.0532063 0.0713792
-0.00553609 -0.0535959 0.0716517
-0.00584358 -0.0539148 0.0719133
-0.00561785 -0.0540056 0.0719621
-0.00593018 -0.0543569 0.0722872
-0.00570142 -0.0544288 0.0722968
-0.00701487 -0.0581894 0.0661428
-0.00706902 -0.0583768 0.0660172
-0.00712211 -0.0585563 0.0658773
-0.00717249 -0.0587163 0.0657031
-0.00721606 -0.0588259 0.0654385
-0.0072572 -0.0589174 0.0651433
-0.00729876 -0.0590131 0.0648567
-0.00734143 -0.0591175 0.0645872
-0.00738528 -0.0592322 0.0643375
-0.00743236 -0.0593694 0.0641286
-0.0074835 -0.0595381 0.0639761
-0.00753565 -0.0597143 0.0638371
-0.00759027 -0.0599078 0.0637286
-0.00764596 -0.0601101 0.0636359
-0.0077045 -0.0603324 0.0635775
-0.00775906 -0.0605257 0.0634692
-0.00781126 -0.0607028 0.063333
-0.00786215 -0.0608699 0.0631803
-0.00791402 -0.0610448 0.0630414
-0.00796719 -0.0612291 0.0629185
-0.00802552 -0.0614503 0.0628586
-0.00808705 -0.0616938 0.0628365
-0.00814989 -0.0619467 0.0628295
-0.0082149 -0.0622138 0.0628456
-0.00827995 -0.0624814 0.0628619
-0.00834613 -0.0627569 0.0628908
-0.00841369 -0.0630411 0.062933
-0.00847924 -0.0633118 0.0629521
-0.00854383 -0.0635749 0.0629582
-0.00860808 -0.0638349 0.0629585
0.000469024 -0.0376571 0.10027
0.000405916 -0.0377862 0.0997829
0.00034313 -0.0379185 0.0993111
0.000280034 -0.0380663 0.0988948
0.000216915 -0.0382207 0.0985035
0.000152994 -0.0384053 0.098214
8.84257e-05 -0.0386075 0.0979841
2.35743e-05 -0.0388174 0.0977805
-4.1651e-05 -0.0390429 0.0976274
-0.000106964 -0.0392667 0.0974702
-0.000247743 -0.034511 0.0770146
-0.000302765 -0.0346715 0.0767745
-0.000356632 -0.0348161 0.0764881
-0.000408204 -0.034917 0.0760719
-0.000459878 -0.0350254 0.0756821
-0.000511559 -0.0351349 0.0752984
-0.000562906 -0.0352458 0.0749223
-0.000615336 -0.0353774 0.0746104
-0.000667323 -0.0355048 0.0742883
-0.000720061 -0.035645 0.0740064
-0.000772577 -0.0357856 0.0737275
-0.000826286 -0.0359486 0.0735152
-0.000880238 -0.0361169 0.0733197
-0.000935664 -0.0363084 0.0731917
-0.000991087 -0.0365013 0.0730681
-0.00104737 -0.0367078 0.0729832
-0.00110331 -0.03691 0.0728862
-0.00115877 -0.0371023 0.0727619
-0.0012139 -0.0372933 0.0726341
-0.00126937 -0.037488 0.0725172
-0.00132464 -0.0376798 0.0723926
-0.00138025 -0.0378772 0.0722836
-0.00143641 -0.0380827 0.0721969
-0.00149148 -0.0382746 0.0720733
-0.00154631 -0.0384608 0.071935
-0.00160122 -0.0386513 0.0718086
-0.00165565 -0.0388325 0.0716576
-0.00170985 -0.0390135 0.0715069
-0.00176432 -0.0391978 0.0713654
-0.00181806 -0.0393727 0.0711999
-0.00187161 -0.0395473 0.0710342
-0.0019263 -0.0397361 0.0709066
-0.0019796 -0.0399074 0.0707338
-0.00203346 -0.0400871 0.0705834
-0.00208797 -0.0402746 0.0704539
-0.00214242 -0.0404629 0.070327
-0.00219664 -0.0406485 0.0701934
-0.00225249 -0.0408534 0.0701092
-0.00230882 -0.0410628 0.0700368
-0.00236545 -0.0412778 0.069978
-0.00242232 -0.0414936 0.0699209
-0.00247918 -0.0417096 0.0698642
-0.00253632 -0.0419303 0.0698188
-0.00259505 -0.0421663 0.069811
-0.00265356 -0.0424001 0.0697969
-0.00270985 -0.0426089 0.0697211
-0.00276572 -0.0428135 0.069635
-0.00282078 -0.0430091 0.0695271
-0.00287464 -0.0431915 0.0693877
-0.00292871 -0.0433771 0.0692563
-0.00298674 -0.0436043 0.0692248
-0.00304526 -0.0438375 0.069207
-0.003104 -0.0440714 0.0691903
-0.0031632 -0.0443106 0.0691855
-0.00322339 -0.0445597 0.0692033
-0.00328286 -0.0448006 0.069201
-0.00334291 -0.0450471 0.0692109
-0.00340416 -0.0453042 0.0692446
-0.00346484 -0.045557 0.0692671
-0.00352574 -0.0458102 0.0692897
-0.00358622 -0.0460583 0.0692998
-0.00364613 -0.0463007 0.0692959
-0.00370557 -0.0465367 0.0692771
-0.00376433 -0.0467665 0.0692436
-0.00382359 -0.0470017 0.0692218
-0.00388417 -0.0472494 0.0692272
-0.00394517 -0.0474995 0.0692373
-0.00400688 -0.047757 0.069263
-0.00406983 -0.0480248 0.0693104
-0.0041311 -0.0482766 0.0693215
-0.00419546 -0.0485569 0.0693942
-0.00426028 -0.0488402 0.0694719
-0.00432675 -0.0491382 0.0695803
-0.00439333 -0.0494365 0.0696877
-0.00445983 -0.0497335 0.0697904
-0.00452303 -0.0499993 0.0698249
-0.00458692 -0.05027 0.0698689
-0.0046504 -0.0505363 0.0699023
-0.00471351 -0.0507999 0.0699291
-0.00477946 -0.0510873 0.0700051
-0.00484916 -0.0514077 0.0701489
-0.00492013 -0.0517382 0.0703117
-0.00499513 -0.0521042 0.0705464
-0.00507542 -0.052515 0.0708712
-0.0051567 -0.0529312 0.0712038
-0.00523395 -0.0533113 0.0714587
-0.00531469 -0.0537201 0.0717696
-0.00539504 -0.0541247 0.0720685
-0.0054753 -0.0545249 0.0723555
-0.00681286 -0.0584126 0.0664263
-0.00686473 -0.0585814 0.0662658
-0.00691389 -0.0587286 0.0660665
-0.00696405 -0.0588859 0.0658862
-0.00700882 -0.0590015 0.0656321
-0.00705043 -0.0590932 0.0653362
-0.00709208 -0.0591862 0.0650444
-0.00713394 -0.0592818 0.0647585
-0.00717659 -0.0593836 0.0644853
-0.00722279 -0.0595138 0.0642634
-0.00727247 -0.059669 0.0640866
-0.00732282 -0.0598305 0.0639214
-0.00737531 -0.0600083 0.0637852
-0.00742993 -0.0602017 0.0636767
-0.00748545 -0.0604029 0.0635816
-0.00753898 -0.0605885 0.0634597
-0.00759122 -0.0607643 0.0633214
-0.00764233 -0.0609325 0.0631701
-0.00769436 -0.0611078 0.0630315
-0.00774768 -0.0612928 0.0629101
-0.00780689 -0.0615204 0.062861
-0.0078686 -0.0617653 0.0628407
-0.00793052 -0.0620126 0.0628239
-0.0079954 -0.0622804 0.0628414
-0.0080612 -0.0625548 0.0628687
-0.00812634 -0.0628241 0.062887
-0.00819354 -0.0631078 0.0629283
-0.00826 -0.0633863 0.06296
-0.00832546 -0.0636558 0.0629761
-0.00839063 -0.0639241 0.0629895
0.000733346 -0.0376902 0.100159
0.000669646 -0.0378194 0.0996742
0.000606076 -0.0379581 0.0992242
0.000542273 -0.0381119 0.0988283
0.000478406 -0.0382719 0.0984561
0.000414105 -0.0384555 0.0981637
0.000349383 -0.0386578 0.0979339
0.000284486 -0.0388644 0.0977201
0.00021906 -0.0390935 0.0975787
-2.13469e-05 -0.0345692 0.077015
-7.63068e-05 -0.0347237 0.0767568
-0.000130807 -0.0348726 0.0764835
-0.000182676 -0.0349687 0.076053
-0.000234956 -0.035077 0.0756631
-0.000287287 -0.0351907 0.0752924
-0.000339554 -0.0353099 0.0749408
-0.000392574 -0.0354427 0.0746323
-0.000445415 -0.035579 0.0743365
-0.000498408 -0.0357199 0.0740563
-0.000551122 -0.0358563 0.0737648
-0.000604619 -0.0360101 0.0735261
-0.000658499 -0.0361728 0.0733143
-0.000713433 -0.036355 0.0731595
-0.000768643 -0.0365433 0.0730228
-0.00082493 -0.0367498 0.0729379
-0.00088122 -0.0369563 0.0728531
-0.000936906 -0.0371538 0.072743
-0.000992569 -0.0373504 0.0726308
-0.00104847 -0.0375511 0.0725303
-0.0011042 -0.037748 0.0724196
-0.00115984 -0.0379455 0.0723105
-0.00121602 -0.0381516 0.072225
-0.00127163 -0.0383476 0.0721125
-0.00132646 -0.0385337 0.0719733
-0.00138156 -0.038723 0.0718433
-0.00143588 -0.0389038 0.071691
-0.0014903 -0.0390848 0.07154
-0.00154465 -0.0392656 0.0713891
-0.00159888 -0.0394455 0.0712364
-0.00165264 -0.0396201 0.0710704
-0.00170708 -0.0398044 0.0709307
-0.00176052 -0.039975 0.0707558
-0.00181402 -0.0401495 0.0705918
-0.0018679 -0.0403269 0.0704362
-0.00192211 -0.04051 0.0702957
-0.0019764 -0.0406948 0.0701602
-0.00203191 -0.040895 0.0700643
-0.00208815 -0.0411049 0.0699927
-0.0021452 -0.0413253 0.0699475
-0.00220247 -0.0415471 0.0699055
-0.00225988 -0.0417698 0.0698652
-0.00231743 -0.0419962 0.0698338
-0.00237642 -0.0422372 0.0698377
-0.0024348 -0.0424707 0.0698224
-0.00249112 -0.0426801 0.0697478
-0.00254713 -0.0428849 0.069662
-0.00260218 -0.0430808 0.0695544
-0.00265628 -0.0432631 0.0694144
-0.00271046 -0.0434485 0.0692823
-0.00276831 -0.043675 0.0692487
-0.00282675 -0.0439082 0.0692307
-0.00288533 -0.0441424 0.0692143
-0.00294447 -0.0443821 0.0692102
-0.00300457 -0.0446312 0.0692277
-0.00306383 -0.0448716 0.0692236
-0.00312369 -0.0451179 0.0692328
-0.00318472 -0.0453756 0.0692673
-0.00324532 -0.0456278 0.0692882
-0.00330595 -0.0458807 0.0693095
-0.00336621 -0.0461282 0.0693179
-0.00342559 -0.0463653 0.0693018
-0.00348471 -0.0466011 0.069282
-0.00354352 -0.0468315 0.0692496
-0.00360327 -0.0470733 0.0692422
-0.00366405 -0.0473227 0.0692513
-0.00372552 -0.0475796 0.069276
-0.00378751 -0.0478418 0.0693116
-0.0038503 -0.04811 0.0693593
-0.00391133 -0.0483614 0.069369
-0.00397608 -0.0486472 0.0694533
-0.00404106 -0.0489359 0.069542
-0.00410668 -0.0492293 0.0696396
-0.00417291 -0.0495271 0.0697452
-0.00423924 -0.0498239 0.0698471
-0.0043023 -0.0500907 0.0698832
-0.00436622 -0.0503637 0.0699315
-0.00442966 -0.050632 0.0699685
-0.00449334 -0.0509014 0.070007
-0.00455898 -0.0511895 0.0700836
-0.00462758 -0.0515034 0.070213
-0.00469677 -0.0518216 0.0703497
-0.00477174 -0.0521917 0.070592
-0.00485081 -0.0525978 0.0709063
-0.00493082 -0.0530095 0.0712288
-0.00500841 -0.0533988 0.071502
-0.00509015 -0.0538224 0.0718422
-0.00516934 -0.0542226 0.0721314
-0.00524813 -0.0546163 0.0724043
-0.00661031 -0.0586413 0.066719
-0.0066573 -0.0587689 0.0664826
-0.00670342 -0.0588917 0.0662384
-0.00675343 -0.0590445 0.0660493
-0.00679952 -0.0591681 0.065809
-0.0068432 -0.0592728 0.0655356
-0.00688468 -0.0593605 0.0652336
-0.00692619 -0.0594499 0.0649362
-0.00696877 -0.0595491 0.0646578
-0.00701343 -0.0596639 0.0644079
-0.00706053 -0.0597982 0.0641939
-0.00711002 -0.0599515 0.064014
-0.00716062 -0.0601144 0.0638512
-0.00721251 -0.0602864 0.063705
-0.00726604 -0.0604715 0.0635818
-0.00731857 -0.0606489 0.0634458
-0.00736995 -0.0608175 0.0632951
-0.00742219 -0.0609931 0.0631566
-0.00747548 -0.0611772 0.063033
-0.00752993 -0.0613702 0.0629248
-0.00758927 -0.0615983 0.0628763
-0.00765068 -0.0618433 0.0628561
-0.00771165 -0.062084 0.0628279
-0.00777632 -0.0623517 0.0628448
-0.00784182 -0.0626254 0.0628706
-0.00790587 -0.0628882 0.0628776
-0.00797194 -0.0631649 0.0629073
-0.00804008 -0.0634563 0.0629603
-0.00810541 -0.0637274 0.0629785
-0.00817073 -0.063998 0.0629956
0.000996956 -0.0377386 0.100101
0.000932586 -0.037873 0.0996337
0.0008682 -0.0380182 0.0992056
0.000803914 -0.0381729 0.0988127
0.000739662 -0.0383332 0.0984419
0.000674962 -0.0385159 0.0981468
0.000610192 -0.0387142 0.0979039
0.000545125 -0.0389196 0.0976858
0.000205233 -0.0346272 0.0770148
0.000150163 -0.0347778 0.0767448
9.53792e-05 -0.0349242 0.0764639
4.31508e-05 -0.0350156 0.0760198
-9.70965e-06 -0.0351239 0.07563
-6.27025e-05 -0.0352422 0.0752732
-0.000115811 -0.0353666 0.0749376
-0.000169401 -0.0355079 0.0746541
-0.00022322 -0.0356533 0.0743845
-0.000276737 -0.0357988 0.0741175
-0.000329836 -0.0359355 0.0738267
-0.000383376 -0.0360844 0.0735733
-0.000437014 -0.0362376 0.0733341
-0.000491569 -0.0364103 0.0731518
-0.000546401 -0.0365896 0.0729896
-0.000602486 -0.0367918 0.0728926
-0.000658776 -0.0369983 0.0728078
-0.000714844 -0.0372005 0.0727108
-0.000771089 -0.0374066 0.0726251
-0.000827424 -0.0376129 0.0725399
-0.000883424 -0.0378151 0.0724434
-0.000939462 -0.0380172 0.0723465
-0.000995619 -0.0382231 0.0722603
-0.00105096 -0.038415 0.0721361
-0.00110571 -0.0385967 0.0719848
-0.00116056 -0.0387807 0.0718405
-0.00121504 -0.0389607 0.071686
-0.00126946 -0.0391418 0.0715349
-0.00132401 -0.0393235 0.0713861
-0.00137902 -0.0395133 0.0712594
-0.00143372 -0.0396974 0.0711182
-0.00148822 -0.0398818 0.0709783
-0.00154181 -0.0400521 0.0708024
-0.00159563 -0.0402258 0.0706359
-0.00164879 -0.0403936 0.0704553
-0.00170238 -0.040567 0.0702898
-0.00175642 -0.0407465 0.0701407
-0.00181153 -0.0409414 0.0700311
-0.00186738 -0.0411468 0.0699482
-0.00192493 -0.0413723 0.069916
-0.00198257 -0.0416004 0.0698894
-0.00204029 -0.0418285 0.0698625
-0.00209826 -0.0420602 0.0698437
-0.00215747 -0.0423061 0.0698596
-0.00221564 -0.0425396 0.0698438
-0.00227208 -0.0427493 0.0697696
-0.00232807 -0.0429545 0.0696842
-0.00238333 -0.0431508 0.0695775
-0.00243743 -0.0433328 0.0694365
-0.00249167 -0.0435176 0.0693028
-0.00254943 -0.0437441 0.0692689
-0.00260786 -0.0439777 0.0692512
-0.00266636 -0.0442129 0.069237
-0.00272491 -0.0444474 0.0692203
-0.0027848 -0.0446966 0.0692373
-0.00284399 -0.0449368 0.0692327
-0.00290377 -0.0451837 0.0692428
-0.00296466 -0.0454416 0.0692774
-0.00302503 -0.0456944 0.0692992
-0.00308512 -0.0459421 0.0693086
-0.00314519 -0.0461888 0.0693148
-0.00320429 -0.0464249 0.0692962
-0.00326335 -0.0466611 0.069277
-0.00332259 -0.0468976 0.0692581
-0.00338303 -0.0471469 0.0692672
-0.00344369 -0.0473977 0.0692789
-0.00350507 -0.0476553 0.0693047
-0.0035669 -0.0479172 0.0693393
-0.00362935 -0.0481847 0.069385
-0.00369086 -0.0484418 0.0694067
-0.0037553 -0.0487287 0.0694927
-0.00382012 -0.0490178 0.0695819
-0.00388529 -0.0493098 0.0696759
-0.00395118 -0.0496068 0.0697794
-0.00401655 -0.049898 0.0698686
-0.00408011 -0.050172 0.0699195
-0.00414462 -0.0504525 0.0699832
-0.00420853 -0.0507276 0.0700342
-0.00427274 -0.0510037 0.0700862
-0.00433872 -0.0512974 0.070174
-0.0044057 -0.0515993 0.0702774
-0.00447252 -0.0518985 0.0703738
-0.00454664 -0.0522668 0.0706118
-0.00462506 -0.0526729 0.0709255
-0.00470394 -0.0530821 0.071242
-0.00478259 -0.0534864 0.0715452
-0.00486561 -0.0539289 0.0719234
-0.00494368 -0.0543239 0.0722011
-0.0050203 -0.0547046 0.0724467
-0.00636129 -0.0587592 0.0672811
-0.00640241 -0.0588359 0.0669494
-0.00644621 -0.0589352 0.0666605
-0.00648986 -0.0590344 0.0663731
-0.00653822 -0.0591727 0.0661573
-0.00658578 -0.0593045 0.0659311
-0.0066309 -0.0594188 0.0656748
-0.00667313 -0.0595095 0.0653772
-0.00671578 -0.0596044 0.0650891
-0.00675794 -0.0596959 0.0647965
-0.00680256 -0.0598085 0.0645425
-0.00684805 -0.0599276 0.064301
-0.00689602 -0.0600672 0.0640968
-0.00694489 -0.0602148 0.063907
-0.00699509 -0.0603719 0.0637347
-0.00704592 -0.0605357 0.0635746
-0.00709841 -0.0607117 0.0634359
-0.00714983 -0.0608805 0.0632852
-0.0072023 -0.0610575 0.0631492
-0.00725692 -0.0612499 0.0630397
-0.00731237 -0.0614505 0.0629443
-0.00737079 -0.0616727 0.0628858
-0.00743196 -0.0619158 0.0628618
-0.00749258 -0.062155 0.062831
-0.00755606 -0.0624147 0.062834
-0.00762039 -0.0626818 0.0628489
-0.00768518 -0.0629502 0.062865
-0.00775003 -0.0632201 0.062883
-0.0078179 -0.0635115 0.0629358
-0.0078851 -0.0637984 0.0629801
-0.00795246 -0.0640853 0.0630236
0.00126082 -0.0377823 0.100027
0.0011958 -0.0379224 0.0995786
0.00113066 -0.0380788 0.0991884
0.00106575 -0.0382343 0.0987984
0.00100105 -0.0383946 0.0984278
0.000936113 -0.0385769 0.0981311
0.00087097 -0.038777 0.0978941
0.000805466 -0.0389837 0.0976804
0.000431983 -0.0346852 0.0770146
0.000376669 -0.0348321 0.0767331
0.000321719 -0.0349759 0.0764444
0.000268976 -0.0350626 0.0759865
0.000215741 -0.0351668 0.0755851
0.000162223 -0.0352897 0.0752421
0.000108379 -0.0354194 0.0749222
5.41857e-05 -0.0355659 0.0746543
-7.12024e-08 -0.0357167 0.0744006
-5.41873e-05 -0.0358662 0.0741449
-0.000107673 -0.0360031 0.0738548
-0.00016126 -0.0361469 0.0735865
-0.000214966 -0.0362949 0.0733322
-0.000269518 -0.036462 0.0731341
-0.000324177 -0.0366363 0.0729574
-0.000380039 -0.0368339 0.0728473
-0.00043633 -0.0370404 0.0727625
-0.00049262 -0.0372468 0.0726776
-0.000549375 -0.0374624 0.0726179
-0.000606039 -0.0376741 0.0725475
-0.000662588 -0.0378859 0.0724769
-0.000718881 -0.0380925 0.0723922
-0.000775204 -0.0382981 0.0723049
-0.000830336 -0.0384857 0.0721686
-0.000885276 -0.0386675 0.0720172
-0.000939597 -0.0388433 0.0718504
-0.000994273 -0.0390223 0.0716932
-0.0010489 -0.0392029 0.0715407
-0.00110358 -0.0393847 0.0713922
-0.00115867 -0.0395758 0.0712685
-0.00121386 -0.0397658 0.0711425
-0.00126832 -0.0399459 0.0709912
-0.00132201 -0.0401156 0.0708134
-0.00137583 -0.0402889 0.070646
-0.00142892 -0.0404524 0.070454
-0.00148231 -0.0406204 0.0702746
-0.00153638 -0.0407989 0.070123
-0.00159153 -0.0409928 0.0700107
-0.00164709 -0.0411933 0.0699156
-0.00170485 -0.0414237 0.0698951
-0.00176265 -0.0416562 0.0698795
-0.0018207 -0.0418898 0.069866
-0.00187867 -0.0421222 0.0698486
-0.0019381 -0.0423731 0.0698764
-0.00199612 -0.0426068 0.0698608
-0.0020526 -0.0428165 0.0697864
-0.00210861 -0.0430218 0.0697011
-0.00216391 -0.0432182 0.0695942
-0.00221818 -0.0434003 0.0694533
-0.00227245 -0.0435853 0.0693195
-0.00233027 -0.0438123 0.0692866
-0.00238851 -0.0440462 0.0692693
-0.00244702 -0.0442817 0.0692553
-0.00250562 -0.0445162 0.0692384
-0.00256533 -0.0447657 0.0692558
-0.00262432 -0.0450059 0.0692506
-0.00268409 -0.0452536 0.0692623
-0.00274475 -0.0455121 0.0692979
-0.00280514 -0.0457656 0.069321
-0.00286459 -0.0460081 0.069318
-0.00292443 -0.0462548 0.0693238
-0.00298333 -0.0464908 0.0693046
-0.00304248 -0.0467274 0.0692861
-0.00310158 -0.0469647 0.0692686
-0.003163 -0.047225 0.0693021
-0.00322345 -0.0474765 0.0693147
-0.00328521 -0.0477394 0.069352
-0.00334687 -0.0480019 0.0693871
-0.00340912 -0.0482694 0.0694323
-0.00347052 -0.0485279 0.0694567
-0.00353483 -0.0488151 0.0695428
-0.00359903 -0.0491004 0.0696232
-0.00366381 -0.0493913 0.0697142
-0.00372921 -0.0496884 0.0698172
-0.00379425 -0.0499788 0.0699042
-0.00385833 -0.0502599 0.0699698
-0.00392313 -0.0505467 0.0700464
-0.00398758 -0.050829 0.0701121
-0.00405152 -0.0511049 0.0701629
-0.00411729 -0.0513987 0.0702503
-0.00418275 -0.0516893 0.0703294
-0.00424861 -0.0519813 0.07041
-0.00432213 -0.0523487 0.0706457
-0.00440036 -0.0527611 0.0709714
-0.00447885 -0.053172 0.0712907
-0.00455874 -0.0535953 0.0716321
-0.00464163 -0.0540457 0.072025
-0.00471776 -0.0544281 0.0722762
-0.0047924 -0.054794 0.0724911
-0.0061138 -0.0589098 0.0679056
-0.00614607 -0.0589065 0.0674251
-0.00618517 -0.0589616 0.0670537
-0.0062277 -0.0590468 0.0667388
-0.00626968 -0.0591295 0.0664214
-0.00631669 -0.0592539 0.0661804
-0.00636523 -0.0593916 0.0659648
-0.00641262 -0.0595207 0.0657346
-0.0064572 -0.0596274 0.0654655
-0.00650154 -0.0597326 0.0651954
-0.00654464 -0.0598292 0.0649112
-0.00658952 -0.0599398 0.0646533
-0.0066343 -0.0600514 0.0643985
-0.00668094 -0.0601776 0.0641701
-0.00672913 -0.0603182 0.0639679
-0.0067784 -0.0604671 0.0637812
-0.00682849 -0.0606225 0.0636063
-0.00687932 -0.0607853 0.0634446
-0.00693097 -0.0609545 0.0632947
-0.0069837 -0.0611321 0.0631594
-0.00703839 -0.0613253 0.063051
-0.00709481 -0.0615329 0.0629673
-0.00715392 -0.0617611 0.0629185
-0.00721502 -0.062004 0.062894
-0.00727546 -0.0622418 0.0628605
-0.00733769 -0.0624937 0.0628502
-0.00740091 -0.0627533 0.0628522
-0.00746447 -0.0630146 0.0628564
-0.00752828 -0.0632773 0.062862
-0.00759584 -0.0635688 0.062915
-0.00766496 -0.0638707 0.0629834
-0.00773427 -0.0641747 0.0630546
0.00152453 -0.0378218 0.0999388
0.00145884 -0.0379734 0.0995294
0.00139318 -0.0381301 0.0991407
0.00132784 -0.0382855 0.0987509
0.00126272 -0.038445 0.0983773
0.00119728 -0.0386262 0.098078
0.00113195 -0.0388271 0.0978438
0.00106644 -0.0390421 0.0976561
0.000659313 -0.03473 0.0769738
0.000603686 -0.0348763 0.076691
0.00054837 -0.0350195 0.0764007
0.000495006 -0.0351056 0.0759415
0.00044124 -0.0352136 0.0755516
0.000386881 -0.0353414 0.0752235
0.000332587 -0.0354763 0.0749192
0.000277791 -0.0356286 0.0746681
0.000222844 -0.035788 0.0744396
0.000168352 -0.0359386 0.0741869
0.000114448 -0.0360753 0.073896
6.06895e-05 -0.0362149 0.0736154
6.94321e-06 -0.0363574 0.0733451
-4.73077e-05 -0.0365143 0.0731177
-0.000101902 -0.0366831 0.0729256
-0.000157595 -0.0368759 0.072802
-0.000213886 -0.0370824 0.0727172
-0.000270393 -0.0372932 0.0726444
-0.00032737 -0.037514 0.0725991
-0.0003843 -0.0377313 0.072544
-0.000441202 -0.0379489 0.0724893
-0.000497704 -0.0381598 0.0724159
-0.000553772 -0.0383608 0.0723157
-0.000609061 -0.0385476 0.0721771
-0.000663936 -0.0387293 0.0720252
-0.000718286 -0.0389007 0.0718466
-0.000772859 -0.0390753 0.0716774
-0.000827451 -0.0392552 0.0715229
-0.000882328 -0.0394364 0.0713728
-0.000937562 -0.039628 0.0712504
-0.000993083 -0.0398239 0.0711397
-0.00104794 -0.0400094 0.0710021
-0.00110218 -0.0401843 0.0708379
-0.0011562 -0.0403572 0.0706691
-0.00120953 -0.0405205 0.0704765
-0.00126312 -0.0406885 0.0702968
-0.00131733 -0.0408663 0.0701431
-0.00137246 -0.0410599 0.07003
-0.0014281 -0.0412599 0.0699331
-0.00148525 -0.0414857 0.0699008
-0.00154278 -0.0417128 0.0698716
-0.00160022 -0.0419413 0.0698449
-0.00165775 -0.0421687 0.0698153
-0.00171664 -0.0424155 0.0698327
-0.00177477 -0.0426493 0.0698174
-0.00183115 -0.042859 0.0697427
-0.00188708 -0.043064 0.0696568
-0.00194247 -0.0432601 0.0695492
-0.00199718 -0.0434474 0.0694208
-0.00205202 -0.0436382 0.0693012
-0.00211016 -0.0438711 0.0692819
-0.00216846 -0.0441055 0.0692656
-0.00222674 -0.0443404 0.0692499
-0.00228511 -0.0445743 0.0692312
-0.00234458 -0.0448238 0.0692483
-0.00240369 -0.0450647 0.0692448
-0.00246369 -0.0453185 0.06927
-0.00252461 -0.0455824 0.0693177
-0.00258481 -0.0458363 0.0693414
-0.00264416 -0.0460784 0.069337
-0.00270384 -0.0463254 0.0693432
-0.0027628 -0.046562 0.0693248
-0.00282186 -0.0467998 0.0693087
-0.00288141 -0.0470425 0.0693032
-0.00294244 -0.0473025 0.0693352
-0.00300328 -0.0475586 0.0693578
-0.00306476 -0.0478219 0.0693953
-0.00312635 -0.048085 0.0694313
-0.00318842 -0.048353 0.0694772
-0.00325022 -0.0486176 0.0695144
-0.0033143 -0.0489063 0.069603
-0.0033788 -0.0491982 0.0696972
-0.00344342 -0.0494903 0.0697901
-0.00350807 -0.0497817 0.06988
-0.00357334 -0.0500774 0.0699777
-0.00363724 -0.0503591 0.0700439
-0.0037019 -0.050647 0.0701223
-0.00376674 -0.050936 0.0702014
-0.00383098 -0.0512177 0.0702637
-0.0038954 -0.051501 0.0703282
-0.00395999 -0.0517847 0.0703922
-0.0040255 -0.052076 0.0704709
-0.00409847 -0.0524439 0.0707066
-0.00417563 -0.0528517 0.0710219
-0.0042535 -0.0532639 0.0713432
-0.00433321 -0.0536936 0.0716968
-0.00441469 -0.0541373 0.0720752
-0.00448958 -0.0545134 0.0723129
-0.00456283 -0.0548723 0.072513
-0.0058525 -0.058961 0.0683512
-0.00588771 -0.0589745 0.0678985
-0.00592363 -0.0589971 0.0674653
-0.00596327 -0.0590525 0.0670944
-0.00600591 -0.0591347 0.066774
-0.00604666 -0.0592018 0.0664283
-0.00609391 -0.0593255 0.0661863
-0.00614333 -0.0594688 0.0659806
-0.00619174 -0.0596049 0.0657626
-0.0062376 -0.0597193 0.0655072
-0.00628497 -0.0598463 0.0652753
-0.00632959 -0.0599522 0.0650075
-0.00637501 -0.0600646 0.0647525
-0.00642012 -0.0601759 0.0644964
-0.0064669 -0.0603015 0.0642668
-0.00651467 -0.0604349 0.0640517
-0.00656395 -0.0605832 0.0638636
-0.00661511 -0.0607461 0.063701
-0.00666618 -0.0609084 0.0635384
-0.00671725 -0.0610716 0.0633774
-0.00676908 -0.0612414 0.0632287
-0.00682284 -0.0614261 0.0631055
-0.00687847 -0.0616264 0.0630091
-0.00693673 -0.0618487 0.0629498
-0.00699705 -0.0620859 0.0629155
-0.00705726 -0.0623238 0.0628816
-0.00711853 -0.0625689 0.06286
-0.0071808 -0.062821 0.0628489
-0.00724316 -0.0630751 0.0628408
-0.00730678 -0.0633369 0.0628452
-0.00737421 -0.0636289 0.0628984
-0.00744375 -0.0639376 0.062978
-0.007514 -0.0642506 0.0630635
0.00178816 -0.0378763 0.0999011
0.00172182 -0.0380344 0.0995135
0.00165589 -0.0381868 0.0991104
0.0015899 -0.0383417 0.0987192
0.0015243 -0.0384993 0.09834
0.00145866 -0.0386752 0.0980233
0.00139319 -0.0388698 0.097769
0.0013273 -0.0390914 0.097603
0.000886731 -0.0347681 0.0769127
0.00083085 -0.0349126 0.0766247
0.000775165 -0.0350543 0.0763305
0.00072096 -0.0351484 0.0758959
0.000666705 -0.0352562 0.0755057
0.000611925 -0.0353885 0.0751911
0.000557094 -0.035528 0.0749006
0.000501764 -0.0356854 0.0746645
0.000446316 -0.0358539 0.0744626
0.000391197 -0.0360138 0.0742368
0.000336725 -0.0361555 0.0739599
0.00028258 -0.0362954 0.07368
0.000228463 -0.0364371 0.0734072
0.000174273 -0.0365844 0.0731521
0.000119685 -0.0367478 0.0729443
6.39925e-05 -0.0369359 0.0728072
7.73578e-06 -0.0371426 0.0727228
-4.8853e-05 -0.0373541 0.0726518
-0.00010588 -0.0375799 0.0726201
-0.000162651 -0.0377937 0.0725549
-0.000219419 -0.0380119 0.0725014
-0.000276098 -0.0382237 0.0724302
-0.000331873 -0.0384202 0.0723173
-0.000387293 -0.0386058 0.0721755
-0.000442636 -0.0387914 0.0720341
-0.000496816 -0.0389582 0.0718428
-0.000551359 -0.0391285 0.0716622
-0.000606034 -0.0393073 0.0715048
-0.000660861 -0.0394879 0.0713529
-0.000716298 -0.0396793 0.07123
-0.000772151 -0.0398807 0.0711334
-0.000827476 -0.0400717 0.07101
-0.000882412 -0.0402562 0.0708703
-0.00093686 -0.0404345 0.0707151
-0.000990757 -0.0406032 0.0705362
-0.00104486 -0.0407765 0.0703695
-0.00109953 -0.0409593 0.0702281
-0.00115486 -0.0411536 0.0701161
-0.00120983 -0.0413446 0.0699959
-0.00126652 -0.0415604 0.0699384
-0.00132313 -0.0417763 0.0698805
-0.0013799 -0.0419936 0.0698262
-0.00143696 -0.0422158 0.0697833
-0.00149566 -0.0424629 0.0698011
-0.00155362 -0.0426974 0.0697874
-0.00160989 -0.0429064 0.0697111
-0.00166597 -0.043111 0.0696239
-0.00172089 -0.0433019 0.069504
-0.00177574 -0.0434898 0.069377
-0.00183077 -0.0436815 0.0692594
-0.00188893 -0.0439154 0.0692427
-0.00194708 -0.0441498 0.0692263
-0.0020052 -0.0443837 0.0692082
-0.00206365 -0.0446223 0.0692004
-0.00212308 -0.0448721 0.0692179
-0.00218243 -0.0451194 0.069229
-0.00224268 -0.0453785 0.0692664
-0.00230343 -0.0456427 0.0693144
-0.00236306 -0.0458911 0.0693251
-0.00242254 -0.0461379 0.0693312
-0.00248224 -0.046385 0.0693373
-0.00254113 -0.0466226 0.0693212
-0.00260006 -0.0468611 0.0693064
-0.00265998 -0.0471091 0.0693122
-0.00272033 -0.0473631 0.0693307
-0.00278093 -0.0476192 0.0693528
-0.00284275 -0.0478885 0.0694034
-0.00290507 -0.0481634 0.0694651
-0.00296707 -0.0484333 0.0695146
-0.00302969 -0.0487083 0.0695741
-0.00309396 -0.0490029 0.0696749
-0.00315829 -0.0492955 0.0697698
-0.0032223 -0.0495838 0.0698538
-0.00328655 -0.0498748 0.0699423
-0.00335153 -0.0501716 0.0700416
-0.00341522 -0.0504528 0.0701062
-0.0034792 -0.050737 0.070176
-0.00354443 -0.051032 0.0702671
-0.00360904 -0.0513204 0.0703431
-0.00367257 -0.051597 0.0703927
-0.0037364 -0.0518746 0.0704434
-0.00380277 -0.052178 0.0705466
-0.00387479 -0.0525413 0.0707721
-0.00395021 -0.0529392 0.0710662
-0.00402791 -0.053357 0.071398
-0.00410742 -0.0537925 0.0717626
-0.00418701 -0.0542255 0.0721183
-0.00426149 -0.0546027 0.0723575
-0.00433412 -0.0549608 0.0725553
-0.00580937 -0.0588801 0.068682
-0.00576473 -0.0587859 0.0689904
-0.00552704 -0.0587605 0.0688158
-0.00557396 -0.0588714 0.0685392
-0.00561985 -0.0589745 0.0682496
-0.00565867 -0.0590148 0.0678467
-0.00569641 -0.0590474 0.067432
-0.0057366 -0.059102 0.0670601
-0.00577954 -0.0591833 0.0667381
-0.00582151 -0.059258 0.0664065
-0.0058691 -0.0593826 0.0661658
-0.00591874 -0.0595247 0.065958
-0.00596796 -0.0596659 0.0657491
-0.0060151 -0.0597878 0.0655073
-0.00606452 -0.0599307 0.0653036
-0.00611149 -0.0600532 0.0650649
-0.0061589 -0.0601802 0.0648349
-0.00620534 -0.0602995 0.0645927
-0.00625239 -0.0604246 0.064362
-0.00630044 -0.0605587 0.0641477
-0.00634999 -0.0607071 0.0639592
-0.00640219 -0.0608772 0.0638089
-0.00645281 -0.0610346 0.063637
-0.006504 -0.0611972 0.0634749
-0.00655577 -0.0613645 0.0633211
-0.00660845 -0.06154 0.0631818
-0.00666317 -0.0617325 0.0630719
-0.00672073 -0.0619489 0.0630022
-0.00678034 -0.0621813 0.0629593
-0.00683978 -0.062413 0.0629151
-0.00690002 -0.0626503 0.0628798
-0.00696113 -0.0628947 0.062856
-0.00702345 -0.0631485 0.062847
-0.00708603 -0.0634044 0.0628411
-0.00715304 -0.0636954 0.0628924
-0.00722321 -0.0640108 0.0629827
-0.00729411 -0.0643318 0.0630809
0.0020517 -0.0379313 0.0998649
0.00198505 -0.0381012 0.0995165
0.00191846 -0.0382483 0.099096
0.00185202 -0.0384018 0.0987006
0.00178591 -0.0385527 0.0982997
0.00172009 -0.0387232 0.0979658
0.00165426 -0.0389119 0.0976927
0.0015883 -0.0391407 0.0975498
0.00111445 -0.0347921 0.0768088
0.00105811 -0.0349381 0.0765262
0.0010022 -0.0350821 0.0762389
0.000947163 -0.0351868 0.0758367
0.000892172 -0.0352988 0.0754598
0.000836985 -0.0354352 0.0751577
0.000781556 -0.0355792 0.0748806
0.000725966 -0.0357413 0.0746583
0.000670081 -0.0359149 0.0744711
0.000614424 -0.0360839 0.0742716
0.00055951 -0.0362312 0.0740107
0.000504758 -0.036376 0.0737445
0.000450322 -0.0365183 0.0734729
0.000395924 -0.0366648 0.0732154
0.000341082 -0.0368233 0.0729934
0.00028552 -0.0370067 0.0728428
0.000229317 -0.0372093 0.0727463
0.00017262 -0.0374257 0.0726885
0.000115556 -0.037652 0.0726579
5.90138e-05 -0.0378617 0.0725808
2.22519e-06 -0.0380788 0.0725239
-5.4375e-05 -0.0382901 0.0724512
-0.000109954 -0.0384779 0.0723144
-0.000165279 -0.0386596 0.0721618
-0.000220765 -0.0388488 0.0720299
-0.000275019 -0.0390106 0.0718252
-0.000329377 -0.0391762 0.071632
-0.000384305 -0.0393547 0.0714738
-0.000439309 -0.0395347 0.0713205
-0.000494429 -0.0397213 0.0711849
-0.000550573 -0.0399272 0.0711002
-0.000606227 -0.0401236 0.0709909
-0.000661552 -0.0403139 0.0708661
-0.000716745 -0.040503 0.0707385
-0.000771467 -0.040682 0.0705856
-0.000826043 -0.0408616 0.0704347
-0.000881174 -0.0410509 0.0703092
-0.000936841 -0.0412508 0.0702106
-0.00099182 -0.0414372 0.0700786
-0.00104772 -0.0416419 0.0699925
-0.00110366 -0.0418465 0.069906
-0.00115968 -0.0420517 0.0698214
-0.00121595 -0.0422632 0.0697519
-0.00127393 -0.0425001 0.0697449
-0.00133143 -0.0427291 0.0697176
-0.00138775 -0.0429379 0.0696408
-0.00144368 -0.0431424 0.0695536
-0.0014988 -0.0433336 0.0694345
-0.00155405 -0.0435267 0.0693202
-0.00160987 -0.0437282 0.0692262
-0.00166779 -0.0439626 0.0692102
-0.00172577 -0.0441972 0.0691941
-0.00178378 -0.044431 0.0691757
-0.00184264 -0.0446747 0.0691797
-0.00190193 -0.044925 0.0691985
-0.0019615 -0.0451789 0.0692244
-0.0020223 -0.045449 0.0692868
-0.00208328 -0.0457193 0.0693485
-0.00214273 -0.045967 0.0693572
-0.0022021 -0.046214 0.0693634
-0.00226153 -0.0464608 0.0693682
-0.00231998 -0.046694 0.0693417
-0.00237895 -0.046932 0.0693254
-0.0024387 -0.0471803 0.0693316
-0.00249884 -0.0474343 0.0693496
-0.00255986 -0.0476973 0.0693868
-0.00262194 -0.0479732 0.0694513
-0.00268428 -0.0482502 0.0695172
-0.00274653 -0.0485256 0.0695781
-0.00280887 -0.0488011 0.0696379
-0.002873 -0.0490961 0.0697391
-0.00293638 -0.0493832 0.0698213
-0.0030002 -0.0496721 0.0699061
-0.00306329 -0.0499514 0.0699688
-0.00312831 -0.0502528 0.0700776
-0.00319131 -0.050529 0.0701311
-0.00325579 -0.0508206 0.0702159
-0.00332115 -0.0511225 0.0703211
-0.00338599 -0.0514171 0.0704093
-0.00344888 -0.0516876 0.0704458
-0.0035125 -0.0519645 0.0704946
-0.00357952 -0.0522804 0.070623
-0.00365135 -0.0526466 0.0708536
-0.00372681 -0.0530526 0.0711634
-0.00380486 -0.053482 0.071518
-0.00388475 -0.0539298 0.0719065
-0.00396259 -0.0543524 0.0722398
-0.00403671 -0.0547316 0.0724818
-0.00410837 -0.0550838 0.0726668
-0.00523747 -0.0585775 0.0688329
-0.00528886 -0.0587273 0.0686273
-0.00533816 -0.058858 0.0683877
-0.00538545 -0.0589706 0.0681161
-0.00542601 -0.0590209 0.0677322
-0.0054653 -0.0590628 0.0673354
-0.00550572 -0.0591148 0.066959
-0.00554995 -0.0592046 0.0666532
-0.00559414 -0.0592938 0.0663476
-0.00564277 -0.0594253 0.0661197
-0.00569256 -0.0595674 0.0659119
-0.00574133 -0.059702 0.0656914
-0.00578949 -0.0598304 0.0654614
-0.00584066 -0.0599875 0.0652828
-0.00588978 -0.0601258 0.0650717
-0.00593924 -0.060269 0.0648703
-0.00598755 -0.0604022 0.0646524
-0.00603489 -0.0605273 0.0644211
-0.00608318 -0.060661 0.064206
-0.00613316 -0.0608107 0.0640195
-0.00618577 -0.0609826 0.063872
-0.00623744 -0.0611475 0.0637125
-0.00628889 -0.06131 0.0635498
-0.00634058 -0.061476 0.0633936
-0.00639236 -0.0616429 0.0632395
-0.00644623 -0.0618277 0.0631159
-0.00650304 -0.0620371 0.0630342
-0.0065624 -0.0622686 0.0629895
-0.00662103 -0.0624929 0.0629325
-0.00668096 -0.0627293 0.0628956
-0.00674202 -0.0629737 0.0628712
-0.00680408 -0.0632274 0.062862
-0.00686663 -0.0634837 0.0628565
-0.00693339 -0.0637747 0.0629075
-0.00700405 -0.064097 0.0630088
-0.00707561 -0.0644258 0.0631192
-0.00736925 -0.0646846 0.0632295
-0.00715131 -0.0647877 0.0632819
0.00231565 -0.0379982 0.0998677
0.0022484 -0.0381633 0.0995034
0.00218123 -0.0383103 0.099083
0.00211432 -0.0384577 0.0986674
0.00204764 -0.038607 0.0982624
0.00198147 -0.0387722 0.0979111
0.00191514 -0.0389598 0.0976353
0.00184931 -0.03919 0.0974967
0.00128529 -0.0349638 0.076428
0.00122875 -0.0351177 0.0761713
0.00117304 -0.0352379 0.075816
0.00111736 -0.0353594 0.0754672
0.00106172 -0.0354958 0.0751652
0.0010061 -0.0356398 0.074888
0.000950201 -0.0358019 0.0746656
0.000894062 -0.0359761 0.07448
0.00083824 -0.036146 0.0742828
0.00078267 -0.0363025 0.0740486
0.000727517 -0.0364531 0.0737988
0.000672561 -0.0366009 0.0735427
0.000617501 -0.0367523 0.0732986
0.00056231 -0.036915 0.0730879
0.000506728 -0.0370979 0.0729352
0.00045037 -0.0373008 0.0728391
0.000393782 -0.0375134 0.0727699
0.000337022 -0.0377306 0.0727132
0.000280828 -0.0379336 0.0726172
0.000224161 -0.0381444 0.0725429
0.000167975 -0.0383461 0.0724434
0.00011248 -0.0385295 0.0722946
5.69995e-05 -0.0387112 0.0721421
1.48141e-06 -0.0389004 0.0720099
-5.29017e-05 -0.0390578 0.0717938
-0.000107475 -0.0392232 0.0716001
-0.000162447 -0.0394015 0.0714416
-0.00021769 -0.0395858 0.0712994
-0.000272869 -0.0397681 0.0711526
-0.00032898 -0.0399742 0.0710683
-0.000384867 -0.0401754 0.0709714
-0.00044059 -0.040371 0.0708602
-0.000495938 -0.0405616 0.0707363
-0.000551271 -0.040752 0.0706123
-0.000606631 -0.0409425 0.0704891
-0.000662175 -0.041138 0.0703786
-0.000718197 -0.0413433 0.0702932
-0.000773551 -0.0415343 0.0701719
-0.000829119 -0.0417331 0.0700706
-0.0008845 -0.0419261 0.0699549
-0.000939928 -0.0421197 0.069841
-0.000995595 -0.0423198 0.0697434
-0.00105252 -0.0425413 0.0696983
-0.00110932 -0.04276 0.0696459
-0.00116515 -0.0429627 0.0695544
-0.00122115 -0.0431668 0.0694665
-0.00127642 -0.0433589 0.0693497
-0.00133203 -0.0435574 0.0692486
-0.00138802 -0.0437641 0.0691669
-0.00144613 -0.0440025 0.0691606
-0.00150407 -0.0442373 0.0691449
-0.001562 -0.044472 0.0691285
-0.00162109 -0.0447215 0.0691458
-0.00168053 -0.044978 0.0691787
-0.00174036 -0.0452382 0.0692192
-0.00180146 -0.0455146 0.0692958
-0.00186257 -0.0457909 0.0693709
-0.0019218 -0.0460392 0.0693804
-0.00198117 -0.0462864 0.0693866
-0.00204044 -0.0465329 0.0693905
-0.00209878 -0.0467657 0.0693626
-0.00215758 -0.0470035 0.0693455
-0.0022175 -0.0472573 0.0693637
-0.00227775 -0.0475123 0.0693835
-0.00233895 -0.0477821 0.0694353
-0.00240183 -0.0480702 0.0695262
-0.0024644 -0.0483541 0.0696065
-0.00252659 -0.0486315 0.0696711
-0.00258914 -0.0489129 0.069743
-0.00265241 -0.0492016 0.0698295
-0.00271485 -0.0494775 0.069887
-0.00277768 -0.0497592 0.0699555
-0.0028395 -0.0500258 0.0699907
-0.00290418 -0.0503266 0.0700974
-0.002967 -0.0506032 0.0701515
-0.00303163 -0.0509016 0.0702502
-0.00309687 -0.0512052 0.0703583
-0.00316202 -0.0515059 0.070459
-0.00322422 -0.0517708 0.0704831
-0.00328798 -0.0520535 0.0705434
-0.00335533 -0.0523771 0.0706872
-0.00342625 -0.0527392 0.0709086
-0.00350112 -0.0531458 0.0712189
-0.00357937 -0.0535875 0.0715975
-0.00365922 -0.0540432 0.0720011
-0.00373605 -0.0544629 0.0723277
-0.00381031 -0.0548499 0.0725846
-0.00494782 -0.0583927 0.0688463
-0.00499967 -0.0585434 0.0686423
-0.00505081 -0.0586887 0.0684294
-0.00509993 -0.0588161 0.0681846
-0.00514707 -0.0589238 0.0679045
-0.00518965 -0.05899 0.0675506
-0.00523181 -0.0590531 0.0671927
-0.00527443 -0.0591213 0.0668466
-0.00531999 -0.0592196 0.0665565
-0.00536604 -0.059323 0.0662771
-0.00541554 -0.0594608 0.0660606
-0.00546639 -0.0596101 0.0658657
-0.00551551 -0.0597459 0.0656477
-0.00556541 -0.0598878 0.0654415
-0.00561754 -0.0600522 0.0652755
-0.00566834 -0.0602041 0.0650887
-0.00571832 -0.060349 0.06489
-0.0057685 -0.0604962 0.0646965
-0.00581637 -0.0606227 0.0644676
-0.00586482 -0.0607561 0.0642515
-0.00591562 -0.0609115 0.0640746
-0.00596921 -0.0610904 0.0639387
-0.00602124 -0.061257 0.0637822
-0.00607358 -0.0614271 0.063632
-0.00612635 -0.0616005 0.0634881
-0.00617767 -0.0617622 0.0633244
-0.0062316 -0.0619467 0.0632003
-0.00628831 -0.0621547 0.0631155
-0.00634664 -0.0623773 0.0630554
-0.00640417 -0.0625928 0.0629835
-0.00646318 -0.0628218 0.0629335
-0.00652329 -0.0630594 0.0628976
-0.00658379 -0.0632997 0.0628661
-0.00664628 -0.0635559 0.0628602
-0.00671356 -0.0638546 0.0629233
-0.00678408 -0.0641783 0.0630266
-0.00685554 -0.0645085 0.0631388
-0.00693161 -0.0648772 0.063312
0.00258001 -0.0380834 0.0999313
0.00251192 -0.038242 0.0995454
0.0024442 -0.0383838 0.0991077
0.0023767 -0.0385249 0.0986719
0.00230962 -0.0386691 0.0982495
0.00224271 -0.0388274 0.0978767
0.00217628 -0.0390092 0.0975821
0.00211017 -0.0392393 0.0974436
0.00151222 -0.0349907 0.0763336
0.00145542 -0.0351551 0.076109
0.00139898 -0.0352908 0.0758002
0.00134273 -0.035422 0.0754805
0.00128663 -0.0355584 0.0751785
0.00123066 -0.0357019 0.0748999
0.00117452 -0.0358639 0.074677
0.0011182 -0.0360385 0.0744924
0.00106215 -0.0362083 0.0742948
0.00100623 -0.0363738 0.0740862
0.000950454 -0.0365339 0.0738634
0.000894848 -0.0366922 0.0736367
0.000839455 -0.0368502 0.0734108
0.000783849 -0.0370174 0.0732122
0.000727977 -0.0372003 0.0730589
0.000671839 -0.0373982 0.0729477
0.000615294 -0.0376059 0.0728643
0.000558822 -0.0378135 0.0727803
0.000502781 -0.0380063 0.0726558
0.000446569 -0.038206 0.0725506
0.000390605 -0.0383969 0.0724217
0.000335324 -0.038571 0.0722478
0.000279794 -0.0387526 0.0720949
0.000224041 -0.0389419 0.0719632
0.000169438 -0.0390995 0.0717477
0.000114682 -0.0392651 0.0715548
5.94382e-05 -0.039448 0.0714083
3.84682e-06 -0.0396376 0.07128
-5.15629e-05 -0.0398251 0.0711469
-0.000107954 -0.0400364 0.0710758
-0.000164358 -0.0402468 0.0710024
-0.000220256 -0.0404476 0.0709044
-0.000276024 -0.0406437 0.0707942
-0.000331877 -0.0408445 0.0706963
-0.000387646 -0.0410408 0.070587
-0.000443248 -0.041237 0.0704777
-0.000499218 -0.0414375 0.0703798
-0.000554555 -0.041628 0.0702566
-0.000609833 -0.0418174 0.0701312
-0.000665067 -0.0420052 0.0700023
-0.000719897 -0.0421887 0.0698629
-0.000775186 -0.0423777 0.0697378
-0.000831073 -0.0425827 0.0696521
-0.000887145 -0.0427891 0.0695697
-0.000942425 -0.0429808 0.0694517
-0.000998178 -0.0431798 0.069352
-0.00105341 -0.0433729 0.0692378
-0.00110911 -0.0435719 0.0691382
-0.00116512 -0.0437788 0.0690574
-0.00122301 -0.0440174 0.0690516
-0.0012812 -0.0442575 0.0690488
-0.00133931 -0.0444974 0.0690445
-0.00139854 -0.0447528 0.0690759
-0.0014585 -0.0450205 0.0691349
-0.00151911 -0.0452968 0.0692123
-0.00158034 -0.0455807 0.069306
-0.00164168 -0.0458631 0.0693947
-0.00170123 -0.0461179 0.0694185
-0.00176037 -0.0463646 0.0694233
-0.00181921 -0.0466062 0.0694155
-0.0018774 -0.0468381 0.0693853
-0.00193608 -0.0470761 0.0693681
-0.00199625 -0.0473357 0.0693987
-0.00205672 -0.0475979 0.0694341
-0.0021186 -0.0478791 0.0695107
-0.00218167 -0.0481748 0.0696176
-0.00224443 -0.0484652 0.0697113
-0.00230644 -0.0487427 0.0697754
-0.0023688 -0.0490242 0.0698468
-0.00243109 -0.0493021 0.0699091
-0.00249258 -0.0495707 0.06995
-0.0025543 -0.0498392 0.0699897
-0.00261491 -0.050093 0.0699967
-0.00267874 -0.0503868 0.0700884
-0.00274171 -0.0506695 0.0701547
-0.00280626 -0.0509698 0.0702572
-0.00287177 -0.0512804 0.0703797
-0.00293748 -0.0515936 0.070506
-0.00299958 -0.0518586 0.0705298
-0.0030637 -0.0521482 0.0706039
-0.00313129 -0.0524794 0.0707627
-0.00320115 -0.0528361 0.0709721
-0.00327399 -0.0532252 0.0712457
-0.00335125 -0.0536658 0.0716214
-0.00343041 -0.0541233 0.0720278
-0.00350674 -0.0545466 0.0723609
-0.00358044 -0.0549347 0.0726193
-0.00489265 -0.058209 0.0689894
-0.00460743 -0.0580689 0.0690864
-0.0046605 -0.0582292 0.0688992
-0.00471267 -0.0583818 0.0686985
-0.00476215 -0.0585077 0.0684491
-0.00481203 -0.058638 0.0682093
-0.00486102 -0.0587605 0.067956
-0.00490662 -0.0588509 0.0676454
-0.00495199 -0.0589389 0.0673323
-0.00499726 -0.0590291 0.0670247
-0.00504203 -0.0591139 0.0667092
-0.00508877 -0.0592207 0.0664348
-0.00513721 -0.0593443 0.0661922
-0.00518769 -0.0594883 0.0659873
-0.00523942 -0.0596457 0.065807
-0.00528973 -0.0597897 0.0656037
-0.00534069 -0.0599398 0.065412
-0.0053936 -0.0601095 0.0652556
-0.00544539 -0.0602684 0.0650809
-0.00549556 -0.0604141 0.0648838
