ply
format ascii 1.0
element vertex 1608
property float x
property float y
property float z
end_header
0.111021 -0.0390799 0.0567527
0.110827 -0.0393052 0.0563283
0.110637 -0.0395295 0.0559094
0.110484 -0.0397625 0.0555564
0.11036 -0.040002 0.0552536
0.110274 -0.0402508 0.0550162
0.110199 -0.0405019 0.0547985
0.11015 -0.0407598 0.0546267
0.11011 -0.0410194 0.0544701
0.110096 -0.0412859 0.0543582
0.110086 -0.0415531 0.0542522
0.110348 -0.0419001 0.054616
0.110969 -0.0424756 0.0561686
0.110802 -0.0423053 0.0553091
0.111482 -0.042903 0.0569645
0.111316 -0.0427314 0.0561065
0.111869 -0.0431717 0.0569671
0.112439 -0.0436207 0.0578574
0.112773 -0.0440003 0.0583426
0.112961 -0.0443355 0.058574
0.113123 -0.0446637 0.0587619
0.113243 -0.0449795 0.0588778
0.113325 -0.0452833 0.0589293
0.11339 -0.0455818 0.0589504
0.113465 -0.0458838 0.058989
0.11354 -0.0461859 0.0590268
0.113596 -0.046482 0.0590336
0.11366 -0.0467805 0.0590514
0.113704 -0.0470727 0.0590376
0.113738 -0.0473614 0.0590064
0.113745 -0.0476404 0.0589278
0.113766 -0.0479245 0.0588748
0.113769 -0.0482017 0.0587904
0.113784 -0.0484829 0.0587253
0.1138 -0.0487645 0.0586631
0.113835 -0.0490526 0.058633
0.11387 -0.0493409 0.0586035
0.113906 -0.0496292 0.058575
0.11395 -0.0499209 0.0585614
0.113995 -0.0502125 0.0585478
0.114039 -0.050504 0.0585343
0.114038 -0.0507783 0.0584426
0.114004 -0.0510397 0.0582969
0.113946 -0.0512913 0.05811
0.113879 -0.0515385 0.0579072
0.113805 -0.0517824 0.0576936
0.113753 -0.0520345 0.0575175
0.113727 -0.0522962 0.0573856
0.113721 -0.0525656 0.0572872
0.113726 -0.0528393 0.0572084
0.113744 -0.0531177 0.05715
0.113779 -0.0534032 0.0571207
0.113821 -0.0536915 0.0571041
0.10379 -0.00661048 0.0535461
0.103858 -0.00688573 0.0535812
0.103934 -0.00716021 0.0536306
0.103995 -0.00743685 0.0536502
0.103983 -0.00772172 0.0535372
0.103975 -0.00800581 0.0534311
0.103952 -0.00829117 0.0532973
0.103883 -0.00858072 0.0530796
0.103803 -0.00887067 0.0528401
0.103709 -0.009161 0.0525769
0.103561 -0.00945539 0.0522138
0.103375 -0.00975181 0.0517808
0.103182 -0.0100471 0.0513367
0.103012 -0.010339 0.0509347
0.102871 -0.010627 0.0505865
0.102816 -0.0109075 0.0503957
0.102837 -0.0111818 0.0503446
0.102936 -0.0114507 0.0504371
0.103045 -0.0117194 0.0505487
0.103169 -0.0119876 0.0506857
0.103277 -0.0122574 0.0507935
0.10333 -0.0125305 0.0508015
0.103332 -0.0128063 0.0507155
0.103326 -0.0130821 0.0506171
0.103306 -0.0133582 0.0504916
0.103277 -0.0136342 0.0503499
0.103295 -0.0139081 0.0502936
0.103282 -0.0141828 0.050182
0.103228 -0.0144583 0.0499947
0.103137 -0.014734 0.0497413
0.103044 -0.0150089 0.0494838
0.102932 -0.0152832 0.0491931
0.102855 -0.0155559 0.0489642
0.102808 -0.0158275 0.0487925
0.102784 -0.0160982 0.0486618
0.10274 -0.0163686 0.0484942
0.102701 -0.0166384 0.0483368
0.10266 -0.0169077 0.048175
0.102626 -0.0171764 0.0480268
0.102604 -0.0174447 0.0478995
0.102606 -0.0177129 0.0478172
0.103023 -0.0179875 0.0484827
0.10358 -0.0182674 0.0494002
0.104175 -0.0185517 0.0503857
0.104738 -0.0188389 0.0513119
0.105272 -0.0191289 0.0521843
0.105382 -0.0194081 0.0522943
0.1054 -0.0196844 0.0522364
0.105417 -0.0199605 0.0521778
0.105425 -0.0202361 0.0521032
0.105409 -0.0205103 0.0519863
0.105406 -0.0207848 0.051893
0.105397 -0.0210586 0.0517872
0.105357 -0.0213303 0.0516276
0.105316 -0.0216014 0.0514655
0.105288 -0.0218728 0.0513263
0.10537 -0.0221511 0.0513853
0.105588 -0.0224393 0.051688
0.106108 -0.0228131 0.0530987
0.105848 -0.0227316 0.0520622
0.10707 -0.0236549 0.0539769
0.107505 -0.0239699 0.0546623
0.107957 -0.0242891 0.055376
0.108276 -0.0245986 0.0558535
0.108612 -0.0249115 0.0563603
0.108788 -0.0252104 0.0565833
0.10884 -0.0254972 0.0565844
0.108883 -0.025783 0.0565694
0.108943 -0.0260707 0.0565848
0.108989 -0.0263571 0.056577
0.109062 -0.0266464 0.0566144
0.109142 -0.0269369 0.0566657
0.10923 -0.0272287 0.0567314
0.109304 -0.0275188 0.0567702
0.109445 -0.0278181 0.0569303
0.109618 -0.0281222 0.0571448
0.109781 -0.0284258 0.0573412
0.109923 -0.0287272 0.0575009
0.110081 -0.0290316 0.0576892
0.110187 -0.029329 0.0577842
0.110288 -0.0296262 0.0578707
0.110418 -0.0299282 0.0580091
0.110583 -0.0302362 0.0582083
0.110743 -0.0305441 0.0583974
0.11092 -0.0308558 0.058618
0.111099 -0.0311686 0.0588411
0.111288 -0.0314839 0.0590802
0.111459 -0.0317971 0.0592881
0.111629 -0.0321109 0.0594942
0.111787 -0.0324234 0.0596802
0.111974 -0.0327419 0.059915
0.112176 -0.0330641 0.0601764
0.112392 -0.0333901 0.0604625
0.112617 -0.0337189 0.0607633
0.112877 -0.0340558 0.0611251
0.113129 -0.0343924 0.0614729
0.113398 -0.0347337 0.0618488
0.113696 -0.0350826 0.0622755
0.113997 -0.0354337 0.0627069
0.114268 -0.03578 0.0630857
0.114489 -0.0361173 0.0633772
0.114617 -0.036435 0.0635059
0.11468 -0.0367388 0.063521
0.114669 -0.0370262 0.0634083
0.114611 -0.0373024 0.0632138
0.114542 -0.0375754 0.0630012
0.114467 -0.0378463 0.0627787
0.114305 -0.0380958 0.0624043
0.113771 -0.0382539 0.0613874
0.113166 -0.0383912 0.0602482
0.112518 -0.0385135 0.0590347
0.111899 -0.0386388 0.0578751
0.11136 -0.03878 0.0568537
0.111186 -0.0390115 0.0564632
0.110994 -0.0392372 0.0560445
0.110812 -0.0394636 0.0556408
0.110648 -0.0396936 0.0552701
0.110513 -0.0399301 0.0549492
0.110409 -0.0401739 0.0546822
0.110342 -0.0404271 0.0544791
0.110294 -0.0406848 0.054309
0.110263 -0.0409468 0.0541685
0.110258 -0.0412156 0.0540719
0.110264 -0.0414875 0.0539953
0.110445 -0.0418101 0.0542181
0.110837 -0.0421959 0.054803
0.111308 -0.0426078 0.0555231
0.111839 -0.0430401 0.056344
0.112402 -0.0434854 0.0572189
0.112823 -0.04389 0.0578496
0.113063 -0.0442411 0.0581716
0.113255 -0.044578 0.0584098
0.113403 -0.0449021 0.0585739
0.113505 -0.0452116 0.0586572
0.11358 -0.0455131 0.0586954
0.113664 -0.0458178 0.058749
0.113748 -0.0461226 0.0588028
0.113806 -0.0464191 0.0588118
0.11387 -0.0467178 0.0588316
0.113914 -0.0470095 0.0588162
0.113948 -0.0472982 0.0587857
0.113953 -0.0475767 0.0587051
0.113976 -0.0478608 0.0586538
0.11398 -0.0481386 0.0585725
0.114005 -0.0484233 0.058525
0.114031 -0.0487086 0.0584806
0.114076 -0.0490001 0.058467
0.11412 -0.0492917 0.0584535
0.114165 -0.0495832 0.0584399
0.11421 -0.0498749 0.0584263
0.114254 -0.0501666 0.0584127
0.114299 -0.0504581 0.0583991
0.114306 -0.0507356 0.0583225
0.114282 -0.0510009 0.0581931
0.114225 -0.0512529 0.0580083
0.114157 -0.0515003 0.0578056
0.114083 -0.0517448 0.057594
0.114023 -0.0519935 0.0574034
0.113988 -0.0522521 0.0572578
0.11398 -0.052521 0.0571567
0.113985 -0.0527941 0.0570759
0.114001 -0.0530722 0.057016
0.114028 -0.0533543 0.0569733
0.114053 -0.0536353 0.0569274
0.103679 -0.00634089 0.0534335
0.103775 -0.00660017 0.0529333
0.103822 -0.0068771 0.0529295
0.103897 -0.00715076 0.0529763
0.103957 -0.00742639 0.0529955
0.103994 -0.0077048 0.0529717
0.104035 -0.0079826 0.0529575
0.104037 -0.00826463 0.0528703
0.103974 -0.00855307 0.052664
0.10389 -0.00884285 0.0524191
0.103787 -0.00913361 0.0521387
0.103631 -0.00942817 0.0517627
0.103458 -0.00972281 0.0513568
0.103284 -0.0100161 0.0509486
0.103131 -0.010306 0.0505802
0.103009 -0.0105923 0.0502671
0.102969 -0.0108712 0.0501058
0.103005 -0.0111441 0.0500824
0.103113 -0.0114122 0.0501901
0.10323 -0.0116801 0.0503156
0.103362 -0.0119476 0.0504683
0.103478 -0.0122167 0.0505904
0.103525 -0.01249 0.0505858
0.103526 -0.0127656 0.050499
0.103519 -0.0130414 0.0503985
0.1035 -0.0133173 0.0502744
0.103464 -0.0135935 0.0501213
0.103482 -0.0138671 0.0500661
0.10347 -0.0141416 0.0499553
0.103423 -0.0144167 0.0497828
0.103334 -0.0146924 0.0495333
0.103256 -0.0149668 0.0493037
0.103151 -0.0152409 0.0490268
0.103079 -0.0155136 0.0488101
0.103025 -0.0157852 0.048624
0.102993 -0.016056 0.0484797
0.102932 -0.0163264 0.0482828
0.10289 -0.0165961 0.0481206
0.102849 -0.0168652 0.047959
0.102825 -0.0171338 0.0478293
0.102819 -0.0174022 0.0477328
0.102838 -0.0176705 0.04768
0.103279 -0.0179452 0.0483868
0.103858 -0.0182253 0.0493412
0.104469 -0.0185097 0.0503501
0.105049 -0.0187973 0.0513035
0.105589 -0.0190873 0.052182
0.105692 -0.0193665 0.0522779
0.1057 -0.0196427 0.0522035
0.105714 -0.0199189 0.0521401
0.105706 -0.020194 0.0520369
0.105681 -0.0204679 0.0519045
0.105663 -0.0207418 0.0517837
0.105644 -0.0210151 0.0516617
0.105604 -0.0212869 0.0515012
0.105578 -0.021559 0.0513674
0.105567 -0.0218315 0.0512593
0.105542 -0.0221028 0.0511274
0.105634 -0.0223817 0.0512031
0.105741 -0.0226622 0.0513063
0.106256 -0.023037 0.0527022
0.105992 -0.022954 0.0516652
0.10665 -0.0233437 0.0533173
0.106233 -0.0232464 0.0520041
0.108027 -0.024507 0.0548323
0.108517 -0.0248329 0.0556113
0.108843 -0.0251454 0.0560979
0.109037 -0.0254462 0.0563507
0.109221 -0.0257468 0.0565844
0.10929 -0.0260358 0.0566158
0.109354 -0.0263245 0.0566389
0.109436 -0.0266154 0.0566935
0.109517 -0.0269062 0.056745
0.109613 -0.0271993 0.0568238
0.109686 -0.0274898 0.0568615
0.109829 -0.0277895 0.0570226
0.110011 -0.0280952 0.057253
0.110191 -0.0284015 0.0574792
0.110325 -0.0287022 0.0576233
0.110474 -0.0290057 0.057795
0.110579 -0.0293035 0.0578884
0.110682 -0.0296012 0.0579777
0.110807 -0.0299027 0.0581056
0.110992 -0.0302142 0.0583394
0.111162 -0.0305241 0.0585454
0.111341 -0.0308364 0.0587671
0.11151 -0.0311481 0.0589727
0.111698 -0.0314636 0.0592101
0.111869 -0.0317771 0.0594168
0.112049 -0.0320931 0.05964
0.11222 -0.0324081 0.0598454
0.11242 -0.0327295 0.0601024
0.112633 -0.0330541 0.0603817
0.112852 -0.0333813 0.0606716
0.113078 -0.0337107 0.0609739
0.11332 -0.0340444 0.0613012
0.113553 -0.0343776 0.0616148
0.113791 -0.0347132 0.0619362
0.114051 -0.0350541 0.0622943
0.11431 -0.0353966 0.0626515
0.114541 -0.0357344 0.0629585
0.114867 -0.0372527 0.0630568
0.114819 -0.0375308 0.0628809
0.114791 -0.0378128 0.0627402
0.11468 -0.0380747 0.0624555
0.114122 -0.0382284 0.0614011
0.113478 -0.038357 0.0601977
0.112781 -0.0384685 0.0589067
0.112101 -0.0385793 0.0576455
0.111506 -0.0387069 0.0565309
0.111359 -0.0389454 0.0561904
0.111179 -0.0391741 0.055792
0.111006 -0.039403 0.0554064
0.110839 -0.0396322 0.0550312
0.110702 -0.0398682 0.0547077
0.11058 -0.0401071 0.054411
0.110522 -0.0403624 0.0542239
0.110482 -0.0406223 0.0540684
0.110459 -0.0408867 0.0539426
0.110456 -0.041156 0.0538497
0.110471 -0.0414304 0.0537894
0.110598 -0.041737 0.0539198
0.110973 -0.0421171 0.0544731
0.111422 -0.0425213 0.0551525
0.111926 -0.0429444 0.0559247
0.112475 -0.0433841 0.0567717
0.112933 -0.043799 0.0574636
0.113168 -0.0441476 0.0577755
0.113369 -0.0444868 0.0580283
0.113537 -0.0448164 0.0582245
0.113658 -0.0451321 0.0583422
0.113753 -0.0454395 0.0584138
0.113855 -0.0457497 0.058498
0.113948 -0.0460572 0.0585666
0.114013 -0.0463557 0.0585875
0.114087 -0.0466574 0.0586239
0.11414 -0.0469523 0.058625
0.114185 -0.0472443 0.0586114
0.1142 -0.0475263 0.0585482
0.114232 -0.0478138 0.0585135
0.114238 -0.0480921 0.0584343
0.114264 -0.0483772 0.0583888
0.114291 -0.0486626 0.0583455
0.114335 -0.0489541 0.0583319
0.11438 -0.0492458 0.0583183
0.114424 -0.0495373 0.0583048
0.114469 -0.049829 0.0582912
0.114514 -0.0501207 0.0582776
0.114558 -0.0504122 0.058264
0.114575 -0.0506932 0.0582034
0.11456 -0.0509625 0.058091
0.114505 -0.0512153 0.0579089
0.114446 -0.0514663 0.057722
0.11438 -0.051714 0.0575237
0.11431 -0.0519594 0.0573179
0.114275 -0.052218 0.0571724
0.114266 -0.0524867 0.0570705
0.114261 -0.0527563 0.0569739
0.114268 -0.0530304 0.0568976
0.114302 -0.0533155 0.0568674
0.114345 -0.0536042 0.0568516
0.114838 -0.0542327 0.0581561
0.114987 -0.0541409 0.0578362
0.10392 -0.00656946 0.052618
0.103963 -0.00684658 0.0526062
0.104029 -0.00712094 0.0526366
0.104087 -0.00739637 0.0526523
0.104124 -0.0076743 0.0526301
0.104167 -0.00795157 0.0526181
0.10416 -0.00823415 0.052515
0.104094 -0.00852251 0.0523034
0.103992 -0.00881369 0.0520262
0.10387 -0.00910575 0.0517134
0.103707 -0.0094004 0.0513271
0.103544 -0.00969363 0.0509406
0.103395 -0.00998425 0.0505797
0.103269 -0.0102717 0.0502605
0.103171 -0.0105557 0.0499935
0.103148 -0.010833 0.0498631
0.10319 -0.0111053 0.0498524
0.103291 -0.0113736 0.0499466
0.103409 -0.0116412 0.0500725
0.103528 -0.0119093 0.0502001
0.10365 -0.0121777 0.050334
0.103703 -0.0124505 0.0503405
0.103712 -0.0127255 0.0502687
0.103707 -0.0130009 0.0501713
0.103703 -0.013276 0.050076
0.103667 -0.0135521 0.0499235
0.103678 -0.0138259 0.0498549
0.103664 -0.0141003 0.0497415
0.103616 -0.0143753 0.0495684
0.103535 -0.0146506 0.0493333
0.103458 -0.014925 0.049108
0.103368 -0.0151988 0.0488584
0.103297 -0.0154713 0.0486432
0.103234 -0.015743 0.0484422
0.103185 -0.0160139 0.0482686
0.103121 -0.0162842 0.0480665
0.103073 -0.0165538 0.0478931
0.103032 -0.0168228 0.0477343
0.103017 -0.0170913 0.0476215
0.103027 -0.0173596 0.0475531
0.103061 -0.017628 0.0475279
0.103613 -0.0179041 0.0484303
0.104217 -0.0181846 0.0494245
0.104847 -0.0184696 0.0504642
0.105428 -0.0187572 0.0514142
0.105964 -0.0190473 0.0522832
0.105966 -0.0193237 0.0521983
0.105965 -0.0195997 0.052109
0.105971 -0.0198757 0.0520311
0.105961 -0.0201507 0.051924
0.10592 -0.020424 0.0517634
0.105893 -0.0206974 0.0516267
0.105872 -0.0209707 0.0515016
0.105823 -0.021242 0.0513271
0.105798 -0.021514 0.0511937
0.105795 -0.021787 0.0511009
0.105778 -0.0220588 0.0509839
0.105754 -0.0223297 0.0508537
0.105742 -0.022601 0.0507455
0.105855 -0.0228814 0.0508583
0.105956 -0.0231613 0.0509487
0.106635 -0.0235536 0.0526295
0.106219 -0.023455 0.0513263
0.108227 -0.0247361 0.0545207
0.10873 -0.0250642 0.0553186
0.109098 -0.0253814 0.0558775
0.109452 -0.0256994 0.0564117
0.109664 -0.0260038 0.0566945
0.109737 -0.0262938 0.0567322
0.109811 -0.0265841 0.0567723
0.109892 -0.0268754 0.0568229
0.109989 -0.0271689 0.056903
0.110079 -0.0274619 0.0569709
0.110241 -0.0277646 0.0571655
0.110444 -0.0280733 0.0574303
0.110635 -0.0283816 0.0576749
0.110779 -0.0286841 0.0578355
0.11092 -0.028987 0.0579914
0.111015 -0.029284 0.0580673
0.111118 -0.0295822 0.0581566
0.111254 -0.0298859 0.0583028
0.111445 -0.0301988 0.0585445
0.111623 -0.0305106 0.0587654
0.111802 -0.0308234 0.0589857
0.111962 -0.0311339 0.0591732
0.112141 -0.0314485 0.0593943
0.112305 -0.0317612 0.0595867
0.112478 -0.0320765 0.059797
0.112651 -0.0323923 0.0600062
0.112853 -0.0327143 0.0602649
0.113059 -0.0330381 0.0605309
0.113267 -0.0333634 0.0608003
0.113492 -0.033693 0.0610982
0.113704 -0.0340213 0.0613747
0.113918 -0.034351 0.0616532
0.114126 -0.0346803 0.0619194
0.114344 -0.0350131 0.0622053
0.115055 -0.0374768 0.0626911
0.115039 -0.0377617 0.0625711
0.11497 -0.0380333 0.0623585
0.11439 -0.0381826 0.06127
0.113735 -0.0383097 0.0600543
0.113008 -0.0384143 0.0587146
0.112308 -0.0385211 0.0574246
0.111673 -0.0386393 0.0562455
0.111555 -0.0388851 0.0559551
0.111385 -0.0391165 0.0555765
0.11122 -0.0393479 0.0552065
0.111052 -0.0395769 0.0548312
0.110915 -0.039813 0.0545097
0.110785 -0.0400497 0.0541991
0.110727 -0.040305 0.0540128
0.110694 -0.040567 0.0538706
0.110674 -0.0408318 0.0537488
0.110679 -0.0411036 0.0536719
0.110705 -0.0413807 0.0536282
0.110784 -0.0416734 0.0536761
0.111096 -0.0420345 0.0541213
0.111538 -0.0424358 0.0547866
0.11202 -0.0428511 0.055518
0.112549 -0.0432836 0.0563289
0.113049 -0.0437103 0.0570895
0.113324 -0.0440705 0.0574677
0.113526 -0.0444093 0.0577215
0.113714 -0.0447448 0.0579508
0.113856 -0.0450666 0.0581027
0.113963 -0.0453777 0.0581953
0.114075 -0.045691 0.0582962
0.114176 -0.046001 0.0583784
0.114242 -0.0462996 0.0584001
0.114325 -0.046604 0.0584509
0.114389 -0.0469027 0.0584713
0.114444 -0.0471982 0.0584749
0.114471 -0.0474838 0.0584308
0.114513 -0.047775 0.0584126
0.114528 -0.0480566 0.0583494
0.114562 -0.0483447 0.0583181
0.114597 -0.0486332 0.0582886
0.114641 -0.0489249 0.058275
0.114686 -0.0492165 0.0582614
0.114731 -0.0495084 0.0582478
0.114775 -0.0498001 0.0582343
0.11482 -0.050092 0.0582207
0.114864 -0.0503836 0.0582071
0.114882 -0.0506652 0.0581479
0.114869 -0.0509351 0.0580378
0.114814 -0.0511886 0.0578582
0.114754 -0.0514395 0.0576697
0.114695 -0.0516905 0.0574845
0.114624 -0.0519357 0.0572778
0.114598 -0.0521981 0.0571472
0.11459 -0.0524674 0.0570466
0.114584 -0.052737 0.0569498
0.11459 -0.0530113 0.0568726
0.114642 -0.0533034 0.0568708
0.114705 -0.0536006 0.0568882
0.115205 -0.0540784 0.057634
0.115883 -0.0547873 0.059244
0.115977 -0.0546714 0.0588294
0.104077 -0.0065373 0.0523257
0.104102 -0.00681633 0.0522813
0.104151 -0.00709236 0.0522803
0.104193 -0.00736926 0.0522667
0.104214 -0.00764847 0.0522158
0.10425 -0.00792594 0.0521914
0.104236 -0.0082088 0.0520745
0.104168 -0.00849676 0.051861
0.104069 -0.00878704 0.051591
0.103949 -0.0090783 0.051284
0.103802 -0.00937099 0.0509276
0.103664 -0.00966149 0.0505887
0.103539 -0.00994967 0.0502726
0.103431 -0.0102353 0.0499872
0.103357 -0.0105172 0.0497653
0.103342 -0.0107937 0.0496509
0.103385 -0.0110658 0.0496397
0.103484 -0.0113341 0.0497305
0.103602 -0.0116015 0.0498565
0.103706 -0.0118703 0.0499559
0.103813 -0.0121393 0.0500618
0.10387 -0.0124115 0.0500777
0.103887 -0.0126859 0.0500196
0.103893 -0.0129606 0.0499426
0.103908 -0.0132347 0.0498814
0.103879 -0.0135103 0.0497425
0.10388 -0.0137845 0.0496551
0.103854 -0.0140591 0.0495217
0.103798 -0.0143343 0.0493335
0.103717 -0.0146094 0.0491011
0.103643 -0.0148836 0.0488806
0.103554 -0.0151572 0.0486339
0.103475 -0.0154298 0.0484055
0.103403 -0.0157014 0.04819
0.103346 -0.0159722 0.0480016
0.103288 -0.0162422 0.0478122
0.103254 -0.0165116 0.0476653
0.103231 -0.0167804 0.0475374
0.103232 -0.0170489 0.0474538
0.103257 -0.0173173 0.0474126
0.103305 -0.0175858 0.0474129
0.103851 -0.0178615 0.0483013
0.104464 -0.0181418 0.049307
0.105095 -0.0184265 0.0503445
0.105678 -0.0187139 0.0512938
0.106209 -0.0190035 0.0521509
0.106211 -0.0192799 0.0520662
0.106195 -0.0195554 0.0519502
0.106192 -0.019831 0.0518564
0.106174 -0.0201057 0.0517359
0.106117 -0.0203782 0.0515471
0.10608 -0.020651 0.051393
0.10605 -0.0209236 0.0512523
0.105991 -0.0211942 0.0510614
0.105958 -0.0214656 0.0509153
0.105964 -0.0217389 0.0508379
0.105955 -0.022011 0.0507363
0.10594 -0.0222823 0.0506226
0.105938 -0.0225542 0.0505318
0.105936 -0.0228257 0.0504404
0.105904 -0.0230947 0.0502975
0.106019 -0.0233752 0.0504142
0.10664 -0.0237638 0.0519845
0.106287 -0.0236691 0.0507989
0.108931 -0.0252938 0.0550075
0.109493 -0.0256318 0.055903
0.109893 -0.0259558 0.0565159
0.110132 -0.0262642 0.0568434
0.110206 -0.026555 0.0568839
0.110279 -0.0268457 0.0569208
0.110376 -0.0271397 0.0570007
0.110476 -0.0274343 0.0570856
0.11066 -0.02774 0.0573154
0.110886 -0.0280522 0.05762
0.111108 -0.0283651 0.057917
0.111273 -0.0286712 0.0581138
0.111414 -0.0289748 0.0582692
0.111498 -0.0292708 0.0583248
0.111591 -0.0295683 0.0583954
0.111709 -0.02987 0.058511
0.111901 -0.0301833 0.0587528
0.112081 -0.0304961 0.0589764
0.112252 -0.0308081 0.0591818
0.112403 -0.0311176 0.0593523
0.11258 -0.0314322 0.0595685
0.112727 -0.0317427 0.0597324
0.112893 -0.0320569 0.0599278
0.113059 -0.0323719 0.0601236
0.113249 -0.0326922 0.0603613
0.113435 -0.0330127 0.060591
0.113612 -0.0333324 0.060806
0.113807 -0.0336563 0.061052
0.11399 -0.0339789 0.0612757
0.114185 -0.0343046 0.0615196
0.114578 -0.0381179 0.0610032
0.113929 -0.0382469 0.0598017
0.113197 -0.0383515 0.0584601
0.112504 -0.0384605 0.0571856
0.111891 -0.038585 0.05605
0.111783 -0.0388331 0.0557764
0.111606 -0.0390629 0.0553873
0.111442 -0.0392946 0.0550205
0.111266 -0.0395218 0.0546325
0.111128 -0.0397576 0.0543102
0.11099 -0.0399924 0.0539878
0.110932 -0.040248 0.0538028
0.110908 -0.0405123 0.0536764
0.110888 -0.0407771 0.0535558
0.110903 -0.0410514 0.0534944
0.110937 -0.041331 0.0534659
0.111025 -0.0416263 0.0535292
0.111278 -0.0419696 0.0538717
0.111675 -0.0423565 0.0544571
0.112135 -0.0427647 0.0551492
0.112634 -0.043187 0.0559062
0.11311 -0.0436053 0.0566241
0.11343 -0.0439783 0.0570766
0.113665 -0.0443268 0.0573862
0.113873 -0.0446678 0.057648
0.114046 -0.0449991 0.0578519
0.114182 -0.0453192 0.0579933
0.114307 -0.0456362 0.0581147
0.114426 -0.0459519 0.0582267
0.114501 -0.0462535 0.0582644
0.114586 -0.0465585 0.0583178
0.114662 -0.0468609 0.0583573
0.114737 -0.0471632 0.058395
0.114774 -0.0474527 0.0583683
0.114816 -0.047744 0.0583514
0.11484 -0.0480288 0.0583018
0.114873 -0.0483168 0.0582694
0.114908 -0.0486054 0.0582394
0.114952 -0.0488972 0.0582258
0.114997 -0.0491891 0.0582123
0.115042 -0.0494811 0.0581987
0.115086 -0.049773 0.0581851
0.115131 -0.0500649 0.0581715
0.115175 -0.0503569 0.0581579
0.115202 -0.0506418 0.0581135
0.115198 -0.0509155 0.0580193
0.115152 -0.051173 0.0578559
0.115102 -0.0514279 0.0576834
0.115043 -0.0516791 0.0574981
0.11497 -0.0519244 0.05729
0.114945 -0.0521874 0.0571605
0.114938 -0.0524571 0.0570612
0.114942 -0.0527315 0.0569821
0.114966 -0.0530131 0.0569347
0.115038 -0.0533139 0.0569663
0.115123 -0.0536205 0.0570201
0.115483 -0.0540403 0.0575305
0.1161 -0.054568 0.0584649
0.116777 -0.0552804 0.0600695
0.104046 -0.00624781 0.0517814
0.104075 -0.00652558 0.0517446
0.1041 -0.00680376 0.0517004
0.104139 -0.00708013 0.0516812
0.104193 -0.00735461 0.0516911
0.104229 -0.00763138 0.0516659
0.104273 -0.00790714 0.0516567
0.104273 -0.0081876 0.0515677
0.104221 -0.00847323 0.0513835
0.10414 -0.00876103 0.051148
0.104038 -0.00904998 0.0508751
0.103916 -0.00933987 0.0505646
0.103802 -0.00962787 0.0502697
0.1037 -0.00991372 0.0499971
0.103615 -0.0101971 0.0497563
0.103567 -0.0104768 0.0495804
0.103561 -0.0107527 0.049482
0.103603 -0.0110247 0.0494703
0.1037 -0.011293 0.0495569
0.103808 -0.0115609 0.0496653
0.103889 -0.011831 0.0497223
0.10398 -0.0121007 0.0497981
0.104027 -0.0123732 0.0497958
0.104053 -0.0126469 0.0497541
0.104063 -0.0129211 0.0496848
0.104088 -0.0131945 0.0496432
0.104067 -0.0134697 0.0495178
0.104056 -0.013744 0.0494114
0.104014 -0.0140191 0.0492473
0.103955 -0.0142941 0.0490562
0.103883 -0.0145687 0.0488405
0.10381 -0.0148426 0.0486223
0.103736 -0.0151158 0.048404
0.103655 -0.0153882 0.048173
0.103576 -0.0156598 0.0479454
0.103518 -0.0159304 0.0477555
0.103476 -0.0162002 0.047595
0.103445 -0.0164694 0.0474543
0.103438 -0.0167381 0.0473567
0.103455 -0.0170065 0.0473004
0.103487 -0.0172749 0.0472717
0.103543 -0.0175435 0.0472866
0.104003 -0.0178177 0.0480189
0.104604 -0.0180972 0.048999
0.105225 -0.0183809 0.0500155
0.105794 -0.0186673 0.0509361
0.106308 -0.0189557 0.0517601
0.106396 -0.0192343 0.0518275
0.10638 -0.0195096 0.0517115
0.106377 -0.019785 0.0516194
0.106359 -0.0200595 0.0515
0.106301 -0.0203319 0.0513093
0.106254 -0.0206041 0.0511392
0.106207 -0.0208756 0.0509684
0.10614 -0.0211455 0.0507633
0.106106 -0.0214166 0.0506169
0.106111 -0.0216896 0.0505392
0.106105 -0.0219615 0.0504402
0.106106 -0.0222336 0.0503556
0.106122 -0.0225066 0.0502972
0.106138 -0.0227793 0.0502385
0.106131 -0.0230501 0.0501402
0.106131 -0.0233212 0.0500545
0.106254 -0.0236023 0.0501839
0.106576 -0.0239663 0.0512198
0.106364 -0.0238828 0.0502901
0.107026 -0.02428 0.0519241
0.106629 -0.0241778 0.0506683
0.109285 -0.0255388 0.0549645
0.109895 -0.0258835 0.0559409
0.11034 -0.0262137 0.0566286
0.110594 -0.0265248 0.0569813
0.110702 -0.0268201 0.0570792
0.110836 -0.0271189 0.0572226
0.110984 -0.0274202 0.0573905
0.11119 -0.0277294 0.0576587
0.111437 -0.0280451 0.0579985
0.111646 -0.028357 0.0582711
0.111795 -0.0286617 0.0584385
0.111911 -0.0289626 0.0585501
0.111986 -0.029258 0.0585896
0.112066 -0.0295542 0.0586371
0.112165 -0.0298536 0.0587177
0.112346 -0.030166 0.0589403
0.112529 -0.0304795 0.0591657
0.1127 -0.0307921 0.0593712
0.112852 -0.0311024 0.0595439
0.11303 -0.0314176 0.0597606
0.113167 -0.0317267 0.0599048
0.113321 -0.0320395 0.0600804
0.113475 -0.0323528 0.0602544
0.113637 -0.0326685 0.0604419
0.113792 -0.0329835 0.0606183
0.113938 -0.0332977 0.0607786
0.114094 -0.0336141 0.0609549
0.114732 -0.0380453 0.0606795
0.114149 -0.0381907 0.0595948
0.1135 -0.038316 0.0583989
0.112887 -0.0384458 0.0572659
0.112346 -0.0385892 0.0562558
0.112192 -0.0388269 0.055906
0.111959 -0.0390432 0.0554228
0.111739 -0.0392609 0.0549621
0.111533 -0.0394808 0.0545251
0.111352 -0.0397054 0.0541304
0.111205 -0.039938 0.0537944
0.111154 -0.0401955 0.0536219
0.11114 -0.0404624 0.0535126
0.11112 -0.0407274 0.0533929
0.111144 -0.0410043 0.0533473
0.111186 -0.0412858 0.053331
0.111274 -0.041581 0.0533944
0.111465 -0.0419062 0.0536308
0.11181 -0.0422773 0.0541264
0.11225 -0.0426785 0.0547823
0.112736 -0.0430959 0.0555153
0.113203 -0.0435104 0.0562147
0.113579 -0.0438998 0.0567605
0.113851 -0.044259 0.0571309
0.114071 -0.0446031 0.0574114
0.114265 -0.0449407 0.0576503
0.114423 -0.0452675 0.0578275
0.114557 -0.0455874 0.0579647
0.114687 -0.0459062 0.0580938
0.114772 -0.0462113 0.0581484
0.11486 -0.0465173 0.0582071
0.114946 -0.0468232 0.0582635
0.11503 -0.0471286 0.0583159
0.115076 -0.0474211 0.058304
0.11512 -0.047713 0.0582887
0.115153 -0.0480013 0.0582564
0.115187 -0.0482897 0.058225
0.115222 -0.0485786 0.0581955
0.115267 -0.0488706 0.0581819
0.115311 -0.0491628 0.0581683
0.115356 -0.0494549 0.0581547
0.115401 -0.0497469 0.0581411
0.115445 -0.0500391 0.0581275
0.11549 -0.0503312 0.0581139
0.115525 -0.0506195 0.0580839
0.115521 -0.0508936 0.0579902
0.115484 -0.0511546 0.0578416
0.115444 -0.0514139 0.0576877
0.115395 -0.0516694 0.0575191
0.115324 -0.0519156 0.0573135
0.115316 -0.0521859 0.0572139
0.11531 -0.0524565 0.057116
0.115325 -0.0527351 0.0570538
0.11536 -0.0530217 0.0570249
0.115453 -0.0533317 0.0570923
0.115553 -0.0536447 0.0571702
0.115791 -0.0540143 0.0574757
0.103955 -0.0065291 0.0509528
0.104029 -0.00679984 0.0509984
0.104082 -0.00707332 0.0510064
0.104144 -0.00734595 0.0510284
0.104202 -0.00761908 0.0510449
0.104254 -0.00789299 0.0510502
0.104273 -0.00817054 0.0509956
0.104269 -0.0084503 0.0508997
0.104217 -0.00873456 0.0507171
0.104135 -0.00902107 0.0504807
0.104038 -0.00930808 0.0502182
0.103954 -0.00959301 0.0499782
0.103869 -0.00987709 0.0497378
0.103802 -0.0101588 0.0495293
0.10377 -0.010437 0.0493843
0.103765 -0.0107127 0.0492873
0.103806 -0.0109847 0.0492737
0.103887 -0.0112539 0.0493319
0.103994 -0.0115217 0.0494372
0.104066 -0.0117921 0.0494785
0.104146 -0.0120622 0.0495355
0.104185 -0.0123349 0.0495174
0.104209 -0.0126084 0.0494727
0.104221 -0.0128822 0.0494082
0.104249 -0.0131552 0.0493705
0.104228 -0.0134301 0.0492468
0.104208 -0.0137046 0.0491233
0.104156 -0.0139797 0.0489431
0.104083 -0.0142548 0.0487276
0.104012 -0.0145291 0.0485144
0.103939 -0.0148027 0.0482972
0.103871 -0.0150754 0.0480912
0.103797 -0.0153474 0.0478722
0.103725 -0.0156187 0.0476583
0.103668 -0.0158889 0.0474719
0.103643 -0.0161583 0.0473421
0.103621 -0.0164273 0.0472178
0.103624 -0.0166958 0.0471372
0.103656 -0.0169641 0.0471088
0.103703 -0.0172325 0.0471084
0.103769 -0.0175011 0.0471393
0.104143 -0.0177739 0.0477158
0.104661 -0.0180514 0.0485458
0.105255 -0.0183335 0.0495102
0.105801 -0.0186183 0.0503885
0.1063 -0.0189053 0.051183
0.106479 -0.0191857 0.0514114
0.106529 -0.0194627 0.0514119
0.106528 -0.0197379 0.0513224
0.106511 -0.0200122 0.0512052
0.106451 -0.0202842 0.0510129
0.106388 -0.0205553 0.0508147
0.106332 -0.0208261 0.0506285
0.106256 -0.0210953 0.0504096
0.106229 -0.0213664 0.0502756
0.106243 -0.0216394 0.0502124
0.106244 -0.0219115 0.0501288
0.106255 -0.022184 0.0500617
0.106287 -0.0224577 0.0500305
0.106311 -0.0227308 0.0499874
0.106314 -0.0230022 0.049906
0.10633 -0.0232744 0.0498489
0.106322 -0.0235443 0.0497484
0.106272 -0.0238103 0.0495745
0.106359 -0.024088 0.049641
0.110194 -0.0264052 0.0557076
0.110553 -0.0267276 0.0562426
0.110941 -0.0270553 0.0568253
0.111333 -0.027386 0.0574169
0.111757 -0.0277229 0.0580609
0.111969 -0.0280349 0.0583388
0.112149 -0.0283436 0.0585588
0.112285 -0.0286474 0.0587048
0.112384 -0.0289466 0.0587849
0.112442 -0.0292403 0.0587948
0.112503 -0.0295343 0.0588091
0.11258 -0.029831 0.0588516
0.112748 -0.0301418 0.0590513
0.112931 -0.0304556 0.059276
0.113108 -0.0307694 0.0594908
0.113273 -0.0310821 0.0596826
0.11345 -0.0313976 0.059897
0.113565 -0.0317035 0.0600045
0.1137 -0.0320132 0.0601447
0.113824 -0.0323217 0.060267
0.113948 -0.0326307 0.060389
0.114063 -0.0329384 0.060495
0.11417 -0.0332453 0.0605874
0.114261 -0.0381087 0.0592045
0.113744 -0.0382663 0.0582373
0.113252 -0.0384265 0.0573138
0.112815 -0.0385969 0.0564846
0.112634 -0.0388286 0.0560899
0.112355 -0.039034 0.0555293
0.112065 -0.0392347 0.0549525
0.111826 -0.0394462 0.0544605
0.111613 -0.0396631 0.0540134
0.111446 -0.0398907 0.0536458
0.111387 -0.0401459 0.0534595
0.111382 -0.0404153 0.053365
0.111363 -0.0406805 0.0532472
0.111395 -0.0409598 0.0532165
0.111437 -0.0412414 0.0532002
0.111524 -0.0415363 0.0532621
0.111685 -0.0418525 0.053447
0.111978 -0.042208 0.0538534
0.112385 -0.0425986 0.0544506
0.112858 -0.0430114 0.0551596
0.113319 -0.0434227 0.0558456
0.113721 -0.0438191 0.0564333
0.114033 -0.0441898 0.0568687
0.114272 -0.0445396 0.057181
0.114476 -0.04488 0.0574361
0.114655 -0.045213 0.057647
0.114799 -0.0455358 0.0578005
0.114939 -0.0458579 0.0579462
0.115033 -0.046166 0.058016
0.115131 -0.0464751 0.0580906
0.115227 -0.0467842 0.0581629
0.11532 -0.0470925 0.0582306
0.115366 -0.0473853 0.0582192
0.11541 -0.0476771 0.0582034
0.115443 -0.0479657 0.0581717
0.115479 -0.0482546 0.0581421
0.115515 -0.0485441 0.0581153
0.115569 -0.0488397 0.0581176
0.115623 -0.0491351 0.0581188
0.115668 -0.0494275 0.0581052
0.115712 -0.0497197 0.0580916
0.115757 -0.0500119 0.058078
0.115802 -0.0503042 0.0580644
0.115837 -0.0505929 0.0580349
0.115833 -0.0508671 0.0579418
0.115807 -0.0511326 0.0578109
0.115777 -0.0513959 0.0576739
0.11574 -0.0516563 0.0575251
0.115678 -0.0519067 0.057337
0.115679 -0.0521808 0.0572515
0.115673 -0.052452 0.0571545
0.115697 -0.0527345 0.0571073
0.115744 -0.0530262 0.0570984
0.115869 -0.053349 0.0572165
0.115997 -0.0536738 0.0573408
0.116269 -0.0540577 0.0577014
0.103834 -0.0065328 0.0501656
0.103926 -0.00680006 0.0502428
0.103986 -0.0070715 0.0502632
0.104057 -0.00734177 0.0503032
0.104124 -0.00761266 0.0503369
0.104195 -0.00788341 0.0503756
0.104255 -0.00815544 0.0503962
0.104294 -0.00842978 0.0503786
0.104279 -0.00870967 0.0502621
0.104229 -0.00899239 0.0500854
0.104164 -0.00927602 0.0498798
0.104089 -0.00955973 0.0496576
0.104022 -0.00984189 0.0494512
0.103973 -0.0101219 0.0492747
0.103957 -0.0103986 0.0491591
0.103959 -0.0106735 0.0490754
0.104007 -0.0109448 0.0490742
0.10408 -0.0112144 0.0491188
0.10418 -0.0114825 0.0492101
0.104244 -0.0117532 0.0492374
0.104316 -0.0120236 0.0492792
0.104338 -0.0122969 0.0492321
0.10436 -0.0125702 0.0491834
0.10437 -0.0128439 0.0491146
0.104391 -0.0131169 0.049065
0.104362 -0.0133918 0.0489282
0.104334 -0.0136662 0.0487921
0.104274 -0.0139412 0.0485984
0.104179 -0.0142167 0.0483433
0.104107 -0.0144906 0.0481295
0.104027 -0.0147639 0.0479017
0.103967 -0.0150359 0.0477091
0.103893 -0.0153075 0.0474936
0.103837 -0.0155781 0.0473079
0.103789 -0.0158479 0.0471375
0.103779 -0.0161168 0.0470361
0.103766 -0.0163854 0.0469268
0.103776 -0.0166536 0.0468607
0.103823 -0.0169217 0.0468587
0.103881 -0.0171899 0.0468756
0.103963 -0.0174584 0.0469353
0.104255 -0.0177298 0.0473654
0.10468 -0.0180051 0.0480288
0.105181 -0.0182844 0.0488266
0.10567 -0.0185665 0.049601
0.106111 -0.0188504 0.0502893
0.106354 -0.0191312 0.0506307
0.106472 -0.0194092 0.0507502
0.106521 -0.0196852 0.0507492
0.106552 -0.0199605 0.0507173
0.106531 -0.0202336 0.0505938
0.106482 -0.0205049 0.050421
0.106433 -0.0207756 0.0502488
0.106365 -0.0210448 0.0500439
0.106338 -0.0213155 0.0499108
0.10636 -0.0215886 0.0498636
0.10637 -0.0218608 0.0497942
0.106388 -0.0221334 0.0497406
0.106421 -0.0224069 0.0497115
0.106445 -0.0226796 0.0496675
0.106454 -0.0229511 0.0495986
0.106472 -0.023223 0.049543
0.106472 -0.0234934 0.0494578
0.106429 -0.0237598 0.0492977
0.106374 -0.0240245 0.0491172
0.106619 -0.0243822 0.0500087
0.106451 -0.0243009 0.0491663
0.107097 -0.0246989 0.0507565
0.106731 -0.0245968 0.0495668
0.111087 -0.0272791 0.056413
0.112592 -0.028322 0.0587414
0.112722 -0.0286254 0.0588751
0.112803 -0.0289225 0.0589242
0.112846 -0.0292147 0.0589077
0.112898 -0.0295079 0.058906
0.112952 -0.0298016 0.0589087
0.113083 -0.0301071 0.0590449
0.113249 -0.0304182 0.0592383
0.113861 -0.0316628 0.0599257
0.113993 -0.0319721 0.0600606
0.113941 -0.0382055 0.0579975
0.113579 -0.0383978 0.0572972
0.113256 -0.0385973 0.0566634
0.113057 -0.0388253 0.0562393
0.112752 -0.0390249 0.0556369
0.112414 -0.0392141 0.05498
0.112139 -0.0394171 0.0544299
0.111885 -0.0396237 0.0539159
0.111698 -0.0398461 0.0535148
0.111629 -0.0400989 0.0533131
0.111624 -0.0403684 0.0532192
0.111606 -0.040634 0.0531041
0.111648 -0.0409158 0.0530883
0.11169 -0.0411977 0.0530738
0.111769 -0.0414899 0.0531202
0.111878 -0.041791 0.0532169
0.112137 -0.0421363 0.0535666
0.112538 -0.0425244 0.0541508
0.113003 -0.0429339 0.0548442
0.113469 -0.043346 0.0555365
0.113919 -0.043756 0.0562021
0.114251 -0.0441323 0.0566683
0.114482 -0.0444793 0.0569665
0.114678 -0.0448166 0.0572072
0.115746 -0.0482112 0.0580187
0.115802 -0.0485075 0.0580243
0.115867 -0.0488069 0.0580442
0.11593 -0.0491058 0.0580615
0.115975 -0.0493982 0.0580478
0.11602 -0.0496906 0.0580342
0.116064 -0.049983 0.0580206
0.116109 -0.0502754 0.058007
0.116145 -0.0505646 0.0579784
0.116141 -0.0508392 0.0578859
0.116125 -0.0511084 0.0577713
0.116105 -0.051376 0.0576512
0.116069 -0.0516374 0.0575061
0.116008 -0.0518883 0.057319
0.116001 -0.0521592 0.0572192
0.115992 -0.0524295 0.0571183
0.116017 -0.0527129 0.0570733
0.116074 -0.0530086 0.0570799
0.116218 -0.0533394 0.0572301
0.116347 -0.0536647 0.0573556
0.103666 -0.00626511 0.0493861
0.103753 -0.00653148 0.0494553
0.10384 -0.00679825 0.0495232
0.103923 -0.00706566 0.0495861
0.103989 -0.00733553 0.0496161
0.104065 -0.00760434 0.0496653
0.104146 -0.00787286 0.0497227
0.104232 -0.00814107 0.04979
0.104299 -0.00841158 0.0498231
0.104324 -0.00868653 0.0497798
0.104308 -0.00896537 0.0496634
0.104273 -0.00924558 0.0495132
0.104222 -0.0095267 0.0493348
0.10418 -0.00980634 0.0491736
0.104149 -0.0100846 0.0490304
0.104148 -0.0103598 0.0489431
0.104156 -0.0106341 0.0488709
0.104205 -0.0109052 0.0488702
0.104278 -0.0111746 0.0489151
0.104372 -0.0114429 0.0489954
0.104443 -0.011713 0.0490346
0.104502 -0.011984 0.0490534
0.104508 -0.0122581 0.0489778
0.104512 -0.012532 0.0488985
0.104497 -0.0128067 0.0487844
0.104477 -0.0130811 0.048663
0.10444 -0.0133559 0.048512
0.104405 -0.0136301 0.048363
0.104337 -0.0139048 0.0481564
0.104241 -0.0141798 0.0479009
0.104174 -0.014453 0.0476967
0.1041 -0.0147256 0.0474805
0.104049 -0.0149969 0.0473059
0.103986 -0.0152678 0.04711
0.103953 -0.0155376 0.0469671
0.103914 -0.0158069 0.0468129
0.103911 -0.0160754 0.0467232
0.103897 -0.0163437 0.0466144
0.103922 -0.0166115 0.0465723
0.103985 -0.0168793 0.0465998
0.104059 -0.0171473 0.0466455
0.104159 -0.0174158 0.0467357
0.10437 -0.0176859 0.0470229
0.104694 -0.017959 0.0475061
0.105092 -0.0182354 0.0481195
0.1055 -0.0185143 0.0487502
0.105882 -0.0187951 0.0493331
0.106174 -0.0190755 0.0497589
0.10634 -0.0193536 0.0499629
0.106427 -0.0196297 0.0500296
0.106486 -0.019905 0.0500459
0.106507 -0.0201789 0.0499971
0.106484 -0.0204505 0.0498698
0.10646 -0.0207217 0.0497425
0.106425 -0.0209919 0.0495949
0.106408 -0.0212626 0.0494803
0.106438 -0.0215356 0.0494473
0.106464 -0.0218084 0.0494069
0.106491 -0.022081 0.0493676
0.106515 -0.0223534 0.0493252
0.106552 -0.0226266 0.0493044
0.106568 -0.0228982 0.0492469
0.106586 -0.0231698 0.0491919
0.106587 -0.0234398 0.0491088
0.106553 -0.0237066 0.0489652
0.106491 -0.0239703 0.0487719
0.106395 -0.0242303 0.0485209
0.106482 -0.0245068 0.0485874
0.112358 -0.0279268 0.0578472
0.112965 -0.0282909 0.0588018
0.113889 -0.0383647 0.0572504
0.113675 -0.0385915 0.056802
0.11345 -0.0388137 0.056335
0.113123 -0.0390089 0.0556988
0.112748 -0.0391895 0.0549824
0.112443 -0.0393853 0.0543828
0.112158 -0.0395844 0.0538191
0.111959 -0.039804 0.0533992
0.11188 -0.0400544 0.0531822
0.111875 -0.0403239 0.0530884
0.111866 -0.040592 0.0529882
0.111909 -0.040874 0.0529741
0.111952 -0.0411561 0.0529605
0.112031 -0.0414485 0.0530071
0.112156 -0.0417544 0.0531317
0.112385 -0.0420906 0.0534286
0.112785 -0.042478 0.0540101
0.113241 -0.0428842 0.0546849
0.113687 -0.0432894 0.0553402
0.114112 -0.0436914 0.0559626
0.11445 -0.0440691 0.0564383
0.116251 -0.0496343 0.0578516
0.116306 -0.0499302 0.0578543
0.11636 -0.0502262 0.0578566
0.116405 -0.0505186 0.057843
0.116401 -0.0507932 0.0577505
0.116394 -0.0510658 0.0576507
0.116374 -0.0513335 0.0575319
0.116339 -0.0515951 0.0573874
0.116276 -0.0518458 0.0571986
0.116257 -0.0521126 0.0570811
0.103566 -0.00600085 0.0492929
0.103614 -0.00598434 0.0488191
0.103672 -0.00625353 0.0488359
0.103733 -0.00652247 0.0488577
0.103797 -0.00679108 0.048886
0.103859 -0.00706011 0.0489104
0.103947 -0.00732629 0.0489802
0.10403 -0.00759321 0.049043
0.104124 -0.0078593 0.0491242
0.104226 -0.00812493 0.0492185
0.104318 -0.00839193 0.0492968
0.104362 -0.00866425 0.049287
0.104377 -0.00893929 0.0492277
0.104373 -0.009216 0.0491336
0.104347 -0.00949435 0.049001
0.10433 -0.00977147 0.0488841
0.104322 -0.0100474 0.0487834
0.104338 -0.0103212 0.0487249
0.104355 -0.0105946 0.0486686
0.104404 -0.0108656 0.0486688
0.104471 -0.0111353 0.048701
0.104556 -0.0114039 0.0487667
0.104627 -0.0116739 0.0488051
0.104678 -0.0119451 0.0488101
0.104656 -0.0122206 0.0486847
0.104635 -0.0124955 0.0485614
0.104591 -0.0127712 0.0483976
0.104537 -0.0130467 0.0482174
0.104483 -0.0133216 0.0480361
0.104454 -0.0135949 0.0478994
0.104387 -0.0138691 0.0476948
0.104289 -0.0141435 0.0474379
0.104222 -0.014416 0.0472335
0.104154 -0.0146879 0.0470293
0.104107 -0.0149586 0.0468615
0.104061 -0.0152286 0.0466971
0.104039 -0.0154977 0.046573
0.104006 -0.0157665 0.0464315
0.103996 -0.0160346 0.0463289
0.103981 -0.0163023 0.046219
0.104005 -0.0165697 0.0461775
0.104084 -0.0168369 0.0462322
0.104183 -0.0171046 0.0463202
0.1043 -0.0173727 0.0464407
0.104445 -0.0176417 0.0466109
0.104689 -0.0179129 0.0469536
0.105007 -0.0181868 0.0474256
0.105339 -0.0184628 0.0479206
0.105658 -0.0187404 0.048392
0.105995 -0.0190205 0.048895
0.106198 -0.0192982 0.049163
0.106315 -0.019574 0.0492813
0.106397 -0.019849 0.0493376
0.106453 -0.0201232 0.0493511
0.106451 -0.0203949 0.0492621
0.106456 -0.0206666 0.0491841
0.10644 -0.020937 0.0490715
0.106447 -0.0212083 0.0489994
0.106487 -0.0214812 0.0489827
0.106529 -0.0217543 0.0489701
0.106565 -0.022027 0.0489473
0.106598 -0.0222994 0.0489197
0.106635 -0.0225721 0.0488999
0.106657 -0.0228436 0.0488526
0.106675 -0.0231147 0.0487983
0.106684 -0.0233849 0.0487303
0.10666 -0.0236521 0.0486039
0.106599 -0.0239156 0.0484138
0.106495 -0.0241746 0.0481501
0.106398 -0.0244332 0.0478992
0.106774 -0.0248038 0.0490077
0.106479 -0.0247083 0.0479543
0.107149 -0.0251108 0.0495711
0.106631 -0.0249908 0.0481319
0.113454 -0.0389825 0.0556916
0.113073 -0.0391623 0.0549676
0.112758 -0.0393563 0.0543548
0.112447 -0.0395492 0.0537484
0.112229 -0.0397642 0.0532984
0.11214 -0.0400121 0.0530652
0.112126 -0.0402794 0.0529575
0.112126 -0.0405499 0.0528713
0.112177 -0.0408343 0.0528721
0.112229 -0.0411191 0.0528739
0.112317 -0.0414139 0.0529353
0.112445 -0.0417205 0.0530636
0.112686 -0.0420602 0.0533787
0.113057 -0.0424386 0.0539092
0.113487 -0.0428365 0.0545377
0.113901 -0.0432323 0.05514
0.114301 -0.0436256 0.0557161
0.116613 -0.0512799 0.0573632
0.116577 -0.051541 0.0572173
0.116513 -0.0517912 0.0570265
0.10374 -0.00595727 0.0484875
0.103775 -0.00622919 0.0484619
0.103811 -0.00650081 0.0484399
0.103835 -0.00677394 0.0483959
0.103877 -0.00704472 0.0483844
0.103948 -0.00731197 0.0484262
0.104015 -0.00758004 0.0484583
0.104106 -0.00784558 0.0485334
0.104213 -0.00810967 0.0486381
0.10432 -0.00837422 0.0487425
0.104389 -0.00864313 0.0487783
0.104438 -0.00891417 0.0487785
0.10446 -0.0091878 0.0487312
0.104458 -0.00946344 0.0486421
0.104466 -0.00973797 0.0485694
0.104483 -0.0100115 0.0485139
0.104516 -0.0102835 0.0484862
0.104549 -0.0105555 0.0484591
0.104598 -0.0108263 0.0484595
0.104649 -0.0110969 0.0484638
0.104716 -0.0113666 0.0484968
0.104778 -0.0116368 0.0485192
0.104813 -0.0119087 0.0484961
0.104776 -0.0121847 0.0483439
0.104736 -0.0124602 0.048189
0.104674 -0.0127364 0.0479932
0.1046 -0.0130123 0.0477786
0.104529 -0.0132874 0.0475671
0.1045 -0.01356 0.0474321
0.104428 -0.0138338 0.0472199
0.104324 -0.0141078 0.0469527
0.104241 -0.0143802 0.0467228
0.104173 -0.0146513 0.0465188
0.10412 -0.0149214 0.0463412
0.104091 -0.0151904 0.0462068
0.104077 -0.0154587 0.0460989
0.104044 -0.0157268 0.0459578
0.104033 -0.0159943 0.0458544
0.104024 -0.0162614 0.0457549
0.10405 -0.016528 0.045717
0.104145 -0.0167947 0.0457993
0.104276 -0.0170618 0.0459432
0.10441 -0.0173296 0.0460939
0.104572 -0.0175983 0.0462929
0.104749 -0.017868 0.0465175
0.104997 -0.0181399 0.0468648
0.105263 -0.0184135 0.0472432
0.105525 -0.0186886 0.0476139
0.105806 -0.0189656 0.0480184
0.106037 -0.0192427 0.0483343
0.106167 -0.0195176 0.0484754
0.106249 -0.0197912 0.0485323
0.10633 -0.0200651 0.0485891
0.106356 -0.0203369 0.0485495
0.106398 -0.0206093 0.0485373
0.10641 -0.0208801 0.0484722
0.106449 -0.0211522 0.0484559
0.106504 -0.0214253 0.0484665
0.106562 -0.0216986 0.0484817
0.10661 -0.0219713 0.0484793
0.10666 -0.0222442 0.048481
0.106706 -0.022517 0.0484759
0.106728 -0.022788 0.04843
0.106754 -0.0230591 0.0483911
0.106766 -0.023329 0.0483263
0.106757 -0.023597 0.0482267
0.106703 -0.0238608 0.0480509
0.106607 -0.0241201 0.0478014
0.10651 -0.0243784 0.0475506
0.106414 -0.024636 0.0473037
0.106362 -0.024897 0.0471306
0.106807 -0.0252765 0.0483508
0.106329 -0.0251593 0.0469901
0.10702 -0.0255671 0.048633
0.113639 -0.0389197 0.0554411
0.113325 -0.0391166 0.0548301
0.113041 -0.0393189 0.0542709
0.112763 -0.0395209 0.053723
0.112543 -0.039736 0.0532715
0.112444 -0.0399817 0.0530227
0.112422 -0.0402468 0.0528999
0.112421 -0.0405173 0.0528136
0.112473 -0.040802 0.0528154
0.112526 -0.0410873 0.0528189
0.112606 -0.0413801 0.0528674
0.112743 -0.0416891 0.0530093
0.112986 -0.0420293 0.053327
0.113316 -0.0423957 0.0537883
0.113689 -0.0427763 0.0543189
0.114051 -0.0431559 0.0548326
0.103803 -0.00593884 0.0480447
0.103809 -0.00621392 0.0479685
0.103826 -0.00648727 0.0479132
0.103832 -0.00676189 0.0478374
0.103859 -0.00703372 0.0477988
0.103916 -0.00730174 0.0478156
0.103981 -0.00756908 0.0478445
0.104076 -0.00783314 0.047928
0.104182 -0.00809647 0.0480292
0.104298 -0.00835918 0.0481484
0.104392 -0.0086246 0.0482288
0.10448 -0.00889091 0.0482999
0.104536 -0.00916062 0.0483135
0.104569 -0.00943257 0.0482856
0.10461 -0.0097038 0.0482709
0.104651 -0.00997493 0.0482583
0.104694 -0.0102459 0.0482479
0.104736 -0.010517 0.0482377
0.104785 -0.0107876 0.0482381
0.104834 -0.0110582 0.048238
0.104876 -0.0113294 0.0482261
0.104918 -0.0116005 0.0482145
0.104928 -0.0118736 0.0481474
0.104874 -0.0121501 0.0479662
0.104818 -0.0124261 0.0477831
0.104745 -0.0127023 0.0475705
0.104656 -0.0129784 0.0473289
0.104585 -0.0132529 0.0471194
0.104542 -0.0135255 0.0469612
0.104463 -0.0137988 0.0467371
0.10436 -0.0140721 0.046474
0.104269 -0.0143442 0.0462299
0.104194 -0.0146149 0.0460149
0.104145 -0.0148842 0.0458461
0.104117 -0.0151524 0.0457143
0.104103 -0.0154201 0.0456059
0.104071 -0.0156875 0.0454672
0.104051 -0.0159544 0.0453491
0.104035 -0.0162208 0.0452375
0.104054 -0.0164867 0.0451872
0.104151 -0.0167526 0.0452728
0.104298 -0.0170189 0.0454462
0.10445 -0.0172861 0.0456259
0.104637 -0.0175543 0.0458676
0.104837 -0.0178237 0.0461307
0.10504 -0.0180942 0.0464006
0.105264 -0.0183662 0.0467041
0.105481 -0.0186393 0.0469971
0.105696 -0.0189134 0.0472854
0.10587 -0.0191875 0.0475007
0.106002 -0.019461 0.0476461
0.106077 -0.0197331 0.047692
0.106167 -0.0200059 0.047762
0.106217 -0.0202774 0.0477652
0.106278 -0.0205494 0.0477861
0.106322 -0.0208207 0.0477774
0.106378 -0.0210926 0.0477904
0.106449 -0.0213655 0.0478282
0.106541 -0.0216399 0.0479026
0.106621 -0.0219138 0.0479556
0.10669 -0.0221872 0.0479902
0.106759 -0.0224609 0.0480261
0.106798 -0.0227325 0.048009
0.106825 -0.0230032 0.0479711
0.106838 -0.0232726 0.0479089
0.10683 -0.0235401 0.0478111
0.106775 -0.0238034 0.0476348
0.106687 -0.0240629 0.0473994
0.10659 -0.0243209 0.0471512
0.106505 -0.024579 0.0469222
0.106461 -0.0248404 0.0467635
0.106436 -0.0251033 0.0466388
0.106336 -0.0254256 0.04692
0.106444 -0.0253691 0.04657
0.10658 -0.0257174 0.0472535
0.106454 -0.0256349 0.0465032
0.106864 -0.0260153 0.0476569
0.106485 -0.025903 0.0464739
0.113819 -0.0388555 0.0551815
0.113572 -0.0390696 0.0546855
0.113317 -0.0392798 0.0541774
0.113059 -0.0394871 0.0536627
0.112845 -0.0397044 0.0532233
0.112745 -0.0399501 0.0529727
0.112713 -0.0402129 0.0528355
0.112721 -0.0404859 0.0527632
0.112773 -0.040771 0.0527655
0.112827 -0.0410564 0.0527698
0.112899 -0.0413472 0.052805
0.113052 -0.0416606 0.0529721
0.113293 -0.0420001 0.0532858
0.113591 -0.0423572 0.053693
0.113907 -0.0427208 0.0541276
0.103833 -0.00620017 0.0474589
0.103841 -0.00647386 0.0473889
0.103837 -0.006749 0.0472954
0.103855 -0.00702103 0.0472422
0.103911 -0.00728837 0.0472569
0.103977 -0.00755475 0.0472873
0.104073 -0.00781784 0.0473725
0.10418 -0.00808018 0.0474761
0.104304 -0.00834118 0.0476092
0.104407 -0.0086049 0.0477052
0.104521 -0.00886792 0.0478211
0.104604 -0.00913441 0.0478815
0.10467 -0.00940271 0.0479127
0.104743 -0.00967057 0.0479559
0.104809 -0.00993924 0.0479869
0.104869 -0.0102086 0.0480068
0.10492 -0.0104787 0.0480113
0.104961 -0.0107497 0.0479978
0.104985 -0.0110219 0.0479551
0.105001 -0.0112945 0.0478966
0.105017 -0.0115669 0.0478401
0.10501 -0.0118406 0.0477425
0.104946 -0.0121171 0.0475467
0.10489 -0.0123926 0.0473638
0.104811 -0.0126685 0.0471414
0.104724 -0.0129441 0.0469034
0.104653 -0.013218 0.0466959
0.104605 -0.0134903 0.0465273
0.104516 -0.0137634 0.046289
0.104419 -0.014036 0.046036
0.104311 -0.014308 0.0457648
0.104228 -0.0145783 0.045537
0.104178 -0.014847 0.0453659
0.104135 -0.0151149 0.045208
0.104106 -0.015382 0.0450745
0.104073 -0.0156488 0.0449355
0.104045 -0.0159149 0.044804
0.104021 -0.0161806 0.0446796
0.104046 -0.0164457 0.0446408
0.104143 -0.0167107 0.0447263
0.104291 -0.0169762 0.0449005
0.104451 -0.0172425 0.0450933
0.104654 -0.0175101 0.0453622
0.104878 -0.017779 0.0456668
0.1051 -0.018049 0.0459663
0.105331 -0.0183204 0.0462833
0.105548 -0.0185928 0.0465743
0.105731 -0.0188655 0.0468054
0.105854 -0.0191373 0.0469346
0.105943 -0.0194085 0.0470034
0.105983 -0.0196782 0.0469888
0.106046 -0.0199489 0.0470134
0.106095 -0.0202191 0.0470157
0.106165 -0.0204903 0.0470515
0.106224 -0.0207612 0.0470701
0.106305 -0.0210333 0.047125
0.106394 -0.0213062 0.0471936
0.106511 -0.021581 0.0473118
0.106616 -0.0218556 0.0474087
0.106711 -0.0221299 0.0474871
0.106806 -0.0224046 0.0475666
0.106863 -0.0226768 0.0475795
0.106898 -0.0229476 0.0475562
0.106909 -0.0232164 0.0474919
0.106892 -0.0234826 0.0473789
0.10683 -0.0237447 0.0471904
0.106751 -0.0240046 0.0469722
0.106664 -0.024263 0.0467418
0.106596 -0.0245224 0.0465437
0.106569 -0.024785 0.0464145
0.106552 -0.0250483 0.046304
0.10656 -0.0253138 0.0462354
0.106584 -0.0255808 0.0461937
0.106625 -0.0258495 0.0461801
0.107021 -0.0262292 0.0473042
0.106908 -0.026146 0.0465779
0.107621 -0.0265662 0.0482431
0.107226 -0.0264482 0.0470349
0.113997 -0.0387912 0.0549205
0.113801 -0.039018 0.0545104
0.113577 -0.0392364 0.0540554
0.113337 -0.0394491 0.0535737
0.113139 -0.0396708 0.0531619
0.113039 -0.0399165 0.0529117
0.113007 -0.0401797 0.0527749
0.113024 -0.0404552 0.0527176
0.113076 -0.0407405 0.0527194
0.113129 -0.0410259 0.0527227
0.113191 -0.041314 0.0527408
0.113334 -0.0416246 0.0528912
0.113539 -0.0419537 0.0531438
0.103744 -0.00620138 0.046754
0.103779 -0.00647059 0.0467302
0.103797 -0.00674185 0.0466773
0.103807 -0.00701393 0.0466102
0.103863 -0.00728029 0.0466245
0.103922 -0.0075464 0.0466444
0.104021 -0.00780816 0.0467342
0.104136 -0.00806859 0.046852
0.104276 -0.00832693 0.0470126
0.104394 -0.00858821 0.0471344
0.104546 -0.00884654 0.0473176
0.104662 -0.00910914 0.0474361
0.104755 -0.00937437 0.0475141
0.104853 -0.00963948 0.047601
0.104943 -0.00990569 0.0476734
0.105003 -0.0101746 0.0476944
0.105054 -0.0104444 0.0476986
0.105094 -0.0107151 0.0476831
0.105102 -0.0109881 0.0476117
0.105101 -0.0112614 0.0475255
0.1051 -0.0115345 0.0474391
0.105083 -0.0118082 0.0473249
0.105012 -0.0120847 0.0471166
0.10495 -0.0123599 0.0469251
0.104874 -0.0126351 0.0467079
0.104787 -0.0129101 0.0464723
0.10471 -0.0131837 0.0462543
