ply
format ascii 1.0
element vertex 1637
property float x
property float y
property float z
end_header
-0.279891 0.0107954 0.824318
-0.280717 0.0104491 0.82481
-0.281517 0.0100882 0.825245
-0.282357 0.00974384 0.825759
-0.283246 0.00942031 0.826372
-0.284189 0.00911875 0.827091
-0.285115 0.00880592 0.827769
-0.28596 0.00845394 0.828277
-0.286773 0.00808514 0.828715
-0.287519 0.00768425 0.829011
-0.288347 0.00731842 0.829474
-0.289266 0.00699035 0.830119
-0.290275 0.00669804 0.830938
-0.291304 0.00641159 0.831795
-0.292276 0.00609703 0.83253
-0.293215 0.00576499 0.833192
-0.294072 0.00539653 0.833689
-0.294724 0.00494015 0.833771
-0.295312 0.00445665 0.833724
-0.295945 0.00399177 0.833769
-0.296451 0.00347457 0.833559
-0.297455 0.00315749 0.834331
-0.301468 0.00330364 0.839786
-0.303351 0.00331333 0.842247
-0.305262 0.00332408 0.844745
-0.30679 0.00317904 0.846486
-0.307834 0.00284325 0.847279
-0.308931 0.00252482 0.848171
-0.310159 0.00225101 0.849306
-0.311366 0.00196555 0.850396
-0.312518 0.0016554 0.851372
-0.313752 0.00137103 0.852497
-0.3149 0.00105146 0.853453
-0.315888 0.000671033 0.854098
-0.317397 0.000471698 0.855723
-0.319525 0.000482492 0.858504
-0.252425 0.0596065 0.870386
-0.252554 0.0595365 0.872336
-0.252797 0.0586938 0.871236
-0.253048 0.0578631 0.870167
-0.253107 0.056872 0.868577
-0.253108 0.0558384 0.866841
-0.253211 0.0548991 0.865396
-0.253353 0.0539992 0.864068
-0.253596 0.0531888 0.863023
-0.253911 0.0524433 0.862181
-0.254298 0.0517591 0.861534
-0.254732 0.0511163 0.861019
-0.255226 0.0505247 0.86067
-0.255659 0.0498847 0.860159
-0.256074 0.0492318 0.859602
-0.256514 0.0486016 0.859117
-0.25694 0.0479618 0.858597
-0.257371 0.0473276 0.858092
-0.257867 0.0467455 0.85776
-0.258381 0.0461782 0.857477
-0.258928 0.0456368 0.85728
-0.259477 0.0450976 0.85709
-0.260042 0.0445704 0.85694
-0.260639 0.0440676 0.856874
-0.261255 0.0435787 0.856856
-0.261858 0.0430796 0.856803
-0.262477 0.0425918 0.856791
-0.263109 0.0421129 0.85681
-0.263779 0.0416604 0.856923
-0.263979 0.0408743 0.855862
-0.263545 0.0399015 0.851831
-0.263844 0.0398574 0.853975
-0.261263 0.035362 0.843052
-0.260928 0.0342514 0.840747
-0.26094 0.0333852 0.839306
-0.261532 0.0329131 0.839285
-0.26199 0.032352 0.83894
-0.262297 0.0316919 0.83823
-0.262572 0.0310138 0.837449
-0.262762 0.0302836 0.83647
-0.26292 0.0295363 0.835419
-0.263158 0.0288443 0.834566
-0.263483 0.0282102 0.833923
-0.263836 0.027596 0.833351
-0.264254 0.0270251 0.832937
-0.264735 0.0264936 0.83267
-0.265198 0.0259525 0.832364
-0.265665 0.0254142 0.832068
-0.266163 0.0248958 0.831846
-0.266678 0.0243883 0.831666
-0.267196 0.0238823 0.83149
-0.267747 0.0233964 0.831392
-0.268299 0.0229112 0.831297
-0.268885 0.0224455 0.831277
-0.269457 0.0219712 0.831226
-0.270029 0.0214972 0.831175
-0.270615 0.0210309 0.831156
-0.271252 0.0205927 0.83125
-0.271847 0.0201303 0.831249
-0.272456 0.0196755 0.831279
-0.273009 0.0191891 0.831182
-0.273453 0.0186435 0.830843
-0.273752 0.018021 0.830187
-0.274006 0.0173765 0.829435
-0.274186 0.0166956 0.828525
-0.27437 0.0160195 0.827627
-0.274589 0.0153654 0.826814
-0.27486 0.014741 0.826118
-0.275186 0.0141466 0.825543
-0.27553 0.013564 0.825013
-0.275947 0.013019 0.82464
-0.276383 0.0124855 0.824313
-0.276809 0.0119473 0.823963
-0.277312 0.0114482 0.82378
-0.277919 0.0110003 0.823819
-0.278579 0.0105772 0.823968
-0.279286 0.0101758 0.824215
-0.280072 0.00981079 0.824627
-0.280837 0.00943394 0.824992
-0.281637 0.00907136 0.825425
-0.282501 0.00873657 0.825989
-0.283416 0.00842267 0.826654
-0.284317 0.00809987 0.827288
-0.285157 0.00774642 0.827789
-0.28595 0.00736949 0.828189
-0.286673 0.00695958 0.828443
-0.287461 0.00657745 0.828829
-0.288333 0.00622999 0.829382
-0.289276 0.00591063 0.830075
-0.29026 0.00560589 0.830846
-0.291189 0.00527441 0.8315
-0.292147 0.00495282 0.83221
-0.292979 0.00457539 0.83266
-0.293596 0.00410676 0.832677
-0.294112 0.00359656 0.832492
-0.294609 0.00307874 0.832269
-0.294921 0.00248729 0.831682
-0.302035 0.00241615 0.840842
-0.304302 0.00256481 0.844049
-0.306173 0.0025504 0.846464
-0.307551 0.00234099 0.84791
-0.308592 0.00199977 0.848694
-0.309908 0.00175677 0.850001
-0.311182 0.00149414 0.851221
-0.312418 0.00121271 0.852361
-0.313679 0.000935506 0.853539
-0.314839 0.000618047 0.854519
-0.315711 0.000194883 0.854945
-0.317749 0.000178617 0.857576
-0.320512 0.000404201 0.861559
-0.253238 0.0588904 0.874054
-0.253075 0.0576957 0.871823
-0.253205 0.0567634 0.87042
-0.25321 0.0557302 0.868681
-0.253275 0.054756 0.867122
-0.253357 0.0538027 0.86562
-0.253545 0.0529447 0.864418
-0.25384 0.0521795 0.863512
-0.254194 0.051467 0.862774
-0.254612 0.0508097 0.862212
-0.255106 0.0502159 0.861857
-0.25554 0.0495743 0.861342
-0.255956 0.0489214 0.860786
-0.25641 0.0483001 0.860332
-0.256836 0.047658 0.859805
-0.257233 0.046996 0.859208
-0.257696 0.0463868 0.858786
-0.258174 0.0457906 0.858406
-0.258687 0.0452226 0.85812
-0.259218 0.0446685 0.857881
-0.259784 0.0441415 0.857733
-0.260365 0.0436251 0.857622
-0.260965 0.0431237 0.857563
-0.26157 0.0426246 0.857512
-0.26219 0.0421369 0.857501
-0.262842 0.0416716 0.857571
-0.263566 0.0412565 0.857818
-0.264073 0.0406864 0.85752
-0.264265 0.0398974 0.85644
-0.261555 0.0353059 0.845137
-0.26089 0.0339695 0.842009
-0.260624 0.0329145 0.839879
-0.261287 0.0324896 0.840031
-0.261815 0.0319736 0.839852
-0.262158 0.0313366 0.839226
-0.262451 0.030669 0.838482
-0.26264 0.029937 0.837494
-0.262767 0.029169 0.836365
-0.262957 0.0284454 0.835392
-0.26326 0.027797 0.834694
-0.263578 0.0271606 0.834036
-0.263965 0.0265694 0.833546
-0.264431 0.0260286 0.833243
-0.264895 0.0254879 0.832939
-0.26533 0.0249302 0.832568
-0.265809 0.0243993 0.832298
-0.266304 0.0238796 0.83207
-0.266803 0.0233625 0.831851
-0.267339 0.0228674 0.831717
-0.267891 0.0223825 0.831623
-0.268491 0.0219249 0.831637
-0.269077 0.0214587 0.831617
-0.269663 0.0209919 0.831596
-0.270264 0.0205342 0.831612
-0.270902 0.0200957 0.831707
-0.271498 0.0196337 0.831709
-0.272109 0.0191795 0.831743
-0.272682 0.0187039 0.831691
-0.273164 0.0181789 0.831436
-0.27352 0.0175866 0.830902
-0.273794 0.0169529 0.830192
-0.273993 0.0162813 0.829318
-0.274157 0.0155947 0.828374
-0.27434 0.0149215 0.827478
-0.274577 0.0142794 0.826705
-0.274886 0.0136765 0.826091
-0.275216 0.0130862 0.825527
-0.275632 0.012541 0.825152
-0.276086 0.0120158 0.82486
-0.276509 0.0114764 0.824504
-0.276961 0.0109518 0.824211
-0.27751 0.0104755 0.824127
-0.27809 0.0100137 0.824107
-0.278703 0.00956747 0.824157
-0.279418 0.00916878 0.82442
-0.280146 0.00877518 0.82471
-0.28091 0.00839694 0.825073
-0.281757 0.00805492 0.825606
-0.282649 0.00773108 0.826228
-0.283529 0.00739908 0.82682
-0.284361 0.00704316 0.82731
-0.285134 0.00665836 0.827673
-0.285817 0.00623251 0.827849
-0.286545 0.0058249 0.828115
-0.287332 0.005442 0.828501
-0.288164 0.00507647 0.828974
-0.289057 0.0047345 0.829566
-0.289933 0.0043833 0.830122
-0.290823 0.0040352 0.8307
-0.291614 0.00364381 0.831076
-0.292212 0.00317088 0.831061
-0.292678 0.00264366 0.830781
-0.293032 0.00207232 0.830281
-0.293274 0.00145711 0.82956
-0.293718 0.000924728 0.829243
-0.305765 0.00127244 0.845617
-0.30715 0.00106328 0.847079
-0.308999 0.00101967 0.849429
-0.310832 0.0009611 0.851731
-0.312181 0.000719335 0.853091
-0.313494 0.000459107 0.854373
-0.314712 0.000160518 0.855465
-0.316042 -0.00010327 0.856763
-0.318643 7.1112e-05 0.860466
-0.253549 0.0589716 0.876526
-0.25299 0.0574308 0.873178
-0.25321 0.056574 0.872016
-0.253301 0.0556113 0.870503
-0.253352 0.0546226 0.868895
-0.253383 0.053624 0.867242
-0.253519 0.0527203 0.86589
-0.253761 0.0519091 0.864833
-0.254079 0.0511656 0.863992
-0.254481 0.0504931 0.863381
-0.254965 0.0498887 0.862993
-0.255401 0.0492482 0.862482
-0.255819 0.0485948 0.861925
-0.25626 0.0479615 0.861431
-0.256671 0.0473062 0.860861
-0.257049 0.0466284 0.86021
-0.257491 0.046002 0.85973
-0.257933 0.0453766 0.859251
-0.258411 0.044781 0.858871
-0.25891 0.0442022 0.858548
-0.259459 0.0436616 0.858354
-0.260026 0.0431345 0.858207
-0.260627 0.0426324 0.858146
-0.261246 0.0421437 0.858133
-0.261885 0.0416685 0.858169
-0.262591 0.041241 0.858374
-0.26337 0.0408643 0.858761
-0.264195 0.0405174 0.85926
-0.264714 0.0399541 0.858988
-0.260911 0.0337257 0.843421
-0.260356 0.0324757 0.840571
-0.26107 0.0320838 0.840848
-0.261651 0.0316021 0.840796
-0.262 0.0309679 0.84018
-0.262308 0.0303096 0.83947
-0.262497 0.0295766 0.838476
-0.262608 0.0287977 0.837302
-0.262769 0.0280551 0.836255
-0.263073 0.0274067 0.835557
-0.263373 0.0267577 0.83485
-0.263741 0.0261543 0.834312
-0.264173 0.0255915 0.833926
-0.264621 0.0250405 0.833583
-0.265039 0.0244718 0.83317
-0.265503 0.0239316 0.832864
-0.265979 0.0234002 0.83259
-0.266476 0.0228817 0.832366
-0.267011 0.0223856 0.832228
-0.267564 0.0219008 0.832135
-0.268151 0.0214349 0.832118
-0.268719 0.0209584 0.832059
-0.269289 0.0204823 0.832001
-0.269874 0.0200148 0.831979
-0.270494 0.0195669 0.832037
-0.271088 0.0191032 0.832032
-0.271699 0.0186487 0.832066
-0.272288 0.018182 0.832051
-0.272806 0.0176763 0.831875
-0.2732 0.0171051 0.831427
-0.273513 0.0164917 0.830799
-0.273748 0.0158393 0.830002
-0.273913 0.015153 0.829055
-0.274078 0.0144707 0.828116
-0.274299 0.0138199 0.827304
-0.27459 0.0132077 0.826649
-0.274906 0.0126105 0.826053
-0.275305 0.0120569 0.82564
-0.275739 0.0115216 0.825304
-0.276158 0.0109798 0.824937
-0.276574 0.0104378 0.824566
-0.27707 0.00993521 0.824366
-0.277591 0.00944543 0.824222
-0.278139 0.00896876 0.824136
-0.278776 0.00853378 0.824238
-0.279466 0.00812277 0.824449
-0.280198 0.00773029 0.824748
-0.281028 0.00738098 0.825248
-0.281919 0.00705744 0.825872
-0.282795 0.00672472 0.826463
-0.283627 0.00636911 0.826954
-0.284414 0.00599168 0.827351
-0.285095 0.00556584 0.827526
-0.285743 0.00512444 0.827631
-0.286445 0.00470539 0.827845
-0.287149 0.00428643 0.828062
-0.287917 0.00389297 0.828405
-0.288688 0.00349945 0.828753
-0.289521 0.00313053 0.829226
-0.290265 0.00272207 0.829512
-0.290849 0.002247 0.829476
-0.291289 0.00171328 0.829151
-0.291625 0.00113832 0.828619
-0.291824 0.000510359 0.827816
-0.291983 -0.000130969 0.826938
-0.312747 -0.00094866 0.852891
-0.314042 -0.00122061 0.854136
-0.252789 0.0570655 0.874219
-0.253096 0.0562806 0.873288
-0.253274 0.0553916 0.872011
-0.253377 0.0544443 0.870535
-0.2534 0.0534368 0.86885
-0.253502 0.0525021 0.867394
-0.253693 0.0516466 0.866189
-0.25396 0.0508591 0.865202
-0.25433 0.050159 0.8645
-0.254782 0.0495274 0.864022
-0.255221 0.0488881 0.863516
-0.255641 0.0482349 0.862959
-0.256087 0.0476035 0.862473
-0.256512 0.0469588 0.861939
-0.256894 0.0462818 0.861291
-0.257332 0.0456512 0.860798
-0.257756 0.0450108 0.860268
-0.258214 0.0443984 0.859831
-0.258679 0.0437929 0.859416
-0.259211 0.0432388 0.859177
-0.259747 0.0426874 0.858947
-0.260345 0.0421829 0.85888
-0.260965 0.0416937 0.858867
-0.261622 0.0412305 0.858947
-0.262369 0.0408313 0.859256
-0.263174 0.0404707 0.859706
-0.264004 0.0401262 0.860219
-0.264818 0.0397669 0.860684
-0.260426 0.0322633 0.8421
-0.260859 0.0316811 0.841681
-0.261476 0.0312225 0.841717
-0.261827 0.0305887 0.841103
-0.26212 0.0299191 0.84035
-0.262303 0.0291823 0.839338
-0.262417 0.0284047 0.838165
-0.262582 0.0276639 0.837122
-0.26289 0.0270174 0.836429
-0.263187 0.0263661 0.835713
-0.263552 0.0257599 0.835164
-0.263964 0.0251841 0.834729
-0.264396 0.0246222 0.834344
-0.264797 0.0240428 0.833888
-0.265244 0.0234919 0.833542
-0.265689 0.0229413 0.833193
-0.266171 0.0224134 0.832932
-0.26669 0.0219078 0.832758
-0.267243 0.0214223 0.832664
-0.267813 0.0209464 0.832607
-0.268383 0.0204705 0.832551
-0.268956 0.0199955 0.8325
-0.269526 0.0195194 0.832444
-0.270129 0.0190613 0.832462
-0.270718 0.0185946 0.832446
-0.271307 0.0181279 0.832431
-0.271894 0.0176599 0.832411
-0.27243 0.0171642 0.832276
-0.272878 0.0166214 0.831945
-0.273232 0.01603 0.831406
-0.273506 0.0153982 0.830693
-0.27369 0.0147221 0.829786
-0.273855 0.0140392 0.828842
-0.274056 0.013378 0.827982
-0.274329 0.0127566 0.827285
-0.274643 0.0121582 0.826682
-0.27501 0.0115882 0.826198
-0.275425 0.0110431 0.825818
-0.275825 0.0104918 0.825408
-0.276207 0.00993295 0.824962
-0.276635 0.00939798 0.824618
-0.277116 0.00888937 0.82439
-0.277607 0.00838536 0.82418
-0.278153 0.00790801 0.82409
-0.278784 0.00747031 0.824179
-0.279458 0.00705163 0.824358
-0.280214 0.00666942 0.824708
-0.281083 0.00633727 0.825293
-0.281959 0.0060054 0.825887
-0.282813 0.00566096 0.82643
-0.283636 0.00530051 0.826905
-0.284349 0.00488956 0.827149
-0.284971 0.00443813 0.827203
-0.285627 0.00400033 0.827325
-0.286249 0.00354769 0.827378
-0.286912 0.00311168 0.827513
-0.287598 0.00268435 0.827693
-0.288323 0.00227202 0.82795
-0.288976 0.00182887 0.828059
-0.289491 0.00132872 0.827889
-0.289904 0.000787827 0.827515
-0.290326 0.000251231 0.82716
-0.290682 -0.000310668 0.826674
-0.291028 -0.000874638 0.826172
-0.293165 -0.000368951 0.82809
-0.291888 -0.00123744 0.826692
-0.294989 -0.000362013 0.830504
-0.293255 -0.00140627 0.828213
-0.25345 0.0574413 0.877678
-0.253432 0.0563725 0.875827
-0.253348 0.0552561 0.873807
-0.253198 0.0540929 0.871619
-0.253292 0.0531438 0.870121
-0.253397 0.0522101 0.868665
-0.253567 0.0513362 0.867397
-0.253795 0.050515 0.866296
-0.25413 0.0497851 0.865494
-0.25455 0.0491266 0.864926
-0.255005 0.0484978 0.864455
-0.255439 0.0478546 0.863932
-0.255887 0.0472243 0.86345
-0.256331 0.046593 0.862962
-0.256731 0.0459292 0.862359
-0.257145 0.0452778 0.861795
-0.257569 0.0446364 0.861262
-0.257994 0.0439978 0.860735
-0.258437 0.043375 0.86026
-0.258951 0.0428058 0.85997
-0.259467 0.0422399 0.859689
-0.260034 0.0417114 0.859539
-0.260668 0.0412316 0.859562
-0.261343 0.0407806 0.859688
-0.262113 0.0403961 0.860054
-0.262939 0.0400499 0.860561
-0.263789 0.039717 0.861121
-0.264617 0.0393663 0.861622
-0.264345 0.0385153 0.857928
-0.264484 0.0383493 0.859707
-0.260986 0.0323766 0.844846
-0.261057 0.0315496 0.843527
-0.261371 0.0308875 0.842812
-0.261703 0.0302407 0.842149
-0.261962 0.0295479 0.841308
-0.262111 0.028788 0.840207
-0.262238 0.0280186 0.839061
-0.262406 0.0272792 0.83802
-0.26272 0.0266356 0.837337
-0.26302 0.0259855 0.836624
-0.263384 0.0253776 0.836069
-0.263748 0.0247715 0.835517
-0.264161 0.0241971 0.835084
-0.264544 0.0236062 0.834583
-0.264989 0.0230542 0.834231
-0.265422 0.0224955 0.833851
-0.265904 0.0219671 0.833589
-0.266406 0.0214509 0.833373
-0.266942 0.0209551 0.833239
-0.267496 0.0204691 0.833144
-0.268066 0.0199928 0.833087
-0.26862 0.0195075 0.832995
-0.269174 0.0190218 0.832901
-0.269743 0.0185441 0.83284
-0.270311 0.018066 0.832778
-0.270881 0.0175891 0.832721
-0.271467 0.0171203 0.832698
-0.272021 0.0166339 0.832602
-0.272521 0.0161191 0.832387
-0.272914 0.0155486 0.831935
-0.273229 0.0149381 0.831309
-0.27345 0.014281 0.830479
-0.273617 0.0135994 0.829537
-0.273813 0.012936 0.828664
-0.274069 0.0123054 0.827925
-0.274364 0.0116969 0.827277
-0.274697 0.01111 0.826717
-0.275094 0.0105558 0.826296
-0.275474 0.00999504 0.825844
-0.27584 0.00942877 0.825362
-0.276238 0.00887896 0.824951
-0.276667 0.00834558 0.82461
-0.277102 0.00781568 0.824282
-0.277574 0.00730393 0.824034
-0.278131 0.00683237 0.823968
-0.278744 0.00638663 0.824021
-0.279435 0.00597547 0.824237
-0.280243 0.00561649 0.824697
-0.28108 0.00526824 0.825215
-0.281954 0.00493379 0.825804
-0.282802 0.00458558 0.826336
-0.283572 0.00420125 0.826703
-0.28423 0.0037663 0.826834
-0.284898 0.00333516 0.826985
-0.285498 0.0028741 0.826995
-0.286088 0.00240807 0.826981
-0.286713 0.00195669 0.827041
-0.287317 0.00149611 0.827057
-0.287848 0.00100524 0.826924
-0.288373 0.00051159 0.826777
-0.28886 3.12197e-06 0.826555
-0.289348 -0.000504286 0.826337
-0.289839 -0.00101021 0.826125
-0.290332 -0.0015152 0.825916
-0.290818 -0.00202209 0.825697
-0.291754 -0.00235609 0.826369
-0.29464 -0.00157399 0.82976
-0.292672 -0.00269931 0.827003
-0.253747 0.0553943 0.87652
-0.253297 0.0539741 0.87348
-0.25315 0.0528215 0.871306
-0.253275 0.0519031 0.869896
-0.253445 0.0510274 0.868619
-0.253652 0.0501876 0.867454
-0.253951 0.0494271 0.866548
-0.25432 0.0487261 0.865836
-0.254754 0.0480804 0.865308
-0.255173 0.0474242 0.864741
-0.25562 0.0467923 0.864254
-0.256071 0.0461652 0.86378
-0.256507 0.045528 0.863268
-0.256941 0.0448911 0.862754
-0.257368 0.0442514 0.862227
-0.257794 0.043612 0.861697
-0.258235 0.0429867 0.861214
-0.258746 0.0424139 0.860912
-0.25923 0.041823 0.860545
-0.259795 0.0412913 0.860385
-0.260426 0.0408085 0.8604
-0.261136 0.0403816 0.860615
-0.261909 0.0399982 0.86099
-0.262755 0.0396635 0.861545
-0.263599 0.0393253 0.862092
-0.264425 0.0389708 0.862586
-0.264637 0.0381915 0.861531
-0.2617 0.0317107 0.846484
-0.261642 0.0307991 0.844841
-0.261631 0.0299249 0.843325
-0.261851 0.0292064 0.842386
-0.261967 0.0284242 0.841198
-0.262076 0.0276428 0.840002
-0.262232 0.0268952 0.838927
-0.262547 0.026251 0.838242
-0.262849 0.0256018 0.837531
-0.263213 0.0249932 0.836973
-0.263565 0.0243784 0.836386
-0.263962 0.0237935 0.835913
-0.264343 0.0232006 0.835404
-0.264772 0.0226377 0.83501
-0.265186 0.0220679 0.834586
-0.265653 0.0215297 0.834285
-0.266122 0.0209934 0.83399
-0.266638 0.0204856 0.833809
-0.267157 0.0199794 0.833632
-0.267693 0.0194836 0.833498
-0.268229 0.0189872 0.833361
-0.268779 0.0184994 0.833258
-0.269313 0.0180025 0.833118
-0.26988 0.0175239 0.833054
-0.270434 0.0170382 0.83296
-0.27102 0.0165699 0.83294
-0.271591 0.0160928 0.832882
-0.272144 0.0156061 0.832785
-0.272577 0.0150564 0.83242
-0.272947 0.0144751 0.831917
-0.273189 0.0138288 0.83113
-0.273355 0.0131468 0.830181
-0.273536 0.0124753 0.82927
-0.273756 0.0118269 0.828451
-0.274034 0.0112104 0.827764
-0.274364 0.0106216 0.827194
-0.274744 0.0100591 0.826735
-0.275124 0.00949807 0.826279
-0.27549 0.00893197 0.825797
-0.275854 0.00836624 0.825312
-0.276248 0.00781624 0.824894
-0.276661 0.00727658 0.82452
-0.277079 0.00673999 0.824157
-0.277582 0.00624357 0.823976
-0.278135 0.00577061 0.823902
-0.278746 0.00532394 0.823952
-0.279471 0.00492814 0.824241
-0.280244 0.00455229 0.824628
-0.281081 0.0042028 0.825146
-0.281949 0.00386469 0.825725
-0.282765 0.00350125 0.826191
-0.283486 0.00309496 0.826456
-0.284195 0.00268204 0.826694
-0.284833 0.00223816 0.826784
-0.285402 0.00176467 0.826732
-0.286005 0.00130477 0.826747
-0.286536 0.000815175 0.826616
-0.287061 0.000323027 0.826472
-0.287583 -0.000170146 0.826323
-0.288072 -0.000676155 0.826107
-0.288563 -0.00118102 0.825897
-0.289089 -0.00167202 0.825755
-0.289597 -0.0021694 0.825581
-0.290124 -0.00265938 0.825443
-0.290707 -0.00312808 0.825417
-0.291238 -0.00361605 0.825289
-0.293646 -0.00302398 0.827743
-0.291769 -0.00410458 0.825159
-0.253313 0.0527515 0.87334
-0.253177 0.0516144 0.871198
-0.253348 0.0507386 0.869918
-0.253555 0.0498973 0.868745
-0.253821 0.049108 0.867741
-0.254157 0.0483791 0.866935
-0.254555 0.0477029 0.866304
-0.254971 0.0470434 0.865725
-0.25539 0.0463882 0.865158
-0.255842 0.0457603 0.864682
-0.256311 0.0451478 0.864255
-0.256763 0.0445237 0.863786
-0.257196 0.0438866 0.863268
-0.257638 0.0432585 0.862779
-0.258083 0.0426338 0.862299
-0.258578 0.0420483 0.861954
-0.259063 0.0414563 0.861584
-0.259627 0.0409232 0.861423
-0.260243 0.0404279 0.861396
-0.260954 0.0399995 0.861611
-0.261712 0.0396036 0.861946
-0.262525 0.0392441 0.862417
-0.263346 0.0388882 0.862905
-0.264183 0.0385405 0.863429
-0.264735 0.037994 0.863227
-0.264413 0.037118 0.859389
-0.264922 0.037199 0.862107
-0.262029 0.0316602 0.848677
-0.2616 0.0305033 0.846107
-0.261528 0.0295884 0.844433
-0.261698 0.0288367 0.843366
-0.261796 0.0280422 0.842127
-0.261888 0.0272496 0.840885
-0.262041 0.0264998 0.839797
-0.262357 0.0258553 0.839109
-0.262674 0.0252145 0.838431
-0.263041 0.0246067 0.837875
-0.263393 0.0239914 0.837287
-0.263774 0.0233964 0.836773
-0.264154 0.0228018 0.836258
-0.264583 0.0222382 0.835862
-0.264985 0.0216598 0.835404
-0.265434 0.0211104 0.835059
-0.26588 0.0205601 0.834709
-0.26636 0.0200306 0.83444
-0.266812 0.0194861 0.834109
-0.267297 0.0189607 0.833854
-0.267795 0.0184435 0.83363
-0.268309 0.0179358 0.833445
-0.268809 0.0174201 0.833226
-0.269377 0.016943 0.833167
-0.269931 0.0164572 0.833072
-0.270521 0.0159911 0.83306
-0.271109 0.0155236 0.833043
-0.271698 0.0150564 0.833028
-0.272168 0.0145267 0.832747
-0.272592 0.0139735 0.832362
-0.272886 0.0133545 0.831689
-0.273087 0.0126902 0.830813
-0.273269 0.0120198 0.829902
-0.273488 0.0113705 0.829076
-0.273749 0.0107455 0.82835
-0.274062 0.0101481 0.827739
-0.27441 0.00957004 0.82721
-0.274788 0.0090082 0.826749
-0.275138 0.00843417 0.826228
-0.275468 0.00785249 0.825669
-0.275825 0.00728499 0.825169
-0.276216 0.00673533 0.824747
-0.27658 0.00617435 0.824269
-0.277032 0.00565486 0.823979
-0.277534 0.0051591 0.823798
-0.278072 0.00468023 0.823695
-0.278702 0.00424233 0.823785
-0.279408 0.00383781 0.824036
-0.280194 0.00346694 0.824451
-0.281077 0.00313637 0.825065
-0.281933 0.00279186 0.825621
-0.282734 0.00242124 0.826057
-0.283505 0.00203591 0.826427
-0.284198 0.00161596 0.826633
-0.284786 0.00115089 0.82662
-0.285388 0.000691403 0.826635
-0.285933 0.000208374 0.826535
-0.28646 -0.000282248 0.826396
-0.286985 -0.000773343 0.826254
-0.287475 -0.00127807 0.826042
-0.287981 -0.00177613 0.825862
-0.288488 -0.00227362 0.825685
-0.289032 -0.00275676 0.825582
-0.289564 -0.00324428 0.825455
-0.290149 -0.00371138 0.825435
-0.290699 -0.00419192 0.825345
-0.291245 -0.0046741 0.825246
-0.292744 -0.00442759 0.825907
-0.291752 -0.00517055 0.825071
-0.2937 -0.00476087 0.826611
-0.292237 -0.00567527 0.824851
-0.294651 -0.00509856 0.827302
-0.29272 -0.00617987 0.82463
-0.253456 0.0526646 0.875336
-0.253059 0.0513089 0.872453
-0.253267 0.0504615 0.871266
-0.253493 0.0496339 0.870139
-0.253744 0.0488306 0.869086
-0.254047 0.0480735 0.868184
-0.254395 0.0473559 0.867411
-0.254791 0.0466789 0.866772
-0.255193 0.046009 0.866154
-0.255646 0.0453811 0.865678
-0.256117 0.0447687 0.865254
-0.256583 0.0441539 0.864818
-0.257032 0.0435277 0.864339
-0.257495 0.0429139 0.863901
-0.25796 0.0423024 0.863469
-0.258478 0.0417323 0.863181
-0.258965 0.0411401 0.862812
-0.259516 0.040595 0.862611
-0.260113 0.0400837 0.86253
-0.260807 0.0396422 0.862703
-0.261517 0.0392098 0.862911
-0.262293 0.0388231 0.863288
-0.263062 0.0384288 0.863642
-0.263862 0.0380545 0.864073
-0.264709 0.0377099 0.864619
-0.26528 0.0371745 0.864462
-0.262239 0.0315295 0.850588
-0.261472 0.0301498 0.847165
-0.261372 0.0292167 0.845416
-0.261511 0.0284439 0.844265
-0.261606 0.0276477 0.843015
-0.261699 0.0268549 0.841768
-0.261835 0.0260938 0.840633
-0.262133 0.0254378 0.839899
-0.26245 0.0247961 0.839215
-0.2628 0.0241776 0.838617
-0.263169 0.0235724 0.838067
-0.263568 0.0229869 0.837591
-0.263966 0.0224024 0.837116
-0.264398 0.0218394 0.836723
-0.264798 0.0212595 0.836259
-0.265214 0.0206897 0.835833
-0.26561 0.02011 0.835364
-0.266035 0.0195488 0.834966
-0.266434 0.0189733 0.834507
-0.266865 0.0184181 0.834128
-0.267326 0.0178802 0.833818
-0.267821 0.0173621 0.833589
-0.26829 0.01683 0.833299
-0.268856 0.0163521 0.833236
-0.26941 0.0158673 0.833144
-0.270001 0.0154017 0.833133
-0.270589 0.014935 0.833119
-0.271213 0.0144865 0.833184
-0.271719 0.013976 0.832983
-0.272166 0.0134351 0.832648
-0.272497 0.0128355 0.832057
-0.272733 0.01219 0.831258
-0.272934 0.0115292 0.830385
-0.273155 0.0108815 0.829561
-0.273416 0.0102561 0.82883
-0.273728 0.00965877 0.828217
-0.274059 0.00907269 0.827649
-0.274423 0.00850391 0.827155
-0.274753 0.00792076 0.826591
-0.275064 0.00733006 0.825987
-0.275384 0.00674553 0.825406
-0.275754 0.00618621 0.824936
-0.276085 0.00561048 0.824386
-0.276502 0.00507588 0.824023
-0.27697 0.00456526 0.82377
-0.277457 0.00406391 0.823559
-0.277997 0.00358656 0.823461
-0.278626 0.00314855 0.82355
-0.27933 0.00274314 0.823799
-0.280167 0.00239386 0.824322
-0.281018 0.00204841 0.824872
-0.281908 0.00171732 0.825499
-0.282756 0.0013655 0.826033
-0.283526 0.000978934 0.826402
-0.284167 0.000537043 0.826501
-0.284801 9.15021e-05 0.826585
-0.28533 -0.000397413 0.826452
-0.285858 -0.0008867 0.826317
-0.286386 -0.00137623 0.82618
-0.286894 -0.00187283 0.826007
-0.287402 -0.0023698 0.82583
-0.287923 -0.00286103 0.825683
-0.288485 -0.00333634 0.825618
-0.289036 -0.00381616 0.82553
-0.289608 -0.00428788 0.825484
-0.290174 -0.00476181 0.825428
-0.290718 -0.00524424 0.825327
-0.291224 -0.00574089 0.825148
-0.291708 -0.00624499 0.824929
-0.292248 -0.00672854 0.82482
-0.293816 -0.00646366 0.825612
-0.293052 -0.00711784 0.825229
-0.295323 -0.00660521 0.82739
-0.294236 -0.00737432 0.826382
-0.296908 -0.00672562 0.829309
-0.295463 -0.00761955 0.827612
-0.298578 -0.0068238 0.83138
-0.296761 -0.00784557 0.828971
-0.253413 0.052421 0.876821
-0.252928 0.0509919 0.873679
-0.253188 0.0501857 0.87263
-0.253437 0.0493739 0.871555
-0.253673 0.0485574 0.870456
-0.253958 0.0477841 0.869497
-0.254271 0.0470363 0.86862
-0.254632 0.0463306 0.867883
-0.255017 0.0456458 0.867214
-0.255454 0.0450044 0.866692
-0.255923 0.0443887 0.866256
-0.256391 0.0437742 0.865822
-0.256857 0.0431591 0.865383
-0.257323 0.0425463 0.86495
-0.257808 0.0419488 0.864568
-0.258329 0.0413786 0.864282
-0.258834 0.0407981 0.863958
-0.259369 0.0402405 0.863714
-0.259969 0.0397294 0.863637
-0.260659 0.0392827 0.863796
-0.261331 0.0388217 0.863904
-0.262053 0.0383957 0.864143
-0.262784 0.0379735 0.864398
-0.263564 0.037584 0.864778
-0.264414 0.03724 0.865331
-0.265315 0.0369286 0.866012
-0.265006 0.0360695 0.862179
-0.265104 0.0358646 0.863876
-0.261355 0.0298031 0.848258
-0.261252 0.0288672 0.846491
-0.261377 0.0280844 0.845299
-0.26146 0.0272797 0.844012
-0.261551 0.0264854 0.842756
-0.261658 0.0257051 0.841543
-0.261938 0.0250373 0.840761
-0.262222 0.0243752 0.839996
-0.262541 0.0237364 0.839317
-0.262893 0.0231205 0.838723
-0.263294 0.0225358 0.838249
-0.263711 0.0219626 0.837819
-0.264163 0.0214108 0.837471
-0.264583 0.0208416 0.83705
-0.264981 0.0202613 0.836582
-0.26534 0.0196598 0.836023
-0.265713 0.0190678 0.835498
-0.266074 0.0184708 0.834949
-0.266453 0.0178861 0.834446
-0.26688 0.0173295 0.834057
-0.267356 0.0168016 0.833785
-0.267792 0.0162518 0.833419
-0.26834 0.0157645 0.833315
-0.268892 0.015279 0.833219
-0.269479 0.014812 0.833202
-0.27007 0.0143469 0.833194
-0.270708 0.0139061 0.833291
-0.271233 0.0134061 0.833134
-0.2717 0.0128759 0.832844
-0.272068 0.0122964 0.832336
-0.272346 0.0116722 0.831627
-0.272583 0.0110304 0.830832
-0.272824 0.0103928 0.83005
-0.273083 0.00976723 0.829314
-0.273397 0.00917035 0.828701
-0.273725 0.00858271 0.828124
-0.274073 0.00800659 0.827594
-0.274385 0.00741514 0.826989
-0.274677 0.00681583 0.826343
-0.274962 0.00621496 0.825683
-0.275297 0.00564018 0.825139
-0.275626 0.00506407 0.824583
-0.276027 0.00452222 0.824183
-0.276491 0.00401051 0.823923
-0.276975 0.00350799 0.823704
-0.277463 0.00300785 0.823496
-0.278021 0.00253919 0.823438
-0.27865 0.00210118 0.823528
-0.279409 0.00171896 0.823892
-0.280199 0.0013482 0.824319
-0.281086 0.00101642 0.824943
-0.281952 0.000673605 0.825521
-0.282763 0.000304948 0.825978
-0.283443 -0.00011962 0.826161
-0.284113 -0.000549412 0.826322
-0.284693 -0.0010164 0.826296
-0.285258 -0.00149026 0.826237
-0.285822 -0.00196421 0.826177
-0.286349 -0.00245291 0.826042
-0.286856 -0.00294939 0.825866
-0.287378 -0.00343977 0.825721
-0.287941 -0.00391435 0.825658
-0.288493 -0.00439307 0.825574
-0.289082 -0.00485808 0.825563
-0.289663 -0.00532627 0.825536
-0.290206 -0.00580859 0.825434
-0.290712 -0.00630482 0.825256
-0.291218 -0.00680043 0.82508
-0.291799 -0.00726913 0.825052
-0.292314 -0.00776122 0.824895
-0.293159 -0.0081369 0.825387
-0.294058 -0.00849578 0.825981
-0.295009 -0.00883949 0.826672
-0.305126 -0.00842989 0.839239
-0.30361 -0.00824548 0.837514
-0.302223 -0.00910938 0.835977
-0.304094 -0.00917572 0.838397
-0.307124 -0.00846267 0.841876
-0.305554 -0.0093844 0.840012
-0.308572 -0.00868274 0.843448
-0.306351 -0.00981184 0.840348
-0.253429 0.0522253 0.878479
-0.252897 0.0507558 0.875189
-0.253198 0.0499805 0.874245
-0.253448 0.049168 0.873167
-0.253667 0.0483348 0.872011
-0.253932 0.0475433 0.87099
-0.254194 0.0467536 0.869968
-0.254522 0.0460192 0.869131
-0.254904 0.0453311 0.868451
-0.255327 0.0446767 0.867884
-0.255782 0.0440485 0.867406
-0.25625 0.043432 0.866967
-0.256699 0.0428036 0.866482
-0.257168 0.0421906 0.866049
-0.257671 0.0416048 0.865711
-0.258208 0.041045 0.865465
-0.258715 0.0404645 0.865142
-0.259265 0.0399154 0.864932
-0.259848 0.0393906 0.86481
-0.260505 0.0389183 0.864879
-0.261142 0.0384312 0.864896
-0.26184 0.0379864 0.86507
-0.262517 0.0375257 0.865187
-0.263262 0.0371105 0.865476
-0.264091 0.0367513 0.865978
-0.264974 0.0364262 0.866613
-0.264998 0.0355207 0.865064
-0.264414 0.0344892 0.860549
-0.264352 0.0341753 0.861835
-0.261388 0.0295522 0.849728
-0.261069 0.0284757 0.847414
-0.261198 0.0276953 0.846227
-0.261312 0.0269098 0.845011
-0.261391 0.0261069 0.843716
-0.261496 0.0253257 0.842496
-0.261761 0.0246477 0.841673
-0.262026 0.0239726 0.840855
-0.262295 0.0233028 0.840051
-0.262643 0.022684 0.839445
-0.263029 0.0220901 0.838933
-0.263452 0.0215198 0.838514
-0.263893 0.0209613 0.838139
-0.26433 0.0204012 0.837755
-0.264727 0.0198194 0.83728
-0.265071 0.0192089 0.836682
-0.26541 0.0185975 0.836076
-0.265734 0.0179799 0.83544
-0.266062 0.0173661 0.834814
-0.266454 0.0167902 0.834342
-0.266899 0.0162451 0.833996
-0.267317 0.0156864 0.83359
-0.267846 0.0151888 0.833442
-0.268377 0.0146925 0.833298
-0.268931 0.0142083 0.833207
-0.269488 0.0137259 0.833122
-0.270107 0.013276 0.83318
-0.270645 0.0127838 0.833054
-0.271129 0.0122634 0.832804
-0.271537 0.0117051 0.832385
-0.271883 0.0111166 0.831828
-0.272161 0.0104954 0.831121
-0.27244 0.00987756 0.830422
-0.272733 0.00926925 0.82976
-0.273062 0.00868033 0.82918
-0.273391 0.00809301 0.828602
-0.273739 0.00751672 0.828069
-0.274034 0.00691722 0.827424
-0.274292 0.00630233 0.826702
-0.274558 0.0056933 0.826001
-0.274876 0.00511082 0.825417
-0.27519 0.00452825 0.824827
-0.275574 0.00397924 0.824391
-0.276035 0.00346631 0.824123
-0.276499 0.0029553 0.823862
-0.276969 0.00244754 0.823615
-0.277509 0.00197116 0.823519
-0.278085 0.00151035 0.823498
-0.278766 0.00109494 0.823701
-0.279477 0.000690845 0.823964
-0.280301 0.000333295 0.824461
-0.28115 -1.6309e-05 0.825006
-0.281998 -0.000368174 0.825547
-0.282735 -0.000768235 0.825852
-0.283461 -0.00117454 0.82613
-0.284078 -0.00162561 0.826183
-0.284678 -0.00208448 0.826199
-0.285262 -0.00255008 0.82618
-0.285792 -0.00303704 0.826052
-0.286299 -0.00353302 0.825876
-0.28682 -0.0040231 0.82573
-0.287381 -0.0044979 0.825664
-0.287934 -0.00497576 0.825583
-0.288539 -0.00543408 0.825607
-0.289139 -0.00589475 0.825619
-0.2897 -0.00637027 0.825553
-0.290208 -0.00686522 0.82538
-0.290734 -0.00735325 0.825244
-0.291335 -0.00781424 0.825258
-0.291872 -0.00829878 0.825142
-0.292442 -0.00877105 0.825094
-0.29306 -0.0092273 0.825139
-0.293667 -0.00968781 0.825161
-0.296228 -0.00909409 0.827881
-0.29452 -0.0100651 0.825664
-0.302973 -0.00994857 0.837374
-0.304807 -0.0100356 0.83972
-0.305945 -0.0103533 0.840715
-0.30774 -0.0100523 0.841813
-0.306409 -0.0108888 0.840412
-0.30922 -0.01027 0.843439
-0.306935 -0.0114037 0.840228
-0.253411 0.0520002 0.880052
-0.252905 0.0505514 0.87682
-0.253226 0.0497895 0.875923
-0.253478 0.048976 0.874842
-0.253681 0.0481271 0.873631
-0.253937 0.0473259 0.872576
-0.254164 0.046506 0.871449
-0.25446 0.0457451 0.87052
-0.254814 0.0450325 0.869754
-0.255236 0.0443752 0.869178
-0.255674 0.0437326 0.868651
-0.256126 0.0431022 0.868164
-0.256577 0.0424733 0.867679
-0.257045 0.0418584 0.867241
-0.257532 0.041259 0.866856
-0.258036 0.0406731 0.866517
-0.258555 0.0401 0.866224
-0.259091 0.039539 0.865973
-0.259662 0.039004 0.865816
-0.260303 0.0385189 0.865842
-0.260935 0.0380271 0.865845
-0.261585 0.0375467 0.865891
-0.262208 0.0370473 0.865867
-0.26293 0.0366161 0.8661
-0.263722 0.0362308 0.866508
-0.264555 0.0358706 0.867015
-0.264564 0.0349558 0.865423
-0.263962 0.0336418 0.862296
-0.263445 0.0326706 0.857973
-0.263088 0.0321613 0.858504
-0.262398 0.0310908 0.853789
-0.262078 0.0306077 0.854398
-0.261131 0.0291123 0.850481
-0.260875 0.0280771 0.848316
-0.261009 0.0272991 0.847134
-0.261141 0.0265243 0.845956
-0.261235 0.0257305 0.844693
-0.26134 0.0249487 0.843466
-0.261575 0.0242512 0.842564
-0.261821 0.0235642 0.841697
-0.262051 0.0228705 0.840795
-0.262364 0.0222295 0.840098
-0.262716 0.0216152 0.839503
-0.26314 0.0210452 0.839084
-0.263583 0.020487 0.83871
-0.26402 0.0199274 0.838328
-0.264433 0.0193547 0.837889
-0.26478 0.0187451 0.837293
-0.265089 0.0181166 0.836615
-0.265412 0.0174982 0.835972
-0.26572 0.0168739 0.8353
-0.26608 0.0162799 0.834749
-0.266506 0.0157248 0.83436
-0.266907 0.0151565 0.833911
-0.267386 0.0146318 0.833646
-0.267896 0.0141247 0.833455
-0.268399 0.0136141 0.833248
-0.268903 0.0131046 0.833044
-0.269486 0.0126361 0.833019
-0.27002 0.0121424 0.832884
-0.270504 0.0116233 0.832637
-0.270948 0.0110844 0.832299
-0.271349 0.0105247 0.831866
-0.271682 0.00993267 0.831284
-0.271997 0.00933333 0.830664
-0.272314 0.00873698 0.830052
-0.272659 0.00815628 0.829505
-0.27299 0.0075705 0.828931
-0.273338 0.0069947 0.828398
-0.273636 0.00639677 0.827756
-0.273891 0.00578107 0.827026
-0.274156 0.00517227 0.826322
-0.274458 0.00458245 0.8257
-0.274756 0.00399307 0.825074
-0.275122 0.00343671 0.8246
-0.275568 0.00291714 0.824298
-0.275998 0.00239166 0.823965
-0.27645 0.00187655 0.82368
-0.276986 0.00139897 0.823577
-0.277543 0.00093046 0.823517
-0.278171 0.000492126 0.823607
-0.278838 6.99877e-05 0.82378
-0.279599 -0.000313942 0.824147
-0.280386 -0.000688497 0.824568
-0.281213 -0.00104838 0.825068
-0.281989 -0.00143168 0.825457
-0.282755 -0.00182023 0.825824
-0.28343 -0.00224753 0.825998
-0.284069 -0.00268989 0.826096
-0.284672 -0.00314723 0.826119
-0.28522 -0.00362662 0.826028
-0.285743 -0.00411535 0.825887
-0.286297 -0.00459253 0.825808
-0.286858 -0.00506676 0.825744
-0.287429 -0.00553736 0.8257
-0.288036 -0.00599501 0.825728
-0.288638 -0.00645467 0.825745
-0.289202 -0.00692878 0.825685
-0.289747 -0.00740971 0.825588
-0.290292 -0.00789065 0.825491
-0.290893 -0.00835187 0.825504
-0.291445 -0.00883071 0.825419
-0.292014 -0.00930364 0.825368
-0.292632 -0.00975961 0.825414
-0.293238 -0.0102205 0.825434
-0.293794 -0.0106984 0.825358
-0.296102 -0.010199 0.827584
-0.294998 -0.0109599 0.826547
-0.303661 -0.0108139 0.838653
-0.305177 -0.0110103 0.840383
-0.305979 -0.0114377 0.84073
-0.306507 -0.011952 0.840551
-0.307521 -0.0118998 0.84016
-0.307093 -0.0124483 0.840483
-0.30809 -0.0124013 0.840059
-0.307662 -0.0129498 0.840381
-0.308662 -0.012902 0.839964
-0.308213 -0.0134567 0.840246
-0.309297 -0.0133837 0.839987
-0.308823 -0.0139459 0.840223
-0.309912 -0.0138715 0.839972
-0.309393 -0.0144468 0.840125
-0.310528 -0.0143594 0.839959
-0.309965 -0.0149478 0.840029
-0.311972 -0.0146067 0.841494
-0.310495 -0.0154606 0.839854
-0.253092 0.0515257 0.880784
-0.252917 0.0503484 0.87847
-0.253255 0.0495979 0.877614
-0.253527 0.048797 0.876576
-0.253726 0.0479433 0.875347
-0.253964 0.0471249 0.874233
-0.254157 0.0462756 0.873002
-0.254405 0.0454753 0.871935
-0.254741 0.0447464 0.871112
-0.255145 0.044074 0.870484
-0.255553 0.0434063 0.869869
-0.256004 0.0427734 0.869374
-0.25647 0.0421537 0.868924
-0.256937 0.041536 0.868478
-0.257425 0.0409353 0.86809
-0.257944 0.0403592 0.86779
-0.258449 0.0397732 0.867452
-0.258953 0.0391877 0.867114
-0.259504 0.0386369 0.866902
-0.260131 0.0381402 0.866889
-0.26075 0.037637 0.866853
-0.261383 0.0371441 0.866856
-0.261989 0.0366315 0.866786
-0.262659 0.0361628 0.866881
-0.263394 0.0357374 0.867143
-0.264169 0.0353373 0.867504
-0.264202 0.0344394 0.865968
-0.26364 0.0331534 0.862931
-0.262842 0.0317245 0.859317
-0.261856 0.0301885 0.855257
-0.260945 0.0287174 0.851414
-0.260684 0.0276792 0.849227
-0.260835 0.0269114 0.848082
-0.26097 0.0261383 0.846906
-0.261063 0.0253431 0.845634
-0.261169 0.0245614 0.844404
-0.261386 0.0238524 0.843454
-0.261619 0.0231563 0.842547
-0.26183 0.0224509 0.841596
-0.262106 0.0217876 0.840807
-0.262421 0.0211501 0.840117
-0.262825 0.0205683 0.839649
-0.263235 0.0199908 0.839195
-0.263671 0.0194301 0.838807
-0.264101 0.0188669 0.838406
-0.264452 0.0182602 0.83782
-0.264751 0.0176262 0.837115
-0.26509 0.0170163 0.836506
-0.265379 0.0163813 0.835786
-0.265703 0.015768 0.835151
-0.266114 0.0152042 0.834723
-0.266498 0.0146273 0.834235
-0.266927 0.014076 0.833854
-0.267401 0.0135497 0.833579
-0.267864 0.0130184 0.833279
-0.268315 0.0124815 0.832953
-0.268859 0.0119942 0.832844
-0.269372 0.0114906 0.832662
-0.26984 0.0109646 0.83238
-0.270286 0.0104281 0.832048
-0.270723 0.00988775 0.831697
-0.271111 0.00932401 0.831237
-0.271466 0.00874554 0.830706
-0.271834 0.00817516 0.830208
-0.272216 0.00761294 0.829743
-0.272567 0.0070377 0.829213
-0.272916 0.00646284 0.828681
-0.273231 0.00587345 0.828076
-0.273487 0.00525848 0.827344
-0.273753 0.00465049 0.826639
-0.274053 0.00406083 0.826014
-0.274351 0.00347158 0.825385
-0.274717 0.0029154 0.824909
-0.275161 0.00239556 0.824604
-0.275593 0.00187089 0.824274
-0.276029 0.00134901 0.823954
-0.276547 0.000863718 0.823812
-0.277086 0.000387498 0.823714
-0.277663 -7.25779e-05 0.823697
-0.278276 -0.000517492 0.823757
-0.278958 -0.000934137 0.82396
-0.279682 -0.00133463 0.82425
-0.280451 -0.00171798 0.824631
-0.281225 -0.00210067 0.825022
-0.282015 -0.00247896 0.825442
-0.282746 -0.00288253 0.825736
-0.283439 -0.00330277 0.825949
-0.284095 -0.00373861 0.826083
-0.284697 -0.00419624 0.826104
-0.285258 -0.00467015 0.826041
-0.285848 -0.00513305 0.826037
-0.28641 -0.00560667 0.825976
-0.28698 -0.00607777 0.82593
-0.287588 -0.00653487 0.82596
-0.288192 -0.00699372 0.825983
-0.288759 -0.00746667 0.825929
-0.289324 -0.00794029 0.825872
-0.289887 -0.008415 0.825809
-0.290468 -0.00888316 0.825785
-0.291017 -0.00936292 0.825694
-0.291582 -0.0098373 0.825635
-0.292183 -0.0102993 0.825648
-0.292768 -0.0107669 0.825629
-0.293322 -0.0112458 0.825547
-0.294182 -0.0116229 0.826065
-0.296911 -0.0109912 0.829108
-0.295716 -0.01178 0.827896
-0.302431 -0.0116157 0.837417
-0.304284 -0.0117056 0.839806
-0.305409 -0.0120307 0.84078
-0.305938 -0.0125441 0.840603
-0.306506 -0.0130453 0.840502
-0.307075 -0.0135464 0.8404
-0.307621 -0.0140538 0.840258
-0.308207 -0.0145499 0.84019
-0.308754 -0.0150571 0.840049
-0.309302 -0.0155642 0.83991
-0.309828 -0.0160772 0.839729
-0.311892 -0.0157252 0.841301
-0.310371 -0.0165853 0.839581
-0.313312 -0.015988 0.842784
-0.310875 -0.0171045 0.839359
-0.252656 0.0519958 0.883027
-0.252698 0.050989 0.881305
-0.25284 0.0500712 0.879878
-0.253179 0.0493198 0.879018
-0.253473 0.0485345 0.878034
-0.253708 0.0477071 0.876896
-0.253964 0.0469012 0.875824
-0.254155 0.0460483 0.874579
-0.254387 0.0452323 0.873456
-0.254701 0.0444852 0.87257
-0.255087 0.043796 0.871884
-0.255476 0.0431118 0.871211
-0.255913 0.0424668 0.870674
-0.256381 0.041846 0.870222
-0.25685 0.0412282 0.869777
-0.257339 0.0406264 0.869388
-0.257845 0.0400389 0.869049
-0.258349 0.0394499 0.868703
-0.258851 0.0388612 0.868356
-0.259386 0.0382971 0.868097
-0.259994 0.0377852 0.868032
-0.260629 0.0372919 0.868037
-0.261251 0.0367889 0.868006
-0.261844 0.0362656 0.867899
-0.262492 0.0357803 0.867937
-0.263186 0.0353251 0.86809
-0.263905 0.0348857 0.868306
-0.26417 0.0341423 0.867357
-0.263613 0.0328592 0.864318
-0.260951 0.0284458 0.852836
-0.260451 0.0272538 0.850038
-0.260622 0.0264984 0.848937
-0.26076 0.0257265 0.847763
-0.260851 0.02493 0.84648
-0.260971 0.0241569 0.845279
-0.261176 0.0234396 0.844293
-0.261411 0.0227443 0.843388
-0.261608 0.0220298 0.842396
-0.261865 0.0213551 0.841559
-0.26213 0.0206874 0.840743
-0.262496 0.0200824 0.840179
-0.262855 0.0194752 0.839601
-0.263273 0.0189042 0.839169
-0.263704 0.018342 0.83877
-0.264074 0.0177463 0.838227
-0.264377 0.0171146 0.837529
-0.264731 0.0165139 0.836956
-0.26502 0.015879 0.836232
-0.265329 0.0152574 0.835559
-0.265706 0.0146752 0.83505
-0.266088 0.0140973 0.834556
-0.266468 0.0135199 0.834059
-0.266905 0.0129747 0.833699
-0.267314 0.0124157 0.833276
-0.267726 0.0118593 0.832861
-0.268218 0.0113454 0.832631
-0.268713 0.0108336 0.83241
-0.269163 0.0102997 0.832087
-0.269624 0.00977209 0.831791
-0.270096 0.00925068 0.831521
-0.270519 0.00870567 0.831141
-0.270912 0.00814718 0.830697
-0.271333 0.0076034 0.830316
-0.271718 0.0070437 0.829859
-0.272086 0.00647707 0.829365
-0.272439 0.00590458 0.82884
-0.27277 0.00532354 0.828269
-0.273031 0.0047117 0.827548
-0.27333 0.0041201 0.826915
-0.273634 0.00353213 0.826294
-0.273962 0.00295739 0.825731
-0.274327 0.00240112 0.825252
-0.274774 0.00188238 0.824951
-0.275206 0.00135796 0.82462
-0.275624 0.000828375 0.824261
-0.276107 0.000328113 0.824045
-0.276644 -0.000148969 0.823942
-0.277206 -0.00061526 0.823893
-0.27777 -0.00108058 0.823851
-0.27838 -0.00152745 0.823902
-0.279007 -0.00196758 0.823989
-0.279676 -0.00239114 0.824165
-0.280377 -0.00280276 0.824405
-0.281131 -0.0031939 0.824756
-0.281884 -0.00358754 0.825099
-0.282646 -0.00397916 0.825459
-0.283374 -0.00438555 0.825746
-0.284067 -0.00480676 0.825959
-0.284706 -0.00525014 0.826056
-0.285372 -0.00568349 0.826211
-0.285973 -0.00614274 0.826228
-0.286543 -0.00661336 0.826184
-0.287127 -0.0070792 0.826167
-0.287729 -0.00753904 0.826184
-0.288295 -0.00801211 0.826129
-0.288862 -0.0084848 0.826077
-0.289445 -0.00895215 0.826056
-0.290027 -0.00942025 0.826031
-0.290591 -0.00989463 0.825971
-0.291137 -0.0103755 0.825875
-0.291718 -0.0108442 0.825849
-0.292265 -0.0113246 0.825756
-0.292795 -0.011811 0.825627
-0.293321 -0.0122984 0.825492
-0.294479 -0.0125789 0.826595
-0.303059 -0.0125024 0.838583
-0.304537 -0.0127166 0.840246
-0.305342 -0.0131435 0.840602
-0.305887 -0.0136515 0.840457
-0.306433 -0.0141584 0.840314
-0.30696 -0.0146712 0.840135
-0.307546 -0.0151667 0.840068
-0.308109 -0.0156682 0.839959
-0.308655 -0.0161752 0.839816
-0.309174 -0.0166894 0.839624
-0.309734 -0.0171919 0.839509
-0.310259 -0.0177042 0.839327
-0.311356 -0.0176289 0.839096
-0.310786 -0.0182154 0.839152
-0.311896 -0.018137 0.838944
-0.311395 -0.0187041 0.839129
-0.312459 -0.0186386 0.838835
-0.312031 -0.0191861 0.839155
-0.313118 -0.0191145 0.838902
-0.312716 -0.0196552 0.839271
-0.313763 -0.0195948 0.838943
-0.313384 -0.0201296 0.839355
-0.314469 -0.0200596 0.839095
-0.314086 -0.0205955 0.8395
-0.315936 -0.0203272 0.84064
-0.314719 -0.0210803 0.839517
-0.317469 -0.0205834 0.842297
-0.315348 -0.0215663 0.839527
-0.252369 0.0505059 0.882013
-0.252648 0.0496992 0.880967
-0.252992 0.0489505 0.880115
-0.253308 0.0481821 0.879189
-0.253597 0.0473959 0.878193
-0.253875 0.0466058 0.877176
-0.254088 0.045768 0.875983
-0.254333 0.0449614 0.874892
-0.254644 0.0442092 0.873987
-0.25501 0.0435029 0.873241
-0.255399 0.0428168 0.872562
-0.255807 0.0421475 0.871939
-0.256275 0.041525 0.871482
-0.256763 0.0409197 0.871086
-0.257257 0.0403193 0.870704
-0.257768 0.0397331 0.870372
-0.258289 0.0391551 0.870069
-0.258773 0.0385513 0.869669
-0.259289 0.0379711 0.869354
-0.259878 0.0374435 0.869234
-0.260515 0.0369496 0.869241
-0.261138 0.036446 0.869212
-0.26175 0.0359341 0.869153
-0.262367 0.0354254 0.869105
-0.263025 0.034944 0.869164
-0.263683 0.0344619 0.869221
-0.264137 0.0338436 0.868753
-0.263542 0.0325347 0.865601
-0.262829 0.0314402 0.860726
-0.262728 0.0310961 0.861916
-0.26086 0.02811 0.85402
-0.260131 0.0267717 0.85063
-0.260319 0.0260277 0.84957
-0.260459 0.0252572 0.848396
-0.260553 0.0244628 0.847115
-0.260686 0.0236975 0.845941
-0.260892 0.0229808 0.844953
-0.261146 0.0222973 0.844092
-0.261365 0.0215961 0.843152
-0.261625 0.0209222 0.842315
-0.261855 0.0202337 0.841411
-0.262184 0.0196065 0.840753
-0.262491 0.018969 0.840047
-0.262876 0.0183789 0.839534
-0.263306 0.0178164 0.839132
-0.263692 0.0172303 0.838627
-0.263998 0.0166002 0.837932
-0.264354 0.0160009 0.837362
-0.264643 0.0153661 0.836636
-0.264936 0.0147362 0.835924
-0.265281 0.0141371 0.835339
-0.265661 0.0135585 0.834838
-0.266007 0.0129632 0.83426
-0.266394 0.0123918 0.833783
-0.266749 0.0118051 0.833234
-0.267125 0.011231 0.832736
-0.267567 0.0106927 0.832394
-0.26803 0.0101656 0.8321
-0.268476 0.00963128 0.83177
-0.268933 0.00910309 0.831467
-0.269421 0.00859091 0.831234
-0.269866 0.00805816 0.830905
-0.270296 0.0075189 0.830544
-0.270736 0.0069856 0.830208
-0.271137 0.0064347 0.829786
-0.271505 0.00586898 0.829292
-0.271873 0.00530494 0.828801
-0.272223 0.00473382 0.828272
-0.27252 0.00413982 0.827629
-0.272858 0.00356654 0.82708
-0.273197 0.00299594 0.826538
-0.273546 0.00243091 0.826018
-0.273946 0.00189044 0.825613
-0.274408 0.00137893 0.825346
-0.274842 0.000855152 0.825018
-0.275258 0.00032501 0.824654
-0.275739 -0.000176521 0.824431
-0.27624 -0.000669042 0.824251
-0.276751 -0.00115653 0.824096
-0.27728 -0.00163679 0.823976
-0.27782 -0.00211239 0.823881
-0.278354 -0.00259009 0.823774
-0.278941 -0.00304646 0.823778
-0.279577 -0.00348335 0.823885
-0.280255 -0.00390407 0.824079
-0.280986 -0.00430496 0.824381
-0.281767 -0.00468738 0.824787
-0.282569 -0.00506385 0.82523
-0.283364 -0.00544494 0.825657
-0.284119 -0.00584254 0.825999
-0.284885 -0.0062381 0.82636
-0.285558 -0.00667008 0.826526
-0.286126 -0.00714164 0.826477
-0.286688 -0.00761573 0.826415
-0.287263 -0.00808508 0.826379
-0.287826 -0.00855888 0.82632
-0.288395 -0.00903081 0.826272
-0.289001 -0.00949009 0.826296
-0.289568 -0.00996325 0.826243
-0.290148 -0.010432 0.826215
-0.290692 -0.0109131 0.826117
-0.291238 -0.0113937 0.826021
-0.291731 -0.0118922 0.825819
-0.292235 -0.0123867 0.82564
-0.292719 -0.0128874 0.825423
-0.2935 -0.013291 0.82579
-0.296292 -0.0126515 0.828971
-0.294938 -0.0134846 0.827443
-0.301363 -0.0134433 0.836434
-0.303199 -0.0135445 0.838803
-0.304319 -0.0138733 0.839774
-0.305132 -0.0142979 0.840148
-0.305651 -0.014812 0.839955
-0.306157 -0.0153294 0.839739
-0.306747 -0.0158224 0.839682
-0.307336 -0.0163159 0.839622
-0.307879 -0.0168222 0.839477
-0.308396 -0.0173357 0.839283
-0.308972 -0.0178329 0.839199
-0.309516 -0.0183383 0.839057
-0.310091 -0.0188357 0.838972
-0.310746 -0.0193111 0.839035
-0.311444 -0.0197758 0.83918
-0.312151 -0.0202389 0.839339
-0.312845 -0.0207061 0.839472
-0.31355 -0.0211712 0.839624
-0.314185 -0.0216552 0.839645
-0.314773 -0.0221512 0.839581
-0.317386 -0.0216979 0.84211
-0.316057 -0.0224739 0.840791
-0.252994 0.0477088 0.879926
-0.253322 0.0469538 0.879037
-0.25364 0.0461944 0.878127
-0.253906 0.045398 0.877077
-0.254173 0.0446057 0.876035
-0.254503 0.0438674 0.875179
-0.254902 0.0431841 0.874516
-0.255293 0.0424984 0.873839
-0.255685 0.0418154 0.873168
-0.256168 0.0412022 0.872747
-0.256657 0.0405953 0.872346
-0.257124 0.0399736 0.871888
-0.257637 0.0393872 0.871558
-0.258174 0.038819 0.871294
-0.258642 0.0382014 0.870844
-0.259144 0.0376105 0.870492
-0.259734 0.0370816 0.87037
-0.260367 0.0365838 0.870366
-0.260973 0.0360662 0.870288
-0.26159 0.0355558 0.870238
-0.262193 0.0350359 0.870151
-0.262818 0.0345306 0.870122
-0.263438 0.0340215 0.870078
-0.26386 0.0333813 0.869525
-0.263234 0.0320534 0.866283
-0.262442 0.0306308 0.86264
-0.261776 0.0295836 0.857909
-0.261464 0.0291033 0.858552
-0.260555 0.0276364 0.854667
-0.259833 0.026304 0.851283
-0.260041 0.0255722 0.850267
-0.260169 0.0247943 0.849058
-0.260279 0.0240098 0.847812
-0.260397 0.0232351 0.846595
-0.260603 0.0225187 0.845604
-0.26086 0.0218372 0.844748
-0.261115 0.0211569 0.843889
-0.261367 0.0204782 0.84303
-0.26158 0.0197798 0.842082
-0.261875 0.0191323 0.841338
-0.262143 0.018472 0.840534
-0.262479 0.0178538 0.8399
-0.262877 0.0172733 0.83942
-0.263263 0.0166872 0.838913
-0.263569 0.0160578 0.838216
-0.263941 0.0154677 0.837683
-0.264233 0.0148351 0.836961
-0.264543 0.0142147 0.836286
-0.264871 0.0136068 0.83566
-0.265247 0.0130268 0.835151
-0.265559 0.012414 0.834493
-0.265915 0.0118263 0.83394
-0.266235 0.0112223 0.83331
-0.266607 0.0106468 0.832802
-0.267 0.0100838 0.832345
-0.26743 0.00954083 0.831976
-0.267858 0.00899822 0.831605
-0.268298 0.00846248 0.831263
-0.268753 0.00793532 0.830958
-0.269199 0.00740435 0.830632
-0.269632 0.00686799 0.830279
-0.270071 0.00633566 0.829943
-0.270487 0.00579318 0.829555
-0.27087 0.00523608 0.829096
-0.271268 0.00468726 0.828672
-0.271656 0.004135 0.828227
-0.272004 0.00356606 0.827699
