ply
format ascii 1.0
element vertex 1636
property float x
property float y
property float z
end_header
0.0725892 0.0320754 0.259918
0.0725168 0.0315082 0.259239
0.0722861 0.0308713 0.257964
0.0720416 0.0302328 0.25664
0.0719517 0.0296676 0.255903
0.0717334 0.0290492 0.254684
0.0716584 0.0284967 0.254007
0.0717568 0.0280198 0.253983
0.0718907 0.0275576 0.254091
0.0720192 0.0270928 0.254179
0.0722156 0.0266547 0.254521
0.0722009 0.0261322 0.254074
0.0721842 0.0256105 0.25362
0.0721594 0.0250872 0.253138
0.0721364 0.0245664 0.252664
0.072196 0.0240775 0.252497
0.0723209 0.0236127 0.252572
0.072437 0.0231444 0.252615
0.0725584 0.0226777 0.252677
0.0726861 0.0222128 0.252763
0.072802 0.0217436 0.252804
0.07294 0.0212814 0.252927
0.0730709 0.0208165 0.253023
0.0732013 0.0203509 0.253117
0.0733446 0.0198889 0.253258
0.073514 0.019434 0.253494
0.0736799 0.0189773 0.253716
0.0738619 0.0185242 0.253996
0.0740332 0.0180671 0.254237
0.074174 0.0176007 0.254366
0.074305 0.0171312 0.25446
0.0744289 0.0166594 0.254526
0.0745684 0.0161913 0.25465
0.0746941 0.0157192 0.254722
0.0748262 0.0152483 0.254818
0.0749637 0.0147783 0.254933
0.0751034 0.0143083 0.255056
0.0752237 0.0138335 0.255108
0.075357 0.0133612 0.255207
0.0754952 0.0128896 0.255323
0.0756193 0.0124146 0.255388
0.0757446 0.0119395 0.255457
0.0758854 0.011467 0.255582
0.0760108 0.0109913 0.255651
0.0761435 0.0105164 0.255746
0.076284 0.0100425 0.255868
0.0764904 0.00957884 0.256224
0.0767194 0.00911737 0.25666
0.0769776 0.00865867 0.257197
0.0772392 0.00819846 0.257745
0.0774889 0.00773462 0.25825
0.0776992 0.00726376 0.258614
0.07791 0.0067916 0.258979
0.078139 0.00632024 0.259407
0.0783616 0.00584661 0.259811
0.0785938 0.00537249 0.260248
0.0788252 0.00489669 0.26068
0.0790341 0.00441719 0.261033
0.0792411 0.0039362 0.261378
0.0794152 0.00345123 0.261607
0.0795866 0.0029652 0.261827
0.0797415 0.00247718 0.261988
0.0798986 0.00198865 0.262156
0.0800399 0.00149856 0.262268
0.0802053 0.00100926 0.262465
0.0803536 0.000518419 0.262601
0.0805182 2.76797e-05 0.262793
0.0806497 -0.000464907 0.26287
0.0807882 -0.000957643 0.262971
0.0809155 -0.00145103 0.263033
0.0810532 -0.00194456 0.263131
0.0811673 -0.0024387 0.263147
0.0813321 -0.00293278 0.263338
0.0814812 -0.00342756 0.263474
0.0816226 -0.00392285 0.263583
0.0817806 -0.00441877 0.263749
0.0819731 -0.004916 0.264032
0.0821469 -0.00541378 0.26425
0.082319 -0.00591236 0.264462
0.0824946 -0.00641187 0.264685
0.0826409 -0.00691096 0.264808
0.082703 -0.00740641 0.264645
0.0827342 -0.00789973 0.264378
0.082733 -0.00839025 0.264001
0.0827059 -0.00887785 0.263538
0.0826384 -0.00936107 0.262939
0.082621 -0.0098462 0.262512
0.0826122 -0.0103306 0.262114
0.0826329 -0.0108165 0.261816
0.0826397 -0.0113 0.261472
0.0826689 -0.0117847 0.261204
0.0826948 -0.0122682 0.260926
0.0827035 -0.012749 0.260591
0.0826967 -0.0132269 0.260205
0.0826801 -0.0137023 0.259787
0.0826626 -0.0141763 0.259367
0.0826371 -0.0146479 0.258921
0.0826237 -0.0151197 0.258517
0.0826204 -0.0155918 0.258147
0.0826405 -0.0160662 0.257856
0.0826684 -0.0165409 0.257592
0.0826877 -0.0170134 0.257299
0.082724 -0.0174878 0.257064
0.0827765 -0.0179643 0.256882
0.0828329 -0.018441 0.256713
0.0828987 -0.0189189 0.256577
0.0829658 -0.0193966 0.256444
0.0830311 -0.0198737 0.256306
0.0830716 -0.0203454 0.256087
0.0831189 -0.0208178 0.25589
0.0831571 -0.0212877 0.255664
0.0832046 -0.021759 0.25547
0.0832702 -0.0222337 0.255334
0.0833457 -0.0227103 0.255232
0.0834299 -0.0231886 0.255158
0.0834963 -0.0236625 0.255025
0.0835511 -0.0241332 0.254856
0.0835946 -0.0246006 0.25465
0.0836398 -0.0250679 0.254451
0.0836701 -0.0255307 0.254203
0.0837249 -0.0259993 0.254036
0.0837865 -0.0264692 0.25389
0.0838588 -0.0269416 0.25378
0.0839507 -0.0274191 0.253732
0.0840693 -0.0279043 0.253771
0.0841801 -0.0283873 0.253785
0.0843056 -0.0288748 0.253845
0.0844299 -0.0293623 0.253902
0.0845488 -0.0298481 0.25394
0.0846594 -0.0303317 0.253953
0.0847779 -0.0308181 0.25399
0.0849033 -0.0313068 0.25405
0.085031 -0.0317963 0.254116
0.0851864 -0.0322953 0.254271
0.0853452 -0.0327962 0.254435
0.085529 -0.033306 0.254678
0.0857052 -0.0338141 0.254897
0.0859167 -0.0343353 0.255227
0.0861228 -0.0348558 0.255539
0.0863217 -0.0353749 0.255828
0.0865086 -0.0358902 0.256078
0.0867462 -0.0364256 0.256487
0.0870742 -0.0369963 0.257179
0.0874305 -0.0375799 0.257958
0.0878144 -0.0381769 0.258822
0.0882125 -0.0387823 0.259729
0.0885559 -0.0393689 0.260461
0.0887941 -0.0399154 0.260864
0.0889878 -0.0404453 0.261126
0.0892129 -0.0409892 0.261486
0.0739617 0.039193 0.268159
0.0740059 0.0386595 0.267908
0.0740174 0.0381095 0.267532
0.0739827 0.0375361 0.266981
0.0739364 0.0369584 0.266387
0.0737376 0.0363036 0.265215
0.0735423 0.0356553 0.26406
0.0732084 0.034941 0.262383
0.0729045 0.0342481 0.260824
0.0726338 0.0335771 0.259394
0.0716654 0.0299565 0.253361
0.0716235 0.0294187 0.252812
0.0714459 0.028824 0.251758
0.0714016 0.0282901 0.251204
0.0715276 0.0278298 0.251286
0.0716751 0.027378 0.251448
0.0718231 0.0269258 0.251612
0.0720396 0.0265003 0.252028
0.072143 0.0260287 0.252025
0.0722527 0.0255595 0.252045
0.0723562 0.0250877 0.252042
0.0724534 0.0246136 0.252015
0.0726047 0.0241593 0.252188
0.0727348 0.0236966 0.252283
0.0728443 0.0232263 0.252301
0.0729585 0.0227575 0.252337
0.0730712 0.0222879 0.252366
0.0731864 0.021819 0.252406
0.073317 0.0213549 0.252501
0.0734484 0.0208907 0.252598
0.0735786 0.0204256 0.252691
0.0737376 0.0199689 0.252889
0.073908 0.0195148 0.253127
0.0740829 0.0190611 0.253381
0.0742725 0.0186106 0.253687
0.0744507 0.0181557 0.253951
0.0745902 0.0176893 0.254075
0.0747354 0.0172239 0.254219
0.0748681 0.0167546 0.254317
0.0750099 0.0162872 0.254448
0.0751366 0.0158155 0.254524
0.0752673 0.0153444 0.254614
0.0754051 0.0148747 0.254729
0.0755458 0.0144051 0.254855
0.0756752 0.0139324 0.254939
0.075824 0.0134636 0.255092
0.0759788 0.0129954 0.255267
0.0761203 0.0125238 0.255393
0.0762647 0.0120522 0.25553
0.0764311 0.0115843 0.255744
0.0765742 0.0111112 0.255875
0.076724 0.0106388 0.256029
0.0768808 0.0101669 0.256207
0.0770972 0.00970415 0.256596
0.0773211 0.00924106 0.25701
0.0775786 0.00878147 0.257541
0.0778389 0.00832036 0.258081
0.078081 0.00785477 0.258555
0.0782912 0.00738317 0.258915
0.078504 0.0069106 0.259284
0.0787336 0.00643866 0.259711
0.0789755 0.00596656 0.260179
0.0792111 0.00549203 0.260624
0.0794533 0.00501656 0.261091
0.079679 0.0045378 0.2615
0.0798967 0.00405682 0.261879
0.0800577 0.00356976 0.26206
0.0802315 0.00308298 0.262285
0.0803863 0.00259398 0.262444
0.080533 0.00210385 0.262574
0.0806561 0.00161179 0.262623
0.0808013 0.00112067 0.262747
0.0809295 0.000628231 0.262813
0.0810588 0.000135566 0.262882
0.0811728 -0.000357973 0.262898
0.0812945 -0.000851392 0.26294
0.0814144 -0.00134508 0.262977
0.0815444 -0.00183879 0.263047
0.0816608 -0.00233297 0.263071
0.0818266 -0.00282702 0.263264
0.0819938 -0.00332185 0.26346
0.0821462 -0.0038173 0.263606
0.0832509 -0.00828622 0.264
0.0832413 -0.00877535 0.263598
0.0832005 -0.00926102 0.263092
0.0832018 -0.00974822 0.262729
0.0832201 -0.0102356 0.262424
0.0832588 -0.0107239 0.262187
0.0832917 -0.0112108 0.261932
0.0833407 -0.0116986 0.261731
0.0833865 -0.0121854 0.26152
0.083398 -0.0126678 0.261195
0.083391 -0.0131471 0.260809
0.0833713 -0.0136236 0.260382
0.083334 -0.0140965 0.259898
0.0832893 -0.0145669 0.259391
0.0832728 -0.0150396 0.258978
0.0832663 -0.0155123 0.258599
0.0832788 -0.0159867 0.258284
0.0833157 -0.0164638 0.25805
0.0833355 -0.0169375 0.257759
0.0833628 -0.0174116 0.257495
0.0834068 -0.0178876 0.257286
0.0834458 -0.0183622 0.257061
0.0834936 -0.0188377 0.256865
0.0835487 -0.0193139 0.256693
0.083612 -0.0197913 0.256549
0.0836513 -0.0202635 0.256326
0.083707 -0.0207383 0.256158
0.0837545 -0.021211 0.255963
0.083819 -0.0216867 0.255824
0.0838931 -0.0221641 0.255717
0.083978 -0.0226436 0.255644
0.0840713 -0.0231249 0.255599
0.0841385 -0.0236 0.255469
0.0841931 -0.0240717 0.2553
0.0842368 -0.0245402 0.255095
0.0842814 -0.0250084 0.254894
0.0843039 -0.0254703 0.254622
0.0843574 -0.0259395 0.25445
0.08442 -0.0264106 0.254308
0.0844937 -0.0268843 0.254202
0.0845883 -0.0273636 0.254163
0.0847183 -0.0278528 0.254237
0.0848394 -0.0283397 0.254283
0.0849752 -0.0288311 0.254375
0.0851098 -0.0293226 0.254463
0.0852369 -0.0298121 0.254526
0.085347 -0.0302967 0.254536
0.0854714 -0.0307858 0.254591
0.0855886 -0.0312728 0.254623
0.0857179 -0.0317639 0.254694
0.0858754 -0.0322648 0.254852
0.0860523 -0.0327725 0.255072
0.0862474 -0.033287 0.255349
0.0864331 -0.0337995 0.255596
0.0866375 -0.0343194 0.2559
0.0868346 -0.0348375 0.256181
0.0870171 -0.0353515 0.256416
0.087188 -0.0358622 0.256613
0.0874282 -0.0363989 0.257027
0.0877564 -0.03697 0.257715
0.0880919 -0.0375461 0.258424
0.0884528 -0.0381342 0.25921
0.0888202 -0.0387273 0.260015
0.074553 0.0382423 0.2676
0.074534 0.0376771 0.267112
0.0743308 0.0370172 0.265928
0.073948 0.0362684 0.26407
0.0735556 0.0355217 0.262181
0.0730111 0.0347057 0.259724
0.0715147 0.0302998 0.25135
0.0713448 0.0297075 0.25033
0.0713465 0.0291947 0.249951
0.0713321 0.0286761 0.249513
0.0713292 0.028164 0.24912
0.0714801 0.0277178 0.249296
0.0716382 0.0272738 0.249499
0.0717909 0.0268269 0.249681
0.071993 0.0263988 0.250044
0.0722204 0.0259793 0.2505
0.0724467 0.0255575 0.25095
0.0726649 0.0251311 0.25137
0.0728695 0.0246978 0.251737
0.0730282 0.0242465 0.251937
0.0731574 0.0237838 0.252027
0.0732652 0.0233131 0.25204
0.0733787 0.0228443 0.252072
0.0734849 0.0223728 0.252078
0.0735921 0.0219016 0.252088
0.0737223 0.0214377 0.252181
0.0738553 0.0209743 0.252284
0.073987 0.0205101 0.252382
0.0741551 0.0200564 0.252611
0.074333 0.0196049 0.252875
0.0745094 0.0191519 0.253133
0.0746982 0.0187013 0.253435
0.0748765 0.0182467 0.253698
0.0750151 0.0177803 0.253817
0.0751679 0.0173171 0.253987
0.0753088 0.0168502 0.254114
0.0754521 0.0163833 0.25425
0.0755866 0.0159137 0.254353
0.0757175 0.0154428 0.254443
0.0758555 0.0149731 0.254558
0.075997 0.0145039 0.254686
0.0761419 0.0140347 0.254825
0.0763 0.0135679 0.25501
0.0764788 0.0131046 0.255268
0.0766382 0.0126364 0.255457
0.0768007 0.012168 0.255656
0.0769856 0.0117031 0.255934
0.077146 0.0112327 0.256124
0.0773048 0.0107613 0.256309
0.0774715 0.0102904 0.25652
0.077703 0.00982935 0.256959
0.077919 0.0093642 0.257341
0.0781676 0.00890259 0.257837
0.0784136 0.00843876 0.258323
0.0786482 0.00797154 0.258767
0.078854 0.00749886 0.25911
0.0790689 0.00702608 0.259483
0.0793013 0.00655397 0.259916
0.0795692 0.00608437 0.260471
0.0798069 0.00560942 0.26092
0.0800535 0.00513379 0.261399
0.0802854 0.00465496 0.261825
0.0805191 0.00417475 0.262257
0.0806814 0.00368698 0.262441
0.0808565 0.00319947 0.262668
0.0810099 0.00270955 0.26282
0.0811382 0.00221739 0.262886
0.0812346 0.00172302 0.262842
0.0813445 0.00122945 0.262844
0.0814536 0.000735762 0.262843
0.081556 0.000241734 0.262819
0.0816529 -0.000252475 0.262777
0.0817564 -0.000746425 0.262757
0.0818683 -0.00124016 0.262765
0.08382 -0.0111098 0.261974
0.0839053 -0.0116014 0.261894
0.0839894 -0.0120927 0.261811
0.0840218 -0.0125783 0.261556
0.0840331 -0.0130606 0.261233
0.0840223 -0.0135393 0.260837
0.0839755 -0.0140123 0.260324
0.0839181 -0.0144822 0.259777
0.0838968 -0.0149552 0.25935
0.0838877 -0.0154287 0.258964
0.0838914 -0.0159027 0.258621
0.0839372 -0.0163821 0.258416
0.08396 -0.0168573 0.258137
0.0839887 -0.0173325 0.257878
0.0840342 -0.0178098 0.257674
0.0840712 -0.018285 0.257443
0.0841028 -0.0187585 0.257195
0.0841471 -0.0192336 0.256989
0.0842078 -0.0197112 0.256836
0.0842449 -0.0201838 0.256607
0.0843007 -0.0206594 0.25644
0.0843639 -0.021136 0.256296
0.0844448 -0.021616 0.25621
0.0845192 -0.0220944 0.256103
0.0846116 -0.0225765 0.256055
0.0847128 -0.0230605 0.256035
0.0847803 -0.0235366 0.255906
0.0848274 -0.0240075 0.255712
0.084871 -0.0244771 0.255508
0.0849056 -0.0249438 0.255275
0.0849271 -0.0254064 0.255001
0.0849822 -0.0258769 0.254834
0.0850541 -0.0263514 0.254722
0.0851364 -0.0268284 0.254643
0.0852391 -0.0273108 0.254629
0.0853692 -0.0278008 0.254702
0.0854931 -0.0282894 0.254756
0.0856316 -0.0287825 0.254855
0.0857611 -0.0292733 0.254925
0.0858901 -0.0297643 0.254994
0.0860019 -0.0302501 0.255009
0.086129 -0.0307409 0.255071
0.0862468 -0.0312292 0.255104
0.0863922 -0.0317264 0.255223
0.0865518 -0.0322288 0.255387
0.0867306 -0.0327379 0.255611
0.086927 -0.0332538 0.255889
0.0871129 -0.0337672 0.256134
0.0873074 -0.0342841 0.256405
0.0874941 -0.0347994 0.256651
0.0876647 -0.03531 0.256846
0.0878251 -0.0358174 0.257009
0.0880534 -0.03635 0.257383
0.0883179 -0.0368977 0.257868
0.0886013 -0.0374538 0.258411
0.0746824 0.0370539 0.265314
0.0740886 0.0361983 0.262677
0.0734551 0.0353324 0.259899
0.0725016 0.0339163 0.257406
0.0726572 0.0343943 0.256513
0.071704 0.0309046 0.252445
0.0713802 0.0311594 0.249803
0.0713446 0.0306284 0.249287
0.0713244 0.0301062 0.24883
0.0713231 0.029594 0.248444
0.0714948 0.0291591 0.248697
0.0716447 0.0287138 0.24887
0.071788 0.028265 0.249018
0.0719381 0.0278184 0.24919
0.0720899 0.0273717 0.249368
0.0722345 0.0269215 0.249519
0.0724146 0.0264847 0.2498
0.0726327 0.0260616 0.250218
0.072851 0.025637 0.250637
0.0730706 0.0252113 0.251058
0.0732718 0.0247771 0.251412
0.0734446 0.0243312 0.251661
0.0735737 0.0238687 0.251751
0.0736742 0.0233958 0.251736
0.0737871 0.0229271 0.251767
0.0738997 0.0224582 0.251796
0.0740067 0.0219872 0.251805
0.0741375 0.0215238 0.2519
0.0742842 0.021065 0.252052
0.0744184 0.0206017 0.252158
0.0745949 0.0201508 0.252416
0.0747732 0.0196995 0.25268
0.0749557 0.0192484 0.252958
0.075138 0.0187961 0.253234
0.0753175 0.0183419 0.2535
0.0754568 0.0178758 0.253621
0.0756178 0.017415 0.253819
0.0757597 0.0169484 0.253949
0.0759037 0.0164818 0.254086
0.0760524 0.0160157 0.254239
0.076191 0.0155467 0.254356
0.0763303 0.0150773 0.254475
0.0764726 0.0146081 0.254604
0.0766322 0.0141422 0.254794
0.0767918 0.0136755 0.254983
0.0769806 0.0132142 0.255275
0.0771654 0.0127509 0.255551
0.0773593 0.0122883 0.255859
0.0775617 0.0118261 0.256196
0.0777543 0.011361 0.256497
0.077931 0.0108918 0.256742
0.0781069 0.0104216 0.256984
0.0783161 0.00995583 0.25734
0.078515 0.00948719 0.257661
0.0787387 0.00902108 0.258066
0.0789692 0.00855445 0.258494
0.0791921 0.00808513 0.258894
0.0794086 0.00761353 0.259272
0.0796331 0.00714151 0.259675
0.0798666 0.00666912 0.260109
0.0801436 0.00620008 0.260692
0.0803839 0.00572495 0.261147
0.0806233 0.00524806 0.261597
0.0808559 0.00476885 0.262022
0.0810889 0.00428813 0.262448
0.081242 0.00379907 0.262599
0.0814092 0.00331054 0.262797
0.0815699 0.00282076 0.262973
0.0816813 0.00232703 0.26298
0.0817682 0.00183171 0.262903
0.0818609 0.0013369 0.262847
0.0819609 0.000842569 0.262814
0.0820377 0.000347278 0.262704
0.0821243 -0.000147317 0.262627
0.0845889 -0.0129639 0.261366
0.0845867 -0.0134442 0.261001
0.0845314 -0.0139169 0.260462
0.0844664 -0.0143866 0.259893
0.0844414 -0.0148598 0.259457
0.0844389 -0.0153347 0.259094
0.0844507 -0.0158106 0.258779
0.0845158 -0.0162934 0.258638
0.0845643 -0.0167732 0.258443
0.084603 -0.017251 0.258217
0.0846559 -0.0177304 0.258038
0.0846934 -0.0182066 0.257809
0.0847232 -0.0186807 0.257556
0.0847509 -0.0191537 0.257297
0.0848025 -0.0196304 0.257115
0.0848387 -0.0201036 0.256884
0.0848954 -0.0205801 0.256719
0.0849605 -0.0210579 0.256583
0.0850496 -0.0215403 0.256523
0.0851319 -0.0220212 0.256441
0.0852242 -0.022504 0.256392
0.0853173 -0.0229869 0.256345
0.0853837 -0.0234635 0.256213
0.0854294 -0.0239349 0.256016
0.0854629 -0.0244029 0.25578
0.0854892 -0.0248683 0.255521
0.0855175 -0.0253335 0.25527
0.0855726 -0.0258048 0.255104
0.0856449 -0.02628 0.254992
0.0857355 -0.0267599 0.25494
0.085845 -0.0272448 0.254947
0.0859739 -0.0277352 0.255015
0.0861044 -0.0282262 0.255088
0.0862527 -0.0287228 0.255217
0.0863924 -0.0292172 0.255319
0.0865419 -0.0297151 0.255451
0.086665 -0.0302052 0.2555
0.0867942 -0.0306978 0.255567
0.0869219 -0.0311898 0.25563
0.0870688 -0.0316885 0.255753
0.0872194 -0.0321886 0.255887
0.087399 -0.0326988 0.256111
0.0875949 -0.0332153 0.256386
0.0877743 -0.0337272 0.256608
0.0879595 -0.0342418 0.256847
0.0881274 -0.0347512 0.257033
0.0882848 -0.0352575 0.257185
0.0749595 0.0370524 0.264428
0.0741382 0.0360826 0.260962
0.071762 0.0328979 0.252384
0.0716572 0.0332425 0.250558
0.0713879 0.0325929 0.249175
0.0716681 0.0323313 0.251646
0.071305 0.0320377 0.248487
0.0714331 0.0317005 0.250384
0.0712415 0.0314942 0.247871
0.071353 0.0310342 0.247904
0.071488 0.0305849 0.248022
0.0716322 0.0301392 0.248174
0.0717847 0.0296966 0.248356
0.0719503 0.0292588 0.248585
0.0721011 0.0288138 0.24876
0.0722445 0.028365 0.248907
0.0723874 0.0279153 0.249052
0.0725306 0.0274652 0.249197
0.0726682 0.0270121 0.249322
0.0728337 0.0265696 0.249547
0.0730377 0.0261412 0.249912
0.0732555 0.0257166 0.250326
0.0734755 0.0252913 0.250747
0.0736776 0.0248577 0.251101
0.0738592 0.0244153 0.251381
0.0739961 0.0239559 0.251498
0.0740971 0.0234834 0.251486
0.0742106 0.0230152 0.251518
0.0743234 0.0225465 0.251549
0.0744301 0.0220757 0.251556
0.0745682 0.0216149 0.251677
0.074723 0.0211589 0.251856
0.0748654 0.0206983 0.251991
0.0750497 0.0202498 0.252275
0.0752282 0.0197986 0.252538
0.07541 0.0193473 0.252812
0.0755925 0.018895 0.253087
0.0757733 0.0184413 0.253355
0.0759219 0.0179778 0.253509
0.076092 0.0175193 0.253738
0.0762345 0.0170528 0.253869
0.0763784 0.0165861 0.254005
0.0765343 0.0161218 0.254182
0.0766742 0.0156529 0.254302
0.076815 0.0151838 0.254425
0.076965 0.0147162 0.254581
0.0771323 0.0142519 0.254796
0.0773003 0.0137867 0.255013
0.0774999 0.0133274 0.255341
0.0777014 0.0128671 0.255673
0.0779132 0.0124077 0.256041
0.0781244 0.0119467 0.256406
0.078327 0.0114828 0.25674
0.0785056 0.0110133 0.25699
0.0786753 0.0105414 0.257207
0.0788608 0.0100712 0.257479
0.0790416 0.00959927 0.257734
0.0792476 0.0091302 0.258076
0.07947 0.00866224 0.258473
0.079694 0.00819299 0.258874
0.079927 0.00772345 0.259305
0.0801614 0.00725251 0.259741
0.0803882 0.00677903 0.260148
0.0806722 0.00631065 0.260751
0.080905 0.00583451 0.261177
0.0811288 0.00535582 0.261571
0.0813539 0.00487582 0.261968
0.0815774 0.00439421 0.262359
0.0849471 -0.0157091 0.25873
0.0850371 -0.0161958 0.25867
0.0851032 -0.0166787 0.258534
0.0851608 -0.0171599 0.258369
0.0852391 -0.017644 0.258272
0.0852932 -0.0181237 0.258098
0.0853308 -0.0186 0.257871
0.0853512 -0.0190726 0.257589
0.0853934 -0.0195484 0.257377
0.0854221 -0.0200209 0.257123
0.0854698 -0.0204963 0.25693
0.0855197 -0.0209717 0.256745
0.0856103 -0.0214549 0.25669
0.0856935 -0.0219364 0.256611
0.0857864 -0.0224198 0.256564
0.0858714 -0.0229014 0.256491
0.0859443 -0.0233801 0.25638
0.0859885 -0.0238517 0.256178
0.0860207 -0.02432 0.255939
0.0860537 -0.0247877 0.255703
0.0860899 -0.0252555 0.255477
0.086145 -0.0257274 0.255311
0.0862176 -0.0262034 0.255201
0.0862999 -0.0266816 0.255122
0.0863919 -0.0271623 0.255074
0.0865107 -0.0276501 0.25511
0.0866309 -0.0281386 0.25515
0.0867692 -0.0286324 0.255246
0.0869253 -0.0291317 0.255398
0.087101 -0.0296374 0.255611
0.087253 -0.0301367 0.25575
0.0873948 -0.0306335 0.255856
0.0875311 -0.031129 0.255944
0.0876768 -0.0316278 0.256062
0.0722485 0.0340581 0.25314
0.0719459 0.0337783 0.250201
0.0715797 0.0330795 0.248469
0.0714989 0.0325255 0.247793
0.0715824 0.0320525 0.247722
0.0716734 0.0315831 0.247678
0.0717783 0.0311202 0.247686
0.071912 0.0306705 0.247799
0.072049 0.0302216 0.247924
0.0722084 0.0297822 0.24813
0.0723741 0.0293447 0.248358
0.0725261 0.0289004 0.248536
0.0726771 0.0284549 0.24871
0.0728204 0.0280055 0.248855
0.0729565 0.0275526 0.248974
0.0730929 0.0270991 0.249093
0.0732508 0.0266538 0.24929
0.0734349 0.0262178 0.24958
0.0736373 0.0257877 0.249936
0.0738499 0.02536 0.250328
0.0740439 0.0249239 0.250651
0.0742411 0.0244877 0.250986
0.0743947 0.0240347 0.251162
0.074512 0.0235683 0.251209
0.0746336 0.0231031 0.25127
0.0747597 0.0226393 0.251347
0.0748609 0.0221667 0.251335
0.0750069 0.0217086 0.251483
0.0751701 0.0212554 0.251692
0.0753201 0.0207972 0.251853
0.0754983 0.020347 0.252113
0.0756838 0.0198978 0.252399
0.0758659 0.0194466 0.252672
0.0760419 0.0189925 0.252922
0.0762231 0.018539 0.253191
0.0763871 0.0180797 0.253397
0.0765588 0.0176217 0.253631
0.0767035 0.0171557 0.253768
0.076861 0.0166924 0.253951
0.0770249 0.0162299 0.254154
0.0771664 0.0157613 0.254279
0.0773095 0.0152926 0.25441
0.0774673 0.0148266 0.254591
0.0776417 0.0143635 0.25483
0.0778182 0.0139 0.255075
0.0780281 0.0134424 0.255435
0.0782394 0.0129838 0.2558
0.0784607 0.0125258 0.256198
0.0786741 0.0120647 0.256567
0.0788793 0.0116008 0.256908
0.0790508 0.0111296 0.257131
0.0792278 0.0106585 0.257372
0.0794042 0.0101865 0.257611
0.0795673 0.00971127 0.257803
0.0797553 0.00923917 0.258079
0.0799677 0.00876958 0.25844
0.0801761 0.00829806 0.258785
0.0804027 0.00782771 0.259192
0.0806373 0.00735686 0.259624
0.0808643 0.00688349 0.26003
0.0811405 0.00641431 0.260603
0.0813641 0.00593726 0.260994
0.0857445 -0.0175445 0.258253
0.0858084 -0.0180262 0.258111
0.085855 -0.0185045 0.257914
0.0858827 -0.0189788 0.257656
0.0859164 -0.0194533 0.257419
0.085951 -0.0199274 0.257184
0.0860065 -0.0204048 0.257017
0.0860561 -0.0208805 0.256831
0.0861552 -0.0213658 0.256803
0.0862471 -0.0218496 0.256752
0.0863412 -0.0223337 0.256708
0.0864262 -0.0228158 0.256636
0.0864991 -0.0232949 0.256525
0.0865415 -0.0237667 0.256318
0.0865745 -0.0242357 0.256082
0.0866088 -0.0247044 0.255851
0.0866371 -0.0251708 0.255601
0.0866911 -0.0256429 0.255433
0.086754 -0.0261169 0.255293
0.0868273 -0.0265931 0.255186
0.0869027 -0.0270696 0.255085
0.0870121 -0.0275551 0.255091
0.0871221 -0.0280409 0.255099
0.0872502 -0.0285318 0.255163
0.0719893 0.0336725 0.248568
0.0718362 0.0330819 0.24763
0.0719165 0.0326073 0.247548
0.0719923 0.0321308 0.247449
0.0720824 0.0316613 0.247403
0.0721865 0.0311984 0.247408
0.0723196 0.0307486 0.247518
0.0724494 0.0302969 0.247616
0.072602 0.0298547 0.247796
0.072768 0.0294177 0.248024
0.0729272 0.0289768 0.248227
0.0730799 0.0285323 0.248406
0.0732315 0.0280867 0.24858
0.0733748 0.0276369 0.248724
0.073511 0.0271837 0.248842
0.0736689 0.0267385 0.249038
0.0738452 0.0262997 0.249299
0.074032 0.0258638 0.249596
0.0742277 0.0254301 0.249925
0.0744136 0.0249915 0.250218
0.0746051 0.0245537 0.25053
0.0747682 0.0241047 0.25074
0.0749024 0.0236448 0.250846
0.0750395 0.0231853 0.250962
0.0751812 0.022727 0.251095
0.0752973 0.0222596 0.251136
0.0754453 0.0218023 0.25129
0.0756168 0.0213518 0.251527
0.0757745 0.0208961 0.251714
0.0759533 0.020446 0.251975
0.0761477 0.0199995 0.25229
0.0763383 0.0195507 0.252591
0.0765148 0.0190967 0.252841
0.0766957 0.018643 0.253106
0.0768669 0.0181856 0.253337
0.0770397 0.0177277 0.253572
0.0771859 0.017262 0.253714
0.0773521 0.0168008 0.253925
0.0775241 0.0163402 0.254156
0.0776667 0.0158716 0.254284
0.077811 0.0154029 0.254417
0.0779771 0.0149386 0.254626
0.0781596 0.0144771 0.254891
0.0783385 0.0140137 0.255142
0.078557 0.0135577 0.25553
0.0787709 0.0130992 0.2559
0.0790006 0.0126424 0.256325
0.079207 0.0121797 0.256668
0.0794121 0.0117154 0.257005
0.0795753 0.0112424 0.257198
0.0797431 0.0107694 0.257406
0.0799027 0.0102943 0.257585
0.080057 0.00981761 0.257745
0.080229 0.00934297 0.257966
0.0804172 0.00886988 0.258241
0.0810686 0.00745545 0.259357
0.0812894 0.00698165 0.259739
0.0815575 0.00651194 0.260281
0.0871397 -0.0250749 0.255584
0.0871931 -0.0255471 0.255415
0.0872544 -0.0260209 0.25527
0.0873351 -0.0264993 0.255186
0.0728154 0.034475 0.250185
0.072185 0.0336436 0.24751
0.0722591 0.033166 0.247405
0.0723332 0.0326887 0.247301
0.0724062 0.0322112 0.247193
0.0724823 0.0317355 0.247096
0.0725853 0.0312724 0.247097
0.0727189 0.0308231 0.247209
0.0728494 0.030372 0.247309
0.0729949 0.0299271 0.247462
0.0731672 0.0294931 0.247712
0.0733271 0.0290528 0.247916
0.0734877 0.028612 0.248122
0.0736484 0.0281704 0.248328
0.073801 0.0277245 0.248505
0.0739445 0.0272744 0.248648
0.0741029 0.0268295 0.248844
0.0742636 0.0263848 0.249048
0.0744347 0.0259431 0.249288
0.074612 0.0255028 0.249549
0.0747813 0.0250585 0.249782
0.0749661 0.0246189 0.250068
0.0751384 0.0241737 0.250309
0.0752902 0.0237204 0.250478
0.0754427 0.0232667 0.250648
0.0756012 0.0228143 0.250839
0.0757328 0.0223523 0.250934
0.0758902 0.0218981 0.25112
0.07607 0.0214503 0.251385
0.0762357 0.0209971 0.251599
0.0764152 0.0205472 0.25186
0.0766186 0.0201033 0.252205
0.0768114 0.0196551 0.252511
0.0769965 0.0192035 0.25279
0.0771844 0.0187515 0.253078
0.0773624 0.0182958 0.25333
0.0775368 0.0178381 0.25357
0.0776913 0.0173744 0.253739
0.0778593 0.0169133 0.253955
0.0780321 0.0164526 0.254187
0.0781757 0.015984 0.254317
0.0783119 0.0155132 0.254421
0.0784782 0.0150487 0.254629
0.0786617 0.0145871 0.254895
0.0788425 0.014124 0.255151
0.0790638 0.0136683 0.255546
0.0792847 0.013211 0.255938
0.0795218 0.0127555 0.256385
0.0797282 0.0122924 0.256725
0.0799328 0.0118277 0.257059
0.0800947 0.0113542 0.257245
0.0727336 0.0337897 0.247741
0.0726773 0.033248 0.247165
0.0727544 0.0327724 0.247073
0.0728275 0.0322952 0.246965
0.0728956 0.031816 0.246841
0.0729998 0.0313538 0.246846
0.0731337 0.0309049 0.246958
0.0732642 0.030454 0.247057
0.0734101 0.0300094 0.247211
0.0735824 0.0295756 0.24746
0.0737416 0.0291352 0.24766
0.0739107 0.0286981 0.247895
0.0740802 0.0282602 0.248131
0.0742418 0.0278182 0.248339
0.074394 0.0273716 0.248512
0.0745601 0.0269297 0.248734
0.0747067 0.0264794 0.248886
0.0748616 0.0260317 0.249067
0.0750286 0.0255876 0.249291
0.075189 0.0251403 0.24949
0.0753586 0.0246955 0.249721
0.0755388 0.0242535 0.249989
0.0757046 0.0238054 0.250206
0.0758681 0.0233557 0.250414
0.0760441 0.0229093 0.250665
0.0762 0.0224553 0.250845
0.0763663 0.022004 0.251061
0.0765467 0.0215562 0.251325
0.0767191 0.0211049 0.251561
0.0768926 0.020653 0.2518
0.0770977 0.0202095 0.252148
0.0772919 0.0197615 0.252457
0.0774857 0.0193122 0.252764
0.0776754 0.0188606 0.253056
0.0778626 0.0184071 0.253339
0.0780302 0.0179474 0.253553
0.0781922 0.0174855 0.253747
0.0783612 0.0170244 0.253965
0.0785337 0.0165635 0.254194
0.0786702 0.0160929 0.254298
0.0788049 0.0156215 0.254396
0.0789628 0.015155 0.254574
0.0791394 0.0146918 0.254815
0.0793127 0.014227 0.255043
0.079527 0.0137699 0.255412
0.0738733 0.0347459 0.250468
0.073427 0.0340065 0.248488
0.0732131 0.0333871 0.247349
0.0731853 0.0328609 0.24688
0.0732582 0.0323837 0.246773
0.0733188 0.0319012 0.246622
0.0734166 0.0314363 0.246605
0.0735509 0.0309878 0.246717
0.0736824 0.0305375 0.24682
0.0738275 0.0300928 0.24697
0.074 0.0296592 0.247217
0.0741595 0.0292191 0.247418
0.074336 0.0287853 0.247678
0.0745136 0.0283509 0.247941
0.0746909 0.0279153 0.248203
0.0748521 0.0274722 0.248406
0.0750264 0.0270335 0.248656
0.0751669 0.0265807 0.248786
0.0753131 0.0261296 0.248935
0.0754721 0.0256826 0.249129
0.075625 0.0252326 0.249301
0.0757798 0.0247825 0.249479
0.075959 0.0243403 0.249741
0.0761383 0.0238971 0.250004
0.0763045 0.0234484 0.25022
0.0764982 0.023008 0.250531
0.0766792 0.0225623 0.250797
0.0768539 0.0221135 0.25104
0.0770276 0.0216633 0.251279
0.0772071 0.0212141 0.251538
0.0773725 0.0207596 0.251748
0.077578 0.020316 0.252095
0.0777653 0.0198659 0.252378
0.0779524 0.0194146 0.25266
0.0781279 0.018959 0.252901
0.0783168 0.0185061 0.253187
0.0784854 0.0180467 0.253403
0.0786559 0.017587 0.253625
0.0788394 0.0171296 0.253891
0.0790207 0.0166706 0.254149
0.0791557 0.0161997 0.254248
0.0792748 0.0157245 0.254292
0.0740253 0.034176 0.248885
0.0736857 0.0334954 0.247304
0.0736407 0.032961 0.246776
0.0737129 0.0324836 0.246668
0.0737795 0.032004 0.246539
0.0738768 0.0315387 0.246519
0.0740049 0.0310873 0.246609
0.0741426 0.0306398 0.246733
0.0742813 0.0301921 0.246859
0.074447 0.0297555 0.247081
0.0746138 0.0293185 0.247306
0.0747915 0.0288851 0.247568
0.0749775 0.028454 0.247859
0.0751701 0.0280245 0.248173
0.0753469 0.0275874 0.24843
0.0755234 0.0271492 0.248685
0.0756715 0.0266991 0.24884
0.0758178 0.0262476 0.248988
0.0759776 0.0258005 0.249184
0.0761244 0.0253479 0.249332
0.076266 0.0248929 0.249463
0.076436 0.0244472 0.249692
0.0766141 0.0240034 0.249949
0.0767807 0.0235547 0.250164
0.076978 0.0231153 0.250486
0.0771767 0.0226752 0.250811
0.0773527 0.0222265 0.251057
0.0775182 0.0217736 0.251266
0.0776964 0.0213236 0.251519
0.0778538 0.0208665 0.251699
0.0780453 0.0204187 0.251996
0.0782226 0.0199657 0.252243
0.0784076 0.0195138 0.252516
0.0785667 0.0190537 0.252699
0.0752545 0.0358317 0.254032
0.0756681 0.0359077 0.253733
0.0751673 0.035133 0.251578
0.0746175 0.0343423 0.249254
0.0742179 0.0336323 0.247469
0.0741567 0.03309 0.246887
0.0742196 0.0326079 0.246745
0.0742784 0.0321243 0.24659
0.0743681 0.0316553 0.246543
0.0744962 0.0312036 0.246632
0.074627 0.0307527 0.24673
0.0747651 0.0303045 0.246854
0.0749306 0.0298676 0.247073
0.0750987 0.0294308 0.247301
0.0752779 0.0289977 0.247567
0.0754722 0.0285698 0.247884
0.0756734 0.0281434 0.248226
0.0758595 0.0277095 0.248513
0.0760384 0.0272718 0.248775
0.0761867 0.0268213 0.248929
0.0763327 0.0263694 0.249075
0.0764932 0.0259221 0.249271
0.076635 0.0254673 0.249402
0.0767775 0.0250122 0.249534
0.0769388 0.0245631 0.249732
0.0771156 0.0241185 0.249982
0.0772744 0.0236669 0.250169
0.0774663 0.0232254 0.25047
0.0776652 0.0227851 0.250793
0.0778486 0.0223386 0.251063
0.0780063 0.021883 0.251244
0.0781845 0.0214329 0.251495
0.0783415 0.0209755 0.251672
0.0785175 0.0205229 0.251914
0.0786709 0.0200628 0.252078
0.0788367 0.0196056 0.252284
0.0751615 0.0344842 0.249446
0.0747726 0.0337799 0.24771
0.0746913 0.0332275 0.24706
0.0747387 0.0327377 0.246865
0.0747952 0.0322527 0.246701
0.0748775 0.03178 0.246629
0.0749999 0.0313253 0.246697
0.0751303 0.0308739 0.246793
0.0752741 0.0304278 0.246935
0.075433 0.0299876 0.247129
0.075602 0.0295508 0.247359
0.0757821 0.0291177 0.247625
0.0759781 0.02869 0.247947
0.0761802 0.0282635 0.248289
0.0763685 0.0278302 0.248582
0.0765479 0.0273922 0.248843
0.0766972 0.0269417 0.249
0.0768499 0.0264919 0.249168
0.0770179 0.026047 0.249388
0.0771605 0.025592 0.24952
0.0773037 0.0251367 0.249654
0.0774574 0.0246844 0.249823
0.0776255 0.0242364 0.250041
0.0777683 0.023779 0.250172
0.077952 0.0233346 0.250443
0.0781429 0.0228915 0.250737
0.0783254 0.0224445 0.251002
0.0784752 0.0219863 0.251155
0.0786468 0.0215341 0.251381
0.0787973 0.0210747 0.251535
0.0756081 0.034579 0.249294
0.0753463 0.0339362 0.248013
0.0752724 0.0333868 0.247392
0.0753108 0.032892 0.247166
0.0753671 0.0324062 0.247002
0.0754499 0.0319329 0.246931
0.0755647 0.0314741 0.246972
0.0756878 0.0310187 0.247041
0.0758249 0.030569 0.247159
0.075976 0.0301247 0.247324
0.076139 0.0296848 0.247531
0.0763124 0.0292483 0.247773
0.0765005 0.0288168 0.248064
0.0767026 0.0283897 0.248404
0.0768837 0.0279531 0.248669
0.0770573 0.0275125 0.248909
0.0772057 0.0270613 0.249061
0.0773581 0.026611 0.249227
0.0775193 0.0261632 0.249422
0.0776621 0.025708 0.249554
0.0778057 0.0252524 0.249687
0.0779592 0.0247998 0.249855
0.0781196 0.0243489 0.250045
0.0782537 0.0238883 0.250146
0.0784208 0.0234382 0.250358
0.078602 0.0229919 0.250617
0.0759472 0.0346216 0.248767
0.0758067 0.0340381 0.247917
0.0758343 0.0335367 0.247653
0.0758876 0.0330482 0.247479
0.0759513 0.032565 0.247341
0.0760422 0.0320946 0.247298
0.0761506 0.031632 0.247315
0.0762649 0.0311718 0.247353
0.076393 0.0307174 0.247438
0.0765309 0.0302668 0.247557
0.0766869 0.0298232 0.247737
0.0768517 0.0293825 0.247947
0.0770301 0.0289464 0.248204
0.0772093 0.0285096 0.248462
0.0773741 0.0280662 0.24867
0.0775324 0.0276194 0.248855
0.0776725 0.0271649 0.248978
0.0778179 0.0267118 0.249119
0.0779721 0.0262614 0.249289
0.0781229 0.0258091 0.249447
0.0782671 0.0253538 0.249582
0.078421 0.0249012 0.249749
0.0785739 0.0244477 0.249913
0.0787068 0.0239867 0.250009
0.0763868 0.0336819 0.247876
0.0764578 0.033201 0.247763
0.0765328 0.0327223 0.247665
0.0766255 0.0322518 0.247627
0.0767312 0.0317872 0.247635
0.0768289 0.031319 0.247615
0.0769481 0.03086 0.247668
0.0770786 0.0304055 0.24776
0.0772269 0.0299581 0.247913
0.0773838 0.0295135 0.248094
0.0775452 0.02907 0.24829
0.077699 0.0286227 0.24846
0.0778395 0.0281694 0.248584
0.076797 0.0342748 0.247962
0.0768772 0.0337977 0.247882
0.0769739 0.0333285 0.247858
0.0770663 0.0328573 0.247819
0.0771674 0.0323901 0.24781
0.0772653 0.0319215 0.24779
0.0773597 0.0314513 0.247759
0.0774701 0.0309881 0.247781
0.0775929 0.0305299 0.247846
0.0777349 0.0300794 0.247976
0.0778831 0.0296309 0.248126
0.0780215 0.0291778 0.248243
0.0781503 0.0287204 0.248327
0.0776712 0.0325112 0.24786
0.0777754 0.0320451 0.247861
0.0778618 0.0315711 0.247802
0.0779652 0.0311046 0.247801
0.0780809 0.0306432 0.247841
0.0782154 0.0301893 0.247944
0.0783485 0.0297344 0.248043
0.0304607 -0.0460234 0.314338
0.0306569 -0.0450566 0.31189
0.0307154 -0.0455367 0.311288
0.0311773 -0.0513387 0.308495
0.0313768 -0.0503681 0.306241
0.0314841 -0.0509037 0.306157
0.0311215 -0.0516407 0.306792
0.0316055 -0.051458 0.306209
0.0314075 -0.0524355 0.308463
0.0317087 -0.0519868 0.306083
0.030901 -0.0441659 0.309986
0.0309731 -0.044663 0.309537
0.0310641 -0.0451821 0.309274
0.0308558 -0.0461213 0.31152
0.031249 -0.045819 0.309946
0.030825 -0.0464825 0.310023
0.0312562 -0.0462314 0.308857
0.030813 -0.0468664 0.30873
0.0312692 -0.0466488 0.307833
0.0308776 -0.0473475 0.308206
0.0313411 -0.0471398 0.307393
0.0309533 -0.0478435 0.307802
0.0314301 -0.0476536 0.307128
0.0310364 -0.0483474 0.307469
0.0315165 -0.0481621 0.306834
0.0311119 -0.0488408 0.307065
0.0315914 -0.0486554 0.306434
0.03119 -0.0493363 0.306687
0.0316692 -0.0491501 0.306059
0.0312857 -0.0498556 0.306487
0.0317643 -0.0496696 0.305859
0.0318517 -0.0501762 0.305581
0.0319583 -0.0507093 0.305491
0.0320759 -0.0512577 0.305507
0.032181 -0.0517898 0.305407
0.0318014 -0.0525005 0.30586
0.0322743 -0.0523034 0.30519
0.0320877 -0.0532942 0.307497
0.0323726 -0.0528249 0.305026
0.0311003 -0.0436428 0.306533
0.0312918 -0.0442815 0.307272
0.0314202 -0.0448456 0.307395
0.0316488 -0.0455326 0.308487
0.0316986 -0.0459993 0.307834
0.0317464 -0.0464622 0.307169
0.0318213 -0.0469573 0.306765
0.0319061 -0.0474648 0.306461
0.0319872 -0.0479662 0.306122
0.0320611 -0.0484583 0.305718
0.0321419 -0.048958 0.305383
0.0322331 -0.0494717 0.30515
0.0323224 -0.0499816 0.304898
0.0324236 -0.0505074 0.304763
0.0325331 -0.0510443 0.304705
0.0326389 -0.051575 0.304608
0.032739 -0.0520994 0.304466
0.0328424 -0.0526265 0.30435
0.0326666 -0.0536256 0.306704
0.0329547 -0.0531665 0.304318
0.0314213 -0.0432792 0.30437
0.0316427 -0.0439491 0.305394
0.0318006 -0.0445454 0.305801
0.0320582 -0.0452646 0.307164
0.0321443 -0.0457751 0.30687
0.0322257 -0.0462801 0.306537
0.0322991 -0.0467737 0.306127
0.0323783 -0.0472745 0.305778
0.0324543 -0.0477705 0.305401
0.0325282 -0.0482614 0.305
0.0326077 -0.0487602 0.304661
0.0326947 -0.0492677 0.304394
0.0327833 -0.049776 0.304139
0.03288 -0.0502956 0.303965
0.0329884 -0.0508304 0.3039
0.0330939 -0.0513606 0.303807
0.0332065 -0.0519008 0.303781
0.0333198 -0.0524412 0.303758
0.0334486 -0.0530039 0.303881
0.033275 -0.0540019 0.306212
0.0335758 -0.0535643 0.303988
0.0308175 -0.0417598 0.300724
0.0311297 -0.0410014 0.299681
0.0311541 -0.0414356 0.298819
0.0311245 -0.0425226 0.3026
0.0316091 -0.0423623 0.302093
0.0319566 -0.0431723 0.304318
0.0322016 -0.043868 0.305551
0.0323699 -0.0444758 0.306048
0.0325325 -0.0450784 0.306487
0.0326135 -0.0455835 0.306154
0.0326939 -0.0460872 0.305819
0.0327662 -0.0465803 0.305409
0.0328454 -0.0470803 0.305063
0.0329247 -0.0475797 0.304721
0.0329965 -0.0480698 0.304315
0.0330767 -0.0485686 0.303986
0.0331634 -0.0490759 0.303722
0.0332515 -0.0495834 0.303467
0.0333435 -0.0500964 0.303254
0.0334513 -0.0506299 0.303186
0.0335608 -0.0511649 0.303132
0.0336783 -0.0517108 0.303151
0.0337969 -0.0522582 0.30318
0.0339352 -0.0528326 0.303387
0.0340784 -0.053415 0.303638
0.0337036 -0.0541259 0.304097
0.0342188 -0.0539935 0.303861
0.0340365 -0.0549785 0.306064
0.0343505 -0.0545596 0.303999
0.0312765 -0.0407553 0.302206
0.0316222 -0.040445 0.300375
0.0315885 -0.0408199 0.298975
0.0317548 -0.0414128 0.299469
0.032243 -0.0423717 0.303006
0.0326147 -0.0432058 0.30542
0.032869 -0.0439108 0.306717
0.0329326 -0.0443976 0.306224
0.0329998 -0.0448877 0.305769
0.0330769 -0.0453871 0.305401
0.0331564 -0.0458901 0.305065
0.0332322 -0.046387 0.304694
0.0333152 -0.0468919 0.304391
0.0333939 -0.0473913 0.304052
0.0334699 -0.0478863 0.303691
0.0335533 -0.0483899 0.303398
0.0336401 -0.0488967 0.303137
0.0337273 -0.0494041 0.302885
0.0338239 -0.0499217 0.302711
0.0339316 -0.0504547 0.302647
0.0340444 -0.050994 0.302625
0.034166 -0.0515449 0.302683
0.0342924 -0.0521021 0.30278
0.0344351 -0.0526817 0.303025
0.0345834 -0.0532696 0.303315
0.0347248 -0.0538486 0.303544
0.0348612 -0.0544209 0.303724
0.0347046 -0.0554399 0.306123
0.0350074 -0.0550077 0.303991
0.0323911 -0.0410134 0.301502
0.0325591 -0.041611 0.301999
0.0329327 -0.0424382 0.304406
0.0331961 -0.0431476 0.305773
0.0333459 -0.0437328 0.306086
0.0334038 -0.0442134 0.305548
0.0334698 -0.0447018 0.305086
0.0335409 -0.0451952 0.304677
0.0336174 -0.0456937 0.304316
0.0337005 -0.0461998 0.304019
0.0337836 -0.0467051 0.303726
0.0338674 -0.04721 0.303435
0.0339509 -0.0477145 0.303149
0.034042 -0.0482274 0.30293
0.0341327 -0.0487397 0.30271
0.0342239 -0.0492522 0.302498
0.0343198 -0.0497697 0.302324
0.0344278 -0.0503023 0.30226
0.034541 -0.0508412 0.30224
0.0346628 -0.0513918 0.302298
0.0347927 -0.0519529 0.302427
0.0349348 -0.0525309 0.302663
0.0350828 -0.053117 0.302946
0.0352241 -0.0536959 0.303175
0.0353655 -0.0542742 0.303397
0.0355216 -0.0548731 0.303745
0.0353607 -0.0558839 0.30607
0.0356658 -0.055457 0.30399
0.0331877 -0.0411897 0.303895
0.0333503 -0.041784 0.304327
0.0336083 -0.0424831 0.30563
0.0337635 -0.043073 0.305988
0.0338209 -0.0435544 0.305449
0.0338774 -0.0440335 0.304907
0.0339462 -0.044526 0.304482
0.0340173 -0.0450189 0.304076
0.034097 -0.045522 0.303753
0.0341847 -0.046033 0.303502
0.0342717 -0.046543 0.303247
0.0343591 -0.0470524 0.302996
0.0344465 -0.0475619 0.302748
0.0345381 -0.0480755 0.302539
0.0346333 -0.0485932 0.302362
0.0347285 -0.0491107 0.302185
0.0348278 -0.0496328 0.302046
0.0349358 -0.0501654 0.301982
0.0350491 -0.0507045 0.301966
0.0351667 -0.0512491 0.301985
0.0352879 -0.051799 0.30204
0.0354213 -0.0523651 0.302198
0.035569 -0.0529493 0.302475
0.0357191 -0.0535375 0.302771
0.035865 -0.0541209 0.303029
0.0360249 -0.0547249 0.303409
0.0361698 -0.0553085 0.303657
0.0360161 -0.0563264 0.306006
0.0363031 -0.0558775 0.303805
0.0333556 -0.0400892 0.308685
0.0334352 -0.0390826 0.305445
0.0338989 -0.0399806 0.308634
0.0332084 -0.0403647 0.30623
0.0338652 -0.0403767 0.30725
0.0331689 -0.0407478 0.304788
0.0338519 -0.0407916 0.306067
0.0338807 -0.0412478 0.305274
0.0340349 -0.0418336 0.305615
0.0341837 -0.0424148 0.305908
0.0342418 -0.0428988 0.305383
0.0342981 -0.0433805 0.304848
0.0343542 -0.04386 0.304313
0.0344265 -0.0443564 0.303926
0.034498 -0.0448507 0.303533
0.0345824 -0.0453582 0.303253
0.034673 -0.0458732 0.303034
0.0347591 -0.0463823 0.302776
0.0348457 -0.0468915 0.302525
0.0349374 -0.0474054 0.302316
0.0350333 -0.0479239 0.302145
0.0351288 -0.0484422 0.301974
0.0352316 -0.0489689 0.301868
0.0353388 -0.0495012 0.301801
0.0354468 -0.0500336 0.30174
0.0355599 -0.0505723 0.30172
0.0356727 -0.051111 0.301701
0.0357858 -0.0516497 0.301682
0.0359116 -0.052204 0.301769
0.0360547 -0.0527822 0.302007
0.036204 -0.0533689 0.302297
0.0363547 -0.0539579 0.302593
0.0365159 -0.0545615 0.302976
0.0366611 -0.0551439 0.303221
0.0367933 -0.0557108 0.303359
0.0366705 -0.0567664 0.305926
0.0369381 -0.0562947 0.303601
0.0341118 -0.0391109 0.306649
0.0345344 -0.0399627 0.309411
0.0345292 -0.0403917 0.308302
0.0345335 -0.0408282 0.307289
0.0345681 -0.0412933 0.306554
0.0346162 -0.0417702 0.305942
0.0346731 -0.0422553 0.305413
0.0347261 -0.0427347 0.304853
0.0347863 -0.0432206 0.30436
0.034847 -0.043705 0.30387
0.0349202 -0.0442035 0.3035
0.0349956 -0.0447022 0.303145
0.0350826 -0.0452138 0.302897
0.0351738 -0.0457282 0.302681
0.0352551 -0.0462325 0.302389
0.0353411 -0.0467408 0.302134
0.0354314 -0.0472537 0.301919
0.0355269 -0.047772 0.301748
0.0356221 -0.04829 0.301578
0.0357337 -0.0488265 0.301546
0.0358462 -0.0493645 0.301523
0.0359591 -0.0499033 0.301507
0.0360722 -0.050442 0.301488
0.0361837 -0.0509785 0.301456
0.0362905 -0.0515102 0.301389
0.0364113 -0.0520582 0.301434
0.0365469 -0.0526254 0.301604
0.0366932 -0.0532072 0.301865
0.036841 -0.0537907 0.302132
0.0369989 -0.0543883 0.302483
0.037143 -0.0549697 0.302721
0.0372749 -0.0555347 0.302853
0.0374155 -0.0561114 0.303055
0.037079 -0.0568738 0.303806
0.037556 -0.0566891 0.303258
0.0349884 -0.0397646 0.308547
0.0349963 -0.0402084 0.307577
0.0350184 -0.0406635 0.306736
0.0350612 -0.0411371 0.306082
0.035104 -0.0416098 0.305434
0.0351606 -0.0420946 0.304909
0.0352161 -0.0425774 0.304381
0.0352806 -0.0430678 0.30393
0.0353486 -0.0435613 0.303514
0.0354267 -0.0440646 0.303189
0.0355048 -0.0445677 0.302867
0.0355916 -0.0450787 0.302619
0.0356808 -0.0455924 0.302394
0.0357589 -0.0460923 0.302072
0.0358438 -0.0466003 0.301815
0.0359334 -0.0471122 0.301596
0.0360234 -0.0476247 0.301384
0.0361224 -0.0481466 0.301245
0.0362431 -0.0486937 0.301294
0.0363571 -0.0492336 0.301284
0.0364721 -0.0497741 0.301281
0.0365878 -0.0503163 0.301288
0.0366903 -0.0508421 0.301182
0.036784 -0.0513569 0.301005
0.0368997 -0.0518982 0.301008
0.037031 -0.0524591 0.30114
0.037177 -0.0530399 0.301398
0.0373291 -0.0536277 0.301697
0.0374882 -0.0542257 0.302054
0.0376371 -0.0548118 0.302327
0.0377736 -0.055382 0.302494
0.0379093 -0.0559525 0.302658
0.0380465 -0.0565239 0.302829
0.0354334 -0.0395606 0.307626
0.035464 -0.040027 0.306869
0.0355036 -0.0404997 0.306192
0.0355537 -0.040982 0.305616
0.0355955 -0.0414543 0.304968
0.0356462 -0.0419342 0.304405
0.0357023 -0.0424172 0.303883
0.0357736 -0.042916 0.303503
0.0358546 -0.0434231 0.303204
0.0359362 -0.0439312 0.302914
0.0360183 -0.0444382 0.302628
0.0361071 -0.044952 0.302403
0.0361969 -0.0454662 0.302184
0.0362702 -0.0459621 0.30183
0.0363555 -0.0464702 0.301576
0.0364438 -0.0469812 0.301351
0.0365246 -0.0474836 0.301065
0.0366151 -0.0479959 0.300859
0.0367403 -0.0485478 0.300942
0.0368589 -0.0490926 0.300972
0.036975 -0.049634 0.300978
0.0370915 -0.0501761 0.300988
0.0371926 -0.0507009 0.300875
0.0372766 -0.051204 0.300622
0.0373878 -0.0517391 0.300586
0.0375136 -0.0522932 0.300676
0.0376635 -0.0528775 0.30096
0.0378203 -0.0534698 0.301294
0.0379792 -0.054067 0.301648
0.038125 -0.0546479 0.301892
0.0382624 -0.0552185 0.302066
0.0383992 -0.0557886 0.302233
0.0385356 -0.05636 0.3024
0.0384119 -0.0573998 0.304841
0.0386638 -0.0569194 0.302496
0.0350415 -0.0387503 0.30521
0.0355039 -0.0385708 0.304494
0.0359038 -0.0393836 0.306947
0.0359471 -0.0398629 0.306312
0.0359941 -0.0403435 0.30571
0.0360432 -0.0408253 0.305134
0.0360884 -0.0413016 0.304525
0.0361423 -0.0417851 0.303994
0.0362061 -0.0422769 0.30355
0.0362818 -0.0427805 0.303212
0.0363721 -0.0432981 0.302997
0.0364542 -0.0438062 0.302714
0.0365357 -0.0443134 0.302427
0.036624 -0.0448269 0.302199
0.0367127 -0.0453409 0.301977
0.0367827 -0.0458331 0.301597
0.0368679 -0.0463413 0.301347
0.0369556 -0.0468519 0.301118
0.0370314 -0.0473489 0.300794
0.0371165 -0.0478558 0.300549
0.0372368 -0.0484017 0.300591
0.0373513 -0.0489414 0.300588
0.0374661 -0.0494814 0.300585
0.0375825 -0.0500232 0.300595
0.0376843 -0.0505474 0.300486
0.0377722 -0.0510557 0.300267
0.037886 -0.0515946 0.300258
0.0380078 -0.0521428 0.300313
0.038154 -0.0527213 0.300563
0.0383104 -0.0533124 0.300891
0.0384703 -0.0539095 0.301248
0.0386177 -0.0544904 0.301499
0.0387591 -0.0550657 0.301704
0.0389005 -0.0556415 0.301907
0.0390378 -0.0562123 0.302077
0.0391662 -0.0567721 0.302177
0.0363862 -0.03922 0.306387
0.0364377 -0.039707 0.30583
0.0364876 -0.0401914 0.305264
0.0365355 -0.0406726 0.304685
0.0365792 -0.0411482 0.304073
0.0366368 -0.0416355 0.303581
0.036705 -0.0421321 0.303179
0.036782 -0.0426375 0.302857
0.036877 -0.0431597 0.302683
0.0369591 -0.0436685 0.302407
0.0370444 -0.04418 0.302156
0.0371368 -0.044698 0.301963
0.0372261 -0.0452121 0.301748
0.0372991 -0.045709 0.3014
0.0373876 -0.0462215 0.301182
0.0374714 -0.0467277 0.300921
0.0375422 -0.0472196 0.300561
0.0376258 -0.0477254 0.300308
0.0377361 -0.0482599 0.300269
0.0378404 -0.0487877 0.300183
0.0379548 -0.049326 0.300176
0.0380713 -0.0498679 0.300189
0.038173 -0.0503929 0.300083
0.0382656 -0.0509062 0.299904
0.0383846 -0.0514507 0.299936
0.0385066 -0.0519992 0.299994
0.0386501 -0.0525725 0.300216
0.0388024 -0.0531577 0.300508
0.038958 -0.0537485 0.300826
0.0391045 -0.054328 0.30107
0.0392464 -0.0549025 0.301276
0.039388 -0.0554777 0.301478
0.0395253 -0.0560481 0.301649
0.0396588 -0.0566141 0.301787
0.036896 -0.0390821 0.306066
0.0369456 -0.0395686 0.305503
0.0369934 -0.0400516 0.304927
0.0370317 -0.0405248 0.304277
0.0370753 -0.0410006 0.303672
0.0371322 -0.0414884 0.303184
0.0372042 -0.0419891 0.30282
0.0372856 -0.0424988 0.302537
0.0373851 -0.0430253 0.302402
0.0374713 -0.0435383 0.302161
0.0375611 -0.0440544 0.301949
0.0376575 -0.0445772 0.301795
0.0377423 -0.0450879 0.301547
0.0378193 -0.0455887 0.301235
0.0379073 -0.0461009 0.301014
0.0379857 -0.0466028 0.300718
0.0380476 -0.0470855 0.300291
0.0381303 -0.0475899 0.300031
0.0382303 -0.0481131 0.299912
0.0383293 -0.0486347 0.299784
0.0384381 -0.0491671 0.299736
0.0385588 -0.0497128 0.299781
0.0386616 -0.0502386 0.299685
0.0387593 -0.0507582 0.29955
0.0388803 -0.0513039 0.299595
0.0390028 -0.0518528 0.299656
0.039146 -0.0524253 0.299875
0.0392973 -0.053009 0.300157
0.0394485 -0.0535926 0.300437
0.0395948 -0.0541716 0.300678
0.0397413 -0.0547505 0.300915
0.0398836 -0.0553253 0.301121
0.0400219 -0.0558956 0.301294
0.0401596 -0.0564667 0.301464
0.0374022 -0.0389423 0.305723
0.0374548 -0.039432 0.305192
0.0374968 -0.0399107 0.304578
0.0375339 -0.0403832 0.303925
0.0375762 -0.0408591 0.30332
0.0376377 -0.0413512 0.302873
0.0377093 -0.0418523 0.302513
0.0377942 -0.0423655 0.302263
0.0378917 -0.0428906 0.302115
0.0379813 -0.0434072 0.301906
0.0380666 -0.0439193 0.301662
0.0381646 -0.0444432 0.30152
0.0382491 -0.0449537 0.301273
0.038325 -0.0454543 0.300958
0.0384084 -0.0459614 0.300701
0.0384865 -0.046463 0.300406
0.0385476 -0.0469456 0.299979
0.0386208 -0.0474402 0.299648
0.0387157 -0.0479579 0.299491
0.0388092 -0.0484738 0.299324
0.0389182 -0.0490052 0.299276
0.039035 -0.0495465 0.299292
0.0391508 -0.0500864 0.299299
0.0392583 -0.050617 0.299241
0.039384 -0.0511682 0.299325
0.0395073 -0.0517171 0.299389
0.0396497 -0.0522877 0.299598
0.0397961 -0.0528641 0.299839
0.039942 -0.0534415 0.300076
0.0400842 -0.0540143 0.300282
0.0402312 -0.0545936 0.300523
0.0403788 -0.0551738 0.300767
0.0405174 -0.0557441 0.30094
0.040655 -0.0563136 0.301107
0.0379167 -0.0388105 0.305453
0.0379641 -0.0392962 0.304887
0.0380039 -0.0397739 0.304264
0.0380395 -0.0402458 0.303608
0.0380811 -0.0407222 0.303007
0.0381516 -0.041223 0.302637
0.0382269 -0.0417285 0.302313
0.038311 -0.0422411 0.302059
0.0384034 -0.042761 0.301872
0.0384923 -0.0432776 0.301661
0.0385735 -0.043785 0.301384
0.0386713 -0.044309 0.301243
0.0387549 -0.0448189 0.300992
0.0388299 -0.0453189 0.300675
0.0389075 -0.0458212 0.300379
0.0389856 -0.0463223 0.300087
0.0390456 -0.0468047 0.299657
0.0391183 -0.0472991 0.299326
0.0392088 -0.0478117 0.299137
0.039298 -0.0483229 0.298938
0.0394067 -0.0488544 0.29889
0.0395282 -0.0494002 0.298942
0.0396492 -0.0499456 0.29899
0.0397663 -0.0504866 0.299006
0.0398968 -0.0510428 0.299125
0.0400196 -0.0515902 0.299183
0.0401513 -0.0521489 0.299312
0.0402877 -0.0527136 0.299475
0.0404254 -0.0532797 0.299646
0.0405636 -0.0538468 0.299819
0.0407116 -0.0544256 0.300063
0.0408639 -0.0550116 0.300342
0.0410036 -0.0555816 0.300522
0.041146 -0.0561561 0.30072
0.0384282 -0.0386767 0.305165
0.0384752 -0.0391629 0.304602
0.0385135 -0.0396402 0.303976
0.0385481 -0.0401119 0.30332
0.0385934 -0.0405921 0.302755
0.0386685 -0.0410983 0.30243
0.038745 -0.0416047 0.302115
0.0388284 -0.0421174 0.301862
0.0389159 -0.0426325 0.301637
0.0390035 -0.0431482 0.301418
0.0390799 -0.0436519 0.30111
0.039177 -0.0441749 0.300966
0.0392596 -0.0446838 0.300709
