ply
format ascii 1.0
element vertex 1604
property float x
property float y
property float z
end_header
0.0354228 -0.00151613 0.240887
0.0359593 -0.00178991 0.240829
0.0365096 -0.00206742 0.240844
0.0370646 -0.00234626 0.240882
0.037619 -0.00262506 0.240913
0.0381742 -0.00290419 0.240946
0.0387373 -0.00318566 0.241017
0.0393159 -0.00347144 0.241164
0.0399081 -0.00376126 0.241377
0.0405095 -0.0040538 0.24163
0.0411054 -0.00434516 0.241849
0.0416956 -0.00463515 0.242035
0.0422977 -0.00492871 0.242275
0.0428826 -0.00521762 0.242423
0.0434618 -0.00550517 0.242541
0.0440537 -0.00579644 0.242715
0.0446529 -0.00609009 0.24292
0.0452701 -0.00638921 0.243206
0.0459474 -0.00670624 0.243769
0.0466473 -0.00703041 0.244427
0.0473445 -0.00735426 0.245061
0.0480461 -0.0076799 0.245704
0.0487177 -0.00799713 0.246199
0.0493475 -0.00830219 0.246494
0.049956 -0.0086011 0.246687
0.050548 -0.0088952 0.2468
0.0511104 -0.00918049 0.246779
0.0516377 -0.009455 0.2466
0.0521482 -0.0097244 0.246348
0.0600287 -0.0129727 0.262667
0.0608401 -0.0133429 0.263559
0.0615191 -0.0136709 0.26389
0.0620225 -0.0139434 0.263494
0.062264 -0.0141313 0.262033
0.0624455 -0.0142989 0.260346
0.062634 -0.014468 0.258706
0.0628111 -0.0146328 0.257041
0.0630698 -0.014823 0.255718
0.0634037 -0.0150373 0.254708
0.0637612 -0.0152588 0.253802
0.0641237 -0.0154816 0.252924
0.064495 -0.0157068 0.25209
0.064887 -0.0159385 0.251344
0.0652729 -0.0161679 0.250582
0.0656542 -0.0163954 0.24981
0.0660123 -0.0166148 0.248958
0.0663399 -0.0168235 0.248
0.0666409 -0.0170229 0.246952
0.0669753 -0.017233 0.24604
0.0673286 -0.0174492 0.245206
0.0677013 -0.0176715 0.244452
0.0680724 -0.017893 0.243699
0.0684768 -0.0181255 0.243074
0.0688528 -0.0183481 0.242352
0.0692197 -0.0185672 0.241605
0.0695748 -0.018782 0.240823
0.0699458 -0.0190018 0.240104
0.0703073 -0.0192182 0.239358
0.0706899 -0.0194415 0.238694
0.0710719 -0.0196644 0.238033
0.0714515 -0.019886 0.237369
0.0718272 -0.0201062 0.236699
0.0721836 -0.0203193 0.235968
0.0725305 -0.0205287 0.235211
0.0728941 -0.0207437 0.234518
0.0732482 -0.0209551 0.233798
0.0736016 -0.021166 0.233083
0.0739906 -0.0213891 0.232493
0.0744101 -0.021623 0.232009
0.0748812 -0.0218751 0.231698
0.0754256 -0.0221533 0.23163
0.0760152 -0.0224479 0.231708
0.076626 -0.0227501 0.231853
0.0772662 -0.023063 0.23209
0.0778773 -0.0233657 0.232229
0.0784587 -0.0236577 0.23227
0.0790154 -0.0239408 0.232231
0.0795482 -0.0242153 0.232116
0.0800514 -0.0244791 0.231908
0.0805452 -0.0247394 0.231671
0.0810796 -0.0250144 0.231561
0.0816173 -0.0252907 0.231461
0.0821683 -0.0255719 0.231401
0.0827182 -0.0258527 0.231338
0.0832754 -0.0261363 0.231296
0.0837904 -0.0264043 0.231125
0.0843038 -0.0266717 0.230949
0.0848153 -0.0269384 0.230769
0.0853176 -0.0272017 0.230561
0.0858309 -0.027469 0.230386
0.0863558 -0.0277407 0.230247
0.0868713 -0.0280087 0.230079
0.0873856 -0.0282763 0.229909
0.0879093 -0.0285475 0.229766
0.0884228 -0.0288148 0.229593
0.0889264 -0.0290784 0.229393
0.0894295 -0.0293418 0.229191
0.0899314 -0.0296047 0.228987
0.0904218 -0.0298632 0.228751
0.0909126 -0.0301219 0.228517
0.0914026 -0.0303802 0.22828
0.0919019 -0.030642 0.228072
0.0923998 -0.0309032 0.22786
0.092911 -0.0311694 0.227685
0.0934353 -0.0314406 0.227548
0.0939505 -0.0317083 0.227386
0.0944642 -0.0319755 0.227219
0.0950307 -0.0322629 0.227197
0.0956041 -0.0325529 0.227191
0.096208 -0.0328548 0.227268
0.0968479 -0.0331705 0.227439
0.0974875 -0.0334862 0.227607
0.0980779 -0.0337831 0.227641
0.0987019 -0.0340931 0.227763
0.0993166 -0.0343996 0.227857
0.0999619 -0.034718 0.228029
0.100621 -0.0350418 0.228235
0.101293 -0.0353709 0.228473
0.101977 -0.0357048 0.228738
0.102717 -0.0360605 0.229143
0.103417 -0.0364008 0.229441
0.104691 -0.0369655 0.231204
0.113934 -0.0408575 0.248525
0.115555 -0.0415641 0.25103
0.116203 -0.0418888 0.251086
0.116834 -0.0422075 0.2511
0.11735 -0.0424804 0.250827
0.11784 -0.0427433 0.250493
0.0290685 0.00265223 0.246975
0.0295517 0.0023889 0.246564
0.0300268 0.00212768 0.246109
0.0304585 0.00187651 0.245401
0.0308882 0.0016262 0.244692
0.0312993 0.0013808 0.243883
0.0317307 0.00113112 0.243205
0.0321853 0.00087645 0.242669
0.0326603 0.000617287 0.242257
0.0331488 0.000355125 0.241927
0.0336582 8.80275e-05 0.241717
0.034155 -0.000175906 0.241438
0.03465 -0.000439346 0.241151
0.0351516 -0.000704227 0.240903
0.0356782 -0.000975342 0.240793
0.0362145 -0.00124894 0.240734
0.0367644 -0.00152606 0.240746
0.0373146 -0.00180339 0.240758
0.0378628 -0.0020803 0.240756
0.0384047 -0.00235567 0.24072
0.0389603 -0.00263468 0.240753
0.0395312 -0.00291791 0.240861
0.0401181 -0.00320561 0.241046
0.0407187 -0.0034972 0.241296
0.0413211 -0.00378958 0.241549
0.041917 -0.00408045 0.241763
0.0425209 -0.00437381 0.242011
0.043112 -0.00466392 0.242191
0.0436917 -0.00495101 0.24231
0.0442827 -0.0052415 0.24248
0.0448683 -0.0055307 0.24262
0.0454767 -0.00582654 0.242864
0.0461398 -0.00613818 0.243359
0.0468236 -0.00645622 0.243942
0.0475054 -0.0067741 0.244505
0.0481989 -0.00709594 0.245111
0.0488628 -0.00740963 0.245572
0.0494991 -0.00771562 0.245899
0.0501152 -0.00801599 0.246128
0.0507303 -0.00831634 0.246347
0.0513134 -0.00860746 0.24642
0.0518644 -0.00888902 0.246348
0.0523955 -0.00916475 0.246188
0.0526591 -0.00999385 0.2461
0.0529317 -0.00944196 0.24605
0.0534893 -0.00972567 0.246005
0.059718 -0.0122097 0.260123
0.0608209 -0.0126676 0.262236
0.0617176 -0.0130624 0.263471
0.0623975 -0.0133906 0.2638
0.0626355 -0.0135797 0.262327
0.0628033 -0.013746 0.260586
0.0629826 -0.013915 0.258913
0.0631585 -0.014082 0.257245
0.0634253 -0.0142771 0.255957
0.0637598 -0.0144932 0.25495
0.0641189 -0.0147167 0.254049
0.0644737 -0.0149384 0.253142
0.0648527 -0.0151674 0.252338
0.0652352 -0.0153972 0.251555
0.0656291 -0.0156305 0.250824
0.0660215 -0.0158628 0.250094
0.0663988 -0.0160899 0.249314
0.0667351 -0.0163031 0.248389
0.067042 -0.0165061 0.247363
0.0673641 -0.0167137 0.246404
0.0677056 -0.0169274 0.245526
0.0680503 -0.0171415 0.244669
0.0683938 -0.017355 0.243816
0.068787 -0.0175847 0.24315
0.069154 -0.0178054 0.242397
0.0695133 -0.0180231 0.241623
0.0698789 -0.0182426 0.24088
0.0702495 -0.0184634 0.24016
0.0706116 -0.018681 0.239418
0.0709831 -0.0189016 0.238715
0.071365 -0.0191254 0.238054
0.0717344 -0.0193446 0.237357
0.0721185 -0.0195686 0.236716
0.072465 -0.0197794 0.235952
0.0728203 -0.0199929 0.235225
0.0731745 -0.0202057 0.234501
0.0735283 -0.0204181 0.233782
0.0738806 -0.0206295 0.233064
0.074279 -0.0208569 0.232506
0.0747094 -0.0210952 0.232058
0.0752034 -0.0213558 0.231823
0.0757886 -0.0216483 0.231887
0.0764107 -0.021954 0.232068
0.0770639 -0.0222708 0.232347
0.0777274 -0.0225914 0.232654
0.0783588 -0.0229009 0.232854
0.0789398 -0.0231926 0.23289
0.0794966 -0.0234758 0.232848
0.0800112 -0.0237439 0.232672
0.0805044 -0.0240044 0.232429
0.080977 -0.0242574 0.232123
0.0814796 -0.0245211 0.231911
0.0819845 -0.0247856 0.231707
0.082514 -0.0250589 0.23158
0.0830434 -0.0253323 0.231452
0.0835912 -0.0256123 0.231381
0.0841067 -0.0258806 0.23121
0.084621 -0.0261484 0.231037
0.0851345 -0.026416 0.230861
0.0856373 -0.0266796 0.230654
0.0861509 -0.0269471 0.23048
0.086675 -0.0272185 0.230337
0.0871912 -0.0274869 0.230171
0.0877059 -0.0277549 0.23
0.088218 -0.0280218 0.229823
0.0887301 -0.0282888 0.229645
0.0892221 -0.0285481 0.229411
0.0897357 -0.0288156 0.229239
0.0902382 -0.0290789 0.229036
0.0907508 -0.0293459 0.228863
0.091243 -0.0296053 0.228631
0.0917441 -0.029868 0.228426
0.0922332 -0.0301261 0.228188
0.0927328 -0.0303881 0.227981
0.0932342 -0.0306508 0.227778
0.0937588 -0.0309222 0.227641
0.0942851 -0.0311942 0.227507
0.0947985 -0.0314613 0.227338
0.0953553 -0.0317449 0.227289
0.0959259 -0.0320337 0.227275
0.0965282 -0.0323345 0.227346
0.0971452 -0.032641 0.227454
0.0977723 -0.0329514 0.227588
0.0983614 -0.0332475 0.227618
0.0989845 -0.0335567 0.227736
0.0996015 -0.0338636 0.227836
0.100273 -0.0341915 0.228077
0.100961 -0.0345255 0.228355
0.101673 -0.0348694 0.228695
0.102388 -0.0352146 0.229038
0.10313 -0.0355699 0.229445
0.104104 -0.0360152 0.230444
0.105706 -0.0367026 0.233036
0.112594 -0.0395777 0.245919
0.114546 -0.0404059 0.249271
0.115811 -0.0409697 0.250879
0.116443 -0.0412882 0.250897
0.117066 -0.0416031 0.25089
0.117598 -0.0418828 0.250658
0.118134 -0.0421631 0.250434
0.119866 -0.0436128 0.253924
0.0293333 0.0031981 0.246918
0.0298157 0.00293456 0.246503
0.0302785 0.00267535 0.245976
0.0307045 0.00242446 0.245237
0.0311329 0.00217358 0.244523
0.0315485 0.001926 0.243744
0.0319802 0.00167541 0.24307
0.0324359 0.00141986 0.242544
0.0329168 0.00115886 0.242167
0.0334113 0.000894982 0.241871
0.033922 0.000627474 0.241668
0.0344255 0.000361699 0.241426
0.0349275 9.63173e-05 0.241178
0.0354292 -0.000168867 0.240931
0.0359499 -0.000438549 0.240787
0.0364851 -0.000711756 0.240721
0.0370288 -0.000987108 0.240699
0.0375719 -0.00126244 0.240673
0.0381137 -0.00153756 0.240637
0.0386486 -0.00181094 0.240564
0.0392033 -0.00208944 0.240592
0.0397675 -0.00237052 0.240666
0.0403481 -0.00265594 0.240819
0.0409478 -0.00294661 0.241064
0.0415493 -0.00323801 0.241311
0.0421387 -0.00352654 0.241493
0.042742 -0.00381894 0.241738
0.0433335 -0.00410855 0.24192
0.043912 -0.00439488 0.242035
0.0445028 -0.0046847 0.242204
0.0450885 -0.00497332 0.242345
0.0456902 -0.0052666 0.242557
0.046338 -0.00557284 0.24298
0.0470064 -0.0058852 0.24349
0.0476798 -0.00619945 0.244014
0.0483656 -0.00651762 0.244586
0.0490301 -0.00683028 0.24505
0.049666 -0.00713519 0.245376
0.0502959 -0.00743878 0.245669
0.0509189 -0.0077406 0.245925
0.0515135 -0.00803451 0.24605
0.0520754 -0.00831912 0.246028
0.0526307 -0.00860182 0.245975
0.0531767 -0.00888185 0.24588
0.0537485 -0.00916958 0.245896
0.0543317 -0.00946076 0.245959
0.0550793 -0.0104383 0.247933
0.0552263 -0.00984481 0.247341
0.0563322 -0.0102932 0.249593
0.0613387 -0.0122792 0.260683
0.0621955 -0.0126596 0.26175
0.0625997 -0.0129016 0.260966
0.0629232 -0.0131184 0.259866
0.0632514 -0.013336 0.258797
0.0634527 -0.0135135 0.257235
0.063738 -0.0137165 0.256023
0.0640896 -0.0139395 0.255085
0.0644669 -0.0141702 0.254257
0.0648235 -0.014394 0.253357
0.0652028 -0.0146244 0.252554
0.0655754 -0.0148523 0.251734
0.0659688 -0.0150865 0.251001
0.0663617 -0.0153201 0.250273
0.0667496 -0.0155519 0.249533
0.0670859 -0.0157666 0.248608
0.0673892 -0.0159701 0.24757
0.0676981 -0.016175 0.246563
0.0680185 -0.0163831 0.245608
0.0683423 -0.0165919 0.244676
0.0686849 -0.0168063 0.243821
0.0690695 -0.0170342 0.243126
0.0694378 -0.0172564 0.242379
0.0698063 -0.0174783 0.241639
0.0701827 -0.0177025 0.240935
0.070545 -0.0179217 0.240187
0.0709145 -0.0181429 0.239471
0.0712845 -0.018364 0.238764
0.0716662 -0.0185888 0.238104
0.0720367 -0.0188094 0.23741
0.0724318 -0.0190381 0.236808
0.0727776 -0.0192498 0.236042
0.0731317 -0.019464 0.235312
0.073475 -0.0196742 0.234552
0.0738267 -0.019887 0.233827
0.0741863 -0.0201021 0.233134
0.0745858 -0.0203306 0.23258
0.0750274 -0.0205734 0.232169
0.0755514 -0.0208445 0.232031
0.0761693 -0.0211481 0.232199
0.0768158 -0.0214617 0.232457
0.0775034 -0.0217898 0.232843
0.0781882 -0.0221173 0.233214
0.0788328 -0.0224309 0.233452
0.0794152 -0.022723 0.233488
0.0799647 -0.0230036 0.233419
0.0804696 -0.0232685 0.233209
0.0809424 -0.0235221 0.232899
0.0813918 -0.0237674 0.232518
0.0818708 -0.0240231 0.232232
0.0823532 -0.0242797 0.231957
0.082859 -0.0245447 0.231756
0.0833755 -0.0248136 0.231587
0.0839119 -0.0250894 0.23148
0.0844185 -0.0253546 0.231281
0.0849341 -0.0256231 0.231111
0.0854493 -0.0258913 0.23094
0.0859538 -0.0261558 0.230737
0.0864688 -0.0264238 0.230566
0.0869943 -0.0266958 0.230427
0.0875101 -0.0269642 0.230258
0.088025 -0.0272323 0.230088
0.0885383 -0.0274998 0.229913
0.0890506 -0.0277668 0.229736
0.0895419 -0.0280263 0.229498
0.0900656 -0.0282975 0.229355
0.0905672 -0.0285606 0.229148
0.0910922 -0.0288322 0.229009
0.0915826 -0.0290913 0.228772
0.0920841 -0.0293542 0.228567
0.0925619 -0.0296085 0.228296
0.0930625 -0.0298711 0.22809
0.0935533 -0.03013 0.227859
0.0940784 -0.0304016 0.227721
0.0946044 -0.0306735 0.227586
0.0951177 -0.0309407 0.227418
0.0956644 -0.0312204 0.227338
0.0962366 -0.0315096 0.227328
0.0968278 -0.0318059 0.227368
0.0974321 -0.0321072 0.227442
0.0980452 -0.0324119 0.227537
0.0986441 -0.0327114 0.227592
0.0992675 -0.0330201 0.22771
0.0999114 -0.0333367 0.22788
0.100609 -0.0336737 0.228188
0.101324 -0.0340176 0.228537
0.102063 -0.0343707 0.228943
0.102792 -0.0347198 0.229317
0.103509 -0.0350653 0.229661
0.10478 -0.0356212 0.231415
0.106715 -0.0364302 0.234843
0.113579 -0.0392718 0.247612
0.115168 -0.0399553 0.250042
0.116114 -0.0403933 0.250846
0.116745 -0.0407111 0.25086
0.117369 -0.0410262 0.250855
0.117934 -0.0413183 0.250703
0.0295842 0.00374689 0.246776
0.0300677 0.00348264 0.24637
0.0305293 0.00322308 0.245837
0.03095 0.00297227 0.24507
0.031378 0.00272055 0.244357
0.031799 0.00247079 0.243614
0.0322313 0.00221915 0.242946
0.0326872 0.00196294 0.242423
0.0331738 0.00170037 0.242079
0.0336734 0.00143508 0.241812
0.0341905 0.00116598 0.241645
0.034701 0.000898412 0.241442
0.0352103 0.0006311 0.241234
0.0357195 0.000363966 0.241025
0.0362353 9.53242e-05 0.240854
0.036764 -0.000176296 0.240752
0.0372997 -0.000449669 0.240687
0.0378357 -0.000723052 0.240621
0.0383708 -0.000996369 0.24055
0.0388993 -0.00126809 0.240444
0.0394536 -0.0015462 0.24047
0.0400116 -0.00182539 0.240511
0.0405851 -0.00210853 0.240628
0.0411781 -0.00239681 0.240839
0.0417779 -0.00268706 0.241077
0.0423674 -0.00297499 0.24126
0.0429707 -0.0032667 0.241504
0.0435623 -0.00355574 0.241687
0.0441399 -0.00384129 0.241797
0.0447304 -0.00413044 0.241965
0.045309 -0.00441668 0.242072
0.0459049 -0.00470771 0.242257
0.046538 -0.00500893 0.24261
0.0471971 -0.00531756 0.243077
0.0478608 -0.00562787 0.243557
0.04854 -0.00594292 0.244098
0.0492044 -0.00625433 0.244563
0.0498479 -0.0065604 0.244924
0.0504841 -0.00686481 0.245247
0.0511227 -0.00717027 0.245573
0.051733 -0.00746796 0.245768
0.0523126 -0.00775735 0.245824
0.052887 -0.0080453 0.245854
0.0534433 -0.00832825 0.245805
0.0540136 -0.0086152 0.245813
0.0545984 -0.00890655 0.245882
0.0554105 -0.00926397 0.24691
0.0562388 -0.00962693 0.24799
0.0616721 -0.0118396 0.258405
0.0622422 -0.0121315 0.258315
0.0627413 -0.012402 0.257939
0.0632361 -0.0126711 0.257549
0.063592 -0.0128978 0.256612
0.0640039 -0.0131412 0.255905
0.0643729 -0.0133709 0.255038
0.0647606 -0.013606 0.254252
0.0651258 -0.0138338 0.253387
0.0655145 -0.0140684 0.252622
0.0658945 -0.0142999 0.25183
0.0662959 -0.0145376 0.251128
0.0666975 -0.0147752 0.250434
0.0670866 -0.0150084 0.249699
0.0674236 -0.0152248 0.248777
0.0677266 -0.0154299 0.247739
0.0680161 -0.0156302 0.246661
0.0683154 -0.0158331 0.245631
0.0686281 -0.0160399 0.24466
0.0689679 -0.0162547 0.243796
0.0693437 -0.0164808 0.24307
0.0697202 -0.0167067 0.242354
0.0700989 -0.0169331 0.241653
0.0704839 -0.0171611 0.240979
0.0708382 -0.0173788 0.240204
0.0712152 -0.0176036 0.239516
0.0715845 -0.0178255 0.238807
0.0719755 -0.0180543 0.23818
0.0723573 -0.0182798 0.237526
0.0727637 -0.0185131 0.236962
0.0731102 -0.0187262 0.2362
0.0734633 -0.0189413 0.235466
0.0737854 -0.0191456 0.234635
0.0741259 -0.0193557 0.233873
0.0744845 -0.0195716 0.233178
0.0748933 -0.019804 0.232655
0.0753556 -0.0200543 0.232312
0.0759102 -0.0203358 0.232273
0.0765616 -0.0206504 0.232547
0.0772404 -0.0209744 0.232906
0.0779533 -0.0213103 0.233369
0.0786425 -0.0216384 0.23375
0.0792897 -0.0219525 0.233992
0.079873 -0.0222447 0.234027
0.080424 -0.0225258 0.233959
0.0809304 -0.0227916 0.233751
0.0814023 -0.0230455 0.233436
0.0818498 -0.0232906 0.233046
0.0823065 -0.0235389 0.232688
0.082755 -0.0237842 0.232307
0.0832169 -0.0240341 0.231969
0.0836992 -0.0242911 0.231695
0.0842021 -0.0245551 0.231485
0.084697 -0.0248164 0.231252
0.0852135 -0.0250852 0.231084
0.08574 -0.0253575 0.230946
0.0862564 -0.0256262 0.230778
0.086782 -0.0258983 0.230638
0.0873081 -0.0261705 0.230499
0.0878244 -0.0264392 0.230332
0.0883406 -0.0267078 0.230164
0.0888542 -0.0269754 0.22999
0.089368 -0.0272433 0.229816
0.0898484 -0.027499 0.229547
0.0903726 -0.0277704 0.229404
0.0908639 -0.02803 0.229168
0.0913893 -0.0283019 0.229029
0.0918695 -0.0285573 0.228762
0.0923807 -0.0288239 0.228585
0.0928562 -0.0290776 0.228308
0.0933665 -0.0293439 0.228128
0.0938571 -0.0296029 0.227896
0.0943825 -0.0298747 0.227758
0.0949075 -0.0301463 0.227621
0.095422 -0.030414 0.227454
0.0959691 -0.0306937 0.227376
0.0965431 -0.0309833 0.22737
0.0971338 -0.0312792 0.227407
0.0977274 -0.0315761 0.227452
0.098339 -0.0318799 0.227541
0.0989388 -0.0321794 0.227597
0.0995524 -0.0324841 0.227689
0.100221 -0.0328093 0.227923
0.100935 -0.0331515 0.22827
0.101652 -0.0334952 0.228623
0.102392 -0.0338475 0.22903
0.103118 -0.0341949 0.229396
0.104112 -0.034643 0.230446
0.105729 -0.0353252 0.233076
0.112677 -0.0381693 0.246107
0.114582 -0.0389661 0.249342
0.11581 -0.0395087 0.250856
0.116468 -0.0398363 0.250939
0.117113 -0.0401588 0.250985
0.117741 -0.040475 0.250988
0.118336 -0.0407792 0.250913
0.0293715 0.00455674 0.247167
0.0298371 0.0042951 0.246648
0.0303202 0.00403049 0.24624
0.0307764 0.00377136 0.245677
0.031191 0.00352071 0.244878
0.0316188 0.00326812 0.244167
0.0320507 0.0030152 0.24349
0.0324838 0.00276257 0.24283
0.0329454 0.00250452 0.24234
0.0334368 0.00224054 0.242025
0.0339356 0.00197522 0.241754
0.0344526 0.00170606 0.241586
0.0349696 0.00143697 0.241419
0.035486 0.00116802 0.241249
0.0360022 0.000899125 0.241078
0.0365243 0.000628982 0.240939
0.0370471 0.000358637 0.240804
0.037576 8.69455e-05 0.240701
0.0381049 -0.000184772 0.240598
0.0386333 -0.000456477 0.240492
0.0391619 -0.000728197 0.240386
0.0397169 -0.00100617 0.240414
0.0402753 -0.00128513 0.240457
0.0408484 -0.00156778 0.24057
0.041441 -0.00185535 0.240777
0.0420282 -0.00214194 0.240952
0.0426175 -0.00242922 0.241132
0.0432144 -0.00271867 0.241345
0.0437992 -0.00300541 0.241493
0.0443703 -0.00328886 0.241572
0.0449603 -0.0035773 0.241738
0.0455322 -0.00386137 0.241813
0.046121 -0.00414993 0.241965
0.0467454 -0.004448 0.242278
0.0473958 -0.00475314 0.242704
0.0480567 -0.00506162 0.243171
0.0487293 -0.00537353 0.243682
0.0494018 -0.00568595 0.244183
0.0500461 -0.00599126 0.244548
0.0506818 -0.00629462 0.244869
0.0513198 -0.00659898 0.245193
0.0519383 -0.00689827 0.245425
0.0525262 -0.00718948 0.245518
0.0531234 -0.00748336 0.245648
0.0536977 -0.00777109 0.245676
0.0542682 -0.00805786 0.245686
0.0548646 -0.00835207 0.245803
0.0554708 -0.00864922 0.245959
0.0560683 -0.00894408 0.246074
0.0610286 -0.010996 0.254595
0.0616966 -0.0113153 0.254922
0.0623043 -0.0116171 0.255003
0.0629705 -0.0119363 0.255313
0.0635034 -0.0122162 0.255091
0.0640629 -0.0125042 0.254975
0.0645498 -0.0127702 0.254575
0.0650308 -0.0130344 0.254155
0.0654047 -0.0132661 0.253326
0.0657937 -0.0135019 0.252563
0.0661736 -0.0137345 0.251773
0.0665831 -0.0139758 0.251103
0.066993 -0.0142169 0.250441
0.0673835 -0.0144516 0.249713
0.0677304 -0.0146725 0.24883
0.068043 -0.0148823 0.247828
0.0683328 -0.0150844 0.246754
0.0686228 -0.0152861 0.245691
0.0689333 -0.0154936 0.244713
0.0692712 -0.0157092 0.243844
0.0696374 -0.0159333 0.243085
0.0700139 -0.0161604 0.24237
0.0704003 -0.0163902 0.241697
0.0707769 -0.0166166 0.240995
0.0711295 -0.0168349 0.240215
0.0715057 -0.0170605 0.239525
0.0718748 -0.0172834 0.238816
0.0722763 -0.0175165 0.238226
0.0726792 -0.0177498 0.237645
0.0730962 -0.0179874 0.237117
0.0734531 -0.0182051 0.23639
0.0738046 -0.0184208 0.235652
0.074116 -0.0186229 0.234785
0.0744451 -0.0188305 0.233985
0.0747945 -0.0190444 0.23326
0.0752137 -0.0192811 0.232772
0.0756971 -0.0195388 0.232497
0.0762643 -0.0198244 0.232497
0.0769378 -0.0201456 0.232841
0.0776402 -0.0204767 0.233272
0.0783657 -0.0208159 0.233772
0.0790574 -0.0211441 0.234157
0.0797141 -0.0214608 0.234425
0.0802992 -0.0217534 0.234463
0.0808502 -0.0220346 0.234392
0.0813581 -0.0223012 0.234186
0.0818299 -0.0225554 0.233868
0.0822886 -0.022805 0.233511
0.0827357 -0.0230506 0.233121
0.0831743 -0.0232931 0.232708
0.0836124 -0.0235352 0.232295
0.0840689 -0.0237836 0.231942
0.0845376 -0.0240361 0.231627
0.0850095 -0.0242896 0.231323
0.0855043 -0.024551 0.23109
0.0860196 -0.0248195 0.230919
0.0865352 -0.0250881 0.230748
0.0870515 -0.0253568 0.23058
0.087578 -0.0256291 0.230443
0.0881046 -0.0259015 0.230305
0.0886311 -0.0261739 0.230167
0.0891463 -0.0264422 0.229997
0.0896715 -0.0267141 0.229855
0.090164 -0.0269744 0.229621
0.0906876 -0.0272456 0.229476
0.0911696 -0.0275021 0.229213
0.0916835 -0.0277699 0.22904
0.0921529 -0.0280218 0.228744
0.0926517 -0.0282841 0.228531
0.0931161 -0.028534 0.228223
0.0936255 -0.0288001 0.228041
0.094115 -0.0290589 0.227806
0.0946404 -0.0293307 0.227668
0.0951765 -0.0296063 0.227561
0.0957135 -0.0298822 0.227455
0.0962739 -0.0301666 0.227413
0.096861 -0.0304608 0.227441
0.0974512 -0.0307562 0.227476
0.0980327 -0.0310485 0.227486
0.0986219 -0.0313436 0.227515
0.0992217 -0.0316427 0.227571
0.0998264 -0.0319438 0.227639
0.100521 -0.032278 0.22794
0.101248 -0.0326241 0.228322
0.101978 -0.0329714 0.228704
0.102717 -0.0333226 0.229107
0.103742 -0.0337793 0.230239
0.105076 -0.0343512 0.232154
0.107075 -0.0351698 0.235742
0.111816 -0.0370886 0.2447
0.113808 -0.0379103 0.248168
0.115365 -0.0385713 0.250514
0.116274 -0.038992 0.251224
0.116932 -0.0393193 0.251304
0.11758 -0.0396429 0.251356
0.118211 -0.0399603 0.251366
0.0301117 0.00483933 0.246649
0.0305924 0.00457472 0.246228
0.0310409 0.0043162 0.245621
0.0314604 0.00406356 0.244853
0.0318993 0.00380789 0.244208
0.0323375 0.00355279 0.243569
0.0327763 0.00329811 0.242942
0.0332324 0.00304046 0.242421
0.0337173 0.00277741 0.242069
0.0342042 0.00251417 0.241731
0.0347149 0.00224623 0.241528
0.0352319 0.00197711 0.24136
0.0357545 0.00170679 0.241223
0.0362771 0.00143647 0.241086
0.0367997 0.00116615 0.24095
0.0373222 0.000895835 0.240813
0.0378507 0.000624205 0.240707
0.0383797 0.000352451 0.240603
0.038909 8.05904e-05 0.240501
0.0394508 -0.000194106 0.240461
0.0400129 -0.000473492 0.240524
0.0405722 -0.000752424 0.240568
0.0411397 -0.00103341 0.240651
0.0417318 -0.00132041 0.240853
0.0423129 -0.00160505 0.240996
0.0428965 -0.00189048 0.241146
0.0434873 -0.00217795 0.241327
0.044072 -0.00246416 0.241473
0.0446291 -0.00274383 0.241484
0.045205 -0.0030283 0.241581
0.0457757 -0.00331167 0.241651
0.046357 -0.0035978 0.241767
0.0469675 -0.00389152 0.242015
0.0476156 -0.00419513 0.24243
0.0482769 -0.00450251 0.242897
0.0489426 -0.00481146 0.243376
0.0496093 -0.00512121 0.24385
0.0502593 -0.00542706 0.244241
0.0508882 -0.00572775 0.244531
0.051518 -0.00602901 0.244819
0.0521363 -0.0063275 0.245051
0.0527234 -0.00661798 0.245142
0.0533219 -0.00691166 0.245279
0.0539038 -0.00720104 0.245341
0.0544818 -0.00748947 0.245383
0.0550786 -0.00778331 0.245503
0.0556919 -0.00808174 0.245689
0.0562897 -0.00837619 0.245805
0.05703 -0.00934322 0.247701
0.057075 -0.00872303 0.246696
0.0580064 -0.00974783 0.249365
0.0578533 -0.00906868 0.247544
0.0589798 -0.0101528 0.250993
0.0586329 -0.00941536 0.248385
0.0610822 -0.0104911 0.251275
0.061786 -0.0108188 0.251761
0.0625622 -0.0111679 0.252526
0.0632083 -0.0114799 0.252767
0.0639064 -0.0118073 0.253207
0.0645036 -0.0121056 0.253247
0.0650728 -0.0123958 0.253176
0.0655286 -0.0126525 0.252669
0.0659861 -0.0129095 0.252173
0.0663847 -0.0131488 0.251458
0.0668045 -0.013394 0.25083
0.0672328 -0.0136415 0.25024
0.0676411 -0.0138826 0.24958
0.0680067 -0.0141105 0.248768
0.0683302 -0.0143251 0.24781
0.0686479 -0.0145375 0.24684
0.0689484 -0.0147441 0.245817
0.0692585 -0.014953 0.244839
0.0695871 -0.0151671 0.243937
0.0699419 -0.0153889 0.243138
0.0702992 -0.015611 0.242355
0.0706753 -0.0158386 0.241647
0.0710417 -0.0160629 0.24091
0.0714025 -0.0162849 0.240161
0.0717791 -0.0165116 0.239474
0.0721574 -0.0167384 0.238798
0.0725691 -0.0169756 0.238243
0.0729918 -0.017216 0.237731
0.0734207 -0.0174582 0.237244
0.0737973 -0.0176834 0.236584
0.074148 -0.0179 0.235843
0.0744578 -0.018103 0.234971
0.0747851 -0.0183113 0.234166
0.0751341 -0.0185262 0.23344
0.0755554 -0.0187642 0.232957
0.07606 -0.0190293 0.232751
0.0766407 -0.0193192 0.232793
0.0773259 -0.0196434 0.233171
0.0780399 -0.0199775 0.233636
0.0787653 -0.0203155 0.234131
0.0794583 -0.0206434 0.234516
0.0801244 -0.0209625 0.234811
0.0807091 -0.0212548 0.234845
0.0812607 -0.0215362 0.234773
0.08179 -0.0218102 0.234631
0.0822658 -0.0220662 0.234323
0.0827283 -0.0223177 0.233976
0.0831773 -0.0225645 0.23359
0.0836068 -0.0228045 0.233146
0.084013 -0.0230366 0.232635
0.0844457 -0.0232774 0.232208
0.0848887 -0.0235216 0.231815
0.0853372 -0.0237675 0.23144
0.0858197 -0.0240249 0.231169
0.0863338 -0.0242931 0.230993
0.0868485 -0.0245614 0.23082
0.0873641 -0.0248301 0.230649
0.0878908 -0.0251025 0.230511
0.0884177 -0.0253751 0.230373
0.0889338 -0.0256438 0.230205
0.089439 -0.0259088 0.230005
0.089953 -0.0261768 0.229831
0.0904457 -0.0264373 0.229597
0.0909593 -0.0267051 0.229423
0.0914507 -0.0269651 0.229187
0.0919745 -0.0272365 0.229042
0.0924533 -0.027492 0.228772
0.0929535 -0.027755 0.228562
0.0934293 -0.0280093 0.228286
0.0939395 -0.0282757 0.228106
0.0944303 -0.0285352 0.227873
0.0949557 -0.028807 0.227736
0.0954931 -0.0290831 0.227631
0.0960317 -0.0293596 0.227528
0.0965834 -0.0296407 0.227462
0.0971594 -0.0299307 0.227459
0.0977384 -0.0302217 0.227463
0.0983052 -0.0305084 0.227434
0.0988932 -0.0308029 0.22746
0.0994942 -0.0311021 0.227518
0.100101 -0.0314034 0.227589
0.100807 -0.0317408 0.227919
0.101545 -0.03209 0.228327
0.102278 -0.0324376 0.228718
0.10303 -0.0327926 0.229152
0.104079 -0.0332558 0.230343
0.105767 -0.0339528 0.233156
0.112988 -0.0368427 0.246871
0.114966 -0.0376531 0.250287
0.116202 -0.0381919 0.251815
0.116833 -0.0385089 0.251826
0.117509 -0.0388424 0.251946
0.118173 -0.0391718 0.252035
0.030396 0.00538227 0.246709
0.0308778 0.0051169 0.246293
0.0313291 0.00485709 0.245704
0.0317488 0.00460327 0.244938
0.032188 0.00434659 0.244296
0.0326265 0.00409056 0.243659
0.0330656 0.00383488 0.243035
0.0335163 0.00357752 0.242483
0.0339941 0.00331539 0.242091
0.0344738 0.00305316 0.241713
0.0349776 0.00278645 0.241472
0.0354885 0.0025184 0.241271
0.0360111 0.00224809 0.241134
0.0365337 0.00197777 0.240997
0.0370621 0.00170625 0.240891
0.037591 0.00143463 0.240788
0.0381266 0.0011615 0.240718
0.0386629 0.000888223 0.240651
0.0392054 0.000613526 0.240615
0.0397554 0.000337114 0.240616
0.0403196 5.74703e-05 0.240686
0.0408803 -0.00022156 0.240735
0.0414532 -0.000503544 0.240843
0.0420397 -0.000788756 0.241013
0.0426153 -0.00107174 0.241125
0.0431921 -0.00135528 0.24124
0.0437755 -0.00164049 0.241382
0.0443459 -0.00192296 0.241458
0.0449018 -0.00220216 0.241462
0.0454638 -0.00248292 0.241493
0.0460335 -0.00276563 0.241557
0.0466063 -0.00304933 0.241633
0.0472101 -0.0033407 0.241848
0.0478381 -0.00363834 0.242169
0.0484993 -0.00394459 0.242635
0.0491577 -0.00425062 0.24308
0.0498243 -0.00455922 0.243553
0.0504672 -0.00486222 0.243913
0.0511017 -0.00516354 0.244227
0.0517226 -0.00546167 0.244476
0.0523319 -0.0057571 0.244669
0.0529107 -0.00604488 0.244725
0.0535083 -0.00633775 0.24486
0.0540911 -0.00662689 0.244927
0.0546776 -0.00691714 0.245007
0.0552822 -0.00721241 0.245161
0.0559033 -0.00751237 0.24538
0.0565092 -0.00780845 0.245531
0.057122 -0.00810663 0.245706
0.0577121 -0.00839883 0.245784
0.0582944 -0.00868909 0.245828
0.0595143 -0.00979154 0.249627
0.059 -0.00901347 0.246369
0.0604865 -0.00968465 0.247725
0.0612638 -0.0100307 0.248524
0.0621302 -0.0104024 0.249662
0.0628706 -0.0107394 0.250289
0.0636685 -0.0110934 0.251131
0.0643508 -0.0114149 0.251513
0.0650028 -0.0117282 0.251772
0.0655283 -0.0120052 0.251541
0.0660532 -0.012282 0.251309
0.0665089 -0.0125386 0.250816
0.0669662 -0.0127955 0.250333
0.0674246 -0.0130524 0.249859
0.0678604 -0.0133024 0.249305
0.068245 -0.0135371 0.248567
0.0685874 -0.0137588 0.24768
0.0689258 -0.0139788 0.246788
0.0692461 -0.0141929 0.24584
0.0695765 -0.0144094 0.244937
0.0699225 -0.0146303 0.244099
0.0702776 -0.0148534 0.243301
0.070632 -0.0150759 0.242509
0.0709966 -0.0153011 0.24176
0.0713424 -0.0155201 0.240951
0.0716847 -0.0157376 0.240139
0.0720517 -0.0159623 0.239419
0.0724308 -0.0161904 0.238748
0.0728514 -0.0164312 0.238225
0.0732943 -0.0166785 0.237782
0.0737346 -0.0169249 0.237333
0.0741312 -0.0171574 0.236741
0.074493 -0.0173787 0.236037
0.0748111 -0.0175857 0.235194
0.0751389 -0.0177954 0.234391
0.0754967 -0.0180143 0.233693
0.0759177 -0.018253 0.233209
0.0764237 -0.0185187 0.233006
0.0770162 -0.0188122 0.233083
0.0777034 -0.0191362 0.233464
0.0784171 -0.0194692 0.233925
0.079142 -0.0198061 0.234414
0.0798345 -0.0201329 0.234795
0.0804921 -0.0204486 0.23506
0.0810776 -0.0207409 0.235094
0.0816307 -0.0210228 0.235025
0.0821714 -0.0213006 0.234916
0.0826601 -0.0215613 0.234647
0.0831455 -0.0218209 0.234369
0.0836086 -0.022073 0.234024
0.084049 -0.0223173 0.233612
0.0844538 -0.0225498 0.233095
0.084886 -0.0227911 0.232664
0.0853183 -0.0230323 0.232236
0.085756 -0.0232752 0.231827
0.0862267 -0.023529 0.23152
0.0867282 -0.0237931 0.231305
0.0872316 -0.0240578 0.231096
0.0877372 -0.0243232 0.230894
0.0882749 -0.0245995 0.230786
0.0888028 -0.0248724 0.230651
0.0893088 -0.0251379 0.230451
0.0898118 -0.0254024 0.230243
0.0903132 -0.0256662 0.230031
0.0907939 -0.0259229 0.229762
0.0912975 -0.0261874 0.229558
0.0917895 -0.0264478 0.229323
0.092301 -0.026715 0.229144
0.0927904 -0.0269745 0.228902
0.0932913 -0.0272379 0.228693
0.0937821 -0.0274978 0.228458
0.094295 -0.0277653 0.228285
0.0947974 -0.0280291 0.228082
0.095323 -0.028301 0.227944
0.0958728 -0.0285814 0.22787
0.096414 -0.0288588 0.227775
0.0969795 -0.0291449 0.227742
0.0975327 -0.0294266 0.227677
0.0980845 -0.0297079 0.227607
0.0986242 -0.0299848 0.227504
0.0991993 -0.0302744 0.227495
0.0998011 -0.0305735 0.227555
0.10055 -0.0309251 0.227997
0.101386 -0.0313083 0.228662
0.102139 -0.0316617 0.229103
0.102874 -0.0320094 0.229494
0.103593 -0.0323517 0.229839
0.104833 -0.0328812 0.231514
0.106794 -0.0336713 0.235008
0.114152 -0.0365855 0.249013
0.115798 -0.0372692 0.25158
0.116736 -0.0376974 0.252357
0.117385 -0.0380204 0.252408
0.0301892 0.00619337 0.247131
0.0306694 0.00592742 0.246702
0.0311548 0.00566093 0.246308
0.0316205 0.00539799 0.245804
0.0320507 0.00514129 0.2451
0.032496 0.00488264 0.244494
0.032935 0.00462551 0.243859
0.0333746 0.00436885 0.243237
0.0338237 0.00411093 0.242676
0.034295 0.00384941 0.242246
0.0347672 0.00358801 0.241826
0.0352647 0.00332221 0.241549
0.0357751 0.00305408 0.241344
0.0362922 0.00278473 0.241176
0.0368146 0.00251438 0.241037
0.0373434 0.00224276 0.240932
0.0378734 0.00197091 0.240833
0.0384109 0.00169752 0.240772
0.0389605 0.00142154 0.240773
0.0395118 0.00114511 0.240779
0.0400702 0.000867062 0.24082
0.0406423 0.000585968 0.240927
0.0412098 0.000305606 0.241007
0.0417835 2.37689e-05 0.241114
0.0423638 -0.000259732 0.24125
0.0429323 -0.000540935 0.241325
0.0435024 -0.000822668 0.241403
0.0440717 -0.00110437 0.241475
0.0446269 -0.00138306 0.241476
0.0451816 -0.00166181 0.241474
0.0457365 -0.00194066 0.241469
0.0462999 -0.00222161 0.241502
0.0468655 -0.00250327 0.241544
0.0474616 -0.00279224 0.241723
0.0480746 -0.00308553 0.241974
0.0487284 -0.00338889 0.242405
0.0493795 -0.0036921 0.242816
0.0500455 -0.00399935 0.243285
0.0506878 -0.00430135 0.243641
0.0513141 -0.00459975 0.24392
0.0519267 -0.00489507 0.244132
0.0525335 -0.00518921 0.244315
0.0531034 -0.00547431 0.244334
0.0536934 -0.00576457 0.244437
0.0542822 -0.0060548 0.244531
0.0548694 -0.00634475 0.244616
0.055475 -0.00663968 0.244775
0.0561052 -0.00694122 0.245032
0.0567191 -0.00723882 0.245217
0.0573326 -0.00753652 0.245396
0.0579309 -0.00783047 0.245508
0.0585131 -0.00812027 0.245552
0.0590941 -0.00840991 0.245588
0.0597007 -0.00933693 0.246881
0.0596575 -0.00869492 0.245552
0.0603135 -0.00900516 0.245884
0.0609873 -0.00932061 0.24628
0.061759 -0.00966332 0.247054
0.0625399 -0.0100093 0.247854
0.0633855 -0.0103738 0.248893
0.0641399 -0.0107138 0.249565
0.0648595 -0.0110446 0.250093
0.065467 -0.0113443 0.250185
0.0660637 -0.0116411 0.250234
0.066587 -0.0119173 0.250003
0.0670855 -0.0121862 0.24968
0.0675827 -0.0124546 0.249355
0.0680384 -0.012711 0.248878
0.0684527 -0.0129552 0.248253
0.0688327 -0.0131891 0.247508
0.0692017 -0.0134193 0.24673
0.0695523 -0.0136437 0.245893
0.0699125 -0.0138705 0.245098
0.0702609 -0.0140934 0.244269
0.0706061 -0.0143148 0.243437
0.0709487 -0.014535 0.242603
0.0712921 -0.014755 0.24178
0.0716168 -0.0149689 0.2409
0.071957 -0.015187 0.240082
0.0723137 -0.0154097 0.239328
0.0726924 -0.0156387 0.238657
0.0731218 -0.0158827 0.238165
0.0735843 -0.0161367 0.237789
0.0740369 -0.0163874 0.237382
0.0744551 -0.0166275 0.236863
0.0748366 -0.0168558 0.236226
0.0751664 -0.0170679 0.235422
0.0754943 -0.0172789 0.234619
0.0758522 -0.017499 0.233921
0.0762727 -0.0177383 0.233435
0.0767777 -0.0180039 0.233227
0.0773692 -0.0182967 0.233299
0.0780484 -0.0186174 0.233651
0.0787618 -0.0189493 0.234108
0.0794874 -0.0192854 0.234596
0.0801705 -0.0196082 0.234944
0.0808201 -0.0199207 0.235182
0.0814075 -0.0202135 0.23522
0.0819714 -0.0204987 0.235184
0.0825137 -0.0207771 0.235079
0.0830239 -0.021045 0.234875
0.0835317 -0.0213122 0.234664
0.0840157 -0.0215716 0.234381
0.0844677 -0.0218204 0.234003
0.0848847 -0.0220577 0.233521
0.0853178 -0.0223 0.233091
0.0857521 -0.0225425 0.232668
0.0861913 -0.0227866 0.232262
0.086663 -0.0230411 0.231955
0.0871654 -0.0233059 0.23174
0.087669 -0.0235709 0.231529
0.0881748 -0.0238366 0.231325
0.0887035 -0.02411 0.23119
0.0892216 -0.0243798 0.231022
0.0897156 -0.0246415 0.230786
0.0902053 -0.0249017 0.230539
0.0906928 -0.0251611 0.230286
0.0911616 -0.0254141 0.229981
0.0916532 -0.0256747 0.229743
0.0921343 -0.0259317 0.229475
0.0926459 -0.026199 0.229295
0.093149 -0.0264635 0.229091
0.093686 -0.0267394 0.228982
0.0942482 -0.027024 0.228942
0.0948002 -0.0273052 0.228872
0.0953505 -0.0275859 0.228797
0.0959336 -0.0278778 0.228812
0.0965326 -0.0281754 0.228868
0.0971032 -0.0284633 0.228845
0.097729 -0.0287703 0.228969
0.0983763 -0.0290849 0.22915
0.099004 -0.0293929 0.229274
0.0996098 -0.0296933 0.229339
0.100239 -0.0300021 0.229462
0.100893 -0.0303198 0.229649
0.101621 -0.0306636 0.230027
0.102413 -0.0310302 0.230566
0.103139 -0.0313737 0.230927
0.103839 -0.0317083 0.231217
0.104518 -0.0320359 0.23145
0.105674 -0.0325326 0.232898
0.0314919 0.00639182 0.249955
0.0316649 0.00617023 0.247694
0.0319237 0.00593769 0.245971
0.0323716 0.00567719 0.24537
0.0328226 0.00541665 0.244795
0.0332671 0.00515762 0.24419
0.0337068 0.00489985 0.243567
0.0341555 0.00464112 0.243002
0.034615 0.00438092 0.242505
0.0350805 0.00412009 0.242046
0.0355663 0.00385593 0.241703
0.0360708 0.00358863 0.241465
0.0365819 0.00332021 0.241264
0.0371044 0.00304981 0.241123
0.0376334 0.00277811 0.241018
0.0381643 0.00250603 0.240922
0.0387031 0.00223242 0.240866
0.0392601 0.00195516 0.240902
0.0398185 0.00167751 0.240943
0.0403844 0.00139809 0.241019
0.0409586 0.00111686 0.241133
0.0415321 0.000835517 0.24124
0.042106 0.000553875 0.241345
0.0426803 0.000271875 0.241448
0.0432434 -7.90217e-06 0.241493
0.0438052 -0.000287578 0.241529
0.0443596 -0.000565815 0.241527
0.0449001 -0.000841139 0.241457
0.0454546 -0.0011196 0.241452
0.0460039 -0.00139703 0.24142
0.0465689 -0.00167811 0.24146
0.0471407 -0.00196083 0.241529
0.0477358 -0.00224909 0.241702
0.0483337 -0.00253822 0.241883
0.0489782 -0.00283847 0.242269
0.049627 -0.00314018 0.242668
0.050279 -0.0034431 0.243074
0.0509156 -0.00374277 0.243403
0.0515344 -0.00403859 0.243648
0.0521376 -0.00433101 0.24382
0.0527288 -0.0046207 0.243936
0.0532899 -0.00490322 0.243918
0.0538704 -0.00519062 0.243981
0.0544587 -0.00548014 0.244076
0.0550451 -0.00576935 0.244158
0.0556518 -0.00606392 0.244324
0.0562903 -0.00636676 0.244617
0.056913 -0.00666586 0.244839
0.0575276 -0.00696319 0.245023
0.0581264 -0.00725674 0.245139
0.0587157 -0.00754799 0.245213
0.0592965 -0.00783713 0.245249
0.05986 -0.00812188 0.245214
0.0604322 -0.008409 0.245213
0.0610226 -0.00870108 0.245281
0.0617026 -0.00901736 0.245699
0.0623921 -0.0093365 0.246146
0.0631583 -0.00967691 0.246884
0.0639386 -0.0100218 0.247665
0.0646955 -0.0103609 0.248345
0.0653628 -0.0106761 0.248675
0.066022 -0.0109894 0.248968
0.0666059 -0.011282 0.248972
0.067154 -0.0115647 0.248841
0.0676894 -0.011844 0.248662
0.0681755 -0.0121093 0.248302
0.0686276 -0.0123649 0.24782
0.0690489 -0.0126114 0.247229
0.069458 -0.0128542 0.2466
0.0698487 -0.0130913 0.24591
0.0702479 -0.0133305 0.245256
0.0706169 -0.0135606 0.244502
0.070973 -0.0137866 0.243708
0.0713148 -0.0140079 0.242871
0.0716459 -0.0142256 0.242005
0.0719394 -0.0144318 0.241016
0.0722666 -0.0146474 0.240154
0.0726028 -0.0148652 0.239331
0.0729703 -0.0150917 0.238622
0.0733914 -0.015334 0.238102
0.0738635 -0.0155913 0.237759
0.0743179 -0.015843 0.237359
0.0747571 -0.0160901 0.236911
0.0751688 -0.0163286 0.236375
0.0755297 -0.0165514 0.235674
0.0758703 -0.0167677 0.234913
0.0762383 -0.0169919 0.234248
0.0766556 -0.0172309 0.23375
0.077149 -0.0174932 0.233502
0.0777214 -0.0177799 0.23351
0.0783908 -0.0180968 0.233828
0.079086 -0.0184219 0.234224
0.0798016 -0.0187538 0.234678
0.0804759 -0.0190732 0.234996
0.0811274 -0.0193856 0.235238
0.0817154 -0.0196782 0.235277
0.08229 -0.0199667 0.235272
0.0828322 -0.0202451 0.235167
0.0833529 -0.0205165 0.234994
0.0838725 -0.0207876 0.234818
0.08437 -0.0210517 0.234576
0.0848437 -0.021308 0.234263
0.0852929 -0.0215563 0.233877
0.085751 -0.0218074 0.23352
0.0862111 -0.022059 0.233172
0.0866741 -0.0223114 0.232835
0.0871481 -0.0225673 0.232531
0.0876402 -0.0228289 0.232283
0.0881336 -0.023091 0.232039
0.0886294 -0.0233537 0.231804
0.0891481 -0.0236239 0.231636
0.089666 -0.0238938 0.231466
0.0901604 -0.024156 0.231228
0.0906487 -0.0244161 0.230974
0.0911353 -0.0246755 0.230718
0.0916035 -0.0249288 0.230409
0.0920944 -0.0251896 0.230166
0.0925858 -0.0254504 0.229926
0.0930997 -0.0257188 0.229749
0.0936374 -0.0259951 0.229639
0.094227 -0.0262889 0.229672
0.0948557 -0.026596 0.229811
0.0954514 -0.0268921 0.229856
0.0960642 -0.0271941 0.229947
0.0966758 -0.0274959 0.230032
0.0972937 -0.0277998 0.230133
0.0978943 -0.028098 0.230185
0.0985418 -0.0284124 0.23036
0.0992345 -0.0287424 0.230654
0.0999225 -0.0290711 0.23093
0.100591 -0.0293931 0.231151
0.101259 -0.0297153 0.231368
0.101971 -0.0300529 0.231696
0.102717 -0.0304026 0.232111
0.103495 -0.0307634 0.232601
0.104211 -0.0311032 0.232927
0.104891 -0.0314307 0.233155
0.105529 -0.0317439 0.233275
0.106692 -0.0322404 0.234728
0.107932 -0.0334216 0.237133
0.108645 -0.0330151 0.238173
0.0324169 0.00645085 0.247239
0.0326927 0.00621419 0.245638
0.03315 0.00595183 0.245097
0.0335959 0.00569158 0.244499
0.0340352 0.00543288 0.243872
0.034484 0.00517322 0.243307
0.0349372 0.00491327 0.242772
0.0353976 0.00465249 0.242284
0.0358771 0.00438893 0.241905
0.0363756 0.00412236 0.241633
0.0368801 0.00385486 0.241395
0.0373967 0.00358531 0.241222
0.0379255 0.00331366 0.241113
0.0384569 0.00304147 0.241018
0.0389946 0.00276808 0.240955
0.0395517 0.00249101 0.24099
0.0401165 0.00221234 0.24106
0.0406837 0.00193297 0.241141
0.0412639 0.00165085 0.241282
0.0418448 0.00136838 0.241422
0.0424202 0.0010867 0.241532
0.0429889 0.000806179 0.241605
0.0435509 0.000526782 0.241642
0.0440989 0.000250104 0.241609
0.0446458 -2.64111e-05 0.241569
0.0451859 -0.000301615 0.241496
0.0457415 -0.000580125 0.241494
0.0462925 -0.000857821 0.24147
0.0468586 -0.00113887 0.241513
0.0474314 -0.00142156 0.241585
0.0480189 -0.00170764 0.241721
0.0486015 -0.00199291 0.24183
0.0492293 -0.00228849 0.24214
0.04987 -0.00258743 0.242501
0.0505073 -0.00288603 0.24284
0.0511369 -0.00318323 0.243138
0.0517555 -0.0034783 0.243382
0.0523585 -0.00377001 0.243553
0.0529482 -0.00405882 0.243662
0.0535018 -0.00433929 0.243613
0.0540738 -0.00462424 0.243641
0.0546527 -0.00491097 0.243697
0.05523 -0.00519746 0.243742
0.0558284 -0.00548934 0.243874
0.0564741 -0.005793 0.244198
0.0571058 -0.00609365 0.244458
0.0577293 -0.00639252 0.244679
0.0583362 -0.0066875 0.244828
0.0589264 -0.0069785 0.244906
0.0595068 -0.00726721 0.244943
0.0600712 -0.00755192 0.244912
0.0606434 -0.00783873 0.244912
0.0612342 -0.00813048 0.244983
0.0618363 -0.00842535 0.245095
0.062442 -0.00872133 0.245218
0.0631245 -0.00903781 0.245635
0.0638328 -0.00936146 0.246144
0.0645402 -0.00968546 0.246641
0.0652593 -0.010013 0.247175
0.0659737 -0.0103399 0.247683
0.0666163 -0.0106477 0.247915
0.0672112 -0.0109429 0.247964
0.0677842 -0.0112322 0.247929
0.068308 -0.011508 0.247712
0.0688006 -0.0117751 0.247382
0.069254 -0.0120313 0.246912
0.0696954 -0.0122839 0.246402
0.0701264 -0.0125332 0.245859
0.0705556 -0.0127818 0.245314
0.0709467 -0.0130193 0.244638
0.0713221 -0.013252 0.243914
0.0716728 -0.0134772 0.243109
0.0719939 -0.0136935 0.242207
0.0722751 -0.0138978 0.241177
0.072581 -0.0141086 0.240242
0.0729049 -0.014324 0.239377
0.0732707 -0.0145512 0.238663
0.0736819 -0.0147913 0.23811
0.074154 -0.0150489 0.237767
0.0746173 -0.0153038 0.237397
0.0750761 -0.0155573 0.237015
0.0755011 -0.0158006 0.236523
0.0758852 -0.0160313 0.235899
0.0762456 -0.0162548 0.235203
0.0766236 -0.0164831 0.23457
0.0770226 -0.0167174 0.234011
0.0775038 -0.0169763 0.233722
0.0780644 -0.0172592 0.233691
0.0787142 -0.0175693 0.233943
0.0793898 -0.0178877 0.234274
0.0801049 -0.0182183 0.234724
0.0807788 -0.0185368 0.235039
0.0814307 -0.0188487 0.23528
0.0820195 -0.0191413 0.235321
0.0826041 -0.0194326 0.235346
0.0831457 -0.0197108 0.235237
0.0836675 -0.0199827 0.235068
0.0841883 -0.0202544 0.234895
0.0846979 -0.0205225 0.234689
0.085185 -0.0207834 0.234415
0.0856595 -0.0210402 0.234105
0.0861415 -0.0212994 0.233819
0.0866363 -0.0215625 0.233573
0.0871345 -0.0218266 0.233337
0.0876323 -0.0220906 0.233102
0.0881372 -0.0223568 0.232888
0.0886407 -0.0226225 0.232671
0.0891357 -0.0228853 0.23243
0.0896434 -0.0231523 0.232226
0.0901612 -0.0234225 0.232053
0.0906548 -0.0236847 0.23181
0.0911461 -0.0239462 0.231563
0.0916374 -0.0242076 0.231316
0.0921076 -0.0244621 0.231009
0.0925996 -0.0247236 0.230767
0.093101 -0.0249882 0.230551
0.0936385 -0.0252645 0.230437
0.0942165 -0.0255544 0.230434
0.0948597 -0.0258658 0.230611
0.0955453 -0.0261917 0.230901
0.0961867 -0.026503 0.231065
0.0968348 -0.0268168 0.231246
0.0974622 -0.0271238 0.231367
0.0980868 -0.0274299 0.231479
0.0987081 -0.0277352 0.231579
0.0993752 -0.028056 0.231799
0.100119 -0.0284029 0.23222
0.100873 -0.0287534 0.232662
0.101616 -0.029101 0.233073
0.102348 -0.0294447 0.233446
0.103105 -0.0297974 0.233882
0.103864 -0.0301508 0.234317
0.104611 -0.0305008 0.234717
0.105294 -0.0308289 0.234947
0.105947 -0.031147 0.235098
0.106601 -0.0314657 0.235247
0.107483 -0.0318632 0.235974
0.10907 -0.0325043 0.238476
0.0329135 0.00696794 0.248516
0.0329968 0.00675473 0.245805
0.0334606 0.00649061 0.245301
0.0339129 0.00622858 0.244739
0.0343522 0.0059689 0.244111
0.0348076 0.00570736 0.24358
0.0352609 0.00544654 0.243046
0.0357215 0.00518495 0.242557
0.0361999 0.00492099 0.24217
0.0366921 0.004655 0.241861
0.0371901 0.00438825 0.241586
0.0377003 0.00411959 0.241378
0.0382232 0.00384885 0.241236
0.0387477 0.00357782 0.241103
0.0392787 0.00330568 0.241004
0.0398348 0.00302897 0.241032
0.0403992 0.00275064 0.241099
0.0409609 0.00247259 0.241149
0.0415417 0.00219077 0.241292
0.0421297 0.00190741 0.241466
0.0427055 0.00162601 0.241575
0.0432693 0.0013467 0.241622
0.0438373 0.00106634 0.241687
0.0443848 0.000789916 0.241651
0.0449322 0.000513383 0.241612
0.0454739 0.000237891 0.241545
0.0460368 -4.19639e-05 0.241576
0.0465888 -0.000319717 0.241554
0.047155 -0.000600563 0.241596
0.0477285 -0.000883117 0.241669
0.0483096 -0.00116747 0.241773
0.0488861 -0.00145103 0.241853
0.0494989 -0.00174268 0.242093
0.0501231 -0.00203718 0.242379
0.0507515 -0.00233299 0.242677
0.0513738 -0.00262779 0.242942
0.0519851 -0.00292049 0.243154
0.0525951 -0.00321322 0.243355
0.0531851 -0.00350161 0.243465
0.0537312 -0.00378015 0.243385
0.0543028 -0.00406463 0.243412
0.0548806 -0.00435071 0.243462
0.0554409 -0.00463283 0.243437
0.0560362 -0.0049234 0.243556
0.0566813 -0.00522607 0.243878
0.0573056 -0.00552411 0.244108
0.0579227 -0.00582067 0.244304
0.0585287 -0.00611487 0.24445
0.0591169 -0.00640487 0.244521
0.0596976 -0.00669318 0.24456
0.0602724 -0.0069802 0.244572
0.0608541 -0.00726907 0.24461
0.0614531 -0.00756242 0.244714
0.0620456 -0.00785433 0.244789
0.0626408 -0.00814709 0.244872
0.0632689 -0.00844849 0.245079
0.0639185 -0.00875568 0.245364
0.0645819 -0.00906687 0.245697
0.0652696 -0.00938473 0.246115
0.065967 -0.00970556 0.246563
0.066638 -0.0100199 0.246905
0.0672695 -0.010324 0.247095
0.0678707 -0.0106204 0.247169
0.0684322 -0.0109062 0.247095
0.0689653 -0.0111844 0.246917
0.0694598 -0.0114522 0.246598
0.0699321 -0.0117137 0.246202
0.0703925 -0.0119718 0.245766
0.0708422 -0.0122267 0.245295
0.0712542 -0.0124711 0.244695
0.0716518 -0.012711 0.244049
0.0720144 -0.0129408 0.243286
0.0723436 -0.0131608 0.242415
0.0726325 -0.0133689 0.241411
0.0729287 -0.0135785 0.240443
0.0732508 -0.0137948 0.239572
0.0736257 -0.0140258 0.23889
0.0740261 -0.0142635 0.2383
0.0744784 -0.014516 0.237889
0.074939 -0.0147707 0.23751
0.0753974 -0.0150245 0.237125
0.075834 -0.0152718 0.236671
0.0762409 -0.0155102 0.236123
0.0766335 -0.0157442 0.235532
0.077022 -0.0159766 0.234933
0.0774193 -0.0162113 0.234367
0.0778911 -0.0164679 0.234046
0.0784413 -0.0167476 0.233978
0.0790609 -0.0170482 0.234131
0.0797137 -0.0173589 0.234387
0.0804161 -0.0176848 0.234795
0.0810694 -0.0179962 0.235042
0.0817025 -0.0183018 0.235224
0.0822912 -0.018594 0.235263
0.082875 -0.0188849 0.235286
0.0834068 -0.01916 0.235146
0.0839386 -0.019435 0.235007
0.0844704 -0.0197101 0.234868
0.0849921 -0.019982 0.234698
0.0855018 -0.0202503 0.234493
0.0860202 -0.0205211 0.234314
0.0865389 -0.0207921 0.234136
0.0870704 -0.021067 0.233997
0.0876041 -0.0213426 0.233865
0.0881252 -0.0216143 0.233695
0.088632 -0.0218814 0.233484
0.0891353 -0.0221474 0.233263
0.08963 -0.0224106 0.233018
0.0901262 -0.0226742 0.232779
0.0906341 -0.0229415 0.232573
0.0911293 -0.0232047 0.232332
0.0916237 -0.0234675 0.23209
0.09213 -0.0237342 0.231883
0.0926154 -0.023994 0.231617
0.0931425 -0.0242672 0.23147
0.09367 -0.0245406 0.231324
0.0942354 -0.0248263 0.231283
0.0948419 -0.0251254 0.231355
0.0955248 -0.0254496 0.231635
0.0962313 -0.0257818 0.231976
0.096891 -0.0260989 0.232184
0.0975534 -0.0264172 0.232397
0.0981965 -0.0267292 0.232554
0.0988329 -0.0270392 0.232691
0.0994787 -0.0273525 0.23285
0.100173 -0.0276821 0.233138
0.100962 -0.0280433 0.233669
0.10176 -0.0284082 0.234221
0.102547 -0.0287696 0.234736
0.103315 -0.0291248 0.235195
0.104106 -0.0294884 0.23571
0.104886 -0.0298486 0.236191
0.105624 -0.0301949 0.236558
0.106293 -0.0305183 0.236742
0.106951 -0.0308381 0.236897
0.107619 -0.0311614 0.237073
0.10852 -0.0315639 0.237836
0.109736 -0.0320748 0.239391
0.111201 -0.0326714 0.241554
0.0344593 0.00807757 0.27829
0.0338643 0.00837706 0.278315
0.0341496 0.00897167 0.278237
0.0347421 0.00867268 0.278196
0.0350459 0.00777896 0.278213
0.0353273 0.00837431 0.27811
0.0336726 0.00724822 0.248091
0.0339504 0.00700674 0.246516
0.034228 0.00676687 0.244964
0.0346733 0.0065054 0.244369
0.0351347 0.00624216 0.24387
0.0355946 0.0059795 0.24337
0.0360562 0.00571707 0.242885
0.0365352 0.00545232 0.242499
0.0370258 0.00518607 0.242179
0.0375174 0.00491985 0.241867
0.0380214 0.00465186 0.241623
0.0385384 0.00438193 0.241448
0.0390562 0.00411185 0.241279
0.0395807 0.00384069 0.241144
0.0401301 0.00356529 0.241135
0.0406824 0.00328929 0.241139
0.0412433 0.0030116 0.241184
0.0418253 0.00273003 0.24133
0.0424143 0.00244691 0.241507
0.0429855 0.0021667 0.241592
0.0435485 0.00188777 0.241633
0.0441163 0.00160775 0.241696
0.0446647 0.00133129 0.241662
0.0452143 0.00105445 0.241633
0.0457645 0.000777397 0.241605
0.0463354 0.000496169 0.241672
0.0468936 0.00021728 0.241677
0.0474595 -6.33144e-05 0.241715
0.0480402 -0.000347027 0.241819
0.0486225 -0.000631305 0.241926
0.0491999 -0.000914876 0.242008
0.0497992 -0.00120317 0.242184
0.0504073 -0.00149359 0.242395
0.0510192 -0.00178517 0.242618
0.051632 -0.00207725 0.24284
0.0522298 -0.00236639 0.242992
0.0528331 -0.00265704 0.243164
0.0534304 -0.00294661 0.243305
