ply
format ascii 1.0
element vertex 1572
property float x
property float y
property float z
end_header
0.0204731 -0.0503717 0.215336
0.0209268 -0.0502787 0.215335
0.021376 -0.0501799 0.215279
0.0218375 -0.0500974 0.215377
0.0222919 -0.0500057 0.215388
0.0227531 -0.0499223 0.215477
0.0232202 -0.049846 0.215633
0.0236967 -0.0497806 0.215893
0.0241651 -0.0497041 0.21605
0.0246499 -0.0496461 0.216383
0.0251287 -0.0495799 0.21664
0.0256044 -0.0495095 0.216859
0.0260782 -0.0494359 0.217048
0.0265575 -0.0493677 0.217291
0.0270443 -0.0493065 0.217601
0.0275411 -0.0492537 0.217997
0.0280447 -0.0492068 0.218451
0.0285606 -0.0491699 0.219007
0.0290996 -0.0491531 0.219764
0.0296529 -0.0491468 0.22063
0.0302414 -0.0491703 0.221794
0.0308604 -0.0492166 0.223193
0.0314698 -0.0492499 0.224472
0.0320768 -0.0492763 0.225691
0.0326791 -0.0492947 0.226837
0.033276 -0.0493047 0.227906
0.033866 -0.0493055 0.22889
0.0344556 -0.0493029 0.229846
0.0350324 -0.0492868 0.23067
0.0356086 -0.049268 0.231472
0.0361527 -0.0492215 0.231997
0.0366764 -0.049158 0.232351
0.0373321 -0.0491922 0.233714
0.0381312 -0.0493283 0.236138
-0.0303405 -0.0611476 0.222366
-0.0298465 -0.0610243 0.222183
-0.0293545 -0.060903 0.222014
-0.0288486 -0.0607609 0.221698
-0.0283403 -0.0606141 0.221346
-0.0278418 -0.06048 0.221083
-0.0273495 -0.0603538 0.220874
-0.0268608 -0.0602321 0.220696
-0.0263782 -0.0601189 0.220578
-0.0259013 -0.060014 0.220517
-0.0254276 -0.0599136 0.220489
-0.0249612 -0.0598249 0.220544
-0.0245042 -0.0597518 0.220712
-0.0240477 -0.0596802 0.220891
-0.023591 -0.0596091 0.221074
-0.0231329 -0.0595362 0.221245
-0.0226694 -0.0594547 0.221354
-0.0221995 -0.0593619 0.221382
-0.0217314 -0.0592726 0.221435
-0.0212676 -0.0591913 0.221547
-0.0208078 -0.0591183 0.22172
-0.0203482 -0.0590466 0.221903
-0.0198896 -0.0589777 0.222107
-0.0194318 -0.0589117 0.222335
-0.01897 -0.0588384 0.222508
-0.0184994 -0.0587473 0.222551
-0.0180311 -0.0586612 0.222631
-0.0175588 -0.0585666 0.222648
-0.0170806 -0.0584581 0.22256
-0.0166057 -0.0583568 0.222527
-0.016137 -0.0582702 0.222603
-0.0156616 -0.0581669 0.222554
-0.0151904 -0.058074 0.222583
-0.0147215 -0.0579875 0.22266
-0.0142489 -0.0578909 0.22266
-0.013774 -0.0577876 0.22261
-0.0133002 -0.0576868 0.222578
-0.0128239 -0.0575779 0.222485
-0.0123468 -0.0574652 0.222361
-0.0118704 -0.0573532 0.222242
-0.0113956 -0.0572451 0.222152
-0.0109233 -0.0571445 0.222119
-0.0104513 -0.0570444 0.222091
-0.00998401 -0.0569624 0.222203
-0.00951765 -0.0568853 0.222352
-0.00905115 -0.0568091 0.222511
-0.00858397 -0.0567318 0.222661
-0.00811251 -0.0566355 0.222662
-0.00763813 -0.0565235 0.222539
-0.00716341 -0.0564068 0.222379
-0.00668941 -0.056291 0.222225
-0.00621624 -0.0561767 0.222081
-0.00574606 -0.0560797 0.222075
-0.00527694 -0.0559902 0.222127
-0.00480828 -0.0559052 0.222217
-0.0043394 -0.0558202 0.222307
-0.00386998 -0.0557316 0.222368
-0.00340015 -0.0556385 0.222393
-0.00292946 -0.0555317 0.222308
-0.00245893 -0.0554208 0.222187
-0.00198886 -0.0553096 0.222064
-0.00151926 -0.0551953 0.221915
-0.00105018 -0.0550751 0.221716
-0.000581842 -0.0549541 0.22151
-0.000114396 -0.0548289 0.221267
0.000352015 -0.054698 0.220976
0.000816738 -0.0545547 0.22058
0.00128021 -0.0544138 0.220203
0.00174271 -0.0542785 0.219869
0.00220389 -0.0541417 0.219521
0.00266427 -0.0540097 0.219211
0.00312535 -0.0538938 0.219034
0.00358587 -0.0537784 0.21886
0.00404481 -0.0536573 0.218637
0.00450388 -0.0535422 0.218463
0.00496227 -0.053427 0.218288
0.00542076 -0.0533161 0.218147
0.00587816 -0.0532027 0.217985
0.00633617 -0.0530951 0.217871
0.0067943 -0.0529901 0.217778
0.00725129 -0.0528822 0.217661
0.00770797 -0.0527749 0.217547
0.00816501 -0.0526708 0.21746
0.00861986 -0.0525606 0.217319
0.00907312 -0.0524472 0.21715
0.00952652 -0.0523363 0.217002
0.00998064 -0.0522294 0.216886
0.0104357 -0.0521265 0.216806
0.0108917 -0.052027 0.216755
0.0113471 -0.051927 0.216699
0.0118032 -0.0518291 0.216662
0.0122578 -0.0517284 0.216599
0.0127123 -0.0516283 0.216541
0.0131655 -0.0515259 0.216461
0.0136208 -0.0514287 0.216428
0.0140746 -0.051329 0.216372
0.0145269 -0.0512269 0.216293
0.0149759 -0.051119 0.216162
0.0154281 -0.0510183 0.216095
0.0158753 -0.0509091 0.21595
0.0163221 -0.0508003 0.215807
0.0167733 -0.0507002 0.215743
0.0172246 -0.0506007 0.215685
0.0176759 -0.0505017 0.21563
0.0181246 -0.0503992 0.215542
0.0185785 -0.0503053 0.215534
0.0190308 -0.0502092 0.215505
0.0194896 -0.0501228 0.215566
0.0199429 -0.0500285 0.215554
0.0204007 -0.0499406 0.215601
0.0208481 -0.0498385 0.215514
0.0212964 -0.0497383 0.215445
0.0217557 -0.0496528 0.215514
0.0222084 -0.0495584 0.2155
0.0226678 -0.0494724 0.215566
0.0231342 -0.0493951 0.215714
0.0236066 -0.0493243 0.215926
0.0240722 -0.0492445 0.216053
0.0245601 -0.0491893 0.21642
0.0250409 -0.0491253 0.216701
0.0255198 -0.0490579 0.216953
0.025999 -0.0489896 0.217196
0.0264815 -0.0489243 0.217471
0.0269742 -0.0488681 0.217837
0.0274744 -0.0488182 0.218267
0.0279847 -0.0487763 0.218781
0.0285074 -0.0487448 0.219399
0.0290668 -0.0487457 0.220346
0.029631 -0.0487475 0.221308
0.0302339 -0.0487808 0.222593
0.0308637 -0.0488337 0.224084
0.0314787 -0.0488684 0.225402
0.0320754 -0.0488831 0.226524
0.0326751 -0.0488963 0.227639
0.0332633 -0.0488965 0.228629
0.0338396 -0.0488835 0.22949
0.0344186 -0.04887 0.230351
0.0349876 -0.0488459 0.231108
0.0355505 -0.0488148 0.231798
0.036091 -0.0487646 0.232294
0.0366149 -0.0487004 0.232646
0.0374111 -0.0488362 0.235097
-0.0304693 -0.0607197 0.222709
-0.0299715 -0.0605923 0.222496
-0.0294764 -0.0604677 0.222302
-0.0289743 -0.0603323 0.22203
-0.028463 -0.0601825 0.221653
-0.0279612 -0.0600448 0.221361
-0.0274658 -0.0599153 0.221127
-0.026974 -0.0597899 0.22092
-0.026488 -0.0596722 0.220768
-0.0260057 -0.0595596 0.220651
-0.025529 -0.0594549 0.220592
-0.0250623 -0.0593659 0.220644
-0.024601 -0.0592857 0.220763
-0.0241425 -0.0592106 0.220918
-0.0236854 -0.0591385 0.221096
-0.0232271 -0.059065 0.221265
-0.0227616 -0.0589798 0.221347
-0.0222937 -0.0588904 0.2214
-0.0218237 -0.0587976 0.221428
-0.0213577 -0.058712 0.221509
-0.0208977 -0.0586382 0.221677
-0.0204381 -0.0585658 0.221857
-0.0199819 -0.0585011 0.222095
-0.0195283 -0.058443 0.222384
-0.0190721 -0.0583811 0.222645
-0.0186069 -0.0583016 0.222776
-0.0181437 -0.0582272 0.222945
-0.017675 -0.0581415 0.223029
-0.0171995 -0.0580408 0.223
-0.0167257 -0.0579436 0.222997
-0.0162561 -0.0578563 0.223071
-0.01578 -0.0577533 0.223024
-0.015308 -0.0576601 0.223052
-0.0148383 -0.0575731 0.223127
-0.0143648 -0.057476 0.223125
-0.0138875 -0.0573682 0.22304
-0.0134103 -0.0572595 0.222947
-0.0129307 -0.0571427 0.222792
-0.0124508 -0.0570231 0.222613
-0.0119718 -0.0569042 0.222438
-0.0114955 -0.0567923 0.222318
-0.0110217 -0.0566877 0.222254
-0.0105493 -0.056587 0.22222
-0.0100818 -0.0565045 0.222329
-0.00961534 -0.0564272 0.22248
-0.00914875 -0.056351 0.22264
-0.00868215 -0.0562767 0.222816
-0.00821047 -0.0561804 0.222817
-0.0077358 -0.0560685 0.222694
-0.00726081 -0.0559524 0.222536
-0.00678659 -0.055837 0.222383
-0.0063132 -0.0557233 0.222242
-0.00584276 -0.0556265 0.222237
-0.00537299 -0.0555334 0.222262
-0.00490361 -0.0554439 0.222316
-0.0044339 -0.0553522 0.222352
-0.00396383 -0.0552565 0.222356
-0.00349347 -0.0551564 0.222324
-0.00302283 -0.0550492 0.222232
-0.0025524 -0.0549384 0.222111
-0.0020826 -0.0548312 0.222018
-0.00161322 -0.0547247 0.221931
-0.0011441 -0.0546087 0.221764
-0.000675648 -0.0544918 0.221588
-0.000207945 -0.0543704 0.221374
0.000258889 -0.0542463 0.221136
0.000724133 -0.0541066 0.220765
0.00118817 -0.0539696 0.220415
0.00165114 -0.0538347 0.22008
0.00211273 -0.0536984 0.219731
0.00257328 -0.0535642 0.219398
0.00303444 -0.0534461 0.2192
0.00349562 -0.053334 0.219052
0.00395537 -0.053216 0.218853
0.00441586 -0.0531074 0.218732
0.00487541 -0.0529965 0.218591
0.00533559 -0.052892 0.218505
0.00579428 -0.0527821 0.218371
0.00625295 -0.0526745 0.218256
0.00671094 -0.0525662 0.218135
0.00716844 -0.0524581 0.218014
0.00762489 -0.0523478 0.217872
0.00808156 -0.0522405 0.217757
0.00853602 -0.0521275 0.217589
0.00898872 -0.0520109 0.21739
0.00944236 -0.0518996 0.217235
0.00989679 -0.0517925 0.217118
0.0103513 -0.0516871 0.217014
0.0108086 -0.0515905 0.216989
0.0112646 -0.0514908 0.216935
0.01172 -0.0513905 0.216875
0.012174 -0.0512876 0.216792
0.0126289 -0.0511877 0.216735
0.0130811 -0.0510823 0.216627
0.0135349 -0.0509817 0.216563
0.0139887 -0.0508814 0.216499
0.014441 -0.050779 0.216418
0.0148916 -0.0506742 0.216312
0.015346 -0.0505772 0.216279
0.0157969 -0.0504743 0.21619
0.0162463 -0.0503694 0.216081
0.0166996 -0.0502722 0.216044
0.0171516 -0.0501731 0.215988
0.0176034 -0.0500742 0.215934
0.0180548 -0.0499752 0.215879
0.018511 -0.0498839 0.215896
0.018966 -0.0497908 0.215895
0.0194253 -0.0497043 0.215956
0.0198788 -0.0496092 0.215937
0.020335 -0.0495181 0.215955
0.0207802 -0.0494124 0.215833
0.0212269 -0.0493094 0.215737
0.0216865 -0.0492234 0.215804
0.0221398 -0.0491292 0.215791
0.0225972 -0.0490407 0.215832
0.023062 -0.0489601 0.215953
0.0235319 -0.0488858 0.216135
0.0239953 -0.0488027 0.216232
0.0244829 -0.0487468 0.216596
0.0249666 -0.0486852 0.216908
0.0254488 -0.0486206 0.21719
0.0259333 -0.0485573 0.217488
0.0264217 -0.048497 0.217818
0.0269179 -0.0484433 0.218216
0.0274247 -0.0483987 0.218707
0.0279439 -0.0483642 0.219304
0.028482 -0.0483455 0.220064
0.0290562 -0.0483572 0.221139
0.0296325 -0.0483675 0.222206
0.0302439 -0.0484053 0.223561
0.0308756 -0.048456 0.225058
0.0314796 -0.048478 0.22627
0.0320671 -0.0484815 0.227299
0.0326636 -0.0484893 0.22838
0.0332384 -0.0484759 0.229247
0.0338045 -0.0484528 0.230019
0.0343764 -0.0484316 0.230816
0.0349384 -0.0484005 0.231514
0.0354919 -0.0483605 0.232122
0.0360323 -0.0483092 0.232615
0.0366884 -0.0483418 0.234004
-0.0300786 -0.060135 0.222635
-0.0295847 -0.0600127 0.222454
-0.0290855 -0.0598823 0.222214
-0.0285815 -0.0597439 0.221916
-0.0280841 -0.0596137 0.221675
-0.027588 -0.0594842 0.221438
-0.0270927 -0.0593548 0.221201
-0.0266035 -0.0592334 0.221019
-0.0261155 -0.0591129 0.220844
-0.0256358 -0.0590043 0.220755
-0.0251686 -0.0589148 0.220805
-0.0247024 -0.0588269 0.220868
-0.0242412 -0.0587472 0.220992
-0.0237816 -0.0586707 0.221139
-0.0233211 -0.0585933 0.22128
-0.0228537 -0.0585046 0.221338
-0.0223879 -0.058419 0.221419
-0.0219179 -0.0583262 0.221446
-0.0214498 -0.0582368 0.221499
-0.0209898 -0.0581623 0.221665
-0.0205301 -0.0580894 0.221843
-0.0200761 -0.0580285 0.222112
-0.0196248 -0.0579742 0.222433
-0.0191744 -0.0579236 0.222783
-0.0187144 -0.0578549 0.222997
-0.0182548 -0.0577884 0.223229
-0.0177908 -0.0577139 0.223401
-0.01732 -0.057625 0.223463
-0.0168488 -0.0575354 0.223519
-0.0163787 -0.0574486 0.223598
-0.0159044 -0.057352 0.223601
-0.0154314 -0.0572586 0.223628
-0.0149596 -0.0571681 0.223679
-0.0144827 -0.0570644 0.223626
-0.0140019 -0.0569492 0.223483
-0.013521 -0.056832 0.223324
-0.013038 -0.0567073 0.223104
-0.0125551 -0.0565807 0.222869
-0.0120745 -0.0564584 0.222666
-0.0115978 -0.0563467 0.222545
-0.0111215 -0.0562348 0.222423
-0.0106478 -0.0561304 0.222359
-0.0101791 -0.0560439 0.222437
-0.0097124 -0.055966 0.222585
-0.00924566 -0.0558893 0.222743
-0.0087797 -0.055818 0.222945
-0.00830784 -0.0557217 0.222947
-0.00783357 -0.0556133 0.22285
-0.00735893 -0.0555006 0.222717
-0.00688443 -0.0553859 0.222568
-0.00641075 -0.0552728 0.222431
-0.00593962 -0.0551731 0.222402
-0.0054691 -0.0550764 0.222398
-0.00499872 -0.0549803 0.222398
-0.00452844 -0.0548843 0.222399
-0.00405762 -0.0547815 0.222344
-0.00358697 -0.0546775 0.222278
-0.00311633 -0.0545695 0.222178
-0.00264599 -0.0544593 0.222059
-0.00217632 -0.0543531 0.221973
-0.00170717 -0.0542537 0.221944
-0.00123811 -0.0541448 0.221834
-0.000769509 -0.0540348 0.221714
-0.000301463 -0.0539177 0.221533
0.000165767 -0.0537975 0.221324
0.000631429 -0.0536589 0.220958
0.00109606 -0.0535253 0.220631
0.00155927 -0.0533881 0.220272
0.00202159 -0.0532557 0.219952
0.00248288 -0.0531251 0.219645
0.00294449 -0.0530071 0.219445
0.00340573 -0.0528922 0.219271
0.00386632 -0.0527776 0.219099
0.00432723 -0.0526694 0.21898
0.00478781 -0.0525619 0.218868
0.00524852 -0.0524579 0.218785
0.00570823 -0.0523506 0.218673
0.00616731 -0.0522428 0.218555
0.00662582 -0.0521347 0.218433
0.00708327 -0.0520244 0.218291
0.00754097 -0.0519173 0.218177
0.00799822 -0.0518103 0.218063
0.00845316 -0.0516972 0.217893
0.00890533 -0.0515776 0.217663
0.00935853 -0.0514636 0.217483
0.00981219 -0.0513533 0.217335
0.0102659 -0.0512448 0.217202
0.0107236 -0.0511483 0.217177
0.0111798 -0.0510485 0.217121
0.0116355 -0.0509484 0.217063
0.0120898 -0.0508456 0.216979
0.0125451 -0.0507458 0.216922
0.0129963 -0.0506378 0.216789
0.0134504 -0.0505372 0.216724
0.013904 -0.0504363 0.216654
0.0143564 -0.0503337 0.216569
0.0148073 -0.050229 0.216463
0.0152622 -0.0501325 0.216433
0.0157139 -0.0500307 0.216353
0.0161668 -0.0499317 0.216299
0.0166211 -0.0498356 0.216272
0.0170755 -0.0497398 0.216247
0.0175295 -0.0496439 0.216221
0.0179833 -0.0495478 0.216193
0.0184403 -0.0494569 0.216214
0.0188978 -0.0493667 0.216242
0.0193573 -0.0492794 0.216298
0.0198111 -0.049184 0.216275
0.0202675 -0.0490924 0.21629
0.0207115 -0.0489845 0.216145
0.0211613 -0.0488849 0.21608
0.0216217 -0.0487991 0.216151
0.022076 -0.0487056 0.216146
0.0225337 -0.0486162 0.21618
0.0229965 -0.0485328 0.216275
0.0234639 -0.0484544 0.21642
0.023925 -0.0483685 0.21649
0.0244149 -0.0483139 0.216875
0.0249019 -0.0482547 0.217216
0.0253896 -0.0481951 0.217555
0.0258776 -0.0481346 0.217886
0.0263743 -0.0480812 0.218293
0.0268766 -0.0480323 0.218747
0.02739 -0.0479923 0.219295
0.0279269 -0.0479729 0.220059
0.0284845 -0.0479698 0.220995
0.029074 -0.0479928 0.222207
0.0296575 -0.0480062 0.223328
0.030272 -0.0480428 0.224698
0.030889 -0.0480769 0.226052
0.0314735 -0.0480788 0.227077
0.0320438 -0.0480656 0.22795
0.0326271 -0.0480602 0.228911
0.0331888 -0.0480341 0.22966
0.0337456 -0.0480017 0.230349
0.0343102 -0.0479734 0.231084
0.034866 -0.0479361 0.231729
0.0354153 -0.047892 0.232305
0.0360739 -0.047927 0.233738
0.0368821 -0.0480668 0.236313
-0.0301902 -0.0596831 0.222815
-0.0296968 -0.0595622 0.222643
-0.0292024 -0.0594392 0.222455
-0.0287025 -0.0593077 0.222203
-0.0282074 -0.0591819 0.221991
-0.0277107 -0.0590528 0.221755
-0.027212 -0.0589196 0.221486
-0.0267194 -0.0587943 0.221275
-0.0262285 -0.0586703 0.221072
-0.0257459 -0.058558 0.220954
-0.0252757 -0.0584642 0.220974
-0.0248064 -0.0583717 0.221003
-0.0243422 -0.0582873 0.221093
-0.0238796 -0.0582059 0.221205
-0.0234169 -0.0581248 0.22132
-0.0229476 -0.0580329 0.221354
-0.0224821 -0.0579475 0.221437
-0.0220121 -0.0578547 0.221465
-0.0215421 -0.0577618 0.221492
-0.0210801 -0.0576835 0.22163
-0.0206204 -0.05761 0.221805
-0.0201685 -0.0575523 0.222102
-0.0197178 -0.0574984 0.222429
-0.0192714 -0.0574548 0.222837
-0.0188166 -0.0573966 0.223134
-0.0183607 -0.0573377 0.223428
-0.0179001 -0.0572706 0.22366
-0.0174341 -0.0571928 0.223809
-0.0169657 -0.0571106 0.223925
-0.0164968 -0.057028 0.224038
-0.0160233 -0.0569348 0.224068
-0.0155496 -0.0568412 0.224096
-0.0150772 -0.0567509 0.224149
-0.0145994 -0.056647 0.224095
-0.0141165 -0.0565284 0.223924
-0.0136333 -0.0564074 0.223733
-0.0131481 -0.0562786 0.223479
-0.0126619 -0.0561444 0.22318
-0.0121784 -0.0560153 0.22292
-0.0117002 -0.0559002 0.222771
-0.0112225 -0.0557852 0.222622
-0.0107475 -0.0556776 0.222531
-0.0102784 -0.0555903 0.222605
-0.00981154 -0.0555123 0.222753
-0.00934449 -0.055435 0.222909
-0.00887841 -0.0553635 0.223113
-0.00840628 -0.0552673 0.223114
-0.00793179 -0.0551592 0.223019
-0.00745682 -0.0550467 0.222886
-0.00698261 -0.0549354 0.222763
-0.00650916 -0.0548259 0.222654
-0.00603719 -0.0547234 0.222601
-0.00556586 -0.0546231 0.222567
-0.00509472 -0.0545228 0.222533
-0.00462341 -0.0544196 0.222473
-0.00415176 -0.0543101 0.22236
-0.00368104 -0.0542056 0.222289
-0.00321013 -0.054095 0.222166
-0.0027398 -0.0539849 0.222046
-0.00227015 -0.0538791 0.221961
-0.00180106 -0.0537801 0.221935
-0.00133204 -0.0536749 0.221854
-0.000863395 -0.0535718 0.221791
-0.000395186 -0.0534587 0.221642
7.23786e-05 -0.0533425 0.221464
0.000538668 -0.053211 0.221154
0.0010039 -0.0530817 0.22086
0.00146782 -0.0529488 0.220533
0.00193062 -0.0528165 0.220209
0.00239263 -0.0526885 0.219922
0.00285438 -0.0525675 0.219693
0.00331566 -0.0524496 0.219491
0.00377667 -0.0523354 0.219319
0.00423849 -0.0522306 0.219229
0.00469954 -0.0521237 0.21912
0.00516122 -0.0520225 0.219061
0.00562127 -0.0519149 0.218945
0.00608076 -0.0518069 0.218824
0.0065398 -0.0516993 0.218705
0.00699788 -0.0515897 0.218568
0.00745621 -0.0514833 0.218459
0.00791389 -0.0513763 0.218343
0.0083693 -0.0512633 0.218172
0.00882113 -0.0511413 0.217918
0.0092737 -0.0510244 0.217708
0.00972682 -0.0509115 0.217534
0.0101807 -0.0508027 0.217397
0.0106375 -0.0507031 0.217343
0.0110938 -0.0506031 0.217284
0.0115498 -0.050503 0.217224
0.0120052 -0.0504022 0.217159
0.0124608 -0.0503026 0.217102
0.0129123 -0.0501948 0.21697
0.0133669 -0.0500947 0.216907
0.0138209 -0.049994 0.216839
0.0142722 -0.0498888 0.216729
0.0147248 -0.0497869 0.216647
0.0151813 -0.0496929 0.21664
0.0156364 -0.0495965 0.216612
0.0160931 -0.0495033 0.216613
0.0165499 -0.0494105 0.216617
0.017008 -0.0493199 0.216643
0.0174645 -0.0492267 0.216644
0.0179191 -0.0491309 0.216618
0.0183769 -0.04904 0.216641
0.018835 -0.0489497 0.216669
0.0192933 -0.0488595 0.216699
0.0197459 -0.0487615 0.216651
0.020203 -0.0486699 0.216667
0.0206484 -0.0485632 0.216532
0.0211016 -0.0484669 0.216501
0.0215614 -0.0483793 0.216555
0.0220198 -0.0482902 0.216594
0.0224781 -0.0482006 0.216628
0.0229438 -0.0481195 0.216748
0.0234098 -0.0480383 0.216869
0.0238759 -0.0479567 0.216985
0.024366 -0.0479013 0.217369
0.0248571 -0.0478448 0.217744
0.0253488 -0.0477879 0.218118
0.0258455 -0.0477346 0.218531
0.026351 -0.0476885 0.219022
0.026863 -0.0476471 0.219563
0.0273838 -0.047612 0.220174
0.0279316 -0.0476 0.221032
0.0285008 -0.0476048 0.222069
0.0290916 -0.0476253 0.22328
0.0296754 -0.0476355 0.22439
0.0302801 -0.0476601 0.22566
0.0308776 -0.0476741 0.226826
0.0314482 -0.0476617 0.22772
0.0319993 -0.0476302 0.228415
0.0325696 -0.0476123 0.22926
0.0331282 -0.0475824 0.229982
0.033682 -0.0475462 0.230642
0.0342402 -0.0475115 0.231322
0.0348021 -0.0474778 0.232018
0.0353556 -0.0474354 0.232624
0.0361376 -0.0475581 0.235045
-0.0293089 -0.0589813 0.22259
-0.0288146 -0.0588582 0.222398
-0.0283205 -0.0587346 0.2222
-0.0278264 -0.0586102 0.221995
-0.0273314 -0.0584834 0.221772
-0.026838 -0.0583578 0.221556
-0.026344 -0.0582305 0.221325
-0.0258609 -0.0581182 0.221207
-0.0253857 -0.0580173 0.221173
-0.0249111 -0.057917 0.221144
-0.0244414 -0.0578243 0.221172
-0.0239761 -0.0577384 0.221251
-0.0235111 -0.0576534 0.221338
-0.0230418 -0.0575615 0.221372
-0.0225763 -0.0574761 0.221456
-0.0221063 -0.0573832 0.221483
-0.0216363 -0.0572904 0.22151
-0.0211724 -0.0572083 0.22162
-0.0207125 -0.0571342 0.221793
-0.0202625 -0.0570792 0.222114
-0.0198121 -0.0570252 0.222445
-0.0193679 -0.0569851 0.222885
-0.0189169 -0.0569338 0.22324
-0.0184627 -0.0568782 0.223563
-0.018004 -0.0568147 0.223826
-0.0175427 -0.0567475 0.224061
-0.0170761 -0.0566698 0.224214
-0.0166087 -0.0565911 0.22436
-0.0161376 -0.0565048 0.224446
-0.0156633 -0.0564111 0.224473
-0.0151903 -0.0563206 0.224526
-0.0147133 -0.0562201 0.224499
-0.0142297 -0.0561018 0.22433
-0.0137444 -0.0559773 0.224109
-0.0132572 -0.0558453 0.223825
-0.012769 -0.0557075 0.223494
-0.0122837 -0.0555749 0.223203
-0.0118047 -0.0554593 0.223048
-0.0113256 -0.0553415 0.222874
-0.010851 -0.0552369 0.222808
-0.0103807 -0.0551465 0.222856
-0.00991261 -0.0550649 0.222978
-0.0094445 -0.0549843 0.223109
-0.00897823 -0.0549129 0.223315
-0.00850513 -0.0548136 0.223292
-0.00803036 -0.0547058 0.223198
-0.00755506 -0.0545935 0.223065
-0.00708049 -0.0544824 0.222942
-0.00660566 -0.0543669 0.22278
-0.00613341 -0.0542636 0.222721
-0.00566131 -0.0541596 0.222655
-0.00518907 -0.0540522 0.22256
-0.0047173 -0.0539455 0.222469
-0.00424562 -0.0538359 0.222354
-0.00377465 -0.0537291 0.222262
-0.00330381 -0.0536188 0.222138
-0.00283369 -0.053512 0.222044
-0.00236401 -0.0534063 0.221959
-0.00189503 -0.0533101 0.221955
-0.00142604 -0.0532081 0.221901
-0.000957335 -0.0531088 0.22187
-0.000488906 -0.0529999 0.221754
-2.10436e-05 -0.0528874 0.221607
0.000445767 -0.0527624 0.221349
0.000911603 -0.0526369 0.221084
0.0013762 -0.0525079 0.220787
0.00183976 -0.0523796 0.220495
0.00230232 -0.0522517 0.220204
0.0027645 -0.0521303 0.219969
0.00322623 -0.0520125 0.219764
0.00368766 -0.0518981 0.219589
0.00414953 -0.0517907 0.219475
0.00461098 -0.0516838 0.219364
0.00507252 -0.0515798 0.21928
0.00553299 -0.0514725 0.219164
0.00599223 -0.0513618 0.219017
0.00645159 -0.0512544 0.218898
0.00691065 -0.0511476 0.218785
0.00737013 -0.0510443 0.218702
0.00782842 -0.050938 0.218592
0.00828515 -0.0508282 0.218448
0.0087383 -0.0507091 0.218217
0.00919056 -0.0505898 0.217982
0.00964385 -0.0504764 0.217801
0.0100972 -0.0503649 0.217637
0.0105543 -0.0502652 0.217581
0.01101 -0.0501628 0.2175
0.0114661 -0.0500621 0.217435
0.0119207 -0.0499587 0.217342
0.0123775 -0.0498613 0.217306
0.0128296 -0.0497541 0.217177
0.0132861 -0.0496573 0.217145
0.0137422 -0.0495601 0.217111
0.0141941 -0.0494553 0.217002
0.014647 -0.0493533 0.216919
0.0151023 -0.0492562 0.216883
0.0155576 -0.0491596 0.216851
0.0160147 -0.0490665 0.216853
0.0164735 -0.0489763 0.216883
0.0169324 -0.0488861 0.216914
0.0173907 -0.0487951 0.216937
0.0178473 -0.0487015 0.216933
0.0183056 -0.0486106 0.216957
0.0187643 -0.0485202 0.216986
0.0192233 -0.0484302 0.217018
0.0196779 -0.0483344 0.216992
0.0201359 -0.0482432 0.217012
0.0205841 -0.0481395 0.216906
0.0210399 -0.0480459 0.216902
0.0215022 -0.0479606 0.216982
0.0219638 -0.047874 0.217048
0.0224252 -0.0477868 0.21711
0.0228942 -0.0477083 0.21726
0.0233614 -0.0476276 0.217388
0.0238306 -0.0475484 0.217532
0.0243226 -0.0474928 0.217923
0.0248143 -0.0474359 0.218301
0.0253101 -0.0473816 0.21871
0.0258133 -0.0473331 0.219182
0.0263284 -0.0472947 0.219763
0.0268483 -0.0472584 0.220372
0.0273767 -0.0472283 0.221049
0.0279324 -0.0472212 0.221974
0.0285066 -0.0472273 0.223048
0.0290938 -0.0472413 0.224213
0.0296734 -0.0472448 0.225274
0.0302683 -0.0472576 0.226443
0.0308496 -0.0472551 0.227453
0.0314069 -0.0472297 0.228223
0.0319491 -0.0471892 0.228834
0.0325138 -0.047165 0.229627
0.0330701 -0.0471317 0.230326
0.0336241 -0.0470943 0.230985
0.0341794 -0.0470561 0.23164
0.0347416 -0.047021 0.232333
0.0352962 -0.0469781 0.232946
0.042036 -0.0494036 0.261197
0.0412111 -0.04885 0.259747
0.0420878 -0.0489764 0.262405
-0.0294214 -0.0585307 0.222784
-0.0289346 -0.0584185 0.222671
-0.0284411 -0.0582968 0.222485
-0.0279484 -0.0581753 0.2223
-0.0274558 -0.0580529 0.222107
-0.0269617 -0.0579276 0.221891
-0.0264644 -0.0577968 0.221631
-0.0259784 -0.0576811 0.221486
-0.0254977 -0.0575727 0.221395
-0.0250179 -0.0574651 0.22131
-0.0245431 -0.0573647 0.221279
-0.0240732 -0.0572718 0.221306
-0.0236057 -0.0571827 0.221361
-0.0231362 -0.0570906 0.221394
-0.0226705 -0.0570046 0.221474
-0.0222005 -0.0569118 0.221502
-0.0217305 -0.056819 0.221529
-0.0212645 -0.056733 0.22161
-0.0208045 -0.0566582 0.221779
-0.0203543 -0.0566021 0.222096
-0.0199044 -0.0565482 0.222431
-0.0194606 -0.0565079 0.222875
-0.0190116 -0.0564598 0.223259
-0.0185575 -0.0564036 0.223582
-0.0181006 -0.0563433 0.223873
-0.0176428 -0.0562829 0.224165
-0.0171781 -0.0562094 0.224354
-0.0167123 -0.0561344 0.224531
-0.0162439 -0.0560546 0.224671
-0.0157693 -0.0559609 0.224699
-0.0152946 -0.0558671 0.224726
-0.0148186 -0.0557699 0.224726
-0.0143359 -0.0556553 0.224584
-0.0138505 -0.0555322 0.224371
-0.0133641 -0.055404 0.224116
-0.0128763 -0.0552697 0.223808
-0.0123913 -0.0551403 0.22354
-0.0119117 -0.0550249 0.223385
-0.011432 -0.0549072 0.22321
-0.0109569 -0.0548027 0.223144
-0.0104851 -0.0547091 0.223168
-0.0100157 -0.0546237 0.22326
-0.00954719 -0.054543 0.223392
-0.00907972 -0.0544677 0.22357
-0.00860618 -0.0543684 0.223546
-0.00813092 -0.0542605 0.22345
-0.00765451 -0.0541451 0.22329
-0.00717895 -0.054031 0.223139
-0.00670363 -0.053915 0.222971
-0.00622946 -0.0538023 0.22283
-0.00575612 -0.0536913 0.222704
-0.00528278 -0.053577 0.222547
-0.00481024 -0.053464 0.222401
-0.00433838 -0.053352 0.222262
-0.0038679 -0.053249 0.222201
-0.00339742 -0.0531427 0.22211
-0.00292757 -0.0530394 0.222045
-0.00245802 -0.0529362 0.22198
-0.00198899 -0.0528399 0.221974
-0.00152007 -0.0527411 0.221947
-0.00105133 -0.0526454 0.221947
-0.000582741 -0.0525401 0.221862
-0.000114535 -0.0524339 0.221767
0.000352906 -0.0523182 0.221589
0.000819396 -0.0521966 0.221355
0.00128477 -0.0520718 0.221091
0.00174916 -0.051947 0.220826
0.00221235 -0.0518198 0.220538
0.00267478 -0.0516956 0.220275
0.00313707 -0.0515778 0.220068
0.003599 -0.0514634 0.219889
0.00406131 -0.0513557 0.219771
0.00452324 -0.0512488 0.21966
0.00498475 -0.0511421 0.21955
0.00544565 -0.0510348 0.219433
0.00590476 -0.0509217 0.219262
0.00636382 -0.0508111 0.219112
0.00682245 -0.0507014 0.21897
0.00728216 -0.0505979 0.218885
0.00774082 -0.050492 0.218776
0.00819882 -0.0503857 0.218662
0.00865341 -0.05027 0.21846
0.00910696 -0.0501537 0.218251
0.00956073 -0.0500404 0.218068
0.0100144 -0.0499289 0.217901
0.0104719 -0.0498291 0.217844
0.0109282 -0.0497271 0.217766
0.0113849 -0.0496269 0.217704
0.0118411 -0.0495262 0.217637
0.0122984 -0.0494289 0.217602
0.0127524 -0.0493249 0.217502
0.0132095 -0.0492283 0.217473
0.0136663 -0.0491315 0.217441
0.0141188 -0.0490268 0.217332
0.0145722 -0.0489247 0.217248
0.0150266 -0.0488251 0.217187
0.0154809 -0.0487259 0.217129
0.0159382 -0.0486323 0.217128
0.0163974 -0.0485418 0.217156
0.0168565 -0.0484514 0.217185
0.0173155 -0.0483607 0.217212
0.0177726 -0.048267 0.217209
0.0182294 -0.0481734 0.217205
0.0186881 -0.0480823 0.217228
0.0191474 -0.0479922 0.21726
0.0196047 -0.0478993 0.217264
0.0200671 -0.0478134 0.217338
0.0205195 -0.0477144 0.21728
0.0209738 -0.0476183 0.21725
0.0214384 -0.0475344 0.217347
0.0219 -0.0474474 0.21741
0.0223649 -0.0473634 0.217506
0.022838 -0.0472886 0.217698
0.0233112 -0.0472133 0.217887
0.023784 -0.0471366 0.218062
0.0242787 -0.0470827 0.218478
0.0247718 -0.0470254 0.218861
0.0252708 -0.0469729 0.219297
0.0257829 -0.0469313 0.219853
0.0263105 -0.0469031 0.220555
0.0268383 -0.0468724 0.221236
0.0273772 -0.0468496 0.222006
0.0279396 -0.0468456 0.222986
0.0285143 -0.046849 0.224052
0.0290788 -0.0468398 0.224989
0.0296454 -0.0468292 0.225917
0.0302241 -0.0468258 0.226931
0.0307881 -0.0468067 0.22778
0.0313351 -0.0467714 0.228454
0.0318839 -0.046735 0.229122
0.0324496 -0.04671 0.229921
0.0330032 -0.0466732 0.230595
0.0335575 -0.0466349 0.231256
0.034113 -0.0465954 0.231909
0.0346718 -0.0465566 0.232574
0.0352306 -0.0465159 0.233223
0.0413645 -0.0484919 0.261747
0.0420997 -0.0485202 0.263324
-0.0285675 -0.0578656 0.222827
-0.0280793 -0.0577513 0.222694
-0.0275885 -0.0576326 0.222528
-0.0270912 -0.0575042 0.222286
-0.0265931 -0.0573735 0.222025
-0.0261038 -0.0572542 0.221851
-0.0256172 -0.0571382 0.2217
-0.0251341 -0.0570265 0.221582
-0.0246538 -0.0569185 0.221492
-0.0241767 -0.0568149 0.221436
-0.0237045 -0.0567186 0.221437
-0.0232326 -0.0566227 0.22144
-0.0227647 -0.0565331 0.221493
-0.0222947 -0.0564403 0.22152
-0.0218247 -0.0563475 0.221547
-0.0213567 -0.0562579 0.221601
-0.0208947 -0.0561792 0.221741
-0.0204426 -0.056119 0.222028
-0.0199929 -0.0560645 0.222361
-0.0195477 -0.0560203 0.222781
-0.019099 -0.0559716 0.223164
-0.0186467 -0.0559178 0.22351
-0.0181932 -0.0558636 0.223854
-0.0177375 -0.0558068 0.224179
-0.0172764 -0.0557405 0.224428
-0.0168137 -0.0556723 0.224662
-0.0163467 -0.0555955 0.224828
-0.0158732 -0.0555049 0.224882
-0.0154011 -0.0554178 0.224965
-0.0149276 -0.0553278 0.225024
-0.014446 -0.0552175 0.224916
-0.0139639 -0.0551048 0.224787
-0.0134781 -0.0549807 0.224563
-0.0129899 -0.0548478 0.224264
-0.0125041 -0.054719 0.223998
-0.0120249 -0.0546073 0.223872
-0.0115434 -0.0544868 0.223673
-0.0110665 -0.0543791 0.223579
-0.0105929 -0.0542813 0.223569
-0.0101218 -0.054192 0.22363
-0.00965175 -0.0541072 0.223729
-0.00918291 -0.0540279 0.223877
-0.0087088 -0.0539284 0.223851
-0.00823293 -0.0538202 0.223751
-0.00775529 -0.0537017 0.223562
-0.00727912 -0.0535872 0.223406
-0.00680323 -0.053471 0.223235
-0.00632801 -0.0533549 0.223063
-0.00585363 -0.0532402 0.222902
-0.00537909 -0.0531199 0.222692
-0.00490612 -0.0530062 0.222537
-0.00443365 -0.0528913 0.222371
-0.00396305 -0.0527891 0.222316
-0.00349242 -0.0526835 0.222229
-0.0030226 -0.0525834 0.222192
-0.00255249 -0.0524749 0.222078
-0.00208321 -0.0523756 0.222046
-0.00161416 -0.0522767 0.222018
-0.00114535 -0.0521812 0.222019
-0.000676602 -0.0520795 0.221964
-0.000208219 -0.051974 0.221875
0.000259532 -0.0518617 0.221723
0.000726444 -0.0517435 0.221517
0.00119238 -0.0516226 0.221286
0.00165742 -0.0515017 0.221052
0.00212164 -0.0513809 0.220818
0.00258496 -0.0512604 0.220585
0.00304777 -0.0511428 0.220376
0.00350991 -0.051026 0.220175
0.00397221 -0.0509154 0.220028
0.0044345 -0.0508081 0.219912
0.0048958 -0.0506982 0.21977
0.00535653 -0.0505884 0.219628
0.00581593 -0.0504752 0.219453
0.00627528 -0.0503646 0.219302
0.00673339 -0.0502518 0.219128
0.00719328 -0.050148 0.219038
0.00765219 -0.0500423 0.21893
0.00811138 -0.0499391 0.218844
0.00856745 -0.0498273 0.218676
0.00902238 -0.0497143 0.218496
0.00947778 -0.0496046 0.218344
0.0099328 -0.0494956 0.218199
0.0103909 -0.0493961 0.218146
0.0108477 -0.0492941 0.218066
0.0113051 -0.0491946 0.218011
0.011762 -0.0490944 0.217948
0.01222 -0.0489973 0.217915
0.0126756 -0.0488959 0.217839
0.0131347 -0.048802 0.217837
0.0135934 -0.0487078 0.217831
0.0140465 -0.0486032 0.217722
0.0145004 -0.0485008 0.217634
0.0149536 -0.0483982 0.217543
0.0154069 -0.0482962 0.217458
0.0158632 -0.0481999 0.217429
0.0163227 -0.0481092 0.217456
0.0167823 -0.0480187 0.217485
0.0172419 -0.0479281 0.217514
0.0176995 -0.0478345 0.217512
0.0181567 -0.0477406 0.217506
0.0186158 -0.0476495 0.217529
0.0190754 -0.0475589 0.217558
0.0195333 -0.0474663 0.217564
0.0199984 -0.0473829 0.217668
0.0204518 -0.0472846 0.217616
0.0209063 -0.0471878 0.217579
0.0213748 -0.0471082 0.217723
0.0218415 -0.0470258 0.217838
0.02231 -0.0469452 0.217972
0.0227888 -0.0468756 0.218224
0.0232678 -0.0468053 0.21847
0.0237389 -0.0467258 0.218619
0.024232 -0.0466685 0.219007
0.0247277 -0.0466123 0.219411
0.0252303 -0.0465615 0.219875
0.025749 -0.0465247 0.220494
0.0262863 -0.0465036 0.221289
0.0268213 -0.0464773 0.222032
0.0273621 -0.0464541 0.222815
0.0279248 -0.0464474 0.223785
0.028486 -0.0464361 0.22471
0.0290345 -0.0464106 0.225486
0.0295911 -0.0463897 0.226318
0.0301583 -0.0463747 0.227221
0.0307123 -0.0463458 0.227976
0.0312637 -0.0463126 0.228688
0.0318163 -0.0462781 0.22939
0.0323795 -0.0462499 0.230168
0.032937 -0.0462146 0.230872
0.0334915 -0.0461751 0.231533
0.0340466 -0.0461342 0.232182
0.034606 -0.0460946 0.232851
0.0352724 -0.0461284 0.234375
0.0413545 -0.0480222 0.262506
0.0419673 -0.0479692 0.263153
0.0429538 -0.0486198 0.265743
0.0425353 -0.0478857 0.263443
-0.02869 -0.0574279 0.223127
-0.0282046 -0.0573181 0.223028
-0.0277163 -0.0572039 0.222895
-0.027225 -0.057085 0.222724
-0.0267282 -0.0569576 0.222486
-0.0262353 -0.0568346 0.222281
-0.0257455 -0.0567151 0.222102
-0.0252583 -0.0565987 0.221946
-0.0247722 -0.056483 0.221795
-0.0242874 -0.0563685 0.221653
-0.02381 -0.0562646 0.221593
-0.0233332 -0.0561613 0.221538
-0.0228609 -0.056065 0.221537
-0.0223889 -0.0559689 0.221539
-0.0219189 -0.055876 0.221566
-0.021449 -0.0557832 0.221593
-0.020985 -0.0557006 0.221703
-0.0205308 -0.055636 0.221958
-0.0200793 -0.0555773 0.222263
-0.0196325 -0.055529 0.222653
-0.019184 -0.0554793 0.223033
-0.0187335 -0.055428 0.223403
-0.0182821 -0.0553769 0.223776
-0.0178288 -0.0553239 0.224136
-0.0173697 -0.0552612 0.224417
-0.0169089 -0.0551961 0.224681
-0.0164419 -0.0551191 0.224847
-0.0159699 -0.0550319 0.224929
-0.0155009 -0.0549519 0.225072
-0.0150318 -0.0548728 0.225223
-0.0145556 -0.0547767 0.225233
-0.0140785 -0.0546783 0.225222
-0.0135946 -0.0545617 0.225058
-0.013108 -0.0544359 0.224816
-0.0126226 -0.0543113 0.224583
-0.0121415 -0.0541972 0.224437
-0.011658 -0.0540736 0.224209
-0.0111789 -0.0539619 0.224081
-0.0107023 -0.0538568 0.224009
-0.0102275 -0.0537568 0.22398
-0.00975498 -0.0536646 0.224017
-0.00928405 -0.0535786 0.224109
-0.00880875 -0.0534757 0.224054
-0.00833176 -0.0533643 0.223926
-0.00785375 -0.053246 0.223736
-0.00737718 -0.0531312 0.223575
-0.00690097 -0.0530153 0.223404
-0.00642541 -0.0528995 0.223232
-0.00595084 -0.0527856 0.223076
-0.00547572 -0.0526644 0.222854
-0.00500242 -0.0525505 0.222695
-0.00452994 -0.0524384 0.222552
-0.00405935 -0.0523392 0.222522
-0.00358872 -0.0522373 0.222468
-0.00311853 -0.0521378 0.222435
-0.00264797 -0.0520292 0.222319
-0.00217817 -0.0519266 0.222257
-0.0017086 -0.0518217 0.222174
-0.00123942 -0.0517201 0.22212
-0.000770553 -0.0516184 0.222065
-0.000301985 -0.0515134 0.221978
0.000166013 -0.0514021 0.221833
0.000633259 -0.0512874 0.221657
0.00109984 -0.0511725 0.221476
0.00156554 -0.0510553 0.221274
0.0020302 -0.0509355 0.221045
0.0024943 -0.0508182 0.220839
0.00295795 -0.050704 0.22066
0.00342025 -0.050585 0.220434
0.00388253 -0.0504716 0.22026
0.00434515 -0.050364 0.220138
0.00480625 -0.0502511 0.219967
0.00526673 -0.0501385 0.219796
0.00572635 -0.0500251 0.219617
0.00618596 -0.0499147 0.219464
0.00664431 -0.0498019 0.219289
0.00710446 -0.0496982 0.219198
0.00756432 -0.0495951 0.219113
0.00802395 -0.0494923 0.21903
0.00848133 -0.0493839 0.218892
0.00893792 -0.0492749 0.218747
0.00939479 -0.0491683 0.218625
0.00985053 -0.0490601 0.218485
0.01031 -0.0489631 0.218455
0.0107674 -0.0488613 0.218377
0.0112253 -0.0487617 0.21832
0.0116827 -0.0486617 0.218259
0.0121413 -0.0485648 0.218228
0.0125975 -0.0484634 0.218152
0.013057 -0.0483695 0.21815
0.0135162 -0.0482751 0.218143
0.013971 -0.0481728 0.218056
0.0144267 -0.0480728 0.217992
0.0148821 -0.047973 0.217928
0.015336 -0.047871 0.217842
0.0157926 -0.0477743 0.21781
0.0162524 -0.047683 0.217831
0.0167128 -0.0475926 0.217863
0.0171732 -0.0475022 0.217896
0.0176317 -0.047409 0.217897
0.0180894 -0.0473147 0.217889
0.018547 -0.0472206 0.217881
0.0190069 -0.0471297 0.217908
0.019464 -0.0470351 0.217895
0.0199317 -0.0469542 0.218027
0.0203881 -0.0468588 0.218006
0.0208435 -0.0467624 0.217973
0.0213128 -0.0466829 0.218121
0.0217844 -0.0466051 0.218288
0.0222562 -0.0465272 0.218455
0.0227382 -0.0464598 0.218737
0.0232224 -0.0463938 0.219035
0.0236963 -0.0463157 0.219204
0.0241875 -0.0462548 0.219562
0.0246837 -0.0461977 0.219964
0.0251895 -0.0461486 0.220456
0.0257124 -0.0461138 0.221111
0.0262541 -0.0460946 0.221943
0.0267902 -0.0460675 0.222693
0.0273314 -0.0460421 0.223467
0.0278808 -0.0460213 0.2243
0.0284277 -0.0459954 0.22508
0.0289614 -0.045956 0.225713
0.029512 -0.0459283 0.226484
0.0300736 -0.0459072 0.227336
0.0306341 -0.0458827 0.228154
0.0311951 -0.0458558 0.228952
0.0317578 -0.0458277 0.229743
0.0323285 -0.0458034 0.230582
0.0328865 -0.045767 0.231287
0.0334411 -0.0457262 0.231946
0.0339998 -0.0456863 0.232621
0.0346624 -0.0457179 0.234141
0.0354469 -0.0458302 0.236623
0.0412159 -0.0474682 0.262281
0.0418246 -0.0474119 0.262899
0.042403 -0.0473348 0.263272
-0.0288341 -0.057017 0.223643
-0.028347 -0.0569062 0.223537
-0.0278584 -0.0567928 0.223409
-0.0273673 -0.0566755 0.223249
-0.0268698 -0.0565487 0.223014
-0.0263735 -0.0564225 0.222782
-0.02588 -0.0562993 0.222572
-0.0253868 -0.0561753 0.222355
-0.0248948 -0.0560523 0.222144
-0.024404 -0.0559299 0.221937
-0.0239232 -0.0558217 0.221842
-0.0234431 -0.0557141 0.221752
-0.0229681 -0.0556138 0.22172
-0.0224916 -0.055511 0.221668
-0.0220194 -0.0554148 0.221667
-0.0215472 -0.0553184 0.221666
-0.0210808 -0.0552319 0.221745
-0.0206228 -0.05516 0.221944
-0.0201707 -0.0550996 0.222238
-0.0197221 -0.0550471 0.222598
-0.0192721 -0.0549937 0.222953
-0.0188221 -0.0549421 0.223325
-0.0183729 -0.0548941 0.223729
-0.0179202 -0.0548414 0.224095
-0.0174632 -0.054782 0.224408
-0.017004 -0.05472 0.2247
-0.0165371 -0.0546427 0.224866
-0.0160667 -0.0545589 0.224978
-0.0156009 -0.0544862 0.225183
-0.0151367 -0.0544184 0.225432
-0.0146663 -0.0543373 0.225569
-0.0141944 -0.0542532 0.22568
-0.0137137 -0.054147 0.225604
-0.0132298 -0.0540313 0.225447
-0.0127455 -0.053913 0.225265
-0.0122633 -0.053799 0.225119
-0.0117773 -0.0536721 0.224861
-0.0112959 -0.0535563 0.224697
-0.010815 -0.0534406 0.224533
-0.0103362 -0.05333 0.224413
-0.00986107 -0.0532307 0.22439
-0.00938775 -0.0531377 0.224421
-0.00891034 -0.0530285 0.224311
-0.00843219 -0.0529143 0.224156
-0.00795299 -0.0527928 0.223935
-0.00747547 -0.0526756 0.223751
-0.00699898 -0.0525602 0.223581
-0.00652379 -0.0524483 0.223442
-0.00604938 -0.0523382 0.223319
-0.00557441 -0.052221 0.223129
-0.00510102 -0.0521103 0.222997
-0.00462794 -0.0519977 0.222847
-0.00415658 -0.051896 0.222795
-0.00368546 -0.0517938 0.222738
-0.00321481 -0.0516941 0.222703
-0.00274361 -0.0515826 0.22256
-0.00227337 -0.0514792 0.22249
-0.00180326 -0.0513706 0.222371
-0.00133367 -0.0512624 0.222255
-0.000864533 -0.0511575 0.222169
-0.000395785 -0.0510525 0.222082
7.23409e-05 -0.0509389 0.221913
0.000539877 -0.0508272 0.221762
0.00100684 -0.0507157 0.22161
0.00147302 -0.0506018 0.221435
0.00193832 -0.0504857 0.221238
0.00240338 -0.0503746 0.221087
0.00286786 -0.0502636 0.220936
0.00333101 -0.0501475 0.220734
0.00379345 -0.0500318 0.220535
0.00425598 -0.0499211 0.220383
0.00471692 -0.0498053 0.220181
0.00517716 -0.0496898 0.21998
0.00563654 -0.0495742 0.219776
0.00609646 -0.0494642 0.219625
0.00655529 -0.0493522 0.219454
0.00701577 -0.0492489 0.219367
0.00747665 -0.0491483 0.219305
0.00793657 -0.0490457 0.219223
0.00839514 -0.0489401 0.21911
0.00885316 -0.0488342 0.218994
0.00931156 -0.048731 0.218903
0.00976797 -0.0486235 0.218769
0.0102289 -0.048529 0.218764
0.0106877 -0.0484294 0.218707
0.0111472 -0.0483323 0.218676
0.0116052 -0.0482322 0.218613
0.0120653 -0.0481375 0.218604
0.0125232 -0.0480384 0.218551
0.0129835 -0.0479446 0.218551
0.0134422 -0.047848 0.218523
0.0138978 -0.0477461 0.218438
0.0143528 -0.0476437 0.218349
0.0148073 -0.0475413 0.218258
0.0152603 -0.0474371 0.218148
0.0157175 -0.0473404 0.218116
0.0161794 -0.0472516 0.218165
0.0166419 -0.0471635 0.218222
0.0171047 -0.0470757 0.218283
0.0175672 -0.0469873 0.218336
0.0180257 -0.0468932 0.21833
0.0184822 -0.0467965 0.218297
0.0189408 -0.0467028 0.218295
0.0193997 -0.0466097 0.218298
0.0198665 -0.0465266 0.21841
0.0203277 -0.0464364 0.218445
0.0207888 -0.0463457 0.218475
0.0212613 -0.0462686 0.218654
0.021732 -0.0461887 0.218802
0.0222067 -0.0461124 0.218991
0.0226872 -0.0460423 0.21925
0.0231702 -0.0459732 0.219521
0.0236443 -0.0458946 0.219688
0.0241359 -0.0458327 0.220042
0.0246329 -0.0457748 0.220445
0.0251399 -0.0457252 0.220943
0.0256641 -0.0456903 0.221609
0.0262037 -0.0456671 0.222413
0.026737 -0.0456357 0.223129
0.027275 -0.0456054 0.223864
0.0278162 -0.0455759 0.224612
0.0283546 -0.0455412 0.225308
0.0288826 -0.0454957 0.225883
0.0294298 -0.0454641 0.226624
0.0299892 -0.0454399 0.227456
0.0305559 -0.0454188 0.228331
0.0311235 -0.0453958 0.229189
0.031696 -0.0453739 0.230067
0.0322709 -0.0453509 0.230939
0.0328297 -0.0453139 0.231651
0.0333842 -0.0452716 0.232306
0.0339469 -0.0452331 0.233012
0.0347163 -0.0453364 0.235422
0.0402205 -0.0468121 0.259487
0.0410688 -0.0469097 0.261992
0.0416739 -0.0468505 0.262585
0.0422665 -0.0467823 0.263073
-0.028476 -0.0564747 0.223903
-0.0279876 -0.0563627 0.223785
-0.0274979 -0.0562483 0.223648
-0.0270064 -0.056131 0.223486
-0.0265121 -0.0560089 0.223284
-0.0260177 -0.0558858 0.223073
-0.0255209 -0.0557584 0.222826
-0.0250253 -0.0556315 0.222583
-0.0245266 -0.055499 0.222291
-0.0240401 -0.0553834 0.222136
-0.0235544 -0.0552681 0.221982
-0.0230765 -0.0551639 0.221917
-0.0225953 -0.0550543 0.221808
-0.0221205 -0.0549543 0.221777
-0.0216457 -0.054854 0.221743
-0.0211752 -0.0547605 0.221765
-0.0207131 -0.0546813 0.221906
-0.0202591 -0.0546169 0.22217
-0.0198088 -0.0545602 0.2225
-0.0193572 -0.0545029 0.222827
-0.0189095 -0.0544544 0.223229
-0.0184609 -0.0544063 0.223637
-0.0180101 -0.0543564 0.224031
-0.0175534 -0.0542967 0.224345
-0.0170959 -0.0542371 0.224662
-0.0166291 -0.0541598 0.224829
-0.0161619 -0.0540824 0.224997
-0.0156994 -0.0540166 0.225264
-0.0152413 -0.0539624 0.225633
-0.0147769 -0.0538959 0.225897
-0.0143104 -0.0538261 0.226134
-0.0138346 -0.0537342 0.226182
-0.0133534 -0.0536283 0.226108
-0.0128702 -0.0535164 0.225981
-0.0123867 -0.0534021 0.225832
-0.0118992 -0.0532747 0.225567
-0.0114142 -0.0531517 0.22534
-0.010929 -0.0530259 0.225086
-0.0104462 -0.0529052 0.224875
-0.00996827 -0.0527987 0.224789
-0.00949254 -0.052699 0.224763
-0.00901361 -0.0525863 0.22462
-0.00853482 -0.0524719 0.224462
-0.00805505 -0.0523507 0.224241
-0.00757641 -0.052231 0.224032
-0.00710002 -0.0521189 0.223889
-0.00662435 -0.0520076 0.223754
-0.00614957 -0.0518984 0.223637
-0.0056746 -0.0517853 0.223483
-0.00520116 -0.0516784 0.223385
-0.00472752 -0.051567 0.223244
-0.00425577 -0.0514675 0.223212
-0.00378391 -0.0513653 0.223154
-0.00331235 -0.0512624 0.22309
-0.00284043 -0.0511504 0.222941
-0.00236937 -0.0510437 0.22284
-0.00189842 -0.0509289 0.222662
-0.00142824 -0.0508171 0.22251
-0.000958663 -0.0507081 0.222386
-0.000489592 -0.0505999 0.222266
-2.12059e-05 -0.0504836 0.222069
0.000446786 -0.0503751 0.221945
0.000914059 -0.0502637 0.221793
0.0013806 -0.0501504 0.221621
0.00184648 -0.0500374 0.221451
0.00231201 -0.049927 0.221304
0.00277653 -0.0498136 0.221127
0.00324006 -0.0496977 0.220925
0.00370278 -0.0495819 0.220722
0.00416513 -0.0494686 0.220542
0.00462642 -0.0493532 0.22034
0.0050869 -0.0492378 0.220136
0.00554661 -0.0491225 0.219933
0.00600687 -0.049013 0.219785
0.0064661 -0.0489017 0.219617
0.00692691 -0.0487987 0.219532
0.00738822 -0.0486989 0.219476
0.00784842 -0.0485963 0.219393
0.00830723 -0.0484906 0.219278
0.00876705 -0.0483895 0.219208
0.00922594 -0.0482866 0.21912
0.00968376 -0.048182 0.219012
0.0101462 -0.0480903 0.219036
0.0106065 -0.0479933 0.219006
0.0110654 -0.0478938 0.218949
0.0115249 -0.0477961 0.21891
0.0119855 -0.0477012 0.2189
0.0124438 -0.0476022 0.218847
0.0129047 -0.0475085 0.218849
0.013364 -0.047412 0.218821
0.0138214 -0.0473127 0.218764
0.0142785 -0.047213 0.218702
0.0147353 -0.0471137 0.218642
0.0151905 -0.0470121 0.218559
0.0156484 -0.0469156 0.218528
0.0161108 -0.0468264 0.218575
0.0165742 -0.0467384 0.218636
0.017038 -0.0466509 0.218701
0.0175014 -0.0465627 0.21876
0.0179624 -0.0464711 0.218782
0.0184194 -0.0463739 0.218744
0.0188785 -0.04628 0.218739
0.0193377 -0.0461863 0.218738
0.0198052 -0.0461029 0.218849
0.0202691 -0.0460149 0.21891
0.0207332 -0.0459271 0.218974
0.0212073 -0.0458503 0.21916
0.0216809 -0.0457721 0.219333
0.0221557 -0.0456948 0.219516
0.0226347 -0.0456216 0.219745
0.0231179 -0.0455519 0.220016
0.0235956 -0.0454755 0.220212
0.0240886 -0.0454136 0.220575
0.0245916 -0.04536 0.221035
0.0251021 -0.0453121 0.221564
0.025627 -0.0452757 0.222228
0.0261621 -0.0452463 0.222977
0.02669 -0.0452079 0.223628
0.0272196 -0.0451688 0.224276
0.0277555 -0.045133 0.224966
0.0282862 -0.0450904 0.225583
0.0288114 -0.0450414 0.226129
0.0293584 -0.0450081 0.226865
0.0299182 -0.0449827 0.227699
0.0304858 -0.044961 0.228584
0.0310607 -0.0449421 0.229509
0.0316409 -0.0449241 0.230452
0.0322137 -0.0448981 0.231306
0.0327731 -0.0448598 0.232019
0.0333279 -0.0448161 0.23267
0.0339872 -0.0448434 0.234193
0.0393667 -0.0462464 0.257722
0.0401988 -0.046336 0.260162
0.0409223 -0.0463523 0.261703
0.0415278 -0.046293 0.262306
0.0421301 -0.0462305 0.262873
-0.0290879 -0.0561458 0.224321
-0.0285971 -0.056032 0.224188
-0.0281088 -0.0559208 0.224076
-0.0276202 -0.0558087 0.223955
-0.027132 -0.0556967 0.223834
-0.0266382 -0.0555764 0.223645
-0.0261462 -0.0554579 0.223469
-0.0256507 -0.0553336 0.223246
-0.0251556 -0.0552088 0.223016
-0.0246539 -0.0550735 0.222699
-0.0241621 -0.0549512 0.222487
-0.023671 -0.054829 0.222274
-0.0231879 -0.0547179 0.222151
-0.0227038 -0.0546045 0.222009
-0.0222244 -0.0544977 0.221922
-0.0217467 -0.0543931 0.221851
-0.0212718 -0.0542926 0.221815
-0.0208055 -0.0542063 0.221898
-0.020348 -0.0541352 0.222109
-0.0198958 -0.0540744 0.222408
-0.0194446 -0.0540168 0.222736
-0.0189971 -0.0539675 0.223137
-0.0185487 -0.0539188 0.223544
-0.0180982 -0.0538681 0.223937
-0.0176415 -0.0538073 0.224246
-0.0171827 -0.0537443 0.224536
-0.0167177 -0.0536698 0.22473
-0.0162538 -0.0535989 0.224955
-0.0157961 -0.0535426 0.225308
-0.015344 -0.0535014 0.225794
-0.014888 -0.0534544 0.226234
-0.0144285 -0.0534017 0.226625
-0.0139576 -0.0533238 0.226797
-0.0134793 -0.0532281 0.226814
-0.0129975 -0.0531231 0.226747
-0.0125127 -0.0530088 0.226598
-0.0120218 -0.0528755 0.226278
-0.0115341 -0.0527487 0.226016
-0.0110455 -0.0526161 0.225698
-0.0105586 -0.0524857 0.225399
-0.010077 -0.0523696 0.225227
-0.00959941 -0.052266 0.225165
-0.00911731 -0.052144 0.224937
-0.00863704 -0.0520262 0.224745
-0.00815672 -0.0519053 0.224524
-0.00767752 -0.0517857 0.224313
-0.0072006 -0.0516736 0.22417
-0.00672551 -0.051568 0.224085
-0.00625069 -0.051462 0.223995
-0.00577578 -0.051353 0.223878
-0.00530218 -0.0512499 0.223814
-0.00482824 -0.051142 0.223704
-0.00435575 -0.0510425 0.223673
-0.0038831 -0.0509397 0.22361
-0.0034105 -0.0508338 0.223517
-0.00293783 -0.0507219 0.223367
-0.00246592 -0.0506127 0.223242
-0.00199417 -0.0504949 0.223034
-0.00152312 -0.0503774 0.222827
-0.00105298 -0.0502648 0.222666
-0.00058347 -0.0501479 0.222462
-0.000114781 -0.0500285 0.222232
0.00035336 -0.0499175 0.222082
0.000820892 -0.0498063 0.221929
0.00128773 -0.0496936 0.221759
0.00175411 -0.0495835 0.221615
0.0022199 -0.0494733 0.221468
0.0026851 -0.0493629 0.221317
0.00314893 -0.0492473 0.221115
0.00361161 -0.0491291 0.220885
0.0040738 -0.0490133 0.220678
0.00453525 -0.0488976 0.220469
0.00499496 -0.0487776 0.220217
0.00545493 -0.048663 0.220016
0.00591594 -0.048556 0.219891
0.00637597 -0.0484476 0.219749
0.00683706 -0.0483449 0.219665
0.0072994 -0.0482478 0.219636
0.00775987 -0.0481454 0.219554
0.00821972 -0.0480423 0.219463
0.00868073 -0.0479437 0.219418
0.00914091 -0.0478436 0.219356
0.00960017 -0.0477418 0.219277
0.0100641 -0.0476526 0.219327
0.0105249 -0.047556 0.219301
0.0109845 -0.0474567 0.219246
0.0114447 -0.0473597 0.219214
0.0119047 -0.0472625 0.21918
0.0123623 -0.047161 0.219101
0.0128234 -0.047067 0.219099
0.013283 -0.0469705 0.219071
0.013741 -0.0468714 0.219016
0.0141998 -0.0467743 0.21898
0.0146586 -0.0466775 0.218947
0.0151159 -0.0465786 0.218893
0.0155745 -0.0464823 0.218864
0.0160377 -0.0463932 0.218914
0.016503 -0.0463072 0.218998
0.0169692 -0.0462222 0.219093
0.0174336 -0.0461344 0.219157
0.0178972 -0.0460453 0.219208
0.018355 -0.0459483 0.219172
0.0188125 -0.0458512 0.219134
0.0192722 -0.0457574 0.219132
0.0197401 -0.0456735 0.21924
0.0202071 -0.0455882 0.219334
0.020676 -0.0455048 0.21945
0.0211528 -0.0454299 0.219662
0.0216287 -0.0453532 0.219856
0.0221058 -0.0452773 0.220059
0.0225836 -0.0452012 0.220262
0.02307 -0.0451336 0.220562
0.0235515 -0.0450595 0.220792
0.0240437 -0.0449954 0.221137
0.0245478 -0.0449416 0.221605
0.0250594 -0.0448927 0.222134
0.0255774 -0.0448482 0.222717
0.0261045 -0.0448098 0.223377
0.0266267 -0.0447648 0.223965
0.0271485 -0.0447176 0.224529
0.0276795 -0.0446763 0.225169
0.0282048 -0.0446281 0.225732
0.0287291 -0.0445774 0.226269
0.0292755 -0.0445426 0.227
0.029838 -0.0445181 0.227862
0.0304133 -0.0445004 0.228814
0.0309957 -0.0444855 0.229807
0.031583 -0.0444712 0.230814
0.0321563 -0.0444439 0.231671
0.0327221 -0.0444086 0.232435
0.0332774 -0.044364 0.23309
0.0340413 -0.0444601 0.235499
0.0394806 -0.0458579 0.259482
0.040172 -0.0458551 0.260802
0.0407768 -0.0457962 0.261418
0.0413767 -0.0457336 0.261988
0.0419756 -0.0456686 0.262533
-0.027735 -0.0553582 0.224182
-0.0272497 -0.0552507 0.224096
-0.026758 -0.0551342 0.223936
-0.026268 -0.0550192 0.223788
-0.025775 -0.0548995 0.223599
-0.0252832 -0.0547805 0.223415
-0.0247829 -0.0546487 0.223123
-0.0242881 -0.0545235 0.222885
-0.023794 -0.0543981 0.222642
-0.0233055 -0.0542799 0.22246
-0.0228163 -0.0541599 0.22226
-0.022332 -0.0540463 0.222114
-0.0218518 -0.0539384 0.222015
-0.0213744 -0.0538344 0.221948
