ply
format ascii 1.0
element vertex 1697
property float x
property float y
property float z
end_header
0.021506 -0.296562 1.13637
0.0230184 -0.297211 1.13772
0.0245336 -0.297791 1.13883
0.0260481 -0.298227 1.13944
0.0275578 -0.29849 1.13946
0.0290677 -0.298774 1.13955
0.0305778 -0.299054 1.13962
0.0320927 -0.299421 1.14
0.0336088 -0.299804 1.14043
0.0351375 -0.300354 1.14142
0.0366698 -0.300908 1.14243
0.0382112 -0.301545 1.14372
0.0397515 -0.302129 1.14483
0.041301 -0.302768 1.14612
0.042846 -0.303326 1.14714
0.0443971 -0.303907 1.14823
0.0459452 -0.304433 1.14914
0.0474966 -0.304959 1.15004
0.0490433 -0.305431 1.15076
0.0505893 -0.305876 1.15138
0.0521288 -0.306259 1.15179
0.0536725 -0.306661 1.15227
0.0552097 -0.30701 1.15257
0.0570651 -0.309551 1.16026
-0.18786 -0.286814 1.23264
-0.186048 -0.286995 1.23219
-0.184171 -0.287093 1.23141
-0.182282 -0.287174 1.23057
-0.180347 -0.287193 1.22949
-0.178416 -0.287208 1.22839
-0.17653 -0.287278 1.22751
-0.174634 -0.287327 1.22655
-0.172831 -0.287492 1.22606
-0.171098 -0.287746 1.22591
-0.169354 -0.287983 1.2257
-0.167569 -0.288164 1.22527
-0.165856 -0.288439 1.2252
-0.164165 -0.288743 1.22525
-0.162505 -0.289089 1.22547
-0.137977 -0.267266 1.13497
-0.13637 -0.267432 1.13459
-0.134745 -0.267567 1.1341
-0.133041 -0.26758 1.13313
-0.131221 -0.267412 1.13146
-0.12938 -0.2672 1.12963
-0.127576 -0.267034 1.12798
-0.12578 -0.266871 1.12634
-0.123979 -0.266687 1.12463
-0.122197 -0.266525 1.12301
-0.120407 -0.266337 1.12129
-0.118666 -0.266219 1.11984
-0.116935 -0.266108 1.11843
-0.115227 -0.266026 1.11713
-0.113576 -0.266031 1.11616
-0.111945 -0.266066 1.11531
-0.110336 -0.266132 1.11458
-0.108758 -0.266246 1.11404
-0.107206 -0.266405 1.11367
-0.105657 -0.266565 1.11331
-0.104134 -0.26677 1.11312
-0.10258 -0.266914 1.11269
-0.101049 -0.267099 1.11242
-0.099481 -0.26721 1.11188
-0.097925 -0.267339 1.1114
-0.0963723 -0.26747 1.11093
-0.0948716 -0.267702 1.11085
-0.0933754 -0.267941 1.11079
-0.0919234 -0.268271 1.11107
-0.090459 -0.268576 1.11126
-0.0889934 -0.268879 1.11145
-0.0875185 -0.269163 1.11155
-0.086022 -0.269399 1.11149
-0.0845239 -0.269631 1.1114
-0.0830141 -0.269834 1.11121
-0.0815064 -0.270039 1.11103
-0.0799808 -0.270201 1.11068
-0.0784176 -0.270268 1.10999
-0.0768313 -0.270273 1.10906
-0.075253 -0.270288 1.10817
-0.0736815 -0.270311 1.10732
-0.0721306 -0.270377 1.10663
-0.0706373 -0.270586 1.10646
-0.0691629 -0.270841 1.10647
-0.0676809 -0.271075 1.1064
-0.0661908 -0.271285 1.10625
-0.0647083 -0.271514 1.10616
-0.0632178 -0.271718 1.10599
-0.061728 -0.271921 1.10581
-0.0602464 -0.272145 1.1057
-0.0587745 -0.272397 1.1057
-0.057312 -0.272676 1.1058
-0.0558658 -0.273006 1.10609
-0.0544209 -0.273343 1.10641
-0.0529815 -0.2737 1.10679
-0.0515403 -0.274055 1.10717
-0.0500901 -0.274382 1.10744
-0.0486459 -0.274732 1.1078
-0.0471883 -0.275038 1.108
-0.0457365 -0.275367 1.10828
-0.044303 -0.275766 1.10882
-0.0429006 -0.276293 1.10981
-0.0415126 -0.276888 1.11106
-0.0401696 -0.277684 1.11303
-0.0388278 -0.278512 1.11511
-0.037468 -0.279294 1.11702
-0.0360727 -0.279947 1.11846
-0.034647 -0.280484 1.11948
-0.0331901 -0.28089 1.12003
-0.0317163 -0.281223 1.12031
-0.0302374 -0.281532 1.1205
-0.028758 -0.281842 1.1207
-0.0272597 -0.282053 1.12054
-0.0257649 -0.282277 1.12043
-0.0242879 -0.282598 1.12067
-0.0228013 -0.282866 1.12072
-0.0213119 -0.283116 1.1207
-0.0198155 -0.283317 1.12051
-0.018313 -0.283472 1.12016
-0.0167986 -0.283532 1.11946
-0.0152993 -0.283682 1.11909
-0.0138069 -0.283872 1.11887
-0.0123246 -0.284134 1.1189
-0.0108443 -0.284411 1.11898
-0.00936433 -0.284689 1.11906
-0.00788247 -0.284949 1.11909
-0.00639837 -0.285184 1.11902
-0.00492511 -0.285529 1.11935
-0.00344361 -0.285788 1.11937
-0.00196678 -0.286101 1.11958
-0.000488116 -0.286395 1.11972
0.000984634 -0.286775 1.12017
0.00246287 -0.287088 1.12038
0.0039346 -0.287522 1.12101
0.00541015 -0.287915 1.1215
0.00688399 -0.288379 1.12223
0.00835961 -0.288843 1.12297
0.00983562 -0.289384 1.12398
0.0113125 -0.289971 1.12514
0.0127898 -0.290729 1.1269
0.014271 -0.291612 1.12908
0.0157587 -0.292567 1.13152
0.0172549 -0.293491 1.13384
0.0187573 -0.294438 1.13625
0.0202673 -0.295198 1.13799
0.0217806 -0.295817 1.13924
0.023294 -0.296291 1.13999
0.0248093 -0.296704 1.14053
0.0263201 -0.296968 1.14055
0.02783 -0.297201 1.14046
0.02934 -0.297455 1.14044
0.0308503 -0.297706 1.14042
0.0323637 -0.298045 1.1407
0.0338791 -0.298397 1.14102
0.0354072 -0.298917 1.14192
0.0369368 -0.299441 1.14283
0.0384791 -0.300076 1.14413
0.0400206 -0.300662 1.14524
0.0415709 -0.301302 1.14655
0.0431186 -0.301885 1.14766
0.0446706 -0.302467 1.14876
0.0462195 -0.302991 1.14966
0.0477739 -0.303542 1.15065
0.0493257 -0.304042 1.15147
0.0508725 -0.304489 1.1521
0.0524167 -0.304899 1.15261
0.0539692 -0.305358 1.15328
0.0555088 -0.305717 1.15362
-0.187816 -0.285439 1.23417
-0.186002 -0.285621 1.23372
-0.1841 -0.285694 1.23284
-0.182184 -0.285745 1.23187
-0.180224 -0.285736 1.23066
-0.178243 -0.285694 1.22933
-0.176312 -0.285709 1.22823
-0.174389 -0.285727 1.22714
-0.172563 -0.285865 1.22652
-0.170811 -0.286094 1.22627
-0.16909 -0.286361 1.22618
-0.167324 -0.286569 1.22585
-0.165627 -0.286866 1.22587
-0.163981 -0.287233 1.22617
-0.162347 -0.287616 1.22653
-0.136629 -0.266696 1.13789
-0.134816 -0.266563 1.13634
-0.133043 -0.266479 1.13499
-0.131201 -0.266285 1.1332
-0.12934 -0.266049 1.13126
-0.127537 -0.265891 1.12963
-0.125743 -0.265737 1.12802
-0.123954 -0.265579 1.12639
-0.122183 -0.26544 1.12484
-0.120392 -0.265257 1.12313
-0.11865 -0.265144 1.12169
-0.116929 -0.265058 1.12036
-0.115218 -0.264976 1.11905
-0.113536 -0.264937 1.1179
-0.111886 -0.264944 1.11694
-0.110245 -0.264959 1.11601
-0.108637 -0.265026 1.11528
-0.107071 -0.265163 1.11482
-0.10552 -0.265322 1.11445
-0.103998 -0.265532 1.11427
-0.102465 -0.265721 1.11401
-0.100934 -0.265908 1.11375
-0.0993765 -0.266044 1.1133
-0.0978304 -0.266198 1.11291
-0.0962874 -0.266354 1.11253
-0.0947737 -0.266564 1.11236
-0.0932748 -0.266803 1.1123
-0.0918088 -0.267109 1.11249
-0.0903313 -0.26739 1.11259
-0.0888538 -0.267672 1.11269
-0.0873876 -0.267979 1.11288
-0.0859007 -0.26824 1.11291
-0.0844131 -0.2685 1.11293
-0.0829017 -0.268705 1.11274
-0.0813903 -0.268908 1.11254
-0.0798513 -0.269044 1.1121
-0.0782749 -0.269086 1.1113
-0.076667 -0.269044 1.11019
-0.0750769 -0.269035 1.10921
-0.073494 -0.269034 1.10825
-0.0719315 -0.269075 1.10746
-0.0704279 -0.269259 1.1072
-0.0689432 -0.269489 1.10712
-0.0674591 -0.26972 1.10704
-0.0659682 -0.269929 1.10688
-0.0644863 -0.270162 1.1068
-0.0629971 -0.270372 1.10665
-0.0615156 -0.270601 1.10656
-0.0600351 -0.270831 1.10648
-0.0585628 -0.271085 1.10649
-0.0570995 -0.271364 1.10659
-0.0556515 -0.271691 1.10686
-0.0542038 -0.272022 1.10715
-0.0527553 -0.272352 1.10744
-0.0513052 -0.272679 1.10772
-0.0498471 -0.27298 1.1079
-0.0484025 -0.27333 1.10826
-0.0469455 -0.27364 1.10847
-0.0455016 -0.273998 1.10886
-0.0440735 -0.27442 1.10948
-0.0426765 -0.274969 1.11056
-0.0412865 -0.275559 1.1118
-0.039942 -0.276351 1.11377
-0.0385991 -0.277177 1.11585
-0.0372381 -0.277957 1.11777
-0.0358415 -0.278608 1.11921
-0.0344095 -0.27912 1.12014
-0.0329467 -0.279501 1.1206
-0.0314668 -0.279806 1.12078
-0.0299824 -0.28009 1.12089
-0.0284937 -0.280352 1.12091
-0.0269948 -0.280558 1.12074
-0.0255043 -0.280805 1.12071
-0.0240274 -0.281128 1.12095
-0.0225457 -0.281424 1.1211
-0.0210639 -0.281722 1.12126
-0.0195715 -0.281952 1.12117
-0.0180736 -0.282142 1.12093
-0.0165664 -0.282258 1.12044
-0.0150709 -0.282444 1.12019
-0.0135802 -0.282659 1.12005
-0.0120991 -0.282941 1.12015
-0.0106141 -0.283192 1.12014
-0.00912954 -0.283444 1.12013
-0.00764068 -0.283651 1.11997
-0.00615524 -0.283882 1.11988
-0.00467912 -0.284208 1.12014
-0.00319904 -0.284493 1.12025
-0.00172516 -0.284855 1.12063
-0.000248589 -0.285194 1.12094
0.00122574 -0.285576 1.12139
0.00270421 -0.285911 1.12168
0.00417491 -0.286395 1.12249
0.00564977 -0.286848 1.12319
0.00711972 -0.287452 1.12443
0.00859228 -0.288088 1.12577
0.0100665 -0.288804 1.12739
0.0115457 -0.28954 1.12908
0.0130283 -0.290399 1.1312
0.014516 -0.291294 1.13344
0.0160116 -0.292196 1.13571
0.0175154 -0.29301 1.13766
0.0190237 -0.293702 1.13917
0.0205367 -0.294253 1.1402
0.022051 -0.294695 1.14084
0.0235634 -0.295013 1.14104
0.0250771 -0.295329 1.14124
0.0265906 -0.295617 1.14135
0.0281004 -0.295851 1.14126
0.0296119 -0.296107 1.14125
0.0311224 -0.296359 1.14123
0.0326363 -0.296674 1.14142
0.03415 -0.296996 1.14164
0.0356777 -0.297506 1.14251
0.0372067 -0.297999 1.14332
0.0387491 -0.29863 1.14461
0.0402914 -0.299215 1.14573
0.0418415 -0.299852 1.14703
0.0433907 -0.300433 1.14814
0.044943 -0.301013 1.14924
0.0464932 -0.30154 1.15015
0.0480512 -0.302119 1.15125
0.0496067 -0.302648 1.15217
0.0511552 -0.303093 1.1528
0.0527036 -0.303527 1.15339
0.054268 -0.304067 1.15434
0.0558105 -0.304437 1.15471
-0.189553 -0.283833 1.23598
-0.187716 -0.283994 1.23544
-0.185906 -0.284185 1.23502
-0.18401 -0.284268 1.23417
-0.182063 -0.284285 1.23306
-0.180075 -0.284247 1.23172
-0.178088 -0.284201 1.23036
-0.176111 -0.284162 1.22903
-0.174186 -0.28418 1.22793
-0.17234 -0.284293 1.22722
-0.170566 -0.284495 1.22686
-0.168844 -0.284763 1.22677
-0.167099 -0.284999 1.22654
-0.165414 -0.285313 1.22663
-0.163806 -0.285732 1.22714
-0.162208 -0.286166 1.2277
-0.159239 -0.284715 1.2208
-0.138998 -0.266491 1.14438
-0.136943 -0.266031 1.14152
-0.134993 -0.265709 1.13921
-0.133127 -0.265497 1.13733
-0.131213 -0.265202 1.13514
-0.129317 -0.264921 1.13301
-0.127513 -0.264768 1.13138
-0.125717 -0.264616 1.12976
-0.123925 -0.26446 1.12813
-0.122164 -0.264344 1.12666
-0.120369 -0.264163 1.12494
-0.11864 -0.264078 1.12359
-0.116921 -0.263999 1.12228
-0.11522 -0.263944 1.12106
-0.113523 -0.263884 1.11982
-0.111855 -0.263868 1.11876
-0.110183 -0.263835 1.11763
-0.108554 -0.263871 1.11678
-0.106972 -0.263983 1.11622
-0.10542 -0.264146 1.11586
-0.103897 -0.264359 1.11569
-0.102364 -0.26455 1.11543
-0.100829 -0.264736 1.11516
-0.0992684 -0.26487 1.11469
-0.0977215 -0.265026 1.11431
-0.09619 -0.26521 1.11403
-0.0946856 -0.265444 1.11395
-0.0931951 -0.265704 1.11397
-0.0917258 -0.266008 1.11415
-0.0902459 -0.266291 1.11425
-0.0887661 -0.266573 1.11436
-0.0872869 -0.266857 1.11446
-0.0857873 -0.267097 1.1144
-0.0842869 -0.267333 1.11433
-0.0827647 -0.267519 1.11407
-0.0812416 -0.267699 1.11378
-0.0796995 -0.267832 1.11332
-0.0781201 -0.267873 1.11251
-0.076511 -0.267833 1.1114
-0.074919 -0.267825 1.11041
-0.0733359 -0.267828 1.10947
-0.0717634 -0.267849 1.10859
-0.070249 -0.26801 1.10824
-0.0687518 -0.268212 1.10805
-0.0672564 -0.268415 1.10787
-0.065755 -0.268599 1.10761
-0.0642715 -0.26883 1.10753
-0.0627816 -0.26904 1.10737
-0.0613003 -0.269273 1.10729
-0.0598202 -0.269506 1.10722
-0.058348 -0.269762 1.10724
-0.0568838 -0.270041 1.10734
-0.0554272 -0.270344 1.10753
-0.0539704 -0.270648 1.10772
-0.0525131 -0.270951 1.1079
-0.0510617 -0.271274 1.10817
-0.0496038 -0.271578 1.10836
-0.0481663 -0.271954 1.10881
-0.0467163 -0.272289 1.10912
-0.0452847 -0.272695 1.10969
-0.0438567 -0.27312 1.11032
-0.0424592 -0.27367 1.11142
-0.0410677 -0.274259 1.11265
-0.0397214 -0.275047 1.11461
-0.0383712 -0.275846 1.11662
-0.0370084 -0.27662 1.11852
-0.0356048 -0.277243 1.11987
-0.0341711 -0.27775 1.12079
-0.0327021 -0.278105 1.12115
-0.0312169 -0.278387 1.12125
-0.0297272 -0.278647 1.12127
-0.0282377 -0.278906 1.12128
-0.0267343 -0.279088 1.12102
-0.025244 -0.279337 1.12099
-0.0237632 -0.279637 1.12116
-0.0222853 -0.279955 1.12139
-0.0208077 -0.280278 1.12163
-0.019324 -0.280565 1.12175
-0.0178342 -0.280813 1.12172
-0.0163384 -0.281013 1.12152
-0.0148447 -0.281223 1.12136
-0.0133558 -0.281462 1.12131
-0.0118727 -0.281743 1.1214
-0.0103859 -0.281993 1.12138
-0.00889952 -0.282242 1.12137
-0.00740892 -0.282448 1.12119
-0.00592406 -0.282703 1.12119
-0.00444664 -0.283032 1.12146
-0.00296709 -0.283344 1.12167
-0.00149165 -0.283712 1.12207
-1.46754e-05 -0.284072 1.12245
0.00146178 -0.284457 1.12292
0.00293947 -0.28484 1.12337
0.00440926 -0.285385 1.12441
0.00588149 -0.285948 1.1255
0.00734984 -0.286675 1.12718
0.00882265 -0.287434 1.12896
0.0102979 -0.288274 1.13103
0.0117812 -0.289102 1.13306
0.0132696 -0.289994 1.1353
0.0147656 -0.290832 1.13735
0.016269 -0.291558 1.139
0.0177788 -0.292164 1.14022
0.0192906 -0.292654 1.14104
0.0208044 -0.293018 1.14141
0.0223177 -0.293334 1.14161
0.0238314 -0.29365 1.1418
0.0253458 -0.293964 1.142
0.0268593 -0.294252 1.1421
0.0283709 -0.294489 1.14202
0.0298827 -0.294748 1.14202
0.0313942 -0.295008 1.14203
0.032908 -0.295296 1.14213
0.0344222 -0.295615 1.14234
0.0359485 -0.296093 1.1431
0.0374783 -0.296581 1.1439
0.0390195 -0.297185 1.14509
0.0405643 -0.297792 1.1463
0.0421154 -0.298426 1.1476
0.0436653 -0.299004 1.1487
0.0452156 -0.299554 1.1497
0.0467687 -0.300107 1.15072
0.0483249 -0.300663 1.15173
0.049879 -0.301169 1.15258
0.0514274 -0.301611 1.1532
0.0529788 -0.302067 1.15387
0.054849 -0.304803 1.16238
-0.189478 -0.282413 1.23737
-0.18766 -0.2826 1.23693
-0.185857 -0.282801 1.23655
-0.18396 -0.282889 1.23571
-0.181988 -0.282879 1.23447
-0.17997 -0.282808 1.23299
-0.177957 -0.282735 1.23151
-0.175932 -0.28264 1.22994
-0.173983 -0.282631 1.22873
-0.172133 -0.282741 1.22799
-0.170338 -0.282919 1.22754
-0.168614 -0.283185 1.22743
-0.166891 -0.283451 1.22733
-0.165227 -0.283795 1.22754
-0.163613 -0.284205 1.22801
-0.1615 -0.283943 1.22579
-0.139335 -0.265839 1.14813
-0.137229 -0.265319 1.145
-0.135192 -0.264881 1.14221
-0.133236 -0.264546 1.13984
-0.131251 -0.264154 1.13724
-0.129315 -0.263821 1.13488
-0.127488 -0.263638 1.13312
-0.125659 -0.263443 1.13132
-0.123863 -0.263287 1.12967
-0.122113 -0.263194 1.12828
-0.120317 -0.263017 1.12656
-0.118587 -0.262936 1.12522
-0.116892 -0.262904 1.12408
-0.115192 -0.262856 1.12287
-0.113495 -0.262803 1.12165
-0.111824 -0.262787 1.12058
-0.110144 -0.262748 1.11942
-0.1085 -0.262763 1.11848
-0.106913 -0.262872 1.1179
-0.105347 -0.263015 1.11746
-0.103809 -0.263206 1.1172
-0.102273 -0.263395 1.11693
-0.100722 -0.263557 1.11657
-0.0991611 -0.263694 1.1161
-0.0976231 -0.263873 1.1158
-0.0961023 -0.264082 1.11562
-0.0945865 -0.264298 1.11546
-0.0930938 -0.264559 1.11548
-0.0916108 -0.26484 1.11558
-0.0901177 -0.265099 1.11559
-0.0886257 -0.26536 1.11561
-0.0871434 -0.265641 1.1157
-0.0856406 -0.265878 1.11563
-0.0841367 -0.26611 1.11554
-0.082612 -0.266295 1.11527
-0.0810871 -0.266475 1.11498
-0.0795441 -0.266611 1.11452
-0.0779546 -0.266632 1.11363
-0.0763444 -0.266595 1.11252
-0.0747529 -0.266593 1.11155
-0.0731602 -0.266578 1.11052
-0.0715783 -0.266579 1.10957
-0.0700618 -0.266738 1.10921
-0.0685545 -0.266917 1.10893
-0.0670489 -0.267097 1.10865
-0.0655366 -0.267254 1.10829
-0.0640426 -0.267458 1.1081
-0.06255 -0.267662 1.10792
-0.061075 -0.267914 1.10792
-0.0595951 -0.26815 1.10786
-0.0581376 -0.268452 1.10804
-0.05668 -0.268755 1.10823
-0.0552221 -0.269057 1.10841
-0.0537573 -0.269338 1.10852
-0.0522986 -0.269639 1.1087
-0.0508468 -0.269965 1.10897
-0.0493892 -0.270272 1.10918
-0.0479577 -0.270672 1.10972
-0.0465138 -0.271033 1.11013
-0.0450934 -0.271484 1.11086
-0.0436657 -0.271917 1.11153
-0.0422724 -0.272489 1.11271
-0.0408797 -0.273079 1.11396
-0.0395253 -0.27384 1.11583
-0.0381561 -0.274566 1.11757
-0.0367798 -0.275287 1.1193
-0.0353625 -0.275854 1.12044
-0.0339173 -0.27631 1.12118
-0.0324424 -0.276639 1.12145
-0.0309571 -0.27692 1.12155
-0.0294671 -0.277179 1.12156
-0.0279775 -0.277437 1.12157
-0.0264786 -0.277644 1.12139
-0.0249924 -0.277916 1.12145
-0.0235159 -0.278243 1.12171
-0.022042 -0.278587 1.12204
-0.0205714 -0.278957 1.12246
-0.0190948 -0.279296 1.12276
-0.0176085 -0.279574 1.12284
-0.016112 -0.279781 1.12267
-0.0146196 -0.280011 1.12258
-0.0131257 -0.280224 1.12242
-0.0116411 -0.280504 1.12252
-0.0101536 -0.280761 1.12252
-0.00866908 -0.281039 1.12261
-0.00717707 -0.281247 1.12244
-0.00569762 -0.281572 1.12269
-0.0042183 -0.281905 1.12297
-0.00273938 -0.28225 1.12329
-0.00126362 -0.282643 1.12379
0.000213935 -0.28303 1.12427
0.00169274 -0.283418 1.12474
0.00316987 -0.283855 1.1254
0.0046383 -0.284482 1.12673
0.00610875 -0.285155 1.12822
0.00757681 -0.285995 1.1303
0.00905191 -0.286839 1.1324
0.0105312 -0.287755 1.13475
0.01202 -0.28859 1.13681
0.013517 -0.28937 1.13866
0.0150206 -0.290034 1.1401
0.0165304 -0.290581 1.14113
0.0180433 -0.290996 1.14168
0.0195569 -0.291312 1.14188
0.0210704 -0.2916 1.14198
0.0225839 -0.291889 1.14208
0.0240975 -0.292178 1.14219
0.025611 -0.292467 1.14229
0.0271245 -0.292756 1.1424
0.0286372 -0.293019 1.14241
0.0301505 -0.293306 1.14251
0.0316644 -0.293594 1.14261
0.0331794 -0.293909 1.14281
0.034696 -0.294254 1.14311
0.036222 -0.294705 1.14378
0.0377525 -0.295193 1.14458
0.0392941 -0.295795 1.14578
0.0408409 -0.296403 1.147
0.0423929 -0.297036 1.1483
0.0439432 -0.297612 1.1494
0.0454911 -0.298131 1.1503
0.047045 -0.298679 1.15129
0.0485988 -0.299205 1.15222
0.0501502 -0.299685 1.15297
0.0516981 -0.300126 1.1536
0.0532541 -0.300607 1.15436
0.0567569 -0.307607 1.17111
0.0554577 -0.305676 1.17099
-0.188727 -0.282515 1.2438
-0.185733 -0.281326 1.23772
-0.183841 -0.281423 1.23691
-0.181871 -0.28142 1.23569
-0.179826 -0.28132 1.23408
-0.177787 -0.28122 1.23248
-0.175734 -0.281093 1.23077
-0.173763 -0.28106 1.22944
-0.171887 -0.28114 1.22858
-0.170088 -0.281312 1.22809
-0.16832 -0.281522 1.22776
-0.166576 -0.281762 1.22755
-0.164914 -0.282108 1.22776
-0.163298 -0.282515 1.22823
-0.160674 -0.281566 1.22324
-0.139477 -0.264899 1.15077
-0.137411 -0.264448 1.1479
-0.135357 -0.263997 1.14503
-0.13338 -0.263641 1.14255
-0.131339 -0.263176 1.13964
-0.129348 -0.262769 1.13697
-0.127466 -0.262511 1.1349
-0.125613 -0.262285 1.13295
-0.123786 -0.262087 1.13113
-0.122036 -0.261998 1.12974
-0.120252 -0.261848 1.12811
-0.118533 -0.26179 1.12685
-0.116837 -0.261761 1.12571
-0.11516 -0.261758 1.12467
-0.113462 -0.261709 1.12346
-0.111791 -0.2617 1.1224
-0.110109 -0.261664 1.12124
-0.10846 -0.261677 1.12028
-0.106871 -0.261789 1.11971
-0.105304 -0.261934 1.11927
-0.103762 -0.262124 1.119
-0.102209 -0.262289 1.11864
-0.100641 -0.262423 1.11816
-0.0990639 -0.262536 1.11759
-0.0975258 -0.262718 1.1173
-0.0960056 -0.262933 1.11714
-0.0944888 -0.263153 1.117
-0.0929931 -0.263413 1.11701
-0.0914955 -0.263668 1.117
-0.0899879 -0.263902 1.11691
-0.088483 -0.26414 1.11684
-0.0869886 -0.264399 1.11685
-0.0854823 -0.264632 1.11676
-0.0839641 -0.264837 1.11656
-0.0824271 -0.264997 1.11619
-0.0808916 -0.265157 1.11582
-0.0793583 -0.265318 1.11546
-0.0777696 -0.265345 1.11458
-0.0761772 -0.265354 1.11364
-0.0745945 -0.265378 1.11276
-0.0730098 -0.265388 1.11182
-0.0714261 -0.26539 1.11086
-0.0698983 -0.265526 1.11041
-0.0683715 -0.265658 1.10995
-0.0668561 -0.265816 1.10958
-0.065335 -0.265954 1.10914
-0.0638314 -0.266134 1.10887
-0.0623358 -0.266332 1.10866
-0.060867 -0.266604 1.10873
-0.0593861 -0.266841 1.10867
-0.0579288 -0.267146 1.10887
-0.0564706 -0.26745 1.10906
-0.055019 -0.267774 1.10933
-0.0535538 -0.268058 1.10944
-0.052102 -0.268385 1.10972
-0.0506568 -0.268737 1.11009
-0.0492049 -0.269068 1.11039
-0.0477726 -0.269472 1.11095
-0.0463336 -0.269856 1.11144
-0.0449177 -0.27033 1.11226
-0.0434949 -0.270787 1.11302
-0.0421008 -0.271364 1.11423
-0.0406994 -0.271928 1.11538
-0.03933 -0.272636 1.11707
-0.0379397 -0.273281 1.11852
-0.0365447 -0.273927 1.11998
-0.0351147 -0.27444 1.12093
-0.0336634 -0.274871 1.12158
-0.0321826 -0.275173 1.12175
-0.0306969 -0.275452 1.12184
-0.029207 -0.275711 1.12185
-0.0277175 -0.27597 1.12186
-0.0262236 -0.276203 1.12178
-0.0247424 -0.276503 1.12194
-0.0232664 -0.276835 1.12222
-0.0217958 -0.277201 1.12263
-0.0203286 -0.277596 1.12314
-0.0188591 -0.277984 1.12363
-0.0173725 -0.278268 1.12373
-0.0158809 -0.278517 1.12371
-0.0143901 -0.278767 1.12369
-0.0128974 -0.279 1.12361
-0.011409 -0.279263 1.12363
-0.00992619 -0.279571 1.12382
-0.00844324 -0.27988 1.12402
-0.00694994 -0.280094 1.12387
-0.00547127 -0.280448 1.12423
-0.00399211 -0.280806 1.1246
-0.00251331 -0.281179 1.12502
-0.00103725 -0.2816 1.12562
0.000439288 -0.282039 1.12629
0.00191794 -0.282475 1.12694
0.00339346 -0.282994 1.12789
0.00486423 -0.283652 1.12934
0.00633624 -0.284382 1.13104
0.00780721 -0.285266 1.13329
0.00928643 -0.286124 1.13545
0.0107734 -0.286979 1.13759
0.0122704 -0.287677 1.13917
0.0137735 -0.288292 1.14044
0.0152831 -0.288791 1.1413
0.0167949 -0.289186 1.14178
0.0183086 -0.289502 1.14198
0.0198221 -0.289815 1.14217
0.0213356 -0.290104 1.14228
0.0228491 -0.290392 1.14238
0.0243627 -0.290681 1.14249
0.0258762 -0.29097 1.14259
0.0273897 -0.291259 1.14269
0.0289032 -0.291548 1.1428
0.0304168 -0.291836 1.1429
0.0319322 -0.29215 1.14309
0.0334497 -0.292492 1.14339
0.0349709 -0.292891 1.14388
0.0364981 -0.293348 1.14457
0.0380335 -0.293891 1.14557
0.039577 -0.294492 1.14677
0.0411248 -0.295102 1.148
0.0426744 -0.295683 1.14913
0.0442233 -0.296233 1.15014
0.0457666 -0.296694 1.15084
0.0473164 -0.297206 1.15172
0.0488674 -0.297699 1.15253
0.0504181 -0.298173 1.15327
0.0519661 -0.298613 1.1539
0.0535264 -0.299122 1.15476
-0.186648 -0.281069 1.24392
-0.183677 -0.2799 1.23789
-0.181709 -0.279905 1.23669
-0.17966 -0.279804 1.23506
-0.177613 -0.279697 1.23342
-0.175536 -0.279544 1.23159
-0.173542 -0.279485 1.23014
-0.171643 -0.279538 1.22916
-0.16984 -0.279709 1.22867
-0.168045 -0.279885 1.22819
-0.166278 -0.280095 1.22786
-0.164613 -0.280436 1.22806
-0.162994 -0.28084 1.22851
-0.160319 -0.279829 1.22322
-0.139591 -0.263915 1.15327
-0.137554 -0.263515 1.15058
-0.135506 -0.263082 1.14776
-0.13349 -0.262681 1.14507
-0.131397 -0.262148 1.14187
-0.129367 -0.261691 1.13898
-0.127429 -0.261356 1.13658
-0.12554 -0.261082 1.13443
-0.123694 -0.260861 1.1325
-0.121944 -0.260777 1.13111
-0.120175 -0.260655 1.12959
-0.118454 -0.2606 1.12833
-0.116754 -0.26057 1.12717
-0.115074 -0.260567 1.12612
-0.113387 -0.260543 1.125
-0.111715 -0.260537 1.12395
-0.110048 -0.260531 1.1229
-0.108411 -0.260571 1.12203
-0.106821 -0.260687 1.12147
-0.105239 -0.260811 1.12094
-0.103682 -0.260978 1.12057
-0.102121 -0.261135 1.12018
-0.100539 -0.261248 1.11961
-0.0989481 -0.261339 1.11895
-0.0974181 -0.261542 1.11874
-0.0958964 -0.261758 1.11858
-0.0943682 -0.26196 1.11836
-0.0928691 -0.262217 1.11836
-0.0913658 -0.262465 1.11832
-0.0898338 -0.262653 1.11805
-0.0883153 -0.262866 1.11788
-0.0868087 -0.263102 1.1178
-0.0852909 -0.263313 1.11762
-0.0837621 -0.263497 1.11734
-0.0822327 -0.263677 1.11704
-0.080706 -0.26386 1.11676
-0.079173 -0.264025 1.11641
-0.077593 -0.264076 1.11561
-0.0760106 -0.264113 1.11477
-0.0744263 -0.264138 1.11388
-0.072832 -0.264129 1.11287
-0.071254 -0.26415 1.11197
-0.0697229 -0.264281 1.1115
-0.0681948 -0.264415 1.11104
-0.0666787 -0.264575 1.11068
-0.0651649 -0.264737 1.11032
-0.0636601 -0.264918 1.11005
-0.0621638 -0.26512 1.10985
-0.0606942 -0.265394 1.10993
-0.0592123 -0.265633 1.10987
-0.0577545 -0.265942 1.11008
-0.0562943 -0.266244 1.11027
-0.0548421 -0.266572 1.11055
-0.0533828 -0.26688 1.11076
-0.0519377 -0.267235 1.11114
-0.0504984 -0.267612 1.11161
-0.0490515 -0.267969 1.112
-0.0476169 -0.268371 1.11256
-0.0461804 -0.268773 1.11312
-0.0447636 -0.269252 1.11396
-0.0433389 -0.269712 1.11474
-0.0419367 -0.270267 1.11587
-0.0405252 -0.2708 1.11691
-0.0391342 -0.271429 1.11832
-0.0377233 -0.271996 1.11948
-0.0363078 -0.272558 1.12063
-0.0348653 -0.273019 1.12139
-0.0334073 -0.273421 1.12194
-0.0319221 -0.273703 1.12204
-0.0304367 -0.273984 1.12213
-0.0289514 -0.274265 1.12222
-0.0274668 -0.27455 1.12233
-0.0259821 -0.274834 1.12244
-0.0245057 -0.275164 1.12271
-0.0230336 -0.275522 1.12309
-0.0215621 -0.27589 1.1235
-0.0200976 -0.276308 1.1241
-0.0186268 -0.276696 1.12459
-0.0171395 -0.276982 1.1247
-0.0156472 -0.277233 1.12468
-0.0141546 -0.27748 1.12465
-0.0126606 -0.277712 1.12456
-0.0111743 -0.278001 1.12468
-0.00969615 -0.278361 1.12506
-0.00821774 -0.278726 1.12546
-0.00673039 -0.279016 1.12559
-0.00525411 -0.279421 1.12613
-0.00377235 -0.27978 1.12651
-0.00229488 -0.280203 1.12712
-0.000817476 -0.280648 1.1278
0.000658495 -0.281141 1.12867
0.00213717 -0.281633 1.12952
0.00361206 -0.282231 1.13076
0.00508868 -0.282869 1.13214
0.00656542 -0.283595 1.13384
0.00804475 -0.284393 1.13579
0.00953534 -0.285066 1.13729
0.011029 -0.285775 1.13892
0.0125305 -0.286385 1.14018
0.0140369 -0.286896 1.14109
0.0155473 -0.287324 1.1417
0.0170603 -0.28774 1.14226
0.0185738 -0.288029 1.14236
0.0200873 -0.288318 1.14247
0.0216008 -0.288607 1.14257
0.0231144 -0.288896 1.14268
0.0246279 -0.289184 1.14278
0.0261414 -0.289473 1.14289
0.0276549 -0.289762 1.14299
0.0291685 -0.290051 1.14309
0.0306839 -0.290364 1.14329
0.0322005 -0.290706 1.14358
0.0337209 -0.291104 1.14407
0.0352474 -0.291562 1.14477
0.0367784 -0.292052 1.14559
0.0383159 -0.292596 1.1466
0.0398606 -0.293194 1.14779
0.0414077 -0.293775 1.14892
0.0429563 -0.29433 1.14997
0.0445036 -0.294849 1.15087
0.0460463 -0.295305 1.15156
0.0475942 -0.295782 1.15232
0.0491418 -0.296245 1.15303
0.0506897 -0.296689 1.15367
0.0525327 -0.299338 1.16205
-0.186633 -0.27971 1.24563
-0.183415 -0.278263 1.2384
-0.181474 -0.2783 1.23733
-0.179442 -0.278223 1.23579
-0.177411 -0.278139 1.23422
-0.175331 -0.277986 1.23238
-0.173317 -0.277906 1.23084
-0.171399 -0.277938 1.22976
-0.169592 -0.278103 1.22924
-0.167752 -0.278224 1.22853
-0.165938 -0.278375 1.22795
-0.164267 -0.278707 1.22811
-0.162647 -0.279108 1.22856
-0.160034 -0.278186 1.2236
-0.139671 -0.262876 1.15558
-0.137665 -0.26253 1.15308
-0.135612 -0.262101 1.15026
-0.133545 -0.261634 1.14728
-0.131415 -0.261058 1.14388
-0.12935 -0.260556 1.14078
-0.127375 -0.260173 1.13817
-0.125479 -0.259895 1.13598
-0.12363 -0.259675 1.13404
-0.12188 -0.259597 1.13267
-0.120123 -0.2595 1.13123
-0.118415 -0.259472 1.13007
-0.116699 -0.259421 1.12882
-0.115001 -0.259394 1.12767
-0.113309 -0.259368 1.12652
-0.111637 -0.259366 1.12547
-0.109969 -0.259366 1.12443
-0.108346 -0.259434 1.12367
-0.106767 -0.259574 1.1232
-0.10518 -0.259696 1.12265
-0.103609 -0.259843 1.12221
-0.102034 -0.259978 1.12172
-0.100448 -0.26009 1.12114
-0.0988523 -0.260178 1.12047
-0.0973223 -0.260385 1.12026
-0.095809 -0.260622 1.12018
-0.0942765 -0.260821 1.11995
-0.0927626 -0.261054 1.11985
-0.0912448 -0.261277 1.11971
-0.0896877 -0.261418 1.11926
-0.0881451 -0.261585 1.1189
-0.0866255 -0.261797 1.11873
-0.0850962 -0.261986 1.11846
-0.0835578 -0.262152 1.1181
-0.0820394 -0.262359 1.11791
-0.0805217 -0.262564 1.11771
-0.0789883 -0.262731 1.11736
-0.0774073 -0.262784 1.11657
-0.0758324 -0.262843 1.1158
-0.0742482 -0.262872 1.11492
-0.0726447 -0.262845 1.11383
-0.0710647 -0.262865 1.11292
-0.069532 -0.262996 1.11244
-0.0680023 -0.263129 1.11197
-0.0664849 -0.26329 1.11161
-0.0649798 -0.263478 1.11136
-0.0634834 -0.263687 1.11118
-0.0619956 -0.263917 1.11109
-0.0605333 -0.264217 1.11127
-0.0590586 -0.264482 1.11131
-0.0576067 -0.264814 1.11161
-0.0561515 -0.265138 1.11188
-0.0547031 -0.265486 1.11223
-0.0532419 -0.265795 1.11245
-0.0517959 -0.266155 1.11285
-0.0503547 -0.266535 1.11333
-0.0489118 -0.266913 1.1138
-0.0474741 -0.267314 1.11435
-0.0460356 -0.267718 1.11492
-0.0446157 -0.268196 1.11577
-0.0431825 -0.268633 1.11646
-0.0417592 -0.269117 1.11733
-0.0403262 -0.269574 1.11809
-0.0389073 -0.270097 1.1191
-0.0374704 -0.270559 1.11987
-0.036042 -0.271067 1.12082
-0.0345937 -0.271501 1.1215
-0.0331361 -0.271903 1.12204
-0.0316614 -0.272232 1.12232
-0.0301859 -0.27256 1.12259
-0.028706 -0.27287 1.12279
-0.0272306 -0.273204 1.12308
-0.0257545 -0.273539 1.12337
-0.024282 -0.273897 1.12375
-0.0228132 -0.274282 1.12423
-0.0213442 -0.274672 1.12473
-0.0198774 -0.275086 1.12532
-0.0184052 -0.275475 1.12581
-0.0169164 -0.275763 1.12593
-0.0154229 -0.276018 1.12592
-0.0139293 -0.276269 1.1259
-0.0124339 -0.276504 1.12582
-0.0109487 -0.276815 1.12602
-0.00947214 -0.277204 1.12651
-0.00799457 -0.277596 1.12701
-0.00651069 -0.27794 1.12733
-0.00503673 -0.278394 1.12806
-0.00355429 -0.27878 1.12854
-0.00207779 -0.279249 1.12932
-0.000599275 -0.279724 1.13011
0.000878202 -0.280246 1.13108
0.00235872 -0.280768 1.13205
0.00383599 -0.281394 1.1334
0.00531956 -0.281984 1.13461
0.00680321 -0.28265 1.1361
0.00829127 -0.283331 1.13764
0.00978884 -0.283864 1.13863
0.0112899 -0.284414 1.13969
0.0127947 -0.284917 1.14057
0.0143026 -0.285348 1.1412
0.0158138 -0.285726 1.14162
0.0173259 -0.286117 1.1421
0.0188385 -0.286406 1.1422
0.0203511 -0.286718 1.14239
0.0218649 -0.287033 1.14259
0.0233783 -0.287349 1.14279
0.0248922 -0.287663 1.14299
0.0264066 -0.287977 1.14318
0.0279201 -0.288265 1.14329
0.0294337 -0.288554 1.14339
0.0309493 -0.288869 1.14359
0.0324672 -0.289239 1.14398
0.033991 -0.289669 1.14459
0.0355219 -0.290185 1.1455
0.0370555 -0.290704 1.14643
0.0385963 -0.291273 1.14753
0.0401424 -0.291867 1.14872
0.0416908 -0.292439 1.14983
0.0432369 -0.292962 1.15076
0.0447846 -0.293474 1.15165
0.0463283 -0.293927 1.15233
0.0478739 -0.29438 1.153
0.0494227 -0.294842 1.15371
0.0509683 -0.295259 1.15426
0.0544332 -0.30221 1.1712
0.05313 -0.300236 1.17092
-0.184366 -0.278045 1.24484
-0.181184 -0.27663 1.2377
-0.17916 -0.276564 1.23619
-0.177137 -0.276492 1.23466
-0.175079 -0.27637 1.23294
-0.173067 -0.276294 1.2314
-0.171173 -0.276358 1.23045
-0.169346 -0.2765 1.22982
-0.167481 -0.276592 1.22899
-0.16562 -0.276682 1.22815
-0.163906 -0.276959 1.22808
-0.162248 -0.277308 1.22832
-0.159691 -0.276466 1.22365
-0.139721 -0.261791 1.15773
-0.137724 -0.261467 1.1553
-0.135651 -0.261017 1.15237
-0.133563 -0.26053 1.14929
-0.131426 -0.259951 1.14584
-0.129339 -0.259427 1.14263
-0.127332 -0.259004 1.13983
-0.125421 -0.258708 1.13756
-0.123568 -0.258489 1.1356
-0.121801 -0.25839 1.13414
-0.120044 -0.258299 1.13271
-0.118335 -0.258273 1.13154
-0.116629 -0.258246 1.13038
-0.114915 -0.258197 1.12912
-0.113218 -0.258168 1.12796
-0.111542 -0.258166 1.1269
-0.109874 -0.258168 1.12586
-0.108236 -0.258216 1.12501
-0.106654 -0.258356 1.12453
-0.105066 -0.25848 1.12399
-0.103491 -0.258625 1.12353
-0.101927 -0.258785 1.12314
-0.100341 -0.2589 1.12256
-0.098746 -0.258994 1.12191
-0.0972118 -0.259198 1.12169
-0.0956847 -0.259413 1.12152
-0.0941292 -0.25957 1.12112
-0.0926005 -0.259778 1.12091
-0.0910704 -0.25998 1.12069
-0.0895001 -0.260097 1.12014
-0.0879449 -0.260241 1.11969
-0.0864212 -0.260446 1.11948
-0.0848901 -0.260633 1.1192
-0.0833515 -0.260801 1.11885
-0.0818343 -0.261013 1.11867
-0.0803186 -0.261225 1.1185
-0.0787941 -0.261415 1.11823
-0.0772124 -0.261469 1.11744
-0.075635 -0.261526 1.11666
-0.0740497 -0.261556 1.11578
-0.0724451 -0.26153 1.11468
-0.0708659 -0.261556 1.11378
-0.0693407 -0.261709 1.11339
-0.0678193 -0.261867 1.11301
-0.0663026 -0.262033 1.11267
-0.0648046 -0.262244 1.1125
-0.0633076 -0.262456 1.11233
-0.0618198 -0.26269 1.11225
-0.0603645 -0.263015 1.11253
-0.0589043 -0.263327 1.11275
-0.0574579 -0.263682 1.11313
-0.0560093 -0.264032 1.1135
-0.0545652 -0.2644 1.11394
-0.0531081 -0.264731 1.11423
-0.0516589 -0.265089 1.11463
-0.0502156 -0.26547 1.11511
-0.0487704 -0.26585 1.11559
-0.0473295 -0.266249 1.11614
-0.0458824 -0.266632 1.11663
-0.044459 -0.267105 1.11746
-0.043023 -0.267542 1.11815
-0.041589 -0.267994 1.1189
-0.0401458 -0.268419 1.11955
-0.0387057 -0.268865 1.12027
-0.0372541 -0.269272 1.12084
-0.0358073 -0.269707 1.12152
-0.0343528 -0.270117 1.1221
-0.0328907 -0.270501 1.12258
-0.0314212 -0.270857 1.12296
-0.0299462 -0.271191 1.12325
-0.0284756 -0.271549 1.12364
-0.0270047 -0.271912 1.12404
-0.0255331 -0.272276 1.12444
-0.0240641 -0.272661 1.12492
-0.0225977 -0.273068 1.12549
-0.0211226 -0.273433 1.12589
-0.0196501 -0.273821 1.12638
-0.0181794 -0.274229 1.12695
-0.01669 -0.274523 1.12708
-0.0151959 -0.274783 1.1271
-0.0137069 -0.275081 1.12725
-0.0122158 -0.275362 1.12734
-0.010729 -0.275678 1.12756
-0.00925347 -0.276095 1.12815
-0.0077787 -0.276533 1.12883
-0.00629483 -0.276904 1.12925
-0.00482053 -0.277385 1.13008
-0.00333826 -0.277805 1.13068
-0.00186038 -0.278299 1.13155
-0.000380407 -0.278799 1.13245
0.00109885 -0.279347 1.13352
0.00258288 -0.279875 1.13451
0.00406548 -0.280478 1.13578
0.00555572 -0.281013 1.13679
0.00704825 -0.281566 1.13787
0.00854415 -0.282112 1.13892
0.0100477 -0.282532 1.13951
0.0115522 -0.282975 1.14018
0.01306 -0.283395 1.14077
0.0145689 -0.283771 1.14119
0.01608 -0.284118 1.14151
0.017591 -0.284482 1.14189
0.0191027 -0.284771 1.14199
0.0206157 -0.285109 1.14228
0.0221285 -0.285452 1.14258
0.0236423 -0.285798 1.14289
0.025157 -0.286141 1.14319
0.0266718 -0.28648 1.14348
0.0281853 -0.286769 1.14358
0.0296989 -0.287057 1.14369
0.0312142 -0.287373 1.14389
0.0327349 -0.28777 1.14438
0.03426 -0.288229 1.1451
0.0357935 -0.288772 1.14611
0.0373304 -0.28932 1.14715
0.0388721 -0.289884 1.14824
0.0404186 -0.290471 1.1494
0.0419651 -0.291012 1.15041
0.0435118 -0.29153 1.15132
0.0450602 -0.292042 1.15222
0.0466076 -0.292524 1.153
0.0481558 -0.292982 1.1537
0.0497088 -0.293473 1.15452
0.0515424 -0.296086 1.16288
-0.180737 -0.274775 1.23729
-0.178774 -0.274782 1.23609
-0.176796 -0.274765 1.23478
-0.174807 -0.274728 1.23339
-0.172839 -0.274709 1.23208
-0.170968 -0.274804 1.23124
-0.169121 -0.274923 1.23052
-0.167233 -0.274988 1.22956
-0.165325 -0.275021 1.22848
-0.163584 -0.275262 1.22827
-0.161908 -0.275587 1.2284
-0.15986 -0.275422 1.2265
-0.139743 -0.260663 1.15973
-0.137758 -0.260362 1.15738
-0.135693 -0.259933 1.1545
-0.133597 -0.259444 1.15139
-0.131468 -0.258886 1.148
-0.129361 -0.258343 1.14468
-0.127338 -0.257904 1.1418
-0.125394 -0.257566 1.13934
-0.123522 -0.257325 1.13727
-0.121737 -0.257204 1.1357
-0.119976 -0.257113 1.13426
-0.118266 -0.257092 1.1331
-0.11656 -0.257068 1.13194
-0.114843 -0.25702 1.13068
-0.113116 -0.256947 1.12933
-0.111421 -0.256918 1.12815
-0.109736 -0.256897 1.12701
-0.108096 -0.256946 1.12616
-0.106511 -0.257084 1.12566
-0.104934 -0.25723 1.1252
-0.103358 -0.257376 1.12475
-0.101796 -0.257543 1.12437
-0.10022 -0.257681 1.12388
-0.0986363 -0.257801 1.12333
-0.0971021 -0.258009 1.12312
-0.0955731 -0.258225 1.12295
-0.0940125 -0.258378 1.12253
-0.0924708 -0.258564 1.12224
-0.0909269 -0.258742 1.12192
-0.0893445 -0.258839 1.12128
-0.0877765 -0.25896 1.12073
-0.0862395 -0.259141 1.12042
-0.0846955 -0.259304 1.12005
-0.0831454 -0.25945 1.1196
-0.0816275 -0.259662 1.11942
-0.0801117 -0.259876 1.11925
-0.0785874 -0.260069 1.119
-0.0770142 -0.260146 1.11829
-0.0754447 -0.260225 1.11759
-0.0738587 -0.260256 1.1167
-0.0722619 -0.260253 1.11569
-0.0706904 -0.260303 1.11488
-0.0691658 -0.260461 1.1145
-0.0676454 -0.260626 1.11414
-0.0661359 -0.260816 1.11388
-0.0646441 -0.261049 1.1138
-0.0631533 -0.261282 1.11372
-0.0616711 -0.261538 1.11372
-0.0602141 -0.261864 1.11399
-0.0587596 -0.262199 1.1143
-0.0573057 -0.262537 1.11463
-0.055849 -0.26287 1.11493
-0.0543963 -0.263218 1.11529
-0.0529438 -0.263568 1.11566
-0.0514919 -0.263925 1.11605
-0.0500462 -0.264304 1.11653
-0.0486052 -0.264704 1.11708
-0.0471624 -0.265104 1.11764
-0.0457072 -0.265466 1.11805
-0.0442751 -0.265915 1.11879
-0.0428354 -0.266344 1.11946
-0.0413874 -0.26675 1.12003
-0.0399308 -0.267129 1.1205
-0.038477 -0.267524 1.12103
-0.0370176 -0.267902 1.1215
-0.0355641 -0.268311 1.12208
-0.0341098 -0.268724 1.12268
-0.0326531 -0.269134 1.12326
-0.0311934 -0.269538 1.12382
-0.0297228 -0.269898 1.12421
-0.0282569 -0.270286 1.12471
-0.0267897 -0.270675 1.12521
-0.0253208 -0.271062 1.1257
-0.0238542 -0.271469 1.12627
-0.0223863 -0.271877 1.12684
-0.0209093 -0.272243 1.12725
-0.0194346 -0.272629 1.12773
-0.0179616 -0.273034 1.12829
-0.0164667 -0.273303 1.12833
-0.0149742 -0.273588 1.12844
-0.0134842 -0.273891 1.12861
-0.0119946 -0.274198 1.12879
-0.0105061 -0.274517 1.12902
-0.00903073 -0.274954 1.1297
-0.00755675 -0.27542 1.13047
-0.00607797 -0.275863 1.13117
-0.00460389 -0.276377 1.13212
-0.00312506 -0.27687 1.13299
-0.00164606 -0.277393 1.13398
-0.000164097 -0.277917 1.13497
0.00131918 -0.278466 1.13604
0.00280728 -0.278992 1.13703
0.00429717 -0.279541 1.1381
0.00579512 -0.279995 1.13882
0.00729588 -0.280438 1.1395
0.00879955 -0.280852 1.14007
0.0103085 -0.281169 1.14028
0.0118166 -0.281511 1.14058
0.0133248 -0.28187 1.14095
0.0148354 -0.282187 1.14116
0.0163455 -0.282503 1.14136
0.0178557 -0.282841 1.14165
0.0193674 -0.283129 1.14175
0.0208783 -0.28347 1.14205
0.0223915 -0.28384 1.14245
0.0239052 -0.284219 1.14288
0.0254209 -0.284592 1.1433
0.026936 -0.284959 1.14369
0.0284505 -0.285272 1.14388
0.0299641 -0.285561 1.14398
0.0314798 -0.285875 1.14418
0.033001 -0.286294 1.14476
0.0345269 -0.286752 1.14547
0.0360633 -0.28732 1.14658
0.0376028 -0.28789 1.1477
0.0391465 -0.28848 1.14889
0.0406944 -0.289067 1.15007
0.0422438 -0.289631 1.15116
0.0437895 -0.290126 1.152
0.0453397 -0.290641 1.15291
0.0468914 -0.291152 1.1538
0.048441 -0.291617 1.15453
0.0502723 -0.294292 1.16318
-0.180334 -0.272973 1.23711
-0.178425 -0.273044 1.23615
-0.176478 -0.273066 1.235
-0.174529 -0.273079 1.23381
-0.172612 -0.273125 1.23276
-0.170723 -0.2732 1.23184
-0.168857 -0.273297 1.23101
-0.166987 -0.273385 1.23015
-0.165072 -0.273412 1.22903
-0.16331 -0.273627 1.2287
-0.16163 -0.273948 1.22882
-0.160029 -0.274372 1.22937
-0.13973 -0.259481 1.16153
-0.137775 -0.259229 1.15936
-0.135708 -0.258806 1.15649
-0.133594 -0.258299 1.15328
-0.13146 -0.257745 1.14988
-0.129348 -0.257201 1.14653
-0.127306 -0.256743 1.14354
-0.125343 -0.256384 1.14097
-0.123465 -0.25614 1.13888
-0.121658 -0.255992 1.13718
-0.11988 -0.255879 1.13564
-0.118154 -0.255837 1.13439
-0.116448 -0.255819 1.13324
-0.114716 -0.255751 1.13188
-0.112986 -0.255678 1.13052
-0.111275 -0.255626 1.12924
-0.109572 -0.255579 1.12798
-0.107929 -0.255626 1.12711
-0.106343 -0.255765 1.12662
-0.104754 -0.255893 1.12608
-0.103177 -0.256041 1.12563
-0.101625 -0.256229 1.12533
-0.100052 -0.256374 1.12487
-0.0984808 -0.256521 1.12441
-0.0969567 -0.256751 1.12429
-0.0954374 -0.256989 1.12421
-0.0938745 -0.257141 1.12378
-0.0923302 -0.257326 1.12348
-0.0907835 -0.257503 1.12315
-0.0891891 -0.25758 1.12242
-0.0876084 -0.257679 1.12178
-0.0860605 -0.257841 1.12139
-0.0844941 -0.257959 1.12084
-0.0829302 -0.258078 1.12028
-0.0814093 -0.258285 1.12008
-0.0798918 -0.258498 1.1199
-0.0783681 -0.258694 1.11965
-0.0768048 -0.258796 1.11904
-0.0752371 -0.258881 1.11836
-0.0736586 -0.258934 1.11755
-0.072062 -0.258935 1.11654
-0.0704986 -0.259008 1.11582
-0.0689917 -0.259214 1.11562
-0.067488 -0.259427 1.11545
-0.0659789 -0.259622 1.11521
-0.0644929 -0.259876 1.1152
-0.0629979 -0.260104 1.11509
-0.0615052 -0.260336 1.115
-0.0600387 -0.26064 1.11519
-0.05859 -0.260996 1.11559
-0.0571421 -0.261357 1.116
-0.0556913 -0.261714 1.11639
-0.0542372 -0.262063 1.11676
-0.0527821 -0.262413 1.11712
-0.0513211 -0.262746 1.11743
-0.0498674 -0.263106 1.11783
-0.0484176 -0.263483 1.1183
-0.0469674 -0.263862 1.11878
-0.045509 -0.264218 1.11916
-0.0440689 -0.264643 1.11982
-0.0426218 -0.26505 1.1204
-0.0411679 -0.265437 1.1209
-0.039716 -0.265838 1.12146
-0.0382561 -0.266213 1.12192
-0.0367957 -0.266592 1.12239
-0.035341 -0.267 1.12297
-0.0338909 -0.267436 1.12366
-0.032433 -0.267846 1.12424
-0.0309776 -0.268276 1.12491
-0.0295106 -0.268659 1.12539
-0.0280519 -0.26909 1.12605
-0.0265875 -0.269503 1.12664
-0.0251214 -0.269915 1.12724
-0.0236528 -0.270324 1.12781
-0.0221823 -0.270731 1.12838
-0.0206992 -0.271072 1.12869
-0.0192146 -0.27141 1.129
-0.0177361 -0.271791 1.12946
-0.0162391 -0.272056 1.12949
-0.0147456 -0.272343 1.1296
-0.0132542 -0.272648 1.12978
-0.0117663 -0.27298 1.13006
-0.010279 -0.273323 1.13038
-0.00880468 -0.273785 1.13115
-0.00733361 -0.274299 1.13211
-0.00586013 -0.274816 1.13308
-0.00439084 -0.275411 1.13434
-0.00291357 -0.27596 1.13543
-0.00143281 -0.276508 1.13651
5.33461e-05 -0.27703 1.13749
0.00154269 -0.27755 1.13847
0.00303787 -0.278026 1.13927
0.00453562 -0.278497 1.14006
0.00603982 -0.278891 1.14056
0.00754774 -0.279229 1.14085
0.00905716 -0.279538 1.14103
0.0105697 -0.279777 1.14095
0.0120809 -0.280038 1.14095
0.0135907 -0.280324 1.14105
0.0151004 -0.28061 1.14114
0.0166102 -0.280898 1.14125
0.0181211 -0.28121 1.14144
0.0196309 -0.281498 1.14154
0.021142 -0.281838 1.14184
0.0226546 -0.282233 1.14234
0.0241685 -0.282639 1.14287
0.0256838 -0.283042 1.1434
0.0272009 -0.283437 1.14389
0.0287158 -0.283775 1.14417
0.0302313 -0.284088 1.14437
0.031747 -0.284427 1.14465
0.0332696 -0.284847 1.14523
0.0347979 -0.285324 1.14603
0.036334 -0.28589 1.14714
0.0378739 -0.286458 1.14826
0.0394174 -0.287027 1.14938
0.0409691 -0.28764 1.15065
0.0425197 -0.288209 1.15177
0.0440684 -0.288733 1.15271
0.0456205 -0.289251 1.15364
0.0471796 -0.289813 1.15472
0.0487302 -0.290277 1.15545
-0.179262 -0.272702 1.24216
-0.176133 -0.271335 1.23508
-0.174241 -0.271418 1.23418
-0.172367 -0.271517 1.23335
-0.170495 -0.271615 1.23251
-0.168611 -0.271692 1.2316
-0.166741 -0.271782 1.23073
-0.164826 -0.271811 1.22961
-0.16304 -0.271997 1.22916
-0.161317 -0.272263 1.22905
-0.159712 -0.272681 1.22958
-0.140119 -0.258849 1.16566
-0.137799 -0.258102 1.1614
-0.135752 -0.257716 1.15866
-0.13364 -0.25722 1.15546
-0.131517 -0.256692 1.15214
-0.129382 -0.256125 1.14867
-0.127319 -0.255645 1.14557
-0.12532 -0.255241 1.14278
-0.12342 -0.254971 1.14057
-0.121577 -0.254774 1.13866
-0.119781 -0.254638 1.137
-0.118039 -0.254576 1.13566
-0.116344 -0.25458 1.13459
-0.114612 -0.254517 1.13324
-0.112866 -0.254423 1.13178
-0.111138 -0.254347 1.13039
-0.109418 -0.254277 1.12903
-0.107749 -0.254283 1.12798
-0.106152 -0.254406 1.12742
-0.104562 -0.254535 1.12688
-0.102985 -0.254684 1.12642
-0.10143 -0.254868 1.12611
-0.0998666 -0.255035 1.12573
-0.0983079 -0.255206 1.12537
-0.0967867 -0.255445 1.12528
-0.0952778 -0.255705 1.12529
-0.0937137 -0.255859 1.12485
-0.092157 -0.256023 1.12447
-0.0905982 -0.256179 1.12405
-0.0890018 -0.256255 1.12331
-0.0874094 -0.256333 1.12258
-0.0858592 -0.256493 1.12218
-0.084291 -0.25661 1.12162
-0.082726 -0.256729 1.12106
-0.0811924 -0.256911 1.12075
-0.0796627 -0.257098 1.12047
-0.0781373 -0.257292 1.12021
-0.076575 -0.257398 1.1196
-0.0750098 -0.257491 1.11895
-0.0734428 -0.257574 1.11825
-0.0718638 -0.25762 1.11741
-0.0703081 -0.257715 1.11677
-0.0688098 -0.257946 1.11667
-0.0673146 -0.258184 1.1166
-0.0658127 -0.258403 1.11645
-0.0643253 -0.258657 1.11644
-0.0628288 -0.258886 1.11634
-0.0613342 -0.259118 1.11624
-0.0598655 -0.259421 1.11642
-0.0584146 -0.259775 1.11681
-0.0569638 -0.260133 1.11721
-0.0555109 -0.260488 1.1176
-0.0540549 -0.260836 1.11796
-0.0525914 -0.261165 1.11825
-0.051122 -0.261476 1.11846
-0.04966 -0.261813 1.11878
-0.0482089 -0.262188 1.11924
-0.0467565 -0.262564 1.11971
-0.0452969 -0.26292 1.1201
-0.0438615 -0.263366 1.12084
-0.0424132 -0.263773 1.12142
-0.0409584 -0.264161 1.12193
-0.0395063 -0.264566 1.12251
-0.038046 -0.264945 1.12298
-0.0365796 -0.265305 1.12338
-0.0351283 -0.265733 1.12404
-0.0336769 -0.266168 1.12473
-0.032218 -0.26658 1.12532
-0.0307709 -0.267055 1.12616
-0.0293118 -0.267484 1.12682
-0.0278519 -0.267919 1.12751
-0.0263855 -0.268332 1.1281
-0.0249167 -0.268741 1.12868
-0.0234416 -0.269125 1.12916
-0.0219655 -0.26951 1.12965
-0.0204805 -0.269851 1.12996
-0.0189903 -0.270164 1.13017
-0.0175059 -0.270518 1.13054
-0.0160071 -0.27078 1.13055
-0.0145118 -0.271064 1.13065
-0.0130196 -0.271371 1.13083
-0.0115338 -0.271731 1.13122
-0.0100503 -0.272118 1.13171
-0.00857974 -0.272628 1.13266
-0.00711226 -0.273196 1.13383
-0.00564221 -0.273773 1.13503
-0.00417502 -0.274421 1.1365
-0.00269684 -0.274998 1.1377
-0.00121444 -0.27557 1.13888
0.00027736 -0.276068 1.13977
0.00177377 -0.276537 1.14056
0.00327705 -0.276934 1.14107
0.00478216 -0.277323 1.14155
0.00629351 -0.277615 1.14167
0.00780518 -0.2779 1.14176
0.0093168 -0.278177 1.14182
0.0108306 -0.278389 1.14164
0.012344 -0.278596 1.14144
0.0138552 -0.278829 1.14134
0.0153654 -0.279064 1.14124
0.0168758 -0.279305 1.14117
0.0183856 -0.279593 1.14128
0.0198944 -0.279881 1.14138
0.021405 -0.280241 1.14175
0.0229178 -0.28066 1.14234
0.0244323 -0.281088 1.14296
0.0259477 -0.281519 1.14359
0.0274664 -0.281962 1.14426
0.0289833 -0.282328 1.14465
0.0304998 -0.282669 1.14495
0.0320175 -0.283012 1.14525
0.0335422 -0.283455 1.14592
0.035069 -0.283909 1.14663
0.0366043 -0.284447 1.14765
0.0381449 -0.285013 1.14876
0.039692 -0.285606 1.14998
0.0412438 -0.286224 1.15128
0.0427992 -0.286823 1.15251
0.0443516 -0.287372 1.15355
0.0459041 -0.287886 1.15447
0.0474615 -0.288418 1.15545
0.0490127 -0.288879 1.15617
-0.175787 -0.269604 1.23517
-0.17395 -0.269752 1.23453
-0.172117 -0.269903 1.23392
-0.170244 -0.27 1.23307
-0.168338 -0.270054 1.23204
-0.166489 -0.270171 1.23129
-0.164598 -0.270232 1.2303
-0.162796 -0.2704 1.22977
-0.16105 -0.270637 1.22952
-0.15944 -0.271048 1.23002
-0.140517 -0.258221 1.16985
-0.137822 -0.256969 1.16343
-0.13584 -0.256683 1.16109
-0.133746 -0.256223 1.15802
-0.131618 -0.255698 1.15468
-0.129458 -0.255106 1.15107
-0.127355 -0.254576 1.14774
-0.125291 -0.254085 1.14457
-0.123358 -0.253773 1.14215
-0.121497 -0.253554 1.14014
-0.119681 -0.253392 1.13836
-0.117922 -0.25331 1.13692
-0.116224 -0.253314 1.13584
-0.114504 -0.253274 1.13458
-0.112745 -0.253164 1.13303
-0.111001 -0.253068 1.13155
-0.109266 -0.252977 1.13009
-0.107581 -0.252958 1.12894
-0.105959 -0.25304 1.1282
-0.104355 -0.253149 1.12757
-0.102775 -0.253296 1.1271
-0.101218 -0.253477 1.12677
-0.0996539 -0.253644 1.12639
-0.098096 -0.253819 1.12604
-0.096587 -0.254082 1.12605
-0.0950786 -0.254345 1.12606
-0.0935253 -0.254522 1.12572
-0.0919793 -0.254709 1.12542
-0.0904207 -0.254868 1.12502
-0.0888327 -0.254965 1.12435
-0.0872376 -0.255042 1.12361
-0.0856851 -0.2552 1.1232
-0.0841063 -0.255298 1.12255
-0.0825405 -0.255419 1.12199
-0.0809963 -0.255581 1.1216
-0.0794552 -0.255746 1.12123
-0.0779269 -0.255935 1.12095
-0.0763641 -0.256043 1.12034
-0.0747992 -0.256139 1.1197
-0.0732335 -0.256228 1.11902
-0.0716717 -0.256318 1.11835
-0.0701174 -0.25642 1.11773
-0.0686269 -0.256674 1.11772
-0.0671403 -0.256938 1.11774
-0.0656457 -0.257179 1.11768
-0.0641573 -0.257436 1.11768
-0.0626592 -0.257665 1.11758
-0.0611633 -0.257899 1.11748
-0.0596855 -0.258181 1.11759
-0.0582248 -0.258512 1.11788
-0.0567649 -0.258847 1.11819
-0.0553026 -0.259177 1.11849
-0.0538384 -0.259504 1.11876
-0.0523802 -0.259851 1.11912
-0.0509095 -0.260162 1.11934
-0.0494448 -0.260493 1.11963
-0.047992 -0.260866 1.12009
-0.046538 -0.26124 1.12055
-0.0450723 -0.261577 1.12086
-0.0436422 -0.262045 1.12169
-0.0421997 -0.262477 1.12238
-0.0407492 -0.262886 1.12297
-0.0393069 -0.263334 1.12372
-0.0378566 -0.263759 1.12437
-0.0363946 -0.264145 1.12487
-0.0349419 -0.264575 1.12554
-0.0334872 -0.265006 1.12622
-0.0320208 -0.265394 1.12672
-0.0305678 -0.265849 1.12749
-0.0291031 -0.26626 1.12808
-0.0276413 -0.266695 1.12877
-0.0261732 -0.267107 1.12936
-0.0247028 -0.267517 1.12995
-0.0232218 -0.267878 1.13034
-0.0217393 -0.268236 1.13072
-0.0202483 -0.268549 1.13093
-0.0187527 -0.268836 1.13104
-0.0172634 -0.269165 1.13131
-0.0157634 -0.269424 1.13131
-0.0142708 -0.269734 1.13151
-0.0127811 -0.270067 1.13179
-0.0112999 -0.270472 1.13236
-0.00982102 -0.27091 1.13304
-0.00835727 -0.271496 1.13429
-0.00689353 -0.27212 1.13568
-0.0054262 -0.272753 1.1371
-0.00395619 -0.273405 1.13859
-0.00247847 -0.274025 1.13995
-0.000992758 -0.274599 1.14114
0.000505963 -0.275051 1.14187
0.00200918 -0.275468 1.14246
0.00351922 -0.275803 1.14273
0.00503255 -0.276088 1.14283
0.00654937 -0.276303 1.14265
0.00806325 -0.276563 1.14265
0.00957812 -0.276796 1.14254
0.0110933 -0.276978 1.14224
0.0126064 -0.277181 1.14203
0.0141188 -0.277387 1.14183
0.0156302 -0.277598 1.14164
0.0171399 -0.277861 1.14165
0.0186497 -0.278149 1.14175
0.020159 -0.278414 1.14177
0.0216699 -0.278773 1.14214
0.0231827 -0.279189 1.14272
0.0246972 -0.279593 1.14326
0.0262127 -0.280023 1.14389
0.0277328 -0.280491 1.14465
0.0292508 -0.280885 1.14515
0.0307703 -0.281256 1.14556
0.0322912 -0.281652 1.14606
0.0338199 -0.282149 1.14693
0.0353501 -0.28263 1.14774
0.0368875 -0.283165 1.14875
0.0384295 -0.283729 1.14987
0.0399774 -0.284315 1.15106
0.0415293 -0.284909 1.15228
0.0430836 -0.285482 1.15342
0.0446378 -0.286028 1.15446
0.0461882 -0.286511 1.15527
0.0477424 -0.287012 1.15614
0.0495693 -0.289646 1.16481
-0.175428 -0.267858 1.23518
-0.17363 -0.268053 1.23474
-0.17182 -0.268231 1.23424
-0.169927 -0.268306 1.23329
-0.16804 -0.268383 1.23236
-0.166215 -0.268532 1.23173
-0.164348 -0.268624 1.23087
-0.16255 -0.2688 1.23036
-0.160823 -0.269061 1.23022
