ply
format ascii 1.0
element vertex 1624
property float x
property float y
property float z
end_header
-0.0743899 0.0394757 0.397203
-0.0735026 0.0394369 0.396659
-0.0726127 0.0393947 0.396083
-0.0717525 0.0393716 0.395693
-0.070902 0.0393541 0.395358
-0.0700346 0.0393235 0.394894
-0.0691599 0.0392859 0.394365
-0.0682305 0.0392064 0.393427
-0.0672266 0.0390684 0.39192
-0.0662155 0.0389206 0.390319
-0.0652099 0.0387724 0.388715
-0.0642467 0.0386524 0.387387
-0.0633362 0.03857 0.386425
-0.0624998 0.0385438 0.38601
-0.0616773 0.0385273 0.38569
-0.0608786 0.0385292 0.385548
-0.0600771 0.0385279 0.385377
-0.0593089 0.038554 0.385471
-0.0585427 0.0385818 0.385582
-0.0577872 0.0386189 0.385783
-0.0570307 0.0386555 0.385979
-0.0562732 0.0386914 0.386168
-0.0555303 0.0387409 0.386489
-0.0547891 0.0387928 0.386832
-0.0540442 0.0388419 0.38715
-0.0533012 0.0388936 0.38749
-0.0525738 0.0389612 0.387986
-0.0518431 0.0390269 0.388463
-0.0511377 0.0391194 0.389198
-0.0504681 0.0392507 0.390309
-0.0498058 0.0393932 0.391526
-0.0491267 0.0395221 0.392611
-0.0484199 0.0396248 0.393443
-0.0476852 0.0396997 0.394006
-0.046931 0.0397545 0.394375
-0.0461563 0.0397872 0.39453
-0.0453779 0.0398156 0.394645
-0.0445944 0.0398381 0.394701
-0.0438213 0.0398729 0.394877
-0.0430414 0.0398998 0.394976
-0.0422826 0.039953 0.39533
-0.0415237 0.0400074 0.395693
-0.0407782 0.0400804 0.396236
-0.0400233 0.0401429 0.396678
-0.039267 0.0402052 0.397117
-0.0385066 0.0402631 0.397514
-0.0377521 0.0403312 0.398008
-0.0370061 0.0404137 0.398641
-0.0362535 0.040489 0.399205
-0.0355054 0.0405736 0.399857
-0.0347426 0.0406379 0.400314
-0.0339804 0.0407052 0.400799
-0.0332026 0.0407484 0.401054
-0.0324273 0.040797 0.401359
-0.0316434 0.0408312 0.401527
-0.0308715 0.0408881 0.401912
-0.0300892 0.0409269 0.402124
-0.0293094 0.0409713 0.40239
-0.0285283 0.0410145 0.402642
-0.0277468 0.0410577 0.402896
-0.0269647 0.0411007 0.403147
-0.0261825 0.0411446 0.403408
-0.0254019 0.0411932 0.403713
-0.0246165 0.0412321 0.403925
-0.0238321 0.0412745 0.40417
-0.0230454 0.0413121 0.40437
-0.0222679 0.0413756 0.404816
-0.0214837 0.041423 0.405108
-0.0207015 0.0414788 0.405481
-0.0199221 0.041546 0.405962
-0.0191417 0.0416139 0.40645
-0.0183552 0.0416654 0.406781
-0.0175746 0.0417413 0.407344
-0.0167923 0.0418161 0.407897
-0.0160034 0.0418715 0.408265
-0.0152105 0.0419113 0.408483
-0.0144211 0.0419687 0.40887
-0.0136279 0.0420126 0.409127
-0.0128353 0.0420632 0.409449
-0.0120455 0.0421339 0.409961
-0.0112582 0.0422352 0.410764
-0.0104693 0.0423405 0.411604
-0.00968424 0.0425048 0.413003
-0.00889719 0.0426896 0.414596
-0.00810717 0.0429052 0.416481
-0.00731249 0.0431393 0.41854
-0.00651101 0.0433715 0.420579
-0.00570261 0.0435909 0.422496
-0.00486732 0.0427207 0.421954
-0.0048882 0.0437983 0.424298
-0.00150401 0.0460592 0.445036
-0.000629412 0.046417 0.44825
0.000224574 0.0463867 0.447794
0.00107527 0.0463406 0.447187
0.00192354 0.0462967 0.446603
0.00276901 0.0462469 0.445963
0.00360961 0.046184 0.4452
0.00444429 0.0461012 0.444249
0.0052757 0.0460185 0.4433
0.00610266 0.0459315 0.442312
0.0069288 0.0458583 0.441454
0.00775312 0.0457904 0.440647
0.00857182 0.0457116 0.439737
0.00938471 0.0456251 0.438757
0.0101973 0.0455496 0.43788
0.0110041 0.045465 0.436917
0.0118112 0.0453932 0.436077
0.012617 0.0453272 0.435291
0.0134143 0.0452444 0.434349
0.0142639 0.0453239 0.434932
0.0152628 0.0449177 0.438982
0.0151266 0.0454346 0.435809
0.018048 0.0465508 0.445797
0.0189962 0.0468121 0.448084
0.0199438 0.0470559 0.450204
0.0208087 0.0471028 0.450476
0.0216752 0.0471514 0.450763
0.0225119 0.0471376 0.450466
0.0233593 0.0471482 0.450397
0.0242041 0.0471547 0.45029
0.0250544 0.0471722 0.450288
0.0259035 0.0471895 0.450282
0.0267593 0.0472185 0.450386
0.0276128 0.0472436 0.450454
0.0284731 0.0472808 0.450635
0.0293334 0.0473176 0.450812
0.0301894 0.0473477 0.450926
0.0310379 0.0473654 0.450925
0.0318936 0.0473941 0.451026
0.0327451 0.0474179 0.451082
0.0335935 0.0474368 0.451093
0.0344411 0.0474549 0.451095
0.0352911 0.047477 0.451135
0.0361284 0.0474815 0.451011
0.0369693 0.0474922 0.450945
0.0378085 0.0475021 0.450871
0.0386484 0.0475127 0.450804
0.0394871 0.0475233 0.450738
0.0403209 0.0475281 0.450617
0.0411392 0.0475149 0.450329
0.0419595 0.0475054 0.450076
0.0427839 0.0475021 0.44988
0.0436086 0.0475009 0.449705
0.0448919 0.0471394 0.454304
0.0444451 0.0475136 0.449658
-0.0952046 0.0434945 0.431198
-0.0940502 0.0433513 0.429639
-0.0931505 0.0433517 0.429468
-0.0922322 0.0433407 0.429188
-0.0913322 0.0433396 0.429003
-0.0904723 0.0433617 0.429043
-0.0831187 0.041016 0.405754
-0.0817801 0.04071 0.402642
-0.080676 0.0405456 0.400896
-0.0797351 0.0404818 0.400118
-0.0787828 0.0404085 0.39925
-0.0778966 0.0403763 0.398778
-0.0770389 0.0403616 0.398476
-0.0761694 0.0403381 0.398088
-0.075281 0.0403004 0.397564
-0.0744065 0.0402708 0.397119
-0.0735205 0.0402319 0.396584
-0.0726367 0.0401927 0.396048
-0.0717762 0.0401687 0.395657
-0.0709254 0.0401504 0.395321
-0.0700655 0.0401242 0.394911
-0.0691991 0.0400919 0.394442
-0.0683 0.0400336 0.393724
-0.0673208 0.0399121 0.392402
-0.0663223 0.039772 0.390902
-0.0653208 0.039625 0.389338
-0.0643538 0.0395006 0.387991
-0.0634119 0.0393922 0.386798
-0.0625509 0.0393458 0.386198
-0.0617047 0.0393094 0.385695
-0.0608881 0.039296 0.385412
-0.0600742 0.0392838 0.385141
-0.0593056 0.0393093 0.385229
-0.0585355 0.0393334 0.385305
-0.0577868 0.0393764 0.385561
-0.0570365 0.0394186 0.385808
-0.0562845 0.0394595 0.386043
-0.0555421 0.0395098 0.386368
-0.054801 0.039562 0.386711
-0.0540509 0.0396065 0.38698
-0.053298 0.0396488 0.387229
-0.0525561 0.0397024 0.387585
-0.051806 0.0397487 0.387871
-0.0510805 0.0398208 0.388402
-0.0503918 0.0399327 0.389311
-0.0497171 0.0400622 0.390388
-0.0490316 0.0401839 0.391389
-0.048327 0.0402881 0.392223
-0.0475994 0.0403694 0.39284
-0.0468551 0.0404338 0.393296
-0.0460907 0.0404764 0.393545
-0.0453219 0.0405143 0.393749
-0.0445397 0.0405366 0.393806
-0.0437635 0.040566 0.393929
-0.0429847 0.0405923 0.394023
-0.0422271 0.0406456 0.394372
-0.0414713 0.0407023 0.394755
-0.0407347 0.0407861 0.395393
-0.0399915 0.0408633 0.395969
-0.039237 0.0409271 0.396417
-0.0384776 0.0409855 0.396814
-0.0377272 0.0410585 0.397349
-0.0369927 0.0411576 0.398131
-0.0362553 0.0412559 0.398903
-0.0355245 0.0413683 0.399809
-0.0347807 0.041464 0.400557
-0.0340299 0.0415517 0.401228
-0.0332547 0.041601 0.401538
-0.0324788 0.0416504 0.401848
-0.0316936 0.0416845 0.402014
-0.0309157 0.0417322 0.402307
-0.030132 0.0417702 0.402509
-0.0293506 0.0418135 0.402762
-0.0285688 0.0418568 0.403013
-0.0277862 0.0418996 0.403261
-0.0270055 0.0419476 0.403557
-0.0262226 0.0419918 0.403817
-0.0254393 0.0420368 0.404084
-0.0246531 0.0420757 0.404295
-0.0238683 0.042119 0.404546
-0.023081 0.0421572 0.404749
-0.0223079 0.0422358 0.405332
-0.0215295 0.0423033 0.405811
-0.0207514 0.0423759 0.406336
-0.0199742 0.0424559 0.406931
-0.0191937 0.0425302 0.407472
-0.0184028 0.0425727 0.407715
-0.0176193 0.0426442 0.408229
-0.0168316 0.0427054 0.408647
-0.0160392 0.0427509 0.408918
-0.0152458 0.0427937 0.409162
-0.0144553 0.042856 0.409591
-0.0136614 0.0429016 0.409861
-0.0128696 0.0429638 0.410287
-0.0120841 0.0430753 0.411174
-0.0112994 0.0432112 0.412289
-0.0105123 0.0433547 0.413474
-0.00972773 0.0435527 0.415167
-0.0089397 0.0437748 0.417085
-0.0081462 0.0440037 0.419064
-0.0073459 0.044223 0.420953
-0.00653903 0.044428 0.422707
-0.00572645 0.0446205 0.424344
-0.00490798 0.0447855 0.425723
-0.00406772 0.0443898 0.429737
-0.0040854 0.0452437 0.429834
-0.00322846 0.0450127 0.435469
-0.00324713 0.045818 0.435024
-0.00239194 0.046396 0.440246
-0.00152432 0.0468828 0.444614
-0.000646599 0.0473008 0.44834
0.00020813 0.0472747 0.447931
0.00105933 0.0472282 0.447333
0.001908 0.0471833 0.44675
0.00275297 0.0471265 0.446057
0.00359328 0.0470551 0.445229
0.00442616 0.0469582 0.444164
0.00525523 0.0468609 0.443096
0.00608115 0.0467656 0.442048
0.00690573 0.0466843 0.44113
0.00772706 0.0466034 0.440217
0.0085436 0.046516 0.439244
0.00935459 0.0464215 0.438206
0.0101632 0.0463329 0.437223
0.0109677 0.0462412 0.436213
0.0117722 0.0461618 0.435317
0.0125763 0.046094 0.434529
0.0133764 0.0460211 0.433694
0.0142011 0.04603 0.433617
0.0150293 0.0460512 0.433654
0.0160684 0.0457494 0.438602
0.0159342 0.0462793 0.435605
0.0188381 0.0473355 0.444886
0.0198222 0.0476793 0.447899
0.0207216 0.0478116 0.448958
0.0216209 0.047937 0.449953
0.022456 0.0479222 0.449653
0.0233001 0.0479269 0.449533
0.0241404 0.0479272 0.449373
0.0249887 0.047944 0.449365
0.0258363 0.0479598 0.449348
0.0266902 0.0479886 0.449451
0.0275429 0.0480143 0.449525
0.0284055 0.0480583 0.449768
0.0292683 0.0481014 0.450002
0.0301238 0.0481322 0.450124
0.0309719 0.0481505 0.450129
0.0318295 0.048185 0.450285
0.0326807 0.0482093 0.450346
0.0335325 0.0482344 0.450415
0.0343869 0.0482641 0.450526
0.0352406 0.0482922 0.450623
0.0360814 0.0483023 0.450553
0.0369254 0.0483183 0.450539
0.0377657 0.0483291 0.450477
0.03861 0.0483461 0.450472
0.0394542 0.0483636 0.450471
0.0402934 0.0483757 0.450421
0.0411175 0.0483688 0.450197
0.0419426 0.0483652 0.450004
0.0427664 0.0483606 0.449801
0.043591 0.0483586 0.449622
0.0444268 0.0483704 0.44957
0.045296 0.0475435 0.449772
0.0452777 0.0484003 0.449684
0.046142 0.0475678 0.449834
0.0461285 0.0484302 0.449798
0.0469661 0.0475683 0.449674
0.0469635 0.0484422 0.449747
0.0479869 0.0477806 0.451481
0.0478071 0.0484642 0.449789
0.0490106 0.0479904 0.453264
0.0486281 0.0484625 0.449614
-0.0955425 0.0445358 0.432857
-0.094153 0.0442549 0.430018
-0.0932613 0.04426 0.429897
-0.0923504 0.0442532 0.429662
-0.0914408 0.0442465 0.429429
-0.0905724 0.0442639 0.429425
-0.0888252 0.0429098 0.424511
-0.089152 0.0439433 0.426215
-0.0875114 0.0434792 0.421647
-0.0822202 0.0417864 0.405117
-0.0809146 0.0414918 0.402167
-0.0797985 0.0413137 0.400322
-0.07883 0.0412283 0.399356
-0.0779287 0.0411853 0.398791
-0.0770639 0.0411653 0.398444
-0.0762001 0.0411448 0.398093
-0.0753172 0.0411101 0.397608
-0.0744436 0.0410803 0.39717
-0.0735512 0.0410359 0.396594
-0.0726672 0.0409957 0.396058
-0.0717985 0.040965 0.395612
-0.0709482 0.0409463 0.395281
-0.0700895 0.0409202 0.394879
-0.0692426 0.0409017 0.39455
-0.0683628 0.0408569 0.393972
-0.0673964 0.0407434 0.392749
-0.0664037 0.0406056 0.391297
-0.0654067 0.0404601 0.389773
-0.0644262 0.0403232 0.388333
-0.063465 0.0401975 0.386998
-0.0625908 0.0401394 0.3863
-0.0617266 0.0400872 0.385658
-0.0608928 0.0400588 0.385239
-0.0600727 0.0400404 0.384916
-0.0592987 0.0400609 0.384958
-0.0585237 0.0400805 0.384991
-0.0577809 0.0401286 0.385292
-0.0570366 0.0401761 0.385587
-0.0562906 0.0402225 0.385873
-0.0555488 0.0402737 0.386202
-0.0548075 0.040326 0.386542
-0.0540519 0.0403652 0.386759
-0.0532934 0.040402 0.386953
-0.0525415 0.0404457 0.387213
-0.0517771 0.0404772 0.387358
-0.0510327 0.0405296 0.387698
-0.0503245 0.040621 0.388403
-0.0496306 0.0407301 0.389272
-0.0489328 0.0408379 0.39013
-0.0482304 0.0409433 0.390965
-0.0475092 0.0410305 0.391628
-0.0467685 0.0410974 0.392102
-0.0460109 0.0411459 0.392405
-0.0452449 0.0411851 0.392619
-0.0444688 0.0412126 0.392725
-0.0436942 0.0412418 0.392847
-0.0429206 0.0412725 0.392983
-0.0421677 0.0413302 0.39337
-0.0414238 0.0414012 0.39388
-0.0406895 0.041487 0.394529
-0.0399557 0.0415762 0.395209
-0.0392057 0.0416451 0.3957
-0.0384476 0.0417043 0.3961
-0.0376979 0.0417776 0.396631
-0.0369678 0.0418828 0.397458
-0.0362386 0.0419934 0.398336
-0.035523 0.04213 0.399453
-0.0347962 0.0422538 0.400452
-0.0340613 0.0423693 0.401373
-0.0332974 0.0424393 0.401871
-0.0325259 0.0424982 0.402266
-0.0317423 0.0425366 0.40247
-0.0309627 0.0425833 0.402752
-0.0301758 0.042617 0.402913
-0.0293937 0.0426607 0.403166
-0.0286112 0.0427046 0.403421
-0.0278278 0.0427478 0.403669
-0.0270443 0.0427916 0.403923
-0.0262582 0.0428307 0.404134
-0.0254743 0.0428757 0.404398
-0.0246895 0.0429201 0.404658
-0.0239041 0.0429641 0.404913
-0.0231252 0.0430272 0.405346
-0.0223588 0.0431283 0.406128
-0.0215848 0.043214 0.406768
-0.0208075 0.0432953 0.407367
-0.0200317 0.0433863 0.408056
-0.0192463 0.0434515 0.408506
-0.0184518 0.0434883 0.408694
-0.0176637 0.0435504 0.409114
-0.0168719 0.0436011 0.409431
-0.0160752 0.0436354 0.409595
-0.0152805 0.0436778 0.409834
-0.0144894 0.0437419 0.410272
-0.0136948 0.043795 0.410609
-0.0129072 0.0438897 0.41133
-0.0121252 0.0440377 0.41254
-0.011342 0.0442019 0.413899
-0.0105564 0.0443833 0.415414
-0.00977037 0.0446029 0.417282
-0.0089788 0.0448274 0.419191
-0.00817929 0.0450251 0.420855
-0.00737488 0.0452277 0.422562
-0.00656426 0.0454144 0.424122
-0.00574888 0.0456073 0.425738
-0.00492795 0.045768 0.427057
-0.00410318 0.0462262 0.431106
-0.00326329 0.046771 0.435946
-0.0024083 0.0473141 0.440767
-0.00154093 0.0477711 0.444796
-0.000665517 0.0481586 0.448186
0.000189932 0.0481393 0.447848
0.00104205 0.0481041 0.447364
0.00189116 0.0480589 0.446789
0.0027357 0.047995 0.446043
0.0035757 0.047921 0.445206
0.00440819 0.0478154 0.44408
0.00523597 0.047709 0.442947
0.00606161 0.0476112 0.441894
0.00688457 0.0475216 0.440916
0.00770499 0.0474335 0.439954
0.00852064 0.0473434 0.438973
0.00932997 0.0472409 0.43788
0.0101354 0.0471385 0.436788
0.0109377 0.0470386 0.43572
0.0117394 0.0469518 0.434772
0.0125417 0.0468765 0.43393
0.0133422 0.0468071 0.433142
0.0141407 0.0467397 0.432373
0.0149382 0.0466775 0.431652
0.0158049 0.0468132 0.432733
0.0168571 0.04654 0.437855
0.0166831 0.046972 0.434024
0.01966 0.0481983 0.444714
0.0205982 0.0484334 0.446694
0.0215357 0.0486521 0.448524
0.0224018 0.0487068 0.448862
0.0232407 0.0487044 0.448682
0.0240769 0.0486976 0.448461
0.0249208 0.0487082 0.448399
0.025764 0.0487181 0.44833
0.026616 0.0487463 0.448428
0.0274668 0.0487712 0.448497
0.0283282 0.0488153 0.448738
0.0291892 0.0488591 0.448978
0.0300505 0.0489014 0.449204
0.0309002 0.0489253 0.449262
0.0317575 0.0489605 0.449423
0.0326146 0.0489962 0.44959
0.0334735 0.0490335 0.449769
0.0343321 0.0490706 0.449947
0.0351901 0.0491061 0.450111
0.0360391 0.0491288 0.450159
0.0368839 0.0491457 0.450155
0.0377281 0.049163 0.450154
0.0385773 0.0491868 0.450212
0.0394265 0.049211 0.450274
0.0402708 0.0492294 0.450284
0.0410993 0.0492281 0.450115
0.0419253 0.0492242 0.449923
0.0427483 0.0492188 0.449719
0.0435732 0.0492161 0.449538
0.0444085 0.0492271 0.449481
0.0452594 0.049257 0.449595
0.0461102 0.049287 0.449709
0.0469507 0.0493047 0.449713
0.0477945 0.0493269 0.449758
0.0486207 0.0493302 0.449632
0.0496191 0.0486407 0.451083
0.0494345 0.0493208 0.449392
0.0506268 0.0488321 0.452671
0.0502461 0.0493103 0.449143
-0.095866 0.0455746 0.434437
-0.0942435 0.0451528 0.430328
-0.0933617 0.0451639 0.430266
-0.0924588 0.0451618 0.430082
-0.0915576 0.0451601 0.429901
-0.0906865 0.0451764 0.429887
-0.0894767 0.0449817 0.427907
-0.081153 0.0424424 0.403435
-0.0798502 0.0421386 0.400452
-0.0788782 0.0420495 0.399468
-0.0779614 0.041995 0.398807
-0.0770839 0.0419656 0.39838
-0.0762189 0.0419436 0.398023
-0.0753419 0.041912 0.397576
-0.0744691 0.041882 0.397144
-0.0735781 0.0418374 0.396578
-0.0726993 0.0418001 0.396079
-0.0718287 0.0417671 0.395621
-0.0709774 0.0417471 0.395283
-0.0701125 0.0417157 0.394841
-0.069267 0.0416974 0.394521
-0.0683937 0.0416567 0.393992
-0.0674348 0.0415469 0.392824
-0.0664432 0.0414076 0.391383
-0.0654525 0.0412647 0.38991
-0.064471 0.0411246 0.388464
-0.0635023 0.0409907 0.387076
-0.0626147 0.0409203 0.386277
-0.061738 0.0408564 0.385538
-0.0608877 0.0408127 0.384987
-0.0600569 0.040784 0.384575
-0.0592773 0.0407991 0.384568
-0.0584973 0.0408134 0.384554
-0.0577547 0.0408615 0.384852
-0.0570203 0.040918 0.385227
-0.0562856 0.0409749 0.385607
-0.0555454 0.0410275 0.385946
-0.0548088 0.0410845 0.386325
-0.054052 0.0411225 0.38653
-0.053288 0.0411536 0.386671
-0.0525275 0.0411885 0.386846
-0.0517544 0.0412106 0.386903
-0.0509956 0.0412475 0.387097
-0.0502683 0.0413186 0.387606
-0.0495513 0.0414024 0.388231
-0.0488349 0.0414889 0.388881
-0.0481203 0.0415796 0.389569
-0.0473972 0.0416627 0.390187
-0.0466638 0.0417361 0.390715
-0.0459138 0.0417912 0.391075
-0.0451546 0.0418363 0.391343
-0.044392 0.0418779 0.391579
-0.043624 0.0419133 0.391757
-0.0428563 0.0419494 0.391942
-0.0421086 0.0420123 0.392372
-0.0413729 0.0420928 0.392965
-0.0406433 0.042184 0.393655
-0.0399189 0.0422853 0.394437
-0.0391712 0.0423566 0.394944
-0.038417 0.0424203 0.39538
-0.0376669 0.0424919 0.39589
-0.0369313 0.042588 0.396623
-0.0362003 0.042695 0.397455
-0.0354901 0.0428397 0.398631
-0.0347807 0.0429919 0.399876
-0.0340605 0.0431325 0.401014
-0.0333127 0.0432306 0.401762
-0.0325525 0.0433103 0.402343
-0.0317759 0.0433626 0.402672
-0.0309933 0.0434047 0.402909
-0.0302087 0.0434436 0.403116
-0.0294268 0.043489 0.403383
-0.0286445 0.0435348 0.403652
-0.0278632 0.0435837 0.403951
-0.027081 0.0436322 0.404245
-0.0262985 0.0436815 0.404547
-0.0255219 0.0437467 0.404993
-0.0247443 0.0438124 0.405444
-0.0239636 0.0438729 0.405847
-0.0231895 0.0439541 0.406438
-0.022422 0.0440591 0.407245
-0.0216472 0.044149 0.407915
-0.0208671 0.0442288 0.408492
-0.0200862 0.044311 0.409091
-0.0192967 0.0443692 0.409472
-0.0184982 0.0443977 0.409583
-0.0177039 0.0444432 0.409848
-0.0169077 0.0444829 0.41006
-0.01611 0.044516 0.410213
-0.0153138 0.0445587 0.410452
-0.0145239 0.0446355 0.411001
-0.0137337 0.0447179 0.4116
-0.0129489 0.0448442 0.412597
-0.0121697 0.0450259 0.414095
-0.0113873 0.0452187 0.415693
-0.0106007 0.0454187 0.417355
-0.00980919 0.045624 0.419065
-0.00901252 0.0458241 0.420726
-0.0082075 0.0459921 0.422096
-0.00739935 0.046174 0.42359
-0.00658729 0.0463599 0.42512
-0.0057705 0.0465692 0.426861
-0.00494811 0.0467579 0.428414
-0.00412097 0.0472775 0.432957
-0.00327891 0.0477887 0.437421
-0.00242276 0.0482794 0.441696
-0.00155665 0.0486925 0.445269
-0.000683129 0.0490381 0.44823
0.000172575 0.0490212 0.447921
0.00102606 0.0489927 0.447506
0.00187581 0.0489525 0.446987
0.00272092 0.0488863 0.446234
0.00356158 0.0488103 0.445392
0.00439323 0.0486967 0.444213
0.00522095 0.0485819 0.443024
0.00604527 0.0484757 0.441913
0.00686685 0.0483725 0.440829
0.00768414 0.0482709 0.439762
0.00849871 0.0481727 0.438725
0.00930614 0.0480618 0.437574
0.0101081 0.0479455 0.436377
0.010908 0.0478368 0.435247
0.0117072 0.0477411 0.434235
0.0125068 0.0476584 0.433341
0.0133072 0.047588 0.432558
0.0141083 0.0475304 0.431891
0.0149081 0.0474747 0.43124
0.0157434 0.0475268 0.431558
0.0165826 0.0475863 0.431941
0.0176388 0.0473165 0.437005
0.017493 0.0478282 0.433959
0.0204383 0.0489619 0.44366
0.0214136 0.0492804 0.446357
0.022315 0.0494192 0.447446
0.023188 0.0494918 0.447942
0.0240167 0.0494715 0.447605
0.0248533 0.04947 0.447438
0.0256947 0.0494789 0.447364
0.0265485 0.0495127 0.447513
0.0273978 0.0495376 0.447582
0.028261 0.0495879 0.447877
0.0291243 0.0496372 0.448164
0.029988 0.0496863 0.448448
0.0308335 0.0497045 0.448457
0.0316923 0.0497444 0.448661
0.0325486 0.0497805 0.448829
0.0334075 0.0498195 0.449024
0.0342661 0.0498588 0.449221
0.035128 0.0499017 0.44945
0.0359854 0.0499374 0.449615
0.0368388 0.0499674 0.449729
0.0376924 0.049998 0.449848
0.0385505 0.0500343 0.450019
0.0394081 0.0500702 0.450185
0.0402568 0.0500939 0.450243
0.0410855 0.0500923 0.450077
0.041911 0.0500878 0.449885
0.042735 0.050082 0.44968
0.0435592 0.0500785 0.449498
0.0443902 0.0500839 0.449393
0.0452411 0.0501138 0.449507
0.0460871 0.0501379 0.449569
0.0469269 0.0501552 0.449571
0.0477657 0.0501716 0.449565
0.0485981 0.0501813 0.4495
0.0494237 0.0501846 0.449378
0.0502538 0.0501928 0.4493
-0.0948344 0.0463523 0.4334
-0.093758 0.0462486 0.432284
-0.0926808 0.0461417 0.43114
-0.0917884 0.0461462 0.43102
-0.0909167 0.0461632 0.431016
-0.0898833 0.0460778 0.430071
-0.0814013 0.0434041 0.404763
-0.0799092 0.0429694 0.400628
-0.0789274 0.042872 0.399585
-0.0779951 0.0428058 0.39883
-0.0771167 0.042775 0.398399
-0.0762515 0.0427522 0.398041
-0.0753755 0.0427204 0.397601
-0.074503 0.0426899 0.397174
-0.0736053 0.0426395 0.396564
-0.072726 0.0426008 0.396063
-0.071847 0.0425608 0.395549
-0.0709945 0.042539 0.395203
-0.0701232 0.0425018 0.394715
-0.0692838 0.0424876 0.394439
-0.0684166 0.0424504 0.393953
-0.0674641 0.0423438 0.392834
-0.0664793 0.0422075 0.391445
-0.0654951 0.0420674 0.390022
-0.0645134 0.0419249 0.388579
-0.0635382 0.0417832 0.387144
-0.0626378 0.0417007 0.386248
-0.061754 0.0416293 0.385455
-0.0608921 0.0415743 0.384811
-0.0600557 0.0415397 0.384353
-0.0592656 0.0415448 0.384257
-0.0584843 0.0415575 0.38423
-0.057736 0.0416003 0.384477
-0.0570031 0.041658 0.384859
-0.05627 0.0417165 0.385249
-0.0555354 0.0417745 0.385634
-0.0547948 0.0418275 0.385972
-0.0540376 0.0418649 0.38617
-0.0532743 0.0418964 0.386313
-0.0525146 0.0419316 0.386491
-0.0517424 0.0419541 0.386552
-0.0509794 0.0419861 0.386701
-0.0502338 0.0420374 0.387023
-0.0494934 0.0420952 0.387405
-0.0487498 0.0421504 0.387763
-0.0480171 0.0422193 0.388245
-0.0472869 0.0422925 0.388766
-0.0465524 0.0423624 0.389256
-0.0458049 0.0424182 0.389619
-0.045051 0.0424673 0.38992
-0.044291 0.0425093 0.390158
-0.04353 0.0425508 0.390391
-0.042774 0.0425994 0.390688
-0.0420364 0.0426735 0.391216
-0.0413128 0.0427689 0.391935
-0.0405919 0.0428711 0.392715
-0.0398727 0.0429788 0.393544
-0.0391298 0.0430557 0.394096
-0.0383772 0.0431203 0.394536
-0.0376214 0.0431818 0.394948
-0.0368757 0.043261 0.395519
-0.0361354 0.0433513 0.39619
-0.0354165 0.0434801 0.397208
-0.0347046 0.0436261 0.398379
-0.0340024 0.0437952 0.399758
-0.0332763 0.0439297 0.400824
-0.0325366 0.044045 0.401718
-0.0317778 0.0441294 0.402334
-0.0310132 0.0442059 0.402877
-0.0302314 0.044251 0.403138
-0.029455 0.0443083 0.403509
-0.0286774 0.044365 0.403874
-0.0279005 0.0444252 0.404271
-0.0271222 0.0444846 0.404661
-0.0263479 0.0445556 0.405153
-0.0255755 0.0446344 0.405716
-0.0248038 0.0447192 0.406333
-0.0240283 0.0447985 0.406899
-0.0232587 0.0448985 0.407651
-0.0224899 0.045007 0.408479
-0.0217152 0.045105 0.409212
-0.020932 0.045183 0.409766
-0.0201465 0.0452584 0.410296
-0.0193497 0.0452989 0.410514
-0.0185461 0.0453159 0.410521
-0.017746 0.0453443 0.410631
-0.0169453 0.0453722 0.410736
-0.0161479 0.0454146 0.41097
-0.0153543 0.0454748 0.411364
-0.0145656 0.0455664 0.412038
-0.0137789 0.0456796 0.412904
-0.012997 0.0458375 0.414169
-0.0122168 0.0460367 0.415802
-0.0114332 0.0462421 0.417489
-0.0106421 0.0464361 0.419073
-0.0098454 0.0466187 0.420556
-0.00904341 0.0467959 0.421989
-0.00823491 0.0469413 0.423137
-0.0074238 0.0471091 0.424485
-0.0066098 0.0473034 0.426069
-0.00579221 0.0475309 0.427946
-0.004968 0.0477315 0.429584
-0.00413843 0.0482438 0.433993
-0.00329511 0.0487435 0.438288
-0.00243902 0.0492076 0.442264
-0.00157274 0.0496068 0.445661
-0.000699033 0.0499472 0.448533
0.000158481 0.0499434 0.448346
0.00101247 0.0499149 0.44794
0.00186426 0.0498788 0.447466
0.00270934 0.0498044 0.446653
0.00354897 0.0497145 0.445703
0.00437989 0.0495866 0.444416
0.00520709 0.0494642 0.443179
0.00603096 0.0493491 0.442008
0.00685007 0.0492319 0.440818
0.00766482 0.0491148 0.43963
0.0084769 0.0490023 0.438484
0.00928265 0.0488826 0.437274
0.0100828 0.048758 0.436023
0.0108819 0.0486465 0.434888
0.0116791 0.0485425 0.433819
0.0124776 0.0484565 0.432911
0.0132774 0.0483851 0.432133
0.0140785 0.0483267 0.43147
0.0148775 0.0482704 0.430826
0.0156797 0.0482301 0.430324
0.0164805 0.0481906 0.429828
0.0173452 0.0483242 0.430863
0.0212893 0.0498958 0.44414
0.0222313 0.0501331 0.446083
0.0231376 0.0502824 0.447249
0.0239557 0.0502414 0.446738
0.024785 0.050227 0.446461
0.0256253 0.0502365 0.446396
0.0264781 0.0502708 0.446548
0.0273253 0.0502951 0.446612
0.0281909 0.0503518 0.446962
0.0290532 0.0504027 0.44726
0.0299159 0.0504524 0.447548
0.0307598 0.05047 0.447554
0.0316175 0.0505105 0.447761
0.0324728 0.0505466 0.447929
0.0333337 0.0505918 0.448177
0.0342006 0.0506446 0.448491
0.03507 0.0507012 0.448839
0.0359396 0.050756 0.449171
0.0368016 0.0507994 0.449403
0.0376645 0.0508435 0.449641
0.0385275 0.050887 0.449874
0.0393898 0.0509294 0.450097
0.0402381 0.0509528 0.450153
0.0410713 0.0509566 0.450037
0.0419017 0.0509574 0.449896
0.0427263 0.0509523 0.449703
0.0435514 0.0509485 0.449522
0.044382 0.050953 0.449413
0.045228 0.0509766 0.449471
0.0460684 0.050994 0.449476
0.0469079 0.0510109 0.449476
0.0477469 0.051027 0.449469
0.0485852 0.0510432 0.449463
0.0494238 0.0510603 0.449465
0.0502688 0.0510843 0.449528
-0.0954669 0.047588 0.436698
-0.0942124 0.0473763 0.434624
-0.0930118 0.0471932 0.43281
-0.0920978 0.0471858 0.432586
-0.0911882 0.0471804 0.43238
-0.0902883 0.0471805 0.432224
-0.0886671 0.0458733 0.428033
-0.0892252 0.0470742 0.431107
-0.0799525 0.0437902 0.400707
-0.0789913 0.0437052 0.399794
-0.0780503 0.0436319 0.398988
-0.0771634 0.0435945 0.398505
-0.0762975 0.0435706 0.398145
-0.0754208 0.0435377 0.397704
-0.0745423 0.0435021 0.397238
-0.0736445 0.0434506 0.396631
-0.0727576 0.0434054 0.396079
-0.0718711 0.0433587 0.395516
-0.0710119 0.0433312 0.395125
-0.0701401 0.0432925 0.394634
-0.0693061 0.043282 0.394396
-0.0684445 0.0432484 0.393951
-0.0674974 0.0431441 0.392872
-0.0665186 0.0430104 0.39153
-0.0655406 0.0428732 0.390157
-0.0645536 0.042724 0.388676
-0.0635721 0.0425746 0.387196
-0.0626596 0.0424801 0.386208
-0.0617692 0.0424015 0.385365
-0.0608955 0.0423348 0.384627
-0.0600537 0.0422941 0.384124
-0.0592472 0.0422837 0.383893
-0.0584554 0.042286 0.383774
-0.0576921 0.0423142 0.383889
-0.0569544 0.042367 0.384223
-0.0562181 0.042422 0.384576
-0.0554904 0.0424862 0.385012
-0.0547555 0.0425444 0.385394
-0.0540087 0.0425916 0.385678
-0.0532515 0.0426286 0.38587
-0.0524979 0.0426697 0.386099
-0.051727 0.042693 0.386169
-0.0509645 0.0427251 0.386317
-0.0502058 0.0427616 0.386505
-0.0494471 0.0427985 0.386696
-0.0486806 0.0428268 0.38681
-0.0479299 0.0428735 0.387089
-0.0471835 0.042926 0.387419
-0.0464341 0.0429759 0.387726
-0.0456769 0.0430171 0.387954
-0.0449208 0.0430602 0.388201
-0.0441589 0.0430965 0.388386
-0.0434015 0.0431391 0.388627
-0.0426605 0.0432041 0.389067
-0.041938 0.0432958 0.389745
-0.0412286 0.0434086 0.39061
-0.0405236 0.0435312 0.391562
-0.0398161 0.0436545 0.39252
-0.0390821 0.0437429 0.393167
-0.0383371 0.0438174 0.39369
-0.0375826 0.0438795 0.394102
-0.0368274 0.0439421 0.394519
-0.0360766 0.0440136 0.395015
-0.0353441 0.044118 0.395802
-0.0346204 0.0442415 0.396759
-0.033913 0.044399 0.398016
-0.0332058 0.0445639 0.399338
-0.0324907 0.044722 0.400599
-0.0317587 0.0448552 0.401639
-0.0310259 0.0449933 0.402721
-0.0302672 0.0450852 0.403394
-0.0295005 0.0451644 0.403955
-0.0287246 0.0452275 0.404373
-0.0279514 0.0452986 0.404861
-0.0271683 0.0453499 0.405174
-0.0263963 0.0454296 0.405738
-0.0256282 0.0455228 0.406421
-0.0248632 0.0456292 0.40722
-0.0240934 0.0457289 0.40796
-0.0233301 0.0458529 0.408914
-0.0225622 0.0459722 0.409826
-0.0217839 0.0460676 0.410526
-0.020999 0.0461484 0.411098
-0.0202094 0.0462185 0.411574
-0.0194072 0.0462486 0.411698
-0.0186 0.0462596 0.411654
-0.017796 0.0462819 0.411709
-0.0169911 0.0462982 0.411712
-0.0161921 0.046342 0.411956
-0.0153984 0.0464108 0.412421
-0.0146091 0.0465119 0.413169
-0.0138237 0.0466446 0.414195
-0.0130432 0.0468284 0.415671
-0.0122634 0.0470477 0.417456
-0.0114762 0.0472541 0.419128
-0.0106812 0.0474365 0.420588
-0.00987917 0.0475956 0.421843
-0.00907191 0.047745 0.423012
-0.00825932 0.047866 0.42393
-0.00744655 0.0480207 0.425145
-0.00663138 0.0482187 0.426738
-0.00581209 0.0484439 0.428569
-0.0049879 0.0487183 0.430831
-0.00415662 0.0492329 0.435196
-0.00331105 0.0497368 0.439465
-0.00245303 0.0501993 0.443369
-0.00158471 0.0506053 0.446776
-0.000712595 0.0508887 0.449109
0.000146683 0.0508989 0.449048
0.00100203 0.0508702 0.448647
0.00185418 0.0508256 0.448108
0.0026988 0.0507341 0.447159
0.00353736 0.0506231 0.44604
0.00436695 0.0504802 0.444643
0.0051947 0.0503552 0.443402
0.00601759 0.0502306 0.442167
0.00683591 0.0501032 0.440908
0.0076492 0.0499757 0.439648
0.00845933 0.0498533 0.438434
0.00926414 0.0497248 0.437168
0.010063 0.0495926 0.43587
0.0108602 0.0494733 0.434685
0.0116559 0.0493608 0.43356
0.0124525 0.0492669 0.432599
0.0132494 0.0491874 0.431763
0.0140504 0.0491282 0.431104
0.014849 0.0490705 0.430459
0.015649 0.0490229 0.429903
0.0164458 0.0489744 0.429338
0.0172722 0.0490086 0.429494
0.0182518 0.0485567 0.432769
0.0181351 0.049137 0.430469
0.0211281 0.0504185 0.441179
0.0221132 0.0507667 0.44406
0.0230596 0.0510112 0.446038
0.02391 0.0510406 0.446147
0.0247289 0.0510057 0.445698
0.0255616 0.0510025 0.445525
0.026413 0.0510367 0.445676
0.0272569 0.0510567 0.445705
0.0281246 0.0511208 0.446115
0.0289893 0.0511781 0.446467
0.0298549 0.0512352 0.446816
0.0306984 0.0512534 0.446829
0.0315583 0.0512996 0.447084
0.0324157 0.0513411 0.447298
0.0332802 0.0513934 0.447606
0.0341498 0.0514525 0.447972
0.0350235 0.0515158 0.448375
0.0359005 0.051584 0.448819
0.0367674 0.0516352 0.449117
0.0376362 0.0516881 0.449429
0.0385041 0.0517394 0.449727
0.0393714 0.0517887 0.450008
0.0402201 0.0518122 0.450066
0.0410583 0.0518222 0.450008
0.0418949 0.0518305 0.449935
0.0427247 0.0518314 0.449798
0.04355 0.0518274 0.449619
0.0443803 0.0518304 0.449501
0.0452202 0.0518465 0.449495
0.046055 0.0518566 0.449438
0.0468946 0.0518729 0.449435
0.0477379 0.0518942 0.449475
0.0485825 0.0519172 0.449529
0.0494337 0.051948 0.449651
0.0503324 0.0520304 0.450216
0.0517016 0.051738 0.455087
0.051701 0.0526227 0.455169
-0.0934783 0.0483363 0.435241
-0.0924919 0.048285 0.434631
-0.0915359 0.0482516 0.43418
-0.0905741 0.0482132 0.433685
-0.0896203 0.0481786 0.433224
-0.0799692 0.0445931 0.400621
-0.0790276 0.0445203 0.399832
-0.0780989 0.0444541 0.399103
-0.0772035 0.0444099 0.398569
-0.0763373 0.0443853 0.398209
-0.0754613 0.0443521 0.397774
-0.0745815 0.0443147 0.397302
-0.0736814 0.0442606 0.396682
-0.0727935 0.0442137 0.396126
-0.0719011 0.0441615 0.395524
-0.071042 0.0441333 0.395135
-0.0701699 0.0440935 0.394642
-0.069323 0.0440722 0.394315
-0.0684492 0.0440278 0.393782
-0.0675017 0.0439211 0.3927
-0.0665179 0.0437807 0.39132
-0.0655341 0.0436359 0.389903
-0.0645527 0.0434885 0.388464
-0.0635768 0.0433412 0.387026
-0.0626592 0.0432402 0.385998
-0.0617742 0.0431645 0.385194
-0.0608999 0.0430958 0.384452
-0.0600525 0.0430489 0.383903
-0.0592299 0.0430227 0.383538
-0.0584269 0.0430136 0.383322
-0.0576419 0.0430205 0.383249
-0.0568945 0.0430634 0.383492
-0.0561485 0.0431081 0.383751
-0.0554221 0.0431728 0.384187
-0.0546983 0.0432415 0.384657
-0.0539684 0.0433051 0.385082
-0.0532222 0.0433529 0.385369
-0.05248 0.0434056 0.385698
-0.0517187 0.0434385 0.385853
-0.0509569 0.043471 0.386004
-0.0501939 0.0435024 0.386145
-0.0494222 0.043524 0.386201
-0.0486376 0.0435305 0.386124
-0.0478646 0.04355 0.386161
-0.0470972 0.0435759 0.386254
-0.0463284 0.0436 0.386332
-0.0455558 0.0436194 0.386368
-0.0447888 0.0436455 0.386463
-0.044028 0.0436796 0.386629
-0.0432733 0.0437221 0.386868
-0.0425365 0.0437894 0.387324
-0.041822 0.0438893 0.388065
-0.0411164 0.0440046 0.38894
-0.0404216 0.0441394 0.389987
-0.0397271 0.0442796 0.39108
-0.0390132 0.0443955 0.391959
-0.0382845 0.0444927 0.392675
-0.0375443 0.0445752 0.393262
-0.0367804 0.0446224 0.393539
-0.0360168 0.0446707 0.393827
-0.0352683 0.0447458 0.394349
-0.0345316 0.0448441 0.395073
-0.0338157 0.0449833 0.396153
-0.0331109 0.0451489 0.397464
-0.0324054 0.0453211 0.398831
-0.0316826 0.0454682 0.399978
-0.0309763 0.0456553 0.401474
-0.0302497 0.0458107 0.402693
-0.0295108 0.0459476 0.40375
-0.0287555 0.0460556 0.404554
-0.0280021 0.0461737 0.405446
-0.0272221 0.0462351 0.405844
-0.0264493 0.0463166 0.406416
-0.025683 0.0464189 0.40717
-0.0249253 0.0465492 0.408166
-0.0241604 0.0466683 0.409065
-0.0234013 0.0468112 0.41017
-0.0226294 0.0469267 0.411037
-0.0218465 0.0470154 0.411669
-0.0210542 0.0470795 0.412089
-0.0202595 0.0471392 0.41247
-0.0194521 0.0471562 0.412479
-0.0186436 0.0471678 0.412442
-0.0178379 0.0471887 0.412486
-0.0170324 0.0472101 0.412533
-0.0162341 0.0472612 0.412839
-0.0154411 0.0473438 0.413418
-0.0146548 0.0474702 0.414377
-0.0138709 0.0476274 0.4156
-0.0130905 0.0478297 0.417215
-0.0123052 0.0480302 0.418814
-0.011513 0.0482198 0.420317
-0.0107128 0.0483785 0.421551
-0.00990624 0.0485149 0.422592
-0.00909651 0.0486461 0.423587
-0.00828356 0.0487764 0.424574
-0.00746965 0.0489451 0.425894
-0.00665372 0.0491519 0.427541
-0.0058326 0.0493723 0.429305
-0.00500699 0.0496483 0.431548
-0.00417474 0.0501721 0.435931
-0.00332835 0.0506748 0.440128
-0.00246938 0.0511332 0.44394
-0.00159954 0.0515512 0.447403
-0.000726309 0.0518422 0.449768
0.000134067 0.0518551 0.449733
0.000991732 0.0518324 0.449391
0.00184463 0.0517791 0.448786
0.00268855 0.0516695 0.447696
0.00352545 0.0515338 0.446382
0.00435371 0.0513734 0.444856
0.00517865 0.0512266 0.443449
0.00600112 0.0510932 0.442157
0.00681772 0.0509558 0.440832
0.00763151 0.0508247 0.439561
0.00844103 0.0506984 0.438333
0.00924559 0.0505675 0.437066
0.0100443 0.050433 0.435769
0.0108409 0.0503069 0.434544
0.0116342 0.0501861 0.433366
0.0124289 0.0500841 0.432351
0.0132242 0.0499961 0.431456
0.0140208 0.049924 0.430697
0.0148184 0.0498637 0.430041
0.0156159 0.0498092 0.429435
0.0164081 0.0497472 0.428766
0.0171978 0.0496856 0.428099
0.0180215 0.049719 0.428248
0.0190943 0.0494967 0.433455
0.0189346 0.0499764 0.430316
0.022894 0.0515431 0.443174
0.0237844 0.051667 0.444093
0.0246378 0.0517105 0.444323
0.0255053 0.0517808 0.444783
0.0263556 0.0518151 0.444935
0.0272017 0.051841 0.445015
0.028069 0.0519063 0.445431
0.0289331 0.051965 0.445792
0.0298013 0.0520287 0.446194
0.0306474 0.0520529 0.446259
0.0315073 0.0521002 0.446522
0.0323677 0.0521484 0.446792
0.0332355 0.0522067 0.447148
0.034105 0.0522671 0.447522
0.0349779 0.0523316 0.447931
0.0358631 0.0524131 0.448485
0.0367345 0.0524719 0.448845
0.0376081 0.0525329 0.449222
0.0384811 0.0525917 0.449582
0.0393531 0.0526479 0.449919
0.0402022 0.0526718 0.449982
0.0410457 0.0526885 0.449983
0.0418881 0.0527044 0.449977
0.0427247 0.0527133 0.449912
0.0435557 0.0527155 0.449789
0.04439 0.0527227 0.449711
0.0452246 0.0527311 0.449641
0.0460535 0.0527337 0.449523
0.0468924 0.0527489 0.449512
0.0477371 0.0527712 0.449561
0.0485937 0.0528073 0.449727
0.0494683 0.0528644 0.450071
0.0504162 0.0530021 0.4511
0.0517162 0.0535249 0.455393
0.0531299 0.0532623 0.460525
0.0530735 0.0540958 0.460095
-0.0939576 0.0494961 0.437742
-0.0929267 0.0494177 0.436905
-0.0919296 0.0493594 0.436243
-0.0909284 0.0492964 0.435541
-0.0899387 0.0492391 0.43489
-0.0800019 0.0454073 0.400634
-0.0790925 0.0453559 0.400047
-0.0781707 0.0452938 0.399366
-0.0772662 0.0452423 0.398777
-0.076386 0.0452069 0.398331
-0.0755023 0.0451675 0.397849
-0.0746073 0.0451178 0.397278
-0.0737051 0.0450609 0.396644
-0.07281 0.0450074 0.396041
-0.0719188 0.0449549 0.395447
-0.071054 0.0449215 0.395019
-0.0701875 0.044885 0.394566
-0.0693278 0.0448526 0.394147
-0.0684475 0.0448017 0.393569
-0.0674948 0.0446885 0.392447
-0.06651 0.0445444 0.391059
-0.0655201 0.0443916 0.389594
-0.0645441 0.0442459 0.388193
-0.0635745 0.0441012 0.386801
-0.0626582 0.0439993 0.385782
-0.0617793 0.0439274 0.385025
-0.0609055 0.0438576 0.384285
-0.0600479 0.0437999 0.383653
-0.059214 0.0437621 0.383194
-0.0583991 0.0437406 0.382876
-0.0575916 0.0437248 0.382608
-0.056832 0.043755 0.382739
-0.0560804 0.0437931 0.382939
-0.0553511 0.0438542 0.383338
-0.0546344 0.0439294 0.38386
-0.0539165 0.0440048 0.384383
-0.0531825 0.0440647 0.384771
-0.052451 0.0441284 0.385193
-0.0516999 0.0441718 0.385437
-0.0509393 0.044205 0.385594
-0.0501718 0.0442308 0.385687
-0.0493874 0.0442368 0.385608
-0.0485896 0.0442265 0.385388
-0.0478003 0.0442249 0.385244
-0.047016 0.0442284 0.385145
-0.0462343 0.0442343 0.385065
-0.0454539 0.0442409 0.384992
-0.0446799 0.044255 0.384985
-0.0439137 0.044279 0.385062
-0.0431572 0.0443159 0.385251
-0.0424185 0.0443775 0.385653
-0.041699 0.0444675 0.3863
-0.0409854 0.0445686 0.387042
-0.0402837 0.0446904 0.387962
-0.0395805 0.044814 0.388899
-0.0388839 0.0449522 0.389959
-0.0381805 0.0450847 0.390971
-0.0374651 0.0452032 0.391861
-0.0367232 0.0452828 0.392416
-0.0359747 0.0453539 0.392897
-0.0352143 0.0454067 0.39322
-0.0344599 0.0454714 0.393646
-0.0337289 0.0455807 0.394455
-0.0330156 0.0457273 0.395586
-0.0323076 0.0458909 0.396861
-0.0315897 0.0460428 0.398035
-0.0308919 0.0462432 0.399625
-0.0301989 0.0464642 0.401391
-0.0294888 0.0466605 0.402945
-0.0287596 0.0468249 0.404223
-0.0280315 0.0470016 0.405606
-0.0272743 0.047119 0.40648
-0.0265022 0.047206 0.407093
-0.0257403 0.0473238 0.40797
-0.0249872 0.0474719 0.409105
-0.024227 0.0476101 0.410156
-0.0234628 0.0477459 0.411185
-0.0226859 0.0478529 0.411968
-0.0218974 0.0479303 0.412496
-0.0211034 0.0479944 0.412911
-0.0203048 0.0480465 0.413221
-0.0194996 0.0480764 0.413343
-0.0186925 0.0480991 0.413403
-0.0178852 0.0481206 0.413452
-0.0170795 0.0481474 0.413546
-0.0162824 0.0482163 0.414001
-0.01549 0.0483129 0.414693
-0.0147039 0.0484534 0.415758
-0.0139215 0.0486348 0.417172
-0.0131364 0.0488247 0.418659
-0.0123456 0.0490107 0.420111
-0.0115498 0.0491899 0.421504
-0.010745 0.0493319 0.42258
-0.00993537 0.0494541 0.423486
-0.00912428 0.0495932 0.424535
-0.00831045 0.0497374 0.425629
-0.00749467 0.0499044 0.426915
-0.0066771 0.0501141 0.428564
-0.00585382 0.0503186 0.430169
-0.00502627 0.0505784 0.432243
-0.00419277 0.0510857 0.436423
-0.00334539 0.0516036 0.44069
-0.0024858 0.0520583 0.444418
-0.00161518 0.0524887 0.447937
-0.00073993 0.0528025 0.450463
0.000123424 0.0528286 0.450543
0.000982159 0.0528073 0.450219
0.00183609 0.0527453 0.44955
0.00268075 0.0526238 0.448377
0.00351539 0.0524621 0.446862
0.00434164 0.0522772 0.445151
0.00516432 0.0521072 0.443569
0.0059858 0.0519648 0.442221
0.00680091 0.0518126 0.440791
0.00761292 0.0516732 0.43947
0.0084221 0.0515397 0.438199
0.00922624 0.0514072 0.436939
0.0100252 0.0512707 0.435645
0.0108228 0.0511472 0.434462
0.011615 0.0510181 0.433233
0.0124074 0.0509074 0.432159
0.0132006 0.0508107 0.431205
0.0139951 0.05073 0.430387
0.0147886 0.0506568 0.429633
0.015581 0.0505891 0.428925
0.0163703 0.0505193 0.428201
0.0171572 0.0504499 0.42748
0.0179466 0.0503948 0.42688
0.0188183 0.0505563 0.428111
0.0199071 0.0503622 0.433482
0.0197472 0.0508481 0.43044
0.0226823 0.0519614 0.43943
0.0236141 0.0521902 0.441223
0.0245102 0.0523332 0.442292
0.0254199 0.0524972 0.443537
0.0263067 0.0526078 0.444331
0.0271523 0.0526336 0.444412
0.0280181 0.0526988 0.444823
0.0288806 0.0527566 0.445173
0.0297445 0.0528145 0.445522
0.0305902 0.0528399 0.445599
0.0314493 0.0528881 0.445867
0.0323099 0.0529373 0.446144
0.0331766 0.0529964 0.446503
0.0340492 0.053064 0.446934
0.03493 0.053142 0.447452
0.0358234 0.0532381 0.448122
0.0367035 0.0533109 0.448596
0.0375898 0.0533913 0.449134
0.0384721 0.0534635 0.449603
0.0393486 0.053527 0.449998
0.0402076 0.0535638 0.450169
0.0410568 0.0535875 0.450231
0.0419003 0.0536042 0.450232
0.0427431 0.0536199 0.450227
0.0435803 0.0536289 0.450165
0.0444167 0.0536376 0.450101
0.0452515 0.053645 0.450026
0.0460805 0.0536463 0.4499
0.0469252 0.0536672 0.449938
0.0477771 0.0536971 0.450051
0.0486473 0.0537485 0.450345
0.0495478 0.0538343 0.450926
0.0505356 0.0540173 0.45232
0.0517469 0.0544454 0.455764
0.0530103 0.0549191 0.459586
-0.0944067 0.050645 0.440071
-0.093328 0.0505366 0.438988
-0.0922931 0.0504544 0.438131
-0.0912534 0.0503666 0.437227
-0.0902392 0.0502936 0.436451
-0.0802749 0.0463936 0.402127
-0.0791443 0.0461831 0.40018
-0.0782355 0.0461296 0.399584
-0.0773371 0.0460818 0.399038
-0.0764503 0.0460409 0.398552
-0.0755582 0.0459946 0.39802
-0.074647 0.0459318 0.397346
-0.0737422 0.0458717 0.396696
-0.0728335 0.0458065 0.396003
-0.0719375 0.0457491 0.395377
-0.0710664 0.0457098 0.394906
-0.0701981 0.0456709 0.394441
-0.0693244 0.0456259 0.393923
-0.0684431 0.0455728 0.393335
-0.0674899 0.0454569 0.392209
-0.0665111 0.0453153 0.390863
-0.0655274 0.0451649 0.389443
-0.0645567 0.0450214 0.388082
-0.063588 0.0448748 0.386697
-0.0626733 0.0447724 0.38569
-0.0617952 0.0446999 0.384941
-0.060922 0.0446291 0.384206
-0.0600589 0.0445651 0.38353
-0.0592141 0.0445159 0.382981
-0.0583871 0.0444817 0.382561
-0.0575625 0.0444481 0.382146
-0.0567815 0.0444561 0.382088
-0.0560148 0.0444783 0.382149
-0.055276 0.0445287 0.382454
-0.0545565 0.0446002 0.382938
-0.0538455 0.0446822 0.38351
-0.0531238 0.0447543 0.384
-0.0524038 0.0448298 0.384517
-0.0516634 0.0448841 0.384853
-0.0509072 0.0449216 0.385046
-0.0501367 0.0449428 0.3851
-0.049348 0.0449426 0.384971
-0.0485422 0.0449209 0.384659
-0.0477442 0.044907 0.384414
-0.0469481 0.0448939 0.384176
-0.0461548 0.0448829 0.383955
-0.0453671 0.0448777 0.383785
-0.044591 0.0448864 0.383732
-0.0438194 0.0449002 0.383724
-0.0430611 0.0449319 0.383868
-0.0423198 0.0449871 0.384212
-0.0415893 0.0450591 0.384698
-0.040861 0.0451362 0.385227
-0.0401424 0.0452297 0.385896
-0.0394207 0.0453215 0.38655
-0.0387104 0.0454339 0.387379
-0.0379945 0.0455416 0.388167
-0.037263 0.0456277 0.388771
-0.0365542 0.0457543 0.389719
-0.0358397 0.0458762 0.390626
-0.0351089 0.0459743 0.391332
-0.0343753 0.0460714 0.392028
-0.0336671 0.0462188 0.393151
-0.0329387 0.0463348 0.394006
-0.0322189 0.0464723 0.395043
-0.0314944 0.0466069 0.396056
-0.0307978 0.0468053 0.397608
-0.0301149 0.0470434 0.399495
-0.0294363 0.047304 0.401573
-0.0287393 0.0475387 0.403429
-0.0280374 0.0477755 0.405303
-0.0273048 0.0479526 0.40667
-0.0265459 0.0480748 0.407574
-0.0257807 0.0481877 0.408397
-0.0250267 0.0483373 0.409531
-0.0242675 0.0484825 0.410626
-0.0235033 0.0486223 0.411676
-0.0227273 0.0487362 0.412507
-0.0219394 0.0488195 0.413079
-0.021146 0.04889 0.413542
-0.0203466 0.0489435 0.413862
-0.0195403 0.0489741 0.413989
-0.0187333 0.0490023 0.414095
-0.0179259 0.0490284 0.414184
-0.0171212 0.0490677 0.414384
-0.0163271 0.0491567 0.415003
-0.0155371 0.0492734 0.415855
-0.0147522 0.0494344 0.417079
-0.0139679 0.0496205 0.418514
-0.0131785 0.0498027 0.419915
-0.0123842 0.0499785 0.421262
-0.0115844 0.050147 0.422547
-0.0107765 0.0502791 0.423525
-0.00996577 0.0504097 0.42449
-0.00915378 0.0505576 0.4256
-0.0083387 0.050711 0.426755
-0.00752102 0.0508868 0.428099
-0.00670085 0.0510938 0.429703
-0.00587515 0.0512826 0.431154
-0.00504603 0.0515174 0.43299
-0.00421115 0.0520087 0.436977
-0.00336267 0.0525123 0.441066
-0.00250246 0.0529751 0.444809
-0.00163128 0.0534147 0.448357
-0.000754066 0.053747 0.451003
0.000110133 0.0537737 0.451088
0.000971378 0.0537586 0.450822
0.00182496 0.0536901 0.450111
0.00266937 0.0535542 0.448834
0.00350255 0.0533667 0.447127
0.00432781 0.0531689 0.445335
0.00514766 0.0529748 0.443574
0.0059686 0.0528237 0.442174
0.00678318 0.052669 0.440745
0.00759618 0.0525281 0.439432
0.00840393 0.0523873 0.43812
0.00920902 0.0522531 0.436865
0.010008 0.0521143 0.435572
0.0108057 0.0519882 0.434385
0.0115971 0.0518561 0.43315
0.0123882 0.0517365 0.432019
0.0131771 0.0516254 0.43096
0.0139671 0.0515292 0.430025
0.0147583 0.0514476 0.429213
0.0155459 0.0513658 0.4284
0.0163346 0.0512953 0.427681
0.0171209 0.051225 0.426965
0.017912 0.0511745 0.426414
0.0187438 0.0512356 0.426793
0.019628 0.0514262 0.428249
0.0206838 0.0511422 0.432788
0.0205175 0.0516185 0.429719
0.0234457 0.0527084 0.438391
0.0243923 0.0529692 0.440425
0.0253454 0.0532315 0.442473
0.0262688 0.0534207 0.443912
0.0271134 0.053446 0.443988
0.0279776 0.05351 0.444385
0.0288394 0.0535673 0.444728
0.0297026 0.0536254 0.445076
0.0305551 0.0536634 0.445256
0.0314139 0.0537125 0.44553
0.032278 0.0537689 0.445864
0.0331482 0.0538349 0.446278
0.034029 0.0539163 0.446818
0.0349151 0.0540033 0.447406
0.0358138 0.0541085 0.448144
0.0366986 0.0541892 0.448678
0.0375899 0.0542772 0.449273
0.0384729 0.0543508 0.449748
0.0393509 0.0544157 0.450151
0.0402148 0.0544596 0.45038
0.0410692 0.0544897 0.450494
0.0419177 0.0545121 0.450546
0.0427666 0.0545347 0.450599
0.0436105 0.0545512 0.450601
0.0444537 0.0545678 0.450604
0.0452911 0.0545768 0.450545
0.0461266 0.0545842 0.450473
0.0469824 0.0546176 0.450615
0.0478477 0.0546621 0.450849
0.0487338 0.0547309 0.451283
0.0496558 0.0548407 0.452055
0.0506669 0.05505 0.453649
0.0517938 0.0553862 0.456288
0.0529575 0.0557541 0.459187
0.0543054 0.055415 0.463593
0.0541559 0.0561493 0.462308
-0.0957937 0.0509493 0.442847
-0.0972884 0.0513155 0.44616
-0.0973035 0.052197 0.446048
-0.095971 0.0519309 0.443637
-0.0947223 0.0517141 0.441649
-0.0936026 0.0515783 0.440349
-0.09253 0.0514707 0.439291
-0.091489 0.0513819 0.438394
-0.0904897 0.0513192 0.437718
-0.0888543 0.0499644 0.433466
-0.089333 0.0511451 0.436096
-0.0805724 0.0474032 0.403771
-0.0791775 0.0469975 0.400197
-0.0782864 0.046956 0.399714
-0.0773878 0.0469073 0.39917
-0.0764927 0.0468594 0.398633
-0.0755937 0.0468068 0.398057
-0.074673 0.0467355 0.397323
-0.0737599 0.0466677 0.396619
-0.0728439 0.0465954 0.395877
-0.0719418 0.0465318 0.395209
-0.0710631 0.0464851 0.394685
-0.0701939 0.0464444 0.394212
-0.0693117 0.0463911 0.393632
-0.0684188 0.0463266 0.392959
-0.0674713 0.046213 0.391871
-0.0664999 0.0460751 0.390577
-0.0655235 0.0459283 0.38921
-0.0645668 0.0457945 0.387953
-0.0636102 0.0456564 0.38666
-0.0626958 0.0455523 0.385656
-0.0618174 0.0454782 0.384905
-0.0609437 0.0454056 0.384168
-0.0600697 0.04533 0.383405
-0.0592193 0.0452741 0.38281
-0.058376 0.0452229 0.382254
-0.0575362 0.0451729 0.381708
-0.0567396 0.0451643 0.381512
-0.0559631 0.0451753 0.381481
-0.0552097 0.0452099 0.381649
-0.0544902 0.0452806 0.38212
-0.0537793 0.045362 0.382682
-0.0530594 0.0454354 0.383176
-0.052346 0.0455174 0.383743
-0.051617 0.0455837 0.384177
-0.0508669 0.045627 0.384417
-0.0500973 0.0456482 0.384471
-0.0493123 0.0456508 0.38437
-0.0485028 0.0456229 0.384012
-0.0476975 0.0455981 0.38368
-0.0468945 0.0455744 0.383358
-0.0460983 0.0455575 0.383093
-0.0453042 0.0455417 0.382838
-0.0445265 0.045546 0.382751
-0.0437535 0.0455558 0.382711
-0.0429896 0.0455774 0.38277
-0.0422373 0.0456152 0.382965
-0.041492 0.0456636 0.383248
-0.0407458 0.0457115 0.383527
-0.040009 0.0457745 0.383932
-0.0392692 0.0458345 0.384312
-0.0385408 0.0459138 0.384854
-0.0378106 0.0459927 0.385392
-0.0370686 0.0460546 0.385788
-0.0363554 0.0461669 0.386605
-0.0356781 0.0463454 0.387974
-0.0349897 0.0465117 0.389242
-0.0342996 0.0466825 0.390546
-0.0336139 0.0468689 0.39198
-0.0329018 0.0470137 0.393066
-0.0321641 0.0471147 0.393786
-0.0314201 0.0472072 0.394434
-0.030705 0.0473639 0.395618
-0.0300252 0.0476043 0.3975
-0.0293469 0.0478617 0.399523
-0.0286599 0.0481141 0.401502
-0.0279649 0.048363 0.403452
-0.0272558 0.0485924 0.405238
-0.0265162 0.0487591 0.406501
-0.0257746 0.0489307 0.407804
-0.0250385 0.0491286 0.409324
-0.0242991 0.049331 0.410882
-0.023538 0.0494834 0.412023
-0.0227649 0.0496097 0.412947
-0.0219759 0.0496933 0.413514
-0.0211817 0.0497642 0.413976
-0.0203815 0.0498181 0.414297
-0.0195758 0.0498546 0.414472
-0.0187693 0.0498883 0.414624
-0.0179648 0.0499319 0.414858
-0.0171647 0.0499962 0.415265
-0.0163706 0.0500947 0.415955
-0.0155804 0.0502225 0.416888
-0.0147965 0.0503984 0.418219
-0.0140094 0.050582 0.419614
-0.0132163 0.0507546 0.420917
-0.0124201 0.0509322 0.422262
-0.0116182 0.0511018 0.423538
-0.0108092 0.0512362 0.424523
-0.00999674 0.0513694 0.425497
-0.00918281 0.051521 0.426623
-0.00836634 0.0516831 0.427836
-0.00754752 0.0518677 0.429234
-0.00672588 0.0520913 0.430955
-0.00589844 0.0522958 0.432516
-0.00506677 0.0525413 0.434416
-0.00422917 0.0530175 0.438224
-0.00337955 0.0534977 0.442062
-0.00251837 0.0539338 0.445534
-0.00164691 0.0543488 0.44883
-0.000770236 0.0546599 0.451265
9.4521e-05 0.0546847 0.451334
0.00095658 0.0546763 0.45113
0.00181068 0.0546016 0.450378
0.0026556 0.0544638 0.449105
0.00348838 0.0542664 0.447342
0.00431415 0.0540637 0.445535
0.00513286 0.0538533 0.443667
0.00595244 0.0536927 0.44221
0.00676799 0.0535346 0.440774
0.00758177 0.0533963 0.439502
0.00838969 0.0532524 0.438186
0.0091948 0.0531169 0.436938
0.00999563 0.0529815 0.435692
0.010792 0.0528471 0.434456
0.0115825 0.0527064 0.433168
0.0123703 0.052572 0.431933
0.0131574 0.0524515 0.430813
0.0139412 0.0523338 0.429716
0.0147295 0.0522427 0.428839
0.0155147 0.0521524 0.427969
0.0163011 0.0520744 0.4272
0.0170865 0.052003 0.426487
0.0178794 0.0519584 0.425993
