ply
format ascii 1.0
element vertex 1730
property float x
property float y
property float z
end_header
-0.428148 -0.215793 1.0699
-0.429008 -0.217186 1.07002
-0.429916 -0.218597 1.07023
-0.431044 -0.220078 1.07079
-0.432074 -0.221531 1.07119
-0.433142 -0.222999 1.07165
-0.434142 -0.224448 1.072
-0.435039 -0.225866 1.07217
-0.435774 -0.227234 1.07206
-0.436513 -0.228604 1.07196
-0.437212 -0.229962 1.0718
-0.43782 -0.231291 1.07148
-0.438462 -0.232631 1.07122
-0.438975 -0.233929 1.07074
-0.439613 -0.235269 1.07047
-0.440388 -0.236657 1.07043
-0.441222 -0.238067 1.07048
-0.442116 -0.239498 1.07062
-0.443263 -0.24102 1.07118
-0.444475 -0.242568 1.07184
-0.445713 -0.244128 1.07254
-0.446957 -0.245695 1.07325
-0.448269 -0.24729 1.07406
-0.449446 -0.248838 1.07465
-0.450541 -0.250362 1.0751
-0.451639 -0.251888 1.07555
-0.452783 -0.253434 1.07607
-0.453837 -0.25495 1.07645
-0.455354 -0.256641 1.07757
-0.457006 -0.258388 1.0789
-0.458574 -0.260108 1.08008
-0.460062 -0.261803 1.08114
-0.461301 -0.263407 1.08179
-0.461958 -0.264791 1.0815
-0.462188 -0.266009 1.08054
-0.462303 -0.267181 1.0794
-0.46231 -0.26831 1.07809
-0.462314 -0.269433 1.07677
-0.462332 -0.270561 1.07548
-0.462643 -0.271803 1.07466
-0.462971 -0.273052 1.07386
-0.463486 -0.274374 1.07336
-0.464331 -0.275831 1.07338
-0.465307 -0.277342 1.0736
-0.466362 -0.278888 1.07394
-0.467595 -0.280511 1.07456
-0.46915 -0.282271 1.07567
-0.470746 -0.284051 1.07684
-0.473712 -0.285204 1.07775
-0.472537 -0.285919 1.07832
-0.475742 -0.287175 1.07957
-0.474476 -0.287855 1.08001
-0.413603 -0.127729 1.14756
-0.413742 -0.129039 1.1463
-0.413835 -0.130342 1.14496
-0.413686 -0.131612 1.14315
-0.413269 -0.132846 1.14084
-0.412837 -0.134072 1.1385
-0.412404 -0.135292 1.13617
-0.411863 -0.136493 1.13364
-0.411365 -0.137693 1.1312
-0.410935 -0.138896 1.1289
-0.41055 -0.140101 1.12669
-0.410268 -0.141314 1.12468
-0.410014 -0.142527 1.12272
-0.409918 -0.143759 1.12107
-0.409812 -0.144986 1.1194
-0.409746 -0.146215 1.11782
-0.409695 -0.147444 1.11626
-0.409688 -0.148677 1.11479
-0.409721 -0.149912 1.1134
-0.409745 -0.151144 1.112
-0.409735 -0.152367 1.11053
-0.409561 -0.153559 1.10877
-0.409454 -0.154759 1.10714
-0.409299 -0.155946 1.10542
-0.409155 -0.157132 1.10372
-0.409146 -0.158339 1.10228
-0.409307 -0.159574 1.10115
-0.409523 -0.160819 1.10013
-0.409776 -0.162068 1.09917
-0.41015 -0.16334 1.09844
-0.41045 -0.164596 1.09758
-0.410833 -0.165868 1.09686
-0.411174 -0.16713 1.09608
-0.411465 -0.168382 1.0952
-0.411623 -0.169604 1.09408
-0.411731 -0.170814 1.09288
-0.411753 -0.172003 1.09152
-0.41186 -0.173208 1.09032
-0.412016 -0.174422 1.08921
-0.412266 -0.175654 1.08826
-0.412521 -0.176887 1.08734
-0.412809 -0.178126 1.08647
-0.413092 -0.179362 1.08559
-0.413338 -0.180587 1.08465
-0.413627 -0.181823 1.08379
-0.413997 -0.183076 1.08307
-0.414414 -0.18434 1.08244
-0.414798 -0.185595 1.08174
-0.415217 -0.186859 1.08112
-0.41567 -0.18813 1.08055
-0.416126 -0.189402 1.07998
-0.416673 -0.190697 1.07958
-0.417188 -0.191984 1.07912
-0.417819 -0.193301 1.07887
-0.418411 -0.194608 1.07854
-0.419003 -0.195916 1.07822
-0.419598 -0.197225 1.0779
-0.419991 -0.19848 1.07722
-0.420277 -0.199705 1.07637
-0.420533 -0.200921 1.07546
-0.420802 -0.202139 1.07457
-0.421019 -0.203341 1.0736
-0.421522 -0.204623 1.07312
-0.422063 -0.205916 1.07271
-0.422608 -0.20721 1.07231
-0.423154 -0.208505 1.0719
-0.423743 -0.209812 1.07157
-0.424334 -0.211121 1.07124
-0.424936 -0.212433 1.07093
-0.425615 -0.213769 1.07075
-0.426383 -0.215133 1.07072
-0.427158 -0.216501 1.0707
-0.428069 -0.217912 1.07091
-0.429022 -0.219338 1.07119
-0.430116 -0.220811 1.0717
-0.431135 -0.222262 1.07208
-0.432189 -0.223728 1.07253
-0.433143 -0.225165 1.07279
-0.434001 -0.226572 1.0729
-0.434736 -0.22794 1.07279
-0.435473 -0.229311 1.07269
-0.436134 -0.230658 1.07246
-0.436742 -0.231988 1.07215
-0.437381 -0.233328 1.07188
-0.437934 -0.23464 1.07147
-0.438573 -0.235982 1.0712
-0.439395 -0.237387 1.07123
-0.440324 -0.23883 1.07144
-0.441317 -0.240298 1.07175
-0.442522 -0.241844 1.07241
-0.443826 -0.243428 1.07322
-0.445062 -0.244991 1.07392
-0.446252 -0.246541 1.07454
-0.447511 -0.24812 1.07526
-0.448638 -0.249654 1.07577
-0.449737 -0.25118 1.07623
-0.450885 -0.252728 1.07677
-0.452029 -0.254277 1.07729
-0.453263 -0.255863 1.07796
-0.454925 -0.257613 1.07931
-0.456654 -0.259393 1.08077
-0.458277 -0.261139 1.08205
-0.459797 -0.262851 1.08316
-0.460924 -0.264416 1.08363
-0.46148 -0.265763 1.08318
-0.461706 -0.266982 1.08221
-0.461786 -0.268141 1.081
-0.461794 -0.269271 1.07969
-0.461709 -0.27036 1.07823
-0.461679 -0.271469 1.07686
-0.461933 -0.272689 1.07594
-0.462261 -0.273938 1.07514
-0.462741 -0.275249 1.07458
-0.463635 -0.276727 1.07468
-0.464655 -0.27826 1.07497
-0.465715 -0.279811 1.07532
-0.466942 -0.281434 1.07593
-0.468437 -0.283173 1.07695
-0.469823 -0.284869 1.0778
-0.471436 -0.286666 1.079
-0.473167 -0.288518 1.08037
-0.47625 -0.289728 1.08144
-0.474753 -0.290313 1.08152
-0.412508 -0.1297 1.14686
-0.412623 -0.131005 1.14555
-0.412582 -0.132288 1.14395
-0.412253 -0.133532 1.1418
-0.411866 -0.134763 1.13954
-0.411442 -0.135984 1.13722
-0.410949 -0.13719 1.13477
-0.410456 -0.13839 1.13233
-0.409991 -0.139588 1.12995
-0.409601 -0.14079 1.12772
-0.409321 -0.142004 1.12571
-0.409105 -0.143223 1.12382
-0.409018 -0.144456 1.12218
-0.408956 -0.145689 1.12059
-0.408854 -0.146914 1.11893
-0.408794 -0.148142 1.11736
-0.40875 -0.149368 1.11581
-0.40878 -0.150603 1.11441
-0.408774 -0.15183 1.11295
-0.408796 -0.153059 1.11154
-0.408628 -0.154252 1.10978
-0.408483 -0.155444 1.10807
-0.408291 -0.156625 1.10627
-0.408144 -0.15781 1.10457
-0.40809 -0.159008 1.10304
-0.408214 -0.160237 1.10184
-0.408426 -0.16148 1.10081
-0.408676 -0.162729 1.09985
-0.409043 -0.164 1.0991
-0.409342 -0.165256 1.09823
-0.409728 -0.166529 1.09752
-0.410114 -0.167801 1.09681
-0.410455 -0.169063 1.09602
-0.410667 -0.170297 1.095
-0.410818 -0.171516 1.09387
-0.410885 -0.172715 1.09259
-0.41099 -0.17392 1.09138
-0.411108 -0.175126 1.0902
-0.411354 -0.176357 1.08925
-0.4116 -0.177589 1.0883
-0.41185 -0.178819 1.08736
-0.412097 -0.180047 1.08642
-0.412382 -0.181283 1.08554
-0.412672 -0.182518 1.08468
-0.413042 -0.183773 1.08396
-0.413499 -0.185047 1.0834
-0.413922 -0.186313 1.08277
-0.414344 -0.187577 1.08215
-0.414801 -0.188851 1.08159
-0.415262 -0.190125 1.08103
-0.415812 -0.191422 1.08063
-0.416329 -0.192711 1.08017
-0.416964 -0.19403 1.07992
-0.41755 -0.195338 1.07959
-0.418145 -0.196647 1.07927
-0.4187 -0.197947 1.07887
-0.419086 -0.199202 1.07819
-0.419368 -0.200426 1.07732
-0.419631 -0.201644 1.07642
-0.419905 -0.202864 1.07555
-0.420161 -0.204078 1.07464
-0.420665 -0.205361 1.07416
-0.421207 -0.206655 1.07375
-0.421753 -0.207951 1.07334
-0.4223 -0.209247 1.07294
-0.422888 -0.210556 1.07261
-0.423478 -0.211865 1.07227
-0.42407 -0.213176 1.07195
-0.424706 -0.2145 1.07169
-0.425468 -0.215864 1.07165
-0.426246 -0.217235 1.07164
-0.427161 -0.218649 1.07186
-0.428119 -0.220078 1.07214
-0.429206 -0.221551 1.07265
-0.430173 -0.222988 1.07294
-0.431139 -0.224428 1.07324
-0.432049 -0.225852 1.07343
-0.432873 -0.22725 1.07348
-0.433617 -0.228622 1.07339
-0.434355 -0.229994 1.07329
-0.435085 -0.231365 1.07318
-0.435731 -0.232708 1.07293
-0.43637 -0.234049 1.07266
-0.436966 -0.235377 1.07232
-0.437652 -0.236736 1.07213
-0.438484 -0.238146 1.07218
-0.439515 -0.239627 1.07256
-0.440608 -0.241134 1.07303
-0.441831 -0.242688 1.07372
-0.443133 -0.244275 1.07453
-0.444358 -0.245837 1.07522
-0.445452 -0.247356 1.07568
-0.446668 -0.248921 1.07634
-0.447789 -0.250456 1.07684
-0.448885 -0.251984 1.07729
-0.450031 -0.253533 1.07783
-0.451221 -0.255103 1.07843
-0.452595 -0.256744 1.07933
-0.454319 -0.258521 1.08079
-0.456148 -0.260345 1.08241
-0.457761 -0.262092 1.08367
-0.459221 -0.263785 1.08468
-0.460202 -0.265297 1.08492
-0.460707 -0.266626 1.08439
-0.460893 -0.267829 1.08335
-0.461019 -0.269007 1.08222
-0.461082 -0.270158 1.08099
-0.461007 -0.271252 1.07954
-0.46098 -0.272362 1.07817
-0.461188 -0.273564 1.07717
-0.461515 -0.274814 1.07637
-0.461999 -0.276127 1.07582
-0.46291 -0.277615 1.07594
-0.463891 -0.279134 1.07617
-0.464937 -0.280682 1.0765
-0.466112 -0.282287 1.07703
-0.467417 -0.283948 1.07776
-0.468646 -0.285582 1.07836
-0.470132 -0.287328 1.07937
-0.471642 -0.289089 1.0804
-0.473057 -0.290813 1.08129
-0.411691 -0.130411 1.14822
-0.411803 -0.131716 1.1469
-0.41166 -0.132987 1.1451
-0.411327 -0.13423 1.14293
-0.410945 -0.135462 1.14068
-0.410527 -0.136683 1.13836
-0.410078 -0.137894 1.13599
-0.409543 -0.139088 1.13346
-0.409036 -0.14028 1.13099
-0.408612 -0.141477 1.12869
-0.408328 -0.142689 1.12666
-0.408119 -0.143908 1.12478
-0.40807 -0.145147 1.12321
-0.408014 -0.146382 1.12162
-0.407909 -0.147606 1.11995
-0.407809 -0.148827 1.1183
-0.407723 -0.150046 1.11667
-0.407717 -0.151276 1.1152
-0.407671 -0.152495 1.11365
-0.407699 -0.153724 1.11225
-0.407568 -0.154923 1.11056
-0.40747 -0.156123 1.10893
-0.407282 -0.157304 1.10714
-0.40717 -0.158495 1.10549
-0.407149 -0.159699 1.10402
-0.407236 -0.160922 1.10275
-0.407409 -0.162158 1.10164
-0.407659 -0.163407 1.10067
-0.407979 -0.164669 1.09984
-0.408275 -0.165925 1.09896
-0.408658 -0.167198 1.09825
-0.409046 -0.16847 1.09754
-0.40943 -0.169742 1.09683
-0.409688 -0.170985 1.09589
-0.409855 -0.172208 1.09478
-0.409966 -0.173417 1.09358
-0.410117 -0.174633 1.09245
-0.410237 -0.175839 1.09126
-0.410445 -0.177063 1.09024
-0.410691 -0.178294 1.08929
-0.410936 -0.179524 1.08834
-0.411138 -0.180742 1.08731
-0.411385 -0.18197 1.08637
-0.411673 -0.183205 1.0855
-0.412009 -0.184451 1.08472
-0.41243 -0.185717 1.08409
-0.412893 -0.186994 1.08353
-0.413356 -0.188269 1.08298
-0.413854 -0.189554 1.08249
-0.414352 -0.190839 1.082
-0.414905 -0.192137 1.0816
-0.41542 -0.193427 1.08114
-0.41605 -0.194746 1.08088
-0.416601 -0.196045 1.08048
-0.417191 -0.197355 1.08015
-0.41778 -0.198665 1.07982
-0.418165 -0.19992 1.07913
-0.418411 -0.201135 1.0782
-0.418711 -0.202364 1.07736
-0.418986 -0.203585 1.07648
-0.419248 -0.2048 1.07558
-0.419754 -0.206085 1.07511
-0.420339 -0.207393 1.07477
-0.42089 -0.208692 1.07437
-0.421443 -0.209991 1.07398
-0.422033 -0.211301 1.07365
-0.422622 -0.212611 1.07331
-0.423208 -0.213922 1.07297
-0.423841 -0.215247 1.07272
-0.424603 -0.216612 1.07267
-0.425387 -0.217986 1.07267
-0.426295 -0.2194 1.07288
-0.427215 -0.22082 1.0731
-0.428208 -0.222265 1.07345
-0.429123 -0.223688 1.07366
-0.43004 -0.225113 1.07387
-0.430914 -0.226526 1.07401
-0.431746 -0.227928 1.07407
-0.432488 -0.229301 1.07398
-0.433181 -0.230659 1.07381
-0.433906 -0.232028 1.07368
-0.434551 -0.233372 1.07343
-0.435238 -0.234731 1.07324
-0.43593 -0.236092 1.07306
-0.436709 -0.237484 1.07302
-0.43759 -0.238914 1.07316
-0.438706 -0.240427 1.07368
-0.439848 -0.241953 1.07424
-0.441077 -0.243513 1.07494
-0.442375 -0.245101 1.07575
-0.443593 -0.246664 1.07642
-0.444641 -0.248169 1.07681
-0.445809 -0.24972 1.07739
-0.446931 -0.251258 1.07789
-0.448025 -0.252787 1.07835
-0.449169 -0.254339 1.07888
-0.450363 -0.255912 1.07949
-0.451841 -0.257596 1.08056
-0.453532 -0.259365 1.08197
-0.455316 -0.261176 1.08352
-0.456908 -0.262919 1.08476
-0.458348 -0.264608 1.08574
-0.459291 -0.266107 1.08592
-0.459853 -0.267459 1.08548
-0.460045 -0.268665 1.08445
-0.460164 -0.269841 1.0833
-0.460274 -0.27101 1.08214
-0.460205 -0.272106 1.0807
-0.460235 -0.27324 1.07941
-0.460535 -0.27448 1.07856
-0.460908 -0.27575 1.07783
-0.461402 -0.277068 1.07729
-0.462267 -0.27854 1.07734
-0.463194 -0.280039 1.07748
-0.464185 -0.281567 1.07772
-0.465356 -0.283174 1.07825
-0.466534 -0.284785 1.07878
-0.467626 -0.286363 1.07917
-0.468944 -0.288041 1.07992
-0.470229 -0.289707 1.08061
-0.471433 -0.291343 1.08117
-0.411131 -0.131155 1.15009
-0.411151 -0.132451 1.14859
-0.41084 -0.133701 1.14645
-0.410465 -0.134939 1.1442
-0.410044 -0.136165 1.14186
-0.409625 -0.137385 1.13953
-0.409171 -0.138596 1.13714
-0.408632 -0.139788 1.1346
-0.408121 -0.140978 1.13211
-0.407655 -0.142169 1.12972
-0.407333 -0.143375 1.12761
-0.407083 -0.144588 1.12565
-0.407036 -0.145827 1.12408
-0.406943 -0.147055 1.12242
-0.406876 -0.148285 1.12081
-0.406781 -0.149506 1.11916
-0.406725 -0.15073 1.11759
-0.406721 -0.15196 1.11611
-0.406712 -0.153186 1.11463
-0.406708 -0.15441 1.11317
-0.406615 -0.155615 1.11154
-0.406521 -0.156816 1.10991
-0.406338 -0.157997 1.10812
-0.406235 -0.159189 1.10649
-0.40622 -0.160395 1.10502
-0.4063 -0.161616 1.10373
-0.406435 -0.162845 1.10255
-0.406646 -0.164087 1.10151
-0.406931 -0.165342 1.10061
-0.407183 -0.166589 1.09965
-0.407482 -0.167845 1.09878
-0.407861 -0.169116 1.09805
-0.408243 -0.170388 1.09734
-0.408543 -0.17164 1.09647
-0.408796 -0.172881 1.09552
-0.408995 -0.174109 1.09447
-0.409193 -0.175336 1.09343
-0.40936 -0.176553 1.09232
-0.409571 -0.177778 1.0913
-0.409777 -0.179001 1.09028
-0.410017 -0.18023 1.08931
-0.41018 -0.18144 1.08821
-0.410379 -0.182655 1.08718
-0.410625 -0.183881 1.08623
-0.410959 -0.185127 1.08545
-0.411344 -0.186385 1.08475
-0.41181 -0.187663 1.0842
-0.412274 -0.188939 1.08365
-0.412775 -0.190225 1.08316
-0.413315 -0.191521 1.08274
-0.413903 -0.19283 1.08241
-0.414458 -0.19413 1.08202
-0.415127 -0.195462 1.08183
-0.415716 -0.196772 1.0815
-0.416305 -0.198083 1.08116
-0.416857 -0.199384 1.08077
-0.417242 -0.20064 1.08007
-0.417487 -0.201854 1.07914
-0.41779 -0.203085 1.0783
-0.418067 -0.204307 1.07743
-0.418369 -0.205535 1.07659
-0.418878 -0.206821 1.07612
-0.419468 -0.208132 1.07579
-0.420022 -0.209432 1.0754
-0.420621 -0.210746 1.07508
-0.421216 -0.21206 1.07476
-0.421808 -0.213373 1.07443
-0.422398 -0.214686 1.0741
-0.423032 -0.216012 1.07384
-0.423755 -0.217368 1.07373
-0.424534 -0.218742 1.07372
-0.425403 -0.220145 1.07386
-0.426269 -0.22155 1.07399
-0.427173 -0.222969 1.07419
-0.428043 -0.224379 1.07432
-0.428911 -0.22579 1.07445
-0.429782 -0.227203 1.07459
-0.430609 -0.228604 1.07464
-0.43135 -0.229978 1.07455
-0.431996 -0.231321 1.0743
-0.432719 -0.232691 1.07418
-0.433412 -0.234051 1.074
-0.434163 -0.235433 1.07392
-0.434996 -0.236843 1.07398
-0.435909 -0.238285 1.07417
-0.436831 -0.23973 1.07437
-0.437947 -0.241247 1.07489
-0.439076 -0.242771 1.07543
-0.440258 -0.244317 1.07605
-0.44147 -0.245877 1.07672
-0.442677 -0.247439 1.07738
-0.443725 -0.248946 1.07777
-0.444895 -0.250501 1.07836
-0.445987 -0.25203 1.07881
-0.447117 -0.253575 1.07933
-0.448263 -0.255129 1.07987
-0.4495 -0.256722 1.08055
-0.451031 -0.25843 1.08171
-0.452728 -0.260205 1.08313
-0.45441 -0.261981 1.08453
-0.455979 -0.263719 1.08573
-0.457375 -0.265394 1.08665
-0.458288 -0.266883 1.08678
-0.458867 -0.268242 1.08636
-0.459147 -0.269484 1.08547
-0.459266 -0.270659 1.08432
-0.459371 -0.271827 1.08314
-0.459356 -0.272945 1.08178
-0.459484 -0.274117 1.08065
-0.459796 -0.275364 1.07982
-0.460216 -0.276654 1.07916
-0.460747 -0.277989 1.07868
-0.461561 -0.279442 1.07864
-0.462438 -0.280923 1.07871
-0.463369 -0.282428 1.07886
-0.46449 -0.284016 1.0793
-0.465579 -0.285593 1.0797
-0.466581 -0.287134 1.07995
-0.467751 -0.288751 1.08047
-0.468874 -0.290349 1.0809
-0.469966 -0.291938 1.08129
-0.472529 -0.292933 1.08155
-0.471011 -0.293509 1.0816
-0.410735 -0.130624 1.15384
-0.410688 -0.131916 1.1522
-0.410618 -0.133202 1.15052
-0.410152 -0.134434 1.14807
-0.409683 -0.13566 1.14562
-0.409179 -0.136875 1.14311
-0.408683 -0.138085 1.14063
-0.408185 -0.139288 1.13815
-0.407639 -0.140479 1.13558
-0.407126 -0.141667 1.13309
-0.406619 -0.142851 1.13061
-0.406299 -0.144057 1.1285
-0.406077 -0.145273 1.12658
-0.405991 -0.146506 1.12493
-0.405901 -0.147735 1.12327
-0.405846 -0.148966 1.12168
-0.405783 -0.150192 1.12009
-0.405731 -0.151417 1.11851
-0.405766 -0.152653 1.11711
-0.405723 -0.153873 1.11556
-0.405755 -0.155103 1.11416
-0.405664 -0.156308 1.11253
-0.405571 -0.15751 1.1109
-0.405398 -0.158692 1.10912
-0.405343 -0.159894 1.10757
-0.405332 -0.1611 1.10611
-0.405416 -0.162322 1.10482
-0.405549 -0.163551 1.10363
-0.405716 -0.164785 1.10251
-0.405961 -0.166033 1.10153
-0.406172 -0.167272 1.10049
-0.406429 -0.168519 1.09954
-0.406725 -0.169773 1.09866
-0.407094 -0.171042 1.09792
-0.407392 -0.172294 1.09705
-0.407689 -0.173545 1.09617
-0.407942 -0.174785 1.09522
-0.408223 -0.17603 1.09433
-0.408473 -0.177266 1.09337
-0.408725 -0.178502 1.09242
-0.408938 -0.179727 1.0914
-0.409176 -0.180956 1.09043
-0.409295 -0.182156 1.08925
-0.409451 -0.183362 1.08814
-0.409688 -0.184586 1.08717
-0.409979 -0.185822 1.08631
-0.410322 -0.187069 1.08553
-0.410785 -0.188347 1.08498
-0.411211 -0.189614 1.08435
-0.411714 -0.190901 1.08387
-0.412299 -0.19221 1.08353
-0.412895 -0.193522 1.08321
-0.413493 -0.194835 1.0829
-0.414202 -0.196178 1.08278
-0.414798 -0.197492 1.08246
-0.415395 -0.198806 1.08214
-0.415986 -0.200119 1.08181
-0.416377 -0.201376 1.08112
-0.416582 -0.202581 1.08011
-0.416845 -0.203801 1.07921
-0.417115 -0.205021 1.07831
-0.417383 -0.206239 1.07742
-0.417856 -0.207516 1.07688
-0.418443 -0.208828 1.07655
-0.419031 -0.210139 1.07621
-0.41963 -0.211454 1.0759
-0.420271 -0.212782 1.07565
-0.42091 -0.214111 1.0754
-0.421545 -0.215439 1.07515
-0.422221 -0.21678 1.07496
-0.422951 -0.21814 1.07487
-0.423728 -0.219514 1.07485
-0.424547 -0.220905 1.07491
-0.425363 -0.222295 1.07496
-0.426182 -0.223688 1.07501
-0.427001 -0.225083 1.07506
-0.427827 -0.226481 1.07512
-0.428657 -0.227883 1.07518
-0.429436 -0.229269 1.07516
-0.430166 -0.23064 1.07505
-0.430806 -0.231982 1.07479
-0.431576 -0.233368 1.07474
-0.432363 -0.234763 1.07473
-0.433212 -0.236179 1.07481
-0.434142 -0.237625 1.07503
-0.435154 -0.239103 1.07539
-0.436041 -0.240539 1.07553
-0.437099 -0.242037 1.07596
-0.438173 -0.243544 1.0764
-0.439254 -0.245056 1.07686
-0.440418 -0.246602 1.07746
-0.441669 -0.248182 1.07819
-0.442766 -0.249709 1.07866
-0.443988 -0.251286 1.07934
-0.445121 -0.252832 1.07987
-0.446258 -0.254383 1.08039
-0.447443 -0.255955 1.081
-0.448775 -0.257587 1.08184
-0.450351 -0.259315 1.08308
-0.452045 -0.261095 1.0845
-0.453714 -0.262869 1.08587
-0.455274 -0.264608 1.08707
-0.456628 -0.26627 1.08792
-0.457561 -0.26777 1.08808
-0.45815 -0.269135 1.08768
-0.458429 -0.270377 1.08679
-0.458493 -0.27153 1.08554
-0.458548 -0.272678 1.08428
-0.458494 -0.273779 1.08285
-0.45863 -0.274957 1.08173
-0.458954 -0.276208 1.08092
-0.459377 -0.2775 1.08026
-0.459905 -0.278836 1.07977
-0.460667 -0.280269 1.07965
-0.461489 -0.281728 1.07963
-0.462365 -0.283212 1.07969
-0.463435 -0.284781 1.08006
-0.464469 -0.286335 1.08037
-0.465418 -0.287857 1.08054
-0.466534 -0.289452 1.08097
-0.46756 -0.29101 1.08126
-0.468557 -0.292559 1.0815
-0.469512 -0.294091 1.08167
-0.410188 -0.131374 1.15577
-0.410138 -0.132668 1.15411
-0.410053 -0.133953 1.15239
-0.409503 -0.135175 1.14977
-0.408982 -0.136394 1.14721
-0.40843 -0.137602 1.1446
-0.407847 -0.1388 1.14194
-0.407301 -0.139996 1.13936
-0.406713 -0.14118 1.1367
-0.406167 -0.142363 1.13413
-0.405629 -0.143541 1.13159
-0.4053 -0.144745 1.12945
-0.405031 -0.145953 1.12744
-0.404902 -0.147179 1.1257
-0.404813 -0.148407 1.12404
-0.404806 -0.149646 1.12254
-0.404755 -0.150874 1.12096
-0.40475 -0.152107 1.11947
-0.404785 -0.153343 1.11806
-0.404711 -0.154557 1.11645
-0.404702 -0.15578 1.11497
-0.404607 -0.156984 1.11332
-0.404511 -0.158185 1.11168
-0.404422 -0.159383 1.11006
-0.404415 -0.160592 1.10859
-0.404453 -0.161809 1.10722
-0.404573 -0.163038 1.10599
-0.404701 -0.164267 1.10479
-0.40483 -0.165494 1.10359
-0.40503 -0.166733 1.10253
-0.405196 -0.167963 1.1014
-0.405408 -0.169201 1.10036
-0.40562 -0.170438 1.09933
-0.40591 -0.171689 1.09844
-0.406202 -0.172941 1.09755
-0.406503 -0.174192 1.09669
-0.406802 -0.175442 1.09582
-0.407174 -0.176708 1.09508
-0.407507 -0.177964 1.09428
-0.407803 -0.17921 1.09341
-0.408094 -0.180454 1.09253
-0.408341 -0.181686 1.09157
-0.40846 -0.182885 1.09038
-0.408613 -0.184091 1.08926
-0.408807 -0.185306 1.08821
-0.409016 -0.186522 1.0872
-0.409309 -0.187757 1.08633
-0.409726 -0.189024 1.08569
-0.410109 -0.190281 1.08499
-0.410612 -0.191568 1.08451
-0.411204 -0.192879 1.08418
-0.411807 -0.194194 1.08388
-0.412416 -0.195511 1.08358
-0.413171 -0.196868 1.08354
-0.413812 -0.198194 1.0833
-0.414454 -0.199522 1.08306
-0.415092 -0.20085 1.08281
-0.41552 -0.202118 1.08219
-0.415724 -0.203323 1.08118
-0.415983 -0.204542 1.08026
-0.416254 -0.205763 1.07937
-0.416516 -0.206981 1.07846
-0.416987 -0.208258 1.07792
-0.41757 -0.209569 1.07757
-0.418154 -0.21088 1.07723
-0.418789 -0.212208 1.07698
-0.419477 -0.213552 1.07681
-0.420167 -0.214898 1.07665
-0.420849 -0.216242 1.07648
-0.421527 -0.217586 1.07629
-0.422212 -0.218934 1.07612
-0.422907 -0.220285 1.07596
-0.423685 -0.221664 1.07595
-0.424456 -0.223042 1.07592
-0.425226 -0.22442 1.07589
-0.426002 -0.225803 1.07587
-0.426783 -0.227188 1.07585
-0.427525 -0.228562 1.07576
-0.428218 -0.229919 1.07559
-0.428982 -0.231303 1.07555
-0.42971 -0.232675 1.07543
-0.430615 -0.23411 1.07562
-0.431541 -0.235553 1.07584
-0.432518 -0.237016 1.07614
-0.433456 -0.238468 1.07637
-0.434468 -0.239949 1.07673
-0.43532 -0.241374 1.07681
-0.436331 -0.242859 1.07716
-0.437348 -0.244348 1.07752
-0.438371 -0.245842 1.07788
-0.43945 -0.247359 1.07833
-0.440708 -0.248944 1.07908
-0.441851 -0.250491 1.07963
-0.443088 -0.252075 1.08034
-0.444265 -0.253641 1.08094
-0.445489 -0.255227 1.08161
-0.446718 -0.256819 1.08229
-0.448107 -0.258475 1.08323
-0.449649 -0.260196 1.08441
-0.451298 -0.261962 1.08577
-0.452951 -0.263735 1.08712
-0.454511 -0.265477 1.08832
-0.455829 -0.267129 1.08911
-0.456858 -0.26867 1.08943
-0.457532 -0.27007 1.08917
-0.457764 -0.271294 1.08819
-0.457819 -0.272444 1.08693
-0.457829 -0.273574 1.0856
-0.457764 -0.274672 1.08414
-0.457903 -0.275849 1.08302
-0.458226 -0.277102 1.0822
-0.458606 -0.278378 1.08147
-0.45913 -0.279713 1.08098
-0.459802 -0.28111 1.08072
-0.460533 -0.282534 1.08055
-0.461318 -0.28398 1.08047
-0.462279 -0.285504 1.08066
-0.463209 -0.287015 1.08081
-0.464146 -0.288533 1.08096
-0.465217 -0.29011 1.08133
-0.466245 -0.291671 1.08162
-0.467239 -0.293219 1.08186
-0.468184 -0.294749 1.08201
-0.409668 -0.132131 1.15776
-0.409646 -0.13343 1.15615
-0.409532 -0.134713 1.15437
-0.409018 -0.13594 1.15181
-0.408321 -0.137136 1.14889
-0.407635 -0.138326 1.14601
-0.406962 -0.13951 1.14316
-0.406372 -0.140699 1.14048
-0.405784 -0.141882 1.13782
-0.405244 -0.143066 1.13525
-0.404673 -0.144238 1.13264
-0.404308 -0.145436 1.13042
-0.403991 -0.146636 1.12831
-0.403854 -0.14786 1.12655
-0.403733 -0.149083 1.12482
-0.403769 -0.150328 1.1234
-0.403768 -0.151564 1.12191
-0.403807 -0.152805 1.1205
-0.403854 -0.154043 1.11911
-0.403817 -0.155264 1.11757
-0.403764 -0.156479 1.11599
-0.403664 -0.157682 1.11434
-0.403569 -0.158882 1.11269
-0.403483 -0.160081 1.11107
-0.403522 -0.1613 1.10969
-0.403602 -0.162525 1.10838
-0.40373 -0.163756 1.10717
-0.403858 -0.164985 1.10596
-0.40398 -0.166211 1.10475
-0.404139 -0.167443 1.1036
-0.404259 -0.168664 1.10239
-0.404427 -0.169893 1.10126
-0.404597 -0.171121 1.10015
-0.404844 -0.172364 1.09918
-0.405095 -0.173605 1.09821
-0.405394 -0.174857 1.09734
-0.405696 -0.176108 1.09648
-0.406077 -0.177375 1.09576
-0.406459 -0.178643 1.09504
-0.406804 -0.179901 1.09426
-0.407142 -0.181157 1.09346
-0.407467 -0.182408 1.09265
-0.407635 -0.18362 1.09154
-0.407794 -0.184828 1.09043
-0.407987 -0.186043 1.08937
-0.408151 -0.187248 1.08827
-0.408362 -0.188464 1.08726
-0.408726 -0.189717 1.08652
-0.40906 -0.190962 1.08573
-0.409524 -0.19224 1.08517
-0.410155 -0.193562 1.08491
-0.410765 -0.19488 1.08462
-0.411373 -0.196197 1.08432
-0.412169 -0.197565 1.08436
-0.412852 -0.198905 1.08419
-0.413506 -0.200238 1.08397
-0.414189 -0.201579 1.08381
-0.414656 -0.20286 1.08325
-0.414861 -0.204066 1.08224
-0.415155 -0.205296 1.08138
-0.415466 -0.206529 1.08055
-0.41573 -0.207748 1.07965
-0.416203 -0.209027 1.07911
-0.416736 -0.210325 1.07868
-0.417276 -0.211624 1.07826
-0.417875 -0.212942 1.07794
-0.418572 -0.214291 1.07779
-0.419268 -0.21564 1.07764
-0.419989 -0.216998 1.07753
-0.420665 -0.218343 1.07734
-0.421307 -0.219678 1.07709
-0.421959 -0.221017 1.07686
-0.422726 -0.222393 1.07683
-0.423456 -0.22376 1.07673
-0.424188 -0.225128 1.07663
-0.424961 -0.22651 1.07661
-0.425738 -0.227895 1.07658
-0.426431 -0.229253 1.07642
-0.427158 -0.230624 1.0763
-0.428009 -0.232038 1.0764
-0.42884 -0.233447 1.07647
-0.429813 -0.234907 1.07677
-0.430791 -0.236371 1.07708
-0.431805 -0.23785 1.07744
-0.43273 -0.2393 1.07765
-0.433699 -0.240768 1.07794
-0.434547 -0.242195 1.07802
-0.435517 -0.243666 1.0783
-0.436441 -0.245125 1.0785
-0.43742 -0.246604 1.07879
-0.43845 -0.248105 1.07916
-0.43971 -0.249695 1.07992
-0.440905 -0.251262 1.08056
-0.442231 -0.252883 1.08141
-0.443418 -0.254455 1.08203
-0.444686 -0.256061 1.08278
-0.445964 -0.257675 1.08354
-0.447446 -0.259372 1.08464
-0.448959 -0.261085 1.08578
-0.450655 -0.262873 1.08721
-0.452393 -0.264684 1.08871
-0.454 -0.266449 1.08999
-0.455332 -0.268111 1.09081
-0.456407 -0.269673 1.0912
-0.457075 -0.271074 1.09093
-0.457252 -0.272277 1.08986
-0.45726 -0.273409 1.08851
-0.457174 -0.2745 1.08702
-0.457062 -0.275578 1.08548
-0.457143 -0.276733 1.08427
-0.457409 -0.277962 1.08335
-0.457739 -0.279218 1.08254
-0.458219 -0.280535 1.08197
-0.458846 -0.281915 1.08164
-0.45953 -0.283319 1.08139
-0.460212 -0.284724 1.08115
-0.461072 -0.286206 1.08119
-0.461943 -0.287694 1.08124
-0.462827 -0.289189 1.08131
-0.463814 -0.290731 1.08154
-0.464796 -0.292273 1.08176
-0.465734 -0.293798 1.08192
-0.466618 -0.2953 1.08198
-0.409016 -0.132875 1.1595
-0.409073 -0.134185 1.15804
-0.408968 -0.135471 1.15627
-0.40859 -0.136716 1.15396
-0.407805 -0.1379 1.15087
-0.407023 -0.139077 1.14779
-0.406213 -0.140242 1.14466
-0.405534 -0.141418 1.1418
-0.404904 -0.142594 1.13904
-0.404371 -0.143777 1.13648
-0.403765 -0.144944 1.13378
-0.403354 -0.146134 1.13148
-0.402995 -0.147326 1.12927
-0.402772 -0.148537 1.12734
-0.402613 -0.149753 1.12554
-0.402688 -0.151004 1.12419
-0.402734 -0.152248 1.12278
-0.402861 -0.153504 1.12154
-0.402949 -0.15475 1.12022
-0.402952 -0.155978 1.11875
-0.402896 -0.157193 1.11716
-0.402792 -0.158395 1.11549
-0.402659 -0.159588 1.11377
-0.402615 -0.160795 1.11222
-0.402661 -0.162016 1.11085
-0.402749 -0.163242 1.10955
-0.402913 -0.164482 1.10841
-0.403044 -0.165712 1.1072
-0.403134 -0.166932 1.10592
-0.403251 -0.168155 1.10469
-0.403329 -0.169368 1.10339
-0.403449 -0.170587 1.10218
-0.403579 -0.171806 1.10098
-0.403789 -0.173041 1.09994
-0.404036 -0.174282 1.09897
-0.404366 -0.175541 1.09815
-0.404669 -0.176793 1.09728
-0.405093 -0.178071 1.09664
-0.405519 -0.179349 1.096
-0.405909 -0.180618 1.0953
-0.406255 -0.181877 1.09452
-0.406591 -0.183131 1.09372
-0.406804 -0.184355 1.09269
-0.406968 -0.185565 1.09158
-0.407169 -0.186782 1.09054
-0.407331 -0.187987 1.08943
-0.407533 -0.189201 1.0884
-0.407857 -0.190446 1.08759
-0.40815 -0.191681 1.08672
-0.408607 -0.192958 1.08615
-0.40923 -0.194279 1.08588
-0.409838 -0.195597 1.08558
-0.410442 -0.196915 1.08527
-0.411235 -0.198285 1.0853
-0.411916 -0.199625 1.08513
-0.412571 -0.200959 1.08492
-0.41326 -0.202304 1.08476
-0.413734 -0.203587 1.08422
-0.414018 -0.204816 1.08334
-0.414322 -0.20605 1.0825
-0.414643 -0.207287 1.08169
-0.414912 -0.208508 1.08078
-0.415379 -0.209787 1.08023
-0.415876 -0.211075 1.07974
-0.416415 -0.212375 1.07931
-0.417013 -0.213694 1.07899
-0.417707 -0.215044 1.07884
-0.418406 -0.216395 1.07869
-0.419087 -0.217742 1.07851
-0.419719 -0.219075 1.07825
-0.420312 -0.220395 1.07792
-0.420951 -0.22173 1.07766
-0.421677 -0.223095 1.07756
-0.42241 -0.224464 1.07746
-0.423148 -0.225835 1.07738
-0.42388 -0.227205 1.07728
-0.424607 -0.228575 1.07717
-0.425293 -0.229932 1.07699
-0.426103 -0.231332 1.07703
-0.427055 -0.232782 1.0773
-0.428034 -0.234244 1.07761
-0.429072 -0.235729 1.07803
-0.430135 -0.237225 1.07848
-0.431099 -0.23869 1.07876
-0.431971 -0.240123 1.07889
-0.432888 -0.241574 1.07908
-0.433724 -0.242999 1.07914
-0.434613 -0.244444 1.07929
-0.435538 -0.245904 1.07949
-0.436518 -0.247387 1.07979
-0.437548 -0.24889 1.08016
-0.438803 -0.25048 1.08091
-0.440037 -0.252066 1.08162
-0.441367 -0.253691 1.08248
-0.442565 -0.25527 1.08312
-0.443831 -0.256879 1.08387
-0.445197 -0.25853 1.08478
-0.446823 -0.260286 1.08612
-0.448441 -0.262043 1.08744
-0.450278 -0.263892 1.08911
-0.452153 -0.265763 1.09083
-0.45377 -0.267538 1.09213
-0.455027 -0.269174 1.09283
-0.456054 -0.27072 1.09314
-0.456628 -0.272086 1.09271
-0.456706 -0.27325 1.09148
-0.456669 -0.274364 1.09005
-0.456536 -0.275436 1.08848
-0.456328 -0.276475 1.08678
-0.4563 -0.277584 1.08538
-0.456467 -0.278773 1.0843
-0.456699 -0.279988 1.08333
-0.457133 -0.281286 1.08269
-0.457753 -0.282664 1.08234
-0.458381 -0.284045 1.08201
-0.45905 -0.285445 1.08174
-0.459859 -0.286906 1.0817
-0.460726 -0.288393 1.08175
-0.461572 -0.289874 1.08176
-0.462506 -0.291393 1.08191
-0.46339 -0.292893 1.08198
-0.464262 -0.294389 1.08202
-0.465045 -0.295848 1.08193
-0.467639 -0.296865 1.08225
-0.465965 -0.297368 1.08205
-0.40867 -0.134965 1.16028
-0.408546 -0.13625 1.15846
-0.408273 -0.137511 1.15635
-0.407474 -0.138694 1.15322
-0.406594 -0.139857 1.14993
-0.405688 -0.141009 1.1466
-0.404963 -0.142178 1.14364
-0.404293 -0.143348 1.14079
-0.403713 -0.144524 1.13813
-0.403021 -0.145677 1.13526
-0.402483 -0.146847 1.13269
-0.402032 -0.148025 1.13031
-0.401729 -0.14922 1.12821
-0.401525 -0.150428 1.12631
-0.401607 -0.151681 1.12497
-0.40169 -0.152932 1.12364
-0.401862 -0.154195 1.12248
-0.401997 -0.15545 1.12125
-0.402005 -0.156679 1.11977
-0.401993 -0.157902 1.11827
-0.401853 -0.159097 1.11652
-0.401714 -0.160289 1.11478
-0.401674 -0.161496 1.11324
-0.40172 -0.162717 1.11186
-0.401812 -0.163945 1.11057
-0.40202 -0.165193 1.1095
-0.402187 -0.166432 1.10836
-0.402282 -0.167653 1.10708
-0.402406 -0.168878 1.10586
-0.402519 -0.170099 1.10463
-0.402639 -0.171319 1.10341
-0.402727 -0.172529 1.10213
-0.402898 -0.173756 1.10101
-0.403105 -0.174989 1.09996
-0.403357 -0.176231 1.099
-0.403652 -0.17748 1.09811
-0.404076 -0.178759 1.09747
-0.404544 -0.180049 1.09691
-0.404937 -0.181319 1.09621
-0.405319 -0.182587 1.09549
-0.405655 -0.183842 1.09469
-0.405912 -0.185077 1.09374
-0.406126 -0.1863 1.09272
-0.406369 -0.187529 1.09175
-0.406533 -0.188735 1.09064
-0.406737 -0.18995 1.08961
-0.407021 -0.191185 1.08872
-0.407279 -0.192411 1.08778
-0.407734 -0.193689 1.08721
-0.408358 -0.195012 1.08694
-0.40892 -0.196319 1.08656
-0.409484 -0.197627 1.08618
-0.410264 -0.198995 1.08619
-0.41094 -0.200335 1.08601
-0.411596 -0.20167 1.08579
-0.412326 -0.203028 1.08571
-0.412841 -0.204325 1.08524
-0.413133 -0.205557 1.08437
-0.413446 -0.206793 1.08354
-0.413774 -0.208033 1.08274
-0.414051 -0.209257 1.08185
-0.414521 -0.210538 1.0813
-0.415014 -0.211826 1.0808
-0.415551 -0.213127 1.08037
-0.416148 -0.214447 1.08005
-0.416841 -0.215798 1.07989
-0.417492 -0.217136 1.07966
-0.418128 -0.21847 1.0794
-0.418752 -0.219801 1.07912
-0.419301 -0.221108 1.07871
-0.419899 -0.222432 1.07839
-0.420624 -0.223797 1.07828
-0.421357 -0.225167 1.07819
-0.422096 -0.22654 1.07811
-0.422829 -0.227912 1.07801
-0.423595 -0.229295 1.07797
-0.424365 -0.230682 1.07793
-0.425271 -0.232117 1.07813
-0.42629 -0.233593 1.07852
-0.427408 -0.235106 1.07908
-0.428484 -0.236607 1.07956
-0.429499 -0.23809 1.07993
-0.430454 -0.239553 1.0802
-0.431281 -0.240973 1.08024
-0.432114 -0.242398 1.0803
-0.432909 -0.243808 1.08028
-0.433826 -0.245266 1.08048
-0.434713 -0.246715 1.08062
-0.435696 -0.248201 1.08092
-0.436728 -0.249708 1.0813
-0.43798 -0.251299 1.08204
-0.439209 -0.252886 1.08275
-0.440581 -0.254531 1.08369
-0.441827 -0.256131 1.08441
-0.443186 -0.257779 1.08532
-0.4446 -0.259452 1.08631
-0.446315 -0.261248 1.0878
-0.448042 -0.263053 1.0893
-0.449993 -0.264953 1.09116
-0.451977 -0.266873 1.09307
-0.453693 -0.268693 1.09453
-0.454951 -0.270334 1.09523
-0.455883 -0.271847 1.09539
-0.456352 -0.273172 1.09479
-0.456279 -0.274276 1.0933
-0.456148 -0.275353 1.09172
-0.455881 -0.276369 1.08991
-0.455622 -0.277386 1.08813
-0.455537 -0.278472 1.08663
-0.455646 -0.279636 1.08546
-0.455829 -0.280831 1.0844
-0.456259 -0.282129 1.08375
-0.456831 -0.283487 1.08333
-0.45736 -0.284827 1.08283
-0.457976 -0.286206 1.08248
-0.458738 -0.287647 1.08236
-0.459568 -0.28912 1.08235
-0.460374 -0.290583 1.0823
-0.46125 -0.292079 1.08236
-0.462017 -0.293529 1.08224
-0.462779 -0.294976 1.08212
-0.463467 -0.296392 1.08187
-0.464302 -0.297875 1.08186
-0.471461 -0.300957 1.0894
-0.465089 -0.299337 1.08177
-0.408013 -0.135716 1.16203
-0.407963 -0.137012 1.16035
-0.407799 -0.138288 1.15845
-0.407171 -0.139496 1.15564
-0.40652 -0.140693 1.15279
-0.405684 -0.141855 1.14958
-0.404922 -0.14302 1.14653
-0.40421 -0.144186 1.14359
-0.40354 -0.14535 1.14074
-0.402704 -0.146481 1.13758
-0.401906 -0.147609 1.13449
-0.401275 -0.148758 1.13175
-0.400841 -0.149932 1.12939
-0.400553 -0.151125 1.12732
-0.400596 -0.152372 1.1259
-0.400644 -0.153616 1.12449
-0.400818 -0.15488 1.12333
-0.400958 -0.156136 1.12211
-0.401016 -0.157374 1.12073
-0.401011 -0.158598 1.11923
-0.400914 -0.159801 1.11756
-0.400779 -0.160993 1.11582
-0.40073 -0.162199 1.11425
-0.400777 -0.16342 1.11287
-0.400834 -0.16464 1.11151
-0.401039 -0.165889 1.11044
-0.40125 -0.167137 1.10937
-0.401386 -0.168368 1.10817
-0.401555 -0.169603 1.10703
-0.401718 -0.170834 1.10589
-0.401837 -0.172055 1.10466
-0.401927 -0.173266 1.10338
-0.402055 -0.174484 1.10218
-0.40218 -0.175699 1.10097
-0.402388 -0.176931 1.09992
-0.402645 -0.178172 1.09897
-0.403029 -0.179442 1.09825
-0.40346 -0.180723 1.09762
-0.403887 -0.182003 1.09698
-0.404304 -0.183279 1.09632
-0.404674 -0.184544 1.09558
-0.404971 -0.185789 1.0947
-0.405227 -0.187023 1.09376
-0.405478 -0.188254 1.0928
-0.405682 -0.189471 1.09176
-0.405929 -0.190698 1.0908
-0.40626 -0.191946 1.08999
-0.406565 -0.193186 1.08914
-0.407022 -0.194466 1.08857
-0.407605 -0.195779 1.08822
-0.408128 -0.197077 1.08777
-0.408649 -0.198375 1.08731
-0.409352 -0.199723 1.08718
-0.409984 -0.201052 1.08692
-0.41059 -0.202375 1.08662
-0.41128 -0.203722 1.08646
-0.411761 -0.20501 1.08593
-0.412095 -0.206254 1.08513
-0.412489 -0.207515 1.08445
-0.412821 -0.208757 1.08365
-0.413134 -0.209992 1.08282
-0.41364 -0.211285 1.08234
-0.414138 -0.212575 1.08184
-0.414641 -0.213867 1.08135
-0.415275 -0.2152 1.08109
-0.415963 -0.21655 1.08093
-0.416609 -0.217888 1.08069
-0.417239 -0.219222 1.08042
-0.417821 -0.220541 1.08007
-0.418329 -0.221836 1.07958
-0.418888 -0.223148 1.07919
-0.419613 -0.224515 1.07908
-0.420351 -0.225887 1.079
-0.421128 -0.227274 1.07898
-0.421862 -0.228648 1.07889
-0.42271 -0.230061 1.07899
-0.423536 -0.231469 1.07905
-0.424507 -0.232928 1.07936
-0.425573 -0.234423 1.07984
-0.426772 -0.235968 1.08053
-0.427794 -0.237453 1.08092
-0.428757 -0.238919 1.0812
-0.429704 -0.240383 1.08146
-0.430501 -0.241794 1.08145
-0.431254 -0.243191 1.08137
-0.432043 -0.244603 1.08135
-0.432953 -0.24606 1.08153
-0.433844 -0.247511 1.08168
-0.434831 -0.249001 1.08199
-0.435911 -0.250528 1.08245
-0.437202 -0.252138 1.08326
-0.438519 -0.253761 1.08412
-0.439899 -0.255414 1.08507
-0.441231 -0.25705 1.08594
-0.442726 -0.258755 1.08708
-0.444236 -0.26047 1.08823
-0.446016 -0.262296 1.08983
-0.447845 -0.264148 1.09151
-0.44986 -0.266079 1.09348
-0.451864 -0.268014 1.09543
-0.453589 -0.269844 1.09691
-0.45484 -0.271486 1.0976
-0.45567 -0.272962 1.09759
-0.456023 -0.274242 1.09679
-0.455889 -0.275322 1.09519
-0.455652 -0.276355 1.09343
-0.455248 -0.277315 1.09139
-0.454938 -0.27831 1.08952
-0.454801 -0.279374 1.08793
-0.454815 -0.280499 1.0866
-0.454955 -0.281675 1.08547
-0.455341 -0.282955 1.08475
-0.455866 -0.284295 1.08425
-0.456345 -0.285614 1.08367
-0.456914 -0.286972 1.08324
-0.457676 -0.288415 1.08312
-0.458517 -0.289894 1.08313
-0.45927 -0.291336 1.083
-0.460093 -0.292809 1.08297
-0.460788 -0.294228 1.08274
-0.46145 -0.295631 1.08246
-0.46209 -0.297026 1.08213
-0.462882 -0.298489 1.08206
-0.46362 -0.29993 1.08189
-0.407397 -0.136475 1.16387
-0.407286 -0.137764 1.16206
-0.407113 -0.13904 1.16014
-0.406531 -0.140253 1.1574
-0.406021 -0.141471 1.15482
-0.405468 -0.142675 1.15216
-0.404981 -0.143883 1.14964
-0.4046 -0.145101 1.14734
-0.403841 -0.146254 1.1443
-0.402816 -0.147357 1.14075
-0.401731 -0.14844 1.13709
-0.400824 -0.149544 1.13379
-0.400091 -0.150668 1.13084
-0.399715 -0.151847 1.12859
-0.399677 -0.153079 1.12701
-0.399686 -0.154317 1.12552
-0.399854 -0.15558 1.12434
-0.399995 -0.156836 1.12312
-0.400096 -0.158083 1.12182
-0.400144 -0.159317 1.12042
-0.400054 -0.160521 1.11875
-0.399915 -0.161713 1.117
-0.399861 -0.162918 1.11542
-0.399868 -0.164132 1.11396
-0.399923 -0.165352 1.11259
-0.40013 -0.166601 1.11151
-0.400342 -0.16785 1.11045
-0.400484 -0.169082 1.10925
-0.4007 -0.170328 1.1082
-0.400908 -0.17157 1.10714
-0.401042 -0.172794 1.10593
-0.40117 -0.174015 1.10472
-0.401289 -0.175232 1.1035
-0.401373 -0.176437 1.10221
-0.401532 -0.177659 1.10106
-0.401783 -0.1789 1.10009
-0.402129 -0.180162 1.0993
-0.40256 -0.181444 1.09867
-0.402951 -0.182715 1.09796
-0.403327 -0.183983 1.09723
-0.403694 -0.185246 1.09648
-0.403991 -0.186493 1.0956
-0.404253 -0.187728 1.09466
-0.404548 -0.188971 1.09378
-0.404797 -0.1902 1.09282
-0.405044 -0.191428 1.09186
-0.405381 -0.192679 1.09106
-0.405728 -0.19393 1.09028
-0.406194 -0.195214 1.08972
-0.406779 -0.19653 1.08938
-0.407299 -0.197828 1.08892
-0.407818 -0.199126 1.08846
-0.408441 -0.200453 1.08818
-0.409029 -0.201772 1.08784
-0.409595 -0.203084 1.08746
-0.410238 -0.204419 1.08722
-0.410674 -0.205694 1.08661
-0.411006 -0.206937 1.08581
-0.411438 -0.20821 1.08519
-0.411809 -0.209464 1.08446
-0.412164 -0.210712 1.08371
-0.412711 -0.212018 1.08329
-0.413249 -0.213322 1.08286
-0.413754 -0.214616 1.08238
-0.414354 -0.215939 1.08206
-0.415002 -0.217279 1.08182
-0.415611 -0.218606 1.08152
-0.416199 -0.219928 1.08117
-0.416778 -0.221246 1.08082
-0.417328 -0.222556 1.08041
-0.417935 -0.223884 1.08009
-0.418702 -0.225267 1.08006
-0.419475 -0.226652 1.08004
-0.420294 -0.228055 1.0801
-0.421075 -0.229446 1.08008
-0.42202 -0.230896 1.08036
-0.42294 -0.232338 1.08058
-0.424 -0.233831 1.08104
-0.425026 -0.235316 1.08145
-0.426125 -0.236828 1.08197
-0.427006 -0.238266 1.08212
-0.427877 -0.239703 1.08225
-0.428746 -0.241141 1.08237
-0.429544 -0.242554 1.08237
-0.430345 -0.24397 1.08237
-0.431175 -0.245398 1.08242
-0.432086 -0.246857 1.0826
-0.433015 -0.248326 1.08281
-0.434094 -0.249853 1.08328
-0.435266 -0.251418 1.0839
-0.436701 -0.253085 1.08496
-0.438156 -0.254766 1.08605
-0.439634 -0.25646 1.08717
-0.44107 -0.258142 1.08821
-0.442626 -0.259876 1.08945
-0.444149 -0.261601 1.09063
-0.445896 -0.26342 1.09218
-0.447719 -0.265276 1.09385
-0.44974 -0.267217 1.09584
-0.451702 -0.269142 1.09772
-0.453385 -0.27096 1.09913
-0.45463 -0.272606 1.09981
-0.455404 -0.274061 1.0997
-0.455616 -0.275286 1.09867
-0.455417 -0.276338 1.09696
-0.455075 -0.277328 1.09501
-0.454614 -0.278264 1.09288
-0.454208 -0.279218 1.09084
-0.454026 -0.280262 1.08918
-0.453998 -0.28137 1.08777
-0.454139 -0.282547 1.08664
-0.454483 -0.28381 1.08584
-0.454965 -0.285131 1.08527
-0.455395 -0.28643 1.08462
-0.455913 -0.287767 1.0841
-0.456621 -0.289188 1.0839
-0.457416 -0.290648 1.08383
-0.458126 -0.292072 1.08363
-0.458895 -0.293522 1.08352
-0.459538 -0.294918 1.0832
-0.460148 -0.296298 1.08283
-0.460739 -0.297671 1.08244
-0.461483 -0.299114 1.08228
-0.462123 -0.30051 1.08196
-0.469026 -0.303515 1.08913
-0.462833 -0.301939 1.08175
-0.406276 -0.139773 1.16153
-0.405909 -0.141017 1.15922
-0.405629 -0.142268 1.15708
-0.405388 -0.143521 1.15503
-0.405209 -0.144778 1.15311
-0.405075 -0.146037 1.15128
-0.404429 -0.147211 1.14844
-0.40335 -0.148308 1.14477
-0.402027 -0.149354 1.14062
-0.400874 -0.150419 1.13683
-0.399855 -0.151496 1.1333
-0.399147 -0.152618 1.1304
-0.398942 -0.153821 1.12848
-0.398858 -0.155043 1.12681
-0.398942 -0.156292 1.12546
-0.399037 -0.15754 1.12414
-0.399139 -0.158787 1.12284
-0.399231 -0.160029 1.12152
-0.399186 -0.161243 1.11994
-0.399092 -0.162443 1.11827
-0.399077 -0.163656 1.11676
-0.399081 -0.164869 1.11528
-0.399097 -0.166082 1.11383
-0.399302 -0.167333 1.11275
-0.399472 -0.168572 1.1116
-0.399613 -0.169805 1.1104
-0.399876 -0.171062 1.10943
-0.400136 -0.172316 1.10846
-0.400315 -0.173551 1.10734
-0.400481 -0.174782 1.1062
-0.400566 -0.175991 1.1049
-0.400602 -0.177187 1.10352
-0.40072 -0.178399 1.10229
-0.400924 -0.17963 1.10123
-0.401228 -0.180883 1.10036
-0.401659 -0.182165 1.09972
-0.40205 -0.183438 1.09901
-0.402431 -0.184707 1.09829
-0.402804 -0.185974 1.09755
-0.403142 -0.187231 1.09674
-0.403409 -0.188469 1.09581
-0.403702 -0.189712 1.09492
-0.40399 -0.190952 1.09403
-0.40428 -0.192193 1.09314
-0.404623 -0.193445 1.09235
-0.405012 -0.19471 1.09165
-0.405518 -0.196005 1.09116
-0.406067 -0.197313 1.09075
-0.406581 -0.198612 1.09028
-0.407095 -0.19991 1.0898
-0.40768 -0.201228 1.08946
-0.408231 -0.202537 1.08905
-0.408784 -0.203848 1.08865
-0.409342 -0.205159 1.08825
-0.40973 -0.206421 1.08755
-0.410056 -0.207664 1.08674
-0.410452 -0.208926 1.08605
-0.410793 -0.210171 1.08527
-0.411192 -0.211433 1.08459
-0.411739 -0.212741 1.08418
-0.412283 -0.214048 1.08376
-0.412831 -0.215355 1.08334
-0.413471 -0.216693 1.08309
-0.414123 -0.218035 1.08287
-0.41473 -0.219363 1.08256
-0.415321 -0.220686 1.08222
-0.415946 -0.222022 1.08194
-0.416544 -0.223348 1.08161
-0.417191 -0.224693 1.08137
-0.418003 -0.226092 1.08142
-0.418819 -0.227494 1.08147
-0.419688 -0.228917 1.08162
-0.420481 -0.230314 1.08162
-0.421478 -0.231784 1.08198
-0.422398 -0.23323 1.08221
-0.423415 -0.234711 1.0826
-0.424344 -0.236165 1.08284
-0.425384 -0.23766 1.08326
-0.426176 -0.239068 1.08325
-0.426998 -0.240489 1.0833
-0.427866 -0.241928 1.08342
-0.428703 -0.243358 1.08348
-0.429593 -0.244808 1.08364
-0.430516 -0.246273 1.08384
-0.431521 -0.24777 1.08419
-0.432542 -0.249276 1.08456
-0.433672 -0.250825 1.08511
-0.434941 -0.252431 1.0859
-0.436481 -0.254144 1.08714
-0.438054 -0.255876 1.08842
-0.439602 -0.257602 1.08967
-0.441133 -0.259327 1.09087
-0.442739 -0.261086 1.0922
-0.444234 -0.262808 1.09333
-0.445892 -0.264598 1.09473
-0.447654 -0.266436 1.0963
-0.449642 -0.26837 1.09824
-0.451601 -0.2703 1.10012
-0.453384 -0.272166 1.10171
-0.454781 -0.273879 1.10264
-0.455746 -0.275417 1.10284
-0.455787 -0.276574 1.10152
-0.455393 -0.277547 1.09948
-0.454799 -0.278432 1.09711
-0.454089 -0.279263 1.09456
-0.45345 -0.280117 1.09213
-0.453311 -0.28118 1.09053
-0.453284 -0.282288 1.08912
-0.45343 -0.283467 1.08799
-0.453769 -0.284729 1.08718
-0.454157 -0.286011 1.08645
-0.45449 -0.287268 1.08564
-0.454907 -0.288561 1.08496
-0.455565 -0.289962 1.08467
-0.456303 -0.291398 1.08452
-0.457011 -0.292822 1.08431
-0.45778 -0.294273 1.0842
-0.458431 -0.295673 1.0839
-0.459001 -0.297037 1.08347
-0.459543 -0.298388 1.08299
-0.460181 -0.299783 1.08266
-0.460713 -0.30113 1.08217
-0.461326 -0.302514 1.08181
-0.463506 -0.303351 1.08148
-0.461946 -0.303902 1.08145
-0.469113 -0.307065 1.08904
-0.462682 -0.305344 1.08128
-0.405623 -0.144419 1.15854
-0.405678 -0.145716 1.15707
-0.405601 -0.14699 1.15534
-0.405069 -0.148185 1.15272
-0.404077 -0.149298 1.1492
-0.40257 -0.150317 1.14467
-0.401221 -0.151349 1.14047
-0.399956 -0.152386 1.13645
-0.399009 -0.153467 1.13306
-0.398503 -0.154619 1.13055
-0.39829 -0.155819 1.12861
-0.398238 -0.157044 1.127
-0.398247 -0.158277 1.1255
-0.398269 -0.159509 1.12404
-0.398318 -0.160744 1.12263
-0.398319 -0.161966 1.12114
-0.398269 -0.163176 1.11954
-0.398303 -0.164399 1.11812
-0.398356 -0.165623 1.11673
-0.39841 -0.166844 1.11535
-0.398572 -0.168086 1.11418
-0.398735 -0.169326 1.11302
-0.398874 -0.170559 1.11181
-0.399135 -0.171816 1.11083
-0.399399 -0.173073 1.10987
-0.39962 -0.174318 1.10882
-0.399831 -0.17556 1.10776
-0.399918 -0.176771 1.10646
-0.39996 -0.177969 1.10508
-0.400036 -0.179172 1.10377
-0.400197 -0.180394 1.10262
-0.400418 -0.181628 1.10159
-0.400845 -0.182911 1.10095
-0.401281 -0.184196 1.10032
-0.401747 -0.185488 1.09975
-0.402165 -0.186768 1.09909
-0.402545 -0.188037 1.09836
-0.40281 -0.189275 1.09742
-0.403028 -0.1905 1.09639
-0.403236 -0.191721 1.09535
-0.403481 -0.19295 1.09437
-0.403782 -0.194192 1.0935
-0.404174 -0.195458 1.0928
-0.404721 -0.196767 1.09239
-0.405271 -0.198076 1.09198
-0.405823 -0.199387 1.09157
-0.406374 -0.200697 1.09116
-0.406921 -0.202007 1.09075
-0.407431 -0.203305 1.09026
-0.40794 -0.204604 1.08978
-0.408408 -0.205891 1.08922
-0.40875 -0.207139 1.08843
-0.409038 -0.208371 1.08755
-0.409437 -0.209635 1.08687
-0.40982 -0.210894 1.08616
-0.410265 -0.21217 1.08556
-0.410823 -0.213482 1.08516
-0.411408 -0.214803 1.08482
-0.411998 -0.216125 1.08448
-0.412679 -0.217478 1.0843
-0.41337 -0.218834 1.08414
-0.414019 -0.220177 1.0839
-0.41465 -0.221516 1.08364
-0.415318 -0.222868 1.08343
-0.415967 -0.224213 1.08319
-0.416629 -0.225564 1.08298
-0.417487 -0.226982 1.08311
-0.418387 -0.228416 1.0833
-0.419308 -0.229859 1.08354
-0.420152 -0.231278 1.08363
-0.421191 -0.232766 1.08407
-0.422105 -0.234213 1.08428
-0.423025 -0.235665 1.08451
-0.423862 -0.237088 1.08458
-0.424812 -0.238554 1.08485
-0.425554 -0.239947 1.08475
-0.426335 -0.241356 1.08473
-0.427243 -0.242812 1.08491
-0.42817 -0.244277 1.08513
-0.429197 -0.245782 1.08552
-0.430226 -0.247289 1.08591
-0.431336 -0.24883 1.08644
-0.432409 -0.25036 1.0869
-0.433586 -0.251931 1.08753
-0.43487 -0.253549 1.08834
-0.436476 -0.255293 1.08969
-0.438113 -0.257054 1.09109
-0.439714 -0.258808 1.09243
-0.441297 -0.26056 1.09372
-0.442903 -0.262325 1.09505
-0.444355 -0.264035 1.09611
-0.445863 -0.265772 1.09726
-0.44742 -0.267533 1.09849
-0.449379 -0.269463 1.10039
-0.451395 -0.271423 1.10237
-0.453309 -0.273347 1.10417
-0.455056 -0.27521 1.10569
-0.456419 -0.276919 1.10655
-0.456709 -0.278184 1.10563
-0.456108 -0.279073 1.10324
-0.45524 -0.279845 1.1004
-0.454103 -0.280495 1.09713
-0.453094 -0.281192 1.09408
-0.452555 -0.282083 1.09182
-0.45258 -0.283213 1.09049
-0.452771 -0.284413 1.08943
-0.453107 -0.285675 1.08861
-0.453437 -0.286933 1.08779
-0.453669 -0.288146 1.0868
-0.453933 -0.289373 1.08588
-0.454489 -0.290729 1.08542
-0.455085 -0.292102 1.08503
-0.455703 -0.293486 1.08468
-0.456384 -0.294899 1.08443
-0.457084 -0.296322 1.08421
-0.457569 -0.297646 1.08364
-0.458108 -0.298995 1.08316
-0.458686 -0.300362 1.08274
-0.459199 -0.3017 1.08221
-0.459714 -0.303039 1.08169
-0.460324 -0.304421 1.08132
-0.461064 -0.305866 1.08116
-0.463567 -0.306858 1.08135
-0.461949 -0.30738 1.08123
-0.405614 -0.145287 1.16159
-0.405835 -0.146613 1.16044
-0.405862 -0.147907 1.15891
-0.405523 -0.149137 1.15665
-0.404717 -0.150284 1.15348
-0.403328 -0.151324 1.14917
-0.401881 -0.152342 1.14475
-0.400459 -0.153353 1.1404
-0.399311 -0.154401 1.1366
-0.398532 -0.155506 1.13354
-0.398097 -0.156667 1.13116
-0.397877 -0.157863 1.12921
-0.397713 -0.159065 1.12737
-0.397603 -0.160273 1.12564
-0.397568 -0.161492 1.12407
-0.397565 -0.162714 1.12256
-0.397569 -0.163935 1.12106
-0.3977 -0.165179 1.11982
-0.397841 -0.166422 1.1186
-0.397901 -0.167647 1.11722
-0.398019 -0.168881 1.11596
-0.398133 -0.170111 1.1147
-0.398227 -0.171336 1.1134
-0.39845 -0.172586 1.11235
-0.398675 -0.173835 1.1113
-0.398893 -0.175081 1.11024
-0.399103 -0.176324 1.10918
-0.399237 -0.177546 1.10796
-0.399331 -0.178757 1.10668
-0.399486 -0.179981 1.10551
-0.399646 -0.181203 1.10436
-0.399858 -0.182437 1.1033
-0.400245 -0.183712 1.10258
-0.40068 -0.184998 1.10195
-0.401157 -0.186295 1.1014
-0.401627 -0.187589 1.10083
-0.402052 -0.188872 1.10018
-0.402314 -0.190112 1.09923
-0.402523 -0.191336 1.09818
-0.40268 -0.192545 1.09703
-0.402883 -0.193764 1.09598
-0.403177 -0.195006 1.09509
-0.403568 -0.196273 1.09439
-0.404082 -0.197575 1.09391
-0.404596 -0.198876 1.09343
-0.405185 -0.200199 1.09309
-0.405741 -0.201513 1.09269
-0.406297 -0.202826 1.09229
-0.406807 -0.204127 1.0918
-0.407349 -0.205438 1.09138
-0.407733 -0.206701 1.09066
-0.407994 -0.207927 1.08972
-0.408238 -0.209146 1.08876
-0.408638 -0.210411 1.08807
-0.409025 -0.211672 1.08737
-0.409512 -0.212963 1.08684
-0.410112 -0.21429 1.08652
-0.410739 -0.215626 1.08625
-0.411372 -0.216964 1.08599
-0.41206 -0.218321 1.08582
-0.41276 -0.219682 1.08568
-0.413449 -0.221041 1.08551
-0.414122 -0.222395 1.08531
-0.414799 -0.223752 1.08513
-0.415494 -0.225116 1.08497
-0.416243 -0.226498 1.0849
-0.417148 -0.227936 1.08511
-0.41814 -0.229404 1.08547
-0.41911 -0.230868 1.08579
-0.419998 -0.232306 1.08596
