ply
format ascii 1.0
element vertex 1703
property float x
property float y
property float z
end_header
0.170162 -0.0597007 0.806321
0.169292 -0.0608267 0.80312
0.16848 -0.0619655 0.800176
0.167924 -0.0632037 0.798394
0.167258 -0.0643879 0.796107
0.16659 -0.0655629 0.793807
0.165976 -0.0667544 0.791748
0.165535 -0.0680182 0.790474
0.165082 -0.0692728 0.789149
0.164698 -0.0705551 0.788132
0.164301 -0.0718282 0.787057
0.163955 -0.0731224 0.78621
0.163593 -0.0744061 0.785291
0.163282 -0.0757129 0.784605
0.162958 -0.0770105 0.783857
0.162688 -0.0783344 0.783357
0.162421 -0.0796583 0.78287
0.162204 -0.0810078 0.782611
0.161989 -0.0823581 0.782362
0.161792 -0.0837182 0.782199
0.161594 -0.0850772 0.782029
0.161412 -0.0864447 0.78193
0.161213 -0.0878028 0.781756
0.161047 -0.08918 0.781733
0.160868 -0.0905498 0.781652
0.160721 -0.0919391 0.781718
0.160558 -0.0933191 0.781711
0.160378 -0.0946885 0.781622
0.160081 -0.0959833 0.780991
0.159725 -0.0972376 0.780082
0.159246 -0.0984079 0.778597
0.158697 -0.099527 0.776787
0.158165 -0.100651 0.77505
0.157674 -0.101796 0.7735
0.157241 -0.102976 0.772218
0.156858 -0.104187 0.771171
0.156523 -0.105428 0.770349
0.15619 -0.106668 0.769533
0.155846 -0.107897 0.768663
0.155501 -0.109122 0.767787
0.155185 -0.110366 0.767048
0.154888 -0.111622 0.766396
0.154596 -0.11288 0.765767
0.154382 -0.114196 0.765507
0.154214 -0.115547 0.765464
0.154099 -0.116941 0.765671
0.154087 -0.118417 0.766364
0.154116 -0.11993 0.767256
0.154201 -0.121492 0.768413
0.154311 -0.12308 0.769695
0.154372 -0.124632 0.770746
0.154348 -0.126117 0.771392
0.154312 -0.127594 0.771982
0.154212 -0.129019 0.772273
0.154052 -0.130392 0.772275
0.153921 -0.131792 0.772413
0.153727 -0.133137 0.772255
0.153528 -0.134477 0.772072
0.153327 -0.135814 0.771876
0.153098 -0.137125 0.771546
0.152871 -0.138437 0.771227
0.152673 -0.139776 0.771048
0.152462 -0.141101 0.770801
0.152266 -0.142441 0.77063
0.152116 -0.143826 0.770683
0.151925 -0.145169 0.770533
0.151609 -0.147556 0.776568
0.151732 -0.146511 0.770376
0.187717 -0.0209014 0.856022
0.186591 -0.0222234 0.851843
0.185861 -0.0236047 0.849392
0.185179 -0.0249873 0.847155
0.184575 -0.0263782 0.845257
0.184062 -0.0277817 0.843754
0.183629 -0.0291976 0.842601
0.183221 -0.0306154 0.841555
0.182817 -0.0320311 0.840531
0.182456 -0.0334534 0.839689
0.182117 -0.0348788 0.838947
0.181759 -0.0362972 0.838119
0.181379 -0.037707 0.837193
0.181013 -0.0391176 0.836325
0.18065 -0.0405267 0.835474
0.18035 -0.0419507 0.834895
0.180038 -0.0433697 0.834265
0.17982 -0.0448154 0.834054
0.179663 -0.0462797 0.834113
0.179615 -0.0477795 0.834659
0.17962 -0.0492991 0.835445
0.179687 -0.0508424 0.836505
0.179761 -0.0523925 0.837602
0.179851 -0.0539523 0.838769
0.179614 -0.0553991 0.838478
0.176472 -0.0561326 0.831864
0.178966 -0.0566937 0.83634
0.17238 -0.0601976 0.809771
0.171091 -0.0611605 0.80471
0.170203 -0.0622728 0.80145
0.169587 -0.0634892 0.799412
0.168896 -0.0646656 0.797027
0.168203 -0.0658333 0.794635
0.16758 -0.0670241 0.792554
0.167136 -0.0682892 0.791277
0.166696 -0.0695521 0.790018
0.166311 -0.070837 0.789008
0.165912 -0.0721115 0.78793
0.165546 -0.0733989 0.787003
0.16518 -0.0746831 0.786073
0.164867 -0.075991 0.785382
0.164527 -0.0772829 0.784568
0.164237 -0.0785982 0.78398
0.163944 -0.0799105 0.783381
0.163688 -0.0812407 0.782947
0.163405 -0.0825544 0.782386
0.163155 -0.0838853 0.781979
0.162919 -0.085223 0.781636
0.1627 -0.0865694 0.78137
0.162466 -0.0879066 0.781035
0.162303 -0.0892844 0.781024
0.162124 -0.0906532 0.78094
0.161981 -0.0920442 0.781023
0.161836 -0.0934344 0.781097
0.161691 -0.0948257 0.781174
0.16143 -0.0961435 0.780713
0.161125 -0.097431 0.780044
0.160693 -0.0986342 0.778792
0.160174 -0.0997748 0.77713
0.15964 -0.1009 0.775397
0.159143 -0.102044 0.773835
0.15869 -0.103213 0.772473
0.158288 -0.104412 0.771345
0.157921 -0.105633 0.770382
0.157585 -0.106872 0.769556
0.157223 -0.108089 0.768611
0.156844 -0.109291 0.767585
0.156492 -0.110509 0.766681
0.156173 -0.111749 0.765933
0.155831 -0.112969 0.765072
0.15557 -0.114248 0.764591
0.155356 -0.115562 0.76433
0.155176 -0.116902 0.764228
0.155079 -0.118309 0.764517
0.155051 -0.119772 0.765131
0.155094 -0.121295 0.766079
0.155222 -0.122891 0.76743
0.155324 -0.124473 0.768662
0.155374 -0.126015 0.769652
0.155396 -0.127538 0.77051
0.155347 -0.129004 0.771035
0.155204 -0.13039 0.771116
0.155073 -0.131788 0.771255
0.154893 -0.133143 0.771158
0.154696 -0.134483 0.770983
0.154498 -0.135822 0.770803
0.15427 -0.137133 0.770481
0.154056 -0.138456 0.770225
0.153843 -0.139779 0.769973
0.153661 -0.141131 0.76987
0.15347 -0.142474 0.769721
0.153324 -0.14386 0.769787
0.153148 -0.145218 0.769713
0.152969 -0.146573 0.76962
0.151908 -0.14822 0.772005
0.152757 -0.147895 0.769373
0.152065 -0.149917 0.773545
0.152526 -0.149198 0.769033
0.152216 -0.151614 0.775058
0.152295 -0.150499 0.768691
0.18994 -0.0212037 0.859003
0.188467 -0.0224698 0.853346
0.187775 -0.0238618 0.851086
0.18711 -0.0252515 0.848942
0.186481 -0.0266413 0.846947
0.185922 -0.0280388 0.845255
0.185422 -0.0294437 0.84382
0.184984 -0.0308577 0.842655
0.184556 -0.0322703 0.841531
0.184193 -0.0336949 0.84069
0.183854 -0.0351227 0.839952
0.18351 -0.036547 0.839192
0.183146 -0.0379639 0.838346
0.182802 -0.0393832 0.837581
0.18246 -0.0408007 0.836827
0.182184 -0.0422351 0.836363
0.181872 -0.0436573 0.835737
0.181635 -0.0451006 0.835446
0.181454 -0.0465604 0.835398
0.181387 -0.0480568 0.835858
0.181337 -0.0495604 0.836389
0.181362 -0.0510919 0.83726
0.181377 -0.052623 0.838084
0.181426 -0.0541696 0.839064
0.181527 -0.0557385 0.840274
0.18131 -0.0571957 0.840073
0.174482 -0.060645 0.812647
0.172802 -0.0614568 0.805877
0.171875 -0.0625571 0.80247
0.171218 -0.0637597 0.800266
0.170518 -0.0649357 0.797862
0.16982 -0.0661042 0.795462
0.169173 -0.0672872 0.793289
0.168706 -0.0685445 0.791921
0.168261 -0.0698079 0.790653
0.167856 -0.0710852 0.789558
0.167472 -0.0723693 0.788559
0.167122 -0.0736665 0.787709
0.166772 -0.074961 0.78686
0.166459 -0.0762716 0.786177
0.166115 -0.0775638 0.785351
0.165788 -0.0788622 0.784601
0.165442 -0.0801481 0.783762
0.165128 -0.0814486 0.783069
0.164787 -0.0827319 0.782251
0.164481 -0.0840324 0.781595
0.164207 -0.0853484 0.781078
0.163968 -0.0866831 0.780723
0.163703 -0.0880015 0.780247
0.163538 -0.0893773 0.780226
0.16336 -0.0907459 0.780147
0.163218 -0.0921364 0.780234
0.163075 -0.0935265 0.780313
0.162966 -0.0949388 0.780551
0.16274 -0.0962784 0.780253
0.162455 -0.0975797 0.779686
0.162058 -0.098806 0.778599
0.16157 -0.0999689 0.777094
0.16105 -0.101105 0.775439
0.160552 -0.102251 0.773884
0.160095 -0.103418 0.772514
0.15969 -0.104618 0.771383
0.159305 -0.105827 0.770343
0.158953 -0.107056 0.769451
0.158571 -0.10826 0.768418
0.158172 -0.109448 0.767305
0.157782 -0.11064 0.766237
0.157442 -0.111864 0.765394
0.157067 -0.11306 0.764388
0.156774 -0.114314 0.76376
0.156529 -0.115603 0.763354
0.156302 -0.116905 0.763033
0.156124 -0.118245 0.76294
0.156027 -0.11965 0.763227
0.155999 -0.121112 0.763835
0.156091 -0.122674 0.765001
0.156192 -0.124249 0.766219
0.156327 -0.125856 0.767595
0.156421 -0.127435 0.768782
0.156444 -0.128959 0.769636
0.15635 -0.130385 0.769945
0.156249 -0.131807 0.770221
0.156055 -0.133148 0.770059
0.15586 -0.134488 0.769893
0.155664 -0.135828 0.769723
0.155452 -0.137152 0.769479
0.15524 -0.138475 0.769229
0.155039 -0.139809 0.769037
0.154874 -0.141176 0.769013
0.154699 -0.142533 0.768941
0.154543 -0.143908 0.768957
0.154382 -0.145279 0.76895
0.154201 -0.146631 0.768852
0.153988 -0.147951 0.768598
0.153757 -0.149253 0.76826
0.153573 -0.150602 0.768146
0.152571 -0.152316 0.770794
0.15361 -0.152172 0.769084
0.153184 -0.154485 0.774516
0.153962 -0.154068 0.771532
0.153854 -0.156728 0.778523
0.154347 -0.156006 0.774137
0.154587 -0.159054 0.782842
0.154785 -0.158012 0.777003
0.191935 -0.0214667 0.860956
0.190334 -0.0227144 0.854788
0.189702 -0.0241209 0.852805
0.189059 -0.0255186 0.850769
0.188405 -0.0269074 0.848684
0.187817 -0.0283028 0.846882
0.187267 -0.0297004 0.845241
0.186782 -0.0311071 0.84388
0.186328 -0.0325167 0.842653
0.185942 -0.0339386 0.841721
0.185597 -0.0353674 0.840963
0.185252 -0.036794 0.840207
0.184906 -0.0382179 0.839442
0.184562 -0.03964 0.838687
0.184242 -0.0410665 0.838036
0.183967 -0.0425036 0.837576
0.183673 -0.0439343 0.837039
0.183417 -0.0453745 0.836664
0.183237 -0.0468374 0.836624
0.183165 -0.0483346 0.837056
0.183069 -0.0498261 0.837386
0.183033 -0.051339 0.837978
0.183004 -0.0528568 0.838604
0.183032 -0.0543968 0.83948
0.183138 -0.0559684 0.840704
0.183301 -0.0575656 0.842183
0.180134 -0.0582936 0.835601
0.182185 -0.0586919 0.838012
0.174532 -0.0617597 0.80711
0.173593 -0.0628591 0.803672
0.172914 -0.0640562 0.801389
0.172193 -0.0652272 0.798913
0.171487 -0.0663958 0.796497
0.170801 -0.0675652 0.794169
0.170311 -0.0688148 0.792707
0.169828 -0.070063 0.791277
0.169384 -0.0713246 0.79002
0.168979 -0.0726006 0.788935
0.168629 -0.0738993 0.788091
0.168298 -0.0752048 0.787332
0.168004 -0.0765268 0.786741
0.167678 -0.0778303 0.786002
0.167331 -0.0791205 0.785167
0.166943 -0.0803866 0.78415
0.166571 -0.0816577 0.783202
0.166189 -0.08292 0.782204
0.165828 -0.0841904 0.7813
0.165517 -0.0854863 0.780623
0.165259 -0.0868099 0.780182
0.164959 -0.0881082 0.779553
0.164776 -0.0894728 0.77945
0.164596 -0.0908395 0.779364
0.164452 -0.0922274 0.779437
0.164312 -0.0936182 0.779527
0.164218 -0.0950387 0.779831
0.164011 -0.0963897 0.779621
0.163746 -0.0977029 0.779145
0.163384 -0.0989525 0.778228
0.162933 -0.100141 0.776905
0.162445 -0.1013 0.775411
0.161964 -0.102458 0.773941
0.161502 -0.103625 0.772563
0.161096 -0.104825 0.771432
0.160706 -0.106032 0.770375
0.160337 -0.10725 0.769412
0.159935 -0.108442 0.768298
0.159515 -0.109616 0.767099
0.15909 -0.110783 0.765874
0.158716 -0.111983 0.764881
0.158337 -0.113176 0.763865
0.158027 -0.114418 0.763163
0.157778 -0.115704 0.762743
0.157548 -0.117003 0.762408
0.157321 -0.118305 0.762092
0.157161 -0.119658 0.76208
0.157066 -0.121063 0.762368
0.157089 -0.122566 0.76321
0.15714 -0.124095 0.764177
0.157276 -0.125698 0.765545
0.157392 -0.12729 0.766819
0.157454 -0.128843 0.76785
0.157398 -0.130298 0.768328
0.157331 -0.131746 0.768759
0.157183 -0.133126 0.768815
0.157021 -0.134493 0.768802
0.156859 -0.135861 0.768788
0.156663 -0.137199 0.768622
0.156451 -0.138521 0.768372
0.156251 -0.139855 0.768185
0.156087 -0.141221 0.768165
0.155914 -0.142579 0.768101
0.155773 -0.143967 0.768187
0.155624 -0.145349 0.76824
0.155444 -0.146701 0.76814
0.15523 -0.14802 0.767886
0.155018 -0.14934 0.767638
0.154869 -0.150722 0.767688
0.154664 -0.152049 0.767476
0.154738 -0.153657 0.768582
0.154855 -0.155313 0.769893
0.155013 -0.157017 0.771401
0.158427 -0.169785 0.798405
0.157841 -0.167547 0.79479
0.158425 -0.166862 0.79071
0.159313 -0.16941 0.795729
0.159397 -0.172455 0.803874
0.159858 -0.171606 0.799118
0.159916 -0.174651 0.807182
0.159858 -0.173218 0.799913
0.194019 -0.0217442 0.863251
0.192339 -0.0229832 0.856793
0.191753 -0.0244025 0.855023
0.191105 -0.025804 0.852984
0.190421 -0.0271913 0.850787
0.189801 -0.0285847 0.848861
0.189181 -0.0299715 0.846933
0.188647 -0.0313712 0.845374
0.188186 -0.0327825 0.844127
0.187779 -0.0342024 0.843108
0.187412 -0.0356291 0.842265
0.187064 -0.0370579 0.8415
0.186695 -0.0384788 0.840643
0.18635 -0.0399035 0.839891
0.186049 -0.0413382 0.839328
0.185791 -0.0427832 0.838948
0.185498 -0.044217 0.838416
0.185256 -0.0456647 0.838109
0.185055 -0.0471243 0.837977
0.184942 -0.0486114 0.83823
0.184805 -0.0500921 0.838377
0.18474 -0.0515973 0.838839
0.184649 -0.0530958 0.839187
0.184636 -0.0546231 0.83988
0.18472 -0.0561877 0.840999
0.184865 -0.0577786 0.842385
0.184011 -0.0590048 0.839396
0.18053 -0.0595984 0.831448
0.182391 -0.0599304 0.833037
0.17644 -0.0621321 0.809096
0.175245 -0.0631329 0.804565
0.174566 -0.0643327 0.802294
0.173873 -0.0655193 0.799963
0.173146 -0.0666825 0.797475
0.172453 -0.0678524 0.795135
0.171942 -0.0690955 0.793591
0.171432 -0.0703345 0.792056
0.17093 -0.0715716 0.790551
0.170518 -0.0728462 0.789441
0.170149 -0.0741379 0.788522
0.169823 -0.0754473 0.787788
0.169516 -0.0767643 0.787142
0.169205 -0.0780774 0.786479
0.168853 -0.0793671 0.785631
0.168447 -0.0806255 0.784538
0.168037 -0.0818783 0.783427
0.167614 -0.08312 0.782256
0.167196 -0.0843607 0.781105
0.166847 -0.085636 0.780262
0.166556 -0.0869408 0.779674
0.166237 -0.0882283 0.778964
0.166034 -0.0895807 0.778772
0.165833 -0.0909341 0.77859
0.165656 -0.0923012 0.778512
0.165482 -0.0936703 0.77845
0.165371 -0.0950784 0.778673
0.165178 -0.0964365 0.778526
0.16493 -0.0977596 0.77813
0.164607 -0.0990332 0.777393
0.164222 -0.100265 0.776379
0.163771 -0.101449 0.775062
0.163324 -0.102632 0.773761
0.162894 -0.103821 0.772533
0.1625 -0.10503 0.771471
0.162108 -0.106238 0.770412
0.161736 -0.107455 0.769444
0.161316 -0.108635 0.768252
0.160861 -0.109786 0.766902
0.160415 -0.11094 0.765594
0.160022 -0.112127 0.764522
0.159627 -0.113309 0.763439
0.1593 -0.114538 0.762664
0.159047 -0.115821 0.762229
0.158798 -0.117105 0.761809
0.158555 -0.118393 0.761416
0.158378 -0.119732 0.761326
0.158234 -0.121098 0.76139
0.158188 -0.122543 0.761905
0.158169 -0.124011 0.76254
0.158252 -0.125567 0.763651
0.158355 -0.127144 0.764856
0.158457 -0.128724 0.766054
0.158454 -0.130221 0.766776
0.15844 -0.131712 0.767444
0.158327 -0.133119 0.767659
0.158198 -0.134514 0.767797
0.158054 -0.135896 0.767866
0.157861 -0.137236 0.767713
0.157648 -0.138557 0.767464
0.157449 -0.139889 0.767275
0.157284 -0.141253 0.76725
0.157112 -0.142611 0.767192
0.156986 -0.144012 0.767346
0.156855 -0.14541 0.767479
0.15669 -0.146775 0.767451
0.156478 -0.148096 0.767208
0.156283 -0.149432 0.76704
0.156152 -0.150831 0.767175
0.155965 -0.152176 0.767047
0.155808 -0.15355 0.767058
0.155691 -0.154965 0.767256
0.155563 -0.15637 0.767407
0.155391 -0.158957 0.773961
0.155643 -0.15799 0.768532
0.160115 -0.168954 0.792694
0.160979 -0.171482 0.797559
0.161262 -0.173398 0.799687
0.160336 -0.175363 0.802998
0.160989 -0.174715 0.799184
0.160882 -0.177596 0.806411
0.160768 -0.176085 0.798923
0.19607 -0.0220158 0.865367
0.194407 -0.0232628 0.859035
0.19384 -0.0246902 0.85736
0.193187 -0.0260956 0.855317
0.192474 -0.0274822 0.853014
0.191835 -0.0288763 0.851023
0.191162 -0.0302565 0.848886
0.190583 -0.0316503 0.847145
0.190081 -0.033056 0.84573
0.189667 -0.034478 0.844694
0.189277 -0.0359024 0.843755
0.188905 -0.0373284 0.842894
0.188534 -0.0387522 0.842039
0.188186 -0.0401792 0.841276
0.187862 -0.0416107 0.84062
0.187561 -0.0430463 0.840058
0.18728 -0.0444863 0.839584
0.187019 -0.0459311 0.839195
0.186801 -0.047388 0.838994
0.186669 -0.0488713 0.83916
0.186525 -0.0503519 0.839279
0.186402 -0.0518399 0.839484
0.186246 -0.0533181 0.83955
0.186208 -0.0548377 0.840129
0.186251 -0.0563883 0.84106
0.186339 -0.0579588 0.842189
0.185461 -0.0591774 0.839116
0.183878 -0.0601198 0.832968
0.180483 -0.0607223 0.825406
0.181992 -0.0609237 0.825488
0.178432 -0.0614303 0.81713
0.179964 -0.0616453 0.817376
0.178025 -0.0623736 0.809641
0.176892 -0.0634031 0.805414
0.176212 -0.0646057 0.803156
0.175533 -0.0658013 0.800903
0.174816 -0.0669726 0.798481
0.174117 -0.0681432 0.796131
0.173567 -0.0693723 0.794431
0.173033 -0.0706029 0.7928
0.172484 -0.0718209 0.7911
0.172029 -0.0730773 0.78981
0.17162 -0.0743519 0.788724
0.171292 -0.075662 0.787991
0.170985 -0.0769801 0.787348
0.170675 -0.0782943 0.786689
0.170338 -0.0795934 0.785915
0.169931 -0.080853 0.784827
0.169486 -0.0820893 0.783571
0.169059 -0.0833301 0.782388
0.168618 -0.0845599 0.781145
0.168233 -0.0858162 0.780146
0.16792 -0.0871101 0.779471
0.167582 -0.0883867 0.778676
0.167326 -0.0897088 0.778251
0.167104 -0.0910491 0.777973
0.166874 -0.0923847 0.777664
0.166647 -0.0937204 0.777361
0.166499 -0.0951043 0.777417
0.166303 -0.0964583 0.777252
0.166055 -0.0977802 0.77686
0.165768 -0.0990753 0.776288
0.165437 -0.100341 0.775524
0.165041 -0.101561 0.77446
0.164627 -0.102766 0.773319
0.164217 -0.10397 0.772193
0.163838 -0.10519 0.7712
0.163446 -0.106398 0.77015
0.163072 -0.107616 0.769182
0.162651 -0.108796 0.767997
0.162191 -0.109945 0.766633
0.161742 -0.111097 0.76532
0.161331 -0.112272 0.764172
0.160918 -0.113441 0.763017
0.160573 -0.114658 0.762168
0.160305 -0.115929 0.761665
0.160023 -0.117189 0.7611
0.159762 -0.118463 0.76063
0.159582 -0.119798 0.760526
0.159422 -0.121149 0.760512
0.159327 -0.122553 0.760798
0.15927 -0.123989 0.761252
0.159297 -0.125495 0.762098
0.159348 -0.127025 0.76305
0.159433 -0.128588 0.764165
0.159469 -0.130114 0.765055
0.159496 -0.131635 0.765903
0.159436 -0.133086 0.766359
0.159344 -0.13451 0.766664
0.159219 -0.135907 0.766816
0.159043 -0.13726 0.766739
0.158845 -0.138593 0.766561
0.158674 -0.139951 0.766507
0.158511 -0.141315 0.766484
0.158355 -0.142687 0.766502
0.158231 -0.144089 0.766664
0.158103 -0.145487 0.766806
0.157941 -0.146855 0.766792
0.157762 -0.148207 0.766702
0.157583 -0.149558 0.766611
0.157453 -0.150958 0.766746
0.15728 -0.152315 0.76668
0.157121 -0.153687 0.766684
0.157005 -0.155102 0.766884
0.156877 -0.156507 0.767032
0.156707 -0.15787 0.766984
0.156331 -0.160248 0.772529
0.157085 -0.159799 0.769497
0.161761 -0.171 0.794433
0.162365 -0.173253 0.798046
0.162372 -0.174871 0.798861
0.162152 -0.176244 0.798609
0.160596 -0.177511 0.798898
0.16198 -0.177671 0.798583
0.16041 -0.178921 0.798804
0.161794 -0.17908 0.798489
0.160226 -0.180335 0.798724
0.161593 -0.180474 0.798327
0.160093 -0.181805 0.798883
0.161441 -0.181922 0.798392
0.159943 -0.183257 0.798964
0.161256 -0.183333 0.798305
0.159795 -0.184712 0.79905
0.161072 -0.184746 0.798221
0.160303 -0.186938 0.802277
0.160854 -0.186119 0.797979
0.197731 -0.0222209 0.865802
0.196492 -0.0235449 0.861308
0.195941 -0.02498 0.859715
0.195306 -0.0263935 0.857762
0.194581 -0.0277829 0.855427
0.19391 -0.0291756 0.853319
0.193185 -0.0305497 0.850979
0.192538 -0.0319329 0.848965
0.192007 -0.0333358 0.847437
0.191567 -0.0347555 0.846299
0.191134 -0.0361729 0.845185
0.190757 -0.0376012 0.844311
0.190401 -0.0390319 0.843525
0.190048 -0.0404609 0.842748
0.189722 -0.041895 0.842088
0.189437 -0.0433387 0.841602
0.189134 -0.0447759 0.84104
0.188832 -0.0462115 0.840478
0.188588 -0.0476634 0.840167
0.188438 -0.0491435 0.840255
0.188276 -0.050621 0.840296
0.188133 -0.0521047 0.840416
0.187956 -0.0535779 0.840389
0.187855 -0.0550777 0.840694
0.187831 -0.056606 0.84133
0.187854 -0.0581534 0.842165
0.186997 -0.0593816 0.839207
0.185446 -0.0603395 0.833247
0.183631 -0.061175 0.826132
0.181612 -0.0619056 0.818122
0.179696 -0.0626483 0.810544
0.178547 -0.0636754 0.806279
0.177879 -0.0648866 0.804096
0.177198 -0.0660847 0.801852
0.176474 -0.067256 0.799413
0.175769 -0.0684277 0.797058
0.175194 -0.0696489 0.795265
0.17464 -0.0708732 0.793558
0.174065 -0.0720822 0.791759
0.173566 -0.0733205 0.790288
0.173113 -0.0745754 0.789012
0.172761 -0.0758756 0.788182
0.172417 -0.0771764 0.787379
0.172102 -0.0784897 0.786708
0.171782 -0.0797982 0.786012
0.171378 -0.0810607 0.784945
0.17092 -0.0822913 0.783639
0.170506 -0.0835409 0.782524
0.170041 -0.0847593 0.781185
0.169616 -0.0859951 0.78002
0.169285 -0.0872793 0.779267
0.168928 -0.0885459 0.778395
0.168619 -0.0898376 0.777736
0.168358 -0.0911553 0.77729
0.168087 -0.0924654 0.776795
0.167803 -0.0937668 0.776247
0.167618 -0.0951262 0.776134
0.1674 -0.0964653 0.775875
0.167137 -0.0977753 0.775414
0.166851 -0.0990701 0.774854
0.166557 -0.100358 0.774255
0.166214 -0.101611 0.773437
0.165839 -0.102842 0.772476
0.16548 -0.104078 0.771581
0.165135 -0.105322 0.770751
0.164762 -0.106544 0.769793
0.164387 -0.107762 0.768828
0.163981 -0.108954 0.767717
0.163518 -0.110102 0.766352
0.163067 -0.111253 0.765039
0.162653 -0.112427 0.763886
0.162237 -0.113596 0.762726
0.16189 -0.114811 0.761873
0.16162 -0.116082 0.761366
0.161338 -0.117342 0.760805
0.161062 -0.118604 0.760266
0.160865 -0.119926 0.760085
0.160687 -0.121264 0.759993
0.160546 -0.122629 0.760063
0.160438 -0.124023 0.760288
0.160395 -0.12547 0.760803
0.160389 -0.12695 0.761491
0.160424 -0.128467 0.762365
0.160463 -0.129991 0.763258
0.160514 -0.131529 0.764209
0.160509 -0.133023 0.764908
0.160468 -0.134489 0.765442
0.160392 -0.135927 0.765819
0.160266 -0.137322 0.765968
0.160103 -0.138685 0.765946
0.159965 -0.140072 0.766044
0.159803 -0.141437 0.766027
0.159647 -0.142808 0.76604
0.159525 -0.144211 0.766208
0.159399 -0.145611 0.76636
0.159239 -0.146981 0.766358
0.159078 -0.148349 0.766349
0.158915 -0.149716 0.766329
0.158768 -0.151098 0.766385
0.158593 -0.152453 0.766309
0.158431 -0.153822 0.766296
0.1583 -0.155223 0.766429
0.158156 -0.15661 0.766497
0.157983 -0.157969 0.766437
0.158073 -0.159598 0.767591
0.158056 -0.162355 0.774787
0.158734 -0.161823 0.7714
0.162461 -0.170439 0.790972
0.163357 -0.172994 0.795912
0.163638 -0.174903 0.797993
0.163419 -0.176276 0.797747
0.163233 -0.177685 0.797654
0.163047 -0.179094 0.79756
0.162843 -0.180482 0.797384
0.162671 -0.181908 0.797357
0.162468 -0.183297 0.797183
0.162266 -0.184687 0.797012
0.162045 -0.186055 0.796758
0.16133 -0.188306 0.801025
0.161839 -0.18744 0.796569
0.16182 -0.190522 0.804144
0.161601 -0.188787 0.796231
0.200261 -0.0210252 0.869128
0.199295 -0.0224096 0.865817
0.19847 -0.0238074 0.863091
0.197915 -0.0252456 0.861495
0.197301 -0.0266673 0.859651
0.196615 -0.0280687 0.857499
0.195962 -0.0294694 0.85548
0.195227 -0.0308459 0.853115
0.19455 -0.0322273 0.850991
0.193986 -0.0336271 0.849339
0.193517 -0.035044 0.848085
0.193054 -0.0364584 0.846858
0.192656 -0.0378848 0.845902
0.192298 -0.0393186 0.845114
0.191944 -0.040751 0.844341
0.191616 -0.0421881 0.843678
0.191312 -0.04363 0.843116
0.191005 -0.0450691 0.842538
0.190697 -0.0465066 0.841958
0.190431 -0.0479548 0.841556
0.190256 -0.0494304 0.841539
0.190114 -0.0509166 0.841662
0.189955 -0.0523982 0.841714
0.18976 -0.0538684 0.841614
0.189633 -0.0553616 0.841802
0.189559 -0.0568749 0.842222
0.189515 -0.0584002 0.842767
0.188928 -0.0597297 0.840985
0.187367 -0.0606902 0.835029
0.181598 -0.0630135 0.812422
0.180158 -0.0639289 0.806938
0.179508 -0.0651502 0.804848
0.178824 -0.06635 0.802608
0.178091 -0.0675208 0.800152
0.177397 -0.0687001 0.79786
0.176802 -0.0699156 0.795996
0.176246 -0.0711416 0.794293
0.17565 -0.0723439 0.792417
0.175126 -0.0735732 0.79085
0.174613 -0.0748019 0.789324
0.174216 -0.0760815 0.788302
0.173813 -0.077355 0.787252
0.173477 -0.0786584 0.786494
0.173157 -0.0799674 0.785802
0.172771 -0.0812402 0.784823
0.172314 -0.0824724 0.783531
0.171915 -0.0837311 0.78249
0.171447 -0.0849491 0.781147
0.171003 -0.0861755 0.779905
0.170634 -0.0874395 0.778991
0.170272 -0.0887043 0.778107
0.16991 -0.0899657 0.777217
0.16961 -0.0912605 0.776601
0.169281 -0.0925366 0.775859
0.168957 -0.0938127 0.775133
0.168717 -0.0951373 0.774778
0.16848 -0.0964635 0.774439
0.168198 -0.0977603 0.773898
0.167928 -0.0990627 0.773409
0.167671 -0.100372 0.772973
0.167363 -0.101647 0.772317
0.167026 -0.102901 0.771531
0.166719 -0.104172 0.770872
0.166377 -0.105418 0.77006
0.166019 -0.10665 0.769174
0.165646 -0.107869 0.768225
0.165254 -0.109071 0.767184
0.164793 -0.110222 0.76584
0.164374 -0.111397 0.764675
0.16396 -0.112572 0.763533
0.163572 -0.113761 0.762506
0.163222 -0.114976 0.761647
0.162953 -0.116248 0.761148
0.162671 -0.117508 0.760587
0.162376 -0.118757 0.75997
0.162145 -0.120053 0.759639
0.161966 -0.121388 0.759537
0.16181 -0.122743 0.759544
0.161657 -0.124099 0.759562
0.161547 -0.12549 0.75977
0.161452 -0.126896 0.760051
0.161396 -0.128335 0.760508
0.16137 -0.1298 0.761096
0.161392 -0.131309 0.761908
0.161411 -0.132818 0.762704
0.161437 -0.134337 0.763534
0.16143 -0.135831 0.764217
0.161389 -0.137298 0.764751
0.161298 -0.138723 0.765054
0.161231 -0.140172 0.765471
0.161104 -0.141567 0.76561
0.160949 -0.142939 0.765628
0.160806 -0.144322 0.7657
0.160678 -0.14572 0.765841
0.160518 -0.147089 0.765836
0.16036 -0.148459 0.765837
0.160215 -0.149842 0.7659
0.160068 -0.151225 0.765956
0.159906 -0.152593 0.765942
0.159728 -0.153945 0.765854
0.159581 -0.155328 0.765908
0.159404 -0.156682 0.765826
0.159211 -0.158021 0.765673
0.159016 -0.159356 0.765506
0.159364 -0.161249 0.767839
0.164061 -0.172434 0.792479
0.164647 -0.17466 0.795949
0.164661 -0.176282 0.79678
0.164456 -0.177669 0.796597
0.164252 -0.179056 0.79642
0.164032 -0.180426 0.796169
0.163861 -0.18185 0.796145
0.163672 -0.183253 0.796035
0.163468 -0.18464 0.795857
0.163242 -0.186001 0.795579
0.163051 -0.1874 0.795457
0.16283 -0.188767 0.795202
0.161346 -0.190112 0.795811
0.162612 -0.190135 0.794958
0.161138 -0.191493 0.795615
0.16246 -0.191581 0.795024
0.160949 -0.192896 0.795505
0.162329 -0.193053 0.795186
0.160835 -0.19439 0.795752
0.162237 -0.194574 0.795533
0.16071 -0.195872 0.795947
0.162131 -0.196078 0.795815
0.160633 -0.197414 0.796366
0.162052 -0.197616 0.796219
0.161151 -0.199697 0.799611
0.161917 -0.199088 0.796366
0.161716 -0.202051 0.803082
0.161778 -0.200557 0.796497
0.200949 -0.0226133 0.866203
0.200302 -0.0240439 0.864238
0.199748 -0.0254851 0.862659
0.199159 -0.0269144 0.860932
0.198538 -0.0283315 0.859066
0.197907 -0.0297405 0.857158
0.197193 -0.0311254 0.854898
0.196528 -0.0325134 0.85284
0.195952 -0.0339148 0.851154
0.195453 -0.0353284 0.849783
0.194985 -0.0367454 0.848546
0.194545 -0.0381651 0.847419
0.194183 -0.0396013 0.846623
0.193851 -0.0410427 0.845946
0.193525 -0.0424841 0.8453
0.193223 -0.0439302 0.844752
0.192936 -0.0453785 0.844262
0.192602 -0.046812 0.843578
0.192309 -0.0482555 0.843062
0.192107 -0.0497262 0.842937
0.191966 -0.0512159 0.843064
0.191808 -0.0527006 0.84312
0.191635 -0.0541813 0.843115
0.191468 -0.0556641 0.843133
0.19135 -0.0571647 0.843363
0.191232 -0.0586662 0.84359
0.190868 -0.0600793 0.84277
0.189245 -0.0610231 0.836595
0.185551 -0.0615323 0.827965
0.187375 -0.061851 0.829355
0.183395 -0.0633351 0.813818
0.181671 -0.0641418 0.807161
0.181036 -0.0653714 0.805154
0.180349 -0.0665721 0.802917
0.179613 -0.0677442 0.800468
0.178928 -0.0689295 0.798231
0.17833 -0.0701456 0.796366
0.177791 -0.071382 0.794754
0.177216 -0.0725961 0.792982
0.176691 -0.0738268 0.791417
0.176134 -0.0750376 0.789718
0.175692 -0.0762977 0.78851
0.175228 -0.0775427 0.787205
0.174854 -0.0788278 0.786285
0.174531 -0.0801361 0.785588
0.174162 -0.081418 0.784686
0.173704 -0.0826512 0.783402
0.173305 -0.0839107 0.782368
0.172834 -0.0851282 0.78102
0.17237 -0.0863449 0.779702
0.171965 -0.0875896 0.778637
0.171599 -0.0888527 0.777741
0.171198 -0.0900927 0.77669
0.170843 -0.0913561 0.775841
0.170456 -0.0925973 0.774846
0.170092 -0.0938493 0.773954
0.1698 -0.0951416 0.773375
0.169531 -0.0964455 0.772891
0.169245 -0.097738 0.772337
0.168972 -0.0990363 0.771834
0.168731 -0.100354 0.771472
0.168446 -0.101642 0.770919
0.168146 -0.102919 0.7703
0.167858 -0.104201 0.769731
0.167532 -0.105456 0.768991
0.167172 -0.106687 0.768105
0.166814 -0.107915 0.767226
0.166439 -0.109129 0.76627
0.166013 -0.110303 0.765085
0.165629 -0.111504 0.764087
0.16525 -0.112704 0.763105
0.16488 -0.113908 0.762166
0.164563 -0.115147 0.761457
0.164309 -0.11643 0.761027
0.164026 -0.117691 0.760471
0.163729 -0.118939 0.759846
0.163495 -0.120233 0.759501
0.16328 -0.121541 0.759244
0.163077 -0.122858 0.759036
0.16289 -0.124187 0.758901
0.162713 -0.125524 0.758813
0.162532 -0.126858 0.758703
0.1624 -0.128232 0.758816
0.162315 -0.129645 0.759134
0.162268 -0.131092 0.759629
0.16227 -0.132582 0.760342
0.162318 -0.134115 0.761262
0.162383 -0.135666 0.76226
0.16244 -0.137214 0.763222
0.162459 -0.138733 0.764017
0.162485 -0.140262 0.764848
0.162424 -0.141716 0.765288
0.162268 -0.143086 0.765295
0.162105 -0.144451 0.765276
0.161954 -0.145826 0.76531
0.161792 -0.147193 0.765296
0.161636 -0.148564 0.765305
0.161511 -0.149966 0.765459
0.161352 -0.151336 0.765458
0.161204 -0.152718 0.765509
0.161025 -0.154069 0.765416
0.160847 -0.155421 0.765329
0.160623 -0.156727 0.765029
0.160408 -0.158042 0.764774
0.160176 -0.15934 0.764442
0.160203 -0.1609 0.765288
0.160269 -0.163729 0.772743
0.160797 -0.163047 0.768728
0.164348 -0.171442 0.787185
0.165251 -0.173991 0.792075
0.165537 -0.175898 0.794144
0.165561 -0.177527 0.795009
0.165335 -0.178889 0.794732
0.165099 -0.180237 0.794405
0.164932 -0.181664 0.794401
0.164765 -0.183089 0.794391
0.16456 -0.184471 0.794207
0.164334 -0.18583 0.793927
0.164156 -0.187243 0.793867
0.163952 -0.188626 0.793692
0.163774 -0.190039 0.79363
0.16366 -0.191526 0.793869
0.163581 -0.193058 0.794272
0.163509 -0.1946 0.794705
0.163425 -0.196129 0.795085
0.163349 -0.19767 0.795504
0.163216 -0.199143 0.795657
0.163046 -0.200572 0.795639
0.162747 -0.203411 0.801839
0.163428 -0.202686 0.798197
0.200822 -0.0271238 0.86138
0.200249 -0.0285521 0.859729
0.199666 -0.0299729 0.858033
0.199017 -0.0313741 0.856063
0.198373 -0.0327696 0.854106
0.197818 -0.0341788 0.852518
0.197356 -0.0356044 0.851314
0.196887 -0.0370245 0.850081
0.196421 -0.0384414 0.848859
0.196076 -0.039885 0.848135
0.19574 -0.041329 0.847452
0.195377 -0.0427636 0.846655
0.195075 -0.0442127 0.846111
0.194805 -0.0456693 0.845699
0.194447 -0.0470987 0.844917
0.194134 -0.0485398 0.844328
0.193932 -0.0500129 0.844199
0.193786 -0.0515036 0.844304
0.193604 -0.0529836 0.844262
0.193436 -0.0544683 0.844275
0.19325 -0.0559474 0.844216
0.193091 -0.057436 0.844271
0.192925 -0.0589228 0.844296
0.192519 -0.060323 0.843308
0.190845 -0.0612518 0.83696
0.188984 -0.0620876 0.829813
0.185356 -0.0625959 0.82147
0.186915 -0.062818 0.821775
0.184945 -0.0635582 0.814142
0.183213 -0.0643661 0.807503
0.182596 -0.0656052 0.805586
0.181889 -0.0668001 0.803283
0.181166 -0.0679799 0.800906
0.180457 -0.0691574 0.798585
0.179855 -0.070374 0.796717
0.179316 -0.0716123 0.795116
0.178777 -0.0728448 0.79351
0.178238 -0.0740719 0.791902
0.177658 -0.075274 0.790116
0.177174 -0.0765159 0.788737
0.176663 -0.0777396 0.787238
0.176231 -0.0789976 0.786079
0.175871 -0.0802877 0.785227
0.175499 -0.0815687 0.78432
0.175039 -0.0828013 0.783035
0.174656 -0.0840696 0.782075
0.174185 -0.0852881 0.780738
0.173736 -0.0865141 0.779496
0.173311 -0.0877483 0.77835
0.17294 -0.089009 0.777437
0.1725 -0.0902278 0.776226
0.172109 -0.0914708 0.775227
0.171683 -0.0926897 0.774072
0.171314 -0.093938 0.773161
0.170968 -0.0951978 0.772353
0.170664 -0.0964794 0.771719
0.170358 -0.0977586 0.771083
0.170067 -0.099044 0.770503
0.169792 -0.100338 0.769996
0.169508 -0.101625 0.76945
0.169212 -0.102903 0.768848
0.168923 -0.104183 0.768278
0.168611 -0.105446 0.767608
0.168267 -0.106685 0.766792
0.167938 -0.107933 0.766047
0.167601 -0.109171 0.765261
0.167226 -0.110381 0.764307
0.166881 -0.111609 0.763485
0.166537 -0.112835 0.762669
0.166204 -0.114065 0.761895
0.165922 -0.115331 0.761348
0.165689 -0.11663 0.76101
0.165406 -0.117892 0.760458
0.165106 -0.119139 0.759826
0.164851 -0.120418 0.759394
0.164601 -0.121699 0.758979
0.164359 -0.122986 0.758602
0.164136 -0.124287 0.758309
0.163906 -0.125581 0.757986
0.163638 -0.126844 0.757492
0.163419 -0.128144 0.757212
0.163239 -0.129477 0.75711
0.163136 -0.130873 0.757345
0.163101 -0.132328 0.757887
0.163166 -0.133869 0.758872
0.163322 -0.135492 0.760263
0.163508 -0.137147 0.761792
0.163644 -0.138765 0.763102
0.16378 -0.140388 0.764413
0.163788 -0.141904 0.765158
0.163647 -0.143287 0.765234
0.163466 -0.144636 0.765132
0.163279 -0.145979 0.765005
0.163082 -0.147312 0.764831
0.162908 -0.148666 0.76476
0.162771 -0.150056 0.764858
0.162599 -0.151413 0.764794
0.162452 -0.152794 0.764849
0.162273 -0.154145 0.764755
0.162063 -0.155465 0.764523
0.161817 -0.15675 0.764131
0.161566 -0.158027 0.76371
0.161294 -0.159284 0.7632
0.161014 -0.160529 0.762648
0.161289 -0.162341 0.76461
0.165696 -0.173166 0.787535
0.166276 -0.175374 0.790922
0.166547 -0.177263 0.792906
0.166281 -0.178577 0.792444
0.166029 -0.179905 0.792044
0.165866 -0.181331 0.792053
0.165722 -0.182777 0.792144
0.16554 -0.184181 0.792066
0.165332 -0.185558 0.791872
0.165191 -0.187009 0.791978
0.165008 -0.188412 0.791895
0.164864 -0.189863 0.791992
0.16477 -0.191371 0.792318
0.164726 -0.19294 0.792875
0.164674 -0.194501 0.793394
0.164624 -0.196068 0.793925
0.16457 -0.197633 0.794444
0.164474 -0.199149 0.794764
0.164323 -0.200599 0.79483
0.16417 -0.202049 0.794893
0.16387 -0.204886 0.80104
0.164021 -0.203503 0.794971
0.199964 -0.0329696 0.854301
0.19948 -0.034396 0.853018
0.199045 -0.0358298 0.851937
0.198599 -0.0372573 0.850807
0.198148 -0.0386799 0.849654
0.197841 -0.0401355 0.849095
0.197501 -0.0415807 0.8484
0.197158 -0.043023 0.847689
0.196873 -0.0444795 0.847223
0.196601 -0.045938 0.846804
0.196223 -0.0473645 0.845947
0.19591 -0.0488079 0.84536
0.195687 -0.0502769 0.845145
0.195519 -0.0517633 0.845163
0.195335 -0.0532444 0.845108
0.195203 -0.0547432 0.845277
0.195004 -0.0562203 0.845164
0.194827 -0.0577047 0.84514
0.194636 -0.0591845 0.845058
0.194198 -0.0605758 0.843947
0.192458 -0.0614847 0.83737
0.19057 -0.0623147 0.830162
0.188475 -0.0630398 0.822075
0.186478 -0.0637741 0.814385
0.18471 -0.0645719 0.807645
0.184108 -0.0658186 0.805805
0.183399 -0.0670146 0.803508
0.182673 -0.0681955 0.801139
0.181957 -0.0693724 0.798808
0.181368 -0.0705961 0.797004
0.180826 -0.0718351 0.795404
0.180306 -0.073078 0.793889
0.179785 -0.0743154 0.792369
0.179204 -0.0755194 0.790591
0.178676 -0.0767429 0.789039
0.17812 -0.077947 0.787362
0.177644 -0.0791847 0.786023
0.177228 -0.0804473 0.784934
0.176835 -0.0817183 0.783945
0.176371 -0.0829499 0.782655
0.175988 -0.0842184 0.7817
0.175517 -0.0854377 0.780374
0.175085 -0.0866732 0.77921
0.174639 -0.0878973 0.777987
0.174248 -0.0891474 0.776995
0.173787 -0.0903549 0.775702
0.173359 -0.091577 0.77455
0.172912 -0.0927837 0.773311
0.172538 -0.0940291 0.772386
0.172174 -0.0952776 0.771505
0.171851 -0.0965472 0.770794
0.171525 -0.0978131 0.770072
0.171194 -0.0990736 0.769328
0.170884 -0.100345 0.768671
0.170564 -0.101607 0.767973
0.170247 -0.102869 0.767283
0.169957 -0.104147 0.766711
0.169644 -0.105407 0.766037
0.169316 -0.106656 0.7653
0.169027 -0.107928 0.76473
0.168725 -0.10919 0.7641
0.168404 -0.110436 0.76339
0.168111 -0.1117 0.7628
0.167822 -0.112964 0.762225
0.167542 -0.114233 0.761687
0.167297 -0.115526 0.761304
0.167084 -0.11684 0.761056
0.166819 -0.118117 0.760584
0.166519 -0.119365 0.759957
0.166245 -0.120631 0.759443
0.165974 -0.121898 0.758945
0.165694 -0.123155 0.7584
0.165413 -0.124411 0.757855
0.165128 -0.125661 0.757289
0.164791 -0.126869 0.756496
0.164485 -0.128099 0.755838
0.164219 -0.129359 0.755353
0.164042 -0.130691 0.755261
0.163953 -0.132096 0.755558
0.164018 -0.133632 0.756532
0.164262 -0.135324 0.758298
0.164575 -0.137083 0.760374
0.164844 -0.138812 0.762262
0.165073 -0.140514 0.763975
0.165168 -0.142104 0.765094
0.165028 -0.14349 0.765177
0.164831 -0.144824 0.765005
0.164612 -0.146138 0.764733
0.164394 -0.147452 0.764468
0.164184 -0.148773 0.764235
0.164027 -0.150144 0.764245
0.163822 -0.151468 0.764034
0.163659 -0.152833 0.764012
0.16346 -0.154164 0.763832
0.163234 -0.155467 0.763527
0.162954 -0.156718 0.762984
0.16268 -0.157971 0.762465
0.162387 -0.159204 0.761858
0.162101 -0.160443 0.761283
0.162066 -0.161934 0.761837
0.161912 -0.164519 0.768154
0.162359 -0.163764 0.763865
0.16604 -0.172249 0.78261
0.166902 -0.17474 0.787238
0.16742 -0.176884 0.790317
0.167116 -0.178152 0.789684
0.16686 -0.179472 0.789269
0.166717 -0.180914 0.789363
0.16661 -0.182396 0.789622
0.166483 -0.183858 0.78979
0.166334 -0.185296 0.789859
0.166234 -0.186789 0.790149
0.166105 -0.188252 0.790312
0.166 -0.189743 0.790583
0.165909 -0.191252 0.790917
0.165866 -0.192819 0.791474
0.165828 -0.194394 0.792053
0.165782 -0.195962 0.792596
0.165748 -0.197548 0.793197
0.165673 -0.199087 0.79361
0.16554 -0.200557 0.793757
0.165422 -0.202047 0.793977
0.165311 -0.203546 0.794226
0.164462 -0.205696 0.797784
0.16519 -0.205036 0.794434
0.164946 -0.207956 0.800804
0.165082 -0.206541 0.794698
0.19971 -0.0388771 0.849755
0.199443 -0.0403437 0.849364
0.199125 -0.0417959 0.848765
0.198801 -0.0432449 0.84814
0.198514 -0.0447019 0.847664
0.198237 -0.0461607 0.847232
0.197878 -0.047594 0.846457
0.197568 -0.04904 0.845886
0.197349 -0.050512 0.845692
0.197177 -0.0519983 0.845689
0.196988 -0.0534795 0.845616
0.196837 -0.0549733 0.845702
0.196641 -0.0564526 0.845601
0.196464 -0.0579385 0.84558
0.19625 -0.0594116 0.845404
0.196055 -0.0608914 0.845308
0.194543 -0.0618896 0.839732
0.188271 -0.0640905 0.815705
0.186169 -0.0647623 0.807622
0.185612 -0.0660284 0.805983
0.184938 -0.067241 0.803853
0.184228 -0.0684306 0.801564
0.183506 -0.0696072 0.799223
0.182891 -0.0708224 0.79733
0.182324 -0.0720517 0.79563
0.181784 -0.0732878 0.794046
0.181276 -0.0745327 0.792591
0.180695 -0.075739 0.790829
0.180144 -0.076953 0.789188
0.179564 -0.0781472 0.787421
0.17906 -0.079373 0.785976
0.178584 -0.0806073 0.784645
0.178168 -0.0818674 0.783566
0.177701 -0.0830972 0.782265
0.177318 -0.0843668 0.781322
0.176848 -0.085587 0.780006
0.176416 -0.0868233 0.778853
0.17595 -0.0880371 0.777552
0.175537 -0.0892758 0.776475
0.175073 -0.0904817 0.775176
0.174626 -0.0916932 0.77395
0.174177 -0.0928994 0.772714
0.173785 -0.0941345 0.771719
0.173401 -0.0953709 0.770756
0.17304 -0.0966176 0.769889
0.172676 -0.0978597 0.769007
0.172308 -0.0990962 0.768107
0.171956 -0.10034 0.767276
0.171595 -0.101575 0.766406
0.171238 -0.10281 0.765548
0.170926 -0.104071 0.764885
0.1706 -0.105321 0.764161
0.170294 -0.106582 0.76352
0.170029 -0.107867 0.763053
0.169764 -0.109152 0.762587
0.169498 -0.110434 0.762115
0.169259 -0.111734 0.76176
0.169008 -0.113024 0.761353
0.168778 -0.114328 0.761036
0.168569 -0.115646 0.760809
0.168374 -0.116974 0.760645
0.168127 -0.118264 0.760253
0.167859 -0.119536 0.759769
0.167586 -0.120804 0.759264
0.167315 -0.122071 0.758765
0.167015 -0.123314 0.758139
0.166696 -0.12454 0.75743
0.166371 -0.12576 0.756695
0.165979 -0.126924 0.755667
0.165622 -0.128112 0.754789
0.165302 -0.129327 0.754071
0.165072 -0.130614 0.753747
0.164917 -0.131961 0.753748
0.164948 -0.133465 0.754567
0.165242 -0.135194 0.756538
0.165633 -0.137014 0.758937
0.166001 -0.138823 0.761241
0.166325 -0.140604 0.763357
0.166505 -0.142266 0.764838
0.16638 -0.143665 0.764986
0.16617 -0.144988 0.764757
0.165935 -0.146288 0.764418
0.165681 -0.14757 0.763996
0.165445 -0.148867 0.76365
0.165233 -0.150185 0.763413
0.165006 -0.151488 0.763105
0.164823 -0.152833 0.762998
0.164623 -0.154161 0.762811
0.164362 -0.15543 0.762351
0.164064 -0.156661 0.761729
0.163772 -0.157897 0.761133
0.163447 -0.159097 0.76039
0.163127 -0.1603 0.759665
0.162797 -0.161491 0.758899
0.162774 -0.16299 0.759496
0.167522 -0.17411 0.783578
0.168284 -0.176501 0.787724
0.167945 -0.177728 0.786935
0.167671 -0.179026 0.786442
0.167543 -0.180477 0.786597
0.167454 -0.181975 0.786934
0.167385 -0.183494 0.787358
0.167295 -0.184994 0.787691
0.167237 -0.18653 0.788166
0.167148 -0.188034 0.788504
0.167079 -0.189563 0.788934
0.16699 -0.191071 0.789276
0.166933 -0.192618 0.78976
0.166911 -0.194207 0.790403
0.166864 -0.195771 0.790938
0.166851 -0.197378 0.791628
0.166798 -0.198939 0.792135
0.166685 -0.200429 0.792368
0.166619 -0.201981 0.792823
0.16653 -0.203505 0.793171
0.166379 -0.204954 0.793235
0.166234 -0.206412 0.793329
0.164967 -0.20804 0.794934
0.166093 -0.207874 0.793437
0.165537 -0.21041 0.798325
0.166403 -0.209908 0.795615
0.166695 -0.213548 0.804443
0.167302 -0.2127 0.800492
0.199068 -0.0492249 0.845756
0.198869 -0.0507032 0.845642
0.19868 -0.0521846 0.845569
0.198511 -0.0536726 0.84558
0.198379 -0.0551731 0.845744
0.198184 -0.0566532 0.845645
0.197968 -0.0581264 0.845462
0.192563 -0.0626934 0.8322
0.196219 -0.0621436 0.840368
0.194517 -0.0630553 0.834038
0.188196 -0.0651761 0.809949
0.187382 -0.0663447 0.807258
0.186498 -0.067475 0.80427
0.185825 -0.0686828 0.802157
0.185117 -0.0698681 0.79989
0.184475 -0.0710741 0.797897
0.183844 -0.072278 0.795946
0.183257 -0.0734948 0.794175
0.182726 -0.0747309 0.792636
0.182143 -0.0759376 0.790876
0.181575 -0.0771454 0.789177
0.181008 -0.0783474 0.787478
0.18048 -0.0795628 0.785941
0.179962 -0.0807773 0.784441
0.179522 -0.0820264 0.78327
0.17905 -0.0832547 0.781959
0.178632 -0.0845067 0.780876
0.17816 -0.0857267 0.779564
0.177727 -0.0869624 0.77841
0.17724 -0.0881658 0.777032
0.176806 -0.0893931 0.775872
0.176338 -0.0905972 0.774565
0.175871 -0.0917976 0.773263
0.175441 -0.0930147 0.772114
0.175048 -0.0942497 0.771124
0.174664 -0.0954858 0.770165
0.174282 -0.0967202 0.769215
0.173894 -0.0979481 0.768241
0.17347 -0.0991502 0.767108
0.17306 -0.100358 0.766036
0.17264 -0.101554 0.764918
0.172241 -0.102761 0.763888
0.171878 -0.103987 0.763008
0.171551 -0.105234 0.762285
0.171249 -0.106494 0.761661
0.171002 -0.10779 0.761277
0.170759 -0.109087 0.760905
0.170545 -0.110402 0.760658
0.17033 -0.111716 0.760405
0.170132 -0.113042 0.760226
0.169938 -0.11437 0.760067
0.169779 -0.115723 0.760053
0.169619 -0.117075 0.760039
0.169407 -0.11839 0.759798
0.169173 -0.119688 0.759465
0.168935 -0.120982 0.759114
0.168669 -0.122253 0.758638
0.168354 -0.123486 0.757954
0.168016 -0.124699 0.757168
0.167652 -0.125889 0.756271
0.167223 -0.127024 0.755089
0.16683 -0.128184 0.754061
0.166475 -0.129371 0.753197
0.166225 -0.13064 0.752786
0.166034 -0.131957 0.752631
0.166015 -0.133416 0.753222
0.166359 -0.135183 0.755396
0.166807 -0.137046 0.758021
0.16724 -0.138907 0.760588
0.167626 -0.140738 0.762957
0.167857 -0.142443 0.764652
0.167716 -0.143826 0.764723
0.167502 -0.145146 0.76448
0.167234 -0.146417 0.764
0.166945 -0.147667 0.763426
0.166687 -0.148943 0.762984
0.166435 -0.150224 0.762571
0.166156 -0.151478 0.76204
0.165953 -0.152803 0.761842
0.165734 -0.154111 0.761571
0.165453 -0.15536 0.761029
0.165155 -0.15659 0.760409
0.164866 -0.157826 0.759827
0.164526 -0.159011 0.759021
0.164191 -0.160197 0.758235
0.163827 -0.161352 0.757322
0.163476 -0.162518 0.756464
0.163913 -0.165685 0.765285
0.16429 -0.164867 0.760763
0.168873 -0.175836 0.783948
0.168789 -0.17733 0.784295
0.168531 -0.178639 0.783873
0.168387 -0.180069 0.783955
0.1683 -0.181563 0.784293
0.168268 -0.183119 0.784879
0.168219 -0.184658 0.785389
0.168203 -0.186237 0.786046
0.168186 -0.187817 0.786699
0.16817 -0.189402 0.787363
0.168104 -0.190932 0.7878
0.168064 -0.192495 0.788354
0.16804 -0.19408 0.788987
0.167974 -0.195617 0.789425
0.167964 -0.197222 0.790119
0.167932 -0.198805 0.790716
0.167824 -0.200301 0.790975
0.167812 -0.201912 0.791662
0.167776 -0.203499 0.792247
0.167645 -0.204972 0.7924
0.167515 -0.206445 0.792557
0.167603 -0.208192 0.793706
0.168164 -0.210537 0.797
0.168865 -0.213071 0.800938
0.168644 -0.216078 0.807406
0.170017 -0.216197 0.806936
0.197742 -0.0623412 0.840362
0.196352 -0.0633716 0.835358
0.190359 -0.0656408 0.812796
0.18928 -0.0667105 0.809037
0.188193 -0.0677634 0.805236
0.187563 -0.0689921 0.803313
0.186794 -0.0701557 0.800815
0.1861 -0.0713424 0.798619
0.185381 -0.0725108 0.796321
0.18469 -0.0736834 0.794131
0.184114 -0.0749007 0.792419
0.183524 -0.0761053 0.790643
0.182941 -0.077307 0.788893
0.182376 -0.0785109 0.787213
0.181864 -0.0797351 0.785755
0.181323 -0.0809395 0.78417
0.180861 -0.0821779 0.782912
0.180385 -0.0834052 0.781596
0.179946 -0.0846469 0.780433
0.179472 -0.0858661 0.779118
0.179033 -0.0870999 0.777953
0.178542 -0.0883013 0.776564
0.178087 -0.0895172 0.775322
0.177617 -0.090721 0.774018
0.177148 -0.0919207 0.772717
0.176735 -0.0931481 0.77165
0.176327 -0.0943745 0.770601
0.175926 -0.0956008 0.769575
0.175536 -0.0968311 0.768602
0.175095 -0.0980269 0.767407
0.174613 -0.0991935 0.766037
0.174147 -0.100366 0.764737
0.173687 -0.101537 0.763456
0.173233 -0.102707 0.7622
0.17285 -0.103919 0.761243
0.172503 -0.10515 0.760436
0.172182 -0.106396 0.759736
0.171916 -0.107676 0.759272
0.171672 -0.108969 0.758895
0.17146 -0.110283 0.758658
0.171249 -0.111597 0.758424
0.171088 -0.112945 0.758402
0.170948 -0.114308 0.758467
0.170843 -0.115697 0.758683
0.170737 -0.117086 0.758898
0.170595 -0.11845 0.758958
0.170415 -0.119787 0.758855
0.170216 -0.121109 0.758671
0.169986 -0.122408 0.758356
0.169706 -0.123668 0.757825
0.169369 -0.124883 0.757049
0.169004 -0.126073 0.756151
0.168554 -0.127194 0.75489
0.168124 -0.128325 0.75371
0.167733 -0.129484 0.752697
0.167464 -0.130738 0.752206
0.167238 -0.132026 0.751901
0.167199 -0.133467 0.752401
0.167544 -0.13523 0.754558
0.168014 -0.137107 0.757258
0.168476 -0.138989 0.759929
0.168888 -0.140838 0.762388
0.169122 -0.142543 0.764085
0.168975 -0.14392 0.76413
0.16874 -0.145222 0.763797
0.168454 -0.146476 0.76324
0.16813 -0.147694 0.762517
0.167854 -0.148953 0.762001
0.167564 -0.150199 0.761426
0.167267 -0.151435 0.760816
0.167032 -0.152727 0.760478
0.166814 -0.154035 0.760211
0.166548 -0.155296 0.759737
0.166265 -0.15654 0.759188
0.165977 -0.157776 0.758615
0.16564 -0.158962 0.757825
0.165303 -0.160146 0.757034
0.164917 -0.161279 0.756029
0.164544 -0.162421 0.755081
0.165031 -0.16443 0.757906
0.165445 -0.167584 0.766586
0.165866 -0.166806 0.762272
0.168441 -0.174113 0.77572
0.168368 -0.175603 0.776111
0.168099 -0.176884 0.77563
0.167939 -0.178281 0.775633
0.168105 -0.180032 0.777081
0.168351 -0.181877 0.778887
0.168621 -0.183754 0.7808
0.168913 -0.185665 0.782817
0.169184 -0.18756 0.784743
0.169206 -0.189183 0.785565
0.169179 -0.190754 0.786172
0.169177 -0.192356 0.78689
0.169207 -0.193999 0.787753
0.16919 -0.195591 0.788407
0.169199 -0.197216 0.78918
0.169187 -0.19882 0.789861
0.169082 -0.200317 0.790129
0.169092 -0.201952 0.790907
0.169076 -0.20356 0.791574
0.168985 -0.205081 0.791906
0.168891 -0.206598 0.792224
0.169246 -0.208672 0.794559
0.170061 -0.211328 0.798974
0.171032 -0.214198 0.804094
0.172406 -0.217599 0.811048
0.171553 -0.219838 0.814689
0.173754 -0.220993 0.817892
0.172919 -0.223292 0.821683
0.174682 -0.223879 0.822851
0.173661 -0.225964 0.825845
0.198067 -0.0636419 0.836161
0.196453 -0.0645748 0.830276
0.192648 -0.0661516 0.816112
0.191347 -0.0671413 0.811474
0.190084 -0.0681298 0.806983
0.1894 -0.0693409 0.804855
0.188619 -0.0705038 0.802324
0.187834 -0.0716563 0.799775
0.187002 -0.0727793 0.797029
0.18618 -0.0738971 0.79432
0.185515 -0.075076 0.792252
0.184881 -0.0762615 0.790306
0.18428 -0.0774558 0.788495
0.183717 -0.078662 0.786839
0.183243 -0.0799047 0.785545
0.182701 -0.0811099 0.783968
0.182217 -0.0823384 0.782629
0.181739 -0.0835652 0.781312
0.181278 -0.0847966 0.780066
0.180799 -0.0860141 0.778741
0.180337 -0.0872361 0.777487
0.179844 -0.0884371 0.7761
0.179371 -0.0896436 0.774791
0.178897 -0.0908458 0.773481
0.178427 -0.0920453 0.772182
0.178013 -0.0932721 0.771116
0.177588 -0.0944891 0.770004
0.177184 -0.0957142 0.768975
0.176775 -0.0969328 0.767924
0.176294 -0.0981051 0.766572
0.175772 -0.0992479 0.765046
0.175267 -0.100396 0.763589
0.174768 -0.101542 0.762154
0.174278 -0.10269 0.760758
0.173841 -0.103865 0.759579
0.173456 -0.10507 0.758614
0.173076 -0.106275 0.75767
0.172753 -0.107515 0.756969
0.172487 -0.10879 0.7565
0.172274 -0.110099 0.756257
0.172048 -0.111399 0.75596
0.171906 -0.112756 0.756016
0.171819 -0.114152 0.756302
0.171774 -0.115579 0.756769
0.171731 -0.11701 0.757245
0.171698 -0.11845 0.757763
0.171591 -0.119838 0.757969
0.171447 -0.1212 0.758017
0.171253 -0.122525 0.757857
0.171024 -0.123824 0.757545
0.17069 -0.125041 0.756788
0.170341 -0.126245 0.755966
0.169889 -0.127365 0.754704
0.169455 -0.128495 0.753514
0.169043 -0.129639 0.752422
0.168756 -0.130879 0.751855
0.16851 -0.13215 0.751466
0.168422 -0.13355 0.751752
0.168685 -0.135242 0.753542
0.169105 -0.137072 0.756004
0.169535 -0.138922 0.758519
0.169934 -0.140754 0.760901
0.170172 -0.142458 0.7626
0.170054 -0.143859 0.762767
0.169814 -0.145154 0.762413
0.169542 -0.146418 0.761916
0.169219 -0.147637 0.761204
0.16896 -0.14891 0.760764
0.168689 -0.150171 0.76027
0.168406 -0.151419 0.759725
0.168173 -0.152712 0.759397
0.167955 -0.154019 0.759134
0.167708 -0.155297 0.758744
0.167426 -0.15654 0.758202
0.167156 -0.157793 0.757709
0.166817 -0.158978 0.756918
0.166475 -0.160157 0.756112
0.16607 -0.161271 0.755029
0.165675 -0.162391 0.75399
0.165823 -0.164054 0.755316
0.166309 -0.166064 0.758119
0.166765 -0.169267 0.766928
0.166828 -0.16812 0.761072
0.167958 -0.172363 0.767399
0.167901 -0.173852 0.767845
0.167633 -0.17512 0.767366
0.167454 -0.176481 0.76728
0.168973 -0.187549 0.778196
0.169312 -0.189518 0.780406
0.169692 -0.191541 0.7828
0.170121 -0.193632 0.785419
0.170475 -0.195646 0.787707
0.170486 -0.197272 0.788481
0.170476 -0.198876 0.789164
0.17037 -0.20037 0.789423
0.170398 -0.202025 0.790276
