ply
format ascii 1.0
element vertex 1599
property float x
property float y
property float z
end_header
0.00494586 -0.191721 0.513985
0.00533144 -0.192198 0.514251
0.00571674 -0.192702 0.514578
0.00610332 -0.193199 0.514887
0.00648976 -0.193729 0.515268
0.00687598 -0.194325 0.515796
0.00726122 -0.194996 0.516493
0.00764492 -0.195838 0.517573
0.00803033 -0.196772 0.518854
0.00841958 -0.197658 0.520017
0.00881351 -0.198462 0.520991
0.00921101 -0.199226 0.521871
-0.0290779 -0.168152 0.533304
-0.0285856 -0.168296 0.532608
-0.0281093 -0.168475 0.532023
-0.0275677 -0.168475 0.530906
-0.0270546 -0.168542 0.529997
-0.0265648 -0.168665 0.529259
-0.0260759 -0.168783 0.528515
-0.0255928 -0.168911 0.527803
-0.0251127 -0.169042 0.527104
-0.0246451 -0.169203 0.526497
-0.0241859 -0.169382 0.525949
-0.0237351 -0.169582 0.525463
-0.0232929 -0.169803 0.525044
-0.0228526 -0.170026 0.524632
-0.0224132 -0.170249 0.524222
-0.0219765 -0.170476 0.523827
-0.0215378 -0.170693 0.523406
-0.0210889 -0.170872 0.522878
-0.0206494 -0.171078 0.522431
-0.0202053 -0.171263 0.521927
-0.0197656 -0.171459 0.521455
-0.0193301 -0.171664 0.521013
-0.0188992 -0.171881 0.520607
-0.0184688 -0.172096 0.520199
-0.0180476 -0.17234 0.519875
-0.0176219 -0.172564 0.519496
-0.0172028 -0.17281 0.519178
-0.0167843 -0.173054 0.51886
-0.0163692 -0.173309 0.51857
-0.0159526 -0.173554 0.518257
-0.0155363 -0.173797 0.51794
-0.0151164 -0.174022 0.517573
-0.014706 -0.174282 0.517308
-0.0142945 -0.174535 0.517023
-0.0138842 -0.174791 0.516746
-0.0134787 -0.175064 0.516519
-0.0130733 -0.175336 0.516286
-0.0126642 -0.175587 0.516003
-0.012256 -0.175839 0.515721
-0.0118521 -0.176109 0.515491
-0.011445 -0.17636 0.515211
-0.0110367 -0.176601 0.514906
-0.0106285 -0.176839 0.514593
-0.0102188 -0.177065 0.51425
-0.0098101 -0.177291 0.51391
-0.00940756 -0.177547 0.513651
-0.00901018 -0.177827 0.513455
-0.0086133 -0.178109 0.513266
-0.00822036 -0.178411 0.513128
-0.00782407 -0.178692 0.512936
-0.00742961 -0.178981 0.512767
-0.00703388 -0.179261 0.512573
-0.00664212 -0.179563 0.512438
-0.00625356 -0.179885 0.512354
-0.00586732 -0.180221 0.512306
-0.00547774 -0.180536 0.512204
-0.00508923 -0.180857 0.512119
-0.00469909 -0.181164 0.511997
-0.004308 -0.181462 0.511856
-0.0039186 -0.181773 0.511745
-0.00353209 -0.182105 0.511688
-0.00314581 -0.182439 0.511635
-0.00275935 -0.182773 0.511581
-0.00237395 -0.183115 0.511551
-0.00198994 -0.18347 0.511547
-0.00160346 -0.183805 0.511499
-0.00121931 -0.184161 0.511499
-0.000834866 -0.184516 0.511497
-0.000450198 -0.184872 0.511498
-6.68585e-05 -0.185241 0.511529
0.0003159 -0.185624 0.511592
0.000698138 -0.186016 0.511678
0.00108044 -0.186409 0.511763
0.00146197 -0.186822 0.511897
0.0018453 -0.187216 0.511986
0.00222734 -0.187634 0.512128
0.0026099 -0.188052 0.512272
0.00299117 -0.188504 0.512493
0.00337319 -0.18895 0.512697
0.00375525 -0.189417 0.512952
0.00413708 -0.189898 0.513235
0.00451817 -0.190412 0.513596
0.00489971 -0.190946 0.514
0.00528275 -0.191475 0.514387
0.00566747 -0.19199 0.514742
0.00605296 -0.192522 0.515132
0.00643973 -0.193045 0.515499
0.00682618 -0.193623 0.515991
0.0072123 -0.19427 0.516638
0.00759863 -0.194987 0.51744
0.00798383 -0.195879 0.518633
0.00837216 -0.196781 0.519842
0.00876577 -0.197576 0.520802
0.00916296 -0.198291 0.521579
0.00955707 -0.199664 0.523825
-0.0287485 -0.167828 0.53363
-0.0282634 -0.16799 0.532987
-0.0277882 -0.168172 0.532409
-0.0272509 -0.168183 0.531318
-0.026738 -0.16825 0.530405
-0.0262444 -0.168363 0.529634
-0.0257459 -0.168455 0.528804
-0.0252594 -0.168573 0.52806
-0.0247766 -0.168695 0.527333
-0.024307 -0.168849 0.526704
-0.0238518 -0.16904 0.526187
-0.0234078 -0.16926 0.525759
-0.0229692 -0.169493 0.525371
-0.0225324 -0.169728 0.524991
-0.0220929 -0.169951 0.524579
-0.021653 -0.170168 0.524154
-0.0212109 -0.170374 0.523699
-0.0207623 -0.170555 0.523172
-0.0203206 -0.170753 0.5227
-0.01988 -0.17095 0.522228
-0.0194403 -0.171146 0.521754
-0.0190045 -0.17135 0.52131
-0.0185706 -0.171557 0.520872
-0.0181402 -0.171772 0.520461
-0.0177137 -0.171997 0.52008
-0.0172881 -0.172221 0.519699
-0.0168689 -0.172466 0.51938
-0.0164536 -0.172723 0.519094
-0.0160416 -0.17299 0.518839
-0.01563 -0.173256 0.518581
-0.0152163 -0.173511 0.518294
-0.0147937 -0.173725 0.517897
-0.0143803 -0.173973 0.517596
-0.0139661 -0.174215 0.517279
-0.0135537 -0.174461 0.516973
-0.0131459 -0.174725 0.51672
-0.0127427 -0.175006 0.516513
-0.0123356 -0.175267 0.516254
-0.0119273 -0.175519 0.515972
-0.0115236 -0.175791 0.515743
-0.0111186 -0.176053 0.51549
-0.0107142 -0.176314 0.515237
-0.010308 -0.176563 0.514952
-0.0099004 -0.176801 0.514641
-0.00949161 -0.177028 0.5143
-0.00908732 -0.177275 0.514017
-0.0086858 -0.177534 0.513765
-0.00828541 -0.177796 0.513521
-0.00789015 -0.178086 0.513352
-0.00749358 -0.178366 0.513156
-0.0070992 -0.178656 0.512987
-0.00670531 -0.178947 0.512823
-0.006315 -0.17926 0.512716
-0.00592653 -0.179585 0.512638
-0.00554101 -0.17993 0.512611
-0.00515262 -0.180254 0.512533
-0.00476397 -0.180576 0.512448
-0.00437372 -0.180885 0.512331
-0.00398357 -0.181193 0.512212
-0.00359239 -0.181493 0.512073
-0.00320424 -0.181814 0.511988
-0.00281501 -0.182126 0.511881
-0.002427 -0.182447 0.511796
-0.00204034 -0.18278 0.511739
-0.00165617 -0.183136 0.511739
-0.00127007 -0.183473 0.511695
-0.000886782 -0.183842 0.511726
-0.000502089 -0.184197 0.511725
-0.000117172 -0.184555 0.511729
0.00026775 -0.184912 0.511732
0.000650842 -0.185292 0.511787
0.00103337 -0.185682 0.51187
0.00141537 -0.186086 0.511982
0.0017971 -0.186502 0.512123
0.00217991 -0.186907 0.512238
0.00256194 -0.187334 0.512402
0.00294426 -0.187762 0.512568
0.00332599 -0.188216 0.512796
0.00370794 -0.188674 0.51303
0.00409045 -0.189144 0.513291
0.00447254 -0.189635 0.513598
0.00485411 -0.190162 0.513989
0.00523532 -0.190721 0.51445
0.00561829 -0.191275 0.514897
0.00600269 -0.191837 0.515362
0.00638806 -0.192396 0.515816
0.00677581 -0.192934 0.516217
0.00716375 -0.193515 0.516715
0.00755057 -0.1942 0.517449
0.00793806 -0.194959 0.518346
0.00832688 -0.195796 0.519419
0.00871872 -0.196638 0.520493
0.00911469 -0.19739 0.521358
0.00950844 -0.198701 0.52348
-0.028492 -0.167692 0.534535
-0.0279642 -0.167744 0.533552
-0.027467 -0.16787 0.532799
-0.026934 -0.167892 0.531736
-0.0264199 -0.167956 0.530809
-0.025919 -0.168048 0.529971
-0.025416 -0.168128 0.529101
-0.0249261 -0.168236 0.528322
-0.0244402 -0.168349 0.527563
-0.0239709 -0.168503 0.526933
-0.0235197 -0.168705 0.526447
-0.0230767 -0.168929 0.526027
-0.0226383 -0.169162 0.525639
-0.0222017 -0.169398 0.52526
-0.0217589 -0.16961 0.524816
-0.021316 -0.169818 0.524361
-0.0208767 -0.170033 0.523929
-0.0204316 -0.170225 0.523432
-0.0199904 -0.170425 0.522963
-0.0195555 -0.170642 0.522545
-0.0191158 -0.170837 0.522068
-0.0186778 -0.171034 0.521598
-0.0182409 -0.17123 0.52113
-0.017811 -0.171447 0.52072
-0.0173791 -0.171652 0.520283
-0.0169538 -0.171877 0.519903
-0.0165345 -0.172121 0.51958
-0.0161221 -0.172389 0.519323
-0.0157131 -0.172669 0.519101
-0.0153046 -0.172948 0.518878
-0.0148933 -0.173213 0.518616
-0.0144721 -0.173434 0.518237
-0.0140563 -0.173672 0.517906
-0.0136393 -0.173902 0.517557
-0.0132288 -0.174157 0.517275
-0.0128191 -0.174413 0.516996
-0.0124139 -0.174686 0.516767
-0.0120069 -0.174947 0.516507
-0.0116003 -0.175209 0.51625
-0.011195 -0.175473 0.515999
-0.01079 -0.175735 0.515747
-0.0103875 -0.176007 0.515519
-0.00998321 -0.176267 0.515263
-0.0095778 -0.176518 0.514984
-0.00917115 -0.176758 0.514675
-0.00876839 -0.177014 0.514413
-0.00836465 -0.177263 0.514132
-0.00796201 -0.177513 0.513856
-0.00756326 -0.177782 0.513632
-0.00716623 -0.17806 0.513431
-0.00677005 -0.17834 0.513234
-0.00637597 -0.178631 0.51307
-0.00598552 -0.178944 0.51296
-0.00559674 -0.179268 0.512879
-0.00520943 -0.179602 0.512826
-0.00482106 -0.179927 0.512748
-0.00443212 -0.18025 0.512665
-0.00404209 -0.180561 0.512553
-0.00365202 -0.180872 0.512441
-0.00326099 -0.181173 0.512305
-0.00287261 -0.181495 0.51222
-0.002482 -0.181795 0.512082
-0.00209374 -0.182116 0.511996
-0.00170574 -0.182437 0.51191
-0.00132125 -0.182793 0.51191
-0.000935199 -0.183132 0.51187
-0.000552693 -0.183511 0.511927
-0.000167788 -0.183868 0.51193
0.0002164 -0.184234 0.511953
0.000601613 -0.18459 0.511952
0.000985245 -0.184968 0.512005
0.00136751 -0.185369 0.512114
0.00174894 -0.185786 0.512256
0.00213084 -0.186204 0.512404
0.00251412 -0.186611 0.512521
0.00289565 -0.187047 0.512709
0.00327899 -0.187475 0.512876
0.00366119 -0.187932 0.513108
0.00404257 -0.188412 0.513395
0.00442453 -0.188905 0.51371
0.00480681 -0.189409 0.51405
0.00518831 -0.189961 0.514498
0.00556995 -0.190543 0.515016
0.00595388 -0.191111 0.515495
0.00633823 -0.191698 0.516018
0.00672462 -0.192281 0.516527
0.00711383 -0.192822 0.516936
0.00750303 -0.193404 0.517436
0.00789163 -0.194088 0.51817
0.00828115 -0.194846 0.519065
0.00867275 -0.195636 0.520031
0.00906717 -0.196424 0.520984
0.00945937 -0.197809 0.523291
-0.0282491 -0.167594 0.535566
-0.0276907 -0.167569 0.534336
-0.0271683 -0.167629 0.533379
-0.0266361 -0.167654 0.532318
-0.0261178 -0.167707 0.531351
-0.0256118 -0.167786 0.53047
-0.0251014 -0.167844 0.529531
-0.024601 -0.167923 0.528658
-0.0241109 -0.168023 0.527859
-0.0236383 -0.168167 0.527194
-0.0231839 -0.168361 0.52668
-0.0227385 -0.168576 0.526235
-0.0223038 -0.168821 0.525876
-0.0218668 -0.169055 0.525492
-0.021421 -0.169258 0.525017
-0.0209777 -0.169464 0.524556
-0.0205389 -0.169681 0.524126
-0.0200944 -0.169874 0.523631
-0.0196541 -0.170076 0.523167
-0.019222 -0.170302 0.522774
-0.0187824 -0.170498 0.522295
-0.0183447 -0.170695 0.521825
-0.017908 -0.170892 0.521357
-0.0174784 -0.17111 0.520948
-0.0170466 -0.171315 0.520508
-0.0166216 -0.17154 0.520128
-0.0162021 -0.171784 0.519801
-0.0157895 -0.172053 0.519545
-0.0153831 -0.172342 0.51935
-0.0149771 -0.172632 0.519156
-0.0145659 -0.172899 0.5189
-0.0141474 -0.173131 0.518547
-0.0137315 -0.17337 0.518217
-0.0133123 -0.173591 0.517838
-0.0128997 -0.173837 0.517531
-0.0124918 -0.174102 0.517277
-0.0120846 -0.174366 0.517021
-0.0116777 -0.174628 0.516764
-0.0112735 -0.174901 0.516534
-0.010868 -0.175165 0.516282
-0.0104611 -0.175418 0.516003
-0.0100601 -0.175699 0.515799
-0.00965792 -0.175971 0.515574
-0.00925495 -0.176235 0.515328
-0.00885038 -0.176488 0.515051
-0.0084488 -0.176754 0.514813
-0.00804298 -0.176991 0.514499
-0.00763814 -0.177229 0.51419
-0.00723589 -0.177478 0.513911
-0.00683718 -0.177747 0.513685
-0.00643776 -0.178006 0.513435
-0.00604333 -0.178295 0.513265
-0.005651 -0.178596 0.513124
-0.00526055 -0.178909 0.513015
-0.00487182 -0.179233 0.512934
-0.0044845 -0.179567 0.512879
-0.00409576 -0.179891 0.5128
-0.00370719 -0.180214 0.512718
-0.00331874 -0.180538 0.512636
-0.00292888 -0.18085 0.512528
-0.00254063 -0.181173 0.512446
-0.0021498 -0.181474 0.512309
-0.00176127 -0.181794 0.51222
-0.00137305 -0.182114 0.512132
-0.000988366 -0.18247 0.512131
-0.000601845 -0.182808 0.512088
-0.000218836 -0.183186 0.512144
0.000166121 -0.183543 0.512145
0.000551633 -0.183898 0.512142
0.000937908 -0.184244 0.512116
0.0013218 -0.184622 0.512168
0.00170321 -0.185035 0.512306
0.00208344 -0.185476 0.512509
0.00246395 -0.185919 0.512715
0.00284639 -0.186349 0.512888
0.00322817 -0.186796 0.513102
0.00361202 -0.187225 0.51327
0.00399523 -0.187671 0.513478
0.00437761 -0.188152 0.513768
0.00475977 -0.188656 0.514111
0.00514303 -0.189162 0.514454
0.00552497 -0.189727 0.514934
0.005907 -0.190324 0.515487
0.00629163 -0.190904 0.515996
0.00667696 -0.191504 0.516549
0.00706405 -0.19211 0.517114
0.00745427 -0.192653 0.517526
0.00784504 -0.193233 0.518022
0.00823501 -0.193924 0.518772
0.00862767 -0.194618 0.519523
0.00902153 -0.195358 0.520376
0.00941771 -0.196119 0.521271
-0.0286058 -0.167618 0.538149
-0.0279983 -0.167479 0.536551
-0.0274203 -0.167404 0.53516
-0.0268714 -0.167395 0.533981
-0.0263359 -0.167411 0.53289
-0.0258145 -0.167456 0.531893
-0.0253046 -0.167525 0.530974
-0.0247871 -0.167563 0.52997
-0.0242801 -0.167623 0.529036
-0.0237865 -0.167713 0.528202
-0.0233125 -0.167853 0.527522
-0.0228548 -0.168036 0.526974
-0.0224032 -0.168233 0.52647
-0.0219652 -0.168467 0.526082
-0.0215246 -0.168691 0.525662
-0.0210733 -0.168875 0.52513
-0.0206275 -0.169072 0.52464
-0.020192 -0.169298 0.524239
-0.019751 -0.169502 0.523773
-0.0193143 -0.169716 0.523341
-0.0188878 -0.169962 0.523003
-0.0184515 -0.170169 0.522553
-0.0180163 -0.170376 0.522108
-0.0175827 -0.170584 0.521668
-0.0171555 -0.17081 0.521284
-0.0167218 -0.171008 0.520821
-0.0162963 -0.171233 0.520436
-0.0158742 -0.171467 0.520081
-0.0154591 -0.171725 0.519793
-0.0150499 -0.172005 0.519571
-0.0146439 -0.172295 0.519376
-0.0142355 -0.172573 0.519148
-0.0138177 -0.172809 0.518805
-0.0134021 -0.17305 0.518479
-0.0129836 -0.173273 0.518106
-0.0125704 -0.173517 0.517791
-0.0121606 -0.173772 0.517509
-0.0117533 -0.174037 0.517253
-0.0113463 -0.1743 0.516996
-0.0109422 -0.174573 0.516765
-0.0105365 -0.174836 0.516511
-0.0101296 -0.17509 0.516233
-0.00972851 -0.17537 0.516026
-0.00932804 -0.175652 0.515825
-0.00892697 -0.175928 0.515608
-0.00852283 -0.176183 0.515338
-0.00812171 -0.176452 0.515105
-0.00771712 -0.176697 0.514812
-0.0073106 -0.176925 0.514475
-0.00690617 -0.177163 0.514165
-0.00650758 -0.177431 0.513937
-0.0061066 -0.177681 0.51366
-0.00570901 -0.17795 0.513436
-0.00531634 -0.178248 0.513287
-0.0049242 -0.178549 0.513149
-0.00453415 -0.178864 0.513042
-0.0041466 -0.179197 0.512987
-0.00375912 -0.17953 0.51293
-0.00337062 -0.179855 0.512851
-0.0029833 -0.180189 0.512796
-0.00259491 -0.180513 0.512717
-0.00220749 -0.180846 0.51266
-0.00181679 -0.181148 0.512526
-0.00142818 -0.181469 0.512439
-0.00103978 -0.18179 0.512351
-0.000653706 -0.182134 0.512323
-0.000266609 -0.18247 0.512273
0.000117225 -0.182838 0.512303
0.000503509 -0.183184 0.512277
0.000889784 -0.183529 0.51225
0.00127609 -0.183874 0.512223
0.00166018 -0.184253 0.512278
0.002041 -0.18468 0.512449
0.00242007 -0.185144 0.512708
0.00279935 -0.185612 0.512976
0.00318068 -0.186064 0.513204
0.00356269 -0.186523 0.513445
0.00394624 -0.186962 0.513639
0.00433051 -0.187408 0.513846
0.00471312 -0.187901 0.514164
0.00509497 -0.188427 0.51456
0.00547838 -0.188958 0.514962
0.00586071 -0.189537 0.515477
0.00624403 -0.190144 0.516055
0.00662964 -0.190725 0.516567
0.00701675 -0.191315 0.517095
0.00740529 -0.191912 0.51764
0.00779706 -0.192444 0.518027
0.00818912 -0.192999 0.518467
0.00858172 -0.193651 0.519126
0.00897548 -0.194314 0.519809
0.00937119 -0.195026 0.520599
0.00976883 -0.195763 0.521442
-0.0303343 -0.167721 0.542029
-0.0304562 -0.167113 0.542714
-0.0299942 -0.167379 0.542345
-0.0298423 -0.167908 0.541419
-0.0295075 -0.16758 0.541775
-0.0292253 -0.167774 0.539811
-0.0289289 -0.167542 0.54046
-0.0283305 -0.167441 0.53896
-0.0277259 -0.167311 0.537378
-0.0271374 -0.167209 0.535895
-0.0265711 -0.167153 0.534568
-0.0260292 -0.167153 0.533417
-0.0255045 -0.167189 0.532387
-0.0249912 -0.167248 0.531435
-0.0244711 -0.167279 0.530403
-0.0239581 -0.167321 0.529412
-0.0234618 -0.167403 0.528547
-0.0229842 -0.167532 0.52783
-0.0225259 -0.167714 0.527275
-0.0220706 -0.167899 0.526737
-0.0216294 -0.168124 0.526317
-0.0211856 -0.168336 0.525863
-0.0207339 -0.168519 0.525323
-0.0202831 -0.168699 0.52478
-0.0198479 -0.168926 0.524379
-0.0194101 -0.16914 0.523942
-0.0189769 -0.169366 0.523541
-0.0185514 -0.169614 0.523209
-0.0181208 -0.169842 0.522819
-0.0176861 -0.17005 0.522375
-0.0172557 -0.17027 0.521967
-0.0168284 -0.170497 0.521582
-0.0163976 -0.170705 0.521146
-0.0159694 -0.17092 0.520733
-0.0155475 -0.171155 0.520376
-0.0151291 -0.171401 0.520054
-0.0147196 -0.17168 0.519825
-0.0143111 -0.17196 0.519603
-0.0139048 -0.172248 0.519402
-0.013492 -0.172505 0.519117
-0.0130791 -0.172759 0.518822
-0.0126647 -0.173002 0.518503
-0.0122533 -0.173255 0.518211
-0.0118412 -0.173501 0.517902
-0.0114294 -0.173745 0.51759
-0.0110201 -0.173998 0.517301
-0.0106118 -0.174251 0.517015
-0.0102042 -0.174505 0.516734
-0.00979741 -0.174759 0.516455
-0.00939617 -0.175039 0.516247
-0.00899559 -0.175321 0.516045
-0.00859622 -0.175606 0.515852
-0.00819221 -0.175863 0.515584
-0.00779118 -0.176133 0.515356
-0.00738698 -0.17638 0.515064
-0.00698035 -0.176608 0.514725
-0.00657456 -0.176836 0.514388
-0.00617585 -0.177104 0.514158
-0.00577341 -0.177344 0.513854
-0.00537419 -0.177601 0.513599
-0.00498006 -0.177889 0.513425
-0.00458651 -0.178181 0.513259
-0.00419518 -0.178485 0.513127
-0.0038077 -0.178818 0.513071
-0.00342001 -0.179151 0.513014
-0.00303163 -0.179475 0.512932
-0.0026443 -0.179809 0.512878
-0.00225701 -0.180143 0.512823
-0.00186969 -0.180477 0.512768
-0.00148021 -0.180791 0.512662
-0.00109254 -0.181122 0.512603
-0.000704172 -0.181445 0.512519
-0.000316997 -0.181779 0.512464
6.99315e-05 -0.182114 0.512413
0.000455385 -0.182469 0.512411
0.000842488 -0.182804 0.512359
0.00122878 -0.183149 0.512331
0.00161558 -0.183494 0.512303
0.0019989 -0.183882 0.512382
0.00237834 -0.18433 0.512605
0.00275621 -0.184819 0.512925
0.00313457 -0.185311 0.513254
0.00351497 -0.185788 0.513542
0.00389718 -0.186258 0.513811
0.00428127 -0.186698 0.514004
0.00466634 -0.187142 0.514208
0.00504943 -0.187635 0.514526
0.00543198 -0.188174 0.514953
0.00581526 -0.188729 0.515415
0.00619851 -0.189322 0.515962
0.00658281 -0.18993 0.516543
0.00696949 -0.190519 0.517076
0.00735816 -0.191106 0.517599
0.00774849 -0.191682 0.518093
0.00814125 -0.192202 0.518455
0.00853513 -0.192734 0.51884
0.00892905 -0.193336 0.519385
0.00932466 -0.19396 0.51998
0.00972137 -0.194656 0.520736
0.0101205 -0.195369 0.521526
-0.0309362 -0.166888 0.543215
-0.0300997 -0.166732 0.542906
-0.0296389 -0.167001 0.542545
-0.0291522 -0.167202 0.541973
-0.0286016 -0.167234 0.540872
-0.0280204 -0.167177 0.539501
-0.0274179 -0.167051 0.537927
-0.0268209 -0.166926 0.536363
-0.0262409 -0.166832 0.534911
-0.0256957 -0.166822 0.533724
-0.0251717 -0.166859 0.532693
-0.024662 -0.166928 0.531766
-0.0241489 -0.166978 0.530787
-0.0236339 -0.167014 0.529772
-0.0231385 -0.167098 0.528909
-0.0226612 -0.167228 0.528193
-0.0221995 -0.1674 0.527605
-0.0217388 -0.167569 0.527012
-0.0212971 -0.167792 0.526584
-0.0208499 -0.167994 0.526099
-0.0203983 -0.168176 0.525556
-0.0199449 -0.168347 0.524983
-0.0195069 -0.168564 0.524551
-0.0190694 -0.168779 0.524114
-0.0186366 -0.169005 0.523715
-0.0182121 -0.169257 0.523391
-0.0177874 -0.169506 0.523058
-0.0173586 -0.169735 0.522675
-0.0169311 -0.169966 0.522296
-0.0165067 -0.170205 0.521942
-0.0160782 -0.170423 0.521534
-0.0156476 -0.170629 0.521092
-0.0152228 -0.170854 0.520704
-0.0148021 -0.17109 0.520351
-0.0143898 -0.171358 0.520092
-0.0139807 -0.171637 0.519864
-0.0135766 -0.171935 0.519689
-0.0131682 -0.172212 0.519459
-0.0127579 -0.172478 0.519199
-0.0123457 -0.172733 0.518907
-0.0119343 -0.172987 0.518617
-0.0115196 -0.173222 0.518276
-0.0111034 -0.173446 0.517905
-0.0106898 -0.173677 0.517556
-0.0102787 -0.173917 0.517234
-0.00986949 -0.174162 0.516927
-0.00946106 -0.174407 0.516622
-0.00905837 -0.174679 0.516393
-0.00865772 -0.174959 0.516184
-0.00825795 -0.175243 0.515987
-0.00785415 -0.1755 0.515719
-0.00745493 -0.175781 0.515517
-0.00705264 -0.176039 0.515256
-0.00664774 -0.176277 0.514943
-0.00624234 -0.176508 0.51461
-0.00584355 -0.176775 0.514377
-0.00543964 -0.177005 0.514047
-0.00503925 -0.177253 0.513764
-0.00464346 -0.17753 0.51356
-0.00424868 -0.177811 0.513368
-0.00385621 -0.178107 0.513213
-0.0034686 -0.178439 0.513154
-0.00308098 -0.178771 0.513096
-0.00269239 -0.179095 0.513014
-0.00230507 -0.179429 0.512959
-0.00191778 -0.179763 0.512904
-0.00153045 -0.180097 0.51285
-0.00114209 -0.180421 0.51277
-0.000754698 -0.180754 0.512714
-0.000366508 -0.181078 0.512634
2.08873e-05 -0.181412 0.512578
0.000408055 -0.181746 0.512524
0.000794342 -0.18209 0.512495
0.0011817 -0.182425 0.512443
0.00156801 -0.182769 0.512413
0.00195406 -0.183123 0.512408
0.00233735 -0.183512 0.512488
0.00271617 -0.18398 0.512762
0.00309341 -0.184481 0.513115
0.00347165 -0.184987 0.513474
0.00385274 -0.185466 0.513769
0.00423464 -0.185946 0.514064
0.00462003 -0.186375 0.514232
0.00500531 -0.18682 0.514437
0.00538891 -0.187323 0.51478
0.00577079 -0.187896 0.51529
0.0061539 -0.188478 0.515817
0.0065375 -0.189097 0.516427
0.00692276 -0.189716 0.517036
0.00731081 -0.190301 0.517558
0.00770106 -0.190863 0.518024
0.00809297 -0.191414 0.518461
0.00848681 -0.191921 0.518791
0.00888173 -0.19244 0.519147
0.00927721 -0.193016 0.519636
0.00967384 -0.193616 0.520174
0.0100721 -0.194285 0.520869
0.0104719 -0.194961 0.521578
-0.0297614 -0.166396 0.543246
-0.0293019 -0.166669 0.542894
-0.0288222 -0.166888 0.542376
-0.028273 -0.166923 0.54128
-0.0276893 -0.166858 0.539878
-0.0270854 -0.166728 0.53828
-0.0264916 -0.16661 0.536733
-0.0259088 -0.166507 0.535245
-0.0253607 -0.166488 0.534025
-0.0248405 -0.166535 0.53302
-0.0243346 -0.166614 0.532118
-0.0238221 -0.166666 0.53114
-0.0233083 -0.166704 0.530127
-0.0228165 -0.166798 0.529292
-0.02234 -0.166931 0.528577
-0.0218759 -0.167095 0.527964
-0.0214123 -0.167256 0.527343
-0.0209677 -0.16747 0.526888
-0.0205181 -0.167663 0.526372
-0.0200633 -0.167836 0.525799
-0.01961 -0.168006 0.525222
-0.0191695 -0.168215 0.524763
-0.0187317 -0.168428 0.524318
-0.0183013 -0.168663 0.523941
-0.0178771 -0.168916 0.52362
-0.0174553 -0.169176 0.523319
-0.0170323 -0.169427 0.522995
-0.0166077 -0.169669 0.522647
-0.0161838 -0.16991 0.522297
-0.0157599 -0.170147 0.52194
-0.0153296 -0.170355 0.521499
-0.0149046 -0.17058 0.521111
-0.0144811 -0.170806 0.520728
-0.0140662 -0.171064 0.520437
-0.0136547 -0.171334 0.520183
-0.0132505 -0.171632 0.52001
-0.0128423 -0.171911 0.51978
-0.0124342 -0.172188 0.51955
-0.0120244 -0.172455 0.51929
-0.011613 -0.172711 0.519003
-0.0111963 -0.172937 0.518634
-0.0107775 -0.173148 0.518228
-0.0103592 -0.173356 0.517814
-0.00994377 -0.173574 0.51743
-0.00953259 -0.173808 0.517092
-0.00912281 -0.174045 0.516762
-0.00871839 -0.174308 0.516506
-0.00831777 -0.174587 0.516296
-0.00791784 -0.17487 0.516096
-0.00751253 -0.175117 0.5158
-0.00711378 -0.175399 0.515599
-0.00671315 -0.175667 0.515364
-0.00631041 -0.175917 0.515081
-0.00590546 -0.176149 0.514753
-0.00550814 -0.176427 0.514547
-0.0051058 -0.176667 0.51424
-0.00470535 -0.176914 0.513956
-0.00430819 -0.177181 0.513725
-0.00391322 -0.177461 0.513529
-0.00351934 -0.177745 0.513342
-0.00313044 -0.178068 0.513259
-0.00274178 -0.178391 0.513176
-0.00235316 -0.178715 0.513095
-0.00196583 -0.179049 0.51304
-0.00157854 -0.179383 0.512986
-0.00119122 -0.179717 0.512931
-0.000803897 -0.180051 0.512876
-0.000416575 -0.180385 0.512822
-2.92534e-05 -0.180719 0.512767
0.000358069 -0.181053 0.512712
0.000745391 -0.181387 0.512658
0.00113277 -0.181721 0.512603
0.00152014 -0.182055 0.512549
0.00190725 -0.182389 0.512494
0.00229301 -0.182744 0.512491
0.00267679 -0.183133 0.512572
0.00305502 -0.183612 0.512875
0.00343215 -0.184125 0.513256
0.00381029 -0.184642 0.513646
0.00419138 -0.18513 0.513962
0.00457324 -0.18562 0.514282
0.00495968 -0.186038 0.514423
0.0053449 -0.186493 0.514656
0.00572894 -0.187008 0.515028
0.00611092 -0.187595 0.515572
0.00649411 -0.188203 0.516162
0.00687803 -0.188846 0.516835
0.00726474 -0.189458 0.517425
0.00765435 -0.190029 0.517918
0.00804599 -0.190576 0.518347
0.00843929 -0.19109 0.518697
0.00883416 -0.191584 0.518998
0.00922989 -0.192089 0.519322
0.00962613 -0.192652 0.519781
0.0100235 -0.193238 0.52029
0.0104225 -0.193881 0.520927
0.0108234 -0.194516 0.521543
-0.0298551 -0.165717 0.543718
-0.0293976 -0.165997 0.543386
-0.0289389 -0.166272 0.54304
-0.0284642 -0.166503 0.542556
-0.0279205 -0.166551 0.541497
-0.0273373 -0.166486 0.540088
-0.0267377 -0.166365 0.538512
-0.0261461 -0.166251 0.536969
-0.0255656 -0.166153 0.535489
-0.0250226 -0.166146 0.534302
-0.0245035 -0.166195 0.533298
-0.0239952 -0.166267 0.532371
-0.0234834 -0.166319 0.531389
-0.0229734 -0.166367 0.530402
-0.0224856 -0.166473 0.529598
-0.0220125 -0.166616 0.528911
-0.0215491 -0.166782 0.5283
-0.0210852 -0.166941 0.527673
-0.0206375 -0.167147 0.527187
-0.020185 -0.167331 0.526642
-0.0197284 -0.167496 0.526045
-0.0192753 -0.167668 0.525467
-0.0188319 -0.167866 0.524975
-0.0183937 -0.168077 0.524523
-0.0179632 -0.168311 0.524142
-0.0175388 -0.168565 0.523819
-0.0171176 -0.168826 0.523521
-0.0166998 -0.169096 0.523252
-0.0162779 -0.169349 0.522934
-0.0158569 -0.169602 0.522616
-0.0154358 -0.16985 0.522289
-0.015008 -0.170069 0.521876
-0.0145829 -0.170294 0.521486
-0.0141572 -0.170511 0.521077
-0.0137397 -0.170759 0.520756
-0.0133259 -0.171019 0.520471
-0.0129214 -0.171318 0.520297
-0.0125114 -0.17159 0.520048
-0.0121055 -0.171878 0.519846
-0.0116975 -0.172154 0.519612
-0.0112863 -0.172411 0.519325
-0.0108675 -0.172627 0.518928
-0.0104486 -0.172838 0.518517
-0.010028 -0.173035 0.518071
-0.0096093 -0.173234 0.517633
-0.00919759 -0.173465 0.517285
-0.00878753 -0.173701 0.516953
-0.00838162 -0.173954 0.516669
-0.00797923 -0.174225 0.516434
-0.00757936 -0.174507 0.516231
-0.00717429 -0.174753 0.515933
-0.00677564 -0.175036 0.515733
-0.00637831 -0.175324 0.515551
-0.00597734 -0.175587 0.5153
-0.00557421 -0.17583 0.514999
-0.00517837 -0.176119 0.514822
-0.00477603 -0.176359 0.514515
-0.00437433 -0.176598 0.514208
-0.00397585 -0.176855 0.513948
-0.00357928 -0.177123 0.51372
-0.00318244 -0.177385 0.513476
-0.00279247 -0.177697 0.513364
-0.00240242 -0.17801 0.513255
-0.00201416 -0.178335 0.513176
-0.00162684 -0.178669 0.513121
-0.00123955 -0.179003 0.513067
-0.000852224 -0.179337 0.513012
-0.000464902 -0.179671 0.512958
-7.75805e-05 -0.180005 0.512903
0.000309742 -0.180339 0.512848
0.000697064 -0.180673 0.512794
0.00108439 -0.181007 0.512739
0.00147176 -0.181341 0.512684
0.00185831 -0.181685 0.512654
0.00224487 -0.18203 0.512627
0.00263028 -0.182397 0.512654
0.00301376 -0.182787 0.512739
0.00339321 -0.183258 0.51302
0.0037717 -0.183756 0.513369
0.00415117 -0.184261 0.513731
0.00453302 -0.184737 0.51402
0.00491561 -0.185228 0.514341
0.00530178 -0.185654 0.514505
0.00568641 -0.186132 0.514791
0.00606977 -0.186669 0.51522
0.00645212 -0.187281 0.515826
0.00683511 -0.187923 0.5165
0.00721938 -0.188592 0.517235
0.00760756 -0.189204 0.517827
0.00799816 -0.189776 0.518322
0.00839086 -0.19031 0.518722
0.00878551 -0.190787 0.518986
0.00918123 -0.191267 0.519254
0.00957778 -0.191747 0.519522
0.00997499 -0.192277 0.519904
0.0103734 -0.192848 0.520379
0.010773 -0.193476 0.520984
0.0111744 -0.194072 0.521512
-0.0294736 -0.165275 0.543722
-0.0290171 -0.165557 0.543394
-0.0285607 -0.165836 0.54306
-0.0280817 -0.166056 0.542539
-0.0275448 -0.166119 0.541525
-0.0269696 -0.166073 0.540168
-0.0263755 -0.165963 0.538623
-0.02579 -0.165863 0.537119
-0.0252195 -0.16579 0.535709
-0.024685 -0.165806 0.534586
-0.0241669 -0.165857 0.533585
-0.0236592 -0.16593 0.532655
-0.0231513 -0.165992 0.531701
-0.0226447 -0.16605 0.53074
-0.0221606 -0.166167 0.529964
-0.0216914 -0.166322 0.52931
-0.0212307 -0.166497 0.528723
-0.0207666 -0.166656 0.528091
-0.0203153 -0.16685 0.527568
-0.0198569 -0.167015 0.526963
-0.0194 -0.16718 0.52636
-0.0189448 -0.167344 0.525758
-0.0184991 -0.167534 0.525239
-0.0180584 -0.167737 0.524759
-0.0176275 -0.167969 0.524372
-0.0172008 -0.168214 0.524021
-0.0167798 -0.168476 0.523724
-0.0163619 -0.168746 0.523455
-0.0159428 -0.169009 0.523164
-0.0155219 -0.169263 0.522847
-0.0151032 -0.169522 0.522549
-0.0146785 -0.169752 0.522168
-0.014254 -0.16998 0.521785
-0.0138285 -0.170198 0.521374
-0.0134124 -0.170453 0.521072
-0.0129959 -0.170702 0.520754
-0.0125892 -0.170992 0.520553
-0.0121812 -0.171273 0.520329
-0.0117751 -0.171561 0.520127
-0.0113673 -0.171838 0.519894
-0.0109575 -0.172104 0.519629
-0.0105388 -0.172321 0.519233
-0.0101205 -0.172534 0.518826
-0.00970002 -0.172732 0.518379
-0.00927958 -0.172922 0.517914
-0.00886423 -0.173134 0.517512
-0.00845421 -0.173368 0.517174
-0.00804657 -0.173612 0.516862
-0.00764266 -0.173873 0.5166
-0.00724109 -0.174145 0.516371
-0.0068376 -0.174401 0.516096
-0.00643905 -0.174684 0.515898
-0.00604205 -0.174975 0.515722
-0.00564437 -0.175259 0.515526
-0.00524281 -0.175513 0.515253
-0.00484713 -0.175804 0.515078
-0.00444476 -0.176044 0.514771
-0.00404345 -0.176285 0.514466
-0.0036409 -0.176512 0.514129
-0.00324309 -0.176769 0.513869
-0.00284459 -0.177017 0.513589
-0.0024532 -0.177317 0.513446
-0.00206225 -0.177621 0.513312
-0.00167493 -0.177955 0.513257
-0.00128761 -0.178289 0.513203
-0.000900312 -0.178623 0.513148
-0.00051299 -0.178957 0.513093
-0.000125668 -0.179291 0.513039
0.000261654 -0.179625 0.512984
0.000648976 -0.179959 0.51293
0.0010363 -0.180293 0.512875
0.00142362 -0.180627 0.51282
0.001811 -0.180961 0.512766
0.00219672 -0.181316 0.512763
0.00258268 -0.181672 0.512764
0.00296639 -0.182062 0.512848
0.00335033 -0.182454 0.512937
0.00373061 -0.182922 0.513213
0.00411104 -0.183396 0.513503
0.00449137 -0.183886 0.51383
0.00487505 -0.184341 0.514068
0.00525813 -0.184821 0.514365
0.00564449 -0.185249 0.514532
0.00602878 -0.185746 0.514869
0.00641226 -0.186298 0.515333
0.00679489 -0.186925 0.515977
0.00717824 -0.187589 0.516708
0.00756321 -0.188278 0.517492
0.00795208 -0.1889 0.518113
0.00834311 -0.189474 0.518612
0.00873706 -0.190007 0.519012
0.00913254 -0.190483 0.519272
0.00952879 -0.190949 0.51951
0.00992587 -0.191417 0.519748
0.0103241 -0.191946 0.520129
0.0107231 -0.192493 0.520548
0.0111237 -0.193093 0.521091
0.0115255 -0.193661 0.521554
-0.0281784 -0.165391 0.54305
-0.0277054 -0.165624 0.542569
-0.0271908 -0.165744 0.541732
-0.0266247 -0.16572 0.540442
-0.0260361 -0.165624 0.538929
-0.0254529 -0.165528 0.537432
-0.0248833 -0.165456 0.536022
-0.0243464 -0.165464 0.534868
-0.023829 -0.165517 0.533866
-0.023322 -0.16559 0.532934
-0.0228176 -0.165663 0.532005
-0.022315 -0.165731 0.531072
-0.0218348 -0.16586 0.530329
-0.0213698 -0.166027 0.529712
-0.0209096 -0.166205 0.529128
-0.0204424 -0.166354 0.528461
-0.0199897 -0.166544 0.527925
-0.0195282 -0.166699 0.527285
-0.0190714 -0.166864 0.526679
-0.0186194 -0.167038 0.526105
-0.018174 -0.16723 0.525588
-0.017728 -0.167415 0.525053
-0.0172945 -0.167638 0.524634
-0.0168649 -0.167872 0.524252
-0.0164416 -0.168125 0.523927
-0.016024 -0.168397 0.523658
-0.015607 -0.168669 0.523395
-0.0151884 -0.168931 0.523102
-0.0147727 -0.169202 0.522836
-0.0143483 -0.169434 0.522459
-0.0139242 -0.169664 0.522078
-0.0134963 -0.169872 0.521637
-0.0130759 -0.170108 0.521278
-0.0126569 -0.170346 0.520927
-0.0122499 -0.170634 0.520722
-0.011842 -0.170916 0.520498
-0.0114362 -0.171205 0.520298
-0.011028 -0.171481 0.520059
-0.0106164 -0.171737 0.519769
-0.0101982 -0.171955 0.519372
-0.00978012 -0.172169 0.518967
-0.00936267 -0.172381 0.518558
-0.00894448 -0.172582 0.518121
-0.00852968 -0.172795 0.51772
-0.00811923 -0.173028 0.517376
-0.0077098 -0.173262 0.517036
-0.0073044 -0.173514 0.516749
-0.00690136 -0.173775 0.516488
-0.00649948 -0.17404 0.516237
-0.00610099 -0.174324 0.516041
-0.00570621 -0.174628 0.515899
-0.00531009 -0.174923 0.515734
-0.00491019 -0.175188 0.515488
-0.00451423 -0.175478 0.51531
-0.00411211 -0.175719 0.515003
-0.00371055 -0.175959 0.514694
-0.00330795 -0.176186 0.514355
-0.00290992 -0.176441 0.514091
-0.00251142 -0.176688 0.513806
-0.00211857 -0.176978 0.513636
-0.00172653 -0.177271 0.513473
-0.00133789 -0.177595 0.513391
-0.000949494 -0.177919 0.513309
-0.000561077 -0.178243 0.513229
-0.000173755 -0.178577 0.513175
0.000213567 -0.178911 0.51312
0.000600889 -0.179245 0.513066
0.000988211 -0.179579 0.513011
0.00137463 -0.179923 0.512981
0.00176041 -0.180277 0.512978
0.0021461 -0.180633 0.512978
0.00253065 -0.18101 0.513032
0.00291518 -0.18139 0.51309
0.00329823 -0.181802 0.513231
0.00368321 -0.182186 0.513299
0.00406599 -0.18262 0.51349
0.00444845 -0.183067 0.513713
0.00483107 -0.183529 0.513972
0.00521632 -0.183954 0.514138
0.00560094 -0.184414 0.514388
0.00598699 -0.184852 0.514581
0.00637122 -0.18536 0.514943
0.00675503 -0.185924 0.515441
0.00713799 -0.186564 0.51612
0.00752169 -0.187251 0.516907
0.00790733 -0.187959 0.517741
0.00829688 -0.188593 0.51839
0.00868884 -0.189179 0.518922
0.00908344 -0.189716 0.51933
0.00947943 -0.190191 0.51959
0.00987678 -0.190644 0.519795
0.0102747 -0.191099 0.520004
0.0106734 -0.191616 0.520357
0.0110732 -0.192161 0.520774
0.0114746 -0.192737 0.52126
0.0118769 -0.193279 0.521665
-0.0277998 -0.164954 0.543064
-0.027333 -0.165202 0.542632
-0.0268278 -0.165346 0.541866
-0.026247 -0.16528 0.540438
-0.0256555 -0.165173 0.538886
-0.0250788 -0.165092 0.537428
-0.0245233 -0.165057 0.536128
-0.024 -0.165101 0.535084
-0.0234864 -0.165163 0.534107
-0.0229835 -0.165247 0.533204
-0.0224798 -0.165321 0.532276
-0.0219813 -0.165401 0.531373
-0.0215053 -0.165542 0.530665
-0.0210442 -0.165722 0.530081
-0.0205819 -0.165893 0.529475
-0.0201145 -0.166042 0.528804
-0.0196591 -0.166223 0.528235
-0.0191944 -0.166367 0.527561
-0.0187379 -0.166532 0.526953
-0.0182888 -0.166717 0.526407
-0.0178443 -0.166911 0.525895
-0.0173956 -0.167086 0.525328
-0.0169614 -0.167307 0.524901
-0.0165288 -0.16753 0.524482
-0.0161032 -0.167775 0.524132
-0.0156836 -0.168039 0.52384
-0.0152689 -0.16832 0.5236
-0.0148504 -0.168582 0.523306
-0.0144347 -0.168854 0.523041
-0.0140129 -0.169096 0.522691
-0.0135911 -0.169336 0.522338
-0.0131633 -0.169544 0.521896
-0.0127426 -0.169779 0.521531
-0.0123213 -0.170006 0.521149
-0.0119103 -0.170277 0.520892
-0.0115022 -0.170557 0.520664
-0.0110946 -0.170838 0.520437
-0.0106847 -0.171105 0.520175
-0.0102733 -0.171361 0.51988
-0.0098569 -0.171588 0.519508
-0.00943798 -0.171795 0.519082
-0.0090227 -0.172017 0.518701
-0.0086054 -0.172221 0.518271
-0.00819075 -0.172435 0.517868
-0.00778066 -0.172668 0.517525
-0.00737296 -0.17291 0.517207
-0.00696626 -0.173154 0.516894
-0.0065632 -0.173415 0.516633
-0.00616248 -0.173688 0.516402
-0.00576412 -0.173972 0.516207
-0.00536819 -0.174269 0.516045
-0.00497363 -0.174575 0.515907
-0.00457642 -0.174859 0.515712
-0.00418065 -0.17515 0.515536
-0.00377845 -0.175391 0.515227
-0.00337802 -0.175639 0.514938
-0.00297554 -0.175866 0.514597
-0.00257645 -0.176112 0.514308
-0.00217806 -0.176361 0.514027
-0.00178543 -0.176652 0.513858
-0.00139302 -0.176945 0.513694
-0.00100327 -0.177257 0.513583
-0.000613422 -0.17757 0.513471
-0.000223877 -0.177883 0.513363
0.00016444 -0.178207 0.513281
0.000551815 -0.178541 0.513226
0.000939038 -0.178875 0.513174
0.00132645 -0.17921 0.51312
0.0017123 -0.179564 0.513116
0.00209653 -0.17994 0.513168
0.00248155 -0.18031 0.513204
0.00286459 -0.180712 0.513319
0.0032482 -0.181113 0.513434
0.00363092 -0.181537 0.513603
0.0040167 -0.181921 0.513669
0.00440113 -0.182333 0.513808
0.00478559 -0.182754 0.513967
0.00516994 -0.183192 0.514164
0.00555694 -0.183591 0.514266
0.00594261 -0.18403 0.514465
0.00632888 -0.184467 0.514659
0.00671358 -0.184974 0.515021
0.00709757 -0.185549 0.515546
0.00748117 -0.1862 0.516254
0.00786576 -0.186899 0.517073
0.00825228 -0.187619 0.517939
0.00864247 -0.188265 0.518618
0.00903556 -0.188864 0.519182
0.00943061 -0.189402 0.519595
0.00982758 -0.189878 0.519859
0.0102252 -0.19033 0.520061
0.0106238 -0.190796 0.520296
0.0110231 -0.191289 0.520595
0.0114236 -0.191824 0.520989
0.0118256 -0.192386 0.521443
0.0122284 -0.192913 0.521814
-0.0274089 -0.164485 0.542977
-0.0269544 -0.164764 0.542642
-0.0264636 -0.164944 0.54199
-0.0258662 -0.164832 0.540406
-0.0252681 -0.164703 0.538779
-0.0246958 -0.16463 0.537343
-0.0241546 -0.164632 0.536154
-0.0236453 -0.164714 0.535226
-0.0231331 -0.164779 0.534253
-0.0226348 -0.164875 0.533385
-0.0221356 -0.164961 0.532489
-0.0216409 -0.165052 0.531616
-0.0211685 -0.165203 0.530936
-0.020708 -0.165385 0.530355
-0.0202462 -0.165557 0.52975
-0.0197791 -0.165706 0.529077
-0.0193239 -0.165887 0.528506
-0.018857 -0.166024 0.527805
-0.0184043 -0.166201 0.527229
-0.0179557 -0.166388 0.526688
-0.0175142 -0.166593 0.526204
-0.0170654 -0.166767 0.525633
-0.0166305 -0.166986 0.525196
-0.016195 -0.167198 0.524743
-0.0157692 -0.167442 0.52439
-0.0153473 -0.167698 0.524072
-0.0149331 -0.16798 0.523834
-0.0145144 -0.168242 0.523539
-0.0140988 -0.168514 0.523272
-0.0136772 -0.168757 0.522925
-0.0132536 -0.168989 0.522544
-0.0128255 -0.169195 0.522095
-0.0124027 -0.169421 0.521703
-0.0119796 -0.16964 0.521294
-0.0115666 -0.1699 0.521005
-0.0111586 -0.170181 0.520778
-0.010749 -0.170452 0.520524
-0.0103394 -0.170719 0.520261
-0.00992826 -0.170975 0.519965
-0.009514 -0.171211 0.519616
-0.00909678 -0.171426 0.519212
-0.00868378 -0.17166 0.518861
-0.0082684 -0.171874 0.518457
-0.0078542 -0.172089 0.518058
-0.00744426 -0.172322 0.517713
-0.00703686 -0.172565 0.517396
-0.00662882 -0.1728 0.517058
-0.00622434 -0.173052 0.51677
-0.00582521 -0.173334 0.516564
-0.00542697 -0.173619 0.516367
-0.00503097 -0.173916 0.516205
-0.00463645 -0.174222 0.516069
-0.0042418 -0.174525 0.515924
-0.00384464 -0.174807 0.515724
-0.00344285 -0.175049 0.515418
-0.00304269 -0.175298 0.515131
-0.00264141 -0.175535 0.514813
-0.00224159 -0.175775 0.514504
-0.00184482 -0.176036 0.514255
-0.00145203 -0.176328 0.514089
-0.00105985 -0.176622 0.513926
-0.00066952 -0.176933 0.513809
-0.000279522 -0.177244 0.513693
0.000111289 -0.177546 0.513555
0.00050073 -0.177858 0.513443
0.00088825 -0.178191 0.513386
0.00127639 -0.178517 0.513309
0.00166467 -0.178842 0.513233
0.00204909 -0.179216 0.51328
0.00243198 -0.179615 0.51339
0.002816 -0.180001 0.513467
0.00319803 -0.180427 0.513645
0.00358017 -0.18086 0.513838
0.00396371 -0.181283 0.514006
0.00435001 -0.181667 0.514072
0.00473606 -0.182059 0.51416
0.00512223 -0.182458 0.514262
0.00550887 -0.18286 0.514371
0.00589705 -0.183234 0.514413
0.00628391 -0.18365 0.514554
0.00667071 -0.184086 0.514744
0.00705591 -0.184592 0.515105
0.00744062 -0.185165 0.515628
0.00782466 -0.185825 0.516362
0.00821034 -0.186536 0.517213
0.00859767 -0.187269 0.518114
0.00898873 -0.187928 0.518828
0.00938222 -0.188549 0.519446
0.00977827 -0.189086 0.519859
0.0101757 -0.189564 0.520126
0.0105741 -0.190016 0.520328
0.0109732 -0.190492 0.520589
0.0113733 -0.190975 0.520863
0.0117744 -0.191511 0.52126
0.0121772 -0.19206 0.521685
0.0125806 -0.192584 0.522051
0.0126436 -0.194126 0.52379
0.0129855 -0.193105 0.522405
-0.0242944 -0.164117 0.537089
-0.0237784 -0.164186 0.536113
-0.0232868 -0.164317 0.535337
-0.0227861 -0.164414 0.53446
-0.0222988 -0.164542 0.533687
-0.0218036 -0.164639 0.532822
-0.0213126 -0.16474 0.531977
-0.020837 -0.164881 0.531262
-0.0203732 -0.165053 0.530647
-0.0199114 -0.165224 0.530036
-0.0194446 -0.165374 0.529363
-0.018987 -0.165548 0.528766
-0.0185237 -0.165695 0.528094
-0.018074 -0.165883 0.527549
-0.0176263 -0.166073 0.527012
-0.0171877 -0.166288 0.526558
-0.0167392 -0.166464 0.525987
-0.0163015 -0.166673 0.52552
-0.0158658 -0.166884 0.525062
-0.0154378 -0.16712 0.52468
-0.0150136 -0.167367 0.524335
-0.0145968 -0.16764 0.524068
-0.014178 -0.167902 0.523769
-0.01376 -0.168164 0.523474
-0.0133384 -0.168408 0.523126
-0.0129128 -0.16863 0.522717
-0.0124854 -0.168839 0.522273
-0.0120606 -0.169054 0.521847
-0.0116358 -0.169263 0.521411
-0.0112208 -0.169514 0.521094
-0.0108144 -0.169803 0.520888
-0.0104053 -0.170074 0.520634
-0.00999607 -0.170342 0.520373
-0.00958656 -0.170607 0.520101
-0.00917432 -0.170852 0.519779
-0.00875764 -0.171069 0.519377
-0.0083452 -0.171304 0.519028
-0.00793131 -0.171527 0.518646
-0.00751727 -0.171741 0.518245
-0.0071058 -0.171965 0.517872
-0.00669891 -0.17221 0.517558
-0.00629261 -0.172455 0.517247
-0.00588693 -0.1727 0.516937
-0.00548646 -0.172971 0.516703
-0.00508805 -0.173255 0.516503
-0.00469039 -0.173542 0.516311
-0.00429471 -0.173838 0.516148
-0.00390152 -0.174151 0.516028
-0.00350628 -0.174446 0.515861
-0.00310615 -0.1747 0.515587
-0.0027071 -0.17496 0.515328
-0.00230752 -0.175207 0.515038
-0.00190877 -0.175457 0.514754
-0.00151332 -0.17573 0.514534
-0.00112152 -0.176033 0.514396
-0.00072907 -0.176328 0.514237
-0.000338608 -0.17664 0.514121
5.26517e-05 -0.17694 0.513977
0.000444607 -0.177231 0.513806
0.000836059 -0.177522 0.51364
0.00122398 -0.177854 0.51358
0.00161239 -0.178179 0.513501
0.0020005 -0.178505 0.513426
0.00238431 -0.17889 0.513501
0.00276597 -0.179311 0.513667
0.00314985 -0.17971 0.513776
0.00353231 -0.180138 0.513961
0.00391441 -0.180581 0.514179
0.00429875 -0.181003 0.514344
0.00468555 -0.181388 0.514412
0.0050721 -0.181781 0.514502
0.00545906 -0.182171 0.514582
0.00584684 -0.18256 0.514658
0.00623572 -0.18292 0.514664
0.00662341 -0.183323 0.514775
0.00701155 -0.183739 0.514915
0.00739726 -0.184244 0.515274
0.00778306 -0.184803 0.515766
0.00816832 -0.185461 0.516497
0.00855491 -0.186173 0.517354
0.0089433 -0.18692 0.518292
0.00933553 -0.18759 0.519034
0.00972973 -0.188221 0.519678
0.0101265 -0.188768 0.520117
0.0105246 -0.189257 0.520411
0.0109232 -0.18971 0.520617
0.0113233 -0.190199 0.520907
0.0117239 -0.190682 0.521183
0.0121258 -0.191206 0.521553
0.0125291 -0.19173 0.521921
0.0129333 -0.192252 0.522281
0.0133387 -0.19276 0.522606
0.0133917 -0.193651 0.522815
0.0137456 -0.193318 0.523045
-0.0239096 -0.163649 0.53698
-0.0234212 -0.163794 0.536241
-0.0229452 -0.163969 0.535602
-0.0224525 -0.164088 0.534793
-0.0219668 -0.164221 0.534031
-0.0214727 -0.164321 0.533172
-0.0209816 -0.164421 0.53232
-0.0204997 -0.164543 0.531539
-0.0200324 -0.164703 0.530885
-0.0195678 -0.164865 0.530241
-0.0191016 -0.165016 0.529568
-0.0186448 -0.165191 0.528972
-0.0181871 -0.165357 0.528354
-0.0177404 -0.165555 0.527837
-0.017296 -0.165755 0.527331
-0.0168602 -0.165982 0.526909
-0.0164148 -0.166168 0.526368
-0.0159752 -0.166371 0.525879
-0.0155371 -0.166574 0.525394
-0.0151065 -0.1668 0.524979
-0.0146795 -0.167036 0.5246
-0.01426 -0.167299 0.524302
-0.0138413 -0.167561 0.524002
-0.0134231 -0.167823 0.523703
-0.0129996 -0.168058 0.523329
-0.0125722 -0.168271 0.522892
-0.0121426 -0.16847 0.522416
-0.0117139 -0.168666 0.521934
-0.0112871 -0.168866 0.521466
-0.0108721 -0.169114 0.521143
-0.0104664 -0.169405 0.520942
-0.0100594 -0.169686 0.520715
-0.00965228 -0.169965 0.520483
-0.00924333 -0.170231 0.520215
-0.00883333 -0.170487 0.519921
-0.00841726 -0.170707 0.519527
-0.00800522 -0.170942 0.519178
-0.00759338 -0.171175 0.518824
-0.00718109 -0.171399 0.518445
-0.00676842 -0.171615 0.518048
-0.0063611 -0.171858 0.51773
-0.00595497 -0.172103 0.517417
-0.00554969 -0.172348 0.517106
-0.00514906 -0.17262 0.516873
-0.00475079 -0.172904 0.516673
-0.00435319 -0.17319 0.516477
-0.0039559 -0.173475 0.516283
-0.00356277 -0.173789 0.516165
-0.00316748 -0.174083 0.515998
-0.0027703 -0.17436 0.515783
-0.00237405 -0.174642 0.515582
-0.001977 -0.174912 0.515349
-0.00157918 -0.175171 0.515091
-0.00118539 -0.175462 0.514916
-0.000793476 -0.175767 0.514781
-0.000400789 -0.176063 0.514624
-9.28887e-06 -0.176366 0.514485
0.000383254 -0.176657 0.514313
0.000777166 -0.176928 0.514092
0.0011698 -0.177208 0.513895
0.00155891 -0.177529 0.513805
0.00194737 -0.177853 0.513724
0.00233567 -0.17818 0.513649
0.00272004 -0.178565 0.513725
0.00310212 -0.178986 0.513892
0.00348648 -0.179385 0.514001
0.00386926 -0.179811 0.51418
0.00425158 -0.180263 0.514423
0.00463615 -0.180686 0.514588
0.00502257 -0.181082 0.514688
0.00540963 -0.181476 0.514779
0.00579737 -0.181866 0.514858
0.00618573 -0.182244 0.514908
0.0065749 -0.182605 0.514913
0.00696336 -0.182998 0.515
0.00735175 -0.183413 0.515139
0.00773821 -0.183917 0.515499
0.00812502 -0.184475 0.515988
0.00851121 -0.185144 0.516748
0.00889872 -0.185866 0.517631
0.00928879 -0.186613 0.518572
0.00968199 -0.187282 0.519315
0.0100777 -0.187922 0.519984
0.0104749 -0.18847 0.520424
0.0108737 -0.188961 0.520725
0.0112733 -0.189427 0.520962
0.0116739 -0.189916 0.521253
0.012075 -0.190388 0.521502
0.012478 -0.190898 0.52184
0.0128816 -0.191409 0.522176
0.0132866 -0.191931 0.522536
0.0136926 -0.192452 0.522893
0.0141016 -0.193036 0.523399
-0.0234902 -0.163082 0.536547
-0.0230458 -0.16335 0.536203
-0.0226022 -0.163618 0.535861
-0.0221202 -0.163768 0.535146
-0.0216385 -0.163912 0.534417
-0.0211453 -0.164015 0.53356
-0.020654 -0.164114 0.532701
-0.0201681 -0.164223 0.531876
-0.019695 -0.164364 0.53116
-0.0192277 -0.164517 0.530485
-0.0187623 -0.16467 0.529812
-0.0183058 -0.164845 0.529216
-0.0178483 -0.165012 0.528596
-0.0174019 -0.16521 0.528078
-0.0169579 -0.165412 0.527574
-0.016525 -0.165649 0.52718
-0.016083 -0.165848 0.526674
-0.0156462 -0.166061 0.526213
-0.0152107 -0.166274 0.525756
-0.0147795 -0.166499 0.525337
-0.0143522 -0.166734 0.524953
-0.0139301 -0.166987 0.524622
-0.0135065 -0.16723 0.524265
-0.013084 -0.167473 0.523908
-0.0126602 -0.167707 0.523528
-0.0122287 -0.167902 0.523036
-0.0117973 -0.168091 0.522528
-0.0113687 -0.168285 0.52204
-0.0109419 -0.168483 0.521564
-0.0105254 -0.168724 0.521218
-0.0101199 -0.169015 0.521019
-0.00971544 -0.169308 0.520824
-0.00931056 -0.169598 0.520623
-0.00890398 -0.169875 0.520386
-0.00849604 -0.170142 0.520123
-0.00808203 -0.170373 0.519758
-0.00767015 -0.17061 0.519412
-0.00725726 -0.170835 0.519034
-0.00684487 -0.171058 0.518653
-0.0064309 -0.171265 0.518228
-0.00602375 -0.171508 0.517907
-0.00561743 -0.171752 0.51759
-0.00521367 -0.172006 0.517304
-0.00481337 -0.172281 0.517076
-0.004415 -0.172564 0.516874
-0.00401604 -0.17284 0.516651
-0.00361845 -0.173124 0.516451
-0.00322534 -0.173437 0.516331
-0.00283006 -0.173732 0.516166
-0.00243541 -0.174031 0.516008
-0.00204188 -0.174335 0.515866
-0.0016448 -0.174607 0.515638
-0.00124709 -0.174867 0.515381
-0.000854084 -0.175167 0.51523
-0.000462036 -0.175473 0.515098
-6.93212e-05 -0.175771 0.514941
0.000322468 -0.176075 0.514803
0.000714506 -0.176372 0.514649
0.00110959 -0.176633 0.514399
0.00150246 -0.176913 0.514201
0.00189229 -0.177226 0.514087
0.00228124 -0.177549 0.514002
0.00267069 -0.177865 0.513901
0.0030559 -0.178241 0.513952
0.00344046 -0.17863 0.514038
0.00382614 -0.179004 0.514085
0.00421093 -0.179407 0.514203
0.00459408 -0.179848 0.514418
0.0049788 -0.180271 0.514589
0.00536428 -0.18069 0.514744
0.00575067 -0.181106 0.514891
0.0061375 -0.181516 0.515022
0.00652579 -0.181905 0.5151
0.00691486 -0.182277 0.515135
0.00730323 -0.182683 0.515252
0.0076918 -0.18311 0.515421
0.0080792 -0.183615 0.515784
0.00846678 -0.184173 0.516274
0.00885415 -0.184851 0.517059
0.00924312 -0.185562 0.517919
0.00963477 -0.186287 0.518807
0.010029 -0.186953 0.519547
0.0104256 -0.187592 0.520213
0.0108238 -0.188131 0.520634
0.0112236 -0.188634 0.520965
0.0116238 -0.189125 0.521263
0.0120251 -0.189614 0.521556
0.012427 -0.190084 0.521799
0.0128301 -0.190579 0.522102
0.013234 -0.191065 0.522379
0.0136395 -0.191575 0.522713
0.0140465 -0.19211 0.523104
0.0144578 -0.192747 0.523733
-0.0231384 -0.162705 0.536728
-0.022695 -0.162976 0.536393
-0.022252 -0.163245 0.536053
-0.0217807 -0.163427 0.535435
-0.0213 -0.163574 0.534712
-0.0208102 -0.163686 0.533882
-0.0203189 -0.163786 0.533017
-0.0198332 -0.163894 0.532186
-0.0193548 -0.164017 0.531409
-0.0188877 -0.164171 0.530733
-0.018423 -0.164325 0.530061
-0.0179667 -0.1645 0.529463
-0.01751 -0.164668 0.528844
-0.0170634 -0.164866 0.528323
-0.0166197 -0.165069 0.527819
-0.0161895 -0.165316 0.527453
-0.0157502 -0.165525 0.526975
-0.0153162 -0.165749 0.526545
-0.0148835 -0.165972 0.526118
-0.0144543 -0.166206 0.525722
-0.0140268 -0.166442 0.525337
-0.0136003 -0.166677 0.524952
-0.0131722 -0.166901 0.524535
-0.0127468 -0.167133 0.524143
-0.0123186 -0.167346 0.5237
-0.0118833 -0.167523 0.523152
-0.0114519 -0.167711 0.522638
-0.0110214 -0.167896 0.522121
-0.0105931 -0.168084 0.521615
-0.0101768 -0.168325 0.521269
-0.00977185 -0.168617 0.521071
-0.0093697 -0.168921 0.52091
-0.00896899 -0.169231 0.520767
-0.0085645 -0.16952 0.520563
-0.00815849 -0.169798 0.520327
-0.00774779 -0.170047 0.520011
-0.00733611 -0.170285 0.519667
-0.006925 -0.17052 0.519314
-0.00651305 -0.170746 0.518939
-0.00609892 -0.170952 0.518511
-0.00568886 -0.171175 0.518134
-0.00528235 -0.171417 0.51781
-0.00487724 -0.171663 0.517499
-0.00447735 -0.17194 0.517275
-0.00407797 -0.172217 0.517054
-0.00368007 -0.172501 0.516854
-0.00328109 -0.172774 0.516623
-0.00288635 -0.173076 0.516473
-0.0024914 -0.173373 0.51631
-0.00209913 -0.17369 0.516203
-0.00170687 -0.174007 0.516095
-0.00131219 -0.174301 0.515926
-0.000916744 -0.174582 0.515724
-0.000524534 -0.174893 0.5156
-0.000130983 -0.175189 0.515439
0.00026275 -0.175478 0.515258
0.00065511 -0.175779 0.515112
0.0010474 -0.176077 0.514957
0.00144339 -0.176327 0.514678
