ply
format ascii 1.0
element vertex 1586
property float x
property float y
property float z
end_header
-0.0342418 -0.0783665 0.923753
-0.0517251 -0.0717865 0.927058
-0.0533121 -0.0712021 0.92708
-0.0548963 -0.0706235 0.927005
-0.0564554 -0.0700924 0.926092
-0.05801 -0.0695652 0.925131
-0.0595291 -0.0690958 0.923206
-0.0610502 -0.0686149 0.921505
-0.0625721 -0.0681257 0.919988
-0.0641129 -0.0676009 0.919085
-0.0656564 -0.0670684 0.918328
-0.067215 -0.0665107 0.917999
-0.0687723 -0.0659534 0.917671
-0.0703247 -0.0654022 0.917244
-0.0718849 -0.0648389 0.917023
-0.073459 -0.0642559 0.917122
-0.075046 -0.0636564 0.917465
-0.0766424 -0.0630457 0.917983
-0.0782524 -0.0624195 0.918725
-0.0798993 -0.06175 0.92011
-0.081572 -0.0610531 0.921884
-0.0832608 -0.0603418 0.923844
-0.0849631 -0.0596197 0.92593
-0.0866612 -0.0589072 0.927841
-0.0883491 -0.0582107 0.929489
-0.0899992 -0.0575594 0.930455
-0.0916592 -0.0568995 0.931529
0.0096101 -0.0961551 0.92679
0.00800019 -0.0955906 0.92618
0.00638389 -0.0950347 0.925307
0.00477241 -0.094478 0.924502
0.00315719 -0.0939295 0.923483
0.00154501 -0.0933825 0.922454
-7.62608e-05 -0.092853 0.920959
-0.00167775 -0.092304 0.920057
-0.00328213 -0.0917651 0.918911
-0.00487624 -0.0912165 0.918067
-0.00646584 -0.0906658 0.917311
-0.00804591 -0.0901013 0.916934
-0.00962809 -0.0895451 0.916362
-0.0111995 -0.0889674 0.916364
-0.0127714 -0.0883908 0.916337
-0.0143368 -0.0877938 0.916816
-0.0159015 -0.0871881 0.917509
-0.0174672 -0.0865763 0.918319
-0.0190374 -0.0859748 0.918866
-0.0206094 -0.0853739 0.919383
-0.0221828 -0.0847701 0.91995
-0.0237585 -0.0841754 0.920302
-0.0253351 -0.0835731 0.92081
-0.0269132 -0.0829789 0.921124
-0.0284925 -0.0823762 0.921623
-0.0300712 -0.0817996 0.921537
-0.0316527 -0.0811952 0.922055
-0.0332307 -0.0806252 0.921824
-0.0539737 -0.0726439 0.929835
-0.0555562 -0.0720752 0.929535
-0.0571157 -0.0715467 0.928526
-0.0586628 -0.0710351 0.927243
-0.0601726 -0.0705809 0.924968
-0.0616865 -0.0701108 0.923013
-0.063201 -0.0696323 0.921254
-0.0647379 -0.0691133 0.920214
-0.0662782 -0.0685855 0.91935
-0.067838 -0.0680268 0.919022
-0.0693975 -0.0674677 0.918693
-0.070956 -0.0669086 0.918383
-0.0725185 -0.0663432 0.918181
-0.0740957 -0.0657583 0.91829
-0.0756797 -0.0651648 0.918546
-0.0772774 -0.0645552 0.919044
-0.0788892 -0.06393 0.919777
-0.0805394 -0.0632609 0.921181
-0.0822151 -0.0625659 0.922965
-0.0839133 -0.0618495 0.925041
-0.0856258 -0.0611221 0.927244
-0.0873354 -0.0604027 0.929292
-0.0890339 -0.0597 0.931057
-0.090695 -0.0590409 0.93214
-0.0923667 -0.0583732 0.93334
0.0106657 -0.0982902 0.928227
0.00904705 -0.0977282 0.927451
0.00743717 -0.0971615 0.92686
0.00581513 -0.0966089 0.925832
0.00419925 -0.0960546 0.924891
0.00258654 -0.0955014 0.923959
0.000977389 -0.0949488 0.923048
-0.000640028 -0.0944114 0.921698
-0.00224082 -0.0938587 0.920854
-0.00384095 -0.0933103 0.919923
-0.00543716 -0.0927614 0.91903
-0.00702861 -0.0922102 0.918235
-0.00860837 -0.0916416 0.917945
-0.0101899 -0.0910796 0.91749
-0.0117626 -0.0904998 0.917522
-0.013335 -0.089919 0.917592
-0.0149014 -0.0893174 0.918188
-0.0164693 -0.0887149 0.918803
-0.0180372 -0.0881021 0.919661
-0.0196106 -0.0875045 0.920101
-0.0211856 -0.0869087 0.920492
-0.0227619 -0.0863151 0.920825
-0.0243392 -0.0857215 0.921149
-0.0259174 -0.0851246 0.92154
-0.0274966 -0.084536 0.921727
-0.0290769 -0.0839382 0.922119
-0.0306557 -0.0833677 0.921888
-0.0322368 -0.082774 0.922172
-0.0338131 -0.082214 0.921717
-0.0562298 -0.0735155 0.932436
-0.057786 -0.0729962 0.931192
-0.0593254 -0.0724998 0.92956
-0.0608292 -0.0720536 0.92706
-0.0623419 -0.0715846 0.925009
-0.0638467 -0.0711198 0.922928
-0.0653808 -0.0706051 0.921772
-0.0669216 -0.0700772 0.920869
-0.0684824 -0.0695188 0.920501
-0.0700435 -0.0689588 0.920182
-0.0716095 -0.0683913 0.91998
-0.0731798 -0.0678178 0.919895
-0.0747603 -0.0672313 0.920014
-0.0763424 -0.0666432 0.920172
-0.0779434 -0.0660328 0.92068
-0.0795577 -0.0654084 0.921403
-0.0812107 -0.0647411 0.922807
-0.0828847 -0.0640539 0.924484
-0.0845935 -0.0633323 0.926677
-0.0863104 -0.0626067 0.9289
-0.0880315 -0.0618815 0.931064
-0.0897441 -0.0611698 0.932994
-0.0914183 -0.0605014 0.934234
-0.0930877 -0.0598403 0.935346
0.00849095 -0.099297 0.928336
0.00687784 -0.0987307 0.927677
0.00525081 -0.09818 0.926512
0.00362819 -0.09763 0.925367
0.0020153 -0.097075 0.924436
0.000408842 -0.0965171 0.923631
-0.00120282 -0.09597 0.922515
-0.00280115 -0.0954111 0.921807
-0.00439963 -0.0948566 0.920993
-0.00599742 -0.0943063 0.920081
-0.00759028 -0.0937537 0.919276
-0.00917302 -0.0931871 0.918898
-0.0107556 -0.0926233 0.918453
-0.0123299 -0.0920431 0.918485
-0.0139027 -0.0914583 0.918643
-0.0154697 -0.0908528 0.919355
-0.0170399 -0.0902504 0.91997
-0.01861 -0.0896372 0.920857
-0.020185 -0.0890364 0.921385
-0.0217627 -0.0884458 0.92164
-0.0233418 -0.087862 0.92172
-0.024921 -0.0872728 0.921927
-0.0265007 -0.086685 0.922095
-0.0280802 -0.0861101 0.921961
-0.0296609 -0.0855155 0.922284
-0.0312381 -0.084959 0.921712
-0.032815 -0.0843926 0.921384
-0.0343853 -0.083857 0.920355
-0.0553157 -0.0755377 0.935645
-0.0568999 -0.0749769 0.935112
-0.0584504 -0.074469 0.933587
-0.0599818 -0.0739859 0.931623
-0.0614871 -0.0735349 0.929114
-0.0629977 -0.0730675 0.926946
-0.0645 -0.0726045 0.924758
-0.0660321 -0.0720928 0.923495
-0.0675692 -0.0715703 0.922446
-0.0691272 -0.071017 0.921961
-0.0706852 -0.0704622 0.921526
-0.0722534 -0.0698936 0.921323
-0.0738311 -0.0693126 0.921345
-0.0754193 -0.0687189 0.921591
-0.0770094 -0.0681237 0.921846
-0.0786237 -0.0675014 0.922549
-0.080242 -0.0668762 0.923292
-0.0818943 -0.0662152 0.924599
-0.083565 -0.065537 0.926169
-0.085276 -0.0648196 0.928333
-0.0869908 -0.064103 0.930448
-0.0887184 -0.0633774 0.932661
-0.0904505 -0.0626517 0.934835
-0.0921379 -0.0619749 0.93622
-0.0938048 -0.0613206 0.937235
0.00954779 -0.101439 0.929812
0.00792127 -0.100878 0.928851
0.00630822 -0.10031 0.928212
0.00467865 -0.0997595 0.92697
0.00305603 -0.0992073 0.925824
0.00144356 -0.0986499 0.924913
-0.000158057 -0.0980847 0.924302
-0.00176483 -0.097529 0.9234
-0.00336374 -0.0969678 0.922712
-0.00496273 -0.0964109 0.921917
-0.00656141 -0.0958586 0.921005
-0.00815717 -0.0953073 0.920093
-0.00974089 -0.0947395 0.919725
-0.0113222 -0.0941696 0.919426
-0.0128965 -0.0935848 0.919574
-0.0144698 -0.0929961 0.919839
-0.0160384 -0.0923885 0.920629
-0.017612 -0.0917899 0.921137
-0.0191852 -0.091182 0.921898
-0.0207629 -0.0905866 0.92229
-0.0223424 -0.0899965 0.922526
-0.0239232 -0.0894167 0.922489
-0.0255036 -0.0888274 0.922696
-0.0270846 -0.0882396 0.922863
-0.0286656 -0.0876589 0.922846
-0.0302473 -0.0870713 0.922994
-0.0318245 -0.0865192 0.922277
-0.0559714 -0.0770333 0.937845
-0.0575564 -0.076474 0.937244
-0.0591008 -0.075976 0.935456
-0.0606273 -0.0754985 0.933297
-0.0621359 -0.0750398 0.930837
-0.0636512 -0.0745632 0.928766
-0.0651553 -0.0740953 0.926578
-0.0666978 -0.0735694 0.92552
-0.068237 -0.0730448 0.924461
-0.0697928 -0.0724958 0.923869
-0.0713489 -0.071945 0.923317
-0.0729197 -0.071375 0.923124
-0.0745002 -0.0707929 0.923146
-0.0760968 -0.0701924 0.923489
-0.0776958 -0.06959 0.923861
-0.0793149 -0.0689662 0.924584
-0.0809376 -0.0683402 0.925346
-0.0825874 -0.0676869 0.926536
-0.0842546 -0.0670179 0.92797
-0.0859628 -0.06631 0.930017
-0.0876804 -0.0655967 0.932113
-0.0894199 -0.0648658 0.934462
-0.0911643 -0.0641346 0.936763
-0.0928636 -0.0634509 0.938275
-0.0945334 -0.0627981 0.939271
0.0089633 -0.103034 0.929918
0.00733546 -0.102473 0.92891
0.00572185 -0.101904 0.928241
0.0040995 -0.101346 0.927213
0.00247435 -0.100794 0.92597
0.000862164 -0.100235 0.925058
-0.000739306 -0.0996694 0.924448
-0.0023434 -0.0991092 0.923643
-0.00394189 -0.0985464 0.922975
-0.00553827 -0.0979842 0.922296
-0.00713274 -0.0974236 0.921608
-0.0087253 -0.0968642 0.9209
-0.0103079 -0.0962913 0.920659
-0.0118889 -0.0957167 0.920476
-0.0134634 -0.0951276 0.920741
-0.0150386 -0.0945382 0.921016
-0.0166106 -0.0939349 0.921699
-0.0181871 -0.0933408 0.922081
-0.0197633 -0.0927383 0.922696
-0.021343 -0.0921467 0.92298
-0.022924 -0.0915607 0.923109
-0.0245057 -0.0909797 0.923092
-0.0260873 -0.0903902 0.923299
-0.0276693 -0.0898016 0.923486
-0.0292515 -0.0892166 0.923576
-0.0308349 -0.0886244 0.923841
-0.0324146 -0.0880604 0.923386
-0.0566144 -0.0785605 0.939548
-0.058204 -0.0779957 0.939006
-0.0597525 -0.0774901 0.937295
-0.0612828 -0.077005 0.935205
-0.062792 -0.0765425 0.932716
-0.0643046 -0.0760676 0.930528
-0.0658059 -0.0756008 0.928233
-0.0673506 -0.0750721 0.927175
-0.0688967 -0.0745386 0.926233
-0.0704596 -0.073982 0.925739
-0.0720237 -0.0734228 0.925313
-0.0736027 -0.0728453 0.925227
-0.0751913 -0.0722567 0.925346
-0.0767868 -0.0716608 0.925592
-0.0783902 -0.0710566 0.925984
-0.0800148 -0.0704309 0.926736
-0.0816478 -0.0697979 0.927615
-0.0832898 -0.0691576 0.9286
-0.0849595 -0.0684914 0.929995
-0.08667 -0.0677876 0.932013
-0.0883863 -0.0670817 0.934022
-0.0901242 -0.0663592 0.936264
-0.091873 -0.0656303 0.938574
-0.0935663 -0.0649569 0.93994
-0.0952159 -0.0643261 0.940585
0.00840101 -0.104614 0.930667
0.00676774 -0.104055 0.929513
0.0051504 -0.103487 0.928747
0.00351984 -0.102933 0.927446
0.00189167 -0.102383 0.926087
0.000276996 -0.101825 0.925068
-0.00132398 -0.101257 0.924458
-0.00292515 -0.100693 0.92376
-0.00452085 -0.100126 0.923208
-0.00611468 -0.0995593 0.922656
-0.00770715 -0.098994 0.922084
-0.00929816 -0.0984302 0.921484
-0.0108801 -0.0978534 0.92134
-0.0124604 -0.0972744 0.921274
-0.0140358 -0.0966841 0.921588
-0.0156111 -0.096091 0.921979
-0.017186 -0.0954915 0.922546
-0.0187659 -0.0949051 0.922703
-0.0203442 -0.0943078 0.923182
-0.0219244 -0.0937128 0.923564
-0.0235063 -0.0931257 0.923722
-0.0250888 -0.0925392 0.923851
-0.0266718 -0.0919378 0.924388
-0.0282558 -0.0913451 0.924683
-0.0298405 -0.0907548 0.924889
-0.031427 -0.0901552 0.925349
-0.0330139 -0.0895607 0.925653
-0.0572383 -0.0801252 0.940551
-0.058839 -0.0795444 0.94032
-0.060388 -0.0790363 0.93859
-0.0619193 -0.0785468 0.9365
-0.0634366 -0.0780695 0.934215
-0.0649501 -0.0775903 0.932027
-0.066449 -0.0771234 0.929645
-0.068 -0.0765864 0.928693
-0.0695525 -0.0760451 0.927858
-0.0711189 -0.0754853 0.927403
-0.072696 -0.0749123 0.927201
-0.0742787 -0.0743328 0.927126
-0.0758759 -0.0737371 0.927362
-0.0774858 -0.0731288 0.927822
-0.0791053 -0.072511 0.928447
-0.0807357 -0.0718836 0.929238
-0.0823855 -0.0712381 0.930331
-0.0840307 -0.0705993 0.931288
-0.0856928 -0.069946 0.932478
-0.0873951 -0.0692565 0.934272
-0.0891036 -0.0685645 0.936066
-0.0908247 -0.0678639 0.937977
-0.0925542 -0.0671589 0.939928
-0.0942339 -0.0665017 0.94105
-0.0958687 -0.0658864 0.941452
0.00617637 -0.105654 0.929415
0.0045557 -0.105088 0.928513
0.00292647 -0.104532 0.927222
0.00129604 -0.103982 0.925737
-0.000317941 -0.103423 0.924699
-0.0019179 -0.102855 0.924098
-0.00351509 -0.102287 0.923526
-0.0051052 -0.101713 0.923208
-0.00669621 -0.101142 0.922782
-0.00828632 -0.100572 0.922327
-0.00987557 -0.100004 0.921834
-0.0114546 -0.0994208 0.921914
-0.013034 -0.0988377 0.921974
-0.0146081 -0.0982409 0.922512
-0.016185 -0.0976474 0.922913
-0.0177627 -0.0970518 0.923372
-0.0193448 -0.0964693 0.923394
-0.0209253 -0.095876 0.923747
-0.0225065 -0.0952811 0.924148
-0.0240891 -0.0946888 0.924452
-0.0256726 -0.0940906 0.924921
-0.0272575 -0.093485 0.925604
-0.0288443 -0.092884 0.926113
-0.0304326 -0.0922818 0.92666
-0.0320257 -0.0916593 0.927742
-0.0336236 -0.0910292 0.92901
-0.0578386 -0.0817291 0.940755
-0.0594382 -0.0811497 0.940485
-0.0609933 -0.0806293 0.93895
-0.0625286 -0.0801301 0.936996
-0.0640553 -0.0796363 0.934974
-0.065578 -0.0791419 0.93302
-0.0670894 -0.0786557 0.930949
-0.0686464 -0.0781111 0.930105
-0.070206 -0.0775614 0.929396
-0.0717805 -0.0769936 0.929058
-0.0733818 -0.0763958 0.929323
-0.07498 -0.0758018 0.929511
-0.0765884 -0.0751975 0.929893
-0.0782135 -0.0745772 0.930567
-0.0798497 -0.073947 0.931407
-0.0814672 -0.0733366 0.931867
-0.0831104 -0.0727023 0.932765
-0.0847404 -0.0720821 0.933381
-0.0863855 -0.071449 0.934221
-0.0880644 -0.0707863 0.935567
-0.0897609 -0.0701099 0.937128
-0.0914693 -0.0694256 0.938795
-0.0931911 -0.0687319 0.9406
-0.0948626 -0.0680847 0.941566
-0.0964964 -0.0674711 0.941939
0.00720227 -0.107824 0.930035
0.00556766 -0.107264 0.928764
0.00394764 -0.106697 0.927833
0.00232278 -0.106138 0.926629
0.000693636 -0.105586 0.925124
-0.000916314 -0.105024 0.924183
-0.00251206 -0.104452 0.923709
-0.00410534 -0.10388 0.923274
-0.00569225 -0.103303 0.923072
-0.00727853 -0.102726 0.92287
-0.00886629 -0.102152 0.922541
-0.0104533 -0.101579 0.922194
-0.0120311 -0.100992 0.9224
-0.0136086 -0.100403 0.922675
-0.0151827 -0.0998036 0.923329
-0.01676 -0.0992071 0.923847
-0.0183396 -0.0986117 0.924296
-0.0199233 -0.0980294 0.924299
-0.0215053 -0.0974365 0.924642
-0.0230883 -0.0968415 0.925043
-0.0246722 -0.0962449 0.925483
-0.0262575 -0.0956422 0.926098
-0.0278454 -0.0950257 0.927122
-0.0294354 -0.0944171 0.927874
-0.0310284 -0.0938023 0.928781
-0.0326282 -0.0931664 0.930272
-0.0342351 -0.0925174 0.932104
-0.0584838 -0.0832725 0.942361
-0.0600594 -0.0827264 0.941312
-0.0616052 -0.0822155 0.939495
-0.0631462 -0.0817056 0.937707
-0.0646785 -0.0812012 0.935831
-0.0662067 -0.0806968 0.934013
-0.0677279 -0.080196 0.932166
-0.0692906 -0.0796447 0.931428
-0.0708576 -0.0790868 0.930847
-0.0724351 -0.0785165 0.930528
-0.0740601 -0.0778962 0.931251
-0.0756796 -0.0772829 0.931799
-0.0773064 -0.0766635 0.932463
-0.0789436 -0.0760351 0.933293
-0.0805954 -0.0753942 0.934337
-0.0821868 -0.0748121 0.934233
-0.0838189 -0.0741921 0.934858
-0.0854256 -0.0735963 0.935007
-0.0870519 -0.072983 0.935487
-0.0887042 -0.0723475 0.936356
-0.090384 -0.0716896 0.937624
-0.0920697 -0.0710284 0.938922
-0.0937841 -0.070345 0.94058
-0.0954495 -0.0697049 0.941449
-0.0970833 -0.0690918 0.941832
0.00495425 -0.108875 0.927937
0.00333314 -0.108309 0.926909
0.00171288 -0.107746 0.925793
8.26806e-05 -0.107195 0.924161
-0.00152493 -0.106632 0.92323
-0.00311861 -0.10606 0.922766
-0.00470483 -0.105482 0.922573
-0.00628563 -0.104899 0.922615
-0.0078668 -0.104317 0.922646
-0.00945195 -0.10374 0.922434
-0.0110351 -0.103161 0.92231
-0.0126128 -0.102574 0.922546
-0.014189 -0.101982 0.922957
-0.0157626 -0.10138 0.923737
-0.01734 -0.100781 0.924362
-0.0189204 -0.100186 0.924822
-0.0205039 -0.0995974 0.925019
-0.0220868 -0.0990015 0.925469
-0.0236709 -0.0984033 0.925986
-0.0252565 -0.0978032 0.926543
-0.026844 -0.0971943 0.927382
-0.0284347 -0.0965743 0.928543
-0.030028 -0.0959612 0.92945
-0.0316254 -0.095339 0.93061
-0.0332309 -0.094695 0.932393
-0.0348426 -0.0940458 0.934273
-0.0364521 -0.0934219 0.935337
-0.0591438 -0.084804 0.944385
-0.0606999 -0.0842828 0.942675
-0.0622389 -0.0837778 0.940634
-0.0637806 -0.0832643 0.938845
-0.0653152 -0.0827545 0.937018
-0.0668408 -0.0822503 0.935113
-0.0683757 -0.0817317 0.933577
-0.0699462 -0.0811718 0.932986
-0.0715171 -0.0806104 0.932434
-0.0730919 -0.0800436 0.932018
-0.0747346 -0.0794087 0.933042
-0.0763589 -0.0787938 0.933629
-0.0779879 -0.0781751 0.934274
-0.079631 -0.0775446 0.935143
-0.0812785 -0.0769116 0.936051
-0.0828433 -0.0763546 0.93543
-0.0844486 -0.0757606 0.93554
-0.0860327 -0.0751852 0.935299
-0.0876303 -0.0745981 0.935282
-0.0892643 -0.0739797 0.935859
-0.090927 -0.0733383 0.936855
-0.0925951 -0.0726937 0.93789
-0.0942951 -0.0720247 0.939343
-0.0959606 -0.0713854 0.940242
-0.0975873 -0.0707779 0.940537
0.00432589 -0.110492 0.926595
0.00270871 -0.109924 0.925606
0.0010912 -0.109361 0.92449
-0.000532801 -0.108806 0.922985
-0.00213515 -0.108239 0.92217
-0.00372414 -0.107664 0.921822
-0.00530583 -0.107084 0.921766
-0.00688083 -0.106497 0.922041
-0.00845683 -0.10591 0.922306
-0.0100395 -0.10533 0.922211
-0.0116187 -0.104746 0.92232
-0.0131951 -0.104157 0.922663
-0.0147704 -0.103563 0.92319
-0.0163438 -0.102959 0.924068
-0.0179217 -0.10236 0.924732
-0.0195022 -0.101762 0.925318
-0.0210857 -0.10117 0.925661
-0.0226697 -0.100574 0.92613
-0.0242552 -0.0999756 0.926658
-0.025842 -0.0993675 0.927526
-0.0274317 -0.0987557 0.928482
-0.0290254 -0.09813 0.929885
-0.0306223 -0.0975103 0.931036
-0.0322244 -0.0968814 0.932439
-0.0338335 -0.09624 0.934193
-0.0354484 -0.0955959 0.935976
-0.0370593 -0.0949784 0.936854
-0.0380698 -0.0927821 0.936828
-0.0386757 -0.0943524 0.937976
-0.0582387 -0.0868738 0.948003
-0.0598082 -0.0863396 0.946468
-0.0613516 -0.0858322 0.94432
-0.0628783 -0.0853387 0.941899
-0.064411 -0.0848328 0.939838
-0.0659408 -0.0843251 0.937884
-0.0674663 -0.0838178 0.935969
-0.0690067 -0.0832909 0.934551
-0.0705745 -0.0827334 0.933872
-0.0721421 -0.0821749 0.933222
-0.0737019 -0.0816224 0.932465
-0.0753542 -0.080981 0.933656
-0.0769848 -0.0803619 0.934349
-0.0786182 -0.0797413 0.935043
-0.0802754 -0.0791006 0.936155
-0.0819174 -0.078475 0.936917
-0.0834471 -0.0779477 0.935654
-0.0850217 -0.0773803 0.935238
-0.0865878 -0.0768193 0.934695
-0.0881517 -0.0762594 0.934153
-0.0897687 -0.0756553 0.934476
-0.0914127 -0.0750299 0.935209
-0.0930618 -0.0744014 0.935991
-0.0947455 -0.0737468 0.93724
-0.0964103 -0.0731087 0.938158
-0.0980358 -0.0725016 0.938482
0.0036476 -0.11213 0.923541
0.00204562 -0.111558 0.922892
0.000450559 -0.110983 0.922428
-0.00115813 -0.11042 0.92136
-0.00275211 -0.109849 0.920769
-0.00433587 -0.109272 0.920548
-0.00591117 -0.108688 0.920706
-0.0074822 -0.1081 0.921107
-0.00905446 -0.107511 0.921508
-0.0106338 -0.106929 0.921539
-0.0122077 -0.106339 0.92195
-0.0137822 -0.105748 0.92241
-0.0153548 -0.105149 0.923171
-0.0169264 -0.104542 0.924282
-0.0185033 -0.103938 0.92516
-0.0200841 -0.103338 0.925872
-0.021668 -0.102743 0.926361
-0.0232534 -0.102146 0.92686
-0.0248401 -0.101545 0.927504
-0.0264287 -0.100935 0.928479
-0.0280206 -0.100321 0.929571
-0.0296176 -0.0996902 0.931218
-0.0312186 -0.0990647 0.932602
-0.0328247 -0.0984342 0.934103
-0.0344368 -0.0977971 0.935779
-0.036053 -0.0971613 0.937348
-0.0376641 -0.096551 0.938012
-0.0392789 -0.0959362 0.938803
-0.0566729 -0.0873985 0.94982
-0.0572986 -0.0889937 0.950696
-0.0588676 -0.0884622 0.948957
-0.0604398 -0.0879225 0.94749
-0.0619782 -0.0874171 0.945186
-0.0635054 -0.0869187 0.942785
-0.0650433 -0.0864035 0.94086
-0.0665679 -0.0858979 0.93876
-0.068088 -0.0853927 0.936709
-0.0696283 -0.0848635 0.935281
-0.0711858 -0.0843151 0.934349
-0.0727437 -0.0837646 0.933485
-0.0742913 -0.083222 0.932465
-0.075926 -0.0825992 0.933286
-0.0775485 -0.0819882 0.933823
-0.0791744 -0.0813753 0.934381
-0.0808204 -0.0807458 0.935289
-0.0824474 -0.0801337 0.935808
-0.0839652 -0.0796129 0.934379
-0.0855141 -0.0790646 0.933563
-0.0870642 -0.0785142 0.932806
-0.0886173 -0.0779604 0.932137
-0.0902271 -0.0773613 0.932403
-0.0918603 -0.0767443 0.933009
-0.0935053 -0.0761192 0.933771
-0.0951769 -0.0754749 0.934883
-0.09683 -0.0748456 0.935684
-0.0984497 -0.0742418 0.935989
0.0029856 -0.113754 0.920916
0.00139433 -0.113178 0.92049
-0.000192537 -0.112602 0.920181
-0.00178767 -0.112032 0.919493
-0.00337528 -0.11146 0.919029
-0.00495162 -0.11088 0.919021
-0.00652004 -0.110294 0.919403
-0.00808513 -0.109702 0.920027
-0.00965209 -0.10911 0.920652
-0.0112247 -0.108523 0.921034
-0.0127962 -0.107931 0.921581
-0.0143703 -0.10734 0.92205
-0.0159417 -0.106741 0.922918
-0.0175134 -0.106135 0.924039
-0.0190896 -0.10553 0.925043
-0.020669 -0.104926 0.925999
-0.0222527 -0.104326 0.926692
-0.0238385 -0.103727 0.927327
-0.025426 -0.103122 0.928175
-0.0270164 -0.10251 0.929287
-0.0286108 -0.101891 0.930622
-0.0302114 -0.101255 0.932541
-0.031816 -0.100627 0.934052
-0.0334242 -0.100002 0.935436
-0.0350374 -0.0993734 0.936849
-0.0366525 -0.0987499 0.938049
-0.0382621 -0.0981476 0.93846
-0.0398753 -0.0975398 0.939037
-0.0579257 -0.0905915 0.951572
-0.0594955 -0.090056 0.949852
-0.0610691 -0.0895126 0.948405
-0.0626063 -0.0890043 0.946072
-0.0641316 -0.0885033 0.943622
-0.0656663 -0.087988 0.94161
-0.0671814 -0.0874879 0.939267
-0.0686911 -0.0869886 0.936982
-0.0702202 -0.0864671 0.9353
-0.0717651 -0.0859281 0.934105
-0.0733087 -0.0853884 0.932959
-0.074842 -0.0848557 0.931677
-0.076448 -0.0842585 0.931932
-0.0780492 -0.0836656 0.932081
-0.0796586 -0.0830662 0.932385
-0.0812884 -0.0824503 0.93304
-0.0829002 -0.0818501 0.933344
-0.0844273 -0.0813172 0.932159
-0.0859782 -0.0807642 0.931441
-0.087533 -0.0802072 0.93082
-0.089092 -0.0796462 0.930307
-0.0907013 -0.079047 0.930601
-0.0923243 -0.0784377 0.9311
-0.0939499 -0.077827 0.931609
-0.0955928 -0.0772045 0.932351
-0.0972247 -0.0765906 0.932899
-0.0988309 -0.0759955 0.933067
0.00227595 -0.11539 0.91654
0.000712384 -0.114807 0.916863
-0.000856179 -0.114226 0.91703
-0.00243207 -0.113649 0.916916
-0.00400703 -0.113071 0.916821
-0.00557231 -0.112488 0.917173
-0.00713196 -0.111898 0.917866
-0.00868919 -0.111304 0.918812
-0.0102523 -0.110711 0.919582
-0.0118199 -0.11012 0.920197
-0.0133886 -0.109527 0.92089
-0.0149592 -0.108934 0.921583
-0.0165302 -0.108335 0.92247
-0.018101 -0.107729 0.923698
-0.0196763 -0.107124 0.924819
-0.0212555 -0.106519 0.925892
-0.0228389 -0.105918 0.926701
-0.0244249 -0.105318 0.927433
-0.026013 -0.104712 0.928399
-0.0276046 -0.104095 0.929744
-0.0292015 -0.103469 0.931449
-0.0308049 -0.102835 0.933407
-0.0324125 -0.102206 0.935054
-0.034023 -0.101582 0.936418
-0.0356363 -0.100962 0.937598
-0.0372506 -0.100346 0.938555
-0.0388621 -0.0997422 0.939034
-0.04048 -0.0991282 0.939854
-0.06321 -0.0906196 0.946247
-0.0647407 -0.0901083 0.943963
-0.066274 -0.0895902 0.941941
-0.0677886 -0.0890858 0.939607
-0.0692928 -0.0885869 0.937206
-0.0708094 -0.0880729 0.935271
-0.0723417 -0.0875425 0.933804
-0.0738712 -0.0870119 0.932385
-0.0753972 -0.0864823 0.930986
-0.0769735 -0.0859093 0.930677
-0.0785532 -0.0853333 0.930445
-0.0801317 -0.0847577 0.930214
-0.0817385 -0.0841598 0.930509
-0.0833243 -0.0835785 0.930414
-0.084861 -0.083034 0.929491
-0.0864062 -0.0824821 0.928763
-0.0879721 -0.0819142 0.928396
-0.0895416 -0.0813431 0.928116
-0.0911551 -0.0807401 0.928527
-0.0927679 -0.0801379 0.928919
-0.094388 -0.079531 0.929389
-0.0960023 -0.0789287 0.929761
-0.0976184 -0.0783254 0.930134
-0.0992197 -0.0777327 0.930292
-0.100839 -0.0751188 0.938689
-0.100835 -0.0771303 0.930645
0.0015844 -0.117007 0.912621
3.85557e-05 -0.116422 0.913382
-0.00151704 -0.11584 0.91385
-0.00307667 -0.115259 0.914203
-0.00463702 -0.114677 0.914574
-0.00619153 -0.11409 0.915286
-0.00774583 -0.1135 0.916125
-0.00929671 -0.112905 0.917314
-0.0108544 -0.112311 0.918308
-0.0124155 -0.111716 0.919273
-0.0139812 -0.111123 0.920102
-0.0155475 -0.110525 0.921126
-0.0171174 -0.109927 0.922101
-0.0186882 -0.109323 0.923338
-0.0202637 -0.10872 0.924469
-0.0218423 -0.108114 0.925648
-0.0234257 -0.107514 0.926478
-0.0250115 -0.106911 0.927424
-0.0266003 -0.106299 0.928739
-0.0281937 -0.105679 0.930318
-0.0297934 -0.10505 0.932286
-0.0313998 -0.104415 0.93437
-0.0330099 -0.103788 0.936027
-0.0346209 -0.103171 0.937158
-0.0362335 -0.102558 0.938104
-0.0378478 -0.101947 0.938924
-0.0394605 -0.101343 0.939423
-0.0411396 -0.100621 0.944408
-0.0637746 -0.0922724 0.945361
-0.0653158 -0.0917457 0.943427
-0.0668587 -0.0912144 0.941678
-0.0683768 -0.0907018 0.939481
-0.0698735 -0.0902041 0.936952
-0.0713735 -0.0896998 0.934667
-0.0728838 -0.0891839 0.932762
-0.074399 -0.0886611 0.9311
-0.075922 -0.0881301 0.929691
-0.0774734 -0.087575 0.928944
-0.079038 -0.0870089 0.928479
-0.0806088 -0.0864375 0.92817
-0.0821972 -0.0858526 0.928191
-0.0837726 -0.0852772 0.92798
-0.0853271 -0.0847166 0.927427
-0.0868918 -0.0841482 0.927079
-0.0884702 -0.0835698 0.926964
-0.0900516 -0.082989 0.926918
-0.0916549 -0.0823933 0.927193
-0.0932574 -0.081798 0.927458
-0.0948591 -0.0812038 0.927694
-0.0964537 -0.0806145 0.927814
-0.0980572 -0.0800193 0.928059
-0.0996628 -0.0794228 0.928325
-0.101287 -0.078815 0.928824
-0.102864 -0.0762517 0.936452
-0.102912 -0.0782065 0.929313
0.0157233 -0.12219 0.913555
0.0173018 -0.122766 0.913786
0.0167075 -0.124339 0.913436
0.0151191 -0.123764 0.912952
0.0135231 -0.12319 0.912244
0.00771028 -0.119345 0.908596
0.00869565 -0.121483 0.908624
0.00709797 -0.120916 0.907527
0.00552661 -0.120345 0.90713
0.00244712 -0.119189 0.90835
0.000918255 -0.118605 0.909451
-0.000622314 -0.118023 0.91024
-0.00217098 -0.117443 0.910797
-0.00371565 -0.116859 0.911596
-0.005264 -0.116275 0.912347
-0.00681 -0.115687 0.913332
-0.00835561 -0.115096 0.914501
-0.00990089 -0.1145 0.915913
-0.0114551 -0.113907 0.917024
-0.0130113 -0.113311 0.918242
-0.0145734 -0.112716 0.919285
-0.0161365 -0.112117 0.920542
-0.0177051 -0.111519 0.921634
-0.0192758 -0.110918 0.922871
-0.0208507 -0.110315 0.92408
-0.0224295 -0.109711 0.925269
-0.0240126 -0.109112 0.926127
-0.0255983 -0.108508 0.9272
-0.0271877 -0.107893 0.928769
-0.0287824 -0.107274 0.930483
-0.0303843 -0.106642 0.932694
-0.0319933 -0.106008 0.934896
-0.0336057 -0.105381 0.93664
-0.0352182 -0.104767 0.937751
-0.0368311 -0.104157 0.938571
-0.0384452 -0.10355 0.939265
-0.040103 -0.102868 0.943062
-0.0418514 -0.102052 0.952056
-0.0658731 -0.0933963 0.942434
-0.0674321 -0.092847 0.941162
-0.0689558 -0.0923249 0.93914
-0.0704491 -0.0918242 0.936583
-0.0719368 -0.0913249 0.934064
-0.0734392 -0.0908106 0.932042
-0.0749476 -0.0902892 0.930282
-0.0764743 -0.089752 0.92899
-0.0780027 -0.089212 0.927824
-0.0795519 -0.0886554 0.927116
-0.0811003 -0.0880987 0.926427
-0.0826598 -0.0875332 0.925981
-0.0842235 -0.0869644 0.925643
-0.0857935 -0.0863909 0.925421
-0.0873633 -0.0858173 0.925209
-0.0889465 -0.0852344 0.925222
-0.0905449 -0.0846414 0.925467
-0.0921449 -0.0840475 0.925742
-0.093746 -0.0834531 0.926008
-0.0953446 -0.0828606 0.926224
-0.0969359 -0.082273 0.926343
-0.098537 -0.0816792 0.926579
-0.10015 -0.0810781 0.926971
-0.101791 -0.0804602 0.927714
-0.103433 -0.0798416 0.928466
0.0179904 -0.126482 0.920006
0.0160994 -0.125912 0.912755
0.0145044 -0.125337 0.912077
0.0129046 -0.124763 0.911233
0.0119191 -0.122619 0.911274
0.0112999 -0.12419 0.910185
0.0103082 -0.12205 0.910031
0.00969328 -0.12362 0.908991
0.0080848 -0.123051 0.907632
0.00649273 -0.122482 0.906632
0.00492198 -0.121912 0.906197
0.00398375 -0.119768 0.907609
0.00336583 -0.121339 0.906199
0.00181615 -0.120765 0.906424
0.000278709 -0.120187 0.907126
-0.00126528 -0.11961 0.907654
-0.0028115 -0.119032 0.908152
-0.00435186 -0.118451 0.90898
-0.00589176 -0.117867 0.909955
-0.00743019 -0.11728 0.911163
-0.00896725 -0.116689 0.912663
-0.0105051 -0.116093 0.914406
-0.0120528 -0.115498 0.915847
-0.013605 -0.114902 0.917289
-0.0151635 -0.114306 0.918565
-0.0167248 -0.113708 0.919958
-0.0182931 -0.113111 0.92105
-0.0198637 -0.112512 0.922288
-0.0214384 -0.111912 0.923487
-0.0230168 -0.111311 0.924666
-0.0245994 -0.110711 0.925631
-0.0261849 -0.110107 0.92685
-0.0277749 -0.10949 0.928662
-0.0293711 -0.108869 0.930639
-0.0309762 -0.108234 0.933181
-0.0325878 -0.107601 0.935499
-0.0342031 -0.106975 0.93734
-0.0358173 -0.106361 0.938442
-0.0374316 -0.105753 0.939243
-0.0390824 -0.105085 0.942777
-0.040797 -0.104328 0.950048
-0.0648671 -0.0955972 0.942685
-0.0664343 -0.0950397 0.941568
-0.0679873 -0.0944918 0.940208
-0.0695102 -0.0939655 0.938225
-0.0710047 -0.0934583 0.935755
-0.0724886 -0.092956 0.933227
-0.0739879 -0.0924394 0.931195
-0.0755 -0.0919112 0.929552
-0.0770301 -0.0913687 0.928367
-0.0785576 -0.0908265 0.927211
-0.0800996 -0.0902731 0.926395
-0.0816331 -0.0897248 0.925473
-0.0831766 -0.0891687 0.924784
-0.0847311 -0.0886047 0.924309
-0.0862921 -0.088036 0.92398
-0.08786 -0.0874626 0.923778
-0.0894413 -0.0868802 0.9238
-0.0910373 -0.0862885 0.924046
-0.0926282 -0.0857003 0.924204
-0.0942196 -0.085112 0.924362
-0.0958171 -0.0845198 0.924608
-0.0974147 -0.0839278 0.924844
-0.0990227 -0.0833297 0.925206
-0.100651 -0.0827197 0.925832
-0.1023 -0.0820979 0.926701
-0.103951 -0.081475 0.92758
-0.105521 -0.0789509 0.934847
-0.105605 -0.0808515 0.928439
0.0170601 -0.128059 0.912121
0.0154691 -0.127482 0.91153
0.0138713 -0.126907 0.910735
0.0122763 -0.126332 0.90994
0.0106759 -0.125759 0.908931
0.00907836 -0.125186 0.907912
0.00747592 -0.124616 0.906659
0.00588793 -0.124046 0.905718
0.00431756 -0.123476 0.905244
0.00275472 -0.122905 0.904973
0.00120256 -0.122332 0.905043
-0.00034243 -0.121758 0.905386
-0.00189123 -0.121185 0.905621
-0.00344008 -0.120611 0.905886
-0.00497524 -0.120031 0.906811
-0.00650989 -0.11945 0.907903
-0.00804574 -0.118866 0.909111
-0.0095769 -0.118276 0.910815
-0.0111081 -0.11768 0.912859
-0.0126506 -0.117086 0.914563
-0.0141985 -0.11649 0.916248
-0.0157525 -0.115893 0.917865
-0.0173128 -0.115296 0.919346
-0.0188812 -0.114703 0.92036
-0.0204521 -0.114108 0.92149
-0.0220262 -0.11351 0.922679
-0.0236042 -0.112911 0.923839
-0.0251859 -0.112312 0.924911
-0.026771 -0.111705 0.92647
-0.0283624 -0.111084 0.92872
-0.0299612 -0.11046 0.931057
-0.0315696 -0.109824 0.933862
-0.0331847 -0.109192 0.936316
-0.0348024 -0.108568 0.938167
-0.0364175 -0.107958 0.939162
-0.0380323 -0.107353 0.939865
-0.0397243 -0.10663 0.946319
-0.0669808 -0.0966906 0.940371
-0.0685352 -0.0961381 0.939108
-0.0700654 -0.0956019 0.937368
-0.0715579 -0.0950907 0.934908
-0.0730385 -0.0945851 0.93237
-0.0745407 -0.094062 0.930445
-0.0760561 -0.0935279 0.928919
-0.0775861 -0.0929827 0.927763
-0.0791181 -0.092435 0.926724
-0.0806518 -0.0918851 0.925782
-0.0821771 -0.0913399 0.924743
-0.0837057 -0.0907917 0.92381
-0.085251 -0.0902322 0.923219
-0.0868036 -0.0896675 0.922783
-0.0883633 -0.0890981 0.922473
-0.0899355 -0.0885209 0.922388
-0.0915284 -0.0879311 0.922614
-0.0931171 -0.0873439 0.922782
-0.094708 -0.0867556 0.922969
-0.0963126 -0.0861592 0.923342
-0.0979173 -0.085563 0.923695
-0.0995323 -0.0849611 0.924184
-0.101176 -0.0843431 0.925033
-0.102834 -0.0837173 0.926029
-0.104504 -0.0830856 0.927141
-0.106185 -0.0824482 0.928351
-0.10726 -0.0802276 0.929289
-0.107868 -0.0818103 0.929542
-0.109436 -0.0793032 0.93644
-0.109588 -0.0811527 0.931132
0.0183576 -0.130225 0.918983
0.016435 -0.129626 0.911032
0.0148368 -0.129049 0.910227
0.0132282 -0.128472 0.909092
0.0116317 -0.127897 0.90818
0.0100309 -0.127323 0.907074
0.00844123 -0.12675 0.906181
0.00685062 -0.126179 0.905172
0.00527315 -0.125608 0.904464
0.00370573 -0.125037 0.904009
0.00214772 -0.124466 0.903826
0.000596613 -0.123894 0.903876
-0.000949521 -0.123322 0.904112
-0.0024966 -0.122749 0.904337
-0.00404136 -0.122176 0.904699
-0.00557991 -0.1216 0.905401
-0.0071156 -0.121022 0.906356
-0.00865392 -0.120442 0.907331
-0.0101832 -0.119856 0.909045
-0.0117123 -0.119265 0.911118
-0.0132494 -0.118672 0.913085
-0.0147932 -0.118077 0.915013
-0.0163428 -0.11748 0.91696
-0.0179024 -0.116886 0.918451
-0.0194694 -0.116294 0.919552
-0.0210397 -0.115701 0.920654
-0.0226133 -0.115106 0.921843
-0.0241903 -0.114508 0.923119
-0.0257713 -0.113908 0.924415
-0.0273567 -0.1133 0.926208
-0.0289503 -0.112676 0.928924
-0.0305518 -0.112051 0.931524
-0.032163 -0.111419 0.934377
-0.0337803 -0.11079 0.936841
-0.0354 -0.110169 0.938692
-0.0370153 -0.109562 0.93959
-0.0386652 -0.108906 0.943105
-0.067518 -0.0983432 0.938979
-0.0690766 -0.0977847 0.937872
-0.070608 -0.0972434 0.936239
-0.0721037 -0.0967245 0.933925
-0.0735875 -0.0962114 0.931513
-0.0750933 -0.0956816 0.929725
-0.0766132 -0.0951415 0.928316
-0.0781428 -0.0945939 0.927189
-0.0796795 -0.0940409 0.926266
-0.0812115 -0.0934901 0.925315
-0.0827344 -0.0929441 0.924256
-0.0842542 -0.0923991 0.923197
-0.0857986 -0.0918387 0.922615
-0.0873498 -0.0912739 0.922169
-0.0889016 -0.0907083 0.921763
-0.0904646 -0.0901359 0.921551
-0.092041 -0.0895557 0.921553
-0.0936197 -0.0889742 0.921584
-0.0952079 -0.0883872 0.921752
-0.0968196 -0.0877872 0.922251
-0.0984323 -0.0871869 0.92274
-0.100055 -0.0865811 0.923356
-0.101706 -0.0859606 0.924313
-0.103372 -0.0853323 0.925415
-0.105051 -0.0846972 0.926655
-0.106741 -0.0840568 0.927991
-0.108446 -0.0834098 0.929425
-0.110183 -0.0827461 0.93121
0.0193522 -0.132386 0.918971
0.0174249 -0.13177 0.911098
0.0158068 -0.131189 0.909846
0.0142062 -0.130611 0.908925
0.0125959 -0.130033 0.907682
0.0109986 -0.129457 0.906673
0.00940477 -0.128882 0.905673
0.00782196 -0.128309 0.904898
0.00623512 -0.127736 0.903917
0.00466794 -0.127165 0.903462
0.00310628 -0.126594 0.903143
0.0015526 -0.126023 0.903058
2.56234e-06 -0.125452 0.903098
-0.00154267 -0.124881 0.903324
-0.00309122 -0.124309 0.903443
-0.00463517 -0.123737 0.903785
-0.00617728 -0.123164 0.904263
-0.00771623 -0.122589 0.904985
-0.00925704 -0.122012 0.905726
-0.0107837 -0.121429 0.907498
-0.0123098 -0.120841 0.909698
-0.0138426 -0.120251 0.911918
-0.0153827 -0.119658 0.914108
-0.0169291 -0.119062 0.916367
-0.0184895 -0.118471 0.917741
-0.0200567 -0.117883 0.918716
-0.0216265 -0.117292 0.919797
-0.0231994 -0.116699 0.920977
-0.0247756 -0.116102 0.92239
-0.0263562 -0.115502 0.923948
-0.0279424 -0.114894 0.925984
-0.0295376 -0.114272 0.928866
-0.0311407 -0.113651 0.931505
-0.0327535 -0.113023 0.934358
-0.0343721 -0.112399 0.936792
-0.0359925 -0.11178 0.938624
-0.0376082 -0.111175 0.939512
-0.0392992 -0.110474 0.946141
-0.0680275 -0.100009 0.936954
-0.0695895 -0.0994447 0.936022
-0.071135 -0.0988905 0.934779
-0.0726441 -0.0983581 0.932835
-0.0741365 -0.0978343 0.930686
-0.0756516 -0.0972952 0.929121
-0.0771819 -0.0967457 0.927965
-0.0787112 -0.0961959 0.926858
-0.0802533 -0.0956378 0.926052
-0.0817843 -0.0950856 0.925091
-0.0832999 -0.0945417 0.923925
-0.0848124 -0.0939988 0.922759
-0.0863553 -0.0934379 0.922167
-0.0878926 -0.0928797 0.921517
-0.0894353 -0.0923182 0.920984
-0.0909883 -0.0917507 0.920636
-0.0925533 -0.0911764 0.920492
-0.0941216 -0.0906002 0.920397
-0.0957151 -0.0900104 0.920671
-0.0973335 -0.0894074 0.921287
-0.0989537 -0.0888038 0.921893
-0.100583 -0.0881955 0.922606
-0.102249 -0.0875684 0.923767
-0.103924 -0.0869373 0.924997
-0.105606 -0.0863034 0.926255
-0.107296 -0.0856654 0.927592
-0.109008 -0.0850171 0.929123
-0.110728 -0.0843651 0.930703
0.0200326 -0.134499 0.91229
0.0184228 -0.133916 0.911329
0.0168026 -0.133332 0.910077
0.0151777 -0.132748 0.908611
0.0135707 -0.132168 0.907466
0.0119636 -0.131589 0.906233
0.0103729 -0.131013 0.905321
0.00878578 -0.130438 0.904429
0.00720965 -0.129864 0.90377
0.00563259 -0.129291 0.903023
0.00407101 -0.12872 0.902694
0.0025112 -0.128148 0.902385
0.000956309 -0.127578 0.902212
-0.000592596 -0.127007 0.902243
-0.0021391 -0.126437 0.902371
-0.00368618 -0.125866 0.90249
-0.00523089 -0.125295 0.902735
-0.00677411 -0.124723 0.903087
-0.00831407 -0.12415 0.903672
-0.00985591 -0.123577 0.904257
-0.0113845 -0.122999 0.905815
-0.0129079 -0.122415 0.908113
-0.014437 -0.121827 0.910537
-0.0159738 -0.121237 0.912951
-0.0175175 -0.120644 0.915453
-0.0190764 -0.120055 0.916943
-0.0206432 -0.119469 0.917889
-0.0222124 -0.11888 0.918941
-0.0237843 -0.118289 0.920238
-0.0253598 -0.117693 0.921796
-0.0269407 -0.117092 0.923725
-0.0285285 -0.116483 0.92613
-0.0301265 -0.115863 0.929255
-0.0317317 -0.115246 0.931874
-0.0333465 -0.114623 0.934689
-0.0349657 -0.114004 0.936977
-0.036586 -0.113391 0.938653
-0.0382009 -0.112788 0.939434
-0.0399318 -0.112057 0.948787
-0.0687085 -0.101562 0.939076
-0.0701083 -0.101094 0.934339
-0.0716657 -0.10053 0.933446
-0.0731839 -0.0999877 0.931774
-0.0746914 -0.0994508 0.929985
-0.0762211 -0.0988999 0.928771
-0.0777566 -0.0983451 0.927731
-0.0792852 -0.0977935 0.926634
-0.0808323 -0.097231 0.925935
-0.0823571 -0.0966803 0.924886
-0.0838719 -0.0961344 0.923711
-0.08539 -0.0955862 0.922661
-0.086932 -0.0950246 0.92206
-0.0884621 -0.094469 0.921303
-0.0900026 -0.0939075 0.92075
-0.0915465 -0.093344 0.920275
-0.0930953 -0.0927777 0.919898
-0.0946538 -0.0922062 0.919676
-0.0962456 -0.0916176 0.919941
-0.0978637 -0.0910157 0.920557
-0.0994849 -0.0904125 0.921192
-0.101122 -0.0898015 0.922012
-0.102797 -0.0891722 0.92329
-0.104471 -0.0885434 0.924519
-0.106153 -0.0879118 0.925778
-0.107844 -0.0872758 0.927115
-0.109553 -0.0866314 0.928617
-0.111253 -0.0859921 0.929963
0.0216307 -0.13508 0.912929
0.0226062 -0.137226 0.912655
0.0210229 -0.136646 0.912327
0.0194289 -0.136064 0.911736
0.0178146 -0.135478 0.910649
0.0161905 -0.134892 0.909261
0.0145636 -0.134306 0.907697
0.0129538 -0.133724 0.906426
0.0113496 -0.133143 0.905203
0.00976523 -0.132567 0.904407
0.00818097 -0.131991 0.903544
0.00661027 -0.131417 0.902992
0.00503804 -0.130843 0.902342
0.00347763 -0.130272 0.902004
0.00191901 -0.129701 0.901694
0.000368067 -0.12913 0.901619
-0.00117972 -0.12856 0.901659
-0.00272537 -0.12799 0.901788
-0.00427138 -0.12742 0.901916
-0.00581741 -0.126849 0.902063
-0.00736185 -0.126279 0.902309
-0.00890317 -0.125708 0.902768
-0.0104458 -0.125136 0.903236
-0.011977 -0.124561 0.904571
-0.0135001 -0.123982 0.906839
-0.0150286 -0.123399 0.909262
-0.0165637 -0.122813 0.911784
-0.0181059 -0.122223 0.914412
-0.0196624 -0.121636 0.916136
-0.0212284 -0.121052 0.917101
-0.0227966 -0.120465 0.918251
-0.024368 -0.119875 0.919634
-0.0259435 -0.119281 0.921329
-0.0275249 -0.118681 0.92352
-0.0291147 -0.118072 0.926276
-0.0307157 -0.117456 0.929615
-0.0323229 -0.116842 0.932215
-0.0339386 -0.116226 0.934864
-0.035557 -0.115613 0.93688
-0.037204 -0.114973 0.940998
-0.0388539 -0.114338 0.944289
-0.0694222 -0.103104 0.941928
-0.0706557 -0.102721 0.933365
-0.0722153 -0.102153 0.932569
-0.0737329 -0.101608 0.930927
-0.0752506 -0.101062 0.929401
-0.0767908 -0.100503 0.92842
-0.0783258 -0.0999466 0.9274
-0.0798586 -0.0993906 0.9264
-0.0814104 -0.0988242 0.925799
-0.0829404 -0.0982688 0.924857
-0.0844676 -0.0977143 0.923915
-0.0859925 -0.0971606 0.922992
-0.0875356 -0.0965974 0.922401
-0.0890643 -0.0960411 0.921624
-0.0905904 -0.0954858 0.920838
-0.0921189 -0.0949289 0.920129
-0.0936674 -0.094362 0.919752
-0.0952261 -0.0937899 0.91954
-0.0968189 -0.0932012 0.919814
-0.0984374 -0.0926003 0.92044
-0.100058 -0.0919983 0.921075
-0.101697 -0.0913883 0.921905
-0.103372 -0.0907609 0.923183
-0.105049 -0.0901333 0.924432
-0.10674 -0.0894994 0.925807
-0.108429 -0.0888666 0.927115
-0.11013 -0.0882292 0.9285
-0.111817 -0.0875981 0.92969
-0.11298 -0.0853401 0.931563
-0.113524 -0.0869585 0.931056
0.0220072 -0.138792 0.912237
0.0204195 -0.13821 0.911792
0.0188222 -0.137626 0.911104
0.0172063 -0.137039 0.909949
0.0155797 -0.13645 0.908454
0.0139542 -0.135861 0.906871
0.012347 -0.135278 0.905619
0.0107487 -0.134697 0.904493
0.00916672 -0.134119 0.903717
0.00758842 -0.133543 0.90298
0.00601898 -0.132969 0.902428
0.00444795 -0.132394 0.901778
0.00288789 -0.131822 0.901411
0.00133025 -0.131251 0.901092
-0.000222718 -0.13068 0.900909
-0.00177213 -0.13011 0.900842
-0.00331689 -0.129541 0.900961
-0.00486154 -0.128971 0.901089
-0.00640625 -0.128402 0.901237
-0.00794917 -0.127832 0.901501
-0.00948811 -0.127262 0.902038
-0.011028 -0.126691 0.902624
-0.0125604 -0.126119 0.903861
-0.0140851 -0.125544 0.906022
-0.0156142 -0.124965 0.908397
-0.0171494 -0.124384 0.910918
-0.0186922 -0.123799 0.913478
-0.0202475 -0.123215 0.915328
-0.0218117 -0.122631 0.916517
-0.0233791 -0.122045 0.917891
-0.0249504 -0.121457 0.919411
-0.0265266 -0.120864 0.921426
-0.02811 -0.120264 0.923948
-0.0297025 -0.119659 0.92685
-0.0313064 -0.119047 0.930189
-0.0329152 -0.118439 0.932653
-0.0345304 -0.117829 0.934961
-0.0361469 -0.117223 0.936647
-0.0377955 -0.11659 0.940726
-0.0394785 -0.115933 0.946488
-0.0699605 -0.104749 0.940614
-0.0712065 -0.104342 0.932489
-0.0727655 -0.103773 0.931723
-0.0742919 -0.103221 0.930314
-0.0758195 -0.102667 0.929021
-0.07736 -0.102105 0.92807
-0.0788939 -0.101547 0.92706
-0.0804309 -0.100987 0.926147
-0.081981 -0.100421 0.925546
-0.0835235 -0.0998573 0.924828
-0.0850714 -0.0992911 0.924246
-0.0866115 -0.0987285 0.923576
-0.088156 -0.0981636 0.923004
-0.0896836 -0.0976064 0.922199
-0.0912014 -0.0970535 0.921276
-0.0927225 -0.0964988 0.92046
-0.0942659 -0.0959335 0.919995
-0.0958261 -0.0953604 0.919802
-0.0974266 -0.0947687 0.920184
-0.0990466 -0.0941682 0.92081
-0.100668 -0.0935671 0.921435
-0.102316 -0.0929545 0.922382
-0.103993 -0.0923285 0.92367
-0.105663 -0.0917064 0.924811
-0.107354 -0.0910748 0.926167
-0.109037 -0.0904476 0.927377
-0.11072 -0.0898204 0.928548
-0.112397 -0.089196 0.929612
-0.114093 -0.0885637 0.930842
0.0229936 -0.140938 0.912196
0.0214078 -0.140356 0.911799
0.0198089 -0.13977 0.911092
0.0182081 -0.139185 0.910297
0.0165888 -0.138594 0.909016
0.0149613 -0.138002 0.907443
0.0133424 -0.137413 0.905957
0.0117416 -0.136829 0.904812
0.0101534 -0.136249 0.90391
0.00857387 -0.135671 0.903163
0.00700059 -0.135094 0.902533
0.00542877 -0.134519 0.901883
0.00385503 -0.133943 0.901098
0.00229034 -0.133369 0.900535
0.000731127 -0.132797 0.9001
-0.000822905 -0.132226 0.89981
-0.00237097 -0.131657 0.899724
-0.00391195 -0.131088 0.89993
-0.00545283 -0.13052 0.900165
-0.00699593 -0.129951 0.900323
-0.00853574 -0.129382 0.900684
-0.0100716 -0.128814 0.901348
-0.0116105 -0.128245 0.901943
-0.0131436 -0.127675 0.903102
-0.0146672 -0.127103 0.90536
-0.0161968 -0.126529 0.907716
-0.0177326 -0.125952 0.910218
-0.0192753 -0.125372 0.912856
-0.0208294 -0.12479 0.914939
-0.0223931 -0.124208 0.916274
-0.0239601 -0.123623 0.917891
-0.0255321 -0.123036 0.919634
-0.02711 -0.122445 0.921777
-0.0286957 -0.121849 0.924425
-0.0302912 -0.121248 0.927433
-0.0318975 -0.120641 0.930685
-0.0335068 -0.120038 0.932954
-0.0351228 -0.119433 0.935136
-0.0367391 -0.118831 0.936686
-0.0383894 -0.118204 0.940687
-0.040112 -0.117531 0.949164
-0.0705059 -0.106385 0.939495
-0.0717735 -0.105953 0.932002
-0.0733272 -0.105385 0.931139
-0.0748565 -0.104828 0.929827
-0.0763877 -0.10427 0.928651
-0.077934 -0.103704 0.927826
-0.0794672 -0.103144 0.926816
-0.0810086 -0.102581 0.926011
-0.082558 -0.102013 0.9254
-0.0841016 -0.101448 0.924721
-0.0856647 -0.100874 0.924402
-0.0872213 -0.100303 0.923995
-0.0887744 -0.0997328 0.923559
-0.0903077 -0.0991716 0.922841
-0.0918309 -0.0986147 0.921996
-0.0933458 -0.0980613 0.921064
-0.0948897 -0.0974949 0.920608
-0.0964594 -0.0969173 0.920533
-0.0980616 -0.0963256 0.920924
-0.0996824 -0.095726 0.92154
-0.101305 -0.0951257 0.922156
-0.102962 -0.0945108 0.9232
-0.104634 -0.0938896 0.92439
-0.106304 -0.0932696 0.925522
-0.107997 -0.0926399 0.926869
-0.109681 -0.0920142 0.928079
-0.111358 -0.0913918 0.929152
-0.11303 -0.0907717 0.930129
-0.114734 -0.0901379 0.931436
0.0225623 -0.142553 0.915161
0.020815 -0.14192 0.911488
0.0192031 -0.14133 0.910479
0.0175993 -0.140742 0.909587
0.0159774 -0.140148 0.908199
0.0143516 -0.139554 0.906616
0.0127322 -0.138962 0.905063
0.0111375 -0.138378 0.904024
0.0095559 -0.137798 0.903249
0.0079819 -0.13722 0.902618
0.00641022 -0.136643 0.901998
0.00483919 -0.136067 0.901329
0.00326602 -0.13549 0.900524
0.0016963 -0.134914 0.899738
0.000136015 -0.134341 0.899215
-0.00141914 -0.133769 0.898818
-0.00296592 -0.1332 0.898713
-0.00450559 -0.132633 0.898909
-0.00604276 -0.132066 0.899251
-0.00758173 -0.131498 0.899554
-0.0091186 -0.130931 0.900023
-0.0106505 -0.130364 0.900891
-0.0121859 -0.129797 0.901699
-0.0137202 -0.129229 0.902791
-0.0152445 -0.128661 0.905059
-0.0167753 -0.128091 0.907385
-0.018313 -0.127518 0.90976
-0.0198579 -0.126942 0.912194
-0.021411 -0.126364 0.914492
-0.0229744 -0.125784 0.915933
-0.0245415 -0.125202 0.917696
-0.0261143 -0.124617 0.919576
-0.0276935 -0.124029 0.921942
-0.0292813 -0.123436 0.924717
-0.0308796 -0.122839 0.927861
-0.0324892 -0.122237 0.93123
-0.0341017 -0.121636 0.933586
-0.0357176 -0.121036 0.935525
-0.0373327 -0.120437 0.936822
-0.0389835 -0.119818 0.940677
-0.0698227 -0.108444 0.94724
-0.0710767 -0.108006 0.938988
-0.0723752 -0.107547 0.932275
-0.0739146 -0.106983 0.931119
-0.0754324 -0.106429 0.929593
-0.0769626 -0.105869 0.928408
-0.0785136 -0.1053 0.9277
-0.0800409 -0.104741 0.926592
-0.0815867 -0.104173 0.925884
-0.0831361 -0.103605 0.925273
-0.0846862 -0.103035 0.924711
-0.086264 -0.102455 0.924655
-0.0878371 -0.101876 0.924511
-0.0893985 -0.101302 0.924202
-0.0909471 -0.100733 0.923698
-0.0924771 -0.100172 0.92295
-0.0939932 -0.0996161 0.922028
-0.0955465 -0.0990451 0.921689
-0.0971241 -0.0984642 0.921701
-0.098728 -0.0978725 0.922083
-0.100351 -0.097273 0.922699
-0.101977 -0.0966725 0.923334
-0.103629 -0.0960617 0.924281
-0.105293 -0.0954457 0.925345
-0.106956 -0.0948306 0.92635
-0.10864 -0.0942071 0.92758
-0.110327 -0.0935826 0.92878
-0.112007 -0.0929609 0.929873
-0.113689 -0.0923382 0.930966
-0.115427 -0.0916937 0.932615
0.0219777 -0.144126 0.915064
0.020226 -0.143485 0.911245
0.0186013 -0.142888 0.909945
0.0169872 -0.142295 0.90878
0.0153667 -0.1417 0.907382
0.0137393 -0.141102 0.905702
0.0121266 -0.14051 0.904256
0.0105389 -0.139926 0.903354
0.00896296 -0.139347 0.902694
0.00739057 -0.138768 0.902074
0.00582319 -0.138192 0.901541
0.00424652 -0.137612 0.900658
0.00267168 -0.137033 0.899746
0.00110003 -0.136455 0.898834
-0.000461634 -0.135881 0.898188
-0.00201516 -0.135309 0.897785
-0.00355754 -0.134741 0.897794
-0.00509074 -0.134176 0.898223
-0.00662421 -0.133611 0.898706
-0.00815856 -0.133045 0.899214
-0.00969469 -0.132479 0.899712
-0.011225 -0.131915 0.900676
-0.012759 -0.131349 0.901602
-0.0142924 -0.130783 0.9028
-0.015818 -0.130219 0.905068
-0.0173502 -0.129652 0.907395
-0.0188895 -0.129083 0.909751
-0.0204369 -0.128511 0.91198
-0.0219912 -0.127936 0.914258
-0.0235546 -0.127359 0.915827
-0.0251225 -0.126779 0.917696
-0.0266964 -0.126198 0.919702
-0.0282779 -0.125612 0.922409
-0.029869 -0.125023 0.925417
-0.0314707 -0.12443 0.928698
-0.0330843 -0.123832 0.932183
-0.0346996 -0.123235 0.934521
-0.0363158 -0.122638 0.936216
-0.0379291 -0.122043 0.937211
-0.0395801 -0.121431 0.940852
-0.0702187 -0.110147 0.942548
-0.0715813 -0.109651 0.937003
-0.0730046 -0.109131 0.933151
-0.0745247 -0.108573 0.931567
-0.0760305 -0.10802 0.929807
-0.0775495 -0.107462 0.928408
-0.0791003 -0.106892 0.9277
-0.0806327 -0.106329 0.9267
-0.0821852 -0.105758 0.926118
-0.0837406 -0.105185 0.925614
-0.0852972 -0.104613 0.925159
-0.0868815 -0.104029 0.9252
-0.0884551 -0.10345 0.925056
-0.0900188 -0.102874 0.924767
-0.0915764 -0.102301 0.924389
-0.093117 -0.101735 0.923788
-0.0946427 -0.101174 0.923001
-0.0962043 -0.100599 0.92276
-0.0977907 -0.100014 0.92287
-0.0993971 -0.0994226 0.923252
-0.101024 -0.0988229 0.923897
-0.102652 -0.0982228 0.924532
-0.104306 -0.0976127 0.925469
-0.105963 -0.0970012 0.926416
-0.107619 -0.0963906 0.927304
-0.109295 -0.0957723 0.928407
-0.110983 -0.0951497 0.929607
-0.112655 -0.0945327 0.930594
-0.114361 -0.0939033 0.931901
-0.116143 -0.0932447 0.934046
0.0214026 -0.145703 0.915161
0.0196429 -0.145051 0.911129
0.0180044 -0.144447 0.909498
0.0163816 -0.143848 0.9081
0.0147577 -0.143249 0.906575
0.0131323 -0.142649 0.904886
0.0115259 -0.142056 0.903556
0.00994445 -0.141473 0.90277
0.00837361 -0.140895 0.902218
0.00680242 -0.140315 0.901597
0.00523946 -0.13974 0.901172
0.00365782 -0.139156 0.900094
0.00208114 -0.138575 0.899065
0.000512942 -0.137997 0.898221
-0.00105029 -0.13742 0.897464
-0.00260457 -0.136848 0.896969
-0.00414292 -0.136281 0.897101
-0.00567043 -0.135719 0.897755
-0.00720276 -0.135155 0.898271
-0.00873257 -0.134593 0.89901
-0.0102653 -0.134029 0.899712
-0.0117946 -0.133466 0.900783
-0.0133278 -0.132902 0.901816
-0.0148622 -0.132338 0.903014
-0.0163894 -0.131778 0.905292
-0.0179242 -0.131214 0.907512
-0.0194651 -0.130648 0.909858
-0.0210151 -0.130079 0.911873
-0.0225706 -0.129508 0.914142
-0.0241345 -0.128933 0.915788
-0.0257033 -0.128357 0.917891
-0.0272788 -0.127779 0.92013
-0.0288638 -0.127197 0.923284
-0.0304594 -0.126612 0.926653
-0.0320666 -0.126023 0.930186
-0.033684 -0.12543 0.933584
-0.0353026 -0.124836 0.935921
-0.0369194 -0.124241 0.937374
-0.0385383 -0.123646 0.938612
-0.0401574 -0.123051 0.939597
-0.0694517 -0.112269 0.948453
-0.0706618 -0.111817 0.939073
-0.0721209 -0.111277 0.935854
-0.0736519 -0.110712 0.934377
-0.07516 -0.110155 0.93253
-0.0766585 -0.109602 0.930615
-0.0781656 -0.109046 0.928973
-0.0797 -0.10848 0.927953
-0.0812379 -0.107913 0.92705
-0.0827908 -0.10734 0.926478
-0.0843479 -0.106767 0.925994
-0.0859109 -0.106191 0.925645
-0.0874947 -0.105607 0.925658
-0.0890734 -0.105026 0.925592
-0.0906447 -0.104447 0.925399
-0.0922114 -0.10387 0.925168
-0.0937702 -0.103296 0.92482
-0.0953139 -0.102727 0.924267
-0.0968721 -0.102153 0.923948
-0.0984603 -0.101568 0.924067
-0.100068 -0.100976 0.92444
-0.101697 -0.100377 0.925075
-0.103329 -0.0997762 0.925739
-0.104994 -0.099164 0.926784
-0.106645 -0.0985565 0.927623
-0.108292 -0.0979506 0.928376
-0.109942 -0.0973434 0.929138
