ply
format ascii 1.0
element vertex 1602
property float x
property float y
property float z
end_header
0.00653402 -0.0301191 0.483922
0.00630117 -0.0309312 0.483922
0.00606289 -0.0317495 0.484231
0.0058215 -0.0325712 0.484665
0.00558001 -0.0333934 0.485061
0.00533673 -0.0342194 0.485556
0.00509211 -0.0350479 0.486084
0.00484685 -0.0358782 0.486619
0.00459802 -0.0367139 0.487284
0.00434351 -0.0375583 0.488165
0.00408299 -0.0384128 0.489272
0.00381612 -0.0392782 0.490599
0.00354336 -0.0401543 0.492112
0.00327194 -0.0410325 0.49354
0.0029919 -0.041925 0.495229
0.00271165 -0.0428211 0.49687
0.00243849 -0.0437098 0.498203
0.0021694 -0.0445928 0.499307
0.00189976 -0.0454796 0.500414
0.00163594 -0.0463581 0.501266
0.00137714 -0.0472298 0.501916
0.00111489 -0.0481091 0.502678
0.000850432 -0.0489928 0.503477
0.000585938 -0.0498767 0.504236
0.00032464 -0.0507581 0.504897
5.75252e-05 -0.0516499 0.505711
-0.00109261 -0.0523706 0.507813
-0.000213982 -0.0525508 0.506635
0.00896207 -0.0246664 0.484293
0.00872992 -0.0254793 0.484276
0.00850235 -0.0262892 0.483913
0.00827496 -0.0270986 0.483601
0.00804629 -0.0279079 0.483369
0.00781589 -0.0287175 0.483234
0.00758909 -0.0295242 0.482916
0.00735748 -0.0303348 0.482901
0.00712542 -0.0311456 0.482901
0.00688853 -0.0319614 0.483156
0.00664833 -0.0327816 0.483583
0.00640752 -0.0336038 0.484035
0.00616489 -0.0344286 0.484532
0.00592025 -0.0352569 0.485109
0.00567419 -0.0360889 0.485745
0.00542624 -0.036925 0.486455
0.00517209 -0.0377704 0.48739
0.00491269 -0.0386258 0.488544
0.00464652 -0.0394942 0.489966
0.00437483 -0.0403722 0.491536
0.00410316 -0.0412544 0.493078
0.00382303 -0.0421516 0.494884
0.00354342 -0.0430527 0.496635
0.00327028 -0.0439444 0.498033
0.00300365 -0.0448279 0.499135
0.00273846 -0.0457102 0.500133
0.00247907 -0.0465829 0.50086
0.00222304 -0.0474517 0.501455
0.00196359 -0.048328 0.50216
0.00170158 -0.049209 0.502914
0.00143943 -0.050092 0.503659
0.0011795 -0.0509721 0.504306
0.000917347 -0.0518569 0.505001
0.000652644 -0.0527477 0.50576
0.0097897 -0.0248889 0.482648
0.00955632 -0.0256999 0.482737
0.00932663 -0.0265092 0.482581
0.00909806 -0.0273171 0.482335
0.00886874 -0.0281252 0.482167
0.00863793 -0.0289337 0.482084
0.00841117 -0.0297387 0.481771
0.00817958 -0.0305478 0.481766
0.007947 -0.0313579 0.481818
0.00771145 -0.0321724 0.482077
0.00747083 -0.0329932 0.482597
0.00722909 -0.0338165 0.483147
0.00698749 -0.0346404 0.483655
0.00674325 -0.0354692 0.484285
0.00649671 -0.0363029 0.485012
0.00624999 -0.0371385 0.485725
0.00599768 -0.0379837 0.486674
0.00573937 -0.0388402 0.487876
0.00547399 -0.0397103 0.489356
0.00520484 -0.0405901 0.490974
0.0049319 -0.0414782 0.492676
0.00465274 -0.0423802 0.49459
0.00437287 -0.0432863 0.496457
0.004101 -0.0441812 0.497913
0.00383624 -0.0450651 0.499013
0.00357358 -0.0459451 0.499954
0.00331763 -0.0468154 0.500619
0.00306249 -0.0476838 0.501207
0.00280513 -0.0485572 0.501855
0.00254479 -0.0494384 0.502609
0.00228545 -0.0503184 0.503298
0.00202829 -0.051195 0.503884
0.00177071 -0.0520733 0.504467
0.00150913 -0.0529597 0.505156
0.0106149 -0.0251084 0.480759
0.0103801 -0.0259186 0.481092
0.0101476 -0.0267279 0.481213
0.00991801 -0.0275341 0.481027
0.00968779 -0.0283415 0.480963
0.0094567 -0.029149 0.480933
0.00922842 -0.0299537 0.48072
0.00899688 -0.0307623 0.480768
0.00876454 -0.031571 0.480828
0.00852937 -0.0323842 0.481091
0.00829005 -0.0332039 0.48161
0.00804991 -0.0340262 0.482166
0.00780868 -0.0348503 0.482725
0.00756524 -0.0356797 0.483413
0.00731926 -0.036514 0.484195
0.00707266 -0.0373504 0.484965
0.00682087 -0.0381966 0.485965
0.00656383 -0.0390549 0.487229
0.00629735 -0.0399319 0.488915
0.00602863 -0.040816 0.490644
0.00575588 -0.0417089 0.492461
0.00547798 -0.0426157 0.494476
0.00520037 -0.043525 0.496396
0.00493171 -0.0444184 0.497802
0.00466914 -0.0453004 0.498852
0.00441013 -0.0461782 0.499733
0.00415606 -0.0470454 0.500334
0.00390389 -0.0479109 0.500859
0.00364907 -0.0487818 0.501459
0.00339111 -0.0496598 0.502158
0.00313447 -0.0505366 0.502789
0.00287868 -0.0514121 0.503362
0.00262343 -0.0522869 0.503893
0.00236647 -0.0531667 0.504474
0.0116603 -0.0245242 0.479398
0.0114292 -0.0253303 0.479481
0.0111948 -0.0261389 0.479844
0.010962 -0.0269469 0.480026
0.0107324 -0.0277527 0.479943
0.0105015 -0.0285592 0.479937
0.0102704 -0.029366 0.479956
0.0100413 -0.0301698 0.479793
0.00981003 -0.030977 0.47984
0.00957874 -0.0317847 0.479901
0.00934459 -0.0325956 0.480117
0.00910585 -0.0334152 0.480685
0.0088664 -0.0342376 0.481288
0.0086257 -0.0350624 0.481911
0.00838235 -0.0358926 0.482658
0.00813623 -0.036729 0.483539
0.00789115 -0.037565 0.484311
0.00764109 -0.0384125 0.48536
0.00738496 -0.0392724 0.48668
0.00711865 -0.0401552 0.488527
0.00684929 -0.041046 0.490431
0.00657561 -0.0419483 0.492472
0.00629967 -0.0428589 0.494556
0.00602392 -0.0437715 0.496525
0.00575869 -0.0446629 0.49786
0.00549962 -0.0455429 0.498845
0.00524495 -0.0464137 0.499566
0.00499302 -0.0472783 0.500111
0.0047428 -0.048141 0.500578
0.00448906 -0.0490113 0.501168
0.00423421 -0.0498868 0.501814
0.00397696 -0.0507661 0.502496
0.00372227 -0.0516416 0.503069
0.00346811 -0.0525162 0.503594
0.00321336 -0.0533923 0.504119
0.00210279 -0.054062 0.505283
0.00295411 -0.0542801 0.504804
0.0126976 -0.0239442 0.47845
0.0124663 -0.0247491 0.478587
0.0122362 -0.0255538 0.478605
0.0120034 -0.0263611 0.47893
0.0117713 -0.0271674 0.479077
0.0115416 -0.0279724 0.479037
0.0113109 -0.0287775 0.479035
0.0110801 -0.0295832 0.479065
0.0108512 -0.0303859 0.47891
0.0106198 -0.0311926 0.479
0.0103886 -0.0320001 0.479107
0.0101554 -0.03281 0.479315
0.00991761 -0.0336285 0.47988
0.00967852 -0.0344511 0.480527
0.00943913 -0.0352753 0.481155
0.00919683 -0.0361063 0.481957
0.00895252 -0.0369427 0.482851
0.00870847 -0.0377793 0.483661
0.00845978 -0.0386259 0.484701
0.00820483 -0.0394888 0.486115
0.00793793 -0.0403797 0.488186
0.00766717 -0.0412822 0.490385
0.00739246 -0.0421951 0.492673
0.00711691 -0.0431139 0.494921
0.00684425 -0.0440275 0.496873
0.0065841 -0.0449126 0.498035
0.0063287 -0.0457878 0.498895
0.00607727 -0.0466538 0.499501
0.00582773 -0.0475164 0.499994
0.00557945 -0.0483761 0.500399
0.00532811 -0.0492439 0.500935
0.00507517 -0.050116 0.501517
0.0048194 -0.0509955 0.502203
0.00456542 -0.0518713 0.502781
0.00431203 -0.0527459 0.503308
0.0040573 -0.0536253 0.503885
0.00380046 -0.0545094 0.50451
0.00258845 -0.0554312 0.509653
0.00354574 -0.0553896 0.505038
0.0137293 -0.0233673 0.477947
0.0134986 -0.0241715 0.478087
0.0132684 -0.0249755 0.478127
0.0130387 -0.025779 0.478067
0.0128067 -0.0265851 0.478335
0.0125759 -0.0273904 0.478431
0.0123463 -0.0281945 0.478397
0.0121159 -0.0289988 0.478395
0.0118856 -0.0298038 0.478428
0.0116568 -0.0306057 0.478275
0.011426 -0.0314107 0.478321
0.0111945 -0.0322181 0.478472
0.0109622 -0.0330272 0.47868
0.0107258 -0.033844 0.479194
0.0104885 -0.0346658 0.479832
0.0102499 -0.0354905 0.480503
0.0100094 -0.0363197 0.481262
0.00976727 -0.0371542 0.48211
0.00952464 -0.0379898 0.482911
0.00927749 -0.0388388 0.484034
0.00902181 -0.0397084 0.48565
0.00875349 -0.0406119 0.488061
0.00848126 -0.0415289 0.490615
0.00820493 -0.0424568 0.493241
0.00793104 -0.0433806 0.495561
0.00766306 -0.0442913 0.497397
0.00740899 -0.0451675 0.498319
0.00715767 -0.0460355 0.499
0.00690917 -0.0468969 0.499494
0.00666119 -0.0477573 0.499936
0.00641466 -0.0486145 0.500286
0.00616522 -0.0494793 0.500759
0.00591346 -0.0503507 0.501329
0.00566002 -0.0512278 0.501964
0.00540676 -0.0521043 0.502553
0.00515284 -0.0529828 0.503147
0.0048975 -0.0538654 0.503775
0.00464331 -0.0547467 0.504347
0.00439031 -0.0556233 0.504819
0.00318484 -0.0565522 0.509902
0.00413607 -0.0565049 0.505342
0.0142989 -0.0243987 0.477769
0.0140689 -0.0252023 0.477777
0.0138396 -0.0260048 0.477651
0.0136084 -0.0268098 0.477847
0.013378 -0.0276141 0.477903
0.0131481 -0.028418 0.477912
0.0129179 -0.0292216 0.477903
0.0126879 -0.030026 0.477937
0.0124585 -0.0308279 0.477829
0.012228 -0.0316325 0.477877
0.0119972 -0.0324385 0.477983
0.0117661 -0.0332463 0.478148
0.0115321 -0.0340603 0.478563
0.0112964 -0.0348788 0.479098
0.0110594 -0.0357023 0.479749
0.0108205 -0.0365308 0.480505
0.0105814 -0.0373616 0.481252
0.010341 -0.0381947 0.482002
0.0100955 -0.0390441 0.483159
0.00984083 -0.0399189 0.484938
0.00957158 -0.0408374 0.487749
0.00929718 -0.0417732 0.490774
0.00902029 -0.042717 0.493756
0.00874763 -0.0436487 0.496218
0.00848357 -0.044558 0.497972
0.00823451 -0.045423 0.49861
0.00798788 -0.0462813 0.499061
0.00774183 -0.0471378 0.499442
0.00749575 -0.0479959 0.499831
0.00725 -0.048851 0.500137
0.0070029 -0.0497124 0.500542
0.00675234 -0.0505833 0.501098
0.00650014 -0.0514599 0.501725
0.00624639 -0.0523402 0.502381
0.00599157 -0.0532263 0.503095
0.00573564 -0.0541133 0.503791
0.00548098 -0.0549984 0.504417
0.00522926 -0.0558756 0.504887
0.00497689 -0.0567541 0.505355
0.00378265 -0.0576735 0.510132
0.00472519 -0.0576302 0.505765
0.0153279 -0.0238229 0.477555
0.0150977 -0.0246259 0.477511
0.0148682 -0.0254291 0.477488
0.0146386 -0.0262309 0.477329
0.0144084 -0.0270354 0.477475
0.0141784 -0.0278392 0.477528
0.0139485 -0.0286427 0.477536
0.0137188 -0.0294459 0.477525
0.013489 -0.030249 0.477508
0.0132599 -0.0310495 0.47735
0.0130299 -0.0318534 0.477392
0.0127995 -0.0326588 0.477496
0.0125688 -0.0334648 0.477615
0.0123353 -0.0342783 0.478027
0.0121013 -0.0350961 0.478548
0.0118663 -0.035916 0.479087
0.0116293 -0.0367423 0.479786
0.011392 -0.0375706 0.480475
0.0111544 -0.0383998 0.481122
0.0109109 -0.0392482 0.482274
0.0106551 -0.0401392 0.484514
0.0103859 -0.0410728 0.487713
0.0101118 -0.0420248 0.491117
0.00983464 -0.0429862 0.494481
0.00956438 -0.0439262 0.497078
0.00930692 -0.0448236 0.498504
0.00906169 -0.0456787 0.498896
0.00881745 -0.0465319 0.499218
0.00857357 -0.0473839 0.499494
0.0083284 -0.0482401 0.499836
0.00808329 -0.0490955 0.500143
0.00783751 -0.0499539 0.500485
0.00758877 -0.0508216 0.500978
0.00733792 -0.0516983 0.501598
0.00708432 -0.0525826 0.502317
0.0068289 -0.0534732 0.503103
0.00657256 -0.054368 0.503915
0.00631765 -0.0552577 0.504603
0.00606627 -0.0561354 0.505072
0.00581512 -0.0570112 0.50549
0.00556521 -0.0578846 0.505849
0.00437626 -0.0588111 0.510576
0.00531512 -0.0587577 0.50619
0.0161267 -0.0240506 0.477352
0.0158967 -0.0248533 0.477275
0.015667 -0.025656 0.477229
0.0154375 -0.0264576 0.47707
0.0152074 -0.0272612 0.47716
0.0149781 -0.0280637 0.477117
0.0147482 -0.0288658 0.477068
0.0145188 -0.0296678 0.477011
0.0142894 -0.0304685 0.476897
0.0140607 -0.0312673 0.476689
0.0138309 -0.0320701 0.476721
0.0136005 -0.0328755 0.476867
0.0133699 -0.0336818 0.477033
0.0131379 -0.0344948 0.477443
0.012905 -0.0353119 0.477954
0.0126714 -0.0361296 0.478437
0.0124366 -0.0369536 0.479072
0.0122017 -0.0377768 0.479619
0.0119664 -0.0386013 0.480153
0.0117254 -0.0394465 0.481239
0.0114744 -0.0403342 0.483399
0.0112073 -0.0412819 0.486974
0.0109343 -0.0422511 0.490803
0.0106588 -0.0432308 0.494582
0.0103899 -0.0441816 0.497397
0.0101313 -0.045091 0.499067
0.0098904 -0.0459346 0.499178
0.00964829 -0.0467804 0.49933
0.00940564 -0.04763 0.499544
0.0091616 -0.048484 0.499836
0.00891755 -0.0493371 0.500092
0.00867234 -0.0501956 0.50043
0.00842482 -0.0510633 0.500915
0.00817557 -0.0519373 0.501484
0.00792203 -0.0528253 0.502261
0.00766721 -0.0537203 0.503109
0.0074114 -0.0546165 0.503937
0.00715744 -0.0555067 0.504625
0.006906 -0.0563881 0.505143
0.00665603 -0.0572647 0.505562
0.00640622 -0.0581381 0.505918
0.00615758 -0.0590079 0.506205
0.00506693 -0.059624 0.506419
0.00591148 -0.0598698 0.506366
0.0169251 -0.0242786 0.47729
0.0166953 -0.0250814 0.477211
0.0164657 -0.0258842 0.477158
0.0162357 -0.026685 0.476911
0.0160061 -0.027488 0.476945
0.0157763 -0.0282895 0.476843
0.015547 -0.0290906 0.476738
0.0153173 -0.0298913 0.476631
0.015088 -0.0306908 0.476465
0.0148589 -0.0314887 0.476249
0.0146299 -0.0322899 0.476225
0.0144002 -0.0330938 0.476323
0.0141701 -0.0338996 0.476496
0.0139389 -0.0347122 0.476911
0.0137072 -0.0355263 0.47733
0.0134745 -0.0363432 0.477804
0.0132415 -0.0371649 0.478382
0.0130083 -0.037984 0.478821
0.0127747 -0.0388041 0.479247
0.012537 -0.0396445 0.480214
0.0122863 -0.0405485 0.482837
0.0120221 -0.0415102 0.486757
0.0117523 -0.0424967 0.49098
0.0114793 -0.0434922 0.495092
0.0112121 -0.044458 0.4982
0.0109595 -0.0453546 0.499531
0.0107195 -0.0461933 0.499514
0.0104789 -0.0470346 0.499552
0.0102376 -0.0478794 0.499658
0.00999445 -0.0487313 0.499898
0.00975176 -0.0495814 0.500088
0.00950746 -0.0504372 0.500373
0.00926157 -0.0513025 0.500807
0.00901301 -0.0521769 0.501377
0.00876022 -0.0530684 0.502209
0.00850574 -0.0539673 0.503114
0.00825118 -0.0548643 0.503944
0.00799853 -0.055755 0.504629
0.00774716 -0.0566398 0.505192
0.00749838 -0.0575129 0.505555
0.00724992 -0.0583832 0.505861
0.0070021 -0.0592533 0.506146
0.00675561 -0.0601147 0.506303
0.00558005 -0.0610456 0.510815
0.00651229 -0.060965 0.506299
0.0177235 -0.0245062 0.477096
0.0174936 -0.0253089 0.47704
0.0172638 -0.0261117 0.477002
0.0170338 -0.0269123 0.476751
0.0168042 -0.0277147 0.476731
0.0165741 -0.028515 0.476565
0.0163446 -0.0293152 0.476408
0.0161149 -0.0301138 0.476196
0.0158856 -0.0309116 0.475973
0.0156567 -0.0317078 0.4757
0.0154275 -0.0325072 0.475627
0.0151985 -0.0333094 0.475685
0.014969 -0.0341147 0.475861
0.014738 -0.0349279 0.476332
0.0145076 -0.0357416 0.476755
0.014276 -0.0365579 0.477225
0.0140441 -0.0373775 0.477753
0.0138118 -0.0381939 0.478131
0.0135803 -0.0390081 0.478402
0.0133468 -0.0398349 0.479003
0.0130977 -0.0407541 0.482055
0.0128388 -0.0417275 0.486257
0.0125739 -0.0427266 0.490758
0.0123052 -0.0437387 0.495222
0.0120391 -0.0447273 0.498815
0.0117909 -0.0456113 0.499826
0.0115512 -0.046448 0.499753
0.0113107 -0.0472874 0.499742
0.0110701 -0.0481297 0.499786
0.010828 -0.0489786 0.499958
0.0105859 -0.0498258 0.500087
0.0103423 -0.0506817 0.500366
0.0100973 -0.0515445 0.500752
0.00984953 -0.0524196 0.501329
0.00959792 -0.0533146 0.502205
0.00934475 -0.0542139 0.503108
0.00909242 -0.0551083 0.503887
0.0088405 -0.0559987 0.504565
0.00859095 -0.0568799 0.505068
0.00834379 -0.057749 0.505368
0.00809586 -0.0586197 0.505678
0.00784814 -0.05949 0.505969
0.00760215 -0.0603524 0.506135
0.00735814 -0.0612064 0.506183
0.00618721 -0.0621463 0.510694
0.00711482 -0.0620568 0.506179
0.018522 -0.0247338 0.476914
0.0182923 -0.0255366 0.476873
0.0180621 -0.0263392 0.476848
0.0178315 -0.0271395 0.476592
0.0176018 -0.0279417 0.476566
0.017372 -0.0287414 0.476347
0.0171418 -0.0295404 0.476137
0.0169121 -0.030337 0.475822
0.0166822 -0.0311333 0.475542
0.0164529 -0.0319267 0.475166
0.0162239 -0.0327244 0.47504
0.015995 -0.0335258 0.475097
0.0157654 -0.0343314 0.475323
0.0155362 -0.0351457 0.475843
0.0153062 -0.0359604 0.47632
0.0150756 -0.0367764 0.476793
0.0148447 -0.0375924 0.477213
0.0146136 -0.0384064 0.477532
0.0143833 -0.0392146 0.477646
0.0141524 -0.0400278 0.477891
0.0139067 -0.0409657 0.481445
0.0136535 -0.0419499 0.485894
0.0133945 -0.0429628 0.490695
0.0131312 -0.043986 0.495374
0.0128682 -0.0449947 0.499376
0.0126238 -0.0458629 0.500005
0.0123838 -0.0467004 0.49994
0.0121437 -0.0475403 0.499925
0.0119034 -0.0483806 0.499921
0.0116619 -0.0492267 0.500029
0.0114207 -0.0500706 0.500089
0.0111783 -0.0509235 0.500307
0.0109343 -0.0517805 0.500589
0.0106883 -0.0526524 0.501106
0.0104381 -0.0535474 0.501981
0.0101865 -0.0544469 0.502883
0.00993559 -0.0553418 0.503665
0.00968467 -0.0562323 0.504342
0.00943609 -0.0571128 0.504834
0.00918949 -0.0579811 0.505125
0.00894221 -0.0588518 0.505436
0.00869498 -0.0597228 0.505735
0.00844833 -0.0605895 0.505964
0.00820347 -0.0614477 0.506068
0.00796015 -0.062298 0.506064
0.0193197 -0.0249611 0.47671
0.0190899 -0.0257639 0.476696
0.01886 -0.0265662 0.47664
0.0186286 -0.0273657 0.476339
0.0183989 -0.0281676 0.476309
0.0181687 -0.0289663 0.476039
0.0179381 -0.0297641 0.475783
0.0177074 -0.0305593 0.475416
0.0174779 -0.031355 0.475129
0.0172478 -0.0321474 0.47474
0.0170185 -0.0329434 0.474568
0.0167901 -0.0337441 0.474615
0.0165612 -0.0345503 0.474884
0.0163329 -0.0353632 0.475362
0.0161037 -0.0361762 0.475793
0.0158742 -0.0369932 0.476312
0.0156445 -0.0378071 0.476679
0.015414 -0.0386172 0.476895
0.0151843 -0.0394224 0.476945
0.0149544 -0.040225 0.476923
0.0147145 -0.0411719 0.480708
0.014468 -0.0421648 0.485348
0.0142157 -0.0431928 0.490478
0.0139594 -0.0442251 0.495323
0.013701 -0.0452521 0.499695
0.0134581 -0.046114 0.500165
0.013218 -0.0469522 0.500104
0.0129781 -0.0477877 0.499994
0.0127374 -0.0486282 0.499988
0.0124968 -0.0494715 0.500035
0.0122563 -0.0503125 0.500035
0.0120141 -0.0511621 0.500195
0.0117713 -0.052019 0.500469
0.0115266 -0.0528879 0.500932
0.0112778 -0.0537792 0.501742
0.0110283 -0.0546788 0.502639
0.010778 -0.055574 0.503427
0.0105295 -0.0564622 0.504063
0.0102813 -0.0573423 0.504553
0.0100351 -0.0582136 0.504886
0.0097882 -0.0590836 0.50519
0.00954134 -0.0599555 0.505502
0.00929483 -0.0608266 0.505791
0.0090479 -0.0616971 0.506058
0.00880358 -0.0625522 0.506114
0.020118 -0.0251889 0.476581
0.0198883 -0.0259916 0.476572
0.0196576 -0.0267934 0.476472
0.0194262 -0.0275929 0.476171
0.0191962 -0.028394 0.476091
0.0189652 -0.0291923 0.475819
0.018734 -0.0299891 0.475518
0.0185033 -0.030784 0.475151
0.0182728 -0.0315782 0.474817
0.0180422 -0.0323701 0.474424
0.0178123 -0.0331635 0.474154
0.0175836 -0.0339624 0.474149
0.017356 -0.0347671 0.474367
0.0171278 -0.0355779 0.474792
0.0168998 -0.036389 0.475174
0.0166713 -0.0372053 0.475691
0.016442 -0.0380169 0.476005
0.0162129 -0.0388261 0.476214
0.0159832 -0.0396283 0.476208
0.0157538 -0.0404225 0.475982
0.0155189 -0.0413993 0.480541
0.0152799 -0.0424024 0.485385
0.0150356 -0.0434399 0.490677
0.0147864 -0.0444816 0.495676
0.0145344 -0.0455246 0.50034
0.0142944 -0.0463556 0.500112
0.0140536 -0.0471962 0.500102
0.013813 -0.0480342 0.500042
0.0135724 -0.0488751 0.500037
0.0133318 -0.0497159 0.500033
0.0130912 -0.0505567 0.500028
0.0128505 -0.0514007 0.500079
0.0126086 -0.0522513 0.500243
0.0123652 -0.0531161 0.500636
0.0121189 -0.0540038 0.501383
0.0118702 -0.054903 0.502277
0.0116212 -0.0558024 0.503128
0.011373 -0.0566947 0.503829
0.0111256 -0.0575754 0.504326
0.0108796 -0.0584501 0.504709
0.0106333 -0.05932 0.505009
0.0103868 -0.060192 0.505324
0.0101398 -0.0610675 0.505672
0.0098913 -0.0619512 0.506113
0.00964649 -0.0628122 0.50624
0.0209155 -0.0254161 0.476375
0.0206852 -0.0262183 0.476328
0.0204546 -0.0270197 0.476202
0.0202226 -0.0278187 0.475904
0.0199919 -0.0286188 0.475763
0.0197604 -0.0294165 0.475495
0.0195294 -0.0302137 0.475238
0.019298 -0.0310083 0.474886
0.0190674 -0.031803 0.474597
0.0188367 -0.0325948 0.474207
0.0186064 -0.0333868 0.473886
0.0183772 -0.0341841 0.473832
0.0181498 -0.0349871 0.473994
0.0179224 -0.035795 0.474316
0.0176947 -0.0366038 0.474637
0.0174667 -0.0374178 0.475095
0.0172385 -0.0382274 0.475364
0.0170094 -0.0390358 0.475579
0.0167805 -0.0398373 0.475574
0.0165506 -0.0406285 0.475295
0.0163234 -0.0415727 0.478978
0.0153721 -0.0457197 0.499261
0.0151304 -0.0465944 0.500001
0.0148899 -0.0474324 0.499939
0.0146497 -0.0482676 0.499821
0.014409 -0.049108 0.499812
0.0141685 -0.0499486 0.499807
0.013928 -0.0507896 0.499808
0.0136867 -0.0516362 0.49991
0.0134454 -0.0524896 0.500121
0.0132029 -0.0533511 0.500456
0.012958 -0.0542354 0.501144
0.0127106 -0.055134 0.502026
0.0124631 -0.0560336 0.502876
0.0122162 -0.0569272 0.503593
0.0119695 -0.0578086 0.504101
0.0117235 -0.0586869 0.504537
0.0114782 -0.0595569 0.504836
0.0112324 -0.0604292 0.505153
0.010985 -0.0613091 0.505561
0.0107357 -0.0622064 0.506178
0.0104894 -0.0630777 0.506435
0.0217133 -0.0256438 0.476255
0.0214825 -0.0264455 0.476141
0.0212512 -0.0272461 0.475954
0.0210184 -0.0280446 0.475654
0.0207875 -0.028844 0.475485
0.0205556 -0.0296414 0.475218
0.020325 -0.0304391 0.475014
0.0200938 -0.0312352 0.474762
0.0198629 -0.0320299 0.474479
0.0196316 -0.0328226 0.474144
0.0194005 -0.0336142 0.473816
0.0191715 -0.0344106 0.473713
0.0189435 -0.0352119 0.473813
0.0187164 -0.0360181 0.474075
0.0184886 -0.0368237 0.47429
0.0182618 -0.0376359 0.47469
0.0180341 -0.038445 0.474958
0.0178053 -0.03925 0.475081
0.0175759 -0.0400494 0.475039
0.0173462 -0.0408402 0.47477
0.0171226 -0.0417439 0.477397
0.0162068 -0.0459072 0.498036
0.0159666 -0.0468329 0.499884
0.0157264 -0.0476709 0.499819
0.0154857 -0.0485058 0.499698
0.0152452 -0.0493459 0.499684
0.0150046 -0.0501893 0.499731
0.014764 -0.0510336 0.499791
0.0145229 -0.0518782 0.499853
0.0142818 -0.0527319 0.500066
0.0140395 -0.05359 0.500342
0.0137964 -0.0544674 0.500913
0.0135514 -0.0553597 0.501691
0.0133053 -0.0562622 0.502587
0.0130593 -0.0571561 0.503307
0.0128133 -0.0580416 0.503874
0.0125675 -0.0589241 0.50437
0.012322 -0.0597977 0.504721
0.0120766 -0.0606741 0.50509
0.0118293 -0.061563 0.505614
0.0115792 -0.0624704 0.506358
0.0113322 -0.0633528 0.506749
0.0223018 -0.0266886 0.477725
0.0220467 -0.0274721 0.475707
0.0218142 -0.0282707 0.475424
0.0215826 -0.0290692 0.475216
0.0213509 -0.0298664 0.474949
0.0211198 -0.0306645 0.474805
0.0208896 -0.0314623 0.474654
0.0206581 -0.0322572 0.474389
0.0204267 -0.0330508 0.4741
0.0201953 -0.0338425 0.473775
0.0199658 -0.0346374 0.473611
0.019737 -0.035436 0.473613
0.0195097 -0.0362392 0.473768
0.0192821 -0.0370416 0.473878
0.019055 -0.03785 0.474173
0.0188274 -0.0386566 0.474383
0.018599 -0.0394593 0.474458
0.01837 -0.0402596 0.474462
0.0181405 -0.0410516 0.474246
0.0179173 -0.0419148 0.475844
0.0170363 -0.0460439 0.495732
0.0168017 -0.0470248 0.498792
0.0165624 -0.0479092 0.499699
0.0163219 -0.0487468 0.49963
0.016081 -0.0495895 0.499665
0.0158405 -0.0504364 0.499773
0.0155995 -0.0512847 0.499901
0.0153591 -0.0521332 0.500022
0.0151176 -0.0529875 0.500238
0.0148761 -0.0538431 0.500461
0.0146341 -0.0547143 0.500923
0.0143908 -0.0555992 0.501575
0.0141461 -0.0564978 0.502406
0.0139014 -0.0573881 0.503071
0.0136568 -0.0582743 0.503645
0.0134111 -0.0591609 0.5042
0.0131662 -0.0600425 0.504658
0.0129204 -0.0609235 0.505089
0.0126727 -0.0618259 0.505786
0.0124228 -0.0627478 0.506707
0.0121748 -0.0636451 0.507275
0.022882 -0.0277306 0.478355
0.0226252 -0.0285118 0.476389
0.022378 -0.0292952 0.475008
0.0221465 -0.0300929 0.474798
0.0219163 -0.0308919 0.474703
0.0216861 -0.0316906 0.474604
0.0214543 -0.0324857 0.474349
0.0212228 -0.0332795 0.474069
0.0209908 -0.0340711 0.473739
0.0207597 -0.0348644 0.473518
0.0205304 -0.0356604 0.47342
0.020303 -0.036462 0.473522
0.0200749 -0.0372625 0.473582
0.0198478 -0.0380676 0.473775
0.0196202 -0.0388717 0.473922
0.0193915 -0.0396717 0.473936
0.0191627 -0.0404693 0.473886
0.0189327 -0.0412602 0.473664
0.0187073 -0.0420832 0.47426
0.0177002 -0.0428744 0.479641
0.0184917 -0.0429977 0.476997
0.0178579 -0.0461724 0.493299
0.0176332 -0.0472098 0.497576
0.0173981 -0.0481453 0.499536
0.017158 -0.0489885 0.499577
0.0169175 -0.049835 0.49968
0.0166769 -0.0506857 0.499854
0.0164365 -0.0515378 0.50004
0.0161958 -0.0523901 0.50022
0.0159546 -0.0532418 0.500383
0.0157136 -0.0540938 0.500539
0.015472 -0.0549614 0.500935
0.0152299 -0.0558389 0.501464
0.014987 -0.0567303 0.502178
0.0147433 -0.0576195 0.502827
0.0144994 -0.0585062 0.503407
0.0142553 -0.0593936 0.503971
0.0140105 -0.0602838 0.504548
0.0137649 -0.0611776 0.505147
0.0135172 -0.0620945 0.506028
0.0132679 -0.0630237 0.507031
0.0130201 -0.0639314 0.507717
0.0234577 -0.02877 0.478566
0.0231886 -0.0295372 0.475889
0.0229415 -0.0303188 0.474603
0.0227132 -0.0311202 0.474652
0.0224838 -0.0319207 0.47465
0.0222527 -0.0327179 0.474487
0.0220202 -0.0335111 0.474169
0.021788 -0.0343039 0.473882
0.0215564 -0.0350963 0.47361
0.0213258 -0.035891 0.473454
0.0210979 -0.03669 0.473459
0.0208685 -0.0374874 0.473417
0.0206407 -0.0382877 0.473459
0.0204124 -0.0390879 0.473501
0.0201831 -0.0398833 0.473401
0.0199536 -0.0406781 0.473295
0.019724 -0.04147 0.473124
0.0194935 -0.0422552 0.472799
0.019276 -0.0431245 0.474489
0.018451 -0.0472886 0.494204
0.0182259 -0.0482796 0.497351
0.0179903 -0.0491772 0.498503
0.0177541 -0.0500782 0.49965
0.0175142 -0.050936 0.499947
0.0172739 -0.0517916 0.500191
0.0170332 -0.052647 0.500414
0.0167923 -0.0534988 0.500567
0.0165515 -0.0543481 0.50067
0.0163103 -0.0552086 0.500946
0.0160692 -0.0560785 0.501351
0.0158273 -0.0569618 0.501939
0.015585 -0.0578472 0.502529
0.0153423 -0.0587342 0.503114
0.0150984 -0.0596258 0.503738
0.0148545 -0.0605249 0.504435
0.0146095 -0.0614322 0.505212
0.0143626 -0.0623602 0.50623
0.0141149 -0.063296 0.507303
0.013867 -0.0642181 0.50816
0.0248179 -0.0257201 0.504822
0.026006 -0.025142 0.510091
0.025713 -0.0259812 0.507489
0.0253759 -0.0267888 0.502271
0.0243025 -0.0290343 0.481031
0.0240061 -0.0297835 0.476991
0.0237388 -0.0305475 0.474593
0.0235107 -0.0313493 0.474649
0.0232824 -0.0321511 0.47469
0.0230509 -0.0329484 0.474528
0.0228167 -0.0337405 0.474167
0.0225842 -0.0345335 0.473882
0.0223523 -0.0353258 0.473604
0.0221205 -0.0361178 0.473346
0.0218904 -0.0369135 0.473245
0.0216609 -0.037709 0.473145
0.0214319 -0.0385054 0.473083
0.0212027 -0.0393016 0.473019
0.0209727 -0.0400943 0.472863
0.0207431 -0.0408864 0.472705
0.0205132 -0.0416774 0.472534
0.0202833 -0.0424661 0.472316
0.0200616 -0.043296 0.473077
0.0185707 -0.0500966 0.495464
0.018338 -0.0510101 0.496878
0.0181042 -0.051929 0.498304
0.0178687 -0.0528461 0.499622
0.0176317 -0.0537582 0.500786
0.01739 -0.0546045 0.500835
0.0171492 -0.0554621 0.501054
0.0169084 -0.0563252 0.501347
0.0166675 -0.0572042 0.501863
0.0164261 -0.0580858 0.502393
0.016184 -0.0589727 0.502975
0.0159417 -0.0598661 0.503618
0.0156983 -0.0607777 0.504482
0.0154545 -0.061695 0.505384
0.0152089 -0.0626334 0.506524
0.0149625 -0.0635762 0.507671
0.0147159 -0.0645083 0.508637
0.0271212 -0.0245312 0.510775
0.0268562 -0.0253847 0.509832
0.0265674 -0.0262256 0.507641
0.0248295 -0.030033 0.478221
0.0245361 -0.0307758 0.474541
0.024308 -0.0315778 0.474605
0.0240794 -0.0323795 0.47464
0.0238487 -0.0331779 0.474524
0.0236132 -0.033969 0.474117
0.0233804 -0.0347622 0.473839
0.0231476 -0.0355542 0.473554
0.0229139 -0.0363432 0.473193
0.0226819 -0.0371341 0.472936
0.0224517 -0.0379272 0.472771
0.0222212 -0.0387196 0.472604
0.0219909 -0.0395116 0.472438
0.0217615 -0.040305 0.472326
0.0215322 -0.0410982 0.472215
0.021303 -0.0418911 0.472107
0.0210739 -0.0426836 0.471998
0.0208449 -0.043476 0.471892
0.0198563 -0.0442304 0.476139
0.0206353 -0.0443609 0.473856
0.0191497 -0.0510551 0.493337
0.0189273 -0.0520466 0.496103
0.0187013 -0.0530393 0.498741
0.0184717 -0.0540211 0.501058
0.0182305 -0.0548653 0.50106
0.0179896 -0.0557201 0.501227
0.0177488 -0.0565797 0.501459
0.017508 -0.0574513 0.501857
0.0172673 -0.0583295 0.502331
0.0170264 -0.059217 0.502915
0.0167849 -0.0601112 0.503565
0.016543 -0.0610317 0.504542
0.0163007 -0.0619546 0.505507
0.0160569 -0.0628984 0.506705
0.0158123 -0.0638424 0.507856
0.0155668 -0.064784 0.508928
0.0276505 -0.0228148 0.512521
0.0279064 -0.0219525 0.512949
0.0287694 -0.0221975 0.513037
0.0285115 -0.0230597 0.512557
0.0273859 -0.0236744 0.511685
0.0282432 -0.0239189 0.511627
0.0279755 -0.024775 0.510652
0.0277058 -0.0256271 0.509569
0.0274398 -0.0264768 0.50861
0.0262586 -0.0270489 0.504319
0.0271508 -0.0273122 0.506505
0.0253536 -0.0310234 0.47557
0.0251055 -0.0318063 0.474557
0.0248769 -0.032608 0.474587
0.0246466 -0.0334074 0.474515
0.0244107 -0.0341986 0.474111
0.0241773 -0.0349919 0.473839
0.023944 -0.0357839 0.473552
0.0237088 -0.0365712 0.473134
0.0234748 -0.0373587 0.472765
0.0232425 -0.038148 0.47249
0.0230112 -0.0389382 0.472267
0.0227803 -0.0397282 0.472058
0.0225508 -0.0405214 0.471952
0.0223215 -0.0413143 0.471849
0.0220929 -0.042109 0.471793
0.0218644 -0.0429034 0.471739
0.021636 -0.0436979 0.471689
0.0214186 -0.0445383 0.472656
0.0204251 -0.0452609 0.476012
0.0212011 -0.0453854 0.473698
0.0195227 -0.0531494 0.496483
0.0193058 -0.0542103 0.500126
0.0190713 -0.055124 0.501249
0.0188303 -0.0559764 0.50137
0.0185891 -0.0568324 0.501542
0.0183489 -0.0577005 0.501879
0.0181092 -0.0585782 0.502338
0.0178688 -0.0594668 0.502932
0.0176287 -0.0603655 0.503636
0.0173886 -0.0612916 0.504679
0.0171475 -0.0622226 0.505741
0.0169056 -0.0631641 0.506893
0.0166627 -0.0641039 0.507978
0.0164187 -0.065046 0.509046
0.0298907 -0.0215787 0.513543
0.0296248 -0.0224423 0.512817
0.0293652 -0.0233042 0.512291
0.0290962 -0.0241627 0.511387
0.0288256 -0.0250179 0.510357
0.0285518 -0.0258685 0.509161
0.0282825 -0.0267165 0.508112
0.0280129 -0.0275606 0.507016
0.0268096 -0.0281109 0.501768
0.0276954 -0.028375 0.503702
0.0262009 -0.0312955 0.477886
0.0259255 -0.0320572 0.475633
0.0256782 -0.0328406 0.474724
0.0254476 -0.0336404 0.474652
0.025211 -0.0344319 0.474251
0.0249763 -0.0352243 0.473935
0.0247415 -0.0360151 0.473599
0.0245039 -0.0367995 0.473078
0.0242675 -0.0375835 0.472602
0.0240331 -0.0383691 0.472222
0.0238008 -0.0391573 0.471951
0.0235689 -0.0399453 0.471698
0.0233402 -0.04074 0.471644
0.0231117 -0.0415347 0.471594
0.0228838 -0.0423311 0.47159
0.0226559 -0.0431275 0.471585
0.022428 -0.0439239 0.471581
0.0222001 -0.0447203 0.471577
0.0219722 -0.0455168 0.471572
0.0209918 -0.0462809 0.475666
0.0217532 -0.0463511 0.472342
0.0207814 -0.0471863 0.477706
0.0215341 -0.0471908 0.473168
0.0201337 -0.0543704 0.498737
0.0199101 -0.0553588 0.501061
0.0196696 -0.0562111 0.50118
0.0194293 -0.0570707 0.501404
0.0191903 -0.0579458 0.501842
0.0189515 -0.0588309 0.502404
0.0187125 -0.0597208 0.503005
0.0184733 -0.0606243 0.503768
0.0182349 -0.0615555 0.504866
0.0179954 -0.0624876 0.50593
0.0177553 -0.0634258 0.507027
0.0175137 -0.0643656 0.5081
0.0172711 -0.0653077 0.509157
0.0307503 -0.0218238 0.513453
0.0304846 -0.0226873 0.512754
0.0302221 -0.0235487 0.512173
0.0299489 -0.0244065 0.511145
0.0296733 -0.0252602 0.509996
0.0293975 -0.0261098 0.508788
0.0291255 -0.0269565 0.507687
0.028853 -0.0277991 0.506551
0.0285604 -0.0286269 0.504495
0.0267737 -0.0323325 0.477848
0.0265003 -0.0330945 0.475816
0.0262499 -0.0338741 0.474807
0.0260126 -0.0346658 0.474408
0.0257762 -0.0354572 0.474042
0.0255399 -0.0362468 0.473657
0.0252993 -0.0370279 0.473028
0.0250603 -0.0378086 0.47245
0.0248243 -0.0385921 0.472014
0.0245915 -0.03938 0.471742
0.0243595 -0.040168 0.471495
0.0241316 -0.0409643 0.47149
0.0239037 -0.0417608 0.471486
0.0236758 -0.0425572 0.471482
0.0234479 -0.0433536 0.471477
0.02322 -0.04415 0.471473
0.0229914 -0.0449443 0.471423
0.0227629 -0.0457382 0.471369
0.0225324 -0.0465245 0.471164
0.0223013 -0.047307 0.470897
0.0213145 -0.0480341 0.47401
0.0220703 -0.048088 0.470616
0.0210943 -0.0488818 0.474885
0.0218402 -0.0488712 0.470394
0.0209443 -0.054444 0.495984
0.0207287 -0.0554473 0.498588
0.0204981 -0.0563655 0.499767
0.0202603 -0.0572332 0.500141
0.0200241 -0.0581246 0.500841
0.0197886 -0.0590298 0.501704
0.0195585 -0.0600012 0.503445
0.0193205 -0.0609076 0.50423
0.0190843 -0.0618444 0.505381
0.018846 -0.0627746 0.506401
0.0186067 -0.0637088 0.507429
0.0183662 -0.0646415 0.508395
0.0181252 -0.0655748 0.509331
0.0313424 -0.0229322 0.51263
0.0310754 -0.023793 0.511919
0.0307975 -0.0246495 0.510785
0.0305186 -0.0255019 0.509571
0.0302407 -0.0263504 0.508353
0.0299641 -0.027195 0.507149
0.0296906 -0.0280366 0.506019
0.0294227 -0.0288768 0.505073
0.0282124 -0.0294139 0.499989
0.029101 -0.0296824 0.501917
0.0276331 -0.0326132 0.480221
0.0273296 -0.0333527 0.47705
0.0270546 -0.0341097 0.475033
0.0268163 -0.0349017 0.474629
0.026577 -0.0356905 0.474158
0.0263388 -0.0364786 0.473715
0.0260959 -0.0372579 0.473026
0.0258547 -0.0380366 0.472391
0.0256171 -0.0388184 0.471906
0.0253839 -0.0396062 0.471634
0.0251514 -0.040394 0.471387
0.0249235 -0.0411904 0.471382
0.0246956 -0.0419868 0.471378
0.0244677 -0.0427832 0.471374
0.0242398 -0.0435796 0.471369
0.0240112 -0.044374 0.471319
0.0237818 -0.0451657 0.471216
0.0235524 -0.0459567 0.471106
0.0233208 -0.0467401 0.470848
0.0230894 -0.0475221 0.470581
0.0228588 -0.0483054 0.470354
0.0226292 -0.0490913 0.470187
0.0216368 -0.0497849 0.472516
0.0224144 -0.0499408 0.471156
0.0208241 -0.0580665 0.496437
0.0206039 -0.0590606 0.498644
0.0203893 -0.0601298 0.501787
0.0201634 -0.0611293 0.503852
0.0199364 -0.0621447 0.50604
0.0196987 -0.0630678 0.506945
0.0194602 -0.0639938 0.50785
0.0192202 -0.0649141 0.508645
0.0189791 -0.0658344 0.509412
0.017896 -0.0668364 0.514164
0.0187585 -0.0671076 0.51435
0.0324621 -0.0223143 0.512992
0.0321955 -0.0231768 0.512344
0.0319216 -0.0240363 0.511432
0.0316408 -0.0248915 0.510256
0.0313584 -0.0257423 0.508985
0.0310771 -0.0265889 0.50771
0.0307986 -0.0274321 0.506498
0.0305237 -0.0282723 0.505369
0.0302543 -0.0291112 0.504416
0.0299617 -0.0299335 0.502547
0.0287545 -0.0304597 0.49764
0.0296456 -0.0307338 0.499712
0.028183 -0.0336309 0.479107
0.0278788 -0.0343648 0.47604
0.0276198 -0.0351363 0.474794
0.0273796 -0.0359253 0.474318
0.0271391 -0.036712 0.473816
0.0268938 -0.0374894 0.47307
0.0266504 -0.0382663 0.47238
0.0264108 -0.0390463 0.471844
0.0261763 -0.0398323 0.471526
0.0259434 -0.04062 0.471279
0.0257155 -0.0414164 0.471274
0.0254876 -0.0422128 0.47127
0.0252589 -0.0430073 0.47122
0.0250301 -0.0438014 0.471166
0.0248004 -0.0445931 0.471061
0.02457 -0.0453819 0.470902
0.0243395 -0.0461699 0.470736
0.0241084 -0.0469546 0.470517
0.0238774 -0.0477388 0.470301
0.0236475 -0.0485252 0.470137
0.0234186 -0.049314 0.470029
0.0231898 -0.050103 0.469929
0.0222324 -0.0509512 0.474843
0.0229964 -0.0510387 0.47234
0.0212032 -0.0601681 0.498912
0.020995 -0.0612689 0.50238
0.0207835 -0.0623791 0.505826
0.0205563 -0.0633848 0.507786
0.0203168 -0.0642942 0.508455
0.0200763 -0.0652007 0.509064
0.0198351 -0.0661084 0.509662
0.0335867 -0.0216953 0.513443
0.0333176 -0.0225594 0.512769
0.0330489 -0.0234214 0.512088
0.0327664 -0.0242793 0.510945
0.032484 -0.0251334 0.509773
0.0321981 -0.0259826 0.508447
0.0319132 -0.0268275 0.507115
0.0316313 -0.0276687 0.505846
0.0313529 -0.0285067 0.504654
0.0310824 -0.0293443 0.503701
0.030818 -0.0301815 0.502933
0.0305304 -0.0310017 0.501301
0.0287346 -0.0346483 0.478145
0.0284458 -0.0353943 0.475825
0.0281814 -0.0361585 0.474415
0.0279389 -0.0369438 0.473865
0.0276923 -0.0377212 0.473117
0.0274465 -0.0384963 0.472377
0.027206 -0.039276 0.471837
0.0269697 -0.0400603 0.471468
0.0267363 -0.0408478 0.471217
0.0265075 -0.0416425 0.471167
0.0262796 -0.0424389 0.471162
0.0260497 -0.0432312 0.471062
0.0258198 -0.0440228 0.470954
0.025589 -0.0448116 0.470791
0.0253572 -0.0455973 0.470575
0.0251256 -0.0463822 0.470355
0.0248952 -0.0471691 0.470189
0.024665 -0.0479558 0.47003
0.0244359 -0.048745 0.469926
0.0242078 -0.0495367 0.469872
0.0239797 -0.0503285 0.469822
0.0237722 -0.0511973 0.47108
0.0228169 -0.0520539 0.475942
0.0235793 -0.0521334 0.473381
0.0216147 -0.0625003 0.504138
0.0214033 -0.063598 0.507291
0.0211752 -0.0645911 0.509011
0.0209341 -0.0654877 0.509481
0.0207305 -0.0667497 0.514319
0.0344514 -0.0219406 0.513469
0.0341796 -0.0228046 0.512748
0.0339083 -0.0236663 0.512023
0.033619 -0.0245231 0.510729
0.0333295 -0.0253755 0.509395
0.0330397 -0.0262232 0.508012
0.0327511 -0.0270665 0.506626
0.0324672 -0.0279065 0.505353
0.032187 -0.0287434 0.504159
0.0319153 -0.0295799 0.503211
0.0316516 -0.0304171 0.502503
0.0313908 -0.0312534 0.501869
0.0301953 -0.0317832 0.497872
0.0310835 -0.0320567 0.499606
0.0295967 -0.0349333 0.480222
0.0292744 -0.0356524 0.476817
0.0289825 -0.0363904 0.474459
0.0287406 -0.0371774 0.473964
0.0284939 -0.0379565 0.473271
0.0282457 -0.03873 0.47248
0.0280029 -0.0395081 0.471889
0.0277646 -0.0402902 0.471461
0.0275296 -0.0410758 0.471159
0.0272995 -0.0418685 0.471059
0.0270716 -0.0426649 0.471054
0.0268405 -0.043455 0.470904
0.0266092 -0.0442439 0.470738
0.0263767 -0.0450294 0.47051
0.0261437 -0.0458123 0.470243
0.0259111 -0.0465948 0.469986
0.0256816 -0.0473842 0.469876
0.0254524 -0.0481734 0.469773
0.0252242 -0.0489653 0.469723
0.0249969 -0.0497596 0.469718
0.0247696 -0.050554 0.469714
0.0245465 -0.0513626 0.469951
0.024339 -0.0522297 0.471132
0.0233879 -0.0530925 0.475931
0.0241342 -0.0531152 0.472545
0.0353083 -0.0221861 0.513265
0.0350348 -0.0230496 0.512528
0.0347617 -0.0239107 0.511782
0.0344663 -0.0247662 0.510374
0.0341729 -0.0256172 0.508982
0.0338809 -0.0264638 0.507596
0.0335885 -0.0273054 0.506161
0.0333027 -0.0281442 0.504883
0.0330207 -0.02898 0.50369
0.0327477 -0.0298155 0.502745
0.0324849 -0.0306528 0.502096
0.0322249 -0.0314894 0.501519
0.0319449 -0.0323109 0.500269
0.0307506 -0.0328324 0.496365
0.0316424 -0.0331117 0.498225
0.030133 -0.0359373 0.47875
0.0298073 -0.0366469 0.47534
0.0295388 -0.0374068 0.47392
0.0292927 -0.0381874 0.473283
0.0290431 -0.0389609 0.472495
0.0287993 -0.0397388 0.471901
0.0285588 -0.0405187 0.471415
0.028323 -0.0413039 0.471102
0.0280914 -0.0420945 0.470951
0.0278635 -0.042891 0.470947
0.027631 -0.0436788 0.470746
0.0273982 -0.0444651 0.470526
0.0271643 -0.0452478 0.470244
0.0269308 -0.0460302 0.469974
0.0266981 -0.0468126 0.469723
0.0264697 -0.0476045 0.469669
0.0262414 -0.0483965 0.469619
0.0260141 -0.0491908 0.469615
0.0257868 -0.0499851 0.469611
0.0255595 -0.0507794 0.469606
0.0253368 -0.0515882 0.469844
0.0251143 -0.0523993 0.470105
0.0248944 -0.0532215 0.47053
0.0239286 -0.0540074 0.473991
0.0246742 -0.0540451 0.470954
0.0237082 -0.0548469 0.474566
0.0244542 -0.0548726 0.471416
0.0234993 -0.0557426 0.475944
0.0242321 -0.0556946 0.471776
0.0232787 -0.0565926 0.476599
0.0240128 -0.0565317 0.472334
0.0361535 -0.0224313 0.512758
0.03588 -0.0232939 0.512044
0.0356044 -0.0241539 0.511259
0.0353071 -0.0250081 0.509856
0.0350117 -0.0258579 0.508468
0.0347216 -0.0267042 0.507193
0.0344272 -0.0275447 0.505762
0.0341434 -0.0283838 0.504599
0.0338597 -0.0292189 0.503411
0.0335853 -0.0300537 0.502467
0.0333215 -0.0308904 0.501816
0.0330606 -0.0317264 0.501239
0.0328074 -0.0325649 0.500883
0.0325354 -0.0333893 0.499922
0.0306698 -0.0369392 0.477399
0.0303671 -0.0376683 0.474903
0.0300942 -0.0384212 0.473378
0.0298436 -0.0391951 0.472603
0.0295985 -0.0399727 0.472001
0.0293568 -0.0407524 0.471505
0.029119 -0.0415357 0.47114
0.0288848 -0.0423227 0.470894
0.0286568 -0.0431191 0.470888
0.0284227 -0.0439048 0.470639
0.0281872 -0.0446866 0.470323
0.0279528 -0.0454688 0.470036
0.0277189 -0.0462509 0.469766
0.0274859 -0.0470333 0.46952
0.0272586 -0.0478276 0.469516
0.0270313 -0.0486219 0.469512
0.026804 -0.0494162 0.469507
0.0265767 -0.0502105 0.469503
0.0263484 -0.0510021 0.469453
0.0261251 -0.0518079 0.469641
0.0259021 -0.0526159 0.469851
0.025682 -0.0534349 0.470227
0.0254607 -0.0542521 0.470554
0.0252413 -0.0550785 0.471004
0.0250197 -0.0558993 0.47135
0.0248016 -0.0567362 0.471909
0.0238105 -0.0574505 0.474013
0.0245816 -0.0575696 0.472394
0.02363 -0.0584867 0.477227
0.0243854 -0.0585108 0.474327
0.0369996 -0.0226763 0.512304
0.0367253 -0.023538 0.511599
0.0364486 -0.0243971 0.510813
0.0361518 -0.0252505 0.509477
0.0358567 -0.0260997 0.508154
0.0355694 -0.0269463 0.507007
0.0352752 -0.0277867 0.505644
0.0349916 -0.0286261 0.504543
0.034706 -0.0294606 0.503355
0.0344301 -0.0302951 0.502409
0.0341632 -0.0311307 0.501701
0.0339014 -0.0319664 0.501125
0.0336494 -0.0328058 0.50082
0.033407 -0.0336504 0.500797
0.0322014 -0.0341637 0.496939
0.0331041 -0.0344514 0.498928
0.0312264 -0.0379597 0.476794
0.030921 -0.0386827 0.474296
0.0306443 -0.039429 0.472694
0.0303998 -0.0402088 0.472151
0.0301585 -0.0409904 0.471701
0.0299186 -0.0417719 0.471283
0.0296811 -0.0425551 0.47094
0.0294516 -0.0433496 0.470881
0.0292157 -0.044133 0.470581
0.0289784 -0.0449124 0.470215
0.0287434 -0.0456944 0.469929
0.0285092 -0.0464764 0.469658
0.0282758 -0.0472587 0.469413
0.0280473 -0.0480506 0.469363
0.0278189 -0.0488422 0.469309
0.0275904 -0.0496335 0.469254
0.0273621 -0.0504248 0.469201
0.0271328 -0.0512131 0.469102
0.0269097 -0.0520184 0.469284
0.0266869 -0.0528255 0.469488
0.0264675 -0.0536438 0.469856
0.0262458 -0.0544571 0.470128
0.0260261 -0.0552793 0.47052
0.0258041 -0.056096 0.470813
0.0255859 -0.0569284 0.471314
0.0253652 -0.0577545 0.471707
0.0251495 -0.0586034 0.47239
0.0242092 -0.0595583 0.477593
0.0249544 -0.0595442 0.474261
0.0378491 -0.022921 0.511962
0.0375726 -0.023782 0.511226
0.0372942 -0.0246403 0.510426
0.0369975 -0.025493 0.509145
0.0366989 -0.0263409 0.507784
0.0364148 -0.0271877 0.506767
0.0361213 -0.0280282 0.505478
0.0358387 -0.0288679 0.504446
0.035551 -0.0297019 0.503253
0.0352751 -0.0305366 0.502352
0.035005 -0.0313709 0.501587
0.0347423 -0.0322064 0.50101
0.0344897 -0.0330456 0.500705
0.0342455 -0.0338891 0.500631
0.0339742 -0.0347133 0.499765
0.0327642 -0.035216 0.495858
0.0336659 -0.0355061 0.49779
0.0317834 -0.0389796 0.476236
0.0314734 -0.0396946 0.473678
0.0312009 -0.0404437 0.472266
0.0309602 -0.0412273 0.471863
0.030718 -0.0420071 0.471398
0.0304783 -0.0427884 0.471002
0.0302469 -0.0435803 0.470881
0.0300102 -0.0443633 0.47057
0.0297709 -0.0451405 0.470157
0.0295356 -0.0459226 0.469872
0.0293008 -0.0467044 0.4696
0.0290668 -0.0474866 0.469351
0.0288359 -0.0482735 0.469206
0.028606 -0.0490619 0.469098
0.028376 -0.0498498 0.468986
0.0281464 -0.0506376 0.468878
0.0279146 -0.0514199 0.468683
0.0276919 -0.0522242 0.468859
0.0274684 -0.0530275 0.469007
0.0272484 -0.053842 0.469322
0.0270262 -0.0546513 0.469544
0.0268073 -0.0554728 0.469933
0.026584 -0.0562821 0.470129
0.0263659 -0.0571102 0.470579
0.0261449 -0.0579312 0.470913
0.0259294 -0.0587751 0.471539
0.0257142 -0.0596242 0.472207
0.0247568 -0.0604873 0.476083
0.0254966 -0.0604684 0.472785
0.0245578 -0.0614385 0.477933
0.0252793 -0.061318 0.473405
0.0386961 -0.0231655 0.511575
0.0384169 -0.0240256 0.510803
0.0381388 -0.0248832 0.510036
0.0378462 -0.0257358 0.508902
0.0375477 -0.0265834 0.507597
0.0372669 -0.0274308 0.506701
0.036976 -0.0282722 0.505531
0.036692 -0.0291118 0.50451
0.0364021 -0.0299454 0.503311
0.0361224 -0.0307791 0.50235
0.0358487 -0.0316121 0.501524
0.0355831 -0.0324463 0.500896
0.0353301 -0.0332855 0.500591
0.0350837 -0.0341276 0.500461
0.0348424 -0.0349728 0.500469
0.0345665 -0.0357925 0.499505
0.0333249 -0.0362643 0.494779
0.0342586 -0.036583 0.4976
0.0326538 -0.0392799 0.478217
0.0323067 -0.039962 0.474682
0.0320027 -0.0406789 0.47238
0.0317632 -0.0414651 0.472038
0.03152 -0.0422449 0.471568
0.0312775 -0.0430236 0.471107
0.0310426 -0.0438111 0.470879
0.030805 -0.0445938 0.470561
0.0305638 -0.0453689 0.470103
0.030328 -0.0461511 0.469821
0.0300927 -0.0469328 0.469547
0.0298569 -0.0477122 0.469247
0.0296229 -0.0484935 0.468999
0.0293912 -0.0492785 0.468832
0.0291595 -0.0500625 0.468656
0.0289272 -0.0508441 0.46845
0.0286938 -0.0516223 0.468199
0.0284692 -0.0524203 0.468279
0.0282437 -0.0532168 0.468333
0.0280222 -0.0540243 0.468551
0.0278006 -0.0548325 0.46877
0.0275816 -0.05565 0.469114
0.0273591 -0.0564584 0.469313
0.0271417 -0.0572848 0.469753
0.0269214 -0.0581042 0.470079
0.0267059 -0.0589425 0.470642
0.0264921 -0.0597904 0.471307
0.0262769 -0.0606375 0.471934
0.0260622 -0.0614913 0.472618
0.0250624 -0.0621736 0.474076
0.0258478 -0.0623508 0.473347
0.0248431 -0.063024 0.474657
0.02563 -0.0632013 0.473937
0.0246192 -0.0638558 0.474994
0.0254067 -0.0640314 0.474264
0.0395502 -0.0234102 0.511373
0.0392698 -0.0242698 0.510597
0.0389901 -0.0251268 0.509825
0.0387006 -0.0259796 0.508803
0.0384022 -0.0268271 0.50755
0.038122 -0.0276747 0.506706
0.0378318 -0.0285165 0.505598
0.0375461 -0.0293559 0.504577
0.037254 -0.0301892 0.503374
0.0369701 -0.0310217 0.502349
0.0366927 -0.0318534 0.501466
0.0364239 -0.0326863 0.500781
0.0361704 -0.0335253 0.500476
0.0359217 -0.0343661 0.500289
0.0356779 -0.0352095 0.50023
0.0354324 -0.0360514 0.500121
0.0351582 -0.0368709 0.499232
0.0338988 -0.0373217 0.494146
0.0348342 -0.0376456 0.496943
0.0331493 -0.0402365 0.475852
0.0328098 -0.0409194 0.472631
0.0325714 -0.0417082 0.472343
0.0323271 -0.0424882 0.471867
0.0320803 -0.0432631 0.471304
0.0318413 -0.0440461 0.470968
0.0316017 -0.0448267 0.4706
0.0313584 -0.0455997 0.4701
0.0311209 -0.0463801 0.469779
0.0308849 -0.0471613 0.469497
0.0306483 -0.0479402 0.469187
0.0304108 -0.0487159 0.468837
0.0301774 -0.0494976 0.468615
0.0299426 -0.0502755 0.468338
0.0297071 -0.0510505 0.468026
0.0294696 -0.0518194 0.467632
0.0292412 -0.0526073 0.467562
0.029012 -0.053393 0.46746
0.0287898 -0.0541956 0.467623
0.0285676 -0.0549994 0.467794
0.0283499 -0.0558162 0.468147
0.0281292 -0.0566268 0.468395
0.027914 -0.0574552 0.468877
0.0276944 -0.0582729 0.469195
0.0274791 -0.0591066 0.469709
0.0272666 -0.059953 0.470368
0.0270527 -0.0607988 0.470992
0.0268397 -0.0616523 0.471687
0.026628 -0.0625152 0.472468
0.0264135 -0.0633726 0.473152
0.0261931 -0.0642099 0.473575
0.0251843 -0.0648682 0.474656
0.0259746 -0.065059 0.474117
0.040132 -0.0245148 0.510605
0.039852 -0.0253718 0.509855
0.0395677 -0.0262256 0.508989
0.0392674 -0.027073 0.507742
0.0389832 -0.0279202 0.506839
0.0386932 -0.0287625 0.505783
0.0384032 -0.0296011 0.504703
0.038107 -0.0304334 0.50345
0.0378185 -0.0312645 0.502356
0.0375392 -0.0320958 0.501461
0.0372647 -0.0329263 0.500666
0.0370108 -0.0337652 0.500362
0.0367595 -0.0346045 0.500119
0.0365111 -0.0354449 0.499945
0.0362588 -0.0362817 0.499663
0.0360144 -0.0371235 0.499583
0.0357251 -0.037929 0.498316
0.0340165 -0.040533 0.47759
0.0336369 -0.0411807 0.473412
0.0333675 -0.0419363 0.472264
0.033124 -0.0427182 0.471836
0.0328776 -0.0434943 0.471308
0.0326362 -0.044275 0.470916
0.0323959 -0.0450554 0.470547
0.0321517 -0.0458284 0.47005
0.0319137 -0.0466087 0.469729
0.0316772 -0.0473898 0.469444
0.0314384 -0.0481658 0.469081
0.0311973 -0.0489359 0.468632
0.0309619 -0.0497143 0.468354
0.030724 -0.0504864 0.467985
0.0304838 -0.0512522 0.467528
0.030244 -0.0520164 0.46707
0.0300124 -0.0527962 0.466884
0.029779 -0.0535711 0.46663
0.0295542 -0.054365 0.466677
0.0293325 -0.0551669 0.466839
0.0291134 -0.0559765 0.467104
0.0288937 -0.0567862 0.467359
0.0286811 -0.057617 0.467894
0.0284637 -0.0584373 0.468262
0.0282497 -0.0592702 0.468782
0.0280397 -0.060119 0.469484
0.0278283 -0.0609674 0.470152
0.0276175 -0.0618227 0.47088
0.0274075 -0.0626853 0.471667
0.0271945 -0.0635419 0.472352
0.0269781 -0.0643905 0.472917
0.0267642 -0.0652528 0.473619
0.0409952 -0.02476 0.510626
0.040715 -0.0256171 0.509898
0.040436 -0.0264719 0.50918
0.0401335 -0.0273192 0.507932
0.0398476 -0.0281664 0.507028
0.0395558 -0.0290087 0.505971
0.0392614 -0.0298465 0.504834
0.0389604 -0.0306777 0.503521
0.0386673 -0.0315074 0.502362
0.0383838 -0.0323373 0.501407
0.0381056 -0.0331663 0.500552
0.0378511 -0.034005 0.500247
0.0375973 -0.034843 0.499954
0.0373463 -0.0356817 0.49972
0.0370909 -0.0365165 0.499375
0.036844 -0.0373561 0.499232
0.0365872 -0.0381874 0.498835
0.0353293 -0.0386382 0.494167
0.036226 -0.0389303 0.495753
0.0344747 -0.0414509 0.4744
0.0341655 -0.0421664 0.472234
0.0339225 -0.0429494 0.471836
0.0336748 -0.0437253 0.471301
0.0334311 -0.0445038 0.470864
0.0331899 -0.0452838 0.470487
0.0329451 -0.0460568 0.469993
0.0327065 -0.046837 0.469672
0.0324695 -0.047618 0.469386
0.0322284 -0.0483912 0.468972
0.031985 -0.0491584 0.468473
0.0317477 -0.0499341 0.468152
0.031506 -0.0507 0.467681
0.031262 -0.0514589 0.46712
0.0310182 -0.0522156 0.466552
0.0307804 -0.0529821 0.466166
0.0305421 -0.0537453 0.465749
0.0303158 -0.0545335 0.465729
0.0300932 -0.0553305 0.465838
0.0298748 -0.0561385 0.466099
0.0296562 -0.0569474 0.466362
0.0294462 -0.0577806 0.466945
0.0292302 -0.0586006 0.467326
0.0290177 -0.0594332 0.467856
0.028808 -0.0602775 0.468514
0.028599 -0.0611275 0.469216
0.0283897 -0.0619815 0.469938
0.0281812 -0.0628425 0.470719
0.0279697 -0.0636982 0.471404
0.0277584 -0.064559 0.472125
0.0275497 -0.0654347 0.472987
0.0265443 -0.0660945 0.474062
0.0273377 -0.0663036 0.473743
0.041856 -0.025005 0.510589
0.0415794 -0.0258626 0.509958
0.0413051 -0.0267184 0.509368
0.0410031 -0.0275663 0.508174
0.0407157 -0.0284137 0.507273
0.0404238 -0.0292566 0.506256
0.0401227 -0.0300929 0.505016
0.0398192 -0.0309239 0.503698
0.0395212 -0.0317524 0.502476
0.0392333 -0.032581 0.501455
0.0389489 -0.0334075 0.500493
0.0386937 -0.0342461 0.500185
0.0384394 -0.035084 0.49989
0.038186 -0.0359214 0.49961
0.0379299 -0.0367559 0.49926
0.0376802 -0.0375937 0.499056
0.0374198 -0.0384224 0.498587
0.0370909 -0.0391938 0.49642
0.0353204 -0.0417266 0.475504
0.0349635 -0.0423963 0.472197
0.0347222 -0.0431822 0.471866
0.034474 -0.0439582 0.471337
